ply
format ascii 1.0
element vertex 1150
property float x
property float y
property float z
property uchar diffuse_red
property uchar diffuse_green
property uchar diffuse_blue
end_header
0.0581063 -0.0313341 -0.0278256 35 31 24
0.0570975 -0.0316113 -0.0288993 39 38 30
0.0560912 -0.0318877 -0.0299703 40 35 32
0.0548804 -0.0325458 -0.030969 38 34 36
0.0540862 -0.0324384 -0.0321044 45 41 34
0.0532919 -0.032331 -0.0332398 48 39 34
0.0527017 -0.0318408 -0.0344492 53 51 37
0.0529293 -0.0298037 -0.0359662 62 57 42
0.0535761 -0.0269512 -0.0376611 69 62 72
0.0540234 -0.0244491 -0.0393048 215 163 135
0.053841 -0.023128 -0.0407207 253 237 221
0.0534453 -0.0222046 -0.0420614 252 250 236
0.0530475 -0.0212762 -0.0434093 231 230 213
0.0528594 -0.0199303 -0.0448548 193 194 179
0.0533102 -0.0173187 -0.0465914 151 157 145
0.0533361 -0.0155167 -0.0481633 104 110 100
0.0527144 -0.0149782 -0.0494568 68 68 59
0.052737 -0.0131513 -0.0510549 56 51 44
0.0942554 -0.014478 0.00709864 33 26 26
0.0931349 -0.014796 0.00591157 24 14 15
0.0922887 -0.0146815 0.0047019 21 16 15
0.0914424 -0.014567 0.00349213 20 17 14
0.0905961 -0.0144525 0.00228229 17 18 15
0.0900182 -0.0139048 0.00104159 15 17 15
0.0894388 -0.0133556 -0.000202566 15 15 13
0.0891262 -0.0123679 -0.00148454 16 14 10
0.0559381 -0.056049 -0.00637625 21 18 15
0.0546317 -0.0569232 -0.00731535 22 19 14
0.0537115 -0.0571474 -0.00832269 20 20 15
0.0531697 -0.0567255 -0.00940518 19 20 15
0.0524387 -0.0566266 -0.0104502 19 18 14
0.0517076 -0.0565277 -0.0114953 19 20 14
0.0509764 -0.0564288 -0.0125405 24 22 18
0.0500602 -0.0566535 -0.0135421 15 19 14
0.0482344 -0.0584815 -0.0143192 17 15 14
0.0473288 -0.0587021 -0.0153108 15 14 13
0.0462466 -0.0592393 -0.0162538 15 16 11
0.0453463 -0.0594582 -0.0172398 18 20 14
0.0449776 -0.0587263 -0.0183695 26 28 19
0.0442537 -0.0586283 -0.0194043 35 31 23
0.0438814 -0.0578927 -0.0205417 35 29 24
0.0566052 -0.0301548 -0.0283754 43 41 31
0.0553899 -0.030819 -0.0293807 41 41 28
0.0541807 -0.0314798 -0.030381 39 37 31
0.0531817 -0.0317553 -0.0314463 43 40 32
0.0523884 -0.031648 -0.0325804 47 39 33
0.0517977 -0.0311574 -0.0337875 54 47 38
0.0516112 -0.0298941 -0.0351477 61 51 39
0.0524498 -0.026659 -0.0369069 65 55 58
0.0530962 -0.0237592 -0.0386215 180 128 119
0.0531205 -0.022031 -0.0401163 236 224 213
0.0527228 -0.0211046 -0.0414556 253 253 244
0.052323 -0.0201733 -0.0428019 248 249 235
0.0519211 -0.0192371 -0.0441554 220 222 203
0.0515169 -0.018296 -0.0455162 178 180 165
0.0519575 -0.0156678 -0.0472607 125 129 123
0.0517622 -0.0142812 -0.0487413 81 80 76
0.0511382 -0.013741 -0.0500358 62 51 44
0.0935105 -0.0133396 0.00773036 37 32 29
0.0923909 -0.013659 0.00654235 28 23 19
0.0915446 -0.0135445 0.0053326 20 15 14
0.0906982 -0.01343 0.00412276 18 14 11
0.0901204 -0.0128808 0.00288457 14 13 11
0.0895412 -0.0123302 0.00164293 13 13 14
0.0892288 -0.0113396 0.000365987 14 15 14
0.0889147 -0.0103436 -0.000918046 18 16 13
0.0554503 -0.0561394 -0.00468247 18 16 15
0.0545292 -0.0563645 -0.00569284 20 19 15
0.0537991 -0.0562657 -0.00673647 22 21 16
0.0530689 -0.0561669 -0.00778022 22 23 17
0.0523387 -0.0560681 -0.00882401 24 27 17
0.0517952 -0.0556448 -0.00990723 29 27 16
0.051064 -0.0555458 -0.0109524 34 23 14
0.0503327 -0.0554469 -0.0119977 37 24 19
0.0494172 -0.0556727 -0.013 27 22 18
0.0474154 -0.0578272 -0.0137375 26 21 19
0.046333 -0.0583665 -0.0146841 26 25 18
0.0454326 -0.0585864 -0.0156719 27 25 20
0.0447104 -0.0584886 -0.0167043 29 28 22
0.0439882 -0.0583909 -0.0177366 32 32 27
0.0436161 -0.0576564 -0.0188676 41 32 25
0.0561115 -0.0286944 -0.02785 39 38 28
0.0546884 -0.0297502 -0.0287911 38 41 28
0.0532761 -0.0307978 -0.029725 38 35 27
0.0522794 -0.0310737 -0.0307899 40 40 30
0.0512853 -0.0313489 -0.0318521 46 41 32
0.0508958 -0.0304757 -0.0331274 50 41 37
0.0505043 -0.0295979 -0.0344093 59 46 37
0.0507176 -0.0275464 -0.0359263 63 48 48
0.0521713 -0.0230709 -0.0379399 116 89 97
0.0521906 -0.0213413 -0.0394293 206 196 179
0.0520002 -0.0200044 -0.0408496 246 247 233
0.0513891 -0.0194824 -0.0421079 253 255 243
0.0509852 -0.0185455 -0.0434579 243 239 223
0.0503701 -0.0180195 -0.0447247 200 194 182
0.0499617 -0.0170751 -0.0460872 135 138 134
0.0503897 -0.014437 -0.0478363 84 84 81
0.0497663 -0.0138992 -0.0491245 64 54 49
0.0916468 -0.0125219 0.00717326 34 28 24
0.0908003 -0.0124073 0.00596341 30 26 21
0.0902227 -0.0118567 0.00472774 24 22 17
0.0896435 -0.0113047 0.0034886 22 20 16
0.0896009 -0.00987014 0.00218734 19 19 18
0.0557296 -0.0549309 -0.00312567 23 19 18
0.0546168 -0.0554827 -0.00410646 19 14 14
0.0538867 -0.0553839 -0.00515011 20 16 15
0.0529684 -0.0556095 -0.0061589 22 20 16
0.052239 -0.0555108 -0.00720149 23 23 16
0.0516959 -0.0550873 -0.0082815 25 26 17
0.0509655 -0.0549884 -0.00932546 31 27 17
0.0504202 -0.0545638 -0.0104094 37 27 17
0.0496889 -0.0544648 -0.0114547 35 26 19
0.0487741 -0.0546918 -0.0124578 31 30 20
0.0467774 -0.0568542 -0.0131997 29 21 23
0.0458744 -0.0570763 -0.0141916 28 28 21
0.0447967 -0.0576166 -0.0151362 32 33 25
0.0440744 -0.0575188 -0.0161686 33 32 23
0.0437025 -0.0567823 -0.0172959 38 33 25
0.0556163 -0.0272302 -0.0273232 32 30 27
0.0539867 -0.0286811 -0.0282013 33 31 29
0.052577 -0.0297327 -0.0291376 36 33 29
0.0513794 -0.0303937 -0.0301349 39 39 33
0.0503875 -0.0306694 -0.0311967 44 42 33
0.0497963 -0.0301794 -0.0323977 46 40 34
0.0492035 -0.0296881 -0.0336018 53 43 35
0.0492072 -0.0280341 -0.0350328 59 45 40
0.0508368 -0.0231883 -0.0371021 75 63 74
0.0514708 -0.0202453 -0.0388255 176 154 131
0.0510691 -0.0193153 -0.0401598 228 225 197
0.0504575 -0.0187931 -0.0414155 249 251 233
0.0498442 -0.0182694 -0.0426747 253 247 236
0.049436 -0.0173293 -0.0440264 218 209 206
0.0486126 -0.0172178 -0.0452033 151 153 149
0.0481999 -0.0162724 -0.0465654 94 93 91
0.0484052 -0.0140558 -0.0482205 68 59 56
0.047574 -0.0139433 -0.0494086 61 58 49
0.0900559 -0.0112699 0.00659434 39 31 23
0.0897458 -0.010279 0.00533447 36 29 22
0.0897036 -0.00884026 0.00404081 38 29 22
0.0562022 -0.0533912 -0.00159475 42 37 27
0.0550857 -0.0539479 -0.00258143 28 24 24
0.0541638 -0.0541757 -0.00359553 21 15 14
0.0532441 -0.054403 -0.00460729 19 13 13
0.0523264 -0.0546298 -0.00561678 20 18 14
0.0515969 -0.054531 -0.00665945 21 20 14
0.0508673 -0.0544322 -0.00770217 23 20 15
0.0503225 -0.0540075 -0.00878292 27 22 16
0.0497764 -0.0535816 -0.00986633 31 27 17
0.049045 -0.0534826 -0.0109117 32 28 19
0.0481308 -0.0537107 -0.0119154 34 31 20
0.0474001 -0.0536118 -0.0129598 35 31 25
0.0452369 -0.0561042 -0.0136544 29 29 26
0.0445129 -0.0560062 -0.0146892 33 33 26
0.0437889 -0.0559081 -0.0157241 33 33 25
0.0549111 -0.0261555 -0.0267302 31 30 24
0.053285 -0.0276119 -0.0276114 34 33 29
0.0518779 -0.0286675 -0.02855 34 33 30
0.0504814 -0.0297151 -0.0294816 37 37 29
0.0494918 -0.0299913 -0.0305429 43 40 30
0.0489001 -0.029501 -0.0317416 45 41 31
0.0483069 -0.0290095 -0.0329435 46 41 37
0.0479096 -0.0281302 -0.0342219 50 47 39
0.049108 -0.024101 -0.0361163 63 57 61
0.050132 -0.020374 -0.0379798 144 100 93
0.0499341 -0.0190385 -0.039389 199 181 151
0.0495282 -0.0181053 -0.0407249 238 235 204
0.0487092 -0.0179944 -0.0418956 252 252 240
0.0478901 -0.0178835 -0.0430663 240 239 241
0.047274 -0.0173593 -0.0443262 192 190 190
0.0464537 -0.0172482 -0.0454987 127 118 118
0.0458348 -0.0167224 -0.0467636 79 66 65
0.0464309 -0.0136764 -0.0486026 65 58 48
0.0456018 -0.0135641 -0.0497878 65 56 45
0.0544416 -0.0529647 -0.00203711 35 31 30
0.0535204 -0.0531936 -0.00305191 22 17 18
0.0526012 -0.0534221 -0.00406438 18 12 12
0.0518709 -0.0533231 -0.00510825 17 16 13
0.0509547 -0.0535511 -0.00611731 17 16 13
0.0502251 -0.0534522 -0.00716011 19 15 13
0.0494953 -0.0533534 -0.008203 22 16 13
0.0489488 -0.0529273 -0.00928448 22 22 14
0.0484009 -0.0525002 -0.0103686 27 23 17
0.0476694 -0.0524011 -0.0114141 31 24 18
0.0473012 -0.051643 -0.0125447 31 29 22
0.0467493 -0.0512128 -0.0136367 26 24 23
0.0463775 -0.0504492 -0.0147767 29 25 21
0.0542057 -0.0250806 -0.0261372 30 29 25
0.0525832 -0.0265424 -0.0270215 32 31 27
0.0511786 -0.0276021 -0.0279624 34 33 27
0.0497847 -0.0286538 -0.0288962 36 35 29
0.0487959 -0.0289312 -0.0299584 40 36 31
0.0482033 -0.0284395 -0.0311565 46 41 34
0.047609 -0.0279466 -0.0323576 45 39 35
0.0468172 -0.0278393 -0.0334893 52 46 35
0.0474012 -0.0250019 -0.035143 62 54 54
0.0488034 -0.0205016 -0.0371406 118 87 82
0.0490091 -0.018353 -0.0387036 154 118 127
0.0483969 -0.0178314 -0.0399527 228 183 167
0.0475799 -0.0177207 -0.0411204 255 238 225
0.046965 -0.0171976 -0.0423745 253 255 248
0.0461468 -0.0170868 -0.0435438 226 230 226
0.0453286 -0.016976 -0.0447133 160 159 160
0.0445102 -0.0168651 -0.0458828 92 86 84
0.0436919 -0.0167543 -0.0470524 65 60 49
0.0438653 -0.0145611 -0.0486958 65 57 45
0.0430414 -0.0144495 -0.0498733 64 51 40
0.0536081 -0.0523104 -0.00146317 46 37 31
0.0528768 -0.0522114 -0.00250818 29 21 20
0.0521456 -0.0521123 -0.00355327 20 11 15
0.0512279 -0.052342 -0.00456533 16 11 15
0.0503124 -0.052571 -0.00557509 17 13 14
0.0495827 -0.0524721 -0.00661796 20 13 13
0.0483055 -0.0533536 -0.00755131 19 14 13
0.0481231 -0.0522743 -0.00870392 17 16 12
0.0479392 -0.0511876 -0.00986472 21 14 12
0.0473887 -0.0507574 -0.0109522 23 15 14
0.0472013 -0.0496601 -0.0121266 23 16 17
0.0471959 -0.0482183 -0.0133532 24 17 17
0.0535002 -0.0240056 -0.025544 29 28 23
0.0518812 -0.0254728 -0.0264314 33 30 24
0.0506805 -0.0261469 -0.0274396 34 34 24
0.0490879 -0.0275922 -0.0283108 36 37 27
0.0482971 -0.027485 -0.0294409 39 36 30
0.0475062 -0.0273779 -0.0305712 41 37 34
0.046911 -0.0268835 -0.0317717 44 40 34
0.0461191 -0.0267762 -0.0329035 48 45 36
0.0464996 -0.0243236 -0.0344776 58 52 48
0.047485 -0.020628 -0.0363078 98 75 75
0.0478835 -0.0180794 -0.0379395 135 132 113
0.0474737 -0.0171473 -0.0392665 177 148 136
0.0466577 -0.0170367 -0.0404327 229 196 201
0.0458415 -0.0169261 -0.041599 251 240 244
0.0450255 -0.0168156 -0.0427654 246 251 245
0.0442092 -0.016705 -0.0439319 205 219 209
0.043393 -0.0165944 -0.0450984 139 164 144
0.0425766 -0.0164838 -0.0462651 82 100 84
0.0419556 -0.0159596 -0.0475248 62 58 61
0.0415282 -0.0150182 -0.0488828 63 57 47
0.0405142 -0.0153232 -0.0499578 60 50 42
0.0396955 -0.0152122 -0.0511278 55 53 43
0.0384941 -0.0159306 -0.0520995 56 50 36
0.053153 -0.0509978 -0.000948161 55 39 27
0.0522332 -0.051229 -0.00196439 38 27 20
0.0515018 -0.0511298 -0.00300953 23 14 16
0.0507704 -0.0510307 -0.00405478 17 12 16
0.0498542 -0.0512615 -0.00506638 18 13 13
0.0489402 -0.0514918 -0.00607571 19 13 10
0.0476652 -0.0523766 -0.00701103 17 16 11
0.0474804 -0.051294 -0.00816183 18 17 12
0.0472942 -0.0502037 -0.00932077 20 14 13
0.0472892 -0.0487712 -0.0105283 21 14 13
0.0472841 -0.0473252 -0.0117473 22 14 15
0.0527946 -0.0229303 -0.0249507 29 28 23
0.0511791 -0.024403 -0.0258412 31 29 25
0.04998 -0.0250798 -0.026851 33 33 25
0.0483909 -0.0265304 -0.0277253 36 36 28
0.0476 -0.0264232 -0.0288555 38 35 29
0.0470049 -0.0259276 -0.0300538 41 36 32
0.0462129 -0.0258203 -0.0311856 45 40 33
0.04581 -0.0249327 -0.0324598 48 45 38
0.0456001 -0.0236469 -0.0338138 55 50 45
0.046375 -0.0203512 -0.0355576 79 70 75
0.0471659 -0.0169868 -0.0373377 149 131 115
0.0463519 -0.0168765 -0.0385009 168 137 121
0.0455379 -0.0167662 -0.0396642 191 158 155
0.0449226 -0.0162438 -0.0409116 228 211 217
0.0441074 -0.0161333 -0.0420766 249 246 248
0.0432922 -0.0160228 -0.0432416 237 248 240
0.0422814 -0.0163248 -0.0443181 206 229 204
0.041467 -0.0162145 -0.0454818 155 192 145
0.040846 -0.0156913 -0.0467372 92 119 87
0.0400306 -0.0155807 -0.0479026 63 55 52
0.0394068 -0.015056 -0.049163 60 55 44
0.0385902 -0.0149453 -0.05033 57 54 43
0.0373947 -0.0156625 -0.0513014 59 53 39
0.0519637 -0.0495824 -0.00147946 40 33 24
0.0512306 -0.049483 -0.00252716 24 21 20
0.0503117 -0.0497162 -0.00354293 19 14 14
0.0493949 -0.0499488 -0.0045564 18 13 10
0.0484802 -0.0501809 -0.00556758 17 15 11
0.0477494 -0.0500818 -0.00661188 16 16 13
0.0473817 -0.0493189 -0.00772983 16 16 15
0.0470122 -0.0485525 -0.00885311 18 15 14
0.0470058 -0.0471088 -0.0100614 22 14 11
0.0504768 -0.023333 -0.0252509 29 27 27
0.0494795 -0.0236192 -0.0263259 31 30 27
0.0478908 -0.025079 -0.027204 36 32 28
0.0469029 -0.0253612 -0.0282699 39 33 29
0.0463068 -0.0248642 -0.0294676 43 37 29
0.045904 -0.0239742 -0.0307374 47 40 32
0.0454991 -0.0230795 -0.0320138 49 43 38
0.0448973 -0.0225765 -0.0332241 52 45 43
0.0452705 -0.0200756 -0.0348111 67 64 69
0.0460478 -0.0167171 -0.0365789 142 113 108
0.0456342 -0.0157837 -0.0378991 158 126 126
0.04482 -0.0156734 -0.0390625 164 133 132
0.0440058 -0.015563 -0.0402259 198 183 174
0.0431916 -0.0154526 -0.0413894 234 236 225
0.0423774 -0.0153422 -0.042553 248 255 246
0.041563 -0.0152318 -0.0437167 241 253 232
0.0407487 -0.0151214 -0.0448804 198 232 188
0.0399342 -0.015011 -0.0460443 125 154 123
0.0391197 -0.0149005 -0.0472082 76 60 65
0.0383051 -0.0147901 -0.0483722 61 57 46
0.0374905 -0.0146796 -0.0495363 59 54 43
0.0366757 -0.0145692 -0.0507005 62 53 40
0.032237 -0.0148446 -0.0563143 55 47 40
0.0314241 -0.0147344 -0.057476 54 43 38
0.0507713 -0.0481635 -0.00201215 28 27 24
0.0498518 -0.0483985 -0.00302978 22 16 13
0.0489344 -0.0486328 -0.00404511 19 15 9
0.0482018 -0.0485335 -0.00509189 17 16 11
0.0474692 -0.0484341 -0.00613871 17 16 14
0.0470999 -0.0476656 -0.00725825 17 15 15
0.0467288 -0.0468934 -0.00838315 18 16 12
0.0497745 -0.0222628 -0.0246605 31 28 25
0.0487779 -0.0225503 -0.0257363 32 27 25
0.0473892 -0.0236237 -0.0266814 35 30 27
0.0464006 -0.0239081 -0.0277493 41 33 28
0.045998 -0.0230155 -0.0290148 44 35 28
0.0453984 -0.0225137 -0.0302182 46 39 32
0.0447971 -0.0220104 -0.0314246 48 41 36
0.0441942 -0.021506 -0.0326343 47 41 42
0.0443665 -0.0193995 -0.0341424 62 57 56
0.0449354 -0.0164485 -0.035824 107 88 89
0.0445198 -0.0155169 -0.0371389 155 126 137
0.0437077 -0.0154068 -0.0382993 164 141 142
0.0430914 -0.0148838 -0.0395419 173 160 142
0.0422781 -0.0147735 -0.040704 209 211 181
0.0414648 -0.0146632 -0.0418661 243 248 223
0.0406515 -0.0145529 -0.0430283 242 243 225
0.039838 -0.0144426 -0.0441907 210 220 197
0.0390245 -0.0143323 -0.0453531 158 174 150
0.0384009 -0.0138072 -0.046607 96 91 85
0.0375862 -0.0136967 -0.0477711 63 58 51
0.0367715 -0.0135862 -0.0489352 59 53 44
0.0359567 -0.0134757 -0.0500995 61 51 42
0.0315194 -0.0137537 -0.0557153 63 51 42
0.0307064 -0.0136435 -0.056877 61 53 47
0.0297149 -0.0139472 -0.0579329 55 47 43
0.0503109 -0.0468407 -0.00149582 35 31 26
0.0493907 -0.0470774 -0.00251535 24 19 16
0.0484726 -0.0473136 -0.00353254 19 16 10
0.0477391 -0.0472141 -0.00458062 19 16 10
0.0471876 -0.0467785 -0.00566322 19 14 13
0.0468166 -0.0460042 -0.00678435 18 13 14
0.0464439 -0.0452263 -0.00791086 17 14 13
0.0498691 -0.0213006 -0.0229312 29 27 23
0.049072 -0.0211925 -0.02407 31 28 25
0.0482749 -0.0210843 -0.025209 32 29 25
0.047083 -0.0217694 -0.0262207 34 30 24
0.0460921 -0.0220568 -0.027292 38 33 25
0.0454925 -0.0215536 -0.0284932 41 34 27
0.0448914 -0.0210492 -0.0296974 42 35 31
0.0442885 -0.0205435 -0.0309049 44 40 34
0.0436842 -0.0200364 -0.0321155 48 48 41
0.0436588 -0.0183219 -0.0335488 62 55 47
0.0442211 -0.0153611 -0.035225 88 74 81
0.0436071 -0.0148395 -0.0364603 179 154 137
0.0429914 -0.0143164 -0.0376989 183 185 167
0.0421792 -0.0142062 -0.0388595 163 145 142
0.0413668 -0.014096 -0.0400201 184 167 140
0.0405545 -0.0139858 -0.0411809 227 223 179
0.0397421 -0.0138756 -0.0423416 224 219 199
0.0389296 -0.0137653 -0.0435026 202 194 184
0.0383067 -0.0132402 -0.0447524 182 189 157
0.037493 -0.0131298 -0.045915 122 140 110
0.0366794 -0.0130194 -0.0470777 72 71 66
0.0358655 -0.012909 -0.0482404 58 52 46
0.0352376 -0.012382 -0.0494984 56 49 43
0.0316147 -0.0127729 -0.0539544 64 39 31
0.0308017 -0.0126626 -0.0551161 68 54 44
0.0298099 -0.0129676 -0.0561742 70 67 60
0.0288208 -0.0132717 -0.0572297 64 63 59
0.0274844 -0.0143988 -0.058071 55 51 50
0.0259864 -0.0159243 -0.0587999 50 43 41
0.0248422 -0.0166268 -0.0597344 49 41 34
0.0496636 -0.0458529 -0.000949144 42 36 26
0.0489284 -0.0457532 -0.00199959 29 23 23
0.0481931 -0.0456534 -0.00305012 21 15 14
0.0476407 -0.0452149 -0.00413348 20 15 11
0.0469045 -0.045115 -0.0051854 19 13 12
0.0465319 -0.0443349 -0.00630811 17 13 14
0.0461576 -0.043551 -0.00743625 16 13 15
0.0457813 -0.0427635 -0.00856979 16 14 14
0.0493669 -0.019831 -0.0223993 28 27 23
0.0483694 -0.0201219 -0.0234794 30 27 22
0.0475723 -0.0200137 -0.0246184 33 27 21
0.0465782 -0.020304 -0.0256946 36 28 21
0.0455867 -0.0205936 -0.026768 37 31 24
0.0449856 -0.0200878 -0.0279701 39 35 29
0.0443829 -0.0195809 -0.0291753 39 36 33
0.0435854 -0.0194727 -0.0303148 41 36 33
0.04298 -0.0189642 -0.0315247 50 43 36
0.0431446 -0.0168386 -0.0330278 66 50 38
0.0435068 -0.0142734 -0.034626 79 65 66
0.0428917 -0.0137504 -0.0358606 141 133 111
0.0420805 -0.0136403 -0.0370196 165 178 154
0.0414626 -0.0131156 -0.0382591 153 160 151
0.0406502 -0.0130054 -0.0394198 162 124 127
0.0398378 -0.0128951 -0.0405806 198 162 140
0.0388349 -0.0131998 -0.0416567 200 203 186
0.0380234 -0.0130896 -0.0428161 177 196 195
0.0374 -0.0125643 -0.0440636 178 181 165
0.0365874 -0.012454 -0.0452247 163 152 139
0.0359612 -0.011927 -0.0464771 101 108 95
0.0351473 -0.0118166 -0.0476399 63 57 49
0.0343334 -0.0117061 -0.0488028 52 45 40
0.0335194 -0.0115956 -0.0499658 57 40 34
0.0308969 -0.0116817 -0.0533551 73 55 36
0.0299051 -0.0119879 -0.0544155 69 52 50
0.0289157 -0.0122933 -0.0554732 87 75 74
0.0277537 -0.0130115 -0.0564246 86 85 83
0.0260804 -0.0149545 -0.0570591 70 72 72
0.0249359 -0.0156595 -0.0579981 60 56 56
0.0237972 -0.0163608 -0.0589324 51 49 43
0.0228305 -0.016656 -0.0599686 46 44 35
0.0484649 -0.0444255 -0.00148253 33 30 27
0.0479122 -0.0439851 -0.00256532 21 15 16
0.047175 -0.043885 -0.00361846 20 16 12
0.0468026 -0.043101 -0.00473881 17 14 12
0.0462458 -0.0426574 -0.00582953 16 14 13
0.0458697 -0.0418677 -0.00695926 16 15 14
0.0456744 -0.0407266 -0.00813232 17 15 13
0.0490638 -0.0179548 -0.0219243 25 25 22
0.0478651 -0.0186505 -0.0229482 29 25 21
0.0468694 -0.0189429 -0.0240278 34 26 20
0.046072 -0.0188347 -0.025167 35 26 21
0.0450798 -0.0191264 -0.0262426 37 30 24
0.0444772 -0.0186182 -0.0274456 41 34 28
0.0436797 -0.0185099 -0.028585 42 37 29
0.0430744 -0.0180002 -0.0297927 41 36 31
0.0422757 -0.0178917 -0.0309338 51 44 32
0.0424356 -0.0157592 -0.0324332 64 48 36
0.0427922 -0.0131856 -0.0340268 71 61 56
0.0421762 -0.0126611 -0.0352607 100 88 80
0.0413648 -0.0125509 -0.0364199 131 121 107
0.0405534 -0.0124407 -0.0375791 155 158 131
0.039742 -0.0123306 -0.0387384 158 147 130
0.0389305 -0.0122204 -0.0398977 171 132 115
0.038119 -0.0121103 -0.0410572 180 153 139
0.0373073 -0.0120001 -0.0422168 183 191 183
0.0364956 -0.0118899 -0.0433764 211 213 187
0.0356839 -0.0117797 -0.0445361 213 201 163
0.0350573 -0.0112525 -0.045786 132 147 137
0.0342443 -0.0111421 -0.0469474 78 61 56
0.0334314 -0.0110318 -0.0481089 52 47 42
0.0326184 -0.0109214 -0.0492705 52 49 45
0.0318053 -0.0108111 -0.0504321 58 50 58
0.0309922 -0.0107007 -0.0515938 51 45 40
0.030179 -0.0105903 -0.0527556 67 50 36
0.0290107 -0.0113147 -0.0537165 65 65 60
0.0278484 -0.0120354 -0.0546725 116 110 96
0.0261744 -0.0139847 -0.0553182 129 126 112
0.0250297 -0.014692 -0.0562617 105 105 98
0.0238906 -0.0153958 -0.0572004 82 81 76
0.0229238 -0.0156922 -0.0582388 67 65 59
0.0216299 -0.0167926 -0.0590638 58 54 47
0.0193807 -0.020258 -0.0592528 52 45 38
0.0483687 -0.0424091 -0.00102246 38 35 31
0.0478137 -0.0419646 -0.00210865 30 23 24
0.0474415 -0.0411732 -0.00322938 25 14 16
0.0472519 -0.0400296 -0.00438894 20 15 10
0.0465075 -0.0399285 -0.00545236 19 14 9
0.0457631 -0.0398274 -0.00651588 18 15 13
0.0461185 -0.0376159 -0.0078046 18 16 14
0.0483583 -0.0168798 -0.0213311 25 23 21
0.0473594 -0.0171752 -0.0224155 29 25 21
0.0463629 -0.0174698 -0.0234973 33 25 22
0.045369 -0.0177636 -0.0245764 35 26 23
0.0445715 -0.0176554 -0.0257157 38 29 25
0.0439674 -0.0171445 -0.0269196 40 31 26
0.0431688 -0.017036 -0.0280606 41 35 28
0.0423701 -0.0169276 -0.0292017 41 35 32
0.0415713 -0.0168191 -0.0303428 49 42 31
0.0419189 -0.0142702 -0.03191 58 46 35
0.0420776 -0.0120976 -0.0334276 66 57 48
0.0414605 -0.0115716 -0.0346608 81 67 59
0.0406491 -0.0114614 -0.03582 98 81 76
0.0398376 -0.0113512 -0.0369793 131 121 107
0.039026 -0.011241 -0.0381386 131 124 119
0.0382145 -0.0111308 -0.0392981 140 108 104
0.0374028 -0.0110206 -0.0404577 167 125 112
0.0364042 -0.0113272 -0.0415327 202 179 157
0.0355935 -0.0112171 -0.0426909 239 223 194
0.0347827 -0.0111069 -0.0438492 223 213 197
0.0341556 -0.0105796 -0.0450967 136 140 161
0.0333437 -0.0104693 -0.0462566 71 60 82
0.0325316 -0.010359 -0.0474167 51 58 60
0.0317196 -0.0102488 -0.0485768 88 79 71
0.0309075 -0.0101385 -0.0497371 124 87 84
0.0300953 -0.0100282 -0.0508973 83 39 48
0.029283 -0.0099179 -0.0520577 54 37 44
0.027943 -0.0110592 -0.0529201 76 72 70
0.0262685 -0.0130147 -0.0535771 134 129 113
0.0251234 -0.0137245 -0.054525 155 144 127
0.0239842 -0.0144308 -0.0554682 142 133 119
0.0230171 -0.0147283 -0.0565088 117 112 102
0.0217228 -0.0158324 -0.0573404 91 87 81
0.0202763 -0.0173273 -0.0580623 72 68 63
0.0183687 -0.0199874 -0.0584671 58 55 49
0.0172702 -0.020663 -0.0593807 52 46 38
0.0493956 -0.0367622 -0.00192261 49 32 30
0.0488331 -0.036304 -0.00302701 33 26 21
0.0482692 -0.0358446 -0.00413412 21 18 14
0.0475167 -0.0357424 -0.00520915 19 14 12
0.0463928 -0.0363543 -0.00621222 19 14 14
0.045642 -0.0362523 -0.00728483 20 17 15
0.0500463 -0.0178523 -0.0159614 24 19 15
0.0488513 -0.0185446 -0.0169952 20 23 19
0.0478594 -0.0188356 -0.0180767 22 25 20
0.0482535 -0.0163186 -0.019539 24 25 21
0.0474541 -0.01621 -0.020681 29 24 19
0.0464575 -0.0165057 -0.021765 29 25 21
0.045659 -0.0163973 -0.0229057 30 25 24
0.0446659 -0.0166925 -0.0239856 34 26 24
0.0438682 -0.0165841 -0.025125 37 28 25
0.0434562 -0.0156668 -0.0263923 36 29 27
0.0426564 -0.0155582 -0.0275348 37 33 27
0.0416657 -0.0158548 -0.0286105 40 34 32
0.0408668 -0.0157463 -0.0297517 46 40 31
0.0412089 -0.0131891 -0.0313144 52 46 34
0.0413629 -0.0110094 -0.0328282 63 51 45
0.0407447 -0.0104819 -0.0340607 74 61 51
0.0399332 -0.0103717 -0.03522 82 63 60
0.0391216 -0.0102614 -0.0363794 102 87 79
0.0383099 -0.0101512 -0.0375388 109 99 97
0.0374983 -0.0100409 -0.0386983 123 96 91
0.0364995 -0.0103488 -0.0397757 147 106 93
0.0356888 -0.0102386 -0.0409339 180 138 121
0.034878 -0.0101285 -0.0420922 209 169 159
0.0340671 -0.0100183 -0.0432506 206 173 171
0.0332561 -0.00990815 -0.044409 167 137 142
0.0326269 -0.00937915 -0.0456574 116 96 111
0.0318148 -0.00926885 -0.0468175 77 75 80
0.030823 -0.00957762 -0.0478849 99 99 98
0.0300118 -0.00946743 -0.0490437 136 105 95
0.0290235 -0.00977561 -0.050107 91 46 56
0.0271665 -0.0121539 -0.0506872 54 46 55
0.0263625 -0.0120447 -0.0518358 82 76 74
0.0252172 -0.0127569 -0.0527883 129 119 108
0.0240776 -0.0134656 -0.0537358 153 139 122
0.0231104 -0.0137643 -0.0547787 160 146 128
0.0218158 -0.014872 -0.0556168 149 140 125
0.0203688 -0.0163718 -0.0563475 123 116 108
0.0189362 -0.0178565 -0.0570708 93 88 83
0.017518 -0.0193263 -0.057787 71 69 64
0.0165781 -0.0196116 -0.0588043 58 57 49
0.0156405 -0.0198963 -0.0598191 54 49 38
0.0518016 -0.0299302 -0.0018556 65 45 37
0.0508419 -0.030197 -0.0029164 41 41 28
0.0500773 -0.0300931 -0.00400852 23 19 17
0.0487384 -0.0310968 -0.00499542 19 14 14
0.0477869 -0.0313608 -0.00604747 19 14 14
0.0470259 -0.0312574 -0.00713453 19 17 15
0.0491448 -0.0171846 -0.0153211 22 23 19
0.0481513 -0.0174776 -0.0164061 22 22 19
0.0471602 -0.0177699 -0.0174885 22 21 17
0.0467588 -0.0168603 -0.0187294 24 27 19
0.0463554 -0.0159462 -0.0199768 27 25 21
0.0457535 -0.0154331 -0.0211732 24 25 21
0.0447603 -0.0157294 -0.0222554 24 23 22
0.0441563 -0.015216 -0.0234549 30 24 22
0.0433576 -0.0151075 -0.0245958 35 28 24
0.0427509 -0.0145926 -0.0258001 34 31 27
0.0419511 -0.0144839 -0.0269426 34 34 26
0.0411511 -0.0143752 -0.0280853 36 34 30
0.0403512 -0.0142665 -0.029228 43 37 29
0.0404986 -0.0121077 -0.0307187 50 45 33
0.040456 -0.0103387 -0.0321564 59 43 44
0.0398375 -0.00981087 -0.0333865 68 55 49
0.0392171 -0.00928178 -0.0346199 78 58 54
0.0384055 -0.00917149 -0.0357793 85 73 57
0.0375938 -0.00906118 -0.0369389 102 89 73
0.0365949 -0.00937024 -0.0380185 115 97 81
0.0357841 -0.00926007 -0.0391767 115 90 78
0.0347886 -0.0095685 -0.0402522 121 83 83
0.0339788 -0.00945845 -0.041409 139 92 102
0.0331689 -0.0093484 -0.042566 158 110 109
0.0325403 -0.00881927 -0.0438104 178 124 103
0.0317292 -0.00870906 -0.044969 156 117 113
0.0309181 -0.00859884 -0.0461277 103 81 83
0.0297508 -0.00932646 -0.0471031 91 98 100
0.0282391 -0.0108799 -0.0478891 106 98 87
0.0272607 -0.0111838 -0.0489458 78 59 62
0.0261131 -0.0118982 -0.0499055 63 59 58
0.0249712 -0.012609 -0.0508603 78 74 69
0.024003 -0.0129088 -0.0519067 106 96 87
0.0232038 -0.0128002 -0.0530483 132 118 104
0.0220736 -0.0135059 -0.0539918 153 140 122
0.0206234 -0.0150145 -0.0547315 165 154 136
0.0190282 -0.0169056 -0.0553644 156 145 132
0.0179239 -0.0175913 -0.0562893 127 119 110
0.0166694 -0.0186666 -0.0571085 96 92 86
0.0157316 -0.0189524 -0.0581254 71 71 64
0.0146436 -0.0196278 -0.0590368 63 58 47
0.0137118 -0.0199113 -0.0600477 52 47 39
0.053075 -0.0267557 -0.000369936 60 47 38
0.0519097 -0.0274048 -0.00140946 68 60 46
0.0507502 -0.0280507 -0.00244395 45 44 30
0.0495963 -0.0286934 -0.00347349 27 19 15
0.0486391 -0.0289616 -0.00453255 21 15 13
0.0473053 -0.0299694 -0.00551766 20 14 14
0.0465433 -0.0298658 -0.0066061 18 16 16
0.0488421 -0.0153084 -0.0148291 21 22 15
0.0476485 -0.0160079 -0.0158672 21 21 18
0.0468531 -0.0158998 -0.0170034 21 21 19
0.0464498 -0.0149832 -0.0182464 25 25 19
0.0456522 -0.0148747 -0.0193856 26 25 22
0.0450494 -0.0143602 -0.0205814 27 28 25
0.044057 -0.0146579 -0.0216643 28 29 24
0.043452 -0.0141431 -0.0228632 31 27 23
0.0428454 -0.0136269 -0.0240652 33 27 25
0.0422372 -0.0131095 -0.0252704 32 29 26
0.0414363 -0.0130006 -0.0264145 30 31 26
0.0404456 -0.0133007 -0.0274931 32 33 28
0.0396456 -0.013192 -0.0286359 41 35 27
0.0397883 -0.0110262 -0.0301229 51 44 33
0.0395515 -0.00966941 -0.0314862 57 40 37
0.0389324 -0.00914143 -0.0327139 64 48 41
0.0383117 -0.00861204 -0.0339449 62 51 48
0.0375009 -0.00850186 -0.035103 79 62 51
0.0366902 -0.00839163 -0.0362611 98 85 65
0.0356937 -0.00870115 -0.0373403 100 100 79
0.0346996 -0.00900986 -0.0384167 83 80 71
0.0338908 -0.00889991 -0.0395721 68 52 53
0.032719 -0.00962487 -0.0405616 70 54 53
0.0319121 -0.00951517 -0.0417141 88 72 68
0.0311052 -0.00940548 -0.0428668 113 78 81
0.0304762 -0.00887847 -0.0441068 111 64 70
0.0293146 -0.00960248 -0.0450837 90 63 60
0.0279846 -0.0107362 -0.0459662 95 84 66
0.0266649 -0.0118611 -0.046842 94 82 70
0.0256945 -0.0121618 -0.0478934 72 62 61
0.0248954 -0.0120532 -0.0490347 67 50 46
0.023761 -0.0127608 -0.0499883 69 65 58
0.0227979 -0.0130592 -0.0510319 82 78 70
0.0216729 -0.0137616 -0.0519769 105 94 84
0.0208787 -0.0136536 -0.0531113 131 116 105
0.0191201 -0.0159546 -0.0536578 158 144 128
0.0180156 -0.0166427 -0.0545869 176 161 142
0.0167607 -0.0177215 -0.0554126 167 152 136
0.0158228 -0.0180084 -0.0564316 132 124 112
0.0147345 -0.0186862 -0.0573472 95 91 86
0.0136516 -0.0193606 -0.0582583 71 66 65
0.012574 -0.0200316 -0.0591649 62 47 46
0.011797 -0.019926 -0.0602748 49 46 38
0.054166 -0.0239178 0.00116611 63 51 38
0.0521984 -0.0260978 0.000232562 72 65 49
0.0512321 -0.0263708 -0.00083743 66 48 33
0.0502682 -0.0266432 -0.00190485 31 18 16
0.0493066 -0.0269148 -0.00296971 22 14 11
0.0481561 -0.0275603 -0.00399809 21 18 13
0.0466339 -0.0289453 -0.00495151 20 16 15
0.0458718 -0.0288417 -0.00604001 18 17 18
0.0454832 -0.0279948 -0.00720395 19 18 17
0.0481392 -0.0142369 -0.0142375 21 21 15
0.0473418 -0.0141285 -0.0153766 21 22 19
0.0465442 -0.01402 -0.0165157 23 22 20
0.0457466 -0.0139116 -0.017655 27 22 20
0.044949 -0.0138031 -0.0187943 28 24 22
0.0441512 -0.0136946 -0.0199337 29 27 22
0.0433535 -0.0135862 -0.0210732 29 27 23
0.0425557 -0.0134777 -0.0222127 29 26 25
0.04214 -0.0125524 -0.0234727 31 28 26
0.0417221 -0.0116223 -0.0247392 30 30 26
0.04092 -0.0115133 -0.0258848 32 31 26
0.0397398 -0.012226 -0.0269009 36 33 27
0.0389397 -0.0121172 -0.0280438 40 33 28
0.0394567 -0.00911149 -0.0296643 46 39 34
0.0386491 -0.00900172 -0.0308177 54 40 34
0.0380296 -0.00847346 -0.032043 56 42 37
0.0374084 -0.00794389 -0.0332716 51 46 41
0.0365987 -0.00783379 -0.0344283 60 43 41
0.0356035 -0.00814358 -0.0355084 79 58 52
0.0347946 -0.00803359 -0.0366637 83 73 63
0.0336206 -0.00876074 -0.0376606 76 64 55
0.0326329 -0.00906814 -0.0387326 74 62 53
0.0314688 -0.00978982 -0.0397204 89 79 64
0.0304876 -0.0100947 -0.040786 101 90 73
0.0295088 -0.0103988 -0.0418487 87 88 80
0.0281849 -0.0115236 -0.042739 90 76 65
0.027386 -0.011415 -0.0438801 92 89 78
0.0264159 -0.0117157 -0.0449339 95 87 74
0.0252792 -0.0124233 -0.0458964 94 86 75
0.0241481 -0.0131273 -0.0468542 79 71 66
0.0231881 -0.013424 -0.0478977 64 64 60
0.0222306 -0.01372 -0.0489386 65 63 57
0.0212753 -0.0140152 -0.049977 71 68 61
0.01984 -0.0155098 -0.0507314 86 77 69
0.018735 -0.016198 -0.0516667 106 95 86
0.0179496 -0.0160912 -0.0527885 131 118 105
0.016852 -0.0167763 -0.0537164 160 143 124
0.015914 -0.0170644 -0.0547376 175 157 138
0.0148254 -0.0177444 -0.0556574 164 153 135
0.0137422 -0.0184211 -0.0565727 131 128 115
0.0126643 -0.0190944 -0.0574835 94 92 87
0.0114445 -0.0201508 -0.0582886 71 66 64
0.0105244 -0.0204311 -0.0592919 59 55 48
0.00975108 -0.0203259 -0.0603964 50 47 38
0.0546619 -0.0222088 0.00279981 57 45 34
0.0534826 -0.0228747 0.00174338 68 58 45
0.0513238 -0.0254413 0.000833631 69 59 46
0.0503598 -0.0257148 -0.000235826 51 36 25
0.049398 -0.0259875 -0.00130275 24 14 11
0.0482473 -0.0266352 -0.00233519 14 13 13
0.0474814 -0.026531 -0.00342898 17 13 14
0.0457753 -0.0282923 -0.00435108 19 17 14
0.0448282 -0.0285593 -0.00540292 21 17 16
0.0438835 -0.0288256 -0.00645226 22 18 17
0.0425762 -0.0298264 -0.00742368 22 20 17
0.0418194 -0.0297235 -0.0085046 20 21 19
0.0466387 -0.0130568 -0.0147849 22 25 20
0.045841 -0.0129483 -0.0159242 27 23 20
0.0450433 -0.0128398 -0.0170635 29 20 21
0.0442456 -0.0127313 -0.0182029 29 24 23
0.0434478 -0.0126228 -0.0193424 29 25 20
0.04265 -0.0125142 -0.0204819 28 25 22
0.0416615 -0.0128137 -0.0215639 29 26 24
0.0408646 -0.0127053 -0.0227022 30 28 24
0.0406344 -0.0113688 -0.0240228 31 30 24
0.0398343 -0.0112599 -0.0251656 34 30 24
0.039034 -0.0111511 -0.0263085 38 33 27
0.0382338 -0.0110422 -0.0274515 39 34 29
0.0379923 -0.00969412 -0.0287959 42 37 34
0.0379367 -0.00791696 -0.0302202 49 41 32
0.0369424 -0.0082258 -0.0313028 52 41 35
0.0361357 -0.00811608 -0.0324549 46 44 38
0.035329 -0.00800633 -0.0336072 61 45 45
0.0345222 -0.00789659 -0.0347595 69 48 46
0.0337154 -0.00778685 -0.0359119 65 57 54
0.0321874 -0.00934408 -0.0367528 67 63 58
0.0313846 -0.00923488 -0.0378995 81 75 69
0.0300519 -0.0103656 -0.0388059 100 91 79
0.0292521 -0.0102568 -0.0399483 107 96 80
0.0281053 -0.0109698 -0.0409258 92 94 82
0.0269643 -0.0116793 -0.0418983 93 86 70
0.0248214 -0.0148028 -0.0423639 83 81 70
0.0240334 -0.0146957 -0.0434894 79 67 52
0.0230808 -0.0149881 -0.0445292 79 64 51
0.0219679 -0.0156777 -0.0454796 73 67 60
0.0211827 -0.0155709 -0.0466011 71 71 66
0.0202371 -0.0158612 -0.0476333 64 65 56
0.0194527 -0.0157545 -0.0487536 64 64 58
0.0186683 -0.0156478 -0.049874 74 68 62
0.0177268 -0.0159376 -0.0509011 88 79 72
0.0164777 -0.0170149 -0.0517374 108 97 88
0.015697 -0.0169088 -0.0528523 135 120 107
0.0147638 -0.0171955 -0.0538709 159 143 126
0.0136821 -0.0178727 -0.0547895 171 158 139
0.0126056 -0.0185465 -0.0557036 164 155 137
0.0115345 -0.019217 -0.0566132 135 130 117
0.0106142 -0.0194984 -0.0576186 96 95 88
0.00955179 -0.020164 -0.0585204 72 65 62
0.00878033 -0.0200591 -0.0596223 59 51 44
0.0549573 -0.0208805 0.00446585 50 42 32
0.0541783 -0.0207745 0.00335339 61 55 42
0.052799 -0.0218315 0.00232075 69 62 50
0.0504513 -0.0247863 0.00143337 65 58 46
0.0492966 -0.0254376 0.000392988 47 44 35
0.0483384 -0.02571 -0.000672147 26 21 17
0.0475726 -0.0256058 -0.00176591 16 15 16
0.0464289 -0.0262528 -0.00279489 16 12 14
0.0449186 -0.0276408 -0.00375196 19 17 14
0.0439737 -0.0279081 -0.00480336 20 16 15
0.0426661 -0.0289123 -0.00578076 21 15 15
0.0419092 -0.0288093 -0.00686166 22 18 13
0.0411523 -0.0287063 -0.00794266 22 20 15
0.0459355 -0.0119849 -0.0141932 23 20 18
0.0451377 -0.0118764 -0.0153325 27 21 22
0.0445341 -0.0113579 -0.0165232 29 20 22
0.0435421 -0.0116593 -0.0176114 25 26 24
0.0427442 -0.0115507 -0.018751 28 25 23
0.0419463 -0.0114421 -0.0198906 28 25 23
0.0405809 -0.0125587 -0.0208599 30 27 21
0.0397859 -0.0124505 -0.0219954 31 28 21
0.0393645 -0.011526 -0.0232502 33 28 22
0.0385673 -0.0114176 -0.0243887 37 29 23
0.0379556 -0.0108992 -0.02559 39 32 27
0.0373423 -0.0103794 -0.0267946 39 35 30
0.0369122 -0.00944479 -0.0280684 41 37 33
0.0364799 -0.00850546 -0.0293489 45 39 31
0.0356763 -0.00839613 -0.0304966 49 44 34
0.0346899 -0.00870273 -0.0315735 46 42 37
0.0338872 -0.00859351 -0.0327199 57 46 43
0.0330845 -0.00848428 -0.0338663 55 41 42
0.0319237 -0.0092046 -0.0348628 58 51 56
0.0309456 -0.00950897 -0.0359303 76 71 70
0.0301457 -0.00940016 -0.0370726 91 86 80
0.029171 -0.00970387 -0.0381361 96 86 78
0.0281988 -0.0100068 -0.0391969 94 80 69
0.0270575 -0.0107187 -0.0401739 90 82 71
0.0249136 -0.0138518 -0.0406567 90 77 64
0.0234657 -0.0153416 -0.0414545 74 63 57
0.0226815 -0.0152349 -0.0425745 64 54 46
0.0218973 -0.0151282 -0.0436945 65 57 54
0.020952 -0.0154186 -0.044729 65 54 68
0.0201686 -0.015312 -0.0458477 70 64 65
0.0192266 -0.0156019 -0.0468784 70 69 62
0.0184441 -0.0154954 -0.047996 65 65 58
0.0173493 -0.0161793 -0.0489323 67 63 57
0.0165687 -0.0160731 -0.0500472 75 69 63
0.0153283 -0.0171459 -0.0508837 90 81 74
0.014248 -0.0178215 -0.0518073 110 98 88
0.0136221 -0.0173255 -0.0530104 134 122 108
0.0125471 -0.0179998 -0.0539278 157 144 128
0.0116245 -0.0182831 -0.0549377 175 161 141
0.0105583 -0.0189525 -0.0558471 170 160 139
0.00964141 -0.0192335 -0.0568511 136 134 119
0.00872669 -0.0195138 -0.0578526 94 89 85
0.00781423 -0.0197933 -0.0588518 71 60 57
0.00704452 -0.0196886 -0.0599511 55 49 43
0.0525133 -0.0200111 0.00284645 66 60 51
0.0493879 -0.0245113 0.00205827 65 60 48
0.0480478 -0.0255377 0.00104654 54 55 46
0.0472838 -0.0254337 -4.45396e-05 40 34 29
0.0463315 -0.0257051 -0.00110541 26 26 23
0.045009 -0.0267222 -0.00210088 17 12 13
0.0440639 -0.0269906 -0.00315426 19 15 12
0.042756 -0.027998 -0.00413764 20 15 14
0.0419991 -0.027895 -0.00521857 19 17 14
0.0408824 -0.0285285 -0.00622712 20 21 12
0.0399489 -0.0287929 -0.00726821 22 21 14
0.0391946 -0.0286902 -0.00834544 23 20 18
0.0444344 -0.0108043 -0.0147408 27 22 19
0.0438297 -0.0102844 -0.0159308 26 22 20
0.0428385 -0.0105871 -0.0170198 24 22 21
0.0420405 -0.0104785 -0.0181594 25 27 20
0.0412425 -0.0103699 -0.0192992 28 26 20
0.0395056 -0.0123048 -0.0201594 30 26 19
0.0387125 -0.0121968 -0.021292 32 27 20
0.0382894 -0.011274 -0.0225419 36 28 22
0.037864 -0.0103464 -0.0237983 39 29 25
0.0372514 -0.00982663 -0.024999 40 29 28
0.0364529 -0.00971795 -0.0261392 41 34 31
0.0358375 -0.00919659 -0.0273446 44 38 33
0.0352205 -0.00867388 -0.0285531 43 36 30
0.0344199 -0.0085649 -0.0296965 46 45 33
0.0334387 -0.00887008 -0.0307703 48 41 36
0.0326391 -0.00876124 -0.0319124 45 41 37
0.0318393 -0.00865239 -0.0330546 43 38 44
0.0310394 -0.00854351 -0.0341968 74 63 70
0.0300636 -0.0088483 -0.0352639 101 89 88
0.0292647 -0.00873956 -0.0364048 99 91 84
0.0281193 -0.0094555 -0.0373901 82 69 64
0.0271508 -0.00975794 -0.0384492 73 54 50
0.0258456 -0.0108765 -0.0393459 75 61 53
0.0235574 -0.0143952 -0.0397558 79 58 51
0.0226101 -0.0146865 -0.040795 66 49 46
0.0218268 -0.0145799 -0.0419136 67 56 56
0.0208828 -0.0148707 -0.042949 99 90 80
0.0201004 -0.0147641 -0.0440664 80 71 93
0.0193179 -0.0146576 -0.0451839 67 59 66
0.018378 -0.0149478 -0.0462142 77 71 68
0.0174403 -0.0152374 -0.047242 72 70 63
0.016505 -0.0155261 -0.0482673 66 63 54
0.0149625 -0.0173812 -0.0489294 68 63 55
0.0138869 -0.0180536 -0.0498544 76 70 62
0.012965 -0.0183361 -0.0508666 90 82 73
0.0121928 -0.0182309 -0.0519695 109 100 89
0.0111278 -0.0188988 -0.0528839 133 120 108
0.0105025 -0.0184078 -0.0540798 160 145 129
0.00973102 -0.0183028 -0.0551815 187 172 149
0.00867325 -0.0189696 -0.0560871 184 172 151
0.00776187 -0.0192495 -0.0570872 133 130 119
0.00699306 -0.0191449 -0.0581852 87 81 82
0.00622422 -0.0190402 -0.0592832 63 56 57
0.00531679 -0.0193197 -0.0602785 52 46 43
0.0490944 -0.0243416 0.00377256 60 45 36
0.046443 -0.0279678 0.00293414 68 54 36
0.0456872 -0.0278649 0.00185493 70 60 47
0.0451162 -0.0273928 0.000747904 61 48 42
0.0445438 -0.0269195 -0.000361875 39 38 29
0.043786 -0.0268164 -0.00144395 19 13 13
0.0424822 -0.027822 -0.00243112 18 14 11
0.0417271 -0.0277192 -0.00350943 20 15 13
0.0407926 -0.0279844 -0.00455372 18 18 14
0.0400384 -0.0278817 -0.00563085 19 20 14
0.0389303 -0.0285129 -0.00663495 20 20 16
0.0378275 -0.0291412 -0.00763431 22 21 19
0.0369031 -0.0294031 -0.00866768 24 22 20
0.0453266 -0.00994928 -0.01187 24 21 18
0.0437308 -0.00973202 -0.0141489 25 21 18
0.0325576 -0.0318805 -0.0126041 27 22 21
0.0314839 -0.0324925 -0.0135767 25 25 21
0.0413367 -0.00940606 -0.0175678 26 28 22
0.0405385 -0.00929737 -0.0187076 29 26 20
0.0388061 -0.011239 -0.0195717 31 26 19
0.0380129 -0.011131 -0.0207044 31 27 22
0.0351321 -0.00812239 -0.0267528 39 36 33
0.0341513 -0.00842772 -0.027829 39 35 29
0.0333526 -0.00831897 -0.0289695 42 35 31
0.0323752 -0.00862359 -0.0300416 49 48 39
0.0315775 -0.00851499 -0.0311809 38 45 46
0.0309562 -0.00799272 -0.0323916 56 54 59
0.0301573 -0.00788395 -0.0335325 117 106 98
0.0291838 -0.00818907 -0.0345991 123 116 113
0.0282127 -0.00849348 -0.0356631 94 88 87
0.027244 -0.00879712 -0.0367244 70 56 54
0.0261079 -0.0095101 -0.0377053 57 42 42
0.0244762 -0.0114381 -0.0384457 57 45 39
0.0227017 -0.0137412 -0.0390982 64 46 43
0.0217566 -0.014033 -0.0401371 60 48 46
0.0208138 -0.0143239 -0.0411734 101 78 69
0.0200323 -0.0142175 -0.0422894 224 177 108
0.0192508 -0.0141111 -0.0434055 140 158 132
0.0184692 -0.0140047 -0.0445216 73 72 74
0.0176876 -0.0138983 -0.0456379 76 69 66
0.0165959 -0.0145852 -0.0465789 84 77 72
0.0150528 -0.016446 -0.0472514 75 67 56
0.0136776 -0.0178972 -0.0480038 66 61 45
0.0127582 -0.0181791 -0.0490158 67 64 53
0.0119878 -0.0180742 -0.050116 75 71 63
0.0112173 -0.0179693 -0.0512162 89 82 74
0.0103019 -0.0182507 -0.0522233 109 98 92
0.00938863 -0.0185315 -0.053228 132 122 111
0.0086199 -0.0184268 -0.0543258 169 153 136
0.00785109 -0.0183221 -0.0554237 209 188 162
0.00708225 -0.0182175 -0.0565216 191 178 155
0.00617382 -0.0184979 -0.0575202 127 128 115
0.00526756 -0.0187776 -0.0585163 81 78 78
0.00436342 -0.0190566 -0.0595101 61 54 52
0.00332609 -0.0197167 -0.060399 54 45 39
0.0474814 -0.0283646 0.00679502 78 64 56
0.0463572 -0.028994 0.00576305 66 51 46
0.0456061 -0.0288917 0.00469039 72 54 46
0.0448549 -0.0287894 0.00361767 86 87 62
0.0442863 -0.0283212 0.00251944 82 94 69
0.0437163 -0.0278518 0.00141847 55 49 52
0.0431447 -0.0273814 0.000314787 38 27 22
0.0423906 -0.0272787 -0.000762135 24 27 16
0.041277 -0.0279113 -0.00177769 16 16 12
0.0405245 -0.0278089 -0.0028522 18 14 12
0.039772 -0.0277064 -0.00392674 17 14 17
0.0388432 -0.0279706 -0.00496691 18 16 18
0.0379164 -0.0282342 -0.00600465 18 19 18
0.0368187 -0.0288615 -0.00700319 21 22 19
0.035726 -0.0294858 -0.00799704 25 24 20
0.0348084 -0.0297461 -0.0090252 23 23 20
0.0338929 -0.0300056 -0.010051 22 23 20
0.0326454 -0.0309831 -0.0109919 25 22 20
0.0315715 -0.0315971 -0.0119683 26 22 23
0.0306662 -0.0318527 -0.0129835 26 27 22
0.0299256 -0.0317518 -0.0140411 27 30 23
0.0398345 -0.00822471 -0.0181159 29 28 21
0.0390362 -0.00811599 -0.0192559 30 26 21
0.0342451 -0.00746346 -0.0260974 38 35 31
0.0329085 -0.008595 -0.0270438 39 33 30
0.0321127 -0.00848663 -0.0281801 38 31 30
0.031317 -0.00837824 -0.0293165 40 32 29
0.0305211 -0.00826984 -0.0304529 51 38 37
0.0300753 -0.00733446 -0.0317302 53 45 39
0.0292773 -0.00722581 -0.0328697 86 63 54
0.0283061 -0.00753138 -0.0339359 89 63 61
0.0273372 -0.0078362 -0.0349995 78 50 49
0.0263707 -0.00814022 -0.0360604 68 46 38
0.0250702 -0.0092634 -0.036965 55 48 39
0.023614 -0.0107836 -0.0377854 52 48 41
0.02201 -0.0126891 -0.0385199 57 49 44
0.0209051 -0.0133808 -0.0394807 56 51 48
0.0201236 -0.0132743 -0.0405966 99 75 69
0.019342 -0.0131679 -0.0417127 189 153 111
0.0185604 -0.0130614 -0.0428289 113 133 147
0.0177787 -0.012955 -0.0439451 70 69 67
0.0169969 -0.0128485 -0.0450614 61 60 53
0.015907 -0.013538 -0.046004 77 71 64
0.0137675 -0.0169665 -0.0463339 85 73 62
0.0127 -0.0176366 -0.0472609 73 64 51
0.0119306 -0.0175318 -0.0483597 63 60 47
0.0111609 -0.017427 -0.0494586 66 64 53
0.0103914 -0.0173222 -0.0505576 74 70 65
0.00947794 -0.017604 -0.0515643 88 81 77
0.00870916 -0.0174993 -0.0526621 106 99 92
0.00794032 -0.0173946 -0.0537599 135 123 113
0.00717145 -0.0172899 -0.0548579 174 157 139
0.00640252 -0.0171852 -0.0559559 199 184 161
0.0054948 -0.0174668 -0.0569552 179 170 151
0.00458929 -0.0177478 -0.0579521 123 121 110
0.00355008 -0.0184118 -0.0588459 80 74 70
0.00251588 -0.0190725 -0.0597354 62 54 48
0.00175232 -0.0189686 -0.0608258 55 48 39
0.0599857 -0.00643042 0.00966915 60 44 33
0.0558093 -0.012915 0.00882566 83 69 50
0.0487016 -0.0252319 0.00831968 80 79 69
0.0468181 -0.0273522 0.00735556 80 63 57
0.0456955 -0.027984 0.00632216 71 57 50
0.0449443 -0.0278816 0.00524944 85 75 62
0.0441929 -0.0277793 0.00417662 100 107 83
0.0436234 -0.0273098 0.003079 88 99 87
0.0430525 -0.0268392 0.00197862 57 54 59
0.0424802 -0.0263674 0.000875533 40 31 26
0.0417259 -0.0262647 -0.000201464 28 30 25
0.0406138 -0.0268998 -0.00121847 28 20 23
0.0398613 -0.0267972 -0.00229302 21 15 23
0.0391087 -0.0266947 -0.00336763 15 15 22
0.038356 -0.0265921 -0.00444236 18 19 18
0.0374288 -0.0268577 -0.00548205 20 21 18
0.0365036 -0.0271226 -0.00651932 25 22 20
0.0350671 -0.0284813 -0.00744224 27 24 20
0.0341501 -0.0287426 -0.00847113 24 26 21
0.0330676 -0.0293649 -0.00945815 24 25 21
0.0319901 -0.0299843 -0.0104406 27 23 23
0.0307536 -0.0309583 -0.0113768 25 23 24
0.0298503 -0.0312142 -0.0123917 26 26 23
0.0291105 -0.0311134 -0.013448 29 30 25
0.0391304 -0.00715184 -0.0175242 30 29 24
0.0398373 -0.00368538 -0.0191008 30 27 23
0.0374171 -0.00335565 -0.0225567 35 28 26
0.0366102 -0.00324574 -0.0237088 38 29 26
0.0358032 -0.00313579 -0.024861 38 34 27
0.0349963 -0.00302584 -0.0260133 39 37 29
0.0322062 -0.00752582 -0.026455 40 33 29
0.0314104 -0.00741742 -0.0275913 34 29 29
0.0306145 -0.00730897 -0.0287277 34 29 24
0.0298186 -0.00720055 -0.0298643 48 35 33
0.0293709 -0.00626241 -0.0311402 50 45 34
0.0285728 -0.00615367 -0.0322798 61 46 37
0.0276023 -0.0064606 -0.0333468 60 43 39
0.0268052 -0.006352 -0.0344851 57 38 36
0.0256686 -0.00707205 -0.0354729 58 41 36
0.0243706 -0.00819924 -0.0363798 56 47 41
0.0234126 -0.00850121 -0.0374339 53 47 44
0.0219664 -0.0100232 -0.0382511 55 49 45
0.0203745 -0.0119311 -0.0389819 56 49 45
0.0194333 -0.0122246 -0.0400198 83 57 51
0.0186516 -0.0121181 -0.0411359 129 88 72
0.0178699 -0.0120116 -0.0422522 86 84 94
0.0170881 -0.0119051 -0.0433684 65 59 54
0.0163063 -0.0117986 -0.0444849 58 55 47
0.0152179 -0.0124906 -0.045429 68 62 51
0.0138333 -0.0139703 -0.0461951 83 72 60
0.0120201 -0.0166033 -0.0466937 77 69 61
0.0112504 -0.0164984 -0.0477926 63 57 52
0.0104808 -0.0163936 -0.0488916 62 52 47
0.00971115 -0.0162887 -0.0499907 65 60 56
0.00894138 -0.0161838 -0.0510898 73 67 62
0.00802955 -0.016467 -0.052096 85 78 73
0.00839874 -0.0132299 -0.0539551 104 94 87
0.00762215 -0.0131241 -0.055064 137 121 111
0.0068455 -0.0130183 -0.0561729 170 154 139
0.00495356 -0.0160479 -0.0564883 188 174 156
0.00184065 -0.0180475 -0.059174 75 68 63
0.00107694 -0.0179434 -0.0602645 62 57 50
0.0566924 -0.0120689 0.0116666 51 42 30
0.0559034 -0.0119614 0.01054 75 70 46
0.0551143 -0.0118539 0.00941335 106 96 68
0.0480335 -0.0242119 0.00888443 92 80 74
0.047275 -0.0241085 0.00780137 76 68 65
0.0465164 -0.0240052 0.00671825 74 66 60
0.0457577 -0.0239017 0.00563502 96 95 74
0.0449991 -0.0237984 0.00455174 111 110 89
0.0442403 -0.0236949 0.00346839 96 89 80
0.0434815 -0.0235915 0.00238493 64 54 50
0.0427226 -0.0234881 0.00130141 45 34 28
0.0419637 -0.0233847 0.00021781 41 39 35
0.0412048 -0.0232813 -0.000865877 53 48 46
0.0404457 -0.0231778 -0.00194964 46 43 45
0.0396867 -0.0230744 -0.00303346 31 31 34
0.0389275 -0.0229709 -0.00411738 23 20 23
0.0381683 -0.0228674 -0.00520138 21 17 17
0.0374091 -0.022764 -0.00628543 23 20 15
0.0345779 -0.0271113 -0.0069239 25 22 16
0.0334918 -0.027739 -0.00791697 26 23 18
0.0324107 -0.0283636 -0.0089054 26 25 22
0.0313347 -0.0289853 -0.00988919 27 24 26
0.0304274 -0.0292445 -0.0109094 29 24 23
0.0293598 -0.0298619 -0.0118851 28 27 26
0.0403575 -0.00366925 -0.0160967 31 28 27
0.0395529 -0.00355958 -0.0172455 32 27 26
0.0391256 -0.00260123 -0.0185029 30 28 23
0.0383189 -0.00249128 -0.0196549 31 29 20
0.037512 -0.00238129 -0.0208069 33 30 22
0.0367051 -0.00227133 -0.021959 36 29 24
0.0358981 -0.00216137 -0.0231112 37 28 23
0.0350911 -0.0020514 -0.0242635 37 32 25
0.0342841 -0.00194138 -0.0254159 40 38 27
0.0334769 -0.00183139 -0.0265683 41 35 26
0.0303571 -0.00717535 -0.0268739 30 29 28
0.0297374 -0.0066539 -0.0280732 30 31 23
0.0310552 -0.00150132 -0.0300262 40 34 31
0.0302478 -0.00139131 -0.031179 47 45 34
0.0294404 -0.00128127 -0.0323319 47 42 33
0.0286329 -0.00117123 -0.0334848 44 39 34
0.0278253 -0.00106115 -0.0346378 43 38 33
0.0270177 -0.000951074 -0.035791 48 40 35
0.0236709 -0.00713486 -0.0357945 54 42 40
0.0227137 -0.00743813 -0.0368494 55 45 44
0.0219222 -0.00733028 -0.0379795 56 49 44
0.0211307 -0.0072224 -0.0391096 58 48 44
0.0203391 -0.00711451 -0.0402398 65 47 43
0.0195475 -0.00700665 -0.0413702 79 48 47
0.0187558 -0.00689872 -0.0425005 67 54 51
0.0179641 -0.00679085 -0.043631 63 53 46
0.0171722 -0.00668292 -0.0447616 61 54 44
0.0145287 -0.0114431 -0.0448538 63 56 43
0.0131474 -0.0129278 -0.0456229 75 66 52
0.0123711 -0.012822 -0.0467312 77 71 64
0.0115948 -0.0127162 -0.0478398 67 61 60
0.0108184 -0.0126104 -0.0489483 61 49 49
0.010042 -0.0125046 -0.050057 62 50 49
0.00926539 -0.0123988 -0.0511657 63 55 48
0.00848886 -0.0122929 -0.0522745 71 61 55
0.00771224 -0.0121871 -0.0533834 81 71 63
0.00693551 -0.0120813 -0.0544924 102 86 81
0.00615877 -0.0119754 -0.0556014 127 110 104
0.00538203 -0.0118695 -0.0567106 159 144 131
0.00305131 -0.0115519 -0.0600384 90 85 79
0.00227427 -0.011446 -0.0611479 68 66 63
0.0567865 -0.0111153 0.0133811 46 37 30
0.0559975 -0.0110077 0.0122545 73 66 46
0.0552084 -0.0109002 0.0111278 104 92 70
0.0512092 -0.0171677 0.010272 113 88 81
0.0473653 -0.0231918 0.0094493 108 83 83
0.0466066 -0.0230884 0.00836618 83 85 98
0.045848 -0.0229849 0.00728297 82 75 70
0.0450892 -0.0228815 0.00619969 101 104 78
0.0443304 -0.022778 0.00511631 118 92 70
0.0435716 -0.0226746 0.00403288 100 72 54
0.0428127 -0.0225711 0.00294936 68 51 39
0.0420538 -0.0224677 0.00186574 51 40 34
0.0412948 -0.0223642 0.000782087 58 55 51
0.0405357 -0.0222607 -0.000301674 73 72 65
0.0397766 -0.0221572 -0.00138552 71 70 62
0.0390174 -0.0220537 -0.00246942 54 54 51
0.0382582 -0.0219502 -0.00355341 44 39 39
0.0374989 -0.0218467 -0.00463748 30 27 24
0.0367396 -0.0217432 -0.00572161 23 22 19
0.03477 -0.0242602 -0.00654902 23 22 19
0.0331694 -0.0260031 -0.00743696 25 23 20
0.0319199 -0.0269982 -0.00839069 27 24 22
0.0310086 -0.0272606 -0.00941631 29 25 23
0.0299358 -0.0278849 -0.010399 29 28 24
0.0291924 -0.0277835 -0.0114605 33 31 27
0.0396477 -0.00258779 -0.0155001 35 30 27
0.038843 -0.00247806 -0.016649 32 28 27
0.0380383 -0.00236836 -0.017798 30 25 24
0.037607 -0.00140689 -0.0190569 29 26 23
0.0368 -0.00129687 -0.0202091 31 27 23
0.035993 -0.00118685 -0.0213612 34 29 24
0.035186 -0.00107682 -0.0225135 35 29 25
0.0343789 -0.000966795 -0.0236659 35 30 27
0.0335717 -0.00085675 -0.0248184 36 34 26
0.0327645 -0.00074669 -0.0259709 37 34 25
0.0319571 -0.000636645 -0.0271235 24 30 27
0.028345 -0.00723791 -0.0272266 26 28 20
0.0303424 -0.00041651 -0.029429 34 33 29
0.029535 -0.000306427 -0.0305819 43 37 31
0.0287274 -0.000196338 -0.0317348 43 40 33
0.0279198 -8.6233e-05 -0.0328878 44 41 34
0.0271122 2.38642e-05 -0.034041 41 41 33
