ply
format ascii 1.0
element vertex 1158
property float x
property float y
property float z
property uchar diffuse_red
property uchar diffuse_green
property uchar diffuse_blue
end_header
0.0492271 -0.0412514 0.0327346 87 130 58
0.0489323 -0.0398658 0.0327042 85 125 57
0.0482321 -0.0385676 0.0317507 79 115 54
0.0475376 -0.0372802 0.030805 69 100 47
0.0470481 -0.0359586 0.0303216 59 82 31
0.0467599 -0.0345976 0.0302946 43 72 19
0.0533829 -0.153557 -0.00422898 159 226 117
0.0543423 -0.152712 -0.00173759 165 236 116
0.0551012 -0.15174 0.000367656 173 247 121
0.0556532 -0.150644 0.00207156 175 255 127
0.0557773 -0.149314 0.00293535 159 246 115
0.0559019 -0.147981 0.00380158 157 241 114
0.0562436 -0.146753 0.00510034 166 249 121
0.0516184 -0.122455 0.00567614 166 236 115
0.0509126 -0.120824 0.00484272 163 236 113
0.0506192 -0.119343 0.00485236 164 237 116
0.0505301 -0.117933 0.00528122 165 236 114
0.050441 -0.116523 0.00571007 161 235 114
0.0524151 -0.115752 0.0104073 160 233 117
0.0525341 -0.114385 0.011276 160 235 118
0.0567527 -0.114207 0.0206611 164 236 116
0.0566597 -0.112735 0.0211087 169 235 117
0.0570106 -0.111385 0.0224819 173 245 121
0.0549407 -0.10939 0.0188009 180 250 125
0.0546322 -0.107878 0.0187909 185 253 127
0.0545403 -0.106424 0.0192334 197 253 135
0.0544484 -0.104969 0.0196758 198 254 145
0.053712 -0.103369 0.0187611 187 255 147
0.0529818 -0.101783 0.0178539 179 247 135
0.0526791 -0.100297 0.0178452 168 231 119
0.0525881 -0.0988575 0.0182832 155 218 109
0.0524971 -0.0974178 0.0187211 144 206 101
0.052406 -0.0959781 0.0191591 136 196 94
0.0521046 -0.0945029 0.0191485 129 190 89
0.0520138 -0.0930654 0.0195857 125 187 88
0.0519229 -0.0916281 0.0200229 123 185 88
0.0520421 -0.0902205 0.0209104 123 182 88
0.0519512 -0.0887813 0.0213482 121 179 88
0.0518602 -0.0873423 0.0217859 118 176 85
0.0515595 -0.0858797 0.0217715 117 173 80
0.0512597 -0.0844212 0.021757 113 171 78
0.051169 -0.0829865 0.0221935 112 168 76
0.0510784 -0.0815518 0.0226299 108 164 77
0.0509877 -0.0801172 0.0230662 106 164 76
0.0511055 -0.0786964 0.0239564 107 160 77
0.0512237 -0.0772718 0.0248491 104 160 77
0.0521857 -0.0758823 0.0275878 103 158 74
0.0531615 -0.0744734 0.0303651 102 159 73
0.0532844 -0.073021 0.0312806 102 158 72
0.0549341 -0.0715915 0.035554 101 155 72
0.0559492 -0.0701236 0.0384444 99 154 72
0.0560787 -0.0686359 0.0393899 98 153 72
0.0562085 -0.067144 0.0403382 98 153 71
0.0561143 -0.0656526 0.0407918 98 152 70
0.0555733 -0.0641748 0.0402539 98 149 70
0.0548143 -0.0627144 0.0392276 97 148 68
0.0536257 -0.0612882 0.0372383 96 148 67
0.0533158 -0.0598313 0.037201 95 148 67
0.0527911 -0.0583934 0.0366815 93 146 67
0.0526986 -0.0569301 0.0371266 92 144 67
0.0526062 -0.0554668 0.0375717 93 142 67
0.0522991 -0.0540247 0.037534 91 141 67
0.0519928 -0.0525867 0.0374963 91 141 66
0.0516874 -0.0511529 0.0374587 91 140 65
0.0511711 -0.0497502 0.036942 89 138 63
0.0504477 -0.0483842 0.0359522 89 135 61
0.0495229 -0.0470601 0.0344995 89 133 62
0.0486084 -0.0457508 0.0330629 87 131 63
0.0483136 -0.0443547 0.033032 87 130 62
0.0480197 -0.0429626 0.0330012 86 129 60
0.0479296 -0.0415368 0.0334349 87 127 58
0.0476366 -0.0401506 0.0334035 84 123 56
0.0471428 -0.0388099 0.032909 77 113 54
0.0462526 -0.0375625 0.0314986 68 98 46
0.0459647 -0.0361953 0.0314701 59 82 29
0.0454802 -0.0348784 0.0309855 45 72 20
0.0499441 -0.153989 -0.00840052 155 219 108
0.0506629 -0.153045 -0.00637684 163 233 114
0.0513894 -0.152091 -0.00433116 172 241 117
0.0521238 -0.151126 -0.00226317 178 255 125
0.0526576 -0.150039 -0.000588804 164 247 118
0.0527763 -0.148723 0.000261858 157 240 114
0.0543764 -0.148168 0.00407878 164 248 121
0.0492021 -0.123713 0.00342012 162 234 116
0.0491133 -0.122307 0.00384794 162 234 119
0.0488235 -0.12083 0.0038589 164 235 117
0.0485346 -0.119357 0.00386981 169 237 117
0.048446 -0.117954 0.00429638 174 239 118
0.048959 -0.116746 0.00597853 177 245 121
0.0490715 -0.115402 0.00682819 180 252 127
0.0487811 -0.113931 0.00683499 185 254 128
0.0486922 -0.112523 0.00726316 189 254 130
0.0508463 -0.111756 0.0124102 195 254 135
0.0537095 -0.111144 0.0190704 201 254 137
0.0514974 -0.109121 0.0150359 191 255 136
0.0518257 -0.107792 0.0163596 177 250 132
0.0517347 -0.106351 0.0167977 170 236 123
0.0516436 -0.104911 0.0172358 162 223 112
0.0515526 -0.103471 0.0176739 149 212 105
0.0512524 -0.101984 0.0176656 142 203 100
0.0511616 -0.100546 0.018103 135 193 94
0.0510707 -0.0991082 0.0185404 128 187 89
0.0509799 -0.0976703 0.0189777 125 182 87
0.050889 -0.0962325 0.019415 124 181 87
0.0505901 -0.0947589 0.0194041 123 183 87
0.0504994 -0.0933233 0.0198407 123 184 87
0.0504088 -0.0918878 0.0202774 123 183 87
0.050318 -0.0904524 0.0207139 122 181 86
0.0502274 -0.0890171 0.0211505 120 179 85
0.0501367 -0.0875819 0.021587 118 177 86
0.050046 -0.0861468 0.0220235 117 175 83
0.0497487 -0.0846899 0.0220088 113 171 81
0.0494523 -0.0832371 0.021994 111 167 79
0.0493619 -0.0818062 0.0224292 107 163 75
0.0492715 -0.0803755 0.0228643 105 163 76
0.0493867 -0.0789589 0.0237519 104 159 75
0.0497088 -0.0775504 0.0250974 103 159 76
0.0508689 -0.076175 0.0282978 103 157 73
0.0520487 -0.0747763 0.0315524 101 157 73
0.0536844 -0.0733667 0.0358289 101 156 72
0.0544693 -0.071907 0.0382299 101 155 70
0.0548182 -0.0704259 0.0396673 99 153 70
0.0549462 -0.0689364 0.040616 98 152 71
0.0550747 -0.0674427 0.0415674 99 152 71
0.0549803 -0.0659489 0.0420217 98 150 70
0.0546636 -0.0644616 0.041977 97 149 71
0.0543477 -0.0629788 0.0419324 97 149 70
0.0542536 -0.0614896 0.0423854 95 148 68
0.0539388 -0.0600134 0.0423402 95 146 67
0.0516736 -0.0586733 0.0378829 93 145 66
0.051581 -0.0572077 0.0383287 92 143 66
0.051062 -0.0557794 0.0378067 93 142 66
0.0509697 -0.0543182 0.0382512 92 140 66
0.0508775 -0.0528571 0.0386956 91 138 65
0.0505733 -0.0514207 0.0386562 90 137 65
0.0500593 -0.0500151 0.0381353 88 136 65
0.0495484 -0.0486175 0.0376174 89 134 61
0.0482142 -0.0473484 0.0352058 88 132 61
0.0473069 -0.0460374 0.0337652 87 131 61
0.047014 -0.0446408 0.0337334 87 130 62
0.0469238 -0.0432128 0.0341678 87 129 61
0.0466318 -0.0418222 0.0341353 87 127 59
0.0465417 -0.0403963 0.0345691 82 121 57
0.0460503 -0.0390528 0.0340707 74 111 53
0.0455616 -0.0377169 0.0335751 66 97 46
0.0448782 -0.0364328 0.0326219 60 81 27
0.044396 -0.0351133 0.0321335 49 74 20
0.0472958 -0.153481 -0.0104778 159 232 115
0.0479937 -0.152543 -0.00848428 168 241 115
0.0490988 -0.151818 -0.00566699 177 253 123
0.0500187 -0.15097 -0.00321247 170 247 120
0.0507457 -0.149999 -0.00113834 155 241 114
0.0514808 -0.149017 0.000958569 165 243 116
0.0487475 -0.133939 0.00152558 163 246 123
0.048458 -0.132443 0.00154 164 240 124
0.0483691 -0.131036 0.00196801 161 243 124
0.0478142 -0.125331 0.00326373 175 246 127
0.0475266 -0.123852 0.00327554 181 251 130
0.047438 -0.122449 0.00370222 188 254 131
0.0473494 -0.121046 0.00412886 190 254 132
0.0466686 -0.119438 0.00331066 195 254 134
0.0463841 -0.117975 0.00332221 192 254 136
0.0466888 -0.116709 0.00457527 187 254 134
0.0473921 -0.115563 0.00667408 181 255 134
0.0473032 -0.114157 0.00710174 176 253 131
0.0466208 -0.112573 0.00626908 168 241 125
0.0473246 -0.111402 0.00837985 162 230 118
0.0486421 -0.11039 0.0118052 159 219 110
0.0493678 -0.10919 0.0139784 152 209 103
0.0501015 -0.107977 0.0161757 141 201 97
0.0500107 -0.10654 0.0166126 132 192 93
0.0501272 -0.105154 0.0174945 127 186 91
0.0500364 -0.103715 0.017932 123 182 88
0.0499456 -0.102277 0.0183695 121 181 88
0.0498548 -0.100839 0.0188069 120 179 85
0.049764 -0.0994007 0.0192443 120 179 84
0.0496732 -0.0979626 0.0196817 120 179 85
0.0493759 -0.0964863 0.0196704 121 178 86
0.0492853 -0.0950505 0.0201071 122 179 88
0.0489891 -0.0935805 0.0200952 123 181 88
0.0488985 -0.0921468 0.0205312 124 182 86
0.0490133 -0.0907436 0.021417 122 182 86
0.0489227 -0.0893082 0.0218536 120 180 84
0.0488321 -0.0878728 0.0222901 119 177 85
0.0485365 -0.0864133 0.022275 118 174 85
0.0480381 -0.0849356 0.0218102 114 168 82
0.0479478 -0.0835065 0.0222449 110 165 78
0.0478576 -0.0820776 0.0226795 108 162 76
0.0477674 -0.0806487 0.0231141 104 162 75
0.0476772 -0.0792199 0.0235486 102 160 73
0.0484026 -0.0778408 0.0258015 103 160 73
0.0516653 -0.0765757 0.0337285 102 157 71
0.0522179 -0.0751333 0.0356196 101 156 72
0.0532121 -0.0736925 0.0385065 101 155 73
0.0533375 -0.0722116 0.0394508 101 154 73
0.0534633 -0.0707265 0.0403979 99 152 73
0.0538102 -0.0692378 0.0418457 98 151 73
0.0537159 -0.0677438 0.0423001 98 151 72
0.0536216 -0.06625 0.0427544 98 150 70
0.0535273 -0.0647562 0.0432087 97 149 70
0.053433 -0.0632625 0.043663 96 148 71
0.0533387 -0.0617689 0.0441173 94 147 69
0.0525862 -0.0603126 0.0430698 95 144 67
0.0505526 -0.058954 0.0390879 94 144 65
0.0502476 -0.0575024 0.039048 92 143 65
0.0499434 -0.0560549 0.0390081 91 142 66
0.049851 -0.0545915 0.0394532 91 140 66
0.0497586 -0.0531282 0.0398983 91 138 65
0.0496663 -0.051665 0.0403433 90 137 64
0.0493634 -0.0502283 0.0403016 88 135 64
0.0486436 -0.0488522 0.0392921 89 132 61
0.0473134 -0.0475775 0.0368597 90 132 60
0.0464086 -0.0462614 0.035406 88 132 61
0.0459149 -0.0448938 0.0349027 88 130 61
0.045624 -0.0434987 0.0348693 87 129 60
0.0455338 -0.0420706 0.0353036 85 126 59
0.0452438 -0.0406816 0.0352696 81 120 56
0.0451537 -0.0392557 0.0357033 73 109 51
0.0446662 -0.0379153 0.0352018 65 95 45
0.0441813 -0.0365825 0.034703 59 80 27
0.0435036 -0.035303 0.0337452 50 75 21
0.0444034 -0.154128 -0.013699 159 227 115
0.0448867 -0.153093 -0.012132 165 238 116
0.0455661 -0.15216 -0.0101631 176 251 122
0.0464476 -0.151328 -0.00777812 175 254 121
0.0485359 -0.151149 -0.00293194 159 244 115
0.0471801 -0.132732 0.00222752 192 254 133
0.0470914 -0.131325 0.00265554 200 255 131
0.0461444 -0.125466 0.00311991 204 254 146
0.0460559 -0.124065 0.00354604 188 255 145
0.0455761 -0.122518 0.00314385 175 252 137
0.0452932 -0.121051 0.00315572 170 245 130
0.0448174 -0.119519 0.00275615 166 236 120
0.0441521 -0.11793 0.00195 158 226 113
0.0440647 -0.116545 0.00237141 152 216 106
0.0453301 -0.115596 0.00568459 147 209 101
0.0452419 -0.114198 0.00610995 139 202 98
0.0453487 -0.112858 0.006954 131 193 95
0.0454559 -0.111516 0.00780031 128 187 91
0.0471502 -0.110622 0.0120678 125 180 87
0.0476643 -0.109369 0.0138027 123 176 84
0.0483866 -0.108161 0.015993 120 175 80
0.0487054 -0.106833 0.0173157 117 173 79
0.0488201 -0.105447 0.0181985 115 173 82
0.0487293 -0.104008 0.0186361 116 172 82
0.0486386 -0.10257 0.0190735 117 174 82
0.0485478 -0.101131 0.019511 118 175 83
0.048457 -0.0996931 0.0199484 118 176 83
0.0481615 -0.0982142 0.0199367 118 178 84
0.0480708 -0.0967781 0.0203735 120 178 86
0.0477763 -0.0953055 0.0203613 122 179 88
0.0476859 -0.0938716 0.0207973 123 181 88
0.0475954 -0.0924378 0.0212334 123 183 87
0.0477084 -0.0910348 0.0221201 121 183 87
0.0476178 -0.0895993 0.0225567 119 180 85
0.0475273 -0.0881638 0.0229933 118 176 84
0.0470309 -0.086679 0.0225259 116 173 84
0.0465374 -0.0852026 0.0220611 113 166 82
0.0464473 -0.0837753 0.0224951 109 163 78
0.0463572 -0.0823482 0.0229292 106 160 74
0.0462672 -0.0809211 0.0233632 103 160 73
0.0461771 -0.0794942 0.0237971 102 159 72
0.0512771 -0.078396 0.0359295 104 159 72
0.0509693 -0.0769068 0.0358943 103 158 72
0.0510906 -0.0754407 0.0368282 101 156 73
0.0518608 -0.0739926 0.0392351 100 154 73
0.0519843 -0.0725119 0.0401805 100 152 73
0.0521081 -0.0710272 0.0411286 98 151 73
0.0524513 -0.0695392 0.0425785 97 151 71
0.052357 -0.068045 0.0430329 97 151 70
0.0522627 -0.066551 0.0434873 97 150 71
0.0521684 -0.0650571 0.0439416 97 148 70
0.0520741 -0.0635633 0.0443959 96 146 70
0.0521987 -0.0620597 0.045354 93 146 70
0.0518856 -0.060576 0.0453044 94 143 67
0.0517913 -0.0590825 0.0457586 95 142 66
0.0510456 -0.0576378 0.044704 93 142 66
0.0503062 -0.0562056 0.0436584 91 141 66
0.0497859 -0.0547657 0.0431159 90 140 65
0.0492684 -0.0533341 0.0425765 89 138 64
0.0489644 -0.0518866 0.0425314 88 137 63
0.0486613 -0.0504433 0.0424864 88 134 62
0.0479415 -0.0490604 0.0414634 90 132 61
0.0472278 -0.0476893 0.0404489 90 131 60
0.0455051 -0.0464867 0.0370561 89 131 62
0.0450126 -0.0451145 0.0365468 87 129 60
0.0449221 -0.0436802 0.036983 86 128 59
0.0446317 -0.042283 0.0369466 84 125 58
0.0443422 -0.0408897 0.0369102 80 118 56
0.0440535 -0.0395004 0.0368739 72 107 51
0.0437656 -0.0381149 0.0368377 65 95 45
0.0432819 -0.0367777 0.036333 58 81 30
0.0429963 -0.035402 0.0362976 52 75 25
0.0410305 -0.154427 -0.0179594 161 224 117
0.0414931 -0.153409 -0.0164334 165 237 116
0.0423295 -0.152601 -0.0141395 174 244 122
0.0426154 -0.151457 -0.0129644 177 255 125
0.044226 -0.151064 -0.00906944 163 245 118
0.0378931 -0.132064 -0.0151457 192 255 137
0.0455094 -0.132847 0.00208636 177 255 146
0.0452254 -0.131359 0.00209993 175 253 146
0.0433306 -0.125144 0.000519991 158 213 106
0.0432431 -0.123758 0.000941582 148 205 101
0.0431556 -0.122372 0.00136315 138 199 98
0.0430682 -0.120986 0.00178469 135 191 95
0.0424127 -0.119397 0.000985719 128 188 91
0.0415756 -0.117756 -0.000208989 126 184 89
0.041489 -0.116383 0.000208512 122 178 85
0.0415889 -0.115071 0.00102915 118 175 81
0.0424417 -0.113996 0.00348166 115 173 80
0.0438831 -0.113085 0.00721937 113 170 81
0.0453559 -0.112153 0.0110386 112 170 81
0.0460596 -0.11097 0.0131958 113 169 82
0.0463694 -0.10966 0.0145 113 170 81
0.0464799 -0.108289 0.0153717 113 170 78
0.0469942 -0.10702 0.0171299 112 169 77
0.0473092 -0.105689 0.0184558 112 169 79
0.047422 -0.104301 0.0193402 114 170 80
0.0473312 -0.102863 0.0197777 117 173 82
0.0472405 -0.101424 0.0202151 117 175 83
0.0471497 -0.0999856 0.0206526 117 175 82
0.0468561 -0.0985062 0.02064 118 176 84
0.0467656 -0.0970699 0.0210767 119 178 87
0.046675 -0.0956339 0.0215135 121 180 88
0.0465844 -0.0941978 0.0219502 122 182 89
0.0464938 -0.0927619 0.0223868 122 183 88
0.0466056 -0.0913573 0.0232764 122 182 86
0.0465149 -0.0899196 0.0237136 119 179 82
0.0462222 -0.0884548 0.0236966 117 175 82
0.0457295 -0.0869691 0.0232273 114 172 83
0.0452395 -0.0854917 0.0227606 113 168 79
0.0451495 -0.0840643 0.0231946 109 165 79
0.0452588 -0.0826561 0.0240803 104 158 74
0.0453684 -0.0812441 0.0249683 104 159 73
0.046691 -0.0799201 0.0286173 102 157 73
0.0499332 -0.0786948 0.036654 103 156 72
0.0496273 -0.0772051 0.0366177 102 155 72
0.0497468 -0.0757392 0.0375527 101 153 72
0.0498666 -0.0742694 0.0384904 100 153 72
0.0506308 -0.0728123 0.0409102 99 152 72
0.0505369 -0.0713243 0.0413627 98 151 71
0.0508751 -0.0698392 0.0428113 97 150 70
0.0509978 -0.0683463 0.0437659 97 149 69
0.0509035 -0.0668522 0.0442203 97 148 69
0.0505927 -0.0653632 0.0441724 96 147 69
0.0507151 -0.0638642 0.0451289 96 146 71
0.0508377 -0.0623609 0.0460881 94 145 70
0.0507433 -0.060865 0.046543 94 143 67
0.050649 -0.0593692 0.0469979 94 141 67
0.0503382 -0.0578894 0.0469458 92 140 67
0.0498132 -0.0564319 0.0463893 91 140 67
0.049505 -0.054963 0.0463383 92 138 65
0.0491976 -0.0534983 0.0462873 92 137 65
0.0484673 -0.0520861 0.0452363 93 137 66
0.0475342 -0.050712 0.0437 95 135 65
0.0472332 -0.0492703 0.0436533 97 134 63
0.0463136 -0.047922 0.0421366 96 129 61
0.0445964 -0.0467134 0.0387155 91 128 63
0.0441051 -0.0453366 0.0382001 87 126 62
0.0440143 -0.0438981 0.0386376 84 124 64
0.0437244 -0.0424966 0.0385987 82 120 65
0.0434355 -0.041099 0.03856 77 113 62
0.043345 -0.0396648 0.0389961 68 102 57
0.0430569 -0.0382733 0.0389568 58 88 49
0.0427696 -0.0368858 0.0389175 51 74 34
0.0381116 -0.154936 -0.0213689 157 219 113
0.038557 -0.153933 -0.0198757 162 232 117
0.0393636 -0.153139 -0.0176336 168 241 118
0.0398185 -0.152119 -0.0161103 178 249 124
0.0399142 -0.150876 -0.0153261 167 248 115
0.0400101 -0.149631 -0.0145399 156 241 111
0.0413897 -0.149115 -0.0110846 167 245 118
0.036417 -0.136065 -0.0168095 189 255 133
0.0363336 -0.134741 -0.0164069 183 255 135
0.0362501 -0.133417 -0.0160044 171 249 133
0.0359942 -0.132013 -0.0159684 159 229 117
0.0366031 -0.131008 -0.0140928 146 213 104
0.0361725 -0.129524 -0.0144286 139 200 95
0.0355725 -0.127973 -0.0151299 133 194 95
0.035833 -0.1268 -0.0139924 125 188 93
0.0421588 -0.126815 0.00077609 121 179 82
0.0416945 -0.125278 0.000385672 119 174 79
0.0417954 -0.123968 0.00121216 115 170 80
0.0417081 -0.122584 0.00163318 113 170 80
0.0412457 -0.12106 0.00124093 113 168 79
0.0404148 -0.11941 4.49046e-05 114 167 81
0.0395928 -0.117778 -0.0011385 117 170 81
0.0382388 -0.115977 -0.00348846 115 170 80
0.0396035 -0.115107 9.1888e-05 110 168 78
0.0402533 -0.113978 0.00211956 109 166 78
0.0464565 -0.113167 0.016974 109 166 78
0.0457625 -0.111552 0.016082 109 166 81
0.0452731 -0.110007 0.0156362 110 166 80
0.0451832 -0.10858 0.0160702 110 166 78
0.045692 -0.107312 0.0178312 111 168 78
0.0462052 -0.106033 0.0196069 112 168 78
0.0461144 -0.104594 0.0200445 113 169 79
0.0460238 -0.103155 0.020482 117 171 80
0.0459331 -0.101717 0.0209194 119 173 81
0.0458423 -0.100278 0.0213569 118 174 82
0.0457517 -0.0988398 0.0217942 118 176 85
0.04546 -0.0973618 0.0217801 120 178 86
0.0453695 -0.0959256 0.0222168 122 180 87
0.0454797 -0.094525 0.0231063 124 182 89
0.045389 -0.093087 0.0235436 124 182 89
0.0452984 -0.0916491 0.0239808 123 180 87
0.0452077 -0.0902112 0.024418 120 177 83
0.0451171 -0.0887735 0.0248552 118 173 80
0.0448264 -0.0873103 0.0248366 114 170 80
0.0441393 -0.0858043 0.0239115 110 167 78
0.0440492 -0.0843748 0.0243462 108 164 77
0.0445549 -0.083004 0.026146 106 157 72
0.0448641 -0.0816041 0.0275001 103 157 74
0.0470108 -0.0803406 0.0330845 102 156 72
0.0488004 -0.0790081 0.037866 102 154 71
0.0484958 -0.0775157 0.037828 101 153 72
0.0484027 -0.0760378 0.0382774 101 151 71
0.0483095 -0.0745601 0.0387268 100 152 71
0.0484273 -0.0730885 0.0396661 99 151 70
0.0491833 -0.0716246 0.0420927 98 149 70
0.0490895 -0.0701365 0.0425451 97 148 71
0.0492093 -0.0686482 0.0434967 96 147 71
0.0493294 -0.0671558 0.0444508 97 147 70
0.0492354 -0.0656638 0.0449045 98 147 71
0.0491413 -0.0641718 0.0453581 101 147 72
0.0492615 -0.0626711 0.0463163 105 148 70
0.0493821 -0.061166 0.0472772 104 144 69
0.0492878 -0.0596701 0.0477321 100 140 69
0.0491935 -0.0581743 0.048187 91 134 73
0.0486711 -0.0567138 0.047626 85 131 75
0.0483641 -0.0552422 0.0475732 83 124 72
0.048058 -0.0537748 0.0475204 83 117 68
0.0475419 -0.0523356 0.0469645 84 110 63
0.0470288 -0.0509047 0.0464117 89 106 58
0.0461039 -0.0495373 0.0448686 91 100 55
0.0451895 -0.0481854 0.043343 92 96 49
0.0442854 -0.0468488 0.0418345 86 95 51
0.0431922 -0.0455599 0.0398628 82 95 55
0.0429027 -0.0441518 0.0398223 76 92 59
0.0428119 -0.0427114 0.0402603 72 91 61
0.0427211 -0.041271 0.0406983 66 86 57
0.0426303 -0.0398308 0.0411362 54 76 52
0.0425395 -0.0383907 0.0415741 35 58 42
0.0352662 -0.155433 -0.0246922 149 213 106
0.0355242 -0.154336 -0.0235855 158 231 116
0.0361274 -0.153448 -0.0217576 159 233 116
0.0367369 -0.152551 -0.0199111 162 237 119
0.0370019 -0.151432 -0.018778 163 234 115
0.0369179 -0.150099 -0.0183726 159 237 112
0.0366595 -0.148663 -0.018333 160 240 114
0.0364017 -0.147231 -0.0182935 164 243 120
0.0357992 -0.145607 -0.0189815 161 237 119
0.0346908 -0.143709 -0.0207414 162 231 116
0.0339337 -0.142025 -0.0217673 168 236 113
0.0335169 -0.140536 -0.0220781 175 247 123
0.0334347 -0.139232 -0.0216815 180 255 127
0.0336865 -0.138102 -0.0205745 187 255 131
0.0336042 -0.136794 -0.020177 178 251 126
0.0335218 -0.135487 -0.0197795 165 238 117
0.0337744 -0.134345 -0.018665 152 218 104
0.0340284 -0.133197 -0.0175449 138 201 98
0.0341145 -0.131963 -0.0167828 129 190 91
0.0345402 -0.130884 -0.0152877 124 178 82
0.0337801 -0.129256 -0.0163467 115 170 76
0.0336973 -0.127943 -0.0159474 110 164 77
0.034121 -0.12685 -0.0144511 108 162 75
0.0345479 -0.125748 -0.0129434 106 161 76
0.0401539 -0.12679 -0.000167273 106 161 75
0.0404384 -0.125561 0.00106169 106 161 72
0.0403514 -0.124178 0.00148219 107 161 72
0.0402642 -0.122795 0.00190265 105 162 74
0.0394374 -0.121134 0.000701547 106 163 75
0.0384379 -0.119423 -0.000885807 108 164 79
0.0376305 -0.117799 -0.00205811 110 164 80
0.0368316 -0.116192 -0.00321826 109 163 78
0.0383609 -0.115387 0.000760853 108 161 77
0.0450597 -0.112023 0.0181144 107 164 77
0.0443716 -0.110413 0.0172177 109 164 77
0.0444799 -0.109037 0.0180969 110 166 77
0.044988 -0.107765 0.0198737 110 166 78
0.0450978 -0.106378 0.0207614 111 167 79
0.045007 -0.104937 0.0211995 113 169 79
0.044716 -0.103448 0.0211864 115 170 81
0.0446254 -0.102009 0.0216238 118 172 82
0.0445347 -0.100571 0.0220613 118 173 83
0.0444441 -0.0991322 0.0224987 118 175 85
0.0443534 -0.0976938 0.0229361 120 178 86
0.0442628 -0.0962554 0.0233734 122 181 87
0.0441722 -0.0948171 0.0238108 125 182 91
0.0442809 -0.093413 0.0247036 126 182 91
0.0441901 -0.091973 0.0251415 124 179 88
0.0440994 -0.090533 0.0255793 120 176 84
0.0438097 -0.0890651 0.0255597 117 173 79
0.0437191 -0.0876273 0.0259969 114 168 79
0.0434304 -0.0861656 0.0259767 110 165 77
0.0433399 -0.0847301 0.0264132 108 164 76
0.0436458 -0.0833347 0.027768 106 157 72
0.0441534 -0.08195 0.0295948 102 156 73
0.0467122 -0.0807199 0.0361988 102 155 74
0.0474541 -0.0793074 0.0385918 102 153 71
0.0473609 -0.0778272 0.0390419 104 154 73
0.0468496 -0.0763258 0.0385138 105 153 73
0.0467566 -0.07485 0.0389626 108 153 73
0.0470811 -0.0733872 0.0403919 109 151 72
0.0469879 -0.0719074 0.0408418 106 146 71
0.047314 -0.0704322 0.0422806 100 142 73
0.0476419 -0.0689486 0.0437277 93 138 77
0.0477597 -0.0674586 0.0446808 87 135 79
0.0478777 -0.0659644 0.0456367 85 126 75
0.0477837 -0.0644723 0.0460904 87 116 67
0.047902 -0.0629719 0.0470496 93 108 57
0.0480207 -0.0614672 0.0480116 97 103 52
0.0481397 -0.0599582 0.0489764 91 97 54
0.0480453 -0.0584601 0.0494319 81 96 58
0.0477379 -0.0569793 0.0493762 70 91 59
0.0472198 -0.0555222 0.0488118 65 85 59
0.0469149 -0.0540522 0.0487572 60 75 52
0.0461924 -0.0526333 0.0476926 58 65 44
0.0458908 -0.0511761 0.0476399 62 54 37
0.0449711 -0.049805 0.0460876 64 47 37
0.0442651 -0.0484206 0.0450463 64 45 28
0.0433637 -0.0470788 0.043524 66 45 29
0.0428711 -0.0456872 0.0429901 62 44 30
0.0427795 -0.0442343 0.0434318 58 42 33
0.042688 -0.0427816 0.0438736 55 42 33
0.0427962 -0.0412901 0.0448049 52 42 29
0.0427046 -0.0398355 0.0452472 42 36 22
0.0331527 -0.156355 -0.0265503 146 198 93
0.0334034 -0.155268 -0.0254566 167 232 117
0.0333211 -0.153961 -0.0250591 172 240 119
0.0334056 -0.15276 -0.0243108 169 240 119
0.0341633 -0.151975 -0.0221423 171 241 120
0.0344191 -0.150866 -0.0210264 169 240 120
0.034336 -0.149546 -0.020625 170 240 119
0.0335778 -0.147825 -0.0216553 173 242 122
0.0329936 -0.146218 -0.0223218 174 243 124
0.032745 -0.144814 -0.0222781 177 248 130
0.0324971 -0.143414 -0.0222345 188 253 130
0.032085 -0.141926 -0.0225433 191 254 129
0.0318387 -0.140535 -0.0224996 194 255 137
0.0320856 -0.139412 -0.0213988 193 255 142
0.0321685 -0.138196 -0.020648 175 246 126
0.0320863 -0.136892 -0.0202515 155 225 110
0.0320042 -0.135588 -0.019855 142 210 99
0.0319221 -0.134284 -0.0194585 130 194 93
0.03184 -0.13298 -0.019062 123 181 86
0.0319227 -0.131755 -0.0183075 114 173 80
0.03267 -0.130839 -0.0161043 112 167 75
0.0319232 -0.12922 -0.0171538 105 160 72
0.0320061 -0.127988 -0.0163952 102 157 70
0.0325887 -0.126973 -0.0145406 102 156 71
0.0330087 -0.125874 -0.0130371 100 156 73
0.033432 -0.124768 -0.0115221 102 157 72
0.0391822 -0.125844 0.00173784 101 156 73
0.0392798 -0.124536 0.00256614 103 156 73
0.039008 -0.123078 0.00257881 105 158 72
0.0389209 -0.121696 0.00299925 103 160 74
0.0371967 -0.119703 -0.000217654 106 160 74
0.0363958 -0.118077 -0.00139342 109 162 76
0.0356033 -0.116469 -0.00255705 106 161 76
0.044551 -0.112559 0.020615 107 161 76
0.0438612 -0.110937 0.019703 108 163 77
0.0437706 -0.109498 0.0201406 109 166 78
0.0438787 -0.108113 0.0210287 110 166 78
0.0439872 -0.106725 0.0219193 111 167 79
0.0436972 -0.105231 0.021905 111 168 79
0.0434081 -0.103741 0.0218909 114 170 80
0.0433175 -0.102302 0.0223284 118 172 82
0.0432268 -0.100863 0.0227658 120 174 84
0.0431362 -0.0994248 0.0232033 119 175 84
0.0432435 -0.0980267 0.0240954 121 177 85
0.0431528 -0.0965861 0.0245333 123 179 87
0.043062 -0.0951457 0.0249713 125 181 91
0.0429714 -0.0937054 0.0254092 127 182 90
0.0430786 -0.0922978 0.0263056 125 178 87
0.0429878 -0.0908557 0.026744 121 174 84
0.042897 -0.0894137 0.0271824 118 173 81
0.0424116 -0.0879187 0.0267016 117 169 82
0.042321 -0.086481 0.0271387 116 165 81
0.0424273 -0.0850658 0.028036 119 163 78
0.0431286 -0.0837088 0.03033 115 156 75
0.0444441 -0.0823937 0.0340733 104 149 75
0.0464092 -0.0811048 0.0393579 96 142 76
0.0463158 -0.0796222 0.0398086 91 135 78
0.0462225 -0.0781397 0.0402593 87 129 75
0.045507 -0.076624 0.0392377 84 118 69
0.045414 -0.0751481 0.0396864 89 110 63
0.0457347 -0.0736861 0.0411179 93 102 55
0.0456415 -0.0722061 0.0415678 93 95 49
0.0457557 -0.070729 0.0425125 87 93 49
0.0462879 -0.0692488 0.0444578 77 90 51
0.0461941 -0.0677606 0.0449103 67 88 57
0.0463099 -0.0662689 0.0458651 60 81 53
0.0464259 -0.0647729 0.0468227 57 70 49
0.0467533 -0.0632646 0.0482911 60 58 41
0.046659 -0.0617683 0.0487461 64 51 32
0.0467761 -0.0602597 0.0497119 61 49 34
0.0466817 -0.0587614 0.0501675 58 51 32
0.0463763 -0.05728 0.0501107 53 51 31
0.0318049 -0.156515 -0.0262618 160 227 120
0.0318873 -0.155321 -0.0255178 169 240 122
0.0318052 -0.154017 -0.0251213 169 243 121
0.0320526 -0.152925 -0.024024 167 242 124
0.0319704 -0.151618 -0.0236267 168 242 125
0.0318881 -0.150311 -0.0232294 166 242 123
0.0316412 -0.148903 -0.0231845 167 243 124
0.0313949 -0.147499 -0.0231397 175 247 131
0.0311493 -0.146099 -0.023095 184 255 145
0.0310674 -0.144797 -0.0226993 183 255 153
0.0308225 -0.143402 -0.0226553 183 255 147
0.0307406 -0.142103 -0.0222601 174 247 133
0.0306588 -0.140803 -0.021865 168 244 132
0.0309028 -0.13968 -0.0207626 160 224 115
0.0308208 -0.138378 -0.0203665 149 211 101
0.0307388 -0.137075 -0.0199705 140 201 95
0.0306568 -0.135772 -0.0195744 131 192 92
0.0305748 -0.13447 -0.0191784 124 184 92
0.0306558 -0.133248 -0.018425 120 177 84
0.030737 -0.132023 -0.0176697 111 169 78
0.0306548 -0.130718 -0.0172728 110 162 73
0.0307361 -0.129489 -0.0165151 104 157 71
0.0313115 -0.128482 -0.0146636 100 155 70
0.0318928 -0.127465 -0.0127932 101 155 71
0.0318097 -0.126145 -0.0123918 101 153 72
0.0322284 -0.12504 -0.0108743 101 154 71
0.0381179 -0.123507 0.00407477 104 154 71
0.0380306 -0.122121 0.00449637 104 156 74
0.0373954 -0.120527 0.00368662 106 159 74
0.0484786 -0.115941 0.0325957 108 163 76
0.0436357 -0.112977 0.0222307 107 164 77
0.0431461 -0.111408 0.0217621 108 165 77
0.0426593 -0.109848 0.021296 108 164 78
0.0429642 -0.108517 0.022641 110 165 78
0.0424779 -0.106966 0.0221725 113 166 79
0.0423872 -0.105524 0.0226107 113 167 78
0.0420999 -0.104034 0.0225955 116 169 79
0.0420093 -0.102595 0.023033 117 171 81
0.0419187 -0.101156 0.0234705 117 173 85
0.0420243 -0.0997602 0.024363 118 174 87
0.0419336 -0.0983195 0.0248011 120 176 86
0.041843 -0.0968789 0.025239 123 178 87
0.0419487 -0.0954753 0.0261353 126 180 90
0.0418579 -0.0940329 0.0265738 129 182 92
0.0419637 -0.0926236 0.027473 129 178 89
0.0302983 -0.156565 -0.0263207 128 186 92
0.0302165 -0.155266 -0.0259257 132 190 94
0.0302967 -0.154073 -0.0251831 131 196 92
0.0303771 -0.152878 -0.0244386 131 196 93
0.0304577 -0.151679 -0.0236924 132 195 93
0.0303757 -0.150376 -0.023296 131 195 92
0.0301314 -0.148971 -0.0232511 134 193 96
0.0298877 -0.147571 -0.0232063 139 196 97
0.0298059 -0.146271 -0.022811 146 202 99
0.0297241 -0.14497 -0.0224158 146 202 101
0.0296423 -0.14367 -0.0220206 146 202 98
0.0295605 -0.14237 -0.0216254 139 201 97
0.0294787 -0.141071 -0.0212302 137 198 95
0.0297197 -0.139949 -0.0201262 134 194 95
0.0296378 -0.138646 -0.0197302 134 194 96
0.0295558 -0.137343 -0.0193341 133 192 96
0.0294738 -0.13604 -0.018938 127 187 91
0.0293919 -0.134738 -0.018542 124 183 93
0.0294714 -0.133516 -0.0177878 118 174 86
0.0295512 -0.132292 -0.0170317 113 167 77
0.0294691 -0.130986 -0.0166347 108 161 75
0.0293869 -0.129681 -0.0162378 103 156 72
0.0301183 -0.128752 -0.0140215 99 156 72
0.0306936 -0.127736 -0.0121478 100 154 72
0.031108 -0.126636 -0.0106293 98 153 72
0.0472112 -0.117745 0.0328734 106 160 78
0.0452379 -0.115639 0.0290066 108 161 78
0.0451449 -0.11416 0.0294563 108 162 78
0.0436253 -0.112248 0.0266112 108 163 77
0.0417411 -0.110257 0.0229093 109 163 76
0.0412583 -0.108701 0.02244 111 164 78
0.0409726 -0.107206 0.0224252 113 166 78
0.040882 -0.105767 0.0228628 114 166 79
0.0407915 -0.104327 0.0233003 115 167 80
0.0407009 -0.102888 0.0237378 115 171 82
0.0406104 -0.101449 0.0241753 116 173 86
0.0407142 -0.100053 0.0250688 118 175 88
0.0406236 -0.0986124 0.0255069 121 176 89
0.0407276 -0.097211 0.0264035 126 177 90
0.0406369 -0.0957684 0.0268421 129 177 93
0.0289588 -0.156724 -0.0260334 99 152 71
0.0288772 -0.155427 -0.0256389 103 152 70
0.0289556 -0.154236 -0.0248969 104 153 70
0.028874 -0.152936 -0.0245019 103 154 72
0.0289525 -0.151741 -0.0237575 105 153 73
0.0288707 -0.15044 -0.0233622 103 153 72
0.0286289 -0.149039 -0.0233173 105 154 74
0.0285472 -0.147741 -0.0229225 108 161 74
0.0286254 -0.146539 -0.0221763 113 163 77
0.0285436 -0.145239 -0.021781 115 168 79
0.0284619 -0.143939 -0.0213858 118 173 81
0.0283801 -0.142638 -0.0209906 120 177 84
0.0282984 -0.141338 -0.0205954 121 178 88
0.0285365 -0.140217 -0.0194898 123 182 87
0.0284545 -0.138914 -0.0190937 128 184 91
0.0283726 -0.137611 -0.0186976 131 190 94
0.0282907 -0.136308 -0.0183016 127 185 91
0.0282088 -0.135006 -0.0179055 126 181 92
0.0282869 -0.133784 -0.0171505 119 172 87
0.0283652 -0.13256 -0.0163935 115 168 76
0.0282831 -0.131254 -0.0159966 108 161 73
0.0283615 -0.130026 -0.0152373 103 158 73
0.0290873 -0.129098 -0.0130118 99 155 70
0.0294941 -0.128007 -0.0115023 101 152 71
0.029904 -0.126908 -0.00998139 101 153 71
0.0304833 -0.125874 -0.00807017 98 153 72
0.0455251 -0.119404 0.0321816 107 159 74
0.0439866 -0.11742 0.0292809 106 160 75
0.0438935 -0.115941 0.0297306 108 161 77
0.0397544 -0.108939 0.0226924 110 165 77
0.0394712 -0.107446 0.0226773 112 166 78
0.0393808 -0.106008 0.0231142 112 167 80
0.0392904 -0.104571 0.0235512 113 168 81
0.0392 -0.103133 0.0239881 116 169 81
0.0393018 -0.101742 0.0248802 119 171 83
0.0394039 -0.100346 0.0257747 122 173 87
0.0395063 -0.0989472 0.0266718 125 172 91
0.0392455 -0.0917655 0.0293279 58 60 37
0.0391547 -0.0903211 0.029767 58 56 36
0.0390639 -0.0888768 0.030206 53 59 35
0.0391662 -0.0874585 0.0311115 50 57 36
0.0276224 -0.156883 -0.0257467 92 135 64
0.027541 -0.155587 -0.0253527 97 137 65
0.0276176 -0.154398 -0.0246112 96 142 69
0.0276945 -0.153205 -0.0238679 94 142 66
0.0276129 -0.151906 -0.023473 94 143 65
0.0275313 -0.150607 -0.0230781 92 143 64
0.0274496 -0.149308 -0.0226832 92 144 66
0.027368 -0.148009 -0.0222884 96 148 68
0.0272864 -0.14671 -0.0218936 98 152 72
0.027363 -0.145507 -0.0211461 103 158 72
0.0272813 -0.144207 -0.0207508 109 162 74
0.0271996 -0.142907 -0.0203556 113 169 77
0.0272762 -0.141698 -0.0196054 116 171 84
0.027512 -0.140576 -0.0184959 120 180 87
0.02743 -0.139271 -0.0180992 125 183 89
0.0273481 -0.137966 -0.0177027 130 189 93
0.0272661 -0.136661 -0.0173061 124 185 90
0.0271841 -0.135357 -0.0169096 125 181 92
0.027261 -0.134135 -0.0161523 121 173 87
0.0271789 -0.132829 -0.0157553 114 169 81
0.027256 -0.131602 -0.0149957 108 161 75
0.0271738 -0.130294 -0.0145983 104 158 74
0.0280535 -0.129445 -0.0119995 100 154 70
0.0282944 -0.128278 -0.0108568 98 152 73
0.0286997 -0.12718 -0.00933331 98 153 72
0.0292729 -0.126147 -0.00741878 97 153 72
0.0442608 -0.121204 0.0324586 107 158 74
0.0427349 -0.119201 0.0295552 106 160 75
0.0416371 -0.117376 0.0276443 106 159 75
0.0415448 -0.115907 0.0280907 107 159 76
0.0412535 -0.114374 0.0280678 108 161 77
0.0383448 -0.110614 0.0225072 109 162 76
0.0382545 -0.109176 0.0229443 110 164 77
0.037784 -0.107631 0.0224775 112 165 78
0.0376939 -0.106197 0.0229133 113 168 81
0.0377933 -0.104814 0.0238015 116 169 83
0.0380836 -0.103474 0.0251478 120 166 84
0.037993 -0.102035 0.0255853 114 160 84
0.0382846 -0.100684 0.0269401 102 140 80
0.0381131 -0.0949481 0.0291577 62 63 38
0.0380223 -0.0935033 0.0295968 58 57 35
0.0379316 -0.0920587 0.030036 50 56 35
0.0264457 -0.157152 -0.0251142 87 131 63
0.0263642 -0.155855 -0.0247202 89 133 66
0.0262828 -0.154559 -0.0243262 92 136 67
0.026515 -0.153474 -0.0232337 90 135 64
0.0264333 -0.152175 -0.0228388 90 136 63
0.0263517 -0.150875 -0.0224439 88 137 62
0.0262701 -0.149576 -0.022049 89 138 64
0.0261886 -0.148277 -0.0216542 92 142 66
0.026107 -0.146978 -0.0212594 96 146 70
0.0261821 -0.145775 -0.020511 100 152 70
0.0261005 -0.144475 -0.0201158 105 156 73
0.0260188 -0.143175 -0.0197206 110 165 79
0.026094 -0.141966 -0.0189695 114 173 82
0.0263269 -0.140845 -0.0178584 119 176 83
0.0262449 -0.13954 -0.0174618 124 180 89
0.0263207 -0.138322 -0.0167051 128 187 94
0.0262387 -0.137016 -0.016308 126 183 88
0.0261566 -0.135709 -0.015911 126 182 92
0.0262324 -0.134486 -0.0151515 123 174 86
0.0261502 -0.133178 -0.014754 114 168 81
0.0260681 -0.13187 -0.0143565 107 160 77
0.025986 -0.130563 -0.0139591 103 156 77
0.0268567 -0.129715 -0.0113554 99 152 70
0.0272555 -0.128625 -0.00983766 99 152 72
0.0274953 -0.127452 -0.00868513 97 151 72
0.0280623 -0.126421 -0.00676725 100 155 72
0.0383326 -0.122639 0.0210633 107 156 76
0.0386259 -0.12134 0.0224098 108 156 76
0.0389208 -0.120035 0.0237638 108 157 74
0.0399996 -0.119003 0.026981 106 159 74
0.0399076 -0.117538 0.0274263 106 159 74
0.0388404 -0.115742 0.025549 108 159 77
0.0374076 -0.113846 0.0227894 108 159 78
0.0348954 -0.111634 0.0174356 108 161 77
0.0349896 -0.110276 0.0183043 110 164 78
0.0354526 -0.109024 0.0200602 115 164 81
0.0357336 -0.107708 0.0213832 116 162 82
0.0362029 -0.106438 0.0231639 108 153 83
0.0361129 -0.105006 0.0235991 95 134 78
0.0365858 -0.103719 0.0253963 92 113 67
0.0366841 -0.102328 0.0262904 88 94 53
0.0365936 -0.100888 0.0267279 78 80 44
0.0368813 -0.0995341 0.0280859 70 66 41
0.0367907 -0.0980909 0.0285246 64 57 35
0.036511 -0.0966091 0.028501 59 55 33
0.0366094 -0.0952048 0.0294018 56 56 35
0.0252687 -0.15742 -0.0244815 84 128 61
0.0251873 -0.156124 -0.0240875 87 130 61
0.025106 -0.154827 -0.0236935 89 133 64
0.0253352 -0.153743 -0.0225994 89 132 63
0.0252536 -0.152443 -0.0222045 87 134 62
0.0253278 -0.151247 -0.0214572 87 134 64
0.0252461 -0.149946 -0.0210619 89 136 61
0.0251644 -0.148645 -0.0206665 92 137 64
0.0250827 -0.147344 -0.0202712 96 144 71
0.0250011 -0.146044 -0.0198759 97 149 70
0.025075 -0.144838 -0.019125 103 155 71
0.0249933 -0.143536 -0.0187292 107 160 77
0.0249116 -0.142234 -0.0183335 115 169 84
0.0251416 -0.141113 -0.0172208 116 176 84
0.025216 -0.139898 -0.0164638 124 177 87
0.0252905 -0.138679 -0.0157049 131 186 93
0.0252084 -0.137371 -0.0153073 124 183 90
0.0252831 -0.136147 -0.0145461 128 181 90
0.0255156 -0.135004 -0.0134169 122 175 87
0.0254331 -0.133692 -0.0130179 114 167 82
0.0251934 -0.132299 -0.012986 107 158 77
0.0249543 -0.130909 -0.0129542 102 154 75
0.0255013 -0.129908 -0.0110821 100 154 70
0.0260539 -0.128897 -0.00919106 99 152 72
0.0262907 -0.127724 -0.00803684 99 151 72
0.0369203 -0.124303 0.0208796 107 157 75
0.0368297 -0.12286 0.0213182 106 155 75
0.0367391 -0.121417 0.0217568 106 156 75
0.0366485 -0.119974 0.0221953 106 156 75
0.0369367 -0.11867 0.023543 107 156 75
0.0368459 -0.117223 0.0239827 109 158 75
0.0358133 -0.115451 0.0221526 113 159 77
0.0336979 -0.113337 0.0176983 115 158 80
0.033428 -0.111864 0.0176903 106 151 79
0.033159 -0.110395 0.0176824 93 136 79
0.0336127 -0.109148 0.0194285 89 116 71
0.0335237 -0.107732 0.0198589 89 95 59
0.0341638 -0.106521 0.0220675 85 84 50
0.0348109 -0.105297 0.0243005 72 73 47
0.034721 -0.103866 0.0247356 65 65 43
0.0351881 -0.102574 0.0265375 62 61 34
0.0352845 -0.101181 0.0274332 60 56 29
0.0351941 -0.0997416 0.0278707 60 54 32
0.0242455 -0.1578 -0.0234999 86 126 61
0.0240102 -0.156392 -0.0234547 88 131 60
0.0240826 -0.155203 -0.0227108 89 133 64
0.0241552 -0.154011 -0.0219651 88 133 63
0.024228 -0.152817 -0.0212175 88 134 62
0.0241463 -0.151516 -0.020822 86 131 63
0.0240647 -0.150215 -0.0204267 86 133 63
0.0239831 -0.148914 -0.0200313 88 137 64
0.0239015 -0.147613 -0.019636 93 141 67
0.023974 -0.146409 -0.0188847 97 148 70
0.0238923 -0.145107 -0.0184889 102 155 71
0.0238106 -0.143805 -0.0180932 104 162 78
0.0237289 -0.142503 -0.0176975 112 169 82
0.023956 -0.141382 -0.0165831 115 174 82
0.0241842 -0.140257 -0.0154632 125 179 89
0.0241021 -0.138948 -0.0150656 131 185 95
0.0241754 -0.137727 -0.014304 128 184 94
0.0244051 -0.136588 -0.0131742 129 180 92
0.0244791 -0.135359 -0.0124073 124 176 90
0.0243965 -0.134044 -0.0120078 116 166 82
0.0243141 -0.132729 -0.0116083 109 160 76
0.0240755 -0.131336 -0.0115782 104 155 73
0.0243056 -0.130178 -0.0104387 100 151 70
0.0246942 -0.129091 -0.00891937 100 150 72
0.0249272 -0.127921 -0.00776593 99 149 73
0.0356084 -0.124598 0.0215858 110 156 76
0.0353307 -0.12308 0.0215726 110 157 76
0.0348678 -0.121492 0.0211093 113 159 79
0.034223 -0.119843 0.0202018 110 152 78
0.0341333 -0.118412 0.0206366 100 142 78
0.0342276 -0.117048 0.0215195 92 131 78
0.0326801 -0.115104 0.0184 86 111 66
0.032232 -0.113565 0.0179527 87 93 52
0.0319646 -0.112093 0.0179445 83 82 46
0.0318761 -0.110682 0.0183733 70 75 47
0.0317875 -0.109272 0.0188021 62 68 42
0.0322356 -0.108021 0.0205527 63 60 36
0.0321467 -0.106604 0.0209832 59 56 33
0.0327792 -0.105387 0.023198 52 52 33
0.0230667 -0.158069 -0.0228662 87 127 59
0.0229853 -0.15677 -0.0224717 88 128 60
0.0229038 -0.155472 -0.0220771 87 131 63
0.022975 -0.15428 -0.0213306 90 133 61
0.0230464 -0.153086 -0.0205822 91 132 63
0.0229648 -0.151785 -0.0201867 87 130 60
0.0228832 -0.150484 -0.0197914 85 134 62
0.0228016 -0.149182 -0.019396 87 136 64
0.0228728 -0.147981 -0.0186443 90 143 66
0.0227911 -0.146678 -0.0182485 94 146 69
0.0227094 -0.145376 -0.0178528 101 154 75
0.0226277 -0.144073 -0.017457 106 160 75
0.0225461 -0.142771 -0.0170613 112 168 81
0.0229237 -0.141743 -0.0155839 118 173 83
0.0229954 -0.140526 -0.0148238 123 179 88
0.0229134 -0.139218 -0.0144262 129 185 92
0.0231396 -0.138084 -0.0132981 129 186 97
0.0232119 -0.136858 -0.0125323 129 183 96
0.0234398 -0.135714 -0.0113951 124 177 91
0.0233572 -0.134397 -0.010995 114 167 81
0.0231196 -0.133 -0.0109656 109 161 76
0.0228826 -0.131606 -0.0109363 107 156 73
0.0229547 -0.130371 -0.0101667 102 148 71
0.023027 -0.129133 -0.00939521 100 148 71
0.0237237 -0.128193 -0.00711823 100 147 71
0.0336514 -0.123223 0.021376 83 112 69
0.0326479 -0.121422 0.0195766 84 94 61
0.0320168 -0.119785 0.0186815 87 83 49
0.0317482 -0.118296 0.0186723 81 77 44
0.0314804 -0.116811 0.0186631 72 72 41
0.0313915 -0.115394 0.0190938 62 65 39
0.0307698 -0.113793 0.0182067 57 58 34
0.0305048 -0.112322 0.0181981 56 55 31
0.0304164 -0.110913 0.0186263 54 55 32
0.0303281 -0.109504 0.0190545 53 54 30
0.0218877 -0.158337 -0.0222324 89 130 60
0.0219576 -0.157149 -0.021486 88 129 63
0.0218761 -0.155849 -0.021091 88 132 65
0.0217946 -0.154549 -0.020696 90 131 61
0.0218645 -0.153355 -0.0199468 88 131 63
0.021783 -0.152054 -0.0195513 86 134 62
0.021853 -0.150855 -0.0187998 86 134 62
0.0217713 -0.149552 -0.0184039 88 134 64
0.0216896 -0.14825 -0.0180081 92 141 68
0.021608 -0.146947 -0.0176123 95 148 69
0.0215263 -0.145644 -0.0172165 100 151 72
0.0214447 -0.144342 -0.0168207 106 158 76
0.0215144 -0.143133 -0.016065 113 164 81
0.0217362 -0.142012 -0.0149451 117 172 82
0.0218065 -0.140796 -0.0141843 121 177 88
0.0217245 -0.139487 -0.0137866 130 186 93
0.0217949 -0.138266 -0.0130234 131 186 98
0.0218655 -0.137042 -0.0122583 128 182 97
0.0219363 -0.135815 -0.0114912 126 177 92
0.0220072 -0.134585 -0.0107223 119 168 83
0.0217716 -0.133188 -0.0106932 118 163 78
0.0212325 -0.131637 -0.0114014 110 150 75
0.02176 -0.130641 -0.00952383 95 136 73
0.0218309 -0.129403 -0.00875152 88 128 76
0.0314396 -0.123142 0.0198415 68 68 40
0.0308135 -0.121497 0.0189454 65 64 40
0.0305466 -0.120006 0.0189359 64 58 37
0.0301037 -0.11845 0.0184868 64 56 35
0.030015 -0.117035 0.0189169 62 50 32
0.0299263 -0.11562 0.019347 56 48 33
0.0208584 -0.158719 -0.0212464 91 133 62
0.0207769 -0.157418 -0.0208513 90 129 61
0.0206955 -0.156118 -0.0204563 90 135 64
0.020614 -0.154818 -0.0200613 89 133 61
0.0206825 -0.153624 -0.0193113 90 132 62
0.0206009 -0.152323 -0.0189158 87 134 59
0.0205194 -0.151021 -0.0185204 86 135 61
0.0204379 -0.14972 -0.018125 89 135 63
0.0205062 -0.148519 -0.0173717 92 140 66
0.0205748 -0.147314 -0.0166166 95 146 68
0.020493 -0.14601 -0.0162203 100 153 70
0.0204113 -0.144706 -0.0158241 105 158 74
0.0204798 -0.143495 -0.0150661 113 163 80
0.0205486 -0.142282 -0.0143063 118 173 83
0.0204667 -0.140975 -0.0139091 121 177 86
0.0205354 -0.139757 -0.013147 127 186 93
0.0204535 -0.138448 -0.0127494 134 188 100
0.0203714 -0.137139 -0.0123518 138 181 101
0.0204402 -0.135915 -0.0115868 119 162 93
0.0205091 -0.134688 -0.0108199 92 121 77
0.0198256 -0.133053 -0.0118932 84 94 61
0.0198936 -0.131827 -0.0111296 82 76 46
0.0205652 -0.130911 -0.00888088 75 70 38
0.0301415 -0.123434 0.0205403 59 56 31
0.0293446 -0.121716 0.0191995 57 56 32
0.0289051 -0.120156 0.0187497 55 56 33
0.0288164 -0.11874 0.0191799 55 56 38
0.0287277 -0.117324 0.01961 57 49 38
0.0196775 -0.158988 -0.0206116 91 134 63
0.019596 -0.157688 -0.0202165 91 130 58
0.0195146 -0.156387 -0.0198215 88 134 62
0.0194332 -0.155087 -0.0194264 88 132 62
0.0195002 -0.153893 -0.0186756 87 130 60
0.0194187 -0.152592 -0.0182802 86 134 61
0.0193372 -0.15129 -0.0178847 87 134 61
0.0192557 -0.149989 -0.0174893 89 134 61
0.0191743 -0.148688 -0.0170939 91 140 66
0.0193897 -0.147583 -0.0159794 95 145 69
0.019308 -0.146279 -0.0155831 100 152 70
0.0193752 -0.14507 -0.0148248 104 157 73
0.0194425 -0.143859 -0.0140646 114 163 78
0.0193606 -0.142551 -0.0136674 116 171 82
0.0192788 -0.141244 -0.0132702 122 177 86
0.0191969 -0.139937 -0.012873 129 183 93
0.0191151 -0.13863 -0.0124759 138 183 107
0.0190332 -0.137323 -0.0120788 106 130 88
0.0188029 -0.135931 -0.0120481 86 87 52
0.0187213 -0.134626 -0.0116515 73 67 39
0.0193846 -0.133728 -0.00940882 62 55 37
0.0184963 -0.159257 -0.0199767 88 136 67
0.0184149 -0.157957 -0.0195816 87 131 59
0.0183336 -0.156657 -0.0191866 88 131 59
0.0182522 -0.155356 -0.0187915 87 132 61
0.0181708 -0.154056 -0.0183965 87 132 57
0.0182363 -0.152861 -0.0176444 85 133 62
0.0181548 -0.151559 -0.0172489 89 134 64
0.0180734 -0.150258 -0.0168535 89 135 63
0.017992 -0.148956 -0.0164582 93 139 66
0.0182045 -0.147853 -0.015342 96 147 67
0.0184181 -0.146744 -0.0142201 102 152 69
0.0184843 -0.145532 -0.0134582 104 156 72
0.0184024 -0.144223 -0.0130605 115 164 76
0.0183204 -0.142914 -0.0126627 118 172 81
0.0180908 -0.141513 -0.0126311 126 177 86
0.0180089 -0.140206 -0.012234 136 177 95
0.0177799 -0.138811 -0.012203 105 124 91
0.0176983 -0.137505 -0.0118064 78 76 49
0.0176165 -0.1362 -0.0114098 62 55 34
0.017315 -0.159527 -0.0193417 86 135 71
0.0172337 -0.158226 -0.0189466 87 131 62
0.0171523 -0.156926 -0.0185515 86 131 61
0.017071 -0.155625 -0.0181565 85 133 60
0.0169897 -0.154325 -0.0177614 85 130 58
0.0169083 -0.153025 -0.0173665 83 132 61
0.0169723 -0.151828 -0.0166131 87 134 63
0.0168909 -0.150527 -0.0162177 90 136 62
0.0169549 -0.149326 -0.015462 93 141 66
0.0173115 -0.148322 -0.0139784 97 146 68
0.0176708 -0.14731 -0.0124835 102 151 71
0.0178845 -0.146192 -0.0113474 108 156 75
0.0178021 -0.144876 -0.0109476 120 165 79
0.0177198 -0.14356 -0.0105479 122 165 82
0.0170488 -0.141875 -0.0116251 104 148 85
0.0169669 -0.140566 -0.0112274 93 105 70
0.016739 -0.139168 -0.0111976 75 66 45
0.0166572 -0.137861 -0.0108005 62 54 37
0.0162779 -0.15991 -0.0183504 99 129 70
0.0160522 -0.158496 -0.0183115 109 144 69
0.0159709 -0.157195 -0.0179164 107 143 68
0.0158896 -0.155895 -0.0175213 102 140 66
0.0158083 -0.154594 -0.0171263 104 139 64
0.015727 -0.153294 -0.0167313 105 142 65
0.0157895 -0.152098 -0.0159771 103 140 66
0.0157081 -0.150796 -0.0155817 105 143 67
0.0157707 -0.149595 -0.0148252 105 142 68
0.0165598 -0.148894 -0.0122407 99 143 71
0.0172129 -0.148081 -0.00999001 93 143 75
0.0172783 -0.146859 -0.00921492 88 132 74
0.0171956 -0.145536 -0.00881311 90 125 67
0.0169651 -0.144117 -0.00878606 96 119 61
0.0168825 -0.142796 -0.00838477 79 86 48
0.0150947 -0.16018 -0.0177143 93 111 57
0.0150133 -0.158878 -0.0173187 96 129 61
0.0147892 -0.157464 -0.0172811 94 131 62
0.014708 -0.156164 -0.016886 93 131 59
0.0146267 -0.154863 -0.016491 94 130 61
0.0145454 -0.153563 -0.016096 96 133 61
0.0144642 -0.152262 -0.015701 98 134 64
0.0145251 -0.151065 -0.0149456 86 113 56
0.014729 -0.149966 -0.0138255 83 112 51
0.0162413 -0.149778 -0.00937206 80 115 58
0.0164529 -0.148658 -0.00821927 76 110 59
0.0163701 -0.147331 -0.00781637 69 103 47
0.0162872 -0.146005 -0.00741348 70 106 52
0.0162044 -0.144679 -0.00701064 79 106 58
0.014053 -0.160565 -0.0167195 82 97 52
0.0138299 -0.159148 -0.0166826 84 121 57
0.0136074 -0.157734 -0.0166458 85 123 60
0.0135261 -0.156433 -0.0162507 87 128 59
0.0134449 -0.155132 -0.0158556 85 126 59
0.0133637 -0.153832 -0.0154606 87 128 60
0.0132824 -0.152531 -0.0150656 99 134 66
0.0132012 -0.151231 -0.0146706 74 96 45
0.0151213 -0.151374 -0.00912724 65 103 42
0.0128679 -0.160835 -0.0160825 78 86 46
0.0127865 -0.159531 -0.0156863 82 123 59
0.0124253 -0.158003 -0.0160103 84 122 59
0.0123441 -0.156702 -0.0156152 85 127 61
0.0122629 -0.155402 -0.0152201 81 126 60
0.0121817 -0.154101 -0.0148251 85 130 62
0.0121005 -0.1528 -0.0144301 107 145 71
0.0120194 -0.1515 -0.0140351 71 95 48
0.0118218 -0.161221 -0.0150841 74 76 42
0.0116012 -0.159801 -0.0150491 81 123 61
0.0113813 -0.158385 -0.0150143 83 124 58
0.0111618 -0.156972 -0.0149796 86 127 58
0.0112188 -0.155779 -0.0142231 81 128 60
0.0109995 -0.15437 -0.0141895 85 130 62
0.0110562 -0.153175 -0.0134321 113 149 72
0.0107729 -0.161609 -0.0140831 70 72 42
0.0105534 -0.160186 -0.0140494 82 123 62
0.0103345 -0.158767 -0.0140157 82 124 60
0.0101161 -0.157352 -0.0139822 84 126 58
0.0100349 -0.156049 -0.0135866 82 129 60
0.00995365 -0.154746 -0.0131911 86 129 61
0.0100092 -0.15355 -0.0124315 111 149 70
0.00972104 -0.161997 -0.0130795 63 67 39
0.00963941 -0.160687 -0.0126818 85 124 64
0.00942114 -0.159264 -0.0126498 95 130 68
0.00906751 -0.157733 -0.0129822 86 124 60
0.0089862 -0.156428 -0.0125861 81 128 60
0.00890496 -0.155124 -0.0121901 85 128 60
0.0089592 -0.153926 -0.0114283 106 147 70
0.00866634 -0.162386 -0.0120733 58 59 37
0.00858471 -0.161074 -0.0116751 84 116 58
0.00836751 -0.159649 -0.0116443 96 126 64
0.00815085 -0.158227 -0.0116136 87 124 58
0.0080694 -0.156919 -0.0112165 82 127 60
0.00785336 -0.155502 -0.0111865 85 128 60
0.00777206 -0.154196 -0.0107899 104 143 68
0.00774372 -0.162895 -0.0106954 54 55 35
0.00752708 -0.161463 -0.0106657 82 108 53
0.00731096 -0.160035 -0.0106361 84 120 57
0.00722936 -0.158723 -0.010238 84 124 57
0.0071477 -0.157412 -0.00983986 83 127 60
0.00679901 -0.155882 -0.0101802 84 129 59
0.00671756 -0.154574 -0.00978315 103 140 64
0.00663617 -0.153266 -0.00938611 74 119 68
0.00668213 -0.163287 -0.00968207 51 53 32
0.00660023 -0.16197 -0.00928238 85 103 53
0.00651827 -0.160653 -0.00888269 80 121 58
0.00630295 -0.159223 -0.0088553 82 125 58
0.00622118 -0.157908 -0.00845618 83 128 61
0.00587395 -0.156372 -0.00880082 83 130 59
0.00552845 -0.154845 -0.00914377 103 141 65
0.00544712 -0.153537 -0.00874671 79 125 76
0.00575051 -0.1638 -0.00829263 52 49 31
0.00566846 -0.16248 -0.0078919 83 96 51
0.00545365 -0.161043 -0.00786565 81 123 60
0.00523946 -0.15961 -0.00783952 81 125 58
0.00515756 -0.158293 -0.0074399 84 126 61
0.00507572 -0.156977 -0.00704028 83 130 60
0.00446945 -0.155224 -0.00813345 100 143 67
0.004388 -0.153914 -0.00773589 81 128 82
0.00468194 -0.164194 -0.00727224 51 47 33
0.00459981 -0.162872 -0.00687096 77 86 49
0.00451764 -0.161551 -0.00646974 81 124 60
0.00430408 -0.160113 -0.00644526 82 125 57
0.00409111 -0.158679 -0.00642092 85 127 60
0.00400916 -0.157361 -0.00602079 84 130 62
0.00379685 -0.155933 -0.00599707 97 142 66
0.00397599 -0.154834 -0.00484277 81 128 87
0.00361043 -0.16459 -0.0062491 50 48 31
0.00352824 -0.163266 -0.00584732 72 76 43
0.00344601 -0.161943 -0.00544555 82 125 60
0.00336376 -0.160619 -0.00504383 84 126 56
0.00315145 -0.159181 -0.0050212 84 128 59
0.00306937 -0.157859 -0.00462002 84 132 62
