ply
format ascii 1.0
element vertex 1243
property float x
property float y
property float z
property uchar diffuse_red
property uchar diffuse_green
property uchar diffuse_blue
end_header
0.0632495 -0.0888418 -0.0309389 255 0 0
0.0756505 -0.0891068 -0.0310268 255 0 0
0.0615916 -0.0870415 -0.0305537 255 0 0
0.0751668 -0.0872074 -0.0309354 255 0 0
0.0615914 -0.0852081 -0.0302985 255 0 0
0.0739195 -0.0841948 -0.031251 255 0 0
0.0744249 -0.0853428 -0.0314656 255 0 0
0.0623083 -0.0827948 -0.0313102 255 0 0
0.0718514 -0.082323 -0.0316055 255 0 0
0.0727539 -0.0827415 -0.0305872 255 0 0
0.0617853 -0.0803184 -0.0310349 255 0 0
0.0620468 -0.0815567 -0.0311726 255 0 0
0.0679806 -0.0802201 -0.030612 255 0 0
0.0706984 -0.0808818 -0.0309438 255 0 0
0.0598993 -0.0784359 -0.0312713 255 0 0
0.0606785 -0.079133 -0.0307785 255 0 0
0.0677542 -0.0789184 -0.0306274 255 0 0
0.0695526 -0.0794493 -0.0302864 255 0 0
0.0584905 -0.0770491 -0.0307869 255 0 0
0.0674147 -0.0769654 -0.0306507 255 0 0
0.0502222 -0.0746879 -0.0312034 255 0 0
0.0530373 -0.0747826 -0.0308659 255 0 0
0.0547311 -0.0757091 -0.0313571 255 0 0
0.0570991 -0.0759412 -0.0308228 255 0 0
0.0523305 -0.0732621 -0.0303939 255 0 0
0.04992 -0.0719532 -0.0310349 255 0 0
0.0515926 -0.0711182 -0.0315067 255 0 0
0.050995 -0.0691806 -0.0313822 255 0 0
0.0512215 -0.066327 -0.0314863 255 0 0
0.050963 -0.065105 -0.031351 255 0 0
0.129413 -0.248449 -0.0293275 255 0 0
0.129815 -0.247157 -0.0288293 255 0 0
0.129579 -0.24526 -0.0287103 255 0 0
0.129666 -0.243344 -0.0287825 255 0 0
0.130047 -0.242044 -0.0290232 255 0 0
0.130755 -0.240717 -0.0294585 255 0 0
0.130977 -0.238554 -0.0291086 255 0 0
0.128936 -0.237744 -0.0287155 255 0 0
0.13163 -0.236788 -0.0284995 255 0 0
0.147753 -0.236441 -0.029102 255 0 0
0.130833 -0.235385 -0.0288967 255 0 0
0.132878 -0.234735 -0.0292535 255 0 0
0.146827 -0.234686 -0.028823 255 0 0
0.133519 -0.233308 -0.0298783 255 0 0
0.134742 -0.232621 -0.0290324 255 0 0
0.145108 -0.232823 -0.0292385 255 0 0
0.14615 -0.232434 -0.0282303 255 0 0
0.135582 -0.231232 -0.0293378 255 0 0
0.13644 -0.231873 -0.0288523 255 0 0
0.139042 -0.230938 -0.0284808 255 0 0
0.144899 -0.231028 -0.0290673 255 0 0
0.136853 -0.229797 -0.0293195 255 0 0
0.139356 -0.22824 -0.0292306 255 0 0
0.142978 -0.228622 -0.0293012 255 0 0
0.144183 -0.229455 -0.0289257 255 0 0
0.139963 -0.226167 -0.0298724 255 0 0
0.141253 -0.226727 -0.0289685 255 0 0
0.14238 -0.227009 -0.0285817 255 0 0
0.144967 -0.22679 -0.029228 255 0 0
0.139455 -0.224811 -0.0289968 255 0 0
0.14091 -0.22587 -0.028403 255 0 0
0.143226 -0.225265 -0.0291552 255 0 0
0.146022 -0.225283 -0.0288881 255 0 0
0.138746 -0.222971 -0.0290204 255 0 0
0.143313 -0.223419 -0.0292047 255 0 0
0.146994 -0.223466 -0.0290885 255 0 0
0.148557 -0.222396 -0.0286153 255 0 0
0.139206 -0.220683 -0.0290067 255 0 0
0.145137 -0.220839 -0.0291969 255 0 0
0.148823 -0.221867 -0.0291463 255 0 0
0.150412 -0.220972 -0.0283692 255 0 0
0.154976 -0.220041 -0.0296011 255 0 0
0.156982 -0.221093 -0.0291123 255 0 0
0.14043 -0.218602 -0.0287364 255 0 0
0.146406 -0.21927 -0.0292972 255 0 0
0.151963 -0.219757 -0.0291607 255 0 0
0.153381 -0.218846 -0.029095 255 0 0
0.154723 -0.21898 -0.0282518 255 0 0
0.141244 -0.2171 -0.0296267 255 0 0
0.142513 -0.216703 -0.0282316 255 0 0
0.147478 -0.217697 -0.0292668 255 0 0
0.148978 -0.216094 -0.0294995 255 0 0
0.150794 -0.216953 -0.0286034 255 0 0
0.153069 -0.217801 -0.0295958 255 0 0
0.155287 -0.216894 -0.0289262 255 0 0
0.142641 -0.215821 -0.0292939 255 0 0
0.144362 -0.214448 -0.0290579 255 0 0
0.149484 -0.215289 -0.0287565 255 0 0
0.150143 -0.214446 -0.0286349 255 0 0
0.156956 -0.215002 -0.0294488 255 0 0
0.158636 -0.215189 -0.0281487 255 0 0
0.145794 -0.213138 -0.0287173 255 0 0
0.148779 -0.213513 -0.0294282 255 0 0
0.151593 -0.212865 -0.0297056 255 0 0
0.152173 -0.212743 -0.0282918 255 0 0
0.156888 -0.21318 -0.0290043 255 0 0
0.161093 -0.213439 -0.0286529 255 0 0
0.14877 -0.211141 -0.0291426 255 0 0
0.154077 -0.211117 -0.0296333 255 0 0
0.159177 -0.211383 -0.0288114 255 0 0
0.163588 -0.211661 -0.0291651 255 0 0
0.164488 -0.210109 -0.0288238 255 0 0
0.149556 -0.20924 -0.0291093 255 0 0
0.150074 -0.208036 -0.0284123 255 0 0
0.15689 -0.209285 -0.0288445 255 0 0
0.161693 -0.208974 -0.029425 255 0 0
0.163246 -0.208203 -0.0288986 255 0 0
0.167218 -0.208299 -0.0286214 255 0 0
0.150979 -0.206311 -0.029255 255 0 0
0.158702 -0.207581 -0.029217 255 0 0
0.165261 -0.207544 -0.0287882 255 0 0
0.166989 -0.206781 -0.0288279 255 0 0
0.168344 -0.206688 -0.0283836 255 0 0
0.161742 -0.205729 -0.0294139 255 0 0
0.169314 -0.204874 -0.0297766 255 0 0
0.170896 -0.204089 -0.0292461 255 0 0
0.153237 -0.203817 -0.0296641 255 0 0
0.154794 -0.202791 -0.0285938 255 0 0
0.164371 -0.203882 -0.0293399 255 0 0
0.166568 -0.202049 -0.0289891 255 0 0
0.172482 -0.203303 -0.0287144 255 0 0
0.174073 -0.202514 -0.0281817 255 0 0
0.157604 -0.200119 -0.0294094 255 0 0
0.168317 -0.200239 -0.0283585 255 0 0
0.17615 -0.20047 -0.0292896 255 0 0
0.158666 -0.199418 -0.0286875 255 0 0
0.169439 -0.19935 -0.0292433 255 0 0
0.170331 -0.198453 -0.0295813 255 0 0
0.15895 -0.197984 -0.0297865 255 0 0
0.160354 -0.197193 -0.0293341 255 0 0
0.170857 -0.196719 -0.0287763 255 0 0
0.161062 -0.195188 -0.0291668 255 0 0
0.162148 -0.194466 -0.028436 255 0 0
0.170977 -0.195115 -0.0285833 255 0 0
0.172151 -0.194872 -0.0294585 255 0 0
0.162829 -0.192672 -0.0290445 255 0 0
0.171641 -0.193986 -0.0284102 255 0 0
0.172612 -0.192704 -0.0298231 255 0 0
0.171722 -0.191935 -0.0286584 255 0 0
0.128983 -0.152443 -0.0294475 255 0 0
0.128347 -0.150725 -0.0294748 255 0 0
0.132184 -0.151795 -0.0297689 255 0 0
0.129529 -0.146655 -0.0293783 255 0 0
0.130513 -0.147701 -0.0293636 255 0 0
0.127854 -0.144425 -0.0296754 255 0 0
0.128549 -0.145612 -0.0293931 255 0 0
0.119539 -0.143185 -0.029757 255 0 0
0.125901 -0.142347 -0.0297045 255 0 0
0.126876 -0.143385 -0.02969 255 0 0
0.118629 -0.141652 -0.0296826 255 0 0
0.123956 -0.140278 -0.0297337 255 0 0
0.124994 -0.141126 -0.028963 255 0 0
0.126034 -0.141973 -0.0281906 255 0 0
0.121746 -0.138371 -0.0294973 255 0 0
0.123056 -0.139063 -0.028993 255 0 0
0.12437 -0.139758 -0.0284878 255 0 0
0.10943 -0.136858 -0.0294395 255 0 0
0.117379 -0.136432 -0.0297223 255 0 0
0.119552 -0.136477 -0.0292629 255 0 0
0.120853 -0.137164 -0.0287598 255 0 0
0.122435 -0.137701 -0.0285197 255 0 0
0.108551 -0.135361 -0.0293681 255 0 0
0.11201 -0.134787 -0.0295657 255 0 0
0.115218 -0.134559 -0.0294898 255 0 0
0.116902 -0.135005 -0.0293841 255 0 0
0.118936 -0.135122 -0.0287913 255 0 0
0.120235 -0.135807 -0.0282882 255 0 0
0.109251 -0.132851 -0.0298942 255 0 0
0.111307 -0.132776 -0.0293941 255 0 0
0.113332 -0.132542 -0.0295205 255 0 0
0.115037 -0.133442 -0.0288554 255 0 0
0.117367 -0.132755 -0.0283372 255 0 0
0.118321 -0.13377 -0.0283209 255 0 0
0.107286 -0.130921 -0.029617 255 0 0
0.109224 -0.13081 -0.0291641 255 0 0
0.110766 -0.130868 -0.02899 255 0 0
0.112598 -0.131283 -0.0289231 255 0 0
0.114602 -0.131384 -0.0283318 255 0 0
0.116415 -0.131742 -0.0283536 255 0 0
0.101486 -0.128154 -0.0299225 255 0 0
0.103521 -0.128164 -0.0294723 255 0 0
0.105201 -0.1291 -0.029391 255 0 0
0.107109 -0.128781 -0.0290573 255 0 0
0.108807 -0.129189 -0.0288464 255 0 0
0.110672 -0.129189 -0.0280858 255 0 0
0.0996799 -0.126201 -0.0299536 255 0 0
0.100903 -0.126849 -0.029466 255 0 0
0.102813 -0.126934 -0.0288864 255 0 0
0.10493 -0.126934 -0.0291984 255 0 0
0.106626 -0.127102 -0.0286863 255 0 0
0.108474 -0.127088 -0.0281806 255 0 0
0.100708 -0.124681 -0.02921 255 0 0
0.102936 -0.124892 -0.0290051 255 0 0
0.105117 -0.125129 -0.0295616 255 0 0
0.106532 -0.125156 -0.0285523 255 0 0
0.100654 -0.122789 -0.0291203 255 0 0
0.103369 -0.122533 -0.0290916 255 0 0
0.105026 -0.123171 -0.0286733 255 0 0
0.0972998 -0.120362 -0.0298513 255 0 0
0.0992857 -0.120672 -0.0291418 255 0 0
0.100401 -0.121 -0.0285842 255 0 0
0.10284 -0.121202 -0.0288445 255 0 0
0.104495 -0.121503 -0.0280699 255 0 0
0.0968445 -0.118794 -0.0290514 255 0 0
0.0988921 -0.119178 -0.0284827 255 0 0
0.102351 -0.119796 -0.0285778 255 0 0
0.0934768 -0.116193 -0.0294422 255 0 0
0.0947003 -0.11696 -0.0291854 255 0 0
0.0964944 -0.117292 -0.0283518 255 0 0
0.0929672 -0.114585 -0.0295143 255 0 0
0.0943044 -0.115194 -0.0285369 255 0 0
0.0912472 -0.112401 -0.0294374 255 0 0
0.0933896 -0.112846 -0.0292219 255 0 0
0.095425 -0.113295 -0.0298926 255 0 0
0.0850277 -0.110131 -0.0292875 255 0 0
0.0871895 -0.110536 -0.0288651 255 0 0
0.0891287 -0.111254 -0.0291871 255 0 0
0.0910279 -0.111226 -0.0288698 255 0 0
0.0928965 -0.110903 -0.0286566 255 0 0
0.0953411 -0.111791 -0.0297207 255 0 0
0.0819417 -0.108586 -0.029673 255 0 0
0.0830717 -0.109403 -0.0289643 255 0 0
0.0859549 -0.109416 -0.028486 255 0 0
0.0869408 -0.109429 -0.0290404 255 0 0
0.0881497 -0.109775 -0.0281456 255 0 0
0.0903637 -0.109243 -0.0290809 255 0 0
0.0786294 -0.107093 -0.0297137 255 0 0
0.0810929 -0.106825 -0.0294762 255 0 0
0.0828554 -0.106955 -0.0284614 255 0 0
0.08539 -0.106674 -0.029358 255 0 0
0.0899439 -0.106732 -0.0292787 255 0 0
0.0901964 -0.107676 -0.0283287 255 0 0
0.0791628 -0.104971 -0.0299143 255 0 0
0.0807507 -0.104722 -0.0290957 255 0 0
0.0825868 -0.105199 -0.0290293 255 0 0
0.0845348 -0.105446 -0.0286818 255 0 0
0.0894558 -0.105037 -0.0287466 255 0 0
0.075911 -0.102074 -0.0294569 255 0 0
0.0771474 -0.102885 -0.0295222 255 0 0
0.0790361 -0.103051 -0.0291021 255 0 0
0.0810523 -0.103151 -0.0286503 255 0 0
0.0826021 -0.103232 -0.0282597 255 0 0
0.0882362 -0.103286 -0.0294087 255 0 0
0.0734588 -0.100463 -0.0293276 255 0 0
0.07475 -0.10082 -0.0291968 255 0 0
0.0765939 -0.101359 -0.0284006 255 0 0
0.0789488 -0.101111 -0.0285664 255 0 0
0.0814396 -0.101271 -0.0283365 255 0 0
0.0867697 -0.100818 -0.0284803 255 0 0
0.0881105 -0.101785 -0.0293635 255 0 0
0.0695008 -0.0987838 -0.0296484 255 0 0
0.0712851 -0.0993996 -0.0293619 255 0 0
0.0724543 -0.0990429 -0.0286592 255 0 0
0.0741282 -0.0990367 -0.0282984 255 0 0
0.0776974 -0.0980366 -0.0295223 255 0 0
0.0790696 -0.0987878 -0.0291612 255 0 0
0.0801832 -0.099586 -0.0284592 255 0 0
0.0850597 -0.0989529 -0.0291065 255 0 0
0.0686222 -0.0965796 -0.0290983 255 0 0
0.0707524 -0.0973343 -0.0285379 255 0 0
0.0738648 -0.0977868 -0.0281587 255 0 0
0.07711 -0.0966174 -0.0289276 255 0 0
0.0786075 -0.0973397 -0.0287347 255 0 0
0.0829215 -0.0976048 -0.028332 255 0 0
0.0847192 -0.0971348 -0.028939 255 0 0
0.0675362 -0.0949965 -0.0291497 255 0 0
0.0695294 -0.0956913 -0.0282379 255 0 0
0.0731194 -0.0950143 -0.0295179 255 0 0
0.0750444 -0.0953814 -0.0289356 255 0 0
0.0767248 -0.0951855 -0.0284316 255 0 0
0.0839376 -0.0945137 -0.0287883 255 0 0
0.0846005 -0.0956471 -0.028519 255 0 0
0.0654814 -0.0920325 -0.0285422 255 0 0
0.0669192 -0.0934718 -0.0290218 255 0 0
0.069835 -0.0928008 -0.0289955 255 0 0
0.0712858 -0.0935005 -0.0288025 255 0 0
0.0730686 -0.0938865 -0.0280553 255 0 0
0.0768363 -0.0931359 -0.0288852 255 0 0
0.0829431 -0.0928133 -0.0291924 255 0 0
0.0604419 -0.0903466 -0.0287487 255 0 0
0.0621577 -0.0907177 -0.0280151 255 0 0
0.0649335 -0.0911457 -0.0292176 255 0 0
0.0764923 -0.0911555 -0.028908 255 0 0
0.0819483 -0.0911124 -0.0295966 255 0 0
0.0821378 -0.0908341 -0.0281525 255 0 0
0.0610817 -0.0890683 -0.0290878 255 0 0
0.0632269 -0.0887806 -0.0285134 255 0 0
0.0640531 -0.0897517 -0.0291449 255 0 0
0.0757557 -0.0886832 -0.0287113 255 0 0
0.0814755 -0.0897015 -0.0284216 255 0 0
0.0614674 -0.0869545 -0.0295641 255 0 0
0.0628563 -0.0871244 -0.0288965 255 0 0
0.0751351 -0.086875 -0.0285074 255 0 0
0.0618797 -0.0852062 -0.0292924 255 0 0
0.0625739 -0.085296 -0.0284523 255 0 0
0.0738861 -0.0844772 -0.0295516 255 0 0
0.0744743 -0.0852547 -0.0287916 255 0 0
0.0612666 -0.0835879 -0.0288134 255 0 0
0.0622976 -0.083986 -0.0280999 255 0 0
0.072588 -0.0831144 -0.0287829 255 0 0
0.0614249 -0.0805074 -0.0291752 255 0 0
0.062271 -0.0819617 -0.029744 255 0 0
0.0712409 -0.0811324 -0.029146 255 0 0
0.0603562 -0.0792577 -0.0284286 255 0 0
0.0687836 -0.0786472 -0.0290131 255 0 0
0.0700645 -0.0793865 -0.029056 255 0 0
0.0499589 -0.0760102 -0.0296461 255 0 0
0.0557606 -0.076342 -0.0282003 255 0 0
0.0573338 -0.076357 -0.0294076 255 0 0
0.059178 -0.0775042 -0.0291894 255 0 0
0.0672858 -0.0766137 -0.0289859 255 0 0
0.0680379 -0.0775548 -0.0294173 255 0 0
0.053567 -0.0748986 -0.0291839 255 0 0
0.054854 -0.0758222 -0.0290903 255 0 0
0.06706 -0.0753148 -0.0290012 255 0 0
0.0498678 -0.0732111 -0.029797 255 0 0
0.0516489 -0.0724551 -0.0299019 255 0 0
0.0525528 -0.0729731 -0.0290167 255 0 0
0.0663471 -0.0729003 -0.0288092 255 0 0
0.0493083 -0.0718212 -0.0280916 255 0 0
0.051282 -0.070951 -0.0289141 255 0 0
0.0656014 -0.0719725 -0.0283807 255 0 0
0.0505282 -0.0695369 -0.0285505 255 0 0
0.0508528 -0.0677149 -0.0287548 255 0 0
0.0656619 -0.0643024 -0.0283024 255 0 0
0.130302 -0.248378 -0.0268602 255 0 0
0.129857 -0.247139 -0.0273565 255 0 0
0.13022 -0.247108 -0.0260785 255 0 0
0.129623 -0.245247 -0.0272367 255 0 0
0.12971 -0.243336 -0.0273061 255 0 0
0.13009 -0.242039 -0.0275426 255 0 0
0.129087 -0.240176 -0.0264358 255 0 0
0.130332 -0.240745 -0.0269473 255 0 0
0.129012 -0.238962 -0.0275739 255 0 0
0.13037 -0.238797 -0.0267626 255 0 0
0.129993 -0.236887 -0.0278102 255 0 0
0.131197 -0.236426 -0.0268622 255 0 0
0.147802 -0.236327 -0.0273252 255 0 0
0.132693 -0.234591 -0.027116 255 0 0
0.147142 -0.235149 -0.0268288 255 0 0
0.134764 -0.232923 -0.0271772 255 0 0
0.137173 -0.232103 -0.0263897 255 0 0
0.14376 -0.232459 -0.0260933 255 0 0
0.144415 -0.23391 -0.0263316 255 0 0
0.14664 -0.233109 -0.0267862 255 0 0
0.135613 -0.231256 -0.0278229 255 0 0
0.136318 -0.231217 -0.0267025 255 0 0
0.139034 -0.231532 -0.0262699 255 0 0
0.143915 -0.231015 -0.0263598 255 0 0
0.145375 -0.230378 -0.026907 255 0 0
0.146033 -0.231553 -0.027404 255 0 0
0.137405 -0.229789 -0.027333 255 0 0
0.138114 -0.22975 -0.0262077 255 0 0
0.140709 -0.228749 -0.0270776 255 0 0
0.143426 -0.229019 -0.0271424 255 0 0
0.144468 -0.228802 -0.0265405 255 0 0
0.141679 -0.226514 -0.0276529 255 0 0
0.142521 -0.226931 -0.0268358 255 0 0
0.145656 -0.22641 -0.0273146 255 0 0
0.14112 -0.224879 -0.0267966 255 0 0
0.143941 -0.225139 -0.0279736 255 0 0
0.144601 -0.225149 -0.0271294 255 0 0
0.146917 -0.224974 -0.0271777 255 0 0
0.140484 -0.223016 -0.0268428 255 0 0
0.144953 -0.22294 -0.027085 255 0 0
0.147518 -0.22344 -0.0266773 255 0 0
0.149261 -0.222663 -0.0261142 255 0 0
0.139769 -0.22092 -0.0277946 255 0 0
0.140331 -0.22116 -0.0265819 255 0 0
0.146401 -0.220645 -0.0273754 255 0 0
0.149371 -0.221877 -0.0270935 255 0 0
0.151645 -0.220474 -0.0270478 255 0 0
0.152659 -0.220034 -0.026644 255 0 0
0.15676 -0.220074 -0.0271308 255 0 0
0.158774 -0.221127 -0.0266351 255 0 0
0.140934 -0.219274 -0.026994 255 0 0
0.147053 -0.219095 -0.027082 255 0 0
0.153838 -0.218609 -0.0271641 255 0 0
0.155456 -0.219021 -0.0268887 255 0 0
0.142385 -0.217579 -0.0271746 255 0 0
0.144097 -0.216225 -0.0269256 255 0 0
0.148126 -0.217523 -0.027044 255 0 0
0.150884 -0.216477 -0.0271289 255 0 0
0.152517 -0.217223 -0.0268894 255 0 0
0.15442 -0.217767 -0.0267397 255 0 0
0.156592 -0.216893 -0.027059 255 0 0
0.143922 -0.215418 -0.0278898 255 0 0
0.145521 -0.214931 -0.0265749 255 0 0
0.149326 -0.215226 -0.0273821 255 0 0
0.150637 -0.215077 -0.0270927 255 0 0
0.155626 -0.215953 -0.0279542 255 0 0
0.15726 -0.214633 -0.0265541 255 0 0
0.15939 -0.215152 -0.0269528 255 0 0
0.145969 -0.213956 -0.0277431 255 0 0
0.14759 -0.213459 -0.026417 255 0 0
0.149069 -0.212778 -0.0273443 255 0 0
0.152752 -0.212622 -0.0268788 255 0 0
0.15854 -0.212512 -0.027007 255 0 0
0.162632 -0.213325 -0.0270552 255 0 0
0.149397 -0.210983 -0.0269167 255 0 0
0.150014 -0.211878 -0.0263559 255 0 0
0.154516 -0.210961 -0.0272353 255 0 0
0.16082 -0.210058 -0.0274037 255 0 0
0.16494 -0.211575 -0.0274495 255 0 0
0.149529 -0.209445 -0.0270976 255 0 0
0.157771 -0.209102 -0.0266968 255 0 0
0.163138 -0.208908 -0.026613 255 0 0
0.166048 -0.20999 -0.0272102 255 0 0
0.169 -0.208145 -0.0271038 255 0 0
0.150825 -0.207205 -0.0267019 255 0 0
0.159588 -0.207398 -0.0270577 255 0 0
0.169538 -0.206583 -0.0273688 255 0 0
0.152401 -0.205104 -0.0273115 255 0 0
0.154101 -0.204055 -0.0263721 255 0 0
0.162635 -0.205545 -0.0272372 255 0 0
0.168393 -0.20599 -0.0277295 255 0 0
0.170435 -0.205322 -0.0276164 255 0 0
0.172015 -0.20454 -0.0270843 255 0 0
0.16527 -0.203697 -0.0271485 255 0 0
0.173599 -0.203755 -0.0265509 255 0 0
0.175188 -0.202968 -0.0260165 255 0 0
0.156565 -0.201488 -0.0268922 255 0 0
0.158468 -0.200372 -0.0260732 255 0 0
0.167171 -0.201926 -0.0275202 255 0 0
0.169233 -0.200356 -0.0270072 255 0 0
0.175667 -0.201723 -0.0276478 255 0 0
0.176783 -0.200825 -0.0266918 255 0 0
0.159734 -0.198713 -0.0279627 255 0 0
0.160476 -0.198086 -0.0269659 255 0 0
0.170977 -0.198535 -0.0275181 255 0 0
0.161168 -0.196704 -0.0270292 255 0 0
0.172365 -0.197244 -0.0267254 255 0 0
0.162599 -0.195292 -0.0263276 255 0 0
0.172448 -0.195209 -0.0269682 255 0 0
0.163279 -0.193507 -0.0269253 255 0 0
0.171066 -0.192603 -0.0268968 255 0 0
0.172423 -0.193687 -0.0266213 255 0 0
0.163966 -0.191707 -0.0275287 255 0 0
0.164385 -0.191152 -0.0262431 255 0 0
0.126525 -0.140637 -0.0274811 255 0 0
0.125064 -0.139087 -0.0275065 255 0 0
0.126529 -0.138778 -0.0267783 255 0 0
0.123033 -0.136463 -0.0272192 255 0 0
0.124719 -0.137567 -0.0272963 255 0 0
0.11996 -0.134117 -0.0273292 255 0 0
0.121264 -0.134801 -0.0268229 255 0 0
0.122848 -0.135331 -0.0265776 255 0 0
0.111375 -0.13212 -0.0277714 255 0 0
0.112866 -0.133192 -0.0269143 255 0 0
0.119344 -0.132763 -0.0268586 255 0 0
0.120645 -0.133445 -0.0263522 255 0 0
0.11113 -0.130707 -0.027786 255 0 0
0.113071 -0.130621 -0.0272786 255 0 0
0.11736 -0.130911 -0.0276427 255 0 0
0.118361 -0.131191 -0.0268941 255 0 0
0.109486 -0.128353 -0.0278449 255 0 0
0.111175 -0.128622 -0.0272904 255 0 0
0.113255 -0.128786 -0.0272684 255 0 0
0.115722 -0.128727 -0.0279383 255 0 0
0.116631 -0.129059 -0.0271035 255 0 0
0.105062 -0.12669 -0.0278277 255 0 0
0.10738 -0.126531 -0.0276228 255 0 0
0.109245 -0.126876 -0.0274545 255 0 0
0.11096 -0.127071 -0.026735 255 0 0
0.112519 -0.127532 -0.0266741 255 0 0
0.11598 -0.126713 -0.027505 255 0 0
0.116393 -0.126202 -0.0262682 255 0 0
0.103592 -0.124942 -0.0273704 255 0 0
0.105368 -0.124554 -0.0266705 255 0 0
0.106846 -0.125274 -0.027167 255 0 0
0.108659 -0.125179 -0.0266315 255 0 0
0.110656 -0.125214 -0.026162 255 0 0
0.112768 -0.125533 -0.026241 255 0 0
0.115368 -0.125365 -0.0270346 255 0 0
0.101415 -0.122772 -0.0278978 255 0 0
0.102647 -0.123418 -0.0274052 255 0 0
0.104897 -0.122496 -0.0265753 255 0 0
0.107016 -0.123078 -0.0267665 255 0 0
0.108979 -0.12385 -0.0262881 255 0 0
0.110631 -0.123705 -0.0260213 255 0 0
0.101164 -0.121136 -0.0276317 255 0 0
0.102793 -0.120825 -0.0269712 255 0 0
0.104829 -0.120778 -0.0264044 255 0 0
0.0993271 -0.118618 -0.0269703 255 0 0
0.100959 -0.119342 -0.0269869 255 0 0
0.103308 -0.118685 -0.0266658 255 0 0
0.104286 -0.119727 -0.0263574 255 0 0
0.0973327 -0.116581 -0.0272179 255 0 0
0.0990185 -0.117329 -0.0263744 255 0 0
0.0951624 -0.114749 -0.0276656 255 0 0
0.0962867 -0.114999 -0.0267612 255 0 0
0.0929528 -0.112555 -0.0277054 255 0 0
0.0947671 -0.112915 -0.026637 255 0 0
0.0898449 -0.110562 -0.027641 255 0 0
0.0910271 -0.110324 -0.0276228 255 0 0
0.0929211 -0.111251 -0.0267753 255 0 0
0.0844561 -0.108337 -0.0277674 255 0 0
0.0869762 -0.108708 -0.0275617 255 0 0
0.0888941 -0.109005 -0.0271712 255 0 0
0.0910433 -0.108856 -0.0270136 255 0 0
0.0924302 -0.109668 -0.0262506 255 0 0
0.083514 -0.107201 -0.027737 255 0 0
0.0851768 -0.106867 -0.0268974 255 0 0
0.0870328 -0.107315 -0.0265699 255 0 0
0.0894125 -0.107087 -0.0264588 255 0 0
0.0902009 -0.107255 -0.0270299 255 0 0
0.0833697 -0.104127 -0.0279037 255 0 0
0.0847979 -0.105051 -0.0269113 255 0 0
0.0892871 -0.104788 -0.0270708 255 0 0
0.0797658 -0.102264 -0.0274645 255 0 0
0.0805445 -0.103169 -0.0279765 255 0 0
0.0833307 -0.102787 -0.0271802 255 0 0
0.0845392 -0.103061 -0.026559 255 0 0
0.0868485 -0.103136 -0.0268228 255 0 0
0.0884435 -0.103339 -0.0270043 255 0 0
0.0777805 -0.100282 -0.0277114 255 0 0
0.0789853 -0.100643 -0.0269763 255 0 0
0.0814313 -0.100726 -0.0271427 255 0 0
0.0826862 -0.101145 -0.0273902 255 0 0
0.0842667 -0.101598 -0.0262879 255 0 0
0.0865216 -0.101005 -0.0265305 255 0 0
0.0754423 -0.0993028 -0.0276602 255 0 0
0.0768801 -0.09876 -0.0271326 255 0 0
0.078694 -0.0989014 -0.0265239 255 0 0
0.0806745 -0.0986356 -0.0265806 255 0 0
0.0827047 -0.0987942 -0.0265865 255 0 0
0.0853723 -0.0994817 -0.0270721 255 0 0
0.0865504 -0.0989472 -0.0260222 255 0 0
0.071193 -0.0963873 -0.0278554 255 0 0
0.0731114 -0.0969039 -0.0276533 255 0 0
0.0745439 -0.0970741 -0.0271061 255 0 0
0.0771159 -0.0972354 -0.0263098 255 0 0
0.0792732 -0.0969036 -0.0267726 255 0 0
0.0807314 -0.097074 -0.026548 255 0 0
0.0821274 -0.0973197 -0.0272345 255 0 0
0.0857963 -0.0971062 -0.0275194 255 0 0
0.0863292 -0.097432 -0.0267892 255 0 0
0.0694901 -0.0945471 -0.0274768 255 0 0
0.0704505 -0.0955128 -0.0273542 255 0 0
0.0729386 -0.0951275 -0.0268173 255 0 0
0.0755125 -0.094922 -0.0268373 255 0 0
0.0774344 -0.0948057 -0.0274195 255 0 0
0.0785166 -0.0952203 -0.0266352 255 0 0
0.0805146 -0.0956107 -0.0260798 255 0 0
0.084918 -0.0946289 -0.02702 255 0 0
0.0672252 -0.0929024 -0.027452 255 0 0
0.0687412 -0.0932996 -0.0267258 255 0 0
0.0713784 -0.0932087 -0.0267992 255 0 0
0.0733965 -0.0926931 -0.0270998 255 0 0
0.0748629 -0.0925162 -0.0265018 255 0 0
0.0771002 -0.0935255 -0.0266244 255 0 0
0.079912 -0.0939844 -0.0261069 255 0 0
0.083664 -0.0928592 -0.0270196 255 0 0
0.0847456 -0.0935538 -0.0264052 255 0 0
0.0654476 -0.0905881 -0.0270939 255 0 0
0.0669889 -0.0911838 -0.026998 255 0 0
0.0689981 -0.0912429 -0.0270423 255 0 0
0.0710251 -0.0910691 -0.0267072 255 0 0
0.0734039 -0.0909469 -0.0262998 255 0 0
0.0751836 -0.0906658 -0.02603 255 0 0
0.0764768 -0.0916151 -0.0265395 255 0 0
0.0827769 -0.0913371 -0.0270965 255 0 0
0.0635186 -0.0890897 -0.0275079 255 0 0
0.064871 -0.0891702 -0.0273374 255 0 0
0.066334 -0.0895874 -0.026439 255 0 0
0.0683329 -0.0899085 -0.0263082 255 0 0
0.0719554 -0.0893888 -0.0260991 255 0 0
0.0749158 -0.088975 -0.0265171 255 0 0
0.0761083 -0.0894439 -0.027237 255 0 0
0.0816654 -0.0894258 -0.0269811 255 0 0
0.063508 -0.087161 -0.0272978 255 0 0
0.0646778 -0.0869241 -0.0266707 255 0 0
0.066614 -0.0878252 -0.0262616 255 0 0
0.0748463 -0.0865783 -0.0267143 255 0 0
0.0630733 -0.084772 -0.0272591 255 0 0
0.0650754 -0.0851007 -0.0270099 255 0 0
0.0662606 -0.0849769 -0.0260994 255 0 0
0.0740923 -0.0848658 -0.026402 255 0 0
0.0585409 -0.0821213 -0.0269732 255 0 0
0.0614581 -0.0821753 -0.0268801 255 0 0
0.0623787 -0.083017 -0.0271885 255 0 0
0.065646 -0.083891 -0.0263986 255 0 0
0.0729649 -0.083137 -0.0274357 255 0 0
0.061479 -0.0812033 -0.0268471 255 0 0
0.0709327 -0.081068 -0.0268511 255 0 0
0.0596499 -0.0787332 -0.0271423 255 0 0
0.0603578 -0.079864 -0.0268404 255 0 0
0.0695113 -0.0793917 -0.0268617 255 0 0
0.0544228 -0.0761277 -0.027184 255 0 0
0.0571198 -0.0769024 -0.0271337 255 0 0
0.0587203 -0.0778041 -0.0272637 255 0 0
0.0675319 -0.0767324 -0.0275426 255 0 0
0.0685634 -0.0778107 -0.0269996 255 0 0
0.0491903 -0.0746709 -0.0276281 255 0 0
0.053611 -0.0747135 -0.0266329 255 0 0
0.067063 -0.0748779 -0.0274551 255 0 0
0.0688929 -0.0752985 -0.0265262 255 0 0
0.0490507 -0.0731396 -0.0265617 255 0 0
0.0530106 -0.0731604 -0.0272857 255 0 0
0.0658491 -0.0720977 -0.0269427 255 0 0
0.0663338 -0.0732079 -0.0271472 255 0 0
0.0688484 -0.0725697 -0.026421 255 0 0
0.0518384 -0.070674 -0.027026 255 0 0
0.0525237 -0.0714203 -0.0264822 255 0 0
0.0627213 -0.0709909 -0.0271512 255 0 0
0.0647785 -0.0708268 -0.0268578 255 0 0
0.0691318 -0.0704795 -0.0272189 255 0 0
0.0515831 -0.0694657 -0.0268919 255 0 0
0.061897 -0.0685459 -0.0276765 255 0 0
0.0627646 -0.0689437 -0.0266792 255 0 0
0.0641451 -0.0689685 -0.0261142 255 0 0
0.0687319 -0.0686133 -0.0273386 255 0 0
0.0519623 -0.0676327 -0.0272821 255 0 0
0.0524186 -0.0678561 -0.0260679 255 0 0
0.0639212 -0.0676802 -0.0261293 255 0 0
0.0682655 -0.067076 -0.0269506 255 0 0
0.0656195 -0.0646359 -0.0264686 255 0 0
0.0669219 -0.0653928 -0.0273561 255 0 0
0.0632301 -0.0625377 -0.027199 255 0 0
0.0647986 -0.0634924 -0.0272555 255 0 0
0.0597547 -0.060853 -0.0260687 255 0 0
0.0613299 -0.0613141 -0.0264865 255 0 0
0.0620415 -0.0614934 -0.0275616 255 0 0
0.130203 -0.248351 -0.0245758 255 0 0
0.129622 -0.247114 -0.024249 255 0 0
0.129564 -0.245444 -0.0252162 255 0 0
0.129563 -0.2427 -0.0249898 255 0 0
0.129544 -0.240837 -0.0244666 255 0 0
0.129865 -0.23933 -0.0248243 255 0 0
0.130581 -0.238251 -0.0244888 255 0 0
0.131162 -0.236763 -0.0250388 255 0 0
0.147236 -0.236324 -0.025363 255 0 0
0.13177 -0.235511 -0.0255724 255 0 0
0.133066 -0.234683 -0.0249505 255 0 0
0.147038 -0.235065 -0.0250118 255 0 0
0.134947 -0.233033 -0.0250842 255 0 0
0.13684 -0.233191 -0.0248505 255 0 0
0.146588 -0.23302 -0.0249828 255 0 0
0.136867 -0.231206 -0.0247368 255 0 0
0.141238 -0.230452 -0.0254941 255 0 0
0.145663 -0.230628 -0.0247099 255 0 0
0.146084 -0.231446 -0.0256298 255 0 0
0.138479 -0.229744 -0.0248907 255 0 0
0.141682 -0.228121 -0.0251601 255 0 0
0.143477 -0.229158 -0.0247706 255 0 0
0.144828 -0.22954 -0.0250535 255 0 0
0.143086 -0.226792 -0.0250111 255 0 0
0.145292 -0.227531 -0.0257507 255 0 0
0.146365 -0.226661 -0.0248317 255 0 0
0.141802 -0.224597 -0.0243418 255 0 0
0.142217 -0.225406 -0.0252575 255 0 0
0.145157 -0.225083 -0.0252063 255 0 0
0.147809 -0.224668 -0.025471 255 0 0
0.141394 -0.222996 -0.0250173 255 0 0
0.145289 -0.222769 -0.0246998 255 0 0
0.147637 -0.223484 -0.0253653 255 0 0
0.148834 -0.223689 -0.0245807 255 0 0
0.150381 -0.223061 -0.0240276 255 0 0
0.141135 -0.220887 -0.0250514 255 0 0
0.146839 -0.220475 -0.0250415 255 0 0
0.150726 -0.221666 -0.0246883 255 0 0
0.152224 -0.22027 -0.0247293 255 0 0
0.159046 -0.220661 -0.024649 255 0 0
0.141592 -0.219034 -0.0254088 255 0 0
0.142617 -0.218286 -0.0244355 255 0 0
0.148116 -0.218906 -0.0251249 255 0 0
0.153742 -0.219158 -0.0257156 255 0 0
0.155225 -0.218501 -0.0253008 255 0 0
0.15697 -0.219013 -0.0247012 255 0 0
0.14305 -0.217337 -0.0255787 255 0 0
0.14424 -0.216537 -0.0246483 255 0 0
0.148774 -0.217349 -0.0248266 255 0 0
0.150973 -0.216003 -0.0256587 255 0 0
0.152954 -0.216454 -0.0249344 255 0 0
0.154554 -0.217441 -0.0254266 255 0 0
0.156825 -0.216549 -0.0256541 255 0 0
0.158476 -0.216765 -0.0248903 255 0 0
0.145886 -0.214763 -0.024862 255 0 0
0.150727 -0.214864 -0.0249208 255 0 0
0.157396 -0.215366 -0.0245059 255 0 0
0.160717 -0.215067 -0.025263 255 0 0
0.147643 -0.213372 -0.0245938 255 0 0
0.14938 -0.212778 -0.0250455 255 0 0
0.1529 -0.212524 -0.0252075 255 0 0
0.159216 -0.212815 -0.0244867 255 0 0
0.163392 -0.213287 -0.0258497 255 0 0
0.164151 -0.213249 -0.0246448 255 0 0
0.149718 -0.210885 -0.0244449 255 0 0
0.15123 -0.210531 -0.0240456 255 0 0
0.155389 -0.210778 -0.0251059 255 0 0
0.160944 -0.210811 -0.0253413 255 0 0
0.166292 -0.211488 -0.0257337 255 0 0
0.149925 -0.208916 -0.0258771 255 0 0
0.150321 -0.208386 -0.0246574 255 0 0
0.158874 -0.208904 -0.024682 255 0 0
0.16348 -0.209724 -0.0247529 255 0 0
0.165026 -0.208958 -0.0242234 255 0 0
0.166994 -0.209965 -0.0252793 255 0 0
0.169119 -0.208254 -0.024737 255 0 0
0.151885 -0.206306 -0.0252491 255 0 0
0.160924 -0.207182 -0.0251646 255 0 0
0.165464 -0.207754 -0.0258201 255 0 0
0.16702 -0.206982 -0.0252901 255 0 0
0.169044 -0.206321 -0.0251705 255 0 0
0.152905 -0.205638 -0.0245356 255 0 0
0.163987 -0.205325 -0.0253291 255 0 0
0.17108 -0.205656 -0.0250506 255 0 0
0.172656 -0.204877 -0.024517 255 0 0
0.155338 -0.203105 -0.0250338 255 0 0
0.157221 -0.202005 -0.024212 255 0 0
0.165704 -0.20355 -0.0246909 255 0 0
0.176299 -0.202073 -0.0250638 255 0 0
0.167369 -0.201801 -0.0249143 255 0 0
0.168579 -0.200078 -0.0248681 255 0 0
0.171054 -0.200098 -0.0255789 255 0 0
0.177893 -0.201283 -0.0245275 255 0 0
0.159202 -0.199751 -0.0250818 255 0 0
0.160267 -0.19905 -0.0243524 255 0 0
0.169733 -0.198381 -0.0256957 255 0 0
0.172416 -0.198679 -0.0250758 255 0 0
0.177897 -0.199927 -0.0257364 255 0 0
0.163007 -0.196346 -0.0250003 255 0 0
0.169939 -0.196765 -0.0259823 255 0 0
0.170068 -0.19669 -0.024234 255 0 0
0.173145 -0.196949 -0.0249408 255 0 0
0.163688 -0.19457 -0.0255914 255 0 0
0.173421 -0.194855 -0.0252318 255 0 0
0.164428 -0.193239 -0.0249969 255 0 0
0.171913 -0.192803 -0.0255764 255 0 0
0.173208 -0.193388 -0.0248286 255 0 0
0.165159 -0.191204 -0.0248141 255 0 0
0.170762 -0.191631 -0.024907 255 0 0
0.125762 -0.136555 -0.0258203 255 0 0
0.126738 -0.137587 -0.0258016 255 0 0
0.123539 -0.134657 -0.0255961 255 0 0
0.124509 -0.135682 -0.025577 255 0 0
0.121331 -0.132771 -0.0253736 255 0 0
0.122571 -0.133633 -0.0256151 255 0 0
0.113237 -0.130968 -0.0248779 255 0 0
0.119617 -0.130481 -0.0247941 255 0 0
0.12037 -0.131754 -0.025393 255 0 0
0.112782 -0.128878 -0.0248388 255 0 0
0.117767 -0.128551 -0.0257105 255 0 0
0.119065 -0.129225 -0.0252024 255 0 0
0.111843 -0.126159 -0.0254122 255 0 0
0.112538 -0.127464 -0.0248531 255 0 0
0.11708 -0.127376 -0.0259893 255 0 0
0.118717 -0.127091 -0.0247591 255 0 0
0.108717 -0.12416 -0.0257565 255 0 0
0.111251 -0.124881 -0.0251851 255 0 0
0.112742 -0.125938 -0.0243225 255 0 0
0.117342 -0.125355 -0.0255512 255 0 0
0.118505 -0.125179 -0.0245619 255 0 0
0.105923 -0.122245 -0.0257642 255 0 0
0.106845 -0.123228 -0.0257446 255 0 0
0.10861 -0.122756 -0.0252301 255 0 0
0.110618 -0.122704 -0.0249519 255 0 0
0.10539 -0.120533 -0.0255435 255 0 0
0.107043 -0.120782 -0.025093 255 0 0
0.109074 -0.121311 -0.0244193 255 0 0
0.111027 -0.121365 -0.0241071 255 0 0
0.100675 -0.118211 -0.0257742 255 0 0
0.102712 -0.118818 -0.0258326 255 0 0
0.104909 -0.118757 -0.0254232 255 0 0
0.106538 -0.119042 -0.0245375 255 0 0
0.108898 -0.119797 -0.0242828 255 0 0
0.0979388 -0.11677 -0.025845 255 0 0
0.0995519 -0.116603 -0.025391 255 0 0
0.101298 -0.117213 -0.0251353 255 0 0
0.103233 -0.117197 -0.0248299 255 0 0
0.104839 -0.117587 -0.0245072 255 0 0
0.0951184 -0.114799 -0.0252724 255 0 0
0.0971308 -0.115126 -0.0252602 255 0 0
0.0989915 -0.115134 -0.0246647 255 0 0
0.100905 -0.115849 -0.0243797 255 0 0
0.102937 -0.115886 -0.025905 255 0 0
0.0929836 -0.112831 -0.024551 255 0 0
0.0950017 -0.112944 -0.0247697 255 0 0
0.096814 -0.113444 -0.0249462 255 0 0
0.0991068 -0.113942 -0.0246943 255 0 0
0.0912166 -0.110933 -0.0245935 255 0 0
0.0930557 -0.110861 -0.0247279 255 0 0
0.094786 -0.111018 -0.0248266 255 0 0
0.0963908 -0.111753 -0.0241913 255 0 0
0.0898928 -0.108942 -0.0246811 255 0 0
0.0909029 -0.108641 -0.0250614 255 0 0
0.0927431 -0.109105 -0.0251857 255 0 0
0.0941099 -0.109215 -0.0241536 255 0 0
0.0874983 -0.106172 -0.0257167 255 0 0
0.0890648 -0.106735 -0.0259531 255 0 0
0.0907776 -0.106782 -0.0251706 255 0 0
0.0923943 -0.107104 -0.024674 255 0 0
0.0868439 -0.104866 -0.0256952 255 0 0
0.089363 -0.105245 -0.0255512 255 0 0
0.0908553 -0.105203 -0.0245056 255 0 0
0.0833097 -0.102023 -0.0258144 255 0 0
0.0849358 -0.102819 -0.0252237 255 0 0
0.0866188 -0.103044 -0.0252817 255 0 0
0.0885598 -0.102903 -0.0249549 255 0 0
0.0900596 -0.102815 -0.0243807 255 0 0
0.0808923 -0.100218 -0.025966 255 0 0
0.0831938 -0.100735 -0.0250902 255 0 0
0.0852563 -0.100914 -0.0248895 255 0 0
0.0872869 -0.100703 -0.0252204 255 0 0
0.0886087 -0.101264 -0.0246057 255 0 0
0.0795815 -0.0980461 -0.0253234 255 0 0
0.0807797 -0.098937 -0.0252454 255 0 0
0.082795 -0.0988286 -0.0248401 255 0 0
0.0847596 -0.0992426 -0.0250893 255 0 0
0.087172 -0.0991268 -0.0245774 255 0 0
0.0795019 -0.0968788 -0.0256678 255 0 0
0.0809893 -0.0967526 -0.0246887 255 0 0
0.0820434 -0.0975815 -0.0253938 255 0 0
0.0869337 -0.0967111 -0.0250037 255 0 0
0.0769022 -0.0949016 -0.0257227 255 0 0
0.0792215 -0.0951191 -0.0253539 255 0 0
0.0807461 -0.0950014 -0.0248915 255 0 0
0.0858113 -0.0942067 -0.024946 255 0 0
0.0862717 -0.0955789 -0.0252724 255 0 0
0.0725117 -0.0928238 -0.025823 255 0 0
0.0749151 -0.0928994 -0.0254413 255 0 0
0.076979 -0.0928553 -0.0251562 255 0 0
0.0784916 -0.0933468 -0.0248963 255 0 0
0.080274 -0.0938483 -0.0244533 255 0 0
0.0846005 -0.0927071 -0.0251013 255 0 0
0.067723 -0.0904462 -0.0255885 255 0 0
0.068914 -0.0912136 -0.0256409 255 0 0
0.0710378 -0.0911362 -0.0253553 255 0 0
0.0734228 -0.0912047 -0.0249724 255 0 0
0.0751724 -0.0905191 -0.0244519 255 0 0
0.0770568 -0.091389 -0.0247633 255 0 0
0.0783229 -0.0910817 -0.024502 255 0 0
0.0830605 -0.0906446 -0.0253902 255 0 0
0.0658255 -0.0885434 -0.0258382 255 0 0
0.0670653 -0.0888943 -0.025398 255 0 0
0.0688769 -0.0891381 -0.0251671 255 0 0
0.0706894 -0.0884733 -0.02501 255 0 0
0.0728953 -0.0887009 -0.0249754 255 0 0
0.0747239 -0.0889059 -0.0247671 255 0 0
0.0766369 -0.089156 -0.025143 255 0 0
0.0788981 -0.0890564 -0.024537 255 0 0
0.0653104 -0.0867521 -0.0250225 255 0 0
0.0670565 -0.086886 -0.0248578 255 0 0
0.0690501 -0.0872406 -0.0246334 255 0 0
0.071493 -0.0869696 -0.024661 255 0 0
0.0729114 -0.0870028 -0.0252901 255 0 0
0.0750377 -0.0869737 -0.0253285 255 0 0
0.0774814 -0.0868551 -0.024986 255 0 0
0.0794086 -0.0871978 -0.0243962 255 0 0
0.0811533 -0.0869536 -0.0241229 255 0 0
0.0825812 -0.086148 -0.024003 255 0 0
0.0635515 -0.0848112 -0.0258819 255 0 0
0.0645716 -0.0849629 -0.0245597 255 0 0
0.0676857 -0.0847938 -0.0255101 255 0 0
0.0695471 -0.0851256 -0.0249298 255 0 0
0.0711052 -0.084911 -0.0244984 255 0 0
0.0726678 -0.0850019 -0.0244555 255 0 0
0.0748951 -0.0849476 -0.0245439 255 0 0
0.077029 -0.0846003 -0.0241801 255 0 0
0.0788891 -0.0851851 -0.0244686 255 0 0
0.0805037 -0.0858365 -0.0244307 255 0 0
0.0821928 -0.084968 -0.024642 255 0 0
0.0619962 -0.0825265 -0.0248376 255 0 0
0.0630446 -0.083365 -0.0247993 255 0 0
0.0646497 -0.0826927 -0.0251968 255 0 0
0.0669612 -0.0828926 -0.0252588 255 0 0
0.0688146 -0.0832178 -0.024679 255 0 0
0.0710857 -0.0832314 -0.0245176 255 0 0
0.072657 -0.0835841 -0.0255275 255 0 0
0.0768365 -0.0831568 -0.0240998 255 0 0
0.0784338 -0.0837973 -0.0240603 255 0 0
0.081216 -0.0832938 -0.0251039 255 0 0
0.0591651 -0.081327 -0.024902 255 0 0
0.0611919 -0.0806174 -0.0248438 255 0 0
0.0631931 -0.0815057 -0.0250312 255 0 0
0.0660756 -0.0816686 -0.0242215 255 0 0
0.069994 -0.0802597 -0.0240578 255 0 0
0.0708584 -0.0810035 -0.0251338 255 0 0
0.0589522 -0.0785173 -0.0250787 255 0 0
0.0601015 -0.0792462 -0.0251274 255 0 0
0.0693432 -0.0785124 -0.0250761 255 0 0
0.0703907 -0.0796262 -0.025102 255 0 0
0.0485994 -0.076695 -0.0250344 255 0 0
0.0549926 -0.0765437 -0.0252802 255 0 0
0.0568332 -0.0775087 -0.0248253 255 0 0
0.0676372 -0.0770887 -0.0251683 255 0 0
0.0692019 -0.0768525 -0.0250976 255 0 0
0.0490009 -0.0743796 -0.0253489 255 0 0
0.0539358 -0.0743233 -0.025356 255 0 0
0.0543349 -0.0753356 -0.0245841 255 0 0
0.0672351 -0.0751949 -0.0251366 255 0 0
0.0686446 -0.0746861 -0.0247665 255 0 0
0.0490682 -0.0727881 -0.0246015 255 0 0
0.0533404 -0.0727154 -0.0249825 255 0 0
0.0541324 -0.0733314 -0.0240155 255 0 0
0.0664608 -0.072839 -0.0248949 255 0 0
0.0683868 -0.0733274 -0.0244207 255 0 0
0.0492294 -0.0713398 -0.0249857 255 0 0
0.0529583 -0.0709065 -0.0247814 255 0 0
0.0651138 -0.0707498 -0.0249891 255 0 0
0.0687709 -0.0711359 -0.0252504 255 0 0
0.0498055 -0.0697404 -0.0259815 255 0 0
0.0502329 -0.0692569 -0.0246365 255 0 0
0.0526892 -0.069384 -0.0254234 255 0 0
0.0544388 -0.0686807 -0.0244707 255 0 0
0.0646494 -0.0689107 -0.0249034 255 0 0
0.0687544 -0.0691173 -0.0250578 255 0 0
0.0639459 -0.0665246 -0.0247174 255 0 0
0.0644256 -0.0676227 -0.0249183 255 0 0
0.0674026 -0.0663837 -0.0250037 255 0 0
0.0681539 -0.0673497 -0.0246583 255 0 0
0.0650809 -0.0643279 -0.0248721 255 0 0
0.0667542 -0.065304 -0.0253906 255 0 0
0.0630203 -0.0627347 -0.0250515 255 0 0
0.064087 -0.0630483 -0.0253283 255 0 0
0.0593917 -0.0609327 -0.0246374 255 0 0
0.0609603 -0.0613932 -0.0250474 255 0 0
0.0620079 -0.0618303 -0.0257444 255 0 0
0.129924 -0.248341 -0.0229428 255 0 0
0.129663 -0.247096 -0.022801 255 0 0
0.129109 -0.24503 -0.0229864 255 0 0
0.129117 -0.24282 -0.022792 255 0 0
0.129581 -0.241108 -0.0226619 255 0 0
0.130302 -0.23902 -0.0230152 255 0 0
0.131238 -0.237015 -0.0229536 255 0 0
0.132529 -0.236455 -0.0220617 255 0 0
0.146979 -0.236265 -0.0235069 255 0 0
0.133133 -0.234818 -0.0231248 255 0 0
0.134672 -0.234832 -0.0234478 255 0 0
0.136117 -0.234124 -0.0229324 255 0 0
0.147087 -0.234954 -0.0232475 255 0 0
0.135302 -0.232672 -0.0230969 255 0 0
0.137733 -0.232873 -0.0231795 255 0 0
0.14311 -0.232978 -0.0230445 255 0 0
0.146638 -0.232911 -0.0232161 255 0 0
0.137751 -0.231163 -0.0229671 255 0 0
0.139358 -0.231617 -0.0234261 255 0 0
0.141221 -0.231046 -0.023299 255 0 0
0.142611 -0.230503 -0.0227886 255 0 0
0.14562 -0.230991 -0.023309 255 0 0
0.139367 -0.229703 -0.0231126 255 0 0
0.141348 -0.228191 -0.0234502 255 0 0
0.142587 -0.22872 -0.0224552 255 0 0
0.144612 -0.228777 -0.023617 255 0 0
0.143619 -0.226779 -0.0231854 255 0 0
0.144808 -0.226903 -0.0222706 255 0 0
0.141858 -0.2245 -0.0225826 255 0 0
0.142273 -0.225307 -0.0234954 255 0 0
0.144722 -0.224912 -0.0232408 255 0 0
0.146774 -0.225429 -0.0234553 255 0 0
0.149045 -0.22449 -0.0225368 255 0 0
0.14155 -0.222877 -0.0232854 255 0 0
0.145568 -0.223385 -0.0230666 255 0 0
0.148724 -0.22345 -0.0228643 255 0 0
0.151456 -0.222191 -0.0231063 255 0 0
0.141342 -0.220758 -0.0233314 255 0 0
0.142061 -0.220091 -0.0222648 255 0 0
0.146706 -0.221108 -0.0231481 255 0 0
0.151747 -0.221765 -0.0229264 255 0 0
0.152735 -0.220458 -0.0231641 255 0 0
0.15962 -0.220727 -0.0231552 255 0 0
0.142734 -0.218636 -0.023071 255 0 0
0.148268 -0.2188 -0.0234833 255 0 0
0.15357 -0.219176 -0.0224236 255 0 0
0.155623 -0.218059 -0.0239309 255 0 0
0.157445 -0.218464 -0.0228993 255 0 0
0.158309 -0.219673 -0.0229218 255 0 0
0.144076 -0.216927 -0.0222857 255 0 0
0.149 -0.217194 -0.0223613 255 0 0
0.15509 -0.216951 -0.0234304 255 0 0
0.156503 -0.217029 -0.0228227 255 0 0
0.159207 -0.216761 -0.0229104 255 0 0
0.145131 -0.215812 -0.0236142 255 0 0
0.146875 -0.214434 -0.0233389 255 0 0
0.150941 -0.215325 -0.0231836 255 0 0
0.152978 -0.215264 -0.0226634 255 0 0
0.158495 -0.215136 -0.0229918 255 0 0
0.161648 -0.215038 -0.0233694 255 0 0
0.149388 -0.212867 -0.0232157 255 0 0
0.150623 -0.213168 -0.0223721 255 0 0
0.152749 -0.213193 -0.0232804 255 0 0
0.154056 -0.212282 -0.0223899 255 0 0
0.159565 -0.213614 -0.022648 255 0 0
0.164507 -0.21327 -0.0232357 255 0 0
0.150441 -0.211276 -0.0229352 255 0 0
0.155971 -0.210657 -0.0236875 255 0 0
0.157874 -0.210455 -0.0230431 255 0 0
0.161068 -0.211559 -0.023292 255 0 0
0.162601 -0.210799 -0.0227633 255 0 0
0.164986 -0.210835 -0.0230656 255 0 0
0.166858 -0.21083 -0.0228146 255 0 0
0.150582 -0.209398 -0.0232659 255 0 0
0.159977 -0.208706 -0.022667 255 0 0
0.16612 -0.208076 -0.0232863 255 0 0
0.169177 -0.209101 -0.0223653 255 0 0
0.151329 -0.207727 -0.0239472 255 0 0
0.152696 -0.206766 -0.0227493 255 0 0
0.161515 -0.20706 -0.0237254 255 0 0
0.162105 -0.206938 -0.0222871 255 0 0
0.168131 -0.207421 -0.0231613 255 0 0
0.170155 -0.206762 -0.0230361 255 0 0
0.153929 -0.204966 -0.0238194 255 0 0
0.154958 -0.204292 -0.0231004 255 0 0
0.164419 -0.205176 -0.0228894 255 0 0
0.171721 -0.205988 -0.0225022 255 0 0
0.174235 -0.204095 -0.0239822 255 0 0
0.155992 -0.203614 -0.0223785 255 0 0
0.166301 -0.203427 -0.0232344 255 0 0
0.175819 -0.203312 -0.0234464 255 0 0
0.176926 -0.202419 -0.0224976 255 0 0
0.158798 -0.200969 -0.0231221 255 0 0
0.168035 -0.201637 -0.0225856 255 0 0
0.170871 -0.201035 -0.0224466 255 0 0
0.177554 -0.200074 -0.022336 255 0 0
0.16119 -0.199058 -0.0230857 255 0 0
0.169285 -0.199151 -0.0235412 255 0 0
0.17096 -0.199048 -0.0230907 255 0 0
0.173462 -0.198791 -0.0228179 255 0 0
0.17963 -0.199388 -0.0222094 255 0 0
0.16295 -0.197284 -0.0225159 255 0 0
0.170673 -0.196568 -0.0227595 255 0 0
0.174308 -0.196542 -0.0232576 255 0 0
0.164679 -0.195035 -0.0231217 255 0 0
0.174794 -0.19487 -0.0230438 255 0 0
0.165407 -0.193016 -0.0229334 255 0 0
0.173345 -0.192795 -0.0234084 255 0 0
0.175298 -0.193674 -0.0222766 255 0 0
0.120852 -0.131063 -0.0234074 255 0 0
0.120436 -0.128798 -0.0235939 255 0 0
0.113293 -0.12585 -0.0229916 255 0 0
0.108902 -0.122501 -0.0231793 255 0 0
0.110805 -0.122817 -0.023194 255 0 0
0.108928 -0.120764 -0.0234124 255 0 0
0.111317 -0.121206 -0.0228642 255 0 0
0.105016 -0.118242 -0.0239971 255 0 0
0.107328 -0.118914 -0.0234288 255 0 0
0.108526 -0.119124 -0.0227538 255 0 0
0.110757 -0.119699 -0.0231601 255 0 0
0.101975 -0.116194 -0.0233982 255 0 0
0.103257 -0.116478 -0.023895 255 0 0
0.1049 -0.116873 -0.0232454 255 0 0
0.106839 -0.117044 -0.0229667 255 0 0
0.0993504 -0.114889 -0.0237375 255 0 0
0.100721 -0.114977 -0.0234266 255 0 0
0.10283 -0.114867 -0.0230089 255 0 0
0.104643 -0.114993 -0.0222776 255 0 0
0.094927 -0.112134 -0.0232972 255 0 0
0.0968528 -0.112758 -0.0233894 255 0 0
0.0985226 -0.113329 -0.0231521 255 0 0
0.100764 -0.113105 -0.022805 255 0 0
0.102808 -0.113048 -0.0223239 255 0 0
0.0931493 -0.110231 -0.0233421 255 0 0
0.0949205 -0.110837 -0.0228461 255 0 0
0.0966793 -0.110514 -0.022592 255 0 0
0.0985944 -0.111445 -0.0224792 255 0 0
0.100861 -0.111201 -0.0222461 255 0 0
0.0913793 -0.108336 -0.023387 255 0 0
0.0931198 -0.108995 -0.0229417 255 0 0
0.0956896 -0.109182 -0.0224912 255 0 0
0.0993772 -0.109845 -0.022157 255 0 0
0.0889747 -0.107049 -0.0235336 255 0 0
0.0908089 -0.107061 -0.0229402 255 0 0
0.0925824 -0.107286 -0.022731 255 0 0
0.0949824 -0.107586 -0.0224759 255 0 0
0.089049 -0.105177 -0.0229861 255 0 0
0.0909593 -0.105241 -0.0228927 255 0 0
0.0928499 -0.105029 -0.0228291 255 0 0
0.0888385 -0.103004 -0.0227228 255 0 0
0.0909357 -0.103142 -0.0235277 255 0 0
0.0925115 -0.103033 -0.0222567 255 0 0
0.0849937 -0.100077 -0.0239971 255 0 0
0.0873788 -0.100907 -0.0237156 255 0 0
0.0887973 -0.100891 -0.0228876 255 0 0
0.0909477 -0.101134 -0.0229832 255 0 0
0.0811828 -0.0990335 -0.0227911 255 0 0
0.083682 -0.0984755 -0.0239798 255 0 0
0.0853174 -0.0989753 -0.0232924 255 0 0
0.0874127 -0.0991131 -0.0229758 255 0 0
0.0885869 -0.0989637 -0.0226336 255 0 0
0.0906405 -0.0993215 -0.022251 255 0 0
0.0808033 -0.0968353 -0.0233565 255 0 0
0.0831553 -0.0970853 -0.0231418 255 0 0
0.0849036 -0.0973618 -0.0223687 255 0 0
0.0873508 -0.0975572 -0.0228806 255 0 0
0.0810375 -0.094632 -0.0229416 255 0 0
0.0829061 -0.0953956 -0.0224226 255 0 0
0.0874081 -0.095185 -0.0227596 255 0 0
0.0790135 -0.0931698 -0.0232502 255 0 0
0.0808863 -0.0930964 -0.0230008 255 0 0
0.0855348 -0.0925545 -0.0231848 255 0 0
0.0864158 -0.0934875 -0.0231621 255 0 0
0.0770995 -0.0909317 -0.0234077 255 0 0
0.0787042 -0.0909527 -0.0225995 255 0 0
0.0805973 -0.0906812 -0.0227153 255 0 0
0.0828211 -0.0907698 -0.0227626 255 0 0
0.0845468 -0.0917233 -0.0230855 255 0 0
0.0757151 -0.0889893 -0.0234466 255 0 0
0.0769393 -0.0888091 -0.0227596 255 0 0
0.0784508 -0.0892401 -0.0222232 255 0 0
0.0810204 -0.0888271 -0.0230947 255 0 0
0.0828267 -0.088621 -0.0220702 255 0 0
0.0713894 -0.0862676 -0.02372 255 0 0
0.0735559 -0.0865472 -0.0236786 255 0 0
0.0747865 -0.0869814 -0.0232852 255 0 0
0.0764373 -0.0868358 -0.0225597 255 0 0
0.0827042 -0.0873862 -0.0230353 255 0 0
0.0647723 -0.0842156 -0.0237089 255 0 0
0.0671028 -0.0849607 -0.0233011 255 0 0
0.0691417 -0.0852971 -0.0231982 255 0 0
0.0708562 -0.0847971 -0.0226252 255 0 0
0.0730505 -0.0850846 -0.0228338 255 0 0
0.0752212 -0.0851608 -0.0223268 255 0 0
0.0840159 -0.0853389 -0.023883 255 0 0
0.0631188 -0.0824434 -0.0233521 255 0 0
0.0649631 -0.083046 -0.0227404 255 0 0
0.0670516 -0.0834549 -0.0222978 255 0 0
0.0689309 -0.0839141 -0.0220738 255 0 0
0.0710628 -0.0822553 -0.023219 255 0 0
0.0729641 -0.0829888 -0.0234835 255 0 0
0.0749977 -0.0825848 -0.0238155 255 0 0
0.0473354 -0.0804796 -0.0223044 255 0 0
0.0618307 -0.0810964 -0.0232389 255 0 0
0.0625338 -0.0808383 -0.0225932 255 0 0
0.0648491 -0.080553 -0.0227226 255 0 0
0.0670281 -0.080773 -0.0226143 255 0 0
0.0689104 -0.0812943 -0.0230431 255 0 0
0.0712431 -0.0811427 -0.0231138 255 0 0
0.0727301 -0.0814527 -0.02317 255 0 0
0.0749999 -0.0808817 -0.0230303 255 0 0
0.0763884 -0.08093 -0.0233017 255 0 0
0.0482194 -0.0786316 -0.0227728 255 0 0
0.0587896 -0.0784137 -0.0231677 255 0 0
0.0605388 -0.0793855 -0.0228801 255 0 0
0.0632362 -0.0799754 -0.0226127 255 0 0
0.06907 -0.079042 -0.0230238 255 0 0
0.0711554 -0.0789209 -0.0227721 255 0 0
0.0734112 -0.0799359 -0.0224044 255 0 0
0.0484921 -0.0769732 -0.0223367 255 0 0
0.0550034 -0.0767523 -0.0229779 255 0 0
0.0565674 -0.0773753 -0.0225893 255 0 0
0.0676296 -0.076799 -0.0228158 255 0 0
0.0694844 -0.0768453 -0.023131 255 0 0
0.0707554 -0.0778415 -0.0227898 255 0 0
0.0489109 -0.0749853 -0.0231463 255 0 0
0.0546225 -0.0749491 -0.0227769 255 0 0
0.0670338 -0.0750468 -0.022624 255 0 0
0.0685944 -0.0749945 -0.0229557 255 0 0
0.0494705 -0.0729147 -0.0226662 255 0 0
0.0538778 -0.0721261 -0.0238814 255 0 0
0.0542418 -0.0731458 -0.0225762 255 0 0
0.066569 -0.0732073 -0.0225393 255 0 0
0.068302 -0.073045 -0.0231118 255 0 0
0.050392 -0.0702597 -0.0227667 255 0 0
0.0536233 -0.0709204 -0.0237473 255 0 0
0.0540742 -0.0711384 -0.0225443 255 0 0
0.0654831 -0.0709397 -0.0228533 255 0 0
0.0679417 -0.0717972 -0.0227215 255 0 0
0.0504505 -0.0688512 -0.0229951 255 0 0
0.0546762 -0.0691099 -0.0230895 255 0 0
0.0650196 -0.0691045 -0.0227687 255 0 0
0.0676288 -0.0688471 -0.0221124 255 0 0
0.0683652 -0.0690477 -0.0231808 255 0 0
0.0507201 -0.0672057 -0.0225584 255 0 0
0.0646208 -0.0672241 -0.0227373 255 0 0
0.0669737 -0.0671864 -0.0227151 255 0 0
0.0631352 -0.064582 -0.0222229 255 0 0
0.0651928 -0.0650384 -0.0231996 255 0 0
0.0662635 -0.0654893 -0.0238952 255 0 0
0.061425 -0.0623058 -0.0233202 255 0 0
0.0629531 -0.0634928 -0.0231797 255 0 0
0.0574472 -0.0611007 -0.0231714 255 0 0
0.0593633 -0.0612675 -0.0228459 255 0 0
0.0605923 -0.0614718 -0.0236161 255 0 0
0.127592 -0.252104 -0.0201393 255 0 0
0.127646 -0.250871 -0.0201762 255 0 0
0.127729 -0.249014 -0.0202316 255 0 0
0.127499 -0.247163 -0.0201096 255 0 0
0.129458 -0.246189 -0.0207972 255 0 0
0.130288 -0.247712 -0.0204373 255 0 0
0.127738 -0.245287 -0.0202539 255 0 0
0.129007 -0.244832 -0.0215365 255 0 0
0.12897 -0.242901 -0.0207908 255 0 0
0.129428 -0.240546 -0.0209291 255 0 0
0.129733 -0.239521 -0.0214115 255 0 0
0.130692 -0.238258 -0.0212108 255 0 0
0.131505 -0.237123 -0.0204716 255 0 0
0.142959 -0.236347 -0.0200008 255 0 0
0.147333 -0.236098 -0.0218408 255 0 0
0.148108 -0.23675 -0.021086 255 0 0
0.132894 -0.235536 -0.0209245 255 0 0
0.134642 -0.234491 -0.0208374 255 0 0
0.136451 -0.234196 -0.0201327 255 0 0
0.142712 -0.234919 -0.0200143 255 0 0
0.147341 -0.234977 -0.0208592 255 0 0
0.135999 -0.232633 -0.0219894 255 0 0
0.136026 -0.232654 -0.0205139 255 0 0
0.138622 -0.232558 -0.0215122 255 0 0
0.142741 -0.232781 -0.0202762 255 0 0
0.146568 -0.232808 -0.021123 255 0 0
0.138294 -0.231153 -0.021016 255 0 0
0.140804 -0.23149 -0.0207344 255 0 0
0.14237 -0.230635 -0.0202965 255 0 0
0.145555 -0.231026 -0.0210533 255 0 0
0.140433 -0.229659 -0.0206847 255 0 0
0.143126 -0.228483 -0.0207999 255 0 0
0.144511 -0.228968 -0.0210074 255 0 0
0.143411 -0.227138 -0.0210275 255 0 0
0.14435 -0.226478 -0.0209528 255 0 0
0.146242 -0.226632 -0.0215814 255 0 0
0.141914 -0.224402 -0.020828 255 0 0
0.142563 -0.225563 -0.0213157 255 0 0
0.14475 -0.224743 -0.020695 255 0 0
0.146989 -0.225288 -0.0209516 255 0 0
0.141821 -0.223278 -0.0209336 255 0 0
0.145313 -0.223281 -0.0211994 255 0 0
0.149449 -0.223411 -0.0217139 255 0 0
0.151186 -0.222756 -0.0207033 255 0 0
0.141694 -0.22146 -0.0215558 255 0 0
0.142407 -0.221663 -0.0203866 255 0 0
0.14588 -0.22181 -0.0217067 255 0 0
0.146523 -0.220955 -0.0204643 255 0 0
0.152849 -0.221319 -0.0210835 255 0 0
0.154427 -0.220156 -0.0212312 255 0 0
0.159697 -0.220241 -0.0216762 255 0 0
0.16089 -0.221078 -0.0210411 255 0 0
0.142824 -0.219246 -0.0207766 255 0 0
0.148494 -0.218641 -0.0210314 255 0 0
0.154878 -0.219008 -0.0211221 255 0 0
0.157246 -0.218278 -0.0213045 255 0 0
0.158902 -0.218871 -0.021088 255 0 0
0.160092 -0.219706 -0.0204528 255 0 0
0.14364 -0.217878 -0.0211537 255 0 0
0.14505 -0.216606 -0.0207736 255 0 0
0.14915 -0.21709 -0.020725 255 0 0
0.156813 -0.216864 -0.02091 255 0 0
0.158827 -0.217157 -0.020619 255 0 0
0.145494 -0.215644 -0.0219105 255 0 0
0.147171 -0.214712 -0.0210982 255 0 0
0.150863 -0.215485 -0.0210418 255 0 0
0.155055 -0.215103 -0.0208565 255 0 0
0.159591 -0.214908 -0.02148 255 0 0
0.160673 -0.214033 -0.0205536 255 0 0
0.162182 -0.215065 -0.0212799 255 0 0
