ply
format ascii 1.0
element vertex 1247
property float x
property float y
property float z
property uchar diffuse_red
property uchar diffuse_green
property uchar diffuse_blue
end_header
0.107652 -0.122588 -0.0360388 255 0 0
0.108036 -0.123919 -0.0360197 255 0 0
0.0901596 -0.12149 -0.0367923 255 0 0
0.0929064 -0.121012 -0.0371851 255 0 0
0.107269 -0.121257 -0.0360579 255 0 0
0.09242 -0.11901 -0.0371187 255 0 0
0.0915288 -0.116989 -0.0374305 255 0 0
0.0906408 -0.114974 -0.0377413 255 0 0
0.0892857 -0.113013 -0.037509 255 0 0
0.088251 -0.111032 -0.0376381 255 0 0
0.129546 -0.206351 -0.0343513 255 0 0
0.129915 -0.204934 -0.0352924 255 0 0
0.129787 -0.203583 -0.0356203 255 0 0
0.130395 -0.203356 -0.0342649 255 0 0
0.132643 -0.20149 -0.0353985 255 0 0
0.135981 -0.201261 -0.0358689 255 0 0
0.136088 -0.201173 -0.0342093 255 0 0
0.134153 -0.199724 -0.0356094 255 0 0
0.136249 -0.198959 -0.0346238 255 0 0
0.137214 -0.197259 -0.0347556 255 0 0
0.136474 -0.195139 -0.034865 255 0 0
0.136596 -0.193126 -0.0349146 255 0 0
0.136976 -0.191325 -0.0349302 255 0 0
0.146106 -0.190955 -0.0347162 255 0 0
0.139062 -0.189017 -0.0347581 255 0 0
0.148596 -0.188898 -0.0359101 255 0 0
0.140969 -0.187113 -0.0348995 255 0 0
0.149171 -0.186163 -0.0356303 255 0 0
0.142784 -0.185334 -0.0354024 255 0 0
0.147863 -0.185102 -0.0353616 255 0 0
0.148134 -0.184709 -0.034006 255 0 0
0.151956 -0.184989 -0.0342804 255 0 0
0.155205 -0.185272 -0.0358144 255 0 0
0.144671 -0.183502 -0.035056 255 0 0
0.147575 -0.183777 -0.035848 255 0 0
0.148528 -0.183201 -0.0349926 255 0 0
0.156998 -0.182311 -0.0341254 255 0 0
0.147455 -0.181142 -0.0353096 255 0 0
0.148225 -0.180137 -0.0346049 255 0 0
0.15386 -0.180313 -0.0346673 255 0 0
0.160117 -0.180403 -0.0356949 255 0 0
0.147811 -0.178594 -0.0354597 255 0 0
0.149005 -0.178926 -0.0347702 255 0 0
0.153712 -0.179396 -0.0357077 255 0 0
0.155187 -0.178783 -0.0343388 255 0 0
0.147954 -0.177206 -0.035026 255 0 0
0.155039 -0.177859 -0.0353847 255 0 0
0.15678 -0.176635 -0.034649 255 0 0
0.148343 -0.174778 -0.035585 255 0 0
0.158399 -0.174454 -0.034963 255 0 0
0.148674 -0.172919 -0.0349573 255 0 0
0.157921 -0.173648 -0.0359064 255 0 0
0.148375 -0.170675 -0.0350073 255 0 0
0.148395 -0.169052 -0.0349392 255 0 0
0.137724 -0.166299 -0.0348085 255 0 0
0.147537 -0.166779 -0.0349615 255 0 0
0.148381 -0.167281 -0.0340512 255 0 0
0.13743 -0.16482 -0.0348246 255 0 0
0.143852 -0.16498 -0.0359913 255 0 0
0.14481 -0.164355 -0.035126 255 0 0
0.146444 -0.165127 -0.0348363 255 0 0
0.13552 -0.162146 -0.0357527 255 0 0
0.137135 -0.163341 -0.0348406 255 0 0
0.141544 -0.162687 -0.0348895 255 0 0
0.143186 -0.163587 -0.035414 255 0 0
0.14543 -0.163844 -0.0340029 255 0 0
0.139282 -0.160549 -0.0346046 255 0 0
0.140577 -0.161557 -0.034873 255 0 0
0.129132 -0.158252 -0.0349536 255 0 0
0.131182 -0.159163 -0.0351597 255 0 0
0.133757 -0.159825 -0.0352566 255 0 0
0.137062 -0.158558 -0.0351277 255 0 0
0.138321 -0.159425 -0.0345887 255 0 0
0.12905 -0.157297 -0.0350744 255 0 0
0.135154 -0.156322 -0.0350951 255 0 0
0.136107 -0.157439 -0.0351113 255 0 0
0.128608 -0.155532 -0.0352055 255 0 0
0.134287 -0.154922 -0.0355816 255 0 0
0.128996 -0.1533 -0.0356728 255 0 0
0.133376 -0.153083 -0.0352254 255 0 0
0.134173 -0.153459 -0.0342071 255 0 0
0.128851 -0.150255 -0.0355557 255 0 0
0.131145 -0.150889 -0.0348192 255 0 0
0.132795 -0.151153 -0.0350254 255 0 0
0.12672 -0.148873 -0.0354513 255 0 0
0.128889 -0.148874 -0.035081 255 0 0
0.125059 -0.14677 -0.0349346 255 0 0
0.126991 -0.14775 -0.0344728 255 0 0
0.128731 -0.146821 -0.0351883 255 0 0
0.121907 -0.144178 -0.0352932 255 0 0
0.122563 -0.145256 -0.0353411 255 0 0
0.127462 -0.144981 -0.0349144 255 0 0
0.12136 -0.142838 -0.0353779 255 0 0
0.122062 -0.142455 -0.0341544 255 0 0
0.125341 -0.142822 -0.0350054 255 0 0
0.126482 -0.143476 -0.0354551 255 0 0
0.112954 -0.140154 -0.0359761 255 0 0
0.1174 -0.140384 -0.0355042 255 0 0
0.119956 -0.140672 -0.0354574 255 0 0
0.120755 -0.141094 -0.0348942 255 0 0
0.123396 -0.140331 -0.0348375 255 0 0
0.124289 -0.141505 -0.0350625 255 0 0
0.111577 -0.138704 -0.0354362 255 0 0
0.112902 -0.138087 -0.0347415 255 0 0
0.115324 -0.139232 -0.0353101 255 0 0
0.119323 -0.138878 -0.0354025 255 0 0
0.121448 -0.138488 -0.035096 255 0 0
0.122649 -0.139152 -0.0347331 255 0 0
0.11123 -0.136961 -0.0349297 255 0 0
0.113579 -0.136036 -0.0342642 255 0 0
0.114966 -0.137476 -0.0348004 255 0 0
0.117848 -0.136731 -0.0357878 255 0 0
0.118979 -0.137118 -0.0350663 255 0 0
0.12051 -0.137146 -0.0349665 255 0 0
0.109072 -0.135134 -0.0350386 255 0 0
0.110526 -0.135226 -0.034052 255 0 0
0.117106 -0.134918 -0.0348456 255 0 0
0.119289 -0.134595 -0.0350336 255 0 0
0.120461 -0.13534 -0.0350512 255 0 0
0.100575 -0.132534 -0.0356926 255 0 0
0.104955 -0.132229 -0.0349624 255 0 0
0.106757 -0.133322 -0.0349608 255 0 0
0.113299 -0.132526 -0.0352403 255 0 0
0.115196 -0.133021 -0.0349814 255 0 0
0.117912 -0.133044 -0.0354418 255 0 0
0.118781 -0.132822 -0.0343096 255 0 0
0.101017 -0.13061 -0.0355222 255 0 0
0.103084 -0.131185 -0.0353409 255 0 0
0.111145 -0.130666 -0.0352898 255 0 0
0.112931 -0.131127 -0.0348492 255 0 0
0.11458 -0.131033 -0.0352807 255 0 0
0.116756 -0.131138 -0.0349515 255 0 0
0.118128 -0.131508 -0.034069 255 0 0
0.0995008 -0.129292 -0.0358599 255 0 0
0.101138 -0.128751 -0.0349558 255 0 0
0.103319 -0.128976 -0.0347823 255 0 0
0.104913 -0.129642 -0.0357608 255 0 0
0.107438 -0.128804 -0.0359144 255 0 0
0.10913 -0.128734 -0.0352264 255 0 0
0.110739 -0.129202 -0.0349322 255 0 0
0.113176 -0.129258 -0.0345762 255 0 0
0.115244 -0.129368 -0.034208 255 0 0
0.0972813 -0.126565 -0.0351866 255 0 0
0.0991379 -0.126985 -0.0353141 255 0 0
0.101731 -0.12709 -0.0355201 255 0 0
0.103077 -0.126913 -0.0353348 255 0 0
0.105498 -0.126527 -0.0355679 255 0 0
0.106916 -0.126778 -0.0354764 255 0 0
0.109023 -0.127621 -0.0341751 255 0 0
0.0935537 -0.124485 -0.0355844 255 0 0
0.0950315 -0.124734 -0.0358282 255 0 0
0.0967922 -0.124729 -0.0354736 255 0 0
0.0989063 -0.125095 -0.0348851 255 0 0
0.101039 -0.124935 -0.0350634 255 0 0
0.102797 -0.125024 -0.0348444 255 0 0
0.104858 -0.125533 -0.0352767 255 0 0
0.10628 -0.124706 -0.0358356 255 0 0
0.0926999 -0.122752 -0.0351658 255 0 0
0.0949233 -0.123017 -0.0349275 255 0 0
0.0970855 -0.122965 -0.0351137 255 0 0
0.0990862 -0.123062 -0.0350009 255 0 0
0.101198 -0.122783 -0.0344018 255 0 0
0.103137 -0.123258 -0.0347754 255 0 0
0.105162 -0.123184 -0.0352998 255 0 0
0.0910044 -0.121257 -0.0357701 255 0 0
0.0932694 -0.120993 -0.0348763 255 0 0
0.0949016 -0.121167 -0.0341693 255 0 0
0.0968471 -0.120967 -0.0344769 255 0 0
0.0986058 -0.120901 -0.0344868 255 0 0
0.100451 -0.121259 -0.034088 255 0 0
0.102462 -0.121355 -0.0346518 255 0 0
0.104917 -0.120871 -0.0355849 255 0 0
0.0898757 -0.11896 -0.0352139 255 0 0
0.0910006 -0.119302 -0.0343328 255 0 0
0.0928577 -0.119185 -0.0348 255 0 0
0.101575 -0.119594 -0.0342248 255 0 0
0.0888414 -0.117383 -0.0345031 255 0 0
0.0921102 -0.11712 -0.0355749 255 0 0
0.0909072 -0.115138 -0.0355294 255 0 0
0.103579 -0.115184 -0.0349259 255 0 0
0.0897116 -0.113167 -0.0354845 255 0 0
0.102664 -0.113378 -0.0352676 255 0 0
0.0879235 -0.11058 -0.0351888 255 0 0
0.0888152 -0.11187 -0.0353362 255 0 0
0.100871 -0.110361 -0.0340404 255 0 0
0.0873443 -0.109263 -0.0353964 255 0 0
0.0996891 -0.108735 -0.0341411 255 0 0
0.0867664 -0.107949 -0.0356036 255 0 0
0.0547442 -0.0580078 -0.034428 255 0 0
0.0569402 -0.0589065 -0.0341682 255 0 0
0.0538294 -0.0573261 -0.034657 255 0 0
0.0528386 -0.055609 -0.034174 255 0 0
0.13128 -0.212722 -0.0320018 255 0 0
0.129623 -0.211069 -0.0327638 255 0 0
0.129308 -0.209091 -0.0330948 255 0 0
0.130157 -0.208826 -0.0320577 255 0 0
0.129427 -0.207724 -0.0337215 255 0 0
0.130215 -0.20679 -0.0328431 255 0 0
0.130825 -0.204591 -0.0332646 255 0 0
0.131503 -0.203051 -0.0335255 255 0 0
0.132996 -0.201306 -0.0337257 255 0 0
0.135802 -0.201119 -0.0322983 255 0 0
0.13515 -0.199307 -0.0330214 255 0 0
0.135416 -0.196858 -0.033639 255 0 0
0.136944 -0.196963 -0.0325657 255 0 0
0.13626 -0.195195 -0.0330381 255 0 0
0.153115 -0.195689 -0.0325981 255 0 0
0.13657 -0.19321 -0.0329435 255 0 0
0.151883 -0.19395 -0.032425 255 0 0
0.1378 -0.190834 -0.0331842 255 0 0
0.13928 -0.188803 -0.0327228 255 0 0
0.148634 -0.188803 -0.0338438 255 0 0
0.150229 -0.188368 -0.0334742 255 0 0
0.141123 -0.187015 -0.0323667 255 0 0
0.148903 -0.186605 -0.0335302 255 0 0
0.150895 -0.186693 -0.0326422 255 0 0
0.143142 -0.185212 -0.0329864 255 0 0
0.147727 -0.184495 -0.0321567 255 0 0
0.152272 -0.184844 -0.0325314 255 0 0
0.155321 -0.18442 -0.0338149 255 0 0
0.145189 -0.183384 -0.0336146 255 0 0
0.147779 -0.183082 -0.0328852 255 0 0
0.153838 -0.182265 -0.0324826 255 0 0
0.155902 -0.183649 -0.0322382 255 0 0
0.146676 -0.181593 -0.0329895 255 0 0
0.148323 -0.181428 -0.0331057 255 0 0
0.15369 -0.181354 -0.0335157 255 0 0
0.155159 -0.180753 -0.0321428 255 0 0
0.158523 -0.181687 -0.0333705 255 0 0
0.147842 -0.179217 -0.03311 255 0 0
0.149463 -0.179596 -0.0331669 255 0 0
0.155012 -0.179835 -0.0331814 255 0 0
0.156675 -0.178165 -0.0329576 255 0 0
0.147853 -0.176764 -0.0325994 255 0 0
0.150724 -0.177828 -0.033265 255 0 0
0.153266 -0.177377 -0.0321501 255 0 0
0.158361 -0.176472 -0.0327304 255 0 0
0.148386 -0.175017 -0.0329032 255 0 0
0.158545 -0.175396 -0.0339029 255 0 0
0.148578 -0.173362 -0.0329571 255 0 0
0.148951 -0.171105 -0.0331144 255 0 0
0.148813 -0.168457 -0.032868 255 0 0
0.14866 -0.166885 -0.032669 255 0 0
0.14738 -0.164359 -0.0331462 255 0 0
0.148367 -0.165507 -0.0331614 255 0 0
0.14442 -0.162567 -0.0331723 255 0 0
0.146051 -0.163333 -0.0328778 255 0 0
0.148005 -0.163846 -0.0320167 255 0 0
0.141493 -0.160793 -0.0331996 255 0 0
0.142772 -0.161127 -0.0326309 255 0 0
0.137337 -0.158171 -0.0337677 255 0 0
0.13923 -0.158661 -0.0329203 255 0 0
0.140831 -0.159409 -0.0326264 255 0 0
0.137102 -0.157086 -0.0330178 255 0 0
0.135426 -0.154857 -0.0336911 255 0 0
0.136354 -0.155302 -0.0328782 255 0 0
0.134771 -0.152946 -0.0330989 255 0 0
0.133346 -0.151281 -0.0330779 255 0 0
0.129134 -0.148066 -0.0338842 255 0 0
0.130887 -0.149146 -0.0332506 255 0 0
0.127265 -0.146625 -0.0334928 255 0 0
0.129098 -0.147071 -0.0326532 255 0 0
0.123736 -0.144569 -0.0332704 255 0 0
0.124659 -0.145653 -0.0332838 255 0 0
0.127537 -0.145497 -0.0325107 255 0 0
0.122656 -0.143019 -0.0331119 255 0 0
0.121717 -0.140864 -0.0330517 255 0 0
0.122619 -0.140912 -0.032198 255 0 0
0.121065 -0.138742 -0.0334776 255 0 0
0.123182 -0.139168 -0.0329319 255 0 0
0.119451 -0.136823 -0.0331325 255 0 0
0.121253 -0.136776 -0.0335025 255 0 0
0.122263 -0.137222 -0.0326236 255 0 0
0.112203 -0.134608 -0.0337326 255 0 0
0.116831 -0.134145 -0.0334599 255 0 0
0.118773 -0.135036 -0.0328165 255 0 0
0.12092 -0.135427 -0.0329536 255 0 0
0.109032 -0.133105 -0.0338198 255 0 0
0.115239 -0.132554 -0.0331983 255 0 0
0.116843 -0.133162 -0.0325317 255 0 0
0.118941 -0.133274 -0.0327589 255 0 0
0.120745 -0.133809 -0.0328465 255 0 0
0.105414 -0.130923 -0.0338311 255 0 0
0.107198 -0.131004 -0.0332206 255 0 0
0.108993 -0.131088 -0.0326091 255 0 0
0.113111 -0.130681 -0.0331793 255 0 0
0.115053 -0.131131 -0.0322323 255 0 0
0.117364 -0.130275 -0.0328814 255 0 0
0.11863 -0.131411 -0.0326808 255 0 0
0.103958 -0.128841 -0.0336035 255 0 0
0.104899 -0.128236 -0.0325542 255 0 0
0.106691 -0.129308 -0.0325433 255 0 0
0.11125 -0.128669 -0.0330034 255 0 0
0.113066 -0.129084 -0.0328089 255 0 0
0.11468 -0.12901 -0.0329166 255 0 0
0.116104 -0.129145 -0.0330811 255 0 0
0.100761 -0.126706 -0.0339833 255 0 0
0.102988 -0.126806 -0.0330543 255 0 0
0.107567 -0.126553 -0.0338735 255 0 0
0.109298 -0.126875 -0.0333454 255 0 0
0.110774 -0.127304 -0.0331252 255 0 0
0.112188 -0.127415 -0.0324724 255 0 0
0.1146 -0.127389 -0.0323474 255 0 0
0.0972766 -0.124612 -0.0339983 255 0 0
0.0988421 -0.124687 -0.0332165 255 0 0
0.100956 -0.124814 -0.0333228 255 0 0
0.102788 -0.124828 -0.0325366 255 0 0
0.105158 -0.12514 -0.0333174 255 0 0
0.106755 -0.125103 -0.0331217 255 0 0
0.108712 -0.125252 -0.0327371 255 0 0
0.0966448 -0.122976 -0.0331534 255 0 0
0.0994666 -0.123406 -0.0322861 255 0 0
0.100981 -0.122962 -0.0329094 255 0 0
0.103202 -0.123322 -0.032753 255 0 0
0.105091 -0.122794 -0.0329395 255 0 0
0.106618 -0.123269 -0.0327697 255 0 0
0.0947198 -0.120426 -0.0335765 255 0 0
0.0969695 -0.121275 -0.0331601 255 0 0
0.099523 -0.12104 -0.0331083 255 0 0
0.101793 -0.120467 -0.0332937 255 0 0
0.102854 -0.12111 -0.0327978 255 0 0
0.0919508 -0.11822 -0.0337658 255 0 0
0.0938288 -0.119052 -0.0336905 255 0 0
0.0952432 -0.118774 -0.0330852 255 0 0
0.0973613 -0.119272 -0.0336937 255 0 0
0.0988796 -0.118952 -0.0332651 255 0 0
0.100666 -0.118647 -0.033173 255 0 0
0.0849335 -0.116026 -0.0322065 255 0 0
0.089593 -0.116443 -0.0336431 255 0 0
0.09077 -0.11733 -0.033704 255 0 0
0.0931644 -0.116823 -0.0330152 255 0 0
0.0952122 -0.116926 -0.0327451 255 0 0
0.0970974 -0.116826 -0.0325493 255 0 0
0.0993792 -0.117032 -0.0327925 255 0 0
0.103369 -0.1167 -0.032429 255 0 0
0.0816407 -0.114651 -0.0328091 255 0 0
0.0826477 -0.114286 -0.0320963 255 0 0
0.0845685 -0.114762 -0.0322257 255 0 0
0.0874403 -0.115318 -0.0335133 255 0 0
0.0884674 -0.114948 -0.0327926 255 0 0
0.0910126 -0.115067 -0.0330873 255 0 0
0.0926717 -0.11516 -0.0325674 255 0 0
0.0948003 -0.114988 -0.0326436 255 0 0
0.0970066 -0.114892 -0.0325174 255 0 0
0.0985209 -0.114636 -0.032355 255 0 0
0.103306 -0.115165 -0.0331321 255 0 0
0.0812773 -0.113393 -0.0328284 255 0 0
0.0822841 -0.113027 -0.0321155 255 0 0
0.0857733 -0.112703 -0.0323955 255 0 0
0.0869314 -0.113575 -0.0324523 255 0 0
0.089595 -0.113234 -0.0328862 255 0 0
0.0905843 -0.11397 -0.0335437 255 0 0
0.0940773 -0.113083 -0.0324281 255 0 0
0.0962766 -0.112975 -0.0323006 255 0 0
0.102666 -0.1131 -0.0329374 255 0 0
0.0817359 -0.110365 -0.0324413 255 0 0
0.0821 -0.111625 -0.032422 255 0 0
0.0879066 -0.110101 -0.0331162 255 0 0
0.0891049 -0.111353 -0.0336101 255 0 0
0.10101 -0.111215 -0.0326186 255 0 0
0.0813716 -0.109104 -0.0324605 255 0 0
0.0870233 -0.108824 -0.0329754 255 0 0
0.0994272 -0.108733 -0.0323553 255 0 0
0.0807361 -0.107286 -0.0323456 255 0 0
0.0858409 -0.10759 -0.0324875 255 0 0
0.0973805 -0.106098 -0.0324465 255 0 0
0.0982511 -0.107115 -0.0324574 255 0 0
0.0771956 -0.100139 -0.0324952 255 0 0
0.0769328 -0.0988278 -0.0330412 255 0 0
0.0589863 -0.0602316 -0.0320437 255 0 0
0.060048 -0.0613283 -0.0322198 255 0 0
0.0555358 -0.0582894 -0.0337912 255 0 0
0.0571252 -0.0587934 -0.0330966 255 0 0
0.0581825 -0.059946 -0.0326873 255 0 0
0.0532776 -0.0563597 -0.0333407 255 0 0
0.0546732 -0.0570614 -0.0328397 255 0 0
0.0562545 -0.0575293 -0.0324344 255 0 0
0.0526487 -0.0547905 -0.0328144 255 0 0
0.0517684 -0.0528526 -0.0329787 255 0 0
0.132125 -0.215124 -0.0300302 255 0 0
0.131815 -0.213157 -0.030357 255 0 0
0.130732 -0.210941 -0.0312802 255 0 0
0.13082 -0.209257 -0.0305619 255 0 0
0.130632 -0.207262 -0.0310398 255 0 0
0.130992 -0.205108 -0.0311513 255 0 0
0.131856 -0.202864 -0.0318697 255 0 0
0.132458 -0.202639 -0.0305242 255 0 0
0.135411 -0.202527 -0.0301299 255 0 0
0.132839 -0.201207 -0.0314519 255 0 0
0.135126 -0.201098 -0.0301456 255 0 0
0.135459 -0.199063 -0.030988 255 0 0
0.135229 -0.19709 -0.0308896 255 0 0
0.138633 -0.196962 -0.0309539 255 0 0
0.135779 -0.195521 -0.0313518 255 0 0
0.136188 -0.194749 -0.0306976 255 0 0
0.137025 -0.193008 -0.0309733 255 0 0
0.137963 -0.190455 -0.031668 255 0 0
0.138468 -0.190337 -0.0302614 255 0 0
0.151244 -0.191443 -0.0306924 255 0 0
0.139788 -0.188685 -0.0313083 255 0 0
0.147908 -0.188609 -0.0302355 255 0 0
0.148528 -0.189832 -0.0300037 255 0 0
0.151391 -0.189983 -0.03174 255 0 0
0.141633 -0.186897 -0.0309453 255 0 0
0.147624 -0.1873 -0.0307107 255 0 0
0.153162 -0.187055 -0.0300723 255 0 0
0.143498 -0.18509 -0.0305788 255 0 0
0.147676 -0.185901 -0.0314319 255 0 0
0.153778 -0.184359 -0.0300166 255 0 0
0.154527 -0.185359 -0.0311518 255 0 0
0.145287 -0.183324 -0.0319089 255 0 0
0.147477 -0.182936 -0.0312943 255 0 0
0.148865 -0.182731 -0.0306119 255 0 0
0.157419 -0.183029 -0.0314843 255 0 0
0.14756 -0.181259 -0.0310882 255 0 0
0.149424 -0.181108 -0.0311592 255 0 0
0.151678 -0.180738 -0.0307715 255 0 0
0.153517 -0.180427 -0.030112 255 0 0
0.155305 -0.181668 -0.0311072 255 0 0
0.156966 -0.180016 -0.0308696 255 0 0
0.159101 -0.180918 -0.0317882 255 0 0
0.147774 -0.178921 -0.0315017 255 0 0
0.149987 -0.179477 -0.0317096 255 0 0
0.15225 -0.179096 -0.0313237 255 0 0
0.154539 -0.178712 -0.0309343 255 0 0
0.156613 -0.178741 -0.0310914 255 0 0
0.147785 -0.176471 -0.0309882 255 0 0
0.15557 -0.176981 -0.0317637 255 0 0
0.157449 -0.176651 -0.0311005 255 0 0
0.158506 -0.177407 -0.031678 255 0 0
0.148455 -0.174528 -0.0306026 255 0 0
0.148509 -0.173072 -0.0313358 255 0 0
0.14884 -0.171212 -0.0306999 255 0 0
0.149208 -0.169487 -0.0308746 255 0 0
0.14891 -0.167232 -0.0309179 255 0 0
0.148646 -0.16511 -0.031778 255 0 0
0.150265 -0.165747 -0.030659 255 0 0
0.146674 -0.16282 -0.0317507 255 0 0
0.145002 -0.161329 -0.0309397 255 0 0
0.139838 -0.15815 -0.0318055 255 0 0
0.141748 -0.158641 -0.0309488 255 0 0
0.142718 -0.159771 -0.0309611 255 0 0
0.13726 -0.156158 -0.0312849 255 0 0
0.138683 -0.156959 -0.0308641 255 0 0
0.140446 -0.157639 -0.0306887 255 0 0
0.137133 -0.155032 -0.030618 255 0 0
0.135186 -0.15237 -0.0310633 255 0 0
0.136139 -0.153483 -0.0310751 255 0 0
0.133147 -0.150345 -0.0317165 255 0 0
0.134395 -0.151196 -0.0311749 255 0 0
0.131256 -0.148137 -0.0316918 255 0 0
0.132806 -0.149309 -0.0308879 255 0 0
0.131023 -0.14706 -0.0309464 255 0 0
0.125681 -0.144818 -0.031766 255 0 0
0.12657 -0.144168 -0.0309126 255 0 0
0.129121 -0.145169 -0.0310487 255 0 0
0.123831 -0.14265 -0.0317424 255 0 0
0.125046 -0.143476 -0.0312066 255 0 0
0.127308 -0.14283 -0.0302932 255 0 0
0.12199 -0.140492 -0.0317192 255 0 0
0.12335 -0.141242 -0.0313053 255 0 0
0.125099 -0.141151 -0.030398 255 0 0
0.121259 -0.138744 -0.0315819 255 0 0
0.123256 -0.139062 -0.0305549 255 0 0
0.120907 -0.136813 -0.0310035 255 0 0
0.123152 -0.13697 -0.0313528 255 0 0
0.119039 -0.13486 -0.031062 255 0 0
0.120948 -0.134984 -0.0308411 255 0 0
0.122346 -0.134921 -0.0311221 255 0 0
0.116923 -0.132877 -0.030801 255 0 0
0.119257 -0.132735 -0.0311183 255 0 0
0.120499 -0.132869 -0.0309294 255 0 0
0.122058 -0.133476 -0.0311379 255 0 0
0.115352 -0.130644 -0.0309648 255 0 0
0.11721 -0.13109 -0.0311966 255 0 0
0.118659 -0.13101 -0.0309345 255 0 0
0.12037 -0.130965 -0.0304099 255 0 0
0.108953 -0.129083 -0.0314043 255 0 0
0.111275 -0.12876 -0.0313741 255 0 0
0.11328 -0.128961 -0.0312039 255 0 0
0.114591 -0.129153 -0.0311396 255 0 0
0.116719 -0.129028 -0.0309805 255 0 0
0.105528 -0.126938 -0.0316144 255 0 0
0.106781 -0.127026 -0.0304576 255 0 0
0.109262 -0.126819 -0.0311428 255 0 0
0.11141 -0.126429 -0.0313569 255 0 0
0.113029 -0.127408 -0.0309175 255 0 0
0.115013 -0.12751 -0.0308072 255 0 0
0.116457 -0.127652 -0.0300857 255 0 0
0.105045 -0.124381 -0.0314107 255 0 0
0.108828 -0.124706 -0.0309343 255 0 0
0.11091 -0.125111 -0.0310003 255 0 0
0.113344 -0.125108 -0.0307104 255 0 0
0.0981979 -0.122078 -0.0317838 255 0 0
0.10086 -0.122513 -0.0307322 255 0 0
0.103584 -0.123139 -0.0308576 255 0 0
0.105336 -0.122987 -0.0310094 255 0 0
0.107276 -0.123205 -0.0313223 255 0 0
0.109458 -0.123126 -0.0312854 255 0 0
0.110645 -0.122767 -0.0304178 255 0 0
0.097594 -0.120722 -0.0319982 255 0 0
0.0986567 -0.120818 -0.0306817 255 0 0
0.100969 -0.12146 -0.0312099 255 0 0
0.103113 -0.121457 -0.0308441 255 0 0
0.105013 -0.121488 -0.0310371 255 0 0
0.106693 -0.120859 -0.0309114 255 0 0
0.108003 -0.121418 -0.0305705 255 0 0
0.0957413 -0.118066 -0.0317139 255 0 0
0.0971722 -0.118814 -0.0311353 255 0 0
0.0989624 -0.118247 -0.0306218 255 0 0
0.100742 -0.118983 -0.0307995 255 0 0
0.103155 -0.118511 -0.0313054 255 0 0
0.104552 -0.119135 -0.0308599 255 0 0
0.0951199 -0.116468 -0.0308853 255 0 0
0.0963366 -0.117502 -0.0303347 255 0 0
0.0989182 -0.116882 -0.0306661 255 0 0
0.101604 -0.116272 -0.0304227 255 0 0
0.103578 -0.117082 -0.0307478 255 0 0
0.091769 -0.114743 -0.0319608 255 0 0
0.0932949 -0.1148 -0.031188 255 0 0
0.0948313 -0.114772 -0.031193 255 0 0
0.0963576 -0.115013 -0.0317599 255 0 0
0.0987516 -0.115065 -0.0311813 255 0 0
0.101328 -0.114888 -0.0304387 255 0 0
0.103579 -0.114714 -0.0310484 255 0 0
0.0836561 -0.112377 -0.0319759 255 0 0
0.0840207 -0.113639 -0.0319567 255 0 0
0.0867942 -0.112333 -0.0316765 255 0 0
0.0895665 -0.112415 -0.0316221 255 0 0
0.0912078 -0.113161 -0.0313926 255 0 0
0.0930305 -0.113271 -0.0312067 255 0 0
0.0944238 -0.112508 -0.0303367 255 0 0
0.0968526 -0.112692 -0.0310595 255 0 0
0.0982591 -0.113036 -0.0311456 255 0 0
0.102532 -0.112909 -0.0304974 255 0 0
0.0832913 -0.111114 -0.031995 255 0 0
0.0849484 -0.110898 -0.0313213 255 0 0
0.0868454 -0.110948 -0.0311909 255 0 0
0.0888568 -0.110967 -0.0309105 255 0 0
0.0907772 -0.111423 -0.0305672 255 0 0
0.0975826 -0.111775 -0.0317051 255 0 0
0.100779 -0.11086 -0.0304794 255 0 0
0.0829783 -0.109252 -0.031235 255 0 0
0.0849538 -0.109108 -0.0305808 255 0 0
0.0867264 -0.108873 -0.0306128 255 0 0
0.0888794 -0.109332 -0.0304287 255 0 0
0.0991664 -0.108732 -0.0305787 255 0 0
0.081565 -0.107063 -0.0313444 255 0 0
0.0828461 -0.107247 -0.0307626 255 0 0
0.0850063 -0.106948 -0.0303934 255 0 0
0.0868428 -0.107505 -0.0303976 255 0 0
0.0882163 -0.107748 -0.0302656 255 0 0
0.0979938 -0.107118 -0.0306824 255 0 0
0.0773237 -0.104229 -0.0312685 255 0 0
0.0791132 -0.105104 -0.031813 255 0 0
0.0805701 -0.104768 -0.0309541 255 0 0
0.0828956 -0.105092 -0.030576 255 0 0
0.0850106 -0.105328 -0.0302604 255 0 0
0.0970867 -0.105328 -0.0310204 255 0 0
0.0765237 -0.102581 -0.0308724 255 0 0
0.079015 -0.10267 -0.0307961 255 0 0
0.0814448 -0.103234 -0.0305817 255 0 0
0.0823487 -0.103943 -0.0310471 255 0 0
0.08804 -0.103258 -0.0302037 255 0 0
0.0959174 -0.103719 -0.0311237 255 0 0
0.075726 -0.100936 -0.0304776 255 0 0
0.0774411 -0.101478 -0.0311312 255 0 0
0.0789274 -0.100591 -0.0306388 255 0 0
0.0803557 -0.101515 -0.0304441 255 0 0
0.0878606 -0.101823 -0.0305125 255 0 0
0.089083 -0.101282 -0.0300772 255 0 0
0.0947211 -0.101169 -0.03004 255 0 0
0.076677 -0.0984585 -0.0307035 255 0 0
0.0783769 -0.0993259 -0.0308471 255 0 0
0.0885279 -0.099357 -0.0301054 255 0 0
0.0910428 -0.0987748 -0.0301689 255 0 0
0.0928226 -0.0992489 -0.0302835 255 0 0
0.0941174 -0.0999777 -0.0302648 255 0 0
0.0755697 -0.0972989 -0.0302404 255 0 0
0.0913861 -0.097125 -0.030115 255 0 0
0.0742113 -0.0948533 -0.0303201 255 0 0
0.0733976 -0.0936632 -0.0301938 255 0 0
0.0693711 -0.0721423 -0.0300674 255 0 0
0.0702692 -0.0734941 -0.0301456 255 0 0
0.0686686 -0.0705637 -0.0300873 255 0 0
0.0681594 -0.0687533 -0.0302053 255 0 0
0.0674549 -0.0671704 -0.0302253 255 0 0
0.0650576 -0.0644682 -0.0311886 255 0 0
0.0661102 -0.0650557 -0.0309991 255 0 0
0.0619273 -0.0627185 -0.0317497 255 0 0
0.0627457 -0.0630697 -0.0305104 255 0 0
0.0640088 -0.0638828 -0.0313757 255 0 0
0.0597932 -0.0605178 -0.031398 255 0 0
0.0611376 -0.0613544 -0.0308369 255 0 0
0.0578012 -0.0587339 -0.0314588 255 0 0
0.0589158 -0.0592473 -0.030734 255 0 0
0.0552727 -0.0564886 -0.0311256 255 0 0
0.0569712 -0.0576033 -0.0309337 255 0 0
0.0532327 -0.0551425 -0.0311661 255 0 0
0.0541733 -0.0555474 -0.0303398 255 0 0
0.0522183 -0.0531185 -0.030941 255 0 0
0.051577 -0.0515993 -0.0301153 255 0 0
0.13247 -0.214907 -0.0284058 255 0 0
0.131666 -0.213 -0.0281379 255 0 0
0.131604 -0.211009 -0.0287569 255 0 0
0.131046 -0.209072 -0.0287844 255 0 0
0.130983 -0.207066 -0.0294064 255 0 0
0.131381 -0.205113 -0.0291397 255 0 0
0.132556 -0.202494 -0.0285842 255 0 0
0.135127 -0.20247 -0.0282443 255 0 0
0.133488 -0.200914 -0.0291313 255 0 0
0.135413 -0.200805 -0.0288885 255 0 0
0.135392 -0.198982 -0.0290713 255 0 0
0.135221 -0.197092 -0.0288199 255 0 0
0.139235 -0.196742 -0.0295889 255 0 0
0.135657 -0.19514 -0.0295769 255 0 0
0.136771 -0.194964 -0.0295254 255 0 0
0.15095 -0.194347 -0.0286073 255 0 0
0.136264 -0.193544 -0.0284525 255 0 0
0.150642 -0.192808 -0.0292469 255 0 0
0.13756 -0.191926 -0.0294798 255 0 0
0.138573 -0.190267 -0.0286015 255 0 0
0.139891 -0.188618 -0.0296378 255 0 0
0.140398 -0.188501 -0.028227 255 0 0
0.149308 -0.188402 -0.0283665 255 0 0
0.15061 -0.188959 -0.028976 255 0 0
0.142398 -0.186721 -0.0288148 255 0 0
0.151815 -0.186333 -0.0295012 255 0 0
0.152417 -0.186123 -0.0280978 255 0 0
0.146551 -0.184792 -0.0289985 255 0 0
0.148828 -0.184224 -0.0286239 255 0 0
0.156324 -0.184359 -0.0296156 255 0 0
0.146969 -0.182664 -0.0292036 255 0 0
0.150676 -0.18243 -0.0299566 255 0 0
0.152503 -0.182128 -0.0292967 255 0 0
0.15459 -0.182914 -0.0288349 255 0 0
0.157057 -0.182115 -0.0291016 255 0 0
0.146617 -0.181046 -0.02809 255 0 0
0.154636 -0.181001 -0.0289061 255 0 0
0.156463 -0.181195 -0.0296092 255 0 0
0.147028 -0.178819 -0.0294094 255 0 0
0.15709 -0.179031 -0.028788 255 0 0
0.147717 -0.176178 -0.0293819 255 0 0
0.148097 -0.172888 -0.0294727 255 0 0
0.148771 -0.170926 -0.0290808 255 0 0
0.143969 -0.160512 -0.0296023 255 0 0
0.142361 -0.158128 -0.0298278 255 0 0
0.139759 -0.156128 -0.0293136 255 0 0
0.141362 -0.156869 -0.0290105 255 0 0
0.1391 -0.154752 -0.0287447 255 0 0
0.140367 -0.155615 -0.0281951 255 0 0
0.137618 -0.15289 -0.0290777 255 0 0
0.138442 -0.153377 -0.0281771 255 0 0
0.135295 -0.150423 -0.0295075 255 0 0
0.136551 -0.151276 -0.0289603 255 0 0
0.133392 -0.148209 -0.0294872 255 0 0
0.134845 -0.149429 -0.0285964 255 0 0
0.133265 -0.147083 -0.028821 255 0 0
0.131344 -0.145318 -0.0297057 255 0 0
0.132733 -0.145211 -0.0288439 255 0 0
0.129144 -0.143264 -0.0294427 255 0 0
0.131156 -0.14287 -0.0290683 255 0 0
0.132399 -0.143161 -0.0284949 255 0 0
0.12727 -0.141082 -0.0294234 255 0 0
0.128953 -0.140821 -0.0288069 255 0 0
0.130667 -0.14144 -0.0286246 255 0 0
0.125098 -0.139055 -0.0291635 255 0 0
0.126765 -0.138787 -0.0285476 255 0 0
0.128013 -0.13973 -0.0287979 255 0 0
0.121294 -0.136558 -0.0298713 255 0 0
0.123245 -0.136895 -0.0291454 255 0 0
0.125366 -0.13716 -0.0285348 255 0 0
0.120919 -0.134849 -0.0292306 255 0 0
0.122805 -0.135389 -0.0286923 255 0 0
0.117944 -0.132891 -0.0297187 255 0 0
0.11903 -0.133205 -0.0290777 255 0 0
0.120841 -0.133191 -0.0283765 255 0 0
0.115836 -0.130919 -0.0294628 255 0 0
0.116914 -0.131229 -0.0288233 255 0 0
0.119363 -0.131161 -0.0284672 255 0 0
0.120048 -0.131934 -0.0287028 255 0 0
0.112558 -0.128063 -0.0289651 255 0 0
0.114916 -0.128962 -0.0290384 255 0 0
0.116855 -0.129017 -0.0288629 255 0 0
0.119088 -0.129142 -0.0289881 255 0 0
0.105963 -0.12601 -0.0294418 255 0 0
0.10739 -0.126736 -0.0299158 255 0 0
0.109265 -0.126434 -0.0289611 255 0 0
0.111103 -0.127428 -0.0292608 255 0 0
0.11308 -0.126011 -0.0293116 255 0 0
0.114779 -0.126967 -0.0291381 255 0 0
0.116814 -0.126844 -0.0287159 255 0 0
0.11891 -0.126941 -0.0283193 255 0 0
0.103677 -0.124262 -0.028964 255 0 0
0.104817 -0.125134 -0.0292023 255 0 0
0.106616 -0.12467 -0.0288359 255 0 0
0.108761 -0.125553 -0.0280083 255 0 0
0.111288 -0.12488 -0.0291636 255 0 0
0.113443 -0.124507 -0.0287186 255 0 0
0.115239 -0.12508 -0.0288084 255 0 0
0.103078 -0.12308 -0.0291876 255 0 0
0.105301 -0.123121 -0.0288251 255 0 0
0.107302 -0.12267 -0.0295606 255 0 0
0.108901 -0.123133 -0.028924 255 0 0
0.110381 -0.122985 -0.028774 255 0 0
0.112578 -0.122932 -0.0291014 255 0 0
0.114884 -0.122965 -0.0280224 255 0 0
0.100511 -0.120596 -0.0292046 255 0 0
0.103041 -0.121425 -0.0297242 255 0 0
0.104758 -0.120928 -0.029099 255 0 0
0.106795 -0.120953 -0.0284532 255 0 0
0.109428 -0.121011 -0.0290257 255 0 0
0.11191 -0.120191 -0.0282047 255 0 0
0.112544 -0.12147 -0.0284338 255 0 0
0.0989762 -0.118875 -0.0298679 255 0 0
0.101164 -0.118584 -0.0289118 255 0 0
0.102575 -0.119343 -0.02876 255 0 0
0.104526 -0.118948 -0.0292324 255 0 0
0.106666 -0.118979 -0.0291941 255 0 0
0.108214 -0.119924 -0.0292318 255 0 0
0.097581 -0.116891 -0.0296624 255 0 0
0.099143 -0.116984 -0.0292465 255 0 0
0.100897 -0.116951 -0.0287293 255 0 0
0.103609 -0.116902 -0.0286813 255 0 0
0.104466 -0.117095 -0.0286623 255 0 0
0.106292 -0.117675 -0.0282943 255 0 0
0.0954169 -0.114298 -0.029042 255 0 0
0.0973022 -0.115478 -0.0291586 255 0 0
0.0991013 -0.114696 -0.0286185 255 0 0
0.100578 -0.115236 -0.0283901 255 0 0
0.103472 -0.115195 -0.0291794 255 0 0
0.104184 -0.115631 -0.0285087 255 0 0
0.0929835 -0.112948 -0.0296844 255 0 0
0.0949617 -0.112709 -0.0284006 255 0 0
0.0971846 -0.113016 -0.0286336 255 0 0
0.0983144 -0.113236 -0.0282756 255 0 0
0.100665 -0.112983 -0.0294341 255 0 0
0.102668 -0.112639 -0.0290733 255 0 0
0.0914761 -0.110718 -0.029483 255 0 0
0.0928651 -0.111431 -0.0292824 255 0 0
0.0949798 -0.111014 -0.0290416 255 0 0
0.0969759 -0.110764 -0.0288743 255 0 0
0.0990475 -0.110924 -0.0289291 255 0 0
0.100782 -0.11068 -0.0289419 255 0 0
0.0895086 -0.108499 -0.0294433 255 0 0
0.0907482 -0.109512 -0.0292818 255 0 0
0.0930911 -0.109013 -0.0289371 255 0 0
0.0956224 -0.108986 -0.0283158 255 0 0
0.0994742 -0.109151 -0.028931 255 0 0
0.0870145 -0.106659 -0.0297621 255 0 0
0.0889892 -0.106898 -0.0293023 255 0 0
0.0912405 -0.107215 -0.0291189 255 0 0
0.0932019 -0.106784 -0.0288184 255 0 0
0.094515 -0.107028 -0.0285057 255 0 0
0.0964645 -0.107314 -0.0282764 255 0 0
0.0984357 -0.107451 -0.0291523 255 0 0
0.0838015 -0.104662 -0.0298424 255 0 0
0.0852756 -0.104701 -0.0290819 255 0 0
0.0868393 -0.105256 -0.0293243 255 0 0
0.0890914 -0.104812 -0.0295029 255 0 0
0.0910337 -0.104903 -0.0290045 255 0 0
0.0927691 -0.104903 -0.0288187 255 0 0
0.0968329 -0.105336 -0.0292536 255 0 0
0.0813551 -0.10247 -0.0296255 255 0 0
0.0830439 -0.102973 -0.029419 255 0 0
0.0850028 -0.103044 -0.0293694 255 0 0
0.0895835 -0.103018 -0.0295616 255 0 0
0.091044 -0.102957 -0.029264 255 0 0
0.0926339 -0.103183 -0.0286441 255 0 0
0.0956263 -0.102955 -0.0297029 255 0 0
0.0773018 -0.1003 -0.0295534 255 0 0
0.079008 -0.100869 -0.0293864 255 0 0
0.0808151 -0.100997 -0.0288094 255 0 0
0.0829368 -0.101083 -0.0283788 255 0 0
0.0844248 -0.101064 -0.0286853 255 0 0
0.0871137 -0.100858 -0.0299523 255 0 0
0.0897385 -0.101248 -0.0287267 255 0 0
0.0906143 -0.101078 -0.0292314 255 0 0
0.0930296 -0.100809 -0.0296936 255 0 0
0.094398 -0.10139 -0.0290869 255 0 0
0.0729994 -0.0989677 -0.02983 255 0 0
0.0750034 -0.0991466 -0.029524 255 0 0
0.0766706 -0.0988574 -0.0289456 255 0 0
0.0788325 -0.0989298 -0.0286194 255 0 0
0.0808433 -0.0994349 -0.0282954 255 0 0
0.0858162 -0.0987824 -0.0291263 255 0 0
0.0865575 -0.0997393 -0.0296826 255 0 0
0.0894295 -0.0986326 -0.0296858 255 0 0
0.0935059 -0.099324 -0.0289567 255 0 0
0.0717737 -0.0961819 -0.0293206 255 0 0
0.0731259 -0.097377 -0.0291957 255 0 0
0.0746933 -0.0969038 -0.0285747 255 0 0
0.0768817 -0.0972541 -0.0285124 255 0 0
0.0781486 -0.0973993 -0.0284087 255 0 0
0.0850797 -0.097033 -0.028868 255 0 0
0.0877826 -0.0975936 -0.0298436 255 0 0
0.0891982 -0.0968802 -0.0296967 255 0 0
0.092773 -0.0969021 -0.0294967 255 0 0
0.0709105 -0.0946433 -0.0287947 255 0 0
0.0731739 -0.0951212 -0.0282266 255 0 0
0.0750638 -0.0956489 -0.0284761 255 0 0
0.0837947 -0.0941799 -0.0283436 255 0 0
0.0843448 -0.0952871 -0.0286102 255 0 0
0.0915947 -0.0951891 -0.0293472 255 0 0
0.0925943 -0.0958977 -0.0281111 255 0 0
0.0695329 -0.0920381 -0.0280143 255 0 0
0.0700504 -0.0931101 -0.0282706 255 0 0
0.0832458 -0.093075 -0.0280777 255 0 0
0.0913881 -0.0935172 -0.0285597 255 0 0
0.0828785 -0.091003 -0.0283905 255 0 0
0.0823285 -0.0890962 -0.0284187 255 0 0
0.0840803 -0.0880191 -0.0288399 255 0 0
0.0837116 -0.0867404 -0.0288587 255 0 0
0.0849205 -0.0869855 -0.0281239 255 0 0
0.0768692 -0.0851644 -0.0286979 255 0 0
0.0827013 -0.0852616 -0.0281708 255 0 0
0.0718611 -0.0765904 -0.0284257 255 0 0
0.0709657 -0.075183 -0.0289406 255 0 0
0.0695906 -0.0726076 -0.028754 255 0 0
0.0700657 -0.0738878 -0.0282715 255 0 0
0.0686943 -0.071258 -0.0286768 255 0 0
0.0678346 -0.0686615 -0.0288024 255 0 0
0.0682176 -0.0699749 -0.0291593 255 0 0
0.0666517 -0.0667277 -0.0289423 255 0 0
0.0651013 -0.0647416 -0.029148 255 0 0
0.0635303 -0.0628663 -0.029198 255 0 0
0.0645763 -0.0635392 -0.0281182 255 0 0
0.0614752 -0.0605408 -0.0289006 255 0 0
0.0625486 -0.0616431 -0.0290727 255 0 0
0.0589566 -0.0584664 -0.0290651 255 0 0
0.0603868 -0.0596253 -0.0291282 255 0 0
0.0555808 -0.0563407 -0.0289552 255 0 0
0.0566115 -0.0571653 -0.0289441 255 0 0
0.0536201 -0.054581 -0.0290248 255 0 0
0.0548836 -0.0556191 -0.0288427 255 0 0
0.0525086 -0.0529606 -0.0290614 255 0 0
0.0515444 -0.0511732 -0.0288869 255 0 0
0.131763 -0.212817 -0.0262324 255 0 0
0.131209 -0.210892 -0.0262595 255 0 0
0.131642 -0.20884 -0.0274593 255 0 0
0.131332 -0.206871 -0.0277816 255 0 0
0.131308 -0.205388 -0.0261833 255 0 0
0.13168 -0.203986 -0.0270827 255 0 0
0.132651 -0.202351 -0.0266589 255 0 0
0.135622 -0.202351 -0.0268632 255 0 0
0.136426 -0.203019 -0.0264761 255 0 0
0.134955 -0.20059 -0.0267858 255 0 0
0.136063 -0.201854 -0.0278374 255 0 0
0.134939 -0.19895 -0.027012 255 0 0
0.135193 -0.197077 -0.0270907 255 0 0
0.138257 -0.196809 -0.0264177 255 0 0
0.135869 -0.195367 -0.0270391 255 0 0
0.136269 -0.194686 -0.0272159 255 0 0
0.140053 -0.194979 -0.026889 255 0 0
0.136764 -0.193427 -0.0270602 255 0 0
0.143282 -0.192754 -0.0269156 255 0 0
0.137664 -0.191854 -0.0278277 255 0 0
0.138621 -0.190943 -0.0268145 255 0 0
0.146566 -0.190491 -0.0269447 255 0 0
0.14942 -0.191684 -0.0261178 255 0 0
0.150013 -0.190326 -0.0275425 255 0 0
0.14131 -0.188332 -0.0270702 255 0 0
0.146172 -0.188719 -0.0274582 255 0 0
0.149908 -0.18819 -0.0269767 255 0 0
0.15089 -0.188875 -0.0267179 255 0 0
0.143867 -0.187959 -0.0269256 255 0 0
0.145449 -0.187227 -0.0273937 255 0 0
0.148365 -0.185764 -0.0263903 255 0 0
0.153404 -0.185099 -0.0273339 255 0 0
0.150633 -0.183931 -0.0279631 255 0 0
0.153357 -0.183138 -0.0265779 255 0 0
0.145881 -0.180937 -0.0260297 255 0 0
0.155313 -0.18164 -0.0274323 255 0 0
0.145261 -0.179713 -0.026261 255 0 0
0.157171 -0.178977 -0.0270467 255 0 0
0.146649 -0.177909 -0.0279315 255 0 0
0.137104 -0.152138 -0.026327 255 0 0
0.136475 -0.150897 -0.0265608 255 0 0
0.135532 -0.149036 -0.0269117 255 0 0
0.134889 -0.146914 -0.026705 255 0 0
0.133653 -0.144551 -0.0279733 255 0 0
0.134473 -0.145032 -0.027073 255 0 0
0.133622 -0.142783 -0.0270917 255 0 0
0.136161 -0.142936 -0.0267069 255 0 0
0.12986 -0.140155 -0.0279398 255 0 0
0.132515 -0.140988 -0.0273224 255 0 0
0.134884 -0.141203 -0.0268174 255 0 0
0.136463 -0.141009 -0.0260609 255 0 0
0.127664 -0.138119 -0.0276827 255 0 0
0.129371 -0.138727 -0.0274967 255 0 0
0.13109 -0.13934 -0.0273107 255 0 0
0.133291 -0.138848 -0.0270451 255 0 0
0.135181 -0.139274 -0.0261721 255 0 0
0.125484 -0.136096 -0.0274277 255 0 0
0.127021 -0.13677 -0.0271215 255 0 0
0.128567 -0.137447 -0.0268143 255 0 0
0.131697 -0.137271 -0.0269125 255 0 0
0.13262 -0.13659 -0.0260342 255 0 0
0.134228 -0.137392 -0.026526 255 0 0
0.121506 -0.134178 -0.0278916 255 0 0
0.12305 -0.13426 -0.0272387 255 0 0
0.124691 -0.134829 -0.0267493 255 0 0
0.126378 -0.135423 -0.0265615 255 0 0
0.121175 -0.132655 -0.0270842 255 0 0
0.122829 -0.132924 -0.0267097 255 0 0
0.124205 -0.133413 -0.0263107 255 0 0
0.119021 -0.13076 -0.0273175 255 0 0
0.120998 -0.131177 -0.0269426 255 0 0
0.122655 -0.131109 -0.0265359 255 0 0
0.116869 -0.129032 -0.0274614 255 0 0
0.118856 -0.129325 -0.0270988 255 0 0
0.120506 -0.129123 -0.0262869 255 0 0
0.111651 -0.126808 -0.0274108 255 0 0
0.113539 -0.127207 -0.02746 255 0 0
0.115129 -0.126969 -0.0268618 255 0 0
0.11665 -0.127642 -0.0265169 255 0 0
0.107601 -0.124672 -0.02777 255 0 0
0.108728 -0.124597 -0.0268169 255 0 0
0.110832 -0.125071 -0.0266839 255 0 0
0.112969 -0.125201 -0.027037 255 0 0
0.114433 -0.125501 -0.0270413 255 0 0
0.105843 -0.122606 -0.0277577 255 0 0
0.107132 -0.123301 -0.0273439 255 0 0
0.10908 -0.122775 -0.0265589 255 0 0
0.110298 -0.12328 -0.0265979 255 0 0
0.102844 -0.121044 -0.0277919 255 0 0
0.10524 -0.121417 -0.0279824 255 0 0
0.10692 -0.120998 -0.0266889 255 0 0
0.10838 -0.121961 -0.0275778 255 0 0
0.114102 -0.120967 -0.0278003 255 0 0
0.105288 -0.118867 -0.027597 255 0 0
0.106614 -0.118828 -0.0268276 255 0 0
0.108393 -0.119201 -0.0277651 255 0 0
0.111278 -0.118915 -0.0279763 255 0 0
0.105536 -0.116843 -0.0270947 255 0 0
0.10678 -0.117585 -0.0269471 255 0 0
0.10356 -0.114508 -0.0274485 255 0 0
0.105051 -0.115245 -0.0265809 255 0 0
0.0991616 -0.112871 -0.0276213 255 0 0
0.10128 -0.112562 -0.0269528 255 0 0
0.102845 -0.112701 -0.0270494 255 0 0
0.104121 -0.113723 -0.0261247 255 0 0
0.0920673 -0.110487 -0.0279556 255 0 0
0.097485 -0.111277 -0.0278436 255 0 0
0.0991408 -0.110642 -0.0269677 255 0 0
0.100938 -0.111131 -0.0269331 255 0 0
0.102367 -0.111676 -0.0261157 255 0 0
0.0911738 -0.109211 -0.0278271 255 0 0
0.0934684 -0.109172 -0.0279141 255 0 0
0.0955618 -0.108204 -0.0275095 255 0 0
0.0971174 -0.10913 -0.0269522 255 0 0
0.0989116 -0.109161 -0.0269608 255 0 0
0.100349 -0.109991 -0.0274061 255 0 0
0.0894008 -0.106679 -0.0275725 255 0 0
0.0906012 -0.106987 -0.0274755 255 0 0
0.0934933 -0.106636 -0.0279985 255 0 0
0.0947433 -0.107351 -0.0273488 255 0 0
0.0973677 -0.107092 -0.0271055 255 0 0
0.0986113 -0.10796 -0.027395 255 0 0
0.0867454 -0.104515 -0.0273123 255 0 0
0.0888162 -0.105158 -0.0267773 255 0 0
0.0912387 -0.104166 -0.0264639 255 0 0
0.0930283 -0.105121 -0.0272619 255 0 0
0.0954499 -0.104597 -0.0274397 255 0 0
0.0965117 -0.105313 -0.0272845 255 0 0
0.0851528 -0.102914 -0.0277905 255 0 0
0.0861736 -0.103011 -0.0265231 255 0 0
0.0914646 -0.102414 -0.0266682 255 0 0
0.0924458 -0.10279 -0.0271637 255 0 0
0.0951411 -0.10299 -0.0270257 255 0 0
0.0835685 -0.101107 -0.0272682 255 0 0
0.0848824 -0.101162 -0.0263409 255 0 0
0.0897338 -0.100052 -0.0269321 255 0 0
0.091177 -0.100642 -0.027124 255 0 0
0.0935211 -0.101244 -0.0271838 255 0 0
0.0945573 -0.100937 -0.0265452 255 0 0
0.0796897 -0.0980435 -0.027742 255 0 0
0.0815539 -0.0986306 -0.0273924 255 0 0
0.0830853 -0.0990556 -0.0271602 255 0 0
0.0889146 -0.0989911 -0.0270038 255 0 0
0.0907437 -0.0988261 -0.0264879 255 0 0
0.0934033 -0.0992682 -0.0268341 255 0 0
0.077158 -0.0963138 -0.0278987 255 0 0
0.0790797 -0.0967791 -0.0271408 255 0 0
0.080531 -0.0971332 -0.0271023 255 0 0
0.0823312 -0.0973514 -0.0274763 255 0 0
0.0872318 -0.0966798 -0.0268715 255 0 0
0.0890312 -0.0973929 -0.0263595 255 0 0
0.0929396 -0.0972761 -0.0276569 255 0 0
0.0733775 -0.0941957 -0.0279275 255 0 0
0.0754128 -0.0953301 -0.0275727 255 0 0
0.0766791 -0.0948914 -0.0271113 255 0 0
0.0788348 -0.0951417 -0.0274585 255 0 0
0.081335 -0.095072 -0.0270917 255 0 0
0.0863803 -0.0949058 -0.0265525 255 0 0
0.091242 -0.0951252 -0.0261268 255 0 0
0.0712849 -0.0932741 -0.0276949 255 0 0
0.0727523 -0.0927931 -0.0271841 255 0 0
0.0749731 -0.0931334 -0.0268772 255 0 0
0.0772846 -0.0929614 -0.0270389 255 0 0
0.0796042 -0.0929358 -0.0278455 255 0 0
0.0809683 -0.0930188 -0.0274009 255 0 0
0.0855165 -0.093888 -0.0261134 255 0 0
0.0897891 -0.0929489 -0.0263458 255 0 0
0.0906419 -0.0939408 -0.0263499 255 0 0
0.0694216 -0.0908625 -0.0272703 255 0 0
0.0711394 -0.0909574 -0.0267703 255 0 0
0.0732308 -0.0910579 -0.0263608 255 0 0
0.0752078 -0.0906869 -0.0263322 255 0 0
0.076486 -0.0913331 -0.02665 255 0 0
0.0790593 -0.0910476 -0.0278737 255 0 0
0.0806004 -0.0909603 -0.0277109 255 0 0
0.0891895 -0.0917653 -0.0265687 255 0 0
0.0625583 -0.0894598 -0.0261359 255 0 0
0.0691506 -0.0898529 -0.0262554 255 0 0
0.0702232 -0.0899249 -0.0269019 255 0 0
0.0754254 -0.0891702 -0.0261336 255 0 0
0.0789728 -0.0890079 -0.0274732 255 0 0
0.0816006 -0.0881673 -0.0278686 255 0 0
0.0585415 -0.0861798 -0.0262624 255 0 0
0.0602674 -0.0865266 -0.0263513 255 0 0
0.070571 -0.086842 -0.0270035 255 0 0
0.0774875 -0.0869373 -0.0271575 255 0 0
0.0786011 -0.0871373 -0.0265874 255 0 0
0.0806938 -0.0866099 -0.0273307 255 0 0
0.0589107 -0.0853129 -0.02606 255 0 0
0.0765911 -0.085487 -0.0266337 255 0 0
0.0791131 -0.0854249 -0.0268737 255 0 0
0.0559302 -0.0820739 -0.026497 255 0 0
0.0575281 -0.0833394 -0.0260447 255 0 0
0.0755513 -0.0828416 -0.0268875 255 0 0
0.076153 -0.0837464 -0.0269388 255 0 0
0.0794258 -0.0837944 -0.0268134 255 0 0
0.0568325 -0.0809355 -0.0260828 255 0 0
0.0746719 -0.0813038 -0.0264085 255 0 0
0.073001 -0.0790045 -0.0266715 255 0 0
0.0713332 -0.0767091 -0.0269339 255 0 0
0.0721072 -0.0775706 -0.0274811 255 0 0
0.0698629 -0.0742798 -0.0264059 255 0 0
0.0705358 -0.0752483 -0.0269055 255 0 0
0.0692918 -0.0731153 -0.0268388 255 0 0
0.0684655 -0.0710779 -0.0270328 255 0 0
0.0672529 -0.0689348 -0.0266871 255 0 0
0.066393 -0.0669317 -0.0268657 255 0 0
0.0652779 -0.0652365 -0.0269185 255 0 0
0.0634973 -0.062522 -0.0270627 255 0 0
0.0642588 -0.0634556 -0.026724 255 0 0
0.0612279 -0.0604447 -0.0269558 255 0 0
0.0626946 -0.0614839 -0.0269687 255 0 0
0.0586092 -0.0585428 -0.026782 255 0 0
0.0600978 -0.0593648 -0.0273421 255 0 0
0.0557682 -0.0562895 -0.0273041 255 0 0
0.0568801 -0.0573573 -0.0269199 255 0 0
0.0536809 -0.0541292 -0.0269724 255 0 0
0.0545283 -0.0551857 -0.0268653 255 0 0
0.0526381 -0.0529905 -0.0273862 255 0 0
0.131555 -0.208031 -0.0255633 255 0 0
0.131432 -0.206711 -0.0258729 255 0 0
0.131778 -0.203838 -0.0251746 255 0 0
0.133497 -0.202088 -0.0256265 255 0 0
0.135295 -0.202745 -0.0250768 255 0 0
0.134912 -0.200973 -0.0247706 255 0 0
0.134421 -0.199418 -0.0247504 255 0 0
0.137594 -0.198308 -0.0252078 255 0 0
0.135139 -0.197152 -0.0251196 255 0 0
0.13915 -0.196483 -0.0244021 255 0 0
0.135503 -0.195839 -0.0241969 255 0 0
0.136741 -0.194663 -0.0253919 255 0 0
0.141214 -0.194605 -0.0251608 255 0 0
0.137513 -0.193251 -0.0249735 255 0 0
0.143879 -0.19254 -0.0255519 255 0 0
0.145845 -0.192057 -0.0257039 255 0 0
0.150462 -0.192914 -0.0251098 255 0 0
0.139066 -0.191573 -0.0252825 255 0 0
0.144154 -0.190577 -0.0253488 255 0 0
0.146804 -0.19106 -0.0249559 255 0 0
0.150446 -0.191001 -0.0249778 255 0 0
0.142515 -0.189624 -0.025896 255 0 0
0.144924 -0.189249 -0.0247808 255 0 0
0.149319 -0.189704 -0.024883 255 0 0
0.143198 -0.187789 -0.0244861 255 0 0
0.144219 -0.186162 -0.0258801 255 0 0
0.146552 -0.187514 -0.0250969 255 0 0
0.148327 -0.187236 -0.02443 255 0 0
0.150791 -0.187919 -0.0258993 255 0 0
0.152575 -0.187149 -0.0247188 255 0 0
0.143871 -0.184568 -0.0247833 255 0 0
0.15085 -0.185361 -0.0252597 255 0 0
0.153419 -0.18502 -0.0253131 255 0 0
0.144572 -0.183 -0.0259513 255 0 0
0.154813 -0.183216 -0.0251689 255 0 0
0.155396 -0.181582 -0.0257055 255 0 0
0.156365 -0.181399 -0.0245034 255 0 0
0.144578 -0.178199 -0.0249164 255 0 0
0.157475 -0.17889 -0.0254419 255 0 0
0.158526 -0.177908 -0.0243698 255 0 0
0.127277 -0.134747 -0.0256918 255 0 0
0.12818 -0.134068 -0.0248186 255 0 0
0.122243 -0.132712 -0.0255345 255 0 0
0.12508 -0.132625 -0.0246533 255 0 0
0.126479 -0.133475 -0.0250125 255 0 0
0.121106 -0.130815 -0.0250074 255 0 0
0.123527 -0.130318 -0.0248804 255 0 0
0.124456 -0.131394 -0.0248849 255 0 0
0.119165 -0.128846 -0.0254903 255 0 0
0.121371 -0.128332 -0.0246364 255 0 0
0.122599 -0.129245 -0.0248759 255 0 0
0.115934 -0.126322 -0.024612 255 0 0
0.116978 -0.126758 -0.0254285 255 0 0
0.118806 -0.127371 -0.0251957 255 0 0
0.11303 -0.124854 -0.025827 255 0 0
0.114952 -0.125066 -0.0248403 255 0 0
0.116835 -0.125433 -0.0243547 255 0 0
0.111053 -0.123057 -0.0250342 255 0 0
0.112996 -0.123888 -0.0246247 255 0 0
0.107853 -0.120276 -0.0258508 255 0 0
0.108786 -0.121301 -0.0255098 255 0 0
0.110475 -0.121442 -0.0243866 255 0 0
0.107383 -0.118814 -0.0253771 255 0 0
0.108836 -0.119285 -0.0244951 255 0 0
0.106975 -0.116993 -0.02514 255 0 0
0.105252 -0.114556 -0.025149 255 0 0
0.106154 -0.115422 -0.0248275 255 0 0
0.103544 -0.112581 -0.0252454 255 0 0
0.10468 -0.113371 -0.0247819 255 0 0
0.1013 -0.110665 -0.0252109 255 0 0
0.10267 -0.111341 -0.0247909 255 0 0
0.0994754 -0.10863 -0.0251008 255 0 0
0.100363 -0.109648 -0.0251611 255 0 0
0.0950416 -0.106544 -0.0258119 255 0 0
0.0976352 -0.106784 -0.0252173 255 0 0
0.0985998 -0.107502 -0.0249415 255 0 0
0.0951599 -0.104793 -0.0245689 255 0 0
0.0966949 -0.10533 -0.025231 255 0 0
0.0873462 -0.103089 -0.0254244 255 0 0
0.0897382 -0.102999 -0.0256645 255 0 0
0.0929959 -0.102811 -0.0254402 255 0 0
0.0949255 -0.102944 -0.0245629 255 0 0
0.0969166 -0.103237 -0.0247599 255 0 0
0.0867913 -0.100913 -0.0250837 255 0 0
0.0910575 -0.100657 -0.0250242 255 0 0
0.0932849 -0.100792 -0.0247139 255 0 0
0.095423 -0.100613 -0.0252485 255 0 0
0.0965151 -0.10098 -0.0242689 255 0 0
0.0847623 -0.0994014 -0.0250686 255 0 0
0.0862217 -0.0994297 -0.0243065 255 0 0
0.0887477 -0.0983778 -0.0253032 255 0 0
0.0904607 -0.0989618 -0.0250891 255 0 0
0.0927853 -0.0988627 -0.0252319 255 0 0
0.0952322 -0.0992849 -0.0244897 255 0 0
0.0983282 -0.0987329 -0.0241171 255 0 0
0.0816154 -0.0969465 -0.0255914 255 0 0
0.0829149 -0.0969971 -0.02467 255 0 0
0.0862813 -0.0962936 -0.0240817 255 0 0
0.0893827 -0.096767 -0.0249821 255 0 0
0.0915122 -0.0965004 -0.0250568 255 0 0
0.0926321 -0.0975847 -0.0250744 255 0 0
0.0773926 -0.0940582 -0.0252346 255 0 0
0.0790775 -0.0948971 -0.0253535 255 0 0
0.0810694 -0.0954928 -0.0248222 255 0 0
0.0867578 -0.0948687 -0.0248462 255 0 0
0.0889961 -0.0948971 -0.0254035 255 0 0
0.0904532 -0.0947602 -0.0242745 255 0 0
0.0746177 -0.0922937 -0.0256478 255 0 0
0.0771472 -0.0925756 -0.0247986 255 0 0
0.0785435 -0.0934595 -0.02459 255 0 0
0.0854668 -0.0926151 -0.025256 255 0 0
0.0867499 -0.0933005 -0.0245372 255 0 0
0.0895565 -0.0929901 -0.0246077 255 0 0
0.0732728 -0.0905659 -0.025316 255 0 0
0.0750766 -0.091166 -0.0246274 255 0 0
0.0766228 -0.0911542 -0.0240416 255 0 0
0.0801973 -0.0907552 -0.0245433 255 0 0
0.0832428 -0.0906989 -0.0250329 255 0 0
0.0846256 -0.0917161 -0.0246477 255 0 0
0.0889584 -0.0918097 -0.0248299 255 0 0
0.0632562 -0.0885678 -0.0253182 255 0 0
0.0644566 -0.0887236 -0.0247473 255 0 0
0.0678072 -0.0880567 -0.0252095 255 0 0
0.069121 -0.0886013 -0.0256514 255 0 0
0.070926 -0.0891591 -0.0257204 255 0 0
0.0728171 -0.0889553 -0.025449 255 0 0
0.0748967 -0.088092 -0.0258763 255 0 0
0.0794856 -0.0887865 -0.0243998 255 0 0
0.0811286 -0.0892223 -0.0241478 255 0 0
0.0823939 -0.0896989 -0.0246012 255 0 0
0.0874126 -0.0880693 -0.0257225 255 0 0
0.0612111 -0.0861578 -0.025659 255 0 0
0.0632058 -0.0865664 -0.024999 255 0 0
0.0650626 -0.0874513 -0.0246517 255 0 0
0.0669639 -0.0865543 -0.0246997 255 0 0
0.0689126 -0.0867393 -0.0250579 255 0 0
0.0706755 -0.0871576 -0.0249486 255 0 0
0.0729375 -0.0865541 -0.0250336 255 0 0
0.0742014 -0.0871844 -0.0253448 255 0 0
0.0767067 -0.086723 -0.02433 255 0 0
0.0787624 -0.0870095 -0.0249477 255 0 0
0.0867012 -0.0869152 -0.0250774 255 0 0
0.0592771 -0.0844437 -0.0258568 255 0 0
0.060913 -0.0845894 -0.0251873 255 0 0
0.0627715 -0.0850273 -0.0246865 255 0 0
0.064608 -0.0852387 -0.0242316 255 0 0
0.0679055 -0.0854017 -0.024277 255 0 0
0.0691914 -0.084866 -0.0243255 255 0 0
0.0714188 -0.085397 -0.0245977 255 0 0
0.0731514 -0.0850411 -0.0248344 255 0 0
0.0755049 -0.084876 -0.0257542 255 0 0
0.0771393 -0.0848324 -0.0253251 255 0 0
0.0856399 -0.0843819 -0.0248782 255 0 0
0.0862385 -0.0855635 -0.0246559 255 0 0
0.0590289 -0.082825 -0.0254748 255 0 0
0.0609124 -0.0831842 -0.0243501 255 0 0
0.0624036 -0.0829976 -0.0243093 255 0 0
0.0646802 -0.0831446 -0.0240711 255 0 0
0.0677463 -0.0831963 -0.0241217 255 0 0
0.071291 -0.0834401 -0.0241367 255 0 0
0.0732852 -0.0836091 -0.0244984 255 0 0
0.0754705 -0.0831665 -0.0250937 255 0 0
0.0763142 -0.083171 -0.0248894 255 0 0
0.078359 -0.0832338 -0.0257122 255 0 0
0.0576972 -0.0806493 -0.0252607 255 0 0
0.0593586 -0.0810158 -0.0245439 255 0 0
0.06111 -0.0817074 -0.0241545 255 0 0
0.0745237 -0.0807174 -0.024923 255 0 0
0.0558213 -0.0781011 -0.0258656 255 0 0
0.0570564 -0.0789874 -0.0250689 255 0 0
0.0583881 -0.0797609 -0.0244477 255 0 0
0.0717022 -0.0781747 -0.0255242 255 0 0
0.0729392 -0.0792207 -0.0248789 255 0 0
0.0570813 -0.0777137 -0.0245671 255 0 0
0.0708056 -0.0768825 -0.0248619 255 0 0
0.0696608 -0.0746702 -0.0245487 255 0 0
0.0701108 -0.0752597 -0.0254673 255 0 0
0.0689008 -0.0731207 -0.0251235 255 0 0
0.0676278 -0.0710586 -0.0247492 255 0 0
0.0667075 -0.0691397 -0.024895 255 0 0
0.0656589 -0.0667825 -0.0249219 255 0 0
0.0662316 -0.0678605 -0.025372 255 0 0
0.0646425 -0.0650057 -0.0247286 255 0 0
0.0633115 -0.0629679 -0.0249113 255 0 0
0.0593767 -0.0605517 -0.0246374 255 0 0
0.0612055 -0.0612594 -0.0252389 255 0 0
0.0513353 -0.0583916 -0.0252901 255 0 0
0.0575759 -0.0585711 -0.0245202 255 0 0
0.0584988 -0.0591649 -0.025146 255 0 0
0.0509701 -0.0572431 -0.0252023 255 0 0
0.0552125 -0.0566664 -0.0249298 255 0 0
