ply
format ascii 1.0
element vertex 1301
property float x
property float y
property float z
property uchar diffuse_red
property uchar diffuse_green
property uchar diffuse_blue
end_header
0.123147 -0.209063 0.00901333 255 0 0
0.130119 -0.209399 0.0088601 255 0 0
0.121621 -0.20675 0.00872768 255 0 0
0.122665 -0.206991 0.00866345 255 0 0
0.13247 -0.207801 0.00899114 255 0 0
0.13407 -0.206277 0.00876342 255 0 0
0.124864 -0.205242 0.00937988 255 0 0
0.127672 -0.204474 0.00888875 255 0 0
0.134766 -0.204812 0.00902092 255 0 0
0.141494 -0.204529 0.00875448 255 0 0
0.142071 -0.205673 0.00901745 255 0 0
0.128661 -0.203629 0.00958768 255 0 0
0.131355 -0.202794 0.00926547 255 0 0
0.136206 -0.203275 0.00889088 255 0 0
0.139994 -0.202332 0.00833285 255 0 0
0.140569 -0.203474 0.00859558 255 0 0
0.133767 -0.201844 0.00928504 255 0 0
0.135073 -0.2011 0.00964372 255 0 0
0.13746 -0.20079 0.00904006 255 0 0
0.139006 -0.201109 0.00846034 255 0 0
0.140712 -0.200322 0.00885083 255 0 0
0.143787 -0.200279 0.00863157 255 0 0
0.145672 -0.200752 0.00969045 255 0 0
0.148024 -0.200318 0.00899289 255 0 0
0.152317 -0.200357 0.00935629 255 0 0
0.135556 -0.19806 0.00920402 255 0 0
0.136469 -0.199102 0.00936256 255 0 0
0.140756 -0.199931 0.00935507 255 0 0
0.150402 -0.199879 0.00828715 255 0 0
0.158765 -0.199844 0.00936944 255 0 0
0.134984 -0.196924 0.00894302 255 0 0
0.134426 -0.19499 0.00909576 255 0 0
0.134546 -0.192852 0.00904257 255 0 0
0.135299 -0.191168 0.00901755 255 0 0
0.136404 -0.189363 0.00888676 255 0 0
0.138068 -0.188563 0.00968136 255 0 0
0.137174 -0.187645 0.00886107 255 0 0
0.137969 -0.185082 0.0092574 255 0 0
0.138066 -0.184521 0.00835351 255 0 0
0.0662482 -0.0604898 0.00801427 255 0 0
0.0632855 -0.0581752 0.00871742 255 0 0
0.0616 -0.0562869 0.00904521 255 0 0
0.062428 -0.0571749 0.00920322 255 0 0
0.0606564 -0.054898 0.00898104 255 0 0
0.0589364 -0.0528256 0.00903411 255 0 0
0.0574528 -0.0507625 0.00928406 255 0 0
0.0557135 -0.0482443 0.00876452 255 0 0
0.0564087 -0.0492507 0.00897245 255 0 0
0.115269 -0.2405 0.0115587 255 0 0
0.11635 -0.241998 0.0115618 255 0 0
0.112542 -0.239036 0.0110309 255 0 0
0.114738 -0.238865 0.0109086 255 0 0
0.117221 -0.238914 0.0112302 255 0 0
0.111623 -0.237195 0.0101939 255 0 0
0.113426 -0.23693 0.0105893 255 0 0
0.114795 -0.237225 0.0114444 255 0 0
0.109894 -0.234559 0.0110015 255 0 0
0.111252 -0.234973 0.0107897 255 0 0
0.112918 -0.235197 0.0112451 255 0 0
0.108953 -0.232964 0.0108267 255 0 0
0.112613 -0.232521 0.0110789 255 0 0
0.109141 -0.23085 0.0107534 255 0 0
0.112931 -0.230437 0.0112657 255 0 0
0.10986 -0.228843 0.0105536 255 0 0
0.110689 -0.229321 0.0114252 255 0 0
0.113443 -0.229126 0.0102755 255 0 0
0.114419 -0.228286 0.0109644 255 0 0
0.111791 -0.227428 0.0105104 255 0 0
0.113077 -0.226492 0.0114394 255 0 0
0.115395 -0.227447 0.0116528 255 0 0
0.126317 -0.226853 0.0113046 255 0 0
0.115737 -0.224536 0.0104207 255 0 0
0.116621 -0.224968 0.0113178 255 0 0
0.125523 -0.224965 0.0107653 255 0 0
0.117009 -0.223179 0.0108855 255 0 0
0.118678 -0.223247 0.0107117 255 0 0
0.124614 -0.22303 0.0110373 255 0 0
0.119156 -0.220782 0.0109601 255 0 0
0.124388 -0.221083 0.0109399 255 0 0
0.119025 -0.218943 0.011422 255 0 0
0.121069 -0.218965 0.0107385 255 0 0
0.124162 -0.219133 0.0108426 255 0 0
0.117981 -0.216583 0.0100819 255 0 0
0.118503 -0.217763 0.010752 255 0 0
0.124554 -0.216905 0.0108849 255 0 0
0.126713 -0.216933 0.011027 255 0 0
0.118135 -0.214911 0.0111055 255 0 0
0.12564 -0.214644 0.0109862 255 0 0
0.126382 -0.215477 0.0103905 255 0 0
0.118049 -0.212193 0.0111261 255 0 0
0.124749 -0.212794 0.0110444 255 0 0
0.126703 -0.213624 0.0111402 255 0 0
0.128236 -0.212166 0.0109304 255 0 0
0.117808 -0.211134 0.0101242 255 0 0
0.123856 -0.210684 0.011292 255 0 0
0.124493 -0.211302 0.0103814 255 0 0
0.129023 -0.21078 0.010362 255 0 0
0.130194 -0.210627 0.011263 255 0 0
0.1198 -0.208518 0.010163 255 0 0
0.123125 -0.209341 0.0107856 255 0 0
0.131764 -0.209135 0.01105 255 0 0
0.120776 -0.207684 0.0108527 255 0 0
0.122567 -0.206929 0.0112261 255 0 0
0.133353 -0.207626 0.0108356 255 0 0
0.134456 -0.206583 0.0111869 255 0 0
0.139671 -0.206609 0.0112098 255 0 0
0.124567 -0.205513 0.0119186 255 0 0
0.127208 -0.204696 0.0116135 255 0 0
0.135472 -0.20465 0.0109776 255 0 0
0.138987 -0.204867 0.0107689 255 0 0
0.129876 -0.203872 0.0113043 255 0 0
0.131772 -0.203355 0.0109822 255 0 0
0.132761 -0.202509 0.0116814 255 0 0
0.137343 -0.202735 0.010915 255 0 0
0.138589 -0.202882 0.0111217 255 0 0
0.134674 -0.201985 0.0113586 255 0 0
0.136683 -0.201003 0.0110622 255 0 0
0.138968 -0.201332 0.0102745 255 0 0
0.140399 -0.201392 0.0117526 255 0 0
0.143018 -0.201074 0.0107288 255 0 0
0.14522 -0.201654 0.0114365 255 0 0
0.14756 -0.201226 0.0107512 255 0 0
0.149586 -0.200684 0.0104115 255 0 0
0.151146 -0.201051 0.0118289 255 0 0
0.136051 -0.198929 0.0107578 255 0 0
0.14162 -0.199785 0.0104859 255 0 0
0.135069 -0.197118 0.0110378 255 0 0
0.134597 -0.195162 0.0111679 255 0 0
0.135169 -0.193158 0.0108487 255 0 0
0.136678 -0.19098 0.0107493 255 0 0
0.137874 -0.189666 0.0114711 255 0 0
0.138692 -0.188078 0.0107951 255 0 0
0.138419 -0.186672 0.0110868 255 0 0
0.138361 -0.18534 0.0106651 255 0 0
0.138263 -0.183869 0.0109055 255 0 0
0.0629766 -0.0582084 0.0101062 255 0 0
0.0623451 -0.0568445 0.0111329 255 0 0
0.0613554 -0.0552579 0.0107936 255 0 0
0.0595142 -0.0526798 0.0109371 255 0 0
0.0600893 -0.0538213 0.011196 255 0 0
0.0586556 -0.051208 0.0108393 255 0 0
0.0577613 -0.0491454 0.0108022 255 0 0
0.117334 -0.241148 0.0122551 255 0 0
0.118862 -0.241049 0.0129511 255 0 0
0.120393 -0.240947 0.0136482 255 0 0
0.115571 -0.238832 0.0124146 255 0 0
0.117264 -0.238485 0.0126815 255 0 0
0.118923 -0.239306 0.0132979 255 0 0
0.115079 -0.236243 0.0125311 255 0 0
0.116482 -0.236909 0.0132375 255 0 0
0.11821 -0.23796 0.0136328 255 0 0
0.111722 -0.234354 0.0125169 255 0 0
0.113257 -0.234751 0.0128963 255 0 0
0.114319 -0.234949 0.0130144 255 0 0
0.116814 -0.23473 0.0136307 255 0 0
0.118384 -0.235784 0.0139836 255 0 0
0.109887 -0.232292 0.0122199 255 0 0
0.110722 -0.233051 0.0130999 255 0 0
0.113484 -0.233202 0.0122559 255 0 0
0.114855 -0.233022 0.0131109 255 0 0
0.116226 -0.232842 0.0139662 255 0 0
0.110349 -0.231097 0.0125035 255 0 0
0.113938 -0.231191 0.012276 255 0 0
0.115033 -0.230868 0.0134603 255 0 0
0.111375 -0.229442 0.012833 255 0 0
0.112034 -0.228595 0.0132521 255 0 0
0.115212 -0.229013 0.0129756 255 0 0
0.113219 -0.227278 0.0130483 255 0 0
0.116491 -0.227127 0.0128398 255 0 0
0.127644 -0.227334 0.0129118 255 0 0
0.114175 -0.225983 0.0130078 255 0 0
0.116751 -0.225151 0.0130044 255 0 0
0.118337 -0.22448 0.0130502 255 0 0
0.125681 -0.224609 0.0126481 255 0 0
0.126729 -0.225392 0.0131809 255 0 0
0.117263 -0.22319 0.0128539 255 0 0
0.11879 -0.222466 0.01307 255 0 0
0.124949 -0.222875 0.013095 255 0 0
0.11919 -0.220959 0.0128972 255 0 0
0.124469 -0.220938 0.0131349 255 0 0
0.11965 -0.219085 0.013462 255 0 0
0.123933 -0.21905 0.012461 255 0 0
0.124044 -0.218955 0.0138905 255 0 0
0.126569 -0.218437 0.0139412 255 0 0
0.118896 -0.21714 0.012774 255 0 0
0.121696 -0.217734 0.0131214 255 0 0
0.123008 -0.216713 0.0131575 255 0 0
0.124823 -0.217186 0.0132248 255 0 0
0.126299 -0.216994 0.0127625 255 0 0
0.118648 -0.214827 0.0136189 255 0 0
0.124712 -0.214908 0.0129163 255 0 0
0.126096 -0.214852 0.0138649 255 0 0
0.118289 -0.213249 0.0121252 255 0 0
0.123608 -0.212299 0.0131827 255 0 0
0.124355 -0.213262 0.012695 255 0 0
0.127911 -0.213435 0.0127617 255 0 0
0.128883 -0.212673 0.0129304 255 0 0
0.117627 -0.210779 0.0134642 255 0 0
0.118871 -0.210067 0.013819 255 0 0
0.123352 -0.210593 0.0132352 255 0 0
0.124085 -0.211382 0.0121248 255 0 0
0.130933 -0.211134 0.0132297 255 0 0
0.118913 -0.209125 0.0124963 255 0 0
0.120163 -0.208408 0.012851 255 0 0
0.122943 -0.208952 0.0125356 255 0 0
0.133236 -0.208882 0.0133419 255 0 0
0.137879 -0.208653 0.0136214 255 0 0
0.121417 -0.207691 0.0132063 255 0 0
0.123302 -0.206611 0.0137403 255 0 0
0.134652 -0.207383 0.0132334 255 0 0
0.137879 -0.206761 0.0129912 255 0 0
0.126555 -0.205443 0.0136252 255 0 0
0.129205 -0.204626 0.0133279 255 0 0
0.131087 -0.204114 0.0130153 255 0 0
0.135321 -0.204718 0.0129841 255 0 0
0.136621 -0.204748 0.0131626 255 0 0
0.133478 -0.203177 0.0130486 255 0 0
0.13593 -0.20316 0.0135463 255 0 0
0.136941 -0.203231 0.0124886 255 0 0
0.138599 -0.202845 0.0135964 255 0 0
0.140614 -0.202498 0.0127834 255 0 0
0.142905 -0.202078 0.0121139 255 0 0
0.144444 -0.202438 0.0135121 255 0 0
0.146767 -0.202016 0.0128417 255 0 0
0.13564 -0.200683 0.012785 255 0 0
0.148778 -0.201481 0.0125123 255 0 0
0.150329 -0.201845 0.0139214 255 0 0
0.135545 -0.199019 0.0131603 255 0 0
0.135324 -0.197264 0.0130809 255 0 0
0.135671 -0.195338 0.0128356 255 0 0
0.136149 -0.194139 0.0132641 255 0 0
0.136912 -0.192458 0.0132582 255 0 0
0.137198 -0.191052 0.0127455 255 0 0
0.138458 -0.18905 0.013245 255 0 0
0.138837 -0.187096 0.012775 255 0 0
0.138735 -0.184633 0.0131647 255 0 0
0.138146 -0.183466 0.0128972 255 0 0
0.0577893 -0.0505939 0.012539 255 0 0
0.0572154 -0.0494548 0.0122808 255 0 0
0.121377 -0.240096 0.0143419 255 0 0
0.122682 -0.241015 0.01503 255 0 0
0.11777 -0.238266 0.0143194 255 0 0
0.12028 -0.238601 0.0143326 255 0 0
0.122072 -0.239091 0.0153662 255 0 0
0.116731 -0.236655 0.014891 255 0 0
0.119537 -0.236616 0.0148331 255 0 0
0.120975 -0.237601 0.0153546 255 0 0
0.113087 -0.234203 0.0143631 255 0 0
0.114904 -0.23476 0.0150391 255 0 0
0.11908 -0.234791 0.0150025 255 0 0
0.111561 -0.232488 0.0148001 255 0 0
0.112893 -0.233094 0.0157958 255 0 0
0.117998 -0.233322 0.0149915 255 0 0
0.111477 -0.230977 0.0145099 255 0 0
0.112701 -0.231407 0.0157991 255 0 0
0.116887 -0.231095 0.0152047 255 0 0
0.112792 -0.229093 0.0148722 255 0 0
0.116975 -0.229194 0.0148304 255 0 0
0.114239 -0.227175 0.0151567 255 0 0
0.117427 -0.227188 0.0148487 255 0 0
0.12779 -0.226575 0.0142552 255 0 0
0.128499 -0.227366 0.0149719 255 0 0
0.114913 -0.225911 0.0146161 255 0 0
0.11629 -0.224557 0.0150106 255 0 0
0.118277 -0.225836 0.0150389 255 0 0
0.127406 -0.225227 0.0150587 255 0 0
0.117267 -0.223241 0.0149775 255 0 0
0.119484 -0.223015 0.0149651 255 0 0
0.125624 -0.222712 0.014967 255 0 0
0.126229 -0.223998 0.0147904 255 0 0
0.118252 -0.221524 0.0151517 255 0 0
0.124888 -0.220784 0.0151417 255 0 0
0.119558 -0.219668 0.0148133 255 0 0
0.120319 -0.219135 0.0157539 255 0 0
0.124154 -0.21886 0.0153159 255 0 0
0.126496 -0.219182 0.0153851 255 0 0
0.119846 -0.216769 0.0141233 255 0 0
0.120365 -0.217942 0.0147891 255 0 0
0.123631 -0.216868 0.0146828 255 0 0
0.124853 -0.216603 0.0152535 255 0 0
0.126126 -0.21608 0.0154849 255 0 0
0.124706 -0.214924 0.014825 255 0 0
0.126205 -0.214763 0.0153021 255 0 0
0.123635 -0.213027 0.0148679 255 0 0
0.128475 -0.21324 0.0154751 255 0 0
0.117589 -0.211712 0.0147794 255 0 0
0.118552 -0.210888 0.0154597 255 0 0
0.122994 -0.210849 0.015304 255 0 0
0.131579 -0.210304 0.0150986 255 0 0
0.132207 -0.211608 0.0149174 255 0 0
0.119557 -0.209126 0.0148285 255 0 0
0.120803 -0.208412 0.0151842 255 0 0
0.133933 -0.20872 0.0152724 255 0 0
0.135777 -0.208872 0.0154665 255 0 0
0.122677 -0.20734 0.0157189 255 0 0
0.125423 -0.206596 0.0152725 255 0 0
0.135432 -0.207097 0.0148019 255 0 0
0.126686 -0.205875 0.0156304 255 0 0
0.128837 -0.205483 0.0149992 255 0 0
0.13071 -0.204976 0.0146942 255 0 0
0.132597 -0.204466 0.0143864 255 0 0
0.135148 -0.205201 0.0149307 255 0 0
0.136698 -0.204648 0.0151421 255 0 0
0.138779 -0.205102 0.015486 255 0 0
0.135178 -0.203071 0.0150183 255 0 0
0.136864 -0.203502 0.0147886 255 0 0
0.139409 -0.202985 0.0150381 255 0 0
0.141715 -0.203735 0.0158766 255 0 0
0.142146 -0.202856 0.0141748 255 0 0
0.144001 -0.203324 0.0152256 255 0 0
0.147145 -0.202588 0.0145784 255 0 0
0.149521 -0.20263 0.0159909 255 0 0
0.134963 -0.201076 0.0150804 255 0 0
0.153573 -0.201562 0.0153531 255 0 0
0.135085 -0.198978 0.0150489 255 0 0
0.135719 -0.196723 0.0148729 255 0 0
0.135961 -0.195211 0.0150183 255 0 0
0.137066 -0.193439 0.0149235 255 0 0
0.137835 -0.191751 0.0149241 255 0 0
0.138301 -0.190285 0.014366 255 0 0
0.138985 -0.189118 0.0152544 255 0 0
0.138948 -0.186973 0.015271 255 0 0
0.138565 -0.185246 0.0150217 255 0 0
0.124102 -0.24061 0.0174034 255 0 0
0.117043 -0.238325 0.0168808 255 0 0
0.123001 -0.239116 0.0173869 255 0 0
0.115827 -0.236178 0.0168371 255 0 0
0.116314 -0.236883 0.0174859 255 0 0
0.121098 -0.236302 0.0170279 255 0 0
0.122191 -0.237783 0.0170436 255 0 0
0.114997 -0.234562 0.0165785 255 0 0
0.120294 -0.234977 0.0166861 255 0 0
0.113456 -0.233033 0.0167971 255 0 0
0.114518 -0.233482 0.0175061 255 0 0
0.118951 -0.232924 0.016338 255 0 0
0.113546 -0.231316 0.0173024 255 0 0
0.118543 -0.230929 0.0179854 255 0 0
0.113523 -0.22902 0.0164623 255 0 0
0.114327 -0.228926 0.017309 255 0 0
0.117491 -0.22904 0.0173145 255 0 0
0.115214 -0.227067 0.0165951 255 0 0
0.118218 -0.227179 0.0170099 255 0 0
0.128651 -0.227005 0.0168501 255 0 0
0.115694 -0.225847 0.0168899 255 0 0
0.116175 -0.224621 0.0171875 255 0 0
0.11937 -0.224933 0.0166067 255 0 0
0.120172 -0.225068 0.01772 255 0 0
0.127737 -0.225068 0.0171123 255 0 0
0.117311 -0.222898 0.0172628 255 0 0
0.12643 -0.223196 0.0168381 255 0 0
0.11912 -0.220769 0.0169345 255 0 0
0.120671 -0.221 0.0172017 255 0 0
0.125304 -0.220862 0.0169204 255 0 0
0.127229 -0.220852 0.0168501 255 0 0
0.124995 -0.219087 0.0173608 255 0 0
0.126373 -0.219547 0.0169205 255 0 0
0.119927 -0.21649 0.017099 255 0 0
0.120442 -0.217655 0.01776 255 0 0
0.123723 -0.217508 0.0160942 255 0 0
0.124946 -0.216851 0.0168295 255 0 0
0.118875 -0.214622 0.0164309 255 0 0
0.120095 -0.214379 0.0174406 255 0 0
0.123421 -0.21458 0.0175036 255 0 0
0.125331 -0.215407 0.0168324 255 0 0
0.126897 -0.214583 0.0176284 255 0 0
0.117551 -0.212641 0.0160876 255 0 0
0.119581 -0.213215 0.0167804 255 0 0
0.123322 -0.213065 0.0168167 255 0 0
0.129633 -0.213094 0.0163784 255 0 0
0.119165 -0.210959 0.0167825 255 0 0
0.122764 -0.211272 0.0168792 255 0 0
0.131817 -0.210882 0.0165587 255 0 0
0.135335 -0.210222 0.016002 255 0 0
0.121097 -0.208884 0.0169974 255 0 0
0.13295 -0.208714 0.0172876 255 0 0
0.135311 -0.209324 0.0170471 255 0 0
0.123249 -0.207928 0.0172099 255 0 0
0.125074 -0.207436 0.016919 255 0 0
0.126331 -0.206719 0.0172774 255 0 0
0.12829 -0.206753 0.0174808 255 0 0
0.130261 -0.206789 0.0176854 255 0 0
0.132134 -0.206289 0.017391 255 0 0
0.134873 -0.206877 0.0169546 255 0 0
0.136139 -0.206359 0.0178002 255 0 0
0.130975 -0.205467 0.0165394 255 0 0
0.134298 -0.205407 0.0169542 255 0 0
0.136713 -0.205565 0.0163424 255 0 0
0.138777 -0.204766 0.0168844 255 0 0
0.140794 -0.205031 0.0172152 255 0 0
0.143239 -0.204091 0.0172608 255 0 0
0.134558 -0.202807 0.0170732 255 0 0
0.139419 -0.202594 0.0165544 255 0 0
0.145533 -0.203682 0.0166167 255 0 0
0.147189 -0.203047 0.0166446 255 0 0
0.150726 -0.20288 0.01773 255 0 0
0.152405 -0.20224 0.0177598 255 0 0
0.134511 -0.20077 0.017095 255 0 0
0.155126 -0.201927 0.0167632 255 0 0
0.135254 -0.199147 0.0171058 255 0 0
0.135401 -0.197962 0.0160161 255 0 0
0.13606 -0.196844 0.0168929 255 0 0
0.136825 -0.194918 0.0170443 255 0 0
0.137951 -0.192602 0.0172449 255 0 0
0.138416 -0.191142 0.0166961 255 0 0
0.138907 -0.188849 0.016572 255 0 0
0.137602 -0.186953 0.0175867 255 0 0
0.138888 -0.187895 0.0176621 255 0 0
0.117446 -0.23827 0.0193623 255 0 0
0.123635 -0.238987 0.019719 255 0 0
0.116932 -0.236812 0.019367 255 0 0
0.115788 -0.235045 0.0188446 255 0 0
0.120913 -0.235303 0.0196635 255 0 0
0.115301 -0.233396 0.0190475 255 0 0
0.119619 -0.232382 0.0180037 255 0 0
0.120621 -0.233134 0.0190081 255 0 0
0.114672 -0.231195 0.0193048 255 0 0
0.120025 -0.231261 0.0193289 255 0 0
0.114936 -0.22887 0.0189754 255 0 0
0.118833 -0.229303 0.0188173 255 0 0
0.115465 -0.227066 0.0185096 255 0 0
0.118864 -0.227103 0.0193149 255 0 0
0.128634 -0.226846 0.0190745 255 0 0
0.116448 -0.225205 0.0191308 255 0 0
0.119568 -0.225694 0.0196643 255 0 0
0.127894 -0.224912 0.0192457 255 0 0
0.117518 -0.223302 0.0190118 255 0 0
0.118211 -0.222013 0.0184843 255 0 0
0.12094 -0.223038 0.0188928 255 0 0
0.126589 -0.223044 0.0189687 255 0 0
0.119013 -0.221325 0.0193213 255 0 0
0.121986 -0.221148 0.0197423 255 0 0
0.125684 -0.221125 0.0192256 255 0 0
0.126709 -0.221098 0.0191915 255 0 0
0.121148 -0.219269 0.0186216 255 0 0
0.125164 -0.218971 0.0188222 255 0 0
0.126229 -0.219496 0.0193261 255 0 0
0.12138 -0.217286 0.0190904 255 0 0
0.125293 -0.217274 0.0186996 255 0 0
0.120809 -0.215009 0.0187595 255 0 0
0.123615 -0.214987 0.0190814 255 0 0
0.125051 -0.215895 0.0187883 255 0 0
0.127117 -0.215338 0.0191193 255 0 0
0.119705 -0.212039 0.0184219 255 0 0
0.121116 -0.212964 0.0189392 255 0 0
0.12252 -0.213568 0.019342 255 0 0
0.128915 -0.213012 0.0189831 255 0 0
0.120826 -0.210812 0.0182903 255 0 0
0.122376 -0.211141 0.0190362 255 0 0
0.131658 -0.210107 0.0188265 255 0 0
0.121669 -0.209465 0.0184784 255 0 0
0.12331 -0.209394 0.0190054 255 0 0
0.125129 -0.208909 0.0187221 255 0 0
0.126495 -0.208723 0.0195735 255 0 0
0.128334 -0.208235 0.0192901 255 0 0
0.133772 -0.208582 0.0183863 255 0 0
0.134339 -0.208975 0.0189008 255 0 0
0.126268 -0.207667 0.0185891 255 0 0
0.130187 -0.207743 0.0190041 255 0 0
0.133019 -0.207231 0.0189997 255 0 0
0.13424 -0.207267 0.0190008 255 0 0
0.136047 -0.207323 0.0191316 255 0 0
0.139023 -0.207109 0.0191934 255 0 0
0.141391 -0.206669 0.0199161 255 0 0
0.133784 -0.204477 0.0197723 255 0 0
0.134142 -0.205296 0.0186325 255 0 0
0.136897 -0.204839 0.018773 255 0 0
0.140864 -0.205472 0.0192387 255 0 0
0.142806 -0.204961 0.0189427 255 0 0
0.144704 -0.204937 0.0193166 255 0 0
0.134222 -0.203103 0.0192486 255 0 0
0.139515 -0.20252 0.0180461 255 0 0
0.140742 -0.202344 0.0189845 255 0 0
0.146407 -0.203817 0.0186769 255 0 0
0.149155 -0.203474 0.0190691 255 0 0
0.151588 -0.203019 0.0197989 255 0 0
0.153946 -0.202602 0.0191598 255 0 0
0.13451 -0.200981 0.0191856 255 0 0
0.155292 -0.20185 0.0195305 255 0 0
0.135817 -0.198564 0.0188493 255 0 0
0.13623 -0.197015 0.0189596 255 0 0
0.13699 -0.195358 0.0189792 255 0 0
0.137583 -0.193735 0.0190451 255 0 0
0.138182 -0.192099 0.019111 255 0 0
0.1383 -0.19074 0.0186618 255 0 0
0.138418 -0.189375 0.0182105 255 0 0
0.123868 -0.240007 0.0207083 255 0 0
0.117037 -0.236043 0.0201588 255 0 0
0.119257 -0.236941 0.0208535 255 0 0
0.12121 -0.236734 0.0216633 255 0 0
0.122257 -0.237357 0.0200184 255 0 0
0.117274 -0.234881 0.0206135 255 0 0
0.118686 -0.235484 0.0213478 255 0 0
0.120984 -0.235129 0.0217803 255 0 0
0.122089 -0.235921 0.0219762 255 0 0
0.115943 -0.23276 0.0206414 255 0 0
0.116747 -0.233426 0.0210807 255 0 0
0.121057 -0.233592 0.0206529 255 0 0
0.115656 -0.230901 0.0211564 255 0 0
0.11622 -0.231596 0.0217499 255 0 0
0.120686 -0.230727 0.0209769 255 0 0
0.115783 -0.22878 0.0204812 255 0 0
0.116107 -0.228754 0.0216387 255 0 0
0.119357 -0.228707 0.0206224 255 0 0
0.120829 -0.229038 0.0219575 255 0 0
0.116238 -0.227 0.0207586 255 0 0
0.119642 -0.227095 0.0214438 255 0 0
0.127968 -0.226047 0.0215442 255 0 0
0.12823 -0.227334 0.0215465 255 0 0
0.117119 -0.22496 0.0212122 255 0 0
0.120227 -0.225178 0.021304 255 0 0
0.127706 -0.224761 0.0215419 255 0 0
0.117845 -0.223282 0.0201865 255 0 0
0.118417 -0.223223 0.0212016 255 0 0
0.121209 -0.223907 0.0213363 255 0 0
0.122218 -0.222181 0.020721 255 0 0
0.126662 -0.222895 0.0211314 255 0 0
0.119648 -0.221866 0.021036 255 0 0
0.120809 -0.220508 0.0209218 255 0 0
0.123064 -0.220837 0.0209101 255 0 0
0.125791 -0.221027 0.0206377 255 0 0
0.126731 -0.221207 0.0211006 255 0 0
0.122842 -0.218948 0.0209526 255 0 0
0.125345 -0.218974 0.0208918 255 0 0
0.126017 -0.219893 0.0206083 255 0 0
0.123126 -0.216755 0.0210875 255 0 0
0.124766 -0.217197 0.0210089 255 0 0
0.126636 -0.217193 0.0206358 255 0 0
0.121521 -0.215636 0.0200762 255 0 0
0.123266 -0.214703 0.0209372 255 0 0
0.125052 -0.21551 0.0216478 255 0 0
0.127293 -0.215084 0.0207349 255 0 0
0.128678 -0.214842 0.0209125 255 0 0
0.122955 -0.213045 0.0205666 255 0 0
0.124413 -0.212659 0.0215604 255 0 0
0.12698 -0.212404 0.0218549 255 0 0
0.128549 -0.212911 0.021393 255 0 0
0.123654 -0.210965 0.0204725 255 0 0
0.125584 -0.211011 0.0206842 255 0 0
0.127235 -0.210943 0.0212161 255 0 0
0.128781 -0.210347 0.0212585 255 0 0
0.131279 -0.210017 0.0212577 255 0 0
0.126721 -0.209777 0.0205551 255 0 0
0.128558 -0.209293 0.0202757 255 0 0
0.130807 -0.208881 0.0205497 255 0 0
0.133333 -0.208877 0.0210254 255 0 0
0.134576 -0.209351 0.0206162 255 0 0
0.138717 -0.208496 0.0213501 255 0 0
0.133539 -0.206903 0.0212635 255 0 0
0.134064 -0.207066 0.0211194 255 0 0
0.141284 -0.207636 0.0212479 255 0 0
0.143222 -0.207134 0.0209603 255 0 0
0.144206 -0.206289 0.0216553 255 0 0
0.13349 -0.204898 0.0212965 255 0 0
0.134995 -0.205619 0.0200829 255 0 0
0.136442 -0.205456 0.0213362 255 0 0
0.142375 -0.205824 0.0206109 255 0 0
0.145958 -0.20469 0.0203569 255 0 0
0.147704 -0.204609 0.0208989 255 0 0
0.149124 -0.204418 0.0217759 255 0 0
0.133735 -0.202665 0.0218767 255 0 0
0.134434 -0.20275 0.0209582 255 0 0
0.138436 -0.203891 0.0209973 255 0 0
0.141214 -0.202236 0.0202918 255 0 0
0.15078 -0.203789 0.0218157 255 0 0
0.152782 -0.203267 0.0215235 255 0 0
0.134174 -0.201282 0.0213595 255 0 0
0.135227 -0.198771 0.0208272 255 0 0
0.136456 -0.196521 0.020805 255 0 0
0.136873 -0.194959 0.0209224 255 0 0
0.137178 -0.192762 0.0208649 255 0 0
0.12352 -0.238908 0.0234719 255 0 0
0.123229 -0.236745 0.0228179 255 0 0
0.124084 -0.237415 0.0239781 255 0 0
0.119899 -0.234591 0.0223479 255 0 0
0.12147 -0.234989 0.0227595 255 0 0
0.122841 -0.234752 0.0232497 255 0 0
0.124611 -0.234645 0.0235467 255 0 0
0.126473 -0.235019 0.0238114 255 0 0
0.117548 -0.23258 0.0223333 255 0 0
0.118982 -0.232983 0.0228208 255 0 0
0.121284 -0.232891 0.0234374 255 0 0
0.11718 -0.230728 0.0229003 255 0 0
0.118592 -0.231322 0.0236393 255 0 0
0.121599 -0.230775 0.0229438 255 0 0
0.117193 -0.228631 0.0229879 255 0 0
0.12202 -0.22923 0.0236048 255 0 0
0.117248 -0.226899 0.0228463 255 0 0
0.120694 -0.227223 0.0232458 255 0 0
0.128332 -0.227226 0.0229554 255 0 0
0.117446 -0.225715 0.0226493 255 0 0
0.118579 -0.22441 0.0232296 255 0 0
0.121137 -0.225243 0.0232631 255 0 0
0.127809 -0.224658 0.022951 255 0 0
0.128071 -0.225942 0.0229532 255 0 0
0.119273 -0.223135 0.0227229 255 0 0
0.12262 -0.223116 0.0229924 255 0 0
0.127212 -0.222573 0.0230548 255 0 0
0.120796 -0.221748 0.0230746 255 0 0
0.122832 -0.220514 0.0232979 255 0 0
0.125897 -0.22093 0.0220457 255 0 0
0.126626 -0.221063 0.0230163 255 0 0
0.12463 -0.218857 0.0233245 255 0 0
0.126109 -0.219777 0.0229252 255 0 0
0.124915 -0.217045 0.022815 255 0 0
0.126929 -0.217035 0.0232826 255 0 0
0.123807 -0.215081 0.022191 255 0 0
0.125239 -0.215147 0.022914 255 0 0
0.127016 -0.21465 0.0231407 255 0 0
0.129246 -0.214967 0.0229694 255 0 0
0.13023 -0.214265 0.0232453 255 0 0
0.124849 -0.213561 0.0229435 255 0 0
0.127342 -0.213363 0.0228247 255 0 0
0.129077 -0.213112 0.0232101 255 0 0
0.129219 -0.21143 0.0222694 255 0 0
0.130831 -0.210906 0.0228566 255 0 0
0.133086 -0.210604 0.022995 255 0 0
0.134987 -0.210483 0.0230602 255 0 0
0.131207 -0.208764 0.0220725 255 0 0
0.133308 -0.208749 0.0230064 255 0 0
0.137666 -0.209696 0.0228073 255 0 0
0.139261 -0.209091 0.0228517 255 0 0
0.141177 -0.208597 0.0225725 255 0 0
0.133149 -0.207107 0.0231603 255 0 0
0.134501 -0.206873 0.0231569 255 0 0
0.143281 -0.207564 0.0229616 255 0 0
0.145394 -0.206527 0.023352 255 0 0
0.133436 -0.204929 0.0226451 255 0 0
0.134409 -0.204384 0.0233042 255 0 0
0.136173 -0.205408 0.022973 255 0 0
0.145513 -0.205555 0.0220232 255 0 0
0.147025 -0.205908 0.0233962 255 0 0
0.149323 -0.204918 0.0236254 255 0 0
0.151968 -0.204034 0.0235278 255 0 0
0.133555 -0.202768 0.023063 255 0 0
0.135084 -0.203051 0.0230091 255 0 0
0.131781 -0.200719 0.0231278 255 0 0
0.133361 -0.201413 0.0232422 255 0 0
0.134157 -0.201221 0.0234739 255 0 0
0.134501 -0.199494 0.022754 255 0 0
0.135926 -0.197676 0.0226169 255 0 0
0.137313 -0.196499 0.0226961 255 0 0
0.138717 -0.195308 0.0227748 255 0 0
0.138836 -0.193963 0.0223365 255 0 0
0.124313 -0.238428 0.0249521 255 0 0
0.125017 -0.237013 0.0252996 255 0 0
0.123676 -0.234976 0.0249351 255 0 0
0.12782 -0.234873 0.024367 255 0 0
0.128653 -0.234782 0.0252348 255 0 0
0.121806 -0.232228 0.0245552 255 0 0
0.123115 -0.233053 0.024823 255 0 0
0.125273 -0.233416 0.0244431 255 0 0
0.127011 -0.233027 0.0252041 255 0 0
0.128103 -0.233679 0.0255017 255 0 0
0.119236 -0.230107 0.0245237 255 0 0
0.121316 -0.230998 0.0246587 255 0 0
0.122887 -0.231154 0.0249697 255 0 0
0.12487 -0.231344 0.0254792 255 0 0
0.118706 -0.229031 0.0247851 255 0 0
0.120921 -0.22933 0.0254795 255 0 0
0.122795 -0.229312 0.0253327 255 0 0
0.117974 -0.226827 0.0244281 255 0 0
0.118986 -0.227278 0.0251875 255 0 0
0.121012 -0.227344 0.0250592 255 0 0
0.123395 -0.226865 0.0249366 255 0 0
0.124604 -0.226617 0.0259375 255 0 0
0.128314 -0.227068 0.025143 255 0 0
0.119107 -0.225134 0.0245365 255 0 0
0.120143 -0.224819 0.0256959 255 0 0
0.122965 -0.224746 0.0251382 255 0 0
0.127752 -0.225149 0.0252234 255 0 0
0.120414 -0.223016 0.0247494 255 0 0
0.123971 -0.223222 0.0259186 255 0 0
0.124027 -0.222329 0.0246446 255 0 0
0.126838 -0.222646 0.0246862 255 0 0
0.12845 -0.222499 0.0246078 255 0 0
0.121656 -0.221659 0.0246021 255 0 0
0.122966 -0.220887 0.0251389 255 0 0
0.124775 -0.220562 0.025102 255 0 0
0.126713 -0.220822 0.0253563 255 0 0
0.125702 -0.218981 0.024821 255 0 0
0.126483 -0.218891 0.0255943 255 0 0
0.128777 -0.218511 0.025128 255 0 0
0.125168 -0.217058 0.0249873 255 0 0
0.127498 -0.217061 0.0245171 255 0 0
0.128821 -0.217009 0.0251482 255 0 0
0.130028 -0.21781 0.0254921 255 0 0
0.125525 -0.215236 0.0249257 255 0 0
0.126295 -0.215072 0.0251647 255 0 0
0.129335 -0.215009 0.0246686 255 0 0
0.130751 -0.214992 0.025235 255 0 0
0.133283 -0.214531 0.0259265 255 0 0
0.127375 -0.212818 0.024908 255 0 0
0.131104 -0.213429 0.0247271 255 0 0
0.132659 -0.21284 0.024777 255 0 0
0.135254 -0.212308 0.025043 255 0 0
0.137105 -0.213078 0.0245913 255 0 0
0.129066 -0.211368 0.0246895 255 0 0
0.13316 -0.211011 0.0250885 255 0 0
0.135151 -0.211302 0.0250114 255 0 0
0.137523 -0.211115 0.0247667 255 0 0
0.13911 -0.210515 0.0248156 255 0 0
0.140653 -0.210387 0.0255182 255 0 0
0.130827 -0.209859 0.0251808 255 0 0
0.132381 -0.208386 0.0250469 255 0 0
0.134606 -0.209164 0.0248806 255 0 0
0.140757 -0.209437 0.0242105 255 0 0
0.143034 -0.208974 0.0250169 255 0 0
0.133582 -0.206928 0.0250285 255 0 0
0.135035 -0.206826 0.024747 255 0 0
0.144954 -0.207379 0.0249949 255 0 0
0.147068 -0.206343 0.0253888 255 0 0
0.133364 -0.205225 0.0249726 255 0 0
0.135258 -0.205311 0.0244367 255 0 0
0.136428 -0.204857 0.0255937 255 0 0
0.133696 -0.202741 0.0245808 255 0 0
0.135465 -0.202731 0.0249561 255 0 0
0.136006 -0.203811 0.024528 255 0 0
0.133475 -0.200498 0.0247724 255 0 0
0.134784 -0.201038 0.0250994 255 0 0
0.131443 -0.199132 0.024687 255 0 0
0.132556 -0.199556 0.0252978 255 0 0
0.136078 -0.198636 0.0242452 255 0 0
0.126235 -0.236761 0.0263066 255 0 0
0.125148 -0.235305 0.0262689 255 0 0
0.126651 -0.235202 0.0269636 255 0 0
0.129488 -0.23469 0.0261038 255 0 0
0.124832 -0.232933 0.0271098 255 0 0
0.127064 -0.233646 0.0276188 255 0 0
0.129312 -0.232961 0.0261199 255 0 0
0.130543 -0.232823 0.0267615 255 0 0
0.123689 -0.231012 0.0265385 255 0 0
0.124897 -0.230764 0.0275376 255 0 0
0.127003 -0.230707 0.026449 255 0 0
0.129016 -0.230661 0.0268589 255 0 0
0.130236 -0.231102 0.0268552 255 0 0
0.132138 -0.230878 0.0271166 255 0 0
0.121715 -0.228663 0.0263152 255 0 0
0.123579 -0.228462 0.0264751 255 0 0
0.124791 -0.229043 0.0269199 255 0 0
0.12698 -0.22858 0.0272589 255 0 0
0.128866 -0.22893 0.0275406 255 0 0
0.130902 -0.229266 0.0277477 255 0 0
0.121343 -0.226797 0.0268861 255 0 0
0.123008 -0.226774 0.0274695 255 0 0
0.12474 -0.227168 0.0273915 255 0 0
0.12616 -0.22694 0.0276551 255 0 0
0.128314 -0.227831 0.0278058 255 0 0
0.121427 -0.224664 0.0269451 255 0 0
0.123486 -0.224973 0.0277673 255 0 0
0.125161 -0.225149 0.026437 255 0 0
0.127328 -0.224581 0.0273669 255 0 0
0.128035 -0.225633 0.0273185 255 0 0
0.121518 -0.222888 0.0261163 255 0 0
0.122982 -0.223096 0.0275161 255 0 0
0.125206 -0.222531 0.0262815 255 0 0
0.126789 -0.223358 0.0268001 255 0 0
0.128485 -0.222308 0.0272601 255 0 0
0.123559 -0.221415 0.0261799 255 0 0
0.125186 -0.2212 0.0272548 255 0 0
0.127084 -0.221054 0.0266306 255 0 0
0.129158 -0.221171 0.0274987 255 0 0
0.125598 -0.219345 0.0263197 255 0 0
0.126642 -0.219152 0.0270407 255 0 0
0.128788 -0.218923 0.0266432 255 0 0
0.130909 -0.218982 0.0272064 255 0 0
0.125684 -0.217029 0.027008 255 0 0
0.126994 -0.217024 0.0276391 255 0 0
0.129603 -0.216914 0.0265296 255 0 0
0.130588 -0.216919 0.0268692 255 0 0
0.132349 -0.2168 0.0270185 255 0 0
0.134642 -0.216389 0.0277429 255 0 0
0.126586 -0.215012 0.0269926 255 0 0
0.128254 -0.214316 0.0273419 255 0 0
0.131617 -0.214771 0.0266545 255 0 0
0.132737 -0.215041 0.0273306 255 0 0
0.135059 -0.214992 0.0269539 255 0 0
0.136619 -0.214177 0.0267933 255 0 0
0.127704 -0.212681 0.0269352 255 0 0
0.132725 -0.212159 0.0269133 255 0 0
0.135246 -0.213301 0.0268202 255 0 0
0.136698 -0.213345 0.0267733 255 0 0
0.139374 -0.212576 0.0269407 255 0 0
0.141067 -0.21251 0.0274856 255 0 0
0.129046 -0.211253 0.0268948 255 0 0
0.134846 -0.211031 0.027059 255 0 0
0.14086 -0.21145 0.0265033 255 0 0
0.142787 -0.210373 0.0270566 255 0 0
0.130278 -0.209783 0.0276447 255 0 0
0.133325 -0.208546 0.0273608 255 0 0
0.134576 -0.20907 0.0265707 255 0 0
0.144459 -0.2087 0.0272755 255 0 0
0.133751 -0.206834 0.0271808 255 0 0
0.134099 -0.206779 0.0270667 255 0 0
0.136681 -0.206829 0.0271413 255 0 0
0.145811 -0.2075 0.0269944 255 0 0
0.147108 -0.206774 0.0273649 255 0 0
0.133568 -0.204705 0.026991 255 0 0
0.136762 -0.204877 0.0269372 255 0 0
0.148862 -0.205191 0.026105 255 0 0
0.150501 -0.20457 0.0261551 255 0 0
0.133529 -0.202994 0.026688 255 0 0
0.135823 -0.202139 0.0268814 255 0 0
0.13654 -0.203289 0.0268339 255 0 0
0.13325 -0.200727 0.0271424 255 0 0
0.134784 -0.200823 0.0269834 255 0 0
0.131671 -0.198589 0.0266325 255 0 0
0.133082 -0.199169 0.0269872 255 0 0
0.127443 -0.23253 0.0289065 255 0 0
0.126073 -0.230952 0.0291677 255 0 0
0.125564 -0.229801 0.0285146 255 0 0
0.12623 -0.228841 0.0294886 255 0 0
0.132778 -0.228843 0.02848 255 0 0
0.134458 -0.229039 0.0293625 255 0 0
0.125722 -0.227692 0.0288365 255 0 0
0.12736 -0.22687 0.0286361 255 0 0
0.12917 -0.226824 0.0287599 255 0 0
0.131312 -0.227069 0.0292277 255 0 0
0.125214 -0.225323 0.0281251 255 0 0
0.12694 -0.225219 0.0286025 255 0 0
0.128762 -0.22509 0.0293638 255 0 0
0.125239 -0.222991 0.0286712 255 0 0
0.126839 -0.222626 0.0294297 255 0 0
0.128995 -0.223587 0.0280122 255 0 0
0.130975 -0.223059 0.0290425 255 0 0
0.126778 -0.221037 0.0290031 255 0 0
0.129196 -0.22058 0.0289259 255 0 0
0.130514 -0.220862 0.0290025 255 0 0
0.13289 -0.220841 0.0291166 255 0 0
0.135252 -0.220107 0.0298465 255 0 0
0.127373 -0.219439 0.0285602 255 0 0
0.128901 -0.218918 0.0291562 255 0 0
0.130273 -0.218089 0.0289526 255 0 0
0.13293 -0.218937 0.0287991 255 0 0
0.135218 -0.218531 0.0295254 255 0 0
0.125981 -0.216613 0.0288579 255 0 0
0.126953 -0.217341 0.028683 255 0 0
0.128399 -0.216925 0.0295298 255 0 0
0.130997 -0.217188 0.0294156 255 0 0
0.134856 -0.21743 0.0287124 255 0 0
0.136747 -0.216375 0.0292639 255 0 0
0.126966 -0.215222 0.028909 255 0 0
0.129098 -0.215168 0.0292075 255 0 0
0.131867 -0.215435 0.0293059 255 0 0
0.132919 -0.214021 0.0286529 255 0 0
0.137168 -0.214978 0.0284776 255 0 0
0.138694 -0.214853 0.0291759 255 0 0
0.127143 -0.213485 0.0289761 255 0 0
0.130881 -0.213451 0.0290454 255 0 0
0.135483 -0.213216 0.0288833 255 0 0
0.141445 -0.21303 0.0291178 255 0 0
0.129026 -0.211139 0.0290874 255 0 0
0.133431 -0.211865 0.0291364 255 0 0
0.134291 -0.210879 0.0289827 255 0 0
0.142677 -0.211318 0.0283535 255 0 0
0.144286 -0.210125 0.0292215 255 0 0
0.130379 -0.209702 0.029057 255 0 0
0.13287 -0.208657 0.0290161 255 0 0
0.13521 -0.209687 0.0293575 255 0 0
0.136263 -0.208574 0.0282156 255 0 0
0.145313 -0.208816 0.0292578 255 0 0
0.133393 -0.206964 0.0290437 255 0 0
0.134926 -0.206764 0.0293433 255 0 0
0.136414 -0.206864 0.0288394 255 0 0
0.147148 -0.207202 0.0293246 255 0 0
0.1331 -0.204868 0.028885 255 0 0
0.136453 -0.204781 0.0290472 255 0 0
0.148896 -0.205627 0.0280802 255 0 0
0.150686 -0.204479 0.0287964 255 0 0
0.13358 -0.202558 0.0285425 255 0 0
0.135708 -0.202953 0.0291739 255 0 0
0.132981 -0.201315 0.0289189 255 0 0
0.135339 -0.201 0.0289364 255 0 0
0.133593 -0.199098 0.0291323 255 0 0
0.134642 -0.199996 0.0285813 255 0 0
0.12782 -0.231421 0.0301871 255 0 0
0.12877 -0.230597 0.0308571 255 0 0
0.127297 -0.229106 0.0302683 255 0 0
0.128923 -0.228485 0.0311759 255 0 0
0.130487 -0.229501 0.0315597 255 0 0
0.135761 -0.228094 0.030417 255 0 0
0.136057 -0.229246 0.0303015 255 0 0
0.138725 -0.228925 0.0308761 255 0 0
0.129178 -0.22706 0.0305555 255 0 0
0.130744 -0.227046 0.0308166 255 0 0
0.13325 -0.226635 0.0303857 255 0 0
0.135194 -0.22698 0.0306838 255 0 0
0.136881 -0.227365 0.0311354 255 0 0
0.13871 -0.227137 0.0314965 255 0 0
0.127638 -0.224158 0.0302529 255 0 0
0.128404 -0.224621 0.0306038 255 0 0
0.130614 -0.22456 0.030637 255 0 0
0.1331 -0.224886 0.0310745 255 0 0
0.135043 -0.225222 0.0313759 255 0 0
0.137004 -0.225564 0.0316792 255 0 0
0.12739 -0.222902 0.030515 255 0 0
0.129657 -0.222994 0.0308808 255 0 0
0.131568 -0.223321 0.0311796 255 0 0
0.133116 -0.223058 0.031311 255 0 0
0.13518 -0.223005 0.0316767 255 0 0
0.127127 -0.220927 0.0309002 255 0 0
0.128977 -0.221118 0.0307291 255 0 0
0.131164 -0.220754 0.0313404 255 0 0
0.132344 -0.220251 0.0319755 255 0 0
0.134987 -0.221554 0.030474 255 0 0
0.13713 -0.221089 0.0313569 255 0 0
0.138801 -0.221036 0.0319038 255 0 0
0.126654 -0.219022 0.0309372 255 0 0
0.129273 -0.218563 0.0306661 255 0 0
0.130785 -0.219143 0.030866 255 0 0
0.132353 -0.219136 0.0317402 255 0 0
0.13712 -0.219159 0.0310892 255 0 0
0.126435 -0.217107 0.0308564 255 0 0
0.129483 -0.217331 0.0308964 255 0 0
0.130635 -0.216571 0.0317563 255 0 0
0.132856 -0.21714 0.0308835 255 0 0
0.136957 -0.217416 0.0302314 255 0 0
0.138956 -0.216881 0.031268 255 0 0
0.126606 -0.215128 0.0313088 255 0 0
0.129714 -0.215337 0.0302673 255 0 0
0.130803 -0.21498 0.031051 255 0 0
0.13309 -0.214869 0.0304295 255 0 0
0.139278 -0.214964 0.0300013 255 0 0
0.140805 -0.21484 0.030701 255 0 0
0.127367 -0.213798 0.0308325 255 0 0
0.128356 -0.212406 0.0309699 255 0 0
0.131823 -0.213088 0.0311889 255 0 0
0.132934 -0.21387 0.0314489 255 0 0
0.134516 -0.213187 0.0311446 255 0 0
0.141819 -0.213547 0.030741 255 0 0
0.142781 -0.212717 0.0314195 255 0 0
0.129698 -0.210982 0.0309485 255 0 0
0.133312 -0.211081 0.0312443 255 0 0
0.134169 -0.210786 0.0304851 255 0 0
0.143374 -0.211366 0.0304789 255 0 0
0.14482 -0.21012 0.0314987 255 0 0
0.130879 -0.209557 0.0310067 255 0 0
0.132722 -0.208603 0.0310983 255 0 0
0.134629 -0.209005 0.0310314 255 0 0
0.146221 -0.208458 0.0305865 255 0 0
0.133019 -0.207275 0.0311934 255 0 0
0.135434 -0.206348 0.0307855 255 0 0
0.146867 -0.207512 0.0315777 255 0 0
0.14854 -0.206427 0.0309944 255 0 0
0.132634 -0.20503 0.0307709 255 0 0
0.135217 -0.204724 0.0310684 255 0 0
0.149898 -0.205224 0.0307239 255 0 0
0.150868 -0.204389 0.0314085 255 0 0
0.131773 -0.202474 0.0314448 255 0 0
0.132195 -0.203384 0.030776 255 0 0
0.134639 -0.202859 0.0308864 255 0 0
0.15099 -0.202264 0.0317347 255 0 0
0.133482 -0.201596 0.0310132 255 0 0
0.134699 -0.199937 0.0302053 255 0 0
0.139743 -0.228813 0.0323659 255 0 0
0.130917 -0.226772 0.033351 255 0 0
0.132274 -0.227172 0.0338319 255 0 0
0.139436 -0.227056 0.0324656 255 0 0
0.141419 -0.226203 0.0327421 255 0 0
0.142486 -0.226876 0.0331127 255 0 0
0.128437 -0.225219 0.0328563 255 0 0
0.130787 -0.225283 0.0321951 255 0 0
0.133049 -0.224893 0.0329225 255 0 0
0.134549 -0.224781 0.0336191 255 0 0
0.137107 -0.22466 0.0328277 255 0 0
0.138423 -0.224795 0.0329242 255 0 0
0.141275 -0.225025 0.0334602 255 0 0
0.144603 -0.225806 0.0337915 255 0 0
0.127921 -0.22268 0.0328536 255 0 0
0.128179 -0.22395 0.0328549 255 0 0
0.134601 -0.223017 0.0323487 255 0 0
0.137189 -0.222911 0.0326555 255 0 0
0.139589 -0.223135 0.0334405 255 0 0
0.127534 -0.220775 0.0328516 255 0 0
0.133052 -0.22075 0.032286 255 0 0
0.135134 -0.221048 0.0325185 255 0 0
0.137806 -0.221275 0.0331245 255 0 0
0.139229 -0.221083 0.0337212 255 0 0
0.140523 -0.220751 0.0331424 255 0 0
0.127146 -0.21887 0.0328496 255 0 0
0.13338 -0.218912 0.032522 255 0 0
0.135252 -0.219243 0.0330623 255 0 0
0.136659 -0.219045 0.0336563 255 0 0
0.13894 -0.218916 0.0322246 255 0 0
0.140865 -0.218716 0.0332596 255 0 0
0.126759 -0.216964 0.0328476 255 0 0
0.131338 -0.217119 0.0324435 255 0 0
0.132878 -0.217029 0.0332979 255 0 0
0.134637 -0.216914 0.0326255 255 0 0
0.136338 -0.21668 0.0337408 255 0 0
0.140905 -0.216806 0.0329406 255 0 0
0.142118 -0.216561 0.0339447 255 0 0
0.127269 -0.214971 0.0331461 255 0 0
0.131689 -0.215459 0.0322219 255 0 0
0.132869 -0.214745 0.0334043 255 0 0
0.134599 -0.215103 0.0325755 255 0 0
0.136166 -0.214889 0.0337671 255 0 0
0.141659 -0.214936 0.0326513 255 0 0
0.142562 -0.214571 0.0339603 255 0 0
0.127862 -0.213651 0.0327545 255 0 0
0.12868 -0.21227 0.0329774 255 0 0
0.132926 -0.212947 0.0332053 255 0 0
0.135278 -0.213786 0.0328391 255 0 0
0.136142 -0.213675 0.033735 255 0 0
0.143151 -0.213233 0.0330313 255 0 0
0.129453 -0.210922 0.0325046 255 0 0
0.131073 -0.210473 0.0330142 255 0 0
0.132852 -0.211114 0.0328923 255 0 0
0.143743 -0.211887 0.0320976 255 0 0
0.145184 -0.210644 0.0331139 255 0 0
0.131493 -0.209367 0.0333569 255 0 0
0.133394 -0.209315 0.0337175 255 0 0
0.134175 -0.20829 0.0326718 255 0 0
0.145782 -0.20929 0.032178 255 0 0
0.146745 -0.20846 0.0328569 255 0 0
0.132558 -0.206928 0.0327933 255 0 0
0.135926 -0.206358 0.0321243 255 0 0
0.137108 -0.206196 0.0330656 255 0 0
0.147707 -0.207631 0.0335354 255 0 0
0.1506 -0.206307 0.0339767 255 0 0
0.131824 -0.204679 0.0334213 255 0 0
0.132587 -0.205047 0.0330419 255 0 0
0.134407 -0.20496 0.0323363 255 0 0
0.149118 -0.205961 0.032631 255 0 0
0.150892 -0.204824 0.0333449 255 0 0
0.131647 -0.202853 0.0328978 255 0 0
0.133408 -0.202822 0.0326221 255 0 0
0.151182 -0.203338 0.0327114 255 0 0
0.152149 -0.202505 0.0333933 255 0 0
0.13195 -0.201867 0.0338791 255 0 0
0.132838 -0.200951 0.0327109 255 0 0
0.15163 -0.201325 0.0327267 255 0 0
0.132055 -0.199973 0.0331888 255 0 0
0.131542 -0.229004 0.0341138 255 0 0
0.132781 -0.228321 0.0344831 255 0 0
0.129916 -0.22627 0.0351449 255 0 0
0.133516 -0.226486 0.0342011 255 0 0
0.134795 -0.227362 0.0348893 255 0 0
0.137418 -0.226671 0.0346992 255 0 0
0.139284 -0.226251 0.0344705 255 0 0
0.129267 -0.225056 0.0346103 255 0 0
0.135057 -0.225934 0.0342724 255 0 0
0.139097 -0.224609 0.0343001 255 0 0
0.140547 -0.225558 0.034843 255 0 0
0.143086 -0.224614 0.034807 255 0 0
0.145185 -0.224527 0.034817 255 0 0
0.146652 -0.224342 0.035426 255 0 0
0.12888 -0.223152 0.0346086 255 0 0
0.141254 -0.223132 0.0343117 255 0 0
0.143136 -0.222778 0.0349101 255 0 0
0.145181 -0.223319 0.035465 255 0 0
0.127845 -0.220035 0.0340719 255 0 0
0.128323 -0.221251 0.0346832 255 0 0
0.141165 -0.220985 0.0347924 255 0 0
0.142783 -0.220642 0.0357351 255 0 0
0.127587 -0.218765 0.0340707 255 0 0
0.128326 -0.219288 0.0352153 255 0 0
0.135185 -0.218294 0.0341251 255 0 0
0.137926 -0.218266 0.0343122 255 0 0
0.139168 -0.218892 0.034585 255 0 0
0.14134 -0.219333 0.0352184 255 0 0
0.142832 -0.218762 0.0355624 255 0 0
0.127416 -0.216607 0.0344247 255 0 0
0.128109 -0.217375 0.0351373 255 0 0
0.134709 -0.216831 0.0348863 255 0 0
0.137627 -0.217104 0.0344292 255 0 0
0.139486 -0.216845 0.0354807 255 0 0
0.140502 -0.217909 0.0356654 255 0 0
0.142797 -0.217188 0.0352404 255 0 0
0.127932 -0.214815 0.034982 255 0 0
0.133331 -0.214645 0.0345161 255 0 0
0.134371 -0.214947 0.0351896 255 0 0
0.137318 -0.215335 0.0345307 255 0 0
0.138602 -0.21515 0.0352069 255 0 0
0.14324 -0.2152 0.0352565 255 0 0
0.12922 -0.212768 0.0349399 255 0 0
0.132614 -0.212866 0.034901 255 0 0
0.134398 -0.212957 0.035152 255 0 0
0.137007 -0.213564 0.0346323 255 0 0
0.138153 -0.213401 0.0353833 255 0 0
0.143518 -0.213745 0.0346343 255 0 0
0.145108 -0.212567 0.0354944 255 0 0
0.131532 -0.210715 0.0353013 255 0 0
0.132601 -0.211289 0.0347246 255 0 0
0.134443 -0.21093 0.0356393 255 0 0
0.145067 -0.211579 0.0343826 255 0 0
0.146502 -0.21034 0.035395 255 0 0
0.131465 -0.208792 0.0351454 255 0 0
0.132923 -0.209089 0.0347246 255 0 0
0.134168 -0.209801 0.0359982 255 0 0
0.147103 -0.208989 0.0344676 255 0 0
0.131727 -0.206889 0.0350041 255 0 0
0.13258 -0.207524 0.034923 255 0 0
0.134848 -0.2077 0.0341838 255 0 0
0.13793 -0.206062 0.0341708 255 0 0
0.148926 -0.207388 0.0345448 255 0 0
0.151111 -0.206899 0.0354378 255 0 0
0.131626 -0.204936 0.0348162 255 0 0
0.132407 -0.205506 0.0354437 255 0 0
0.139489 -0.20587 0.0349599 255 0 0
0.140688 -0.205705 0.035913 255 0 0
0.151891 -0.205586 0.0343511 255 0 0
0.152856 -0.204755 0.0350316 255 0 0
0.131849 -0.203146 0.0342753 255 0 0
0.132698 -0.203006 0.0349268 255 0 0
0.153154 -0.203415 0.0350414 255 0 0
0.155355 -0.202771 0.0352967 255 0 0
0.132209 -0.200984 0.034856 255 0 0
0.13095 -0.199483 0.0357802 255 0 0
0.130318 -0.22484 0.0369741 255 0 0
0.143593 -0.225333 0.0362493 255 0 0
0.14455 -0.224503 0.0369236 255 0 0
0.147542 -0.224238 0.0363374 255 0 0
0.148728 -0.224092 0.0371018 255 0 0
0.129711 -0.222988 0.0363628 255 0 0
0.130322 -0.222878 0.0375077 255 0 0
0.143725 -0.223206 0.0365638 255 0 0
0.145056 -0.222536 0.0368392 255 0 0
0.146946 -0.223099 0.0366057 255 0 0
0.14813 -0.222951 0.03737 255 0 0
0.129324 -0.221083 0.0363614 255 0 0
0.130106 -0.220967 0.0374313 255 0 0
0.143378 -0.221499 0.0365412 255 0 0
0.144851 -0.220661 0.0371717 255 0 0
0.147234 -0.221439 0.0373242 255 0 0
0.129499 -0.219112 0.0368195 255 0 0
0.143289 -0.219208 0.0366418 255 0 0
0.144871 -0.219132 0.0375402 255 0 0
0.147219 -0.219404 0.0377292 255 0 0
0.129282 -0.217197 0.0367426 255 0 0
0.141226 -0.217217 0.0366267 255 0 0
0.143129 -0.217331 0.0372735 255 0 0
0.144427 -0.216987 0.0372054 255 0 0
0.129237 -0.21527 0.03659 255 0 0
0.130976 -0.214414 0.0378998 255 0 0
0.133295 -0.214145 0.0360553 255 0 0
0.135514 -0.214959 0.0364217 255 0 0
0.139472 -0.21504 0.0361074 255 0 0
0.141063 -0.214824 0.0373149 255 0 0
0.143917 -0.215827 0.036549 255 0 0
0.144556 -0.214883 0.0375173 255 0 0
0.146135 -0.214301 0.0375943 255 0 0
0.130841 -0.213167 0.0371335 255 0 0
0.13327 -0.213268 0.0370976 255 0 0
0.135419 -0.213002 0.0364148 255 0 0
0.136309 -0.213094 0.0374468 255 0 0
0.13918 -0.213485 0.0371188 255 0 0
0.144991 -0.213492 0.0367508 255 0 0
0.14721 -0.212553 0.0370129 255 0 0
0.131101 -0.211853 0.0369044 255 0 0
0.132605 -0.210763 0.0371982 255 0 0
0.135676 -0.210907 0.036863 255 0 0
0.147335 -0.211034 0.0365415 255 0 0
0.148165 -0.211728 0.037686 255 0 0
0.131673 -0.209375 0.0361596 255 0 0
0.132705 -0.208913 0.03674 255 0 0
0.134942 -0.20901 0.0370738 255 0 0
0.136579 -0.208457 0.0378286 255 0 0
0.147458 -0.209514 0.0360694 255 0 0
0.148991 -0.209386 0.0367725 255 0 0
0.150108 -0.208617 0.0372977 255 0 0
0.131196 -0.207077 0.0372821 255 0 0
0.133052 -0.206911 0.0367756 255 0 0
0.135391 -0.207339 0.0375703 255 0 0
0.138015 -0.207251 0.0371701 255 0 0
0.151618 -0.207489 0.0368925 255 0 0
0.152904 -0.206773 0.0372684 255 0 0
0.154193 -0.206055 0.0376448 255 0 0
0.130443 -0.204959 0.0369752 255 0 0
0.13308 -0.204865 0.0370067 255 0 0
0.141148 -0.205599 0.0371851 255 0 0
0.153044 -0.205821 0.0360007 255 0 0
0.155152 -0.204939 0.0370512 255 0 0
0.131957 -0.203216 0.0366881 255 0 0
0.133234 -0.202763 0.0372136 255 0 0
0.134465 -0.203146 0.0378187 255 0 0
0.132862 -0.200974 0.0371439 255 0 0
0.131839 -0.199554 0.0368216 255 0 0
0.132732 -0.199625 0.0378667 255 0 0
0.131321 -0.224674 0.0386543 255 0 0
0.145704 -0.224704 0.0385531 255 0 0
0.131106 -0.222764 0.0385787 255 0 0
0.132194 -0.223283 0.039578 255 0 0
0.145517 -0.222451 0.039159 255 0 0
0.146028 -0.22361 0.039815 255 0 0
0.149318 -0.222803 0.038137 255 0 0
0.132629 -0.221992 0.0392804 255 0 0
0.145326 -0.220814 0.0389855 255 0 0
0.148862 -0.221026 0.0383171 255 0 0
0.150353 -0.220828 0.0389404 255 0 0
0.13102 -0.218924 0.0382778 255 0 0
0.132547 -0.218135 0.0389803 255 0 0
0.145177 -0.218478 0.0389157 255 0 0
0.148406 -0.219248 0.0384973 255 0 0
0.13115 -0.216989 0.0380517 255 0 0
0.132636 -0.216839 0.03883 255 0 0
0.134793 -0.21731 0.0393887 255 0 0
0.143398 -0.216315 0.0382036 255 0 0
0.145262 -0.217075 0.0391222 255 0 0
0.146211 -0.216254 0.0397909 255 0 0
0.13089 -0.21571 0.038051 255 0 0
0.132769 -0.214889 0.0386037 255 0 0
0.134623 -0.214714 0.0392375 255 0 0
0.142661 -0.214606 0.0385272 255 0 0
0.144753 -0.215919 0.038468 255 0 0
0.146649 -0.214868 0.0390298 255 0 0
0.133227 -0.212596 0.0382677 255 0 0
0.134808 -0.213009 0.0389066 255 0 0
0.136382 -0.212815 0.039062 255 0 0
0.13889 -0.212668 0.0389371 255 0 0
0.147088 -0.213478 0.0382657 255 0 0
0.148136 -0.213175 0.0394119 255 0 0
0.132641 -0.211644 0.0383762 255 0 0
0.135036 -0.210778 0.0390694 255 0 0
0.136772 -0.211042 0.0394512 255 0 0
0.138297 -0.211905 0.0399533 255 0 0
0.148895 -0.211309 0.03913 255 0 0
0.150488 -0.210719 0.0392111 255 0 0
0.152183 -0.210651 0.0397692 255 0 0
0.133431 -0.209011 0.0384245 255 0 0
0.13541 -0.209285 0.0389908 255 0 0
0.137079 -0.209375 0.0392436 255 0 0
0.138826 -0.208379 0.0398404 255 0 0
0.151577 -0.208959 0.0386316 255 0 0
0.153278 -0.208888 0.0391898 255 0 0
0.154564 -0.208175 0.0395672 255 0 0
0.131646 -0.206091 0.0391091 255 0 0
0.1324 -0.207276 0.0387049 255 0 0
0.134794 -0.207003 0.0389962 255 0 0
0.136843 -0.20683 0.03887 255 0 0
0.139246 -0.207052 0.0388289 255 0 0
0.153091 -0.207832 0.0382304 255 0 0
0.15405 -0.207004 0.0389061 255 0 0
0.156425 -0.207155 0.0388671 255 0 0
0.129892 -0.204068 0.0387433 255 0 0
0.131382 -0.204782 0.0394152 255 0 0
0.134586 -0.205138 0.0383496 255 0 0
0.136995 -0.205125 0.0395211 255 0 0
0.157037 -0.205204 0.0387315 255 0 0
0.130465 -0.203641 0.0398515 255 0 0
0.135619 -0.203139 0.0388152 255 0 0
0.137295 -0.202959 0.0397147 255 0 0
0.135562 -0.201092 0.0388083 255 0 0
0.136453 -0.200761 0.0397035 255 0 0
0.134218 -0.199913 0.0384234 255 0 0
0.136318 -0.199142 0.0396105 255 0 0
0.146664 -0.222653 0.0407779 255 0 0
0.146314 -0.220956 0.0407492 255 0 0
0.146754 -0.218977 0.0407644 255 0 0
0.136829 -0.216892 0.0404172 255 0 0
0.139077 -0.217118 0.0414296 255 0 0
0.147194 -0.216999 0.0407787 255 0 0
0.148176 -0.217745 0.0417661 255 0 0
0.137032 -0.215125 0.0404245 255 0 0
0.139149 -0.214896 0.0416958 255 0 0
0.147475 -0.215555 0.0401663 255 0 0
0.148519 -0.215251 0.0413076 255 0 0
0.137759 -0.213076 0.0406715 255 0 0
0.139115 -0.212921 0.0415465 255 0 0
0.140137 -0.212444 0.041201 255 0 0
0.149277 -0.213393 0.0410299 255 0 0
0.151188 -0.212928 0.0408207 255 0 0
0.152882 -0.212864 0.0413805 255 0 0
0.154162 -0.212157 0.041759 255 0 0
0.137516 -0.210672 0.0404 255 0 0
0.138842 -0.210922 0.0408697 255 0 0
0.153174 -0.211404 0.0407643 255 0 0
0.155261 -0.210398 0.0411844 255 0 0
0.135876 -0.208482 0.040582 255 0 0
0.137104 -0.209428 0.0407035 255 0 0
0.13864 -0.209363 0.0415164 255 0 0
0.153464 -0.209941 0.0401465 255 0 0
0.155077 -0.209345 0.0402282 255 0 0
0.157412 -0.208936 0.040558 255 0 0
0.133106 -0.206684 0.0404052 255 0 0
0.134638 -0.206944 0.0411665 255 0 0
0.137142 -0.207896 0.0415774 255 0 0
0.14034 -0.206827 0.0412734 255 0 0
0.157477 -0.206856 0.0400262 255 0 0
0.131922 -0.204226 0.0411497 255 0 0
0.132845 -0.205371 0.0407141 255 0 0
0.137709 -0.204448 0.0405551 255 0 0
0.140535 -0.20477 0.0417534 255 0 0
0.137838 -0.202757 0.0404138 255 0 0
0.138623 -0.202876 0.0415014 255 0 0
0.140502 -0.20276 0.0416028 255 0 0
0.137449 -0.201231 0.0403732 255 0 0
0.138697 -0.200779 0.0412104 255 0 0
0.137317 -0.199611 0.0402816 255 0 0
0.146982 -0.22157 0.0420283 255 0 0
0.147106 -0.219468 0.042332 255 0 0
0.140228 -0.216076 0.0427967 255 0 0
0.149123 -0.216924 0.0424334 255 0 0
0.140921 -0.214683 0.0431272 255 0 0
0.149562 -0.214948 0.0424474 255 0 0
0.15147 -0.214489 0.0422438 255 0 0
0.140492 -0.212957 0.0429183 255 0 0
0.153068 -0.213907 0.0423305 255 0 0
0.154019 -0.213083 0.0430008 255 0 0
0.139898 -0.210812 0.0425005 255 0 0
0.14125 -0.211069 0.0426765 255 0 0
0.143084 -0.211215 0.0431551 255 0 0
