ply
format ascii 1.0
element vertex 1301
property float x
property float y
property float z
property uchar diffuse_red
property uchar diffuse_green
property uchar diffuse_blue
end_header
0.227679 -0.191559 0.0340016 255 0 0
0.228104 -0.191141 0.0351879 255 0 0
0.223887 -0.188575 0.0349642 255 0 0
0.226833 -0.18992 0.0350005 255 0 0
0.229452 -0.188884 0.0345202 255 0 0
0.229503 -0.187152 0.0343234 255 0 0
0.230295 -0.185173 0.0349609 255 0 0
0.230467 -0.18332 0.0356093 255 0 0
0.23052 -0.181565 0.0354128 255 0 0
0.2312 -0.179659 0.035208 255 0 0
0.13646 -0.125737 0.0343576 255 0 0
0.135456 -0.120621 0.0355823 255 0 0
0.134938 -0.119564 0.0348613 255 0 0
0.134902 -0.117598 0.0354823 255 0 0
0.130878 -0.114981 0.0349997 255 0 0
0.135466 -0.115732 0.03506 255 0 0
0.129444 -0.112802 0.0349804 255 0 0
0.135427 -0.113779 0.0356799 255 0 0
0.127198 -0.110526 0.0349878 255 0 0
0.128155 -0.111605 0.0349882 255 0 0
0.138968 -0.110541 0.0349681 255 0 0
0.151419 -0.110131 0.0354865 255 0 0
0.126233 -0.109098 0.0349759 255 0 0
0.1393 -0.108715 0.0347916 255 0 0
0.150301 -0.108954 0.0341949 255 0 0
0.125393 -0.107216 0.0349437 255 0 0
0.138805 -0.10732 0.0346288 255 0 0
0.148911 -0.107122 0.0345128 255 0 0
0.13745 -0.104625 0.0350382 255 0 0
0.138357 -0.105796 0.0351943 255 0 0
0.147928 -0.105144 0.0346545 255 0 0
0.137161 -0.103117 0.0348725 255 0 0
0.147661 -0.102639 0.0349803 255 0 0
0.138154 -0.100789 0.035415 255 0 0
0.147939 -0.100432 0.0348689 255 0 0
0.138486 -0.0989204 0.0352383 255 0 0
0.148321 -0.0987135 0.0353068 255 0 0
0.139657 -0.0965674 0.0350469 255 0 0
0.148338 -0.0971188 0.0351089 255 0 0
0.139155 -0.0951525 0.0348819 255 0 0
0.140336 -0.0927659 0.0346875 255 0 0
0.139831 -0.0913428 0.0345216 255 0 0
0.223877 -0.22893 0.0372648 255 0 0
0.226912 -0.228791 0.0374977 255 0 0
0.223196 -0.227485 0.0365883 255 0 0
0.225929 -0.226036 0.0368107 255 0 0
0.226982 -0.227362 0.0371793 255 0 0
0.22249 -0.224523 0.0377633 255 0 0
0.224331 -0.224716 0.0368656 255 0 0
0.222673 -0.223421 0.0365511 255 0 0
0.222448 -0.221983 0.0368854 255 0 0
0.216494 -0.218237 0.0371335 255 0 0
0.219171 -0.217382 0.0371662 255 0 0
0.212455 -0.214334 0.037749 255 0 0
0.214112 -0.215671 0.0366844 255 0 0
0.217187 -0.214466 0.0362788 255 0 0
0.218177 -0.215922 0.0367218 255 0 0
0.228488 -0.214231 0.0361355 255 0 0
0.230009 -0.214064 0.0373607 255 0 0
0.23221 -0.215635 0.0367928 255 0 0
0.212165 -0.212941 0.0377138 255 0 0
0.226898 -0.212666 0.036506 255 0 0
0.228409 -0.212495 0.0377286 255 0 0
0.233916 -0.213856 0.037808 255 0 0
0.211922 -0.210131 0.0373691 255 0 0
0.225892 -0.211095 0.0366787 255 0 0
0.213245 -0.208524 0.0369499 255 0 0
0.218119 -0.208808 0.0369094 255 0 0
0.22275 -0.208007 0.0374106 255 0 0
0.224316 -0.209546 0.0370457 255 0 0
0.218652 -0.207103 0.0373466 255 0 0
0.221194 -0.206476 0.0377732 255 0 0
0.218853 -0.204954 0.0372741 255 0 0
0.220207 -0.20493 0.0379422 255 0 0
0.21839 -0.202976 0.0372277 255 0 0
0.220906 -0.203312 0.0375344 255 0 0
0.230814 -0.202689 0.0372296 255 0 0
0.23206 -0.203689 0.0362329 255 0 0
0.217266 -0.201179 0.0372069 255 0 0
0.222746 -0.201626 0.0367346 255 0 0
0.230554 -0.20044 0.0375352 255 0 0
0.216364 -0.199322 0.0371778 255 0 0
0.226119 -0.199713 0.0371511 255 0 0
0.230607 -0.198739 0.0373447 255 0 0
0.213591 -0.196427 0.0376819 255 0 0
0.215026 -0.197595 0.0371662 255 0 0
0.230044 -0.19715 0.0371583 255 0 0
0.227692 -0.194214 0.0367954 255 0 0
0.228866 -0.19568 0.0369766 255 0 0
0.227741 -0.192505 0.036604 255 0 0
0.228708 -0.190905 0.0368418 255 0 0
0.224243 -0.188434 0.0365931 255 0 0
0.22737 -0.189707 0.0374578 255 0 0
0.229806 -0.188577 0.0370434 255 0 0
0.229858 -0.186841 0.0368505 255 0 0
0.230653 -0.184857 0.0374977 255 0 0
0.230707 -0.183106 0.0373044 255 0 0
0.23076 -0.181349 0.0371105 255 0 0
0.231443 -0.17944 0.0369109 255 0 0
0.135773 -0.121641 0.0366497 255 0 0
0.135018 -0.118585 0.0368922 255 0 0
0.132298 -0.116029 0.0367597 255 0 0
0.13538 -0.116694 0.0368176 255 0 0
0.130703 -0.115008 0.0373702 255 0 0
0.135542 -0.114775 0.0370872 255 0 0
0.128999 -0.113042 0.0370666 255 0 0
0.127333 -0.111039 0.0373508 255 0 0
0.139474 -0.110073 0.0364159 255 0 0
0.124961 -0.108528 0.0373459 255 0 0
0.12625 -0.109726 0.0367565 255 0 0
0.139344 -0.108901 0.0372775 255 0 0
0.148712 -0.109048 0.0369181 255 0 0
0.123845 -0.10613 0.0375993 255 0 0
0.12424 -0.106948 0.036734 255 0 0
0.138944 -0.106936 0.0368151 255 0 0
0.14743 -0.106923 0.0366327 255 0 0
0.137999 -0.104011 0.0372191 255 0 0
0.138495 -0.105409 0.037382 255 0 0
0.146647 -0.105663 0.036782 255 0 0
0.137503 -0.102613 0.0370562 255 0 0
0.147432 -0.103027 0.0369505 255 0 0
0.138247 -0.100524 0.0368802 255 0 0
0.147819 -0.100531 0.0372925 255 0 0
0.13858 -0.0986531 0.0367074 255 0 0
0.147836 -0.0989457 0.0370983 255 0 0
0.139753 -0.096296 0.0365238 255 0 0
0.14745 -0.0975214 0.037076 255 0 0
0.139299 -0.0947428 0.0370978 255 0 0
0.139264 -0.0929445 0.0376704 255 0 0
0.14001 -0.0927333 0.0361777 255 0 0
0.139554 -0.0911712 0.0367539 255 0 0
0.229559 -0.228488 0.0382183 255 0 0
0.230336 -0.228279 0.0394537 255 0 0
0.223745 -0.227086 0.0395106 255 0 0
0.228515 -0.227051 0.0387462 255 0 0
0.223117 -0.225805 0.0386371 255 0 0
0.225273 -0.225123 0.0390025 255 0 0
0.227108 -0.225623 0.0395505 255 0 0
0.222414 -0.222865 0.0397974 255 0 0
0.22129 -0.220855 0.038704 255 0 0
0.215867 -0.218081 0.0394388 255 0 0
0.219794 -0.218654 0.0380336 255 0 0
0.214819 -0.216883 0.0382001 255 0 0
0.213161 -0.215543 0.0392557 255 0 0
0.231697 -0.212286 0.0383739 255 0 0
0.233835 -0.2121 0.0394191 255 0 0
0.211199 -0.211586 0.0382244 255 0 0
0.226819 -0.210936 0.0380943 255 0 0
0.228913 -0.210746 0.0391282 255 0 0
0.210701 -0.208655 0.0398917 255 0 0
0.213737 -0.20929 0.0390778 255 0 0
0.218775 -0.208625 0.0389142 255 0 0
0.225239 -0.209385 0.0384578 255 0 0
0.227319 -0.209189 0.0394904 255 0 0
0.212098 -0.207142 0.0385005 255 0 0
0.219091 -0.206974 0.0393672 255 0 0
0.222887 -0.207078 0.0389987 255 0 0
0.21885 -0.20494 0.0393154 255 0 0
0.220554 -0.204788 0.0395351 255 0 0
0.218388 -0.202961 0.0392711 255 0 0
0.221255 -0.20317 0.0391323 255 0 0
0.230709 -0.202796 0.0394886 255 0 0
0.217368 -0.200609 0.0387187 255 0 0
0.218039 -0.201469 0.0397488 255 0 0
0.223668 -0.201454 0.0381493 255 0 0
0.224019 -0.201312 0.0397586 255 0 0
0.230173 -0.200363 0.0392091 255 0 0
0.216799 -0.19918 0.0392041 255 0 0
0.226473 -0.19957 0.0387729 255 0 0
0.230226 -0.198662 0.0390215 255 0 0
0.215239 -0.197513 0.0391963 255 0 0
0.229663 -0.197074 0.0388352 255 0 0
0.227923 -0.194018 0.0384651 255 0 0
0.2291 -0.195485 0.0386489 255 0 0
0.227973 -0.192306 0.0382762 255 0 0
0.228205 -0.192107 0.0399525 255 0 0
0.229157 -0.19056 0.0388571 255 0 0
0.227729 -0.189566 0.0390947 255 0 0
0.229541 -0.1884 0.0395759 255 0 0
0.229593 -0.186663 0.039387 255 0 0
0.230268 -0.184784 0.039196 255 0 0
0.230321 -0.183033 0.0390055 255 0 0
0.230375 -0.181276 0.0388145 255 0 0
0.231056 -0.179367 0.0386204 255 0 0
0.135486 -0.122543 0.0387437 255 0 0
0.135134 -0.119568 0.0382951 255 0 0
0.135532 -0.1172 0.0392216 255 0 0
0.129997 -0.114358 0.0394385 255 0 0
0.131052 -0.115223 0.0389936 255 0 0
0.133056 -0.115931 0.0389633 255 0 0
0.135656 -0.115766 0.0384876 255 0 0
0.12715 -0.112164 0.0394458 255 0 0
0.128631 -0.113238 0.0388509 255 0 0
0.126608 -0.110976 0.038985 255 0 0
0.13928 -0.111519 0.0387699 255 0 0
0.124898 -0.109044 0.0389734 255 0 0
0.139206 -0.108976 0.0392532 255 0 0
0.148207 -0.108745 0.0391594 255 0 0
0.123594 -0.106809 0.0389432 255 0 0
0.139084 -0.10655 0.0390072 255 0 0
0.147311 -0.107005 0.0390321 255 0 0
0.12299 -0.105113 0.0389098 255 0 0
0.138174 -0.105374 0.0388461 255 0 0
0.146637 -0.104928 0.0390414 255 0 0
0.137654 -0.102805 0.039062 255 0 0
0.147321 -0.102333 0.0392612 255 0 0
0.13818 -0.100242 0.0390842 255 0 0
0.147739 -0.100596 0.0389013 255 0 0
0.138304 -0.0984855 0.0389187 255 0 0
0.148159 -0.0988506 0.0385395 255 0 0
0.138639 -0.0966028 0.03875 255 0 0
0.138184 -0.0950537 0.0393252 255 0 0
0.138101 -0.0933978 0.0391594 255 0 0
0.138435 -0.0914919 0.0389916 255 0 0
0.22399 -0.22816 0.0408044 255 0 0
0.224617 -0.229438 0.0416763 255 0 0
0.230362 -0.228066 0.0412453 255 0 0
0.227439 -0.226842 0.0413661 255 0 0
0.223284 -0.225214 0.0419529 255 0 0
0.226777 -0.225421 0.0416064 255 0 0
0.222661 -0.223941 0.041085 255 0 0
0.216569 -0.219287 0.040947 255 0 0
0.221343 -0.219761 0.0413633 255 0 0
0.213863 -0.216748 0.0407575 255 0 0
0.214905 -0.217938 0.0419874 255 0 0
0.218257 -0.216289 0.0417082 255 0 0
0.211856 -0.214201 0.0400316 255 0 0
0.212221 -0.215418 0.0417935 255 0 0
0.217276 -0.214846 0.0412623 255 0 0
0.211231 -0.212833 0.0402656 255 0 0
0.215937 -0.213227 0.0412287 255 0 0
0.210464 -0.210776 0.0404816 255 0 0
0.213992 -0.210367 0.0403428 255 0 0
0.214963 -0.211795 0.0407852 255 0 0
0.231026 -0.210554 0.0401706 255 0 0
0.219877 -0.208328 0.0409162 255 0 0
0.22767 -0.209044 0.0411028 255 0 0
0.219637 -0.206295 0.040867 255 0 0
0.223021 -0.206147 0.0405865 255 0 0
0.22516 -0.207661 0.0400409 255 0 0
0.226085 -0.207497 0.041458 255 0 0
0.219069 -0.204867 0.0413529 255 0 0
0.221464 -0.204622 0.0409399 255 0 0
0.223939 -0.205982 0.0419981 255 0 0
0.219049 -0.202763 0.041298 255 0 0
0.222169 -0.203001 0.0405409 255 0 0
0.230916 -0.203456 0.0412534 255 0 0
0.218806 -0.200712 0.0412493 255 0 0
0.22552 -0.201111 0.0409885 255 0 0
0.228196 -0.200848 0.041847 255 0 0
0.230381 -0.201022 0.0409755 255 0 0
0.216899 -0.198606 0.0407201 255 0 0
0.218456 -0.199212 0.0417308 255 0 0
0.227409 -0.199394 0.0402019 255 0 0
0.230462 -0.198471 0.040698 255 0 0
0.214901 -0.197068 0.0407216 255 0 0
0.216444 -0.197666 0.0417287 255 0 0
0.229898 -0.19688 0.0405116 255 0 0
0.228719 -0.195409 0.040325 255 0 0
0.2278 -0.192889 0.0417225 255 0 0
0.228156 -0.193821 0.0401389 255 0 0
0.229098 -0.190564 0.0409076 255 0 0
0.227498 -0.189472 0.0409231 255 0 0
0.229158 -0.188326 0.0412649 255 0 0
0.22921 -0.18659 0.0410788 255 0 0
0.229884 -0.18471 0.0408933 255 0 0
0.229936 -0.18296 0.0407057 255 0 0
0.229989 -0.181204 0.0405175 255 0 0
0.230669 -0.179295 0.0403289 255 0 0
0.135203 -0.123436 0.0408172 255 0 0
0.134852 -0.120475 0.0403682 255 0 0
0.135211 -0.118597 0.0402938 255 0 0
0.135485 -0.117668 0.0419386 255 0 0
0.12981 -0.114419 0.0412169 255 0 0
0.131143 -0.115082 0.0407653 255 0 0
0.13276 -0.115547 0.0402977 255 0 0
0.135546 -0.115428 0.0409045 255 0 0
0.136713 -0.115938 0.0411271 255 0 0
0.127433 -0.112432 0.0407688 255 0 0
0.128854 -0.113528 0.0407691 255 0 0
0.125108 -0.110415 0.0409092 255 0 0
0.126486 -0.111548 0.0403249 255 0 0
0.139006 -0.111356 0.0409568 255 0 0
0.146761 -0.11034 0.0419566 255 0 0
0.123816 -0.108157 0.0411687 255 0 0
0.124475 -0.108768 0.0402935 255 0 0
0.138885 -0.10894 0.040715 255 0 0
0.147573 -0.108494 0.041443 255 0 0
0.123278 -0.106975 0.0407096 255 0 0
0.13881 -0.106385 0.0412055 255 0 0
0.146793 -0.107238 0.0415857 255 0 0
0.122739 -0.105792 0.0402511 255 0 0
0.137854 -0.105339 0.0403094 255 0 0
0.13836 -0.104856 0.041776 255 0 0
0.14642 -0.105053 0.041471 255 0 0
0.137771 -0.103716 0.0401469 255 0 0
0.138278 -0.103228 0.0416153 255 0 0
0.147641 -0.102237 0.0406935 255 0 0
0.138195 -0.101596 0.041454 255 0 0
0.147659 -0.100662 0.0405049 255 0 0
0.138279 -0.099021 0.0412119 255 0 0
0.147274 -0.0992443 0.040483 255 0 0
0.137945 -0.0966717 0.0409676 255 0 0
0.137861 -0.0950209 0.0408044 255 0 0
0.136948 -0.0928844 0.0412975 255 0 0
0.137275 -0.0919496 0.0404764 255 0 0
0.223529 -0.226284 0.043235 255 0 0
0.228578 -0.226635 0.0423151 255 0 0
0.222707 -0.222831 0.043729 255 0 0
0.216923 -0.220497 0.0427178 255 0 0
0.221964 -0.221028 0.0422273 255 0 0
0.215603 -0.219136 0.0434818 255 0 0
0.219241 -0.217735 0.0421552 255 0 0
0.210929 -0.214085 0.0425548 255 0 0
0.209978 -0.212744 0.0430477 255 0 0
0.209053 -0.210714 0.0433897 255 0 0
0.20945 -0.208599 0.0426805 255 0 0
0.220303 -0.206105 0.0428974 255 0 0
0.227592 -0.207313 0.0426915 255 0 0
0.219617 -0.204181 0.0428615 255 0 0
0.22074 -0.204927 0.0438899 255 0 0
0.222377 -0.204456 0.0423479 255 0 0
0.224931 -0.205016 0.0433091 255 0 0
0.231715 -0.204857 0.0431147 255 0 0
0.219821 -0.202008 0.0428053 255 0 0
0.2205 -0.202874 0.0438455 255 0 0
0.227058 -0.202455 0.0432437 255 0 0
0.230536 -0.203378 0.0429248 255 0 0
0.220258 -0.200815 0.043801 255 0 0
0.229849 -0.201219 0.0429162 255 0 0
0.230027 -0.200097 0.0425576 255 0 0
0.217557 -0.198397 0.0427534 255 0 0
0.219349 -0.199476 0.0432665 255 0 0
0.229464 -0.198509 0.0423719 255 0 0
0.215114 -0.196986 0.0427579 255 0 0
0.217101 -0.197455 0.0437648 255 0 0
0.227908 -0.196963 0.0438543 255 0 0
0.228901 -0.196922 0.0421861 255 0 0
0.227346 -0.195378 0.043669 255 0 0
0.228338 -0.195334 0.0420002 255 0 0
0.226808 -0.192938 0.0433933 255 0 0
0.227493 -0.190239 0.0431263 255 0 0
0.230064 -0.190802 0.0420068 255 0 0
0.228158 -0.188383 0.0429485 255 0 0
0.228827 -0.186516 0.0427695 255 0 0
0.228878 -0.184774 0.0425857 255 0 0
0.228929 -0.183027 0.0424013 255 0 0
0.229412 -0.181094 0.0430698 255 0 0
0.229464 -0.179333 0.0428853 255 0 0
0.12741 -0.123117 0.0432812 255 0 0
0.127718 -0.120806 0.0429782 255 0 0
0.134573 -0.121372 0.0424212 255 0 0
0.128977 -0.118568 0.0431683 255 0 0
0.134734 -0.11947 0.0426804 255 0 0
0.135757 -0.116746 0.0435711 255 0 0
0.137845 -0.116155 0.0429256 255 0 0
0.138847 -0.117069 0.0433868 255 0 0
0.130931 -0.114242 0.0429725 255 0 0
0.132938 -0.114946 0.0429617 255 0 0
0.134967 -0.115657 0.0429514 255 0 0
0.136318 -0.115442 0.043218 255 0 0
0.125314 -0.112277 0.043878 255 0 0
0.126982 -0.112852 0.0429913 255 0 0
0.128763 -0.113679 0.0429873 255 0 0
0.123971 -0.110116 0.0429679 255 0 0
0.124637 -0.111039 0.0429805 255 0 0
0.126032 -0.111812 0.0421002 255 0 0
0.137954 -0.111498 0.0438665 255 0 0
0.1391 -0.111104 0.0424175 255 0 0
0.147078 -0.110243 0.043374 255 0 0
0.123092 -0.1089 0.0431698 255 0 0
0.138859 -0.109474 0.0429879 255 0 0
0.148291 -0.108248 0.0427032 255 0 0
0.123159 -0.107548 0.042042 255 0 0
0.138835 -0.107239 0.0430223 255 0 0
0.14751 -0.106991 0.0428447 255 0 0
0.138454 -0.104595 0.0432455 255 0 0
0.146739 -0.104958 0.0428936 255 0 0
0.138788 -0.102738 0.0430906 255 0 0
0.147521 -0.102331 0.0430848 255 0 0
0.138706 -0.101101 0.0429311 255 0 0
0.147339 -0.100839 0.042981 255 0 0
0.138623 -0.0994594 0.0427711 255 0 0
0.146795 -0.0994736 0.0422461 255 0 0
0.1373 -0.0966052 0.043919 255 0 0
0.13829 -0.0971071 0.0425287 255 0 0
0.135472 -0.0942649 0.0435827 255 0 0
0.136961 -0.0952109 0.0430167 255 0 0
0.134972 -0.0928576 0.0434195 255 0 0
0.137037 -0.0935749 0.0421188 255 0 0
0.224394 -0.228619 0.0453778 255 0 0
0.224298 -0.226825 0.0448915 255 0 0
0.223825 -0.224829 0.0448184 255 0 0
0.215615 -0.220347 0.0454959 255 0 0
0.217619 -0.221694 0.044214 255 0 0
0.221763 -0.220281 0.0458922 255 0 0
0.221147 -0.219023 0.0450351 255 0 0
0.213279 -0.21782 0.0450265 255 0 0
0.211627 -0.21528 0.0440364 255 0 0
0.209399 -0.212621 0.0452704 255 0 0
0.210344 -0.213954 0.0447855 255 0 0
0.208786 -0.211274 0.0454948 255 0 0
0.20836 -0.209226 0.0454431 255 0 0
0.223458 -0.206312 0.0459554 255 0 0
0.227943 -0.207169 0.0443021 255 0 0
0.228293 -0.207024 0.0459117 255 0 0
0.231896 -0.206364 0.0449728 255 0 0
0.223222 -0.204784 0.0454078 255 0 0
0.225929 -0.204048 0.0446255 255 0 0
0.226357 -0.205629 0.0446479 255 0 0
0.230717 -0.204884 0.0447804 255 0 0
0.22118 -0.203742 0.0448879 255 0 0
0.222074 -0.202428 0.0458854 255 0 0
0.22875 -0.202185 0.0452952 255 0 0
0.230155 -0.2033 0.0445953 255 0 0
0.220935 -0.201146 0.0453501 255 0 0
0.229093 -0.200635 0.0448432 255 0 0
0.230668 -0.200469 0.044532 255 0 0
0.21912 -0.198993 0.0451491 255 0 0
0.22828 -0.19851 0.0448746 255 0 0
0.217761 -0.197243 0.0458108 255 0 0
0.227528 -0.196888 0.0455246 255 0 0
0.226967 -0.195303 0.0453395 255 0 0
0.226428 -0.192863 0.0450654 255 0 0
0.2265 -0.190293 0.0447981 255 0 0
0.22716 -0.18844 0.0446259 255 0 0
0.227825 -0.186577 0.0444526 255 0 0
0.227492 -0.184765 0.0459608 255 0 0
0.228494 -0.184701 0.0442783 255 0 0
0.228353 -0.182918 0.0449438 255 0 0
0.228212 -0.181129 0.0456117 255 0 0
0.228886 -0.179225 0.0454399 255 0 0
0.123077 -0.134626 0.0454769 255 0 0
0.124923 -0.13449 0.0452114 255 0 0
0.122714 -0.132901 0.0454283 255 0 0
0.124558 -0.132754 0.0451627 255 0 0
0.127158 -0.125355 0.0449284 255 0 0
0.134057 -0.125074 0.0458888 255 0 0
0.127298 -0.123419 0.0451689 255 0 0
0.134102 -0.122224 0.0447835 255 0 0
0.127751 -0.121955 0.0452079 255 0 0
0.128206 -0.120485 0.0452487 255 0 0
0.134457 -0.120367 0.0447097 255 0 0
0.138073 -0.12023 0.0457273 255 0 0
0.135007 -0.118543 0.0443064 255 0 0
0.137512 -0.119012 0.0452545 255 0 0
0.129315 -0.11741 0.0451103 255 0 0
0.135671 -0.117686 0.0452653 255 0 0
0.137183 -0.117074 0.0452165 255 0 0
0.129987 -0.114136 0.0447589 255 0 0
0.131028 -0.114416 0.0456484 255 0 0
0.132932 -0.114675 0.0451961 255 0 0
0.135325 -0.115645 0.0453601 255 0 0
0.136621 -0.115856 0.0447436 255 0 0
0.125396 -0.112136 0.0456316 255 0 0
0.126431 -0.112989 0.0452031 255 0 0
0.128389 -0.11368 0.0452047 255 0 0
0.136898 -0.113486 0.0454605 255 0 0
0.138036 -0.1131 0.0440226 255 0 0
0.123892 -0.110615 0.0451708 255 0 0
0.12492 -0.111462 0.0447423 255 0 0
0.137635 -0.111461 0.0453204 255 0 0
0.147395 -0.110146 0.0447906 255 0 0
0.122895 -0.109232 0.0451494 255 0 0
0.137965 -0.109638 0.0451726 255 0 0
0.14781 -0.10845 0.0444493 255 0 0
0.138255 -0.106995 0.044946 255 0 0
0.147032 -0.107196 0.0445881 255 0 0
0.138548 -0.104334 0.044718 255 0 0
0.14666 -0.105016 0.044476 255 0 0
0.138883 -0.102474 0.044567 255 0 0
0.147003 -0.102582 0.0456251 255 0 0
0.139058 -0.100585 0.045154 255 0 0
0.145448 -0.100089 0.0459 255 0 0
0.1378 -0.0980155 0.0440825 255 0 0
0.138766 -0.0990572 0.0449932 255 0 0
0.145921 -0.0998624 0.0441601 255 0 0
0.13702 -0.0973955 0.0454715 255 0 0
0.135194 -0.0950558 0.0451317 255 0 0
0.133831 -0.093308 0.0448779 255 0 0
0.228074 -0.231791 0.0479171 255 0 0
0.226446 -0.229041 0.0465932 255 0 0
0.225588 -0.226839 0.0469225 255 0 0
0.224736 -0.224647 0.0472523 255 0 0
0.219062 -0.222686 0.0468969 255 0 0
0.223742 -0.223188 0.0467978 255 0 0
0.215679 -0.220166 0.0472012 255 0 0
0.217334 -0.221514 0.0461951 255 0 0
0.222751 -0.221732 0.0463444 255 0 0
0.213973 -0.219007 0.0465028 255 0 0
0.211655 -0.216497 0.0460318 255 0 0
0.210377 -0.215172 0.0467706 255 0 0
0.209152 -0.212481 0.0472148 255 0 0
0.210093 -0.213809 0.0467366 255 0 0
0.208869 -0.211121 0.0471809 255 0 0
0.207955 -0.209112 0.0475124 255 0 0
0.229073 -0.208464 0.0475425 255 0 0
0.207693 -0.207062 0.0473342 255 0 0
0.224145 -0.207187 0.0470045 255 0 0
0.231515 -0.206285 0.0466444 255 0 0
0.206944 -0.20505 0.0475378 255 0 0
0.22345 -0.204709 0.0474778 255 0 0
0.226131 -0.205508 0.0464336 255 0 0
0.230336 -0.204806 0.0464496 255 0 0
0.221847 -0.202474 0.0479594 255 0 0
0.22276 -0.2033 0.0469352 255 0 0
0.226742 -0.20382 0.0469418 255 0 0
0.228821 -0.202884 0.0470899 255 0 0
0.220934 -0.20113 0.0474192 255 0 0
0.227661 -0.200092 0.0475523 255 0 0
0.228889 -0.201269 0.0467776 255 0 0
0.218777 -0.198537 0.0473779 255 0 0
0.220022 -0.199788 0.0468799 255 0 0
0.2271 -0.198511 0.0473678 255 0 0
0.217642 -0.196729 0.0473476 255 0 0
0.226539 -0.196929 0.0471832 255 0 0
0.225978 -0.195348 0.0469986 255 0 0
0.22544 -0.192912 0.0467266 255 0 0
0.225509 -0.190346 0.0464637 255 0 0
0.225786 -0.188424 0.0479743 255 0 0
0.226167 -0.188498 0.0462972 255 0 0
0.226637 -0.186601 0.0469708 255 0 0
0.22711 -0.184692 0.0476487 255 0 0
0.227778 -0.182809 0.0474844 255 0 0
0.22845 -0.180913 0.0473189 255 0 0
0.127048 -0.136337 0.0468491 255 0 0
0.125373 -0.134448 0.046423 255 0 0
0.127122 -0.135109 0.0473167 255 0 0
0.125008 -0.132715 0.0463745 255 0 0
0.126943 -0.133273 0.0470558 255 0 0
0.124644 -0.130981 0.046326 255 0 0
0.126735 -0.130802 0.0466721 255 0 0
0.128093 -0.131027 0.0478734 255 0 0
0.127567 -0.128614 0.0469872 255 0 0
0.128036 -0.129761 0.0476285 255 0 0
0.127801 -0.126638 0.047121 255 0 0
0.127621 -0.124779 0.0468584 255 0 0
0.127752 -0.123391 0.0463963 255 0 0
0.133829 -0.123103 0.046793 255 0 0
0.137922 -0.122417 0.0475741 255 0 0
0.127902 -0.120911 0.0473416 255 0 0
0.133602 -0.121148 0.0476909 255 0 0
0.136931 -0.121499 0.0471077 255 0 0
0.127656 -0.119738 0.0473093 255 0 0
0.134963 -0.118998 0.0469582 255 0 0
0.137232 -0.118601 0.0469055 255 0 0
0.129578 -0.117507 0.0465659 255 0 0
0.135432 -0.116696 0.0473478 255 0 0
0.129801 -0.114197 0.0465391 255 0 0
0.13118 -0.114789 0.0469924 255 0 0
0.133131 -0.114979 0.0474437 255 0 0
0.134382 -0.115202 0.0465474 255 0 0
0.136095 -0.114895 0.0471247 255 0 0
0.126862 -0.113133 0.0468199 255 0 0
0.128854 -0.113778 0.0474207 255 0 0
0.13658 -0.113449 0.0469077 255 0 0
0.123604 -0.110238 0.04648 255 0 0
0.124853 -0.111408 0.047085 255 0 0
0.137316 -0.111425 0.0467736 255 0 0
0.145346 -0.110921 0.0471451 255 0 0
0.137645 -0.109602 0.0466298 255 0 0
0.146146 -0.109093 0.0466565 255 0 0
0.137935 -0.106959 0.0464083 255 0 0
0.138069 -0.107512 0.0479558 255 0 0
0.145768 -0.107699 0.0466354 255 0 0
0.146178 -0.106003 0.0463004 255 0 0
0.137987 -0.10589 0.0478041 255 0 0
0.138642 -0.104073 0.0461935 255 0 0
0.146193 -0.104451 0.0461217 255 0 0
0.138737 -0.10381 0.047672 255 0 0
0.144949 -0.103421 0.0479821 255 0 0
0.139154 -0.101408 0.0469862 255 0 0
0.138491 -0.0988887 0.0472119 255 0 0
0.136698 -0.0973621 0.0469439 255 0 0
0.134752 -0.0947383 0.0470645 255 0 0
0.133103 -0.0935165 0.0463359 255 0 0
0.229748 -0.232006 0.049543 255 0 0
0.22874 -0.230526 0.0490825 255 0 0
0.227734 -0.22905 0.0486232 255 0 0
0.226732 -0.227578 0.048165 255 0 0
0.218426 -0.222508 0.0491208 255 0 0
0.21473 -0.220011 0.0496619 255 0 0
0.216369 -0.22135 0.0486747 255 0 0
0.213706 -0.218841 0.0484529 255 0 0
0.212088 -0.21752 0.0494361 255 0 0
0.210455 -0.215008 0.0484524 255 0 0
0.209539 -0.212995 0.0487819 255 0 0
0.208625 -0.210988 0.0491102 255 0 0
0.207736 -0.2083 0.0492947 255 0 0
0.208018 -0.209654 0.0493284 255 0 0
0.224834 -0.208064 0.0480557 255 0 0
0.228261 -0.208356 0.0495035 255 0 0
0.207131 -0.20697 0.0495123 255 0 0
0.224258 -0.206617 0.0485492 255 0 0
0.226907 -0.206942 0.0480572 255 0 0
0.229523 -0.206334 0.0499544 255 0 0
0.230517 -0.20631 0.0483024 255 0 0
0.20685 -0.205617 0.0494786 255 0 0
0.223681 -0.205169 0.0490432 255 0 0
0.225332 -0.20541 0.0483904 255 0 0
0.228847 -0.204846 0.0489307 255 0 0
0.222533 -0.203345 0.0490112 255 0 0
0.225827 -0.20367 0.0497892 255 0 0
0.228403 -0.203175 0.0495861 255 0 0
0.220933 -0.201114 0.0494896 255 0 0
0.22761 -0.201198 0.0492272 255 0 0
0.229609 -0.200274 0.0483259 255 0 0
0.218967 -0.199 0.0492784 255 0 0
0.226721 -0.198435 0.0490333 255 0 0
0.229764 -0.198646 0.0481237 255 0 0
0.217967 -0.196083 0.0488838 255 0 0
0.2182 -0.197077 0.0499343 255 0 0
0.226161 -0.196854 0.0488489 255 0 0
0.2256 -0.195273 0.0486646 255 0 0
0.225039 -0.193691 0.0484802 255 0 0
0.22507 -0.191059 0.0490602 255 0 0
0.226018 -0.188219 0.0496649 255 0 0
0.22668 -0.186356 0.0495078 255 0 0
0.226728 -0.184619 0.0493356 255 0 0
0.226776 -0.182876 0.0491627 255 0 0
0.227444 -0.180984 0.049003 255 0 0
0.127608 -0.138789 0.0485455 255 0 0
0.128054 -0.138742 0.04975 255 0 0
0.127617 -0.136871 0.0480761 255 0 0
0.128251 -0.136732 0.049074 255 0 0
0.12864 -0.135163 0.0494221 255 0 0
0.127896 -0.133066 0.0485566 255 0 0
0.128624 -0.132879 0.0494514 255 0 0
0.129142 -0.130769 0.0492719 255 0 0
0.129155 -0.128818 0.048801 255 0 0
0.128505 -0.126755 0.0486806 255 0 0
0.127884 -0.124857 0.0482919 255 0 0
0.12855 -0.125357 0.0494186 255 0 0
0.133384 -0.124893 0.0488196 255 0 0
0.127704 -0.122998 0.0480309 255 0 0
0.128155 -0.122971 0.0492489 255 0 0
0.136083 -0.122563 0.0484727 255 0 0
0.138311 -0.122083 0.0493764 255 0 0
0.128354 -0.120887 0.0485644 255 0 0
0.133509 -0.121107 0.0496327 255 0 0
0.137403 -0.120548 0.0493482 255 0 0
0.128591 -0.118891 0.0487015 255 0 0
0.137132 -0.119132 0.0488736 255 0 0
0.135298 -0.117275 0.0489219 255 0 0
0.137148 -0.117513 0.0483953 255 0 0
0.128867 -0.11425 0.0487592 255 0 0
0.130993 -0.11485 0.0487781 255 0 0
0.132661 -0.115243 0.049241 255 0 0
0.134193 -0.115262 0.0483496 255 0 0
0.136205 -0.115863 0.0484698 255 0 0
0.125626 -0.112363 0.0487154 255 0 0
0.127038 -0.113455 0.0487382 255 0 0
0.135538 -0.113587 0.0497867 255 0 0
0.13667 -0.113201 0.0483647 255 0 0
0.125085 -0.111178 0.0482544 255 0 0
0.135861 -0.11178 0.049652 255 0 0
0.136997 -0.111388 0.0482258 255 0 0
0.137166 -0.109547 0.0488127 255 0 0
0.144316 -0.109035 0.0488233 255 0 0
0.137088 -0.106998 0.0493241 255 0 0
0.144531 -0.10666 0.0484862 255 0 0
0.137999 -0.104002 0.0491296 255 0 0
0.144702 -0.105073 0.0490143 255 0 0
0.144919 -0.102677 0.048677 255 0 0
0.13892 -0.100971 0.0489328 255 0 0
0.143024 -0.101103 0.0484028 255 0 0
0.144887 -0.101933 0.0493705 255 0 0
0.138587 -0.0986193 0.0486994 255 0 0
0.136791 -0.0970922 0.0484264 255 0 0
0.135178 -0.0947652 0.0490957 255 0 0
0.136842 -0.0959963 0.0498369 255 0 0
0.23041 -0.230741 0.0507051 255 0 0
0.229402 -0.229265 0.0502438 255 0 0
0.227632 -0.227386 0.0505866 255 0 0
0.226635 -0.225924 0.050128 255 0 0
0.217797 -0.222332 0.0513214 255 0 0
0.220202 -0.223488 0.0515218 255 0 0
0.216091 -0.221174 0.0506172 255 0 0
0.213107 -0.218686 0.0506392 255 0 0
0.21446 -0.219841 0.0515911 255 0 0
0.211178 -0.216532 0.0511127 255 0 0
0.210407 -0.21477 0.0510823 255 0 0
0.209618 -0.212837 0.0504507 255 0 0
0.210328 -0.213329 0.0517552 255 0 0
0.209376 -0.211406 0.0512478 255 0 0
0.207498 -0.208179 0.0512061 255 0 0
0.208102 -0.209506 0.050991 255 0 0
0.224607 -0.208109 0.050132 255 0 0
0.226305 -0.208286 0.051796 255 0 0
0.229037 -0.20979 0.0511269 255 0 0
0.231259 -0.209393 0.0503381 255 0 0
0.206895 -0.206855 0.0514207 255 0 0
0.223914 -0.206165 0.0500986 255 0 0
0.224147 -0.207159 0.0511533 255 0 0
0.226106 -0.20684 0.0500079 255 0 0
0.229144 -0.206256 0.0516178 255 0 0
0.230817 -0.207722 0.0509955 255 0 0
0.20579 -0.204954 0.0510385 255 0 0
0.222883 -0.204838 0.0505925 255 0 0
0.224538 -0.205314 0.0503343 255 0 0
0.228584 -0.204677 0.0514339 255 0 0
0.204369 -0.203089 0.0509069 255 0 0
0.221621 -0.20252 0.0500327 255 0 0
0.222306 -0.203391 0.0510864 255 0 0
0.22503 -0.203579 0.0517311 255 0 0
0.228024 -0.203098 0.0512499 255 0 0
0.219124 -0.200008 0.0510171 255 0 0
0.220711 -0.201696 0.0510517 255 0 0
0.226683 -0.201192 0.0509777 255 0 0
0.228209 -0.200224 0.0504721 255 0 0
0.217102 -0.198455 0.050982 255 0 0
0.225735 -0.198473 0.0506818 255 0 0
0.228361 -0.198604 0.0502744 255 0 0
0.215765 -0.197771 0.0519905 255 0 0
0.217298 -0.196262 0.0509506 255 0 0
0.225176 -0.196895 0.0504979 255 0 0
0.224427 -0.19528 0.0511448 255 0 0
0.224472 -0.193579 0.0509774 255 0 0
0.223722 -0.191961 0.0516255 255 0 0
0.224372 -0.190125 0.0514759 255 0 0
0.225026 -0.188277 0.0513254 255 0 0
0.225684 -0.186417 0.0511739 255 0 0
0.225731 -0.184684 0.0510047 255 0 0
0.225164 -0.183084 0.0508185 255 0 0
0.226442 -0.181056 0.0506808 255 0 0
0.129 -0.138533 0.0512408 255 0 0
0.129321 -0.137101 0.0505856 255 0 0
0.129695 -0.134932 0.0510856 255 0 0
0.130216 -0.135643 0.0518412 255 0 0
0.129481 -0.132721 0.0510545 255 0 0
0.129812 -0.130714 0.0510898 255 0 0
0.129731 -0.128818 0.0507282 255 0 0
0.12927 -0.127126 0.0507851 255 0 0
0.12881 -0.125434 0.0508418 255 0 0
0.133674 -0.124916 0.0501188 255 0 0
0.128228 -0.123163 0.0508826 255 0 0
0.139068 -0.123133 0.0507548 255 0 0
0.127993 -0.120032 0.0503837 255 0 0
0.128238 -0.121197 0.0504157 255 0 0
0.133226 -0.121034 0.0518714 255 0 0
0.138886 -0.1211 0.0507262 255 0 0
0.128764 -0.118504 0.0509364 255 0 0
0.135046 -0.118742 0.0507381 255 0 0
0.137375 -0.118892 0.0506817 255 0 0
0.13925 -0.119206 0.0511608 255 0 0
0.129279 -0.116873 0.0500614 255 0 0
0.134668 -0.116982 0.0510801 255 0 0
0.127937 -0.114303 0.0509697 255 0 0
0.129013 -0.115284 0.0513267 255 0 0
0.130856 -0.115035 0.051012 255 0 0
0.13296 -0.115675 0.0510445 255 0 0
0.125814 -0.112661 0.0509253 255 0 0
0.126991 -0.113572 0.05095 255 0 0
0.135221 -0.11355 0.0512293 255 0 0
0.124998 -0.111485 0.0509008 255 0 0
0.135543 -0.111744 0.0510986 255 0 0
0.143653 -0.110067 0.0506837 255 0 0
0.136276 -0.109711 0.0509815 255 0 0
0.144442 -0.108249 0.0502126 255 0 0
0.137015 -0.107661 0.0508634 255 0 0
0.144066 -0.106864 0.0501919 255 0 0
0.137345 -0.105819 0.0507303 255 0 0
0.143616 -0.105537 0.051719 255 0 0
0.138093 -0.10374 0.0506103 255 0 0
0.143253 -0.102617 0.0515291 255 0 0
0.144017 -0.103849 0.0514004 255 0 0
0.139105 -0.101394 0.0512422 255 0 0
0.139331 -0.0990458 0.0508068 255 0 0
0.137761 -0.0971713 0.0500133 255 0 0
0.139201 -0.0978411 0.0516994 255 0 0
0.139078 -0.0953512 0.0514767 255 0 0
0.13811 -0.0933391 0.0512229 255 0 0
0.2313 -0.230538 0.053124 255 0 0
0.230294 -0.229068 0.0526611 255 0 0
0.221231 -0.224665 0.0527377 255 0 0
0.217513 -0.222152 0.0532499 255 0 0
0.219218 -0.223311 0.0539581 255 0 0
0.215815 -0.220999 0.0525443 255 0 0
0.212844 -0.218522 0.0525551 255 0 0
0.214525 -0.219664 0.0532574 255 0 0
0.211574 -0.217204 0.0532635 255 0 0
0.210825 -0.215194 0.0534597 255 0 0
0.210404 -0.213171 0.0534099 255 0 0
0.209153 -0.21059 0.0530092 255 0 0
0.210124 -0.211823 0.0533767 255 0 0
0.232297 -0.210621 0.0538937 255 0 0
0.207905 -0.208012 0.0526113 255 0 0
0.208711 -0.209253 0.0530995 255 0 0
0.22466 -0.208176 0.0530499 255 0 0
0.227076 -0.209711 0.0534084 255 0 0
0.231615 -0.209126 0.0528654 255 0 0
0.206661 -0.20674 0.053314 255 0 0
0.223349 -0.206825 0.0526987 255 0 0
0.224171 -0.206779 0.0522871 255 0 0
0.229378 -0.206074 0.0533001 255 0 0
0.230555 -0.207553 0.0535044 255 0 0
0.205401 -0.204862 0.0530543 255 0 0
0.222644 -0.20501 0.0526459 255 0 0
0.228817 -0.204493 0.0531162 255 0 0
0.203831 -0.203019 0.0530401 255 0 0
0.221511 -0.203062 0.0526311 255 0 0
0.223105 -0.203539 0.0539959 255 0 0
0.227645 -0.20302 0.0529127 255 0 0
0.203239 -0.201713 0.0532503 255 0 0
0.218906 -0.20059 0.0525716 255 0 0
0.220485 -0.201742 0.0531213 255 0 0
0.226476 -0.201552 0.0527098 255 0 0
0.215558 -0.198884 0.0530291 255 0 0
0.217334 -0.199444 0.052027 255 0 0
0.225637 -0.199186 0.0524345 255 0 0
0.213112 -0.196412 0.0539922 255 0 0
0.214435 -0.19709 0.0529939 255 0 0
0.224912 -0.196724 0.0529996 255 0 0
0.223861 -0.195167 0.0536359 255 0 0
0.223324 -0.19274 0.0533708 255 0 0
0.223388 -0.190179 0.0531248 255 0 0
0.224647 -0.188203 0.0529994 255 0 0
0.225304 -0.186344 0.0528532 255 0 0
0.224737 -0.184748 0.0526676 255 0 0
0.224783 -0.183012 0.0525009 255 0 0
0.225443 -0.181127 0.0523524 255 0 0
0.129757 -0.138417 0.0529356 255 0 0
0.13049 -0.136871 0.0526805 255 0 0
0.130835 -0.13472 0.0532174 255 0 0
0.13043 -0.132793 0.0531644 255 0 0
0.130571 -0.131072 0.0531795 255 0 0
0.12996 -0.128255 0.0520265 255 0 0
0.130229 -0.129109 0.0530584 255 0 0
0.12928 -0.126975 0.0529374 255 0 0
0.139962 -0.126173 0.0539717 255 0 0
0.128355 -0.124618 0.0527435 255 0 0
0.139639 -0.124634 0.0530453 255 0 0
0.127804 -0.122991 0.052902 255 0 0
0.132652 -0.123267 0.05307 255 0 0
0.139422 -0.123347 0.0530283 255 0 0
0.127814 -0.121035 0.052442 255 0 0
0.133325 -0.121029 0.0534616 255 0 0
0.140775 -0.120993 0.0530297 255 0 0
0.128083 -0.119163 0.053392 255 0 0
0.135666 -0.118369 0.0529149 255 0 0
0.136719 -0.119025 0.053583 255 0 0
0.139307 -0.119377 0.0527591 255 0 0
0.128504 -0.117071 0.0533284 255 0 0
0.132498 -0.116255 0.0537366 255 0 0
0.134494 -0.117018 0.0531816 255 0 0
0.137584 -0.116774 0.0535173 255 0 0
0.127148 -0.114255 0.0531701 255 0 0
0.129117 -0.114953 0.0532133 255 0 0
0.131108 -0.115657 0.0532561 255 0 0
0.126541 -0.112555 0.0531434 255 0 0
0.13531 -0.113302 0.0526875 255 0 0
0.125461 -0.111773 0.0526748 255 0 0
0.135633 -0.111493 0.0525607 255 0 0
0.142426 -0.110547 0.0526647 255 0 0
0.137031 -0.109002 0.0532113 255 0 0
0.142821 -0.108886 0.0523511 255 0 0
0.137361 -0.107164 0.0530847 255 0 0
0.142832 -0.107363 0.0521835 255 0 0
0.137486 -0.105429 0.0529484 255 0 0
0.141631 -0.104818 0.0538242 255 0 0
0.138444 -0.103231 0.0528454 255 0 0
0.142408 -0.102986 0.0533675 255 0 0
0.13904 -0.10111 0.053472 255 0 0
0.13938 -0.0992254 0.0533443 255 0 0
0.138877 -0.0978069 0.0531808 255 0 0
0.138964 -0.0951963 0.0529699 255 0 0
0.137786 -0.0933061 0.0527068 255 0 0
0.219897 -0.224483 0.0554128 255 0 0
0.221216 -0.225845 0.0547021 255 0 0
0.219271 -0.223123 0.0556264 255 0 0
0.215907 -0.220728 0.0550375 255 0 0
0.217231 -0.221974 0.055163 255 0 0
0.213113 -0.218258 0.0549126 255 0 0
0.21459 -0.219487 0.0549146 255 0 0
0.212503 -0.216921 0.0551237 255 0 0
0.21139 -0.215009 0.0547398 255 0 0
0.212423 -0.215483 0.0557916 255 0 0
0.210807 -0.212997 0.0548123 255 0 0
0.209596 -0.210345 0.0552327 255 0 0
0.210201 -0.211669 0.0550227 255 0 0
0.232537 -0.210444 0.0555856 255 0 0
0.208993 -0.209023 0.0554421 255 0 0
0.223359 -0.208926 0.0547966 255 0 0
0.224928 -0.208855 0.0556507 255 0 0
0.231974 -0.208858 0.0554011 255 0 0
0.207527 -0.207223 0.0544826 255 0 0
0.20807 -0.207728 0.0558922 255 0 0
0.223022 -0.206813 0.054638 255 0 0
0.230792 -0.207373 0.0551935 255 0 0
0.204877 -0.204103 0.0550344 255 0 0
0.20615 -0.20529 0.0551598 255 0 0
0.221571 -0.204872 0.0544454 255 0 0
0.222546 -0.205425 0.0552656 255 0 0
0.229026 -0.205154 0.0548834 255 0 0
0.20361 -0.202921 0.0549116 255 0 0
0.219364 -0.202036 0.0551774 255 0 0
0.220835 -0.203231 0.0546965 255 0 0
0.227878 -0.202835 0.0545965 255 0 0
0.201713 -0.200508 0.0541845 255 0 0
0.202087 -0.201713 0.0558355 255 0 0
0.2169 -0.200603 0.0551212 255 0 0
0.218685 -0.20117 0.0541251 255 0 0
0.221902 -0.201895 0.0558847 255 0 0
0.222042 -0.200309 0.0556993 255 0 0
0.226707 -0.201365 0.054391 255 0 0
0.214128 -0.198756 0.0545438 255 0 0
0.216228 -0.199743 0.0540741 255 0 0
0.22106 -0.198784 0.0558425 255 0 0
0.225374 -0.199015 0.0549349 255 0 0
0.21291 -0.197522 0.0550224 255 0 0
0.22176 -0.197159 0.0554922 255 0 0
0.224649 -0.196552 0.0555018 255 0 0
0.221337 -0.195598 0.055471 255 0 0
0.224088 -0.194973 0.0553183 255 0 0
0.223528 -0.193393 0.0551348 255 0 0
0.218952 -0.191002 0.0557368 255 0 0
0.222365 -0.191938 0.0549287 255 0 0
0.223616 -0.189977 0.0548123 255 0 0
0.224268 -0.18813 0.0546724 255 0 0
0.224923 -0.186271 0.0545316 255 0 0
0.224357 -0.184675 0.0543462 255 0 0
0.223297 -0.183113 0.0549877 255 0 0
0.224257 -0.181162 0.0548595 255 0 0
0.130511 -0.138302 0.0546254 255 0 0
0.131342 -0.13671 0.0542748 255 0 0
0.132163 -0.136478 0.0550644 255 0 0
0.13158 -0.134767 0.0544182 255 0 0
0.132428 -0.135159 0.0553264 255 0 0
0.131437 -0.133015 0.0549703 255 0 0
0.132285 -0.133406 0.0558784 255 0 0
0.131244 -0.131045 0.0552494 255 0 0
0.130495 -0.129023 0.0549624 255 0 0
0.139803 -0.128345 0.0557945 255 0 0
0.129227 -0.126861 0.0551389 255 0 0
0.139883 -0.127261 0.0548844 255 0 0
0.140064 -0.126039 0.0557862 255 0 0
0.128507 -0.124868 0.0551014 255 0 0
0.132356 -0.124566 0.0558014 255 0 0
0.13985 -0.125142 0.0548675 255 0 0
0.128063 -0.123073 0.0543058 255 0 0
0.132888 -0.122798 0.0554217 255 0 0
0.141807 -0.122727 0.0558088 255 0 0
0.127746 -0.121179 0.0547186 255 0 0
0.133421 -0.121027 0.0550412 255 0 0
0.134068 -0.12019 0.0559604 255 0 0
0.137411 -0.120329 0.0547758 255 0 0
0.138789 -0.12043 0.0557178 255 0 0
0.141345 -0.120887 0.0551739 255 0 0
0.127968 -0.119478 0.0552042 255 0 0
0.134565 -0.118883 0.0546561 255 0 0
0.136611 -0.119243 0.0552027 255 0 0
0.128661 -0.117757 0.0541525 255 0 0
0.131259 -0.116031 0.0546045 255 0 0
0.132933 -0.116428 0.0550938 255 0 0
0.13499 -0.117364 0.0553806 255 0 0
0.136099 -0.117956 0.0556339 255 0 0
0.127566 -0.114424 0.0545091 255 0 0
0.12899 -0.115092 0.054832 255 0 0
0.130028 -0.115807 0.0554668 255 0 0
0.136054 -0.11587 0.055416 255 0 0
0.125487 -0.112712 0.0553321 255 0 0
0.126525 -0.113567 0.0549219 255 0 0
0.137076 -0.113002 0.0542935 255 0 0
0.139281 -0.112485 0.0559387 255 0 0
0.136542 -0.110811 0.0540624 255 0 0
0.138368 -0.111303 0.0557567 255 0 0
0.137832 -0.109097 0.0555255 255 0 0
0.140846 -0.108903 0.0545227 255 0 0
0.137294 -0.106888 0.0552939 255 0 0
0.141239 -0.106488 0.0541334 255 0 0
0.137211 -0.105264 0.0551526 255 0 0
0.139671 -0.104109 0.0559017 255 0 0
0.137961 -0.103178 0.0550507 255 0 0
0.138717 -0.101075 0.054948 255 0 0
0.138635 -0.0994262 0.0548048 255 0 0
0.138553 -0.0977727 0.0546612 255 0 0
0.138447 -0.0949144 0.054922 255 0 0
0.1373 -0.0932567 0.0549309 255 0 0
0.220169 -0.227013 0.0573843 255 0 0
0.219204 -0.225657 0.0578374 255 0 0
0.215998 -0.220459 0.0575127 255 0 0
0.217288 -0.221791 0.056818 255 0 0
0.214852 -0.21922 0.0572624 255 0 0
0.21357 -0.217311 0.0569974 255 0 0
0.211814 -0.214152 0.0560013 255 0 0
0.212821 -0.215306 0.0571893 255 0 0
0.211407 -0.212737 0.0569074 255 0 0
0.212213 -0.213976 0.0573971 255 0 0
0.209998 -0.210176 0.0566271 255 0 0
0.210965 -0.211403 0.0569943 255 0 0
0.223596 -0.210962 0.0568903 255 0 0
0.232155 -0.210364 0.0572554 255 0 0
0.209072 -0.208878 0.0570743 255 0 0
0.223163 -0.209165 0.0572052 255 0 0
0.231593 -0.208778 0.0570711 255 0 0
0.207193 -0.206371 0.0571512 255 0 0
0.208151 -0.207587 0.0575194 255 0 0
0.22246 -0.206849 0.0566501 255 0 0
0.230411 -0.207294 0.0568613 255 0 0
0.206237 -0.205157 0.0567857 255 0 0
0.219954 -0.205119 0.0567405 255 0 0
0.221526 -0.205155 0.0567993 255 0 0
0.229261 -0.204971 0.0565727 255 0 0
0.203703 -0.202794 0.0565311 255 0 0
0.204717 -0.203259 0.0575678 255 0 0
0.217805 -0.202452 0.0572127 255 0 0
0.220508 -0.203433 0.0565813 255 0 0
0.22731 -0.202719 0.0570909 255 0 0
0.201089 -0.200409 0.0571983 255 0 0
0.202183 -0.20159 0.057445 255 0 0
0.20408 -0.201119 0.0572476 255 0 0
0.214806 -0.200656 0.0566199 255 0 0
0.217573 -0.201465 0.0561704 255 0 0
0.225951 -0.201211 0.0577119 255 0 0
0.226329 -0.201288 0.056052 255 0 0
0.200918 -0.199131 0.0562451 255 0 0
0.213256 -0.198992 0.0565741 255 0 0
0.225391 -0.199633 0.0575288 255 0 0
0.198842 -0.19667 0.0573577 255 0 0
0.211711 -0.197335 0.0565272 255 0 0
0.219311 -0.197195 0.0578803 255 0 0
0.225158 -0.197149 0.0572801 255 0 0
0.223711 -0.194898 0.0569792 255 0 0
0.223151 -0.193319 0.0567959 255 0 0
0.221989 -0.191864 0.0565876 255 0 0
0.222633 -0.190032 0.056454 255 0 0
0.223888 -0.188057 0.0563443 255 0 0
0.222946 -0.186394 0.057831 255 0 0
0.224543 -0.186198 0.0562089 255 0 0
0.223977 -0.184602 0.0560238 255 0 0
0.224208 -0.184392 0.0577273 255 0 0
0.223641 -0.182795 0.057542 255 0 0
0.224913 -0.180767 0.0574365 255 0 0
0.131453 -0.138095 0.0561091 255 0 0
0.13251 -0.136958 0.0570045 255 0 0
0.133375 -0.134952 0.0568179 255 0 0
0.134199 -0.134717 0.0576101 255 0 0
0.133327 -0.133151 0.057268 255 0 0
0.131734 -0.131227 0.0567169 255 0 0
0.132266 -0.131685 0.057128 255 0 0
0.139065 -0.130877 0.0575904 255 0 0
0.131156 -0.128973 0.0567553 255 0 0
0.139378 -0.129104 0.0571414 255 0 0
0.129605 -0.12715 0.0570024 255 0 0
0.139692 -0.127319 0.05669 255 0 0
0.128658 -0.125117 0.0574404 255 0 0
0.132098 -0.125409 0.0577029 255 0 0
0.141239 -0.124674 0.0571751 255 0 0
0.127812 -0.122668 0.0566145 255 0 0
0.128019 -0.123558 0.0576928 255 0 0
0.132628 -0.12365 0.057327 255 0 0
0.135252 -0.123443 0.0579536 255 0 0
0.138927 -0.122429 0.0575518 255 0 0
0.140429 -0.123578 0.0576027 255 0 0
0.127724 -0.121159 0.0574316 255 0 0
0.133158 -0.121888 0.0569504 255 0 0
0.135318 -0.121241 0.0562452 255 0 0
0.139297 -0.121131 0.0566463 255 0 0
0.141398 -0.121881 0.0567091 255 0 0
0.127798 -0.11853 0.0567692 255 0 0
0.128039 -0.11968 0.0568004 255 0 0
0.134265 -0.118963 0.0574016 255 0 0
0.137578 -0.118498 0.0570397 255 0 0
0.138785 -0.119838 0.057082 255 0 0
0.127743 -0.117266 0.0565371 255 0 0
0.131457 -0.116334 0.0568498 255 0 0
0.133665 -0.116806 0.0569733 255 0 0
0.135011 -0.116914 0.0569125 255 0 0
0.136197 -0.117814 0.0574491 255 0 0
0.127653 -0.114283 0.0562843 255 0 0
0.128744 -0.115074 0.0567636 255 0 0
0.130118 -0.115667 0.0572535 255 0 0
0.134639 -0.115639 0.0579491 255 0 0
0.141372 -0.114625 0.0570582 255 0 0
0.124825 -0.112097 0.0561936 255 0 0
0.126442 -0.113005 0.0568346 255 0 0
0.139795 -0.112016 0.0574448 255 0 0
0.140244 -0.113544 0.0568636 255 0 0
0.139297 -0.110614 0.0572834 255 0 0
0.138663 -0.109138 0.0569621 255 0 0
0.138366 -0.10716 0.0568623 255 0 0
0.138525 -0.105234 0.0565128 255 0 0
0.138475 -0.102684 0.0565637 255 0 0
0.138652 -0.10079 0.0571832 255 0 0
0.13857 -0.0991388 0.0570431 255 0 0
0.138488 -0.0974833 0.0569026 255 0 0
0.137739 -0.0943846 0.0573397 255 0 0
0.138405 -0.0958231 0.0567618 255 0 0
0.137234 -0.0929628 0.0571762 255 0 0
0.219195 -0.226816 0.0597537 255 0 0
0.218485 -0.22463 0.0593114 255 0 0
0.217962 -0.222955 0.0582556 255 0 0
0.228813 -0.223554 0.0595691 255 0 0
0.216868 -0.220941 0.0586877 255 0 0
0.226782 -0.221124 0.0594453 255 0 0
0.215777 -0.218935 0.0591182 255 0 0
0.214661 -0.217023 0.0587306 255 0 0
0.222704 -0.216752 0.0599914 255 0 0
0.213548 -0.215114 0.0583437 255 0 0
0.214274 -0.214923 0.0594975 255 0 0
0.220019 -0.216 0.0595538 255 0 0
0.212869 -0.213285 0.059082 255 0 0
0.223948 -0.213487 0.0595023 255 0 0
0.224171 -0.212389 0.0584672 255 0 0
0.21101 -0.210401 0.0584316 255 0 0
0.223144 -0.211062 0.0589497 255 0 0
0.224547 -0.210948 0.0593181 255 0 0
0.231155 -0.210381 0.0588955 255 0 0
0.209672 -0.208629 0.0591518 255 0 0
0.210796 -0.209839 0.0594033 255 0 0
0.221508 -0.208763 0.0591368 255 0 0
0.222907 -0.209015 0.0589314 255 0 0
0.230593 -0.208798 0.0587118 255 0 0
0.207317 -0.206166 0.0595758 255 0 0
0.208304 -0.207133 0.0587133 255 0 0
0.219054 -0.206583 0.0588 255 0 0
0.222217 -0.207078 0.0589016 255 0 0
0.230031 -0.207215 0.058528 255 0 0
0.206726 -0.205164 0.0583066 255 0 0
0.218846 -0.204566 0.0591339 255 0 0
0.221074 -0.20526 0.0588606 255 0 0
0.228881 -0.204892 0.0582385 255 0 0
0.204854 -0.203053 0.0589365 255 0 0
0.216698 -0.202742 0.0592428 255 0 0
0.218626 -0.203402 0.0584327 255 0 0
0.227353 -0.202494 0.059613 255 0 0
0.228528 -0.203969 0.0598264 255 0 0
0.201697 -0.200183 0.0592463 255 0 0
0.202898 -0.201407 0.0585788 255 0 0
0.214149 -0.200826 0.0586503 255 0 0
0.216027 -0.201881 0.0581937 255 0 0
0.219527 -0.201107 0.0581721 255 0 0
0.226182 -0.201023 0.0594002 255 0 0
0.200302 -0.199042 0.0592297 255 0 0
0.210321 -0.198251 0.0590406 255 0 0
0.212386 -0.199227 0.0585943 255 0 0
0.219176 -0.198775 0.0580612 255 0 0
0.225014 -0.199557 0.059188 255 0 0
0.19878 -0.197254 0.0591975 255 0 0
0.225084 -0.197014 0.0589564 255 0 0
0.197415 -0.195455 0.0590489 255 0 0
0.223939 -0.194702 0.0586672 255 0 0
0.223378 -0.193121 0.0584839 255 0 0
0.221424 -0.191753 0.0590738 255 0 0
0.215148 -0.188043 0.0582343 255 0 0
0.216114 -0.189541 0.0580959 255 0 0
0.222671 -0.189793 0.0589768 255 0 0
0.223069 -0.187405 0.0590672 255 0 0
0.223828 -0.18432 0.0594054 255 0 0
0.223261 -0.182723 0.0592204 255 0 0
0.224532 -0.180695 0.0591228 255 0 0
0.133236 -0.137251 0.0585337 255 0 0
0.13449 -0.136019 0.0592345 255 0 0
0.135048 -0.134559 0.0592003 255 0 0
0.134314 -0.132772 0.0592165 255 0 0
0.136865 -0.132228 0.0593128 255 0 0
0.138515 -0.13276 0.0589257 255 0 0
0.131891 -0.130797 0.058887 255 0 0
0.132922 -0.131629 0.0589143 255 0 0
0.137799 -0.130607 0.058447 255 0 0
0.131152 -0.129277 0.0592372 255 0 0
0.138552 -0.129028 0.0593686 255 0 0
0.129363 -0.126856 0.0587695 255 0 0
0.13029 -0.127728 0.0588957 255 0 0
0.1324 -0.126365 0.0586847 255 0 0
0.138807 -0.126733 0.059374 255 0 0
0.14038 -0.126801 0.0585225 255 0 0
0.128818 -0.125246 0.0589208 255 0 0
0.132556 -0.124532 0.0589139 255 0 0
0.137901 -0.125199 0.0593386 255 0 0
0.140055 -0.12487 0.0585061 255 0 0
0.128154 -0.123067 0.0590564 255 0 0
0.132897 -0.122741 0.0588417 255 0 0
0.134972 -0.122581 0.0589206 255 0 0
0.138793 -0.123005 0.0589136 255 0 0
0.12786 -0.120673 0.0587974 255 0 0
0.1283 -0.120651 0.0599764 255 0 0
0.133613 -0.121019 0.0581658 255 0 0
0.134195 -0.120516 0.0590459 255 0 0
0.139694 -0.120791 0.0584822 255 0 0
0.127721 -0.118948 0.0593407 255 0 0
0.133787 -0.119618 0.0587635 255 0 0
0.134167 -0.118197 0.0594079 255 0 0
0.137279 -0.118107 0.0583937 255 0 0
0.139007 -0.119063 0.0590633 255 0 0
0.127481 -0.117805 0.0593099 255 0 0
0.131409 -0.116294 0.0586407 255 0 0
0.133145 -0.117209 0.0587033 255 0 0
0.13452 -0.117003 0.0587248 255 0 0
0.136006 -0.117875 0.0592576 255 0 0
0.129719 -0.114841 0.058131 255 0 0
0.130886 -0.115007 0.0596653 255 0 0
0.13484 -0.114883 0.0586387 255 0 0
0.14131 -0.114354 0.0592811 255 0 0
0.142818 -0.115353 0.0587593 255 0 0
0.127509 -0.112675 0.0584962 255 0 0
0.129027 -0.11351 0.0589992 255 0 0
0.135142 -0.113327 0.0598294 255 0 0
0.14039 -0.113164 0.0590942 255 0 0
0.139225 -0.111277 0.0588272 255 0 0
0.136427 -0.109152 0.0589757 255 0 0
0.138478 -0.109175 0.0585854 255 0 0
0.137627 -0.106352 0.0583449 255 0 0
0.138445 -0.10742 0.0591941 255 0 0
0.137771 -0.104928 0.0589542 255 0 0
0.138201 -0.102515 0.0587844 255 0 0
0.138588 -0.100503 0.0594226 255 0 0
0.138506 -0.0988507 0.0592857 255 0 0
0.138846 -0.0969538 0.059174 255 0 0
0.137836 -0.094108 0.0588471 255 0 0
0.138341 -0.095531 0.0590106 255 0 0
0.137331 -0.0926846 0.0586836 255 0 0
0.219584 -0.22662 0.0611495 255 0 0
0.218965 -0.225274 0.0613539 255 0 0
0.229041 -0.224598 0.0607917 255 0 0
0.217679 -0.222775 0.0601333 255 0 0
0.218546 -0.223254 0.0613054 255 0 0
0.216924 -0.220762 0.0603221 255 0 0
0.218127 -0.221233 0.0612569 255 0 0
0.227727 -0.220528 0.0609783 255 0 0
0.228704 -0.221951 0.0614415 255 0 0
0.216859 -0.219068 0.0612121 255 0 0
0.226012 -0.218738 0.061267 255 0 0
0.215585 -0.216741 0.0605807 255 0 0
0.216617 -0.217214 0.0616321 255 0 0
0.224677 -0.217145 0.0611802 255 0 0
0.215197 -0.214643 0.0613448 255 0 0
0.216338 -0.21587 0.0615998 255 0 0
0.222987 -0.215382 0.0614656 255 0 0
0.224179 -0.214473 0.0605476 255 0 0
0.212926 -0.212202 0.0608355 255 0 0
0.214059 -0.21342 0.06109 255 0 0
0.22338 -0.213091 0.0610337 255 0 0
0.211796 -0.210987 0.0605828 255 0 0
0.212192 -0.210818 0.0619624 255 0 0
0.214974 -0.211656 0.0619646 255 0 0
0.223013 -0.21102 0.0611265 255 0 0
0.230775 -0.210302 0.0605607 255 0 0
0.209946 -0.208404 0.0614542 255 0 0
0.210869 -0.209692 0.0610195 255 0 0
0.220562 -0.209372 0.0619504 255 0 0
0.222455 -0.209116 0.0609901 255 0 0
0.230213 -0.208719 0.0603772 255 0 0
0.207716 -0.206005 0.0609484 255 0 0
0.208829 -0.207203 0.0612005 255 0 0
0.217748 -0.206506 0.0608195 255 0 0
0.219258 -0.207997 0.060531 255 0 0
0.221874 -0.206627 0.0604448 255 0 0
0.222107 -0.207618 0.0614925 255 0 0
0.229154 -0.207147 0.0610094 255 0 0
0.206449 -0.204826 0.0608116 255 0 0
0.217335 -0.204978 0.0607991 255 0 0
0.219384 -0.204638 0.060876 255 0 0
0.220516 -0.205919 0.0614343 255 0 0
0.228593 -0.205566 0.0608261 255 0 0
0.204895 -0.203006 0.0607764 255 0 0
0.215366 -0.20205 0.060226 255 0 0
0.21719 -0.203045 0.0609643 255 0 0
0.218256 -0.203361 0.0603202 255 0 0
0.22695 -0.203262 0.0613513 255 0 0
0.202828 -0.200817 0.0607724 255 0 0
0.213378 -0.200506 0.0601586 255 0 0
0.214477 -0.201238 0.0612186 255 0 0
0.217664 -0.201084 0.0603611 255 0 0
0.225804 -0.200947 0.0610607 255 0 0
0.201214 -0.198787 0.061034 255 0 0
0.202503 -0.199883 0.0619622 255 0 0
0.211305 -0.199524 0.0605994 255 0 0
0.217314 -0.198766 0.0602526 255 0 0
0.224636 -0.199481 0.0608462 255 0 0
0.199185 -0.197109 0.0605503 255 0 0
0.200331 -0.197546 0.0614598 255 0 0
0.216898 -0.19723 0.0602321 255 0 0
0.22529 -0.197672 0.0607261 255 0 0
0.19716 -0.194491 0.0610212 255 0 0
0.216274 -0.194925 0.0602013 255 0 0
0.223373 -0.19459 0.0611588 255 0 0
0.225338 -0.19597 0.0605739 255 0 0
0.195736 -0.192955 0.0606898 255 0 0
0.215105 -0.19266 0.0603259 255 0 0
0.222812 -0.19301 0.0609758 255 0 0
0.195183 -0.191028 0.0607554 255 0 0
0.21469 -0.191125 0.0603054 255 0 0
0.22086 -0.191643 0.061558 255 0 0
0.194043 -0.189192 0.0612738 255 0 0
0.213317 -0.188101 0.0604194 255 0 0
0.214274 -0.189589 0.0602849 255 0 0
0.222105 -0.189683 0.0614727 255 0 0
0.222471 -0.187042 0.0612622 255 0 0
0.187848 -0.185007 0.0618487 255 0 0
0.223448 -0.184247 0.0610824 255 0 0
0.222882 -0.18265 0.0608976 255 0 0
0.22415 -0.180623 0.0608081 255 0 0
0.133959 -0.137543 0.0600587 255 0 0
0.134584 -0.137406 0.0610446 255 0 0
0.135456 -0.135406 0.060874 255 0 0
0.135193 -0.132841 0.0610877 255 0 0
0.137074 -0.133108 0.0602142 255 0 0
0.139354 -0.133214 0.0607519 255 0 0
0.141666 -0.133321 0.0612986 255 0 0
0.132825 -0.131053 0.0607384 255 0 0
