ply
format ascii 1.0
element vertex 1268
property float x
property float y
property float z
property uchar diffuse_red
property uchar diffuse_green
property uchar diffuse_blue
end_header
0.16055 -0.178807 -0.0486819 255 0 0
0.15332 -0.176748 -0.0486868 255 0 0
0.159777 -0.177321 -0.0483975 255 0 0
0.151164 -0.174182 -0.0490283 255 0 0
0.152386 -0.175417 -0.0490384 255 0 0
0.157338 -0.174547 -0.0490605 255 0 0
0.156574 -0.173074 -0.0487774 255 0 0
0.146666 -0.17072 -0.0490731 255 0 0
0.148165 -0.171922 -0.0482952 255 0 0
0.155493 -0.170064 -0.0485218 255 0 0
0.156254 -0.171531 -0.0488042 255 0 0
0.143423 -0.168512 -0.0491294 255 0 0
0.144893 -0.169621 -0.0494928 255 0 0
0.14105 -0.166103 -0.0491148 255 0 0
0.142235 -0.167306 -0.0491213 255 0 0
0.13987 -0.164905 -0.0491072 255 0 0
0.138652 -0.162725 -0.0489071 255 0 0
0.133819 -0.160501 -0.0495768 255 0 0
0.137178 -0.161104 -0.0490159 255 0 0
0.130756 -0.15849 -0.0485238 255 0 0
0.133219 -0.159205 -0.0491498 255 0 0
0.13528 -0.159334 -0.0493946 255 0 0
0.136308 -0.159911 -0.0482367 255 0 0
0.130415 -0.157091 -0.0484467 255 0 0
0.132877 -0.157363 -0.048417 255 0 0
0.128636 -0.154535 -0.0491313 255 0 0
0.130878 -0.155455 -0.0482954 255 0 0
0.127553 -0.153492 -0.0480201 255 0 0
0.206934 -0.228244 -0.0468815 255 0 0
0.208565 -0.229661 -0.0470949 255 0 0
0.204848 -0.226917 -0.0473216 255 0 0
0.204475 -0.225372 -0.0472324 255 0 0
0.195505 -0.22244 -0.0473962 255 0 0
0.203639 -0.223909 -0.0477955 255 0 0
0.204956 -0.223713 -0.0468782 255 0 0
0.1912 -0.22075 -0.0470876 255 0 0
0.193201 -0.221259 -0.0468 255 0 0
0.194631 -0.220804 -0.0470932 255 0 0
0.187779 -0.218087 -0.046308 255 0 0
0.188853 -0.219512 -0.0471443 255 0 0
0.19376 -0.219172 -0.0467912 255 0 0
0.195292 -0.219762 -0.0467998 255 0 0
0.187141 -0.216644 -0.0470448 255 0 0
0.19155 -0.216059 -0.0478149 255 0 0
0.192363 -0.217555 -0.0461633 255 0 0
0.195505 -0.217665 -0.0470358 255 0 0
0.187053 -0.215086 -0.0461364 255 0 0
0.190163 -0.214455 -0.047186 255 0 0
0.195718 -0.215555 -0.047273 255 0 0
0.187043 -0.21354 -0.0464249 255 0 0
0.188786 -0.21286 -0.0465609 255 0 0
0.193727 -0.213919 -0.0469615 255 0 0
0.187447 -0.211209 -0.0467858 255 0 0
0.191084 -0.210379 -0.04667 255 0 0
0.193496 -0.211899 -0.0470885 255 0 0
0.185249 -0.208215 -0.0469557 255 0 0
0.18718 -0.209126 -0.0469641 255 0 0
0.189555 -0.208669 -0.0464711 255 0 0
0.190205 -0.209572 -0.0475897 255 0 0
0.19575 -0.20811 -0.0465286 255 0 0
0.183898 -0.206652 -0.0463371 255 0 0
0.1875 -0.206839 -0.0470645 255 0 0
0.188785 -0.207311 -0.0469405 255 0 0
0.182589 -0.2052 -0.0476438 255 0 0
0.185229 -0.20458 -0.0468833 255 0 0
0.186992 -0.205736 -0.0478789 255 0 0
0.188896 -0.205418 -0.0465261 255 0 0
0.179922 -0.202112 -0.0464121 255 0 0
0.181252 -0.203651 -0.0470261 255 0 0
0.182883 -0.202611 -0.047034 255 0 0
0.184785 -0.203677 -0.0479038 255 0 0
0.188884 -0.20305 -0.0469644 255 0 0
0.177085 -0.201175 -0.0473575 255 0 0
0.180982 -0.20105 -0.0467312 255 0 0
0.183925 -0.201532 -0.0477616 255 0 0
0.186901 -0.200661 -0.0472906 255 0 0
0.188234 -0.20078 -0.0478569 255 0 0
0.174932 -0.199244 -0.0465637 255 0 0
0.17783 -0.198925 -0.0472907 255 0 0
0.179296 -0.199984 -0.047981 255 0 0
0.185045 -0.199098 -0.0462624 255 0 0
0.171552 -0.196 -0.0469426 255 0 0
0.17268 -0.197336 -0.0467693 255 0 0
0.174955 -0.196147 -0.0469882 255 0 0
0.176822 -0.197204 -0.0470633 255 0 0
0.184541 -0.197663 -0.0465067 255 0 0
0.171194 -0.194523 -0.0468589 255 0 0
0.173663 -0.194499 -0.0466846 255 0 0
0.175328 -0.195423 -0.046945 255 0 0
0.169624 -0.193265 -0.0476561 255 0 0
0.170438 -0.19296 -0.0467172 255 0 0
0.1728 -0.193307 -0.0468828 255 0 0
0.169134 -0.190984 -0.0472566 255 0 0
0.170383 -0.19118 -0.0469268 255 0 0
0.168982 -0.188831 -0.0468399 255 0 0
0.165909 -0.186136 -0.0473512 255 0 0
0.167124 -0.187164 -0.0469778 255 0 0
0.1693 -0.187052 -0.0468652 255 0 0
0.164982 -0.18481 -0.0473646 255 0 0
0.166636 -0.185241 -0.046065 255 0 0
0.16902 -0.184419 -0.0469762 255 0 0
0.161599 -0.182573 -0.0477932 255 0 0
0.163308 -0.182759 -0.0466549 255 0 0
0.164684 -0.183215 -0.0467741 255 0 0
0.169147 -0.182281 -0.0472051 255 0 0
0.159093 -0.180055 -0.0477744 255 0 0
0.161379 -0.181127 -0.0467296 255 0 0
0.162854 -0.180804 -0.0470973 255 0 0
0.167328 -0.180809 -0.046908 255 0 0
0.168153 -0.181566 -0.0460124 255 0 0
0.156959 -0.179007 -0.0478385 255 0 0
0.159029 -0.178571 -0.0468949 255 0 0
0.160868 -0.179225 -0.0471745 255 0 0
0.162692 -0.179998 -0.0461814 255 0 0
0.165112 -0.178969 -0.0470588 255 0 0
0.16689 -0.179916 -0.0479078 255 0 0
0.1548 -0.176986 -0.0473209 255 0 0
0.157046 -0.177484 -0.0471421 255 0 0
0.161316 -0.176793 -0.0465966 255 0 0
0.163133 -0.177587 -0.0467129 255 0 0
0.151459 -0.174237 -0.0470919 255 0 0
0.153259 -0.175353 -0.0466663 255 0 0
0.157792 -0.174432 -0.0475224 255 0 0
0.158785 -0.17585 -0.0470347 255 0 0
0.149952 -0.17303 -0.0478726 255 0 0
0.150822 -0.172894 -0.0466555 255 0 0
0.157472 -0.172887 -0.0475491 255 0 0
0.146973 -0.170785 -0.0471501 255 0 0
0.149033 -0.171788 -0.0470805 255 0 0
0.155504 -0.170027 -0.0466814 255 0 0
0.156707 -0.171416 -0.0472679 255 0 0
0.144893 -0.169027 -0.0473577 255 0 0
0.146067 -0.169556 -0.0463651 255 0 0
0.154746 -0.168566 -0.0464027 255 0 0
0.141664 -0.166168 -0.0464326 255 0 0
0.142982 -0.167314 -0.0466102 255 0 0
0.140461 -0.16488 -0.0475539 255 0 0
0.13941 -0.16297 -0.0467374 255 0 0
0.137771 -0.161085 -0.0474677 255 0 0
0.135703 -0.158612 -0.0478094 255 0 0
0.136901 -0.159895 -0.0466933 255 0 0
0.13313 -0.15638 -0.0474562 255 0 0
0.13484 -0.15743 -0.0470362 255 0 0
0.129484 -0.15441 -0.0479473 255 0 0
0.130582 -0.154168 -0.0471077 255 0 0
0.132278 -0.155208 -0.0466879 255 0 0
0.129318 -0.153069 -0.0469352 255 0 0
0.127227 -0.150825 -0.0460051 255 0 0
0.128059 -0.151975 -0.0467637 255 0 0
0.20793 -0.228023 -0.0445365 255 0 0
0.209097 -0.229519 -0.0453974 255 0 0
0.210025 -0.229354 -0.04409 255 0 0
0.206237 -0.226671 -0.0453659 255 0 0
0.195591 -0.225577 -0.0450564 255 0 0
0.205865 -0.225127 -0.0452766 255 0 0
0.193851 -0.222311 -0.04446 255 0 0
0.19472 -0.223942 -0.0447577 255 0 0
0.205884 -0.223549 -0.0455726 255 0 0
0.192986 -0.220686 -0.0441632 255 0 0
0.195084 -0.221294 -0.0450429 255 0 0
0.189757 -0.219354 -0.045873 255 0 0
0.19138 -0.21912 -0.0453499 255 0 0
0.193094 -0.218968 -0.0446689 255 0 0
0.194865 -0.218951 -0.0447587 255 0 0
0.188677 -0.217159 -0.0451835 255 0 0
0.190474 -0.216901 -0.0448461 255 0 0
0.192548 -0.21707 -0.0443807 255 0 0
0.19441 -0.21734 -0.0452368 255 0 0
0.189158 -0.21464 -0.0448345 255 0 0
0.190975 -0.215947 -0.0455392 255 0 0
0.193216 -0.215151 -0.0446173 255 0 0
0.194176 -0.214829 -0.0459295 255 0 0
0.188869 -0.213072 -0.0449273 255 0 0
0.191545 -0.212294 -0.0445075 255 0 0
0.192633 -0.213105 -0.0457313 255 0 0
0.187909 -0.210709 -0.0450295 255 0 0
0.189105 -0.211658 -0.0455545 255 0 0
0.19098 -0.211131 -0.044684 255 0 0
0.195527 -0.210966 -0.0441672 255 0 0
0.18521 -0.208107 -0.0450277 255 0 0
0.186567 -0.209677 -0.0456435 255 0 0
0.189175 -0.209135 -0.0450308 255 0 0
0.191029 -0.209142 -0.0452813 255 0 0
0.192821 -0.209503 -0.0441496 255 0 0
0.195537 -0.209438 -0.0445554 255 0 0
0.183861 -0.206547 -0.0444156 255 0 0
0.186117 -0.206385 -0.0448441 255 0 0
0.188795 -0.207431 -0.0454637 255 0 0
0.190811 -0.206676 -0.0448804 255 0 0
0.193224 -0.207291 -0.0444862 255 0 0
0.195026 -0.207979 -0.0448034 255 0 0
0.182555 -0.205097 -0.0457222 255 0 0
0.184615 -0.204699 -0.0446518 255 0 0
0.186095 -0.205377 -0.0459698 255 0 0
0.190806 -0.205099 -0.0451699 255 0 0
0.192708 -0.205023 -0.0448285 255 0 0
0.179892 -0.202015 -0.0445033 255 0 0
0.18122 -0.203552 -0.0451109 255 0 0
0.182278 -0.202735 -0.0448116 255 0 0
0.184591 -0.20369 -0.0457747 255 0 0
0.191219 -0.203279 -0.0452706 255 0 0
0.178856 -0.200292 -0.0458378 255 0 0
0.18037 -0.200675 -0.0450737 255 0 0
0.189385 -0.201189 -0.0451939 255 0 0
0.174703 -0.198527 -0.045345 255 0 0
0.177509 -0.198742 -0.0455445 255 0 0
0.17849 -0.199129 -0.0447796 255 0 0
0.186852 -0.198555 -0.0452645 255 0 0
0.18837 -0.199827 -0.0452994 255 0 0
0.173688 -0.197182 -0.044531 255 0 0
0.174373 -0.196183 -0.0440966 255 0 0
0.176943 -0.196873 -0.044591 255 0 0
0.185844 -0.197201 -0.0453696 255 0 0
0.186652 -0.196824 -0.0440854 255 0 0
0.172861 -0.195236 -0.0451833 255 0 0
0.175187 -0.195675 -0.0442981 255 0 0
0.1771 -0.194992 -0.0441354 255 0 0
0.184586 -0.195131 -0.0455969 255 0 0
0.171384 -0.192722 -0.0452116 255 0 0
0.17255 -0.193378 -0.0449505 255 0 0
0.175001 -0.193055 -0.0445304 255 0 0
0.177075 -0.193431 -0.0444174 255 0 0
0.169355 -0.191035 -0.044921 255 0 0
0.171089 -0.191157 -0.045279 255 0 0
0.173239 -0.191051 -0.0452904 255 0 0
0.174462 -0.190828 -0.0444037 255 0 0
0.17687 -0.19112 -0.0446577 255 0 0
0.169123 -0.188906 -0.0450878 255 0 0
0.171156 -0.189129 -0.0456828 255 0 0
0.1727 -0.188826 -0.045164 255 0 0
0.174433 -0.189265 -0.0446854 255 0 0
0.176663 -0.188802 -0.0448986 255 0 0
0.167997 -0.187216 -0.0447972 255 0 0
0.169223 -0.186944 -0.0452626 255 0 0
0.170618 -0.186909 -0.0455568 255 0 0
0.174404 -0.187698 -0.0449679 255 0 0
0.165959 -0.184317 -0.0457879 255 0 0
0.16727 -0.18469 -0.0447757 255 0 0
0.16922 -0.185079 -0.0452851 255 0 0
0.171802 -0.185117 -0.0449532 255 0 0
0.164881 -0.182802 -0.0448254 255 0 0
0.166738 -0.183129 -0.0443698 255 0 0
0.168504 -0.183015 -0.0454523 255 0 0
0.170793 -0.183804 -0.0441389 255 0 0
0.163314 -0.181145 -0.0448957 255 0 0
0.166753 -0.180477 -0.0452729 255 0 0
0.161258 -0.17865 -0.0450172 255 0 0
0.162593 -0.179713 -0.0445345 255 0 0
0.165335 -0.178882 -0.0450861 255 0 0
0.156535 -0.176149 -0.0457295 255 0 0
0.159252 -0.177068 -0.0452219 255 0 0
0.160686 -0.177088 -0.0453115 255 0 0
0.163086 -0.177074 -0.0445554 255 0 0
0.152329 -0.174101 -0.045874 255 0 0
0.154861 -0.175053 -0.0451907 255 0 0
0.157058 -0.174562 -0.0444227 255 0 0
0.15848 -0.175266 -0.0451866 255 0 0
0.16163 -0.174992 -0.0445731 255 0 0
0.151403 -0.172856 -0.045086 255 0 0
0.153169 -0.173198 -0.0447933 255 0 0
0.154624 -0.172867 -0.0442818 255 0 0
0.157706 -0.172788 -0.044939 255 0 0
0.147838 -0.170652 -0.0459401 255 0 0
0.149159 -0.171135 -0.0451222 255 0 0
0.150768 -0.171518 -0.0446533 255 0 0
0.157165 -0.171283 -0.044813 255 0 0
0.145321 -0.168369 -0.0446338 255 0 0
0.14693 -0.169423 -0.0451582 255 0 0
0.154918 -0.1693 -0.0445586 255 0 0
0.143259 -0.166628 -0.0448467 255 0 0
0.153553 -0.16719 -0.0458211 255 0 0
0.141209 -0.164896 -0.0450596 255 0 0
0.143379 -0.165906 -0.0440346 255 0 0
0.151619 -0.164376 -0.0449682 255 0 0
0.153236 -0.165657 -0.0458476 255 0 0
0.139294 -0.162459 -0.0444638 255 0 0
0.140598 -0.163589 -0.0446351 255 0 0
0.150443 -0.16302 -0.0443948 255 0 0
0.138098 -0.161177 -0.0455781 255 0 0
0.135775 -0.158823 -0.0455781 255 0 0
0.136798 -0.159399 -0.0444286 255 0 0
0.143677 -0.158158 -0.0442466 255 0 0
0.133725 -0.156369 -0.0459227 255 0 0
0.134617 -0.157002 -0.0446037 255 0 0
0.131475 -0.154157 -0.0448207 255 0 0
0.132873 -0.1552 -0.0451593 255 0 0
0.130336 -0.153002 -0.0448229 255 0 0
0.124834 -0.150168 -0.045409 255 0 0
0.127824 -0.150824 -0.0444909 255 0 0
0.128656 -0.151972 -0.0452448 255 0 0
0.121899 -0.148267 -0.044412 255 0 0
0.124797 -0.148786 -0.0445799 255 0 0
0.1264 -0.149681 -0.0452503 255 0 0
0.121564 -0.146894 -0.0443366 255 0 0
0.121063 -0.144835 -0.0442234 255 0 0
0.210553 -0.229213 -0.0424009 255 0 0
0.207035 -0.226468 -0.0428405 255 0 0
0.20846 -0.227885 -0.0428507 255 0 0
0.196602 -0.22544 -0.0437532 255 0 0
0.207056 -0.224897 -0.0431323 255 0 0
0.195302 -0.223231 -0.0429632 255 0 0
0.196191 -0.222564 -0.0436088 255 0 0
0.19346 -0.220549 -0.0425432 255 0 0
0.195749 -0.221108 -0.0431117 255 0 0
0.193123 -0.218921 -0.0425695 255 0 0
0.194864 -0.219243 -0.0430762 255 0 0
0.193514 -0.217111 -0.0432691 255 0 0
0.195565 -0.216935 -0.0433053 255 0 0
0.196847 -0.216735 -0.0423986 255 0 0
0.190845 -0.21473 -0.0436343 255 0 0
0.192686 -0.214402 -0.0431245 255 0 0
0.195569 -0.215374 -0.0435929 255 0 0
0.197225 -0.215127 -0.0430605 255 0 0
0.198514 -0.214924 -0.0421502 255 0 0
0.188695 -0.212626 -0.0426927 255 0 0
0.191032 -0.212889 -0.0432765 255 0 0
0.192459 -0.212683 -0.043201 255 0 0
0.194465 -0.213946 -0.0427567 255 0 0
0.187844 -0.211027 -0.0424012 255 0 0
0.190033 -0.211587 -0.0431863 255 0 0
0.193094 -0.211018 -0.0430356 255 0 0
0.195325 -0.210761 -0.0425892 255 0 0
0.186701 -0.209096 -0.0428439 255 0 0
0.18809 -0.209984 -0.0428937 255 0 0
0.193732 -0.209347 -0.0428682 255 0 0
0.194815 -0.209305 -0.0428366 255 0 0
0.185061 -0.207024 -0.0429911 255 0 0
0.186401 -0.207605 -0.0429295 255 0 0
0.193275 -0.20647 -0.0431928 255 0 0
0.194304 -0.207849 -0.043084 255 0 0
0.182876 -0.204776 -0.0429265 255 0 0
0.18464 -0.205705 -0.0435324 255 0 0
0.192765 -0.205016 -0.0434399 255 0 0
0.180604 -0.203122 -0.0429767 255 0 0
0.191228 -0.202956 -0.0436021 255 0 0
0.179076 -0.200958 -0.0431168 255 0 0
0.189342 -0.200846 -0.0429106 255 0 0
0.174847 -0.19807 -0.0420017 255 0 0
0.177274 -0.198942 -0.0430887 255 0 0
0.187027 -0.198645 -0.0426703 255 0 0
0.188679 -0.199541 -0.0438712 255 0 0
0.175185 -0.197321 -0.0428501 255 0 0
0.18595 -0.196714 -0.0423849 255 0 0
0.17115 -0.194047 -0.0425341 255 0 0
0.172822 -0.194624 -0.0437054 255 0 0
0.175144 -0.195915 -0.0424181 255 0 0
0.183344 -0.194715 -0.0428125 255 0 0
0.184641 -0.195652 -0.0439157 255 0 0
0.169728 -0.192432 -0.0423535 255 0 0
0.171107 -0.193047 -0.0436259 255 0 0
0.172437 -0.192919 -0.0435143 255 0 0
0.169576 -0.190945 -0.0429556 255 0 0
0.171144 -0.190744 -0.0425352 255 0 0
0.179477 -0.191049 -0.0423312 255 0 0
0.169295 -0.188848 -0.0432212 255 0 0
0.177998 -0.189056 -0.0424927 255 0 0
0.168857 -0.187019 -0.043205 255 0 0
0.176283 -0.187122 -0.0425865 255 0 0
0.167269 -0.18483 -0.0428179 255 0 0
0.168602 -0.185055 -0.0432552 255 0 0
0.165395 -0.182693 -0.0428697 255 0 0
0.167651 -0.182767 -0.0427327 255 0 0
0.16866 -0.183004 -0.0435432 255 0 0
0.163582 -0.180776 -0.0436432 255 0 0
0.165074 -0.181183 -0.0433519 255 0 0
0.166888 -0.180877 -0.0430079 255 0 0
0.161915 -0.178403 -0.0422032 255 0 0
0.163187 -0.17957 -0.0431715 255 0 0
0.165237 -0.178903 -0.042637 255 0 0
0.161083 -0.176845 -0.0438414 255 0 0
0.162917 -0.176907 -0.0428093 255 0 0
0.164818 -0.177459 -0.0423401 255 0 0
0.15881 -0.174957 -0.0434813 255 0 0
0.161097 -0.175014 -0.0427009 255 0 0
0.162334 -0.175251 -0.0431975 255 0 0
0.15731 -0.172958 -0.0431469 255 0 0
0.159385 -0.17332 -0.0428175 255 0 0
0.161102 -0.173649 -0.0426388 255 0 0
0.14985 -0.170284 -0.0438715 255 0 0
0.151461 -0.170668 -0.043401 255 0 0
0.153369 -0.170951 -0.0432787 255 0 0
0.155293 -0.171238 -0.0431573 255 0 0
0.156798 -0.171043 -0.0423313 255 0 0
0.158705 -0.171188 -0.042517 255 0 0
0.14734 -0.16868 -0.0435646 255 0 0
0.148936 -0.169056 -0.0430938 255 0 0
0.151086 -0.16855 -0.0423248 255 0 0
0.152441 -0.169714 -0.0424973 255 0 0
0.154914 -0.168808 -0.0428387 255 0 0
0.156849 -0.169723 -0.0439219 255 0 0
0.158053 -0.169837 -0.0420814 255 0 0
0.145559 -0.16692 -0.0430065 255 0 0
0.148028 -0.167835 -0.0423202 255 0 0
0.153574 -0.167143 -0.043086 255 0 0
0.143056 -0.164583 -0.0428398 255 0 0
0.144236 -0.165775 -0.0428368 255 0 0
0.150777 -0.164517 -0.0425576 255 0 0
0.152383 -0.165792 -0.0434232 255 0 0
0.141098 -0.162606 -0.0428459 255 0 0
0.150035 -0.163082 -0.042288 255 0 0
0.138981 -0.16115 -0.0432751 255 0 0
0.147689 -0.16042 -0.0429624 255 0 0
0.149381 -0.16102 -0.0430999 255 0 0
0.137386 -0.159384 -0.0428995 255 0 0
0.138669 -0.159846 -0.0420914 255 0 0
0.144481 -0.158758 -0.0428858 255 0 0
0.146536 -0.159087 -0.0424002 255 0 0
0.14998 -0.15813 -0.0428824 255 0 0
0.135079 -0.157048 -0.042909 255 0 0
0.142969 -0.156743 -0.0430873 255 0 0
0.132787 -0.154727 -0.0429195 255 0 0
0.13093 -0.152997 -0.043306 255 0 0
0.128834 -0.151395 -0.0433559 255 0 0
0.130092 -0.151846 -0.0425559 255 0 0
0.136139 -0.150564 -0.0421132 255 0 0
0.139275 -0.151347 -0.0423366 255 0 0
0.122968 -0.148024 -0.0435827 255 0 0
0.12692 -0.149302 -0.0429904 255 0 0
0.135833 -0.149086 -0.0421392 255 0 0
0.123288 -0.146464 -0.0432579 255 0 0
0.125056 -0.14741 -0.043002 255 0 0
0.121494 -0.144157 -0.0426926 255 0 0
0.122299 -0.145275 -0.0434315 255 0 0
0.120627 -0.14291 -0.0430322 255 0 0
0.119478 -0.141044 -0.0431676 255 0 0
0.118402 -0.139322 -0.0422306 255 0 0
0.208803 -0.226979 -0.0411264 255 0 0
0.196423 -0.224986 -0.0408428 255 0 0
0.207851 -0.224698 -0.0406138 255 0 0
0.194904 -0.222336 -0.0411337 255 0 0
0.196422 -0.223452 -0.0404467 255 0 0
0.192879 -0.220422 -0.0402904 255 0 0
0.195536 -0.221094 -0.0409747 255 0 0
0.192833 -0.218402 -0.0402542 255 0 0
0.194653 -0.219233 -0.0409383 255 0 0
0.191666 -0.2168 -0.0409826 255 0 0
0.192679 -0.217103 -0.0412131 255 0 0
0.197758 -0.216576 -0.0411174 255 0 0
0.199227 -0.217135 -0.0402518 255 0 0
0.189501 -0.214109 -0.041058 255 0 0
0.190645 -0.215052 -0.0406856 255 0 0
0.192449 -0.215106 -0.0413295 255 0 0
0.199429 -0.214766 -0.0408643 255 0 0
0.188649 -0.212509 -0.0407688 255 0 0
0.190493 -0.213489 -0.0410426 255 0 0
0.193367 -0.212526 -0.0419252 255 0 0
0.195008 -0.213057 -0.0412502 255 0 0
0.197025 -0.21354 -0.040942 255 0 0
0.187044 -0.210188 -0.0405745 255 0 0
0.188608 -0.211188 -0.041176 255 0 0
0.195124 -0.210555 -0.0410122 255 0 0
0.185127 -0.208602 -0.0402935 255 0 0
0.187035 -0.209296 -0.0410476 255 0 0
0.194629 -0.209145 -0.0414235 255 0 0
0.183419 -0.206477 -0.0406167 255 0 0
0.185206 -0.206932 -0.0414681 255 0 0
0.186966 -0.206881 -0.0405456 255 0 0
0.193177 -0.206683 -0.0410101 255 0 0
0.181718 -0.20436 -0.0409387 255 0 0
0.18521 -0.204584 -0.0407577 255 0 0
0.191334 -0.204767 -0.0400212 255 0 0
0.192048 -0.204891 -0.0417277 255 0 0
0.179212 -0.202469 -0.041062 255 0 0
0.180869 -0.203575 -0.0418457 255 0 0
0.18264 -0.203213 -0.0412851 255 0 0
0.189295 -0.202033 -0.0402452 255 0 0
0.190619 -0.202996 -0.041351 255 0 0
0.177936 -0.200263 -0.0414806 255 0 0
0.178938 -0.200692 -0.0406056 255 0 0
0.181307 -0.201678 -0.040688 255 0 0
0.18828 -0.20067 -0.0403568 255 0 0
0.175499 -0.199396 -0.0405082 255 0 0
0.177236 -0.198878 -0.0414096 255 0 0
0.178189 -0.198715 -0.0401405 255 0 0
0.187268 -0.199312 -0.0404682 255 0 0
0.173428 -0.196937 -0.0412749 255 0 0
0.17642 -0.197332 -0.0411269 255 0 0
0.185251 -0.196605 -0.0406902 255 0 0
0.186258 -0.197957 -0.0405793 255 0 0
0.170699 -0.194677 -0.0408632 255 0 0
0.172934 -0.195115 -0.0411897 255 0 0
0.175122 -0.195831 -0.040538 255 0 0
0.183248 -0.194676 -0.0407226 255 0 0
0.169474 -0.193005 -0.0407343 255 0 0
0.173046 -0.192887 -0.041545 255 0 0
0.181258 -0.192759 -0.040755 255 0 0
0.169023 -0.191098 -0.0407979 255 0 0
0.172242 -0.191359 -0.0412644 255 0 0
0.179276 -0.190092 -0.0409745 255 0 0
0.180266 -0.191424 -0.0408649 255 0 0
0.169079 -0.188912 -0.0412603 255 0 0
0.17104 -0.189074 -0.0408451 255 0 0
0.178289 -0.188764 -0.041084 255 0 0
0.169135 -0.186953 -0.0410869 255 0 0
0.177297 -0.186677 -0.0413804 255 0 0
0.168414 -0.185267 -0.0409559 255 0 0
0.176208 -0.184495 -0.0409061 255 0 0
0.167121 -0.183074 -0.0408784 255 0 0
0.168087 -0.183655 -0.041738 255 0 0
0.175709 -0.18307 -0.0411478 255 0 0
0.164838 -0.181108 -0.0408923 255 0 0
0.166765 -0.180977 -0.0413361 255 0 0
0.168153 -0.181376 -0.0418059 255 0 0
0.161915 -0.178352 -0.0403644 255 0 0
0.163144 -0.179771 -0.0409378 255 0 0
0.165015 -0.17898 -0.0409496 255 0 0
0.166809 -0.178622 -0.0409255 255 0 0
0.160691 -0.176989 -0.0416271 255 0 0
0.162908 -0.176606 -0.0406856 255 0 0
0.164394 -0.177632 -0.0404223 255 0 0
0.16614 -0.17725 -0.0404872 255 0 0
0.158869 -0.174884 -0.0407697 255 0 0
0.161804 -0.175445 -0.0410429 255 0 0
0.162738 -0.174889 -0.0417235 255 0 0
0.164871 -0.175454 -0.0409633 255 0 0
0.157502 -0.172721 -0.0402143 255 0 0
0.160827 -0.172287 -0.0412882 255 0 0
0.162671 -0.173409 -0.040848 255 0 0
0.159581 -0.171052 -0.0412905 255 0 0
0.160761 -0.170814 -0.040416 255 0 0
0.153249 -0.168041 -0.0415518 255 0 0
0.155282 -0.168712 -0.0413439 255 0 0
0.15676 -0.169179 -0.0415439 255 0 0
0.158602 -0.169028 -0.0406401 255 0 0
0.147123 -0.166619 -0.0415505 255 0 0
0.149138 -0.166835 -0.0415945 255 0 0
0.150884 -0.167156 -0.0412925 255 0 0
0.152611 -0.166708 -0.0411229 255 0 0
0.154576 -0.166774 -0.0405949 255 0 0
0.156456 -0.167251 -0.0408633 255 0 0
0.145057 -0.164693 -0.0410739 255 0 0
0.147209 -0.165132 -0.0408704 255 0 0
0.149622 -0.164508 -0.0404411 255 0 0
0.151225 -0.165313 -0.0405842 255 0 0
0.152931 -0.165125 -0.0406447 255 0 0
0.14316 -0.163201 -0.0410537 255 0 0
0.147292 -0.163646 -0.0401908 255 0 0
0.148993 -0.16319 -0.0400171 255 0 0
0.150272 -0.162655 -0.0406591 255 0 0
0.14095 -0.160783 -0.0412365 255 0 0
0.142547 -0.161899 -0.0406347 255 0 0
0.147712 -0.1604 -0.0411656 255 0 0
0.149321 -0.16124 -0.0408649 255 0 0
0.150341 -0.161156 -0.0416993 255 0 0
0.137802 -0.158668 -0.0413355 255 0 0
0.139348 -0.159018 -0.040866 255 0 0
0.140633 -0.15948 -0.0400558 255 0 0
0.146561 -0.15907 -0.040609 255 0 0
0.149069 -0.159081 -0.0410966 255 0 0
0.135239 -0.156453 -0.0410138 255 0 0
0.136546 -0.157071 -0.0409516 255 0 0
0.145018 -0.157318 -0.0410607 255 0 0
0.133503 -0.154661 -0.0415723 255 0 0
0.134643 -0.155174 -0.0406009 255 0 0
0.142484 -0.15528 -0.0411879 255 0 0
0.131521 -0.152992 -0.0417938 255 0 0
0.132362 -0.152868 -0.0406193 255 0 0
0.141319 -0.153465 -0.0409893 255 0 0
0.129553 -0.150699 -0.0410581 255 0 0
0.130683 -0.151843 -0.0410484 255 0 0
0.138559 -0.150487 -0.0407937 255 0 0
0.126767 -0.148546 -0.0414942 255 0 0
0.128428 -0.14956 -0.041067 255 0 0
0.13706 -0.14878 -0.0412394 255 0 0
0.125206 -0.146664 -0.0407637 255 0 0
0.135567 -0.147611 -0.0404115 255 0 0
0.122983 -0.144828 -0.0414163 255 0 0
0.121757 -0.142797 -0.0411284 255 0 0
0.123157 -0.14392 -0.0403738 255 0 0
0.119794 -0.140439 -0.0414783 255 0 0
0.120724 -0.141186 -0.0409765 255 0 0
0.117612 -0.138225 -0.0415002 255 0 0
0.118605 -0.138791 -0.0403858 255 0 0
0.117053 -0.136998 -0.0410989 255 0 0
0.116269 -0.13591 -0.040374 255 0 0
0.197088 -0.226335 -0.0393101 255 0 0
0.198415 -0.227077 -0.038484 255 0 0
0.209329 -0.226843 -0.0394519 255 0 0
0.197088 -0.224804 -0.0389119 255 0 0
0.19297 -0.22353 -0.0380008 255 0 0
0.196646 -0.222859 -0.0389751 255 0 0
0.190973 -0.220375 -0.0380428 255 0 0
0.195543 -0.221039 -0.0388912 255 0 0
0.19116 -0.218755 -0.0383795 255 0 0
0.194224 -0.219267 -0.0387589 255 0 0
0.191161 -0.217197 -0.0397123 255 0 0
0.193128 -0.217456 -0.038675 255 0 0
0.199386 -0.21706 -0.0382335 255 0 0
0.203123 -0.216724 -0.0380767 255 0 0
0.189362 -0.214804 -0.0389689 255 0 0
0.191379 -0.215291 -0.0390044 255 0 0
0.199602 -0.214507 -0.039168 255 0 0
0.201631 -0.215484 -0.0388566 255 0 0
0.189294 -0.212887 -0.0391721 255 0 0
0.194813 -0.212262 -0.0390089 255 0 0
0.199429 -0.212574 -0.0382916 255 0 0
0.200478 -0.213975 -0.0381757 255 0 0
0.186958 -0.210688 -0.0389664 255 0 0
0.18831 -0.211333 -0.0387611 255 0 0
0.195765 -0.210001 -0.0381247 255 0 0
0.197291 -0.210969 -0.03928 255 0 0
0.18525 -0.209052 -0.0387382 255 0 0
0.187937 -0.209169 -0.0389035 255 0 0
0.188638 -0.209082 -0.038223 255 0 0
0.194572 -0.208756 -0.0389626 255 0 0
0.183228 -0.206486 -0.0385199 255 0 0
0.184078 -0.207817 -0.0391047 255 0 0
0.188469 -0.207487 -0.0389007 255 0 0
0.193283 -0.207414 -0.0390094 255 0 0
0.181433 -0.204918 -0.0392925 255 0 0
0.187617 -0.205108 -0.0392801 255 0 0
0.188979 -0.204954 -0.0386041 255 0 0
0.191134 -0.204565 -0.0384517 255 0 0
0.192157 -0.205936 -0.0383374 255 0 0
0.180371 -0.20315 -0.0392112 255 0 0
0.184603 -0.202941 -0.0396728 255 0 0
0.186091 -0.202748 -0.0386957 255 0 0
0.190114 -0.203196 -0.0385658 255 0 0
0.177169 -0.200945 -0.0387076 255 0 0
0.179215 -0.201931 -0.0395751 255 0 0
0.180463 -0.200069 -0.0394572 255 0 0
0.183261 -0.201401 -0.0390781 255 0 0
0.18474 -0.201205 -0.038102 255 0 0
0.187575 -0.200554 -0.0386618 255 0 0
0.189096 -0.201831 -0.0386796 255 0 0
0.174691 -0.198589 -0.0393851 255 0 0
0.176337 -0.199635 -0.0381304 255 0 0
0.178652 -0.198588 -0.0385627 255 0 0
0.181926 -0.199871 -0.0384869 255 0 0
0.186565 -0.199198 -0.0387752 255 0 0
0.173058 -0.197017 -0.0391626 255 0 0
0.176882 -0.197206 -0.0395526 255 0 0
0.185056 -0.197171 -0.0389446 255 0 0
0.170839 -0.195119 -0.0386736 255 0 0
0.173832 -0.194338 -0.0399526 255 0 0
0.175179 -0.194938 -0.0388292 255 0 0
0.183551 -0.19515 -0.0391135 255 0 0
0.1695 -0.192975 -0.0387303 255 0 0
0.173736 -0.192701 -0.0391957 255 0 0
0.181063 -0.192563 -0.039207 255 0 0
0.182552 -0.193807 -0.0392258 255 0 0
0.168857 -0.191129 -0.0387453 255 0 0
0.172931 -0.191174 -0.0389183 255 0 0
0.180071 -0.191229 -0.0393188 255 0 0
0.168985 -0.189036 -0.038948 255 0 0
0.171499 -0.188952 -0.0392839 255 0 0
0.178734 -0.189088 -0.0387791 255 0 0
0.168725 -0.187056 -0.0390569 255 0 0
0.170302 -0.186677 -0.0388694 255 0 0
0.177497 -0.187048 -0.0390125 255 0 0
0.169098 -0.185041 -0.0391077 255 0 0
0.175918 -0.184206 -0.0385956 255 0 0
0.176514 -0.185726 -0.0391242 255 0 0
0.167465 -0.182275 -0.0395978 255 0 0
0.168634 -0.183102 -0.0391987 255 0 0
0.175418 -0.182783 -0.038837 255 0 0
0.166878 -0.180847 -0.0390192 255 0 0
0.162822 -0.17817 -0.0391251 255 0 0
0.164745 -0.179127 -0.0392247 255 0 0
0.166028 -0.179132 -0.0386299 255 0 0
0.161144 -0.176849 -0.0391759 255 0 0
0.163318 -0.17645 -0.0387736 255 0 0
0.164616 -0.177545 -0.0384578 255 0 0
0.159096 -0.174803 -0.0390928 255 0 0
0.16165 -0.175499 -0.0389932 255 0 0
0.164807 -0.174516 -0.0396139 255 0 0
0.157509 -0.17268 -0.038396 255 0 0
0.164454 -0.173055 -0.0395308 255 0 0
0.156747 -0.171242 -0.0390368 255 0 0
0.161943 -0.170576 -0.03954 255 0 0
0.163174 -0.171033 -0.0396694 255 0 0
0.1641 -0.171594 -0.0394478 255 0 0
0.15539 -0.169118 -0.0393947 255 0 0
0.159451 -0.168115 -0.0395502 255 0 0
0.160695 -0.169343 -0.0395448 255 0 0
0.151303 -0.166531 -0.0389709 255 0 0
0.153076 -0.167324 -0.0386088 255 0 0
0.157328 -0.167116 -0.0396431 255 0 0
0.158499 -0.166876 -0.0387709 255 0 0
0.160326 -0.167979 -0.0383267 255 0 0
0.15112 -0.164522 -0.0392003 255 0 0
0.152429 -0.165706 -0.0380004 255 0 0
0.154872 -0.164683 -0.0396549 255 0 0
0.156856 -0.165252 -0.0387802 255 0 0
0.144986 -0.162791 -0.0399439 255 0 0
0.146392 -0.162444 -0.0394285 255 0 0
0.149928 -0.16241 -0.0385263 255 0 0
0.15089 -0.162805 -0.0393016 255 0 0
0.153041 -0.162919 -0.0391023 255 0 0
0.154811 -0.16323 -0.0387925 255 0 0
0.143057 -0.160361 -0.0393645 255 0 0
0.145071 -0.161312 -0.0392671 255 0 0
0.147461 -0.160673 -0.0388312 255 0 0
0.148773 -0.161065 -0.038979 255 0 0
0.150649 -0.161289 -0.0389862 255 0 0
0.152663 -0.160812 -0.0380314 255 0 0
0.140888 -0.158714 -0.0394228 255 0 0
0.14314 -0.158887 -0.0386905 255 0 0
0.144846 -0.159183 -0.0383822 255 0 0
0.146921 -0.159164 -0.0387615 255 0 0
0.148736 -0.159026 -0.0386556 255 0 0
0.138602 -0.157134 -0.0393139 255 0 0
0.140837 -0.157303 -0.0385833 255 0 0
0.142528 -0.157592 -0.0382748 255 0 0
0.145066 -0.157036 -0.0390337 255 0 0
0.147631 -0.156572 -0.0390119 255 0 0
0.148229 -0.157884 -0.0395259 255 0 0
0.133795 -0.154016 -0.0398555 255 0 0
0.135487 -0.155049 -0.0394236 255 0 0
0.137017 -0.15539 -0.0389519 255 0 0
0.138554 -0.15573 -0.0384777 255 0 0
0.143143 -0.155123 -0.0389579 255 0 0
0.145436 -0.155469 -0.0386176 255 0 0
0.133203 -0.152745 -0.0394456 255 0 0
0.13434 -0.153257 -0.0384768 255 0 0
0.140864 -0.152531 -0.0396359 255 0 0
0.142017 -0.153821 -0.0384136 255 0 0
0.131327 -0.150877 -0.0391046 255 0 0
0.132361 -0.151597 -0.0387059 255 0 0
0.139748 -0.15124 -0.0390921 255 0 0
0.127359 -0.148548 -0.0399983 255 0 0
0.129022 -0.149142 -0.0389354 255 0 0
0.136703 -0.148883 -0.0392008 255 0 0
0.138638 -0.149957 -0.0385513 255 0 0
0.125964 -0.146171 -0.0388615 255 0 0
0.127077 -0.147298 -0.0388485 255 0 0
0.134694 -0.146295 -0.0391404 255 0 0
0.136002 -0.14751 -0.0389446 255 0 0
0.124736 -0.145112 -0.0387124 255 0 0
0.133393 -0.145086 -0.0393352 255 0 0
0.123094 -0.143143 -0.0390081 255 0 0
0.131242 -0.142588 -0.0382705 255 0 0
0.132315 -0.143834 -0.0388014 255 0 0
0.121502 -0.140955 -0.0390429 255 0 0
0.119317 -0.138742 -0.0390728 255 0 0
0.120423 -0.13924 -0.0381205 255 0 0
0.116806 -0.136746 -0.0386193 255 0 0
0.0695524 -0.0720007 -0.038501 255 0 0
0.191549 -0.226745 -0.036711 255 0 0
0.192612 -0.225108 -0.0370142 255 0 0
0.197533 -0.224171 -0.0374884 255 0 0
0.198752 -0.225452 -0.0371135 255 0 0
0.192633 -0.22346 -0.0366985 255 0 0
0.197092 -0.222716 -0.0369903 255 0 0
0.190856 -0.221117 -0.0369203 255 0 0
0.195327 -0.220532 -0.0373234 255 0 0
0.19621 -0.221348 -0.0363967 255 0 0
0.191111 -0.218627 -0.0364667 255 0 0
0.194887 -0.21908 -0.0368256 255 0 0
0.189788 -0.21716 -0.0377842 255 0 0
0.191392 -0.216283 -0.03789 255 0 0
0.193131 -0.216907 -0.0371593 255 0 0
0.194009 -0.217717 -0.036234 255 0 0
0.199362 -0.21623 -0.0361836 255 0 0
0.200101 -0.2177 -0.0366354 255 0 0
0.202918 -0.216513 -0.0364794 255 0 0
0.188425 -0.215574 -0.0371923 255 0 0
0.190524 -0.214931 -0.0373005 255 0 0
0.192479 -0.216 -0.0360589 255 0 0
0.199746 -0.21463 -0.0368247 255 0 0
0.201325 -0.21517 -0.0364666 255 0 0
0.188961 -0.213161 -0.0374326 255 0 0
0.199218 -0.213135 -0.0365128 255 0 0
0.186942 -0.211154 -0.0366914 255 0 0
0.188691 -0.210649 -0.0370869 255 0 0
0.197125 -0.211112 -0.0365589 255 0 0
0.185056 -0.209058 -0.0366417 255 0 0
0.18911 -0.208949 -0.0366202 255 0 0
0.194787 -0.209141 -0.0365399 255 0 0
0.183778 -0.207331 -0.0365152 255 0 0
0.189294 -0.20731 -0.0369547 255 0 0
0.192466 -0.207184 -0.0365212 255 0 0
0.182801 -0.205032 -0.0370082 255 0 0
0.18983 -0.204827 -0.0376138 255 0 0
0.190953 -0.205243 -0.0365642 255 0 0
0.181003 -0.202949 -0.0373142 255 0 0
0.182361 -0.203078 -0.0360465 255 0 0
0.187587 -0.202554 -0.0377137 255 0 0
0.189225 -0.202718 -0.0367036 255 0 0
0.190659 -0.203854 -0.0363263 255 0 0
0.177574 -0.200299 -0.0373212 255 0 0
0.179438 -0.201838 -0.0375874 255 0 0
0.180037 -0.200635 -0.0367865 255 0 0
0.187111 -0.201064 -0.03687 255 0 0
0.174496 -0.198112 -0.0378642 255 0 0
0.176943 -0.198933 -0.0367897 255 0 0
0.180832 -0.198285 -0.0371071 255 0 0
0.183396 -0.19967 -0.0375118 255 0 0
0.184976 -0.199329 -0.0369611 255 0 0
0.173279 -0.196926 -0.0371973 255 0 0
0.175511 -0.197795 -0.036077 255 0 0
0.177345 -0.19708 -0.0379793 255 0 0
0.178296 -0.196915 -0.0367088 255 0 0
0.183858 -0.196388 -0.0373174 255 0 0
0.18486 -0.197735 -0.0372027 255 0 0
0.170944 -0.194554 -0.0368977 255 0 0
0.172065 -0.195744 -0.0365345 255 0 0
0.174752 -0.19409 -0.0368228 255 0 0
0.176518 -0.195497 -0.0367654 255 0 0
0.182859 -0.195044 -0.0374319 255 0 0
0.170106 -0.192767 -0.0368665 255 0 0
0.174426 -0.192516 -0.0368484 255 0 0
0.181298 -0.192716 -0.0371496 255 0 0
0.16927 -0.190979 -0.036835 255 0 0
0.173621 -0.190989 -0.0365741 255 0 0
0.179681 -0.190839 -0.0362294 255 0 0
0.180366 -0.190937 -0.0379024 255 0 0
0.169399 -0.188884 -0.0370318 255 0 0
0.172403 -0.189025 -0.0373494 255 0 0
0.17918 -0.189411 -0.0364713 255 0 0
0.16944 -0.187328 -0.0376727 255 0 0
0.171233 -0.186502 -0.0376119 255 0 0
0.17233 -0.187111 -0.0363389 255 0 0
0.177692 -0.186657 -0.0368279 255 0 0
0.178679 -0.187983 -0.0367132 255 0 0
0.169657 -0.184659 -0.0374297 255 0 0
0.170929 -0.185131 -0.0367673 255 0 0
0.174419 -0.184411 -0.0369096 255 0 0
0.176707 -0.185334 -0.0369423 255 0 0
0.169201 -0.182726 -0.0374903 255 0 0
0.170804 -0.183136 -0.0367512 255 0 0
0.174899 -0.182656 -0.0371802 255 0 0
0.176207 -0.183909 -0.0371838 255 0 0
0.16878 -0.181075 -0.0370285 255 0 0
0.171192 -0.181611 -0.0364282 255 0 0
0.173282 -0.181308 -0.0366596 255 0 0
0.174533 -0.180976 -0.0360002 255 0 0
0.165814 -0.178157 -0.0376532 255 0 0
0.166773 -0.179233 -0.0370589 255 0 0
0.172199 -0.178562 -0.0368714 255 0 0
0.17413 -0.179648 -0.0370106 255 0 0
0.163365 -0.176961 -0.0371904 255 0 0
0.164654 -0.177302 -0.0369397 255 0 0
0.171252 -0.176779 -0.0373622 255 0 0
0.160826 -0.17526 -0.0373749 255 0 0
0.162977 -0.174962 -0.0362267 255 0 0
0.169666 -0.174448 -0.0365738 255 0 0
0.170635 -0.175747 -0.0364596 255 0 0
0.159008 -0.172777 -0.0368596 255 0 0
0.16068 -0.173701 -0.0367267 255 0 0
0.155832 -0.17043 -0.0371579 255 0 0
0.157093 -0.171064 -0.0364862 255 0 0
0.153685 -0.168162 -0.037874 255 0 0
0.155404 -0.169059 -0.0371352 255 0 0
0.156443 -0.169656 -0.036345 255 0 0
0.153144 -0.166957 -0.0371271 255 0 0
0.154622 -0.167786 -0.0361252 255 0 0
0.159673 -0.166635 -0.0378969 255 0 0
0.151009 -0.164537 -0.0371948 255 0 0
0.152285 -0.165677 -0.0364799 255 0 0
0.157202 -0.164199 -0.0379138 255 0 0
0.159021 -0.165294 -0.0374683 255 0 0
0.150198 -0.162873 -0.0370218 255 0 0
0.156852 -0.162755 -0.037832 255 0 0
0.158196 -0.163233 -0.0369999 255 0 0
0.148837 -0.160863 -0.0368863 255 0 0
0.154575 -0.16106 -0.0378909 255 0 0
0.156939 -0.161243 -0.037141 255 0 0
0.146622 -0.158504 -0.037661 255 0 0
0.149153 -0.158981 -0.0371965 255 0 0
0.150956 -0.159325 -0.0371873 255 0 0
0.15376 -0.159016 -0.0374251 255 0 0
0.141917 -0.1563 -0.0378602 255 0 0
0.143922 -0.157235 -0.0377574 255 0 0
0.145356 -0.156757 -0.0372948 255 0 0
0.147298 -0.156958 -0.0372446 255 0 0
0.148547 -0.157099 -0.0369157 255 0 0
0.137691 -0.154566 -0.0377337 255 0 0
0.139625 -0.154729 -0.0377571 255 0 0
0.141576 -0.154893 -0.0377813 255 0 0
0.143137 -0.15517 -0.037254 255 0 0
0.144701 -0.155138 -0.0366162 255 0 0
0.146109 -0.155215 -0.0363005 255 0 0
0.135436 -0.153015 -0.0376339 255 0 0
0.136794 -0.152653 -0.0371198 255 0 0
0.139146 -0.152902 -0.0368489 255 0 0
0.140747 -0.152816 -0.0371055 255 0 0
0.142463 -0.153559 -0.0367778 255 0 0
0.133158 -0.150722 -0.0376619 255 0 0
0.135222 -0.150928 -0.0367655 255 0 0
0.137698 -0.150206 -0.0362809 255 0 0
0.138711 -0.151523 -0.0367016 255 0 0
0.141055 -0.151139 -0.0365566 255 0 0
0.129027 -0.148307 -0.0376715 255 0 0
0.130522 -0.148629 -0.0371998 255 0 0
0.133114 -0.149126 -0.0365181 255 0 0
0.135304 -0.149477 -0.0361015 255 0 0
0.136741 -0.148884 -0.0374532 255 0 0
0.139112 -0.148998 -0.0362602 255 0 0
0.126795 -0.146052 -0.037702 255 0 0
0.128987 -0.146933 -0.0368508 255 0 0
0.134952 -0.14625 -0.0366691 255 0 0
0.136042 -0.147513 -0.0371996 255 0 0
0.12598 -0.144934 -0.0369769 255 0 0
0.12746 -0.145248 -0.0365055 255 0 0
0.133847 -0.144991 -0.0370087 255 0 0
0.123772 -0.142702 -0.0370109 255 0 0
0.124994 -0.143752 -0.0371555 255 0 0
0.131672 -0.14249 -0.0368188 255 0 0
0.132746 -0.143735 -0.0373459 255 0 0
0.121812 -0.140353 -0.0373674 255 0 0
0.12274 -0.141097 -0.0368651 255 0 0
0.129114 -0.140116 -0.0372172 255 0 0
0.13039 -0.1413 -0.0370184 255 0 0
0.11963 -0.138147 -0.0374018 255 0 0
0.121016 -0.139257 -0.0366495 255 0 0
0.128435 -0.138775 -0.0369684 255 0 0
0.117011 -0.136226 -0.0367988 255 0 0
0.118317 -0.137183 -0.0370997 255 0 0
0.127382 -0.137553 -0.0364473 255 0 0
0.114919 -0.134793 -0.0367164 255 0 0
0.104992 -0.126026 -0.0371837 255 0 0
0.105028 -0.125455 -0.0362756 255 0 0
0.10302 -0.123494 -0.0367252 255 0 0
0.0993545 -0.120914 -0.037692 255 0 0
0.101265 -0.121004 -0.0369073 255 0 0
0.0989781 -0.119113 -0.0365653 255 0 0
0.100231 -0.119189 -0.0371245 255 0 0
0.0691794 -0.0748208 -0.0360845 255 0 0
0.0689627 -0.0728499 -0.0364939 255 0 0
0.0687459 -0.0708785 -0.0369035 255 0 0
0.0685291 -0.0689064 -0.0373132 255 0 0
0.191216 -0.22667 -0.0354193 255 0 0
0.202225 -0.226771 -0.0345576 255 0 0
0.192393 -0.224933 -0.0344592 255 0 0
0.200955 -0.225146 -0.0349555 255 0 0
0.19206 -0.223325 -0.0344846 255 0 0
0.197095 -0.222165 -0.0354682 255 0 0
0.198536 -0.223401 -0.035137 255 0 0
0.190808 -0.220985 -0.0350162 255 0 0
0.196875 -0.220666 -0.0350157 255 0 0
0.190544 -0.218507 -0.0342563 255 0 0
0.19489 -0.218529 -0.0353069 255 0 0
0.196212 -0.219254 -0.0344703 255 0 0
0.204289 -0.219191 -0.0345124 255 0 0
0.189226 -0.217045 -0.0355719 255 0 0
0.193356 -0.216808 -0.0351336 255 0 0
0.194671 -0.217527 -0.0342983 255 0 0
0.199518 -0.216158 -0.0341895 255 0 0
0.200678 -0.217059 -0.0345673 255 0 0
0.20269 -0.217839 -0.0345048 255 0 0
0.187869 -0.215465 -0.0349884 255 0 0
0.190964 -0.214787 -0.0353302 255 0 0
0.192705 -0.215902 -0.0340359 255 0 0
0.199528 -0.214608 -0.0344621 255 0 0
0.200052 -0.215092 -0.0346177 255 0 0
0.189005 -0.213015 -0.0350313 255 0 0
0.197963 -0.212297 -0.0348577 255 0 0
0.198633 -0.213474 -0.0351916 255 0 0
0.187165 -0.211058 -0.0346864 255 0 0
0.189916 -0.21043 -0.0349929 255 0 0
0.196397 -0.210976 -0.0348495 255 0 0
0.185798 -0.208316 -0.0342808 255 0 0
0.186014 -0.209305 -0.0352758 255 0 0
0.190101 -0.208794 -0.0353248 255 0 0
0.193291 -0.208356 -0.0348332 255 0 0
0.19484 -0.209663 -0.0348413 255 0 0
0.184833 -0.207029 -0.0346996 255 0 0
0.191137 -0.207071 -0.03484 255 0 0
0.183869 -0.205746 -0.0351189 255 0 0
0.184485 -0.204545 -0.0343064 255 0 0
0.189712 -0.204319 -0.035062 255 0 0
0.1911 -0.205515 -0.0348168 255 0 0
0.181733 -0.202199 -0.0349629 255 0 0
0.183314 -0.203314 -0.03468 255 0 0
0.188973 -0.2026 -0.0345907 255 0 0
0.191134 -0.203722 -0.0347152 255 0 0
0.181161 -0.200983 -0.0349411 255 0 0
0.185671 -0.200407 -0.0351627 255 0 0
0.187547 -0.201211 -0.0351584 255 0 0
0.177146 -0.198341 -0.0353546 255 0 0
0.179714 -0.199157 -0.0353024 255 0 0
0.182246 -0.198084 -0.0359449 255 0 0
0.184668 -0.199058 -0.0352799 255 0 0
0.187066 -0.199167 -0.0348653 255 0 0
0.173282 -0.196394 -0.0357278 255 0 0
0.1749 -0.196933 -0.0350072 255 0 0
0.176932 -0.197362 -0.0343709 255 0 0
0.179835 -0.196679 -0.0352497 255 0 0
0.183168 -0.19704 -0.0354551 255 0 0
0.186221 -0.197593 -0.0345859 255 0 0
0.171853 -0.194774 -0.0355613 255 0 0
0.173069 -0.195423 -0.0347523 255 0 0
0.175084 -0.195843 -0.0341168 255 0 0
0.177941 -0.195247 -0.0348609 255 0 0
0.178614 -0.195145 -0.0341896 255 0 0
0.182168 -0.194938 -0.0357558 255 0 0
0.171231 -0.193424 -0.0350366 255 0 0
0.175531 -0.193134 -0.0355704 255 0 0
0.176719 -0.192942 -0.0344514 255 0 0
0.179986 -0.192071 -0.0344446 255 0 0
0.18083 -0.193549 -0.0350375 255 0 0
0.170586 -0.191574 -0.0350501 255 0 0
0.175514 -0.190683 -0.0349745 255 0 0
0.179486 -0.190644 -0.0346862 255 0 0
0.170719 -0.189476 -0.0352425 255 0 0
0.175188 -0.189106 -0.035001 255 0 0
0.178498 -0.189315 -0.0348034 255 0 0
0.171181 -0.187083 -0.035018 255 0 0
0.174861 -0.187528 -0.0350264 255 0 0
0.177747 -0.187177 -0.0351654 255 0 0
0.171293 -0.185135 -0.0346859 255 0 0
0.174636 -0.185955 -0.0355 255 0 0
0.176513 -0.185142 -0.0354024 255 0 0
0.170838 -0.183199 -0.0347448 255 0 0
0.175176 -0.18225 -0.0350533 255 0 0
0.176013 -0.183717 -0.0356435 255 0 0
0.16923 -0.180539 -0.0349798 255 0 0
0.170097 -0.181882 -0.0352047 255 0 0
0.17386 -0.180895 -0.0343393 255 0 0
0.167039 -0.17876 -0.0355003 255 0 0
0.168657 -0.17873 -0.0352909 255 0 0
0.171301 -0.178763 -0.0346783 255 0 0
0.172672 -0.179661 -0.0344892 255 0 0
0.16512 -0.176206 -0.035513 255 0 0
0.166541 -0.17727 -0.0350699 255 0 0
0.170468 -0.177089 -0.0345667 255 0 0
0.163977 -0.174625 -0.0355333 255 0 0
0.165152 -0.174714 -0.0346877 255 0 0
0.166613 -0.175812 -0.0344593 255 0 0
0.169501 -0.175791 -0.034683 255 0 0
0.16125 -0.173088 -0.035769 255 0 0
0.162885 -0.173025 -0.0347058 255 0 0
0.158991 -0.170776 -0.0352273 255 0 0
0.161212 -0.171472 -0.0346653 255 0 0
0.155513 -0.168327 -0.0355609 255 0 0
0.157086 -0.16905 -0.0350188 255 0 0
0.158664 -0.1692 -0.034171 255 0 0
0.153555 -0.166136 -0.0350429 255 0 0
0.154856 -0.166953 -0.0347716 255 0 0
0.151229 -0.164885 -0.0352456 255 0 0
0.152578 -0.165049 -0.0346866 255 0 0
0.150817 -0.162845 -0.0348849 255 0 0
0.149399 -0.161349 -0.0351638 255 0 0
0.151041 -0.161057 -0.0344852 255 0 0
0.147334 -0.158564 -0.0354876 255 0 0
0.148322 -0.159465 -0.0349768 255 0 0
0.150536 -0.158939 -0.0348916 255 0 0
0.145338 -0.156957 -0.0347468 255 0 0
0.146676 -0.15705 -0.0348253 255 0 0
0.143861 -0.15465 -0.0358919 255 0 0
0.144787 -0.155106 -0.0348498 255 0 0
0.147519 -0.15485 -0.0357766 255 0 0
0.148969 -0.155254 -0.0351231 255 0 0
0.139577 -0.152491 -0.0351491 255 0 0
0.14177 -0.152319 -0.034918 255 0 0
0.143126 -0.153104 -0.0356021 255 0 0
0.145181 -0.153272 -0.0356784 255 0 0
0.146791 -0.153158 -0.0346018 255 0 0
0.137564 -0.150323 -0.0351348 255 0 0
0.139049 -0.151324 -0.0349023 255 0 0
0.143009 -0.150684 -0.0352436 255 0 0
0.14482 -0.151211 -0.0346294 255 0 0
0.134711 -0.148212 -0.0356961 255 0 0
0.137057 -0.148883 -0.035516 255 0 0
0.141352 -0.149139 -0.0355183 255 0 0
0.14303 -0.148764 -0.0342356 255 0 0
0.145041 -0.149673 -0.0341207 255 0 0
0.131161 -0.146901 -0.035449 255 0 0
0.132776 -0.147323 -0.0358078 255 0 0
0.135247 -0.146432 -0.0354189 255 0 0
0.136528 -0.1475 -0.0357859 255 0 0
0.139157 -0.146769 -0.0357161 255 0 0
0.140816 -0.147348 -0.0349391 255 0 0
0.142688 -0.147355 -0.0341563 255 0 0
0.12788 -0.14457 -0.0349866 255 0 0
0.12895 -0.144941 -0.0350901 255 0 0
0.130564 -0.145191 -0.0347749 255 0 0
0.133488 -0.144934 -0.0350124 255 0 0
0.134844 -0.144976 -0.0348543 255 0 0
0.137306 -0.145181 -0.035034 255 0 0
0.138675 -0.144799 -0.0345123 255 0 0
0.140353 -0.145052 -0.0341927 255 0 0
0.125131 -0.142462 -0.0354422 255 0 0
0.126757 -0.142998 -0.0347352 255 0 0
0.12862 -0.142952 -0.0340747 255 0 0
0.131718 -0.142502 -0.0350947 255 0 0
0.133005 -0.143696 -0.0348908 255 0 0
0.134499 -0.143166 -0.034416 255 0 0
0.136408 -0.143282 -0.0344242 255 0 0
0.123463 -0.14012 -0.0350667 255 0 0
0.124443 -0.141293 -0.0348867 255 0 0
0.129542 -0.140019 -0.0357729 255 0 0
0.130651 -0.141265 -0.0345756 255 0 0
0.121036 -0.138452 -0.035409 255 0 0
0.122897 -0.138892 -0.0346723 255 0 0
0.129416 -0.139301 -0.0349277 255 0 0
0.11783 -0.136112 -0.0356576 255 0 0
0.119434 -0.137079 -0.0352244 255 0 0
0.120484 -0.13683 -0.0343981 255 0 0
0.127809 -0.137458 -0.0350085 255 0 0
0.115016 -0.13435 -0.0347552 255 0 0
0.116418 -0.135228 -0.0352047 255 0 0
0.119287 -0.135805 -0.0342621 255 0 0
0.112947 -0.132934 -0.0346823 255 0 0
0.105268 -0.124738 -0.0356794 255 0 0
0.106396 -0.125956 -0.0346323 255 0 0
0.103205 -0.12264 -0.0357259 255 0 0
0.104272 -0.123121 -0.0347993 255 0 0
0.101957 -0.120449 -0.0346595 255 0 0
0.102681 -0.121468 -0.0353456 255 0 0
0.0999182 -0.118377 -0.0347104 255 0 0
0.100635 -0.119388 -0.035394 255 0 0
0.0986968 -0.116899 -0.0349485 255 0 0
0.0688393 -0.0748558 -0.0344173 255 0 0
0.0687826 -0.0728155 -0.0349194 255 0 0
0.0684071 -0.070924 -0.0352337 255 0 0
0.0675562 -0.0692625 -0.0352658 255 0 0
0.190466 -0.228116 -0.0328972 255 0 0
0.194576 -0.228022 -0.0334183 255 0 0
0.191167 -0.226528 -0.0335242 255 0 0
0.192673 -0.226399 -0.0325356 255 0 0
0.195574 -0.22789 -0.0321201 255 0 0
0.202228 -0.226215 -0.0330235 255 0 0
0.191822 -0.224793 -0.0322599 255 0 0
0.201109 -0.224377 -0.032944 255 0 0
0.202008 -0.225204 -0.0320047 255 0 0
0.19253 -0.223188 -0.0328877 255 0 0
0.199992 -0.222543 -0.0328647 255 0 0
0.200212 -0.223552 -0.0338814 255 0 0
0.190409 -0.221658 -0.032805 255 0 0
0.197099 -0.22007 -0.0335384 255 0 0
0.198542 -0.221304 -0.0332022 255 0 0
0.205145 -0.220396 -0.032792 255 0 0
0.190921 -0.219178 -0.0324982 255 0 0
0.195554 -0.21834 -0.0333683 255 0 0
0.19688 -0.219065 -0.0325263 255 0 0
0.201522 -0.218973 -0.0334551 255 0 0
0.204084 -0.218979 -0.0329153 255 0 0
0.189181 -0.216921 -0.0336757 255 0 0
0.194676 -0.216978 -0.0327787 255 0 0
0.201149 -0.21691 -0.0328865 255 0 0
0.188337 -0.215332 -0.0333992 255 0 0
0.191403 -0.214642 -0.0333587 255 0 0
0.19293 -0.215804 -0.0320137 255 0 0
0.199848 -0.214883 -0.0330311 255 0 0
0.200431 -0.214451 -0.0331919 255 0 0
0.188901 -0.213134 -0.0328263 255 0 0
0.190108 -0.213388 -0.0326847 255 0 0
0.197233 -0.21216 -0.0331494 255 0 0
0.198479 -0.213346 -0.0329358 255 0 0
0.187206 -0.210499 -0.0328522 255 0 0
0.189244 -0.211351 -0.0327606 255 0 0
0.195671 -0.210841 -0.0331457 255 0 0
0.18676 -0.208563 -0.0329085 255 0 0
0.190574 -0.208661 -0.0337215 255 0 0
0.192574 -0.208226 -0.0331385 255 0 0
0.194118 -0.20953 -0.0331421 255 0 0
0.186001 -0.207223 -0.0333749 255 0 0
0.191132 -0.206883 -0.0327018 255 0 0
0.185763 -0.205229 -0.033477 255 0 0
0.187047 -0.205917 -0.0326438 255 0 0
0.188497 -0.204276 -0.0332517 255 0 0
0.19072 -0.205401 -0.0330154 255 0 0
0.185625 -0.202677 -0.0331236 255 0 0
0.187148 -0.203415 -0.0330583 255 0 0
0.191086 -0.203621 -0.0328007 255 0 0
0.181714 -0.200114 -0.0330682 255 0 0
0.183395 -0.200674 -0.0323261 255 0 0
0.184827 -0.201192 -0.0333812 255 0 0
0.189141 -0.200514 -0.0330457 255 0 0
0.190751 -0.202 -0.0328259 255 0 0
0.177368 -0.198249 -0.0333745 255 0 0
0.180731 -0.199009 -0.0329571 255 0 0
0.183477 -0.199031 -0.0334829 255 0 0
0.188548 -0.198916 -0.0329196 255 0 0
0.175519 -0.196728 -0.0331237 255 0 0
0.177556 -0.197155 -0.0324779 255 0 0
0.181391 -0.196252 -0.0329508 255 0 0
0.182481 -0.197689 -0.0336017 255 0 0
0.187205 -0.197425 -0.0332911 255 0 0
0.172681 -0.195008 -0.0331953 255 0 0
0.174908 -0.195867 -0.0320574 255 0 0
0.179813 -0.19491 -0.0321783 255 0 0
0.180987 -0.194924 -0.0339616 255 0 0
0.171256 -0.193393 -0.0330345 255 0 0
0.177528 -0.192804 -0.0334807 255 0 0
0.179065 -0.192777 -0.0325392 255 0 0
0.171957 -0.190619 -0.0338906 255 0 0
0.172481 -0.190955 -0.0324541 255 0 0
0.176655 -0.19049 -0.0336702 255 0 0
0.178316 -0.190643 -0.0329002 255 0 0
0.171701 -0.188634 -0.0339918 255 0 0
0.172423 -0.188907 -0.0325961 255 0 0
0.175843 -0.188961 -0.0333991 255 0 0
0.177817 -0.18922 -0.0331409 255 0 0
0.172561 -0.186787 -0.0327824 255 0 0
0.176713 -0.187166 -0.0335749 255 0 0
0.172106 -0.184851 -0.0328387 255 0 0
0.175499 -0.185009 -0.0329125 255 0 0
0.171651 -0.182911 -0.0328952 255 0 0
0.17321 -0.18234 -0.0323236 255 0 0
0.174521 -0.183694 -0.0330314 255 0 0
0.169277 -0.180056 -0.0331503 255 0 0
0.170604 -0.181169 -0.0328204 255 0 0
0.172238 -0.181033 -0.0324428 255 0 0
0.168714 -0.178853 -0.0331286 255 0 0
0.170917 -0.178802 -0.0330079 255 0 0
0.167306 -0.177079 -0.0334916 255 0 0
0.169343 -0.177037 -0.032967 255 0 0
0.165476 -0.175117 -0.0337816 255 0 0
0.167116 -0.175249 -0.0327956 255 0 0
0.168647 -0.175433 -0.0328329 255 0 0
0.163344 -0.172608 -0.0331124 255 0 0
0.165072 -0.172927 -0.0329575 255 0 0
0.166333 -0.173739 -0.0320327 255 0 0
0.1686 -0.173804 -0.032264 255 0 0
0.160844 -0.171031 -0.0325912 255 0 0
0.162938 -0.171239 -0.0332947 255 0 0
0.164097 -0.171412 -0.0327793 255 0 0
0.157273 -0.169603 -0.0322017 255 0 0
0.158881 -0.168894 -0.0332263 255 0 0
0.160458 -0.16913 -0.0327334 255 0 0
0.162311 -0.169986 -0.0325338 255 0 0
0.154992 -0.166597 -0.0333228 255 0 0
0.156838 -0.167127 -0.0329833 255 0 0
0.158796 -0.167554 -0.0326746 255 0 0
0.151619 -0.165406 -0.0335577 255 0 0
0.15262 -0.164817 -0.0326877 255 0 0
0.154711 -0.165366 -0.0329533 255 0 0
0.15138 -0.163195 -0.0330795 255 0 0
0.153019 -0.163942 -0.0332199 255 0 0
0.154328 -0.163663 -0.0322785 255 0 0
0.149662 -0.160822 -0.0332258 255 0 0
0.150983 -0.161028 -0.0327182 255 0 0
0.147612 -0.158583 -0.0332882 255 0 0
0.148714 -0.159307 -0.033105 255 0 0
0.150359 -0.159094 -0.0330008 255 0 0
0.145208 -0.156197 -0.0329966 255 0 0
0.147007 -0.15711 -0.0329615 255 0 0
0.149116 -0.156762 -0.032908 255 0 0
0.150575 -0.157703 -0.0322291 255 0 0
0.143639 -0.154998 -0.0339466 255 0 0
0.144633 -0.154781 -0.0326134 255 0 0
0.1463 -0.155666 -0.0324067 255 0 0
0.141801 -0.152314 -0.033166 255 0 0
0.143021 -0.153093 -0.0330819 255 0 0
0.144556 -0.152304 -0.0338071 255 0 0
0.14651 -0.152813 -0.03338 255 0 0
0.137864 -0.150213 -0.0330404 255 0 0
0.139146 -0.150864 -0.03302 255 0 0
0.14069 -0.151459 -0.0330473 255 0 0
0.1439 -0.150777 -0.0325742 255 0 0
0.144793 -0.151992 -0.0324597 255 0 0
0.146788 -0.150713 -0.0336729 255 0 0
0.132638 -0.148651 -0.0330227 255 0 0
0.13524 -0.1489 -0.0330757 255 0 0
0.137435 -0.149082 -0.0328767 255 0 0
0.143187 -0.148743 -0.0329178 255 0 0
0.144425 -0.148386 -0.0337094 255 0 0
0.146445 -0.149296 -0.0335929 255 0 0
0.131214 -0.147291 -0.0334643 255 0 0
0.132436 -0.147729 -0.0321036 255 0 0
0.135033 -0.146261 -0.0332064 255 0 0
0.136336 -0.147469 -0.0329977 255 0 0
0.143243 -0.146341 -0.0328325 255 0 0
0.145483 -0.146591 -0.0331011 255 0 0
0.146101 -0.147879 -0.0335129 255 0 0
0.129164 -0.144724 -0.0330796 255 0 0
0.130145 -0.145777 -0.0327285 255 0 0
0.134341 -0.144903 -0.0329599 255 0 0
0.141468 -0.144798 -0.0333379 255 0 0
0.143027 -0.145117 -0.0328501 255 0 0
0.144866 -0.145307 -0.0326904 255 0 0
0.127057 -0.14326 -0.0322786 255 0 0
0.129941 -0.142574 -0.0335582 255 0 0
0.131215 -0.143152 -0.0334782 255 0 0
0.132705 -0.14303 -0.0330454 255 0 0
