ply
format ascii 1.0
element vertex 1242
property float x
property float y
property float z
property uchar diffuse_red
property uchar diffuse_green
property uchar diffuse_blue
end_header
0.0752669 -0.0567902 -0.00709442 255 0 0
0.0774835 -0.0567887 -0.00740855 255 0 0
0.0792477 -0.0575951 -0.00748179 255 0 0
0.0808942 -0.0570262 -0.00693324 255 0 0
0.0822678 -0.0576747 -0.00664612 255 0 0
0.0591938 -0.0552384 -0.00691382 255 0 0
0.0690046 -0.0551078 -0.00688169 255 0 0
0.0727177 -0.0543396 -0.00731623 255 0 0
0.075009 -0.0550706 -0.0071657 255 0 0
0.0769912 -0.0556138 -0.00734217 255 0 0
0.07848 -0.0558734 -0.00673169 255 0 0
0.0815817 -0.0558037 -0.00680596 255 0 0
0.0673712 -0.0524679 -0.00723622 255 0 0
0.0688556 -0.0531956 -0.00700999 255 0 0
0.0711267 -0.053596 -0.00755956 255 0 0
0.0656177 -0.0513654 -0.00720736 255 0 0
0.0666781 -0.0513821 -0.00682774 255 0 0
0.0639338 -0.048866 -0.00677153 255 0 0
0.0646062 -0.0498642 -0.00694554 255 0 0
0.0667359 -0.048948 -0.00720092 255 0 0
0.0668552 -0.0471039 -0.00685524 255 0 0
0.0672589 -0.0449974 -0.00655695 255 0 0
0.0681763 -0.0417526 -0.00708806 255 0 0
0.068734 -0.0394725 -0.0068137 255 0 0
0.0693087 -0.0373096 -0.00716373 255 0 0
0.06973 -0.0351238 -0.00686197 255 0 0
0.236755 -0.204167 -0.00486707 255 0 0
0.231187 -0.203422 -0.00517368 255 0 0
0.236762 -0.202644 -0.00511837 255 0 0
0.231936 -0.201763 -0.00502744 255 0 0
0.23269 -0.200096 -0.00488068 255 0 0
0.231088 -0.198784 -0.00480339 255 0 0
0.235981 -0.199466 -0.00442222 255 0 0
0.217538 -0.196027 -0.00523911 255 0 0
0.228306 -0.196117 -0.00497825 255 0 0
0.235706 -0.197173 -0.00467788 255 0 0
0.216412 -0.194599 -0.00538293 255 0 0
0.218874 -0.195347 -0.00487454 255 0 0
0.227121 -0.194757 -0.00522917 255 0 0
0.235999 -0.19485 -0.00517732 255 0 0
0.214843 -0.193057 -0.00569197 255 0 0
0.216383 -0.192961 -0.00463587 255 0 0
0.218251 -0.193982 -0.00436285 255 0 0
0.220202 -0.192842 -0.004861 255 0 0
0.236576 -0.193274 -0.0056759 255 0 0
0.211908 -0.190557 -0.00568418 255 0 0
0.21313 -0.191179 -0.00476037 255 0 0
0.214529 -0.191948 -0.00490719 255 0 0
0.23785 -0.19138 -0.00473508 255 0 0
0.210542 -0.189067 -0.00506354 255 0 0
0.218991 -0.189989 -0.00432093 255 0 0
0.238441 -0.188998 -0.00536299 255 0 0
0.208753 -0.187221 -0.00487734 255 0 0
0.221758 -0.187152 -0.00505112 255 0 0
0.223049 -0.186146 -0.00427241 255 0 0
0.239142 -0.187905 -0.00404224 255 0 0
0.240907 -0.186211 -0.00503713 255 0 0
0.206814 -0.185551 -0.00458922 255 0 0
0.209339 -0.184392 -0.00489501 255 0 0
0.221511 -0.18486 -0.00521001 255 0 0
0.223016 -0.184587 -0.00448639 255 0 0
0.240332 -0.184664 -0.00504567 255 0 0
0.205432 -0.1829 -0.00454911 255 0 0
0.209937 -0.182626 -0.00522725 255 0 0
0.105607 -0.0827637 -0.00596897 255 0 0
0.111973 -0.0822702 -0.00576743 255 0 0
0.112811 -0.0833711 -0.00564324 255 0 0
0.104903 -0.0811367 -0.00597241 255 0 0
0.10994 -0.0803072 -0.00596004 255 0 0
0.111503 -0.0809408 -0.00594645 255 0 0
0.103808 -0.0787329 -0.0051033 255 0 0
0.104198 -0.0795082 -0.00597591 255 0 0
0.102789 -0.0774055 -0.00588174 255 0 0
0.0987411 -0.0750898 -0.00506183 255 0 0
0.0984048 -0.0731479 -0.00509499 255 0 0
0.0975294 -0.0709811 -0.00493136 255 0 0
0.0982918 -0.0713553 -0.0040114 255 0 0
0.0948525 -0.0685661 -0.00516765 255 0 0
0.0913056 -0.0666279 -0.00488027 255 0 0
0.0928207 -0.0672932 -0.00503945 255 0 0
0.0947713 -0.0673709 -0.00444999 255 0 0
0.0798819 -0.064093 -0.00524329 255 0 0
0.0811022 -0.0647846 -0.00579847 255 0 0
0.082897 -0.0652794 -0.00521153 255 0 0
0.0891966 -0.0648583 -0.00566525 255 0 0
0.0908312 -0.0649387 -0.0050794 255 0 0
0.061134 -0.0623061 -0.00514434 255 0 0
0.0628788 -0.0625586 -0.00511406 255 0 0
0.077814 -0.062387 -0.00517693 255 0 0
0.0791766 -0.0630581 -0.00506617 255 0 0
0.083803 -0.0624548 -0.00540087 255 0 0
0.0877902 -0.0628161 -0.00481552 255 0 0
0.0888851 -0.0636064 -0.00474673 255 0 0
0.059565 -0.0612767 -0.00490178 255 0 0
0.0602648 -0.0618984 -0.00499414 255 0 0
0.0645378 -0.0615982 -0.0047868 255 0 0
0.0669338 -0.0608903 -0.00537101 255 0 0
0.0690135 -0.060033 -0.00550235 255 0 0
0.076577 -0.0609759 -0.00477279 255 0 0
0.0819878 -0.0602499 -0.00544707 255 0 0
0.0828952 -0.0613512 -0.00542359 255 0 0
0.0859328 -0.0610028 -0.00500341 255 0 0
0.0870196 -0.0617865 -0.00493525 255 0 0
0.0592464 -0.0591905 -0.00542394 255 0 0
0.0625136 -0.0584499 -0.00584987 255 0 0
0.0690725 -0.0593746 -0.00438097 255 0 0
0.0702169 -0.0597059 -0.00499094 255 0 0
0.0752144 -0.0588029 -0.00521981 255 0 0
0.0763711 -0.0589402 -0.00436179 255 0 0
0.0814436 -0.0592473 -0.00490803 255 0 0
0.0830904 -0.0587979 -0.00517365 255 0 0
0.0848413 -0.0592698 -0.00516207 255 0 0
0.0867076 -0.0595206 -0.00461428 255 0 0
0.06107 -0.0565711 -0.00527697 255 0 0
0.0629042 -0.0571818 -0.00482199 255 0 0
0.0649266 -0.0567937 -0.00444255 255 0 0
0.0668475 -0.0569992 -0.00499791 255 0 0
0.06883 -0.0565241 -0.00439497 255 0 0
0.0706373 -0.0564265 -0.0052115 255 0 0
0.072765 -0.0566477 -0.00558721 255 0 0
0.0751065 -0.0572398 -0.00450869 255 0 0
0.0779023 -0.0564069 -0.00518901 255 0 0
0.0790319 -0.0567117 -0.0049972 255 0 0
0.0811332 -0.0567853 -0.00480239 255 0 0
0.0828765 -0.057479 -0.00475285 255 0 0
0.0605751 -0.0556175 -0.00476515 255 0 0
0.0696708 -0.0546527 -0.00538881 255 0 0
0.0709789 -0.0555742 -0.00482622 255 0 0
0.0725432 -0.0555413 -0.00424766 255 0 0
0.0745173 -0.0547887 -0.00522005 255 0 0
0.0767442 -0.0546936 -0.00494165 255 0 0
0.0788104 -0.0548866 -0.00493761 255 0 0
0.0809016 -0.0551884 -0.00515369 255 0 0
0.0824793 -0.0553299 -0.00492255 255 0 0
0.0672131 -0.0523658 -0.00490401 255 0 0
0.0689779 -0.0529044 -0.00478697 255 0 0
0.0713652 -0.0533252 -0.004853 255 0 0
0.0729672 -0.0535791 -0.00488552 255 0 0
0.0744261 -0.0538275 -0.00426872 255 0 0
0.0768608 -0.0534225 -0.00438137 255 0 0
0.0817872 -0.0529297 -0.00412151 255 0 0
0.0653088 -0.0504494 -0.00499454 255 0 0
0.066476 -0.0513655 -0.00509417 255 0 0
0.0641864 -0.0490479 -0.00464606 255 0 0
0.0664879 -0.0495385 -0.00520561 255 0 0
0.0666065 -0.0476974 -0.00485392 255 0 0
0.0670228 -0.045726 -0.00516566 255 0 0
0.0674288 -0.0436079 -0.00486038 255 0 0
0.0684258 -0.0410903 -0.00527436 255 0 0
0.0688415 -0.0389329 -0.00496704 255 0 0
0.0692606 -0.036758 -0.00465676 255 0 0
0.0698413 -0.0345706 -0.00499996 255 0 0
0.232285 -0.203243 -0.00310289 255 0 0
0.236082 -0.202985 -0.00214025 255 0 0
0.233038 -0.201585 -0.00295153 255 0 0
0.235186 -0.200874 -0.00298279 255 0 0
0.231823 -0.198666 -0.00341896 255 0 0
0.233176 -0.199232 -0.00241729 255 0 0
0.235532 -0.199197 -0.00251791 255 0 0
0.229051 -0.196774 -0.00349176 255 0 0
0.230194 -0.197367 -0.00233138 255 0 0
0.235542 -0.196135 -0.00301291 255 0 0
0.236104 -0.197647 -0.00300442 255 0 0
0.217161 -0.194308 -0.00388228 255 0 0
0.218429 -0.195346 -0.00319964 255 0 0
0.220232 -0.19524 -0.00234487 255 0 0
0.236116 -0.19457 -0.00350243 255 0 0
0.215452 -0.192987 -0.00396628 255 0 0
0.216964 -0.192678 -0.00263795 255 0 0
0.218502 -0.193908 -0.00243372 255 0 0
0.220545 -0.192796 -0.0031816 255 0 0
0.236752 -0.192857 -0.00315747 255 0 0
0.213637 -0.190178 -0.00287806 255 0 0
0.214975 -0.191227 -0.00280778 255 0 0
0.237965 -0.191105 -0.00305116 255 0 0
0.209977 -0.188183 -0.00342986 255 0 0
0.21142 -0.18876 -0.00267927 255 0 0
0.212444 -0.18949 -0.00373702 255 0 0
0.21453 -0.189733 -0.00281737 255 0 0
0.219712 -0.189876 -0.00296277 255 0 0
0.239188 -0.18934 -0.00294561 255 0 0
0.20752 -0.186386 -0.00266203 255 0 0
0.209534 -0.187305 -0.00242223 255 0 0
0.210571 -0.187244 -0.00293071 255 0 0
0.239256 -0.187635 -0.00235213 255 0 0
0.205744 -0.184371 -0.00301006 255 0 0
0.20634 -0.18521 -0.00304893 255 0 0
0.210032 -0.185721 -0.00313669 255 0 0
0.224169 -0.185954 -0.00322197 255 0 0
0.240732 -0.18517 -0.00333902 255 0 0
0.242306 -0.185594 -0.00212432 255 0 0
0.205148 -0.183534 -0.00297227 255 0 0
0.21151 -0.182947 -0.00368987 255 0 0
0.212517 -0.183395 -0.00208052 255 0 0
0.213713 -0.181484 -0.00246732 255 0 0
0.216096 -0.179297 -0.00297961 255 0 0
0.0934409 -0.0680665 -0.00294538 255 0 0
0.0886239 -0.0666066 -0.00362051 255 0 0
0.092655 -0.0670203 -0.00306835 255 0 0
0.0797774 -0.0651004 -0.00344948 255 0 0
0.0801799 -0.0657601 -0.00203632 255 0 0
0.0832018 -0.0652513 -0.00387849 255 0 0
0.0915801 -0.064439 -0.00273854 255 0 0
0.0922 -0.0657354 -0.00324095 255 0 0
0.0616752 -0.0623736 -0.00370879 255 0 0
0.078846 -0.0630301 -0.00287596 255 0 0
0.0889787 -0.0624622 -0.00359362 255 0 0
0.0905905 -0.0629664 -0.00269481 255 0 0
0.0589956 -0.0606787 -0.00329809 255 0 0
0.0607626 -0.0618263 -0.0031797 255 0 0
0.0633989 -0.0607345 -0.00306387 255 0 0
0.0655157 -0.0603544 -0.0035439 255 0 0
0.0782336 -0.0609631 -0.0027355 255 0 0
0.0872401 -0.0606177 -0.00334817 255 0 0
0.0890718 -0.061312 -0.0024357 255 0 0
0.0646325 -0.0597328 -0.00223849 255 0 0
0.0673076 -0.0592503 -0.00323069 255 0 0
0.0686776 -0.0586951 -0.00276826 255 0 0
0.0786679 -0.0591359 -0.00339224 255 0 0
0.0826397 -0.0599036 -0.00248773 255 0 0
0.0847135 -0.0589727 -0.00329843 255 0 0
0.0866917 -0.0593031 -0.00262075 255 0 0
0.0678771 -0.0560826 -0.00353684 255 0 0
0.0792874 -0.057368 -0.00263552 255 0 0
0.0815507 -0.0567149 -0.00291292 255 0 0
0.0831171 -0.057517 -0.0031641 255 0 0
0.0850876 -0.0571994 -0.00262189 255 0 0
0.0873903 -0.0568218 -0.00245893 255 0 0
0.0886166 -0.0577264 -0.00372146 255 0 0
0.0631827 -0.0551741 -0.00335369 255 0 0
0.0651524 -0.0551935 -0.00281029 255 0 0
0.0665687 -0.0552943 -0.00234396 255 0 0
0.0690946 -0.054863 -0.00277472 255 0 0
0.070953 -0.0549189 -0.00351898 255 0 0
0.0731325 -0.0544412 -0.00306283 255 0 0
0.0749153 -0.0547807 -0.00321205 255 0 0
0.0773204 -0.0544375 -0.00322813 255 0 0
0.0790082 -0.0547495 -0.00302712 255 0 0
0.0803212 -0.0556463 -0.0029849 255 0 0
0.0834757 -0.0547228 -0.00320781 255 0 0
0.0841596 -0.0554222 -0.00260483 255 0 0
0.0669604 -0.05268 -0.00286344 255 0 0
0.069025 -0.0532954 -0.00285165 255 0 0
0.0706855 -0.0533346 -0.00281509 255 0 0
0.0722038 -0.0538015 -0.00289879 255 0 0
0.0750161 -0.0529896 -0.00301936 255 0 0
0.0769881 -0.0532611 -0.00277377 255 0 0
0.0784678 -0.0528608 -0.00291264 255 0 0
0.082468 -0.0527834 -0.00313503 255 0 0
0.066618 -0.0510389 -0.00304602 255 0 0
0.069258 -0.0511414 -0.00271954 255 0 0
0.0703536 -0.0511786 -0.00260864 255 0 0
0.0735422 -0.0505036 -0.00311834 255 0 0
0.0750142 -0.0510475 -0.00309438 255 0 0
0.0769029 -0.0514032 -0.00259439 255 0 0
0.0651169 -0.0494481 -0.00288678 255 0 0
0.0663114 -0.0492562 -0.00252831 255 0 0
0.0714277 -0.0490448 -0.00222373 255 0 0
0.0726039 -0.0496779 -0.00276133 255 0 0
0.0745966 -0.0499325 -0.00235386 255 0 0
0.0665658 -0.0473065 -0.00300749 255 0 0
0.0669829 -0.0453309 -0.00331317 255 0 0
0.0676757 -0.0429523 -0.00304813 255 0 0
0.0683759 -0.0405491 -0.00277985 255 0 0
0.0688049 -0.0385224 -0.00308891 255 0 0
0.0689333 -0.0366096 -0.00272371 255 0 0
0.0690744 -0.0348254 -0.00298647 255 0 0
0.233383 -0.203064 -0.00103421 255 0 0
0.23563 -0.203462 -0.000133112 255 0 0
0.234608 -0.201307 -0.000569822 255 0 0
0.233291 -0.19843 -0.00065263 255 0 0
0.23496 -0.199469 -0.000688551 255 0 0
0.230925 -0.197249 -0.000953482 255 0 0
0.23622 -0.197364 -0.0013416 255 0 0
0.217618 -0.194226 -0.000208565 255 0 0
0.218457 -0.195528 -0.000756901 255 0 0
0.229372 -0.195948 -0.00189647 255 0 0
0.230103 -0.195831 -0.000520384 255 0 0
0.236836 -0.195199 -0.00135219 255 0 0
0.217046 -0.192832 -0.000715402 255 0 0
0.218715 -0.192066 -0.00112427 255 0 0
0.221245 -0.192694 -0.00083041 255 0 0
0.238928 -0.193117 -0.00136081 255 0 0
0.240479 -0.193546 -0.000158727 255 0 0
0.213964 -0.190111 -0.000924495 255 0 0
0.215166 -0.190803 -5.6304e-05 255 0 0
0.216516 -0.191154 -0.00118256 255 0 0
0.22047 -0.191293 -0.00139827 255 0 0
0.238713 -0.190662 -0.000774145 255 0 0
0.211901 -0.188668 -0.000702157 255 0 0
0.213168 -0.188771 -0.00159422 255 0 0
0.216444 -0.189201 -0.00142489 255 0 0
0.219624 -0.189169 -0.000551961 255 0 0
0.23878 -0.188966 -0.000183195 255 0 0
0.208849 -0.187027 -0.000838721 255 0 0
0.211294 -0.187402 -0.00152729 255 0 0
0.213767 -0.186273 -9.48664e-05 255 0 0
0.216064 -0.187463 -5.60451e-05 255 0 0
0.225295 -0.187341 -0.000951203 255 0 0
0.23995 -0.187328 -0.00090757 255 0 0
0.205802 -0.184397 -4.53191e-05 255 0 0
0.206825 -0.185607 -0.00061917 255 0 0
0.211332 -0.18529 -0.00169714 255 0 0
0.213222 -0.184735 -0.000302507 255 0 0
0.225265 -0.185784 -0.00116036 255 0 0
0.241193 -0.18475 -0.000917494 255 0 0
0.204676 -0.183195 -0.00143505 255 0 0
0.214423 -0.182827 -0.00068175 255 0 0
0.21446 -0.181155 -0.000948206 255 0 0
0.213912 -0.179607 -0.00115719 255 0 0
0.0799771 -0.0660719 -0.000362873 255 0 0
0.081441 -0.0665933 -0.00107807 255 0 0
0.0929857 -0.0665172 -0.0018166 255 0 0
0.0793789 -0.0648879 -0.00102822 255 0 0
0.0930284 -0.0647313 -0.00140823 255 0 0
0.0788528 -0.0627716 -0.000947182 255 0 0
0.0919472 -0.0621399 -0.0010788 255 0 0
0.0927362 -0.0631853 -0.000953065 255 0 0
0.0604726 -0.0616251 -0.00198012 255 0 0
0.0789464 -0.0607557 -0.000947013 255 0 0
0.0833587 -0.0600969 -0.00136646 255 0 0
0.0840774 -0.0602902 -0.000245869 255 0 0
0.0914899 -0.0608488 -0.00125192 255 0 0
0.0795106 -0.0588396 -0.00168796 255 0 0
0.0803273 -0.0584624 -0.000735074 255 0 0
0.0825779 -0.0588664 -0.00147883 255 0 0
0.0812423 -0.0567341 -0.00137702 255 0 0
0.0829061 -0.0576094 -0.000973474 255 0 0
0.0852622 -0.0563716 -0.00182452 255 0 0
0.0694086 -0.0540045 -0.000218573 255 0 0
0.0712975 -0.054145 -0.00089653 255 0 0
0.0727552 -0.0545235 -0.000889352 255 0 0
0.0745298 -0.0547908 -0.00155264 255 0 0
0.0770493 -0.0540497 -0.000446659 255 0 0
0.0794028 -0.0546635 -0.00111586 255 0 0
0.080833 -0.0553448 -0.000603533 255 0 0
0.08467 -0.0546791 -0.00157542 255 0 0
0.0863881 -0.054821 -0.00178999 255 0 0
0.0659172 -0.0537197 -0.00165456 255 0 0
0.0671114 -0.0527993 -0.00126054 255 0 0
0.0687841 -0.0532327 -0.00108832 255 0 0
0.0706673 -0.0532223 -0.00130673 255 0 0
0.0731274 -0.0530755 -0.00147428 255 0 0
0.0756084 -0.0532587 -0.000823671 255 0 0
0.0775075 -0.0536429 -0.00140628 255 0 0
0.0791122 -0.0533118 -0.000961693 255 0 0
0.0805912 -0.0531017 -0.000546306 255 0 0
0.0833023 -0.0528191 -0.0013448 255 0 0
0.0852371 -0.053032 -0.000875443 255 0 0
0.0664891 -0.0510808 -0.00118509 255 0 0
0.0692881 -0.0516963 -0.000967968 255 0 0
0.070214 -0.051619 -3.9991e-05 255 0 0
0.0725667 -0.0514253 -0.000291817 255 0 0
0.0744885 -0.0517759 -0.000212524 255 0 0
0.0766073 -0.0501887 -0.00194351 255 0 0
0.0789547 -0.0510983 -0.000816081 255 0 0
0.0654462 -0.0486706 -0.00178409 255 0 0
0.0671281 -0.0489071 -0.00109709 255 0 0
0.0685148 -0.0495437 -0.00190625 255 0 0
0.0704996 -0.0482268 -0.00187086 255 0 0
0.0731847 -0.0486955 -0.00182043 255 0 0
0.0751821 -0.0489459 -0.00140883 255 0 0
0.0769456 -0.0493886 -0.000811338 255 0 0
0.0784939 -0.0492259 -0.000215366 255 0 0
0.0647766 -0.0476796 -0.0016163 255 0 0
0.0667829 -0.0468728 -0.00123136 255 0 0
0.0692345 -0.0469118 -0.00143468 255 0 0
0.071437 -0.0469624 -0.00120495 255 0 0
0.0732963 -0.0473008 -0.00070148 255 0 0
0.0752939 -0.047545 -0.000285313 255 0 0
0.0675961 -0.0450592 -0.000853367 255 0 0
0.0694807 -0.0446456 -0.000599697 255 0 0
0.0708056 -0.0452624 -0.000477202 255 0 0
0.0721357 -0.0458835 -0.000355139 255 0 0
0.0679084 -0.0426355 -0.000966873 255 0 0
0.0683109 -0.0437451 -0.00032246 255 0 0
0.0682 -0.0419001 -0.000647916 255 0 0
0.0686984 -0.0389953 -0.00107785 255 0 0
0.0687517 -0.0363275 -0.00081275 255 0 0
0.0686014 -0.0348105 -0.00102617 255 0 0
0.234479 -0.202885 0.00103281 255 0 0
0.235237 -0.201227 0.00119481 255 0 0
0.233522 -0.198704 0.00171466 255 0 0
0.234807 -0.198966 0.00120378 255 0 0
0.231656 -0.197132 0.000423582 255 0 0
0.232386 -0.197015 0.00179982 255 0 0
0.236335 -0.197081 0.000315353 255 0 0
0.230833 -0.195715 0.000854888 255 0 0
0.238164 -0.195196 0.0010282 255 0 0
0.216946 -0.192892 0.0013222 255 0 0
0.222324 -0.192524 0.00120037 255 0 0
0.238759 -0.192079 0.00030683 255 0 0
0.24001 -0.193295 0.00174704 255 0 0
0.2151 -0.190844 0.00129911 255 0 0
0.22152 -0.191256 0.000561086 255 0 0
0.224473 -0.190673 0.00155381 255 0 0
0.238882 -0.190253 0.00173108 255 0 0
0.212659 -0.188977 0.000706399 255 0 0
0.220719 -0.189873 2.24188e-05 255 0 0
0.222702 -0.189334 0.00145249 255 0 0
0.24063 -0.188591 0.000781417 255 0 0
0.208578 -0.186618 0.00066915 255 0 0
0.210604 -0.18754 0.000922621 255 0 0
0.222148 -0.187767 0.00124118 255 0 0
0.226389 -0.18717 0.00110572 255 0 0
0.240062 -0.18706 0.000773385 255 0 0
0.243096 -0.186601 0.00126956 255 0 0
0.205705 -0.184458 0.00195548 255 0 0
0.207139 -0.185536 0.00131428 255 0 0
0.215135 -0.184174 0.00110759 255 0 0
0.226361 -0.185614 0.000899594 255 0 0
0.242524 -0.18506 0.00126162 255 0 0
0.204579 -0.183257 0.000563121 255 0 0
0.215762 -0.182378 0.000788193 255 0 0
0.240434 -0.183758 0.00100473 255 0 0
0.215802 -0.180698 0.000522949 255 0 0
0.0817433 -0.0665642 0.000233188 255 0 0
0.0798343 -0.0648487 0.000931531 255 0 0
0.0805329 -0.0658744 0.000762567 255 0 0
0.0794447 -0.0626749 0.00117053 255 0 0
0.0937383 -0.0621756 0.000217824 255 0 0
0.0797583 -0.0603823 2.14577e-06 255 0 0
0.0803172 -0.0601854 0.00113262 255 0 0
0.0843021 -0.0610173 0.00121073 255 0 0
0.0811697 -0.0581663 0.000968449 255 0 0
0.0834906 -0.0586013 0.000955667 255 0 0
0.0840039 -0.0597528 0.00157211 255 0 0
0.0818724 -0.0565734 0.000522099 255 0 0
0.0826904 -0.0570291 0.00117781 255 0 0
0.0703943 -0.0544875 0.00109802 255 0 0
0.0814618 -0.0550199 0.000721907 255 0 0
0.082209 -0.0549924 0.00179114 255 0 0
0.0673784 -0.0522778 0.000862265 255 0 0
0.0688819 -0.0533795 0.000979807 255 0 0
0.0771595 -0.0524947 0.000375737 255 0 0
0.0794881 -0.053035 0.000712316 255 0 0
0.0807759 -0.0529049 0.00149601 255 0 0
0.0675016 -0.0504384 0.00123262 255 0 0
0.0718185 -0.0507259 0.000395022 255 0 0
0.0735854 -0.0504491 0.000654968 255 0 0
0.0752834 -0.0510707 0.000904521 255 0 0
0.0768437 -0.051067 0.00133489 255 0 0
0.0785341 -0.0509249 0.00168395 255 0 0
0.0807593 -0.0509814 0.00115206 255 0 0
0.0676378 -0.0487199 0.000984069 255 0 0
0.0743767 -0.0497437 0.00177123 255 0 0
0.0775349 -0.0483962 0.000139073 255 0 0
0.0795698 -0.0486459 0.000561208 255 0 0
0.0802491 -0.0493265 0.0013292 255 0 0
0.0675013 -0.0473763 0.000156127 255 0 0
0.0683351 -0.046358 0.00127014 255 0 0
0.0738772 -0.0463145 0.000242278 255 0 0
0.0758795 -0.0465544 0.00066258 255 0 0
0.0773657 -0.0470865 0.000698283 255 0 0
0.0792715 -0.0474278 0.00121332 255 0 0
0.0684742 -0.044617 0.00101985 255 0 0
0.0705169 -0.0440684 0.00016354 255 0 0
0.0728371 -0.0448017 0.000496969 255 0 0
0.0748315 -0.045035 0.000917926 255 0 0
0.0767184 -0.0453676 0.00143186 255 0 0
0.0792576 -0.0452104 0.00149758 255 0 0
0.0688472 -0.0428956 0.000658615 255 0 0
0.0710927 -0.0430857 0.00110281 255 0 0
0.0733167 -0.0431148 0.0013464 255 0 0
0.0751918 -0.0434393 0.00186113 255 0 0
0.0688348 -0.0412182 0.00129995 255 0 0
0.068546 -0.0390134 0.00065463 255 0 0
0.0683543 -0.0370684 0.00124897 255 0 0
0.0678371 -0.0350651 0.000977503 255 0 0
0.232407 -0.203245 0.00287907 255 0 0
0.235209 -0.202766 0.00240968 255 0 0
0.231858 -0.200265 0.0026363 255 0 0
0.232962 -0.201734 0.00241703 255 0 0
0.234188 -0.201419 0.00359114 255 0 0
0.236336 -0.201049 0.00326521 255 0 0
0.233081 -0.199948 0.00380914 255 0 0
0.235006 -0.198734 0.0029 255 0 0
0.233117 -0.196898 0.00317522 255 0 0
0.235885 -0.196822 0.00219721 255 0 0
0.231726 -0.195573 0.00307339 255 0 0
0.237138 -0.194967 0.0031458 255 0 0
0.216631 -0.193015 0.00339271 255 0 0
0.22342 -0.192858 0.00296724 255 0 0
0.224175 -0.193752 0.00379531 255 0 0
0.24012 -0.193018 0.00340965 255 0 0
0.214803 -0.190958 0.00302726 255 0 0
0.222246 -0.191024 0.00297313 255 0 0
0.238353 -0.191697 0.00303403 255 0 0
0.212984 -0.188908 0.00266254 255 0 0
0.225937 -0.188552 0.00279186 255 0 0
0.239569 -0.189948 0.00316259 255 0 0
0.241322 -0.188285 0.0022219 255 0 0
0.208896 -0.186547 0.00261051 255 0 0
0.210716 -0.187536 0.00290592 255 0 0
0.227356 -0.186805 0.00278849 255 0 0
0.242608 -0.187156 0.00330736 255 0 0
0.206443 -0.184757 0.00335392 255 0 0
0.208039 -0.185801 0.00368535 255 0 0
0.224205 -0.185513 0.00242 255 0 0
0.227455 -0.185444 0.00295743 255 0 0
0.228103 -0.184567 0.00372522 255 0 0
0.231185 -0.185669 0.0037294 255 0 0
0.242045 -0.184836 0.00317968 255 0 0
0.204483 -0.183318 0.0025605 255 0 0
0.241476 -0.1833 0.00317192 255 0 0
0.225113 -0.181764 0.00345485 255 0 0
0.0798256 -0.0665217 0.00277156 255 0 0
0.079132 -0.0655015 0.00293733 255 0 0
0.0797171 -0.0637027 0.00295952 255 0 0
0.0809355 -0.0623049 0.00346118 255 0 0
0.0818818 -0.0609939 0.00340123 255 0 0
0.0853959 -0.0609169 0.00319163 255 0 0
0.0812829 -0.0598014 0.00273839 255 0 0
0.0832808 -0.058701 0.00363663 255 0 0
0.0845711 -0.0593136 0.00286934 255 0 0
0.0690555 -0.0566437 0.00398504 255 0 0
0.0706615 -0.0571634 0.00275008 255 0 0
0.0722576 -0.0574318 0.00275136 255 0 0
0.0833974 -0.0570402 0.00309804 255 0 0
0.0686342 -0.0547612 0.00309219 255 0 0
0.0702279 -0.0559394 0.00258634 255 0 0
0.0829071 -0.0552892 0.00294721 255 0 0
0.0677844 -0.0532403 0.00225961 255 0 0
0.0680439 -0.0527404 0.00345624 255 0 0
0.0817947 -0.0532312 0.00226275 255 0 0
0.0825124 -0.0532722 0.0031318 255 0 0
0.0677663 -0.0515249 0.00265415 255 0 0
0.076079 -0.0503633 0.00202433 255 0 0
0.079997 -0.0510584 0.00220204 255 0 0
0.0814334 -0.0511165 0.00282506 255 0 0
0.0823067 -0.0513738 0.00340816 255 0 0
0.0680337 -0.0495545 0.00300896 255 0 0
0.0755501 -0.0493864 0.00254656 255 0 0
0.0777019 -0.0486818 0.00256956 255 0 0
0.0795495 -0.0491617 0.00274373 255 0 0
0.0810863 -0.0490735 0.00336168 255 0 0
0.0687355 -0.0471922 0.00330737 255 0 0
0.0791019 -0.0472645 0.00328553 255 0 0
0.0806809 -0.0471124 0.00358952 255 0 0
0.0688302 -0.0449984 0.00278387 255 0 0
0.079854 -0.0442078 0.00245559 255 0 0
0.0803341 -0.0455268 0.00321575 255 0 0
0.0688166 -0.0427445 0.00289937 255 0 0
0.0716688 -0.0421003 0.00204411 255 0 0
0.073652 -0.0423215 0.00247055 255 0 0
0.0684158 -0.0408268 0.00306969 255 0 0
0.0709373 -0.0407041 0.00264105 255 0 0
0.0724699 -0.041713 0.00299171 255 0 0
0.0679005 -0.0388321 0.00280037 255 0 0
0.0705076 -0.0394153 0.00358204 255 0 0
0.0674186 -0.0371547 0.00343928 255 0 0
0.233629 -0.202932 0.00405024 255 0 0
0.235691 -0.202672 0.00494387 255 0 0
0.237708 -0.203159 0.00503054 255 0 0
0.233195 -0.201164 0.0056619 255 0 0
0.236657 -0.200989 0.00495934 255 0 0
0.232646 -0.199683 0.00565416 255 0 0
0.235052 -0.198141 0.00421199 255 0 0
0.236235 -0.199504 0.00507193 255 0 0
0.233442 -0.196844 0.00486353 255 0 0
0.235491 -0.197182 0.00499945 255 0 0
0.236676 -0.19624 0.00525105 255 0 0
0.231816 -0.195562 0.00591112 255 0 0
0.237818 -0.194664 0.00456384 255 0 0
0.239069 -0.194336 0.00575528 255 0 0
0.21611 -0.193705 0.00501664 255 0 0
0.224686 -0.192911 0.00520127 255 0 0
0.240805 -0.192713 0.00483781 255 0 0
0.214792 -0.190987 0.00470825 255 0 0
0.223322 -0.190855 0.004998 255 0 0
0.239093 -0.191257 0.00528648 255 0 0
0.212885 -0.188969 0.00468907 255 0 0
0.240889 -0.189475 0.00519426 255 0 0
0.209214 -0.186477 0.00455606 255 0 0
0.211038 -0.187466 0.00485858 255 0 0
0.229216 -0.187233 0.00465814 255 0 0
0.231317 -0.187191 0.00564192 255 0 0
0.24329 -0.187637 0.00486971 255 0 0
0.206757 -0.184685 0.0052925 255 0 0
0.208355 -0.18573 0.00562974 255 0 0
0.229049 -0.184692 0.0051373 255 0 0
0.232656 -0.185213 0.00527435 255 0 0
0.242739 -0.18453 0.00462317 255 0 0
0.244835 -0.185833 0.00488956 255 0 0
0.20459 -0.183312 0.00452474 255 0 0
0.225862 -0.183146 0.00529791 255 0 0
0.227163 -0.181166 0.00493203 255 0 0
0.0796249 -0.0668284 0.00441086 255 0 0
0.0796835 -0.065306 0.00405371 255 0 0
0.0814668 -0.0650254 0.00447939 255 0 0
0.0834841 -0.0631874 0.00520014 255 0 0
0.0835255 -0.0611211 0.00450172 255 0 0
0.0855637 -0.0605439 0.0057483 255 0 0
0.0863998 -0.0600638 0.00475595 255 0 0
0.0690434 -0.058575 0.00510302 255 0 0
0.0702067 -0.058846 0.00427223 255 0 0
0.0838417 -0.0585035 0.00477099 255 0 0
0.0847973 -0.059333 0.00479506 255 0 0
0.0867336 -0.0593937 0.00541339 255 0 0
0.06846 -0.0568675 0.00529855 255 0 0
0.0836513 -0.0571132 0.00458485 255 0 0
0.0851073 -0.0570186 0.00523732 255 0 0
0.0683133 -0.0554094 0.00509814 255 0 0
0.0835763 -0.0548612 0.00413099 255 0 0
0.084387 -0.0550726 0.00522307 255 0 0
0.0691596 -0.0529646 0.0053875 255 0 0
0.0834166 -0.0530842 0.00446296 255 0 0
0.0842658 -0.0536018 0.00522955 255 0 0
0.068822 -0.0511689 0.00492909 255 0 0
0.0819126 -0.0506805 0.00418247 255 0 0
0.0832126 -0.0510743 0.00467673 255 0 0
0.0843601 -0.0509435 0.00558569 255 0 0
0.0689331 -0.0491534 0.00486138 255 0 0
0.0825714 -0.048978 0.00472896 255 0 0
0.0842815 -0.048614 0.00588621 255 0 0
0.0694261 -0.0477773 0.00530945 255 0 0
0.0816363 -0.0464518 0.00493887 255 0 0
0.0823838 -0.0475364 0.00485843 255 0 0
0.0697861 -0.0450295 0.00492739 255 0 0
0.0815876 -0.0455952 0.0047316 255 0 0
0.0832057 -0.045582 0.00532809 255 0 0
0.0696985 -0.0425136 0.00523268 255 0 0
0.0705687 -0.0432339 0.00597331 255 0 0
0.0686731 -0.0409741 0.00503139 255 0 0
0.0718522 -0.0409195 0.00462985 255 0 0
0.0726513 -0.0405324 0.005577 255 0 0
0.0671286 -0.0389428 0.005416 255 0 0
0.0682415 -0.039048 0.00412263 255 0 0
0.0711224 -0.0395293 0.00522133 255 0 0
0.0661815 -0.0373459 0.00520605 255 0 0
0.234968 -0.202331 0.00684336 255 0 0
0.236171 -0.202577 0.00746697 255 0 0
0.241377 -0.203112 0.0078872 255 0 0
0.234974 -0.200832 0.00661466 255 0 0
0.237427 -0.201451 0.00700334 255 0 0
0.238453 -0.200449 0.00690737 255 0 0
0.240543 -0.200863 0.00787602 255 0 0
0.233868 -0.199365 0.00682807 255 0 0
0.23459 -0.198206 0.00612311 255 0 0
0.23674 -0.19924 0.00709681 255 0 0
0.233362 -0.196855 0.00685638 255 0 0
0.237909 -0.197437 0.00666927 255 0 0
0.240867 -0.197047 0.00718877 255 0 0
0.237353 -0.195938 0.0066617 255 0 0
0.239736 -0.195564 0.00740486 255 0 0
0.240323 -0.194006 0.00694954 255 0 0
0.215663 -0.192818 0.00603467 255 0 0
0.225403 -0.192798 0.00655149 255 0 0
0.226327 -0.193412 0.00784589 255 0 0
0.24149 -0.192409 0.00626513 255 0 0
0.242166 -0.192876 0.00780738 255 0 0
0.214835 -0.191004 0.00671755 255 0 0
0.224397 -0.190686 0.00702123 255 0 0
0.226688 -0.191818 0.00734728 255 0 0
0.239693 -0.190636 0.00746397 255 0 0
0.240982 -0.190755 0.00708409 255 0 0
0.212786 -0.18903 0.00671478 255 0 0
0.237806 -0.189247 0.00734136 255 0 0
0.242792 -0.188967 0.00700021 255 0 0
0.209533 -0.186406 0.00650581 255 0 0
0.211149 -0.187461 0.00684745 255 0 0
0.229299 -0.186716 0.00658136 255 0 0
0.234069 -0.186495 0.00709837 255 0 0
0.243982 -0.187331 0.00630981 255 0 0
0.244673 -0.187025 0.0077491 255 0 0
0.207278 -0.184545 0.00720452 255 0 0
0.209089 -0.185525 0.00751643 255 0 0
0.229276 -0.185162 0.00638326 255 0 0
0.235431 -0.184499 0.00673498 255 0 0
0.243432 -0.184225 0.00606583 255 0 0
0.245877 -0.185373 0.00705913 255 0 0
0.20548 -0.183572 0.00689457 255 0 0
0.228548 -0.182427 0.0067391 255 0 0
0.232285 -0.183391 0.00671274 255 0 0
0.245306 -0.183834 0.00705178 255 0 0
0.229871 -0.180429 0.00637725 255 0 0
0.227413 -0.179222 0.00630841 255 0 0
0.228865 -0.178739 0.00786177 255 0 0
0.231341 -0.179949 0.00793787 255 0 0
0.228295 -0.17713 0.00764558 255 0 0
0.0867657 -0.0586594 0.00621012 255 0 0
0.0887954 -0.0591065 0.00724264 255 0 0
0.0871096 -0.0572508 0.00679385 255 0 0
0.0698702 -0.0554122 0.00635431 255 0 0
0.0854606 -0.0550991 0.00613965 255 0 0
0.0869557 -0.0551743 0.00724083 255 0 0
0.0697243 -0.0539429 0.00615389 255 0 0
0.0712275 -0.0531965 0.00732367 255 0 0
0.0851238 -0.0530629 0.00651525 255 0 0
0.0863719 -0.0531025 0.00719887 255 0 0
0.0710093 -0.0509715 0.00702264 255 0 0
0.083526 -0.0507052 0.00628809 255 0 0
0.0851653 -0.0508186 0.00672288 255 0 0
0.0863224 -0.051553 0.00740107 255 0 0
0.0704978 -0.0489899 0.00675697 255 0 0
0.0825877 -0.0490749 0.00644924 255 0 0
0.0850333 -0.0490824 0.007408 255 0 0
0.0862727 -0.0499996 0.00760384 255 0 0
0.0712218 -0.0466004 0.00707801 255 0 0
0.0726125 -0.0476974 0.00786962 255 0 0
0.0845898 -0.0471547 0.00664891 255 0 0
0.0712218 -0.0449693 0.00685689 255 0 0
0.0845375 -0.0455927 0.00685126 255 0 0
0.071359 -0.0430648 0.00725098 255 0 0
0.0688567 -0.0403671 0.00689755 255 0 0
0.070399 -0.0414507 0.00703747 255 0 0
0.0676008 -0.0388887 0.00735353 255 0 0
0.0710355 -0.0387417 0.00607507 255 0 0
0.0731078 -0.0396463 0.0066065 255 0 0
0.0665791 -0.0373551 0.00715004 255 0 0
0.0706286 -0.0376567 0.006795 255 0 0
0.240222 -0.204642 0.00855704 255 0 0
0.242609 -0.204306 0.00930487 255 0 0
0.243781 -0.202768 0.00863549 255 0 0
0.236477 -0.200984 0.00894692 255 0 0
0.243801 -0.201247 0.00840613 255 0 0
0.233701 -0.198336 0.00872569 255 0 0
0.238912 -0.1985 0.00901122 255 0 0
0.242088 -0.199774 0.00884221 255 0 0
0.233283 -0.196866 0.00883732 255 0 0
0.242701 -0.196699 0.00816135 255 0 0
0.241564 -0.195212 0.00837672 255 0 0
0.242244 -0.194908 0.00979555 255 0 0
0.226655 -0.193365 0.00949581 255 0 0
0.241685 -0.193399 0.00978832 255 0 0
0.214736 -0.191065 0.00874794 255 0 0
0.225114 -0.190574 0.00836896 255 0 0
0.227017 -0.191775 0.00900252 255 0 0
0.240994 -0.190708 0.00932611 255 0 0
0.213112 -0.188961 0.00867881 255 0 0
0.238672 -0.188921 0.00896788 255 0 0
0.243479 -0.188662 0.00843269 255 0 0
0.244753 -0.188322 0.0096418 255 0 0
0.209853 -0.186335 0.00845976 255 0 0
0.211261 -0.187456 0.00883801 255 0 0
0.229629 -0.186681 0.0082555 255 0 0
0.230354 -0.186568 0.00961959 255 0 0
0.235564 -0.186038 0.00866861 255 0 0
0.245954 -0.186682 0.00896288 255 0 0
0.249032 -0.18622 0.0095062 255 0 0
0.209028 -0.185049 0.009 255 0 0
0.229606 -0.185128 0.00806009 255 0 0
0.230333 -0.185016 0.00942618 255 0 0
0.236288 -0.18416 0.00835776 255 0 0
0.245978 -0.185107 0.00873038 255 0 0
0.247862 -0.184719 0.00972427 255 0 0
0.206994 -0.183631 0.00918667 255 0 0
0.23377 -0.182922 0.00827926 255 0 0
0.234621 -0.18258 0.00990354 255 0 0
0.246646 -0.183353 0.00910719 255 0 0
0.231275 -0.181696 0.00820142 255 0 0
0.232756 -0.18122 0.00977404 255 0 0
0.230968 -0.178115 0.00938376 255 0 0
0.233469 -0.179328 0.00946721 255 0 0
0.229758 -0.176635 0.0092115 255 0 0
0.0889583 -0.0570283 0.00818584 255 0 0
0.0909515 -0.0571364 0.00920414 255 0 0
0.0887625 -0.0548472 0.00857139 255 0 0
0.0901413 -0.0551274 0.0091905 255 0 0
0.0873416 -0.0530207 0.00815759 255 0 0
0.0890771 -0.0533956 0.00933679 255 0 0
0.0734202 -0.0510695 0.00832032 255 0 0
0.0748215 -0.0504189 0.00953824 255 0 0
0.0873338 -0.0506857 0.00897836 255 0 0
0.088266 -0.0513861 0.0093229 255 0 0
0.0727576 -0.0491994 0.00807119 255 0 0
0.0743774 -0.0491654 0.00937139 255 0 0
0.0874314 -0.0485964 0.00941213 255 0 0
0.0737108 -0.0472846 0.00912103 255 0 0
0.0859221 -0.0471664 0.00817226 255 0 0
0.0866441 -0.0473642 0.00929545 255 0 0
0.0726725 -0.0449055 0.00880435 255 0 0
0.0858716 -0.0456031 0.00837665 255 0 0
0.0865946 -0.0458016 0.00950121 255 0 0
0.0714869 -0.0426603 0.0085055 255 0 0
0.0723579 -0.0432467 0.00989709 255 0 0
0.0693354 -0.0403148 0.00884648 255 0 0
0.0707087 -0.0412341 0.00918949 255 0 0
0.0675645 -0.0384756 0.00925056 255 0 0
0.0683088 -0.0395948 0.00874917 255 0 0
0.0658166 -0.0367848 0.00902123 255 0 0
0.0665448 -0.0377615 0.0091526 255 0 0
0.242728 -0.202504 0.0107071 255 0 0
0.242747 -0.200989 0.010482 255 0 0
0.24458 -0.200653 0.0114595 255 0 0
0.234036 -0.199807 0.0105837 255 0 0
0.241062 -0.198008 0.0106856 255 0 0
0.242817 -0.199327 0.0110722 255 0 0
0.241651 -0.196463 0.0102419 255 0 0
0.242896 -0.1969 0.0115504 255 0 0
0.227395 -0.194769 0.0110305 255 0 0
0.243503 -0.194579 0.0109951 255 0 0
0.22737 -0.193252 0.0108417 255 0 0
0.242365 -0.193096 0.0112065 255 0 0
0.245373 -0.192679 0.0117546 255 0 0
0.213797 -0.190347 0.0111776 255 0 0
0.214243 -0.191232 0.0101603 255 0 0
0.225608 -0.190512 0.0108371 255 0 0
0.226957 -0.191801 0.0109518 255 0 0
0.240964 -0.190907 0.0110111 255 0 0
0.245396 -0.19113 0.0115287 255 0 0
0.213226 -0.188957 0.0106767 255 0 0
0.238884 -0.188715 0.0106467 255 0 0
0.242981 -0.18998 0.0105349 255 0 0
0.246007 -0.189543 0.0110818 255 0 0
0.211189 -0.186471 0.0108053 255 0 0
0.21223 -0.187697 0.0102344 255 0 0
0.230681 -0.186532 0.0112856 255 0 0
0.238307 -0.187083 0.0104277 255 0 0
0.247809 -0.187872 0.0101866 255 0 0
0.2485 -0.187566 0.0116276 255 0 0
0.2098 -0.184301 0.010367 255 0 0
0.210989 -0.184978 0.0112592 255 0 0
0.23066 -0.184983 0.0110948 255 0 0
0.235772 -0.18583 0.0103396 255 0 0
0.249142 -0.185162 0.011062 255 0 0
0.207343 -0.183018 0.0106077 255 0 0
0.211038 -0.182868 0.0111517 255 0 0
0.235477 -0.182235 0.0115368 255 0 0
0.236929 -0.183777 0.0108531 255 0 0
0.248584 -0.182828 0.0109402 255 0 0
0.234251 -0.180739 0.0113603 255 0 0
0.234972 -0.178838 0.0110572 255 0 0
0.231809 -0.177759 0.0110086 255 0 0
0.229383 -0.174797 0.010659 255 0 0
0.231877 -0.175995 0.0107482 255 0 0
0.0907118 -0.0546854 0.0104955 255 0 0
0.0892865 -0.0528563 0.0100798 255 0 0
0.0902618 -0.0527735 0.0110434 255 0 0
0.0894511 -0.0507627 0.0110301 255 0 0
0.0751866 -0.0490129 0.010667 255 0 0
0.0886401 -0.0487507 0.011017 255 0 0
0.0737706 -0.046127 0.0102817 255 0 0
0.0749577 -0.047105 0.0112952 255 0 0
0.0876178 -0.0472768 0.0102594 255 0 0
0.0881894 -0.0468364 0.0115654 255 0 0
0.0734664 -0.0446024 0.010739 255 0 0
0.0740541 -0.0455939 0.0115308 255 0 0
0.0873171 -0.0459999 0.010625 255 0 0
0.0726386 -0.0427088 0.0111444 255 0 0
0.0690086 -0.0401654 0.0107853 255 0 0
0.0705575 -0.041251 0.0109386 255 0 0
0.0675319 -0.0388836 0.0112592 255 0 0
0.0657289 -0.0369157 0.0112037 255 0 0
0.0662314 -0.037751 0.0104496 255 0 0
0.239864 -0.204069 0.0120077 255 0 0
0.241668 -0.203744 0.0129792 255 0 0
0.234728 -0.20121 0.013107 255 0 0
0.243225 -0.201163 0.0137331 255 0 0
0.242968 -0.198901 0.0135099 255 0 0
0.228108 -0.194655 0.0123736 255 0 0
0.243007 -0.195857 0.0130682 255 0 0
0.244766 -0.194249 0.0121975 255 0 0
0.214919 -0.192112 0.01314 255 0 0
0.227696 -0.193206 0.0124836 255 0 0
0.245471 -0.192404 0.0133958 255 0 0
0.214348 -0.190722 0.0126395 255 0 0
0.226486 -0.190379 0.0129996 255 0 0
0.245494 -0.190857 0.0131729 255 0 0
0.213553 -0.188888 0.0126481 255 0 0
0.239098 -0.188508 0.0123297 255 0 0
0.240999 -0.189902 0.012468 255 0 0
0.247333 -0.189068 0.0131199 255 0 0
0.212545 -0.187117 0.0126849 255 0 0
0.231404 -0.18642 0.0126461 255 0 0
0.238297 -0.186832 0.0129734 255 0 0
0.248595 -0.187297 0.0132864 255 0 0
0.21176 -0.185792 0.0122118 255 0 0
0.212161 -0.184634 0.0131199 255 0 0
0.230986 -0.18495 0.012758 255 0 0
0.232509 -0.184678 0.0135195 255 0 0
0.23598 -0.18562 0.0120148 255 0 0
0.236189 -0.18541 0.0136941 255 0 0
0.249236 -0.184897 0.0127283 255 0 0
0.211388 -0.183819 0.0121638 255 0 0
0.212816 -0.182855 0.0134703 255 0 0
0.236918 -0.183523 0.0133983 255 0 0
0.24928 -0.182521 0.0123875 255 0 0
0.210577 -0.181464 0.0126549 255 0 0
0.212617 -0.181343 0.0139333 255 0 0
0.235108 -0.180388 0.0129999 255 0 0
0.236339 -0.181888 0.0131794 255 0 0
0.211388 -0.179632 0.0139971 255 0 0
0.23649 -0.178343 0.0126611 255 0 0
0.233951 -0.177123 0.0125625 255 0 0
0.234127 -0.175236 0.0131471 255 0 0
0.233443 -0.173712 0.0120839 255 0 0
0.234302 -0.17334 0.0137334 255 0 0
0.23307 -0.171847 0.0135525 255 0 0
0.0756883 -0.0489787 0.0126446 255 0 0
0.0893614 -0.0489479 0.0121395 255 0 0
0.0750099 -0.0469508 0.0130364 255 0 0
0.0743391 -0.0450583 0.0127851 255 0 0
0.073226 -0.04294 0.0130285 255 0 0
0.0697018 -0.0405998 0.0134695 255 0 0
0.0706037 -0.0410914 0.0126696 255 0 0
0.0720775 -0.041789 0.0136576 255 0 0
0.0671332 -0.0388008 0.013201 255 0 0
0.0688284 -0.0398836 0.0127098 255 0 0
0.0652417 -0.0372423 0.0129735 255 0 0
0.240635 -0.203478 0.0150078 255 0 0
0.243048 -0.20013 0.015345 255 0 0
0.244176 -0.201608 0.0151415 255 0 0
0.243068 -0.198618 0.015128 255 0 0
0.24075 -0.197327 0.0149451 255 0 0
0.241388 -0.195651 0.0153248 255 0 0
0.215249 -0.192047 0.0151147 255 0 0
0.243804 -0.19375 0.0158844 255 0 0
0.244635 -0.193079 0.0146454 255 0 0
0.214249 -0.190783 0.0146677 255 0 0
0.245592 -0.190585 0.0148113 255 0 0
0.213667 -0.188883 0.0146508 255 0 0
0.238761 -0.18832 0.0148993 255 0 0
0.240662 -0.189713 0.0150454 255 0 0
0.213297 -0.186914 0.0146068 255 0 0
0.23133 -0.186462 0.0146012 255 0 0
0.237631 -0.186706 0.0155604 255 0 0
0.248689 -0.187029 0.0149391 255 0 0
0.21314 -0.184869 0.0145362 255 0 0
0.232032 -0.184806 0.0157729 255 0 0
0.235746 -0.185327 0.0154134 255 0 0
0.249914 -0.185379 0.0142834 255 0 0
0.213828 -0.18202 0.0148441 255 0 0
0.21418 -0.18298 0.0158638 255 0 0
0.23713 -0.183309 0.0150868 255 0 0
0.248997 -0.18273 0.014824 255 0 0
0.213023 -0.180163 0.0148539 255 0 0
0.214238 -0.18084 0.0157693 255 0 0
0.235317 -0.180171 0.0146857 255 0 0
0.237207 -0.181539 0.014831 255 0 0
0.213862 -0.178832 0.0157269 255 0 0
0.236702 -0.178122 0.0143545 255 0 0
0.235464 -0.176621 0.0141725 255 0 0
0.23575 -0.174611 0.0156122 255 0 0
0.238983 -0.175683 0.0156899 255 0 0
0.235167 -0.172965 0.0153922 255 0 0
0.2359 -0.171019 0.015099 255 0 0
0.0746901 -0.046936 0.0143526 255 0 0
0.0737002 -0.04503 0.0154174 255 0 0
0.0740195 -0.0450442 0.0141016 255 0 0
0.073331 -0.0428741 0.0151393 255 0 0
0.0696804 -0.0403229 0.0147479 255 0 0
0.0713129 -0.040517 0.0148039 255 0 0
0.0720585 -0.0415111 0.0149433 255 0 0
0.0668797 -0.0385853 0.0151288 255 0 0
0.0684903 -0.0395952 0.0152891 255 0 0
0.064916 -0.0370939 0.0149008 255 0 0
0.0640993 -0.0352265 0.0153006 255 0 0
0.241302 -0.203178 0.0163999 255 0 0
0.244273 -0.201321 0.0167536 255 0 0
0.24287 -0.199101 0.0169512 255 0 0
0.240904 -0.196909 0.0173545 255 0 0
0.24149 -0.195374 0.0169348 255 0 0
0.215149 -0.192107 0.0171439 255 0 0
0.22563 -0.192083 0.0175941 255 0 0
0.242752 -0.19353 0.0179165 255 0 0
0.214578 -0.190716 0.0166444 255 0 0
0.243357 -0.191209 0.017389 255 0 0
0.213558 -0.188435 0.0171648 255 0 0
0.214006 -0.189323 0.0161444 255 0 0
0.237766 -0.188254 0.0175021 255 0 0
0.240325 -0.189524 0.0176234 255 0 0
0.213626 -0.186842 0.0165889 255 0 0
0.236533 -0.186746 0.0173166 255 0 0
0.247598 -0.186838 0.0170097 255 0 0
0.213693 -0.185242 0.0160097 255 0 0
0.234654 -0.18537 0.0171645 255 0 0
0.248812 -0.185195 0.0163667 255 0 0
0.214956 -0.183281 0.017323 255 0 0
0.236031 -0.183356 0.016847 255 0 0
0.248245 -0.183666 0.0163602 255 0 0
0.21545 -0.180997 0.0171815 255 0 0
0.236762 -0.181456 0.0165605 255 0 0
0.248963 -0.181787 0.017576 255 0 0
0.215076 -0.178983 0.0171421 255 0 0
0.235526 -0.179953 0.0163757 255 0 0
0.237576 -0.17776 0.0160172 255 0 0
0.239871 -0.175312 0.0173692 255 0 0
0.237948 -0.173946 0.0172143 255 0 0
0.238027 -0.172141 0.0169593 255 0 0
0.0736829 -0.0447541 0.0167069 255 0 0
0.0728306 -0.0426457 0.0168669 255 0 0
0.069364 -0.0403108 0.0160545 255 0 0
0.0712085 -0.0409949 0.0168431 255 0 0
0.0659701 -0.0381449 0.0170126 255 0 0
0.0669913 -0.0388597 0.017128 255 0 0
0.068974 -0.0395397 0.0172652 255 0 0
0.0647334 -0.0368119 0.0168154 255 0 0
0.063631 -0.035212 0.0172402 255 0 0
0.242114 -0.198847 0.0188611 255 0 0
0.24044 -0.196654 0.0191562 255 0 0
0.241023 -0.195124 0.0187433 255 0 0
0.21505 -0.192167 0.0191723 255 0 0
0.216275 -0.193877 0.0191135 255 0 0
0.224519 -0.193779 0.0186251 255 0 0
0.214693 -0.190712 0.0186498 255 0 0
0.241728 -0.191794 0.0197205 255 0 0
0.242317 -0.190239 0.019307 255 0 0
0.213887 -0.188366 0.0191473 255 0 0
0.214335 -0.189255 0.0181256 255 0 0
0.236667 -0.188291 0.0192539 255 0 0
0.239218 -0.18956 0.019383 255 0 0
0.213741 -0.186837 0.0185999 255 0 0
0.234789 -0.186911 0.0190961 255 0 0
0.246516 -0.186649 0.0190604 255 0 0
0.214189 -0.185132 0.0189975 255 0 0
0.233566 -0.185413 0.0189092 255 0 0
0.24772 -0.185013 0.0184299 255 0 0
0.215072 -0.183275 0.0193506 255 0 0
0.234286 -0.183532 0.0186312 255 0 0
0.247156 -0.183492 0.0184236 255 0 0
0.215795 -0.181441 0.0186995 255 0 0
0.216213 -0.180251 0.019641 255 0 0
0.234394 -0.18089 0.0182579 255 0 0
0.248462 -0.181576 0.0194285 255 0 0
0.215857 -0.179283 0.0186131 255 0 0
0.233988 -0.179924 0.0198554 255 0 0
0.216716 -0.177936 0.0195093 255 0 0
0.236837 -0.174011 0.0189896 255 0 0
0.240765 -0.174938 0.019058 255 0 0
0.238914 -0.171759 0.0186446 255 0 0
0.0708811 -0.040843 0.0187996 255 0 0
0.0669558 -0.0384437 0.0190432 255 0 0
0.068867 -0.0391885 0.0191958 255 0 0
0.0651793 -0.0371349 0.0186964 255 0 0
0.0641742 -0.035903 0.019298 255 0 0
0.216866 -0.193214 0.0205476 255 0 0
0.223715 -0.19393 0.0210651 255 0 0
0.224788 -0.192256 0.0209911 255 0 0
0.240574 -0.193366 0.020333 255 0 0
0.215286 -0.191088 0.0207926 255 0 0
0.22441 -0.190819 0.0201615 255 0 0
0.214226 -0.188805 0.0206458 255 0 0
0.234275 -0.188572 0.021053 255 0 0
0.236802 -0.189835 0.0211896 255 0 0
0.213866 -0.187344 0.0201229 255 0 0
0.214275 -0.186186 0.021056 255 0 0
0.233055 -0.187075 0.0208636 255 0 0
0.23184 -0.185582 0.0206747 255 0 0
0.245468 -0.184914 0.0208821 255 0 0
0.214756 -0.183407 0.021425 255 0 0
0.232551 -0.183708 0.0204033 255 0 0
0.24671 -0.183147 0.021074 255 0 0
0.215695 -0.181504 0.0207607 255 0 0
0.216113 -0.180315 0.0217076 255 0 0
0.233695 -0.181649 0.0209609 255 0 0
0.249149 -0.181273 0.0208581 255 0 0
0.216634 -0.179055 0.0205877 255 0 0
0.234197 -0.179706 0.0215503 255 0 0
0.237053 -0.173783 0.0207026 255 0 0
0.233965 -0.202748 0.0222213 255 0 0
0.23467 -0.202633 0.02355 255 0 0
0.231991 -0.201535 0.0234513 255 0 0
0.222919 -0.194078 0.0234783 255 0 0
0.217025 -0.192673 0.0220321 255 0 0
0.218675 -0.192738 0.023409 255 0 0
0.215569 -0.190513 0.0226005 255 0 0
0.216576 -0.191782 0.023057 255 0 0
0.223981 -0.190917 0.0223156 255 0 0
0.214986 -0.188605 0.022592 255 0 0
0.233189 -0.18861 0.0227863 255 0 0
0.236359 -0.18975 0.0229066 255 0 0
0.214186 -0.18676 0.0226047 255 0 0
0.231333 -0.187238 0.0226191 255 0 0
0.243804 -0.186314 0.0233021 255 0 0
0.214245 -0.184641 0.0225309 255 0 0
0.230762 -0.185624 0.0224038 255 0 0
0.244983 -0.184695 0.022698 255 0 0
0.23103 -0.183671 0.0238447 255 0 0
0.232112 -0.183625 0.0221133 255 0 0
0.246852 -0.182761 0.0235039 255 0 0
0.214934 -0.181257 0.0233826 255 0 0
0.233033 -0.181525 0.0235372 255 0 0
0.249583 -0.180867 0.0232032 255 0 0
0.216095 -0.179265 0.0227036 255 0 0
0.233754 -0.179624 0.023273 255 0 0
0.148744 -0.139119 0.0239946 255 0 0
0.148041 -0.137226 0.0239839 255 0 0
0.233905 -0.205267 0.0250564 255 0 0
0.235374 -0.202519 0.0248779 255 0 0
0.232302 -0.201477 0.0250493 255 0 0
0.220783 -0.192677 0.0247563 255 0 0
0.222618 -0.192972 0.0252939 255 0 0
0.217162 -0.190599 0.0250019 255 0 0
0.218217 -0.191332 0.0249327 255 0 0
0.220329 -0.191777 0.0257918 255 0 0
0.223555 -0.191014 0.0244518 255 0 0
0.215318 -0.188535 0.0245882 255 0 0
0.21611 -0.18987 0.0250673 255 0 0
0.23469 -0.18816 0.0244272 255 0 0
0.237884 -0.189303 0.0245581 255 0 0
0.214517 -0.186688 0.0246018 255 0 0
0.232601 -0.186742 0.025108 255 0 0
0.243327 -0.186093 0.0250961 255 0 0
0.214146 -0.184703 0.0245747 255 0 0
0.232349 -0.185058 0.0248823 255 0 0
0.245127 -0.184309 0.0251054 255 0 0
0.214204 -0.182572 0.0245067 255 0 0
0.231233 -0.18346 0.02553 255 0 0
0.247532 -0.182461 0.0249187 255 0 0
0.232591 -0.181442 0.0252532 255 0 0
0.250015 -0.180462 0.0255394 255 0 0
0.233311 -0.179542 0.0249947 255 0 0
0.148243 -0.139157 0.0256648 255 0 0
0.147543 -0.137271 0.0256543 255 0 0
0.148507 -0.135633 0.0249982 255 0 0
0.153092 -0.118357 0.0254517 255 0 0
0.151695 -0.117015 0.0255357 255 0 0
0.151465 -0.115477 0.0250338 255 0 0
0.234064 -0.204843 0.0273573 255 0 0
0.235696 -0.203363 0.026609 255 0 0
0.236078 -0.202404 0.026205 255 0 0
0.233547 -0.201278 0.0268902 255 0 0
0.235162 -0.201921 0.0266032 255 0 0
0.223642 -0.198375 0.0271075 255 0 0
0.221412 -0.195081 0.0264826 255 0 0
0.223228 -0.19464 0.0271766 255 0 0
0.221571 -0.192482 0.0267363 255 0 0
0.22262 -0.192953 0.0274768 255 0 0
0.219876 -0.190877 0.0268275 255 0 0
0.221116 -0.19158 0.0277746 255 0 0
0.223503 -0.191042 0.0263002 255 0 0
0.216703 -0.189193 0.0265246 255 0 0
0.219422 -0.189977 0.0278634 255 0 0
0.224916 -0.189313 0.0269018 255 0 0
0.234249 -0.188076 0.0261396 255 0 0
0.236783 -0.189339 0.0262998 255 0 0
0.215291 -0.186996 0.0260696 255 0 0
0.216075 -0.187819 0.0270462 255 0 0
0.233881 -0.186242 0.0276182 255 0 0
0.235109 -0.187746 0.0278183 255 0 0
0.214743 -0.185074 0.0267401 255 0 0
0.232657 -0.184743 0.0274186 255 0 0
0.243424 -0.185834 0.0266863 255 0 0
0.214115 -0.183153 0.0260592 255 0 0
0.232081 -0.183118 0.0272023 255 0 0
0.245848 -0.183882 0.027309 255 0 0
0.247624 -0.182206 0.0265279 255 0 0
0.232798 -0.181227 0.0269506 255 0 0
0.248302 -0.181907 0.0279388 255 0 0
0.250698 -0.18016 0.0269613 255 0 0
0.234173 -0.179186 0.0266789 255 0 0
0.148991 -0.14279 0.0268964 255 0 0
0.150807 -0.140396 0.027714 255 0 0
0.149442 -0.138964 0.0270777 255 0 0
0.14973 -0.13702 0.0271407 255 0 0
0.149443 -0.135303 0.0260215 255 0 0
0.155494 -0.121329 0.0272241 255 0 0
0.153007 -0.11843 0.0273516 255 0 0
0.154241 -0.119319 0.0267981 255 0 0
0.1516 -0.11653 0.0269441 255 0 0
0.15235 -0.117722 0.0264429 255 0 0
0.150841 -0.114778 0.026956 255 0 0
0.231918 -0.206314 0.0282791 255 0 0
0.232557 -0.206024 0.0296139 255 0 0
0.233097 -0.204582 0.0292474 255 0 0
0.232035 -0.203167 0.0294225 255 0 0
0.235745 -0.202423 0.0291466 255 0 0
0.233618 -0.201247 0.029544 255 0 0
0.223602 -0.199107 0.0290093 255 0 0
0.222926 -0.196892 0.0286276 255 0 0
0.221001 -0.195159 0.0285691 255 0 0
0.22335 -0.194638 0.0292227 255 0 0
0.222272 -0.192787 0.0292983 255 0 0
0.221284 -0.19103 0.02929 255 0 0
0.222711 -0.191207 0.0286709 255 0 0
0.239114 -0.190322 0.0299013 255 0 0
0.216862 -0.188644 0.0280248 255 0 0
0.218741 -0.188626 0.0294177 255 0 0
0.220207 -0.189776 0.0298517 255 0 0
0.224114 -0.189488 0.0292781 255 0 0
0.236553 -0.189048 0.0297237 255 0 0
0.216671 -0.187135 0.0285128 255 0 0
0.22446 -0.187937 0.0288529 255 0 0
0.23344 -0.186159 0.0293314 255 0 0
0.234016 -0.187785 0.0295477 255 0 0
0.215027 -0.184485 0.0285709 255 0 0
0.216041 -0.185757 0.0290363 255 0 0
0.231572 -0.184787 0.0291437 255 0 0
0.214016 -0.183215 0.0281063 255 0 0
0.231641 -0.183035 0.0289133 255 0 0
0.246522 -0.183584 0.0287112 255 0 0
0.233657 -0.180876 0.0286369 255 0 0
0.248979 -0.181608 0.0293489 255 0 0
0.150816 -0.145176 0.0284501 255 0 0
0.152106 -0.144775 0.0293104 255 0 0
0.155337 -0.145297 0.0295534 255 0 0
0.151304 -0.142968 0.0286342 255 0 0
0.153982 -0.142182 0.0296159 255 0 0
0.15445 -0.143444 0.0296224 255 0 0
0.1512 -0.141625 0.0284696 255 0 0
0.15388 -0.14083 0.0294517 255 0 0
0.151275 -0.138811 0.0287296 255 0 0
0.152698 -0.139313 0.0292065 255 0 0
0.150935 -0.136824 0.028561 255 0 0
0.152473 -0.137035 0.0294322 255 0 0
0.15452 -0.136421 0.0299883 255 0 0
0.152734 -0.135577 0.029109 255 0 0
0.146573 -0.130387 0.0293131 255 0 0
0.156156 -0.122042 0.0281368 255 0 0
0.154826 -0.120647 0.0288391 255 0 0
0.153132 -0.118922 0.0287727 255 0 0
0.151505 -0.116044 0.0283536 255 0 0
0.152373 -0.11717 0.028786 255 0 0
0.151083 -0.115205 0.0293093 255 0 0
0.232663 -0.205743 0.0311257 255 0 0
0.234905 -0.205429 0.0319279 255 0 0
0.23708 -0.203948 0.0310304 255 0 0
0.227935 -0.200143 0.0319853 255 0 0
0.223536 -0.198388 0.0307435 255 0 0
0.22464 -0.199666 0.0310183 255 0 0
0.227413 -0.198732 0.0319799 255 0 0
0.219886 -0.196083 0.0312347 255 0 0
0.221728 -0.197226 0.0300887 255 0 0
0.222827 -0.196932 0.0314667 255 0 0
0.226772 -0.196149 0.0302906 255 0 0
0.22094 -0.194452 0.0303012 255 0 0
0.223249 -0.194698 0.0312872 255 0 0
0.225728 -0.194757 0.0304628 255 0 0
0.221227 -0.192957 0.0316901 255 0 0
0.222439 -0.19283 0.0313039 255 0 0
0.221629 -0.190961 0.0313205 255 0 0
0.224799 -0.191672 0.0319527 255 0 0
0.238668 -0.190236 0.031629 255 0 0
0.241922 -0.191402 0.0318059 255 0 0
0.219751 -0.188873 0.0308906 255 0 0
0.220995 -0.189574 0.0318497 255 0 0
0.235455 -0.189084 0.0314542 255 0 0
0.21683 -0.186582 0.0300197 255 0 0
0.218467 -0.187161 0.0316267 255 0 0
0.233287 -0.186888 0.0311516 255 0 0
0.215588 -0.184859 0.0300694 255 0 0
0.216377 -0.185683 0.0310539 255 0 0
0.231776 -0.184577 0.0308391 255 0 0
0.214742 -0.18355 0.0306108 255 0 0
0.232493 -0.182691 0.0305993 255 0 0
0.157209 -0.144764 0.0301878 255 0 0
0.15877 -0.144992 0.031066 255 0 0
0.156504 -0.142862 0.0301782 255 0 0
0.155192 -0.140414 0.0303227 255 0 0
0.156694 -0.141385 0.0306094 255 0 0
0.158684 -0.14076 0.0319261 255 0 0
