ply
format ascii 1.0
element vertex 1257
property float x
property float y
property float z
property uchar diffuse_red
property uchar diffuse_green
property uchar diffuse_blue
end_header
0.0799128 -0.0566267 -0.00120749 255 0 0
0.0806455 -0.0572339 -0.000649758 255 0 0
0.0824006 -0.0579313 -0.000318132 255 0 0
0.0846012 -0.0571709 -0.000892833 255 0 0
0.0793125 -0.0549276 -0.00116001 255 0 0
0.0807529 -0.0553077 -0.00014933 255 0 0
0.0842651 -0.0552033 -0.000914454 255 0 0
0.0776274 -0.0521546 -0.000968328 255 0 0
0.0785375 -0.0530276 -0.000888197 255 0 0
0.0801797 -0.0535564 -0.000217964 255 0 0
0.0823804 -0.0534072 -0.00145899 255 0 0
0.0840409 -0.0538911 -0.000928864 255 0 0
0.0758195 -0.0504202 -0.00112754 255 0 0
0.0767214 -0.0512855 -0.00104808 255 0 0
0.0747914 -0.0486169 -0.000861911 255 0 0
0.0733652 -0.0466076 -0.000616917 255 0 0
0.0740806 -0.0472043 -0.00142831 255 0 0
0.072837 -0.0450504 -0.000980364 255 0 0
0.0726783 -0.0429642 -0.00117835 255 0 0
0.0722719 -0.0409648 -0.00071715 255 0 0
0.0721906 -0.0388159 -0.000920139 255 0 0
0.196166 -0.241407 0.00090794 255 0 0
0.197213 -0.239205 0.000933157 255 0 0
0.197457 -0.237033 0.000627543 255 0 0
0.198293 -0.236941 0.00183745 255 0 0
0.198626 -0.235033 0.000887341 255 0 0
0.199578 -0.232562 0.000674324 255 0 0
0.200365 -0.231045 0.000939215 255 0 0
0.201556 -0.229514 0.000928061 255 0 0
0.202129 -0.228022 0.000442166 255 0 0
0.202776 -0.227034 0.00147534 255 0 0
0.197809 -0.224569 0.00193587 255 0 0
0.19864 -0.224681 0.000276304 255 0 0
0.203571 -0.2251 0.00052166 255 0 0
0.204138 -0.224923 0.000696526 255 0 0
0.198484 -0.223014 0.000929407 255 0 0
0.203847 -0.223463 0.000253826 255 0 0
0.204946 -0.223369 0.000964889 255 0 0
0.198328 -0.221344 0.00158489 255 0 0
0.203713 -0.221226 0.00133183 255 0 0
0.205436 -0.221071 0.00141299 255 0 0
0.197673 -0.218143 0.00127905 255 0 0
0.198 -0.219744 0.00143199 255 0 0
0.203922 -0.21846 0.00160487 255 0 0
0.205292 -0.218823 0.00138305 255 0 0
0.198521 -0.216493 0.00107826 255 0 0
0.204629 -0.217069 0.00139745 255 0 0
0.199967 -0.214806 0.000851861 255 0 0
0.203648 -0.215191 0.000469582 255 0 0
0.204447 -0.215506 0.00144093 255 0 0
0.200828 -0.213134 0.000648242 255 0 0
0.203503 -0.212935 0.000439003 255 0 0
0.204755 -0.213485 0.000801861 255 0 0
0.201255 -0.210782 0.00108945 255 0 0
0.202765 -0.210915 0.00107101 255 0 0
0.204475 -0.211838 0.000788897 255 0 0
0.20169 -0.209257 0.00110498 255 0 0
0.202347 -0.208294 0.000809004 255 0 0
0.200958 -0.207083 0.00105498 255 0 0
0.202783 -0.206539 0.00132375 255 0 0
0.195615 -0.204626 0.0017702 255 0 0
0.201387 -0.204826 0.000948286 255 0 0
0.202035 -0.205248 0.000714207 255 0 0
0.204347 -0.204534 0.00131856 255 0 0
0.197502 -0.202359 0.00135164 255 0 0
0.199409 -0.203885 0.000606403 255 0 0
0.200906 -0.202815 0.00135298 255 0 0
0.20585 -0.202755 0.00108843 255 0 0
0.191305 -0.200599 0.000929549 255 0 0
0.195795 -0.200886 0.000211507 255 0 0
0.19978 -0.200387 0.00199054 255 0 0
0.200329 -0.201336 0.00093148 255 0 0
0.206747 -0.201008 0.000881164 255 0 0
0.190695 -0.199182 0.00127644 255 0 0
0.193388 -0.199425 0.00120275 255 0 0
0.198696 -0.199009 0.000551091 255 0 0
0.208273 -0.199198 0.000647177 255 0 0
0.189483 -0.196897 0.00105217 255 0 0
0.191708 -0.197972 7.17491e-05 255 0 0
0.195035 -0.196073 0.00119392 255 0 0
0.196845 -0.197272 0.000637902 255 0 0
0.210443 -0.197316 0.000385027 255 0 0
0.187525 -0.195077 0.00178121 255 0 0
0.189547 -0.194817 9.16421e-07 255 0 0
0.193456 -0.194302 0.00128429 255 0 0
0.194484 -0.195125 0.000244383 255 0 0
0.211366 -0.195527 0.000172577 255 0 0
0.212384 -0.195289 0.00184231 255 0 0
0.189781 -0.193327 0.00156339 255 0 0
0.192884 -0.192834 0.000867222 255 0 0
0.213962 -0.193421 0.00160888 255 0 0
0.186499 -0.191166 0.000147916 255 0 0
0.189016 -0.191169 0.00106378 255 0 0
0.19229 -0.190845 0.00098024 255 0 0
0.214907 -0.1916 0.00139809 255 0 0
0.185928 -0.188755 0.00197417 255 0 0
0.186795 -0.188953 0.000621052 255 0 0
0.191452 -0.188913 0.00108738 255 0 0
0.215683 -0.188914 0.00110478 255 0 0
0.186168 -0.187105 0.00171597 255 0 0
0.190858 -0.186921 0.00120052 255 0 0
0.215811 -0.186285 0.000835369 255 0 0
0.180631 -0.184184 0.00124434 255 0 0
0.182546 -0.185361 0.000825258 255 0 0
0.186409 -0.185449 0.00145701 255 0 0
0.189998 -0.184468 0.0018387 255 0 0
0.191016 -0.185266 0.000799528 255 0 0
0.214811 -0.184653 0.000698628 255 0 0
0.177906 -0.18309 0.000468012 255 0 0
0.178733 -0.183016 0.00166041 255 0 0
0.186514 -0.182988 0.00119074 255 0 0
0.189425 -0.182997 0.00142086 255 0 0
0.213169 -0.183104 0.000588395 255 0 0
0.174866 -0.180642 0.000762535 255 0 0
0.176617 -0.181861 0.00134444 255 0 0
0.185592 -0.180653 0.00141776 255 0 0
0.187184 -0.180883 0.000696855 255 0 0
0.212178 -0.181484 0.000452602 255 0 0
0.172965 -0.178041 0.00110911 255 0 0
0.174294 -0.179285 0.00109929 255 0 0
0.185079 -0.178901 0.000750538 255 0 0
0.208936 -0.178429 0.000235225 255 0 0
0.21057 -0.179004 0.00111561 255 0 0
0.171987 -0.176727 0.00085501 255 0 0
0.181393 -0.176367 0.00125316 255 0 0
0.183448 -0.177104 0.000896957 255 0 0
0.184239 -0.177373 0.000221219 255 0 0
0.208969 -0.176537 0.00177448 255 0 0
0.171764 -0.175304 0.000923927 255 0 0
0.179455 -0.175039 0.00117765 255 0 0
0.182916 -0.175073 0.000844074 255 0 0
0.207359 -0.175027 0.00166196 255 0 0
0.17089 -0.173008 0.000822722 255 0 0
0.1758 -0.172383 0.00181377 255 0 0
0.177534 -0.173723 0.00110266 255 0 0
0.180964 -0.172947 0.000791757 255 0 0
0.168971 -0.170681 0.000915595 255 0 0
0.170411 -0.171197 0.00166137 255 0 0
0.175191 -0.170882 0.000228181 255 0 0
0.176742 -0.170461 0.00107552 255 0 0
0.179146 -0.171357 0.00153133 255 0 0
0.168807 -0.168509 0.00088604 255 0 0
0.170247 -0.169023 0.00163221 255 0 0
0.174826 -0.169033 0.000925297 255 0 0
0.168924 -0.167001 0.000689149 255 0 0
0.171009 -0.166679 0.00179614 255 0 0
0.173545 -0.167156 0.000963755 255 0 0
0.16859 -0.164868 0.000792279 255 0 0
0.170736 -0.164741 0.00116585 255 0 0
0.172869 -0.165129 0.00112178 255 0 0
0.167505 -0.16216 5.53755e-05 255 0 0
0.1698 -0.162498 0.00101351 255 0 0
0.171227 -0.163133 0.00195725 255 0 0
0.173544 -0.163098 0.00118951 255 0 0
0.167207 -0.160463 0.000867706 255 0 0
0.170582 -0.161123 0.00115558 255 0 0
0.173277 -0.16153 0.00117626 255 0 0
0.161924 -0.158065 0.00105784 255 0 0
0.164466 -0.158806 0.000912506 255 0 0
0.166448 -0.159365 0.00117891 255 0 0
0.172864 -0.15945 0.000896717 255 0 0
0.160112 -0.156862 0.00098111 255 0 0
0.163372 -0.156692 0.000838221 255 0 0
0.158656 -0.154808 0.000810482 255 0 0
0.163032 -0.155189 0.000442535 255 0 0
0.157698 -0.152652 0.000617666 255 0 0
0.163152 -0.153563 0.00101805 255 0 0
0.157523 -0.151039 0.00123279 255 0 0
0.164514 -0.150903 0.00117541 255 0 0
0.157066 -0.14906 0.000788212 255 0 0
0.164583 -0.148708 0.00130087 255 0 0
0.156954 -0.146493 1.88872e-05 255 0 0
0.165577 -0.14672 0.00190744 255 0 0
0.0913128 -0.0778916 9.64557e-05 255 0 0
0.0928649 -0.0769024 0.00133982 255 0 0
0.0919717 -0.0744359 0.00110766 255 0 0
0.0925931 -0.0755739 0.00121404 255 0 0
0.0908692 -0.0728302 0.000958272 255 0 0
0.0892918 -0.0707642 0.000766641 255 0 0
0.0875902 -0.0680533 0.000513891 255 0 0
0.0889651 -0.0686568 0.00123996 255 0 0
0.0903468 -0.0692678 0.0019682 255 0 0
0.0868304 -0.0664789 0.000813092 255 0 0
0.0887693 -0.0672117 0.0017729 255 0 0
0.0924776 -0.0672173 1.7345e-05 255 0 0
0.08543 -0.0649038 0.000220919 255 0 0
0.0867285 -0.0647111 0.00153536 255 0 0
0.0915253 -0.0657763 0.00192772 255 0 0
0.0838897 -0.0628863 3.37847e-05 255 0 0
0.084724 -0.0632562 0.000953679 255 0 0
0.0887635 -0.0628049 0.000228658 255 0 0
0.0834683 -0.0607754 0.00116145 255 0 0
0.0870264 -0.0610849 0.000587632 255 0 0
0.0825687 -0.0591217 0.00100466 255 0 0
0.0854144 -0.0587777 0.000457138 255 0 0
0.0868438 -0.0595164 0.00119363 255 0 0
0.0813742 -0.0569253 0.00079641 255 0 0
0.0827105 -0.0572782 0.00101379 255 0 0
0.0854358 -0.0567704 0.0010762 255 0 0
0.0863624 -0.0575737 0.0011303 255 0 0
0.080804 -0.0550838 0.00122132 255 0 0
0.082745 -0.0551258 0.00197061 255 0 0
0.084848 -0.0550798 0.000956096 255 0 0
0.0792861 -0.0530285 0.00108611 255 0 0
0.0814392 -0.0530178 0.0013856 255 0 0
0.0823589 -0.0539541 0.00192246 255 0 0
0.0843333 -0.0538765 0.000383914 255 0 0
0.0758633 -0.0501417 0.000805239 255 0 0
0.0773806 -0.0513353 0.000921947 255 0 0
0.0748468 -0.048845 0.000897939 255 0 0
0.0729581 -0.0469079 0.00114254 255 0 0
0.0719409 -0.0454202 0.000998521 255 0 0
0.0718598 -0.0432856 0.000798581 255 0 0
0.0708459 -0.0412078 0.00146213 255 0 0
0.0709712 -0.0392203 0.000845651 255 0 0
0.198635 -0.241185 0.00364639 255 0 0
0.197966 -0.239836 0.0022413 255 0 0
0.198501 -0.238809 0.00300147 255 0 0
0.19913 -0.23685 0.0030466 255 0 0
0.199296 -0.235397 0.00284562 255 0 0
0.199462 -0.233939 0.00264409 255 0 0
0.200444 -0.232429 0.00277504 255 0 0
0.201432 -0.230911 0.00290681 255 0 0
0.202224 -0.229389 0.00317614 255 0 0
0.203059 -0.227252 0.0030623 255 0 0
0.204002 -0.226353 0.00269195 255 0 0
0.19815 -0.224433 0.00354922 255 0 0
0.203925 -0.225014 0.00216186 255 0 0
0.204766 -0.224844 0.00315009 255 0 0
0.197823 -0.222836 0.00339681 255 0 0
0.203648 -0.223382 0.00214899 255 0 0
0.204556 -0.223291 0.0035385 255 0 0
0.206024 -0.223243 0.00295813 255 0 0
0.198082 -0.221221 0.00322367 255 0 0
0.204 -0.220022 0.00351311 255 0 0
0.204278 -0.221657 0.00352581 255 0 0
0.206721 -0.220938 0.00326844 255 0 0
0.197755 -0.219621 0.003071 255 0 0
0.203722 -0.218387 0.0035004 255 0 0
0.206784 -0.21868 0.00309997 255 0 0
0.198145 -0.217185 0.00280983 255 0 0
0.203998 -0.216738 0.00323701 255 0 0
0.206758 -0.217175 0.00303482 255 0 0
0.19972 -0.214684 0.00250377 255 0 0
0.20337 -0.214426 0.00244436 255 0 0
0.204727 -0.215057 0.00314045 255 0 0
0.200457 -0.212951 0.00313333 255 0 0
0.203565 -0.212895 0.00313467 255 0 0
0.204553 -0.213422 0.00270781 255 0 0
0.200836 -0.210899 0.00322941 255 0 0
0.202694 -0.211299 0.00303536 255 0 0
0.201303 -0.209081 0.00323003 255 0 0
0.203208 -0.208724 0.00303597 255 0 0
0.198953 -0.207293 0.00324379 255 0 0
0.201204 -0.207438 0.00366326 255 0 0
0.203041 -0.206406 0.00317741 255 0 0
0.197364 -0.205201 0.00240389 255 0 0
0.200763 -0.204866 0.0030226 255 0 0
0.202036 -0.205247 0.00273031 255 0 0
0.204097 -0.204413 0.00299832 255 0 0
0.193832 -0.203323 0.00294154 255 0 0
0.195062 -0.203199 0.00388433 255 0 0
0.196776 -0.202352 0.00348112 255 0 0
0.198674 -0.203873 0.00274761 255 0 0
0.201163 -0.202769 0.00337309 255 0 0
0.204985 -0.20268 0.00279806 255 0 0
0.195077 -0.200885 0.0023392 255 0 0
0.200841 -0.201239 0.00295999 255 0 0
0.206495 -0.200887 0.00257421 255 0 0
0.189638 -0.19934 0.00384607 255 0 0
0.192681 -0.199428 0.0033149 255 0 0
0.198703 -0.199017 0.00256325 255 0 0
0.208645 -0.199025 0.00232538 255 0 0
0.188931 -0.196966 0.0031932 255 0 0
0.191009 -0.19798 0.00218216 255 0 0
0.195048 -0.196086 0.00319122 255 0 0
0.196607 -0.197336 0.00263744 255 0 0
0.209305 -0.197129 0.0038283 255 0 0
0.210189 -0.197195 0.00209685 255 0 0
0.187358 -0.195049 0.00362319 255 0 0
0.189292 -0.194912 0.00291484 255 0 0
0.193471 -0.194317 0.00327679 255 0 0
0.194005 -0.195248 0.00223101 255 0 0
0.211491 -0.195226 0.00358511 255 0 0
0.186741 -0.193532 0.00201324 255 0 0
0.189862 -0.19336 0.00332102 255 0 0
0.1929 -0.192852 0.00286108 255 0 0
0.21435 -0.193237 0.00331711 255 0 0
0.185824 -0.191195 0.00223807 255 0 0
0.188988 -0.190478 0.00285954 255 0 0
0.190906 -0.191151 0.00330554 255 0 0
0.192329 -0.191386 0.00244501 255 0 0
0.215947 -0.191348 0.00308941 255 0 0
0.187962 -0.189117 0.00259767 255 0 0
0.190983 -0.188816 0.00324527 255 0 0
0.216904 -0.189509 0.00288216 255 0 0
0.184783 -0.186936 0.00361346 255 0 0
0.190392 -0.187068 0.00318086 255 0 0
0.216707 -0.186908 0.00262653 255 0 0
0.181265 -0.184926 0.00353881 255 0 0
0.185732 -0.185498 0.003546 255 0 0
0.189535 -0.184622 0.00381672 255 0 0
0.190063 -0.18554 0.00277234 255 0 0
0.215855 -0.184381 0.00239397 255 0 0
0.179561 -0.182943 0.00285211 255 0 0
0.185836 -0.183044 0.00328386 255 0 0
0.188964 -0.183155 0.0034008 255 0 0
0.214854 -0.18275 0.00225473 255 0 0
0.216555 -0.182392 0.00393587 255 0 0
0.175339 -0.180641 0.00221402 255 0 0
0.176624 -0.181213 0.0030977 255 0 0
0.178266 -0.181715 0.00371934 255 0 0
0.184919 -0.180718 0.00350738 255 0 0
0.18705 -0.180962 0.00268206 255 0 0
0.213209 -0.181205 0.00213967 255 0 0
0.215549 -0.180759 0.00379398 255 0 0
0.175352 -0.179214 0.00300761 255 0 0
0.185081 -0.178852 0.00300349 255 0 0
0.213057 -0.1794 0.00283766 255 0 0
0.173389 -0.176583 0.00249337 255 0 0
0.175134 -0.177312 0.00334134 255 0 0
0.181238 -0.176371 0.0030854 255 0 0
0.183016 -0.177742 0.00237119 255 0 0
0.184485 -0.176831 0.00273667 255 0 0
0.211264 -0.176068 0.00341417 255 0 0
0.212255 -0.177681 0.00355447 255 0 0
0.172584 -0.175233 0.00210438 255 0 0
0.174858 -0.174894 0.00308377 255 0 0
0.177501 -0.174474 0.003804 255 0 0
0.179476 -0.175012 0.00379337 255 0 0
0.182949 -0.175118 0.00282282 255 0 0
0.209002 -0.174641 0.0033178 255 0 0
0.173093 -0.172963 0.00246799 255 0 0
0.175745 -0.173271 0.00321608 255 0 0
0.177143 -0.173013 0.00345339 255 0 0
0.180999 -0.172995 0.00276498 255 0 0
0.171915 -0.170963 0.00231157 255 0 0
0.173427 -0.170727 0.00296442 255 0 0
0.175229 -0.171064 0.00324368 255 0 0
0.177146 -0.170988 0.00349437 255 0 0
0.179185 -0.171408 0.00349612 255 0 0
0.171581 -0.168826 0.00241519 255 0 0
0.173204 -0.1693 0.00303379 255 0 0
0.17474 -0.169091 0.00352173 255 0 0
0.173168 -0.166867 0.00283879 255 0 0
0.174385 -0.167123 0.00326772 255 0 0
0.171711 -0.165083 0.00205846 255 0 0
0.172999 -0.165009 0.0030983 255 0 0
0.174323 -0.164569 0.00355797 255 0 0
0.170738 -0.162265 0.00297652 255 0 0
0.17219 -0.16341 0.00340906 255 0 0
0.174541 -0.162911 0.00330709 255 0 0
0.170179 -0.160825 0.00257157 255 0 0
0.174274 -0.161342 0.0032941 255 0 0
0.165051 -0.158868 0.0026308 255 0 0
0.16765 -0.159497 0.00258122 255 0 0
0.160384 -0.15666 0.002505 255 0 0
0.162705 -0.157758 0.00256758 255 0 0
0.164528 -0.156881 0.00227609 255 0 0
0.166797 -0.157192 0.00324111 255 0 0
0.159463 -0.155204 0.00315326 255 0 0
0.165682 -0.154323 0.00243537 255 0 0
0.166654 -0.155095 0.00336521 255 0 0
0.157965 -0.152446 0.00213531 255 0 0
0.158681 -0.153243 0.00323189 255 0 0
0.165973 -0.152059 0.00257085 255 0 0
0.167387 -0.152671 0.00351767 255 0 0
0.157925 -0.150727 0.00351252 255 0 0
0.165391 -0.15011 0.00268136 255 0 0
0.166366 -0.150881 0.00361466 255 0 0
0.157615 -0.149215 0.00336882 255 0 0
0.163941 -0.148491 0.00276605 255 0 0
0.164912 -0.149259 0.00369733 255 0 0
0.166513 -0.146469 0.00388029 255 0 0
0.0932624 -0.0720867 0.00223638 255 0 0
0.0947364 -0.0735112 0.00237193 255 0 0
0.097192 -0.0727632 0.00367653 255 0 0
0.091314 -0.0702032 0.00205717 255 0 0
0.0922858 -0.0711429 0.00214658 255 0 0
0.0952011 -0.0708553 0.00348857 255 0 0
0.0961942 -0.071807 0.00358232 255 0 0
0.0918994 -0.0682254 0.00322678 255 0 0
0.0928761 -0.0691635 0.00331916 255 0 0
0.0942128 -0.0699079 0.00339521 255 0 0
0.0896135 -0.0665619 0.00306025 255 0 0
0.090579 -0.0674909 0.00315175 255 0 0
0.0876961 -0.0647164 0.00287846 255 0 0
0.0886526 -0.0656371 0.00296915 255 0 0
0.0857969 -0.0628875 0.00269834 255 0 0
0.086685 -0.0630138 0.00338468 255 0 0
0.0848788 -0.0611452 0.00319898 255 0 0
0.0868772 -0.0605666 0.00259657 255 0 0
0.0890189 -0.0605407 0.00212837 255 0 0
0.0833468 -0.0592136 0.00234305 255 0 0
0.0841292 -0.0593051 0.00368835 255 0 0
0.0869818 -0.0585967 0.00252035 255 0 0
0.0885073 -0.0589442 0.0030107 255 0 0
0.0815177 -0.0566702 0.00209646 255 0 0
0.0831883 -0.0574809 0.00306856 255 0 0
0.085767 -0.0569246 0.00284752 255 0 0
0.0873422 -0.056714 0.00257974 255 0 0
0.0817249 -0.0548991 0.00325907 255 0 0
0.0830736 -0.0553294 0.00316023 255 0 0
0.0854336 -0.0546222 0.0031258 255 0 0
0.0867264 -0.0554121 0.00353383 255 0 0
0.0808291 -0.0532567 0.00309908 255 0 0
0.0833058 -0.0526579 0.00329268 255 0 0
0.0848648 -0.0528598 0.00375427 255 0 0
0.0771327 -0.0505148 0.00281223 255 0 0
0.0789876 -0.0515017 0.00292016 255 0 0
0.0750424 -0.0489381 0.00297422 255 0 0
0.0728424 -0.0467366 0.00307381 255 0 0
0.0745619 -0.0476718 0.00383121 255 0 0
0.0713837 -0.0448276 0.00288159 255 0 0
0.0708368 -0.0430221 0.00270935 255 0 0
0.0699158 -0.0406711 0.0031292 255 0 0
0.0701767 -0.0419456 0.00324934 255 0 0
0.0696549 -0.0393963 0.003009 255 0 0
0.199324 -0.238924 0.00482229 255 0 0
0.19918 -0.236753 0.00479505 255 0 0
0.199346 -0.235304 0.00459703 255 0 0
0.20018 -0.235213 0.00580321 255 0 0
0.199905 -0.23385 0.00412765 255 0 0
0.201025 -0.233028 0.00510288 255 0 0
0.203459 -0.232929 0.00523315 255 0 0
0.201875 -0.230826 0.00439752 255 0 0
0.203518 -0.230726 0.00507019 255 0 0
0.203289 -0.229258 0.00514286 255 0 0
0.203866 -0.227771 0.00467006 255 0 0
0.204816 -0.226714 0.00516877 255 0 0
0.207781 -0.226049 0.0055521 255 0 0
0.198362 -0.225101 0.00525135 255 0 0
0.205255 -0.224762 0.00519229 255 0 0
0.208377 -0.224538 0.00507549 255 0 0
0.198165 -0.222697 0.00501392 255 0 0
0.204355 -0.22321 0.0054267 255 0 0
0.206467 -0.22317 0.00446826 255 0 0
0.208559 -0.223033 0.00487321 255 0 0
0.21025 -0.222911 0.00555757 255 0 0
0.212796 -0.222756 0.00569099 255 0 0
0.198425 -0.221081 0.00484317 255 0 0
0.204632 -0.221572 0.00516683 255 0 0
0.208211 -0.220796 0.00498432 255 0 0
0.210017 -0.221417 0.00563193 255 0 0
0.212562 -0.221253 0.00576587 255 0 0
0.198097 -0.219479 0.00469045 255 0 0
0.204215 -0.21912 0.00514802 255 0 0
0.208915 -0.218481 0.00529975 255 0 0
0.210203 -0.219901 0.00542973 255 0 0
0.212211 -0.218999 0.00587823 255 0 0
0.198845 -0.21671 0.00494125 255 0 0
0.204353 -0.216654 0.00488107 255 0 0
0.209099 -0.216962 0.00509719 255 0 0
0.199474 -0.214562 0.00415464 255 0 0
0.200417 -0.214385 0.00577039 255 0 0
0.205059 -0.214612 0.00462709 255 0 0
0.207173 -0.215098 0.00476394 255 0 0
0.209504 -0.215408 0.00565329 255 0 0
0.200086 -0.212768 0.00561638 255 0 0
0.204599 -0.213062 0.00479556 255 0 0
0.206521 -0.21262 0.00566749 255 0 0
0.209271 -0.21391 0.00572783 255 0 0
0.200352 -0.211118 0.00544474 255 0 0
0.203284 -0.211235 0.00498181 255 0 0
0.200837 -0.209026 0.00514558 255 0 0
0.202888 -0.209355 0.00541911 255 0 0
0.204252 -0.209059 0.00454172 255 0 0
0.199404 -0.207247 0.00474175 255 0 0
0.200725 -0.207417 0.00542152 255 0 0
0.202359 -0.206411 0.00501989 255 0 0
0.197143 -0.204979 0.00495656 255 0 0
0.198844 -0.205636 0.00487661 255 0 0
0.201994 -0.204197 0.00580934 255 0 0
0.202334 -0.204812 0.00472755 255 0 0
0.192067 -0.202033 0.00410029 255 0 0
0.195127 -0.203202 0.00563987 255 0 0
0.196591 -0.20231 0.00535271 255 0 0
0.198485 -0.203827 0.00462863 255 0 0
0.201166 -0.202771 0.00538135 255 0 0
0.203511 -0.20265 0.00452077 255 0 0
0.190699 -0.200712 0.00497905 255 0 0
0.193673 -0.201865 0.00476995 255 0 0
0.194363 -0.200883 0.00445309 255 0 0
0.199536 -0.200448 0.00499389 255 0 0
0.200338 -0.201346 0.00495435 255 0 0
0.205011 -0.200863 0.0043057 255 0 0
0.191226 -0.199345 0.00523199 255 0 0
0.198459 -0.199078 0.00456068 255 0 0
0.205654 -0.19899 0.00579989 255 0 0
0.207144 -0.199008 0.00406846 255 0 0
0.188648 -0.196502 0.00462458 255 0 0
0.190193 -0.197383 0.00486478 255 0 0
0.194568 -0.196207 0.0051655 255 0 0
0.196617 -0.197347 0.00463569 255 0 0
0.207798 -0.197118 0.0055713 255 0 0
0.187191 -0.19502 0.00545876 255 0 0
0.190549 -0.194794 0.00472824 255 0 0
0.193486 -0.194333 0.00526309 255 0 0
0.19402 -0.195262 0.00422143 255 0 0
0.185594 -0.192773 0.00512233 255 0 0
0.186065 -0.193554 0.00409359 255 0 0
0.190702 -0.193282 0.00453067 255 0 0
0.192672 -0.192926 0.00484022 255 0 0
0.214093 -0.193116 0.00504867 255 0 0
0.185525 -0.19038 0.00406797 255 0 0
0.191099 -0.19085 0.00473725 255 0 0
0.192346 -0.191406 0.00443399 255 0 0
0.216341 -0.191161 0.00480987 255 0 0
0.185255 -0.188793 0.00405513 255 0 0
0.191121 -0.18892 0.00536965 255 0 0
0.217301 -0.189318 0.00460799 255 0 0
0.184496 -0.186983 0.00551465 255 0 0
0.190412 -0.187095 0.00516631 255 0 0
0.217607 -0.187535 0.00442504 255 0 0
0.181011 -0.185049 0.00552211 255 0 0
0.18506 -0.185546 0.00562173 255 0 0
0.189556 -0.184653 0.00580074 255 0 0
0.190084 -0.185569 0.00476052 255 0 0
0.217739 -0.184888 0.00415984 255 0 0
0.218977 -0.185476 0.00595921 255 0 0
0.179313 -0.183073 0.00483581 255 0 0
0.185163 -0.183101 0.00536367 255 0 0
0.188745 -0.18325 0.00537803 255 0 0
0.218448 -0.182892 0.00571376 255 0 0
0.177334 -0.180425 0.00431692 255 0 0
0.178978 -0.180927 0.00494029 255 0 0
0.184249 -0.180781 0.0055837 255 0 0
0.18716 -0.180983 0.00499617 255 0 0
0.217259 -0.180391 0.00548691 255 0 0
0.177111 -0.178997 0.00438657 255 0 0
0.178998 -0.178705 0.00478229 255 0 0
0.180181 -0.17856 0.00570728 255 0 0
0.183979 -0.179193 0.00557105 255 0 0
0.185105 -0.178851 0.00460043 255 0 0
0.215594 -0.178842 0.00536108 255 0 0
0.177129 -0.176778 0.00422776 255 0 0
0.178774 -0.177272 0.00485233 255 0 0
0.180879 -0.176674 0.00508106 255 0 0
0.182774 -0.176949 0.00531333 255 0 0
0.1843 -0.177456 0.00418072 255 0 0
0.213939 -0.177302 0.00523605 255 0 0
0.17909 -0.175008 0.00491111 255 0 0
0.180519 -0.174773 0.00522435 255 0 0
0.182375 -0.175268 0.0053869 255 0 0
0.21066 -0.174251 0.00498818 255 0 0
0.212294 -0.175772 0.00511173 255 0 0
0.177106 -0.172958 0.00472526 255 0 0
0.179271 -0.172576 0.00448113 255 0 0
0.180676 -0.173084 0.00502896 255 0 0
0.2084 -0.172832 0.00488464 255 0 0
0.175731 -0.170765 0.00517809 255 0 0
0.177064 -0.170175 0.00474047 255 0 0
0.178833 -0.171264 0.00512482 255 0 0
0.175263 -0.169137 0.0051373 255 0 0
0.177157 -0.168806 0.00525933 255 0 0
0.17908 -0.169139 0.00590149 255 0 0
0.173579 -0.166376 0.00435523 255 0 0
0.174693 -0.167116 0.00493188 255 0 0
0.176851 -0.167315 0.00560548 255 0 0
0.173537 -0.165039 0.00484706 255 0 0
0.174421 -0.164693 0.00536682 255 0 0
0.176274 -0.165971 0.00593727 255 0 0
0.17291 -0.163251 0.00537356 255 0 0
0.174883 -0.162848 0.0048784 255 0 0
0.171118 -0.16059 0.0045392 255 0 0
0.172573 -0.161733 0.00497589 255 0 0
0.174616 -0.16128 0.00486557 255 0 0
0.166362 -0.158456 0.0041381 255 0 0
0.170314 -0.158715 0.00464342 255 0 0
0.160544 -0.156409 0.00480664 255 0 0
0.162982 -0.157555 0.0041032 255 0 0
0.164279 -0.15714 0.00560961 255 0 0
0.168849 -0.157073 0.00472455 255 0 0
0.16012 -0.154844 0.00543496 255 0 0
0.168068 -0.155713 0.00431195 255 0 0
0.158658 -0.15279 0.00525226 255 0 0
0.168809 -0.153286 0.0044689 255 0 0
0.170237 -0.153903 0.00542464 255 0 0
0.157699 -0.150633 0.00505369 255 0 0
0.16774 -0.150472 0.00559907 255 0 0
0.168938 -0.151635 0.00505885 255 0 0
0.165842 -0.149012 0.00566066 255 0 0
0.166323 -0.149864 0.00464597 255 0 0
0.0978093 -0.0707606 0.00487096 255 0 0
0.0949531 -0.0685837 0.00464392 255 0 0
0.0971686 -0.0696058 0.00475833 255 0 0
0.0917855 -0.066637 0.00443541 255 0 0
0.0931343 -0.0667546 0.00536778 255 0 0
0.0953381 -0.0674516 0.00591487 255 0 0
0.0970595 -0.0679937 0.00598706 255 0 0
0.0898441 -0.0647792 0.00424609 255 0 0
0.0908272 -0.0650918 0.00518792 255 0 0
0.0879211 -0.0629381 0.00405851 255 0 0
0.0888935 -0.0632442 0.00499547 255 0 0
0.0869839 -0.0611079 0.00522446 255 0 0
0.0852543 -0.0591905 0.00502619 255 0 0
0.0882862 -0.0581513 0.00486572 255 0 0
0.0845462 -0.0566603 0.00478519 255 0 0
0.087888 -0.0569613 0.00481415 255 0 0
0.0886347 -0.0566522 0.00595161 255 0 0
0.0833365 -0.0544515 0.00456705 255 0 0
0.0842906 -0.0544239 0.00591657 255 0 0
0.0871203 -0.0550394 0.00524359 255 0 0
0.0882361 -0.0554641 0.0058989 255 0 0
0.0813339 -0.0520241 0.0043185 255 0 0
0.0830098 -0.0528145 0.00530443 255 0 0
0.0856021 -0.0525499 0.00488244 255 0 0
0.0868272 -0.0529134 0.00548927 255 0 0
0.0791572 -0.0504847 0.00414901 255 0 0
0.0808086 -0.0507991 0.00486472 255 0 0
0.0821428 -0.0513332 0.00559944 255 0 0
0.0852104 -0.0513752 0.00483111 255 0 0
0.0862992 -0.0509009 0.00582459 255 0 0
0.0759158 -0.0480557 0.00519502 255 0 0
0.0771412 -0.0493075 0.00445328 255 0 0
0.0793297 -0.0494656 0.00538169 255 0 0
0.0859063 -0.0497269 0.00577218 255 0 0
0.0734853 -0.0467748 0.00503704 255 0 0
0.0746964 -0.0474131 0.00511578 255 0 0
0.0714231 -0.0445484 0.00479972 255 0 0
0.0725952 -0.0459248 0.00494467 255 0 0
0.0691788 -0.0430468 0.00591335 255 0 0
0.0705661 -0.0429607 0.00464103 255 0 0
0.0674632 -0.040642 0.005661 255 0 0
0.0683306 -0.0414705 0.00575386 255 0 0
0.0701745 -0.0410476 0.00446087 255 0 0
0.0697828 -0.039134 0.00428068 255 0 0
0.2043 -0.232839 0.00644949 255 0 0
0.203958 -0.230641 0.00655849 255 0 0
0.204132 -0.229168 0.00636112 255 0 0
0.199294 -0.224954 0.00685574 255 0 0
0.209647 -0.224434 0.00603475 255 0 0
0.199097 -0.222544 0.00661916 255 0 0
0.204708 -0.223125 0.00706403 255 0 0
0.198769 -0.22094 0.00646646 255 0 0
0.204986 -0.221487 0.00680687 255 0 0
0.214277 -0.221126 0.00645704 255 0 0
0.198613 -0.219264 0.00712731 255 0 0
0.204569 -0.219036 0.00678829 255 0 0
0.213808 -0.218113 0.00660749 255 0 0
0.214043 -0.21962 0.00653226 255 0 0
0.198875 -0.217636 0.00695931 255 0 0
0.204708 -0.21657 0.00652409 255 0 0
0.211438 -0.216769 0.00626761 255 0 0
0.213574 -0.216606 0.00668273 255 0 0
0.199905 -0.215904 0.00759235 255 0 0
0.20017 -0.214263 0.00742422 255 0 0
0.20443 -0.214933 0.00651167 255 0 0
0.211204 -0.215267 0.00634246 255 0 0
0.21334 -0.215098 0.006758 255 0 0
0.199839 -0.212646 0.00727043 255 0 0
0.204708 -0.213275 0.00625286 255 0 0
0.208621 -0.212442 0.00607849 255 0 0
0.211159 -0.212232 0.00621552 255 0 0
0.213725 -0.212019 0.00635332 255 0 0
0.200105 -0.210996 0.00710151 255 0 0
0.203456 -0.21085 0.00660357 255 0 0
0.205468 -0.211193 0.00629009 255 0 0
0.207558 -0.211011 0.00670265 255 0 0
0.210083 -0.210793 0.00684284 255 0 0
0.213062 -0.21054 0.00670675 255 0 0
0.199773 -0.209376 0.00694741 255 0 0
0.201662 -0.208462 0.00735763 255 0 0
0.20253 -0.208447 0.00629955 255 0 0
0.204509 -0.209016 0.00681001 255 0 0
0.206591 -0.208825 0.00722399 255 0 0
0.209013 -0.209363 0.00746673 255 0 0
0.200593 -0.206864 0.00693247 255 0 0
0.202957 -0.20683 0.00686363 255 0 0
0.206037 -0.206608 0.0074716 255 0 0
0.208248 -0.207155 0.00785191 255 0 0
0.199526 -0.204798 0.0062039 255 0 0
0.201053 -0.204676 0.00665408 255 0 0
0.202681 -0.205304 0.00707258 255 0 0
0.205396 -0.205159 0.00781748 255 0 0
0.196576 -0.202651 0.00676629 255 0 0
0.198694 -0.203288 0.00703335 255 0 0
0.200591 -0.202665 0.00773025 255 0 0
0.202368 -0.203272 0.00698888 255 0 0
0.191534 -0.200632 0.0061826 255 0 0
0.193245 -0.201189 0.00681825 255 0 0
0.194687 -0.200947 0.00736834 255 0 0
0.19736 -0.201488 0.00760165 255 0 0
0.199315 -0.201031 0.00744905 255 0 0
0.202802 -0.200829 0.00687991 255 0 0
0.190929 -0.199228 0.00652001 255 0 0
0.192234 -0.199227 0.00723915 255 0 0
0.194124 -0.198878 0.00786704 255 0 0
0.197691 -0.198716 0.00606619 255 0 0
0.198242 -0.199664 0.00701398 255 0 0
0.204172 -0.198973 0.00751972 255 0 0
0.18832 -0.196489 0.00682664 255 0 0
0.190758 -0.19743 0.0069929 255 0 0
0.192983 -0.196783 0.0076373 255 0 0
0.195095 -0.196632 0.00663739 255 0 0
0.196653 -0.197884 0.00709071 255 0 0
0.187536 -0.194946 0.00705139 255 0 0
0.190628 -0.194823 0.00646876 255 0 0
0.192862 -0.194493 0.00719255 255 0 0
0.1941 -0.195195 0.0071678 255 0 0
0.196217 -0.194155 0.00796471 255 0 0
0.186245 -0.193454 0.00751141 255 0 0
0.191159 -0.193259 0.00600721 255 0 0
0.192725 -0.193007 0.00675067 255 0 0
0.194758 -0.192822 0.00709047 255 0 0
0.196379 -0.192631 0.00777026 255 0 0
0.185035 -0.19118 0.00699355 255 0 0
0.191164 -0.191056 0.00638524 255 0 0
0.192611 -0.190848 0.00665549 255 0 0
0.194529 -0.191356 0.00716292 255 0 0
0.19615 -0.191161 0.00784304 255 0 0
0.216736 -0.190973 0.0065347 255 0 0
0.184758 -0.188794 0.00691609 255 0 0
0.191265 -0.189043 0.00704075 255 0 0
0.192844 -0.188562 0.00636224 255 0 0
0.194768 -0.189063 0.00686971 255 0 0
0.196393 -0.188862 0.00755056 255 0 0
0.219018 -0.188989 0.00630367 255 0 0
0.185167 -0.187119 0.00746149 255 0 0
0.190432 -0.187122 0.00714561 255 0 0
0.2192 -0.187136 0.00700295 255 0 0
0.181902 -0.184224 0.00661441 255 0 0
0.18285 -0.185528 0.00601949 255 0 0
0.185405 -0.185474 0.00721303 255 0 0
0.1896 -0.185201 0.00725114 255 0 0
0.21938 -0.185278 0.00770193 255 0 0
0.179779 -0.183067 0.00628269 255 0 0
0.180959 -0.182926 0.00720622 255 0 0
0.183957 -0.182442 0.0068268 255 0 0
0.185699 -0.182595 0.00709541 255 0 0
0.18748 -0.182008 0.00691514 255 0 0
0.188529 -0.183345 0.00734577 255 0 0
0.219027 -0.183554 0.0075383 255 0 0
0.179801 -0.180854 0.00612637 255 0 0
0.181094 -0.181426 0.00701597 255 0 0
0.185009 -0.180714 0.00700752 255 0 0
0.186483 -0.181226 0.0079274 255 0 0
0.21883 -0.180926 0.00728491 255 0 0
0.181591 -0.17985 0.00656359 255 0 0
0.183203 -0.178598 0.00653026 255 0 0
0.185072 -0.179139 0.00706875 255 0 0
0.21599 -0.178637 0.00709552 255 0 0
0.180928 -0.17638 0.00673091 255 0 0
0.183283 -0.177005 0.00664221 255 0 0
0.185099 -0.177096 0.00748229 255 0 0
0.214331 -0.177096 0.006965 255 0 0
0.179173 -0.175027 0.00742127 255 0 0
0.181317 -0.174625 0.00676302 255 0 0
0.182998 -0.175472 0.00657376 255 0 0
0.184393 -0.175004 0.00785142 255 0 0
0.211045 -0.174042 0.0067064 255 0 0
0.212683 -0.175565 0.00683531 255 0 0
0.177117 -0.173207 0.00705644 255 0 0
0.179303 -0.172532 0.00636645 255 0 0
0.181212 -0.173204 0.00649965 255 0 0
0.183098 -0.172723 0.00743503 255 0 0
0.184167 -0.173558 0.00792251 255 0 0
0.210056 -0.172434 0.00656154 255 0 0
0.176072 -0.170699 0.00674534 255 0 0
0.178529 -0.171178 0.0069249 255 0 0
0.180965 -0.171059 0.00646204 255 0 0
0.182156 -0.170905 0.00739322 255 0 0
0.17532 -0.169218 0.00696529 255 0 0
0.17723 -0.16891 0.00720495 255 0 0
0.181042 -0.168861 0.0071647 255 0 0
0.17544 -0.166785 0.00692764 255 0 0
0.178386 -0.167069 0.00626946 255 0 0
0.17489 -0.164825 0.0072552 255 0 0
0.174081 -0.162944 0.00735834 255 0 0
0.173175 -0.160896 0.00698474 255 0 0
0.1715 -0.158911 0.0061064 255 0 0
0.172487 -0.159693 0.00704717 255 0 0
0.166618 -0.156505 0.00709923 255 0 0
0.171363 -0.1568 0.00623644 255 0 0
0.172352 -0.157582 0.00717897 255 0 0
0.161901 -0.15431 0.00692355 255 0 0
0.163227 -0.155619 0.0070396 255 0 0
0.171673 -0.154523 0.00638483 255 0 0
0.173117 -0.155145 0.00734962 255 0 0
0.160082 -0.15312 0.00682264 255 0 0
0.171087 -0.152557 0.00649788 255 0 0
0.172079 -0.153337 0.00744395 255 0 0
0.159272 -0.151713 0.00669328 255 0 0
0.169608 -0.150918 0.00657469 255 0 0
0.171043 -0.151532 0.0075381 255 0 0
0.168137 -0.149287 0.0066512 255 0 0
0.17001 -0.14973 0.0076321 255 0 0
0.0957802 -0.0685445 0.00739445 255 0 0
0.096515 -0.0697222 0.00682669 255 0 0
0.0944693 -0.0670271 0.00723432 255 0 0
0.0909932 -0.0645285 0.00694795 255 0 0
0.0924579 -0.0659242 0.00709972 255 0 0
0.0894021 -0.0624765 0.00673452 255 0 0
0.087479 -0.060645 0.00653539 255 0 0
0.088112 -0.0608433 0.0079142 255 0 0
0.0865807 -0.059343 0.00729928 255 0 0
0.0856482 -0.0569932 0.0066214 255 0 0
0.0862696 -0.0574921 0.00757426 255 0 0
0.088851 -0.0572502 0.00668267 255 0 0
0.0853129 -0.0551875 0.00667627 255 0 0
0.0878727 -0.0542876 0.0072526 255 0 0
0.0882697 -0.0554713 0.00730665 255 0 0
0.0848121 -0.0531811 0.00715649 255 0 0
0.0878309 -0.0529454 0.00706414 255 0 0
0.0834285 -0.0510801 0.00693846 255 0 0
0.0875911 -0.0510137 0.00684886 255 0 0
0.0779298 -0.0480089 0.00654549 255 0 0
0.0794084 -0.0484192 0.00727766 255 0 0
0.0807559 -0.049097 0.0067035 255 0 0
0.08202 -0.0497563 0.00678965 255 0 0
0.0869979 -0.0492486 0.00676852 255 0 0
0.0882931 -0.0493569 0.00779622 255 0 0
0.073934 -0.0462997 0.00630677 255 0 0
0.0755371 -0.0465896 0.00702401 255 0 0
0.0767645 -0.0472314 0.00711008 255 0 0
0.0783952 -0.0475289 0.00783538 255 0 0
0.0709331 -0.0447238 0.00610127 255 0 0
0.072833 -0.0449934 0.00703466 255 0 0
0.0747026 -0.0456046 0.00757034 255 0 0
0.0693291 -0.0420432 0.0071172 255 0 0
0.0706459 -0.0432983 0.00726215 255 0 0
0.067892 -0.0401628 0.00691367 255 0 0
0.0687623 -0.0409916 0.00700942 255 0 0
0.199771 -0.224009 0.00839893 255 0 0
0.200099 -0.225614 0.00855161 255 0 0
0.199442 -0.222404 0.00824629 255 0 0
0.200383 -0.222249 0.00986632 255 0 0
0.205061 -0.223039 0.00870039 255 0 0
0.199114 -0.220799 0.00809358 255 0 0
0.200053 -0.220639 0.00971337 255 0 0
0.204784 -0.221409 0.00868821 255 0 0
0.199724 -0.219029 0.00956039 255 0 0
0.204646 -0.218957 0.00854875 255 0 0
0.199989 -0.217395 0.00939574 255 0 0
0.204962 -0.216452 0.0091082 255 0 0
0.201284 -0.214895 0.00912954 255 0 0
0.204962 -0.214808 0.00897449 255 0 0
0.200787 -0.212463 0.00889854 255 0 0
0.204684 -0.213171 0.00896234 255 0 0
0.199858 -0.210874 0.00875721 255 0 0
0.203673 -0.211597 0.00837265 255 0 0
0.199526 -0.209255 0.00860336 255 0 0
0.202428 -0.209184 0.00871774 255 0 0
0.199195 -0.207635 0.00844946 255 0 0
0.201477 -0.206881 0.00900785 255 0 0
0.19981 -0.205814 0.00992907 255 0 0
0.200478 -0.204755 0.00889029 255 0 0
0.202548 -0.205147 0.00876248 255 0 0
0.207485 -0.204953 0.00823605 255 0 0
0.200788 -0.202628 0.00922455 255 0 0
0.203712 -0.202316 0.00877587 255 0 0
0.205066 -0.202929 0.00881425 255 0 0
0.206428 -0.203545 0.00885269 255 0 0
0.196351 -0.200115 0.0082072 255 0 0
0.199039 -0.201211 0.00890546 255 0 0
0.201422 -0.200898 0.00905333 255 0 0
0.203077 -0.20088 0.00911815 255 0 0
0.205145 -0.200658 0.00954009 255 0 0
0.207231 -0.200435 0.00996472 255 0 0
0.208291 -0.201837 0.00935016 255 0 0
0.192675 -0.199278 0.00862797 255 0 0
0.196673 -0.198917 0.00864137 255 0 0
0.198251 -0.19916 0.00865835 255 0 0
0.200282 -0.198935 0.00907599 255 0 0
0.202877 -0.199176 0.00933771 255 0 0
0.189096 -0.196355 0.00910027 255 0 0
0.190835 -0.197802 0.00932372 255 0 0
0.195501 -0.196917 0.00848437 255 0 0
0.197038 -0.197479 0.00890979 255 0 0
0.199938 -0.196724 0.00918579 255 0 0
0.201983 -0.196488 0.00960671 255 0 0
0.202213 -0.197968 0.0095331 255 0 0
0.187369 -0.194917 0.00887728 255 0 0
0.193515 -0.194365 0.00921712 255 0 0
0.194047 -0.195291 0.0081837 255 0 0
0.196056 -0.195675 0.0081586 255 0 0
0.19889 -0.195343 0.00891653 255 0 0
0.201352 -0.195063 0.00994696 255 0 0
0.18608 -0.193429 0.00933141 255 0 0
0.192704 -0.192962 0.00879428 255 0 0
0.197729 -0.19323 0.00868344 255 0 0
0.199364 -0.193039 0.00936889 255 0 0
0.184918 -0.191134 0.00966097 255 0 0
0.192358 -0.190929 0.00892091 255 0 0
0.197779 -0.190964 0.00852613 255 0 0
0.199416 -0.190767 0.00921222 255 0 0
0.201062 -0.190568 0.00990129 255 0 0
0.185274 -0.188686 0.00929454 255 0 0
0.191283 -0.189067 0.0090146 255 0 0
0.197943 -0.189429 0.00833184 255 0 0
0.199583 -0.189228 0.00901839 255 0 0
0.200831 -0.189087 0.00997496 255 0 0
0.218097 -0.188936 0.00807281 255 0 0
0.185005 -0.187105 0.00928226 255 0 0
0.190694 -0.187089 0.00913012 255 0 0
0.219472 -0.18688 0.00962491 255 0 0
0.185242 -0.185463 0.00903697 255 0 0
0.189118 -0.184836 0.00972751 255 0 0
0.190125 -0.185628 0.00871827 255 0 0
0.218456 -0.185232 0.00947387 255 0 0
0.185346 -0.183023 0.00878479 255 0 0
0.187062 -0.182699 0.00931865 255 0 0
0.188572 -0.183894 0.0087906 255 0 0
0.219432 -0.183354 0.00928551 255 0 0
0.185216 -0.180545 0.00885037 255 0 0
0.186618 -0.180865 0.00935529 255 0 0
0.219745 -0.181545 0.00910889 255 0 0
0.183961 -0.178738 0.0090059 255 0 0
0.184538 -0.179436 0.00897511 255 0 0
0.186685 -0.179157 0.00917074 255 0 0
0.217708 -0.178259 0.00880769 255 0 0
0.219391 -0.179815 0.00894488 255 0 0
0.181457 -0.176654 0.00872697 255 0 0
0.182747 -0.177528 0.00894152 255 0 0
0.185818 -0.1763 0.00871512 255 0 0
0.186522 -0.177216 0.00946525 255 0 0
0.216036 -0.176712 0.00867137 255 0 0
0.18044 -0.174876 0.00871107 255 0 0
0.185592 -0.174853 0.00878641 255 0 0
0.186423 -0.174781 0.00998302 255 0 0
0.214374 -0.175175 0.00853587 255 0 0
0.176678 -0.172197 0.0083241 255 0 0
0.179325 -0.173187 0.00892281 255 0 0
0.185366 -0.173405 0.00885771 255 0 0
0.212723 -0.173647 0.00840118 255 0 0
0.178567 -0.171229 0.00887013 255 0 0
0.18335 -0.17075 0.00832615 255 0 0
0.185028 -0.171233 0.0089647 255 0 0
0.212523 -0.171034 0.00815093 255 0 0
0.177526 -0.169412 0.00896262 255 0 0
0.183125 -0.169305 0.00839722 255 0 0
0.184689 -0.169061 0.00907171 255 0 0
0.176536 -0.167056 0.00925416 255 0 0
0.182899 -0.167859 0.00846826 255 0 0
0.175614 -0.164667 0.00922575 255 0 0
0.17503 -0.16271 0.00933967 255 0 0
0.173074 -0.160695 0.00990504 255 0 0
0.174016 -0.161413 0.00891326 255 0 0
0.172489 -0.159217 0.00853374 255 0 0
0.171906 -0.157262 0.00864714 255 0 0
0.16659 -0.154754 0.00851183 255 0 0
0.172265 -0.155537 0.00925469 255 0 0
0.165126 -0.153386 0.00917474 255 0 0
0.173014 -0.153066 0.00878481 255 0 0
0.171897 -0.150176 0.00862026 255 0 0
0.172893 -0.150956 0.00957122 255 0 0
0.0936602 -0.0688192 0.00874812 255 0 0
0.0917218 -0.06602 0.00981624 255 0 0
0.0933306 -0.0666777 0.0092309 255 0 0
0.0911927 -0.064913 0.00902458 255 0 0
0.0922659 -0.0658708 0.00845387 255 0 0
0.0897732 -0.0627558 0.00879926 255 0 0
0.0905692 -0.0637818 0.00890905 255 0 0
0.0886268 -0.0614193 0.00887833 255 0 0
0.0871713 -0.0590103 0.0090781 255 0 0
0.086764 -0.057021 0.00889121 255 0 0
0.0862483 -0.0547937 0.00913002 255 0 0
0.0887751 -0.0548224 0.00893855 255 0 0
0.0852932 -0.0526239 0.00913721 255 0 0
0.089087 -0.0528727 0.00902222 255 0 0
0.0833476 -0.0501318 0.00886339 255 0 0
0.0842927 -0.0510172 0.0089676 255 0 0
0.0890856 -0.0510508 0.00851504 255 0 0
0.0811386 -0.0485919 0.00866652 255 0 0
0.0822399 -0.0493596 0.00876505 255 0 0
0.077619 -0.0464015 0.00903699 255 0 0
0.078863 -0.0470466 0.00913052 255 0 0
0.0801157 -0.0476961 0.00922468 255 0 0
0.0750252 -0.0444783 0.00879119 255 0 0
0.0767059 -0.0455411 0.00893437 255 0 0
0.0727558 -0.0431118 0.00860391 255 0 0
0.0741268 -0.0427187 0.0099212 255 0 0
0.0695038 -0.0402893 0.00825964 255 0 0
0.0710315 -0.0410917 0.00880957 255 0 0
0.0726255 -0.0415636 0.00977014 255 0 0
0.0693074 -0.0388826 0.00877869 255 0 0
0.0705607 -0.0393587 0.00950887 255 0 0
0.200621 -0.225411 0.011 255 0 0
0.200835 -0.223229 0.0110598 255 0 0
0.200999 -0.220478 0.0113419 255 0 0
0.200668 -0.218864 0.0111886 255 0 0
0.200935 -0.217226 0.0110261 255 0 0
0.201803 -0.215556 0.0108535 255 0 0
0.201305 -0.213122 0.0106225 255 0 0
0.200807 -0.210687 0.0103914 255 0 0
0.204204 -0.211474 0.0108307 255 0 0
0.199876 -0.209098 0.0102478 255 0 0
0.200444 -0.208786 0.011665 255 0 0
0.203234 -0.209048 0.0110516 255 0 0
0.199421 -0.207416 0.0109223 255 0 0
0.200616 -0.207601 0.0105174 255 0 0
0.202389 -0.206504 0.0113198 255 0 0
0.1988 -0.204924 0.01152 255 0 0
0.201631 -0.204635 0.0112389 255 0 0
0.202041 -0.205242 0.0107314 255 0 0
0.198302 -0.20249 0.0112893 255 0 0
0.200944 -0.203033 0.0111267 255 0 0
0.199331 -0.200782 0.0113219 255 0 0
0.200164 -0.20185 0.0108955 255 0 0
0.19683 -0.198565 0.0110714 255 0 0
0.198661 -0.199158 0.0110464 255 0 0
0.201236 -0.19894 0.010925 255 0 0
0.204101 -0.199269 0.0101498 255 0 0
0.195118 -0.196656 0.0105906 255 0 0
0.188914 -0.194713 0.010798 255 0 0
0.194284 -0.194734 0.0106944 255 0 0
0.203004 -0.194875 0.010638 255 0 0
0.186424 -0.193355 0.0109153 255 0 0
0.193451 -0.192813 0.0107988 255 0 0
0.201007 -0.192846 0.0100573 255 0 0
0.202774 -0.193393 0.0107118 255 0 0
0.184756 -0.191113 0.0114705 255 0 0
0.192375 -0.19095 0.0108907 255 0 0
0.202831 -0.191111 0.0105564 255 0 0
0.185111 -0.188669 0.0111088 255 0 0
0.192272 -0.188858 0.0110315 255 0 0
0.184842 -0.18709 0.0110967 255 0 0
0.190955 -0.187057 0.0111104 255 0 0
0.220545 -0.186611 0.0113646 255 0 0
0.185079 -0.185452 0.0108546 255 0 0
0.188973 -0.184897 0.0110286 255 0 0
0.219524 -0.184959 0.0112105 255 0 0
0.184676 -0.183079 0.0108364 255 0 0
0.186849 -0.182795 0.0112647 255 0 0
0.219837 -0.183153 0.0110372 255 0 0
0.184969 -0.180955 0.0111599 255 0 0
0.221494 -0.181177 0.010843 255 0 0
0.183189 -0.178746 0.0112979 255 0 0
0.184063 -0.179841 0.0118601 255 0 0
0.18793 -0.179047 0.0109645 255 0 0
0.221139 -0.179439 0.0106784 255 0 0
0.181466 -0.176273 0.0100741 255 0 0
0.182669 -0.177223 0.0108175 255 0 0
0.187705 -0.177602 0.011036 255 0 0
0.218421 -0.176234 0.0103821 255 0 0
0.220112 -0.177789 0.0105245 255 0 0
0.18069 -0.174917 0.0106278 255 0 0
0.216742 -0.174689 0.0102405 255 0 0
0.179463 -0.173197 0.0107406 255 0 0
0.215729 -0.173059 0.0100885 255 0 0
0.179064 -0.171142 0.0108333 255 0 0
0.177753 -0.168859 0.0104623 255 0 0
0.178751 -0.169653 0.0114101 255 0 0
0.17744 -0.167371 0.0110385 255 0 0
0.176449 -0.165015 0.0113292 255 0 0
0.17485 -0.162848 0.0112635 255 0 0
0.173569 -0.16061 0.0118594 255 0 0
0.174062 -0.161479 0.010849 255 0 0
0.172538 -0.159128 0.0109611 255 0 0
0.171463 -0.156944 0.0101101 255 0 0
0.172001 -0.157878 0.0110297 255 0 0
0.167919 -0.154321 0.0100538 255 0 0
0.171866 -0.155769 0.011168 255 0 0
0.172221 -0.154515 0.0102929 255 0 0
0.171377 -0.15343 0.0115756 255 0 0
0.0927678 -0.0688559 0.010548 255 0 0
0.0914915 -0.0667361 0.0112335 255 0 0
0.0905558 -0.065037 0.0110566 255 0 0
0.0896238 -0.0633442 0.0108804 255 0 0
0.0878874 -0.0604832 0.011929 255 0 0
0.0883858 -0.0610952 0.0106462 255 0 0
0.087059 -0.0588308 0.0110826 255 0 0
0.0864803 -0.0569466 0.0108998 255 0 0
0.0858428 -0.0542701 0.0113204 255 0 0
0.0862088 -0.0556207 0.0107754 255 0 0
0.0855712 -0.0529438 0.0111961 255 0 0
0.084654 -0.0512814 0.0110207 255 0 0
0.0810977 -0.0482811 0.0113074 255 0 0
0.0829317 -0.0494023 0.0107993 255 0 0
0.0789125 -0.0467599 0.0110976 255 0 0
0.0801668 -0.0474085 0.0111987 255 0 0
0.0770192 -0.0446088 0.0106247 255 0 0
0.0781551 -0.0457851 0.0109867 255 0 0
0.0753518 -0.0427378 0.0108424 255 0 0
0.0767178 -0.0437125 0.0114167 255 0 0
0.0735483 -0.0407408 0.0110411 255 0 0
0.0716277 -0.0384195 0.0107689 255 0 0
0.0722049 -0.0394805 0.0108819 255 0 0
0.0711181 -0.0372267 0.0113007 255 0 0
0.201144 -0.225206 0.0134562 255 0 0
0.201412 -0.223582 0.0132977 255 0 0
0.201515 -0.221144 0.0130621 255 0 0
0.201019 -0.218719 0.0128322 255 0 0
0.201888 -0.217055 0.0126653 255 0 0
0.202762 -0.215381 0.0124974 255 0 0
0.202262 -0.21294 0.012266 255 0 0
0.204 -0.213543 0.0139908 255 0 0
0.20116 -0.210531 0.0120423 255 0 0
0.203195 -0.211108 0.0137613 255 0 0
0.201495 -0.209141 0.0129556 255 0 0
0.20299 -0.208982 0.0137605 255 0 0
0.200247 -0.207159 0.0133947 255 0 0
0.202612 -0.206706 0.0131305 255 0 0
0.199915 -0.205533 0.0132407 255 0 0
0.201998 -0.204199 0.0137794 255 0 0
0.202357 -0.205052 0.01241 255 0 0
0.19852 -0.203161 0.0130193 255 0 0
0.201414 -0.202964 0.0129226 255 0 0
0.203901 -0.203144 0.0129925 255 0 0
0.199373 -0.200799 0.0131031 255 0 0
0.201473 -0.200882 0.0120471 255 0 0
0.198761 -0.199584 0.0129872 255 0 0
0.200384 -0.198872 0.0126038 255 0 0
0.196656 -0.197392 0.0125663 255 0 0
0.195032 -0.194586 0.0127014 255 0 0
0.196092 -0.195938 0.0131395 255 0 0
0.187788 -0.193185 0.012041 255 0 0
0.193954 -0.19272 0.0127915 255 0 0
0.185603 -0.190989 0.0128212 255 0 0
0.187351 -0.191579 0.0138423 255 0 0
0.193365 -0.190743 0.0129085 255 0 0
0.185961 -0.188542 0.0124623 255 0 0
0.187203 -0.189179 0.0137113 255 0 0
0.192532 -0.188824 0.0130116 255 0 0
0.185692 -0.186961 0.0124503 255 0 0
0.186544 -0.186832 0.0138069 255 0 0
0.191458 -0.186965 0.0131013 255 0 0
0.185423 -0.185381 0.0124383 255 0 0
0.186275 -0.185249 0.013795 255 0 0
0.189161 -0.184896 0.0136474 255 0 0
0.190166 -0.185686 0.0126515 255 0 0
0.219263 -0.184837 0.0129708 255 0 0
0.185273 -0.182976 0.0123062 255 0 0
0.186901 -0.183025 0.0134229 255 0 0
0.188618 -0.183957 0.0127145 255 0 0
0.185074 -0.180649 0.0128133 255 0 0
0.186087 -0.181459 0.0137685 255 0 0
0.183064 -0.178562 0.0133688 255 0 0
0.184561 -0.179751 0.0138287 255 0 0
0.218868 -0.179574 0.0124735 255 0 0
0.181748 -0.176272 0.0129954 255 0 0
0.182503 -0.177119 0.0129645 255 0 0
0.218826 -0.176024 0.0121382 255 0 0
0.221194 -0.177491 0.0122784 255 0 0
0.180725 -0.174962 0.012565 255 0 0
0.221926 -0.175446 0.0138774 255 0 0
0.179873 -0.172542 0.0122188 255 0 0
0.180412 -0.173476 0.0131418 255 0 0
0.220893 -0.173795 0.0137181 255 0 0
0.179561 -0.171055 0.0127956 255 0 0
0.221211 -0.171953 0.0135474 255 0 0
0.178978 -0.169099 0.012911 255 0 0
0.22185 -0.16825 0.0132043 255 0 0
0.222891 -0.169901 0.0133637 255 0 0
0.178395 -0.167141 0.0130265 255 0 0
0.175678 -0.164279 0.0136098 255 0 0
0.177084 -0.16486 0.0126537 255 0 0
0.178082 -0.165651 0.0136043 255 0 0
0.174666 -0.162985 0.0131808 255 0 0
0.173412 -0.16126 0.0132551 255 0 0
0.173504 -0.159083 0.013411 255 0 0
0.172451 -0.157249 0.0125354 255 0 0
0.0894027 -0.066867 0.0138866 255 0 0
0.0905998 -0.0670846 0.0125938 255 0 0
0.0888978 -0.0647379 0.013233 255 0 0
0.0900161 -0.0651871 0.0124094 255 0 0
0.0886822 -0.0629079 0.0128418 255 0 0
0.0876616 -0.0611998 0.0133338 255 0 0
0.0885046 -0.0616048 0.0120472 255 0 0
0.0867751 -0.0587555 0.0130903 255 0 0
0.0861968 -0.0568723 0.0129066 255 0 0
0.0856815 -0.054647 0.0131455 255 0 0
0.0850026 -0.0525822 0.0129425 255 0 0
0.0830888 -0.0505421 0.0129155 255 0 0
0.0842434 -0.0519561 0.0137559 255 0 0
0.0812818 -0.0489577 0.0129303 255 0 0
0.0790967 -0.0471265 0.013129 255 0 0
0.0774484 -0.0445262 0.0128387 255 0 0
0.078041 -0.0456084 0.0129556 255 0 0
0.0765105 -0.0426389 0.01308 255 0 0
0.0751339 -0.0408484 0.013089 255 0 0
0.0733134 -0.0389529 0.0126294 255 0 0
0.0740039 -0.0393349 0.0135686 255 0 0
0.0719431 -0.0363693 0.0132242 255 0 0
0.0724564 -0.0375646 0.0126938 255 0 0
0.201495 -0.225069 0.0150989 255 0 0
0.201764 -0.223443 0.0149428 255 0 0
0.201702 -0.220193 0.014633 255 0 0
0.202033 -0.221811 0.0147862 255 0 0
0.201972 -0.218553 0.0144756 255 0 0
0.203025 -0.21681 0.0151429 255 0 0
0.204515 -0.215102 0.0149787 255 0 0
0.204361 -0.21339 0.0156572 255 0 0
0.203082 -0.210151 0.0153504 255 0 0
0.204026 -0.211754 0.0155024 255 0 0
0.202141 -0.208553 0.0151989 255 0 0
0.205297 -0.209879 0.015493 255 0 0
0.200601 -0.206999 0.015051 255 0 0
0.204942 -0.207325 0.0151702 255 0 0
0.199667 -0.205412 0.0149005 255 0 0
0.203223 -0.205016 0.0154245 255 0 0
0.197216 -0.202298 0.0146048 255 0 0
0.198141 -0.203874 0.0147542 255 0 0
0.201934 -0.202636 0.0153748 255 0 0
0.198072 -0.200582 0.0144433 255 0 0
0.200838 -0.200749 0.0154628 255 0 0
0.195128 -0.199043 0.0159544 255 0 0
0.198743 -0.199069 0.014504 255 0 0
0.194797 -0.197428 0.0158019 255 0 0
0.197133 -0.196773 0.0141076 255 0 0
0.198177 -0.19761 0.0150776 255 0 0
0.195309 -0.194949 0.0151019 255 0 0
0.197091 -0.195736 0.0151656 255 0 0
0.195241 -0.193504 0.014754 255 0 0
0.193868 -0.190651 0.0149011 255 0 0
0.194925 -0.191997 0.0153411 255 0 0
0.192792 -0.18879 0.014989 255 0 0
0.191476 -0.186992 0.0150613 255 0 0
0.190405 -0.185139 0.0151489 255 0 0
0.187102 -0.18227 0.0147257 255 0 0
0.188619 -0.183475 0.0151909 255 0 0
0.185101 -0.180685 0.0147545 255 0 0
0.186585 -0.181369 0.0157409 255 0 0
0.183328 -0.178538 0.0153169 255 0 0
0.184589 -0.179789 0.015766 255 0 0
0.182281 -0.176716 0.0154033 255 0 0
0.181221 -0.174874 0.0145251 255 0 0
0.221663 -0.175325 0.0156566 255 0 0
0.180639 -0.172922 0.0146411 255 0 0
0.22063 -0.173675 0.0154946 255 0 0
0.179788 -0.170501 0.0142959 255 0 0
0.180327 -0.171435 0.0152184 255 0 0
0.221625 -0.171735 0.0153239 255 0 0
0.179665 -0.168403 0.0144406 255 0 0
0.180206 -0.169339 0.0153646 255 0 0
0.223995 -0.169577 0.0151455 255 0 0
0.179352 -0.166911 0.015019 255 0 0
0.223112 -0.166989 0.0148981 255 0 0
0.178539 -0.165024 0.015121 255 0 0
0.175613 -0.162752 0.0151622 255 0 0
0.177996 -0.163605 0.0156843 255 0 0
0.174356 -0.161025 0.0152342 255 0 0
0.173124 -0.159812 0.0147893 255 0 0
0.0872282 -0.0627817 0.0148008 255 0 0
0.0868216 -0.060796 0.0146151 255 0 0
0.0863204 -0.0587846 0.0150972 255 0 0
0.0858192 -0.0567733 0.0155795 255 0 0
0.0860079 -0.0568228 0.0142435 255 0 0
0.0855204 -0.0550235 0.0149691 255 0 0
0.0846653 -0.0530149 0.0152105 255 0 0
0.0826397 -0.0505805 0.0149124 255 0 0
0.0840554 -0.0519083 0.0150894 255 0 0
0.0805495 -0.0486623 0.015099 255 0 0
0.0788189 -0.0470591 0.0151042 255 0 0
0.0773866 -0.0450565 0.014868 255 0 0
0.0769051 -0.043158 0.014686 255 0 0
0.0756337 -0.0409832 0.0151039 255 0 0
0.0765462 -0.0418336 0.0152206 255 0 0
0.074593 -0.0394882 0.0149274 255 0 0
0.0732126 -0.0371985 0.0151063 255 0 0
0.0724592 -0.0357348 0.0151654 255 0 0
0.201249 -0.224944 0.0167462 255 0 0
0.201517 -0.223318 0.0165928 255 0 0
0.202222 -0.220859 0.0163611 255 0 0
0.202877 -0.218844 0.0172863 255 0 0
0.20417 -0.216562 0.0176359 255 0 0
0.205058 -0.214875 0.0174824 255 0 0
