ply
format ascii 1.0
element vertex 1248
property float x
property float y
property float z
property uchar diffuse_red
property uchar diffuse_green
property uchar diffuse_blue
end_header
0.0942466 -0.110099 -0.0504352 255 0 0
0.113017 -0.112359 -0.0512854 255 0 0
0.117671 -0.112856 -0.0524402 255 0 0
0.122561 -0.112771 -0.0526895 255 0 0
0.126805 -0.112327 -0.0523175 255 0 0
0.132485 -0.113113 -0.052439 255 0 0
0.136526 -0.113956 -0.0523476 255 0 0
0.114918 -0.109592 -0.0506049 255 0 0
0.119174 -0.106306 -0.0529342 255 0 0
0.120949 -0.108435 -0.0521389 255 0 0
0.119367 -0.102978 -0.0541024 255 0 0
0.12913 -0.182475 -0.0458045 255 0 0
0.130211 -0.181393 -0.0450864 255 0 0
0.129398 -0.179509 -0.046761 255 0 0
0.13096 -0.176915 -0.0472927 255 0 0
0.132541 -0.174043 -0.0483168 255 0 0
0.13932 -0.170088 -0.048365 255 0 0
0.134987 -0.169395 -0.0468408 255 0 0
0.138406 -0.167504 -0.0476782 255 0 0
0.140811 -0.165398 -0.0460336 255 0 0
0.13892 -0.162236 -0.0485534 255 0 0
0.142952 -0.162321 -0.0477447 255 0 0
0.146999 -0.16134 -0.0471307 255 0 0
0.141831 -0.157808 -0.0475591 255 0 0
0.146538 -0.157171 -0.0475992 255 0 0
0.152298 -0.157634 -0.0476334 255 0 0
0.156294 -0.156553 -0.0466833 255 0 0
0.147856 -0.152999 -0.0474933 255 0 0
0.152753 -0.152357 -0.0478306 255 0 0
0.158014 -0.153138 -0.0467617 255 0 0
0.160882 -0.151691 -0.0473026 255 0 0
0.147376 -0.14698 -0.0476643 255 0 0
0.153813 -0.147467 -0.0481722 255 0 0
0.157771 -0.146762 -0.0469563 255 0 0
0.160757 -0.147934 -0.0468378 255 0 0
0.144721 -0.140637 -0.0491326 255 0 0
0.145666 -0.142354 -0.0474381 255 0 0
0.153555 -0.142309 -0.0475792 255 0 0
0.157692 -0.142412 -0.0465613 255 0 0
0.161133 -0.14343 -0.0465717 255 0 0
0.14407 -0.137651 -0.0472744 255 0 0
0.147391 -0.138454 -0.0483102 255 0 0
0.151914 -0.13753 -0.0477468 255 0 0
0.156961 -0.138167 -0.0477723 255 0 0
0.161824 -0.13712 -0.047229 255 0 0
0.139793 -0.130496 -0.0481722 255 0 0
0.142086 -0.132702 -0.0476372 255 0 0
0.14811 -0.132533 -0.0476152 255 0 0
0.152901 -0.132467 -0.047382 255 0 0
0.156685 -0.132771 -0.047298 255 0 0
0.163907 -0.132193 -0.0481858 255 0 0
0.134656 -0.125405 -0.0483873 255 0 0
0.137276 -0.1277 -0.0472283 255 0 0
0.144522 -0.125811 -0.0479299 255 0 0
0.147624 -0.12762 -0.0476248 255 0 0
0.152613 -0.127215 -0.0479294 255 0 0
0.157232 -0.126982 -0.0472667 255 0 0
0.162117 -0.128044 -0.0474503 255 0 0
0.119234 -0.120412 -0.0491693 255 0 0
0.120157 -0.120223 -0.0480617 255 0 0
0.128606 -0.120721 -0.0486607 255 0 0
0.132599 -0.122665 -0.0474863 255 0 0
0.142606 -0.121935 -0.0480421 255 0 0
0.147116 -0.122324 -0.047702 255 0 0
0.152022 -0.123291 -0.0470184 255 0 0
0.155927 -0.124605 -0.0468545 255 0 0
0.108255 -0.116295 -0.0482516 255 0 0
0.112701 -0.117847 -0.04779 255 0 0
0.117638 -0.119215 -0.0472568 255 0 0
0.123104 -0.117634 -0.0465469 255 0 0
0.127524 -0.11745 -0.0471619 255 0 0
0.133702 -0.116618 -0.0477393 255 0 0
0.137951 -0.117072 -0.0471824 255 0 0
0.14243 -0.118275 -0.0477558 255 0 0
0.147417 -0.119501 -0.0474083 255 0 0
0.0960572 -0.111744 -0.0471773 255 0 0
0.104151 -0.11232 -0.0459491 255 0 0
0.108288 -0.112479 -0.0465095 255 0 0
0.112987 -0.112346 -0.0471535 255 0 0
0.117936 -0.112155 -0.0481702 255 0 0
0.121905 -0.112277 -0.0476738 255 0 0
0.12731 -0.112151 -0.0474836 255 0 0
0.132439 -0.113184 -0.04719 255 0 0
0.136863 -0.113634 -0.0467674 255 0 0
0.0934472 -0.106612 -0.0476806 255 0 0
0.0977299 -0.10742 -0.0470031 255 0 0
0.101956 -0.107632 -0.0460375 255 0 0
0.106846 -0.107486 -0.0466884 255 0 0
0.11294 -0.107266 -0.0470471 255 0 0
0.118184 -0.107273 -0.0473958 255 0 0
0.122537 -0.108232 -0.0472247 255 0 0
0.126988 -0.10915 -0.0464921 255 0 0
0.0887127 -0.101096 -0.0455897 255 0 0
0.0928135 -0.102857 -0.0459694 255 0 0
0.0979615 -0.102506 -0.0460699 255 0 0
0.103017 -0.102661 -0.0468933 255 0 0
0.107474 -0.102129 -0.0467981 255 0 0
0.11186 -0.102763 -0.0460879 255 0 0
0.116214 -0.103032 -0.0470598 255 0 0
0.0865674 -0.0989882 -0.0461339 255 0 0
0.0986521 -0.0970392 -0.0452556 255 0 0
0.102631 -0.0978388 -0.0457318 255 0 0
0.107381 -0.0991325 -0.0461077 255 0 0
0.115316 -0.0995686 -0.0467765 255 0 0
0.132511 -0.181537 -0.0427484 255 0 0
0.133512 -0.176985 -0.0429418 255 0 0
0.136737 -0.177955 -0.0402361 255 0 0
0.134466 -0.172227 -0.0427712 255 0 0
0.135974 -0.171031 -0.0411706 255 0 0
0.138021 -0.168384 -0.0422394 255 0 0
0.142694 -0.166815 -0.0421709 255 0 0
0.145052 -0.165222 -0.0409593 255 0 0
0.143697 -0.162318 -0.0425049 255 0 0
0.148131 -0.162552 -0.0425703 255 0 0
0.15069 -0.160719 -0.0423017 255 0 0
0.144252 -0.157691 -0.043664 255 0 0
0.147426 -0.157888 -0.0425889 255 0 0
0.152671 -0.158492 -0.0416131 255 0 0
0.157944 -0.156206 -0.0423067 255 0 0
0.148665 -0.154298 -0.042363 255 0 0
0.151356 -0.151976 -0.0424269 255 0 0
0.159218 -0.152167 -0.0438952 255 0 0
0.162627 -0.152474 -0.0419147 255 0 0
0.166151 -0.150809 -0.0412684 255 0 0
0.148713 -0.146992 -0.0433592 255 0 0
0.150686 -0.147798 -0.0427134 255 0 0
0.157979 -0.148113 -0.0434725 255 0 0
0.16214 -0.147486 -0.042799 255 0 0
0.16664 -0.148126 -0.0412475 255 0 0
0.147608 -0.141873 -0.0426662 255 0 0
0.157952 -0.142133 -0.0429885 255 0 0
0.162757 -0.142695 -0.0426739 255 0 0
0.16566 -0.142809 -0.0412465 255 0 0
0.143974 -0.13516 -0.0438944 255 0 0
0.146518 -0.13715 -0.0417493 255 0 0
0.152474 -0.136955 -0.0429896 255 0 0
0.157475 -0.137618 -0.0423887 255 0 0
0.162036 -0.137273 -0.0421761 255 0 0
0.1661 -0.139768 -0.0409111 255 0 0
0.138914 -0.130159 -0.0418442 255 0 0
0.141823 -0.132631 -0.0425309 255 0 0
0.147533 -0.132945 -0.0418107 255 0 0
0.153638 -0.133117 -0.0434996 255 0 0
0.158107 -0.132102 -0.0429224 255 0 0
0.162649 -0.133414 -0.0417135 255 0 0
0.166109 -0.131672 -0.0419426 255 0 0
0.134968 -0.125785 -0.0425985 255 0 0
0.137203 -0.128034 -0.0422342 255 0 0
0.146439 -0.127607 -0.0433299 255 0 0
0.152653 -0.12703 -0.0434052 255 0 0
0.157816 -0.12768 -0.0423549 255 0 0
0.163194 -0.12742 -0.0426159 255 0 0
0.166732 -0.129029 -0.0404142 255 0 0
0.132554 -0.122482 -0.0427117 255 0 0
0.143852 -0.123015 -0.0427309 255 0 0
0.147751 -0.121323 -0.0436927 255 0 0
0.152409 -0.122915 -0.0426835 255 0 0
0.157482 -0.122826 -0.0421219 255 0 0
0.160671 -0.124165 -0.0415025 255 0 0
0.0990392 -0.11577 -0.0435608 255 0 0
0.101868 -0.116045 -0.0441451 255 0 0
0.113108 -0.115816 -0.0433042 255 0 0
0.117445 -0.11713 -0.043042 255 0 0
0.12286 -0.11653 -0.0422477 255 0 0
0.127843 -0.11741 -0.042057 255 0 0
0.130725 -0.119541 -0.0428016 255 0 0
0.137569 -0.11798 -0.0428035 255 0 0
0.14229 -0.116733 -0.0428219 255 0 0
0.147073 -0.118492 -0.0427567 255 0 0
0.151262 -0.118272 -0.0412142 255 0 0
0.0979695 -0.112676 -0.0441232 255 0 0
0.101269 -0.112908 -0.0443453 255 0 0
0.10685 -0.111531 -0.0435065 255 0 0
0.111911 -0.112457 -0.0423662 255 0 0
0.123939 -0.110639 -0.0437628 255 0 0
0.127645 -0.111299 -0.0427472 255 0 0
0.133025 -0.111997 -0.042698 255 0 0
0.137782 -0.113651 -0.0418008 255 0 0
0.141159 -0.114902 -0.0415003 255 0 0
0.148846 -0.114815 -0.0411292 255 0 0
0.098533 -0.106957 -0.0443607 255 0 0
0.103266 -0.107267 -0.0438778 255 0 0
0.107645 -0.10716 -0.0437159 255 0 0
0.110887 -0.107773 -0.0422151 255 0 0
0.122724 -0.106947 -0.0430796 255 0 0
0.127398 -0.107959 -0.0421102 255 0 0
0.13152 -0.109078 -0.0423428 255 0 0
0.0885141 -0.101049 -0.0411752 255 0 0
0.092703 -0.10207 -0.0419797 255 0 0
0.0975795 -0.102408 -0.0424806 255 0 0
0.102734 -0.102319 -0.0426361 255 0 0
0.107222 -0.102718 -0.0421889 255 0 0
0.112648 -0.101877 -0.0426104 255 0 0
0.117644 -0.102511 -0.0429692 255 0 0
0.121781 -0.10304 -0.0421646 255 0 0
0.0837137 -0.0967143 -0.0426831 255 0 0
0.0871983 -0.0971199 -0.0421646 255 0 0
0.0924905 -0.0975628 -0.0424794 255 0 0
0.0975008 -0.0977891 -0.0419965 255 0 0
0.10247 -0.0976998 -0.0417253 255 0 0
0.107764 -0.0972271 -0.0419237 255 0 0
0.113208 -0.0974759 -0.0424632 255 0 0
0.115919 -0.0980843 -0.0424376 255 0 0
0.0749981 -0.0901301 -0.0406289 255 0 0
0.0825371 -0.0928533 -0.0412986 255 0 0
0.0883942 -0.0921087 -0.04127 255 0 0
0.0925208 -0.0924598 -0.0421531 255 0 0
0.0981477 -0.0924552 -0.0419392 255 0 0
0.101905 -0.0930564 -0.0425083 255 0 0
0.107384 -0.0927316 -0.0408239 255 0 0
0.112017 -0.0944654 -0.0411364 255 0 0
0.0743582 -0.0875878 -0.0403466 255 0 0
0.0777272 -0.089232 -0.040822 255 0 0
0.0824365 -0.0895542 -0.0404548 255 0 0
0.0882669 -0.0884185 -0.0403672 255 0 0
0.0918998 -0.088009 -0.0409315 255 0 0
0.0977281 -0.0879703 -0.0404344 255 0 0
0.105454 -0.0890504 -0.0403247 255 0 0
0.137386 -0.17618 -0.0398177 255 0 0
0.137473 -0.172816 -0.0390683 255 0 0
0.14147 -0.172742 -0.0387447 255 0 0
0.146644 -0.170989 -0.0383063 255 0 0
0.142732 -0.168122 -0.0388281 255 0 0
0.147364 -0.16783 -0.0371349 255 0 0
0.144711 -0.162964 -0.0388729 255 0 0
0.146662 -0.163365 -0.0368341 255 0 0
0.151573 -0.161879 -0.0366549 255 0 0
0.14688 -0.157417 -0.0376504 255 0 0
0.152062 -0.157877 -0.0373447 255 0 0
0.157145 -0.158202 -0.0369528 255 0 0
0.161687 -0.156552 -0.0367562 255 0 0
0.149275 -0.153879 -0.0378179 255 0 0
0.152926 -0.152007 -0.0377259 255 0 0
0.16275 -0.153198 -0.0370971 255 0 0
0.166791 -0.151945 -0.0373121 255 0 0
0.148668 -0.145137 -0.0397596 255 0 0
0.153138 -0.147752 -0.0373949 255 0 0
0.163681 -0.14756 -0.0379476 255 0 0
0.167572 -0.146555 -0.0374431 255 0 0
0.170634 -0.146458 -0.0365916 255 0 0
0.149422 -0.141737 -0.0387508 255 0 0
0.151082 -0.142923 -0.0372778 255 0 0
0.162824 -0.142679 -0.037706 255 0 0
0.167209 -0.141875 -0.0376985 255 0 0
0.170571 -0.142801 -0.0359956 255 0 0
0.147375 -0.137306 -0.0376004 255 0 0
0.152209 -0.137678 -0.0374135 255 0 0
0.158076 -0.135944 -0.0383295 255 0 0
0.163077 -0.137186 -0.0374607 255 0 0
0.166255 -0.138313 -0.0364709 255 0 0
0.142565 -0.131764 -0.0377722 255 0 0
0.147202 -0.132521 -0.03766 255 0 0
0.152989 -0.132739 -0.0375651 255 0 0
0.157238 -0.132813 -0.0368844 255 0 0
0.162554 -0.132395 -0.0374105 255 0 0
0.167712 -0.132281 -0.0383665 255 0 0
0.134167 -0.126 -0.0379387 255 0 0
0.137592 -0.128242 -0.0368432 255 0 0
0.142321 -0.1282 -0.0363139 255 0 0
0.14533 -0.129088 -0.0368514 255 0 0
0.154419 -0.129575 -0.0355925 255 0 0
0.157663 -0.127652 -0.0371733 255 0 0
0.163835 -0.127408 -0.0381405 255 0 0
0.16808 -0.128039 -0.0372529 255 0 0
0.129077 -0.121104 -0.0368359 255 0 0
0.132574 -0.123088 -0.03785 255 0 0
0.143195 -0.120925 -0.0359638 255 0 0
0.147558 -0.121557 -0.0371325 255 0 0
0.152641 -0.123243 -0.0373217 255 0 0
0.157458 -0.12181 -0.0376927 255 0 0
0.162323 -0.122669 -0.0374834 255 0 0
0.165309 -0.124973 -0.0370976 255 0 0
0.118585 -0.115132 -0.0386018 255 0 0
0.12271 -0.115926 -0.0376903 255 0 0
0.127553 -0.116226 -0.0377714 255 0 0
0.131617 -0.116643 -0.0366341 255 0 0
0.13833 -0.117618 -0.0384382 255 0 0
0.141339 -0.117266 -0.0365354 255 0 0
0.148213 -0.115805 -0.0376299 255 0 0
0.15269 -0.117611 -0.0378623 255 0 0
0.157348 -0.117901 -0.0373726 255 0 0
0.16058 -0.119243 -0.0373025 255 0 0
0.113522 -0.111851 -0.0379785 255 0 0
0.117442 -0.113703 -0.0372667 255 0 0
0.123075 -0.112622 -0.0356876 255 0 0
0.127273 -0.112001 -0.0364847 255 0 0
0.133427 -0.1122 -0.0371674 255 0 0
0.137401 -0.112461 -0.0384181 255 0 0
0.14192 -0.112616 -0.0373872 255 0 0
0.147233 -0.112611 -0.0374756 255 0 0
0.152802 -0.112956 -0.0375585 255 0 0
0.156611 -0.112341 -0.0359091 255 0 0
0.112276 -0.107567 -0.0381156 255 0 0
0.117773 -0.10715 -0.0372566 255 0 0
0.122355 -0.107267 -0.0373463 255 0 0
0.127183 -0.107729 -0.0368881 255 0 0
0.132563 -0.107419 -0.0374174 255 0 0
0.136256 -0.108212 -0.0370382 255 0 0
0.15296 -0.109384 -0.0353885 255 0 0
0.0986181 -0.100693 -0.0396954 255 0 0
0.100208 -0.100041 -0.039647 255 0 0
0.108789 -0.102337 -0.0379466 255 0 0
0.111825 -0.10298 -0.0382208 255 0 0
0.117554 -0.1024 -0.0371056 255 0 0
0.122749 -0.102953 -0.0372452 255 0 0
0.126858 -0.104273 -0.0376679 255 0 0
0.131653 -0.103674 -0.035173 255 0 0
0.0889534 -0.0961423 -0.0394995 255 0 0
0.0932685 -0.0969826 -0.0389619 255 0 0
0.0982071 -0.0969751 -0.0391446 255 0 0
0.103043 -0.0966219 -0.0380384 255 0 0
0.106915 -0.0974603 -0.038057 255 0 0
0.11284 -0.0972696 -0.0373437 255 0 0
0.116494 -0.0976289 -0.0369025 255 0 0
0.0799669 -0.0907549 -0.039489 255 0 0
0.0830885 -0.0912029 -0.0390453 255 0 0
0.0870455 -0.0923405 -0.0386209 255 0 0
0.0922288 -0.0922173 -0.0381014 255 0 0
0.0975119 -0.0924283 -0.0376667 255 0 0
0.102122 -0.0924412 -0.0375572 255 0 0
0.10691 -0.0919083 -0.0373516 255 0 0
0.111742 -0.0930852 -0.0370287 255 0 0
0.115143 -0.0940345 -0.0350687 255 0 0
0.0774945 -0.0870524 -0.0385015 255 0 0
0.0821232 -0.0877692 -0.037819 255 0 0
0.0872584 -0.0870837 -0.0374144 255 0 0
0.0922851 -0.0873413 -0.0370653 255 0 0
0.0974934 -0.0875547 -0.0376636 255 0 0
0.102673 -0.0880551 -0.0371644 255 0 0
0.108054 -0.0881627 -0.0359406 255 0 0
0.112397 -0.0874982 -0.0358317 255 0 0
0.0692203 -0.0805796 -0.036953 255 0 0
0.0729224 -0.0827817 -0.0370806 255 0 0
0.077419 -0.0833414 -0.0360834 255 0 0
0.0826053 -0.083259 -0.0361869 255 0 0
0.0868566 -0.0828135 -0.0364669 255 0 0
0.0927605 -0.0825481 -0.0370749 255 0 0
0.0976103 -0.0823234 -0.0377329 255 0 0
0.101899 -0.082923 -0.0368516 255 0 0
0.108459 -0.083411 -0.0354647 255 0 0
0.068567 -0.077737 -0.0364005 255 0 0
0.0709413 -0.0795038 -0.0355823 255 0 0
0.0872404 -0.0776203 -0.0353169 255 0 0
0.092441 -0.077569 -0.0366705 255 0 0
0.0976099 -0.07765 -0.0371637 255 0 0
0.100847 -0.0772021 -0.0359539 255 0 0
0.0681025 -0.0730453 -0.0357223 255 0 0
0.0875444 -0.0749265 -0.0350578 255 0 0
0.0921147 -0.0739628 -0.035445 255 0 0
0.0974386 -0.0744055 -0.0356203 255 0 0
0.147259 -0.166635 -0.0328481 255 0 0
0.150727 -0.166671 -0.0315834 255 0 0
0.145548 -0.162598 -0.033394 255 0 0
0.1533 -0.162709 -0.0323682 255 0 0
0.157135 -0.161827 -0.0322118 255 0 0
0.161486 -0.161158 -0.0308304 255 0 0
0.147336 -0.157799 -0.0336183 255 0 0
0.153588 -0.157552 -0.0328415 255 0 0
0.159079 -0.159039 -0.0345001 255 0 0
0.16322 -0.158359 -0.0327929 255 0 0
0.165745 -0.156363 -0.0314507 255 0 0
0.15315 -0.152828 -0.032394 255 0 0
0.156215 -0.150988 -0.0327127 255 0 0
0.163315 -0.153778 -0.0328705 255 0 0
0.167096 -0.152364 -0.0330524 255 0 0
0.17099 -0.151178 -0.0311719 255 0 0
0.157138 -0.147285 -0.0330767 255 0 0
0.163831 -0.147216 -0.0328633 255 0 0
0.168237 -0.148227 -0.0328079 255 0 0
0.171951 -0.146937 -0.0317971 255 0 0
0.154057 -0.142772 -0.034647 255 0 0
0.157053 -0.142515 -0.0320946 255 0 0
0.163617 -0.143299 -0.0329134 255 0 0
0.167331 -0.142514 -0.0336093 255 0 0
0.172055 -0.142205 -0.0329338 255 0 0
0.149366 -0.137631 -0.0345094 255 0 0
0.151691 -0.13728 -0.0318234 255 0 0
0.155604 -0.13903 -0.0309322 255 0 0
0.163446 -0.13716 -0.0325981 255 0 0
0.167868 -0.137754 -0.0324776 255 0 0
0.171362 -0.138921 -0.0313499 255 0 0
0.143793 -0.131242 -0.0340787 255 0 0
0.147486 -0.132537 -0.0324542 255 0 0
0.150721 -0.132161 -0.0327636 255 0 0
0.159095 -0.131348 -0.0346977 255 0 0
0.162309 -0.132218 -0.0326955 255 0 0
0.166367 -0.133664 -0.0323611 255 0 0
0.17085 -0.132301 -0.032109 255 0 0
0.13758 -0.126343 -0.033204 255 0 0
0.142891 -0.127333 -0.0321159 255 0 0
0.148155 -0.127817 -0.0328304 255 0 0
0.152555 -0.12751 -0.032943 255 0 0
0.157569 -0.126847 -0.0324146 255 0 0
0.162478 -0.128406 -0.0324668 255 0 0
0.167942 -0.126612 -0.0328131 255 0 0
0.171053 -0.128014 -0.0318724 255 0 0
0.128691 -0.121333 -0.0326856 255 0 0
0.133399 -0.122606 -0.0327761 255 0 0
0.136934 -0.123332 -0.0315165 255 0 0
0.143129 -0.122584 -0.0326652 255 0 0
0.147649 -0.122331 -0.0322026 255 0 0
0.152359 -0.122584 -0.032064 255 0 0
0.156041 -0.123858 -0.0317441 255 0 0
0.163511 -0.122672 -0.0329219 255 0 0
0.167376 -0.124211 -0.0326001 255 0 0
0.119767 -0.115765 -0.0308331 255 0 0
0.12278 -0.117375 -0.0325713 255 0 0
0.126349 -0.119662 -0.0330882 255 0 0
0.134056 -0.119974 -0.0332696 255 0 0
0.137844 -0.115894 -0.0336632 255 0 0
0.142442 -0.118251 -0.0322871 255 0 0
0.147556 -0.118857 -0.0314714 255 0 0
0.153433 -0.11633 -0.0329953 255 0 0
0.158333 -0.117408 -0.0326215 255 0 0
0.161374 -0.119339 -0.0327346 255 0 0
0.113999 -0.111229 -0.0324671 255 0 0
0.117261 -0.113331 -0.0326125 255 0 0
0.128192 -0.111542 -0.0328843 255 0 0
0.132654 -0.112386 -0.0334394 255 0 0
0.136797 -0.112803 -0.0318582 255 0 0
0.143456 -0.110918 -0.0333308 255 0 0
0.14709 -0.11245 -0.0320741 255 0 0
0.150921 -0.114405 -0.0316939 255 0 0
0.157835 -0.112663 -0.0321459 255 0 0
0.11173 -0.107581 -0.0324399 255 0 0
0.121913 -0.106584 -0.0325425 255 0 0
0.126084 -0.107631 -0.033329 255 0 0
0.133061 -0.106905 -0.0335375 255 0 0
0.137287 -0.107321 -0.032419 255 0 0
0.141788 -0.108077 -0.0318203 255 0 0
0.153636 -0.106831 -0.0328086 255 0 0
0.157322 -0.108628 -0.03274 255 0 0
0.108247 -0.101725 -0.0327909 255 0 0
0.111883 -0.102976 -0.0337791 255 0 0
0.117257 -0.10181 -0.0328169 255 0 0
0.122035 -0.102002 -0.0327675 255 0 0
0.127561 -0.102283 -0.0332769 255 0 0
0.131738 -0.10329 -0.0318867 255 0 0
0.1358 -0.103458 -0.0313679 255 0 0
0.102948 -0.0971755 -0.0327064 255 0 0
0.107206 -0.0974042 -0.0325409 255 0 0
0.112528 -0.0976238 -0.0317577 255 0 0
0.118158 -0.0976177 -0.0322574 255 0 0
0.122604 -0.0974174 -0.0322462 255 0 0
0.127216 -0.0993045 -0.0308698 255 0 0
0.0988451 -0.091732 -0.0330593 255 0 0
0.10218 -0.0928224 -0.0329996 255 0 0
0.107334 -0.0919217 -0.0320322 255 0 0
0.112677 -0.0923974 -0.0328774 255 0 0
0.117622 -0.0927512 -0.0327991 255 0 0
0.121295 -0.0933165 -0.0322642 255 0 0
0.0941071 -0.0852086 -0.0328373 255 0 0
0.0972067 -0.0875722 -0.0328097 255 0 0
0.10277 -0.0873961 -0.0322484 255 0 0
0.106844 -0.0874393 -0.0325991 255 0 0
0.112933 -0.0870377 -0.0330673 255 0 0
0.116569 -0.0878354 -0.0323935 255 0 0
0.0725096 -0.0807651 -0.0345153 255 0 0
0.0778868 -0.0810437 -0.0348398 255 0 0
0.082652 -0.0809522 -0.033443 255 0 0
0.0877639 -0.0817316 -0.0335958 255 0 0
0.0922372 -0.0824434 -0.0326899 255 0 0
0.0974311 -0.0829355 -0.0325481 255 0 0
0.102796 -0.0829589 -0.0334606 255 0 0
0.108087 -0.0823062 -0.0318497 255 0 0
0.11236 -0.0830606 -0.0320109 255 0 0
0.0680653 -0.0770289 -0.0331314 255 0 0
0.0719537 -0.077565 -0.033387 255 0 0
0.077719 -0.0773831 -0.0332696 255 0 0
0.0823265 -0.0772413 -0.0331198 255 0 0
0.0864928 -0.0778526 -0.0321092 255 0 0
0.0926154 -0.0771705 -0.0333486 255 0 0
0.0960132 -0.0771594 -0.0331152 255 0 0
0.102672 -0.0775232 -0.0331881 255 0 0
0.106953 -0.0787248 -0.032127 255 0 0
0.113101 -0.0790078 -0.0303289 255 0 0
0.0676738 -0.072667 -0.0321737 255 0 0
0.072499 -0.0730228 -0.032087 255 0 0
0.0772596 -0.0724134 -0.0321556 255 0 0
0.08229 -0.0722328 -0.0324543 255 0 0
0.0878362 -0.0725907 -0.0332079 255 0 0
0.0927796 -0.0718655 -0.0331819 255 0 0
0.0975218 -0.071759 -0.0328905 255 0 0
0.100754 -0.0741017 -0.0322857 255 0 0
0.0686652 -0.0675521 -0.0315721 255 0 0
0.0723866 -0.0669855 -0.0318786 255 0 0
0.0776091 -0.0680481 -0.0317075 255 0 0
0.0825121 -0.0674523 -0.0321358 255 0 0
0.08754 -0.0673119 -0.0314482 255 0 0
0.0926173 -0.0686806 -0.0318099 255 0 0
0.096404 -0.0689745 -0.0330356 255 0 0
0.0658387 -0.0643352 -0.0300282 255 0 0
0.0716167 -0.0623357 -0.0316885 255 0 0
0.078193 -0.0636398 -0.0316915 255 0 0
0.0829921 -0.0629544 -0.0313033 255 0 0
0.0858073 -0.0619843 -0.0307789 255 0 0
0.0902849 -0.0648805 -0.0302169 255 0 0
0.0719724 -0.058233 -0.0306398 255 0 0
0.0797925 -0.0598064 -0.0304311 255 0 0
0.0829981 -0.0591207 -0.0303141 255 0 0
0.150975 -0.1712 -0.0252935 255 0 0
0.147978 -0.166255 -0.0289756 255 0 0
0.152831 -0.166818 -0.028505 255 0 0
0.154772 -0.160563 -0.0289986 255 0 0
0.157369 -0.161754 -0.0283171 255 0 0
0.162951 -0.160705 -0.0296069 255 0 0
0.153988 -0.158149 -0.0273959 255 0 0
0.156256 -0.157105 -0.0267878 255 0 0
0.154164 -0.151645 -0.0293694 255 0 0
0.157472 -0.15234 -0.0274917 255 0 0
0.168217 -0.152042 -0.0272801 255 0 0
0.17149 -0.150889 -0.026813 255 0 0
0.159304 -0.149036 -0.0282255 255 0 0
0.162225 -0.147078 -0.0279087 255 0 0
0.169874 -0.148594 -0.0283909 255 0 0
0.173276 -0.147667 -0.0276956 255 0 0
0.175774 -0.146587 -0.0264126 255 0 0
0.159041 -0.142085 -0.028581 255 0 0
0.162879 -0.143593 -0.0274684 255 0 0
0.167145 -0.142354 -0.0277079 255 0 0
0.173525 -0.142426 -0.0283059 255 0 0
0.175565 -0.143242 -0.0269751 255 0 0
0.153773 -0.137119 -0.0292416 255 0 0
0.156785 -0.138408 -0.0272703 255 0 0
0.164026 -0.138334 -0.0273505 255 0 0
0.168311 -0.136669 -0.0274278 255 0 0
0.172144 -0.13709 -0.0272465 255 0 0
0.175084 -0.139075 -0.026306 255 0 0
0.149123 -0.131019 -0.0282973 255 0 0
0.152388 -0.133745 -0.0270675 255 0 0
0.163525 -0.132501 -0.0279086 255 0 0
0.166621 -0.132464 -0.0271041 255 0 0
0.172325 -0.132321 -0.0275595 255 0 0
0.138801 -0.125274 -0.0286978 255 0 0
0.144125 -0.125273 -0.0282479 255 0 0
0.146971 -0.128023 -0.0267975 255 0 0
0.158317 -0.126518 -0.0270512 255 0 0
0.162893 -0.127898 -0.0278304 255 0 0
0.166023 -0.127315 -0.0278288 255 0 0
0.172657 -0.127508 -0.027852 255 0 0
0.13063 -0.120194 -0.0298513 255 0 0
0.136908 -0.121272 -0.0284307 255 0 0
0.141763 -0.122563 -0.0269649 255 0 0
0.147656 -0.120972 -0.0297629 255 0 0
0.153614 -0.122197 -0.0277868 255 0 0
0.157643 -0.122741 -0.0280813 255 0 0
0.161855 -0.123467 -0.0269363 255 0 0
0.166911 -0.122729 -0.0271003 255 0 0
0.17109 -0.124522 -0.0259998 255 0 0
0.119906 -0.116095 -0.027133 255 0 0
0.12251 -0.116922 -0.0280015 255 0 0
0.127566 -0.117929 -0.0279147 255 0 0
0.132796 -0.117716 -0.0272291 255 0 0
0.1378 -0.118274 -0.0276713 255 0 0
0.142105 -0.116383 -0.0280035 255 0 0
0.147508 -0.117703 -0.0279852 255 0 0
0.152105 -0.117593 -0.0266628 255 0 0
0.158324 -0.116825 -0.0283318 255 0 0
0.162329 -0.118405 -0.0270848 255 0 0
0.165276 -0.119463 -0.0253944 255 0 0
0.114303 -0.110964 -0.0283063 255 0 0
0.117413 -0.113518 -0.0270192 255 0 0
0.129524 -0.110606 -0.0287518 255 0 0
0.133028 -0.111455 -0.0276015 255 0 0
0.138198 -0.112578 -0.0279045 255 0 0
0.14203 -0.113069 -0.0263875 255 0 0
0.147743 -0.112992 -0.0273211 255 0 0
0.15224 -0.113575 -0.0273445 255 0 0
0.156494 -0.113088 -0.0275612 255 0 0
0.111993 -0.107741 -0.0284533 255 0 0
0.128212 -0.108546 -0.0266506 255 0 0
0.132831 -0.107979 -0.0265658 255 0 0
0.137642 -0.107864 -0.0273498 255 0 0
0.142663 -0.107203 -0.0272467 255 0 0
0.146846 -0.108574 -0.0263793 255 0 0
0.154041 -0.1073 -0.0285419 255 0 0
0.155817 -0.109095 -0.0286862 255 0 0
0.109924 -0.102451 -0.029612 255 0 0
0.110134 -0.103902 -0.0296152 255 0 0
0.128648 -0.101067 -0.0283234 255 0 0
0.132623 -0.102071 -0.0282545 255 0 0
0.136773 -0.102279 -0.0272031 255 0 0
0.140379 -0.104603 -0.028352 255 0 0
0.09947 -0.0955114 -0.0274082 255 0 0
0.101652 -0.0978191 -0.02784 255 0 0
0.105099 -0.0997625 -0.0294278 255 0 0
0.118839 -0.0958222 -0.0282929 255 0 0
0.121752 -0.0982198 -0.0273878 255 0 0
0.126992 -0.0980721 -0.0277363 255 0 0
0.132595 -0.0990462 -0.027695 255 0 0
0.0978402 -0.092685 -0.0270682 255 0 0
0.108153 -0.0908478 -0.0295257 255 0 0
0.111756 -0.0916111 -0.0292243 255 0 0
0.117658 -0.0920525 -0.0285809 255 0 0
0.122869 -0.09209 -0.0275977 255 0 0
0.127526 -0.0931246 -0.0264835 255 0 0
0.130835 -0.0930901 -0.025075 255 0 0
0.0943413 -0.0876029 -0.0250217 255 0 0
0.0972333 -0.0862762 -0.0286754 255 0 0
0.102824 -0.0869166 -0.0281619 255 0 0
0.107522 -0.0877143 -0.0278048 255 0 0
0.112122 -0.0872477 -0.0278916 255 0 0
0.116313 -0.0880215 -0.0276164 255 0 0
0.120495 -0.0895044 -0.0259723 255 0 0
0.127765 -0.0884379 -0.0250897 255 0 0
0.0895677 -0.0809439 -0.0274485 255 0 0
0.0928007 -0.0824231 -0.0276775 255 0 0
0.0970114 -0.0825978 -0.0269986 255 0 0
0.101991 -0.0824154 -0.0277706 255 0 0
0.107417 -0.0821309 -0.0268789 255 0 0
0.11265 -0.0824378 -0.0276695 255 0 0
0.0829634 -0.0756333 -0.0281213 255 0 0
0.0873595 -0.0778169 -0.0276842 255 0 0
0.09248 -0.0780069 -0.0264999 255 0 0
0.0982205 -0.0777055 -0.0257841 255 0 0
0.102462 -0.0773814 -0.0272084 255 0 0
0.107093 -0.077701 -0.0274643 255 0 0
0.112483 -0.0790518 -0.0279574 255 0 0
0.0681905 -0.0706833 -0.0284773 255 0 0
0.0723755 -0.0712438 -0.0289007 255 0 0
0.0780569 -0.0720193 -0.0285678 255 0 0
0.0820297 -0.0723868 -0.0275288 255 0 0
0.0864454 -0.0730447 -0.0266491 255 0 0
0.0912764 -0.074658 -0.02511 255 0 0
0.0984838 -0.0728392 -0.026666 255 0 0
0.1021 -0.0731331 -0.0267208 255 0 0
0.106894 -0.0742333 -0.0266152 255 0 0
0.0674921 -0.0673312 -0.0280511 255 0 0
0.0722476 -0.0676394 -0.0275766 255 0 0
0.0770258 -0.0683377 -0.0277362 255 0 0
0.0822744 -0.0672022 -0.0273771 255 0 0
0.0877326 -0.0668703 -0.028053 255 0 0
0.0923882 -0.0678218 -0.0280661 255 0 0
0.0966202 -0.0691187 -0.0272599 255 0 0
0.0635912 -0.0617604 -0.0290246 255 0 0
0.0673265 -0.0623437 -0.0273269 255 0 0
0.0723303 -0.062474 -0.026868 255 0 0
0.0780941 -0.0624543 -0.0276972 255 0 0
0.0820751 -0.062726 -0.026238 255 0 0
0.0873336 -0.0633646 -0.0275307 255 0 0
0.0638074 -0.0590219 -0.0288174 255 0 0
0.0667491 -0.0586409 -0.0260488 255 0 0
0.0730241 -0.0578096 -0.0268503 255 0 0
0.0772874 -0.0582008 -0.0278194 255 0 0
0.0823941 -0.0575375 -0.0284052 255 0 0
0.0857605 -0.0589914 -0.0293162 255 0 0
0.0787619 -0.0533953 -0.0278887 255 0 0
0.0822126 -0.0523683 -0.0282198 255 0 0
0.0829157 -0.0488736 -0.028207 255 0 0
0.150676 -0.171088 -0.0239595 255 0 0
0.152691 -0.167618 -0.0226987 255 0 0
0.152043 -0.162484 -0.0228417 255 0 0
0.157649 -0.160176 -0.0238786 255 0 0
0.153934 -0.158086 -0.0217168 255 0 0
0.158011 -0.157025 -0.022065 255 0 0
0.158936 -0.152924 -0.0224821 255 0 0
0.160465 -0.151554 -0.0214597 255 0 0
0.169157 -0.153367 -0.0232684 255 0 0
0.171817 -0.151551 -0.0222531 255 0 0
0.159648 -0.149936 -0.0249389 255 0 0
0.161148 -0.147472 -0.0227829 255 0 0
0.16774 -0.147249 -0.0231667 255 0 0
0.172199 -0.147688 -0.0228198 255 0 0
0.176639 -0.148101 -0.022772 255 0 0
0.15963 -0.140048 -0.0249439 255 0 0
0.16246 -0.142629 -0.0229614 255 0 0
0.167303 -0.142466 -0.0221841 255 0 0
0.173906 -0.143415 -0.0227031 255 0 0
0.176437 -0.142819 -0.02274 255 0 0
0.157732 -0.13723 -0.0229746 255 0 0
0.161335 -0.139271 -0.0216775 255 0 0
0.167698 -0.137434 -0.0229482 255 0 0
0.17169 -0.137122 -0.0230161 255 0 0
0.175957 -0.138463 -0.023334 255 0 0
0.15244 -0.131787 -0.022983 255 0 0
0.155811 -0.134259 -0.0215302 255 0 0
0.163627 -0.130802 -0.0248538 255 0 0
0.167958 -0.132319 -0.0230532 255 0 0
0.172433 -0.13293 -0.0224531 255 0 0
0.175238 -0.134844 -0.0207714 255 0 0
0.14769 -0.126653 -0.022559 255 0 0
0.15061 -0.12945 -0.0217947 255 0 0
0.157627 -0.125692 -0.0223694 255 0 0
0.162189 -0.127918 -0.0227618 255 0 0
0.167281 -0.127974 -0.0227278 255 0 0
0.17298 -0.126926 -0.0222151 255 0 0
0.138165 -0.121663 -0.0243002 255 0 0
0.142678 -0.122017 -0.022765 255 0 0
0.145517 -0.124312 -0.022852 255 0 0
0.153144 -0.122902 -0.0217285 255 0 0
0.158208 -0.122377 -0.0231522 255 0 0
0.162652 -0.123315 -0.0222729 255 0 0
0.168743 -0.122237 -0.0232099 255 0 0
0.171326 -0.123126 -0.0220126 255 0 0
0.123564 -0.115425 -0.023666 255 0 0
0.128662 -0.116559 -0.0248509 255 0 0
0.133352 -0.115552 -0.0228173 255 0 0
0.137735 -0.117594 -0.0224019 255 0 0
0.140679 -0.119329 -0.0225746 255 0 0
0.14854 -0.115734 -0.0237572 255 0 0
0.152126 -0.117244 -0.0220554 255 0 0
0.158105 -0.11686 -0.0239445 255 0 0
0.162629 -0.116898 -0.0225749 255 0 0
0.167272 -0.118332 -0.0222464 255 0 0
0.170628 -0.119125 -0.0205481 255 0 0
0.117835 -0.11208 -0.0232244 255 0 0
0.121629 -0.113522 -0.0224925 255 0 0
0.132125 -0.11365 -0.0220644 255 0 0
0.138533 -0.110944 -0.024394 255 0 0
0.142762 -0.112178 -0.0234539 255 0 0
0.147826 -0.112158 -0.0226577 255 0 0
0.152526 -0.112538 -0.0224897 255 0 0
0.157473 -0.114362 -0.0221322 255 0 0
0.16159 -0.114497 -0.0206403 255 0 0
0.113851 -0.108787 -0.024146 255 0 0
0.133522 -0.108529 -0.024575 255 0 0
0.137847 -0.107048 -0.0232668 255 0 0
0.142147 -0.107521 -0.022034 255 0 0
0.146661 -0.108411 -0.0218935 255 0 0
0.150222 -0.109738 -0.0228998 255 0 0
0.133661 -0.102354 -0.0229403 255 0 0
0.137524 -0.103266 -0.022793 255 0 0
0.141106 -0.104586 -0.0249875 255 0 0
0.0984395 -0.0957527 -0.0234184 255 0 0
0.122691 -0.0963647 -0.023692 255 0 0
0.127581 -0.0974471 -0.0226946 255 0 0
0.132493 -0.0979144 -0.0231139 255 0 0
0.135498 -0.0986776 -0.0230659 255 0 0
0.0946933 -0.0909766 -0.0212954 255 0 0
0.0965511 -0.0931167 -0.0231288 255 0 0
0.122893 -0.0926245 -0.0220688 255 0 0
0.127585 -0.0931902 -0.0217357 255 0 0
0.131746 -0.093094 -0.0226411 255 0 0
0.0934293 -0.087222 -0.022445 255 0 0
0.107434 -0.0874308 -0.0247257 255 0 0
0.118093 -0.0871842 -0.0234431 255 0 0
0.120422 -0.0893466 -0.0227868 255 0 0
0.12751 -0.0875202 -0.0227664 255 0 0
0.130663 -0.0880399 -0.0203645 255 0 0
0.0929455 -0.0816686 -0.024093 255 0 0
0.0986302 -0.0807501 -0.0222058 255 0 0
0.101845 -0.0822606 -0.0227287 255 0 0
0.113986 -0.0815287 -0.0225702 255 0 0
0.115611 -0.0836039 -0.0221596 255 0 0
0.0876809 -0.076907 -0.0229651 255 0 0
0.092479 -0.0783584 -0.0230943 255 0 0
0.0973889 -0.0797696 -0.021003 255 0 0
0.108902 -0.0752874 -0.0247754 255 0 0
0.111544 -0.0773906 -0.0222424 255 0 0
0.0788564 -0.0706411 -0.0231147 255 0 0
0.0826441 -0.0728842 -0.0222927 255 0 0
0.0869179 -0.0728746 -0.0220471 255 0 0
0.0923577 -0.0724929 -0.0235718 255 0 0
0.0972322 -0.0720368 -0.0242501 255 0 0
0.102926 -0.0711711 -0.0230373 255 0 0
0.107512 -0.0736699 -0.0230323 255 0 0
0.0674734 -0.0670235 -0.0230026 255 0 0
0.0717905 -0.067672 -0.0226749 255 0 0
0.0771802 -0.0683684 -0.0216826 255 0 0
0.0827006 -0.0671226 -0.0209598 255 0 0
0.0870612 -0.0677978 -0.0217868 255 0 0
0.0918863 -0.0671569 -0.0227737 255 0 0
0.0970537 -0.0674529 -0.0227988 255 0 0
0.100855 -0.0690632 -0.021938 255 0 0
0.066742 -0.0626453 -0.0228296 255 0 0
0.0718572 -0.0609865 -0.0201879 255 0 0
0.0796205 -0.061043 -0.0219638 255 0 0
0.0819001 -0.0616886 -0.0241415 255 0 0
0.0878197 -0.0627232 -0.0224779 255 0 0
0.0926226 -0.0628876 -0.0239121 255 0 0
0.0960663 -0.0627606 -0.021632 255 0 0
0.0668784 -0.0588486 -0.0233875 255 0 0
0.0729571 -0.0562202 -0.0224628 255 0 0
0.0775863 -0.0571039 -0.0232339 255 0 0
0.0824864 -0.0575919 -0.0226891 255 0 0
0.087146 -0.058109 -0.0227655 255 0 0
0.0919062 -0.0585412 -0.0222822 255 0 0
0.0681863 -0.0521205 -0.0216413 255 0 0
0.0716557 -0.0530092 -0.0219552 255 0 0
0.0770025 -0.0540035 -0.0213859 255 0 0
0.0816816 -0.0544898 -0.023941 255 0 0
0.0678009 -0.047346 -0.0218237 255 0 0
0.153403 -0.167293 -0.0189176 255 0 0
0.155193 -0.166924 -0.0154044 255 0 0
0.153594 -0.162957 -0.0176888 255 0 0
0.154651 -0.158952 -0.0170147 255 0 0
0.157711 -0.155984 -0.0190704 255 0 0
0.161773 -0.157988 -0.0163121 255 0 0
0.16764 -0.156997 -0.0154149 255 0 0
0.171046 -0.1557 -0.0163572 255 0 0
0.158543 -0.153961 -0.0183902 255 0 0
0.161511 -0.152945 -0.0171002 255 0 0
0.171932 -0.152908 -0.0168073 255 0 0
0.175227 -0.151312 -0.0167965 255 0 0
0.163225 -0.14848 -0.0173904 255 0 0
0.169282 -0.146376 -0.0178435 255 0 0
0.172866 -0.147472 -0.0176282 255 0 0
0.177093 -0.147593 -0.0174995 255 0 0
0.164099 -0.142877 -0.0186407 255 0 0
0.167483 -0.141645 -0.0173925 255 0 0
0.171096 -0.142458 -0.0174241 255 0 0
0.175973 -0.142459 -0.0173104 255 0 0
0.162223 -0.137785 -0.0174923 255 0 0
0.167315 -0.137687 -0.0169409 255 0 0
0.172041 -0.137547 -0.0171159 255 0 0
0.175774 -0.13725 -0.0176852 255 0 0
0.153973 -0.130903 -0.019125 255 0 0
0.157812 -0.13295 -0.0171307 255 0 0
0.163208 -0.130428 -0.0180337 255 0 0
0.172967 -0.132562 -0.0177544 255 0 0
0.175937 -0.1322 -0.0170524 255 0 0
0.148965 -0.126058 -0.0189956 255 0 0
0.151943 -0.12809 -0.0176092 255 0 0
0.157146 -0.127371 -0.0174891 255 0 0
0.162157 -0.127318 -0.0178709 255 0 0
0.168637 -0.126336 -0.0174818 255 0 0
0.172646 -0.128009 -0.0172658 255 0 0
0.176275 -0.127765 -0.0172159 255 0 0
0.143839 -0.121174 -0.018086 255 0 0
0.146876 -0.123689 -0.0173788 255 0 0
0.153587 -0.12246 -0.0174712 255 0 0
0.157426 -0.123545 -0.0161214 255 0 0
0.162451 -0.122346 -0.0172152 255 0 0
0.16617 -0.124161 -0.017265 255 0 0
0.172618 -0.122366 -0.0174012 255 0 0
0.176529 -0.124608 -0.0161182 255 0 0
0.134992 -0.115106 -0.018659 255 0 0
0.13818 -0.116282 -0.0178188 255 0 0
0.141765 -0.118711 -0.0167941 255 0 0
0.153093 -0.117025 -0.0172797 255 0 0
0.157927 -0.119165 -0.0179105 255 0 0
0.162777 -0.115787 -0.0182627 255 0 0
0.167382 -0.117651 -0.0179248 255 0 0
0.171605 -0.1176 -0.0175438 255 0 0
0.13351 -0.113248 -0.0183449 255 0 0
0.136813 -0.113798 -0.0162306 255 0 0
0.148336 -0.111581 -0.0179462 255 0 0
0.152069 -0.112499 -0.0178344 255 0 0
0.15764 -0.11254 -0.0178918 255 0 0
0.162067 -0.113306 -0.0169279 255 0 0
0.167625 -0.113443 -0.0166112 255 0 0
0.139291 -0.106378 -0.0178765 255 0 0
0.142519 -0.107225 -0.0174849 255 0 0
0.147777 -0.107811 -0.0172858 255 0 0
0.152253 -0.108644 -0.0169805 255 0 0
0.13386 -0.10063 -0.017127 255 0 0
0.13727 -0.103103 -0.0173694 255 0 0
0.14295 -0.102824 -0.0180057 255 0 0
0.147156 -0.102922 -0.0166335 255 0 0
0.127655 -0.0963189 -0.0174681 255 0 0
0.132584 -0.0977219 -0.0175869 255 0 0
0.135406 -0.0974621 -0.0172331 255 0 0
0.0947941 -0.0913283 -0.0186546 255 0 0
0.0964561 -0.0932009 -0.0180921 255 0 0
0.119776 -0.0910338 -0.0150408 255 0 0
0.122819 -0.0930015 -0.0171027 255 0 0
0.125299 -0.0947186 -0.018269 255 0 0
0.133866 -0.0920765 -0.0168162 255 0 0
0.0931753 -0.0887647 -0.018441 255 0 0
0.117951 -0.0884643 -0.0172352 255 0 0
0.124238 -0.0856772 -0.0177647 255 0 0
0.127357 -0.0866859 -0.01754 255 0 0
0.131809 -0.0883195 -0.0173798 255 0 0
0.107693 -0.0804229 -0.0176891 255 0 0
0.113263 -0.0828572 -0.0175614 255 0 0
0.115332 -0.084872 -0.0187833 255 0 0
0.124835 -0.0848536 -0.0158359 255 0 0
0.0932128 -0.076035 -0.0178972 255 0 0
0.0970248 -0.0778753 -0.0176608 255 0 0
0.102599 -0.0785402 -0.0163735 255 0 0
0.107359 -0.0785338 -0.0160997 255 0 0
0.11111 -0.078675 -0.0183893 255 0 0
0.0835589 -0.0713452 -0.0178834 255 0 0
0.0881578 -0.0740216 -0.018087 255 0 0
0.091681 -0.0745699 -0.0159165 255 0 0
0.10387 -0.0712192 -0.0194223 255 0 0
0.107179 -0.0740369 -0.0190266 255 0 0
0.0688606 -0.0657256 -0.0175415 255 0 0
0.0735155 -0.0657736 -0.0172645 255 0 0
0.0787545 -0.0668522 -0.018582 255 0 0
0.08132 -0.0675015 -0.0185916 255 0 0
0.0939195 -0.0662823 -0.0196519 255 0 0
0.0989097 -0.0666026 -0.0189382 255 0 0
0.100464 -0.0689323 -0.0188808 255 0 0
0.0677752 -0.0627214 -0.0170908 255 0 0
0.0722803 -0.0617878 -0.0168411 255 0 0
0.0773989 -0.0626358 -0.017322 255 0 0
0.0820529 -0.0621893 -0.0185507 255 0 0
0.0856686 -0.061707 -0.0194442 255 0 0
0.0944143 -0.0612845 -0.0177499 255 0 0
0.0964294 -0.0636774 -0.0184597 255 0 0
0.067813 -0.0581037 -0.0175154 255 0 0
0.0705769 -0.0586668 -0.0171019 255 0 0
0.0790207 -0.0585674 -0.0190017 255 0 0
0.0829261 -0.0578175 -0.0184228 255 0 0
0.0880513 -0.0562603 -0.0178714 255 0 0
0.0919072 -0.0584728 -0.0178759 255 0 0
0.0706172 -0.0541166 -0.0183151 255 0 0
0.0770076 -0.0516298 -0.0193859 255 0 0
0.0823248 -0.052804 -0.0173999 255 0 0
0.0851178 -0.0549336 -0.0173158 255 0 0
0.0747114 -0.0493376 -0.0197369 255 0 0
0.0786385 -0.0474346 -0.0182158 255 0 0
0.0813747 -0.048219 -0.0160337 255 0 0
0.0808391 -0.0439968 -0.0159207 255 0 0
0.157096 -0.16688 -0.0122458 255 0 0
0.154775 -0.160905 -0.0139265 255 0 0
0.156577 -0.163599 -0.0128809 255 0 0
0.162507 -0.162025 -0.0125089 255 0 0
0.166016 -0.160731 -0.0110964 255 0 0
0.163855 -0.158103 -0.012762 255 0 0
0.166821 -0.158817 -0.0119963 255 0 0
0.172041 -0.156597 -0.0121532 255 0 0
0.163648 -0.152878 -0.0128103 255 0 0
0.165437 -0.150964 -0.0105181 255 0 0
0.173677 -0.152832 -0.0130166 255 0 0
0.175778 -0.151479 -0.012262 255 0 0
0.164726 -0.149367 -0.0130606 255 0 0
0.16581 -0.146741 -0.0123381 255 0 0
0.171801 -0.147275 -0.0135503 255 0 0
0.176315 -0.147413 -0.0122419 255 0 0
0.166724 -0.141991 -0.0126353 255 0 0
0.171455 -0.142879 -0.0119655 255 0 0
0.17619 -0.142787 -0.0123509 255 0 0
0.163198 -0.136581 -0.0128829 255 0 0
0.165841 -0.13929 -0.0118692 255 0 0
0.173048 -0.137535 -0.0124368 255 0 0
0.17548 -0.137335 -0.0126594 255 0 0
0.158677 -0.131149 -0.0131481 255 0 0
0.161607 -0.132595 -0.013368 255 0 0
0.173659 -0.132236 -0.0126148 255 0 0
0.176699 -0.131972 -0.0129163 255 0 0
0.153031 -0.126541 -0.0136386 255 0 0
0.157021 -0.128284 -0.0117863 255 0 0
0.17276 -0.127038 -0.0126168 255 0 0
0.177792 -0.127195 -0.0124024 255 0 0
0.180397 -0.127147 -0.0108074 255 0 0
0.144825 -0.120897 -0.0147325 255 0 0
0.147481 -0.122267 -0.0125853 255 0 0
0.151977 -0.1245 -0.0106786 255 0 0
0.158122 -0.121071 -0.0146717 255 0 0
0.163216 -0.120602 -0.012814 255 0 0
0.16731 -0.123266 -0.0130719 255 0 0
0.173552 -0.122684 -0.012324 255 0 0
0.176483 -0.123415 -0.0124173 255 0 0
0.143151 -0.117407 -0.0127071 255 0 0
0.145394 -0.118915 -0.0109466 255 0 0
0.153871 -0.115513 -0.0134882 255 0 0
0.157345 -0.117517 -0.0131105 255 0 0
0.16163 -0.117578 -0.0112615 255 0 0
0.167737 -0.116796 -0.0129176 255 0 0
0.172964 -0.117728 -0.0132004 255 0 0
0.138639 -0.113621 -0.0135817 255 0 0
0.142626 -0.114953 -0.0112192 255 0 0
0.148142 -0.110675 -0.0125026 255 0 0
0.152995 -0.112748 -0.0132003 255 0 0
0.157324 -0.112393 -0.012117 255 0 0
0.162561 -0.111878 -0.0125876 255 0 0
0.167111 -0.111844 -0.0127023 255 0 0
0.17144 -0.11316 -0.0119485 255 0 0
0.143126 -0.10658 -0.0128058 255 0 0
0.147016 -0.10773 -0.0126013 255 0 0
0.151862 -0.10795 -0.0126144 255 0 0
0.156737 -0.109074 -0.0118599 255 0 0
0.162925 -0.109761 -0.01102 255 0 0
0.138264 -0.101295 -0.0129961 255 0 0
0.141108 -0.103253 -0.0126325 255 0 0
0.147758 -0.103613 -0.0129949 255 0 0
0.151522 -0.102989 -0.0119998 255 0 0
0.136811 -0.0971181 -0.0129353 255 0 0
0.118181 -0.0910755 -0.0129757 255 0 0
0.120093 -0.0924589 -0.0132325 255 0 0
0.134607 -0.0907419 -0.0135092 255 0 0
0.136451 -0.0931208 -0.0118985 255 0 0
0.112906 -0.0858624 -0.0122815 255 0 0
0.116568 -0.0880843 -0.0143539 255 0 0
0.127554 -0.0852587 -0.0142549 255 0 0
0.131843 -0.0862544 -0.0127243 255 0 0
0.135716 -0.088746 -0.0111989 255 0 0
0.107845 -0.0820493 -0.0116363 255 0 0
0.111893 -0.0840349 -0.0138692 255 0 0
0.0984897 -0.0762859 -0.0125768 255 0 0
0.102402 -0.0778351 -0.0125795 255 0 0
0.106975 -0.0789327 -0.0117095 255 0 0
0.111076 -0.0790269 -0.0124096 255 0 0
0.0938128 -0.0719404 -0.0120644 255 0 0
0.0961179 -0.0742471 -0.0117854 255 0 0
0.101088 -0.0744277 -0.0147141 255 0 0
0.0775046 -0.0653925 -0.012696 255 0 0
0.0806611 -0.0672607 -0.014193 255 0 0
0.0926057 -0.0668469 -0.0121722 255 0 0
0.0953292 -0.0683643 -0.0143473 255 0 0
0.0739691 -0.0639374 -0.0138729 255 0 0
0.0769556 -0.0645877 -0.0146508 255 0 0
0.0891824 -0.062162 -0.0119002 255 0 0
0.0915585 -0.0629595 -0.0138402 255 0 0
0.0843388 -0.0569841 -0.0115623 255 0 0
0.0870141 -0.0580523 -0.0138077 255 0 0
0.0828531 -0.0527777 -0.0123915 255 0 0
0.0822266 -0.047895 -0.0132029 255 0 0
0.0825756 -0.0436786 -0.0130055 255 0 0
0.167274 -0.160464 -0.00802725 255 0 0
0.16136 -0.157511 -0.00625652 255 0 0
0.166627 -0.157688 -0.00776569 255 0 0
0.166534 -0.15295 -0.00766686 255 0 0
0.174968 -0.154687 -0.00903748 255 0 0
0.177075 -0.152343 -0.00743323 255 0 0
0.168138 -0.147239 -0.00728942 255 0 0
0.172404 -0.146501 -0.00750367 255 0 0
0.177843 -0.147111 -0.00761013 255 0 0
0.180879 -0.14747 -0.00604692 255 0 0
0.168185 -0.141851 -0.00776326 255 0 0
0.173147 -0.142987 -0.00717054 255 0 0
0.177552 -0.142497 -0.0068991 255 0 0
0.181044 -0.14436 -0.00618523 255 0 0
0.163879 -0.135791 -0.00735131 255 0 0
0.16663 -0.138766 -0.0069278 255 0 0
0.173975 -0.137337 -0.00800226 255 0 0
0.176252 -0.13774 -0.00686892 255 0 0
0.161572 -0.131999 -0.00780692 255 0 0
0.174392 -0.132432 -0.00787899 255 0 0
0.177457 -0.13218 -0.00771571 255 0 0
0.157495 -0.12654 -0.00783958 255 0 0
0.160634 -0.128985 -0.00675753 255 0 0
0.172167 -0.126961 -0.0074433 255 0 0
0.176496 -0.127605 -0.00719836 255 0 0
0.180859 -0.127174 -0.0080164 255 0 0
0.148276 -0.121322 -0.0086192 255 0 0
0.152286 -0.123112 -0.007181 255 0 0
0.155463 -0.124466 -0.00523814 255 0 0
0.164487 -0.120474 -0.0079089 255 0 0
0.168187 -0.122954 -0.00782606 255 0 0
0.17198 -0.124746 -0.00738852 255 0 0
0.177256 -0.122144 -0.00756809 255 0 0
0.181046 -0.12335 -0.0052708 255 0 0
0.144695 -0.116927 -0.00877187 255 0 0
0.146753 -0.118019 -0.00732173 255 0 0
0.158721 -0.116497 -0.00745841 255 0 0
0.162589 -0.117717 -0.00727296 255 0 0
0.169614 -0.116245 -0.00949732 255 0 0
0.173281 -0.117124 -0.00787175 255 0 0
0.176111 -0.119579 -0.00610227 255 0 0
0.154054 -0.111964 -0.00844204 255 0 0
0.156984 -0.112278 -0.00762838 255 0 0
0.161639 -0.112718 -0.00747815 255 0 0
0.168305 -0.111904 -0.00747709 255 0 0
0.171595 -0.112783 -0.00655302 255 0 0
0.14784 -0.10636 -0.00850717 255 0 0
0.152794 -0.107423 -0.0080992 255 0 0
0.156951 -0.107685 -0.00695324 255 0 0
0.162915 -0.108758 -0.00724294 255 0 0
0.166912 -0.109728 -0.00817061 255 0 0
0.142115 -0.102663 -0.00792801 255 0 0
0.146175 -0.104465 -0.00708674 255 0 0
0.153101 -0.102242 -0.00707839 255 0 0
0.155205 -0.104072 -0.00608598 255 0 0
0.139216 -0.0969828 -0.00870047 255 0 0
0.140777 -0.0980769 -0.00622959 255 0 0
0.154211 -0.0989931 -0.00671086 255 0 0
0.155723 -0.098049 -0.00561808 255 0 0
0.138701 -0.0914973 -0.00732612 255 0 0
0.140217 -0.0940982 -0.00558263 255 0 0
0.110796 -0.0859566 -0.00769594 255 0 0
0.137043 -0.0872449 -0.00795716 255 0 0
0.104393 -0.0806993 -0.00664918 255 0 0
0.107311 -0.0828573 -0.00728713 255 0 0
0.137087 -0.0833482 -0.00574374 255 0 0
0.0948944 -0.0752355 -0.00514518 255 0 0
0.0981984 -0.077422 -0.00751983 255 0 0
0.102571 -0.0793657 -0.00852755 255 0 0
0.108027 -0.0789212 -0.00942826 255 0 0
0.110787 -0.0792194 -0.0084386 255 0 0
0.0936116 -0.0725394 -0.00668283 255 0 0
0.0955682 -0.0748694 -0.00840571 255 0 0
0.0915089 -0.068134 -0.00873779 255 0 0
0.163206 -0.162413 -0.00230875 255 0 0
0.162494 -0.157374 -0.00290779 255 0 0
0.167745 -0.157317 -0.00246879 255 0 0
0.163523 -0.154663 -0.00254291 255 0 0
0.167786 -0.152396 -0.00225302 255 0 0
0.177535 -0.151451 -0.00246257 255 0 0
0.169503 -0.14796 -0.00300785 255 0 0
0.172027 -0.145987 -0.00219693 255 0 0
0.177625 -0.147454 -0.00177439 255 0 0
0.182357 -0.146642 -0.00251537 255 0 0
0.169455 -0.141772 -0.00218494 255 0 0
0.171834 -0.143913 -0.00280811 255 0 0
0.176693 -0.142147 -0.00258033 255 0 0
0.182089 -0.142034 -0.00294988 255 0 0
0.164451 -0.135281 -0.00224908 255 0 0
0.166027 -0.137586 -0.00275973 255 0 0
0.17795 -0.137444 -0.00264229 255 0 0
0.180618 -0.137229 -0.000588316 255 0 0
0.162985 -0.131647 -0.00251358 255 0 0
0.165563 -0.133068 -0.00261663 255 0 0
0.174251 -0.131771 -0.00296993 255 0 0
0.178634 -0.132996 -0.0032443 255 0 0
0.180696 -0.132931 -0.00221292 255 0 0
0.158781 -0.126154 -0.00280765 255 0 0
0.161285 -0.12867 -0.00194159 255 0 0
0.173075 -0.126934 -0.00245021 255 0 0
0.178329 -0.127357 -0.00249072 255 0 0
0.181787 -0.127546 -0.00262034 255 0 0
0.153259 -0.121944 -0.00273511 255 0 0
0.156142 -0.124166 -0.00151509 255 0 0
0.167394 -0.121706 -0.00247892 255 0 0
0.171131 -0.123513 -0.0021931 255 0 0
0.178563 -0.122526 -0.0026626 255 0 0
0.181915 -0.122828 -0.00192485 255 0 0
0.149265 -0.11916 -0.00384144 255 0 0
0.151014 -0.119128 -0.00117197 255 0 0
0.158454 -0.115375 -0.00491095 255 0 0
0.162868 -0.117601 -0.00259536 255 0 0
0.166448 -0.118213 -0.0017374 255 0 0
0.173414 -0.115326 -0.00461538 255 0 0
0.176698 -0.118186 -0.00274343 255 0 0
0.158292 -0.112213 -0.00300498 255 0 0
0.161794 -0.113233 -0.00222959 255 0 0
0.168602 -0.110485 -0.00403827 255 0 0
0.172528 -0.112717 -0.00222072 255 0 0
0.148866 -0.105505 -0.00259606 255 0 0
0.152441 -0.106026 -0.00286676 255 0 0
0.157628 -0.107603 -0.00260272 255 0 0
0.162264 -0.10707 -0.00243722 255 0 0
0.167048 -0.109024 -0.0021122 255 0 0
0.14394 -0.102045 -0.00274346 255 0 0
0.146517 -0.104546 -0.00150515 255 0 0
0.154965 -0.104809 -0.00482892 255 0 0
0.156856 -0.102234 -0.00228968 255 0 0
0.142322 -0.0973763 -0.00240046 255 0 0
0.156846 -0.097725 -0.00269098 255 0 0
0.141052 -0.0921449 -0.00256931 255 0 0
0.157145 -0.0941533 -0.00172026 255 0 0
0.139412 -0.0872913 -0.00381013 255 0 0
0.14043 -0.0871716 -0.00134902 255 0 0
0.108779 -0.0813363 -0.0047019 255 0 0
0.138539 -0.0820528 -0.00196958 255 0 0
0.140089 -0.0837408 -0.000298673 255 0 0
0.0977904 -0.0770272 -0.00495209 255 0 0
0.10195 -0.0793632 -0.00473923 255 0 0
0.134541 -0.0766949 -0.00331257 255 0 0
0.136283 -0.0779039 -0.0021135 255 0 0
0.133166 -0.0728638 -0.00152477 255 0 0
0.164221 -0.162721 0.00244698 255 0 0
0.164053 -0.1574 0.00232656 255 0 0
0.16801 -0.158096 0.00276069 255 0 0
0.164813 -0.154901 0.00302512 255 0 0
0.168431 -0.153095 0.00254142 255 0 0
0.170663 -0.151305 0.00437361 255 0 0
0.178695 -0.150744 0.000602474 255 0 0
0.180934 -0.151007 0.000935759 255 0 0
0.170854 -0.147109 0.0026572 255 0 0
0.177355 -0.145705 0.00198828 255 0 0
0.169573 -0.141285 0.00297436 255 0 0
0.170399 -0.143393 0.00263178 255 0 0
0.178632 -0.142526 0.00273772 255 0 0
0.164729 -0.135527 0.00274514 255 0 0
0.166828 -0.13801 0.0024238 255 0 0
0.179041 -0.138249 0.00144631 255 0 0
0.18115 -0.137133 0.00242891 255 0 0
0.162776 -0.132594 0.00260165 255 0 0
0.176411 -0.131826 0.00253078 255 0 0
0.182319 -0.132314 0.00244705 255 0 0
0.158102 -0.126604 0.00321214 255 0 0
0.160435 -0.12887 0.00167062 255 0 0
0.17421 -0.12675 0.00229762 255 0 0
0.177197 -0.12752 0.00301189 255 0 0
0.182139 -0.127297 0.00250706 255 0 0
0.153631 -0.121707 0.00248073 255 0 0
0.156329 -0.124691 0.000731482 255 0 0
0.168444 -0.121238 0.00212036 255 0 0
0.172138 -0.122989 0.00221289 255 0 0
0.178122 -0.122797 0.0017129 255 0 0
0.182272 -0.121943 0.00272429 255 0 0
0.152066 -0.119553 0.00123854 255 0 0
0.163726 -0.117565 0.00100988 255 0 0
0.167249 -0.11755 0.0025849 255 0 0
0.171272 -0.118643 0.00387717 255 0 0
0.177719 -0.117047 0.00212458 255 0 0
0.181254 -0.118467 0.00316658 255 0 0
0.158683 -0.110916 0.00173014 255 0 0
0.16231 -0.113057 0.00243529 255 0 0
0.17318 -0.111889 0.00283017 255 0 0
0.176648 -0.113509 0.00361442 255 0 0
0.148727 -0.105516 0.00181019 255 0 0
0.152794 -0.106405 0.00273437 255 0 0
0.157644 -0.107597 0.00276773 255 0 0
0.16244 -0.106568 0.00223162 255 0 0
0.167204 -0.107917 0.00268085 255 0 0
0.171598 -0.109439 0.00369205 255 0 0
0.144666 -0.101072 0.00324415 255 0 0
0.146571 -0.103731 0.00236768 255 0 0
0.158098 -0.10264 0.00283383 255 0 0
0.161637 -0.104607 0.0033489 255 0 0
0.143683 -0.0973137 0.00242855 255 0 0
0.156624 -0.0983709 0.00229488 255 0 0
0.142098 -0.0922726 0.00267277 255 0 0
0.140705 -0.0877053 0.00268013 255 0 0
0.139205 -0.0829056 0.00286958 255 0 0
0.137592 -0.077858 0.00248359 255 0 0
0.134073 -0.071558 0.00155611 255 0 0
0.135824 -0.0737429 0.00286706 255 0 0
0.133756 -0.0696649 0.00310179 255 0 0
0.165535 -0.162007 0.00853758 255 0 0
0.164865 -0.156648 0.00662697 255 0 0
0.165416 -0.157466 0.00894994 255 0 0
0.170931 -0.155374 0.00609131 255 0 0
0.16656 -0.153074 0.00718381 255 0 0
0.171158 -0.151699 0.00657944 255 0 0
0.169352 -0.149776 0.00588434 255 0 0
0.172389 -0.147619 0.00777569 255 0 0
0.175008 -0.146194 0.00899671 255 0 0
0.169857 -0.141004 0.00650802 255 0 0
0.170702 -0.14318 0.00820582 255 0 0
0.177077 -0.143289 0.00756704 255 0 0
0.164693 -0.135427 0.00738723 255 0 0
0.16757 -0.137624 0.00736108 255 0 0
0.18193 -0.137302 0.00755134 255 0 0
0.162068 -0.132344 0.00739195 255 0 0
0.182987 -0.132328 0.00729887 255 0 0
0.157689 -0.127288 0.00752113 255 0 0
0.178082 -0.126928 0.00755322 255 0 0
0.182973 -0.128594 0.00792263 255 0 0
0.186084 -0.127079 0.00777754 255 0 0
0.153844 -0.122587 0.00705082 255 0 0
0.155165 -0.124871 0.00882731 255 0 0
0.173506 -0.122202 0.00670823 255 0 0
0.175388 -0.123074 0.00739206 255 0 0
0.182948 -0.123082 0.00761855 255 0 0
0.186128 -0.122531 0.007247 255 0 0
0.168433 -0.115689 0.00729026 255 0 0
0.17178 -0.118543 0.00709474 255 0 0
0.177882 -0.116183 0.00771379 255 0 0
0.181975 -0.117453 0.00730874 255 0 0
0.18559 -0.118957 0.00894489 255 0 0
0.159673 -0.11081 0.00603265 255 0 0
0.163164 -0.112179 0.00702216 255 0 0
0.166047 -0.113024 0.00827486 255 0 0
0.173575 -0.111628 0.00743207 255 0 0
0.177015 -0.111843 0.00726506 255 0 0
0.180803 -0.114871 0.00872914 255 0 0
0.14906 -0.105609 0.0067306 255 0 0
0.152545 -0.106464 0.00762332 255 0 0
0.15795 -0.107821 0.00725903 255 0 0
0.162223 -0.107894 0.00802183 255 0 0
0.167466 -0.107151 0.00697314 255 0 0
0.172111 -0.109446 0.00727614 255 0 0
0.144133 -0.101579 0.00785922 255 0 0
