ply
format ascii 1.0
element vertex 1234
property float x
property float y
property float z
property uchar diffuse_red
property uchar diffuse_green
property uchar diffuse_blue
end_header
0.140649 -0.144842 -0.0193744 255 0 0
0.14318 -0.145008 -0.0187155 255 0 0
0.144391 -0.144952 -0.0191755 255 0 0
0.139516 -0.143855 -0.0184715 255 0 0
0.142919 -0.142744 -0.0189953 255 0 0
0.1442 -0.143237 -0.01884 255 0 0
0.141275 -0.140739 -0.0189837 255 0 0
0.142316 -0.141582 -0.0196185 255 0 0
0.144338 -0.141432 -0.0186816 255 0 0
0.139418 -0.138646 -0.0189971 255 0 0
0.140526 -0.139213 -0.0189938 255 0 0
0.144896 -0.138758 -0.0191597 255 0 0
0.136788 -0.136969 -0.0193037 255 0 0
0.138864 -0.137333 -0.0189855 255 0 0
0.144973 -0.136597 -0.0189155 255 0 0
0.135209 -0.134284 -0.0191592 255 0 0
0.136568 -0.135204 -0.0188785 255 0 0
0.13801 -0.135257 -0.0193162 255 0 0
0.144722 -0.135251 -0.0193304 255 0 0
0.133181 -0.132802 -0.0188229 255 0 0
0.134633 -0.133273 -0.0187612 255 0 0
0.137319 -0.132936 -0.0188275 255 0 0
0.138113 -0.13368 -0.0180073 255 0 0
0.14367 -0.132406 -0.0186782 255 0 0
0.144585 -0.133686 -0.0191 255 0 0
0.131436 -0.13057 -0.0189657 255 0 0
0.132858 -0.131319 -0.0191248 255 0 0
0.135217 -0.131082 -0.019117 255 0 0
0.143417 -0.13105 -0.0190938 255 0 0
0.127112 -0.128221 -0.0194297 255 0 0
0.129508 -0.128751 -0.0193765 255 0 0
0.130971 -0.129069 -0.0193275 255 0 0
0.133104 -0.129235 -0.0185505 255 0 0
0.141206 -0.128644 -0.0181577 255 0 0
0.142454 -0.129235 -0.0195755 255 0 0
0.123957 -0.126307 -0.0196159 255 0 0
0.125974 -0.127106 -0.0189883 255 0 0
0.127385 -0.126729 -0.0188778 255 0 0
0.128818 -0.127571 -0.0185467 255 0 0
0.130549 -0.127616 -0.0197176 255 0 0
0.139543 -0.126381 -0.0187037 255 0 0
0.140836 -0.127503 -0.0192195 255 0 0
0.12138 -0.124223 -0.018513 255 0 0
0.122495 -0.12532 -0.0189485 255 0 0
0.124872 -0.125205 -0.0185024 255 0 0
0.126908 -0.125641 -0.0191715 255 0 0
0.137506 -0.124278 -0.019154 255 0 0
0.138524 -0.125328 -0.0189291 255 0 0
0.120606 -0.123012 -0.0183059 255 0 0
0.122834 -0.122546 -0.0183875 255 0 0
0.124774 -0.123372 -0.0192013 255 0 0
0.135402 -0.122044 -0.0189137 255 0 0
0.136868 -0.123074 -0.0194732 255 0 0
0.119774 -0.12112 -0.018101 255 0 0
0.12072 -0.120807 -0.0191043 255 0 0
0.122327 -0.121833 -0.0192587 255 0 0
0.134578 -0.120922 -0.0191845 255 0 0
0.118915 -0.118878 -0.0192982 255 0 0
0.121102 -0.119329 -0.0198033 255 0 0
0.132989 -0.119221 -0.0188313 255 0 0
0.11722 -0.117409 -0.0193175 255 0 0
0.120424 -0.11681 -0.0198727 255 0 0
0.132405 -0.117261 -0.0194023 255 0 0
0.115999 -0.115626 -0.018856 255 0 0
0.116845 -0.115029 -0.0199276 255 0 0
0.119762 -0.114999 -0.0197259 255 0 0
0.130928 -0.115346 -0.0184086 255 0 0
0.132138 -0.115896 -0.0198156 255 0 0
0.115167 -0.113035 -0.0189721 255 0 0
0.117638 -0.11303 -0.0199597 255 0 0
0.1191 -0.113187 -0.019579 255 0 0
0.13039 -0.112612 -0.0192324 255 0 0
0.109006 -0.110035 -0.0182905 255 0 0
0.110641 -0.110426 -0.018947 255 0 0
0.112759 -0.111553 -0.0193204 255 0 0
0.118841 -0.111147 -0.0199625 255 0 0
0.128992 -0.11084 -0.0189274 255 0 0
0.107495 -0.108482 -0.0186356 255 0 0
0.108502 -0.109327 -0.0191495 255 0 0
0.127277 -0.108472 -0.01878 255 0 0
0.128277 -0.1095 -0.0185556 255 0 0
0.105794 -0.106549 -0.0185522 255 0 0
0.106676 -0.107483 -0.0190378 255 0 0
0.124924 -0.106599 -0.0191334 255 0 0
0.126279 -0.107447 -0.0190039 255 0 0
0.105267 -0.104794 -0.0186377 255 0 0
0.122867 -0.104987 -0.0189555 255 0 0
0.103796 -0.102127 -0.0190968 255 0 0
0.104374 -0.103316 -0.0186384 255 0 0
0.119354 -0.10243 -0.0191694 255 0 0
0.120755 -0.103534 -0.0192007 255 0 0
0.103167 -0.101549 -0.0181815 255 0 0
0.11865 -0.101109 -0.0188041 255 0 0
0.103234 -0.0992943 -0.0184069 255 0 0
0.104352 -0.0994821 -0.019442 255 0 0
0.118327 -0.0988294 -0.0187806 255 0 0
0.0990512 -0.0966252 -0.019859 255 0 0
0.100795 -0.0964955 -0.0199987 255 0 0
0.118144 -0.0972273 -0.018552 255 0 0
0.0990028 -0.094935 -0.0197592 255 0 0
0.10036 -0.095309 -0.0199033 255 0 0
0.10499 -0.0942025 -0.0197869 255 0 0
0.106538 -0.0945693 -0.0197242 255 0 0
0.108833 -0.0944912 -0.0199143 255 0 0
0.110754 -0.094122 -0.0187974 255 0 0
0.112096 -0.0948695 -0.0191911 255 0 0
0.117544 -0.095252 -0.0191181 255 0 0
0.0972051 -0.092802 -0.0195161 255 0 0
0.0981419 -0.0935404 -0.0198792 255 0 0
0.103319 -0.0930506 -0.019623 255 0 0
0.105089 -0.0930411 -0.0191066 255 0 0
0.106508 -0.0926163 -0.0188156 255 0 0
0.10872 -0.0930835 -0.0189185 255 0 0
0.113194 -0.0930175 -0.0195985 255 0 0
0.115467 -0.0921916 -0.0184478 255 0 0
0.116521 -0.0933273 -0.0189091 255 0 0
0.093578 -0.0901655 -0.019578 255 0 0
0.0952974 -0.0909929 -0.0194013 255 0 0
0.0967036 -0.0909437 -0.0191075 255 0 0
0.0996301 -0.0903431 -0.0195228 255 0 0
0.101195 -0.0911229 -0.0192727 255 0 0
0.103024 -0.0910993 -0.0188496 255 0 0
0.104729 -0.0914794 -0.0185121 255 0 0
0.106912 -0.0914038 -0.0185556 255 0 0
0.110974 -0.0905595 -0.0189052 255 0 0
0.112134 -0.0914613 -0.0189184 255 0 0
0.11518 -0.0908059 -0.0188559 255 0 0
0.0911092 -0.0890216 -0.0196447 255 0 0
0.0928119 -0.0885974 -0.0190373 255 0 0
0.0945242 -0.0892262 -0.0190389 255 0 0
0.096507 -0.0886999 -0.0191775 255 0 0
0.0985891 -0.0888101 -0.0189628 255 0 0
0.100898 -0.0891252 -0.0190062 255 0 0
0.102567 -0.0891259 -0.0183484 255 0 0
0.10401 -0.0895004 -0.0181433 255 0 0
0.107467 -0.0885255 -0.0184022 255 0 0
0.108769 -0.0891141 -0.0190917 255 0 0
0.11001 -0.0895213 -0.0191558 255 0 0
0.11357 -0.0886148 -0.0193937 255 0 0
0.114547 -0.0896122 -0.0191716 255 0 0
0.0876736 -0.0860086 -0.019866 255 0 0
0.0895468 -0.08711 -0.0190908 255 0 0
0.0911068 -0.0874316 -0.0187556 255 0 0
0.0932912 -0.0870182 -0.0183714 255 0 0
0.0950912 -0.0874509 -0.0188325 255 0 0
0.0972907 -0.0868966 -0.0182641 255 0 0
0.0995246 -0.0867849 -0.0184442 255 0 0
0.10129 -0.0873367 -0.018336 255 0 0
0.104087 -0.0862199 -0.0180741 255 0 0
0.10716 -0.0872511 -0.0188992 255 0 0
0.108518 -0.0867647 -0.0183816 255 0 0
0.112693 -0.0873873 -0.0189802 255 0 0
0.0870878 -0.0849786 -0.0195194 255 0 0
0.0887264 -0.0852537 -0.0187662 255 0 0
0.0911452 -0.0848113 -0.0182273 255 0 0
0.0925152 -0.0858884 -0.018545 255 0 0
0.100532 -0.0851156 -0.0182907 255 0 0
0.107429 -0.0850514 -0.0187153 255 0 0
0.111525 -0.0847692 -0.0189741 255 0 0
0.112157 -0.0859621 -0.0186588 255 0 0
0.0852212 -0.0825147 -0.0191186 255 0 0
0.0869569 -0.0833794 -0.0186091 255 0 0
0.0905988 -0.0831055 -0.0182745 255 0 0
0.0944063 -0.0827368 -0.0192802 255 0 0
0.100924 -0.0838879 -0.0180293 255 0 0
0.105271 -0.0829446 -0.0199627 255 0 0
0.106763 -0.0832294 -0.0185678 255 0 0
0.110576 -0.0829793 -0.0194472 255 0 0
0.0832343 -0.0805167 -0.0190592 255 0 0
0.0850468 -0.0813899 -0.0183123 255 0 0
0.0941402 -0.0814054 -0.0194425 255 0 0
0.105027 -0.0810138 -0.0193339 255 0 0
0.107984 -0.0806136 -0.0199532 255 0 0
0.109384 -0.0811589 -0.0191904 255 0 0
0.110451 -0.0819123 -0.0183315 255 0 0
0.0811174 -0.0788259 -0.0190441 255 0 0
0.0826335 -0.0791863 -0.0181275 255 0 0
0.0890725 -0.0793489 -0.0189537 255 0 0
0.0940422 -0.0799244 -0.019864 255 0 0
0.103714 -0.0786888 -0.0196189 255 0 0
0.104784 -0.079083 -0.0187049 255 0 0
0.106726 -0.0786695 -0.019017 255 0 0
0.108509 -0.0799371 -0.0187771 255 0 0
0.0794359 -0.0764009 -0.0191919 255 0 0
0.080266 -0.0774585 -0.018825 255 0 0
0.088841 -0.077257 -0.018471 255 0 0
0.103066 -0.0764957 -0.0192636 255 0 0
0.10492 -0.0773345 -0.0186482 255 0 0
0.0777735 -0.074284 -0.019928 255 0 0
0.0787251 -0.0747373 -0.0189286 255 0 0
0.0890192 -0.0753474 -0.0183677 255 0 0
0.0926309 -0.0748521 -0.0199995 255 0 0
0.0992066 -0.0747821 -0.0195781 255 0 0
0.101212 -0.0748895 -0.0191387 255 0 0
0.102926 -0.075175 -0.0184766 255 0 0
0.104179 -0.0759613 -0.0182128 255 0 0
0.0773964 -0.0725959 -0.01908 255 0 0
0.0780147 -0.0730745 -0.0186654 255 0 0
0.0873623 -0.072768 -0.0185399 255 0 0
0.0914225 -0.072771 -0.0192894 255 0 0
0.0933392 -0.0724845 -0.0197421 255 0 0
0.0951668 -0.0727895 -0.0198027 255 0 0
0.0970343 -0.0728881 -0.0196177 255 0 0
0.0988799 -0.073102 -0.0191507 255 0 0
0.100717 -0.0732781 -0.0188097 255 0 0
0.0766379 -0.0714614 -0.0195721 255 0 0
0.0863269 -0.0710152 -0.0190807 255 0 0
0.0908626 -0.0708176 -0.0186425 255 0 0
0.0932958 -0.0704422 -0.0189115 255 0 0
0.0947511 -0.0708625 -0.0190447 255 0 0
0.0967484 -0.071429 -0.0188956 255 0 0
0.0982733 -0.071324 -0.0188106 255 0 0
0.0679934 -0.0686136 -0.0195457 255 0 0
0.0684125 -0.0697549 -0.0196361 255 0 0
0.07384 -0.0681423 -0.0192949 255 0 0
0.0751835 -0.069297 -0.0192208 255 0 0
0.0830143 -0.068423 -0.0183539 255 0 0
0.0851694 -0.0696612 -0.0189157 255 0 0
0.0894015 -0.0690703 -0.0181824 255 0 0
0.0912787 -0.0687345 -0.0187714 255 0 0
0.0927104 -0.0693844 -0.0187535 255 0 0
0.0950861 -0.0692385 -0.0182567 255 0 0
0.0967515 -0.0693633 -0.0182257 255 0 0
0.0689105 -0.0666642 -0.0195316 255 0 0
0.0729958 -0.0674508 -0.0184583 255 0 0
0.074368 -0.067445 -0.0182073 255 0 0
0.0813243 -0.0670381 -0.0191824 255 0 0
0.0933216 -0.0669352 -0.0187004 255 0 0
0.0945646 -0.0676691 -0.018573 255 0 0
0.0679353 -0.0645277 -0.0191033 255 0 0
0.069097 -0.0651847 -0.0193571 255 0 0
0.0711295 -0.0647655 -0.019145 255 0 0
0.0809642 -0.0649471 -0.019427 255 0 0
0.0852988 -0.0642013 -0.0189318 255 0 0
0.0866316 -0.065277 -0.0196348 255 0 0
0.0938061 -0.0646325 -0.0180331 255 0 0
0.0611651 -0.0626768 -0.0192838 255 0 0
0.0695359 -0.062555 -0.0193087 255 0 0
0.0702211 -0.0633525 -0.0185123 255 0 0
0.0795899 -0.0627719 -0.0190366 255 0 0
0.0802763 -0.0638583 -0.0192316 255 0 0
0.0849105 -0.0627119 -0.0194596 255 0 0
0.0607905 -0.0611325 -0.019571 255 0 0
0.0693094 -0.060744 -0.0194066 255 0 0
0.0788289 -0.0609596 -0.0189591 255 0 0
0.0833645 -0.060392 -0.0189912 255 0 0
0.0842965 -0.0614558 -0.0199299 255 0 0
0.0594533 -0.0588501 -0.0190236 255 0 0
0.0643453 -0.0581688 -0.0189766 255 0 0
0.0679888 -0.0586129 -0.0195569 255 0 0
0.068722 -0.0593625 -0.0188429 255 0 0
0.0783334 -0.0589585 -0.0190959 255 0 0
0.0810087 -0.0580705 -0.0192871 255 0 0
0.0822906 -0.0590195 -0.0189529 255 0 0
0.0594767 -0.0567679 -0.0188996 255 0 0
0.0643113 -0.0565303 -0.0196247 255 0 0
0.0675648 -0.057458 -0.0194653 255 0 0
0.0682415 -0.0574296 -0.0183016 255 0 0
0.0786204 -0.0572569 -0.0194277 255 0 0
0.080236 -0.0570308 -0.0188196 255 0 0
0.0577997 -0.0541396 -0.0190976 255 0 0
0.0588582 -0.0546532 -0.0190776 255 0 0
0.0640182 -0.055215 -0.019781 255 0 0
0.0673506 -0.0551891 -0.0194213 255 0 0
0.0680862 -0.0559428 -0.0187047 255 0 0
0.0752082 -0.0549332 -0.0199957 255 0 0
0.0774841 -0.0549629 -0.0191759 255 0 0
0.0786443 -0.0558147 -0.0189603 255 0 0
0.0571696 -0.0531024 -0.0191299 255 0 0
0.0589286 -0.0531053 -0.0184138 255 0 0
0.0612579 -0.0528977 -0.0193993 255 0 0
0.0629478 -0.0527449 -0.018682 255 0 0
0.0651585 -0.0528743 -0.0192736 255 0 0
0.0671248 -0.0531889 -0.0193662 255 0 0
0.0708105 -0.0523351 -0.0195394 255 0 0
0.0735249 -0.0530299 -0.0195212 255 0 0
0.0751135 -0.0528284 -0.0190176 255 0 0
0.0768846 -0.052554 -0.0188712 255 0 0
0.078851 -0.0532643 -0.0191188 255 0 0
0.0552925 -0.0502024 -0.0199507 255 0 0
0.0572077 -0.0509868 -0.0192559 255 0 0
0.0588525 -0.0514102 -0.0183777 255 0 0
0.0615435 -0.0512205 -0.0191329 255 0 0
0.0634876 -0.0518086 -0.0185657 255 0 0
0.065626 -0.0503922 -0.0190822 255 0 0
0.0668492 -0.0513631 -0.018914 255 0 0
0.0687564 -0.0514775 -0.0190065 255 0 0
0.0705888 -0.0514706 -0.0187506 255 0 0
0.0726959 -0.0515442 -0.0188053 255 0 0
0.058623 -0.0489138 -0.0181138 255 0 0
0.125247 -0.17859 -0.0179001 255 0 0
0.119098 -0.176952 -0.0168896 255 0 0
0.121103 -0.175204 -0.016968 255 0 0
0.135711 -0.172324 -0.0168098 255 0 0
0.137688 -0.170573 -0.0167205 255 0 0
0.139097 -0.168989 -0.0178281 255 0 0
0.140136 -0.168707 -0.0171458 255 0 0
0.137849 -0.166009 -0.0162182 255 0 0
0.141873 -0.167003 -0.0176624 255 0 0
0.142467 -0.166815 -0.0164563 255 0 0
0.139584 -0.164278 -0.0175995 255 0 0
0.140124 -0.164072 -0.0163015 255 0 0
0.143769 -0.16519 -0.0164505 255 0 0
0.141521 -0.162383 -0.0174638 255 0 0
0.142063 -0.162176 -0.016158 255 0 0
0.145205 -0.163105 -0.0173438 255 0 0
0.143482 -0.160463 -0.0173268 255 0 0
0.146467 -0.160814 -0.0168897 255 0 0
0.145521 -0.159008 -0.0172346 255 0 0
0.146237 -0.159319 -0.0170334 255 0 0
0.145108 -0.156902 -0.0168623 255 0 0
0.14637 -0.157013 -0.0172238 255 0 0
0.14025 -0.154453 -0.0166203 255 0 0
0.145478 -0.154455 -0.0170607 255 0 0
0.146627 -0.155255 -0.016686 255 0 0
0.14074 -0.152953 -0.0171943 255 0 0
0.145408 -0.152975 -0.0170152 255 0 0
0.14735 -0.153633 -0.0175575 255 0 0
0.148292 -0.15334 -0.0164577 255 0 0
0.139601 -0.151627 -0.0160786 255 0 0
0.140477 -0.150836 -0.0171671 255 0 0
0.145112 -0.151055 -0.0170006 255 0 0
0.147771 -0.150491 -0.0167311 255 0 0
0.148226 -0.151873 -0.0167117 255 0 0
0.140583 -0.148588 -0.0172293 255 0 0
0.143423 -0.148774 -0.0172527 255 0 0
0.14572 -0.148771 -0.0171105 255 0 0
0.14693 -0.149199 -0.0165159 255 0 0
0.141777 -0.146857 -0.0168932 255 0 0
0.145173 -0.146828 -0.0171633 255 0 0
0.146179 -0.147459 -0.0160799 255 0 0
0.139657 -0.14521 -0.0162835 255 0 0
0.143368 -0.144572 -0.0168995 255 0 0
0.145035 -0.144855 -0.0168126 255 0 0
0.138618 -0.142797 -0.0178402 255 0 0
0.14307 -0.14285 -0.0173698 255 0 0
0.144415 -0.142715 -0.0167807 255 0 0
0.137274 -0.1419 -0.0166847 255 0 0
0.141524 -0.140621 -0.0171522 255 0 0
0.143306 -0.141051 -0.0171177 255 0 0
0.144678 -0.140804 -0.0167589 255 0 0
0.139626 -0.138026 -0.0168444 255 0 0
0.14068 -0.138832 -0.0168989 255 0 0
0.142227 -0.139623 -0.0161862 255 0 0
0.144814 -0.139338 -0.0172598 255 0 0
0.139104 -0.13662 -0.0172952 255 0 0
0.140397 -0.137493 -0.016854 255 0 0
0.14494 -0.136981 -0.0173248 255 0 0
0.134899 -0.135839 -0.0179455 255 0 0
0.137381 -0.13525 -0.0173561 255 0 0
0.139029 -0.134899 -0.0174403 255 0 0
0.143632 -0.13496 -0.0163748 255 0 0
0.144563 -0.134964 -0.0179436 255 0 0
0.135463 -0.132798 -0.0171407 255 0 0
0.136605 -0.133666 -0.0167849 255 0 0
0.139414 -0.133258 -0.0171461 255 0 0
0.140344 -0.132944 -0.0160479 255 0 0
0.143252 -0.132939 -0.0169916 255 0 0
0.13152 -0.130842 -0.0178021 255 0 0
0.133387 -0.130952 -0.0169974 255 0 0
0.134323 -0.131932 -0.0174962 255 0 0
0.13684 -0.131045 -0.0178122 255 0 0
0.138734 -0.131192 -0.0171753 255 0 0
0.140643 -0.131339 -0.0165342 255 0 0
0.142486 -0.131058 -0.0175175 255 0 0
0.130893 -0.128922 -0.0172572 255 0 0
0.132734 -0.129807 -0.0165563 255 0 0
0.134838 -0.128649 -0.0171523 255 0 0
0.137242 -0.128622 -0.0167409 255 0 0
0.139249 -0.128912 -0.0163985 255 0 0
0.141206 -0.129846 -0.0173128 255 0 0
0.142264 -0.129288 -0.0161525 255 0 0
0.128919 -0.126793 -0.0171487 255 0 0
0.131015 -0.127272 -0.0173716 255 0 0
0.13298 -0.126991 -0.0172618 255 0 0
0.134024 -0.127398 -0.01694 255 0 0
0.136579 -0.126866 -0.016656 255 0 0
0.138531 -0.127428 -0.0161255 255 0 0
0.125132 -0.124264 -0.0175081 255 0 0
0.126775 -0.12502 -0.0170062 255 0 0
0.129975 -0.124225 -0.0169304 255 0 0
0.131134 -0.125343 -0.0173715 255 0 0
0.132403 -0.124907 -0.016517 255 0 0
0.134856 -0.125594 -0.0161003 255 0 0
0.13654 -0.125057 -0.0173356 255 0 0
0.12191 -0.122115 -0.0174041 255 0 0
0.12306 -0.122712 -0.017347 255 0 0
0.124736 -0.12317 -0.0167004 255 0 0
0.126253 -0.123485 -0.0161615 255 0 0
0.129174 -0.122991 -0.0167205 255 0 0
0.131595 -0.123665 -0.0163064 255 0 0
0.134775 -0.12288 -0.0168796 255 0 0
0.120698 -0.120839 -0.0167505 255 0 0
0.124949 -0.121467 -0.0162417 255 0 0
0.133417 -0.120896 -0.0168886 255 0 0
0.117194 -0.118496 -0.0165824 255 0 0
0.11859 -0.119461 -0.0171431 255 0 0
0.132281 -0.119181 -0.0173184 255 0 0
0.115557 -0.116651 -0.01694 255 0 0
0.116819 -0.1177 -0.0174739 255 0 0
0.13107 -0.117329 -0.0170627 255 0 0
0.114645 -0.115004 -0.01739 255 0 0
0.129725 -0.1148 -0.0170091 255 0 0
0.130359 -0.115995 -0.0166925 255 0 0
0.111652 -0.112381 -0.0167377 255 0 0
0.113175 -0.112872 -0.017362 255 0 0
0.114455 -0.113548 -0.0179338 255 0 0
0.128981 -0.112546 -0.0171718 255 0 0
0.109757 -0.11056 -0.0174873 255 0 0
0.110829 -0.111379 -0.0171411 255 0 0
0.128032 -0.110765 -0.0166784 255 0 0
0.107611 -0.108423 -0.0169207 255 0 0
0.108994 -0.10953 -0.0170302 255 0 0
0.12708 -0.108969 -0.0171539 255 0 0
0.105716 -0.106108 -0.0164109 255 0 0
0.106476 -0.107134 -0.0168662 255 0 0
0.123194 -0.10675 -0.0160325 255 0 0
0.12509 -0.106923 -0.017604 255 0 0
0.104657 -0.105298 -0.0167578 255 0 0
0.120876 -0.104899 -0.0163923 255 0 0
0.122639 -0.105696 -0.01703 255 0 0
0.103683 -0.102805 -0.0168392 255 0 0
0.104322 -0.103926 -0.0172676 255 0 0
0.11927 -0.102706 -0.0169295 255 0 0
0.120247 -0.103714 -0.016706 255 0 0
0.101913 -0.100399 -0.0163563 255 0 0
0.102791 -0.101328 -0.0168392 255 0 0
0.117518 -0.100248 -0.0161099 255 0 0
0.118154 -0.101019 -0.0173545 255 0 0
0.102844 -0.0985223 -0.0175442 255 0 0
0.117236 -0.0988826 -0.0165123 255 0 0
0.117299 -0.0973283 -0.0170061 255 0 0
0.115202 -0.095059 -0.0160952 255 0 0
0.1167 -0.0953585 -0.0175686 255 0 0
0.114602 -0.093091 -0.016655 255 0 0
0.104928 -0.0902998 -0.0179712 255 0 0
0.107269 -0.0906694 -0.0175052 255 0 0
0.108956 -0.0918237 -0.0176675 255 0 0
0.114 -0.0911177 -0.0172163 255 0 0
0.0944238 -0.0887386 -0.0170216 255 0 0
0.105328 -0.0890839 -0.0177096 255 0 0
0.111128 -0.0888848 -0.0170264 255 0 0
0.113224 -0.0892361 -0.0177335 255 0 0
0.0910361 -0.0861486 -0.0179322 255 0 0
0.0930499 -0.0871955 -0.0174715 255 0 0
0.095491 -0.0866024 -0.0179141 255 0 0
0.10319 -0.0875354 -0.0176339 255 0 0
0.106799 -0.0870029 -0.0173792 255 0 0
0.109585 -0.0871555 -0.0174693 255 0 0
0.111475 -0.0867875 -0.0169101 255 0 0
0.0888789 -0.08443 -0.0179174 255 0 0
0.091473 -0.0847027 -0.01754 255 0 0
0.092574 -0.0852941 -0.0176842 255 0 0
0.0945831 -0.0850549 -0.0175423 255 0 0
0.0967024 -0.0849546 -0.0175794 255 0 0
0.0986449 -0.0856533 -0.0178842 255 0 0
0.101845 -0.0846904 -0.0178568 255 0 0
0.103295 -0.08506 -0.0176503 255 0 0
0.105283 -0.0849961 -0.0174096 255 0 0
0.10892 -0.085335 -0.0173218 255 0 0
0.110795 -0.0846714 -0.0167916 255 0 0
0.0886764 -0.0827787 -0.0174444 255 0 0
0.0907551 -0.0833309 -0.0173289 255 0 0
0.0930983 -0.0827614 -0.0168013 255 0 0
0.094958 -0.0834638 -0.0170098 255 0 0
0.0970059 -0.0828768 -0.0176873 255 0 0
0.099024 -0.0831759 -0.017814 255 0 0
0.101022 -0.0827178 -0.0173458 255 0 0
0.102869 -0.0830004 -0.0177019 255 0 0
0.10781 -0.0822998 -0.0170758 255 0 0
0.108254 -0.0835141 -0.0171742 255 0 0
0.110502 -0.0832785 -0.0171967 255 0 0
0.0858807 -0.0803919 -0.0177172 255 0 0
0.0869959 -0.0812105 -0.0173951 255 0 0
0.0890221 -0.0809529 -0.0171263 255 0 0
0.0911603 -0.0812353 -0.0172545 255 0 0
0.0926827 -0.0803459 -0.0166221 255 0 0
0.0949861 -0.0809424 -0.0174791 255 0 0
0.0970259 -0.0812288 -0.0176511 255 0 0
0.0989839 -0.0811543 -0.0174105 255 0 0
0.101054 -0.0810586 -0.0173096 255 0 0
0.106654 -0.0808231 -0.0175858 255 0 0
0.109649 -0.0812549 -0.0170319 255 0 0
0.0819069 -0.0783145 -0.0175372 255 0 0
0.0835976 -0.0788412 -0.0174556 255 0 0
0.0849764 -0.0793629 -0.0172932 255 0 0
0.0870428 -0.0790616 -0.0169114 255 0 0
0.0886219 -0.079071 -0.0168447 255 0 0
0.0905206 -0.0793672 -0.0177942 255 0 0
0.0932411 -0.0790771 -0.0166359 255 0 0
0.0950952 -0.0785064 -0.0170345 255 0 0
0.0971748 -0.0791581 -0.0175277 255 0 0
0.0994002 -0.0790169 -0.0176616 255 0 0
0.101514 -0.0789045 -0.0176093 255 0 0
0.102709 -0.0788819 -0.0172593 255 0 0
0.105631 -0.0788691 -0.0177424 255 0 0
0.107339 -0.0786533 -0.0169743 255 0 0
0.108458 -0.0794366 -0.0167776 255 0 0
0.0799508 -0.0764915 -0.0177748 255 0 0
0.0808974 -0.0769415 -0.0167801 255 0 0
0.083138 -0.0772176 -0.0164837 255 0 0
0.0856288 -0.0772775 -0.0165598 255 0 0
0.0869932 -0.0765618 -0.0165073 255 0 0
0.0894512 -0.0770611 -0.0174389 255 0 0
0.0938018 -0.0777998 -0.0166497 255 0 0
0.0952477 -0.0764943 -0.0164035 255 0 0
0.0968366 -0.0771297 -0.0172097 255 0 0
0.0991958 -0.076947 -0.0175314 255 0 0
0.101381 -0.0768107 -0.0175734 255 0 0
0.103047 -0.0771255 -0.0176499 255 0 0
0.10531 -0.0766503 -0.0172043 255 0 0
0.106692 -0.0773664 -0.0172705 255 0 0
0.079367 -0.0746467 -0.0170686 255 0 0
0.0809534 -0.0756143 -0.0163526 255 0 0
0.0841337 -0.0740112 -0.016944 255 0 0
0.0889241 -0.0747594 -0.0175932 255 0 0
0.0972244 -0.0747304 -0.0161197 255 0 0
0.098635 -0.0754124 -0.0166485 255 0 0
0.101215 -0.0751686 -0.0172542 255 0 0
0.103315 -0.0746739 -0.0171538 255 0 0
0.104331 -0.0753552 -0.0171972 255 0 0
0.0778184 -0.0723175 -0.0166656 255 0 0
0.0783868 -0.0733217 -0.0170039 255 0 0
0.0876062 -0.0727767 -0.0170874 255 0 0
0.0883073 -0.0727335 -0.0175274 255 0 0
0.101323 -0.0728592 -0.0174584 255 0 0
0.102707 -0.0731758 -0.0169827 255 0 0
0.0768116 -0.0708114 -0.0173187 255 0 0
0.0872568 -0.0709201 -0.0172707 255 0 0
0.0971211 -0.0706877 -0.017392 255 0 0
0.0993096 -0.0710707 -0.0175322 255 0 0
0.100619 -0.0714186 -0.0169531 255 0 0
0.102235 -0.071543 -0.0165756 255 0 0
0.0754587 -0.068556 -0.017136 255 0 0
0.0832625 -0.0684385 -0.0169125 255 0 0
0.0851736 -0.0693725 -0.0168475 255 0 0
0.0871693 -0.0690345 -0.0174967 255 0 0
0.093003 -0.0687165 -0.0175847 255 0 0
0.0952066 -0.0691257 -0.0170303 255 0 0
0.0970429 -0.0688673 -0.016833 255 0 0
0.0986504 -0.0694682 -0.016642 255 0 0
0.100098 -0.0699467 -0.0168871 255 0 0
0.0728383 -0.0663557 -0.0176625 255 0 0
0.0744705 -0.0672129 -0.0163842 255 0 0
0.0813055 -0.0672358 -0.0175299 255 0 0
0.0828639 -0.0668882 -0.0165929 255 0 0
0.085206 -0.0662884 -0.0173606 255 0 0
0.0865195 -0.0672607 -0.0173544 255 0 0
0.0883678 -0.0668509 -0.0177354 255 0 0
0.0908731 -0.0669308 -0.0176961 255 0 0
0.0932715 -0.0670665 -0.0168105 255 0 0
0.0949006 -0.0671338 -0.0169181 255 0 0
0.0967082 -0.0672584 -0.0167442 255 0 0
0.0983786 -0.0675418 -0.0160709 255 0 0
0.0712505 -0.0653527 -0.0170003 255 0 0
0.0724 -0.0647672 -0.0167006 255 0 0
0.0799355 -0.0650629 -0.0171452 255 0 0
0.0829499 -0.0642694 -0.0167869 255 0 0
0.0852002 -0.0645466 -0.0167377 255 0 0
0.087256 -0.0647172 -0.0171621 255 0 0
0.0892521 -0.0649703 -0.0174639 255 0 0
0.0913006 -0.0646878 -0.0169901 255 0 0
0.0927424 -0.0655161 -0.0163954 255 0 0
0.0951438 -0.0651252 -0.0172759 255 0 0
0.0964878 -0.0656219 -0.0165162 255 0 0
0.0614892 -0.0620513 -0.01641 255 0 0
0.0708457 -0.0629219 -0.0164234 255 0 0
0.0793101 -0.0631655 -0.0171743 255 0 0
0.0831121 -0.0621995 -0.0174464 255 0 0
0.0848471 -0.0630213 -0.0168157 255 0 0
0.0872608 -0.0625858 -0.0169302 255 0 0
0.0890966 -0.0629956 -0.0169755 255 0 0
0.0907731 -0.0631404 -0.0165756 255 0 0
0.0946058 -0.0637104 -0.0169597 255 0 0
0.0605895 -0.0606996 -0.0174668 255 0 0
0.0705194 -0.0608397 -0.0168368 255 0 0
0.0786845 -0.0612665 -0.0172036 255 0 0
0.0819894 -0.0602795 -0.0170067 255 0 0
0.0872395 -0.0612958 -0.0163636 255 0 0
0.0891573 -0.061617 -0.0165347 255 0 0
0.0903214 -0.061078 -0.0160995 255 0 0
0.0599959 -0.0586886 -0.0173749 255 0 0
0.0603072 -0.0588822 -0.016178 255 0 0
0.0695502 -0.059129 -0.0172783 255 0 0
0.0704948 -0.0587723 -0.0166099 255 0 0
0.0783231 -0.0591778 -0.0174448 255 0 0
0.0808676 -0.0583576 -0.0165682 255 0 0
0.0599936 -0.056992 -0.0174698 255 0 0
0.0604514 -0.0562747 -0.0165846 255 0 0
0.0695239 -0.0570571 -0.0170521 255 0 0
0.0786525 -0.0570476 -0.0166304 255 0 0
0.0807796 -0.057133 -0.017557 255 0 0
0.0937079 -0.057104 -0.0160412 255 0 0
0.0590301 -0.054731 -0.0176472 255 0 0
0.0690916 -0.0550747 -0.0172834 255 0 0
0.0790748 -0.0547629 -0.0171315 255 0 0
0.0800537 -0.0559959 -0.0179971 255 0 0
0.0933943 -0.055683 -0.0164429 255 0 0
0.056991 -0.053527 -0.0171467 255 0 0
0.0594052 -0.0538532 -0.0165757 255 0 0
0.0604504 -0.0528471 -0.0167723 255 0 0
0.0622335 -0.0525614 -0.0164184 255 0 0
0.0651287 -0.0525216 -0.0171954 255 0 0
0.0668197 -0.0528879 -0.0172314 255 0 0
0.0684493 -0.0529242 -0.0169631 255 0 0
0.0747733 -0.0523549 -0.0167177 255 0 0
0.077291 -0.0526624 -0.0169695 255 0 0
0.0785029 -0.0534384 -0.0172106 255 0 0
0.0578859 -0.050412 -0.0175521 255 0 0
0.0599132 -0.0510087 -0.0176722 255 0 0
0.0610751 -0.0516101 -0.0163162 255 0 0
0.0639665 -0.0517758 -0.0172914 255 0 0
0.0649684 -0.0516701 -0.0165533 255 0 0
0.0670651 -0.0511293 -0.016718 255 0 0
0.0687006 -0.0517165 -0.0168798 255 0 0
0.0709375 -0.0507453 -0.0174974 255 0 0
0.073725 -0.0503178 -0.0175499 255 0 0
0.0751879 -0.0508212 -0.0168396 255 0 0
0.0762289 -0.051345 -0.0169503 255 0 0
0.0589555 -0.0488946 -0.0160419 255 0 0
0.0696286 -0.0499993 -0.0169469 255 0 0
0.0709615 -0.0497465 -0.0162965 255 0 0
0.0731182 -0.0497795 -0.0166212 255 0 0
0.111575 -0.189705 -0.0140321 255 0 0
0.111084 -0.186395 -0.0147016 255 0 0
0.119604 -0.176756 -0.0156707 255 0 0
0.120109 -0.176561 -0.0144526 255 0 0
0.121612 -0.175007 -0.0157408 255 0 0
0.136301 -0.172133 -0.0156283 255 0 0
0.138574 -0.170288 -0.0149393 255 0 0
0.134199 -0.168164 -0.0152477 255 0 0
0.140282 -0.168611 -0.0154357 255 0 0
0.135079 -0.1679 -0.0141954 255 0 0
0.142605 -0.166725 -0.0147399 255 0 0
0.138024 -0.16587 -0.0147071 255 0 0
0.144363 -0.165004 -0.0152426 255 0 0
0.140663 -0.163866 -0.0150043 255 0 0
0.142235 -0.16204 -0.0146265 255 0 0
0.145693 -0.162714 -0.0154443 255 0 0
0.143738 -0.160263 -0.0150145 255 0 0
0.145573 -0.160542 -0.0144269 255 0 0
0.146232 -0.161377 -0.0149303 255 0 0
0.1457 -0.158403 -0.0149463 255 0 0
0.146183 -0.159581 -0.0155696 255 0 0
0.145271 -0.15696 -0.01469 255 0 0
0.146611 -0.157023 -0.0150433 255 0 0
0.138634 -0.154622 -0.0149447 255 0 0
0.145413 -0.155014 -0.0148763 255 0 0
0.146693 -0.154757 -0.015004 255 0 0
0.148138 -0.154757 -0.014409 255 0 0
0.139039 -0.15299 -0.0148459 255 0 0
0.145653 -0.153161 -0.0150466 255 0 0
0.1461 -0.152313 -0.0147629 255 0 0
0.148459 -0.153215 -0.0148907 255 0 0
0.13908 -0.151464 -0.0146585 255 0 0
0.144744 -0.151084 -0.0150835 255 0 0
0.146292 -0.150788 -0.0153634 255 0 0
0.149206 -0.151046 -0.015169 255 0 0
0.139567 -0.149952 -0.0152257 255 0 0
0.140165 -0.148227 -0.0151692 255 0 0
0.143098 -0.148893 -0.014972 255 0 0
0.146761 -0.14895 -0.0151687 255 0 0
0.149437 -0.149203 -0.0145319 255 0 0
0.140248 -0.146403 -0.0146401 255 0 0
0.14581 -0.146416 -0.0147552 255 0 0
0.146469 -0.147174 -0.0149208 255 0 0
0.148364 -0.147217 -0.0143283 255 0 0
0.138538 -0.144231 -0.0153997 255 0 0
0.143032 -0.145127 -0.0151657 255 0 0
0.145023 -0.14528 -0.0149192 255 0 0
0.137651 -0.143182 -0.0147813 255 0 0
0.143259 -0.143368 -0.0147753 255 0 0
0.144598 -0.142941 -0.0151471 255 0 0
0.137221 -0.140622 -0.0151049 255 0 0
0.141892 -0.140774 -0.0153618 255 0 0
0.143296 -0.140548 -0.0149104 255 0 0
0.144461 -0.141206 -0.0148015 255 0 0
0.141359 -0.138658 -0.0147931 255 0 0
0.142343 -0.139554 -0.0144107 255 0 0
0.14477 -0.13884 -0.0152385 255 0 0
0.139287 -0.137205 -0.0150748 255 0 0
0.14086 -0.136799 -0.0150125 255 0 0
0.143804 -0.136159 -0.0152753 255 0 0
0.144441 -0.13736 -0.0149569 255 0 0
0.137232 -0.134658 -0.0149992 255 0 0
0.138231 -0.135779 -0.0150463 255 0 0
0.140512 -0.134385 -0.0150154 255 0 0
0.142321 -0.135097 -0.0147258 255 0 0
0.135523 -0.132255 -0.0149597 255 0 0
0.136418 -0.133096 -0.0150154 255 0 0
0.141211 -0.133124 -0.0150876 255 0 0
0.133872 -0.13016 -0.0149028 255 0 0
0.134821 -0.131306 -0.0149405 255 0 0
0.139355 -0.131015 -0.0149938 255 0 0
0.141579 -0.131022 -0.0154316 255 0 0
0.143281 -0.130474 -0.0147915 255 0 0
0.13134 -0.128594 -0.0152697 255 0 0
0.13285 -0.129741 -0.0147932 255 0 0
0.137221 -0.128069 -0.0149881 255 0 0
0.138231 -0.129116 -0.0147601 255 0 0
0.141427 -0.128017 -0.0159374 255 0 0
0.14503 -0.128392 -0.0153081 255 0 0
0.129402 -0.12669 -0.0154517 255 0 0
0.130471 -0.127069 -0.0146818 255 0 0
0.137146 -0.126521 -0.0156085 255 0 0
0.140592 -0.126749 -0.0157229 255 0 0
0.128627 -0.125109 -0.0148823 255 0 0
0.135107 -0.124883 -0.0152177 255 0 0
0.137252 -0.12479 -0.0159317 255 0 0
0.139303 -0.124098 -0.0155282 255 0 0
0.140136 -0.125362 -0.0157422 255 0 0
0.124534 -0.122507 -0.0159952 255 0 0
0.126879 -0.123097 -0.0151009 255 0 0
0.130433 -0.12255 -0.0158674 255 0 0
0.133392 -0.122848 -0.0151353 255 0 0
0.134874 -0.122532 -0.0150458 255 0 0
0.13606 -0.123658 -0.0154876 255 0 0
0.138473 -0.122838 -0.0153148 255 0 0
0.121127 -0.120565 -0.0156658 255 0 0
0.122763 -0.121057 -0.0154209 255 0 0
0.124349 -0.121075 -0.0147634 255 0 0
0.12601 -0.121573 -0.0145141 255 0 0
0.132609 -0.121346 -0.015073 255 0 0
0.135711 -0.120709 -0.0141987 255 0 0
0.137273 -0.121707 -0.0148704 255 0 0
0.117309 -0.118435 -0.0148558 255 0 0
0.118853 -0.119478 -0.0149903 255 0 0
0.120472 -0.119965 -0.0147433 255 0 0
0.12204 -0.119978 -0.0140859 255 0 0
0.13095 -0.119242 -0.0149955 255 0 0
0.1152 -0.116746 -0.014696 255 0 0
0.116353 -0.117517 -0.0152333 255 0 0
0.129428 -0.116803 -0.0148977 255 0 0
0.113253 -0.11478 -0.0150198 255 0 0
0.114249 -0.115831 -0.0150737 255 0 0
0.128843 -0.114852 -0.0154595 255 0 0
0.11133 -0.112903 -0.0146855 255 0 0
0.112407 -0.113976 -0.0149657 255 0 0
0.1272 -0.113037 -0.0144341 255 0 0
0.128574 -0.113494 -0.0158647 255 0 0
0.109807 -0.110562 -0.0148852 255 0 0
0.11057 -0.111591 -0.0153407 255 0 0
0.126794 -0.110999 -0.015039 255 0 0
0.108773 -0.109189 -0.0151435 255 0 0
0.125094 -0.108648 -0.0148993 255 0 0
0.126161 -0.109806 -0.0153546 255 0 0
0.10709 -0.107233 -0.0153578 255 0 0
0.123004 -0.107245 -0.0144251 255 0 0
0.124538 -0.107593 -0.0158964 255 0 0
0.105087 -0.105529 -0.0155014 255 0 0
0.106076 -0.105863 -0.0147507 255 0 0
0.120691 -0.105396 -0.0147899 255 0 0
0.116275 -0.102055 -0.0140104 255 0 0
0.118913 -0.103294 -0.0152839 255 0 0
0.116895 -0.101155 -0.0150572 255 0 0
0.116054 -0.0991608 -0.0148928 255 0 0
0.1149 -0.0965737 -0.0148862 255 0 0
0.116114 -0.0976133 -0.0153805 255 0 0
0.113545 -0.0948552 -0.0145899 255 0 0
0.113115 -0.0928014 -0.0151889 255 0 0
0.111039 -0.0905553 -0.0142871 255 0 0
0.112344 -0.0909309 -0.0157019 255 0 0
0.11075 -0.0891817 -0.0146856 255 0 0
0.109686 -0.0863569 -0.0140444 255 0 0
0.110482 -0.0870152 -0.0153297 255 0 0
0.10973 -0.0847746 -0.0145306 255 0 0
0.109774 -0.0831843 -0.0150192 255 0 0
0.0892497 -0.0811154 -0.014678 255 0 0
0.0900415 -0.0805934 -0.0157682 255 0 0
0.109011 -0.0809084 -0.0151774 255 0 0
0.0849174 -0.0784458 -0.0157043 255 0 0
0.0872484 -0.0787591 -0.0153751 255 0 0
0.0891494 -0.0790096 -0.015331 255 0 0
0.0910877 -0.0788993 -0.0157408 255 0 0
0.108071 -0.0791439 -0.0146886 255 0 0
0.0815374 -0.0762843 -0.015129 255 0 0
0.0832254 -0.0769912 -0.0151489 255 0 0
0.0849212 -0.0773269 -0.0149002 255 0 0
0.0868002 -0.077244 -0.0146533 255 0 0
0.0890807 -0.0771474 -0.0150663 255 0 0
0.0908652 -0.0764911 -0.0153351 255 0 0
0.0927439 -0.0767257 -0.0158151 255 0 0
0.106956 -0.077462 -0.0151159 255 0 0
0.0810648 -0.0748827 -0.0150935 255 0 0
0.0827676 -0.0749551 -0.0156769 255 0 0
0.0847698 -0.0748824 -0.0157183 255 0 0
0.0861153 -0.075031 -0.0159924 255 0 0
0.0891214 -0.0755498 -0.0151955 255 0 0
0.09096 -0.0753339 -0.0146589 255 0 0
0.0927034 -0.0747705 -0.0149082 255 0 0
0.0945996 -0.074999 -0.0153899 255 0 0
0.103589 -0.074041 -0.0159041 255 0 0
0.105205 -0.075214 -0.0149542 255 0 0
0.0788335 -0.0726353 -0.0150593 255 0 0
0.0808407 -0.073179 -0.0151287 255 0 0
0.0833079 -0.0732167 -0.0151957 255 0 0
0.0852597 -0.0726955 -0.0158051 255 0 0
0.0880598 -0.0734251 -0.0156295 255 0 0
0.0935361 -0.0739292 -0.0145558 255 0 0
0.0945608 -0.0730327 -0.0144788 255 0 0
0.0960515 -0.0736801 -0.0151389 255 0 0
0.103459 -0.0729724 -0.0147923 255 0 0
0.0753872 -0.070202 -0.0148824 255 0 0
0.0771687 -0.0708058 -0.0151567 255 0 0
0.0793412 -0.0707458 -0.014166 255 0 0
0.0812388 -0.0710212 -0.0144409 255 0 0
0.0825182 -0.0716267 -0.0148101 255 0 0
0.0849861 -0.0706854 -0.0154863 255 0 0
0.0863839 -0.0713969 -0.0150332 255 0 0
0.0997878 -0.0706328 -0.0158342 255 0 0
0.101231 -0.0704375 -0.0153991 255 0 0
0.102186 -0.0714069 -0.0151743 255 0 0
0.0735961 -0.0686423 -0.0152182 255 0 0
0.0752946 -0.0691212 -0.0151793 255 0 0
0.0765715 -0.0686983 -0.0144544 255 0 0
0.0782967 -0.0699212 -0.014166 255 0 0
0.0813054 -0.0688807 -0.0143325 255 0 0
0.0837821 -0.068275 -0.0156861 255 0 0
0.084252 -0.0689359 -0.0150596 255 0 0
0.0957387 -0.0683982 -0.0159034 255 0 0
0.0969691 -0.0686312 -0.0152587 255 0 0
0.0991232 -0.0687953 -0.0154266 255 0 0
0.100933 -0.0693285 -0.0147627 255 0 0
0.073768 -0.066373 -0.015804 255 0 0
0.0749807 -0.0670324 -0.0144086 255 0 0
0.0796171 -0.0678938 -0.0142105 255 0 0
0.0811053 -0.0669121 -0.014887 255 0 0
0.0833059 -0.0673109 -0.0152776 255 0 0
0.095156 -0.0668197 -0.0147734 255 0 0
0.0974123 -0.0679845 -0.0140058 255 0 0
0.0988787 -0.0668428 -0.0148954 255 0 0
0.100154 -0.0675865 -0.0147574 255 0 0
0.0708897 -0.0657563 -0.0140351 255 0 0
0.0727891 -0.0650418 -0.0150596 255 0 0
0.0794472 -0.0648171 -0.0153068 255 0 0
0.0809061 -0.0652905 -0.0152282 255 0 0
0.0828586 -0.0646981 -0.0158183 255 0 0
0.0928062 -0.0641333 -0.0159529 255 0 0
0.0944989 -0.0650234 -0.0146283 255 0 0
0.0974639 -0.0650058 -0.0148772 255 0 0
0.0619391 -0.0630077 -0.0154437 255 0 0
0.0620979 -0.0624191 -0.0140401 255 0 0
0.0717425 -0.0629878 -0.0145144 255 0 0
0.079037 -0.0629548 -0.0150454 255 0 0
0.0812004 -0.0624377 -0.0158061 255 0 0
0.0837291 -0.062004 -0.0158716 255 0 0
0.0850086 -0.0628517 -0.0140029 255 0 0
0.0930716 -0.0631975 -0.0152566 255 0 0
0.0949451 -0.0632523 -0.0149686 255 0 0
0.0966034 -0.0633848 -0.0150677 255 0 0
0.0612786 -0.0610451 -0.0152159 255 0 0
0.071113 -0.0612717 -0.0143776 255 0 0
0.0779381 -0.0612202 -0.0151566 255 0 0
0.0812238 -0.0606625 -0.0150238 255 0 0
0.0829269 -0.0609194 -0.0149791 255 0 0
0.084679 -0.0610851 -0.0153294 255 0 0
0.0864844 -0.0604414 -0.0157613 255 0 0
0.0889747 -0.060489 -0.0157115 255 0 0
0.0916263 -0.0612207 -0.0155836 255 0 0
0.0925467 -0.0609319 -0.0147633 255 0 0
0.0955944 -0.0606611 -0.015104 255 0 0
0.0962229 -0.0618463 -0.0147917 255 0 0
0.0610156 -0.059119 -0.014551 255 0 0
0.0706191 -0.0593931 -0.0144821 255 0 0
0.0781752 -0.0595991 -0.0148808 255 0 0
0.0811971 -0.0591821 -0.0140776 255 0 0
0.0829501 -0.0586039 -0.0141566 255 0 0
0.0850371 -0.0588075 -0.0153019 255 0 0
0.0869336 -0.0589975 -0.014811 255 0 0
0.0888701 -0.0589564 -0.0144603 255 0 0
0.0910544 -0.0596607 -0.0144567 255 0 0
0.0945805 -0.0587549 -0.0148961 255 0 0
0.0607621 -0.0573248 -0.0153419 255 0 0
0.0699741 -0.0560309 -0.0149799 255 0 0
0.0702598 -0.0573457 -0.0148289 255 0 0
0.0774427 -0.056556 -0.0140078 255 0 0
0.078747 -0.0571901 -0.0149039 255 0 0
0.0830338 -0.0569025 -0.0146245 255 0 0
0.0849381 -0.056956 -0.0145498 255 0 0
0.0868048 -0.056445 -0.0150482 255 0 0
0.0932513 -0.057082 -0.0146011 255 0 0
0.0609174 -0.0553028 -0.0148562 255 0 0
0.0696876 -0.0547131 -0.0151312 255 0 0
0.0771498 -0.0549422 -0.0145481 255 0 0
0.0789043 -0.0544698 -0.0156886 255 0 0
0.0803803 -0.0557837 -0.0140595 255 0 0
0.0831098 -0.0543696 -0.0141687 255 0 0
0.0850444 -0.0549837 -0.0144705 255 0 0
0.0869011 -0.0552531 -0.0143569 255 0 0
0.0883003 -0.0547285 -0.0140524 255 0 0
0.091682 -0.0549484 -0.0151375 255 0 0
0.0926232 -0.0558976 -0.014913 255 0 0
0.0587965 -0.052694 -0.0147369 255 0 0
0.0609778 -0.0531414 -0.0149425 255 0 0
0.0630187 -0.0523527 -0.0147841 255 0 0
0.0647765 -0.0520928 -0.0151416 255 0 0
0.0664329 -0.0523657 -0.0147478 255 0 0
0.068987 -0.0530705 -0.0148728 255 0 0
0.070073 -0.0533696 -0.014127 255 0 0
0.0770625 -0.0529196 -0.0150931 255 0 0
0.0782195 -0.053394 -0.0154976 255 0 0
0.0841158 -0.0534026 -0.0140909 255 0 0
0.0888908 -0.0525701 -0.0142646 255 0 0
0.0910544 -0.053765 -0.0154492 255 0 0
0.0600289 -0.0508447 -0.0143543 255 0 0
0.065591 -0.0515134 -0.0151314 255 0 0
0.0662593 -0.0516144 -0.0145466 255 0 0
0.0749201 -0.051018 -0.0150082 255 0 0
0.077543 -0.051633 -0.0141166 255 0 0
0.0597132 -0.0497588 -0.0156016 255 0 0
0.0692934 -0.0498321 -0.0155968 255 0 0
0.0710863 -0.0496992 -0.014561 255 0 0
0.0725672 -0.0498597 -0.0152052 255 0 0
0.0799522 -0.0486482 -0.0141451 255 0 0
0.11254 -0.190576 -0.0130258 255 0 0
0.109413 -0.18898 -0.0134281 255 0 0
0.111523 -0.18888 -0.0130177 255 0 0
0.111156 -0.187057 -0.0132585 255 0 0
0.112629 -0.187078 -0.012596 255 0 0
0.112758 -0.185931 -0.0132015 255 0 0
0.114173 -0.18323 -0.0122187 255 0 0
0.120867 -0.176268 -0.0126269 255 0 0
0.136458 -0.172026 -0.0139492 255 0 0
0.136828 -0.171878 -0.0125293 255 0 0
0.139162 -0.170099 -0.0137562 255 0 0
0.139748 -0.16991 -0.0125763 255 0 0
0.140832 -0.168399 -0.0132712 255 0 0
0.135255 -0.167759 -0.0127043 255 0 0
0.143603 -0.166421 -0.0130747 255 0 0
0.144903 -0.164804 -0.0130546 255 0 0
0.139741 -0.163933 -0.0128176 255 0 0
0.145171 -0.162796 -0.0126277 255 0 0
0.142036 -0.161976 -0.0128764 255 0 0
0.145632 -0.160961 -0.0130949 255 0 0
0.146326 -0.161184 -0.0127987 255 0 0
0.145425 -0.158839 -0.0128003 255 0 0
0.14649 -0.159194 -0.0135522 255 0 0
0.145382 -0.15689 -0.0129602 255 0 0
0.146666 -0.157178 -0.0130231 255 0 0
0.137678 -0.154428 -0.0127927 255 0 0
0.145664 -0.154524 -0.0128016 255 0 0
0.146963 -0.15504 -0.0124647 255 0 0
0.138079 -0.1528 -0.0126856 255 0 0
0.145134 -0.152971 -0.0121088 255 0 0
0.146115 -0.152925 -0.0129446 255 0 0
0.14929 -0.152902 -0.0128929 255 0 0
0.138926 -0.151184 -0.0133268 255 0 0
0.144358 -0.150535 -0.0139003 255 0 0
0.146408 -0.150872 -0.0131512 255 0 0
0.151152 -0.150922 -0.0126101 255 0 0
0.139519 -0.149472 -0.0132635 255 0 0
0.143006 -0.14894 -0.012976 255 0 0
0.146757 -0.148608 -0.0129366 255 0 0
0.151174 -0.148944 -0.0132824 255 0 0
0.139945 -0.146535 -0.012398 255 0 0
0.141028 -0.147364 -0.0130579 255 0 0
0.146652 -0.146531 -0.0132616 255 0 0
0.151146 -0.146928 -0.0130916 255 0 0
0.1378 -0.144526 -0.0126403 255 0 0
0.138907 -0.145498 -0.0135073 255 0 0
0.143087 -0.145046 -0.0130122 255 0 0
0.145709 -0.144788 -0.0133993 255 0 0
0.146626 -0.144949 -0.01252 255 0 0
0.148078 -0.14572 -0.0127801 255 0 0
0.136324 -0.142292 -0.0136505 255 0 0
0.143498 -0.143002 -0.0134641 255 0 0
0.144683 -0.143035 -0.0127128 255 0 0
0.146013 -0.14325 -0.0121317 255 0 0
0.143161 -0.141031 -0.0130804 255 0 0
0.144545 -0.141412 -0.0132995 255 0 0
0.141597 -0.138449 -0.0130515 255 0 0
0.142666 -0.139442 -0.0131415 255 0 0
0.144948 -0.138976 -0.0130356 255 0 0
0.139058 -0.136824 -0.0128373 255 0 0
0.140149 -0.137731 -0.0133603 255 0 0
0.142059 -0.136883 -0.0128713 255 0 0
0.144204 -0.136931 -0.0128887 255 0 0
0.137496 -0.135177 -0.012609 255 0 0
0.141143 -0.135665 -0.013439 255 0 0
0.142674 -0.135341 -0.0132349 255 0 0
0.135926 -0.132024 -0.0132453 255 0 0
0.13635 -0.133302 -0.0127529 255 0 0
0.14106 -0.133168 -0.0131324 255 0 0
0.142482 -0.132714 -0.012798 255 0 0
0.135272 -0.130875 -0.0128014 255 0 0
0.138838 -0.130701 -0.0128694 255 0 0
0.144225 -0.130155 -0.0136822 255 0 0
0.133078 -0.128586 -0.013134 255 0 0
0.134617 -0.129726 -0.0123571 255 0 0
0.137699 -0.128982 -0.0133007 255 0 0
0.131109 -0.126686 -0.0136138 255 0 0
0.132507 -0.126874 -0.0123001 255 0 0
0.135532 -0.126613 -0.0123918 255 0 0
0.136429 -0.127445 -0.0131791 255 0 0
0.129445 -0.124608 -0.0138519 255 0 0
0.131056 -0.125174 -0.0126868 255 0 0
0.133898 -0.124383 -0.0129365 255 0 0
0.1349 -0.125422 -0.0127071 255 0 0
0.129209 -0.123029 -0.0130548 255 0 0
0.130681 -0.12385 -0.0122948 255 0 0
0.132767 -0.122675 -0.013366 255 0 0
0.125416 -0.120397 -0.0131954 255 0 0
0.127286 -0.121286 -0.0133799 255 0 0
0.128493 -0.121569 -0.012629 255 0 0
0.131013 -0.121064 -0.0129858 255 0 0
0.117425 -0.118373 -0.0131309 255 0 0
0.11936 -0.119154 -0.0133371 255 0 0
0.120656 -0.11934 -0.0126243 255 0 0
0.123156 -0.119778 -0.0129341 255 0 0
0.129447 -0.119382 -0.0126468 255 0 0
0.115188 -0.116773 -0.0129497 255 0 0
0.116211 -0.117631 -0.0134577 255 0 0
0.127875 -0.116418 -0.013431 255 0 0
0.128143 -0.117764 -0.0130316 255 0 0
0.112819 -0.114761 -0.0129301 255 0 0
0.114167 -0.115917 -0.0124435 255 0 0
0.12717 -0.115095 -0.0130661 255 0 0
0.111171 -0.112782 -0.0125748 255 0 0
0.125836 -0.112585 -0.0130128 255 0 0
0.126465 -0.113771 -0.0126991 255 0 0
0.109608 -0.110746 -0.0122368 255 0 0
0.110243 -0.11133 -0.0131443 255 0 0
0.12507 -0.110721 -0.0135267 255 0 0
0.108723 -0.109257 -0.0131046 255 0 0
0.121757 -0.108253 -0.0125681 255 0 0
0.122735 -0.109264 -0.0123403 255 0 0
0.107423 -0.107284 -0.0133037 255 0 0
0.11946 -0.10641 -0.0129373 255 0 0
0.120432 -0.107416 -0.0127106 255 0 0
0.117866 -0.104231 -0.0134744 255 0 0
0.118489 -0.105407 -0.0131635 255 0 0
0.115586 -0.102816 -0.0123002 255 0 0
0.117242 -0.103054 -0.0137853 255 0 0
0.115163 -0.100792 -0.0128908 255 0 0
0.113433 -0.0983593 -0.0120839 255 0 0
0.11491 -0.0986677 -0.0135265 255 0 0
0.113148 -0.0970034 -0.0124774 255 0 0
0.112382 -0.0951485 -0.0129851 255 0 0
0.109843 -0.0924185 -0.012207 255 0 0
0.111953 -0.0931032 -0.0135786 255 0 0
0.109887 -0.0908654 -0.0126844 255 0 0
0.111328 -0.0919253 -0.0138896 255 0 0
0.109598 -0.0894976 -0.0130792 255 0 0
0.109423 -0.0871108 -0.0130839 255 0 0
0.109247 -0.0847102 -0.0130891 255 0 0
0.109291 -0.083122 -0.0135734 255 0 0
0.107885 -0.0804827 -0.0128426 255 0 0
0.108588 -0.0818022 -0.0132091 255 0 0
0.106676 -0.0784848 -0.0128843 255 0 0
0.0794316 -0.0765427 -0.0125688 255 0 0
0.0804425 -0.0766605 -0.0135591 255 0 0
0.0847501 -0.0762552 -0.013827 255 0 0
0.0868023 -0.0761218 -0.0138471 255 0 0
0.105756 -0.0768923 -0.0130616 255 0 0
0.0790526 -0.0751374 -0.0130629 255 0 0
0.081545 -0.0740566 -0.0135268 255 0 0
0.0832002 -0.0748413 -0.012967 255 0 0
0.0852022 -0.0755294 -0.0129403 255 0 0
0.0868957 -0.0749768 -0.0131777 255 0 0
0.0886003 -0.0744177 -0.0134151 255 0 0
0.0910526 -0.0741751 -0.0139813 255 0 0
0.104574 -0.0750858 -0.0128098 255 0 0
0.0795856 -0.0725469 -0.013595 255 0 0
0.0809114 -0.0731555 -0.0125168 255 0 0
0.0873888 -0.0734145 -0.0123283 255 0 0
0.0894159 -0.0735847 -0.0130625 255 0 0
0.0910565 -0.0730425 -0.0131686 255 0 0
0.0928933 -0.072442 -0.0135484 255 0 0
0.10315 -0.0728183 -0.0133929 255 0 0
0.0774795 -0.0704376 -0.0130045 255 0 0
0.0789571 -0.07165 -0.0125858 255 0 0
0.086208 -0.070135 -0.0136142 255 0 0
0.0912403 -0.0718564 -0.0126262 255 0 0
0.0922522 -0.0709587 -0.0125435 255 0 0
0.102483 -0.0711521 -0.0128969 255 0 0
0.0735682 -0.068089 -0.0135332 255 0 0
0.0751242 -0.0688132 -0.0133714 255 0 0
0.0773278 -0.0688639 -0.0131777 255 0 0
0.0790371 -0.0689971 -0.0134502 255 0 0
0.0855133 -0.0690404 -0.0134246 255 0 0
0.0867949 -0.0691555 -0.0126045 255 0 0
0.101281 -0.068888 -0.0130186 255 0 0
0.0714673 -0.0666482 -0.0133359 255 0 0
0.0728222 -0.066981 -0.013127 255 0 0
0.0750078 -0.0666167 -0.0130081 255 0 0
0.0772969 -0.0669435 -0.0133748 255 0 0
0.0787854 -0.0673299 -0.013052 255 0 0
0.0826503 -0.0661147 -0.0138727 255 0 0
0.0850766 -0.0670958 -0.0127882 255 0 0
0.0966275 -0.0671093 -0.0134018 255 0 0
0.0990582 -0.0663629 -0.013629 255 0 0
0.100264 -0.0669763 -0.0128101 255 0 0
0.071395 -0.0655736 -0.012408 255 0 0
0.0733139 -0.0651595 -0.0136697 255 0 0
0.0749448 -0.0648251 -0.0128324 255 0 0
0.0768861 -0.0652041 -0.0127026 255 0 0
0.079048 -0.0650733 -0.0129634 255 0 0
0.0810485 -0.0644187 -0.0133251 255 0 0
0.0828559 -0.0650172 -0.0126863 255 0 0
0.0845366 -0.0652244 -0.0123024 255 0 0
0.0865863 -0.0650964 -0.0124796 255 0 0
0.0957521 -0.0647154 -0.0132082 255 0 0
0.0961898 -0.0659125 -0.013305 255 0 0
0.0985442 -0.0654006 -0.0129347 255 0 0
0.0631361 -0.0631533 -0.0124512 255 0 0
0.0654321 -0.0628358 -0.0122732 255 0 0
0.0728764 -0.0627772 -0.0130341 255 0 0
0.074847 -0.0632364 -0.0123643 255 0 0
0.0773646 -0.0631271 -0.0122473 255 0 0
0.0795214 -0.0625108 -0.0130532 255 0 0
0.0806792 -0.0633097 -0.0129526 255 0 0
0.0824007 -0.0632284 -0.0131585 255 0 0
0.0855704 -0.0637771 -0.0132821 255 0 0
0.0947438 -0.0627879 -0.0133623 255 0 0
0.0973435 -0.0631408 -0.0130567 255 0 0
0.0619555 -0.0608151 -0.0138596 255 0 0
0.0630676 -0.0612315 -0.0132561 255 0 0
0.0649734 -0.0613495 -0.0123651 255 0 0
0.0717781 -0.0612389 -0.0132306 255 0 0
0.0725791 -0.0610466 -0.012325 255 0 0
0.0758649 -0.0619925 -0.012129 255 0 0
0.0768219 -0.0600022 -0.0120872 255 0 0
0.079142 -0.0610348 -0.0129807 255 0 0
0.0802331 -0.0617651 -0.0129549 255 0 0
0.0933833 -0.0607278 -0.0138159 255 0 0
0.0957708 -0.0601755 -0.0138376 255 0 0
0.0964888 -0.061119 -0.0128907 255 0 0
0.0616665 -0.0592693 -0.0134147 255 0 0
0.0631521 -0.0589766 -0.0130739 255 0 0
0.0641889 -0.0599769 -0.0127336 255 0 0
0.0713922 -0.0592165 -0.0128567 255 0 0
0.0722977 -0.0597429 -0.0124727 255 0 0
0.0749535 -0.0589569 -0.0121392 255 0 0
0.0772749 -0.0585779 -0.0127896 255 0 0
0.0790118 -0.0590375 -0.0131818 255 0 0
0.0806453 -0.0587781 -0.0127732 255 0 0
0.0827156 -0.0597095 -0.0136121 255 0 0
0.0890248 -0.058141 -0.0136007 255 0 0
0.0907857 -0.0586196 -0.0135092 255 0 0
0.0927258 -0.0589299 -0.0136706 255 0 0
0.0953143 -0.059326 -0.0126405 255 0 0
0.0610053 -0.0573001 -0.0131849 255 0 0
0.0627145 -0.0571971 -0.012801 255 0 0
0.0710108 -0.056926 -0.0132643 255 0 0
0.0754056 -0.0565372 -0.0124172 255 0 0
0.0762631 -0.0573633 -0.012385 255 0 0
0.0785863 -0.057129 -0.0131061 255 0 0
0.0811213 -0.0566578 -0.0137993 255 0 0
0.0823659 -0.0575962 -0.0138141 255 0 0
0.0851019 -0.0560072 -0.0136887 255 0 0
0.0871016 -0.0569782 -0.0130663 255 0 0
0.0887614 -0.0571072 -0.012659 255 0 0
0.0900199 -0.0577686 -0.0129103 255 0 0
0.0928563 -0.0571624 -0.0134548 255 0 0
0.0943706 -0.0575464 -0.0131089 255 0 0
0.061723 -0.0543344 -0.013523 255 0 0
0.0621271 -0.0551843 -0.012701 255 0 0
0.070946 -0.0550557 -0.0132396 255 0 0
0.0728001 -0.0546722 -0.0123942 255 0 0
0.0740395 -0.0559133 -0.0121493 255 0 0
0.0776659 -0.054832 -0.0130754 255 0 0
0.0789786 -0.0553847 -0.0133361 255 0 0
0.0812052 -0.0548312 -0.0135068 255 0 0
0.0830037 -0.055121 -0.0134849 255 0 0
0.0850039 -0.0548101 -0.0130009 255 0 0
0.0867198 -0.0549865 -0.0129936 255 0 0
0.0913152 -0.0546855 -0.013071 255 0 0
0.0924119 -0.055516 -0.0128871 255 0 0
0.0596538 -0.0523797 -0.0130907 255 0 0
0.061135 -0.0528038 -0.0124232 255 0 0
0.0634675 -0.0527293 -0.0130214 255 0 0
0.0649231 -0.0529043 -0.0126538 255 0 0
0.0677357 -0.0525467 -0.013514 255 0 0
0.06938 -0.0525581 -0.0135521 255 0 0
0.0710094 -0.0527308 -0.0128806 255 0 0
0.0733612 -0.0528528 -0.012663 255 0 0
0.0752428 -0.0534474 -0.0133694 255 0 0
0.0768787 -0.0531279 -0.01295 255 0 0
0.0789866 -0.0533241 -0.0130653 255 0 0
0.0812469 -0.0530894 -0.0131402 255 0 0
0.0827221 -0.0530737 -0.0130502 255 0 0
0.0847188 -0.0529597 -0.0130649 255 0 0
0.0872743 -0.0524948 -0.0128909 255 0 0
0.0890286 -0.0530403 -0.0129305 255 0 0
0.0903664 -0.053271 -0.0130669 255 0 0
0.0599031 -0.0504271 -0.0124031 255 0 0
0.0603416 -0.0519212 -0.0131177 255 0 0
0.0630074 -0.0511066 -0.0128913 255 0 0
0.0650512 -0.0505469 -0.0127715 255 0 0
0.0667536 -0.0512531 -0.0132459 255 0 0
0.0688491 -0.0511239 -0.0124198 255 0 0
0.0712607 -0.0510028 -0.0125266 255 0 0
0.0731256 -0.0512056 -0.0129362 255 0 0
0.0753541 -0.0509455 -0.0136708 255 0 0
0.076967 -0.0506362 -0.013776 255 0 0
0.0792961 -0.0507251 -0.0135886 255 0 0
0.0807008 -0.0515298 -0.0130001 255 0 0
0.0830449 -0.051294 -0.0128551 255 0 0
0.085258 -0.0507088 -0.0129997 255 0 0
0.0869591 -0.0511031 -0.0128899 255 0 0
0.0891093 -0.0510079 -0.0124546 255 0 0
0.0908476 -0.0508551 -0.0121347 255 0 0
0.059818 -0.0489864 -0.0131945 255 0 0
0.0659666 -0.0493608 -0.0124174 255 0 0
0.0675828 -0.0498 -0.0123182 255 0 0
0.0687873 -0.0490929 -0.0121273 255 0 0
0.0703466 -0.048783 -0.0122219 255 0 0
0.0747963 -0.0488009 -0.0131105 255 0 0
0.0770958 -0.0491896 -0.0134651 255 0 0
0.0787235 -0.0488709 -0.0135705 255 0 0
0.081212 -0.0496335 -0.013306 255 0 0
0.0833486 -0.0488402 -0.0126011 255 0 0
0.0850366 -0.0493851 -0.0125848 255 0 0
0.0873755 -0.0494263 -0.0126952 255 0 0
0.0888451 -0.0490264 -0.012511 255 0 0
0.0902878 -0.0487075 -0.0120337 255 0 0
0.0733602 -0.0466355 -0.0128086 255 0 0
0.0749606 -0.0471629 -0.0125898 255 0 0
0.0772103 -0.0468937 -0.0127813 255 0 0
0.0791255 -0.0466386 -0.0128683 255 0 0
0.0812672 -0.0470708 -0.0130635 255 0 0
0.0828617 -0.0472689 -0.0130603 255 0 0
0.0851007 -0.0474167 -0.0127358 255 0 0
0.087035 -0.0468059 -0.0132216 255 0 0
0.0888383 -0.0467373 -0.0123528 255 0 0
0.0742474 -0.0455012 -0.0123273 255 0 0
0.0807406 -0.0458915 -0.012087 255 0 0
0.0832801 -0.044903 -0.0124663 255 0 0
0.0847625 -0.0452577 -0.013093 255 0 0
0.0866184 -0.0447264 -0.0134551 255 0 0
0.0885624 -0.0453489 -0.0125077 255 0 0
0.0853995 -0.0435829 -0.0124289 255 0 0
0.0875634 -0.0435495 -0.0129634 255 0 0
0.0889531 -0.0435739 -0.0125669 255 0 0
