ply
format ascii 1.0
element vertex 1248
property float x
property float y
property float z
property uchar diffuse_red
property uchar diffuse_green
property uchar diffuse_blue
end_header
0.154374 -0.18054 -0.0273382 255 0 0
0.15329 -0.178892 -0.0274876 255 0 0
0.155093 -0.178844 -0.0269497 255 0 0
0.153171 -0.176906 -0.0278372 255 0 0
0.155051 -0.177203 -0.0271768 255 0 0
0.156347 -0.176916 -0.0262518 255 0 0
0.152799 -0.17486 -0.0273882 255 0 0
0.15444 -0.175727 -0.0266331 255 0 0
0.156704 -0.175106 -0.0269955 255 0 0
0.147593 -0.172015 -0.0277331 255 0 0
0.148357 -0.173226 -0.0270597 255 0 0
0.152749 -0.173166 -0.0269944 255 0 0
0.155881 -0.17318 -0.0277491 255 0 0
0.156762 -0.1733 -0.0267038 255 0 0
0.147098 -0.170686 -0.0277523 255 0 0
0.14901 -0.170956 -0.0271622 255 0 0
0.150177 -0.171334 -0.0260819 255 0 0
0.153001 -0.171327 -0.0267062 255 0 0
0.155414 -0.171933 -0.0278198 255 0 0
0.156138 -0.170852 -0.0270723 255 0 0
0.146603 -0.169356 -0.0277714 255 0 0
0.149043 -0.169205 -0.0264705 255 0 0
0.153408 -0.168483 -0.0273612 255 0 0
0.154669 -0.16922 -0.0271669 255 0 0
0.15686 -0.169775 -0.0263258 255 0 0
0.159149 -0.169382 -0.0277197 255 0 0
0.160151 -0.168167 -0.0271951 255 0 0
0.147768 -0.16762 -0.0272099 255 0 0
0.148686 -0.167327 -0.0261388 255 0 0
0.153467 -0.166917 -0.0268111 255 0 0
0.154393 -0.16776 -0.0264453 255 0 0
0.160824 -0.166801 -0.0262156 255 0 0
0.152693 -0.164879 -0.0269322 255 0 0
0.154511 -0.165603 -0.0266532 255 0 0
0.161305 -0.164644 -0.0270514 255 0 0
0.151459 -0.163239 -0.0273472 255 0 0
0.152303 -0.1628 -0.0264068 255 0 0
0.154926 -0.162905 -0.0273782 255 0 0
0.161187 -0.16301 -0.0270014 255 0 0
0.150968 -0.161445 -0.0269142 255 0 0
0.155278 -0.160845 -0.0268313 255 0 0
0.160283 -0.161101 -0.027879 255 0 0
0.14937 -0.158279 -0.0273082 255 0 0
0.150596 -0.159277 -0.0272496 255 0 0
0.153381 -0.158283 -0.0271461 255 0 0
0.154391 -0.159057 -0.0269658 255 0 0
0.160955 -0.159751 -0.0269 255 0 0
0.149474 -0.157178 -0.026516 255 0 0
0.152688 -0.157036 -0.0270802 255 0 0
0.159937 -0.156228 -0.0277249 255 0 0
0.160781 -0.157317 -0.0268245 255 0 0
0.147106 -0.155187 -0.0267423 255 0 0
0.151762 -0.154301 -0.0271139 255 0 0
0.152659 -0.155777 -0.0266221 255 0 0
0.151578 -0.153116 -0.0265994 255 0 0
0.157322 -0.152077 -0.0262846 255 0 0
0.140744 -0.150656 -0.0265962 255 0 0
0.142057 -0.151772 -0.0277977 255 0 0
0.149317 -0.150398 -0.0274179 255 0 0
0.150524 -0.151717 -0.0270363 255 0 0
0.139338 -0.148796 -0.0264953 255 0 0
0.14686 -0.148791 -0.0272564 255 0 0
0.148674 -0.149457 -0.0267385 255 0 0
0.13488 -0.146684 -0.026953 255 0 0
0.136815 -0.147922 -0.0273983 255 0 0
0.143278 -0.146517 -0.0272214 255 0 0
0.145024 -0.147203 -0.0266873 255 0 0
0.127431 -0.144335 -0.0279645 255 0 0
0.129567 -0.144875 -0.0271391 255 0 0
0.131243 -0.145748 -0.0278638 255 0 0
0.132101 -0.145341 -0.0269388 255 0 0
0.137636 -0.144683 -0.0278957 255 0 0
0.140902 -0.145352 -0.0268215 255 0 0
0.142943 -0.145421 -0.0266569 255 0 0
0.125561 -0.142096 -0.0265422 255 0 0
0.126589 -0.143193 -0.0274073 255 0 0
0.128099 -0.14397 -0.0267311 255 0 0
0.135281 -0.142976 -0.0275458 255 0 0
0.137065 -0.142869 -0.0269227 255 0 0
0.13925 -0.143574 -0.0269249 255 0 0
0.12304 -0.140233 -0.0263554 255 0 0
0.124243 -0.14128 -0.0275279 255 0 0
0.130435 -0.141179 -0.0276838 255 0 0
0.132537 -0.141246 -0.0274646 255 0 0
0.135216 -0.141242 -0.0265467 255 0 0
0.137511 -0.141673 -0.0260303 255 0 0
0.121036 -0.138921 -0.0265994 255 0 0
0.129121 -0.139162 -0.0272672 255 0 0
0.1309 -0.138969 -0.0272298 255 0 0
0.132595 -0.139283 -0.0268463 255 0 0
0.134022 -0.139773 -0.0263541 255 0 0
0.1189 -0.136984 -0.0270308 255 0 0
0.123734 -0.136485 -0.0267138 255 0 0
0.125545 -0.137904 -0.027566 255 0 0
0.129868 -0.137598 -0.0276566 255 0 0
0.13094 -0.13655 -0.0269534 255 0 0
0.132654 -0.137313 -0.0262253 255 0 0
0.117507 -0.134971 -0.0269973 255 0 0
0.122691 -0.135368 -0.027135 255 0 0
0.129599 -0.134438 -0.0279615 255 0 0
0.131209 -0.134524 -0.0266963 255 0 0
0.115715 -0.132007 -0.0277866 255 0 0
0.117394 -0.132732 -0.0274237 255 0 0
0.118082 -0.132401 -0.0262041 255 0 0
0.127955 -0.132155 -0.0277251 255 0 0
0.12954 -0.133174 -0.0275122 255 0 0
0.130771 -0.132476 -0.0265138 255 0 0
0.136805 -0.132179 -0.0273664 255 0 0
0.109166 -0.130374 -0.0273283 255 0 0
0.111077 -0.131013 -0.0274259 255 0 0
0.112893 -0.13029 -0.0269852 255 0 0
0.115259 -0.130799 -0.027855 255 0 0
0.116716 -0.13116 -0.0268723 255 0 0
0.12427 -0.130489 -0.0279334 255 0 0
0.126772 -0.130695 -0.0275317 255 0 0
0.129453 -0.131272 -0.0268361 255 0 0
0.131498 -0.130889 -0.0278411 255 0 0
0.133458 -0.130242 -0.0275018 255 0 0
0.134947 -0.13126 -0.0273115 255 0 0
0.137215 -0.130497 -0.026306 255 0 0
0.138082 -0.131743 -0.0265315 255 0 0
0.106957 -0.129169 -0.0271144 255 0 0
0.108735 -0.129126 -0.0261839 255 0 0
0.114889 -0.129511 -0.0268507 255 0 0
0.116945 -0.129386 -0.0263745 255 0 0
0.118891 -0.128866 -0.02638 255 0 0
0.121395 -0.128363 -0.0263792 255 0 0
0.124977 -0.12885 -0.0263736 255 0 0
0.12726 -0.129353 -0.0263863 255 0 0
0.129064 -0.129061 -0.0264149 255 0 0
0.13065 -0.129661 -0.0276176 255 0 0
0.132878 -0.128897 -0.0266198 255 0 0
0.13472 -0.129804 -0.0266716 255 0 0
0.136712 -0.129147 -0.026325 255 0 0
0.105134 -0.127135 -0.0267881 255 0 0
0.112199 -0.127892 -0.0263684 255 0 0
0.116874 -0.127332 -0.0263295 255 0 0
0.119478 -0.127033 -0.0267777 255 0 0
0.121121 -0.127092 -0.0267576 255 0 0
0.123072 -0.126781 -0.0270658 255 0 0
0.124589 -0.127178 -0.0269098 255 0 0
0.126699 -0.127977 -0.0272715 255 0 0
0.131048 -0.127997 -0.0265697 255 0 0
0.135707 -0.126445 -0.0263631 255 0 0
0.136209 -0.127796 -0.0263441 255 0 0
0.10393 -0.124187 -0.0268058 255 0 0
0.104539 -0.125319 -0.0270413 255 0 0
0.108747 -0.124503 -0.0267824 255 0 0
0.118432 -0.125332 -0.0262622 255 0 0
0.120605 -0.124853 -0.0270823 255 0 0
0.122329 -0.12501 -0.026952 255 0 0
0.124447 -0.125793 -0.0270409 255 0 0
0.103321 -0.123057 -0.026571 255 0 0
0.107371 -0.12294 -0.0276026 255 0 0
0.11771 -0.122205 -0.0264054 255 0 0
0.119171 -0.123168 -0.0270912 255 0 0
0.101546 -0.121036 -0.0276053 255 0 0
0.102557 -0.121991 -0.0260353 255 0 0
0.105558 -0.121231 -0.0276008 255 0 0
0.114347 -0.120502 -0.0271825 255 0 0
0.116373 -0.121234 -0.0274649 255 0 0
0.098852 -0.118015 -0.0277976 255 0 0
0.10056 -0.119379 -0.0271009 255 0 0
0.104829 -0.118881 -0.0263074 255 0 0
0.110975 -0.118828 -0.0270894 255 0 0
0.11234 -0.119777 -0.0269032 255 0 0
0.0989343 -0.117077 -0.0268418 255 0 0
0.103258 -0.117273 -0.026715 255 0 0
0.109377 -0.117243 -0.0272844 255 0 0
0.110139 -0.117674 -0.0260175 255 0 0
0.097542 -0.114912 -0.0268736 255 0 0
0.098601 -0.115254 -0.0266641 255 0 0
0.101272 -0.115541 -0.0263149 255 0 0
0.107877 -0.114162 -0.0271013 255 0 0
0.108354 -0.115442 -0.0270821 255 0 0
0.0966758 -0.113014 -0.0266643 255 0 0
0.107707 -0.11276 -0.0273517 255 0 0
0.094815 -0.110785 -0.027326 255 0 0
0.0967335 -0.111382 -0.0262182 255 0 0
0.107143 -0.111025 -0.0268809 255 0 0
0.0857403 -0.108506 -0.0278817 255 0 0
0.093111 -0.108773 -0.0271554 255 0 0
0.0943633 -0.10895 -0.0265293 255 0 0
0.103465 -0.108607 -0.0272992 255 0 0
0.10473 -0.109067 -0.0269119 255 0 0
0.0852951 -0.10733 -0.0279491 255 0 0
0.0865917 -0.106761 -0.0279575 255 0 0
0.091263 -0.10659 -0.0272971 255 0 0
0.0930806 -0.107219 -0.0264398 255 0 0
0.101143 -0.107137 -0.0272467 255 0 0
0.102099 -0.107719 -0.0266318 255 0 0
0.0854545 -0.104637 -0.0265085 255 0 0
0.0891516 -0.104745 -0.027623 255 0 0
0.0906004 -0.105077 -0.0267888 255 0 0
0.0990812 -0.105337 -0.0268985 255 0 0
0.08525 -0.103201 -0.0272535 255 0 0
0.0869539 -0.102922 -0.0268111 255 0 0
0.08868 -0.103127 -0.0275143 255 0 0
0.0973037 -0.103177 -0.0271025 255 0 0
0.0850447 -0.101763 -0.0279995 255 0 0
0.0866869 -0.100955 -0.0270706 255 0 0
0.0883143 -0.101276 -0.0268711 255 0 0
0.0958428 -0.100161 -0.0269243 255 0 0
0.0963121 -0.10142 -0.0269051 255 0 0
0.0850437 -0.0988057 -0.0273986 255 0 0
0.0873108 -0.0994675 -0.0266302 255 0 0
0.0830976 -0.0964786 -0.0274517 255 0 0
0.084825 -0.0974101 -0.0262419 255 0 0
0.0869802 -0.0970746 -0.0274941 255 0 0
0.0887264 -0.0976913 -0.026531 255 0 0
0.0815106 -0.0946538 -0.0277689 255 0 0
0.0826251 -0.0949257 -0.0268494 255 0 0
0.085971 -0.09474 -0.0277071 255 0 0
0.0870728 -0.0957594 -0.0277063 255 0 0
0.0886782 -0.0956787 -0.0264599 255 0 0
0.0709418 -0.0927322 -0.0277708 255 0 0
0.0730383 -0.0924313 -0.0277444 255 0 0
0.0791157 -0.0923079 -0.0279302 255 0 0
0.0810288 -0.0929197 -0.0268331 255 0 0
0.0828266 -0.0932629 -0.026971 255 0 0
0.0850356 -0.0931647 -0.0268967 255 0 0
0.0862891 -0.0936112 -0.0260804 255 0 0
0.065237 -0.091357 -0.0278119 255 0 0
0.0668579 -0.0908463 -0.0275622 255 0 0
0.0689444 -0.0912199 -0.0274998 255 0 0
0.0712327 -0.091074 -0.0272658 255 0 0
0.0731053 -0.0910649 -0.0275195 255 0 0
0.0749492 -0.0910877 -0.0276771 255 0 0
0.0773562 -0.0908764 -0.027642 255 0 0
0.0789906 -0.0910735 -0.0272583 255 0 0
0.0808257 -0.0915861 -0.0266557 255 0 0
0.0825202 -0.0916793 -0.0273242 255 0 0
0.0631552 -0.0891019 -0.0269625 255 0 0
0.0649423 -0.0891205 -0.0271126 255 0 0
0.067058 -0.0890993 -0.0264909 255 0 0
0.0691792 -0.0894358 -0.0265226 255 0 0
0.0709064 -0.0888401 -0.0265139 255 0 0
0.0730163 -0.0889507 -0.026656 255 0 0
0.0749381 -0.0889018 -0.0270066 255 0 0
0.0767075 -0.0889839 -0.0269673 255 0 0
0.0785652 -0.0891406 -0.0261823 255 0 0
0.0803183 -0.0890895 -0.0268452 255 0 0
0.0563856 -0.0865947 -0.0263067 255 0 0
0.0611601 -0.0868813 -0.0272136 255 0 0
0.0629493 -0.0872303 -0.0266296 255 0 0
0.0650527 -0.0876406 -0.0261308 255 0 0
0.0687782 -0.087891 -0.0260312 255 0 0
0.0748818 -0.0876327 -0.0264876 255 0 0
0.0777277 -0.0876338 -0.0261929 255 0 0
0.0795114 -0.086569 -0.0270274 255 0 0
0.080842 -0.0874419 -0.0262254 255 0 0
0.0556941 -0.0857045 -0.0270443 255 0 0
0.0612525 -0.0846562 -0.0267957 255 0 0
0.0627439 -0.0853601 -0.0262971 255 0 0
0.0779433 -0.084683 -0.0278906 255 0 0
0.0790716 -0.0850215 -0.0265263 255 0 0
0.0544646 -0.0828607 -0.0262576 255 0 0
0.0597252 -0.0827101 -0.0267842 255 0 0
0.0607524 -0.0831452 -0.0265482 255 0 0
0.0772464 -0.0827727 -0.0273533 255 0 0
0.0783064 -0.0839414 -0.0264162 255 0 0
0.0534157 -0.0810434 -0.0268508 255 0 0
0.0579525 -0.0807045 -0.0277813 255 0 0
0.0592659 -0.0807377 -0.0265113 255 0 0
0.060292 -0.0811714 -0.0262752 255 0 0
0.0768377 -0.0811832 -0.0268687 255 0 0
0.0517525 -0.0782756 -0.0265783 255 0 0
0.0530413 -0.0787032 -0.0261697 255 0 0
0.0574264 -0.078802 -0.0273161 255 0 0
0.0588188 -0.07918 -0.0264083 255 0 0
0.0756336 -0.0789408 -0.0271514 255 0 0
0.0761727 -0.0799894 -0.0268085 255 0 0
0.0509406 -0.0773826 -0.0269469 255 0 0
0.0558133 -0.0765447 -0.0268952 255 0 0
0.0568027 -0.0770124 -0.0265646 255 0 0
0.0623185 -0.0763433 -0.0269827 255 0 0
0.0738316 -0.0762529 -0.0271009 255 0 0
0.0747041 -0.0769212 -0.0269275 255 0 0
0.0547547 -0.0747668 -0.0271977 255 0 0
0.0595871 -0.0746058 -0.0268208 255 0 0
0.0608014 -0.0757043 -0.0270905 255 0 0
0.0640768 -0.0752938 -0.0266499 255 0 0
0.0670732 -0.0747229 -0.0266691 255 0 0
0.0692505 -0.0740694 -0.027527 255 0 0
0.0729436 -0.0746568 -0.0270221 255 0 0
0.0479017 -0.072848 -0.0261924 255 0 0
0.0535192 -0.0726443 -0.0274265 255 0 0
0.0544127 -0.0732226 -0.0268074 255 0 0
0.0573433 -0.072197 -0.0263768 255 0 0
0.0582461 -0.073147 -0.0273899 255 0 0
0.0629947 -0.0727289 -0.0268859 255 0 0
0.0709665 -0.0738488 -0.0273067 255 0 0
0.047109 -0.0710665 -0.0265232 255 0 0
0.0527311 -0.0708115 -0.0273452 255 0 0
0.0557058 -0.0704685 -0.0268794 255 0 0
0.0566089 -0.0712843 -0.0270815 255 0 0
0.0624429 -0.0708625 -0.0270209 255 0 0
0.051409 -0.0685188 -0.0275365 255 0 0
0.053165 -0.0692124 -0.0269295 255 0 0
0.0547779 -0.069534 -0.0271468 255 0 0
0.0617756 -0.0690743 -0.0270499 255 0 0
0.0472587 -0.066562 -0.0267054 255 0 0
0.0510717 -0.0668462 -0.0267767 255 0 0
0.0527807 -0.0676033 -0.0269693 255 0 0
0.0606581 -0.0668548 -0.0268765 255 0 0
0.0467081 -0.0656944 -0.0277788 255 0 0
0.0496587 -0.064814 -0.0270525 255 0 0
0.0505459 -0.0658236 -0.0265575 255 0 0
0.0592291 -0.0645551 -0.0270257 255 0 0
0.0491344 -0.0637936 -0.0268332 255 0 0
0.0575146 -0.06226 -0.0267018 255 0 0
0.0582929 -0.0631942 -0.0269994 255 0 0
0.0563823 -0.0607366 -0.027102 255 0 0
0.0548037 -0.0590224 -0.0274908 255 0 0
0.0550554 -0.0579443 -0.0269397 255 0 0
0.132768 -0.202137 -0.0254732 255 0 0
0.133197 -0.200552 -0.0240843 255 0 0
0.131543 -0.198432 -0.0258464 255 0 0
0.132722 -0.198801 -0.024491 255 0 0
0.134057 -0.196425 -0.0256985 255 0 0
0.133933 -0.193983 -0.0256281 255 0 0
0.134634 -0.19261 -0.0246775 255 0 0
0.13839 -0.192513 -0.0251885 255 0 0
0.135199 -0.190891 -0.0246057 255 0 0
0.139015 -0.191151 -0.0250177 255 0 0
0.135764 -0.189174 -0.0245339 255 0 0
0.137022 -0.188163 -0.0244592 255 0 0
0.139993 -0.18938 -0.0255511 255 0 0
0.141417 -0.188199 -0.0245074 255 0 0
0.149818 -0.188139 -0.024707 255 0 0
0.138569 -0.187325 -0.0248233 255 0 0
0.14079 -0.187062 -0.024971 255 0 0
0.142813 -0.186882 -0.0251137 255 0 0
0.145105 -0.186748 -0.025484 255 0 0
0.147383 -0.186885 -0.0247418 255 0 0
0.151307 -0.187115 -0.0250721 255 0 0
0.152581 -0.186074 -0.0251219 255 0 0
0.149708 -0.184373 -0.0252668 255 0 0
0.153747 -0.185022 -0.0250174 255 0 0
0.15132 -0.183511 -0.0256436 255 0 0
0.154887 -0.182993 -0.0246478 255 0 0
0.154639 -0.181284 -0.0249016 255 0 0
0.152838 -0.178466 -0.0240853 255 0 0
0.155513 -0.179842 -0.0257724 255 0 0
0.156345 -0.178766 -0.0251914 255 0 0
0.153783 -0.177186 -0.0254045 255 0 0
0.156946 -0.177073 -0.0246453 255 0 0
0.153854 -0.17506 -0.0253823 255 0 0
0.155421 -0.174857 -0.0250255 255 0 0
0.157782 -0.174762 -0.0247675 255 0 0
0.14954 -0.172821 -0.0253379 255 0 0
0.150456 -0.172534 -0.0242686 255 0 0
0.153786 -0.173587 -0.0255286 255 0 0
0.154119 -0.173123 -0.0248173 255 0 0
0.157263 -0.172947 -0.0249817 255 0 0
0.158384 -0.173066 -0.0242205 255 0 0
0.151098 -0.171044 -0.025009 255 0 0
0.153649 -0.170618 -0.0258248 255 0 0
0.15404 -0.171037 -0.0247382 255 0 0
0.157509 -0.170801 -0.0254655 255 0 0
0.158479 -0.170855 -0.0247939 255 0 0
0.150352 -0.169039 -0.0250373 255 0 0
0.153902 -0.168044 -0.0250311 255 0 0
0.155102 -0.168976 -0.0253732 255 0 0
0.15723 -0.168713 -0.0251019 255 0 0
0.158765 -0.168868 -0.0247663 255 0 0
0.16002 -0.1688 -0.0249303 255 0 0
0.149605 -0.167033 -0.0250656 255 0 0
0.154931 -0.166593 -0.025327 255 0 0
0.157165 -0.166969 -0.0244532 255 0 0
0.161016 -0.167591 -0.0244086 255 0 0
0.155252 -0.164833 -0.0252371 255 0 0
0.156902 -0.165163 -0.0243407 255 0 0
0.161495 -0.165441 -0.0252394 255 0 0
0.162492 -0.164231 -0.0247172 255 0 0
0.153261 -0.162991 -0.025275 255 0 0
0.155287 -0.162952 -0.0252025 255 0 0
0.156251 -0.163564 -0.0243059 255 0 0
0.163488 -0.163022 -0.0241954 255 0 0
0.15092 -0.160352 -0.025909 255 0 0
0.153241 -0.161257 -0.0246809 255 0 0
0.156521 -0.160986 -0.0248229 255 0 0
0.1618 -0.160842 -0.0259983 255 0 0
0.162977 -0.161258 -0.0246105 255 0 0
0.151642 -0.159289 -0.0251678 255 0 0
0.152368 -0.158868 -0.0240765 255 0 0
0.155258 -0.159279 -0.0250325 255 0 0
0.159329 -0.158924 -0.024097 255 0 0
0.161624 -0.158406 -0.0259242 255 0 0
0.1628 -0.158824 -0.0245387 255 0 0
0.150377 -0.156844 -0.0248324 255 0 0
0.153743 -0.156845 -0.0253459 255 0 0
0.1543 -0.157215 -0.0242899 255 0 0
0.161963 -0.156931 -0.0245017 255 0 0
0.147711 -0.154252 -0.0249907 255 0 0
0.148927 -0.155238 -0.0249298 255 0 0
0.153036 -0.154967 -0.0250496 255 0 0
0.159636 -0.154497 -0.0253954 255 0 0
0.161123 -0.155845 -0.025399 255 0 0
0.142731 -0.152671 -0.0258445 255 0 0
0.144006 -0.152195 -0.0255461 255 0 0
0.15094 -0.152442 -0.0250269 255 0 0
0.152481 -0.153005 -0.0248062 255 0 0
0.158477 -0.153286 -0.0258405 255 0 0
0.141297 -0.15093 -0.0248494 255 0 0
0.143115 -0.151022 -0.0249858 255 0 0
0.14504 -0.150787 -0.0246696 255 0 0
0.146345 -0.151269 -0.0246333 255 0 0
0.150902 -0.150906 -0.0254605 255 0 0
0.149052 -0.148648 -0.0251647 255 0 0
0.150563 -0.1498 -0.0248908 255 0 0
0.135981 -0.146493 -0.0246623 255 0 0
0.137579 -0.14739 -0.0252241 255 0 0
0.1471 -0.14677 -0.0251904 255 0 0
0.148561 -0.147627 -0.0245424 255 0 0
0.130853 -0.144269 -0.025759 255 0 0
0.133084 -0.144789 -0.0250908 255 0 0
0.134794 -0.14553 -0.0247251 255 0 0
0.138568 -0.14424 -0.0252213 255 0 0
0.143318 -0.144619 -0.0250947 255 0 0
0.144899 -0.145357 -0.0254831 255 0 0
0.146211 -0.145314 -0.0246965 255 0 0
0.127066 -0.142871 -0.0258683 255 0 0
0.12857 -0.143645 -0.025195 255 0 0
0.13151 -0.143905 -0.0245335 255 0 0
0.136649 -0.14276 -0.0243632 255 0 0
0.138837 -0.142885 -0.025707 255 0 0
0.141148 -0.142903 -0.0250329 255 0 0
0.142982 -0.143522 -0.0245301 255 0 0
0.125103 -0.141433 -0.025041 255 0 0
0.135297 -0.141508 -0.0243661 255 0 0
0.137177 -0.140585 -0.0254703 255 0 0
0.138624 -0.141079 -0.0249723 255 0 0
0.140054 -0.140942 -0.0242438 255 0 0
0.121349 -0.138661 -0.0247705 255 0 0
0.123343 -0.139967 -0.024525 255 0 0
0.13397 -0.138516 -0.0259033 255 0 0
0.135262 -0.139092 -0.0253545 255 0 0
0.136677 -0.138952 -0.0246301 255 0 0
0.138123 -0.139443 -0.0241303 255 0 0
0.119313 -0.136711 -0.0253537 255 0 0
0.133917 -0.137256 -0.0254513 255 0 0
0.134878 -0.136743 -0.0243417 255 0 0
0.118276 -0.135003 -0.0248455 255 0 0
0.133415 -0.135256 -0.025239 255 0 0
0.118661 -0.132877 -0.0249402 255 0 0
0.120661 -0.133879 -0.0258724 255 0 0
0.132703 -0.132698 -0.0252226 255 0 0
0.134041 -0.133276 -0.0241932 255 0 0
0.114448 -0.130147 -0.0259523 255 0 0
0.117879 -0.131404 -0.0254599 255 0 0
0.11867 -0.130764 -0.0256702 255 0 0
0.120483 -0.130957 -0.0250271 255 0 0
0.122433 -0.130623 -0.0241029 255 0 0
0.131362 -0.131068 -0.0253954 255 0 0
0.132662 -0.130795 -0.024062 255 0 0
0.139367 -0.131304 -0.0256929 255 0 0
0.140657 -0.130863 -0.0248507 255 0 0
0.142329 -0.130311 -0.0242486 255 0 0
0.107791 -0.128099 -0.0253448 255 0 0
0.109436 -0.128809 -0.0249837 255 0 0
0.110982 -0.12914 -0.0255486 255 0 0
0.113171 -0.128872 -0.0258982 255 0 0
0.114521 -0.12823 -0.0258524 255 0 0
0.121301 -0.12974 -0.0253857 255 0 0
0.122716 -0.129198 -0.0253972 255 0 0
0.128756 -0.128459 -0.0254913 255 0 0
0.130955 -0.128801 -0.0246549 255 0 0
0.137992 -0.128703 -0.0254868 255 0 0
0.138862 -0.129948 -0.0257119 255 0 0
0.14027 -0.128715 -0.0251233 255 0 0
0.142572 -0.128727 -0.0247568 255 0 0
0.144643 -0.128052 -0.0243968 255 0 0
0.105683 -0.12688 -0.0252884 255 0 0
0.106854 -0.127078 -0.0245116 255 0 0
0.109337 -0.127463 -0.0244532 255 0 0
0.111117 -0.126555 -0.0253082 255 0 0
0.112884 -0.126999 -0.0249262 255 0 0
0.115457 -0.126486 -0.0259313 255 0 0
0.125724 -0.126763 -0.0252816 255 0 0
0.127261 -0.126986 -0.0253354 255 0 0
0.128819 -0.126992 -0.0247374 255 0 0
0.137488 -0.127349 -0.0255058 255 0 0
0.13951 -0.126674 -0.0251516 255 0 0
0.142439 -0.127247 -0.0250215 255 0 0
0.144512 -0.126563 -0.0246623 255 0 0
0.147122 -0.127256 -0.0242812 255 0 0
0.104964 -0.124652 -0.0247651 255 0 0
0.109516 -0.125495 -0.0259618 255 0 0
0.114654 -0.125399 -0.0253883 255 0 0
0.116838 -0.125012 -0.0256853 255 0 0
0.122964 -0.12474 -0.0249052 255 0 0
0.124558 -0.125667 -0.0248291 255 0 0
0.12611 -0.125117 -0.0242437 255 0 0
0.136984 -0.125994 -0.0255247 255 0 0
0.139004 -0.125313 -0.0251706 255 0 0
0.141675 -0.125193 -0.0250498 255 0 0
0.144 -0.125187 -0.0246811 255 0 0
0.146736 -0.125064 -0.0245575 255 0 0
0.103718 -0.122879 -0.0247752 255 0 0
0.107997 -0.122123 -0.0254868 255 0 0
0.108762 -0.123109 -0.0246707 255 0 0
0.117186 -0.122693 -0.0247295 255 0 0
0.119477 -0.123014 -0.024823 255 0 0
0.121379 -0.123818 -0.0249801 255 0 0
0.125666 -0.122412 -0.024671 255 0 0
0.143488 -0.12381 -0.0247 255 0 0
0.145963 -0.122985 -0.0245858 255 0 0
0.101796 -0.12093 -0.0255022 255 0 0
0.102655 -0.121259 -0.024131 255 0 0
0.107011 -0.121063 -0.0258965 255 0 0
0.114502 -0.120412 -0.0248189 255 0 0
0.116684 -0.121085 -0.0252059 255 0 0
0.122859 -0.120558 -0.0246159 255 0 0
0.124082 -0.121408 -0.0248904 255 0 0
0.100892 -0.119251 -0.0251544 255 0 0
0.105809 -0.119934 -0.0258996 255 0 0
0.112777 -0.119106 -0.0251503 255 0 0
0.0996918 -0.117019 -0.0246926 255 0 0
0.10368 -0.116424 -0.0242272 255 0 0
0.109615 -0.116408 -0.0251795 255 0 0
0.110972 -0.117348 -0.0249895 255 0 0
0.0992134 -0.11454 -0.0252897 255 0 0
0.101327 -0.114221 -0.0242426 255 0 0
0.1025 -0.11532 -0.0242348 255 0 0
0.108688 -0.114818 -0.0252618 255 0 0
0.0969551 -0.11201 -0.0247371 255 0 0
0.0983619 -0.113034 -0.0252999 255 0 0
0.101453 -0.112624 -0.0240333 255 0 0
0.10788 -0.112695 -0.0250092 255 0 0
0.10831 -0.113989 -0.0241354 255 0 0
0.0931927 -0.110729 -0.0240458 255 0 0
0.0949215 -0.111979 -0.0252142 255 0 0
0.097611 -0.111039 -0.0253268 255 0 0
0.0984101 -0.110735 -0.0242892 255 0 0
0.107318 -0.110715 -0.0251512 255 0 0
0.0956355 -0.108919 -0.0252213 255 0 0
0.0971532 -0.109209 -0.0245369 255 0 0
0.105046 -0.108708 -0.025018 255 0 0
0.0872866 -0.106998 -0.0245535 255 0 0
0.0937657 -0.106563 -0.0245843 255 0 0
0.0949411 -0.107417 -0.0246673 255 0 0
0.102932 -0.106896 -0.0252044 255 0 0
0.0865312 -0.105042 -0.0253012 255 0 0
0.091853 -0.10462 -0.0253073 255 0 0
0.0925862 -0.105638 -0.0258348 255 0 0
0.0995989 -0.105135 -0.025659 255 0 0
0.100409 -0.104803 -0.0246445 255 0 0
0.0872874 -0.102981 -0.0246108 255 0 0
0.0897974 -0.102758 -0.0257338 255 0 0
0.0907759 -0.103269 -0.0252969 255 0 0
0.0974122 -0.102445 -0.0249202 255 0 0
0.098572 -0.103405 -0.0246191 255 0 0
0.0876127 -0.101057 -0.0253149 255 0 0
0.0890264 -0.100742 -0.0248603 255 0 0
0.0900933 -0.101339 -0.0246209 255 0 0
0.0969436 -0.101188 -0.0249392 255 0 0
0.0869671 -0.0984239 -0.0250173 255 0 0
0.0883521 -0.0992493 -0.0250586 255 0 0
0.090356 -0.0993712 -0.0243993 255 0 0
0.0970204 -0.0996936 -0.024564 255 0 0
0.0854564 -0.0965329 -0.02491 255 0 0
0.0863639 -0.0971194 -0.0244611 255 0 0
0.0895877 -0.0970567 -0.0249009 255 0 0
0.0835273 -0.095094 -0.0256758 255 0 0
0.0844211 -0.0951145 -0.0247999 255 0 0
0.0893615 -0.0946165 -0.025608 255 0 0
0.0910053 -0.0951405 -0.0255658 255 0 0
0.0931422 -0.0945658 -0.0242805 255 0 0
0.0828643 -0.093015 -0.0247379 255 0 0
0.0867878 -0.0925251 -0.0248496 255 0 0
0.0808533 -0.0909536 -0.0248395 255 0 0
0.0829967 -0.0909966 -0.025097 255 0 0
0.0855153 -0.0914909 -0.024475 255 0 0
0.0792821 -0.089147 -0.0251555 255 0 0
0.0813151 -0.0890481 -0.0255927 255 0 0
0.0820812 -0.0886867 -0.024291 255 0 0
0.0636807 -0.0863106 -0.0259429 255 0 0
0.0652266 -0.0869659 -0.0255881 255 0 0
0.0666124 -0.0869988 -0.02541 255 0 0
0.0690828 -0.0869223 -0.0254972 255 0 0
0.0714191 -0.0873308 -0.0258541 255 0 0
0.0726659 -0.0867341 -0.0258551 255 0 0
0.0751022 -0.0867212 -0.0257532 255 0 0
0.077206 -0.0869475 -0.025357 255 0 0
0.0786109 -0.087339 -0.0249194 255 0 0
0.0810285 -0.0872272 -0.0245649 255 0 0
0.055975 -0.0846529 -0.0251515 255 0 0
0.0567999 -0.085562 -0.0247781 255 0 0
0.0625976 -0.0842167 -0.0255018 255 0 0
0.0650749 -0.0850464 -0.0253996 255 0 0
0.0673471 -0.0853043 -0.0253309 255 0 0
0.0684644 -0.0848086 -0.0250416 255 0 0
0.0709012 -0.0849402 -0.0253348 255 0 0
0.0734945 -0.0849177 -0.0252011 255 0 0
0.0749987 -0.0847899 -0.0249089 255 0 0
0.0766849 -0.0856772 -0.0248557 255 0 0
0.0794501 -0.0843658 -0.0248858 255 0 0
0.0806211 -0.0854306 -0.0246191 255 0 0
0.0555631 -0.0832678 -0.0253043 255 0 0
0.056798 -0.0836956 -0.0247114 255 0 0
0.0615189 -0.082131 -0.0250626 255 0 0
0.0629753 -0.0831916 -0.0251629 255 0 0
0.0648953 -0.0828177 -0.0244695 255 0 0
0.0670682 -0.083067 -0.0246854 255 0 0
0.0692612 -0.0830564 -0.0251068 255 0 0
0.0709482 -0.0824798 -0.0249982 255 0 0
0.0729669 -0.0829018 -0.0247373 255 0 0
0.0748198 -0.0832171 -0.0242456 255 0 0
0.078763 -0.0828343 -0.0248408 255 0 0
0.0802309 -0.0832397 -0.0246107 255 0 0
0.0551188 -0.0809538 -0.0253329 255 0 0
0.0610851 -0.0809875 -0.0251287 255 0 0
0.062406 -0.0810646 -0.0248071 255 0 0
0.0652711 -0.0817919 -0.0241303 255 0 0
0.0682648 -0.0816363 -0.0243428 255 0 0
0.0711714 -0.081583 -0.0242711 255 0 0
0.0774907 -0.0807635 -0.0254453 255 0 0
0.0788998 -0.0808492 -0.0244891 255 0 0
0.0547433 -0.0786571 -0.0255408 255 0 0
0.0568614 -0.0790599 -0.0247247 255 0 0
0.0609341 -0.0790769 -0.024941 255 0 0
0.0771828 -0.0790567 -0.0250081 255 0 0
0.0513696 -0.0763993 -0.0254359 255 0 0
0.0529131 -0.0768475 -0.0257424 255 0 0
0.0548113 -0.0768178 -0.0256527 255 0 0
0.0568362 -0.0769007 -0.0245871 255 0 0
0.0590793 -0.0772253 -0.0251552 255 0 0
0.0609286 -0.0770982 -0.024926 255 0 0
0.0631611 -0.0761443 -0.024536 255 0 0
0.0755673 -0.0771504 -0.0255767 255 0 0
0.0768065 -0.077421 -0.0245366 255 0 0
0.0495036 -0.0746077 -0.0254599 255 0 0
0.0509047 -0.0750364 -0.0254081 255 0 0
0.0527205 -0.0749956 -0.0251388 255 0 0
0.0554067 -0.0745963 -0.0254264 255 0 0
0.0570266 -0.0752348 -0.0250629 255 0 0
0.0584727 -0.0751917 -0.0244999 255 0 0
0.0653613 -0.0754015 -0.0254107 255 0 0
0.0669133 -0.0750618 -0.0242975 255 0 0
0.0690934 -0.0745222 -0.0251478 255 0 0
0.0714432 -0.0742462 -0.0254275 255 0 0
0.0731356 -0.074779 -0.0253632 255 0 0
0.0748134 -0.0750551 -0.0249466 255 0 0
0.0763746 -0.0751892 -0.024126 255 0 0
0.0491066 -0.0732585 -0.0256095 255 0 0
0.0511218 -0.0733387 -0.0246141 255 0 0
0.0534044 -0.0731322 -0.0243142 255 0 0
0.0552182 -0.0730589 -0.0256634 255 0 0
0.0569504 -0.0733028 -0.024662 255 0 0
0.0583198 -0.0734996 -0.0259781 255 0 0
0.0634878 -0.0725522 -0.0257171 255 0 0
0.0647723 -0.0733279 -0.0248444 255 0 0
0.0711728 -0.0737059 -0.0242811 255 0 0
0.0731563 -0.0738877 -0.02436 255 0 0
0.0488582 -0.0709927 -0.0252383 255 0 0
0.0501938 -0.0718473 -0.0246052 255 0 0
0.0550862 -0.0710763 -0.0250275 255 0 0
0.0565286 -0.0712954 -0.0249338 255 0 0
0.0631833 -0.0711255 -0.0248555 255 0 0
0.0476748 -0.069223 -0.0253496 255 0 0
0.0488153 -0.0687263 -0.0245595 255 0 0
0.0536062 -0.06918 -0.02561 255 0 0
0.054638 -0.0689149 -0.024769 255 0 0
0.0617218 -0.0686224 -0.0247812 255 0 0
0.0622796 -0.0697299 -0.0248663 255 0 0
0.0478079 -0.0674275 -0.0256346 255 0 0
0.0529866 -0.067157 -0.0250684 255 0 0
0.054678 -0.0665775 -0.0247925 255 0 0
0.060697 -0.0670093 -0.0252876 255 0 0
0.0470548 -0.0652041 -0.0246957 255 0 0
0.0511902 -0.0649157 -0.0252252 255 0 0
0.0594722 -0.0648832 -0.025012 255 0 0
0.0453595 -0.0634896 -0.025072 255 0 0
0.049056 -0.0635193 -0.0254456 255 0 0
0.0582508 -0.0627627 -0.0247373 255 0 0
0.0568987 -0.0606496 -0.0251487 255 0 0
0.0557695 -0.0591309 -0.025549 255 0 0
0.0560403 -0.0591321 -0.0241814 255 0 0
0.0555474 -0.0577729 -0.0257771 255 0 0
0.134724 -0.200226 -0.0222581 255 0 0
0.133899 -0.199168 -0.0231373 255 0 0
0.134464 -0.197449 -0.0230658 255 0 0
0.134893 -0.194859 -0.0228283 255 0 0
0.13518 -0.193486 -0.0233622 255 0 0
0.136156 -0.192298 -0.0228515 255 0 0
0.13672 -0.190583 -0.0227802 255 0 0
0.137848 -0.189224 -0.0235787 255 0 0
0.139667 -0.188831 -0.0232812 255 0 0
0.141204 -0.188261 -0.0225455 255 0 0
0.143889 -0.188666 -0.0224591 255 0 0
0.145015 -0.189914 -0.0220108 255 0 0
0.14606 -0.188182 -0.0237036 255 0 0
0.143352 -0.187776 -0.0237844 255 0 0
0.152779 -0.187025 -0.0236517 255 0 0
0.154694 -0.186363 -0.0232046 255 0 0
0.155394 -0.18526 -0.0232602 255 0 0
0.156569 -0.184243 -0.0223652 255 0 0
0.155745 -0.183502 -0.0239831 255 0 0
0.156571 -0.183038 -0.0230578 255 0 0
0.155883 -0.180591 -0.0235099 255 0 0
0.156662 -0.1811 -0.0227434 255 0 0
0.157239 -0.178685 -0.0229746 255 0 0
0.153829 -0.177262 -0.0235667 255 0 0
0.15754 -0.17723 -0.0230503 255 0 0
0.158365 -0.176775 -0.0221247 255 0 0
0.153958 -0.174675 -0.0231644 255 0 0
0.155 -0.175296 -0.0223459 255 0 0
0.157544 -0.176 -0.0237486 255 0 0
0.158375 -0.174927 -0.0231692 255 0 0
0.151374 -0.172246 -0.0231971 255 0 0
0.154193 -0.17307 -0.0234094 255 0 0
0.159209 -0.173235 -0.0229387 255 0 0
0.160039 -0.172163 -0.0223582 255 0 0
0.15242 -0.171058 -0.0229717 255 0 0
0.15484 -0.170956 -0.0229664 255 0 0
0.157906 -0.171839 -0.0237249 255 0 0
0.159233 -0.170976 -0.0232071 255 0 0
0.160876 -0.170467 -0.0221269 255 0 0
0.151274 -0.168746 -0.0239623 255 0 0
0.153219 -0.168866 -0.0233566 255 0 0
0.15657 -0.168333 -0.022882 255 0 0
0.15971 -0.169046 -0.0236365 255 0 0
0.1608 -0.169096 -0.0228493 255 0 0
0.151308 -0.166988 -0.0232661 255 0 0
0.155189 -0.166822 -0.0238029 255 0 0
0.156703 -0.167036 -0.022477 255 0 0
0.159193 -0.166973 -0.0229588 255 0 0
0.160981 -0.167259 -0.0225087 255 0 0
0.162686 -0.166605 -0.0228153 255 0 0
0.155783 -0.165304 -0.0235575 255 0 0
0.157382 -0.165077 -0.0231969 255 0 0
0.158989 -0.165233 -0.0232649 255 0 0
0.160327 -0.165054 -0.0221044 255 0 0
0.163007 -0.165174 -0.0233662 255 0 0
0.15551 -0.162712 -0.0238473 255 0 0
0.157016 -0.163147 -0.0232261 255 0 0
0.158733 -0.162834 -0.0225956 255 0 0
0.160101 -0.1638 -0.0224889 255 0 0
0.164498 -0.163363 -0.0225852 255 0 0
0.155017 -0.160928 -0.0234198 255 0 0
0.157321 -0.161162 -0.0228428 255 0 0
0.159392 -0.160817 -0.0231281 255 0 0
0.164484 -0.160998 -0.0227407 255 0 0
0.153435 -0.159056 -0.0231118 255 0 0
0.155246 -0.159022 -0.0227498 255 0 0
0.156425 -0.15967 -0.0225861 255 0 0
0.159887 -0.158683 -0.0227441 255 0 0
0.163973 -0.159239 -0.023155 255 0 0
0.151641 -0.156846 -0.0230892 255 0 0
0.152973 -0.157821 -0.0231816 255 0 0
0.155199 -0.157103 -0.0225043 255 0 0
0.159779 -0.157231 -0.023009 255 0 0
0.150955 -0.155637 -0.0228459 255 0 0
0.153436 -0.15468 -0.0234295 255 0 0
0.154507 -0.155857 -0.0224372 255 0 0
0.161232 -0.154662 -0.0226449 255 0 0
0.148332 -0.153856 -0.0237469 255 0 0
0.150674 -0.15236 -0.0229687 255 0 0
0.15292 -0.153135 -0.0228569 255 0 0
0.159337 -0.152787 -0.0230936 255 0 0
0.147187 -0.150851 -0.0237062 255 0 0
0.14903 -0.150945 -0.0238425 255 0 0
0.151143 -0.151143 -0.0227152 255 0 0
0.152212 -0.151253 -0.0225576 255 0 0
0.139333 -0.148641 -0.0234308 255 0 0
0.14129 -0.14904 -0.0228219 255 0 0
0.142859 -0.149474 -0.0231954 255 0 0
0.14499 -0.149372 -0.0227122 255 0 0
0.146884 -0.14801 -0.0226073 255 0 0
0.149001 -0.148966 -0.0229638 255 0 0
0.150743 -0.148782 -0.0228878 255 0 0
0.136625 -0.146122 -0.0234364 255 0 0
0.138542 -0.146829 -0.0233786 255 0 0
0.143028 -0.147874 -0.022037 255 0 0
0.148938 -0.146819 -0.0229701 255 0 0
0.133662 -0.144316 -0.0226427 255 0 0
0.140051 -0.144022 -0.0234254 255 0 0
0.145275 -0.144553 -0.0239164 255 0 0
0.14724 -0.144804 -0.0230871 255 0 0
0.148243 -0.145567 -0.0229029 255 0 0
0.127394 -0.142471 -0.0229739 255 0 0
0.129269 -0.143163 -0.0229133 255 0 0
0.132163 -0.143543 -0.0233141 255 0 0
0.137851 -0.142437 -0.0221537 255 0 0
0.143001 -0.142573 -0.0234672 255 0 0
0.145064 -0.143185 -0.0228277 255 0 0
0.125209 -0.141202 -0.0229158 255 0 0
0.141347 -0.140891 -0.0234593 255 0 0
0.143085 -0.141035 -0.0224854 255 0 0
0.122808 -0.139341 -0.022894 255 0 0
0.132877 -0.139848 -0.0226762 255 0 0
0.137502 -0.138527 -0.0234646 255 0 0
0.139385 -0.138756 -0.0231183 255 0 0
0.140989 -0.139161 -0.0226653 255 0 0
0.120697 -0.137173 -0.0230858 255 0 0
0.135843 -0.136229 -0.0232293 255 0 0
0.136726 -0.137034 -0.023012 255 0 0
0.138738 -0.137203 -0.022222 255 0 0
0.119272 -0.134973 -0.0231184 255 0 0
0.120082 -0.13553 -0.0223751 255 0 0
0.135155 -0.134992 -0.0231637 255 0 0
0.151159 -0.135213 -0.0230609 255 0 0
0.119719 -0.132994 -0.023413 255 0 0
0.121362 -0.132325 -0.0226671 255 0 0
0.133425 -0.132367 -0.0235274 255 0 0
0.134874 -0.133308 -0.0226842 255 0 0
0.149739 -0.132553 -0.0228521 255 0 0
0.150645 -0.13383 -0.0230796 255 0 0
0.123558 -0.131501 -0.0228267 255 0 0
0.133371 -0.131092 -0.02307 255 0 0
0.134081 -0.13139 -0.0220786 255 0 0
0.147092 -0.130805 -0.0228839 255 0 0
0.148448 -0.131388 -0.0223804 255 0 0
0.113965 -0.128538 -0.0230095 255 0 0
0.115202 -0.129703 -0.0229999 255 0 0
0.132865 -0.129072 -0.0228522 255 0 0
0.144014 -0.129756 -0.0236423 255 0 0
0.146863 -0.128862 -0.0237682 255 0 0
0.148198 -0.128407 -0.0229081 255 0 0
0.106901 -0.12636 -0.0238013 255 0 0
0.109073 -0.126177 -0.0236251 255 0 0
0.111737 -0.126308 -0.0234335 255 0 0
0.112734 -0.12738 -0.0230192 255 0 0
0.131225 -0.127029 -0.0234728 255 0 0
0.132216 -0.12714 -0.0225825 255 0 0
0.148878 -0.127141 -0.0224266 255 0 0
0.107155 -0.124873 -0.022684 255 0 0
0.109342 -0.124421 -0.0230319 255 0 0
0.110535 -0.125045 -0.0227289 255 0 0
0.11317 -0.124557 -0.0236398 255 0 0
0.114547 -0.124013 -0.0236455 255 0 0
0.124267 -0.124248 -0.0233263 255 0 0
0.129593 -0.125372 -0.0234661 255 0 0
0.130861 -0.125291 -0.0226802 255 0 0
0.132161 -0.125854 -0.0221219 255 0 0
0.147493 -0.124773 -0.0233245 255 0 0
0.148508 -0.125177 -0.0220813 255 0 0
0.105161 -0.122962 -0.0232601 255 0 0
0.106918 -0.122923 -0.0223415 255 0 0
0.108098 -0.122702 -0.022633 255 0 0
0.111426 -0.122479 -0.0222795 255 0 0
0.112896 -0.123273 -0.0228101 255 0 0
0.115304 -0.12233 -0.0234174 255 0 0
0.12101 -0.123175 -0.0232462 255 0 0
0.122444 -0.123387 -0.0224182 255 0 0
0.125396 -0.122744 -0.0230915 255 0 0
0.127085 -0.123011 -0.0226917 255 0 0
0.128952 -0.123827 -0.0225711 255 0 0
0.146913 -0.122634 -0.0234761 255 0 0
0.148382 -0.123671 -0.0223456 255 0 0
0.103521 -0.120904 -0.0232444 255 0 0
0.104686 -0.121106 -0.0224742 255 0 0
0.106994 -0.121469 -0.0222297 255 0 0
0.108554 -0.121657 -0.0221822 255 0 0
0.110811 -0.121355 -0.0220495 255 0 0
0.112893 -0.120979 -0.0222283 255 0 0
0.114819 -0.120706 -0.0228466 255 0 0
0.116993 -0.120936 -0.022956 255 0 0
0.118546 -0.12184 -0.0228754 255 0 0
0.120947 -0.120324 -0.0230912 255 0 0
0.122787 -0.120502 -0.0222732 255 0 0
0.124446 -0.12134 -0.023064 255 0 0
0.101487 -0.11879 -0.0230439 255 0 0
0.102973 -0.119088 -0.0223131 255 0 0
0.104606 -0.119316 -0.0226229 255 0 0
0.106597 -0.119556 -0.0230029 255 0 0
0.111973 -0.118419 -0.0237134 255 0 0
0.112993 -0.11893 -0.0223408 255 0 0
0.117852 -0.119872 -0.0220123 255 0 0
0.119734 -0.119792 -0.0231695 255 0 0
0.0999568 -0.11625 -0.0231008 255 0 0
0.101064 -0.117151 -0.0230346 255 0 0
0.103065 -0.116741 -0.022589 255 0 0
0.10465 -0.117465 -0.02382 255 0 0
0.110482 -0.116793 -0.0231752 255 0 0
0.112421 -0.117281 -0.0222213 255 0 0
0.0996649 -0.115005 -0.0234625 255 0 0
0.101123 -0.114867 -0.0225578 255 0 0
0.102491 -0.115253 -0.0224828 255 0 0
0.104139 -0.115584 -0.0222633 255 0 0
0.10861 -0.1146 -0.0225376 255 0 0
0.111607 -0.114863 -0.0225051 255 0 0
0.0994607 -0.112894 -0.0235463 255 0 0
0.100829 -0.11317 -0.0227941 255 0 0
0.102778 -0.113075 -0.0225624 255 0 0
0.10572 -0.112499 -0.0222878 255 0 0
0.106956 -0.113217 -0.0223372 255 0 0
0.095408 -0.110814 -0.0239594 255 0 0
0.0968322 -0.110669 -0.0223096 255 0 0
0.0990207 -0.111386 -0.023372 255 0 0
0.101003 -0.11101 -0.0231384 255 0 0
0.102622 -0.110939 -0.022456 255 0 0
0.10505 -0.110723 -0.0223882 255 0 0
0.107018 -0.110593 -0.0223407 255 0 0
0.0910234 -0.108993 -0.0230922 255 0 0
0.0931188 -0.109045 -0.022809 255 0 0
0.0968462 -0.108014 -0.0235689 255 0 0
0.0992389 -0.108829 -0.023241 255 0 0
0.100789 -0.109144 -0.0228391 255 0 0
0.102653 -0.109208 -0.022904 255 0 0
0.10508 -0.108663 -0.0229263 255 0 0
0.106688 -0.109354 -0.0221273 255 0 0
0.0890534 -0.106658 -0.0225125 255 0 0
0.0910509 -0.107352 -0.0220577 255 0 0
0.0944952 -0.106309 -0.0234068 255 0 0
0.0971298 -0.107216 -0.0227634 255 0 0
0.0989501 -0.107187 -0.0222018 255 0 0
0.101325 -0.107513 -0.0223261 255 0 0
0.10326 -0.107014 -0.0225135 255 0 0
0.105119 -0.107267 -0.0222607 255 0 0
0.107232 -0.106817 -0.0225376 255 0 0
0.0874209 -0.105396 -0.0237105 255 0 0
0.0886557 -0.104841 -0.0228589 255 0 0
0.0929239 -0.104975 -0.0229946 255 0 0
0.095 -0.105471 -0.0222686 255 0 0
0.0999604 -0.104298 -0.0228582 255 0 0
0.101015 -0.105298 -0.023284 255 0 0
0.105733 -0.104233 -0.0226937 255 0 0
0.106182 -0.105423 -0.0226265 255 0 0
0.088701 -0.102851 -0.0229852 255 0 0
0.0910705 -0.103104 -0.0224714 255 0 0
0.098524 -0.102487 -0.0229324 255 0 0
0.0896633 -0.1006 -0.0223695 255 0 0
0.0977172 -0.100888 -0.0230897 255 0 0
0.088935 -0.0988169 -0.0231275 255 0 0
0.0904657 -0.0985083 -0.0230456 255 0 0
0.0928656 -0.0987452 -0.0224743 255 0 0
0.0968425 -0.0991086 -0.0221697 255 0 0
0.0872378 -0.0965097 -0.0233434 255 0 0
0.0886585 -0.0970593 -0.0227657 255 0 0
0.0907437 -0.0970569 -0.0227559 255 0 0
0.0853905 -0.0946886 -0.0235914 255 0 0
0.0872273 -0.0951702 -0.0224638 255 0 0
0.0886433 -0.0956291 -0.0220771 255 0 0
0.0916934 -0.0954802 -0.0235847 255 0 0
0.0938754 -0.0955127 -0.0234978 255 0 0
0.0838873 -0.0922056 -0.023466 255 0 0
0.0849636 -0.0929307 -0.0229009 255 0 0
0.0864695 -0.0936064 -0.0226016 255 0 0
0.0815841 -0.090379 -0.0230181 255 0 0
0.0826586 -0.0912458 -0.0229511 255 0 0
0.0844381 -0.0912534 -0.0226878 255 0 0
0.0860125 -0.0904177 -0.0232559 255 0 0
0.0795666 -0.0885526 -0.0234425 255 0 0
0.0805328 -0.0890609 -0.0230124 255 0 0
0.0831586 -0.0889673 -0.0229826 255 0 0
0.0849958 -0.0895385 -0.0222418 255 0 0
0.0789971 -0.0868749 -0.0231362 255 0 0
0.0818087 -0.0865063 -0.0234543 255 0 0
0.0825419 -0.0869717 -0.0228838 255 0 0
0.0843968 -0.0870385 -0.0224701 255 0 0
0.0574857 -0.0845812 -0.0239778 255 0 0
0.0585142 -0.0849778 -0.022847 255 0 0
0.0772361 -0.0850241 -0.0233872 255 0 0
0.0790898 -0.0850307 -0.0233656 255 0 0
0.0808654 -0.0849326 -0.0228247 255 0 0
0.0827121 -0.0852599 -0.022553 255 0 0
0.0846117 -0.0847837 -0.0221635 255 0 0
0.0573453 -0.0826991 -0.0235537 255 0 0
0.0585105 -0.0831153 -0.0227815 255 0 0
0.0710828 -0.0826191 -0.0228889 255 0 0
0.0727586 -0.0831078 -0.023203 255 0 0
0.0753196 -0.08305 -0.0230964 255 0 0
0.0767467 -0.0830778 -0.0228337 255 0 0
0.0782108 -0.0835399 -0.0225943 255 0 0
0.0805251 -0.0833805 -0.0226192 255 0 0
0.0828928 -0.0830319 -0.0229649 255 0 0
0.0570015 -0.0813293 -0.0238867 255 0 0
0.0585748 -0.0812691 -0.0228967 255 0 0
0.0632985 -0.0807776 -0.0239494 255 0 0
0.0651191 -0.080659 -0.0233409 255 0 0
0.0668816 -0.0810997 -0.0235537 255 0 0
0.0688808 -0.0808247 -0.0233715 255 0 0
0.0708886 -0.0805466 -0.0231879 255 0 0
0.0728451 -0.0809712 -0.0230461 255 0 0
0.0747664 -0.0807856 -0.0231221 255 0 0
0.077827 -0.0813486 -0.0238248 255 0 0
0.0793598 -0.0809985 -0.0232045 255 0 0
0.0805103 -0.0813679 -0.0231429 255 0 0
0.0831908 -0.0812536 -0.0224402 255 0 0
0.0588102 -0.0791826 -0.0228114 255 0 0
0.0627233 -0.0787136 -0.0232116 255 0 0
0.0646714 -0.0791047 -0.0232388 255 0 0
0.0669873 -0.0793859 -0.0227846 255 0 0
0.0697377 -0.079182 -0.023276 255 0 0
0.0710725 -0.0792656 -0.0227059 255 0 0
0.0748295 -0.0786358 -0.0233024 255 0 0
0.0770666 -0.0793968 -0.0227729 255 0 0
0.0792719 -0.0788613 -0.0234597 255 0 0
0.0810873 -0.0791518 -0.0225971 255 0 0
0.0823578 -0.0795228 -0.0221094 255 0 0
0.0591457 -0.0769396 -0.0228926 255 0 0
0.0608112 -0.0766604 -0.023103 255 0 0
0.063118 -0.077307 -0.0226194 255 0 0
0.0656395 -0.0778937 -0.022331 255 0 0
0.0687344 -0.0762112 -0.0236931 255 0 0
0.0711131 -0.0771183 -0.022738 255 0 0
0.0735298 -0.0772074 -0.0228007 255 0 0
0.0745017 -0.0774087 -0.0226204 255 0 0
0.0768987 -0.0771399 -0.0229287 255 0 0
0.0790677 -0.0770276 -0.0230663 255 0 0
0.0592779 -0.0746309 -0.0233901 255 0 0
0.0609962 -0.0750916 -0.0224456 255 0 0
0.0631545 -0.075874 -0.0229175 255 0 0
0.0649598 -0.0753286 -0.0232458 255 0 0
0.0672794 -0.0743439 -0.0230649 255 0 0
0.0688201 -0.0750192 -0.0232788 255 0 0
0.0705847 -0.0745423 -0.0222909 255 0 0
0.0731023 -0.0752993 -0.0222353 255 0 0
0.0767605 -0.0745838 -0.0234822 255 0 0
0.0791811 -0.0754257 -0.0224603 255 0 0
0.0553432 -0.0729025 -0.0230678 255 0 0
0.0573977 -0.0726931 -0.0233716 255 0 0
0.0588321 -0.0730391 -0.0229511 255 0 0
0.0606408 -0.0730586 -0.0221463 255 0 0
0.0620567 -0.0730176 -0.0221046 255 0 0
0.0654985 -0.0729916 -0.0238842 255 0 0
0.0667795 -0.072582 -0.0228063 255 0 0
0.0687623 -0.0734445 -0.0225542 255 0 0
0.0700813 -0.0735951 -0.0233658 255 0 0
0.072379 -0.0726744 -0.0234165 255 0 0
0.0748271 -0.0729309 -0.0233462 255 0 0
0.077187 -0.0732156 -0.0226663 255 0 0
0.0784502 -0.0735758 -0.0221779 255 0 0
0.0499482 -0.0700294 -0.0238353 255 0 0
0.0512108 -0.0713414 -0.0234608 255 0 0
0.0528852 -0.0712865 -0.0228366 255 0 0
0.0566497 -0.0708207 -0.0233063 255 0 0
0.0585847 -0.071397 -0.0222864 255 0 0
0.061625 -0.0718788 -0.02217 255 0 0
0.0636912 -0.0704933 -0.0233061 255 0 0
0.0646242 -0.070955 -0.0227929 255 0 0
0.0714092 -0.0716985 -0.0223798 255 0 0
0.0735938 -0.0716348 -0.0225457 255 0 0
0.0754424 -0.071281 -0.022349 255 0 0
0.0498295 -0.0682275 -0.0234199 255 0 0
0.050248 -0.0690847 -0.0220085 255 0 0
0.055438 -0.068597 -0.0230689 255 0 0
0.0568919 -0.0694629 -0.0225553 255 0 0
0.0618744 -0.0689323 -0.0222639 255 0 0
0.062788 -0.0696278 -0.0229103 255 0 0
0.0488715 -0.0667637 -0.0232991 255 0 0
0.0533541 -0.0665828 -0.0229505 255 0 0
0.055029 -0.0670717 -0.0229907 255 0 0
0.0561061 -0.0679132 -0.0227144 255 0 0
0.0609808 -0.0670764 -0.0231261 255 0 0
0.0477599 -0.0647165 -0.0226938 255 0 0
0.048548 -0.0655739 -0.0223296 255 0 0
0.052262 -0.0650155 -0.0234704 255 0 0
0.055331 -0.0649052 -0.0228763 255 0 0
0.0595137 -0.0650424 -0.0234342 255 0 0
0.0601117 -0.0655432 -0.0221619 255 0 0
0.0451687 -0.0621641 -0.0230916 255 0 0
0.0466352 -0.0629893 -0.0229269 255 0 0
0.0492491 -0.0633609 -0.02309 255 0 0
0.0508456 -0.0638688 -0.0230159 255 0 0
0.0585338 -0.0625604 -0.022917 255 0 0
0.0576337 -0.0611537 -0.023191 255 0 0
0.0555153 -0.0581249 -0.0233127 255 0 0
0.0568615 -0.059466 -0.0231165 255 0 0
0.0549659 -0.057032 -0.0232286 255 0 0
0.0543155 -0.0555482 -0.0229248 255 0 0
0.135701 -0.199036 -0.0217474 255 0 0
0.137784 -0.199096 -0.0207895 255 0 0
0.140158 -0.199349 -0.0202614 255 0 0
0.135573 -0.196602 -0.0216834 255 0 0
0.137165 -0.197253 -0.020982 255 0 0
0.13876 -0.197906 -0.020279 255 0 0
0.140022 -0.196905 -0.0201995 255 0 0
0.137035 -0.194822 -0.020919 255 0 0
0.138628 -0.195471 -0.0202172 255 0 0
0.140731 -0.195278 -0.0203445 255 0 0
0.137327 -0.192672 -0.0215022 255 0 0
0.139266 -0.192634 -0.0203306 255 0 0
0.13893 -0.190984 -0.0209534 255 0 0
0.140889 -0.190686 -0.0208673 255 0 0
0.142859 -0.190387 -0.0207815 255 0 0
0.138107 -0.189927 -0.021831 255 0 0
0.142032 -0.189324 -0.0216634 255 0 0
0.156977 -0.185211 -0.0212179 255 0 0
0.157282 -0.182809 -0.021084 255 0 0
0.157527 -0.180885 -0.0209753 255 0 0
0.152126 -0.178716 -0.0209836 255 0 0
0.157595 -0.179438 -0.0207409 255 0 0
0.153169 -0.17683 -0.020498 255 0 0
0.158656 -0.177158 -0.0211623 255 0 0
0.153132 -0.17501 -0.0214659 255 0 0
0.154103 -0.174562 -0.0203759 255 0 0
0.159489 -0.174866 -0.021277 255 0 0
0.160837 -0.174188 -0.0200496 255 0 0
0.15464 -0.17283 -0.0207096 255 0 0
0.157134 -0.172973 -0.0215328 255 0 0
0.160928 -0.172953 -0.0208427 255 0 0
0.153353 -0.170946 -0.0212953 255 0 0
0.155182 -0.171082 -0.0210449 255 0 0
0.159095 -0.171406 -0.0214202 255 0 0
0.161223 -0.170838 -0.0211983 255 0 0
0.16298 -0.170807 -0.0202047 255 0 0
0.153374 -0.16883 -0.0217969 255 0 0
0.154942 -0.16915 -0.0209454 255 0 0
0.156198 -0.168723 -0.0205504 255 0 0
0.161718 -0.169038 -0.0215828 255 0 0
0.162779 -0.168715 -0.0209159 255 0 0
0.165203 -0.168286 -0.0202226 255 0 0
0.152875 -0.167489 -0.0218154 255 0 0
0.154967 -0.167018 -0.0214485 255 0 0
0.156854 -0.166738 -0.0208 255 0 0
0.162315 -0.167076 -0.0213494 255 0 0
0.165024 -0.166671 -0.0210836 255 0 0
0.154465 -0.165669 -0.021467 255 0 0
0.157204 -0.164921 -0.0207809 255 0 0
0.161145 -0.165245 -0.0208285 255 0 0
0.164844 -0.165054 -0.0219458 255 0 0
0.16668 -0.164935 -0.0205265 255 0 0
0.159031 -0.162638 -0.0207368 255 0 0
0.160453 -0.163392 -0.0209327 255 0 0
0.165838 -0.163847 -0.0214257 255 0 0
0.166163 -0.162355 -0.0200182 255 0 0
0.15752 -0.160453 -0.0212248 255 0 0
0.158836 -0.161491 -0.0213193 255 0 0
0.165323 -0.16127 -0.0209146 255 0 0
0.154454 -0.158434 -0.0214111 255 0 0
0.156349 -0.159111 -0.0210171 255 0 0
0.160665 -0.158844 -0.0208541 255 0 0
0.164812 -0.15871 -0.0204063 255 0 0
0.153249 -0.15691 -0.0210366 255 0 0
0.155573 -0.156295 -0.0209363 255 0 0
0.15662 -0.157687 -0.0205038 255 0 0
0.160616 -0.15687 -0.0209783 255 0 0
0.163975 -0.157628 -0.0213 255 0 0
0.151533 -0.155078 -0.0205307 255 0 0
0.154526 -0.154902 -0.0213692 255 0 0
0.153372 -0.152823 -0.0212569 255 0 0
0.154545 -0.153948 -0.0203011 255 0 0
0.151432 -0.150355 -0.0205711 255 0 0
0.153113 -0.151143 -0.0207692 255 0 0
0.14475 -0.148619 -0.0216693 255 0 0
0.149678 -0.148314 -0.0216274 255 0 0
0.151019 -0.148919 -0.0215541 255 0 0
0.152377 -0.149261 -0.0209492 255 0 0
0.139429 -0.147706 -0.0217822 255 0 0
0.14089 -0.147198 -0.0217896 255 0 0
0.143653 -0.147499 -0.0208165 255 0 0
0.145557 -0.146921 -0.0214374 255 0 0
0.14733 -0.146704 -0.0209125 255 0 0
0.148556 -0.147188 -0.0207683 255 0 0
0.150698 -0.147357 -0.0207433 255 0 0
0.133713 -0.144067 -0.0205247 255 0 0
0.13516 -0.145088 -0.0219719 255 0 0
0.136657 -0.14586 -0.0213016 255 0 0
0.149223 -0.145417 -0.0211397 255 0 0
0.130993 -0.143011 -0.0207716 255 0 0
0.145613 -0.142476 -0.0218873 255 0 0
0.14719 -0.143377 -0.0210692 255 0 0
0.124757 -0.140551 -0.0214466 255 0 0
0.128095 -0.141999 -0.0207186 255 0 0
0.135953 -0.140979 -0.0213197 255 0 0
0.143631 -0.140326 -0.0215466 255 0 0
0.145402 -0.141107 -0.0207975 255 0 0
0.122926 -0.139124 -0.0208004 255 0 0
0.134614 -0.139743 -0.0213309 255 0 0
0.14101 -0.138212 -0.0216024 255 0 0
0.142847 -0.13882 -0.0210899 255 0 0
0.144602 -0.139172 -0.020185 255 0 0
0.121245 -0.137026 -0.0207849 255 0 0
0.139047 -0.136079 -0.0212642 255 0 0
0.140674 -0.137116 -0.0210377 255 0 0
0.153189 -0.136024 -0.0205774 255 0 0
0.120574 -0.135243 -0.0208854 255 0 0
0.137242 -0.134851 -0.0210693 255 0 0
0.139066 -0.135133 -0.0202041 255 0 0
0.140985 -0.135988 -0.0200766 255 0 0
0.15172 -0.134979 -0.0217064 255 0 0
0.15228 -0.134745 -0.0203527 255 0 0
0.120999 -0.133744 -0.0212508 255 0 0
0.122907 -0.133005 -0.0209551 255 0 0
0.135478 -0.132927 -0.0211541 255 0 0
0.136451 -0.133986 -0.021322 255 0 0
0.151091 -0.133093 -0.0211984 255 0 0
0.135292 -0.131177 -0.0207051 255 0 0
0.149396 -0.131048 -0.021274 255 0 0
0.150799 -0.131343 -0.0202774 255 0 0
0.134513 -0.129174 -0.0210823 255 0 0
0.149553 -0.129441 -0.02086 255 0 0
0.13368 -0.126663 -0.0210131 255 0 0
0.134205 -0.127362 -0.0207975 255 0 0
0.149319 -0.127943 -0.0202021 255 0 0
0.130909 -0.124816 -0.0214948 255 0 0
0.132905 -0.125308 -0.0211562 255 0 0
0.107777 -0.122565 -0.0214578 255 0 0
0.109167 -0.12313 -0.0217805 255 0 0
0.110418 -0.122546 -0.0211294 255 0 0
0.120639 -0.122534 -0.0215194 255 0 0
0.125936 -0.122498 -0.021826 255 0 0
0.127459 -0.12222 -0.0211428 255 0 0
0.129013 -0.123056 -0.0212151 255 0 0
0.130315 -0.123141 -0.0201267 255 0 0
0.105707 -0.120689 -0.0218856 255 0 0
0.106986 -0.120863 -0.0212346 255 0 0
0.108795 -0.121381 -0.0214043 255 0 0
0.110147 -0.120867 -0.0212067 255 0 0
0.117462 -0.120732 -0.0208298 255 0 0
0.119176 -0.121576 -0.0208559 255 0 0
0.122928 -0.12055 -0.0208641 255 0 0
0.12463 -0.121448 -0.0206882 255 0 0
0.126581 -0.121518 -0.0203822 255 0 0
0.105399 -0.119019 -0.0213389 255 0 0
0.107325 -0.118602 -0.0214715 255 0 0
0.10868 -0.119465 -0.0212199 255 0 0
0.111334 -0.119091 -0.0218547 255 0 0
0.113101 -0.118699 -0.0210806 255 0 0
0.11576 -0.119893 -0.020804 255 0 0
0.117106 -0.119525 -0.0206815 255 0 0
0.119325 -0.119592 -0.0213392 255 0 0
0.121105 -0.119752 -0.02099 255 0 0
0.103327 -0.116907 -0.0218256 255 0 0
0.104652 -0.117071 -0.0212262 255 0 0
0.106997 -0.116765 -0.0213966 255 0 0
0.109166 -0.117018 -0.0213884 255 0 0
0.110583 -0.116932 -0.0215448 255 0 0
0.103573 -0.114704 -0.0218269 255 0 0
0.104611 -0.115095 -0.0210723 255 0 0
0.107074 -0.114991 -0.0212776 255 0 0
0.10906 -0.114819 -0.0213188 255 0 0
0.103828 -0.112804 -0.0215183 255 0 0
0.105119 -0.113016 -0.0206304 255 0 0
0.107101 -0.112645 -0.0213451 255 0 0
0.108931 -0.113224 -0.0218932 255 0 0
0.0982514 -0.110524 -0.020665 255 0 0
0.102801 -0.11125 -0.02153 255 0 0
0.104706 -0.11103 -0.0207388 255 0 0
0.106647 -0.111011 -0.0205689 255 0 0
0.108259 -0.111444 -0.0219937 255 0 0
0.0937753 -0.108319 -0.0207964 255 0 0
0.095296 -0.109488 -0.021549 255 0 0
0.0969099 -0.109402 -0.0202973 255 0 0
0.10127 -0.108526 -0.0216648 255 0 0
0.103253 -0.108888 -0.0211107 255 0 0
0.104685 -0.108749 -0.0211181 255 0 0
0.106136 -0.109534 -0.0202242 255 0 0
0.0913489 -0.106169 -0.0204505 255 0 0
0.0989643 -0.106336 -0.0218157 255 0 0
0.101272 -0.106454 -0.0213672 255 0 0
0.103311 -0.107325 -0.0208164 255 0 0
0.104814 -0.10648 -0.0210133 255 0 0
0.0895133 -0.104189 -0.0212457 255 0 0
0.0902412 -0.105128 -0.0204688 255 0 0
