ply
format ascii 1.0
element vertex 1243
property float x
property float y
property float z
property uchar diffuse_red
property uchar diffuse_green
property uchar diffuse_blue
end_header
0.0926492 -0.0966346 -0.0232094 255 0 0
0.0995031 -0.0964915 -0.0221385 255 0 0
0.100967 -0.0969702 -0.0230697 255 0 0
0.103142 -0.0978059 -0.0228125 255 0 0
0.105616 -0.0979308 -0.0223269 255 0 0
0.0812757 -0.0952477 -0.022245 255 0 0
0.0891779 -0.0950693 -0.0233738 255 0 0
0.0909318 -0.0949961 -0.0231528 255 0 0
0.0928197 -0.0942973 -0.0232048 255 0 0
0.0946832 -0.0954817 -0.0236393 255 0 0
0.0972995 -0.0948606 -0.0230921 255 0 0
0.0985807 -0.0956687 -0.0229826 255 0 0
0.0793749 -0.092482 -0.0234142 255 0 0
0.0805022 -0.0935715 -0.0220603 255 0 0
0.0850847 -0.0922632 -0.0229772 255 0 0
0.0869274 -0.0929607 -0.0230574 255 0 0
0.0887297 -0.0934334 -0.0228335 255 0 0
0.0906731 -0.0933468 -0.0225426 255 0 0
0.0926109 -0.0924496 -0.022639 255 0 0
0.0946768 -0.0935 -0.023399 255 0 0
0.096828 -0.0933807 -0.0232088 255 0 0
0.0990772 -0.0922768 -0.0239427 255 0 0
0.0772799 -0.0907416 -0.0236092 255 0 0
0.0784178 -0.0909979 -0.0228055 255 0 0
0.0834068 -0.0907705 -0.022614 255 0 0
0.0853245 -0.0911683 -0.0227645 255 0 0
0.0873331 -0.0912929 -0.0223502 255 0 0
0.0891341 -0.0919543 -0.0223462 255 0 0
0.0911794 -0.0917978 -0.0220289 255 0 0
0.0931227 -0.0909274 -0.0223798 255 0 0
0.0951195 -0.0909652 -0.0227276 255 0 0
0.0969855 -0.0907863 -0.0228582 255 0 0
0.10704 -0.0904245 -0.0233839 255 0 0
0.108336 -0.0910093 -0.0227015 255 0 0
0.0768271 -0.0892178 -0.0230156 255 0 0
0.0795027 -0.0881898 -0.022213 255 0 0
0.0811465 -0.0892186 -0.0224442 255 0 0
0.0832646 -0.0889937 -0.0233362 255 0 0
0.0841957 -0.0893658 -0.0225395 255 0 0
0.0932147 -0.0888789 -0.0223012 255 0 0
0.0951527 -0.0886334 -0.0223504 255 0 0
0.0970517 -0.0889704 -0.0225536 255 0 0
0.0988886 -0.0889948 -0.0226379 255 0 0
0.10078 -0.0895724 -0.0235702 255 0 0
0.10325 -0.0891987 -0.0237557 255 0 0
0.105191 -0.0891614 -0.023103 255 0 0
0.0749625 -0.0869052 -0.0231171 255 0 0
0.0762517 -0.0860651 -0.0238731 255 0 0
0.0794109 -0.0869165 -0.0231513 255 0 0
0.0818711 -0.0861349 -0.0234222 255 0 0
0.0826769 -0.0872059 -0.0228875 255 0 0
0.0937605 -0.0871189 -0.0221173 255 0 0
0.0953285 -0.0868886 -0.0221217 255 0 0
0.0970888 -0.0870723 -0.0222812 255 0 0
0.0989338 -0.0871148 -0.022335 255 0 0
0.101422 -0.087945 -0.0234757 255 0 0
0.102708 -0.0875116 -0.022676 255 0 0
0.0735594 -0.0848764 -0.0229569 255 0 0
0.0745562 -0.0851444 -0.0230542 255 0 0
0.078494 -0.0850746 -0.0232013 255 0 0
0.0813897 -0.0849662 -0.0226219 255 0 0
0.0823263 -0.0859624 -0.0221942 255 0 0
0.0931382 -0.0851082 -0.0223183 255 0 0
0.0945955 -0.0850917 -0.0220748 255 0 0
0.0968933 -0.0845527 -0.0221396 255 0 0
0.0980724 -0.0853773 -0.0221879 255 0 0
0.0689561 -0.0829112 -0.0224302 255 0 0
0.0712961 -0.0829224 -0.0230047 255 0 0
0.0728493 -0.0835233 -0.0233819 255 0 0
0.0775778 -0.0828467 -0.0233025 255 0 0
0.0789743 -0.083196 -0.02266 255 0 0
0.080455 -0.0839717 -0.0230488 255 0 0
0.0928916 -0.0833075 -0.0221904 255 0 0
0.0654947 -0.0800813 -0.0226023 255 0 0
0.0675055 -0.0805747 -0.0229544 255 0 0
0.0688171 -0.0813754 -0.0225686 255 0 0
0.0709728 -0.0819492 -0.0234275 255 0 0
0.0747408 -0.0802419 -0.0234901 255 0 0
0.076875 -0.0810852 -0.022948 255 0 0
0.0785738 -0.0815671 -0.0229527 255 0 0
0.091674 -0.0815196 -0.022225 255 0 0
0.0585906 -0.0781654 -0.0227242 255 0 0
0.0673906 -0.0798959 -0.0222897 255 0 0
0.0695333 -0.0787195 -0.0238997 255 0 0
0.0710314 -0.078512 -0.0233708 255 0 0
0.0731118 -0.0789209 -0.0228762 255 0 0
0.0751245 -0.0790691 -0.0224279 255 0 0
0.0677253 -0.0760127 -0.0221208 255 0 0
0.0692628 -0.0773657 -0.0227059 255 0 0
0.0708504 -0.077606 -0.0225718 255 0 0
0.0665014 -0.0749001 -0.022009 255 0 0
0.0487558 -0.0722105 -0.022135 255 0 0
0.0481068 -0.0710972 -0.0227774 255 0 0
0.0457526 -0.0681812 -0.0238013 255 0 0
0.0472949 -0.0691937 -0.0230041 255 0 0
0.0549942 -0.0680674 -0.0237784 255 0 0
0.0574459 -0.0690475 -0.0222612 255 0 0
0.0429224 -0.0670976 -0.023767 255 0 0
0.0451349 -0.0669836 -0.0234032 255 0 0
0.0462171 -0.067582 -0.022626 255 0 0
0.0529869 -0.0664011 -0.0239755 255 0 0
0.0571509 -0.0671185 -0.0231263 255 0 0
0.0587239 -0.0667578 -0.0225273 255 0 0
0.041456 -0.0647061 -0.0235216 255 0 0
0.0429757 -0.0650921 -0.0230472 255 0 0
0.0445188 -0.0657887 -0.0230059 255 0 0
0.0497493 -0.0656586 -0.0238762 255 0 0
0.0512965 -0.0648165 -0.0233599 255 0 0
0.0530729 -0.0652239 -0.0230025 255 0 0
0.0549484 -0.0645211 -0.0235931 255 0 0
0.0570781 -0.0648855 -0.0234272 255 0 0
0.0590955 -0.0650268 -0.0227475 255 0 0
0.0409104 -0.0634448 -0.0232763 255 0 0
0.0499661 -0.062622 -0.0238424 255 0 0
0.0507791 -0.0633298 -0.0230528 255 0 0
0.0532235 -0.0628508 -0.0225628 255 0 0
0.0556366 -0.0630587 -0.0228263 255 0 0
0.0571774 -0.0631262 -0.0230474 255 0 0
0.0590345 -0.0628329 -0.0228542 255 0 0
0.0493692 -0.0608371 -0.0231646 255 0 0
0.0512219 -0.0611965 -0.0227614 255 0 0
0.0531582 -0.0605379 -0.0223454 255 0 0
0.054967 -0.0616361 -0.0221733 255 0 0
0.056274 -0.0617648 -0.0229768 255 0 0
0.0473608 -0.0587886 -0.0231752 255 0 0
0.0483105 -0.0596898 -0.0229389 255 0 0
0.0557043 -0.0594032 -0.0230821 255 0 0
0.0459475 -0.056755 -0.0233831 255 0 0
0.0468187 -0.0573616 -0.0227786 255 0 0
0.0553144 -0.0573933 -0.0232693 255 0 0
0.0454827 -0.055622 -0.0233556 255 0 0
0.054439 -0.0548251 -0.0225521 255 0 0
0.0545375 -0.0527715 -0.0232859 255 0 0
0.0544504 -0.0510551 -0.0230581 255 0 0
0.0543625 -0.0493342 -0.0228267 255 0 0
0.0676352 -0.0431806 -0.0228165 255 0 0
0.0666915 -0.0410116 -0.0229268 255 0 0
0.0654932 -0.0395064 -0.0237216 255 0 0
0.0670568 -0.038738 -0.0227028 255 0 0
0.0663755 -0.0369708 -0.0231602 255 0 0
0.191241 -0.174182 -0.0217486 255 0 0
0.192256 -0.175603 -0.0219809 255 0 0
0.197177 -0.17402 -0.0213604 255 0 0
0.186638 -0.17346 -0.0209025 255 0 0
0.19108 -0.173056 -0.020703 255 0 0
0.192966 -0.17238 -0.0218132 255 0 0
0.195066 -0.173199 -0.0215871 255 0 0
0.196058 -0.1728 -0.0206712 255 0 0
0.180613 -0.17116 -0.0216699 255 0 0
0.186722 -0.17083 -0.0211923 255 0 0
0.190203 -0.171145 -0.0209427 255 0 0
0.193178 -0.171262 -0.0210709 255 0 0
0.180428 -0.169124 -0.0211961 255 0 0
0.18747 -0.168447 -0.0209453 255 0 0
0.189331 -0.168999 -0.0211509 255 0 0
0.190789 -0.169268 -0.0207476 255 0 0
0.179237 -0.167533 -0.0218328 255 0 0
0.180603 -0.166428 -0.0206892 255 0 0
0.187552 -0.166811 -0.0212774 255 0 0
0.188914 -0.166768 -0.0208507 255 0 0
0.155998 -0.164461 -0.0200555 255 0 0
0.180635 -0.164711 -0.0211814 255 0 0
0.185593 -0.165071 -0.0211284 255 0 0
0.186836 -0.165034 -0.020827 255 0 0
0.188863 -0.164789 -0.0206174 255 0 0
0.15527 -0.162743 -0.0213148 255 0 0
0.157243 -0.162887 -0.0204689 255 0 0
0.180502 -0.16297 -0.0206357 255 0 0
0.184812 -0.162929 -0.020846 255 0 0
0.188313 -0.163364 -0.0209888 255 0 0
0.155483 -0.160087 -0.021945 255 0 0
0.156543 -0.160763 -0.0208979 255 0 0
0.180622 -0.160836 -0.0208939 255 0 0
0.182887 -0.160948 -0.0210057 255 0 0
0.184095 -0.161277 -0.0207112 255 0 0
0.187636 -0.160039 -0.0202826 255 0 0
0.188414 -0.161178 -0.0211275 255 0 0
0.156432 -0.159155 -0.0213093 255 0 0
0.181155 -0.158993 -0.0210982 255 0 0
0.182634 -0.159957 -0.0202267 255 0 0
0.187604 -0.158512 -0.0207487 255 0 0
0.15546 -0.15668 -0.02056 255 0 0
0.179061 -0.15688 -0.0207254 255 0 0
0.180245 -0.156756 -0.0212805 255 0 0
0.186019 -0.157287 -0.0209319 255 0 0
0.176904 -0.154755 -0.0211516 255 0 0
0.179129 -0.155058 -0.0212732 255 0 0
0.185071 -0.154785 -0.0210369 255 0 0
0.157228 -0.152937 -0.0212463 255 0 0
0.173974 -0.152038 -0.0202263 255 0 0
0.175159 -0.15308 -0.0212278 255 0 0
0.176949 -0.152712 -0.0211503 255 0 0
0.183762 -0.152742 -0.0204101 255 0 0
0.169681 -0.150336 -0.0207239 255 0 0
0.171956 -0.151439 -0.0217039 255 0 0
0.172477 -0.151209 -0.0202702 255 0 0
0.175485 -0.150655 -0.0216304 255 0 0
0.176189 -0.15138 -0.0206548 255 0 0
0.183724 -0.151208 -0.0208751 255 0 0
0.158558 -0.149877 -0.0207009 255 0 0
0.160441 -0.148736 -0.0211077 255 0 0
0.166401 -0.148049 -0.021202 255 0 0
0.171438 -0.148573 -0.021017 255 0 0
0.174525 -0.149406 -0.0210908 255 0 0
0.182899 -0.149068 -0.0214324 255 0 0
0.161581 -0.147089 -0.0213627 255 0 0
0.163008 -0.146685 -0.0205202 255 0 0
0.168914 -0.146541 -0.0212091 255 0 0
0.173665 -0.147101 -0.0217052 255 0 0
0.174369 -0.147827 -0.0207287 255 0 0
0.180756 -0.147032 -0.0209829 255 0 0
0.163046 -0.145362 -0.0219738 255 0 0
0.164798 -0.144885 -0.0214842 255 0 0
0.166239 -0.144475 -0.0206372 255 0 0
0.173556 -0.144979 -0.0219229 255 0 0
0.17517 -0.144751 -0.0206941 255 0 0
0.177854 -0.144422 -0.0206265 255 0 0
0.179404 -0.145602 -0.0204437 255 0 0
0.165251 -0.142672 -0.0208272 255 0 0
0.174253 -0.14296 -0.0207312 255 0 0
0.176313 -0.143248 -0.0208083 255 0 0
0.158199 -0.140786 -0.0200604 255 0 0
0.165241 -0.141262 -0.0212129 255 0 0
0.17344 -0.141026 -0.0209931 255 0 0
0.175274 -0.141958 -0.0210823 255 0 0
0.156673 -0.138197 -0.021517 255 0 0
0.158929 -0.13909 -0.0208254 255 0 0
0.163384 -0.138632 -0.0210366 255 0 0
0.164856 -0.13964 -0.021729 255 0 0
0.171356 -0.138747 -0.0206908 255 0 0
0.172403 -0.139206 -0.0215564 255 0 0
0.150228 -0.136927 -0.0216626 255 0 0
0.152722 -0.136212 -0.0214955 255 0 0
0.161438 -0.136854 -0.0209291 255 0 0
0.16347 -0.136532 -0.0208458 255 0 0
0.170962 -0.13713 -0.0205432 255 0 0
0.159314 -0.135151 -0.0218884 255 0 0
0.161766 -0.134464 -0.0204832 255 0 0
0.163014 -0.135472 -0.0214665 255 0 0
0.164418 -0.134476 -0.0212865 255 0 0
0.168935 -0.13487 -0.0205256 255 0 0
0.170029 -0.135198 -0.0209278 255 0 0
0.159755 -0.132285 -0.021307 255 0 0
0.161008 -0.133279 -0.0201333 255 0 0
0.164806 -0.132766 -0.0209767 255 0 0
0.167247 -0.132314 -0.0201715 255 0 0
0.168245 -0.132998 -0.0212938 255 0 0
0.170456 -0.133531 -0.0214789 255 0 0
0.143357 -0.130707 -0.0212866 255 0 0
0.14507 -0.130902 -0.0210779 255 0 0
0.147995 -0.13104 -0.0211869 255 0 0
0.148955 -0.130673 -0.0203066 255 0 0
0.15659 -0.131312 -0.0202636 255 0 0
0.164822 -0.130703 -0.0207946 255 0 0
0.166537 -0.13158 -0.0211523 255 0 0
0.170482 -0.131187 -0.0211089 255 0 0
0.143041 -0.129157 -0.0211957 255 0 0
0.144369 -0.128796 -0.0205214 255 0 0
0.155546 -0.128195 -0.0216132 255 0 0
0.157732 -0.12816 -0.0210006 255 0 0
0.158807 -0.128695 -0.0201219 255 0 0
0.161067 -0.129252 -0.0209615 255 0 0
0.164617 -0.129463 -0.0214689 255 0 0
0.169708 -0.128672 -0.0212438 255 0 0
0.137842 -0.126429 -0.0219826 255 0 0
0.138738 -0.126834 -0.0206725 255 0 0
0.141378 -0.127898 -0.0212221 255 0 0
0.143411 -0.126932 -0.021621 255 0 0
0.153078 -0.12668 -0.0208421 255 0 0
0.154973 -0.127347 -0.0206031 255 0 0
0.162773 -0.126955 -0.0202484 255 0 0
0.165017 -0.127933 -0.0212286 255 0 0
0.167655 -0.12614 -0.021789 255 0 0
0.169164 -0.127262 -0.0216106 255 0 0
0.136477 -0.124866 -0.0210186 255 0 0
0.14262 -0.125143 -0.0203316 255 0 0
0.148882 -0.124487 -0.021332 255 0 0
0.150898 -0.125435 -0.0210904 255 0 0
0.160784 -0.124418 -0.0214851 255 0 0
0.166594 -0.125156 -0.0208962 255 0 0
0.135723 -0.12301 -0.0209677 255 0 0
0.141127 -0.122849 -0.0214458 255 0 0
0.142013 -0.123949 -0.0210611 255 0 0
0.144908 -0.123319 -0.0207475 255 0 0
0.147257 -0.122989 -0.0210058 255 0 0
0.162147 -0.122747 -0.0206288 255 0 0
0.164571 -0.123556 -0.0206323 255 0 0
0.13542 -0.121669 -0.0212378 255 0 0
0.139776 -0.120193 -0.0212295 255 0 0
0.140936 -0.121097 -0.0202345 255 0 0
0.143939 -0.121906 -0.021486 255 0 0
0.144444 -0.121694 -0.0201063 255 0 0
0.155484 -0.120224 -0.0207088 255 0 0
0.157836 -0.121008 -0.0207125 255 0 0
0.160213 -0.1218 -0.0207163 255 0 0
0.125477 -0.11867 -0.0210636 255 0 0
0.135688 -0.118509 -0.0209792 255 0 0
0.137537 -0.119408 -0.0209846 255 0 0
0.139017 -0.119428 -0.0207338 255 0 0
0.151299 -0.118532 -0.020791 255 0 0
0.153606 -0.1193 -0.0207949 255 0 0
0.121573 -0.11612 -0.0218932 255 0 0
0.126197 -0.116591 -0.0209741 255 0 0
0.132999 -0.117164 -0.0214279 255 0 0
0.134101 -0.117515 -0.0202985 255 0 0
0.137963 -0.117678 -0.0216552 255 0 0
0.147625 -0.116721 -0.0209606 255 0 0
0.149454 -0.117623 -0.0208761 255 0 0
0.119109 -0.114363 -0.0217895 255 0 0
0.125634 -0.114191 -0.0216293 255 0 0
0.126353 -0.114547 -0.0211719 255 0 0
0.128785 -0.114855 -0.0211957 255 0 0
0.130582 -0.115729 -0.0212005 255 0 0
0.134282 -0.114299 -0.0218327 255 0 0
0.136991 -0.114839 -0.0211437 255 0 0
0.140125 -0.11481 -0.0207729 255 0 0
0.142735 -0.11539 -0.0208638 255 0 0
0.14538 -0.115977 -0.020956 255 0 0
0.115179 -0.112441 -0.0219373 255 0 0
0.116308 -0.112001 -0.0210899 255 0 0
0.118766 -0.112957 -0.0211068 255 0 0
0.120881 -0.112746 -0.0209138 255 0 0
0.123479 -0.112771 -0.0208587 255 0 0
0.124459 -0.112683 -0.0212242 255 0 0
0.126708 -0.112793 -0.0206862 255 0 0
0.128884 -0.11317 -0.0208635 255 0 0
0.132537 -0.113278 -0.0212085 255 0 0
0.134603 -0.113822 -0.0205092 255 0 0
0.137063 -0.113189 -0.0206529 255 0 0
0.108938 -0.110453 -0.0210329 255 0 0
0.110577 -0.111274 -0.0210325 255 0 0
0.113101 -0.111758 -0.0208358 255 0 0
0.117619 -0.110961 -0.0207586 255 0 0
0.119392 -0.111017 -0.0215699 255 0 0
0.121 -0.110318 -0.0207089 255 0 0
0.122432 -0.11125 -0.0208134 255 0 0
0.124773 -0.11163 -0.0201698 255 0 0
0.136277 -0.111316 -0.0219222 255 0 0
0.105766 -0.108798 -0.0218925 255 0 0
0.106773 -0.109124 -0.020826 255 0 0
0.111187 -0.108179 -0.0214546 255 0 0
0.113078 -0.108551 -0.0213127 255 0 0
0.115244 -0.108425 -0.021191 255 0 0
0.117131 -0.109056 -0.0209592 255 0 0
0.119171 -0.109474 -0.0206059 255 0 0
0.120417 -0.109776 -0.0202179 255 0 0
0.134929 -0.109079 -0.0206517 255 0 0
0.101166 -0.106419 -0.0214509 255 0 0
0.102917 -0.106931 -0.0213647 255 0 0
0.104693 -0.107229 -0.0207676 255 0 0
0.107084 -0.107163 -0.0212374 255 0 0
0.108703 -0.107149 -0.0206338 255 0 0
0.110428 -0.107613 -0.0204481 255 0 0
0.116693 -0.106847 -0.020782 255 0 0
0.0928955 -0.104169 -0.0215732 255 0 0
0.0947779 -0.104602 -0.0217746 255 0 0
0.0972929 -0.104856 -0.0215436 255 0 0
0.0993168 -0.104798 -0.0208363 255 0 0
0.100871 -0.105208 -0.0206355 255 0 0
0.102274 -0.105867 -0.0204325 255 0 0
0.116841 -0.104426 -0.0207991 255 0 0
0.0855138 -0.1029 -0.0209355 255 0 0
0.0871352 -0.103058 -0.0205622 255 0 0
0.0890399 -0.103425 -0.0208954 255 0 0
0.0909512 -0.103353 -0.0210864 255 0 0
0.0931833 -0.102783 -0.0204339 255 0 0
0.0949934 -0.102918 -0.0212378 255 0 0
0.0971366 -0.102642 -0.0206102 255 0 0
0.0985835 -0.103063 -0.0212053 255 0 0
0.116356 -0.103168 -0.021126 255 0 0
0.083461 -0.101112 -0.0212266 255 0 0
0.0843289 -0.101703 -0.0206101 255 0 0
0.093267 -0.100211 -0.0216177 255 0 0
0.0948467 -0.101403 -0.020432 255 0 0
0.0964279 -0.101099 -0.0211256 255 0 0
0.115711 -0.100338 -0.021185 255 0 0
0.116197 -0.101597 -0.0208577 255 0 0
0.0827658 -0.0989216 -0.0210837 255 0 0
0.0932151 -0.0988121 -0.0207796 255 0 0
0.0942894 -0.0991499 -0.0210482 255 0 0
0.111026 -0.0980236 -0.0214183 255 0 0
0.113294 -0.0984674 -0.0215065 255 0 0
0.115005 -0.0990038 -0.0207916 255 0 0
0.0831428 -0.0966817 -0.0206431 255 0 0
0.0913016 -0.0967867 -0.0212048 255 0 0
0.0923751 -0.097424 -0.0210803 255 0 0
0.0997606 -0.0960385 -0.0209149 255 0 0
0.101556 -0.0966166 -0.0209174 255 0 0
0.103032 -0.0973583 -0.0208401 255 0 0
0.105885 -0.0974708 -0.0210836 255 0 0
0.108437 -0.0977453 -0.0212497 255 0 0
0.111306 -0.0975559 -0.0201553 255 0 0
0.113578 -0.097997 -0.020236 255 0 0
0.0817488 -0.0945305 -0.0209924 255 0 0
0.0827462 -0.0950027 -0.0206543 255 0 0
0.0895216 -0.0942897 -0.0216107 255 0 0
0.090936 -0.0953431 -0.021142 255 0 0
0.0971919 -0.0944215 -0.0211463 255 0 0
0.0983086 -0.0953071 -0.0209914 255 0 0
0.0799046 -0.0925398 -0.0217503 255 0 0
0.0808525 -0.092985 -0.0205299 255 0 0
0.0890499 -0.0929894 -0.0214181 255 0 0
0.0908599 -0.0926667 -0.0205223 255 0 0
0.0936481 -0.0923436 -0.0212854 255 0 0
0.0952601 -0.0923556 -0.0208881 255 0 0
0.0963681 -0.0932336 -0.0207322 255 0 0
0.0791331 -0.0908675 -0.0215664 255 0 0
0.0800818 -0.0913154 -0.0203467 255 0 0
0.0833625 -0.0904398 -0.0208474 255 0 0
0.084603 -0.0907504 -0.0214267 255 0 0
0.0868571 -0.0908399 -0.0214188 255 0 0
0.0890402 -0.0908219 -0.0206691 255 0 0
0.0910656 -0.0909673 -0.0206247 255 0 0
0.0933295 -0.0910412 -0.0207087 255 0 0
0.0952857 -0.0913505 -0.0218925 255 0 0
0.0771986 -0.0884632 -0.0212034 255 0 0
0.0782405 -0.0893268 -0.0211032 255 0 0
0.0809864 -0.0887175 -0.0207679 255 0 0
0.0830256 -0.0895087 -0.0212511 255 0 0
0.085401 -0.0895159 -0.0212492 255 0 0
0.0867577 -0.0893357 -0.0208892 255 0 0
0.0893312 -0.088671 -0.0213635 255 0 0
0.0912945 -0.088737 -0.0212284 255 0 0
0.0926064 -0.0892253 -0.0212513 255 0 0
0.105072 -0.0880023 -0.0218362 255 0 0
0.107013 -0.0889796 -0.021303 255 0 0
0.075569 -0.0865798 -0.0209944 255 0 0
0.0767241 -0.0870129 -0.021098 255 0 0
0.0790348 -0.0871161 -0.0210033 255 0 0
0.0801906 -0.0874855 -0.0214641 255 0 0
0.0834923 -0.086874 -0.0211516 255 0 0
0.0851744 -0.08745 -0.0203741 255 0 0
0.0873133 -0.0876544 -0.020622 255 0 0
0.0892289 -0.0864748 -0.0208127 255 0 0
0.0911382 -0.0871181 -0.0215241 255 0 0
0.0923845 -0.086641 -0.0215909 255 0 0
0.0952902 -0.0867154 -0.0217404 255 0 0
0.0991912 -0.0865256 -0.020789 255 0 0
0.100563 -0.0864727 -0.0219023 255 0 0
0.103348 -0.0866841 -0.0217277 255 0 0
0.105064 -0.08678 -0.0207405 255 0 0
0.073852 -0.0843223 -0.0211526 255 0 0
0.0749491 -0.0848759 -0.0212018 255 0 0
0.0761679 -0.0858072 -0.0216995 255 0 0
0.0787804 -0.0847895 -0.0210786 255 0 0
0.0824265 -0.0852492 -0.0208747 255 0 0
0.0872988 -0.0856939 -0.0203813 255 0 0
0.0888843 -0.0849663 -0.0205161 255 0 0
0.0906495 -0.0848606 -0.0207661 255 0 0
0.0932148 -0.0856951 -0.0209849 255 0 0
0.0949778 -0.0849246 -0.0210085 255 0 0
0.0971061 -0.0851192 -0.021101 255 0 0
0.0988037 -0.0849324 -0.0208197 255 0 0
0.101201 -0.0856496 -0.0209586 255 0 0
0.102698 -0.0850763 -0.0204893 255 0 0
0.0717248 -0.0827162 -0.0209216 255 0 0
0.0728568 -0.0831954 -0.0212574 255 0 0
0.0740372 -0.0832559 -0.0206296 255 0 0
0.0783274 -0.0829091 -0.0212272 255 0 0
0.0809143 -0.083101 -0.0212246 255 0 0
0.0875581 -0.082846 -0.0201265 255 0 0
0.0889058 -0.0834403 -0.020597 255 0 0
0.0931894 -0.08297 -0.0212075 255 0 0
0.0953241 -0.083274 -0.0217838 255 0 0
0.0966208 -0.0825801 -0.0216695 255 0 0
0.0692762 -0.0806385 -0.0210863 255 0 0
0.0709881 -0.0816314 -0.0209846 255 0 0
0.0770503 -0.0812129 -0.0210354 255 0 0
0.0793299 -0.0812836 -0.0209156 255 0 0
0.0890156 -0.081951 -0.0204355 255 0 0
0.0928842 -0.0808968 -0.0219655 255 0 0
0.0943444 -0.0808719 -0.021721 255 0 0
0.0564674 -0.0785178 -0.0213761 255 0 0
0.0630188 -0.0787392 -0.0205425 255 0 0
0.0648899 -0.0793159 -0.021312 255 0 0
0.0671421 -0.0790563 -0.0210029 255 0 0
0.0681114 -0.079569 -0.0207065 255 0 0
0.0751348 -0.0787991 -0.0210801 255 0 0
0.0768789 -0.0794364 -0.0210803 255 0 0
0.0535461 -0.0760379 -0.0201584 255 0 0
0.0547258 -0.0772653 -0.0206949 255 0 0
0.0585966 -0.0779541 -0.020622 255 0 0
0.0654972 -0.0768756 -0.020604 255 0 0
0.0660708 -0.0778766 -0.0209067 255 0 0
0.0685553 -0.0764417 -0.021364 255 0 0
0.0713913 -0.0764691 -0.0210716 255 0 0
0.0730371 -0.0771399 -0.0212331 255 0 0
0.0751103 -0.0775402 -0.0204032 255 0 0
0.0648174 -0.0748733 -0.0208 255 0 0
0.0669332 -0.0745857 -0.0209767 255 0 0
0.0683753 -0.0755407 -0.0205695 255 0 0
0.0712455 -0.0753225 -0.0210252 255 0 0
0.0726617 -0.0752919 -0.0201429 255 0 0
0.0493609 -0.0732985 -0.0203124 255 0 0
0.058955 -0.0723691 -0.0209532 255 0 0
0.063677 -0.072007 -0.0209244 255 0 0
0.0648001 -0.072662 -0.0206384 255 0 0
0.0661419 -0.0731018 -0.0204238 255 0 0
0.0696046 -0.0730816 -0.0212561 255 0 0
0.0708449 -0.073355 -0.020988 255 0 0
0.0491973 -0.0709867 -0.0208874 255 0 0
0.0564368 -0.0706286 -0.0219341 255 0 0
0.0590255 -0.0707708 -0.021168 255 0 0
0.0607811 -0.0709479 -0.0207341 255 0 0
0.0630888 -0.0708998 -0.0205115 255 0 0
0.0660091 -0.0704616 -0.0200363 255 0 0
0.0489748 -0.0690456 -0.0213524 255 0 0
0.0591963 -0.0689309 -0.0213691 255 0 0
0.0604636 -0.0686467 -0.0200889 255 0 0
0.0624991 -0.0697934 -0.0200996 255 0 0
0.0458975 -0.0660149 -0.021794 255 0 0
0.0471395 -0.0670605 -0.0210506 255 0 0
0.0572647 -0.0675351 -0.0205984 255 0 0
0.0588673 -0.0670175 -0.021152 255 0 0
0.0607902 -0.0668195 -0.0206137 255 0 0
0.0448345 -0.0647241 -0.0214581 255 0 0
0.0463604 -0.0654207 -0.0206245 255 0 0
0.0553127 -0.0643775 -0.0201739 255 0 0
0.056958 -0.0650309 -0.0212747 255 0 0
0.0591034 -0.0645196 -0.0214315 255 0 0
0.0604714 -0.0654444 -0.0209967 255 0 0
0.0430147 -0.0630905 -0.0215391 255 0 0
0.0445366 -0.0637851 -0.020707 255 0 0
0.0550947 -0.0628518 -0.0208867 255 0 0
0.0568768 -0.0630366 -0.0207348 255 0 0
0.0587155 -0.0620026 -0.0215902 255 0 0
0.0603135 -0.0634134 -0.0208247 255 0 0
0.0530432 -0.0602619 -0.0206108 255 0 0
0.0551392 -0.0607376 -0.0212248 255 0 0
0.0569505 -0.0609349 -0.0209832 255 0 0
0.05878 -0.0615121 -0.0207596 255 0 0
0.0490359 -0.0587944 -0.0214034 255 0 0
0.0510854 -0.0589443 -0.0209812 255 0 0
0.0532484 -0.0585737 -0.0208609 255 0 0
0.0551556 -0.0592225 -0.0209271 255 0 0
0.0474625 -0.0566327 -0.0209746 255 0 0
0.0484078 -0.05753 -0.0207392 255 0 0
0.0504097 -0.0578046 -0.020245 255 0 0
0.0535783 -0.0569533 -0.0209933 255 0 0
0.0543402 -0.0568601 -0.021824 255 0 0
0.0464754 -0.055817 -0.0210764 255 0 0
0.0535814 -0.0555336 -0.0201027 255 0 0
0.0538764 -0.0532584 -0.0208931 255 0 0
0.0535897 -0.0505363 -0.0207509 255 0 0
0.0543756 -0.0507183 -0.0217668 255 0 0
0.0537754 -0.0489123 -0.0218778 255 0 0
0.0672911 -0.0431258 -0.0214799 255 0 0
0.0665504 -0.0411025 -0.0206766 255 0 0
0.0669394 -0.0392784 -0.0212093 255 0 0
0.0664382 -0.0372152 -0.0210925 255 0 0
0.187004 -0.172817 -0.0187107 255 0 0
0.191555 -0.173013 -0.018572 255 0 0
0.197049 -0.172402 -0.0197558 255 0 0
0.181103 -0.170835 -0.0197862 255 0 0
0.187228 -0.17129 -0.0192137 255 0 0
0.190279 -0.170866 -0.0183591 255 0 0
0.194904 -0.171051 -0.0194537 255 0 0
0.181558 -0.168897 -0.0190736 255 0 0
0.183232 -0.169962 -0.0182409 255 0 0
0.187918 -0.169484 -0.0190454 255 0 0
0.189749 -0.169399 -0.0183873 255 0 0
0.190941 -0.168322 -0.0191757 255 0 0
0.19253 -0.169324 -0.0193998 255 0 0
0.194009 -0.168733 -0.018035 255 0 0
0.181749 -0.166907 -0.0188191 255 0 0
0.188597 -0.167457 -0.0189566 255 0 0
0.191925 -0.167929 -0.0182678 255 0 0
0.158415 -0.164546 -0.0197227 255 0 0
0.181467 -0.164936 -0.018984 255 0 0
0.187079 -0.164741 -0.019324 255 0 0
0.188782 -0.165193 -0.0186051 255 0 0
0.157885 -0.162618 -0.0187867 255 0 0
0.180979 -0.163029 -0.0191056 255 0 0
0.185568 -0.162615 -0.0196624 255 0 0
0.186635 -0.163039 -0.0189263 255 0 0
0.188632 -0.162872 -0.0185653 255 0 0
0.157303 -0.161483 -0.0195105 255 0 0
0.181425 -0.160957 -0.0194973 255 0 0
0.182985 -0.160625 -0.0184308 255 0 0
0.185012 -0.161257 -0.0191085 255 0 0
0.18861 -0.160991 -0.0184581 255 0 0
0.15663 -0.158966 -0.0191077 255 0 0
0.181384 -0.158873 -0.0192765 255 0 0
0.182802 -0.159153 -0.0186299 255 0 0
0.187508 -0.158134 -0.0192023 255 0 0
0.188059 -0.159562 -0.0188302 255 0 0
0.155663 -0.156503 -0.0183631 255 0 0
0.179277 -0.156714 -0.018775 255 0 0
0.180943 -0.157212 -0.0191323 255 0 0
0.185923 -0.15691 -0.0193897 255 0 0
0.15567 -0.155252 -0.019771 255 0 0
0.156023 -0.154427 -0.0184498 255 0 0
0.177106 -0.154623 -0.0190454 255 0 0
0.179473 -0.155088 -0.0192795 255 0 0
0.180418 -0.155738 -0.0184951 255 0 0
0.185326 -0.155297 -0.0189902 255 0 0
0.157282 -0.152167 -0.0195678 255 0 0
0.175163 -0.152949 -0.0192977 255 0 0
0.17662 -0.152704 -0.019012 255 0 0
0.178512 -0.153032 -0.0193477 255 0 0
0.183666 -0.152368 -0.0188701 255 0 0
0.184728 -0.153684 -0.0185904 255 0 0
0.157935 -0.151283 -0.018584 255 0 0
0.159194 -0.150278 -0.0182871 255 0 0
0.169764 -0.150191 -0.0190497 255 0 0
0.17305 -0.150849 -0.0188326 255 0 0
0.175078 -0.151096 -0.0190504 255 0 0
0.176686 -0.151053 -0.0187414 255 0 0
0.182607 -0.151055 -0.0191491 255 0 0
0.16138 -0.149081 -0.0190272 255 0 0
0.163298 -0.148242 -0.0183968 255 0 0
0.16726 -0.149217 -0.0187991 255 0 0
0.171393 -0.148486 -0.0188579 255 0 0
0.172421 -0.149618 -0.0195223 255 0 0
0.175477 -0.148386 -0.0198403 255 0 0
0.176587 -0.148946 -0.0189501 255 0 0
0.180957 -0.148139 -0.0190307 255 0 0
0.182059 -0.149633 -0.0195193 255 0 0
0.164572 -0.146906 -0.0191304 255 0 0
0.169142 -0.147103 -0.019072 255 0 0
0.174565 -0.146606 -0.019877 255 0 0
0.176638 -0.147276 -0.0186264 255 0 0
0.179354 -0.146766 -0.0184505 255 0 0
0.165869 -0.145875 -0.0188322 255 0 0
0.167123 -0.145239 -0.0190467 255 0 0
0.175572 -0.145039 -0.0191964 255 0 0
0.176975 -0.144885 -0.0186537 255 0 0
0.178807 -0.145349 -0.0188191 255 0 0
0.16708 -0.143157 -0.0189529 255 0 0
0.1758 -0.142863 -0.0193434 255 0 0
0.176996 -0.143285 -0.0185968 255 0 0
0.158298 -0.14066 -0.0184186 255 0 0
0.164806 -0.140642 -0.0183573 255 0 0
0.166028 -0.141691 -0.0183158 255 0 0
0.173554 -0.140281 -0.0187623 255 0 0
0.174416 -0.141498 -0.019412 255 0 0
0.176075 -0.141486 -0.0186331 255 0 0
0.17885 -0.141333 -0.0180771 255 0 0
0.159442 -0.138869 -0.0194201 255 0 0
0.161626 -0.138252 -0.0189922 255 0 0
0.163765 -0.139077 -0.018664 255 0 0
0.171103 -0.138235 -0.0191685 255 0 0
0.172232 -0.139138 -0.0190419 255 0 0
0.160862 -0.136913 -0.0188517 255 0 0
0.163349 -0.137274 -0.0186746 255 0 0
0.16979 -0.136627 -0.0191183 255 0 0
0.17112 -0.136931 -0.0187132 255 0 0
0.157233 -0.134488 -0.0182574 255 0 0
0.158741 -0.135438 -0.0185639 255 0 0
0.162515 -0.134908 -0.0189814 255 0 0
0.164769 -0.135074 -0.0195937 255 0 0
0.168635 -0.135479 -0.0185369 255 0 0
0.170421 -0.134705 -0.0195046 255 0 0
0.155439 -0.132261 -0.0190352 255 0 0
0.160012 -0.132191 -0.0194716 255 0 0
0.16717 -0.13342 -0.0190185 255 0 0
0.169789 -0.13294 -0.0183543 255 0 0
0.170365 -0.133168 -0.0199608 255 0 0
0.145221 -0.130495 -0.0194332 255 0 0
0.146828 -0.130398 -0.0191677 255 0 0
0.149914 -0.130305 -0.0194268 255 0 0
0.150649 -0.130032 -0.0182423 255 0 0
0.153646 -0.131407 -0.0183821 255 0 0
0.156834 -0.130496 -0.0187362 255 0 0
0.1583 -0.131388 -0.0189484 255 0 0
0.162665 -0.130613 -0.0190629 255 0 0
0.16551 -0.131455 -0.0194572 255 0 0
0.170217 -0.131265 -0.0188986 255 0 0
0.143577 -0.12851 -0.019206 255 0 0
0.145019 -0.128843 -0.0187824 255 0 0
0.147049 -0.12907 -0.0184482 255 0 0
0.148558 -0.129495 -0.018459 255 0 0
0.157478 -0.128222 -0.018938 255 0 0
0.159217 -0.128993 -0.0186507 255 0 0
0.160584 -0.129956 -0.0182754 255 0 0
0.163478 -0.129834 -0.0182648 255 0 0
0.169121 -0.128846 -0.0189723 255 0 0
0.138921 -0.126097 -0.0190311 255 0 0
0.140911 -0.127183 -0.0195033 255 0 0
0.143078 -0.126851 -0.0192574 255 0 0
0.144858 -0.126857 -0.0192449 255 0 0
0.146497 -0.127383 -0.018885 255 0 0
0.152738 -0.12623 -0.0183402 255 0 0
0.154382 -0.127051 -0.0190322 255 0 0
0.156038 -0.127879 -0.0197292 255 0 0
0.168302 -0.126934 -0.0191919 255 0 0
0.136919 -0.124754 -0.0193966 255 0 0
0.138012 -0.12506 -0.0183974 255 0 0
0.142995 -0.124365 -0.0190082 255 0 0
0.144159 -0.125369 -0.0189672 255 0 0
0.151079 -0.124906 -0.0188607 255 0 0
0.165496 -0.124451 -0.0188485 255 0 0
0.166993 -0.125563 -0.0186631 255 0 0
0.135865 -0.123056 -0.0188953 255 0 0
0.14153 -0.122768 -0.019412 255 0 0
0.146843 -0.122585 -0.0195731 255 0 0
0.148923 -0.123305 -0.0194877 255 0 0
0.150228 -0.123122 -0.0182466 255 0 0
0.16159 -0.122539 -0.0190379 255 0 0
0.164008 -0.123345 -0.0190329 255 0 0
0.133525 -0.121156 -0.0190934 255 0 0
0.139152 -0.120343 -0.019151 255 0 0
0.141141 -0.120977 -0.0184375 255 0 0
0.143795 -0.12184 -0.0180148 255 0 0
0.148977 -0.121572 -0.0182 255 0 0
0.157748 -0.120657 -0.0192246 255 0 0
0.160124 -0.121446 -0.0192205 255 0 0
0.126253 -0.118189 -0.0193724 255 0 0
0.136864 -0.11882 -0.0190483 255 0 0
0.139123 -0.118762 -0.0190693 255 0 0
0.151656 -0.118038 -0.0194117 255 0 0
0.153967 -0.118804 -0.0194085 255 0 0
0.15509 -0.119016 -0.018668 255 0 0
0.120891 -0.116732 -0.0183848 255 0 0
0.127622 -0.116258 -0.0188986 255 0 0
0.133134 -0.116303 -0.0191831 255 0 0
0.134961 -0.117188 -0.0191812 255 0 0
0.1378 -0.11712 -0.019643 255 0 0
0.138454 -0.116253 -0.0186661 255 0 0
0.14841 -0.116078 -0.0196793 255 0 0
0.150425 -0.116732 -0.0189005 255 0 0
0.152014 -0.117543 -0.0180297 255 0 0
0.119492 -0.115109 -0.0196237 255 0 0
0.12579 -0.114091 -0.0197642 255 0 0
0.126946 -0.115208 -0.0188961 255 0 0
0.129277 -0.114654 -0.0198567 255 0 0
0.130722 -0.114876 -0.0189672 255 0 0
0.132173 -0.115098 -0.0180734 255 0 0
0.137845 -0.115052 -0.0193904 255 0 0
0.141296 -0.114024 -0.0195996 255 0 0
0.143498 -0.114752 -0.019597 255 0 0
0.144266 -0.11411 -0.0183244 255 0 0
0.14676 -0.114937 -0.0190845 255 0 0
0.149199 -0.115432 -0.0183921 255 0 0
0.123811 -0.112026 -0.01869 255 0 0
0.12449 -0.113252 -0.0191466 255 0 0
0.127253 -0.112349 -0.0192178 255 0 0
0.128861 -0.113273 -0.0190992 255 0 0
0.13033 -0.11209 -0.0191099 255 0 0
0.133615 -0.112338 -0.0193551 255 0 0
0.135735 -0.113044 -0.0193511 255 0 0
0.137042 -0.11275 -0.0184486 255 0 0
0.138454 -0.113364 -0.0187618 255 0 0
0.141632 -0.113537 -0.0182492 255 0 0
0.109644 -0.110169 -0.0191126 255 0 0
0.111049 -0.111083 -0.0197479 255 0 0
0.112789 -0.110396 -0.0193488 255 0 0
0.114218 -0.111318 -0.0199907 255 0 0
0.116314 -0.110501 -0.0198151 255 0 0
0.118719 -0.111453 -0.0197972 255 0 0
0.121222 -0.11021 -0.0194129 255 0 0
0.123197 -0.110646 -0.0191931 255 0 0
0.125333 -0.110927 -0.0194114 255 0 0
0.127015 -0.11091 -0.0185781 255 0 0
0.128356 -0.111646 -0.0187292 255 0 0
0.134339 -0.111708 -0.0181121 255 0 0
0.136427 -0.111388 -0.0195411 255 0 0
0.107091 -0.108266 -0.0188189 255 0 0
0.108324 -0.109231 -0.0193391 255 0 0
0.111056 -0.109605 -0.0184912 255 0 0
0.114869 -0.109576 -0.0191695 255 0 0
0.116852 -0.108926 -0.0190351 255 0 0
0.119441 -0.108823 -0.0189941 255 0 0
0.121202 -0.109599 -0.01871 255 0 0
0.123006 -0.108651 -0.0192658 255 0 0
0.125176 -0.109329 -0.0187121 255 0 0
0.103798 -0.106695 -0.0195769 255 0 0
0.105198 -0.10681 -0.0189715 255 0 0
0.106933 -0.106227 -0.0185655 255 0 0
0.109298 -0.10677 -0.0189475 255 0 0
0.111264 -0.107612 -0.019219 255 0 0
0.113058 -0.107501 -0.0186412 255 0 0
0.114963 -0.107871 -0.0184858 255 0 0
0.117771 -0.106785 -0.0194683 255 0 0
0.118901 -0.10706 -0.0185322 255 0 0
0.123936 -0.107525 -0.0184102 255 0 0
0.100871 -0.104644 -0.0188638 255 0 0
0.102843 -0.105628 -0.0192172 255 0 0
0.104962 -0.105965 -0.0186794 255 0 0
0.117653 -0.105374 -0.0198761 255 0 0
0.11868 -0.104598 -0.0187588 255 0 0
0.0867165 -0.102088 -0.0192896 255 0 0
0.088746 -0.102334 -0.0198956 255 0 0
0.0916985 -0.102252 -0.0196876 255 0 0
0.0975055 -0.102584 -0.0194647 255 0 0
0.0988777 -0.103162 -0.0191819 255 0 0
0.100406 -0.103762 -0.0189885 255 0 0
0.117706 -0.102072 -0.0194151 255 0 0
0.118193 -0.103335 -0.0190869 255 0 0
0.0851625 -0.10054 -0.0194136 255 0 0
0.0870861 -0.101023 -0.0189122 255 0 0
0.0894068 -0.101427 -0.0190636 255 0 0
0.0905075 -0.100922 -0.0186642 255 0 0
0.0928149 -0.100838 -0.0190412 255 0 0
0.0947937 -0.100652 -0.0192162 255 0 0
0.0967247 -0.101289 -0.0189964 255 0 0
0.0980952 -0.101859 -0.0188099 255 0 0
0.117085 -0.101128 -0.0186723 255 0 0
0.0847261 -0.0989088 -0.0193311 255 0 0
0.0866272 -0.0986973 -0.0188176 255 0 0
0.0888413 -0.0990035 -0.0184562 255 0 0
0.0933398 -0.098588 -0.0195892 255 0 0
0.0947504 -0.0991098 -0.0187436 255 0 0
0.0960355 -0.0998819 -0.0180103 255 0 0
0.115544 -0.0993476 -0.0190581 255 0 0
0.0839356 -0.0977967 -0.0199862 255 0 0
0.0850146 -0.0969378 -0.0189831 255 0 0
0.0874452 -0.0968487 -0.0188052 255 0 0
0.088914 -0.0967951 -0.0186984 255 0 0
0.0907959 -0.0967065 -0.0188119 255 0 0
0.0931565 -0.0972371 -0.0188653 255 0 0
0.101614 -0.0960921 -0.0189928 255 0 0
0.103767 -0.0965133 -0.0190642 255 0 0
0.105737 -0.096869 -0.0184349 255 0 0
0.106154 -0.0970099 -0.019838 255 0 0
0.108499 -0.0972097 -0.0192888 255 0 0
0.110875 -0.0974115 -0.0187316 255 0 0
0.113142 -0.0978509 -0.0188037 255 0 0
0.0849844 -0.0949993 -0.0193199 255 0 0
0.0869324 -0.094922 -0.0191785 255 0 0
0.0891623 -0.0946373 -0.0192623 255 0 0
0.0911398 -0.0949876 -0.019268 255 0 0
0.0923324 -0.0952578 -0.0189361 255 0 0
0.0971202 -0.0941289 -0.0198502 255 0 0
0.099001 -0.0949015 -0.0188751 255 0 0
0.100019 -0.0955846 -0.0196892 255 0 0
0.0814493 -0.0921474 -0.0195617 255 0 0
0.0828435 -0.0933032 -0.0194279 255 0 0
0.0848799 -0.0927682 -0.0189116 255 0 0
0.0871066 -0.0934061 -0.0191581 255 0 0
0.0891595 -0.0928533 -0.0191315 255 0 0
0.0912074 -0.0933794 -0.0192323 255 0 0
0.0952242 -0.0925996 -0.0187565 255 0 0
0.0970485 -0.0938366 -0.0185549 255 0 0
0.0793643 -0.0904187 -0.0197623 255 0 0
0.0809527 -0.0906724 -0.0188825 255 0 0
0.0829057 -0.0909121 -0.0187121 255 0 0
0.0848824 -0.0911449 -0.0185284 255 0 0
0.0870369 -0.0913342 -0.0192397 255 0 0
0.0898176 -0.0910949 -0.0194372 255 0 0
0.0902762 -0.0909185 -0.0181976 255 0 0
0.0928653 -0.0909373 -0.0190356 255 0 0
0.0788611 -0.0887906 -0.0187607 255 0 0
0.0810875 -0.0894739 -0.0185994 255 0 0
0.0825547 -0.0885108 -0.0199972 255 0 0
0.0850958 -0.0885009 -0.0191007 255 0 0
0.087012 -0.0889576 -0.019244 255 0 0
0.0885513 -0.0895616 -0.0195129 255 0 0
0.0905882 -0.0889169 -0.0189759 255 0 0
0.0768479 -0.0870075 -0.0191008 255 0 0
0.079349 -0.0866034 -0.0192737 255 0 0
0.0808517 -0.0869498 -0.0193455 255 0 0
0.0832187 -0.0869992 -0.0195899 255 0 0
0.0847111 -0.0867006 -0.0191637 255 0 0
0.0866447 -0.0871004 -0.0187238 255 0 0
0.0888049 -0.0871907 -0.019101 255 0 0
0.100119 -0.0861896 -0.0199449 255 0 0
0.10667 -0.0869449 -0.0195864 255 0 0
0.0753027 -0.0848497 -0.0194025 255 0 0
0.0766155 -0.0853239 -0.0185866 255 0 0
0.0790898 -0.0848829 -0.018513 255 0 0
0.0817843 -0.0851684 -0.0182646 255 0 0
0.0830379 -0.0854538 -0.0187852 255 0 0
0.08535 -0.0850862 -0.0184397 255 0 0
0.0869347 -0.085185 -0.018853 255 0 0
0.0982318 -0.0843794 -0.0197281 255 0 0
0.100346 -0.084193 -0.0194011 255 0 0
0.103228 -0.0843227 -0.0193805 255 0 0
0.105054 -0.0855605 -0.0196476 255 0 0
0.0718313 -0.0823445 -0.0190972 255 0 0
0.0734927 -0.0828545 -0.0191245 255 0 0
0.0746979 -0.0832101 -0.0192657 255 0 0
0.0784978 -0.0827318 -0.0190689 255 0 0
0.0816728 -0.0825832 -0.0189849 255 0 0
0.0827166 -0.0830997 -0.0181658 255 0 0
0.0850014 -0.0829464 -0.0189324 255 0 0
0.0865394 -0.0830786 -0.0187125 255 0 0
0.0887104 -0.0831687 -0.0196776 255 0 0
0.0909529 -0.0828436 -0.0196734 255 0 0
0.093015 -0.0826556 -0.0193478 255 0 0
0.0947492 -0.0830974 -0.0188413 255 0 0
0.097079 -0.0833447 -0.0186533 255 0 0
0.0990755 -0.0834227 -0.0191165 255 0 0
0.100981 -0.0833743 -0.0184618 255 0 0
0.0691621 -0.0803955 -0.0187435 255 0 0
0.0709258 -0.0809246 -0.0189305 255 0 0
0.072408 -0.0817797 -0.0189191 255 0 0
0.0773285 -0.0805091 -0.0195556 255 0 0
0.0787642 -0.0806716 -0.01906 255 0 0
0.0806671 -0.0811558 -0.0192195 255 0 0
0.0848901 -0.0810598 -0.0185327 255 0 0
0.0872878 -0.0805875 -0.0188395 255 0 0
0.089188 -0.0808797 -0.0186535 255 0 0
0.0909638 -0.0816613 -0.0186084 255 0 0
0.0599868 -0.0781773 -0.019398 255 0 0
0.0610801 -0.0788858 -0.019658 255 0 0
0.065113 -0.0782379 -0.0196281 255 0 0
0.0670755 -0.0788208 -0.018524 255 0 0
0.0689949 -0.0789542 -0.0192569 255 0 0
0.0751239 -0.0784804 -0.0198112 255 0 0
0.0769017 -0.0789172 -0.0188999 255 0 0
0.0783873 -0.0794796 -0.0189464 255 0 0
0.0852854 -0.0796126 -0.0181114 255 0 0
0.0876879 -0.0791313 -0.0184168 255 0 0
0.055174 -0.0768827 -0.0184777 255 0 0
0.0572241 -0.0774194 -0.0187213 255 0 0
0.0586022 -0.0777451 -0.0185396 255 0 0
0.0611116 -0.0768352 -0.01853 255 0 0
0.062439 -0.0773347 -0.0192427 255 0 0
0.0647008 -0.0776375 -0.0187492 255 0 0
0.0668752 -0.0772242 -0.0189348 255 0 0
0.0733894 -0.0766705 -0.0193966 255 0 0
0.0748348 -0.0767868 -0.0189467 255 0 0
0.0762024 -0.0777256 -0.0185955 255 0 0
0.0496408 -0.0748438 -0.0199615 255 0 0
0.0509895 -0.0751613 -0.0197826 255 0 0
0.0532324 -0.0750748 -0.0194071 255 0 0
0.0653684 -0.0752808 -0.0189399 255 0 0
0.0664856 -0.0755374 -0.0181516 255 0 0
0.0691012 -0.0749369 -0.0196295 255 0 0
0.0715106 -0.0745104 -0.0193757 255 0 0
0.0728679 -0.0750106 -0.0186446 255 0 0
0.0744957 -0.0758589 -0.0181146 255 0 0
0.0508016 -0.0734509 -0.0192537 255 0 0
0.053051 -0.0736686 -0.018915 255 0 0
0.0612543 -0.0732249 -0.0191857 255 0 0
0.0633591 -0.072923 -0.0189963 255 0 0
0.0651564 -0.0730691 -0.0190927 255 0 0
0.0670952 -0.0728602 -0.0193415 255 0 0
0.0685964 -0.0732164 -0.0185794 255 0 0
0.071763 -0.0729505 -0.0193882 255 0 0
0.0504541 -0.0719719 -0.0194558 255 0 0
0.0608754 -0.0707911 -0.0191277 255 0 0
0.0620798 -0.07091 -0.0188013 255 0 0
0.0651199 -0.0708054 -0.0187669 255 0 0
0.0668251 -0.0715085 -0.0181498 255 0 0
0.0709268 -0.0715266 -0.0189502 255 0 0
0.0488919 -0.0690262 -0.018991 255 0 0
0.0598126 -0.0682375 -0.0196151 255 0 0
0.0613222 -0.0688668 -0.0192347 255 0 0
0.0629842 -0.0688583 -0.0188549 255 0 0
0.0647829 -0.0690758 -0.0185871 255 0 0
0.066994 -0.0692635 -0.0187193 255 0 0
0.0694793 -0.0692916 -0.0180644 255 0 0
0.0474961 -0.0668715 -0.0189402 255 0 0
0.0574269 -0.0669624 -0.0191323 255 0 0
0.0595241 -0.066838 -0.018949 255 0 0
0.0605682 -0.066954 -0.018543 255 0 0
0.0624179 -0.0669927 -0.0185309 255 0 0
0.0642166 -0.0673727 -0.0181221 255 0 0
0.0466893 -0.0649776 -0.0191616 255 0 0
0.055739 -0.0641288 -0.018579 255 0 0
0.0568763 -0.0647591 -0.0190791 255 0 0
0.0592105 -0.0653331 -0.0190661 255 0 0
0.0612983 -0.0652913 -0.0183781 255 0 0
0.0448944 -0.0626789 -0.0192681 255 0 0
0.0462059 -0.0636418 -0.0190678 255 0 0
0.0539579 -0.0624162 -0.0192902 255 0 0
0.0545513 -0.0636066 -0.0188317 255 0 0
0.0563797 -0.0628731 -0.0185427 255 0 0
0.0591292 -0.0631128 -0.0181471 255 0 0
0.06057 -0.0631584 -0.0189118 255 0 0
0.0445539 -0.0617976 -0.0184251 255 0 0
0.0539778 -0.0613062 -0.0185807 255 0 0
0.0552065 -0.0604746 -0.0188906 255 0 0
0.0587883 -0.0608577 -0.0191107 255 0 0
0.0535147 -0.0588781 -0.0192872 255 0 0
0.0549403 -0.0589157 -0.0191876 255 0 0
0.0570765 -0.0595316 -0.0191894 255 0 0
0.0490268 -0.0566127 -0.0194796 255 0 0
0.0508396 -0.057338 -0.0187644 255 0 0
0.0531637 -0.0572667 -0.0188148 255 0 0
0.0554172 -0.05789 -0.0187227 255 0 0
0.0475432 -0.0558496 -0.019082 255 0 0
0.0531487 -0.055023 -0.0186388 255 0 0
0.0528181 -0.0522913 -0.0190628 255 0 0
0.0650201 -0.0482733 -0.0185822 255 0 0
0.0653988 -0.0464992 -0.0191004 255 0 0
0.064922 -0.0452073 -0.01878 255 0 0
0.064887 -0.043733 -0.0191896 255 0 0
0.0650968 -0.0419084 -0.0190491 255 0 0
0.0654162 -0.0398329 -0.0183191 255 0 0
0.0665956 -0.03923 -0.0198722 255 0 0
0.0660801 -0.0377896 -0.0189161 255 0 0
0.186349 -0.172333 -0.0163428 255 0 0
0.191338 -0.172091 -0.0168688 255 0 0
0.186317 -0.170849 -0.0167956 255 0 0
0.190808 -0.170625 -0.0168969 255 0 0
0.183856 -0.168644 -0.0174801 255 0 0
0.184551 -0.169358 -0.0165141 255 0 0
0.186795 -0.169276 -0.017338 255 0 0
0.190279 -0.169158 -0.016925 255 0 0
0.160495 -0.167088 -0.0162467 255 0 0
0.182137 -0.167172 -0.0173476 255 0 0
0.184069 -0.167462 -0.016632 255 0 0
0.188728 -0.167066 -0.0166849 255 0 0
0.190832 -0.166737 -0.0175942 255 0 0
0.192647 -0.166889 -0.0173421 255 0 0
0.159919 -0.165964 -0.016964 255 0 0
0.161167 -0.165005 -0.0166654 255 0 0
0.183029 -0.165272 -0.0171932 255 0 0
0.187738 -0.164886 -0.0165048 255 0 0
0.189101 -0.164876 -0.0171391 255 0 0
0.190516 -0.165303 -0.0167881 255 0 0
0.158988 -0.163555 -0.0170627 255 0 0
0.171516 -0.162027 -0.0167839 255 0 0
0.172088 -0.163182 -0.0160501 255 0 0
0.176601 -0.162181 -0.0160895 255 0 0
0.181987 -0.163078 -0.0177549 255 0 0
0.182999 -0.163125 -0.0164004 255 0 0
0.18695 -0.162554 -0.0173307 255 0 0
0.189168 -0.16346 -0.0168814 255 0 0
0.190484 -0.163817 -0.0162989 255 0 0
0.157497 -0.161285 -0.0173243 255 0 0
0.166846 -0.16103 -0.0161426 255 0 0
0.17062 -0.160915 -0.0171731 255 0 0
0.172498 -0.161082 -0.0161355 255 0 0
0.175699 -0.161062 -0.0164812 255 0 0
0.183132 -0.160983 -0.0166438 255 0 0
0.185182 -0.160719 -0.0169409 255 0 0
0.187029 -0.160616 -0.0170697 255 0 0
0.188933 -0.16138 -0.0168151 255 0 0
0.157117 -0.159346 -0.0165641 255 0 0
0.168956 -0.159297 -0.0174107 255 0 0
0.171476 -0.159364 -0.0170663 255 0 0
0.173894 -0.158822 -0.0172649 255 0 0
0.174796 -0.159942 -0.016873 255 0 0
0.176123 -0.158938 -0.0165694 255 0 0
0.183272 -0.158677 -0.0172484 255 0 0
0.184658 -0.159369 -0.0168714 255 0 0
0.187271 -0.159204 -0.0166973 255 0 0
0.156569 -0.157205 -0.0171549 255 0 0
0.164833 -0.156835 -0.0163148 255 0 0
0.16715 -0.157312 -0.0166346 255 0 0
0.169485 -0.157795 -0.0169577 255 0 0
0.171436 -0.156687 -0.0173503 255 0 0
0.172991 -0.157701 -0.0176569 255 0 0
0.174765 -0.157253 -0.0171585 255 0 0
0.178709 -0.156074 -0.0173646 255 0 0
0.181426 -0.157103 -0.0176415 255 0 0
0.182509 -0.157257 -0.0168483 255 0 0
0.186829 -0.156905 -0.017026 255 0 0
0.156338 -0.155241 -0.0165623 255 0 0
0.163325 -0.15584 -0.0160177 255 0 0
0.164909 -0.15479 -0.0160569 255 0 0
0.166427 -0.155787 -0.0163555 255 0 0
0.16912 -0.155177 -0.0168939 255 0 0
0.171522 -0.154613 -0.017091 255 0 0
0.17341 -0.155171 -0.0168967 255 0 0
0.174646 -0.155841 -0.0160037 255 0 0
0.177665 -0.154927 -0.0167045 255 0 0
0.179219 -0.154985 -0.0170469 255 0 0
0.181232 -0.154932 -0.0170268 255 0 0
0.182671 -0.155983 -0.0161634 255 0 0
0.185182 -0.154734 -0.0166788 255 0 0
0.157146 -0.15308 -0.0171531 255 0 0
0.166821 -0.153676 -0.0164408 255 0 0
0.168752 -0.152551 -0.0168296 255 0 0
0.170789 -0.153073 -0.0168085 255 0 0
0.173171 -0.153146 -0.0162873 255 0 0
0.175089 -0.152865 -0.0170362 255 0 0
0.176797 -0.153581 -0.0170255 255 0 0
0.179129 -0.152993 -0.016875 255 0 0
0.180331 -0.153188 -0.0165799 255 0 0
0.18306 -0.152103 -0.0172422 255 0 0
0.18412 -0.153417 -0.0169609 255 0 0
0.15887 -0.151616 -0.0165343 255 0 0
0.161027 -0.151075 -0.0165529 255 0 0
0.163204 -0.15053 -0.016572 255 0 0
0.164095 -0.151635 -0.0161852 255 0 0
0.166769 -0.150999 -0.0167215 255 0 0
0.169124 -0.151067 -0.0162019 255 0 0
0.171368 -0.150513 -0.0162228 255 0 0
0.173235 -0.150832 -0.0165333 255 0 0
0.175264 -0.151665 -0.0167764 255 0 0
0.178573 -0.150883 -0.01704 255 0 0
0.182004 -0.150792 -0.0175228 255 0 0
0.162622 -0.149362 -0.0173029 255 0 0
0.164941 -0.148553 -0.0173001 255 0 0
0.167325 -0.148834 -0.0169825 255 0 0
0.168636 -0.148606 -0.0166669 255 0 0
0.171025 -0.148979 -0.0168413 255 0 0
0.172982 -0.149301 -0.0170864 255 0 0
0.177597 -0.148979 -0.0175865 255 0 0
0.179431 -0.14868 -0.0163878 255 0 0
0.180651 -0.149356 -0.0169931 255 0 0
0.161085 -0.146744 -0.0168978 255 0 0
0.163098 -0.146963 -0.0162056 255 0 0
0.166785 -0.146612 -0.0175912 255 0 0
0.169046 -0.146507 -0.0170635 255 0 0
0.170416 -0.147315 -0.0168719 255 0 0
0.177806 -0.146159 -0.0174051 255 0 0
0.178722 -0.147166 -0.0165454 255 0 0
0.1595 -0.144821 -0.0164603 255 0 0
0.167193 -0.145056 -0.0170538 255 0 0
0.169236 -0.144575 -0.0168122 255 0 0
0.170636 -0.145214 -0.0160933 255 0 0
0.177713 -0.145216 -0.0171118 255 0 0
0.17966 -0.144232 -0.0168795 255 0 0
0.157214 -0.143174 -0.0172948 255 0 0
0.158996 -0.143424 -0.0164879 255 0 0
0.164987 -0.142691 -0.0162986 255 0 0
0.167837 -0.143937 -0.0175309 255 0 0
0.168825 -0.142966 -0.0168785 255 0 0
0.175138 -0.142755 -0.0175805 255 0 0
0.176671 -0.143923 -0.0173907 255 0 0
0.178532 -0.14367 -0.0177824 255 0 0
0.181539 -0.14228 -0.0163467 255 0 0
0.158901 -0.141934 -0.0167546 255 0 0
0.160047 -0.140153 -0.0177453 255 0 0
0.167307 -0.141316 -0.0172925 255 0 0
0.1692 -0.141466 -0.0162468 255 0 0
0.173521 -0.141228 -0.0162537 255 0 0
0.174595 -0.141348 -0.0179465 255 0 0
0.176686 -0.140063 -0.0178545 255 0 0
0.18082 -0.141538 -0.017342 255 0 0
0.161811 -0.139642 -0.0170673 255 0 0
0.16518 -0.139123 -0.0169213 255 0 0
0.167359 -0.139893 -0.0163124 255 0 0
0.171465 -0.138674 -0.0168093 255 0 0
0.172957 -0.139335 -0.01674 255 0 0
0.176066 -0.139176 -0.0168171 255 0 0
0.178953 -0.139546 -0.0167293 255 0 0
0.182295 -0.139737 -0.0167226 255 0 0
0.16151 -0.136699 -0.0171362 255 0 0
0.163323 -0.137622 -0.0169957 255 0 0
0.164599 -0.137883 -0.0160527 255 0 0
0.1697 -0.136335 -0.0172395 255 0 0
0.170763 -0.137245 -0.0166548 255 0 0
0.172005 -0.137729 -0.0173298 255 0 0
0.15879 -0.134713 -0.0168759 255 0 0
0.160302 -0.135663 -0.017179 255 0 0
0.164432 -0.135061 -0.0176739 255 0 0
0.167641 -0.134792 -0.0174273 255 0 0
0.1698 -0.134293 -0.0171453 255 0 0
0.170294 -0.135512 -0.0160256 255 0 0
0.15699 -0.133169 -0.0169409 255 0 0
0.160524 -0.132732 -0.0176686 255 0 0
0.163232 -0.133025 -0.0174703 255 0 0
0.164423 -0.132432 -0.0166376 255 0 0
0.166143 -0.133288 -0.0173377 255 0 0
0.169698 -0.132578 -0.0168401 255 0 0
0.151866 -0.13056 -0.0177341 255 0 0
0.15371 -0.130698 -0.016705 255 0 0
0.1571 -0.13041 -0.0169283 255 0 0
0.159259 -0.13075 -0.0161082 255 0 0
0.161712 -0.1313 -0.0168879 255 0 0
0.16372 -0.131705 -0.0176073 255 0 0
0.16964 -0.131039 -0.0172921 255 0 0
0.147146 -0.128568 -0.016928 255 0 0
0.148563 -0.129223 -0.0170048 255 0 0
0.150741 -0.12974 -0.0170763 255 0 0
0.152283 -0.129581 -0.0162958 255 0 0
0.154936 -0.129805 -0.0168589 255 0 0
0.156855 -0.128471 -0.0168052 255 0 0
0.159248 -0.129478 -0.0170974 255 0 0
0.162108 -0.128628 -0.0177996 255 0 0
0.167504 -0.12815 -0.0163333 255 0 0
0.168812 -0.129523 -0.0168562 255 0 0
0.14152 -0.126515 -0.0176316 255 0 0
0.142718 -0.126773 -0.0167838 255 0 0
0.144586 -0.127454 -0.0165471 255 0 0
0.146597 -0.127376 -0.0165196 255 0 0
0.153146 -0.126526 -0.0168888 255 0 0
0.155138 -0.127707 -0.0170982 255 0 0
0.166964 -0.12675 -0.0166973 255 0 0
0.136905 -0.124128 -0.0174693 255 0 0
0.139001 -0.125416 -0.0172523 255 0 0
0.140192 -0.125672 -0.016406 255 0 0
0.143969 -0.124778 -0.0169671 255 0 0
0.14485 -0.125872 -0.0165852 255 0 0
0.15171 -0.125067 -0.0168024 255 0 0
0.165201 -0.124938 -0.0170689 255 0 0
0.13494 -0.122105 -0.0170932 255 0 0
0.136407 -0.1229 -0.0174357 255 0 0
0.14193 -0.122688 -0.017392 255 0 0
0.143089 -0.123685 -0.0173491 255 0 0
0.145954 -0.122656 -0.017322 255 0 0
0.151178 -0.12313 -0.0169182 255 0 0
0.161035 -0.122331 -0.0174524 255 0 0
0.162505 -0.123427 -0.017265 255 0 0
0.132843 -0.120908 -0.0161456 255 0 0
0.139277 -0.120255 -0.0175557 255 0 0
0.141222 -0.121002 -0.0165476 255 0 0
0.142918 -0.121892 -0.0161273 255 0 0
0.14949 -0.120151 -0.0174482 255 0 0
0.150825 -0.121088 -0.0170754 255 0 0
0.15766 -0.120306 -0.0177376 255 0 0
0.159528 -0.121065 -0.0168928 255 0 0
0.129923 -0.118131 -0.016249 255 0 0
0.135948 -0.11834 -0.0178017 255 0 0
0.137057 -0.118693 -0.0166681 255 0 0
0.139942 -0.118544 -0.0175621 255 0 0
0.140822 -0.119637 -0.0171805 255 0 0
0.148572 -0.119516 -0.0163703 255 0 0
0.1564 -0.118978 -0.0172232 255 0 0
0.15803 -0.119806 -0.016336 255 0 0
0.120927 -0.116912 -0.0160934 255 0 0
0.122487 -0.117484 -0.0178609 255 0 0
0.12866 -0.117077 -0.017093 255 0 0
0.135339 -0.117003 -0.0169225 255 0 0
0.139388 -0.117019 -0.0174564 255 0 0
0.140319 -0.117781 -0.0162502 255 0 0
0.152819 -0.116895 -0.016729 255 0 0
0.154694 -0.117808 -0.016627 255 0 0
0.119625 -0.115245 -0.0174653 255 0 0
0.125654 -0.114722 -0.0172961 255 0 0
0.12809 -0.115963 -0.017116 255 0 0
0.13097 -0.114 -0.0176398 255 0 0
0.133271 -0.115446 -0.0169462 255 0 0
0.134733 -0.11567 -0.0160455 255 0 0
0.137954 -0.1144 -0.0177323 255 0 0
0.139023 -0.115114 -0.0166948 255 0 0
0.147718 -0.114043 -0.0171141 255 0 0
0.149553 -0.114936 -0.0170146 255 0 0
0.150959 -0.115988 -0.0168302 255 0 0
0.119094 -0.11289 -0.0172211 255 0 0
0.125111 -0.112861 -0.0174085 255 0 0
0.126102 -0.113892 -0.0160494 255 0 0
0.131087 -0.112426 -0.0172259 255 0 0
0.132178 -0.113546 -0.0167573 255 0 0
0.137455 -0.112553 -0.016801 255 0 0
0.138849 -0.113065 -0.0166253 255 0 0
0.14197 -0.113049 -0.0168962 255 0 0
0.144609 -0.113619 -0.0169628 255 0 0
0.119502 -0.111785 -0.0168288 255 0 0
0.12154 -0.11017 -0.0175455 255 0 0
0.123261 -0.111277 -0.0170996 255 0 0
0.126145 -0.110394 -0.0177391 255 0 0
0.129026 -0.110686 -0.0172496 255 0 0
0.13108 -0.111144 -0.0170059 255 0 0
0.135313 -0.110742 -0.0173425 255 0 0
0.137188 -0.111347 -0.0169403 255 0 0
0.109651 -0.108697 -0.0178604 255 0 0
0.11774 -0.108242 -0.0170812 255 0 0
0.119237 -0.108915 -0.0168058 255 0 0
0.120692 -0.108903 -0.0174817 255 0 0
0.123131 -0.109006 -0.0170259 255 0 0
0.125084 -0.108977 -0.0173676 255 0 0
0.12691 -0.109582 -0.0169688 255 0 0
0.12987 -0.108281 -0.0166374 255 0 0
0.130358 -0.109629 -0.0166101 255 0 0
0.136618 -0.109394 -0.0169277 255 0 0
