ply
format ascii 1.0
element vertex 1240
property float x
property float y
property float z
property uchar diffuse_red
property uchar diffuse_green
property uchar diffuse_blue
end_header
0.0896244 -0.092824 -0.0211608 255 0 0
0.0911694 -0.0935561 -0.0206429 255 0 0
0.0921054 -0.0928164 -0.0215209 255 0 0
0.0748791 -0.0909659 -0.0210816 255 0 0
0.0765873 -0.0918588 -0.0205563 255 0 0
0.0856575 -0.0900055 -0.0210602 255 0 0
0.0869803 -0.0909587 -0.0211698 255 0 0
0.0886446 -0.0917249 -0.0211736 255 0 0
0.0916795 -0.0908079 -0.0215635 255 0 0
0.0942442 -0.0903705 -0.0216253 255 0 0
0.0731605 -0.0888036 -0.02096 255 0 0
0.0833713 -0.0881442 -0.0214737 255 0 0
0.0852709 -0.0887784 -0.0208203 255 0 0
0.0866762 -0.0889016 -0.0202879 255 0 0
0.0912535 -0.0887989 -0.0216062 255 0 0
0.0718234 -0.0860986 -0.0202993 255 0 0
0.0726004 -0.0873223 -0.021365 255 0 0
0.0772353 -0.0865587 -0.0217897 255 0 0
0.0835496 -0.0865489 -0.0211596 255 0 0
0.0848425 -0.0874679 -0.0208053 255 0 0
0.0710284 -0.0850682 -0.0205405 255 0 0
0.0766771 -0.0847995 -0.021709 255 0 0
0.0816811 -0.084708 -0.020922 255 0 0
0.0829191 -0.085063 -0.0211405 255 0 0
0.084197 -0.0858863 -0.0202987 255 0 0
0.0880233 -0.0846364 -0.0202081 255 0 0
0.0698193 -0.0824911 -0.0217208 255 0 0
0.0710335 -0.0831011 -0.0214581 255 0 0
0.0746124 -0.0824456 -0.0219252 255 0 0
0.0769365 -0.0826213 -0.0217774 255 0 0
0.0811424 -0.0827949 -0.0213479 255 0 0
0.0823723 -0.0834948 -0.0206763 255 0 0
0.0874456 -0.0834783 -0.0200224 255 0 0
0.067733 -0.0810078 -0.0215284 255 0 0
0.0690367 -0.0809903 -0.0212502 255 0 0
0.070772 -0.0810852 -0.0214428 255 0 0
0.0732271 -0.0804767 -0.0218603 255 0 0
0.0751462 -0.0810945 -0.0218091 255 0 0
0.0770777 -0.0805983 -0.0209775 255 0 0
0.0788486 -0.0812567 -0.0207992 255 0 0
0.0802838 -0.0811239 -0.0205845 255 0 0
0.061169 -0.0787962 -0.021562 255 0 0
0.0650239 -0.078425 -0.0218934 255 0 0
0.0673912 -0.0790076 -0.0211524 255 0 0
0.0688321 -0.0791827 -0.0206495 255 0 0
0.0709495 -0.0792591 -0.0208746 255 0 0
0.0731141 -0.0787598 -0.0211066 255 0 0
0.0750354 -0.0786551 -0.0211346 255 0 0
0.076746 -0.0797315 -0.0207561 255 0 0
0.0607843 -0.0769497 -0.0217425 255 0 0
0.0636949 -0.0772577 -0.0215577 255 0 0
0.0650152 -0.0764366 -0.0211624 255 0 0
0.0666915 -0.0769319 -0.0208868 255 0 0
0.0689812 -0.0769647 -0.0209515 255 0 0
0.0709261 -0.0767057 -0.0204865 255 0 0
0.0730298 -0.0771119 -0.0208018 255 0 0
0.0608804 -0.0748666 -0.0216656 255 0 0
0.0632298 -0.0749952 -0.0207882 255 0 0
0.0653223 -0.0749584 -0.0207617 255 0 0
0.0671477 -0.074952 -0.0206484 255 0 0
0.0688782 -0.0751144 -0.0203371 255 0 0
0.0714363 -0.0748184 -0.0206545 255 0 0
0.0722741 -0.0747301 -0.0205776 255 0 0
0.0597232 -0.0735636 -0.0215912 255 0 0
0.0613763 -0.0732248 -0.0206333 255 0 0
0.0630668 -0.0731739 -0.0202598 255 0 0
0.0659345 -0.0727765 -0.0202124 255 0 0
0.0669667 -0.0736004 -0.0204612 255 0 0
0.0693195 -0.07268 -0.0208633 255 0 0
0.0706465 -0.0736572 -0.0206697 255 0 0
0.0797484 -0.0724112 -0.0218647 255 0 0
0.0813027 -0.0729874 -0.0215646 255 0 0
0.0627599 -0.0719862 -0.0202946 255 0 0
0.0654545 -0.0710502 -0.0202739 255 0 0
0.0670552 -0.0709734 -0.0207635 255 0 0
0.0685784 -0.0710972 -0.0211561 255 0 0
0.0701726 -0.0707897 -0.0204432 255 0 0
0.0729613 -0.070803 -0.0219809 255 0 0
0.0791796 -0.070629 -0.021782 255 0 0
0.0804658 -0.0714533 -0.0210742 255 0 0
0.065022 -0.0694297 -0.0206069 255 0 0
0.0669211 -0.0692415 -0.0207979 255 0 0
0.0690824 -0.0687821 -0.0210779 255 0 0
0.0720003 -0.0686892 -0.0215181 255 0 0
0.0754454 -0.0685994 -0.0218752 255 0 0
0.0772385 -0.0688137 -0.0213583 255 0 0
0.0790107 -0.0693222 -0.0206984 255 0 0
0.0667656 -0.0678705 -0.0210943 255 0 0
0.0690052 -0.0669533 -0.0211888 255 0 0
0.0709882 -0.0672961 -0.0211007 255 0 0
0.0732764 -0.0671515 -0.0216725 255 0 0
0.0747853 -0.0665961 -0.0210906 255 0 0
0.0767101 -0.0669239 -0.0207003 255 0 0
0.0629955 -0.0647687 -0.0216614 255 0 0
0.065032 -0.064277 -0.0211593 255 0 0
0.0669609 -0.0655486 -0.0208873 255 0 0
0.0692423 -0.0648185 -0.0213919 255 0 0
0.0708546 -0.0649018 -0.0207513 255 0 0
0.0728536 -0.0651067 -0.0205379 255 0 0
0.0750915 -0.0656077 -0.0204904 255 0 0
0.0573265 -0.0622024 -0.0212056 255 0 0
0.0590715 -0.0626171 -0.0208162 255 0 0
0.0607078 -0.063341 -0.0209542 255 0 0
0.0629187 -0.0636523 -0.0207889 255 0 0
0.0657387 -0.0630364 -0.0207598 255 0 0
0.069615 -0.0634406 -0.0203701 255 0 0
0.0711074 -0.063197 -0.0203502 255 0 0
0.0557742 -0.0603223 -0.0218283 255 0 0
0.0570897 -0.060843 -0.0212168 255 0 0
0.0584129 -0.0613674 -0.0206025 255 0 0
0.0559378 -0.0585871 -0.0214653 255 0 0
0.0568398 -0.0592215 -0.0206276 255 0 0
0.0584659 -0.0593037 -0.0207311 255 0 0
0.0568359 -0.057214 -0.0211333 255 0 0
0.05859 -0.056773 -0.0209934 255 0 0
0.0649691 -0.0567636 -0.0201688 255 0 0
0.0565803 -0.0555772 -0.0210587 255 0 0
0.0591376 -0.0547161 -0.0209663 255 0 0
0.060046 -0.0557883 -0.0201027 255 0 0
0.065395 -0.0548747 -0.0208778 255 0 0
0.0589595 -0.0533884 -0.0206 255 0 0
0.065213 -0.0532477 -0.0212316 255 0 0
0.0584174 -0.0519449 -0.0209168 255 0 0
0.0645209 -0.051025 -0.0212886 255 0 0
0.06373 -0.0486046 -0.0209702 255 0 0
0.061676 -0.0465828 -0.0201602 255 0 0
0.0625909 -0.0473053 -0.0206002 255 0 0
0.0615857 -0.0451398 -0.0208861 255 0 0
0.0623751 -0.0459841 -0.0213303 255 0 0
0.211347 -0.210733 -0.0190338 255 0 0
0.209185 -0.208791 -0.0193309 255 0 0
0.208116 -0.206572 -0.0188462 255 0 0
0.207566 -0.205144 -0.0190234 255 0 0
0.206841 -0.2032 -0.0190074 255 0 0
0.205939 -0.20074 -0.0187981 255 0 0
0.205915 -0.199215 -0.0189628 255 0 0
0.205616 -0.196968 -0.0192168 255 0 0
0.204788 -0.194817 -0.0194836 255 0 0
0.204522 -0.193213 -0.0188964 255 0 0
0.203007 -0.191423 -0.0188994 255 0 0
0.20158 -0.189068 -0.0187021 255 0 0
0.192522 -0.187267 -0.0196885 255 0 0
0.194265 -0.186973 -0.0187423 255 0 0
0.199203 -0.187263 -0.0190054 255 0 0
0.191492 -0.184921 -0.0194702 255 0 0
0.193927 -0.185367 -0.0187723 255 0 0
0.1948 -0.184288 -0.0187696 255 0 0
0.196335 -0.185586 -0.0193184 255 0 0
0.191076 -0.182317 -0.0195823 255 0 0
0.193363 -0.183327 -0.0189138 255 0 0
0.20428 -0.182098 -0.0199591 255 0 0
0.190687 -0.181157 -0.018777 255 0 0
0.203095 -0.180198 -0.0196841 255 0 0
0.18886 -0.178979 -0.0189523 255 0 0
0.200903 -0.178644 -0.0193291 255 0 0
0.203094 -0.179148 -0.0185327 255 0 0
0.187752 -0.177347 -0.018864 255 0 0
0.199228 -0.17693 -0.0190165 255 0 0
0.200399 -0.17777 -0.0181436 255 0 0
0.186436 -0.174763 -0.0189899 255 0 0
0.196894 -0.174212 -0.0196151 255 0 0
0.198308 -0.175483 -0.0193365 255 0 0
0.185262 -0.172693 -0.0196515 255 0 0
0.1863 -0.172984 -0.0181226 255 0 0
0.19631 -0.172753 -0.018909 255 0 0
0.18351 -0.170524 -0.019127 255 0 0
0.184741 -0.171193 -0.0191399 255 0 0
0.18305 -0.16866 -0.0186905 255 0 0
0.184468 -0.169619 -0.0185684 255 0 0
0.193412 -0.169637 -0.0199395 255 0 0
0.17983 -0.166286 -0.0196311 255 0 0
0.18075 -0.167732 -0.0190077 255 0 0
0.183391 -0.166821 -0.0189144 255 0 0
0.184275 -0.16628 -0.0186629 255 0 0
0.19323 -0.167403 -0.0197489 255 0 0
0.178509 -0.164882 -0.0191453 255 0 0
0.181354 -0.164307 -0.0192842 255 0 0
0.182531 -0.1651 -0.0187302 255 0 0
0.184085 -0.165104 -0.019592 255 0 0
0.175704 -0.162182 -0.0198737 255 0 0
0.177032 -0.162703 -0.0186777 255 0 0
0.180817 -0.162911 -0.0194568 255 0 0
0.182499 -0.163461 -0.0192873 255 0 0
0.174889 -0.160708 -0.0196469 255 0 0
0.179298 -0.161037 -0.0197325 255 0 0
0.180327 -0.161299 -0.018155 255 0 0
0.182767 -0.161071 -0.0191383 255 0 0
0.174076 -0.159238 -0.0194207 255 0 0
0.178941 -0.159193 -0.0189457 255 0 0
0.172861 -0.15704 -0.0190829 255 0 0
0.177232 -0.15602 -0.01887 255 0 0
0.178241 -0.157262 -0.0186853 255 0 0
0.17142 -0.15461 -0.0190488 255 0 0
0.172274 -0.155154 -0.0185151 255 0 0
0.175757 -0.154936 -0.0190663 255 0 0
0.169392 -0.153085 -0.0188081 255 0 0
0.170219 -0.153217 -0.0191035 255 0 0
0.173756 -0.152471 -0.0194328 255 0 0
0.174755 -0.153702 -0.0192498 255 0 0
0.165801 -0.150024 -0.0183894 255 0 0
0.167641 -0.150878 -0.0189945 255 0 0
0.16881 -0.151404 -0.0193609 255 0 0
0.171827 -0.150684 -0.0189891 255 0 0
0.17276 -0.151243 -0.0196154 255 0 0
0.163888 -0.14866 -0.018061 255 0 0
0.165229 -0.148481 -0.0190898 255 0 0
0.166383 -0.149545 -0.0185215 255 0 0
0.168813 -0.149626 -0.0197427 255 0 0
0.171444 -0.148956 -0.0189393 255 0 0
0.161149 -0.146933 -0.0191155 255 0 0
0.163469 -0.147324 -0.0190821 255 0 0
0.171209 -0.146878 -0.0186673 255 0 0
0.15475 -0.144306 -0.0191299 255 0 0
0.156388 -0.145246 -0.0189034 255 0 0
0.158858 -0.14579 -0.0187506 255 0 0
0.162516 -0.144822 -0.0189103 255 0 0
0.171136 -0.145326 -0.0188261 255 0 0
0.150434 -0.143136 -0.0185016 255 0 0
0.152326 -0.143774 -0.0192795 255 0 0
0.16135 -0.142695 -0.018581 255 0 0
0.171487 -0.142818 -0.0190532 255 0 0
0.147944 -0.141564 -0.0185661 255 0 0
0.149893 -0.141517 -0.0197975 255 0 0
0.160575 -0.141282 -0.0183623 255 0 0
0.171377 -0.140468 -0.0192935 255 0 0
0.145166 -0.13858 -0.0180034 255 0 0
0.147785 -0.138781 -0.0188438 255 0 0
0.149267 -0.139603 -0.0195846 255 0 0
0.157928 -0.138748 -0.0190772 255 0 0
0.159593 -0.139915 -0.0197942 255 0 0
0.169381 -0.138031 -0.0196607 255 0 0
0.170378 -0.139248 -0.0194774 255 0 0
0.123283 -0.136473 -0.0192177 255 0 0
0.125381 -0.136941 -0.0190752 255 0 0
0.126866 -0.137159 -0.0192954 255 0 0
0.129175 -0.137075 -0.0186688 255 0 0
0.131162 -0.137189 -0.0180018 255 0 0
0.145695 -0.137024 -0.018942 255 0 0
0.155517 -0.136197 -0.0181504 255 0 0
0.156277 -0.13759 -0.0183665 255 0 0
0.165634 -0.136119 -0.018612 255 0 0
0.167728 -0.136982 -0.0191279 255 0 0
0.170352 -0.137467 -0.0181663 255 0 0
0.121271 -0.135012 -0.0186888 255 0 0
0.154543 -0.134841 -0.0195697 255 0 0
0.161457 -0.13462 -0.0190365 255 0 0
0.163313 -0.135455 -0.0188313 255 0 0
0.119508 -0.133818 -0.0189787 255 0 0
0.120235 -0.132137 -0.0198988 255 0 0
0.15335 -0.133578 -0.0191063 255 0 0
0.155575 -0.132232 -0.0189415 255 0 0
0.157383 -0.133048 -0.0187387 255 0 0
0.159181 -0.13397 -0.0192516 255 0 0
0.119284 -0.131188 -0.0192399 255 0 0
0.154205 -0.131243 -0.0191312 255 0 0
0.119515 -0.128886 -0.0191269 255 0 0
0.151254 -0.128511 -0.0188839 255 0 0
0.153289 -0.129978 -0.0185996 255 0 0
0.143385 -0.126409 -0.0182396 255 0 0
0.145501 -0.126998 -0.0180269 255 0 0
0.147486 -0.126273 -0.0193643 255 0 0
0.149233 -0.127053 -0.0191663 255 0 0
0.137555 -0.124494 -0.0188534 255 0 0
0.13922 -0.125248 -0.0186585 255 0 0
0.141015 -0.125265 -0.01922 255 0 0
0.143229 -0.1251 -0.0197768 255 0 0
0.145346 -0.125683 -0.0195716 255 0 0
0.131885 -0.122629 -0.0194504 255 0 0
0.133884 -0.123185 -0.0192496 255 0 0
0.13552 -0.123927 -0.0190579 255 0 0
0.12868 -0.12117 -0.0198262 255 0 0
0.130889 -0.120983 -0.0187727 255 0 0
0.13306 -0.121897 -0.0180665 255 0 0
0.12775 -0.118446 -0.0188018 255 0 0
0.129713 -0.118977 -0.0185992 255 0 0
0.12079 -0.116002 -0.019572 255 0 0
0.123106 -0.117049 -0.019294 255 0 0
0.125806 -0.11792 -0.0190023 255 0 0
0.104531 -0.114884 -0.019267 255 0 0
0.106931 -0.114919 -0.0191766 255 0 0
0.108125 -0.115818 -0.018953 255 0 0
0.119958 -0.114938 -0.0197359 255 0 0
0.120423 -0.115295 -0.0183399 255 0 0
0.124162 -0.115587 -0.0180073 255 0 0
0.10376 -0.112531 -0.0190089 255 0 0
0.104526 -0.113997 -0.018305 255 0 0
0.119001 -0.113344 -0.019076 255 0 0
0.10269 -0.110691 -0.0190389 255 0 0
0.11739 -0.110148 -0.0190587 255 0 0
0.118217 -0.111205 -0.0188944 255 0 0
0.097543 -0.108274 -0.0191566 255 0 0
0.0995705 -0.108488 -0.0190329 255 0 0
0.100438 -0.109585 -0.0187799 255 0 0
0.1154 -0.108237 -0.0193963 255 0 0
0.116565 -0.109094 -0.0192226 255 0 0
0.0932693 -0.106548 -0.0188329 255 0 0
0.0949692 -0.107409 -0.0191505 255 0 0
0.110936 -0.106272 -0.0199413 255 0 0
0.113263 -0.106889 -0.0192569 255 0 0
0.115656 -0.10643 -0.0182201 255 0 0
0.11717 -0.107089 -0.0180312 255 0 0
0.0911168 -0.104834 -0.018987 255 0 0
0.0927045 -0.105902 -0.0187076 255 0 0
0.108718 -0.104428 -0.0189941 255 0 0
0.110916 -0.105391 -0.0187193 255 0 0
0.0889818 -0.103059 -0.0194301 255 0 0
0.0907359 -0.103106 -0.0182365 255 0 0
0.107357 -0.102984 -0.0192404 255 0 0
0.0874071 -0.100997 -0.019355 255 0 0
0.0893387 -0.101395 -0.0183603 255 0 0
0.0865646 -0.0988498 -0.0195403 255 0 0
0.0882186 -0.0994641 -0.0185153 255 0 0
0.0983556 -0.0987046 -0.0191305 255 0 0
0.100369 -0.0989155 -0.0189318 255 0 0
0.0857201 -0.0966998 -0.0197264 255 0 0
0.0870965 -0.0970279 -0.0184926 255 0 0
0.0974 -0.0967901 -0.0189636 255 0 0
0.0982529 -0.0971492 -0.0180114 255 0 0
0.0855697 -0.095293 -0.0191818 255 0 0
0.0917341 -0.094001 -0.0188922 255 0 0
0.0932057 -0.0945614 -0.0193312 255 0 0
0.0947138 -0.0950477 -0.0191513 255 0 0
0.0965398 -0.0953369 -0.0189588 255 0 0
0.0779019 -0.0920224 -0.0199196 255 0 0
0.0816086 -0.0922895 -0.0196859 255 0 0
0.0828283 -0.0929999 -0.0194873 255 0 0
0.0846855 -0.0933296 -0.0187811 255 0 0
0.0893594 -0.0926484 -0.0192309 255 0 0
0.0906904 -0.0932228 -0.019057 255 0 0
0.0747678 -0.0904621 -0.0193022 255 0 0
0.0769815 -0.0908965 -0.0188324 255 0 0
0.07961 -0.0914168 -0.0188654 255 0 0
0.0816029 -0.0914313 -0.0187584 255 0 0
0.0829523 -0.0915942 -0.0181078 255 0 0
0.08599 -0.090546 -0.0197273 255 0 0
0.0868957 -0.09082 -0.0187989 255 0 0
0.0884967 -0.0917 -0.0187753 255 0 0
0.0738285 -0.0887951 -0.0192709 255 0 0
0.0750125 -0.0893901 -0.0184214 255 0 0
0.0855666 -0.0893056 -0.0192602 255 0 0
0.0717518 -0.0870953 -0.0190417 255 0 0
0.0731641 -0.087551 -0.0188761 255 0 0
0.0852649 -0.0870771 -0.0191738 255 0 0
0.0708143 -0.0851892 -0.0189254 255 0 0
0.083205 -0.0845965 -0.0189839 255 0 0
0.0843901 -0.0853427 -0.0193083 255 0 0
0.0702279 -0.0831974 -0.0198727 255 0 0
0.0815133 -0.0827047 -0.0197215 255 0 0
0.0829202 -0.0829474 -0.0189491 255 0 0
0.0842542 -0.0836344 -0.0195663 255 0 0
0.0868694 -0.0823227 -0.0198372 255 0 0
0.0785584 -0.0809236 -0.0188269 255 0 0
0.0808076 -0.0813977 -0.0191616 255 0 0
0.0831258 -0.0806042 -0.0193204 255 0 0
0.0857208 -0.0800191 -0.0194681 255 0 0
0.0862944 -0.0811696 -0.0196524 255 0 0
0.0750292 -0.0782746 -0.0191845 255 0 0
0.0767426 -0.078909 -0.0189761 255 0 0
0.0787569 -0.0792317 -0.0191012 255 0 0
0.0811457 -0.0790172 -0.0188302 255 0 0
0.0839988 -0.0780787 -0.0186796 255 0 0
0.0851486 -0.0788712 -0.0192843 255 0 0
0.0864498 -0.0790651 -0.0184781 255 0 0
0.0709581 -0.0760262 -0.0199845 255 0 0
0.073481 -0.0770189 -0.0193725 255 0 0
0.0748488 -0.077411 -0.0186554 255 0 0
0.078624 -0.0779628 -0.0184292 255 0 0
0.0803082 -0.0771519 -0.0180614 255 0 0
0.0828575 -0.0772916 -0.0180792 255 0 0
0.0693692 -0.0741706 -0.0192256 255 0 0
0.0709736 -0.0752177 -0.0190848 255 0 0
0.0730936 -0.075461 -0.0192345 255 0 0
0.0646851 -0.0732765 -0.0198115 255 0 0
0.0670895 -0.0731159 -0.0189052 255 0 0
0.0687483 -0.0729737 -0.0186883 255 0 0
0.0705458 -0.0736702 -0.0186437 255 0 0
0.0721307 -0.0739469 -0.01886 255 0 0
0.0637313 -0.0715088 -0.0197739 255 0 0
0.0658019 -0.070751 -0.019297 255 0 0
0.0671559 -0.071303 -0.0190063 255 0 0
0.0798041 -0.0702662 -0.0187035 255 0 0
0.0802991 -0.0713371 -0.0189359 255 0 0
0.065389 -0.068922 -0.0191898 255 0 0
0.0662147 -0.0698155 -0.0186369 255 0 0
0.0794849 -0.0690274 -0.0187385 255 0 0
0.0636084 -0.0662941 -0.0181995 255 0 0
0.0650493 -0.0669202 -0.0188373 255 0 0
0.0779752 -0.0668867 -0.019615 255 0 0
0.0788266 -0.0674303 -0.0191434 255 0 0
0.0625974 -0.0648515 -0.0182277 255 0 0
0.0654928 -0.0644304 -0.0191487 255 0 0
0.0752307 -0.064793 -0.0196235 255 0 0
0.0768225 -0.0649345 -0.0188849 255 0 0
0.0781938 -0.0648642 -0.0185942 255 0 0
0.0608272 -0.0628493 -0.0187187 255 0 0
0.0653369 -0.0630075 -0.0186868 255 0 0
0.0718021 -0.0622497 -0.0195709 255 0 0
0.0732347 -0.0631929 -0.0196974 255 0 0
0.0744033 -0.0629779 -0.0185809 255 0 0
0.0595677 -0.0610037 -0.0195713 255 0 0
0.0604746 -0.0613683 -0.0182837 255 0 0
0.0648104 -0.0611968 -0.0188891 255 0 0
0.0708167 -0.0614581 -0.0196083 255 0 0
0.0730091 -0.0610444 -0.018523 255 0 0
0.0579091 -0.0581166 -0.0194226 255 0 0
0.0592866 -0.0591219 -0.0189628 255 0 0
0.0607349 -0.0593759 -0.0188555 255 0 0
0.0645359 -0.0591553 -0.0190821 255 0 0
0.0572681 -0.0571394 -0.0198118 255 0 0
0.0591061 -0.0568601 -0.0190192 255 0 0
0.0611495 -0.056962 -0.0189815 255 0 0
0.0635842 -0.0560363 -0.0180827 255 0 0
0.0642864 -0.0570376 -0.0186827 255 0 0
0.0591335 -0.0546471 -0.0194082 255 0 0
0.0603999 -0.0545599 -0.0194622 255 0 0
0.0624526 -0.0545927 -0.0186026 255 0 0
0.06401 -0.0549816 -0.018876 255 0 0
0.0593851 -0.0531488 -0.0190589 255 0 0
0.0611427 -0.0526193 -0.0193928 255 0 0
0.0632063 -0.0527343 -0.0188313 255 0 0
0.0595038 -0.051019 -0.0187229 255 0 0
0.0612125 -0.0514719 -0.0185996 255 0 0
0.063607 -0.0506589 -0.0186638 255 0 0
0.0630682 -0.0488987 -0.0189526 255 0 0
0.0614959 -0.0463835 -0.0186402 255 0 0
0.0621873 -0.047282 -0.0184906 255 0 0
0.0610563 -0.045241 -0.0187796 255 0 0
0.210854 -0.210575 -0.0175294 255 0 0
0.209237 -0.209309 -0.0177355 255 0 0
0.210882 -0.208823 -0.016174 255 0 0
0.209242 -0.207134 -0.0169419 255 0 0
0.208162 -0.204701 -0.0167384 255 0 0
0.207082 -0.203362 -0.016931 255 0 0
0.205983 -0.200506 -0.017285 255 0 0
0.206532 -0.201934 -0.017108 255 0 0
0.20596 -0.19898 -0.0174473 255 0 0
0.205416 -0.19696 -0.017174 255 0 0
0.204696 -0.194974 -0.0169054 255 0 0
0.203801 -0.193022 -0.0166412 255 0 0
0.202451 -0.190982 -0.0169226 255 0 0
0.201106 -0.188948 -0.0172032 255 0 0
0.197714 -0.186491 -0.0168716 255 0 0
0.199522 -0.187745 -0.0174096 255 0 0
0.195141 -0.184655 -0.0164396 255 0 0
0.19638 -0.185358 -0.0178188 255 0 0
0.192819 -0.18289 -0.0167484 255 0 0
0.191013 -0.18102 -0.0170395 255 0 0
0.189214 -0.179158 -0.0173293 255 0 0
0.187669 -0.176372 -0.0169507 255 0 0
0.188208 -0.17777 -0.0167777 255 0 0
0.199063 -0.176566 -0.0173788 255 0 0
0.18762 -0.174844 -0.0171088 255 0 0
0.185366 -0.173438 -0.0178715 255 0 0
0.18659 -0.172698 -0.0166359 255 0 0
0.183686 -0.170424 -0.0174167 255 0 0
0.185031 -0.171296 -0.0172734 255 0 0
0.182349 -0.169003 -0.016935 255 0 0
0.184999 -0.169264 -0.0170761 255 0 0
0.180407 -0.166629 -0.0168726 255 0 0
0.183921 -0.166463 -0.0174222 255 0 0
0.18446 -0.167864 -0.0172492 255 0 0
0.178692 -0.164793 -0.0174487 255 0 0
0.182917 -0.165347 -0.0170424 255 0 0
0.176729 -0.162707 -0.0167342 255 0 0
0.181606 -0.162369 -0.0172234 255 0 0
0.182332 -0.163732 -0.0170996 255 0 0
0.174918 -0.160475 -0.0167726 255 0 0
0.180852 -0.160936 -0.0166661 255 0 0
0.173768 -0.159278 -0.0169557 255 0 0
0.174265 -0.159159 -0.0177348 255 0 0
0.179095 -0.159139 -0.0169548 255 0 0
0.172706 -0.156985 -0.0172674 255 0 0
0.177344 -0.15735 -0.0172423 255 0 0
0.171308 -0.155106 -0.0168575 255 0 0
0.175361 -0.154771 -0.016882 255 0 0
0.176809 -0.155959 -0.017414 255 0 0
0.169425 -0.152398 -0.016994 255 0 0
0.170524 -0.153632 -0.016284 255 0 0
0.173243 -0.152842 -0.0169628 255 0 0
0.174338 -0.153645 -0.0177988 255 0 0
0.165586 -0.150397 -0.0163717 255 0 0
0.167262 -0.151193 -0.017182 255 0 0
0.171019 -0.151361 -0.0173606 255 0 0
0.163044 -0.148069 -0.0169106 255 0 0
0.164948 -0.148773 -0.0166533 255 0 0
0.167047 -0.149379 -0.0171075 255 0 0
0.171597 -0.148906 -0.0169652 255 0 0
0.158871 -0.146559 -0.0173074 255 0 0
0.161365 -0.147112 -0.0171453 255 0 0
0.164679 -0.146709 -0.0171278 255 0 0
0.171719 -0.146503 -0.017192 255 0 0
0.153061 -0.144328 -0.0169411 255 0 0
0.155174 -0.144872 -0.0177326 255 0 0
0.156608 -0.145425 -0.0169538 255 0 0
0.15805 -0.14598 -0.0161715 255 0 0
0.162721 -0.14477 -0.017257 255 0 0
0.172109 -0.144781 -0.0173344 255 0 0
0.146633 -0.142546 -0.0165207 255 0 0
0.148677 -0.143074 -0.0172974 255 0 0
0.150578 -0.143987 -0.0161274 255 0 0
0.161555 -0.142647 -0.0169315 255 0 0
0.172293 -0.143029 -0.0167495 255 0 0
0.144568 -0.140791 -0.0166267 255 0 0
0.146784 -0.14121 -0.0174173 255 0 0
0.160331 -0.141353 -0.0164706 255 0 0
0.172686 -0.141289 -0.0168914 255 0 0
0.138941 -0.138788 -0.0162656 255 0 0
0.159018 -0.139549 -0.0171961 255 0 0
0.17161 -0.138492 -0.0172362 255 0 0
0.172381 -0.139803 -0.0170569 255 0 0
0.123571 -0.136012 -0.0178376 255 0 0
0.1255 -0.13612 -0.0171766 255 0 0
0.127448 -0.136229 -0.0165096 255 0 0
0.128951 -0.136904 -0.0172191 255 0 0
0.132458 -0.136774 -0.0162553 255 0 0
0.135253 -0.136758 -0.0170862 255 0 0
0.138702 -0.137665 -0.0171145 255 0 0
0.155291 -0.136284 -0.0162767 255 0 0
0.156489 -0.137552 -0.0167323 255 0 0
0.16803 -0.136582 -0.0169271 255 0 0
0.170402 -0.137258 -0.0166951 255 0 0
0.121324 -0.134747 -0.0169883 255 0 0
0.122569 -0.135694 -0.0167579 255 0 0
0.124487 -0.135801 -0.0160942 255 0 0
0.154428 -0.134915 -0.0168777 255 0 0
0.160653 -0.134673 -0.0169031 255 0 0
0.163363 -0.135251 -0.0173835 255 0 0
0.165684 -0.135913 -0.0171565 255 0 0
0.119502 -0.132467 -0.0175095 255 0 0
0.120574 -0.133057 -0.016774 255 0 0
0.153132 -0.133673 -0.0172341 255 0 0
0.157458 -0.132748 -0.0165959 255 0 0
0.159038 -0.133757 -0.0171068 255 0 0
0.119899 -0.130528 -0.0178978 255 0 0
0.153176 -0.130636 -0.0171134 255 0 0
0.15565 -0.131934 -0.0168071 255 0 0
0.146059 -0.128128 -0.0164728 255 0 0
0.149176 -0.128874 -0.016633 255 0 0
0.151143 -0.129167 -0.0174031 255 0 0
0.13977 -0.126362 -0.0171276 255 0 0
0.141845 -0.126945 -0.0169116 255 0 0
0.143941 -0.127534 -0.0166933 255 0 0
0.147638 -0.127594 -0.0178121 255 0 0
0.137435 -0.124305 -0.016812 255 0 0
0.138491 -0.125424 -0.0173148 255 0 0
0.135097 -0.122358 -0.0171781 255 0 0
0.136551 -0.123192 -0.0169853 255 0 0
0.132991 -0.120242 -0.0168591 255 0 0
0.134244 -0.12116 -0.0166728 255 0 0
0.131311 -0.118782 -0.0171302 255 0 0
0.125007 -0.116663 -0.0178397 255 0 0
0.126944 -0.117182 -0.0176338 255 0 0
0.128925 -0.117615 -0.0167552 255 0 0
0.122654 -0.114714 -0.0168763 255 0 0
0.104821 -0.11245 -0.0168917 255 0 0
0.106924 -0.11358 -0.0177238 255 0 0
0.121815 -0.113646 -0.0170441 255 0 0
0.103204 -0.11079 -0.0170058 255 0 0
0.12043 -0.1106 -0.0174365 255 0 0
0.0978136 -0.108046 -0.0169405 255 0 0
0.0989698 -0.108628 -0.0171485 255 0 0
0.101004 -0.109577 -0.0170592 255 0 0
0.119529 -0.108812 -0.0176743 255 0 0
0.0952427 -0.106533 -0.0173559 255 0 0
0.0965248 -0.107288 -0.0171489 255 0 0
0.118829 -0.106841 -0.0172462 255 0 0
0.0934475 -0.105026 -0.0169923 255 0 0
0.0949535 -0.105881 -0.0163817 255 0 0
0.113724 -0.104363 -0.0172565 255 0 0
0.115913 -0.104615 -0.0170385 255 0 0
0.117085 -0.105467 -0.0168584 255 0 0
0.0914305 -0.102771 -0.0174381 255 0 0
0.092551 -0.10319 -0.0167467 255 0 0
0.109614 -0.102244 -0.0178111 255 0 0
0.110753 -0.103078 -0.0176356 255 0 0
0.112233 -0.103718 -0.0174467 255 0 0
0.0911388 -0.100382 -0.0168078 255 0 0
0.109141 -0.101013 -0.0179622 255 0 0
0.112411 -0.10119 -0.0163411 255 0 0
0.0894125 -0.0987849 -0.0174827 255 0 0
0.090991 -0.0989678 -0.0162568 255 0 0
0.0990231 -0.0981484 -0.0178529 255 0 0
0.10136 -0.0981566 -0.0176344 255 0 0
0.0887499 -0.0966212 -0.0171052 255 0 0
0.090145 -0.0974607 -0.0160379 255 0 0
0.0992316 -0.0963884 -0.0167173 255 0 0
0.101021 -0.097492 -0.0164496 255 0 0
0.086937 -0.094601 -0.017591 255 0 0
0.0884627 -0.0953208 -0.016541 255 0 0
0.0956974 -0.0942076 -0.0172459 255 0 0
0.0976888 -0.0943916 -0.017037 255 0 0
0.0984593 -0.095389 -0.0168773 255 0 0
0.0856829 -0.0927876 -0.0177315 255 0 0
0.0870629 -0.0931085 -0.0164899 255 0 0
0.0899936 -0.0920925 -0.0179794 255 0 0
0.079731 -0.0900205 -0.0174961 255 0 0
0.0815973 -0.0905729 -0.0178306 255 0 0
0.0829467 -0.0907333 -0.0171772 255 0 0
0.0847642 -0.0915246 -0.0169229 255 0 0
0.0860887 -0.0902422 -0.0172887 255 0 0
0.0882651 -0.0901977 -0.017073 255 0 0
0.0750067 -0.0885457 -0.0175095 255 0 0
0.0769219 -0.0891627 -0.0172801 255 0 0
0.07906 -0.0886623 -0.0164379 255 0 0
0.0815916 -0.0897143 -0.0169026 255 0 0
0.0829411 -0.0898722 -0.0162464 255 0 0
0.0711308 -0.0864118 -0.0176095 255 0 0
0.0735559 -0.087014 -0.0176175 255 0 0
0.0750009 -0.0877011 -0.0165973 255 0 0
0.085539 -0.0869218 -0.0176217 255 0 0
0.0849036 -0.0850584 -0.0169193 255 0 0
0.0837334 -0.0828958 -0.0169123 255 0 0
0.0786337 -0.0807036 -0.0170207 255 0 0
0.080957 -0.0811767 -0.0167346 255 0 0
0.0830022 -0.0819404 -0.0170672 255 0 0
0.0774244 -0.0793989 -0.0172552 255 0 0
0.0749592 -0.0767728 -0.0172105 255 0 0
0.0770172 -0.0775008 -0.0173581 255 0 0
0.0794713 -0.0762 -0.0176758 255 0 0
0.0820085 -0.0763331 -0.0176907 255 0 0
0.0846701 -0.0774854 -0.0170765 255 0 0
0.0715356 -0.0747041 -0.0174644 255 0 0
0.0731037 -0.0746598 -0.0173487 255 0 0
0.0745831 -0.0750237 -0.0166508 255 0 0
0.0775325 -0.0759557 -0.0164751 255 0 0
0.0794822 -0.0749629 -0.0163042 255 0 0
0.080881 -0.0755566 -0.0170976 255 0 0
0.0825832 -0.0754754 -0.0166057 255 0 0
0.0691309 -0.0725011 -0.0169166 255 0 0
0.0711688 -0.0732721 -0.0170635 255 0 0
0.0729779 -0.0735885 -0.0168005 255 0 0
0.0670908 -0.0708818 -0.0169638 255 0 0
0.0805011 -0.0701001 -0.01763 255 0 0
0.0659072 -0.0686038 -0.0173462 255 0 0
0.0663086 -0.0691392 -0.0166913 255 0 0
0.0808707 -0.0690504 -0.0171147 255 0 0
0.0655579 -0.067042 -0.0171303 255 0 0
0.0795285 -0.0671757 -0.0174515 255 0 0
0.0630306 -0.0644965 -0.0170809 255 0 0
0.065324 -0.0653542 -0.0173036 255 0 0
0.0660299 -0.0652848 -0.0166521 255 0 0
0.0788907 -0.0646999 -0.0175213 255 0 0
0.0616268 -0.0624451 -0.017639 255 0 0
0.0629206 -0.0632984 -0.0175357 255 0 0
0.0656679 -0.0625767 -0.0169036 255 0 0
0.0661034 -0.0637085 -0.0167655 255 0 0
0.0752635 -0.0626404 -0.0177797 255 0 0
0.0610442 -0.0607258 -0.0171704 255 0 0
0.0620958 -0.0619071 -0.0163689 255 0 0
0.0652682 -0.0606511 -0.0170989 255 0 0
0.0745364 -0.061062 -0.0174371 255 0 0
0.0611543 -0.0588559 -0.0171483 255 0 0
0.0631631 -0.0585161 -0.0163975 255 0 0
0.0650204 -0.0585373 -0.0166962 255 0 0
0.0597419 -0.0568516 -0.0171497 255 0 0
0.0633733 -0.0572792 -0.0172381 255 0 0
0.0644931 -0.0566569 -0.0168415 255 0 0
0.0597098 -0.0546898 -0.0174853 255 0 0
0.0602559 -0.0545899 -0.0163369 255 0 0
0.0634699 -0.0543452 -0.0175599 255 0 0
0.0643887 -0.0547899 -0.0170622 255 0 0
0.0596882 -0.0532438 -0.0177097 255 0 0
0.0604805 -0.0529492 -0.016756 255 0 0
0.0635936 -0.0528585 -0.0173473 255 0 0
0.0651667 -0.053029 -0.0166225 255 0 0
0.0614906 -0.0509122 -0.0172399 255 0 0
0.0633555 -0.0509987 -0.0170453 255 0 0
0.0647764 -0.0516844 -0.0165608 255 0 0
0.0662101 -0.0507055 -0.0160805 255 0 0
0.0616555 -0.0491885 -0.0165636 255 0 0
0.0629105 -0.0492173 -0.0169839 255 0 0
0.0652485 -0.0498039 -0.0163335 255 0 0
0.0613571 -0.0471807 -0.0168062 255 0 0
0.0622104 -0.0474748 -0.0172626 255 0 0
0.0720534 -0.0460287 -0.0160804 255 0 0
0.0605126 -0.0456544 -0.0170239 255 0 0
0.0649303 -0.0450434 -0.0171238 255 0 0
0.0751272 -0.0444956 -0.0163529 255 0 0
0.0724844 -0.0428758 -0.0165635 255 0 0
0.0762768 -0.042324 -0.0164272 255 0 0
0.0758916 -0.0411989 -0.0169974 255 0 0
0.0774373 -0.0401326 -0.0165024 255 0 0
0.0785073 -0.0388653 -0.0167745 255 0 0
0.0767648 -0.0369317 -0.0174539 255 0 0
0.0787399 -0.037242 -0.017023 255 0 0
0.0767788 -0.0348401 -0.0163462 255 0 0
0.0791387 -0.0359162 -0.016342 255 0 0
0.21251 -0.210093 -0.0159627 255 0 0
0.210925 -0.208585 -0.0146565 255 0 0
0.212014 -0.209936 -0.0144602 255 0 0
0.209838 -0.207238 -0.0148524 255 0 0
0.209012 -0.205092 -0.0151181 255 0 0
0.207655 -0.203036 -0.0154015 255 0 0
0.205544 -0.200132 -0.0142805 255 0 0
0.206232 -0.201176 -0.0151576 255 0 0
0.204995 -0.198707 -0.0144569 255 0 0
0.206004 -0.198746 -0.0159326 255 0 0
0.204447 -0.19728 -0.0146333 255 0 0
0.203623 -0.195141 -0.014898 255 0 0
0.202799 -0.193 -0.0151627 255 0 0
0.201034 -0.190726 -0.0149849 255 0 0
0.199644 -0.188821 -0.0142402 255 0 0
0.200115 -0.18894 -0.0157266 255 0 0
0.197016 -0.18632 -0.0146473 255 0 0
0.198818 -0.18757 -0.0151772 255 0 0
0.195457 -0.185134 -0.0148587 255 0 0
0.193385 -0.18331 -0.0151648 255 0 0
0.19081 -0.180855 -0.0155642 255 0 0
0.189529 -0.178762 -0.0151003 255 0 0
0.190832 -0.17987 -0.0141593 255 0 0
0.188767 -0.177313 -0.0145429 255 0 0
0.1872 -0.174641 -0.0149066 255 0 0
0.188228 -0.175913 -0.0147158 255 0 0
0.183355 -0.172839 -0.0151628 255 0 0
0.186661 -0.173242 -0.0150793 255 0 0
0.182857 -0.17048 -0.0152069 255 0 0
0.185584 -0.170444 -0.0154248 255 0 0
0.186123 -0.171843 -0.015252 255 0 0
0.182026 -0.168986 -0.0149847 255 0 0
0.184827 -0.169003 -0.0148683 255 0 0
0.179877 -0.166095 -0.0142927 255 0 0
0.181197 -0.167496 -0.0147631 255 0 0
0.18375 -0.166205 -0.0152135 255 0 0
0.184288 -0.167604 -0.0150409 255 0 0
0.178965 -0.164659 -0.0149156 255 0 0
0.182994 -0.164768 -0.0146562 255 0 0
0.177565 -0.163313 -0.0152863 255 0 0
0.182456 -0.16337 -0.0148287 255 0 0
0.17545 -0.160465 -0.0145984 255 0 0
0.176262 -0.161931 -0.0148173 255 0 0
0.181409 -0.161345 -0.0150963 255 0 0
0.173972 -0.159174 -0.015805 255 0 0
0.174406 -0.158749 -0.0150169 255 0 0
0.177975 -0.158312 -0.0141374 255 0 0
0.179142 -0.158924 -0.0154838 255 0 0
0.171367 -0.156566 -0.014962 255 0 0
0.172657 -0.157274 -0.0152077 255 0 0
0.175477 -0.156097 -0.015266 255 0 0
0.176946 -0.15718 -0.0150604 255 0 0
0.168993 -0.15487 -0.0140702 255 0 0
0.17136 -0.154856 -0.0152324 255 0 0
0.174038 -0.154914 -0.0147412 255 0 0
0.167288 -0.152632 -0.0152217 255 0 0
0.169138 -0.152866 -0.0147168 255 0 0
0.170287 -0.153464 -0.0146849 255 0 0
0.17301 -0.152921 -0.0150052 255 0 0
0.166648 -0.150673 -0.0150014 255 0 0
0.168133 -0.150721 -0.0148371 255 0 0
0.171983 -0.150929 -0.0152691 255 0 0
0.163257 -0.148246 -0.0149409 255 0 0
0.164736 -0.149308 -0.0146855 255 0 0
0.167245 -0.149319 -0.0154483 255 0 0
0.171416 -0.148778 -0.0155159 255 0 0
0.15991 -0.146338 -0.0154177 255 0 0
0.161369 -0.146898 -0.0146273 255 0 0
0.162204 -0.147482 -0.015766 255 0 0
0.165602 -0.147284 -0.0148799 255 0 0
0.171768 -0.146294 -0.0157301 255 0 0
0.17235 -0.14747 -0.0140984 255 0 0
0.152773 -0.144133 -0.0154174 255 0 0
0.155394 -0.144566 -0.0152625 255 0 0
0.157639 -0.145204 -0.0150728 255 0 0
0.159496 -0.145558 -0.0143159 255 0 0
0.163425 -0.144863 -0.0152596 255 0 0
0.172678 -0.144782 -0.0148221 255 0 0
0.143221 -0.14243 -0.0141737 255 0 0
0.145107 -0.142389 -0.015356 255 0 0
0.146865 -0.143202 -0.0151424 255 0 0
0.149406 -0.143624 -0.0149857 255 0 0
0.152374 -0.143368 -0.0143329 255 0 0
0.16176 -0.142599 -0.0152876 255 0 0
0.173532 -0.142285 -0.0145012 255 0 0
0.140151 -0.14063 -0.0146347 255 0 0
0.142241 -0.141702 -0.014963 255 0 0
0.160537 -0.141308 -0.0148319 255 0 0
0.173461 -0.140712 -0.0146552 255 0 0
0.137297 -0.138283 -0.0145977 255 0 0
0.13881 -0.13917 -0.0143677 255 0 0
0.158891 -0.139066 -0.014862 255 0 0
0.173391 -0.139134 -0.0148097 255 0 0
0.129069 -0.136078 -0.015308 255 0 0
0.132931 -0.136203 -0.014859 255 0 0
0.135133 -0.137143 -0.0151986 255 0 0
0.137239 -0.137532 -0.0159639 255 0 0
0.155942 -0.136125 -0.0148925 255 0 0
0.1567 -0.137514 -0.0151036 255 0 0
0.168105 -0.136272 -0.0147339 255 0 0
0.170452 -0.13705 -0.0152248 255 0 0
0.172383 -0.137911 -0.0150001 255 0 0
0.122565 -0.134791 -0.0157745 255 0 0
0.124483 -0.134894 -0.0151063 255 0 0
0.126761 -0.135254 -0.0149574 255 0 0
0.130698 -0.135925 -0.0140956 255 0 0
0.155185 -0.13474 -0.014682 255 0 0
0.16029 -0.134549 -0.0147654 255 0 0
0.163438 -0.134945 -0.0152135 255 0 0
0.165759 -0.135605 -0.014975 255 0 0
0.121319 -0.133395 -0.0155161 255 0 0
0.122894 -0.133689 -0.0148194 255 0 0
0.124815 -0.133787 -0.0141461 255 0 0
0.153672 -0.133564 -0.0149233 255 0 0
0.157076 -0.132727 -0.0151855 255 0 0
0.158895 -0.133546 -0.0149676 255 0 0
0.151107 -0.130483 -0.0151505 255 0 0
0.152876 -0.131281 -0.0149355 255 0 0
0.155085 -0.131906 -0.0147014 255 0 0
0.145703 -0.128117 -0.0150989 255 0 0
0.147838 -0.128716 -0.0148694 255 0 0
0.149582 -0.129503 -0.0146548 255 0 0
0.139819 -0.126174 -0.015758 255 0 0
0.141523 -0.126842 -0.0148639 255 0 0
0.14359 -0.127524 -0.015326 255 0 0
0.139388 -0.125242 -0.0149572 255 0 0
0.137589 -0.122452 -0.014902 255 0 0
0.138477 -0.123567 -0.0147258 255 0 0
0.136454 -0.12069 -0.0151575 255 0 0
0.13136 -0.118599 -0.0157816 255 0 0
0.135346 -0.118841 -0.0147314 255 0 0
0.134872 -0.117452 -0.0142094 255 0 0
0.131109 -0.114729 -0.0147864 255 0 0
0.132735 -0.11544 -0.0145783 255 0 0
0.134755 -0.115963 -0.0143514 255 0 0
0.127894 -0.113323 -0.0151981 255 0 0
0.129867 -0.11383 -0.0149769 255 0 0
0.101572 -0.110009 -0.015817 255 0 0
0.103035 -0.110229 -0.015138 255 0 0
0.104359 -0.111002 -0.0149226 255 0 0
0.0988041 -0.108364 -0.0148678 255 0 0
0.10084 -0.109019 -0.0151995 255 0 0
0.102732 -0.109563 -0.0141513 255 0 0
0.0967529 -0.106956 -0.0155253 255 0 0
0.0980812 -0.107382 -0.0142563 255 0 0
0.115755 -0.106086 -0.0156046 255 0 0
0.0952298 -0.104934 -0.0148806 255 0 0
0.115619 -0.104642 -0.0157426 255 0 0
0.0932509 -0.102853 -0.0159429 255 0 0
0.094094 -0.103059 -0.0147466 255 0 0
0.114796 -0.103595 -0.0159101 255 0 0
0.0929618 -0.101114 -0.014904 255 0 0
0.0918307 -0.0991712 -0.015062 255 0 0
0.0910732 -0.0970004 -0.0149642 255 0 0
0.0892935 -0.0949337 -0.0154606 255 0 0
0.0906896 -0.0952603 -0.014208 255 0 0
0.0877497 -0.0924007 -0.0149277 255 0 0
0.0887267 -0.0933515 -0.0146883 255 0 0
0.0850326 -0.0905813 -0.0154373 255 0 0
0.0866369 -0.0911353 -0.0146837 255 0 0
0.0813206 -0.0886602 -0.015483 255 0 0
0.0826706 -0.0892451 -0.0152881 255 0 0
0.0840264 -0.0894016 -0.0146257 255 0 0
0.0802394 -0.0878443 -0.0157043 255 0 0
0.0855365 -0.0844528 -0.0153651 255 0 0
0.083277 -0.0823739 -0.0157772 255 0 0
0.0845899 -0.0830739 -0.0147601 255 0 0
0.0784601 -0.0806204 -0.0146288 255 0 0
0.0810316 -0.0809547 -0.014917 255 0 0
0.0828207 -0.0818527 -0.0146455 255 0 0
0.077533 -0.0788697 -0.0150714 255 0 0
0.0783157 -0.0791872 -0.0141524 255 0 0
0.0753654 -0.0763758 -0.0159138 255 0 0
0.0767229 -0.0769774 -0.0149095 255 0 0
0.0839994 -0.0770616 -0.0156693 255 0 0
0.0753687 -0.074666 -0.0150682 255 0 0
0.0771289 -0.074871 -0.0156056 255 0 0
0.0808901 -0.0743163 -0.0157223 255 0 0
0.0831523 -0.0753608 -0.0154027 255 0 0
0.0692848 -0.0724746 -0.0153236 255 0 0
0.0713251 -0.0725566 -0.0152203 255 0 0
0.073347 -0.0728313 -0.015003 255 0 0
0.0742914 -0.0731779 -0.0150702 255 0 0
0.0765883 -0.073148 -0.014754 255 0 0
0.0792171 -0.0731704 -0.0148494 255 0 0
0.0811808 -0.0728994 -0.0145534 255 0 0
0.0823078 -0.073665 -0.0151369 255 0 0
0.0676636 -0.0708179 -0.0152476 255 0 0
0.0688604 -0.0713119 -0.0151712 255 0 0
0.0707688 -0.0712496 -0.0151943 255 0 0
0.0727395 -0.0712024 -0.0146714 255 0 0
0.0753632 -0.0717529 -0.0141953 255 0 0
0.0803421 -0.0719581 -0.014176 255 0 0
0.0671019 -0.0692923 -0.015413 255 0 0
0.0692664 -0.068843 -0.0148598 255 0 0
0.0707753 -0.0699256 -0.0146388 255 0 0
0.0721194 -0.0692797 -0.014063 255 0 0
0.0666477 -0.0671112 -0.014941 255 0 0
0.0687862 -0.0675283 -0.0145011 255 0 0
0.0649634 -0.0645955 -0.0155389 255 0 0
0.0665422 -0.0650733 -0.0146253 255 0 0
0.0634128 -0.0634063 -0.015472 255 0 0
0.0654352 -0.0625853 -0.0150967 255 0 0
0.0663079 -0.06339 -0.0149871 255 0 0
0.0609277 -0.0604515 -0.0157677 255 0 0
0.0630922 -0.0608962 -0.0149026 255 0 0
0.0656911 -0.0608986 -0.015249 255 0 0
0.0662804 -0.0618502 -0.0145128 255 0 0
0.0607687 -0.059254 -0.0148997 255 0 0
0.0629539 -0.0597474 -0.0155607 255 0 0
0.0652182 -0.0591791 -0.0151223 255 0 0
0.0602274 -0.0571471 -0.015391 255 0 0
0.0651245 -0.0573535 -0.0151314 255 0 0
0.0662576 -0.0560085 -0.0143661 255 0 0
0.0610721 -0.0548729 -0.0147981 255 0 0
0.0639669 -0.0546737 -0.0141432 255 0 0
0.0648017 -0.0552768 -0.0154923 255 0 0
0.066182 -0.0548417 -0.0150617 255 0 0
0.061548 -0.0526039 -0.0152253 255 0 0
0.0634744 -0.0528593 -0.0149324 255 0 0
0.0672906 -0.0533565 -0.0153016 255 0 0
0.062589 -0.0505683 -0.0152589 255 0 0
0.067305 -0.0513009 -0.0152864 255 0 0
0.0684038 -0.0518993 -0.01449 255 0 0
0.0716962 -0.0503576 -0.0148907 255 0 0
0.0613118 -0.0486634 -0.014918 255 0 0
0.0625307 -0.0490441 -0.0156807 255 0 0
0.0651 -0.0487379 -0.0153503 255 0 0
0.0667632 -0.0499956 -0.0151511 255 0 0
0.0691166 -0.0487219 -0.0151087 255 0 0
0.0709904 -0.0490822 -0.0146785 255 0 0
0.0599706 -0.0460667 -0.0152774 255 0 0
0.0604073 -0.0472019 -0.0151393 255 0 0
0.0638847 -0.0473048 -0.0159131 255 0 0
0.0655257 -0.0468723 -0.0151326 255 0 0
0.0665721 -0.0471077 -0.0153241 255 0 0
0.0690433 -0.0475304 -0.0158143 255 0 0
0.0708952 -0.0476208 -0.0147663 255 0 0
0.0733151 -0.0463106 -0.0147215 255 0 0
0.0670822 -0.0447516 -0.0154645 255 0 0
0.0748284 -0.0452809 -0.0142224 255 0 0
0.0680001 -0.0426781 -0.0156032 255 0 0
0.0728652 -0.0439881 -0.0159997 255 0 0
0.0769544 -0.0430778 -0.0153768 255 0 0
0.0775025 -0.041369 -0.0157752 255 0 0
0.0784459 -0.0411325 -0.0146027 255 0 0
0.0792655 -0.0384134 -0.01488 255 0 0
0.0798548 -0.0369422 -0.0159216 255 0 0
0.0801237 -0.0362975 -0.0147945 255 0 0
0.0787257 -0.0348762 -0.0152712 255 0 0
0.0800027 -0.0345141 -0.0142446 255 0 0
0.0756128 -0.0322751 -0.0144311 255 0 0
0.0766641 -0.0334311 -0.0148002 255 0 0
0.0786359 -0.0337234 -0.0143583 255 0 0
0.209898 -0.208515 -0.0131816 255 0 0
0.209348 -0.207087 -0.0133583 255 0 0
0.20774 -0.204201 -0.0129768 255 0 0
0.208555 -0.205584 -0.0127892 255 0 0
0.207191 -0.202774 -0.0131532 255 0 0
0.206137 -0.201324 -0.0125961 255 0 0
0.205052 -0.199234 -0.0128708 255 0 0
0.203967 -0.197147 -0.0131454 255 0 0
0.202895 -0.19473 -0.0129441 255 0 0
0.20133 -0.192853 -0.0122113 255 0 0
0.202323 -0.192874 -0.0136734 255 0 0
0.199208 -0.190229 -0.012605 255 0 0
0.200762 -0.191548 -0.0131388 255 0 0
0.198662 -0.188812 -0.01278 255 0 0
0.197079 -0.186857 -0.0130735 255 0 0
0.194997 -0.185023 -0.0133863 255 0 0
0.191957 -0.182452 -0.0123311 255 0 0
0.192952 -0.18338 -0.0131766 255 0 0
0.191147 -0.181221 -0.0132557 255 0 0
0.189351 -0.17849 -0.0128918 255 0 0
0.190383 -0.179768 -0.0126982 255 0 0
0.188812 -0.177091 -0.0130644 255 0 0
0.187515 -0.175119 -0.0133435 255 0 0
0.185781 -0.173063 -0.0121694 255 0 0
0.18622 -0.173152 -0.0136219 255 0 0
0.183032 -0.17038 -0.0135143 255 0 0
0.185074 -0.171047 -0.0131591 255 0 0
0.182945 -0.168952 -0.0130004 255 0 0
0.180716 -0.166703 -0.0128435 255 0 0
0.182884 -0.166925 -0.0129636 255 0 0
0.179235 -0.164527 -0.0123942 255 0 0
0.182079 -0.164834 -0.0132213 255 0 0
0.177747 -0.163228 -0.0136069 255 0 0
0.181543 -0.16344 -0.0133931 255 0 0
0.175154 -0.160476 -0.0126826 255 0 0
0.176447 -0.161848 -0.0131434 255 0 0
0.180762 -0.161241 -0.0129159 255 0 0
0.173201 -0.158646 -0.0129045 255 0 0
0.178678 -0.158997 -0.0130331 255 0 0
0.170918 -0.157016 -0.012933 255 0 0
0.172673 -0.157227 -0.013046 255 0 0
0.176548 -0.157012 -0.0128842 255 0 0
0.16963 -0.155837 -0.0132079 255 0 0
0.170668 -0.154746 -0.0126965 255 0 0
0.174816 -0.15524 -0.0131803 255 0 0
0.169284 -0.152755 -0.0131653 255 0 0
0.170009 -0.153497 -0.012784 255 0 0
0.173554 -0.153322 -0.0134554 255 0 0
0.166643 -0.150944 -0.0130111 255 0 0
0.168388 -0.151273 -0.0125612 255 0 0
0.173012 -0.151066 -0.0129721 255 0 0
0.163469 -0.148423 -0.0129773 255 0 0
0.164946 -0.149483 -0.0127178 255 0 0
0.167442 -0.149259 -0.0137947 255 0 0
0.17196 -0.149179 -0.0139656 255 0 0
0.172931 -0.148645 -0.012468 255 0 0
0.160952 -0.146116 -0.0135239 255 0 0
0.162417 -0.147168 -0.0132657 255 0 0
0.165409 -0.146518 -0.0131267 255 0 0
0.166655 -0.147831 -0.0135811 255 0 0
0.172861 -0.147095 -0.0126176 255 0 0
0.15723 -0.144429 -0.0139767 255 0 0
0.158876 -0.144392 -0.0126686 255 0 0
0.160949 -0.145133 -0.0124514 255 0 0
0.164171 -0.145211 -0.0126749 255 0 0
0.173255 -0.145374 -0.012747 255 0 0
0.143825 -0.142411 -0.0123256 255 0 0
0.14458 -0.142962 -0.0134111 255 0 0
0.147088 -0.142904 -0.0127277 255 0 0
0.148243 -0.143263 -0.0138525 255 0 0
0.151583 -0.142805 -0.0132223 255 0 0
0.154386 -0.143128 -0.0130684 255 0 0
0.157227 -0.143453 -0.0129119 255 0 0
0.161513 -0.142667 -0.0134093 255 0 0
0.162839 -0.143937 -0.0130434 255 0 0
0.173652 -0.143642 -0.0128772 255 0 0
0.139532 -0.140646 -0.013135 255 0 0
0.140387 -0.141747 -0.0137915 255 0 0
0.142472 -0.141881 -0.0130888 255 0 0
0.160743 -0.141263 -0.0131988 255 0 0
0.17398 -0.140326 -0.01316 255 0 0
0.17405 -0.141901 -0.013008 255 0 0
0.13699 -0.138763 -0.0127007 255 0 0
0.13868 -0.13955 -0.01248 255 0 0
0.159369 -0.139225 -0.0127655 255 0 0
0.173441 -0.138924 -0.0133325 255 0 0
0.131991 -0.136432 -0.013352 255 0 0
0.133644 -0.136741 -0.0126319 255 0 0
0.135071 -0.136869 -0.0137524 255 0 0
0.136028 -0.137583 -0.0129731 255 0 0
0.157456 -0.137336 -0.0129082 255 0 0
0.167724 -0.136142 -0.0125633 255 0 0
0.169631 -0.136992 -0.0123295 255 0 0
0.170503 -0.136842 -0.0137554 255 0 0
0.172226 -0.137686 -0.0127985 255 0 0
0.128372 -0.134642 -0.0132534 255 0 0
0.131167 -0.135357 -0.0127062 255 0 0
0.155397 -0.134707 -0.0130637 255 0 0
0.156592 -0.135967 -0.0135092 255 0 0
0.159902 -0.134526 -0.0133511 255 0 0
0.163068 -0.134819 -0.0130652 255 0 0
0.165383 -0.135477 -0.0128156 255 0 0
0.126756 -0.133885 -0.0134667 255 0 0
0.154644 -0.133328 -0.0128562 255 0 0
0.156722 -0.132608 -0.0130696 255 0 0
0.158319 -0.133514 -0.0128533 255 0 0
0.151389 -0.130099 -0.013033 255 0 0
0.15316 -0.130896 -0.0128097 255 0 0
0.154946 -0.131699 -0.0125846 255 0 0
0.147887 -0.128523 -0.0134745 255 0 0
0.148989 -0.128728 -0.0126573 255 0 0
0.141992 -0.126377 -0.0127845 255 0 0
0.143639 -0.127333 -0.0139452 255 0 0
0.14492 -0.127443 -0.0131283 255 0 0
0.146206 -0.127552 -0.0123039 255 0 0
0.139416 -0.124497 -0.0131809 255 0 0
0.140701 -0.125435 -0.0129832 255 0 0
0.137638 -0.122265 -0.013537 255 0 0
0.138526 -0.12338 -0.0133592 255 0 0
0.13697 -0.120967 -0.0130231 255 0 0
0.138075 -0.121893 -0.0121528 255 0 0
0.135804 -0.118374 -0.0126698 255 0 0
0.136471 -0.119669 -0.0131824 255 0 0
0.135304 -0.117076 -0.0128289 255 0 0
0.131158 -0.114547 -0.0134347 255 0 0
0.132784 -0.115257 -0.0132216 255 0 0
0.134805 -0.115779 -0.012988 255 0 0
0.129917 -0.113649 -0.0136284 255 0 0
0.0989372 -0.108031 -0.013526 255 0 0
0.100823 -0.108354 -0.0133608 255 0 0
0.102727 -0.108679 -0.0131923 255 0 0
0.0973099 -0.106367 -0.0131917 255 0 0
0.0986423 -0.107375 -0.0125513 255 0 0
0.0956475 -0.104457 -0.0132809 255 0 0
0.0964972 -0.105102 -0.012553 255 0 0
0.0949362 -0.10283 -0.0130758 255 0 0
0.0935174 -0.100015 -0.0131387 255 0 0
0.0942254 -0.101204 -0.0128708 255 0 0
0.0932319 -0.0987795 -0.0130187 255 0 0
0.0925684 -0.0971149 -0.0128177 255 0 0
0.0912483 -0.0951033 -0.0130944 255 0 0
0.0893508 -0.092957 -0.013204 255 0 0
0.0904012 -0.0937491 -0.0122962 255 0 0
0.0876048 -0.0912146 -0.0135049 255 0 0
0.0884412 -0.0918459 -0.0127811 255 0 0
0.0799186 -0.0824304 -0.0137156 255 0 0
0.0817493 -0.082543 -0.0134948 255 0 0
0.0835723 -0.0761989 -0.0131815 255 0 0
0.0771391 -0.0740041 -0.0134791 255 0 0
0.0784052 -0.0745068 -0.0132894 255 0 0
0.0831524 -0.0749814 -0.0131082 255 0 0
0.075195 -0.0725006 -0.0132228 255 0 0
0.0768187 -0.0726625 -0.013278 255 0 0
0.0789235 -0.0732351 -0.0121068 255 0 0
0.0825241 -0.0731574 -0.0129979 255 0 0
0.0691625 -0.0706727 -0.0135017 255 0 0
0.0707227 -0.071613 -0.0132393 255 0 0
0.0724725 -0.0716656 -0.0130195 255 0 0
0.074739 -0.0711111 -0.0131656 255 0 0
0.0772932 -0.0708692 -0.0132206 255 0 0
0.0792287 -0.0712026 -0.0135995 255 0 0
0.0810518 -0.0710141 -0.0131977 255 0 0
0.0823217 -0.0711885 -0.0123903 255 0 0
0.0675233 -0.0690667 -0.0138233 255 0 0
0.0694236 -0.0688568 -0.0124177 255 0 0
0.0710903 -0.0691347 -0.0129278 255 0 0
0.0732059 -0.0688107 -0.0132868 255 0 0
0.0746517 -0.0689868 -0.0131435 255 0 0
0.0768898 -0.0690634 -0.0124727 255 0 0
0.0792423 -0.069239 -0.0123524 255 0 0
0.0677794 -0.0672524 -0.0127435 255 0 0
0.0693322 -0.0666986 -0.0134514 255 0 0
0.0710668 -0.0672239 -0.0129442 255 0 0
0.0732136 -0.0674793 -0.0127278 255 0 0
0.0675008 -0.0650988 -0.0131686 255 0 0
0.0689368 -0.0650847 -0.0131964 255 0 0
0.0708078 -0.0653576 -0.0123052 255 0 0
0.0670243 -0.0632452 -0.0130388 255 0 0
0.069208 -0.0627016 -0.012468 255 0 0
0.070273 -0.0635452 -0.0122484 255 0 0
0.0652656 -0.0613405 -0.0132042 255 0 0
0.0668137 -0.0609256 -0.0127982 255 0 0
0.06165 -0.0585166 -0.0135769 255 0 0
0.0631352 -0.0587878 -0.0129866 255 0 0
0.0652291 -0.0593621 -0.0132652 255 0 0
0.0666114 -0.0594248 -0.0122567 255 0 0
0.0611305 -0.0567408 -0.0135215 255 0 0
0.0624226 -0.0567897 -0.0128424 255 0 0
0.0655132 -0.0568135 -0.0133945 255 0 0
0.0664257 -0.0570143 -0.0128881 255 0 0
0.0624048 -0.0553481 -0.0130609 255 0 0
0.0644624 -0.0551847 -0.0132513 255 0 0
0.0671038 -0.0552205 -0.013585 255 0 0
0.0684378 -0.0548853 -0.0126706 255 0 0
0.0632476 -0.0526888 -0.0128829 255 0 0
0.0681782 -0.0531673 -0.0136434 255 0 0
0.0618227 -0.0503388 -0.0123621 255 0 0
0.0626631 -0.0511398 -0.0129605 255 0 0
0.0710376 -0.0500106 -0.0133536 255 0 0
0.0608931 -0.0489453 -0.0131758 255 0 0
0.0657163 -0.0490013 -0.0131519 255 0 0
0.0719092 -0.0491971 -0.0125585 255 0 0
0.0597704 -0.0476625 -0.0128248 255 0 0
0.0602123 -0.0473115 -0.0139722 255 0 0
0.0659788 -0.0474783 -0.0127931 255 0 0
0.0727398 -0.0474454 -0.0130878 255 0 0
0.0677899 -0.0447055 -0.0136055 255 0 0
0.0750914 -0.0446475 -0.0131182 255 0 0
0.0688593 -0.0426896 -0.0130495 255 0 0
0.0759857 -0.0438107 -0.0123119 255 0 0
0.0777778 -0.0414295 -0.0126686 255 0 0
0.0788135 -0.0395535 -0.0132866 255 0 0
0.0795331 -0.0377707 -0.0137572 255 0 0
0.080127 -0.0370165 -0.0127869 255 0 0
0.0805265 -0.0353311 -0.0131052 255 0 0
0.0775459 -0.0322997 -0.0133529 255 0 0
0.0789037 -0.0330823 -0.013236 255 0 0
0.0805697 -0.0334903 -0.0126316 255 0 0
0.0765174 -0.0314046 -0.0136207 255 0 0
0.0806116 -0.0312806 -0.013163 255 0 0
0.209696 -0.208202 -0.0109276 255 0 0
0.209147 -0.206775 -0.0111038 255 0 0
0.208354 -0.205274 -0.0105369 255 0 0
0.20618 -0.20109 -0.0110889 255 0 0
0.202521 -0.198494 -0.0100599 255 0 0
0.204572 -0.199098 -0.0113876 255 0 0
0.201976 -0.197079 -0.0102344 255 0 0
0.20349 -0.197014 -0.0116625 255 0 0
0.201159 -0.194956 -0.0104963 255 0 0
0.202943 -0.195592 -0.0118381 255 0 0
0.200342 -0.192833 -0.0107583 255 0 0
0.198757 -0.19087 -0.0110556 255 0 0
0.197685 -0.188805 -0.0113288 255 0 0
0.195291 -0.186638 -0.010697 255 0 0
0.196634 -0.187504 -0.011526 255 0 0
0.193581 -0.184916 -0.0104805 255 0 0
0.194037 -0.185027 -0.0119409 255 0 0
0.191506 -0.182346 -0.0108737 255 0 0
0.192542 -0.183629 -0.0106773 255 0 0
0.190967 -0.180946 -0.0110463 255 0 0
0.189666 -0.178967 -0.0113281 255 0 0
0.188881 -0.176758 -0.0108484 255 0 0
0.187217 -0.174884 -0.0111477 255 0 0
0.185342 -0.172973 -0.0107218 255 0 0
0.183789 -0.170323 -0.0110878 255 0 0
0.184806 -0.171581 -0.0108932 255 0 0
0.183254 -0.168932 -0.0112591 255 0 0
0.181347 -0.166921 -0.0108157 255 0 0
0.182239 -0.167679 -0.0114529 255 0 0
0.179415 -0.164439 -0.010721 255 0 0
0.181038 -0.165137 -0.0111019 255 0 0
0.177929 -0.163142 -0.0119334 255 0 0
0.178597 -0.16297 -0.0105074 255 0 0
0.180897 -0.16333 -0.0112226 255 0 0
0.175338 -0.160396 -0.0110199 255 0 0
0.177206 -0.161634 -0.0108849 255 0 0
0.180117 -0.161136 -0.0107455 255 0 0
0.174054 -0.159034 -0.0105672 255 0 0
0.179077 -0.159124 -0.0110137 255 0 0
0.171335 -0.157086 -0.0109698 255 0 0
0.172657 -0.156646 -0.0107666 255 0 0
0.176595 -0.156799 -0.0114237 255 0 0
0.17807 -0.157884 -0.0112077 255 0 0
0.170809 -0.155071 -0.0110179 255 0 0
0.17512 -0.154846 -0.0109844 255 0 0
0.168913 -0.153008 -0.0112351 255 0 0
0.174089 -0.15285 -0.0112504 255 0 0
0.167064 -0.15102 -0.0110569 255 0 0
0.173581 -0.151362 -0.0106921 255 0 0
0.165047 -0.148584 -0.0106579 255 0 0
0.166588 -0.149531 -0.0116272 255 0 0
0.172784 -0.149289 -0.0109471 255 0 0
0.163885 -0.146745 -0.01139 255 0 0
0.165149 -0.146573 -0.0112486 255 0 0
0.16639 -0.147883 -0.0116964 255 0 0
0.17291 -0.146885 -0.0111565 255 0 0
0.163052 -0.145155 -0.0110201 255 0 0
0.173304 -0.145163 -0.0112817 255 0 0
0.146323 -0.142351 -0.0116374 255 0 0
0.156819 -0.142682 -0.0118197 255 0 0
0.159077 -0.142822 -0.0110791 255 0 0
0.161665 -0.143047 -0.0111131 255 0 0
0.16244 -0.143264 -0.0103715 255 0 0
0.173234 -0.143602 -0.0114302 255 0 0
0.138917 -0.140663 -0.0116441 255 0 0
0.140802 -0.141359 -0.0114339 255 0 0
0.142701 -0.14159 -0.0107079 255 0 0
0.145561 -0.141799 -0.0105523 255 0 0
0.156816 -0.141707 -0.0107558 255 0 0
0.159074 -0.141843 -0.0100098 255 0 0
0.160947 -0.141218 -0.0115712 255 0 0
0.173271 -0.141103 -0.0109137 255 0 0
0.137586 -0.138746 -0.0108774 255 0 0
0.13855 -0.139928 -0.0106024 255 0 0
0.159415 -0.138427 -0.0111569 255 0 0
0.16018 -0.139821 -0.0113637 255 0 0
0.172581 -0.138964 -0.0111656 255 0 0
0.135308 -0.137053 -0.0119069 255 0 0
0.136265 -0.137765 -0.011127 255 0 0
