ply
format ascii 1.0
element vertex 1266
property float x
property float y
property float z
property uchar diffuse_red
property uchar diffuse_green
property uchar diffuse_blue
end_header
0.118879 -0.164513 -0.0777988 255 0 0
0.120174 -0.16571 -0.0768528 255 0 0
0.147129 -0.164666 -0.0777445 255 0 0
0.148382 -0.164768 -0.0765499 255 0 0
0.152197 -0.165112 -0.0768894 255 0 0
0.0857353 -0.162464 -0.077198 255 0 0
0.0868781 -0.16364 -0.0773147 255 0 0
0.0890724 -0.163021 -0.0771151 255 0 0
0.0911461 -0.163237 -0.0770352 255 0 0
0.0927137 -0.162833 -0.0771696 255 0 0
0.107307 -0.162744 -0.0771557 255 0 0
0.108931 -0.162679 -0.0771634 255 0 0
0.110739 -0.16341 -0.0767996 255 0 0
0.112531 -0.1632 -0.0773039 255 0 0
0.114586 -0.163343 -0.0779116 255 0 0
0.117439 -0.163296 -0.0768854 255 0 0
0.120551 -0.162562 -0.0775161 255 0 0
0.122555 -0.162091 -0.0772102 255 0 0
0.13595 -0.16217 -0.0775423 255 0 0
0.146891 -0.163129 -0.0770696 255 0 0
0.0872961 -0.161988 -0.0773405 255 0 0
0.0885279 -0.160895 -0.0770466 255 0 0
0.091073 -0.160883 -0.0772854 255 0 0
0.102767 -0.161193 -0.0774842 255 0 0
0.105175 -0.161438 -0.0770005 255 0 0
0.106139 -0.161958 -0.0768451 255 0 0
0.113069 -0.160816 -0.0761055 255 0 0
0.11402 -0.16198 -0.0774343 255 0 0
0.118721 -0.16144 -0.0762892 255 0 0
0.124575 -0.161616 -0.0769025 255 0 0
0.127007 -0.161044 -0.0769099 255 0 0
0.128666 -0.160656 -0.0762815 255 0 0
0.131175 -0.160955 -0.077366 255 0 0
0.136782 -0.160277 -0.0779385 255 0 0
0.13851 -0.161585 -0.077557 255 0 0
0.140244 -0.161188 -0.0769174 255 0 0
0.143027 -0.16036 -0.0769663 255 0 0
0.144855 -0.161454 -0.0773375 255 0 0
0.089659 -0.159042 -0.0769368 255 0 0
0.091499 -0.159218 -0.0773117 255 0 0
0.101397 -0.159929 -0.0767062 255 0 0
0.104803 -0.159175 -0.0773537 255 0 0
0.106267 -0.1596 -0.0766803 255 0 0
0.11495 -0.159395 -0.0770911 255 0 0
0.127367 -0.158955 -0.0776487 255 0 0
0.128971 -0.15934 -0.0771802 255 0 0
0.130721 -0.15883 -0.0773426 255 0 0
0.132968 -0.158746 -0.0771385 255 0 0
0.135169 -0.159192 -0.0771434 255 0 0
0.137721 -0.158473 -0.0771708 255 0 0
0.139464 -0.15881 -0.0769207 255 0 0
0.14169 -0.158938 -0.0775558 255 0 0
0.142771 -0.158733 -0.0763927 255 0 0
0.14496 -0.159719 -0.0766099 255 0 0
0.0909759 -0.157893 -0.0768496 255 0 0
0.103035 -0.156859 -0.0771669 255 0 0
0.114196 -0.157307 -0.0765883 255 0 0
0.120053 -0.157043 -0.0779692 255 0 0
0.123469 -0.156862 -0.0778806 255 0 0
0.124749 -0.157402 -0.076761 255 0 0
0.128595 -0.157858 -0.0771307 255 0 0
0.130888 -0.157244 -0.0767177 255 0 0
0.133188 -0.156628 -0.0763041 255 0 0
0.13503 -0.156908 -0.076272 255 0 0
0.136877 -0.157189 -0.0762399 255 0 0
0.140831 -0.157647 -0.0766186 255 0 0
0.092356 -0.155875 -0.0773651 255 0 0
0.0984367 -0.154083 -0.0771146 255 0 0
0.100976 -0.154925 -0.0767527 255 0 0
0.122696 -0.154753 -0.0773718 255 0 0
0.0972627 -0.152898 -0.076994 255 0 0
0.0996144 -0.153018 -0.0766081 255 0 0
0.183801 -0.233415 -0.0757372 255 0 0
0.184725 -0.233176 -0.0743798 255 0 0
0.182422 -0.231775 -0.0750708 255 0 0
0.184388 -0.229116 -0.0747747 255 0 0
0.183873 -0.226673 -0.0748059 255 0 0
0.187084 -0.224789 -0.0751889 255 0 0
0.186209 -0.223153 -0.0748632 255 0 0
0.186921 -0.221496 -0.0755781 255 0 0
0.187253 -0.21714 -0.0744315 255 0 0
0.186467 -0.214679 -0.0742892 255 0 0
0.18612 -0.213034 -0.0743098 255 0 0
0.185772 -0.211388 -0.0743305 255 0 0
0.185954 -0.209714 -0.074698 255 0 0
0.186136 -0.208035 -0.0750667 255 0 0
0.185258 -0.206416 -0.0747395 255 0 0
0.18491 -0.204766 -0.0747603 255 0 0
0.184035 -0.203153 -0.0744341 255 0 0
0.183687 -0.201505 -0.0744548 255 0 0
0.159333 -0.199231 -0.0759521 255 0 0
0.161537 -0.198977 -0.0755538 255 0 0
0.16306 -0.199166 -0.0747089 255 0 0
0.183166 -0.199033 -0.0744858 255 0 0
0.163211 -0.197259 -0.0758525 255 0 0
0.16523 -0.196816 -0.0749313 255 0 0
0.182121 -0.196608 -0.074171 255 0 0
0.163495 -0.194332 -0.075876 255 0 0
0.164704 -0.19535 -0.0756276 255 0 0
0.181566 -0.195051 -0.0750516 255 0 0
0.163281 -0.192042 -0.0759744 255 0 0
0.164305 -0.192877 -0.0752028 255 0 0
0.178592 -0.192061 -0.074567 255 0 0
0.18049 -0.193544 -0.0755843 255 0 0
0.161891 -0.190843 -0.0756988 255 0 0
0.163725 -0.190233 -0.0742588 255 0 0
0.154727 -0.188954 -0.0759447 255 0 0
0.156926 -0.188704 -0.0755472 255 0 0
0.159299 -0.18863 -0.0756717 255 0 0
0.161001 -0.189015 -0.07535 255 0 0
0.162522 -0.189219 -0.074506 255 0 0
0.176456 -0.189066 -0.0756292 255 0 0
0.149626 -0.186651 -0.075275 255 0 0
0.150991 -0.187837 -0.0755474 255 0 0
0.153186 -0.187588 -0.0751506 255 0 0
0.15521 -0.187165 -0.0742362 255 0 0
0.157571 -0.187091 -0.074358 255 0 0
0.175094 -0.187551 -0.074961 255 0 0
0.137868 -0.18411 -0.0754108 255 0 0
0.139339 -0.185043 -0.0754687 255 0 0
0.140847 -0.185473 -0.0750597 255 0 0
0.144872 -0.184704 -0.0756464 255 0 0
0.14675 -0.184119 -0.074217 255 0 0
0.148265 -0.185467 -0.0750034 255 0 0
0.17247 -0.184639 -0.0756752 255 0 0
0.137129 -0.183044 -0.0751797 255 0 0
0.139705 -0.183059 -0.0747847 255 0 0
0.141869 -0.182017 -0.0740747 255 0 0
0.143366 -0.183357 -0.0748583 255 0 0
0.171128 -0.183145 -0.0750112 255 0 0
0.135299 -0.18083 -0.0755769 255 0 0
0.13682 -0.181503 -0.0741345 255 0 0
0.13849 -0.181256 -0.074715 255 0 0
0.143744 -0.180858 -0.0754511 255 0 0
0.14505 -0.180546 -0.0747392 255 0 0
0.147034 -0.180832 -0.0749273 255 0 0
0.149275 -0.181043 -0.0755512 255 0 0
0.150336 -0.180802 -0.0743974 255 0 0
0.152408 -0.180267 -0.074999 255 0 0
0.170289 -0.18159 -0.0746911 255 0 0
0.133083 -0.178826 -0.0755201 255 0 0
0.134547 -0.179324 -0.0743745 255 0 0
0.142822 -0.178747 -0.0747228 255 0 0
0.153722 -0.179953 -0.0742824 255 0 0
0.169946 -0.179967 -0.0747119 255 0 0
0.170098 -0.178268 -0.0750737 255 0 0
0.131439 -0.176401 -0.0753721 255 0 0
0.133227 -0.177136 -0.0745394 255 0 0
0.14327 -0.176253 -0.0749453 255 0 0
0.169754 -0.176641 -0.0750946 255 0 0
0.129185 -0.174238 -0.0756102 255 0 0
0.130876 -0.175124 -0.0751511 255 0 0
0.132238 -0.175908 -0.0749145 255 0 0
0.144563 -0.174336 -0.0748377 255 0 0
0.167502 -0.175395 -0.0757851 255 0 0
0.168425 -0.175175 -0.0744344 255 0 0
0.12694 -0.172081 -0.075848 255 0 0
0.129338 -0.173378 -0.075234 255 0 0
0.130402 -0.17381 -0.0741017 255 0 0
0.145206 -0.172568 -0.0750862 255 0 0
0.146517 -0.172257 -0.0743719 255 0 0
0.166988 -0.172961 -0.0758166 255 0 0
0.168082 -0.173553 -0.0744552 255 0 0
0.122349 -0.170072 -0.0759659 255 0 0
0.124972 -0.170396 -0.0756208 255 0 0
0.127309 -0.1709 -0.0750985 255 0 0
0.129012 -0.171222 -0.0748436 255 0 0
0.146878 -0.170506 -0.075638 255 0 0
0.167203 -0.170921 -0.0749403 255 0 0
0.0953931 -0.168763 -0.075708 255 0 0
0.0969647 -0.168496 -0.0750555 255 0 0
0.0983914 -0.168783 -0.0747508 255 0 0
0.100574 -0.169039 -0.0753677 255 0 0
0.103033 -0.168451 -0.075796 255 0 0
0.10481 -0.16877 -0.0755796 255 0 0
0.107226 -0.168649 -0.0756559 255 0 0
0.109572 -0.168237 -0.0757928 255 0 0
0.110729 -0.169025 -0.0758205 255 0 0
0.119251 -0.168477 -0.0756833 255 0 0
0.120676 -0.168865 -0.0752808 255 0 0
0.122408 -0.169076 -0.0750493 255 0 0
0.125408 -0.168985 -0.0751676 255 0 0
0.127314 -0.169766 -0.0750823 255 0 0
0.148598 -0.168498 -0.0747324 255 0 0
0.166348 -0.168838 -0.0750237 255 0 0
0.0927849 -0.16671 -0.0751064 255 0 0
0.0946085 -0.16727 -0.0748184 255 0 0
0.100889 -0.167921 -0.0746607 255 0 0
0.103329 -0.166909 -0.0752818 255 0 0
0.105195 -0.166723 -0.0748347 255 0 0
0.107162 -0.167268 -0.0751747 255 0 0
0.108357 -0.166954 -0.0747383 255 0 0
0.111084 -0.166938 -0.0754087 255 0 0
0.112251 -0.166848 -0.0755221 255 0 0
0.115071 -0.166337 -0.0759764 255 0 0
0.119067 -0.166382 -0.0758637 255 0 0
0.121214 -0.166959 -0.075258 255 0 0
0.123374 -0.167539 -0.0746491 255 0 0
0.124822 -0.167928 -0.0742412 255 0 0
0.149254 -0.166706 -0.0749828 255 0 0
0.158358 -0.167106 -0.0748749 255 0 0
0.162452 -0.167952 -0.0755364 255 0 0
0.164332 -0.167553 -0.0748695 255 0 0
0.0919581 -0.164694 -0.0744471 255 0 0
0.0997112 -0.164492 -0.0757274 255 0 0
0.101012 -0.164933 -0.0748226 255 0 0
0.102993 -0.165207 -0.0745048 255 0 0
0.107245 -0.165083 -0.0742088 255 0 0
0.109303 -0.164983 -0.0745302 255 0 0
0.110927 -0.165494 -0.0750224 255 0 0
0.113441 -0.165058 -0.0753262 255 0 0
0.116966 -0.165077 -0.0757318 255 0 0
0.118291 -0.164641 -0.0756982 255 0 0
0.120735 -0.16503 -0.0752645 255 0 0
0.122896 -0.165605 -0.0746545 255 0 0
0.124346 -0.165991 -0.0742459 255 0 0
0.149125 -0.165111 -0.0753735 255 0 0
0.1531 -0.1649 -0.075568 255 0 0
0.155718 -0.165998 -0.0752225 255 0 0
0.0901656 -0.162397 -0.0750338 255 0 0
0.0994825 -0.163065 -0.0748598 255 0 0
0.109405 -0.162587 -0.0756969 255 0 0
0.11138 -0.162737 -0.0745514 255 0 0
0.112803 -0.162968 -0.0749018 255 0 0
0.114998 -0.162692 -0.0749729 255 0 0
0.116929 -0.163269 -0.0751881 255 0 0
0.118941 -0.163277 -0.075128 255 0 0
0.121003 -0.162783 -0.0746066 255 0 0
0.122751 -0.162976 -0.0743707 255 0 0
0.147266 -0.162621 -0.0759571 255 0 0
0.148498 -0.162777 -0.0750694 255 0 0
0.150504 -0.1638 -0.0749236 255 0 0
0.0889148 -0.161275 -0.074774 255 0 0
0.090673 -0.160875 -0.0757608 255 0 0
0.0995874 -0.161555 -0.0742873 255 0 0
0.106824 -0.160867 -0.0752738 255 0 0
0.108835 -0.161332 -0.0751049 255 0 0
0.111215 -0.161406 -0.0755317 255 0 0
0.113863 -0.161074 -0.0744726 255 0 0
0.117057 -0.161163 -0.0746935 255 0 0
0.119594 -0.161906 -0.0745547 255 0 0
0.120706 -0.160967 -0.0759798 255 0 0
0.122323 -0.160585 -0.0753568 255 0 0
0.124725 -0.160011 -0.0753552 255 0 0
0.129932 -0.160361 -0.0753333 255 0 0
0.131201 -0.160065 -0.0743831 255 0 0
0.133558 -0.16111 -0.0759513 255 0 0
0.136943 -0.160326 -0.0756367 255 0 0
0.14462 -0.160185 -0.0753052 255 0 0
0.146809 -0.161056 -0.075188 255 0 0
0.103295 -0.159303 -0.0747912 255 0 0
0.105499 -0.158713 -0.0750943 255 0 0
0.106997 -0.158782 -0.0751192 255 0 0
0.10864 -0.159107 -0.074868 255 0 0
0.111266 -0.158896 -0.0745666 255 0 0
0.118878 -0.159856 -0.074763 255 0 0
0.120861 -0.159378 -0.0744482 255 0 0
0.122859 -0.158897 -0.0741314 255 0 0
0.126366 -0.159623 -0.0747267 255 0 0
0.133697 -0.159478 -0.0743792 255 0 0
0.139948 -0.159629 -0.0749965 255 0 0
0.141685 -0.159227 -0.0743508 255 0 0
0.143848 -0.158529 -0.0752332 255 0 0
0.145356 -0.158971 -0.0745418 255 0 0
0.147357 -0.159203 -0.0747284 255 0 0
0.090297 -0.156671 -0.0759749 255 0 0
0.104989 -0.157017 -0.0753218 255 0 0
0.113245 -0.156162 -0.0752628 255 0 0
0.123534 -0.156349 -0.0749869 255 0 0
0.125838 -0.157204 -0.0756205 255 0 0
0.127352 -0.156797 -0.0753446 255 0 0
0.12887 -0.156389 -0.0750684 255 0 0
0.139201 -0.156569 -0.075825 255 0 0
0.141482 -0.156804 -0.0749961 255 0 0
0.142986 -0.157243 -0.0743049 255 0 0
0.102811 -0.155361 -0.0751087 255 0 0
0.10517 -0.155482 -0.074719 255 0 0
0.113966 -0.154518 -0.0740938 255 0 0
0.114919 -0.155655 -0.0754128 255 0 0
0.123579 -0.154667 -0.075798 255 0 0
0.124667 -0.154474 -0.0746618 255 0 0
0.126256 -0.154853 -0.0741955 255 0 0
0.128062 -0.155128 -0.0741577 255 0 0
0.131154 -0.155776 -0.0746535 255 0 0
0.133444 -0.155161 -0.0742379 255 0 0
0.135203 -0.154641 -0.0743938 255 0 0
0.136924 -0.155651 -0.0753943 255 0 0
0.138892 -0.155193 -0.0743234 255 0 0
0.100716 -0.152832 -0.0754957 255 0 0
0.102085 -0.153311 -0.0746184 255 0 0
0.127689 -0.153656 -0.0741085 255 0 0
0.0968617 -0.151749 -0.0749313 255 0 0
0.0982977 -0.15135 -0.0746572 255 0 0
0.100812 -0.151358 -0.0746856 255 0 0
0.185648 -0.232937 -0.0730233 255 0 0
0.183343 -0.231537 -0.0737175 255 0 0
0.184264 -0.2313 -0.072365 255 0 0
0.185052 -0.228877 -0.0732452 255 0 0
0.186409 -0.229454 -0.0720473 255 0 0
0.18526 -0.226317 -0.0727674 255 0 0
0.186429 -0.224563 -0.0727899 255 0 0
0.185036 -0.222943 -0.0721292 255 0 0
0.18574 -0.221296 -0.0728309 255 0 0
0.186448 -0.219638 -0.0735372 255 0 0
0.187563 -0.217748 -0.0725333 255 0 0
0.18565 -0.211203 -0.0722729 255 0 0
0.185831 -0.209535 -0.0726358 255 0 0
0.185311 -0.20707 -0.0726666 255 0 0
0.184791 -0.204603 -0.0726974 255 0 0
0.183919 -0.202997 -0.0723753 255 0 0
0.163223 -0.200236 -0.0729804 255 0 0
0.18305 -0.201395 -0.0720542 255 0 0
0.164981 -0.198624 -0.0735329 255 0 0
0.183053 -0.19889 -0.0724266 255 0 0
0.166558 -0.19682 -0.0735684 255 0 0
0.182533 -0.196426 -0.0724574 255 0 0
0.166158 -0.194355 -0.0731485 255 0 0
0.181666 -0.194833 -0.0721362 255 0 0
0.165543 -0.192803 -0.07358 255 0 0
0.180387 -0.19342 -0.0735235 255 0 0
0.164744 -0.191067 -0.0734932 255 0 0
0.177431 -0.19045 -0.0730503 255 0 0
0.179009 -0.191888 -0.0728595 255 0 0
0.164165 -0.188441 -0.0725583 255 0 0
0.176367 -0.188959 -0.0735798 255 0 0
0.15149 -0.186058 -0.0738452 255 0 0
0.159585 -0.186669 -0.0734453 255 0 0
0.161769 -0.186421 -0.0730504 255 0 0
0.162967 -0.187431 -0.0728044 255 0 0
0.173238 -0.186108 -0.0739562 255 0 0
0.17501 -0.187449 -0.0729199 255 0 0
0.151058 -0.184588 -0.0728671 255 0 0
0.153675 -0.185811 -0.0734503 255 0 0
0.155857 -0.185564 -0.0730558 255 0 0
0.158038 -0.185317 -0.0726615 255 0 0
0.172395 -0.184547 -0.0736371 255 0 0
0.137991 -0.18209 -0.0735488 255 0 0
0.139493 -0.182513 -0.073136 255 0 0
0.140971 -0.183444 -0.0731893 255 0 0
0.14509 -0.182612 -0.0729234 255 0 0
0.147109 -0.182202 -0.0720203 255 0 0
0.148616 -0.183537 -0.0727961 255 0 0
0.171057 -0.183059 -0.0729812 255 0 0
0.136882 -0.180494 -0.0732041 255 0 0
0.138804 -0.18129 -0.07241 255 0 0
0.14038 -0.180685 -0.0732957 255 0 0
0.143595 -0.181281 -0.0721486 255 0 0
0.170221 -0.181509 -0.0726651 255 0 0
0.135143 -0.178539 -0.0735569 255 0 0
0.136359 -0.179318 -0.0730904 255 0 0
0.138899 -0.179361 -0.0725212 255 0 0
0.144843 -0.179058 -0.0734656 255 0 0
0.147472 -0.179183 -0.0732924 255 0 0
0.150765 -0.17915 -0.0727622 255 0 0
0.152071 -0.178838 -0.0720505 255 0 0
0.16988 -0.179891 -0.0726857 255 0 0
0.170031 -0.178197 -0.0730432 255 0 0
0.133825 -0.176556 -0.0732757 255 0 0
0.134738 -0.177448 -0.0733011 255 0 0
0.136159 -0.17772 -0.0721025 255 0 0
0.143818 -0.177734 -0.0737705 255 0 0
0.144878 -0.177501 -0.0726294 255 0 0
0.169689 -0.176576 -0.0730638 255 0 0
0.131561 -0.174388 -0.0735176 255 0 0
0.133259 -0.174915 -0.0729205 255 0 0
0.144987 -0.175866 -0.0734438 255 0 0
0.146046 -0.175636 -0.0723019 255 0 0
0.169347 -0.174955 -0.0730845 255 0 0
0.131144 -0.172773 -0.0734179 255 0 0
0.133101 -0.173784 -0.0721759 255 0 0
0.146623 -0.173098 -0.0727359 255 0 0
0.169004 -0.173333 -0.0731051 255 0 0
0.128835 -0.170291 -0.073763 255 0 0
0.130889 -0.170976 -0.0730577 255 0 0
0.132635 -0.171842 -0.072177 255 0 0
0.147451 -0.170458 -0.0736077 255 0 0
0.149009 -0.17006 -0.0733299 255 0 0
0.168491 -0.1709 -0.0731361 255 0 0
0.126278 -0.168318 -0.0738317 255 0 0
0.128787 -0.168725 -0.0733871 255 0 0
0.131031 -0.16881 -0.0723001 255 0 0
0.132167 -0.169894 -0.072178 255 0 0
0.149943 -0.168259 -0.0725653 255 0 0
0.167977 -0.168466 -0.0731671 255 0 0
0.0955025 -0.166889 -0.0739885 255 0 0
0.097047 -0.167087 -0.0737616 255 0 0
0.0986298 -0.166813 -0.0731006 255 0 0
0.101205 -0.166801 -0.073952 255 0 0
0.125495 -0.16656 -0.0736629 255 0 0
0.126956 -0.166949 -0.0732512 255 0 0
0.129039 -0.167071 -0.072447 255 0 0
0.150068 -0.166582 -0.0733872 255 0 0
0.159738 -0.1668 -0.0738772 255 0 0
0.161596 -0.166402 -0.0732102 255 0 0
0.165251 -0.167337 -0.0735243 255 0 0
0.166657 -0.167028 -0.0725148 255 0 0
0.0928934 -0.164845 -0.073395 255 0 0
0.0950039 -0.16526 -0.0729323 255 0 0
0.0975099 -0.16542 -0.0727062 255 0 0
0.0994824 -0.164882 -0.0722805 255 0 0
0.101784 -0.165505 -0.0734035 255 0 0
0.102365 -0.164202 -0.0728523 255 0 0
0.104601 -0.164838 -0.0739452 255 0 0
0.106349 -0.164411 -0.0735893 255 0 0
0.123259 -0.164418 -0.0739048 255 0 0
0.125441 -0.164994 -0.0732881 255 0 0
0.126624 -0.16506 -0.0722392 255 0 0
0.14969 -0.165087 -0.0733364 255 0 0
0.150751 -0.164872 -0.0721848 255 0 0
0.153546 -0.164782 -0.0739173 255 0 0
0.154447 -0.164572 -0.0725995 255 0 0
0.157078 -0.165679 -0.0732339 255 0 0
0.0892851 -0.162289 -0.0733504 255 0 0
0.0911592 -0.163289 -0.0731981 255 0 0
0.093098 -0.163359 -0.072189 255 0 0
0.100701 -0.162786 -0.0730793 255 0 0
0.102796 -0.163127 -0.0730915 255 0 0
0.10529 -0.163282 -0.0731624 255 0 0
0.107213 -0.162701 -0.0727049 255 0 0
0.108294 -0.163431 -0.0737187 255 0 0
0.123928 -0.163041 -0.0733249 255 0 0
0.125694 -0.163235 -0.073084 255 0 0
0.14942 -0.162951 -0.0735149 255 0 0
0.151013 -0.163431 -0.0725988 255 0 0
0.0887201 -0.161261 -0.0731968 255 0 0
0.0908476 -0.161541 -0.072268 255 0 0
0.0997648 -0.160041 -0.0728301 255 0 0
0.100974 -0.161233 -0.0726525 255 0 0
0.104337 -0.161037 -0.0722279 255 0 0
0.107015 -0.160976 -0.0730909 255 0 0
0.108765 -0.16095 -0.0727182 255 0 0
0.110366 -0.160992 -0.0736133 255 0 0
0.113362 -0.161098 -0.0736675 255 0 0
0.115341 -0.161097 -0.0735999 255 0 0
0.117927 -0.160721 -0.0738731 255 0 0
0.119952 -0.160718 -0.0738066 255 0 0
0.121694 -0.160903 -0.0735679 255 0 0
0.123448 -0.16109 -0.0733278 255 0 0
0.124294 -0.161846 -0.0725704 255 0 0
0.126373 -0.161846 -0.0724985 255 0 0
0.147391 -0.161187 -0.0731678 255 0 0
0.148995 -0.161246 -0.0736473 255 0 0
0.150311 -0.160937 -0.0729304 255 0 0
0.0883708 -0.159906 -0.0721907 255 0 0
0.0994639 -0.158626 -0.0728511 255 0 0
0.101246 -0.159677 -0.0722255 255 0 0
0.107923 -0.158967 -0.0722461 255 0 0
0.109852 -0.158958 -0.0721717 255 0 0
0.111053 -0.159415 -0.0725562 255 0 0
0.112882 -0.159156 -0.0728336 255 0 0
0.114928 -0.159269 -0.0729297 255 0 0
0.1167 -0.158653 -0.0729212 255 0 0
0.118848 -0.158592 -0.0730287 255 0 0
0.12061 -0.159335 -0.0732277 255 0 0
0.122359 -0.159516 -0.0729863 255 0 0
0.12486 -0.158632 -0.0727844 255 0 0
0.12762 -0.159329 -0.0737829 255 0 0
0.129275 -0.158938 -0.0731488 255 0 0
0.131341 -0.158446 -0.0728243 255 0 0
0.133018 -0.15805 -0.0721844 255 0 0
0.135392 -0.159081 -0.0737393 255 0 0
0.137514 -0.158583 -0.0734144 255 0 0
0.139654 -0.15808 -0.0730873 255 0 0
0.143442 -0.15882 -0.0727326 255 0 0
0.145518 -0.159974 -0.0730295 255 0 0
0.149211 -0.158792 -0.0734315 255 0 0
0.151376 -0.159078 -0.0723815 255 0 0
0.105903 -0.156926 -0.0737934 255 0 0
0.10763 -0.157199 -0.0737506 255 0 0
0.108902 -0.156904 -0.0730586 255 0 0
0.111012 -0.156973 -0.0738512 255 0 0
0.115282 -0.157669 -0.0723697 255 0 0
0.117599 -0.157092 -0.0723505 255 0 0
0.119726 -0.156589 -0.0720816 255 0 0
0.121294 -0.157773 -0.0728691 255 0 0
0.122733 -0.157229 -0.0723659 255 0 0
0.124466 -0.156241 -0.073006 255 0 0
0.126407 -0.156303 -0.0720823 255 0 0
0.135527 -0.157451 -0.0721692 255 0 0
0.141424 -0.156924 -0.0725336 255 0 0
0.144836 -0.156836 -0.0730141 255 0 0
0.14707 -0.15728 -0.0730138 255 0 0
0.149365 -0.157191 -0.0728031 255 0 0
0.150934 -0.156776 -0.0725234 255 0 0
0.152508 -0.15636 -0.0722433 255 0 0
0.103545 -0.154557 -0.0735586 255 0 0
0.104636 -0.15437 -0.0724553 255 0 0
0.106989 -0.155094 -0.0734712 255 0 0
0.108261 -0.154801 -0.0727796 255 0 0
0.110274 -0.154913 -0.0733613 255 0 0
0.112301 -0.155025 -0.0739482 255 0 0
0.115248 -0.154222 -0.0733964 255 0 0
0.129143 -0.154934 -0.0730235 255 0 0
0.130658 -0.154526 -0.0727457 255 0 0
0.132176 -0.154116 -0.0724675 255 0 0
0.137164 -0.154185 -0.073327 255 0 0
0.139967 -0.154997 -0.0731759 255 0 0
0.143199 -0.155766 -0.072235 255 0 0
0.148736 -0.155801 -0.0723155 255 0 0
0.150303 -0.155385 -0.0720355 255 0 0
0.103356 -0.153018 -0.0739272 255 0 0
0.105261 -0.152581 -0.0728913 255 0 0
0.107047 -0.15316 -0.0722556 255 0 0
0.109351 -0.152964 -0.0724563 255 0 0
0.111371 -0.15307 -0.0730384 255 0 0
0.113213 -0.153283 -0.0732045 255 0 0
0.114685 -0.15288 -0.0729281 255 0 0
0.116899 -0.153309 -0.0725915 255 0 0
0.121756 -0.153954 -0.0727599 255 0 0
0.12877 -0.153464 -0.0729743 255 0 0
0.130066 -0.153164 -0.0722694 255 0 0
0.133623 -0.152914 -0.0723785 255 0 0
0.0953101 -0.150246 -0.0721489 255 0 0
0.100661 -0.150878 -0.072866 255 0 0
0.102719 -0.150921 -0.073649 255 0 0
0.104986 -0.151092 -0.0730516 255 0 0
0.106981 -0.1506 -0.0722229 255 0 0
0.0966475 -0.148318 -0.0720748 255 0 0
0.104798 -0.149545 -0.0734202 255 0 0
0.106978 -0.14894 -0.0730065 255 0 0
0.109073 -0.148389 -0.0723838 255 0 0
0.0961488 -0.146427 -0.0720773 255 0 0
0.0961642 -0.14413 -0.0724051 255 0 0
0.0954034 -0.142426 -0.0722447 255 0 0
0.094642 -0.14072 -0.0720842 255 0 0
0.187031 -0.23258 -0.0709901 255 0 0
0.185184 -0.231063 -0.0710133 255 0 0
0.187333 -0.229216 -0.07069 255 0 0
0.185542 -0.227825 -0.0717288 255 0 0
0.186465 -0.227588 -0.0703734 255 0 0
0.187001 -0.225144 -0.0710792 255 0 0
0.18596 -0.222707 -0.0707712 255 0 0
0.185617 -0.221079 -0.0707916 255 0 0
0.186786 -0.219308 -0.0708083 255 0 0
0.187061 -0.216834 -0.0713475 255 0 0
0.185814 -0.214503 -0.0718905 255 0 0
0.186561 -0.215923 -0.070168 255 0 0
0.185469 -0.212866 -0.071911 255 0 0
0.185527 -0.21102 -0.0702288 255 0 0
0.185182 -0.209385 -0.0702491 255 0 0
0.184928 -0.206916 -0.0704487 255 0 0
0.184672 -0.204442 -0.0706483 255 0 0
0.183803 -0.202841 -0.0703303 255 0 0
0.161697 -0.20092 -0.0715866 255 0 0
0.163876 -0.200667 -0.0711927 255 0 0
0.182937 -0.201245 -0.0700132 255 0 0
0.165043 -0.199599 -0.0715566 255 0 0
0.166212 -0.198528 -0.0719216 255 0 0
0.183112 -0.199568 -0.0703709 255 0 0
0.167197 -0.197266 -0.0717733 255 0 0
0.182767 -0.19793 -0.0703912 255 0 0
0.167302 -0.195223 -0.0709811 255 0 0
0.166586 -0.192546 -0.0714554 255 0 0
0.180801 -0.193245 -0.071816 255 0 0
0.166188 -0.190104 -0.071041 255 0 0
0.178483 -0.190984 -0.0706626 255 0 0
0.165178 -0.189274 -0.0717985 255 0 0
0.176786 -0.188793 -0.0718815 255 0 0
0.165104 -0.187081 -0.0704956 255 0 0
0.17316 -0.186012 -0.0719275 255 0 0
0.174925 -0.187348 -0.0708922 255 0 0
0.154158 -0.18405 -0.0717648 255 0 0
0.160041 -0.184901 -0.0717554 255 0 0
0.162722 -0.185072 -0.0709848 255 0 0
0.171823 -0.184522 -0.0712777 255 0 0
0.173581 -0.185852 -0.0702445 255 0 0
0.150469 -0.182959 -0.0713836 255 0 0
0.152474 -0.182549 -0.0704849 255 0 0
0.156161 -0.183638 -0.0708634 255 0 0
0.158328 -0.183393 -0.0704715 255 0 0
0.160494 -0.183148 -0.0700801 255 0 0
0.170987 -0.182973 -0.0709646 255 0 0
0.138865 -0.180279 -0.0714774 255 0 0
0.141094 -0.181415 -0.0713181 255 0 0
0.145458 -0.180712 -0.0707434 255 0 0
0.14762 -0.180469 -0.0703525 255 0 0
0.149121 -0.181793 -0.0711202 255 0 0
0.170153 -0.181428 -0.0706524 255 0 0
0.137215 -0.178259 -0.071547 255 0 0
0.138927 -0.179267 -0.0705447 255 0 0
0.140629 -0.17864 -0.0706123 255 0 0
0.142108 -0.179957 -0.0713782 255 0 0
0.147603 -0.178433 -0.070835 255 0 0
0.148468 -0.179759 -0.0717432 255 0 0
0.153375 -0.178526 -0.0713392 255 0 0
0.169889 -0.178972 -0.0708493 255 0 0
0.135052 -0.176128 -0.0717595 255 0 0
0.136372 -0.176988 -0.0711405 255 0 0
0.146582 -0.177114 -0.0711396 255 0 0
0.149084 -0.177273 -0.0707469 255 0 0
0.150942 -0.177585 -0.0707061 255 0 0
0.152493 -0.177198 -0.0704269 255 0 0
0.154957 -0.176575 -0.0702228 255 0 0
0.169624 -0.176512 -0.0710463 255 0 0
0.134884 -0.175273 -0.0715133 255 0 0
0.136281 -0.1757 -0.0702401 255 0 0
0.146615 -0.175566 -0.070308 255 0 0
0.148154 -0.175178 -0.0700289 255 0 0
0.157431 -0.17595 -0.0700181 255 0 0
0.169283 -0.174896 -0.0710668 255 0 0
0.133396 -0.172242 -0.0708246 255 0 0
0.134971 -0.173001 -0.0709989 255 0 0
0.136143 -0.173581 -0.0704084 255 0 0
0.146729 -0.17393 -0.0711136 255 0 0
0.148273 -0.17354 -0.0708347 255 0 0
0.168941 -0.17328 -0.0710872 255 0 0
0.131223 -0.170577 -0.0704236 255 0 0
0.133656 -0.170291 -0.0717605 255 0 0
0.134506 -0.17105 -0.0709979 255 0 0
0.136004 -0.171451 -0.0705774 255 0 0
0.14897 -0.171249 -0.0708688 255 0 0
0.16843 -0.170855 -0.0711179 255 0 0
0.128996 -0.168736 -0.0714091 255 0 0
0.133187 -0.168333 -0.0717606 255 0 0
0.13495 -0.169201 -0.070872 255 0 0
0.137044 -0.16989 -0.0701525 255 0 0
0.151001 -0.16804 -0.0714181 255 0 0
0.167918 -0.168429 -0.0711486 255 0 0
0.127226 -0.167245 -0.0717727 255 0 0
0.131016 -0.166729 -0.0714537 255 0 0
0.133892 -0.166946 -0.0711675 255 0 0
0.13507 -0.167525 -0.0705734 255 0 0
0.151404 -0.166351 -0.0712281 255 0 0
0.162509 -0.166188 -0.071875 255 0 0
0.166602 -0.166996 -0.0705043 255 0 0
0.127698 -0.164562 -0.0717381 255 0 0
0.129485 -0.164761 -0.0714915 255 0 0
0.13084 -0.164734 -0.0705191 255 0 0
0.132138 -0.165723 -0.0704802 255 0 0
0.134926 -0.165364 -0.0707432 255 0 0
0.13611 -0.165944 -0.0701466 255 0 0
0.151809 -0.164659 -0.0710369 255 0 0
0.155807 -0.164267 -0.0716085 255 0 0
0.15937 -0.165174 -0.0719049 255 0 0
0.160277 -0.164962 -0.0705777 255 0 0
0.16438 -0.165786 -0.0712015 255 0 0
0.0936466 -0.162078 -0.0716456 255 0 0
0.0946284 -0.163546 -0.0719567 255 0 0
0.0968283 -0.162826 -0.0716866 255 0 0
0.0984853 -0.163399 -0.0719651 255 0 0
0.100313 -0.163411 -0.07189 255 0 0
0.103679 -0.162068 -0.0718679 255 0 0
0.126292 -0.16317 -0.0712266 255 0 0
0.128792 -0.163029 -0.0706414 255 0 0
0.130555 -0.162164 -0.0701343 255 0 0
0.149725 -0.162297 -0.0716757 255 0 0
0.151025 -0.162629 -0.0706787 255 0 0
0.152856 -0.16304 -0.0705486 255 0 0
0.15717 -0.163961 -0.0706154 255 0 0
0.0896336 -0.160257 -0.0718027 255 0 0
0.0911451 -0.160434 -0.0715695 255 0 0
0.0928301 -0.161216 -0.0713335 255 0 0
0.095936 -0.161735 -0.0718852 255 0 0
0.097004 -0.160082 -0.0716534 255 0 0
0.0993278 -0.160825 -0.0717349 255 0 0
0.101674 -0.161573 -0.0718175 255 0 0
0.103376 -0.160644 -0.0718888 255 0 0
0.105372 -0.160905 -0.0715611 255 0 0
0.12466 -0.160648 -0.0718138 255 0 0
0.127228 -0.160875 -0.0708633 255 0 0
0.148064 -0.161024 -0.070732 255 0 0
0.151562 -0.161477 -0.0718036 255 0 0
0.152875 -0.161169 -0.0710886 255 0 0
0.155102 -0.160605 -0.0704503 255 0 0
0.089056 -0.159153 -0.0711446 255 0 0
0.0915933 -0.158768 -0.0705183 255 0 0
0.0932146 -0.159322 -0.0707888 255 0 0
0.0947515 -0.159496 -0.070551 255 0 0
0.0983391 -0.158231 -0.0715791 255 0 0
0.100765 -0.158637 -0.07144 255 0 0
0.103225 -0.159353 -0.0713604 255 0 0
0.105602 -0.158958 -0.071195 255 0 0
0.107425 -0.15964 -0.0715453 255 0 0
0.125955 -0.158867 -0.0715667 255 0 0
0.127742 -0.159048 -0.0713181 255 0 0
0.129603 -0.158208 -0.0701283 255 0 0
0.144336 -0.158614 -0.0704749 255 0 0
0.146631 -0.159715 -0.0709227 255 0 0
0.153009 -0.159467 -0.0719084 255 0 0
0.155112 -0.158952 -0.0710518 255 0 0
0.08944 -0.157338 -0.0711079 255 0 0
0.0911058 -0.156947 -0.0705203 255 0 0
0.0932767 -0.156194 -0.0702407 255 0 0
0.0949129 -0.157841 -0.0703545 255 0 0
0.0994295 -0.156544 -0.0713431 255 0 0
0.101811 -0.156155 -0.071587 255 0 0
0.103126 -0.15699 -0.0716278 255 0 0
0.104444 -0.157832 -0.0716696 255 0 0
0.107054 -0.156864 -0.0715541 255 0 0
0.108989 -0.157122 -0.070952 255 0 0
0.111175 -0.157243 -0.0716414 255 0 0
0.112993 -0.157208 -0.071857 255 0 0
0.114462 -0.15689 -0.0717018 255 0 0
0.116973 -0.157172 -0.0717042 255 0 0
0.120788 -0.156315 -0.0710962 255 0 0
0.124867 -0.156867 -0.0711917 255 0 0
0.127278 -0.157105 -0.0711548 255 0 0
0.129399 -0.157188 -0.0714196 255 0 0
0.131079 -0.156933 -0.0709606 255 0 0
0.133563 -0.156331 -0.0709383 255 0 0
0.137229 -0.157048 -0.0715234 255 0 0
0.138521 -0.156745 -0.0705605 255 0 0
0.141838 -0.157573 -0.0708334 255 0 0
0.153228 -0.15701 -0.0716914 255 0 0
0.154734 -0.157452 -0.0710006 255 0 0
0.100007 -0.155215 -0.070784 255 0 0
0.102132 -0.155004 -0.0708633 255 0 0
0.105068 -0.155359 -0.0712691 255 0 0
0.106457 -0.154574 -0.0710262 255 0 0
0.109041 -0.155215 -0.0711919 255 0 0
0.110987 -0.155189 -0.0711123 255 0 0
0.112866 -0.155123 -0.0709067 255 0 0
0.114974 -0.154942 -0.0708869 255 0 0
0.116928 -0.154974 -0.0710266 255 0 0
0.118904 -0.154822 -0.0708429 255 0 0
0.120545 -0.155174 -0.0715501 255 0 0
0.122805 -0.155336 -0.0711395 255 0 0
0.125612 -0.154516 -0.0719097 255 0 0
0.127723 -0.154481 -0.0718335 255 0 0
0.128913 -0.155589 -0.0704748 255 0 0
0.130397 -0.155421 -0.070812 255 0 0
0.13525 -0.155928 -0.0702926 255 0 0
0.140803 -0.154909 -0.0716013 255 0 0
0.142107 -0.154606 -0.0708917 255 0 0
0.144507 -0.155461 -0.071523 255 0 0
0.146836 -0.154841 -0.0711026 255 0 0
0.148923 -0.154328 -0.0702496 255 0 0
0.151619 -0.155078 -0.0713193 255 0 0
0.152934 -0.15477 -0.0706035 255 0 0
0.154885 -0.155852 -0.0703731 255 0 0
0.0961549 -0.152261 -0.0702315 255 0 0
0.101113 -0.153501 -0.0705423 255 0 0
0.10272 -0.15366 -0.0702984 255 0 0
0.104878 -0.153439 -0.0703762 255 0 0
0.107062 -0.153214 -0.0704553 255 0 0
0.108993 -0.15318 -0.0703721 255 0 0
0.110941 -0.153145 -0.0702884 255 0 0
0.112734 -0.152538 -0.0711364 255 0 0
0.115184 -0.152876 -0.070286 255 0 0
0.117317 -0.15251 -0.0710784 255 0 0
0.119354 -0.152921 -0.0706714 255 0 0
0.121143 -0.153148 -0.0706353 255 0 0
0.122836 -0.153764 -0.0716386 255 0 0
0.124886 -0.15308 -0.0713358 255 0 0
0.127073 -0.152662 -0.0713561 255 0 0
0.129024 -0.152681 -0.0709416 255 0 0
0.131502 -0.153269 -0.0711864 255 0 0
0.135222 -0.153295 -0.0719102 255 0 0
0.137286 -0.152788 -0.0710638 255 0 0
0.139307 -0.153798 -0.0710484 255 0 0
0.0958609 -0.15116 -0.0712681 255 0 0
0.096172 -0.150011 -0.0705494 255 0 0
0.106986 -0.151672 -0.0700868 255 0 0
0.108525 -0.150971 -0.0717631 255 0 0
0.1108 -0.151142 -0.0711643 255 0 0
0.112763 -0.151333 -0.0703894 255 0 0
0.114517 -0.151407 -0.0701112 255 0 0
0.116411 -0.151082 -0.0700331 255 0 0
0.118722 -0.151886 -0.0712587 255 0 0
0.120391 -0.151188 -0.0702965 255 0 0
0.123127 -0.151038 -0.0705816 255 0 0
0.125811 -0.151092 -0.071313 255 0 0
0.128249 -0.150835 -0.0714069 255 0 0
0.130609 -0.151447 -0.07076 255 0 0
0.132819 -0.151002 -0.0702478 255 0 0
0.134622 -0.151931 -0.0714329 255 0 0
0.136683 -0.151424 -0.0705873 255 0 0
0.0972559 -0.148277 -0.0703062 255 0 0
0.103001 -0.14876 -0.0718555 255 0 0
0.104444 -0.148358 -0.071579 255 0 0
0.109891 -0.149795 -0.0716696 255 0 0
0.111351 -0.149391 -0.0713925 255 0 0
0.11326 -0.148953 -0.0703548 255 0 0
0.125384 -0.14806 -0.070367 255 0 0
0.127445 -0.149028 -0.0712315 255 0 0
0.129587 -0.148967 -0.0711514 255 0 0
0.131102 -0.149327 -0.0707219 255 0 0
0.132298 -0.149899 -0.0701171 255 0 0
0.0974799 -0.146763 -0.0716749 255 0 0
0.09835 -0.146527 -0.0700604 255 0 0
0.105889 -0.147955 -0.0713023 255 0 0
0.107338 -0.147552 -0.0710252 255 0 0
0.10879 -0.147147 -0.0707477 255 0 0
0.110615 -0.147347 -0.0709091 255 0 0
0.113084 -0.147399 -0.0707211 255 0 0
0.128141 -0.147574 -0.0706278 255 0 0
0.131214 -0.147578 -0.0704156 255 0 0
0.0967529 -0.145184 -0.0708153 255 0 0
0.129161 -0.145898 -0.0701938 255 0 0
0.131326 -0.145821 -0.0701082 255 0 0
0.0962481 -0.142675 -0.0710712 255 0 0
0.0952298 -0.141174 -0.070749 255 0 0
0.0945974 -0.139367 -0.0706689 255 0 0
0.188414 -0.232222 -0.0689585 255 0 0
0.186562 -0.230707 -0.0689874 255 0 0
0.188256 -0.228978 -0.0693335 255 0 0
0.187387 -0.227352 -0.0690189 255 0 0
0.187662 -0.224909 -0.0695518 255 0 0
0.188493 -0.225489 -0.0680179 255 0 0
0.186359 -0.222478 -0.0690794 255 0 0
0.189209 -0.223852 -0.0687064 255 0 0
0.186541 -0.220843 -0.0694344 255 0 0
0.188177 -0.218955 -0.0687667 255 0 0
0.188893 -0.217291 -0.0694598 255 0 0
0.185691 -0.214309 -0.0698512 255 0 0
0.187053 -0.214882 -0.0686495 255 0 0
0.185347 -0.212677 -0.0698714 255 0 0
0.186273 -0.212444 -0.0685122 255 0 0
0.185929 -0.210812 -0.0685323 255 0 0
0.18611 -0.209152 -0.0688875 255 0 0
0.185766 -0.207517 -0.0689076 255 0 0
0.185249 -0.205064 -0.0689378 255 0 0
0.184208 -0.202649 -0.0686329 255 0 0
0.183343 -0.201056 -0.0683188 255 0 0
0.182999 -0.199425 -0.068339 255 0 0
0.181385 -0.196389 -0.0697377 255 0 0
0.182137 -0.197838 -0.0680259 255 0 0
0.18104 -0.194756 -0.069758 255 0 0
0.16722 -0.193008 -0.0696799 255 0 0
0.168036 -0.193648 -0.0684235 255 0 0
0.179667 -0.193228 -0.0691084 255 0 0
0.167324 -0.190988 -0.0688968 255 0 0
0.177452 -0.190143 -0.0681518 255 0 0
0.178302 -0.19171 -0.0684629 255 0 0
0.16702 -0.188651 -0.06874 255 0 0
0.176695 -0.188687 -0.0698549 255 0 0
0.175343 -0.187185 -0.0692092 255 0 0
0.173121 -0.185028 -0.0690852 255 0 0
0.154471 -0.182141 -0.069589 255 0 0
0.171409 -0.18282 -0.0692906 255 0 0
0.150803 -0.181061 -0.069216 255 0 0
0.152795 -0.180657 -0.0683256 255 0 0
0.15646 -0.181734 -0.0686961 255 0 0
0.158786 -0.181654 -0.0688089 255 0 0
0.171069 -0.181208 -0.0693108 255 0 0
0.138988 -0.178255 -0.0696117 255 0 0
0.141218 -0.179386 -0.0694463 255 0 0
0.143971 -0.179394 -0.0699791 255 0 0
0.145974 -0.178993 -0.069088 255 0 0
0.149304 -0.179745 -0.0684569 255 0 0
0.171223 -0.179523 -0.0696617 255 0 0
0.137452 -0.176282 -0.0696501 255 0 0
0.139186 -0.177244 -0.0693069 255 0 0
0.141166 -0.177321 -0.0682528 255 0 0
0.142343 -0.177926 -0.06872 255 0 0
0.149822 -0.176343 -0.069373 255 0 0
0.151116 -0.176034 -0.0686675 255 0 0
0.170465 -0.177138 -0.0695268 255 0 0
0.136968 -0.174878 -0.0693009 255 0 0
0.139015 -0.175679 -0.0682935 255 0 0
0.149203 -0.17495 -0.0688977 255 0 0
0.150495 -0.174643 -0.0681932 255 0 0
0.152913 -0.175567 -0.0688127 255 0 0
0.154464 -0.175178 -0.068532 255 0 0
0.170201 -0.174677 -0.0697226 255 0 0
0.134618 -0.173401 -0.0691995 255 0 0
0.13728 -0.172591 -0.0694323 255 0 0
0.138556 -0.17373 -0.0682881 255 0 0
0.149077 -0.173397 -0.069273 255 0 0
0.150124 -0.173172 -0.0681432 255 0 0
0.16986 -0.173061 -0.0697429 255 0 0
0.137571 -0.170834 -0.0692161 255 0 0
0.138423 -0.171596 -0.0684513 255 0 0
0.150248 -0.171531 -0.0689426 255 0 0
0.169519 -0.171445 -0.0697632 255 0 0
0.131083 -0.16828 -0.0684076 255 0 0
0.137007 -0.168303 -0.0697657 255 0 0
0.138619 -0.169267 -0.068785 255 0 0
0.150897 -0.169771 -0.069179 255 0 0
0.168762 -0.169065 -0.0696283 255 0 0
0.129263 -0.166731 -0.0685212 255 0 0
0.137296 -0.166524 -0.0695489 255 0 0
0.13908 -0.167396 -0.0686508 255 0 0
0.151802 -0.167913 -0.0698444 255 0 0
0.152918 -0.166862 -0.06911 255 0 0
0.167032 -0.166872 -0.0688347 255 0 0
0.127047 -0.164896 -0.0694979 255 0 0
0.132839 -0.16433 -0.069884 255 0 0
0.135313 -0.164151 -0.0699717 255 0 0
0.136828 -0.16454 -0.0695447 255 0 0
0.138781 -0.165316 -0.0687299 255 0 0
0.153389 -0.164341 -0.0693224 255 0 0
0.161656 -0.164654 -0.0695772 255 0 0
0.162564 -0.164441 -0.0682496 255 0 0
0.164812 -0.165665 -0.069535 255 0 0
0.131727 -0.162737 -0.0695404 255 0 0
0.133544 -0.162931 -0.0692846 255 0 0
0.136953 -0.16284 -0.06924 255 0 0
0.138744 -0.16371 -0.0683379 255 0 0
0.140611 -0.163908 -0.0680758 255 0 0
0.155082 -0.162821 -0.0688921 255 0 0
0.15899 -0.163549 -0.0689592 255 0 0
0.129447 -0.160575 -0.0697913 255 0 0
0.131572 -0.160568 -0.0697066 255 0 0
0.132428 -0.161335 -0.0689405 255 0 0
0.134578 -0.161331 -0.068852 255 0 0
0.137079 -0.161132 -0.0689341 255 0 0
0.138274 -0.161711 -0.0683313 255 0 0
0.149396 -0.160714 -0.0687842 255 0 0
0.151508 -0.161881 -0.0690675 255 0 0
0.152849 -0.161576 -0.0680821 255 0 0
0.156868 -0.16104 -0.0687575 255 0 0
0.131096 -0.158584 -0.0697027 255 0 0
0.133026 -0.159345 -0.0688911 255 0 0
0.135292 -0.159914 -0.0682459 255 0 0
0.137472 -0.159903 -0.0681538 255 0 0
0.145219 -0.15841 -0.0691846 255 0 0
0.146864 -0.159656 -0.0681887 255 0 0
0.156955 -0.158542 -0.0697598 255 0 0
0.0945688 -0.156542 -0.0698438 255 0 0
0.0963727 -0.156526 -0.0697585 255 0 0
0.100926 -0.156845 -0.0687484 255 0 0
0.102656 -0.157135 -0.0691471 255 0 0
0.104402 -0.157426 -0.0695487 255 0 0
0.106594 -0.156864 -0.0695124 255 0 0
0.131209 -0.156878 -0.0693995 255 0 0
0.133305 -0.157539 -0.0686705 255 0 0
0.134016 -0.15611 -0.0680625 255 0 0
0.139815 -0.156442 -0.0695956 255 0 0
0.141114 -0.156137 -0.0686286 255 0 0
0.143157 -0.157269 -0.0689053 255 0 0
0.156578 -0.157043 -0.0697085 255 0 0
0.0953779 -0.155047 -0.0694451 255 0 0
0.0971919 -0.155025 -0.0693578 255 0 0
0.0990789 -0.155107 -0.0685159 255 0 0
0.104914 -0.155817 -0.0683793 255 0 0
0.107805 -0.155054 -0.0689157 255 0 0
0.110387 -0.154377 -0.0691689 255 0 0
0.12132 -0.154642 -0.0698819 255 0 0
0.123085 -0.154989 -0.0692381 255 0 0
0.125634 -0.155134 -0.069194 255 0 0
0.127267 -0.154736 -0.0685543 255 0 0
0.131632 -0.155094 -0.0694935 255 0 0
0.133264 -0.155127 -0.0690242 255 0 0
0.134974 -0.154415 -0.0684272 255 0 0
0.136531 -0.155626 -0.0693333 255 0 0
0.138233 -0.155219 -0.0686817 255 0 0
0.14317 -0.154412 -0.069755 255 0 0
0.153991 -0.154574 -0.0694554 255 0 0
0.0961926 -0.153542 -0.0690435 255 0 0
0.0980167 -0.153514 -0.0689542 255 0 0
0.101698 -0.152155 -0.0699769 255 0 0
0.103579 -0.152118 -0.0698913 255 0 0
0.108671 -0.153334 -0.0680267 255 0 0
0.111619 -0.152544 -0.0685666 255 0 0
0.113004 -0.153691 -0.0694263 255 0 0
0.115657 -0.152996 -0.069688 255 0 0
0.117601 -0.152498 -0.0693569 255 0 0
0.118922 -0.152932 -0.0693296 255 0 0
0.120671 -0.153272 -0.0686868 255 0 0
0.122925 -0.152449 -0.0692212 255 0 0
0.124284 -0.152998 -0.0686262 255 0 0
0.13289 -0.153186 -0.0689434 255 0 0
0.138886 -0.152502 -0.0693657 255 0 0
0.140602 -0.152828 -0.0691103 255 0 0
0.143089 -0.152947 -0.0687126 255 0 0
0.145175 -0.153108 -0.0690957 255 0 0
0.147153 -0.153324 -0.0692656 255 0 0
0.149109 -0.152869 -0.0682013 255 0 0
0.151012 -0.153815 -0.0693969 255 0 0
0.0971235 -0.151286 -0.0693124 255 0 0
0.0989626 -0.150856 -0.0684102 255 0 0
0.10282 -0.150414 -0.0697293 255 0 0
0.104445 -0.150564 -0.0694812 255 0 0
0.106629 -0.150323 -0.0695551 255 0 0
0.109225 -0.150944 -0.0697132 255 0 0
0.11051 -0.150229 -0.0693792 255 0 0
0.11489 -0.150915 -0.0692082 255 0 0
0.116859 -0.15117 -0.0687531 255 0 0
0.118453 -0.150846 -0.0686154 255 0 0
0.12128 -0.151296 -0.0698677 255 0 0
0.122557 -0.151001 -0.0691729 255 0 0
0.124888 -0.150337 -0.0689614 255 0 0
0.126959 -0.151271 -0.069147 255 0 0
0.129311 -0.150603 -0.0689357 255 0 0
0.131031 -0.150081 -0.0690743 255 0 0
0.133278 -0.151279 -0.0687777 255 0 0
0.135402 -0.150404 -0.0688428 255 0 0
0.138053 -0.151254 -0.0684702 255 0 0
0.0980657 -0.149005 -0.069583 255 0 0
0.102876 -0.149442 -0.0688376 255 0 0
0.104502 -0.149589 -0.0685865 255 0 0
0.106686 -0.149343 -0.0686552 255 0 0
0.108897 -0.149093 -0.0687252 255 0 0
0.11085 -0.14904 -0.0686336 255 0 0
0.113368 -0.14908 -0.0693264 255 0 0
0.115252 -0.149021 -0.0695078 255 0 0
0.116898 -0.149089 -0.0688896 255 0 0
0.119691 -0.149215 -0.0696905 255 0 0
0.122361 -0.148746 -0.0699411 255 0 0
0.127019 -0.149782 -0.0683331 255 0 0
0.132829 -0.149003 -0.0690268 255 0 0
0.134545 -0.148796 -0.0690706 255 0 0
0.0989302 -0.146971 -0.0687317 255 0 0
0.111401 -0.147107 -0.0687084 255 0 0
0.112594 -0.146277 -0.0686798 255 0 0
0.114804 -0.146865 -0.0691456 255 0 0
0.116791 -0.146919 -0.0689104 255 0 0
0.118901 -0.14744 -0.0695191 255 0 0
0.120958 -0.147376 -0.0694307 255 0 0
0.123652 -0.146891 -0.0696807 255 0 0
0.126386 -0.146398 -0.0699351 255 0 0
0.13313 -0.146678 -0.0691957 255 0 0
0.134938 -0.147536 -0.068281 255 0 0
0.0972306 -0.144643 -0.069217 255 0 0
0.0984061 -0.145559 -0.0691728 255 0 0
0.117813 -0.145873 -0.0691803 255 0 0
0.120468 -0.145381 -0.0694263 255 0 0
0.122545 -0.145307 -0.0693371 255 0 0
0.125268 -0.144804 -0.0695882 255 0 0
0.127713 -0.144508 -0.0696714 255 0 0
0.129866 -0.144426 -0.0695831 255 0 0
0.131714 -0.14456 -0.0693211 255 0 0
0.132918 -0.14513 -0.0687116 255 0 0
0.0963441 -0.143045 -0.0689764 255 0 0
0.119371 -0.143807 -0.0690852 255 0 0
0.121747 -0.143511 -0.0691629 255 0 0
0.123842 -0.143427 -0.0690721 255 0 0
0.126272 -0.143124 -0.0691516 255 0 0
0.128413 -0.143036 -0.0690606 255 0 0
0.131175 -0.143231 -0.0686645 255 0 0
0.0958715 -0.140659 -0.06853 255 0 0
0.0960736 -0.141424 -0.0695771 255 0 0
0.118937 -0.140785 -0.0681432 255 0 0
0.121285 -0.140982 -0.068686 255 0 0
0.123039 -0.141622 -0.0688966 255 0 0
0.12534 -0.140899 -0.0684135 255 0 0
0.126966 -0.141652 -0.0685406 255 0 0
0.128795 -0.141777 -0.0682754 255 0 0
0.0948218 -0.139034 -0.0689071 255 0 0
0.120513 -0.13867 -0.06804 255 0 0
0.123226 -0.138119 -0.0682811 255 0 0
0.124032 -0.139934 -0.0684577 255 0 0
0.0946086 -0.137044 -0.0683647 255 0 0
0.18794 -0.230352 -0.0669631 255 0 0
0.189335 -0.231984 -0.0676052 255 0 0
0.190255 -0.231746 -0.0662527 255 0 0
0.189179 -0.228741 -0.0679778 255 0 0
0.190101 -0.228503 -0.0666229 255 0 0
0.188769 -0.226997 -0.0669887 255 0 0
0.189416 -0.225252 -0.0666627 255 0 0
0.187281 -0.222243 -0.0677252 255 0 0
0.188203 -0.222008 -0.0663719 255 0 0
0.190134 -0.223615 -0.0673469 255 0 0
0.1874 -0.220501 -0.0670685 255 0 0
0.188573 -0.218733 -0.067074 255 0 0
0.18929 -0.217071 -0.0677606 255 0 0
0.190217 -0.216836 -0.0663992 255 0 0
0.187886 -0.215473 -0.0671139 255 0 0
0.186582 -0.21306 -0.0666466 255 0 0
0.186329 -0.210606 -0.0668419 255 0 0
0.185986 -0.208977 -0.0668619 255 0 0
0.18512 -0.207378 -0.0665509 255 0 0
0.183914 -0.204159 -0.0662608 255 0 0
0.184777 -0.205751 -0.0665708 255 0 0
0.183571 -0.202534 -0.0662806 255 0 0
0.181277 -0.196257 -0.0677137 255 0 0
0.169344 -0.19469 -0.0668027 255 0 0
0.18042 -0.19468 -0.0674026 255 0 0
0.179566 -0.193108 -0.0670924 255 0 0
0.168449 -0.191863 -0.0667703 255 0 0
0.177699 -0.191649 -0.0661278 255 0 0
0.168239 -0.189625 -0.0668668 255 0 0
0.1761 -0.188641 -0.0675122 255 0 0
0.174757 -0.187147 -0.0668766 255 0 0
0.164126 -0.184067 -0.0666912 255 0 0
0.172169 -0.184275 -0.0676024 255 0 0
0.16277 -0.182908 -0.0664351 255 0 0
0.171337 -0.182735 -0.067296 255 0 0
0.154779 -0.180254 -0.0674382 255 0 0
0.156924 -0.180012 -0.0670503 255 0 0
0.161594 -0.181916 -0.0666768 255 0 0
0.170507 -0.181199 -0.0669905 255 0 0
0.147814 -0.178436 -0.067702 255 0 0
0.1498 -0.178038 -0.0668186 255 0 0
0.151293 -0.179344 -0.0675699 255 0 0
0.158896 -0.179611 -0.0661664 255 0 0
0.170659 -0.179522 -0.0673361 255 0 0
0.140949 -0.176468 -0.0674863 255 0 0
0.142722 -0.176078 -0.0665912 255 0 0
0.144341 -0.177529 -0.0678343 255 0 0
0.146179 -0.176979 -0.0664576 255 0 0
0.148315 -0.17674 -0.0660714 255 0 0
0.169982 -0.176308 -0.0673762 255 0 0
0.170321 -0.177915 -0.0673562 255 0 0
0.139069 -0.174772 -0.0675657 255 0 0
0.140585 -0.175073 -0.0669309 255 0 0
0.142101 -0.175482 -0.0665013 255 0 0
0.152038 -0.174254 -0.0679124 255 0 0
0.155505 -0.17495 -0.0674 255 0 0
0.1568 -0.174642 -0.0666943 255 0 0
0.170133 -0.17462 -0.067723 255 0 0
0.135626 -0.172076 -0.0669535 255 0 0
0.136933 -0.173209 -0.0672057 255 0 0
0.139276 -0.172358 -0.0676869 255 0 0
0.140553 -0.173499 -0.0665413 255 0 0
0.151416 -0.172865 -0.0674391 255 0 0
0.153271 -0.17317 -0.0673944 255 0 0
0.154877 -0.173557 -0.066926 255 0 0
0.169793 -0.173009 -0.0677431 255 0 0
0.13329 -0.170107 -0.0674335 255 0 0
0.134458 -0.171092 -0.0671934 255 0 0
0.139572 -0.170596 -0.0674656 255 0 0
0.140853 -0.171742 -0.066317 255 0 0
0.151294 -0.171309 -0.0678121 255 0 0
0.152587 -0.171002 -0.0671074 255 0 0
0.169454 -0.171398 -0.0677632 255 0 0
0.132121 -0.169123 -0.0676736 255 0 0
0.13987 -0.168825 -0.0672428 255 0 0
0.140726 -0.169591 -0.066475 255 0 0
0.152467 -0.169442 -0.0674804 255 0 0
0.167799 -0.168356 -0.0671509 255 0 0
0.168625 -0.169875 -0.0674566 255 0 0
0.131788 -0.166779 -0.0672751 255 0 0
0.132822 -0.167621 -0.0665449 255 0 0
0.140335 -0.16695 -0.0671032 255 0 0
0.153643 -0.16757 -0.0671481 255 0 0
0.154684 -0.167355 -0.0660197 255 0 0
0.166491 -0.166933 -0.0665224 255 0 0
0.132489 -0.165286 -0.0661491 255 0 0
0.140804 -0.165064 -0.0669618 255 0 0
0.153778 -0.165907 -0.0679478 255 0 0
0.155078 -0.1656 -0.0672398 255 0 0
0.163471 -0.164229 -0.0669227 255 0 0
0.165243 -0.165545 -0.0678743 255 0 0
0.139473 -0.162292 -0.0677274 255 0 0
0.141275 -0.163164 -0.0668198 255 0 0
0.156885 -0.162933 -0.0671846 255 0 0
0.160342 -0.163232 -0.0669796 255 0 0
0.133252 -0.161881 -0.066097 255 0 0
0.13927 -0.160772 -0.0672467 255 0 0
0.141411 -0.161447 -0.0665065 255 0 0
0.150282 -0.160503 -0.0665241 255 0 0
0.153289 -0.161466 -0.0664625 255 0 0
0.157783 -0.160884 -0.0674008 255 0 0
0.134166 -0.158311 -0.0679001 255 0 0
0.136009 -0.15849 -0.0676365 255 0 0
0.138632 -0.158861 -0.0671533 255 0 0
0.140269 -0.159829 -0.0661584 255 0 0
0.145233 -0.158407 -0.0672698 255 0 0
0.147747 -0.159451 -0.0668981 255 0 0
0.157481 -0.158548 -0.067752 255 0 0
0.158451 -0.159193 -0.0662121 255 0 0
0.13488 -0.156884 -0.0672902 255 0 0
0.1364 -0.157259 -0.0668549 255 0 0
0.139197 -0.157524 -0.0664518 255 0 0
0.144475 -0.156965 -0.0669788 255 0 0
0.156845 -0.157162 -0.0672727 255 0 0
0.0990011 -0.154409 -0.0676564 255 0 0
0.100785 -0.154691 -0.0671762 255 0 0
0.103252 -0.154781 -0.0672582 255 0 0
0.10577 -0.154112 -0.0674961 255 0 0
0.128908 -0.154336 -0.0679118 255 0 0
0.135328 -0.15496 -0.0671488 255 0 0
0.136812 -0.154545 -0.066748 255 0 0
0.139425 -0.155353 -0.0669272 255 0 0
0.14124 -0.154505 -0.0670599 255 0 0
0.142853 -0.155732 -0.0670194 255 0 0
0.154786 -0.154488 -0.067882 255 0 0
0.156469 -0.155673 -0.0672216 255 0 0
0.0987765 -0.153011 -0.0668089 255 0 0
0.101607 -0.153756 -0.0661491 255 0 0
0.104441 -0.152985 -0.0666616 255 0 0
0.106973 -0.152302 -0.0668967 255 0 0
0.122695 -0.152778 -0.0674346 255 0 0
0.125043 -0.152965 -0.067233 255 0 0
0.127411 -0.153151 -0.0670286 255 0 0
0.129445 -0.152642 -0.0666835 255 0 0
0.131428 -0.152928 -0.0671046 255 0 0
0.133024 -0.153319 -0.0672244 255 0 0
0.135047 -0.152828 -0.0671087 255 0 0
0.137209 -0.152286 -0.0665283 255 0 0
0.138363 -0.153597 -0.0671212 255 0 0
0.140867 -0.152545 -0.0671532 255 0 0
0.146453 -0.152137 -0.0671595 255 0 0
0.150162 -0.152677 -0.0670673 255 0 0
0.152992 -0.153483 -0.0669054 255 0 0
0.107834 -0.150587 -0.0660089 255 0 0
0.109892 -0.151508 -0.0674245 255 0 0
0.112498 -0.150806 -0.0676698 255 0 0
0.11514 -0.150094 -0.0679192 255 0 0
0.119711 -0.150477 -0.0674306 255 0 0
0.12108 -0.150633 -0.0670716 255 0 0
0.123609 -0.151002 -0.0665182 255 0 0
0.125926 -0.151976 -0.0661527 255 0 0
0.135196 -0.150395 -0.0675558 255 0 0
0.136637 -0.150905 -0.0665651 255 0 0
0.139221 -0.151415 -0.066762 255 0 0
0.140171 -0.150882 -0.0662276 255 0 0
0.14277 -0.151601 -0.0672527 255 0 0
0.144063 -0.151301 -0.0665493 255 0 0
0.147749 -0.151836 -0.066454 255 0 0
0.0989309 -0.148769 -0.0679773 255 0 0
0.100526 -0.148914 -0.0677252 255 0 0
0.102933 -0.148471 -0.0679457 255 0 0
0.104829 -0.148417 -0.0678507 255 0 0
0.107019 -0.148164 -0.0679152 255 0 0
0.110409 -0.149883 -0.0662429 255 0 0
0.113741 -0.148957 -0.0670619 255 0 0
0.117307 -0.149196 -0.0675105 255 0 0
0.119086 -0.149133 -0.0670646 255 0 0
0.120514 -0.148784 -0.066402 255 0 0
0.123039 -0.149376 -0.0662388 255 0 0
0.128298 -0.149486 -0.0676371 255 0 0
0.13065 -0.148816 -0.067423 255 0 0
0.133198 -0.148872 -0.0672338 255 0 0
0.135352 -0.148757 -0.0672371 255 0 0
0.136358 -0.149322 -0.066546 255 0 0
0.0992755 -0.147129 -0.0668082 255 0 0
0.101006 -0.14717 -0.0666298 255 0 0
0.103152 -0.146913 -0.0666858 255 0 0
0.105158 -0.147242 -0.0671129 255 0 0
0.107352 -0.146981 -0.0671733 255 0 0
0.109544 -0.147211 -0.0676884 255 0 0
0.11784 -0.147878 -0.0673057 255 0 0
0.118893 -0.146864 -0.0674279 255 0 0
0.120244 -0.14735 -0.0665576 255 0 0
0.135439 -0.146883 -0.0669267 255 0 0
0.0979415 -0.14499 -0.0679696 255 0 0
0.0990427 -0.145038 -0.0669583 255 0 0
0.105761 -0.145862 -0.0665312 255 0 0
0.108242 -0.14539 -0.0667479 255 0 0
0.110758 -0.144911 -0.0669682 255 0 0
0.113269 -0.145911 -0.0678879 255 0 0
0.115127 -0.145698 -0.0673033 255 0 0
0.116392 -0.145408 -0.0666157 255 0 0
0.120714 -0.145651 -0.0665735 255 0 0
0.133434 -0.145031 -0.0674914 255 0 0
0.135063 -0.145443 -0.0663547 255 0 0
0.0972129 -0.14281 -0.0673652 255 0 0
0.0989151 -0.143154 -0.0666144 255 0 0
0.131076 -0.142296 -0.0676179 255 0 0
0.132714 -0.143257 -0.0666167 255 0 0
0.0959688 -0.141036 -0.0664491 255 0 0
0.0968623 -0.141478 -0.0668412 255 0 0
0.127664 -0.140172 -0.0679263 255 0 0
0.129178 -0.140514 -0.067488 255 0 0
0.130975 -0.141362 -0.0665726 255 0 0
0.0950944 -0.139281 -0.0669279 255 0 0
0.124719 -0.138455 -0.0678457 255 0 0
0.126972 -0.138962 -0.0671893 255 0 0
0.128918 -0.139694 -0.0663606 255 0 0
0.119712 -0.136868 -0.0678648 255 0 0
0.120879 -0.137422 -0.0672637 255 0 0
0.123317 -0.136568 -0.0668558 255 0 0
0.125372 -0.137699 -0.06659 255 0 0
0.11891 -0.135063 -0.0676894 255 0 0
0.120895 -0.135157 -0.0667939 255 0 0
0.116105 -0.132363 -0.0666738 255 0 0
0.11931 -0.132978 -0.0670194 255 0 0
0.118773 -0.131771 -0.0669024 255 0 0
0.188857 -0.230115 -0.0656147 255 0 0
0.191175 -0.231508 -0.0649011 255 0 0
0.189774 -0.229878 -0.0642671 255 0 0
0.191022 -0.228266 -0.0652689 255 0 0
0.190149 -0.226642 -0.0649602 255 0 0
0.190338 -0.225016 -0.0653084 255 0 0
0.191255 -0.223263 -0.0651439 255 0 0
0.188425 -0.220971 -0.0647017 255 0 0
0.189497 -0.218498 -0.065717 255 0 0
0.190421 -0.218263 -0.0643608 255 0 0
0.191144 -0.216601 -0.0650386 255 0 0
0.192607 -0.216349 -0.0640073 255 0 0
0.189008 -0.215131 -0.0649135 255 0 0
0.187504 -0.212828 -0.0652923 255 0 0
0.186727 -0.2104 -0.0651575 255 0 0
