ply
format ascii 1.0
element vertex 1270
property float x
property float y
property float z
property uchar diffuse_red
property uchar diffuse_green
property uchar diffuse_blue
end_header
0.167734 -0.156548 -0.0738604 255 0 0
0.168948 -0.15701 -0.0726446 255 0 0
0.176621 -0.156855 -0.072768 255 0 0
0.183317 -0.157173 -0.0725751 255 0 0
0.187837 -0.156744 -0.0737886 255 0 0
0.189267 -0.156832 -0.0724293 255 0 0
0.167181 -0.155114 -0.0737076 255 0 0
0.168256 -0.154808 -0.0726234 255 0 0
0.175552 -0.154891 -0.0738553 255 0 0
0.176135 -0.154668 -0.0722837 255 0 0
0.183315 -0.155954 -0.0738663 255 0 0
0.184265 -0.154994 -0.0725966 255 0 0
0.188046 -0.154796 -0.072791 255 0 0
0.166893 -0.153064 -0.0732814 255 0 0
0.175333 -0.153194 -0.0730993 255 0 0
0.181837 -0.152166 -0.073927 255 0 0
0.183869 -0.152822 -0.0726198 255 0 0
0.186407 -0.153682 -0.0727923 255 0 0
0.165791 -0.150698 -0.0736669 255 0 0
0.16701 -0.151168 -0.0724494 255 0 0
0.174555 -0.151117 -0.073401 255 0 0
0.180678 -0.151264 -0.0728886 255 0 0
0.182549 -0.150447 -0.0730669 255 0 0
0.165237 -0.149261 -0.0735138 255 0 0
0.166044 -0.149072 -0.0720117 255 0 0
0.173509 -0.148546 -0.0739747 255 0 0
0.174349 -0.149119 -0.0723876 255 0 0
0.177225 -0.148697 -0.07322 255 0 0
0.178573 -0.149854 -0.0731491 255 0 0
0.182007 -0.14832 -0.0731125 255 0 0
0.163859 -0.146506 -0.0727902 255 0 0
0.164682 -0.147824 -0.0733606 255 0 0
0.174873 -0.146764 -0.0727258 255 0 0
0.181462 -0.146185 -0.0731581 255 0 0
0.163039 -0.145191 -0.0722214 255 0 0
0.173146 -0.145126 -0.0726641 255 0 0
0.174535 -0.144832 -0.0735191 255 0 0
0.180915 -0.144043 -0.0732037 255 0 0
0.17142 -0.142542 -0.0730875 255 0 0
0.172515 -0.143756 -0.072946 255 0 0
0.174021 -0.143237 -0.0735489 255 0 0
0.168327 -0.140439 -0.0730897 255 0 0
0.170328 -0.14133 -0.0732287 255 0 0
0.172521 -0.141015 -0.0730637 255 0 0
0.180521 -0.141238 -0.0727986 255 0 0
0.160535 -0.139368 -0.0739469 255 0 0
0.165267 -0.138358 -0.0730921 255 0 0
0.167168 -0.138707 -0.0727604 255 0 0
0.169481 -0.139251 -0.0734493 255 0 0
0.170545 -0.138918 -0.0722301 255 0 0
0.179813 -0.139736 -0.073295 255 0 0
0.153618 -0.136238 -0.0730148 255 0 0
0.154553 -0.137655 -0.0733239 255 0 0
0.159717 -0.136196 -0.0733363 255 0 0
0.163179 -0.13682 -0.0733408 255 0 0
0.16506 -0.136388 -0.0729753 255 0 0
0.16698 -0.137609 -0.0739922 255 0 0
0.177439 -0.136081 -0.0728449 255 0 0
0.178836 -0.137796 -0.07316 255 0 0
0.150818 -0.135382 -0.07321 255 0 0
0.15729 -0.135211 -0.0738727 255 0 0
0.158719 -0.134894 -0.073293 255 0 0
0.16141 -0.135348 -0.0729271 255 0 0
0.175628 -0.134596 -0.0723517 255 0 0
0.176158 -0.135461 -0.0736126 255 0 0
0.151472 -0.133518 -0.0731571 255 0 0
0.157228 -0.132623 -0.0729206 255 0 0
0.15929 -0.132741 -0.0732268 255 0 0
0.16071 -0.133561 -0.0728248 255 0 0
0.170478 -0.132352 -0.0730338 255 0 0
0.172614 -0.133049 -0.0731651 255 0 0
0.174503 -0.13332 -0.0726684 255 0 0
0.152129 -0.131643 -0.0731037 255 0 0
0.157196 -0.130713 -0.0730252 255 0 0
0.159183 -0.130828 -0.072554 255 0 0
0.16299 -0.130222 -0.0739305 255 0 0
0.164619 -0.130596 -0.073354 255 0 0
0.166653 -0.130742 -0.0729514 255 0 0
0.16876 -0.13143 -0.073081 255 0 0
0.153955 -0.129403 -0.0729668 255 0 0
0.154996 -0.128125 -0.0738075 255 0 0
0.15638 -0.129413 -0.0724542 255 0 0
0.158913 -0.129061 -0.0733386 255 0 0
0.160872 -0.12901 -0.0732724 255 0 0
0.162878 -0.129151 -0.0728713 255 0 0
0.164507 -0.129522 -0.0722921 255 0 0
0.155004 -0.1274 -0.072768 255 0 0
0.15793 -0.126982 -0.0735417 255 0 0
0.158719 -0.127266 -0.0732805 255 0 0
0.161146 -0.127712 -0.0723911 255 0 0
0.151232 -0.124689 -0.072766 255 0 0
0.152831 -0.125683 -0.0732086 255 0 0
0.155148 -0.124323 -0.07291 255 0 0
0.156615 -0.12523 -0.0723554 255 0 0
0.129761 -0.122216 -0.0736403 255 0 0
0.130971 -0.12292 -0.0722195 255 0 0
0.134583 -0.122841 -0.0729904 255 0 0
0.147225 -0.12286 -0.0733827 255 0 0
0.148825 -0.123132 -0.0727917 255 0 0
0.153305 -0.123632 -0.0735251 255 0 0
0.15578 -0.122784 -0.0726698 255 0 0
0.124474 -0.120845 -0.0729412 255 0 0
0.126971 -0.121965 -0.0731279 255 0 0
0.135661 -0.12024 -0.0738885 255 0 0
0.141336 -0.120299 -0.0729424 255 0 0
0.143245 -0.121043 -0.0739974 255 0 0
0.144836 -0.121312 -0.0734082 255 0 0
0.146429 -0.12158 -0.0728167 255 0 0
0.153852 -0.120715 -0.0739023 255 0 0
0.155014 -0.120772 -0.0726274 255 0 0
0.119586 -0.118165 -0.0736788 255 0 0
0.121283 -0.118267 -0.0733025 255 0 0
0.123315 -0.118906 -0.0733792 255 0 0
0.124814 -0.11848 -0.0727613 255 0 0
0.12693 -0.118721 -0.0734047 255 0 0
0.129402 -0.118912 -0.0732806 255 0 0
0.130219 -0.118819 -0.0721595 255 0 0
0.132922 -0.119525 -0.0730172 255 0 0
0.134256 -0.118218 -0.0731747 255 0 0
0.136956 -0.118812 -0.0727413 255 0 0
0.138377 -0.119852 -0.0729677 255 0 0
0.144962 -0.118752 -0.0731997 255 0 0
0.146375 -0.118268 -0.0723589 255 0 0
0.151183 -0.118364 -0.0727495 255 0 0
0.152286 -0.118652 -0.0729868 255 0 0
0.154115 -0.119409 -0.0730244 255 0 0
0.11924 -0.116676 -0.0732138 255 0 0
0.121178 -0.117274 -0.0723246 255 0 0
0.122997 -0.117047 -0.0731452 255 0 0
0.124981 -0.117238 -0.0731149 255 0 0
0.127124 -0.116899 -0.0727548 255 0 0
0.129877 -0.117142 -0.0727839 255 0 0
0.131233 -0.116313 -0.0723216 255 0 0
0.13275 -0.117284 -0.0729254 255 0 0
0.13514 -0.117541 -0.0727467 255 0 0
0.136948 -0.117685 -0.0732626 255 0 0
0.139243 -0.116913 -0.0726143 255 0 0
0.141673 -0.117173 -0.0729857 255 0 0
0.143901 -0.117032 -0.0727605 255 0 0
0.145794 -0.117129 -0.072363 255 0 0
0.146979 -0.117459 -0.0739162 255 0 0
0.1489 -0.117558 -0.0735205 255 0 0
0.150468 -0.117899 -0.072949 255 0 0
0.111412 -0.114387 -0.0731575 255 0 0
0.113441 -0.115216 -0.0726501 255 0 0
0.115448 -0.114703 -0.0738625 255 0 0
0.116488 -0.114425 -0.0728212 255 0 0
0.118721 -0.114813 -0.0732241 255 0 0
0.121123 -0.115437 -0.0726274 255 0 0
0.123312 -0.115025 -0.0730145 255 0 0
0.105542 -0.11253 -0.07381 255 0 0
0.107144 -0.112613 -0.073441 255 0 0
0.109004 -0.112592 -0.0732393 255 0 0
0.1107 -0.113086 -0.0720208 255 0 0
0.1133 -0.112563 -0.0729118 255 0 0
0.115341 -0.113083 -0.0731584 255 0 0
0.117211 -0.112641 -0.0734926 255 0 0
0.119299 -0.113114 -0.0726823 255 0 0
0.12259 -0.112957 -0.0729235 255 0 0
0.124718 -0.113291 -0.0723721 255 0 0
0.103378 -0.111061 -0.0730896 255 0 0
0.105164 -0.111789 -0.0727045 255 0 0
0.1069 -0.111596 -0.0728363 255 0 0
0.108937 -0.111497 -0.0722695 255 0 0
0.111251 -0.110837 -0.0726395 255 0 0
0.11286 -0.110997 -0.0725981 255 0 0
0.115231 -0.110903 -0.072909 255 0 0
0.117705 -0.111183 -0.0728364 255 0 0
0.119099 -0.111495 -0.0722941 255 0 0
0.121289 -0.110639 -0.0739173 255 0 0
0.122891 -0.111241 -0.0733393 255 0 0
0.1245 -0.11185 -0.0727595 255 0 0
0.126586 -0.110534 -0.072109 255 0 0
0.10108 -0.108799 -0.0731365 255 0 0
0.102708 -0.109992 -0.0729639 255 0 0
0.1179 -0.109953 -0.0720166 255 0 0
0.12167 -0.108617 -0.0731531 255 0 0
0.0995172 -0.107096 -0.0725416 255 0 0
0.119439 -0.106661 -0.0732861 255 0 0
0.121034 -0.107249 -0.0727059 255 0 0
0.0990331 -0.10576 -0.072015 255 0 0
0.115251 -0.104222 -0.0731668 255 0 0
0.116816 -0.104799 -0.0725911 255 0 0
0.11916 -0.10511 -0.0729679 255 0 0
0.120394 -0.105884 -0.0722608 255 0 0
0.113527 -0.10283 -0.0732342 255 0 0
0.1204 -0.102351 -0.072548 255 0 0
0.122886 -0.102644 -0.0726209 255 0 0
0.125393 -0.10294 -0.0726955 255 0 0
0.112384 -0.100853 -0.0721648 255 0 0
0.116197 -0.101406 -0.0738425 255 0 0
0.118174 -0.101938 -0.0729561 255 0 0
0.208793 -0.181119 -0.0710641 255 0 0
0.193216 -0.178231 -0.0715067 255 0 0
0.208259 -0.179458 -0.0710938 255 0 0
0.191033 -0.177383 -0.0713793 255 0 0
0.193108 -0.177168 -0.0704504 255 0 0
0.206608 -0.177058 -0.0705881 255 0 0
0.2038 -0.174971 -0.0713569 255 0 0
0.190131 -0.172197 -0.071416 255 0 0
0.193343 -0.173314 -0.0712133 255 0 0
0.19607 -0.172817 -0.071039 255 0 0
0.198832 -0.172313 -0.0708636 255 0 0
0.200453 -0.173821 -0.0715593 255 0 0
0.189613 -0.170588 -0.0714456 255 0 0
0.191509 -0.171024 -0.0705446 255 0 0
0.19504 -0.171003 -0.0707795 255 0 0
0.176078 -0.168301 -0.0719768 255 0 0
0.187347 -0.168357 -0.0711992 255 0 0
0.188977 -0.168773 -0.0709157 255 0 0
0.190609 -0.168793 -0.0703289 255 0 0
0.193929 -0.169697 -0.0711751 255 0 0
0.195023 -0.169379 -0.0700689 255 0 0
0.175572 -0.167436 -0.0707764 255 0 0
0.177304 -0.166496 -0.0719977 255 0 0
0.178379 -0.166186 -0.0709122 255 0 0
0.181571 -0.166837 -0.0708943 255 0 0
0.183254 -0.167312 -0.0719239 255 0 0
0.185031 -0.167157 -0.0708456 255 0 0
0.187028 -0.167589 -0.0704423 255 0 0
0.173172 -0.16456 -0.0712396 255 0 0
0.176564 -0.165512 -0.0708396 255 0 0
0.179745 -0.165784 -0.0702421 255 0 0
0.181783 -0.165302 -0.0715551 255 0 0
0.183374 -0.164922 -0.0706788 255 0 0
0.171119 -0.162814 -0.0705202 255 0 0
0.179382 -0.16239 -0.0716616 255 0 0
0.181016 -0.162917 -0.0715995 255 0 0
0.182358 -0.163407 -0.0703581 255 0 0
0.16964 -0.160837 -0.0719882 255 0 0
0.17975 -0.160615 -0.0712932 255 0 0
0.181318 -0.161001 -0.070492 255 0 0
0.193303 -0.161276 -0.0719177 255 0 0
0.169089 -0.159411 -0.0718361 255 0 0
0.178743 -0.159112 -0.0709732 255 0 0
0.183529 -0.158891 -0.0707399 255 0 0
0.192949 -0.158687 -0.070982 255 0 0
0.169333 -0.156147 -0.070865 255 0 0
0.177228 -0.15603 -0.0706836 255 0 0
0.178232 -0.157526 -0.0710027 255 0 0
0.184052 -0.156925 -0.0705769 255 0 0
0.190706 -0.156919 -0.0710619 255 0 0
0.168782 -0.154718 -0.0707125 255 0 0
0.176718 -0.154445 -0.0707131 255 0 0
0.184367 -0.15443 -0.0709686 255 0 0
0.18923 -0.154949 -0.0713542 255 0 0
0.190925 -0.154959 -0.0700512 255 0 0
0.168779 -0.153069 -0.071387 255 0 0
0.176208 -0.152861 -0.0707426 255 0 0
0.182982 -0.152721 -0.0706597 255 0 0
0.184639 -0.152312 -0.0712257 255 0 0
0.186763 -0.153275 -0.0713617 255 0 0
0.18977 -0.153692 -0.0702004 255 0 0
0.167128 -0.150429 -0.0702548 255 0 0
0.168226 -0.151636 -0.071234 255 0 0
0.176188 -0.151178 -0.0711208 255 0 0
0.180923 -0.150262 -0.0710968 255 0 0
0.18241 -0.151303 -0.07112 255 0 0
0.174932 -0.148898 -0.0708163 255 0 0
0.179324 -0.149173 -0.0711027 255 0 0
0.181326 -0.149338 -0.0710154 255 0 0
0.16481 -0.147098 -0.0711609 255 0 0
0.174654 -0.146414 -0.0712095 255 0 0
0.176623 -0.146861 -0.0712534 255 0 0
0.178209 -0.147939 -0.0712478 255 0 0
0.180994 -0.147111 -0.0711458 255 0 0
0.173478 -0.14472 -0.0712647 255 0 0
0.174595 -0.145307 -0.071249 255 0 0
0.179553 -0.144863 -0.0702989 255 0 0
0.180505 -0.145522 -0.0717246 255 0 0
0.161667 -0.142447 -0.0715015 255 0 0
0.16222 -0.143879 -0.0716541 255 0 0
0.171749 -0.142134 -0.0716901 255 0 0
0.172779 -0.143222 -0.0707764 255 0 0
0.174119 -0.143127 -0.0716187 255 0 0
0.179691 -0.142949 -0.0711411 255 0 0
0.160852 -0.14114 -0.0709359 255 0 0
0.17082 -0.140717 -0.0711339 255 0 0
0.172471 -0.141288 -0.0708014 255 0 0
0.159747 -0.138278 -0.0706309 255 0 0
0.1603 -0.139709 -0.0707834 255 0 0
0.167728 -0.138623 -0.071146 255 0 0
0.16927 -0.139667 -0.0711399 255 0 0
0.171129 -0.1387 -0.0706601 255 0 0
0.178965 -0.139078 -0.0711193 255 0 0
0.159456 -0.136715 -0.0708906 255 0 0
0.164894 -0.136469 -0.0712261 255 0 0
0.166336 -0.137226 -0.0711544 255 0 0
0.169077 -0.137568 -0.071562 255 0 0
0.170138 -0.137233 -0.0703426 255 0 0
0.177769 -0.136059 -0.0706371 255 0 0
0.178302 -0.136926 -0.0718968 255 0 0
0.151381 -0.135174 -0.071699 255 0 0
0.159118 -0.134915 -0.0711117 255 0 0
0.161372 -0.134319 -0.0713119 255 0 0
0.163319 -0.135441 -0.0711618 255 0 0
0.17596 -0.134577 -0.07015 255 0 0
0.17649 -0.135441 -0.071406 255 0 0
0.157931 -0.133242 -0.0708361 255 0 0
0.158592 -0.132854 -0.0713354 255 0 0
0.161176 -0.132945 -0.0707594 255 0 0
0.162685 -0.133965 -0.0707521 255 0 0
0.173714 -0.13203 -0.070783 255 0 0
0.1751 -0.133734 -0.0710941 255 0 0
0.153416 -0.131209 -0.0711608 255 0 0
0.15734 -0.13088 -0.070786 255 0 0
0.159054 -0.130585 -0.0710434 255 0 0
0.160114 -0.131764 -0.0709016 255 0 0
0.170847 -0.130671 -0.0710489 255 0 0
0.172444 -0.131417 -0.0715498 255 0 0
0.155253 -0.128963 -0.0710128 255 0 0
0.156946 -0.1294 -0.0705386 255 0 0
0.158433 -0.129238 -0.0713203 255 0 0
0.162767 -0.128079 -0.0718118 255 0 0
0.164395 -0.128448 -0.07123 255 0 0
0.166485 -0.129126 -0.0713522 255 0 0
0.168535 -0.129267 -0.0709405 255 0 0
0.154756 -0.126823 -0.0713168 255 0 0
0.156973 -0.127157 -0.0706441 255 0 0
0.158644 -0.127115 -0.0717368 255 0 0
0.161035 -0.126643 -0.0713341 255 0 0
0.162655 -0.127008 -0.0707522 255 0 0
0.164284 -0.127374 -0.0701677 255 0 0
0.153273 -0.124802 -0.0705252 255 0 0
0.155575 -0.125306 -0.0703721 255 0 0
0.157708 -0.124853 -0.0714381 255 0 0
0.15893 -0.125447 -0.0706874 255 0 0
0.160923 -0.125574 -0.0702769 255 0 0
0.12829 -0.12247 -0.0710745 255 0 0
0.130479 -0.122865 -0.0706749 255 0 0
0.132941 -0.123292 -0.0710466 255 0 0
0.135051 -0.123892 -0.0712948 255 0 0
0.149534 -0.123062 -0.0710909 255 0 0
0.15101 -0.123407 -0.0702925 255 0 0
0.152902 -0.123362 -0.071205 255 0 0
0.157041 -0.123333 -0.0706733 255 0 0
0.125548 -0.12083 -0.0717279 255 0 0
0.127527 -0.121298 -0.0712699 255 0 0
0.145156 -0.12061 -0.0714308 255 0 0
0.146868 -0.120801 -0.0710459 255 0 0
0.153287 -0.121454 -0.0710658 255 0 0
0.156662 -0.12138 -0.0708799 255 0 0
0.124972 -0.119579 -0.0719854 255 0 0
0.126854 -0.118933 -0.0710207 255 0 0
0.131542 -0.118354 -0.0713414 255 0 0
0.134812 -0.118861 -0.0707229 255 0 0
0.139131 -0.118727 -0.0709017 255 0 0
0.141276 -0.118973 -0.0707001 255 0 0
0.14336 -0.119793 -0.0705923 255 0 0
0.15363 -0.118585 -0.0717985 255 0 0
0.154847 -0.119173 -0.0710476 255 0 0
0.1564 -0.119859 -0.0707648 255 0 0
0.119967 -0.116004 -0.0708951 255 0 0
0.123172 -0.116445 -0.071318 255 0 0
0.125382 -0.116913 -0.0714267 255 0 0
0.127526 -0.116489 -0.0711875 255 0 0
0.128966 -0.11744 -0.0703532 255 0 0
0.130009 -0.116284 -0.0717536 255 0 0
0.132473 -0.117035 -0.0706899 255 0 0
0.134972 -0.116611 -0.0708236 255 0 0
0.136274 -0.117384 -0.0714797 255 0 0
0.141216 -0.116371 -0.0717904 255 0 0
0.143395 -0.116909 -0.070975 255 0 0
0.145328 -0.11632 -0.0711578 255 0 0
0.147434 -0.117188 -0.0712984 255 0 0
0.149191 -0.11709 -0.0707456 255 0 0
0.151564 -0.117422 -0.0711545 255 0 0
0.152812 -0.117838 -0.070684 255 0 0
0.112375 -0.114043 -0.0712021 255 0 0
0.114408 -0.11487 -0.0706881 255 0 0
0.117127 -0.11487 -0.0715625 255 0 0
0.11949 -0.114933 -0.0716704 255 0 0
0.121108 -0.11524 -0.0711467 255 0 0
0.123328 -0.115071 -0.0705844 255 0 0
0.124976 -0.114914 -0.0714323 255 0 0
0.126425 -0.115287 -0.0708152 255 0 0
0.128917 -0.115513 -0.071114 255 0 0
0.130226 -0.115036 -0.0709157 255 0 0
0.133199 -0.115335 -0.070858 255 0 0
0.134856 -0.115019 -0.0711196 255 0 0
0.136509 -0.115229 -0.0706402 255 0 0
0.13925 -0.11524 -0.0711644 255 0 0
0.141107 -0.115331 -0.0707641 255 0 0
0.143329 -0.115181 -0.0705279 255 0 0
0.145218 -0.115271 -0.0701224 255 0 0
0.111226 -0.112902 -0.0706175 255 0 0
0.113249 -0.113723 -0.0701022 255 0 0
0.114856 -0.112148 -0.0713556 255 0 0
0.116613 -0.113085 -0.0708528 255 0 0
0.12322 -0.113056 -0.0710677 255 0 0
0.125476 -0.113293 -0.0714157 255 0 0
0.12654 -0.11267 -0.0709555 255 0 0
0.128991 -0.113463 -0.0706325 255 0 0
0.131093 -0.113311 -0.0703992 255 0 0
0.133548 -0.112918 -0.070327 255 0 0
0.139484 -0.113963 -0.0703069 255 0 0
0.103099 -0.110011 -0.0710301 255 0 0
0.104735 -0.110569 -0.0711281 255 0 0
0.106741 -0.11081 -0.0711487 255 0 0
0.1087 -0.110358 -0.0709409 255 0 0
0.110757 -0.11093 -0.0708668 255 0 0
0.113433 -0.111233 -0.0709499 255 0 0
0.119601 -0.110027 -0.0716316 255 0 0
0.120907 -0.110955 -0.071497 255 0 0
0.122835 -0.111418 -0.0716847 255 0 0
0.124463 -0.110488 -0.0703022 255 0 0
0.127057 -0.111397 -0.0707906 255 0 0
0.101177 -0.108489 -0.0709542 255 0 0
0.102065 -0.109484 -0.0717105 255 0 0
0.107106 -0.109735 -0.0719737 255 0 0
0.108644 -0.109132 -0.0714939 255 0 0
0.110767 -0.109089 -0.0713041 255 0 0
0.11308 -0.109596 -0.0710011 255 0 0
0.115461 -0.108861 -0.0706173 255 0 0
0.117494 -0.109193 -0.0708769 255 0 0
0.119191 -0.109264 -0.0704884 255 0 0
0.121207 -0.109098 -0.0702563 255 0 0
0.123609 -0.109194 -0.070679 255 0 0
0.124896 -0.109818 -0.0719861 255 0 0
0.127265 -0.109069 -0.0709228 255 0 0
0.129129 -0.109634 -0.0706633 255 0 0
0.130474 -0.108032 -0.0706523 255 0 0
0.0997965 -0.106514 -0.0711831 255 0 0
0.100559 -0.107267 -0.0703517 255 0 0
0.108187 -0.107723 -0.0715231 255 0 0
0.110422 -0.10682 -0.0716561 255 0 0
0.129123 -0.107126 -0.0706606 255 0 0
0.0993123 -0.105178 -0.0706563 255 0 0
0.110306 -0.105254 -0.0719945 255 0 0
0.122442 -0.10453 -0.0716087 255 0 0
0.112956 -0.102093 -0.0719098 255 0 0
0.114968 -0.103188 -0.0712664 255 0 0
0.117699 -0.103912 -0.0708675 255 0 0
0.120773 -0.103838 -0.0714882 255 0 0
0.1261 -0.102324 -0.0711032 255 0 0
0.128604 -0.102469 -0.0711822 255 0 0
0.112557 -0.101262 -0.0706491 255 0 0
0.114237 -0.100638 -0.0717228 255 0 0
0.117028 -0.100621 -0.0710043 255 0 0
0.118885 -0.101331 -0.071379 255 0 0
0.121109 -0.101741 -0.0709679 255 0 0
0.123845 -0.10191 -0.0715151 255 0 0
0.12675 -0.101982 -0.0717173 255 0 0
0.128515 -0.100767 -0.0709186 255 0 0
0.112535 -0.099758 -0.0701013 255 0 0
0.115184 -0.0999149 -0.0706315 255 0 0
0.204405 -0.174731 -0.0697208 255 0 0
0.199979 -0.172009 -0.0696012 255 0 0
0.201055 -0.173583 -0.0699324 255 0 0
0.202208 -0.173279 -0.0686657 255 0 0
0.193946 -0.171395 -0.0699948 255 0 0
0.196866 -0.170562 -0.0688644 255 0 0
0.198361 -0.17051 -0.0689126 255 0 0
0.200865 -0.170884 -0.0683511 255 0 0
0.1748 -0.168922 -0.069206 255 0 0
0.191847 -0.168299 -0.0693433 255 0 0
0.192728 -0.168906 -0.0690717 255 0 0
0.195084 -0.169398 -0.0691286 255 0 0
0.196705 -0.169004 -0.068774 255 0 0
0.183636 -0.166231 -0.0698848 255 0 0
0.185146 -0.166595 -0.0690813 255 0 0
0.186957 -0.166866 -0.0686905 255 0 0
0.189084 -0.16747 -0.0692809 255 0 0
0.190279 -0.166833 -0.0686666 255 0 0
0.192446 -0.166375 -0.0681241 255 0 0
0.194028 -0.167846 -0.0688025 255 0 0
0.181408 -0.165286 -0.0699864 255 0 0
0.18219 -0.16507 -0.0684843 255 0 0
0.184975 -0.164539 -0.0697981 255 0 0
0.1871 -0.164918 -0.0690736 255 0 0
0.18924 -0.165298 -0.0683444 255 0 0
0.172598 -0.163171 -0.0697251 255 0 0
0.181762 -0.16259 -0.0691192 255 0 0
0.183953 -0.163021 -0.0694775 255 0 0
0.185557 -0.162633 -0.0685925 255 0 0
0.188204 -0.163768 -0.0680232 255 0 0
0.169884 -0.160827 -0.0696777 255 0 0
0.171084 -0.161282 -0.0684765 255 0 0
0.183336 -0.161052 -0.0690379 255 0 0
0.184532 -0.161115 -0.0682732 255 0 0
0.169336 -0.159407 -0.0695262 255 0 0
0.170126 -0.159203 -0.0680458 255 0 0
0.179325 -0.158888 -0.0694016 255 0 0
0.181405 -0.158405 -0.0688687 255 0 0
0.18242 -0.159912 -0.0691873 255 0 0
0.185318 -0.158769 -0.0685418 255 0 0
0.169407 -0.157276 -0.0687439 255 0 0
0.178815 -0.157302 -0.0694309 255 0 0
0.180393 -0.156901 -0.068551 255 0 0
0.185055 -0.157117 -0.0691982 255 0 0
0.192084 -0.156229 -0.0699016 255 0 0
0.16903 -0.154735 -0.0684045 255 0 0
0.177556 -0.155015 -0.0691287 255 0 0
0.179881 -0.155311 -0.0685802 255 0 0
0.184523 -0.155019 -0.0692378 255 0 0
0.168755 -0.153203 -0.0686606 255 0 0
0.176791 -0.152639 -0.0691727 255 0 0
0.178616 -0.15302 -0.0682781 255 0 0
0.183353 -0.153213 -0.0690181 255 0 0
0.187549 -0.152589 -0.0692788 255 0 0
0.167656 -0.150353 -0.0683561 255 0 0
0.168205 -0.151778 -0.0685083 255 0 0
0.177065 -0.150845 -0.068762 255 0 0
0.181284 -0.150658 -0.0685588 255 0 0
0.182691 -0.151162 -0.069064 255 0 0
0.185169 -0.151701 -0.0690821 255 0 0
0.166706 -0.14902 -0.0689475 255 0 0
0.175282 -0.149569 -0.068886 255 0 0
0.176845 -0.149148 -0.0680062 255 0 0
0.180534 -0.148933 -0.068974 255 0 0
0.165212 -0.14709 -0.0690533 255 0 0
0.175005 -0.147091 -0.0692754 255 0 0
0.176885 -0.146931 -0.0690083 255 0 0
0.179163 -0.146875 -0.0691353 255 0 0
0.163584 -0.14522 -0.0689555 255 0 0
0.175139 -0.144791 -0.0695324 255 0 0
0.176983 -0.145356 -0.0685732 255 0 0
0.161949 -0.142518 -0.0691883 255 0 0
0.162499 -0.143944 -0.0693404 255 0 0
0.17351 -0.142531 -0.0687394 255 0 0
0.174649 -0.143306 -0.0692113 255 0 0
0.179023 -0.143994 -0.0690533 255 0 0
0.161137 -0.141217 -0.0686282 255 0 0
0.171313 -0.140101 -0.0690333 255 0 0
0.173057 -0.141371 -0.0693056 255 0 0
0.178838 -0.141103 -0.0687275 255 0 0
0.160443 -0.139016 -0.0686041 255 0 0
0.170966 -0.138687 -0.0691354 255 0 0
0.172707 -0.139953 -0.0694075 255 0 0
0.178707 -0.138738 -0.0689394 255 0 0
0.159748 -0.136811 -0.0685797 255 0 0
0.167129 -0.136806 -0.0692019 255 0 0
0.168434 -0.136928 -0.0692639 255 0 0
0.170721 -0.137016 -0.0687758 255 0 0
0.177792 -0.137352 -0.069342 255 0 0
0.159457 -0.13525 -0.0688358 255 0 0
0.161835 -0.134382 -0.0694268 255 0 0
0.164965 -0.135215 -0.0693298 255 0 0
0.166276 -0.134797 -0.0683406 255 0 0
0.169255 -0.135675 -0.0681188 255 0 0
0.177237 -0.135194 -0.0693805 255 0 0
0.159253 -0.132904 -0.0692983 255 0 0
0.161488 -0.132534 -0.0693795 255 0 0
0.163364 -0.133485 -0.0686815 255 0 0
0.174685 -0.132868 -0.0691085 255 0 0
0.158823 -0.130697 -0.0692141 255 0 0
0.160579 -0.131145 -0.068833 255 0 0
0.162245 -0.131953 -0.0681286 255 0 0
0.173339 -0.130512 -0.0690788 255 0 0
0.157379 -0.129277 -0.0690058 255 0 0
0.158668 -0.129277 -0.0686415 255 0 0
0.169679 -0.128791 -0.0691056 255 0 0
0.171402 -0.129707 -0.0690487 255 0 0
0.155581 -0.126671 -0.0698203 255 0 0
0.156927 -0.127014 -0.0687506 255 0 0
0.164172 -0.1263 -0.0691052 255 0 0
0.166261 -0.12697 -0.0692193 255 0 0
0.16831 -0.127103 -0.0687992 255 0 0
0.15309 -0.124398 -0.0690563 255 0 0
0.154983 -0.125298 -0.0688569 255 0 0
0.156731 -0.125064 -0.0690207 255 0 0
0.1592 -0.124146 -0.0698041 255 0 0
0.161198 -0.124268 -0.0693896 255 0 0
0.162682 -0.125282 -0.0692472 255 0 0
0.164846 -0.124752 -0.0683818 255 0 0
0.13036 -0.122642 -0.069259 255 0 0
0.13333 -0.122701 -0.0690967 255 0 0
0.149964 -0.122279 -0.0693222 255 0 0
0.151588 -0.123413 -0.0683976 255 0 0
0.153351 -0.122736 -0.0691538 255 0 0
0.156965 -0.123275 -0.0686187 255 0 0
0.158667 -0.122664 -0.069211 255 0 0
0.161086 -0.123197 -0.0683306 255 0 0
0.12893 -0.121001 -0.0694627 255 0 0
0.130698 -0.12145 -0.0682193 255 0 0
0.14706 -0.120178 -0.068874 255 0 0
0.148509 -0.121227 -0.0690981 255 0 0
0.151689 -0.120237 -0.0695719 255 0 0
0.15346 -0.120794 -0.0681888 255 0 0
0.154017 -0.120852 -0.0698273 255 0 0
0.157326 -0.120898 -0.069432 255 0 0
0.158515 -0.120941 -0.0687863 255 0 0
0.128242 -0.119025 -0.0699134 255 0 0
0.130569 -0.119205 -0.0688573 255 0 0
0.137238 -0.118018 -0.0698038 255 0 0
0.142876 -0.118538 -0.069096 255 0 0
0.14469 -0.118647 -0.0689102 255 0 0
0.151318 -0.119449 -0.0689585 255 0 0
0.15222 -0.118106 -0.0687404 255 0 0
0.155345 -0.1184 -0.0696174 255 0 0
0.156947 -0.119121 -0.0691859 255 0 0
0.158338 -0.119397 -0.0684856 255 0 0
0.123793 -0.116228 -0.0690047 255 0 0
0.12584 -0.117109 -0.0693522 255 0 0
0.127894 -0.116372 -0.0691664 255 0 0
0.130576 -0.116965 -0.0694865 255 0 0
0.132937 -0.116659 -0.0687982 255 0 0
0.134758 -0.11722 -0.0682238 255 0 0
0.137059 -0.116729 -0.0697055 255 0 0
0.13896 -0.116754 -0.0697209 255 0 0
0.140296 -0.117172 -0.0687303 255 0 0
0.151085 -0.116604 -0.069937 255 0 0
0.152632 -0.116925 -0.0689187 255 0 0
0.154594 -0.117504 -0.068285 255 0 0
0.115641 -0.114414 -0.0698916 255 0 0
0.116525 -0.114092 -0.0687845 255 0 0
0.118343 -0.114564 -0.0695417 255 0 0
0.121444 -0.114946 -0.0694029 255 0 0
0.122613 -0.114096 -0.0685462 255 0 0
0.124792 -0.114728 -0.068821 255 0 0
0.127403 -0.115053 -0.0698877 255 0 0
0.129187 -0.114473 -0.0687073 255 0 0
0.130889 -0.115254 -0.0695157 255 0 0
0.132981 -0.114583 -0.0689651 255 0 0
0.135157 -0.115155 -0.0690119 255 0 0
0.137192 -0.114409 -0.068219 255 0 0
0.138718 -0.115357 -0.068637 255 0 0
0.141345 -0.114049 -0.0699029 255 0 0
0.145108 -0.114222 -0.0690868 255 0 0
0.146708 -0.115079 -0.0690282 255 0 0
0.148985 -0.114924 -0.0687816 255 0 0
0.150974 -0.115544 -0.0688897 255 0 0
0.112706 -0.112352 -0.0691218 255 0 0
0.115309 -0.112567 -0.0693419 255 0 0
0.117459 -0.112964 -0.0694269 255 0 0
0.118856 -0.113294 -0.0686573 255 0 0
0.131312 -0.112052 -0.0695548 255 0 0
0.133366 -0.112796 -0.0690615 255 0 0
0.134726 -0.113212 -0.0687602 255 0 0
0.13646 -0.113049 -0.0686899 255 0 0
0.139375 -0.112925 -0.0692827 255 0 0
0.141235 -0.113007 -0.0688748 255 0 0
0.143516 -0.113369 -0.0691453 255 0 0
0.144998 -0.113173 -0.068051 255 0 0
0.111293 -0.111307 -0.0692439 255 0 0
0.11251 -0.110846 -0.0684485 255 0 0
0.114985 -0.11082 -0.0693986 255 0 0
0.116548 -0.11191 -0.0685089 255 0 0
0.12891 -0.111185 -0.0698121 255 0 0
0.13044 -0.110781 -0.0691592 255 0 0
0.132917 -0.11129 -0.0692143 255 0 0
0.139266 -0.111886 -0.0682582 255 0 0
0.101322 -0.10802 -0.0695209 255 0 0
0.103094 -0.108737 -0.0691267 255 0 0
0.104828 -0.109615 -0.0692115 255 0 0
0.107503 -0.109497 -0.0687868 255 0 0
0.109968 -0.108878 -0.0688559 255 0 0
0.110867 -0.109193 -0.0698199 255 0 0
0.112289 -0.108886 -0.0687774 255 0 0
0.114456 -0.109454 -0.069255 255 0 0
0.117389 -0.108197 -0.0698969 255 0 0
0.119389 -0.108027 -0.0696623 255 0 0
0.12467 -0.10924 -0.0694672 255 0 0
0.127698 -0.108343 -0.0697094 255 0 0
0.128828 -0.108897 -0.0689878 255 0 0
0.13078 -0.109032 -0.0687651 255 0 0
0.132409 -0.109036 -0.0681789 255 0 0
0.100838 -0.106685 -0.068994 255 0 0
0.111342 -0.107036 -0.069197 255 0 0
0.115007 -0.107611 -0.0689989 255 0 0
0.117283 -0.107202 -0.0689166 255 0 0
0.119283 -0.107027 -0.0686773 255 0 0
0.121664 -0.10711 -0.0690883 255 0 0
0.124949 -0.107228 -0.0693063 255 0 0
0.128556 -0.106587 -0.069186 255 0 0
0.130656 -0.10705 -0.0688235 255 0 0
0.0995917 -0.104596 -0.0692977 255 0 0
0.100355 -0.10535 -0.0684667 255 0 0
0.110929 -0.105054 -0.069725 255 0 0
0.117478 -0.105966 -0.0680911 255 0 0
0.119786 -0.105543 -0.0680032 255 0 0
0.122433 -0.104869 -0.0680718 255 0 0
0.124912 -0.105448 -0.0689849 255 0 0
0.126355 -0.105753 -0.0684234 255 0 0
0.128772 -0.105316 -0.0683376 255 0 0
0.130646 -0.105518 -0.0681867 255 0 0
0.111597 -0.103169 -0.069816 255 0 0
0.115146 -0.10268 -0.0692991 255 0 0
0.118234 -0.103211 -0.0690097 255 0 0
0.125438 -0.103936 -0.0683007 255 0 0
0.111817 -0.100623 -0.0692677 255 0 0
0.11273 -0.101671 -0.0691345 255 0 0
0.119594 -0.100726 -0.0698071 255 0 0
0.124049 -0.101544 -0.0689775 255 0 0
0.126803 -0.101711 -0.0695162 255 0 0
0.129396 -0.10068 -0.0688669 255 0 0
0.130136 -0.101241 -0.0695869 255 0 0
0.132799 -0.101327 -0.0692949 255 0 0
0.109465 -0.0998458 -0.0686495 255 0 0
0.113245 -0.0991628 -0.0685492 255 0 0
0.11613 -0.0991924 -0.0695409 255 0 0
0.118091 -0.0997186 -0.0686561 255 0 0
0.120543 -0.0999993 -0.068712 255 0 0
0.129037 -0.0999207 -0.0682743 255 0 0
0.205246 -0.177029 -0.0676816 255 0 0
0.203894 -0.174621 -0.0673667 255 0 0
0.205584 -0.175966 -0.066065 255 0 0
0.20281 -0.173042 -0.0670382 255 0 0
0.203414 -0.171174 -0.0667889 255 0 0
0.19721 -0.168743 -0.0678586 255 0 0
0.198715 -0.16896 -0.0671153 255 0 0
0.200939 -0.169005 -0.0667551 255 0 0
0.188579 -0.166397 -0.0670527 255 0 0
0.191146 -0.167256 -0.0673615 255 0 0
0.195111 -0.167691 -0.0670173 255 0 0
0.197367 -0.16708 -0.0669976 255 0 0
0.18177 -0.164939 -0.066616 255 0 0
0.183265 -0.164759 -0.0673984 255 0 0
0.184917 -0.165075 -0.0668021 255 0 0
0.18657 -0.165389 -0.0662035 255 0 0
0.191399 -0.164834 -0.0678011 255 0 0
0.192519 -0.164525 -0.0665508 255 0 0
0.194101 -0.16599 -0.0672245 255 0 0
0.17255 -0.163246 -0.0670239 255 0 0
0.181766 -0.163768 -0.0678639 255 0 0
0.184573 -0.162606 -0.066733 255 0 0
0.187171 -0.162242 -0.0677031 255 0 0
0.190914 -0.163143 -0.0668546 255 0 0
0.184157 -0.161603 -0.0678236 255 0 0
0.186147 -0.160758 -0.0668652 255 0 0
0.188796 -0.161003 -0.0669982 255 0 0
0.190952 -0.161371 -0.0662593 255 0 0
0.183254 -0.158803 -0.0679694 255 0 0
0.185425 -0.159494 -0.067254 255 0 0
0.18686 -0.158523 -0.0666184 255 0 0
0.18198 -0.156498 -0.0676665 255 0 0
0.183576 -0.156093 -0.0667776 255 0 0
0.185061 -0.157017 -0.066839 255 0 0
0.186135 -0.157254 -0.0670101 255 0 0
0.169823 -0.154539 -0.0669241 255 0 0
0.181466 -0.154903 -0.0676957 255 0 0
0.183061 -0.154493 -0.0668067 255 0 0
0.184623 -0.155067 -0.0669823 255 0 0
0.169823 -0.1529 -0.0675843 255 0 0
0.181188 -0.152802 -0.0671431 255 0 0
0.182882 -0.153346 -0.0669352 255 0 0
0.168999 -0.150763 -0.0673559 255 0 0
0.179185 -0.151111 -0.0670782 255 0 0
0.180997 -0.150896 -0.066474 255 0 0
0.183093 -0.150283 -0.0666799 255 0 0
0.185701 -0.151088 -0.0669325 255 0 0
0.168175 -0.148625 -0.0671274 255 0 0
0.177922 -0.148826 -0.0667782 255 0 0
0.179875 -0.148102 -0.0667147 255 0 0
0.180606 -0.149298 -0.066706 255 0 0
0.165469 -0.146312 -0.0670864 255 0 0
0.166725 -0.146982 -0.0667422 255 0 0
0.176918 -0.14734 -0.0664645 255 0 0
0.179277 -0.146824 -0.0670604 255 0 0
0.164653 -0.145009 -0.06653 255 0 0
0.175661 -0.145066 -0.0661664 255 0 0
0.177085 -0.145023 -0.0670909 255 0 0
0.178776 -0.144818 -0.0671565 255 0 0
0.162897 -0.143116 -0.0675782 255 0 0
0.173843 -0.14212 -0.0673315 255 0 0
0.174866 -0.143046 -0.0675473 255 0 0
0.17623 -0.142615 -0.0660332 255 0 0
0.178439 -0.142587 -0.067276 255 0 0
0.161942 -0.141044 -0.0671477 255 0 0
0.173518 -0.140799 -0.0672084 255 0 0
0.175119 -0.141392 -0.0661845 255 0 0
0.16125 -0.138846 -0.0671224 255 0 0
0.171022 -0.138744 -0.0672595 255 0 0
0.172617 -0.139058 -0.067017 255 0 0
0.178252 -0.139695 -0.0669449 255 0 0
0.160557 -0.136645 -0.0670969 255 0 0
0.167451 -0.136394 -0.0678067 255 0 0
0.169158 -0.137227 -0.0670912 255 0 0
0.171786 -0.136681 -0.0675523 255 0 0
0.175905 -0.136075 -0.0665039 255 0 0
0.177066 -0.137243 -0.0673641 255 0 0
0.160268 -0.135086 -0.0673505 255 0 0
0.164838 -0.134165 -0.0679682 255 0 0
0.16704 -0.135105 -0.0670116 255 0 0
0.168852 -0.134004 -0.0662473 255 0 0
0.170315 -0.135338 -0.0668978 255 0 0
0.175876 -0.134785 -0.0677834 255 0 0
0.159979 -0.133522 -0.0676048 255 0 0
0.16145 -0.132737 -0.0675786 255 0 0
0.162482 -0.132403 -0.0663744 255 0 0
0.164787 -0.133225 -0.0667386 255 0 0
0.175335 -0.133277 -0.0671774 255 0 0
0.159282 -0.131308 -0.0675797 255 0 0
0.161135 -0.130778 -0.0666964 255 0 0
0.163005 -0.131369 -0.066872 255 0 0
0.173674 -0.130499 -0.0668885 255 0 0
0.174382 -0.132 -0.0664014 255 0 0
0.15757 -0.128185 -0.0678607 255 0 0
0.159156 -0.128927 -0.0669124 255 0 0
0.171289 -0.128621 -0.0679741 255 0 0
0.172555 -0.12923 -0.0672051 255 0 0
0.157386 -0.127037 -0.067333 255 0 0
0.15809 -0.126299 -0.0666917 255 0 0
0.169914 -0.12693 -0.0676678 255 0 0
0.171584 -0.127299 -0.0670692 255 0 0
0.172851 -0.127907 -0.0662981 255 0 0
0.153462 -0.124397 -0.0678797 255 0 0
0.155217 -0.12477 -0.0670844 255 0 0
0.157107 -0.124961 -0.0666012 255 0 0
0.16598 -0.124273 -0.0665519 255 0 0
0.166489 -0.125115 -0.0677886 255 0 0
0.168285 -0.124819 -0.0667419 255 0 0
0.170612 -0.125367 -0.0669331 255 0 0
0.150543 -0.122288 -0.0674352 255 0 0
0.153301 -0.123141 -0.0673592 255 0 0
0.154143 -0.12342 -0.0660054 255 0 0
0.157537 -0.123066 -0.0670832 255 0 0
0.160974 -0.122126 -0.0672713 255 0 0
0.162653 -0.123018 -0.0672094 255 0 0
0.164481 -0.123255 -0.0666986 255 0 0
0.131035 -0.120251 -0.0671749 255 0 0
0.132753 -0.121006 -0.0672809 255 0 0
0.135104 -0.120788 -0.0668071 255 0 0
0.149504 -0.121169 -0.066478 255 0 0
0.151613 -0.121995 -0.0663622 255 0 0
0.153953 -0.121899 -0.0664089 255 0 0
0.154623 -0.120007 -0.0670726 255 0 0
0.157937 -0.121237 -0.0677823 255 0 0
0.159042 -0.121372 -0.0669697 255 0 0
0.160863 -0.121054 -0.0662118 255 0 0
0.131957 -0.118284 -0.0679276 255 0 0
0.132805 -0.119161 -0.0663595 255 0 0
0.146565 -0.11892 -0.0673792 255 0 0
0.14813 -0.119887 -0.0678011 255 0 0
0.152713 -0.119211 -0.0669598 255 0 0
0.156808 -0.118291 -0.0675518 255 0 0
0.15854 -0.119492 -0.0671142 255 0 0
0.128436 -0.11618 -0.0677166 255 0 0
0.131924 -0.116571 -0.0663513 255 0 0
0.133359 -0.117354 -0.0669893 255 0 0
0.136104 -0.116747 -0.0673913 255 0 0
0.141359 -0.116884 -0.0676653 255 0 0
0.143161 -0.116988 -0.0674756 255 0 0
0.144734 -0.11725 -0.0668844 255 0 0
0.154648 -0.116672 -0.0672659 255 0 0
0.157177 -0.117175 -0.0663912 255 0 0
0.120654 -0.114165 -0.0672016 255 0 0
0.123121 -0.114866 -0.0669767 255 0 0
0.12531 -0.115161 -0.0673911 255 0 0
0.127203 -0.114996 -0.0671192 255 0 0
0.128978 -0.115987 -0.0662676 255 0 0
0.134822 -0.114967 -0.0672126 255 0 0
0.140541 -0.114767 -0.0674405 255 0 0
0.142943 -0.1149 -0.0671866 255 0 0
0.151228 -0.114366 -0.0668591 255 0 0
0.152809 -0.115595 -0.0673495 255 0 0
0.154246 -0.11528 -0.0667368 255 0 0
0.116824 -0.113195 -0.0673845 255 0 0
0.118996 -0.112938 -0.0669204 255 0 0
0.120575 -0.11364 -0.0669839 255 0 0
0.123451 -0.113973 -0.0671184 255 0 0
0.125334 -0.113679 -0.0664959 255 0 0
0.12729 -0.113854 -0.0675141 255 0 0
0.129067 -0.113276 -0.0663359 255 0 0
0.130973 -0.113891 -0.0675251 255 0 0
0.133198 -0.11299 -0.0671279 255 0 0
0.135296 -0.112962 -0.0671624 255 0 0
0.137066 -0.11294 -0.0673399 255 0 0
0.139232 -0.113141 -0.0671961 255 0 0
0.141521 -0.112744 -0.0670245 255 0 0
0.143062 -0.112682 -0.0667658 255 0 0
0.144888 -0.112123 -0.067015 255 0 0
0.146309 -0.113099 -0.0668704 255 0 0
0.148401 -0.113058 -0.0665307 255 0 0
0.150385 -0.11367 -0.0666302 255 0 0
0.152866 -0.113987 -0.0669285 255 0 0
0.113036 -0.110663 -0.0670438 255 0 0
0.115075 -0.11101 -0.0671943 255 0 0
0.131423 -0.110161 -0.06724 255 0 0
0.133939 -0.110514 -0.0675975 255 0 0
0.135088 -0.111257 -0.0671601 255 0 0
0.136766 -0.111599 -0.0663176 255 0 0
0.138814 -0.111093 -0.0670726 255 0 0
0.140821 -0.11153 -0.0668632 255 0 0
0.142539 -0.111245 -0.0662386 255 0 0
0.105056 -0.108548 -0.0673731 255 0 0
0.10693 -0.108389 -0.0671323 255 0 0
0.109297 -0.108366 -0.0675933 255 0 0
0.112578 -0.109248 -0.0670725 255 0 0
0.115113 -0.109499 -0.0674523 255 0 0
0.131592 -0.108495 -0.0677532 255 0 0
0.133362 -0.109267 -0.0669504 255 0 0
0.135319 -0.109313 -0.0666044 255 0 0
0.139048 -0.109809 -0.0662088 255 0 0
0.101499 -0.10648 -0.0672213 255 0 0
0.102997 -0.10754 -0.0671761 255 0 0
0.108911 -0.107625 -0.0664855 255 0 0
0.111481 -0.107353 -0.06688 255 0 0
0.114408 -0.106484 -0.0673079 255 0 0
0.13252 -0.107187 -0.0670488 255 0 0
0.134893 -0.106938 -0.0666433 255 0 0
0.100634 -0.104768 -0.0671088 255 0 0
0.102047 -0.105668 -0.06601 255 0 0
0.110513 -0.105298 -0.0665557 255 0 0
0.117072 -0.10521 -0.0669555 255 0 0
0.119679 -0.10454 -0.0670154 255 0 0
0.126886 -0.104238 -0.0677362 255 0 0
0.131009 -0.104934 -0.0668362 255 0 0
0.132778 -0.105834 -0.0670741 255 0 0
0.10015 -0.103432 -0.0665809 255 0 0
0.110055 -0.103886 -0.0665843 255 0 0
0.115032 -0.102467 -0.0679054 255 0 0
0.116427 -0.10221 -0.0668013 255 0 0
0.118772 -0.102506 -0.0671444 255 0 0
0.12274 -0.102981 -0.0668121 255 0 0
0.125118 -0.102533 -0.0667167 255 0 0
0.12742 -0.102715 -0.0670453 255 0 0
0.129258 -0.103277 -0.0671397 255 0 0
0.130673 -0.103064 -0.0660607 255 0 0
0.111705 -0.100413 -0.0678829 255 0 0
0.112733 -0.10126 -0.0671144 255 0 0
0.114804 -0.101537 -0.0666996 255 0 0
0.122273 -0.100651 -0.0673521 255 0 0
0.124251 -0.101181 -0.0664624 255 0 0
0.127311 -0.101691 -0.0660362 255 0 0
0.129898 -0.100794 -0.0666823 255 0 0
0.132813 -0.100888 -0.0671647 255 0 0
0.11098 -0.0987153 -0.0672646 255 0 0
0.114417 -0.0983213 -0.0679314 255 0 0
0.116838 -0.0985952 -0.0679823 255 0 0
0.118797 -0.09912 -0.0670975 255 0 0
0.129299 -0.0994962 -0.0669484 255 0 0
0.112723 -0.0974597 -0.0663399 255 0 0
0.115124 -0.0977291 -0.0663836 255 0 0
0.204496 -0.174383 -0.0657378 255 0 0
0.203411 -0.172804 -0.0654117 255 0 0
0.204569 -0.172499 -0.0641388 255 0 0
0.205156 -0.170712 -0.0648766 255 0 0
0.199513 -0.168885 -0.0655209 255 0 0
0.201048 -0.169254 -0.064706 255 0 0
0.202908 -0.169444 -0.0658252 255 0 0
0.204067 -0.169134 -0.0645506 255 0 0
0.181362 -0.166281 -0.0652121 255 0 0
0.193313 -0.166627 -0.0651722 255 0 0
0.196451 -0.167332 -0.0649275 255 0 0
0.198507 -0.16677 -0.0657346 255 0 0
0.200585 -0.167505 -0.0646459 255 0 0
0.202981 -0.167561 -0.0642257 255 0 0
0.184781 -0.164642 -0.0646505 255 0 0
0.187647 -0.165078 -0.0651166 255 0 0
0.189028 -0.164673 -0.0644393 255 0 0
0.190738 -0.165772 -0.0648712 255 0 0
0.194702 -0.164908 -0.0658079 255 0 0
0.1969 -0.165292 -0.06506 255 0 0
0.19858 -0.164902 -0.0641466 255 0 0
0.17118 -0.16212 -0.065666 255 0 0
0.184151 -0.163971 -0.0653154 255 0 0
0.186557 -0.162991 -0.0640013 255 0 0
0.193121 -0.162594 -0.0653267 255 0 0
0.194774 -0.163052 -0.06423 255 0 0
0.170364 -0.160808 -0.0651156 255 0 0
0.18694 -0.161079 -0.06489 255 0 0
0.192599 -0.160973 -0.0653557 255 0 0
0.169821 -0.1594 -0.0649652 255 0 0
0.187053 -0.158714 -0.0651721 255 0 0
0.189389 -0.159077 -0.0657801 255 0 0
0.19155 -0.159438 -0.0650362 255 0 0
0.169142 -0.157237 -0.064939 255 0 0
0.185674 -0.157012 -0.0648707 255 0 0
0.188906 -0.156542 -0.065025 255 0 0
0.190505 -0.157908 -0.0647177 255 0 0
0.18319 -0.154051 -0.0648831 255 0 0
0.184804 -0.155172 -0.0656604 255 0 0
0.186797 -0.155274 -0.0649862 255 0 0
0.188423 -0.154861 -0.0640837 255 0 0
0.169519 -0.153143 -0.0644945 255 0 0
0.182882 -0.152586 -0.0654412 255 0 0
0.18525 -0.152155 -0.0646994 255 0 0
0.187092 -0.153457 -0.0645638 255 0 0
0.169109 -0.150853 -0.0648685 255 0 0
0.18134 -0.150796 -0.065145 255 0 0
0.18262 -0.15107 -0.0652821 255 0 0
0.184223 -0.150648 -0.0643845 255 0 0
0.186415 -0.150267 -0.0640551 255 0 0
0.168425 -0.148669 -0.0648417 255 0 0
0.179458 -0.148535 -0.0649307 255 0 0
0.181026 -0.148996 -0.0650403 255 0 0
0.183322 -0.14951 -0.0646604 255 0 0
0.167878 -0.14725 -0.0646899 255 0 0
0.177995 -0.147016 -0.065235 255 0 0
0.179307 -0.146486 -0.0646728 255 0 0
0.18022 -0.147693 -0.0652924 255 0 0
0.165451 -0.14483 -0.0650558 255 0 0
0.176991 -0.145533 -0.0649235 255 0 0
0.178351 -0.145031 -0.0648547 255 0 0
0.163567 -0.143 -0.0658992 255 0 0
0.164498 -0.142764 -0.0646282 255 0 0
0.174944 -0.142634 -0.0652555 255 0 0
0.17687 -0.14333 -0.0648355 255 0 0
0.162482 -0.140996 -0.0652701 255 0 0
0.173899 -0.141216 -0.0658981 255 0 0
0.174977 -0.141011 -0.0646537 255 0 0
0.177387 -0.140862 -0.0648032 255 0 0
0.161401 -0.138997 -0.0646427 255 0 0
0.173025 -0.139226 -0.0651244 255 0 0
0.174459 -0.139299 -0.0646996 255 0 0
0.17684 -0.138732 -0.0648339 255 0 0
0.160842 -0.136742 -0.0648157 255 0 0
0.171068 -0.136892 -0.0652416 255 0 0
0.173208 -0.137039 -0.0644044 255 0 0
0.176345 -0.137135 -0.0653993 255 0 0
0.160555 -0.13519 -0.0650651 255 0 0
0.167469 -0.134199 -0.0652882 255 0 0
0.168558 -0.135401 -0.0651373 255 0 0
0.171378 -0.135001 -0.0656741 255 0 0
0.172443 -0.134664 -0.0644476 255 0 0
0.175119 -0.134789 -0.0646447 255 0 0
0.159718 -0.13221 -0.065163 255 0 0
0.160007 -0.133768 -0.0649134 255 0 0
0.165929 -0.133169 -0.0653093 255 0 0
0.167688 -0.13257 -0.0648239 255 0 0
0.16991 -0.133666 -0.0650261 255 0 0
0.174564 -0.132642 -0.0646749 255 0 0
0.158911 -0.130925 -0.0646097 255 0 0
0.163295 -0.131122 -0.0653314 255 0 0
0.164898 -0.131345 -0.0645895 255 0 0
0.174269 -0.130914 -0.0653259 255 0 0
0.157814 -0.128081 -0.064306 255 0 0
0.158987 -0.128813 -0.06496 255 0 0
0.160908 -0.129066 -0.0654065 255 0 0
0.162631 -0.129471 -0.0649971 255 0 0
0.17371 -0.128751 -0.0653572 255 0 0
0.174157 -0.129827 -0.0642503 255 0 0
0.156452 -0.126808 -0.0656284 255 0 0
0.15913 -0.126848 -0.0657457 255 0 0
0.161 -0.127585 -0.0644377 255 0 0
0.171471 -0.126212 -0.0659926 255 0 0
0.173373 -0.127121 -0.0648339 255 0 0
0.155248 -0.124892 -0.0647981 255 0 0
0.158754 -0.12515 -0.0650159 255 0 0
0.169689 -0.124759 -0.06552 255 0 0
0.170951 -0.125363 -0.0647488 255 0 0
0.172626 -0.125729 -0.0641422 255 0 0
0.152708 -0.122565 -0.0649658 255 0 0
0.154587 -0.122828 -0.0645634 255 0 0
0.157232 -0.123453 -0.0649885 255 0 0
0.158627 -0.123298 -0.0649469 255 0 0
0.165868 -0.123194 -0.0654846 255 0 0
0.167916 -0.123313 -0.0650498 255 0 0
0.16998 -0.123432 -0.064612 255 0 0
0.150571 -0.120878 -0.0654079 255 0 0
0.154255 -0.121478 -0.0650323 255 0 0
0.159093 -0.121433 -0.0647047 255 0 0
0.162819 -0.120627 -0.0652502 255 0 0
0.16465 -0.120858 -0.0647325 255 0 0
0.166152 -0.121874 -0.0645822 255 0 0
0.168204 -0.121987 -0.0641433 255 0 0
0.13713 -0.118459 -0.065881 255 0 0
0.147924 -0.11864 -0.0653752 255 0 0
0.149124 -0.119834 -0.0651923 255 0 0
0.153874 -0.118418 -0.0658394 255 0 0
0.155081 -0.11937 -0.064999 255 0 0
0.158711 -0.1191 -0.0649834 255 0 0
0.160888 -0.119325 -0.0647038 255 0 0
0.132859 -0.116239 -0.0652068 255 0 0
0.134941 -0.117134 -0.0654518 255 0 0
0.137194 -0.11658 -0.064943 255 0 0
0.145526 -0.116253 -0.0657418 255 0 0
0.14652 -0.117057 -0.0649989 255 0 0
0.154451 -0.116998 -0.0647441 255 0 0
0.156577 -0.116689 -0.0646414 255 0 0
0.158124 -0.117197 -0.0650856 255 0 0
0.127744 -0.114805 -0.0656741 255 0 0
0.128665 -0.114475 -0.0645386 255 0 0
0.130752 -0.115353 -0.0648706 255 0 0
0.136207 -0.115466 -0.0650866 255 0 0
0.14498 -0.114837 -0.0655912 255 0 0
0.146044 -0.114549 -0.0645245 255 0 0
0.153542 -0.114336 -0.0654505 255 0 0
0.155046 -0.115205 -0.0653835 255 0 0
0.156731 -0.115007 -0.0642601 255 0 0
0.116971 -0.112279 -0.0659651 255 0 0
0.119763 -0.112794 -0.0654646 255 0 0
0.121125 -0.112789 -0.0646113 255 0 0
0.122964 -0.112862 -0.0648346 255 0 0
0.12534 -0.112588 -0.0649415 255 0 0
0.126847 -0.113148 -0.0651218 255 0 0
0.128426 -0.112229 -0.0645047 255 0 0
0.131058 -0.112537 -0.0655455 255 0 0
0.13639 -0.113805 -0.065597 255 0 0
0.143651 -0.112169 -0.0648919 255 0 0
0.145005 -0.112804 -0.0648815 255 0 0
0.150274 -0.11261 -0.0655838 255 0 0
0.152563 -0.112626 -0.0652751 255 0 0
0.155435 -0.112982 -0.0648087 255 0 0
0.115504 -0.110954 -0.0646146 255 0 0
0.116888 -0.110886 -0.0641593 255 0 0
0.118334 -0.111785 -0.0648828 255 0 0
0.129886 -0.111631 -0.0642346 255 0 0
0.131568 -0.110868 -0.0643511 255 0 0
0.13279 -0.111099 -0.0646785 255 0 0
0.134873 -0.110946 -0.0650684 255 0 0
0.137136 -0.110785 -0.0650944 255 0 0
0.138982 -0.110717 -0.0656636 255 0 0
0.141304 -0.110665 -0.064938 255 0 0
0.143048 -0.110721 -0.0646787 255 0 0
0.145018 -0.110997 -0.0653308 255 0 0
0.14657 -0.110095 -0.0645146 255 0 0
0.149073 -0.111321 -0.064991 255 0 0
0.151161 -0.110953 -0.0646408 255 0 0
0.153096 -0.111375 -0.0644768 255 0 0
0.113541 -0.108903 -0.0651164 255 0 0
0.115139 -0.109873 -0.0651358 255 0 0
0.133488 -0.108578 -0.0650871 255 0 0
0.1366 -0.109124 -0.0653329 255 0 0
0.139242 -0.108761 -0.0649281 255 0 0
0.141155 -0.109252 -0.0650491 255 0 0
0.143373 -0.108404 -0.0646529 255 0 0
0.145268 -0.10847 -0.0642241 255 0 0
0.10308 -0.106192 -0.0653251 255 0 0
0.104861 -0.106904 -0.0649187 255 0 0
0.106082 -0.107514 -0.0653361 255 0 0
0.108244 -0.107118 -0.0652328 255 0 0
0.111107 -0.106504 -0.0652018 255 0 0
0.112299 -0.107795 -0.0653972 255 0 0
0.133024 -0.107072 -0.0646877 255 0 0
0.137083 -0.106888 -0.0652668 255 0 0
0.139861 -0.10698 -0.0646321 255 0 0
0.141731 -0.107041 -0.0642052 255 0 0
0.101294 -0.104563 -0.0653361 255 0 0
0.102707 -0.105463 -0.0642362 255 0 0
0.111038 -0.105117 -0.065155 255 0 0
0.113031 -0.105462 -0.0647646 255 0 0
0.115373 -0.104428 -0.0642434 255 0 0
0.116369 -0.104697 -0.065671 255 0 0
0.13125 -0.104771 -0.0650374 255 0 0
0.132679 -0.105371 -0.0650302 255 0 0
0.134562 -0.105513 -0.0650348 255 0 0
0.136055 -0.105821 -0.0644554 255 0 0
0.100986 -0.102812 -0.0646803 255 0 0
0.110238 -0.103854 -0.0648851 255 0 0
0.119039 -0.10275 -0.0655809 255 0 0
0.131255 -0.102831 -0.064843 255 0 0
0.113424 -0.100465 -0.0653276 255 0 0
0.11568 -0.100641 -0.0649603 255 0 0
0.117312 -0.101313 -0.0650561 255 0 0
0.119614 -0.101496 -0.0646853 255 0 0
0.122452 -0.100942 -0.0650486 255 0 0
0.124798 -0.10113 -0.0651335 255 0 0
0.126882 -0.10092 -0.0648716 255 0 0
0.128879 -0.101349 -0.0650364 255 0 0
0.130309 -0.100687 -0.064692 255 0 0
0.133022 -0.100348 -0.0650952 255 0 0
0.114003 -0.0998676 -0.0641698 255 0 0
0.117306 -0.0981254 -0.0659644 255 0 0
0.11902 -0.0987724 -0.0646174 255 0 0
0.120517 -0.0997691 -0.065745 255 0 0
0.129121 -0.0991624 -0.0647721 255 0 0
0.130426 -0.099945 -0.0640227 255 0 0
0.115829 -0.097139 -0.064841 255 0 0
0.203931 -0.177672 -0.0626487 255 0 0
0.203985 -0.174274 -0.0634058 255 0 0
0.204513 -0.175914 -0.063377 255 0 0
0.205699 -0.173906 -0.062483 255 0 0
0.206853 -0.172056 -0.0635686 255 0 0
0.206322 -0.170403 -0.0635975 255 0 0
0.208023 -0.171748 -0.0622867 255 0 0
0.202849 -0.168732 -0.0632603 255 0 0
0.205669 -0.169167 -0.0630067 255 0 0
0.194936 -0.166157 -0.0635318 255 0 0
0.197537 -0.167016 -0.0638302 255 0 0
0.198622 -0.166701 -0.0627336 255 0 0
0.201297 -0.166818 -0.0632908 255 0 0
0.202666 -0.167157 -0.0623444 255 0 0
0.20414 -0.167249 -0.0629494 255 0 0
0.185887 -0.16402 -0.0633321 255 0 0
0.186125 -0.164356 -0.0625942 255 0 0
0.189286 -0.164405 -0.0625109 255 0 0
0.193052 -0.1651 -0.0628963 255 0 0
0.1957 -0.165937 -0.0620301 255 0 0
0.199724 -0.164588 -0.0628789 255 0 0
0.2025 -0.165757 -0.0622767 255 0 0
0.171686 -0.162009 -0.0638051 255 0 0
0.187258 -0.163616 -0.0626561 255 0 0
0.188135 -0.162375 -0.0623484 255 0 0
0.191126 -0.162262 -0.0622353 255 0 0
0.196973 -0.16343 -0.0634768 255 0 0
0.198653 -0.163034 -0.0625593 255 0 0
0.1706 -0.160799 -0.0628635 255 0 0
0.188095 -0.160646 -0.0630687 255 0 0
0.193194 -0.160743 -0.0637522 255 0 0
0.195114 -0.161154 -0.0628256 255 0 0
0.17006 -0.159397 -0.0627136 255 0 0
0.187359 -0.158659 -0.0630155 255 0 0
0.193235 -0.158963 -0.0631521 255 0 0
0.169791 -0.156284 -0.0636005 255 0 0
0.170061 -0.157793 -0.0633542 255 0 0
0.185715 -0.156521 -0.0621045 255 0 0
0.186675 -0.157203 -0.0634931 255 0 0
0.192448 -0.157386 -0.0630085 255 0 0
0.169248 -0.154875 -0.0634498 255 0 0
0.183347 -0.154636 -0.0631809 255 0 0
0.184452 -0.155894 -0.0628672 255 0 0
0.190954 -0.154815 -0.0629779 255 0 0
0.192224 -0.15565 -0.0622358 255 0 0
0.182397 -0.152746 -0.063046 255 0 0
0.189537 -0.152829 -0.0632052 255 0 0
0.191181 -0.152407 -0.0622932 255 0 0
0.170033 -0.151428 -0.0632756 255 0 0
0.181446 -0.150854 -0.062911 255 0 0
0.185836 -0.150224 -0.0634823 255 0 0
0.186868 -0.151734 -0.0637969 255 0 0
0.189017 -0.151211 -0.063234 255 0 0
0.191456 -0.150059 -0.0633715 255 0 0
0.169488 -0.148369 -0.0637709 255 0 0
0.170291 -0.14975 -0.0629899 255 0 0
0.181224 -0.148958 -0.0635498 255 0 0
0.182918 -0.148789 -0.0630496 255 0 0
0.184724 -0.148811 -0.0628396 255 0 0
0.187356 -0.149298 -0.0626456 255 0 0
0.192339 -0.149488 -0.0620407 255 0 0
0.166792 -0.146067 -0.0637378 255 0 0
0.168669 -0.147067 -0.0632197 255 0 0
0.17939 -0.147704 -0.0630893 255 0 0
0.180637 -0.147123 -0.0630901 255 0 0
0.183272 -0.147321 -0.0625158 255 0 0
0.167046 -0.144964 -0.0627926 255 0 0
0.177574 -0.145313 -0.0633545 255 0 0
0.17868 -0.14525 -0.062543 255 0 0
0.165434 -0.143357 -0.0630368 255 0 0
0.176971 -0.143314 -0.0629359 255 0 0
0.163282 -0.140824 -0.0638016 255 0 0
0.164483 -0.141297 -0.0626116 255 0 0
0.175193 -0.140752 -0.0629928 255 0 0
0.176688 -0.141874 -0.0629548 255 0 0
0.161668 -0.13825 -0.0627048 255 0 0
0.162212 -0.139662 -0.0628558 255 0 0
0.172639 -0.138448 -0.063399 255 0 0
0.174835 -0.139325 -0.0627355 255 0 0
0.161123 -0.136838 -0.0625539 255 0 0
0.169978 -0.136191 -0.0635785 255 0 0
0.171538 -0.137235 -0.0635529 255 0 0
0.173266 -0.13708 -0.0623912 255 0 0
0.175629 -0.137028 -0.063449 255 0 0
0.160579 -0.135425 -0.062403 255 0 0
0.168819 -0.13486 -0.0629637 255 0 0
0.17077 -0.135608 -0.0622944 255 0 0
0.173026 -0.134448 -0.0628821 255 0 0
0.174888 -0.135645 -0.0627649 255 0 0
0.159747 -0.132463 -0.0624966 255 0 0
0.160293 -0.133878 -0.0626478 255 0 0
0.166873 -0.132956 -0.0634328 255 0 0
0.168575 -0.132745 -0.0626526 255 0 0
0.171261 -0.13322 -0.0630217 255 0 0
0.174336 -0.133507 -0.0627919 255 0 0
0.164998 -0.13057 -0.0633866 255 0 0
0.166062 -0.131271 -0.0630769 255 0 0
0.174601 -0.130901 -0.063147 255 0 0
0.158383 -0.128924 -0.0621184 255 0 0
0.163237 -0.128728 -0.062858 255 0 0
0.164976 -0.129804 -0.0628573 255 0 0
0.174044 -0.128741 -0.0631744 255 0 0
0.15701 -0.126804 -0.0637545 255 0 0
0.159685 -0.126363 -0.0639578 255 0 0
0.161097 -0.127072 -0.0629728 255 0 0
0.173074 -0.126811 -0.0630369 255 0 0
0.155661 -0.12411 -0.0630529 255 0 0
0.156208 -0.125529 -0.0632044 255 0 0
0.158859 -0.124919 -0.063495 255 0 0
0.160318 -0.124626 -0.0624059 255 0 0
0.170838 -0.124276 -0.0636733 255 0 0
0.172923 -0.124399 -0.063229 255 0 0
0.155146 -0.122546 -0.0631392 255 0 0
0.157476 -0.12291 -0.0628448 255 0 0
0.159534 -0.123261 -0.062497 255 0 0
0.17154 -0.122704 -0.062926 255 0 0
0.172809 -0.123308 -0.062149 255 0 0
0.151391 -0.120739 -0.0639403 255 0 0
0.152729 -0.121157 -0.0629492 255 0 0
0.155257 -0.121103 -0.0627219 255 0 0
