ply
format ascii 1.0
element vertex 1264
property float x
property float y
property float z
property uchar diffuse_red
property uchar diffuse_green
property uchar diffuse_blue
end_header
0.161294 -0.153101 -0.0819888 255 0 0
0.117719 -0.147056 -0.0825927 255 0 0
0.120908 -0.148707 -0.0803514 255 0 0
0.14321 -0.147428 -0.0829255 255 0 0
0.147322 -0.147203 -0.0823334 255 0 0
0.153351 -0.146345 -0.0825637 255 0 0
0.157961 -0.147034 -0.0824884 255 0 0
0.160082 -0.149061 -0.080664 255 0 0
0.114194 -0.141072 -0.0813866 255 0 0
0.11547 -0.143606 -0.0832817 255 0 0
0.139797 -0.140318 -0.0847803 255 0 0
0.142863 -0.142333 -0.0825988 255 0 0
0.145444 -0.142444 -0.0812218 255 0 0
0.152624 -0.141984 -0.0829713 255 0 0
0.156197 -0.143243 -0.0820789 255 0 0
0.107365 -0.135586 -0.0842385 255 0 0
0.111093 -0.135391 -0.0840325 255 0 0
0.134734 -0.136846 -0.082931 255 0 0
0.138127 -0.137017 -0.0825695 255 0 0
0.141559 -0.137524 -0.0817814 255 0 0
0.146682 -0.137887 -0.0820883 255 0 0
0.15155 -0.139606 -0.0817164 255 0 0
0.0929303 -0.131292 -0.0834121 255 0 0
0.0976322 -0.131916 -0.0819531 255 0 0
0.102462 -0.133129 -0.0821863 255 0 0
0.107409 -0.133731 -0.0816928 255 0 0
0.112732 -0.132034 -0.0825508 255 0 0
0.117271 -0.131087 -0.0843941 255 0 0
0.122149 -0.131209 -0.0845337 255 0 0
0.127263 -0.131922 -0.0839441 255 0 0
0.132487 -0.132541 -0.0817726 255 0 0
0.136775 -0.134759 -0.0810924 255 0 0
0.145733 -0.132824 -0.081839 255 0 0
0.0897324 -0.126924 -0.0824516 255 0 0
0.0910209 -0.128626 -0.0817128 255 0 0
0.102485 -0.126629 -0.0830743 255 0 0
0.10749 -0.128299 -0.0829106 255 0 0
0.112464 -0.128374 -0.0828228 255 0 0
0.11711 -0.127487 -0.082249 255 0 0
0.122143 -0.12719 -0.0824841 255 0 0
0.12655 -0.12777 -0.0814937 255 0 0
0.13048 -0.129339 -0.0808391 255 0 0
0.143182 -0.127745 -0.0827557 255 0 0
0.0895369 -0.122661 -0.0835807 255 0 0
0.0900141 -0.120888 -0.0825972 255 0 0
0.0993625 -0.122482 -0.0812828 255 0 0
0.101005 -0.124066 -0.0810234 255 0 0
0.118648 -0.12443 -0.0802006 255 0 0
0.123176 -0.124275 -0.0820027 255 0 0
0.127353 -0.123992 -0.0831354 255 0 0
0.132475 -0.122678 -0.0822079 255 0 0
0.137419 -0.122874 -0.0832058 255 0 0
0.140848 -0.124199 -0.0824504 255 0 0
0.0894666 -0.119101 -0.0847307 255 0 0
0.188469 -0.201538 -0.0772862 255 0 0
0.196744 -0.202106 -0.0770657 255 0 0
0.184845 -0.195019 -0.0785445 255 0 0
0.186298 -0.19772 -0.0773443 255 0 0
0.194345 -0.196821 -0.0785055 255 0 0
0.196214 -0.198154 -0.0757099 255 0 0
0.183388 -0.191959 -0.0773752 255 0 0
0.196497 -0.193766 -0.0773944 255 0 0
0.173166 -0.185488 -0.0764341 255 0 0
0.17718 -0.186484 -0.0772104 255 0 0
0.181099 -0.188708 -0.0775869 255 0 0
0.163258 -0.181115 -0.0751118 255 0 0
0.168558 -0.181452 -0.0766408 255 0 0
0.172504 -0.182704 -0.0774319 255 0 0
0.176297 -0.183879 -0.0776037 255 0 0
0.154215 -0.176505 -0.078394 255 0 0
0.157227 -0.177577 -0.0766669 255 0 0
0.162793 -0.177523 -0.0760173 255 0 0
0.166839 -0.177814 -0.0779344 255 0 0
0.172134 -0.177852 -0.0771948 255 0 0
0.149782 -0.171065 -0.0793463 255 0 0
0.15208 -0.173012 -0.0780923 255 0 0
0.157674 -0.171997 -0.0766891 255 0 0
0.163114 -0.172624 -0.0773534 255 0 0
0.167477 -0.172534 -0.0773646 255 0 0
0.170456 -0.172461 -0.0755773 255 0 0
0.14958 -0.167871 -0.0796079 255 0 0
0.151941 -0.166816 -0.0771225 255 0 0
0.157693 -0.167563 -0.0777196 255 0 0
0.161706 -0.167266 -0.0774254 255 0 0
0.167483 -0.167099 -0.077986 255 0 0
0.170846 -0.167128 -0.0761925 255 0 0
0.148992 -0.162872 -0.0784396 255 0 0
0.152797 -0.162775 -0.0771638 255 0 0
0.1576 -0.162496 -0.077086 255 0 0
0.162426 -0.162923 -0.0767174 255 0 0
0.167205 -0.163213 -0.0763162 255 0 0
0.148619 -0.157109 -0.0782579 255 0 0
0.152245 -0.15783 -0.0775912 255 0 0
0.157992 -0.157942 -0.0771536 255 0 0
0.14762 -0.152335 -0.0781335 255 0 0
0.150982 -0.152082 -0.0772168 255 0 0
0.158477 -0.152588 -0.0774554 255 0 0
0.161853 -0.15107 -0.0784331 255 0 0
0.119434 -0.145092 -0.0794875 255 0 0
0.122237 -0.147762 -0.0794722 255 0 0
0.126281 -0.149102 -0.0796649 255 0 0
0.137589 -0.145328 -0.0798642 255 0 0
0.146592 -0.147181 -0.0773762 255 0 0
0.150262 -0.149351 -0.0760239 255 0 0
0.159419 -0.147253 -0.0780125 255 0 0
0.160814 -0.147761 -0.0774861 255 0 0
0.117488 -0.141691 -0.0789124 255 0 0
0.122538 -0.143779 -0.0786339 255 0 0
0.125134 -0.144298 -0.078352 255 0 0
0.137553 -0.143096 -0.0792218 255 0 0
0.142702 -0.142128 -0.0782112 255 0 0
0.146929 -0.14266 -0.0773108 255 0 0
0.153124 -0.142175 -0.0781177 255 0 0
0.156756 -0.142525 -0.0772027 255 0 0
0.114951 -0.135759 -0.0761921 255 0 0
0.117091 -0.138353 -0.0776548 255 0 0
0.121362 -0.137463 -0.0768246 255 0 0
0.137156 -0.138098 -0.0791564 255 0 0
0.142787 -0.137769 -0.0774533 255 0 0
0.147042 -0.136953 -0.0777175 255 0 0
0.152094 -0.138192 -0.0773228 255 0 0
0.0982881 -0.130599 -0.0792702 255 0 0
0.10319 -0.130741 -0.0792699 255 0 0
0.107988 -0.130616 -0.0796237 255 0 0
0.113228 -0.133149 -0.0753366 255 0 0
0.115804 -0.134987 -0.0752101 255 0 0
0.123465 -0.13419 -0.0752999 255 0 0
0.13792 -0.131838 -0.0789795 255 0 0
0.142413 -0.132273 -0.0773539 255 0 0
0.146557 -0.133652 -0.0764501 255 0 0
0.0930919 -0.126684 -0.0779884 255 0 0
0.0972074 -0.127711 -0.0767533 255 0 0
0.102028 -0.128681 -0.0773077 255 0 0
0.107836 -0.127165 -0.0778415 255 0 0
0.112282 -0.127366 -0.0786269 255 0 0
0.127652 -0.125915 -0.0789663 255 0 0
0.133027 -0.127757 -0.0788458 255 0 0
0.137423 -0.127881 -0.0773763 255 0 0
0.142097 -0.127811 -0.0773199 255 0 0
0.0914785 -0.122816 -0.0766955 255 0 0
0.0998533 -0.12009 -0.0775218 255 0 0
0.102358 -0.122273 -0.0778647 255 0 0
0.107098 -0.122692 -0.0765301 255 0 0
0.112625 -0.123571 -0.0771394 255 0 0
0.117615 -0.122652 -0.0769326 255 0 0
0.122396 -0.123283 -0.0776559 255 0 0
0.127207 -0.123385 -0.0771613 255 0 0
0.133047 -0.122321 -0.077093 255 0 0
0.136886 -0.122785 -0.077016 255 0 0
0.140678 -0.123995 -0.0786231 255 0 0
0.0939803 -0.117054 -0.0768251 255 0 0
0.0973893 -0.11863 -0.0764064 255 0 0
0.100873 -0.119036 -0.0754824 255 0 0
0.189402 -0.200018 -0.0736258 255 0 0
0.19175 -0.200989 -0.0720539 255 0 0
0.198539 -0.201227 -0.0723023 255 0 0
0.200045 -0.202211 -0.0707928 255 0 0
0.187678 -0.197088 -0.0723946 255 0 0
0.190336 -0.199184 -0.0712329 255 0 0
0.197787 -0.197325 -0.0718119 255 0 0
0.179368 -0.190522 -0.0713866 255 0 0
0.182779 -0.192393 -0.0722698 255 0 0
0.185258 -0.194656 -0.0731055 255 0 0
0.198134 -0.193034 -0.073247 255 0 0
0.20012 -0.193636 -0.0702981 255 0 0
0.169619 -0.185526 -0.0709726 255 0 0
0.172301 -0.186414 -0.072381 255 0 0
0.177506 -0.18741 -0.0723306 255 0 0
0.180483 -0.18527 -0.0703541 255 0 0
0.164928 -0.180886 -0.0717312 255 0 0
0.167739 -0.182484 -0.0726509 255 0 0
0.173952 -0.182017 -0.0728884 255 0 0
0.177243 -0.18405 -0.0726598 255 0 0
0.158387 -0.176739 -0.0739466 255 0 0
0.162671 -0.177535 -0.0728355 255 0 0
0.167404 -0.177434 -0.0710803 255 0 0
0.1721 -0.177734 -0.0719519 255 0 0
0.154216 -0.170764 -0.0712046 255 0 0
0.157695 -0.172994 -0.0726462 255 0 0
0.164064 -0.174556 -0.0745293 255 0 0
0.167368 -0.172384 -0.0724322 255 0 0
0.171363 -0.173239 -0.0723432 255 0 0
0.148394 -0.166515 -0.0717373 255 0 0
0.152103 -0.168448 -0.0726419 255 0 0
0.162854 -0.167407 -0.0736148 255 0 0
0.165018 -0.168867 -0.0705879 255 0 0
0.171516 -0.167116 -0.0725215 255 0 0
0.196144 -0.166095 -0.0703677 255 0 0
0.144498 -0.163424 -0.0715862 255 0 0
0.147172 -0.163845 -0.0736552 255 0 0
0.158778 -0.161775 -0.0723592 255 0 0
0.16131 -0.162567 -0.0729602 255 0 0
0.167801 -0.161464 -0.0723889 255 0 0
0.170604 -0.163709 -0.0722731 255 0 0
0.194246 -0.162079 -0.071223 255 0 0
0.153096 -0.156379 -0.0727418 255 0 0
0.157789 -0.157633 -0.0727084 255 0 0
0.161645 -0.158347 -0.0714148 255 0 0
0.165407 -0.159842 -0.0708916 255 0 0
0.191995 -0.157087 -0.0718998 255 0 0
0.148552 -0.152777 -0.0730091 255 0 0
0.151872 -0.152577 -0.0722814 255 0 0
0.159329 -0.152383 -0.0719451 255 0 0
0.160025 -0.154235 -0.0700914 255 0 0
0.183822 -0.150007 -0.0708352 255 0 0
0.188564 -0.151618 -0.0725409 255 0 0
0.190316 -0.153541 -0.0726656 255 0 0
0.147688 -0.147464 -0.0729404 255 0 0
0.151137 -0.148201 -0.072566 255 0 0
0.159489 -0.148673 -0.0722411 255 0 0
0.160951 -0.147454 -0.0735667 255 0 0
0.148177 -0.142584 -0.0730804 255 0 0
0.151641 -0.142122 -0.0725071 255 0 0
0.15828 -0.142493 -0.0727866 255 0 0
0.160324 -0.144066 -0.0718927 255 0 0
0.139065 -0.135636 -0.0732929 255 0 0
0.143027 -0.137487 -0.0732286 255 0 0
0.147469 -0.137747 -0.0720745 255 0 0
0.152988 -0.137218 -0.0726234 255 0 0
0.15723 -0.139939 -0.0706208 255 0 0
0.114765 -0.133197 -0.0746931 255 0 0
0.117411 -0.132427 -0.0740011 255 0 0
0.122382 -0.132073 -0.0733625 255 0 0
0.127701 -0.131512 -0.0740121 255 0 0
0.131848 -0.13103 -0.0740913 255 0 0
0.138254 -0.131792 -0.071525 255 0 0
0.142787 -0.132479 -0.0722843 255 0 0
0.147475 -0.13298 -0.0717905 255 0 0
0.150444 -0.134024 -0.0706741 255 0 0
0.0983196 -0.12556 -0.0741406 255 0 0
0.102238 -0.126462 -0.0740132 255 0 0
0.105851 -0.125879 -0.0741096 255 0 0
0.118927 -0.129496 -0.0738164 255 0 0
0.12279 -0.12946 -0.0724467 255 0 0
0.126864 -0.127448 -0.0717068 255 0 0
0.132315 -0.127652 -0.0713043 255 0 0
0.137777 -0.12746 -0.0713683 255 0 0
0.142757 -0.127644 -0.0731156 255 0 0
0.146195 -0.128125 -0.071537 255 0 0
0.0922614 -0.12243 -0.0717139 255 0 0
0.0968619 -0.124109 -0.0715806 255 0 0
0.103388 -0.12436 -0.0714655 255 0 0
0.108079 -0.123369 -0.072725 255 0 0
0.112589 -0.121904 -0.0727293 255 0 0
0.117592 -0.120753 -0.0728015 255 0 0
0.122624 -0.121135 -0.0730079 255 0 0
0.127132 -0.12186 -0.0723464 255 0 0
0.132473 -0.122149 -0.072589 255 0 0
0.137536 -0.1218 -0.0722239 255 0 0
0.141995 -0.12288 -0.0723962 255 0 0
0.157865 -0.12235 -0.0709645 255 0 0
0.0946799 -0.115517 -0.0746327 255 0 0
0.0975375 -0.116549 -0.0725973 255 0 0
0.10201 -0.117831 -0.0728854 255 0 0
0.107013 -0.118678 -0.0726273 255 0 0
0.113038 -0.11894 -0.071785 255 0 0
0.116755 -0.119613 -0.0712544 255 0 0
0.121595 -0.119977 -0.0707574 255 0 0
0.12845 -0.118916 -0.0722761 255 0 0
0.133375 -0.118852 -0.0710059 255 0 0
0.137818 -0.11912 -0.0708082 255 0 0
0.141453 -0.117399 -0.0701115 255 0 0
0.0946856 -0.113927 -0.0720269 255 0 0
0.0959458 -0.114541 -0.0706738 255 0 0
0.193729 -0.201064 -0.0668652 255 0 0
0.199795 -0.200296 -0.0678998 255 0 0
0.201051 -0.201538 -0.0674635 255 0 0
0.189084 -0.195838 -0.0675444 255 0 0
0.19144 -0.198212 -0.0668547 255 0 0
0.199254 -0.196708 -0.0677442 255 0 0
0.200633 -0.198327 -0.0657162 255 0 0
0.179945 -0.190344 -0.0694058 255 0 0
0.182784 -0.190978 -0.0676389 255 0 0
0.187348 -0.19336 -0.0672951 255 0 0
0.199462 -0.191917 -0.0691513 255 0 0
0.200956 -0.192842 -0.0668648 255 0 0
0.169042 -0.185252 -0.0692142 255 0 0
0.17293 -0.186469 -0.0673878 255 0 0
0.177385 -0.187859 -0.0671533 255 0 0
0.181869 -0.188323 -0.0659248 255 0 0
0.163711 -0.181096 -0.06728 255 0 0
0.167151 -0.183555 -0.0672552 255 0 0
0.172972 -0.182081 -0.0684009 255 0 0
0.178289 -0.18184 -0.0685771 255 0 0
0.180763 -0.181696 -0.0664697 255 0 0
0.203026 -0.180938 -0.0654764 255 0 0
0.158946 -0.176257 -0.0681351 255 0 0
0.161085 -0.178429 -0.0679005 255 0 0
0.172735 -0.177724 -0.0683758 255 0 0
0.177925 -0.177917 -0.0678597 255 0 0
0.181236 -0.176311 -0.0661162 255 0 0
0.201728 -0.176811 -0.0662552 255 0 0
0.148669 -0.170299 -0.0652996 255 0 0
0.153261 -0.171343 -0.0678935 255 0 0
0.156938 -0.173896 -0.0674445 255 0 0
0.168263 -0.171679 -0.0679064 255 0 0
0.173529 -0.172776 -0.0676929 255 0 0
0.176944 -0.173303 -0.0667199 255 0 0
0.182009 -0.173351 -0.0652036 255 0 0
0.199198 -0.171442 -0.0673719 255 0 0
0.200568 -0.173925 -0.0661497 255 0 0
0.143502 -0.165642 -0.0663468 255 0 0
0.146452 -0.167582 -0.0675972 255 0 0
0.150311 -0.169365 -0.0690302 255 0 0
0.163341 -0.166617 -0.0678762 255 0 0
0.166387 -0.168988 -0.0665659 255 0 0
0.171678 -0.167358 -0.0669047 255 0 0
0.197623 -0.167588 -0.0673186 255 0 0
0.139514 -0.162963 -0.0653464 255 0 0
0.142143 -0.163743 -0.0678838 255 0 0
0.158998 -0.162083 -0.0669941 255 0 0
0.160793 -0.16465 -0.0674702 255 0 0
0.169228 -0.161862 -0.0673376 255 0 0
0.170632 -0.164875 -0.0675242 255 0 0
0.194794 -0.161239 -0.0680619 255 0 0
0.195854 -0.163347 -0.0673885 255 0 0
0.153463 -0.156823 -0.0672752 255 0 0
0.15715 -0.156911 -0.0687968 255 0 0
0.163044 -0.157045 -0.0674516 255 0 0
0.166364 -0.159126 -0.0673447 255 0 0
0.193374 -0.157425 -0.0675194 255 0 0
0.153012 -0.152465 -0.067847 255 0 0
0.15742 -0.1522 -0.0673413 255 0 0
0.161261 -0.15187 -0.0680311 255 0 0
0.187229 -0.150109 -0.0697846 255 0 0
0.191077 -0.152039 -0.0677878 255 0 0
0.152174 -0.147414 -0.0673556 255 0 0
0.157816 -0.148315 -0.067229 255 0 0
0.161379 -0.147875 -0.0670497 255 0 0
0.184146 -0.148985 -0.0682003 255 0 0
0.187602 -0.148932 -0.066754 255 0 0
0.19045 -0.149466 -0.0662548 255 0 0
0.149697 -0.142603 -0.0691752 255 0 0
0.152254 -0.142285 -0.0673254 255 0 0
0.157856 -0.14148 -0.0675017 255 0 0
0.160841 -0.143904 -0.0682408 255 0 0
0.147945 -0.136902 -0.0674655 255 0 0
0.151737 -0.137045 -0.0668753 255 0 0
0.156293 -0.137601 -0.0675707 255 0 0
0.143079 -0.131593 -0.0678345 255 0 0
0.148102 -0.132727 -0.0683244 255 0 0
0.152579 -0.132229 -0.0676456 255 0 0
0.156599 -0.133795 -0.0660918 255 0 0
0.127676 -0.126016 -0.0678811 255 0 0
0.132514 -0.12686 -0.0673917 255 0 0
0.137562 -0.127125 -0.067803 255 0 0
0.141988 -0.127762 -0.0681844 255 0 0
0.147069 -0.127431 -0.0678695 255 0 0
0.152108 -0.127814 -0.0664996 255 0 0
0.157412 -0.127707 -0.0652175 255 0 0
0.092708 -0.121417 -0.0679017 255 0 0
0.0973238 -0.12261 -0.0672912 255 0 0
0.102048 -0.122044 -0.0673122 255 0 0
0.106616 -0.121356 -0.0683564 255 0 0
0.112839 -0.120778 -0.0671026 255 0 0
0.117779 -0.121874 -0.0672701 255 0 0
0.122433 -0.122239 -0.0684008 255 0 0
0.127825 -0.122013 -0.0679346 255 0 0
0.139111 -0.122761 -0.0697484 255 0 0
0.142823 -0.122257 -0.068032 255 0 0
0.14757 -0.12261 -0.0665805 255 0 0
0.152027 -0.122761 -0.0656702 255 0 0
0.15731 -0.122453 -0.0666942 255 0 0
0.0911546 -0.119824 -0.065209 255 0 0
0.0988817 -0.115503 -0.069087 255 0 0
0.102697 -0.116781 -0.067495 255 0 0
0.107408 -0.11828 -0.0669103 255 0 0
0.112732 -0.11859 -0.0675505 255 0 0
0.117737 -0.118692 -0.0670297 255 0 0
0.1227 -0.118292 -0.067087 255 0 0
0.127875 -0.117791 -0.0675426 255 0 0
0.132729 -0.11734 -0.0676596 255 0 0
0.138104 -0.117393 -0.0677774 255 0 0
0.142186 -0.118077 -0.0667335 255 0 0
0.147262 -0.119042 -0.0651913 255 0 0
0.153826 -0.119627 -0.0652869 255 0 0
0.159059 -0.119569 -0.0660474 255 0 0
0.097429 -0.114263 -0.0677903 255 0 0
0.133692 -0.114758 -0.0651879 255 0 0
0.136427 -0.11435 -0.0659277 255 0 0
0.193286 -0.20094 -0.0626611 255 0 0
0.199313 -0.201046 -0.0609394 255 0 0
0.202132 -0.200973 -0.0616976 255 0 0
0.192933 -0.197358 -0.0622034 255 0 0
0.19802 -0.197228 -0.0616104 255 0 0
0.200747 -0.197699 -0.0625499 255 0 0
0.187679 -0.191466 -0.0642319 255 0 0
0.191084 -0.19321 -0.0622965 255 0 0
0.199169 -0.194546 -0.0620107 255 0 0
0.201169 -0.192662 -0.0623685 255 0 0
0.172 -0.185246 -0.0646928 255 0 0
0.17717 -0.186205 -0.0631669 255 0 0
0.182904 -0.186737 -0.0626595 255 0 0
0.187099 -0.188734 -0.0618008 255 0 0
0.202472 -0.187176 -0.0628229 255 0 0
0.164014 -0.18067 -0.063935 255 0 0
0.168133 -0.181873 -0.0632865 255 0 0
0.171821 -0.182653 -0.0621928 255 0 0
0.176123 -0.183183 -0.0611423 255 0 0
0.181411 -0.181704 -0.0627078 255 0 0
0.203568 -0.182578 -0.0622951 255 0 0
0.159137 -0.175959 -0.0642456 255 0 0
0.162598 -0.17778 -0.0621776 255 0 0
0.167732 -0.178817 -0.0612644 255 0 0
0.172203 -0.177437 -0.0616439 255 0 0
0.176317 -0.176287 -0.0610236 255 0 0
0.182944 -0.177266 -0.0634084 255 0 0
0.185077 -0.17678 -0.0609897 255 0 0
0.203016 -0.177633 -0.0627172 255 0 0
0.149471 -0.170532 -0.0639741 255 0 0
0.153084 -0.171516 -0.0630873 255 0 0
0.157753 -0.172107 -0.0614337 255 0 0
0.161052 -0.174903 -0.0608226 255 0 0
0.169285 -0.171063 -0.0637148 255 0 0
0.171972 -0.172382 -0.0626979 255 0 0
0.177341 -0.172903 -0.0630197 255 0 0
0.182708 -0.171667 -0.0626586 255 0 0
0.186401 -0.17304 -0.0615033 255 0 0
0.199877 -0.170623 -0.0637792 255 0 0
0.201042 -0.172378 -0.0622206 255 0 0
0.144806 -0.165138 -0.0640509 255 0 0
0.147328 -0.167498 -0.0627058 255 0 0
0.152052 -0.168961 -0.060746 255 0 0
0.157036 -0.169439 -0.060091 255 0 0
0.163194 -0.166455 -0.0629095 255 0 0
0.166715 -0.16847 -0.0621479 255 0 0
0.172872 -0.167241 -0.0630255 255 0 0
0.176934 -0.167758 -0.0617554 255 0 0
0.18271 -0.16812 -0.0607893 255 0 0
0.19876 -0.167319 -0.0629093 255 0 0
0.200244 -0.169428 -0.0607395 255 0 0
0.138707 -0.161963 -0.0648575 255 0 0
0.142615 -0.162264 -0.0632399 255 0 0
0.147856 -0.162617 -0.0614948 255 0 0
0.150878 -0.160207 -0.0600794 255 0 0
0.158624 -0.16119 -0.0627332 255 0 0
0.161402 -0.164126 -0.0618898 255 0 0
0.168187 -0.160959 -0.0640135 255 0 0
0.171869 -0.16247 -0.0618362 255 0 0
0.17841 -0.163951 -0.0605157 255 0 0
0.197032 -0.16297 -0.0626789 255 0 0
0.142641 -0.15938 -0.0625353 255 0 0
0.148833 -0.15807 -0.0614799 255 0 0
0.152276 -0.156108 -0.0608196 255 0 0
0.155937 -0.157484 -0.062285 255 0 0
0.163795 -0.155908 -0.0632234 255 0 0
0.166681 -0.158056 -0.0615319 255 0 0
0.194411 -0.156503 -0.0625136 255 0 0
0.195817 -0.159178 -0.0614462 255 0 0
0.152868 -0.152292 -0.0621622 255 0 0
0.157177 -0.15247 -0.0625978 255 0 0
0.161008 -0.153518 -0.0622877 255 0 0
0.192634 -0.152436 -0.0628643 255 0 0
0.153037 -0.147325 -0.0617997 255 0 0
0.157985 -0.147385 -0.062735 255 0 0
0.162318 -0.1473 -0.0626104 255 0 0
0.166515 -0.149068 -0.062798 255 0 0
0.183511 -0.146709 -0.0628525 255 0 0
0.187398 -0.146857 -0.0617389 255 0 0
0.191273 -0.148376 -0.0617582 255 0 0
0.153203 -0.141884 -0.0626227 255 0 0
0.157366 -0.142633 -0.0627232 255 0 0
0.161237 -0.142398 -0.0628614 255 0 0
0.149018 -0.136062 -0.0618153 255 0 0
0.152784 -0.137837 -0.0623268 255 0 0
0.157196 -0.137042 -0.0624198 255 0 0
0.160195 -0.139334 -0.0621636 255 0 0
0.143456 -0.131519 -0.0623393 255 0 0
0.147265 -0.133635 -0.063238 255 0 0
0.152595 -0.133557 -0.0630683 255 0 0
0.157286 -0.13263 -0.062908 255 0 0
0.162589 -0.130727 -0.0612073 255 0 0
0.133016 -0.125527 -0.0626335 255 0 0
0.137849 -0.127164 -0.0632058 255 0 0
0.140431 -0.129038 -0.0622955 255 0 0
0.153003 -0.12793 -0.0638226 255 0 0
0.158913 -0.126642 -0.063954 255 0 0
0.163038 -0.127082 -0.0625454 255 0 0
0.0941172 -0.121207 -0.0648246 255 0 0
0.0967577 -0.120614 -0.0634931 255 0 0
0.10076 -0.120012 -0.0638964 255 0 0
0.117953 -0.120534 -0.0628031 255 0 0
0.120705 -0.121804 -0.0627921 255 0 0
0.128019 -0.122548 -0.0624397 255 0 0
0.133315 -0.12445 -0.0610487 255 0 0
0.138177 -0.124741 -0.0619711 255 0 0
0.158094 -0.121438 -0.0626869 255 0 0
0.161689 -0.122859 -0.061727 255 0 0
0.0935836 -0.11894 -0.0625935 255 0 0
0.0987096 -0.118158 -0.0619041 255 0 0
0.102731 -0.116845 -0.0625815 255 0 0
0.108148 -0.116673 -0.0626163 255 0 0
0.112314 -0.117735 -0.0629484 255 0 0
0.117216 -0.11698 -0.0631128 255 0 0
0.122216 -0.116265 -0.0629266 255 0 0
0.12842 -0.116985 -0.0629764 255 0 0
0.132764 -0.115731 -0.0626014 255 0 0
0.137159 -0.11526 -0.0643113 255 0 0
0.142699 -0.116024 -0.0639727 255 0 0
0.147494 -0.117677 -0.0626323 255 0 0
0.152423 -0.118429 -0.0625998 255 0 0
0.15775 -0.118097 -0.0626589 255 0 0
0.162269 -0.118504 -0.0628069 255 0 0
0.104158 -0.114419 -0.061411 255 0 0
0.107867 -0.113891 -0.0615251 255 0 0
0.112251 -0.113908 -0.0609722 255 0 0
0.116023 -0.114126 -0.0606636 255 0 0
0.123173 -0.114118 -0.0618196 255 0 0
0.126931 -0.11342 -0.0618952 255 0 0
0.132068 -0.112883 -0.0620324 255 0 0
0.137341 -0.113182 -0.0619272 255 0 0
0.141151 -0.113051 -0.0614656 255 0 0
0.145486 -0.114543 -0.0609428 255 0 0
0.194813 -0.200458 -0.0598508 255 0 0
0.20346 -0.20075 -0.0579681 255 0 0
0.205976 -0.200321 -0.0562039 255 0 0
0.194318 -0.196039 -0.0591943 255 0 0
0.196916 -0.196858 -0.0575246 255 0 0
0.202352 -0.197112 -0.05723 255 0 0
0.205373 -0.199438 -0.0560393 255 0 0
0.193654 -0.192104 -0.0586115 255 0 0
0.195774 -0.193258 -0.0560721 255 0 0
0.201934 -0.192398 -0.0572945 255 0 0
0.179045 -0.185611 -0.0591776 255 0 0
0.183201 -0.18638 -0.0579792 255 0 0
0.18697 -0.186849 -0.0582504 255 0 0
0.191843 -0.187891 -0.0573579 255 0 0
0.199359 -0.18768 -0.0576454 255 0 0
0.202569 -0.187663 -0.0573714 255 0 0
0.172829 -0.183295 -0.0594443 255 0 0
0.17825 -0.182163 -0.0579471 255 0 0
0.182022 -0.182526 -0.0573158 255 0 0
0.186953 -0.183704 -0.0559856 255 0 0
0.204247 -0.182751 -0.0572352 255 0 0
0.205072 -0.180984 -0.0550197 255 0 0
0.16778 -0.176545 -0.0585553 255 0 0
0.172789 -0.177265 -0.0572626 255 0 0
0.177378 -0.178552 -0.0576964 255 0 0
0.181491 -0.177421 -0.0565399 255 0 0
0.186852 -0.177355 -0.0568026 255 0 0
0.204192 -0.177064 -0.0571463 255 0 0
0.159842 -0.170956 -0.0592118 255 0 0
0.162873 -0.172103 -0.0578074 255 0 0
0.167359 -0.173681 -0.0563832 255 0 0
0.171992 -0.171953 -0.0575944 255 0 0
0.177062 -0.173992 -0.0589678 255 0 0
0.180445 -0.173684 -0.0562775 255 0 0
0.188673 -0.172761 -0.0577836 255 0 0
0.190976 -0.173347 -0.0560242 255 0 0
0.202318 -0.17218 -0.0574214 255 0 0
0.148858 -0.166681 -0.0599915 255 0 0
0.152175 -0.166913 -0.0590849 255 0 0
0.156935 -0.167535 -0.0582683 255 0 0
0.162392 -0.167514 -0.0567841 255 0 0
0.167655 -0.168108 -0.057682 255 0 0
0.182978 -0.166988 -0.0583638 255 0 0
0.187284 -0.167857 -0.0567502 255 0 0
0.199814 -0.16713 -0.0589095 255 0 0
0.200527 -0.167586 -0.0570572 255 0 0
0.152925 -0.162635 -0.0583928 255 0 0
0.157392 -0.162608 -0.0561497 255 0 0
0.162064 -0.162224 -0.0574594 255 0 0
0.166742 -0.16329 -0.0572877 255 0 0
0.173867 -0.160738 -0.0598632 255 0 0
0.177052 -0.161 -0.059255 255 0 0
0.182947 -0.162515 -0.0586092 255 0 0
0.186302 -0.162538 -0.0561434 255 0 0
0.198348 -0.162664 -0.0575831 255 0 0
0.153881 -0.159095 -0.0586824 255 0 0
0.157683 -0.157271 -0.0577281 255 0 0
0.161856 -0.157272 -0.0566503 255 0 0
0.168257 -0.156811 -0.0575237 255 0 0
0.172809 -0.157984 -0.0576559 255 0 0
0.177329 -0.157719 -0.0569616 255 0 0
0.182832 -0.158564 -0.0571968 255 0 0
0.185758 -0.15879 -0.0556452 255 0 0
0.194986 -0.155121 -0.05847 255 0 0
0.196294 -0.157645 -0.057524 255 0 0
0.15729 -0.152557 -0.0576231 255 0 0
0.162821 -0.152392 -0.0573764 255 0 0
0.165418 -0.154535 -0.0567762 255 0 0
0.193919 -0.151943 -0.0576061 255 0 0
0.195708 -0.154638 -0.0552131 255 0 0
0.156993 -0.147891 -0.0574852 255 0 0
0.162041 -0.146985 -0.0573445 255 0 0
0.16709 -0.147261 -0.0581314 255 0 0
0.187546 -0.145484 -0.0583111 255 0 0
0.19229 -0.147958 -0.0575538 255 0 0
0.153437 -0.142903 -0.0590311 255 0 0
0.157405 -0.14263 -0.0571438 255 0 0
0.161164 -0.142702 -0.0575303 255 0 0
0.149765 -0.13517 -0.0589424 255 0 0
0.153886 -0.136794 -0.0580445 255 0 0
0.15759 -0.137863 -0.0576704 255 0 0
0.161126 -0.137754 -0.0572995 255 0 0
0.144101 -0.131581 -0.0576503 255 0 0
0.147496 -0.132601 -0.0578113 255 0 0
0.152663 -0.132685 -0.0567542 255 0 0
0.157481 -0.132681 -0.0573114 255 0 0
0.160165 -0.133339 -0.0572515 255 0 0
0.133499 -0.12529 -0.0575042 255 0 0
0.137647 -0.126865 -0.0574698 255 0 0
0.141436 -0.128931 -0.0571719 255 0 0
0.147033 -0.127773 -0.0564862 255 0 0
0.154535 -0.128729 -0.0566031 255 0 0
0.155184 -0.12711 -0.0553052 255 0 0
0.163961 -0.12609 -0.0580088 255 0 0
0.165332 -0.128252 -0.0594863 255 0 0
0.103794 -0.120407 -0.0591132 255 0 0
0.117696 -0.121332 -0.0573367 255 0 0
0.123342 -0.121919 -0.0575836 255 0 0
0.12813 -0.12209 -0.0578588 255 0 0
0.132206 -0.123896 -0.0578247 255 0 0
0.136534 -0.12397 -0.059505 255 0 0
0.162268 -0.122589 -0.0571673 255 0 0
0.0939426 -0.116671 -0.0587605 255 0 0
0.097574 -0.11624 -0.0585088 255 0 0
0.101952 -0.117041 -0.0579248 255 0 0
0.106489 -0.11667 -0.0577379 255 0 0
0.112055 -0.117749 -0.057388 255 0 0
0.123708 -0.115384 -0.0599751 255 0 0
0.129642 -0.118508 -0.0575878 255 0 0
0.13163 -0.115901 -0.0572055 255 0 0
0.141534 -0.115368 -0.0587213 255 0 0
0.148282 -0.116096 -0.0591526 255 0 0
0.150717 -0.117366 -0.0573712 255 0 0
0.158675 -0.115873 -0.0571955 255 0 0
0.163005 -0.117341 -0.0576676 255 0 0
0.0972911 -0.114276 -0.0563655 255 0 0
0.108623 -0.110982 -0.0576995 255 0 0
0.11284 -0.112178 -0.0578648 255 0 0
0.117715 -0.112575 -0.0577154 255 0 0
0.122562 -0.112616 -0.0577231 255 0 0
0.12761 -0.112127 -0.0570696 255 0 0
0.13242 -0.112599 -0.058171 255 0 0
0.137848 -0.11256 -0.0583814 255 0 0
0.142545 -0.110619 -0.0587549 255 0 0
0.146808 -0.112758 -0.0579098 255 0 0
0.10833 -0.109285 -0.0570489 255 0 0
0.112101 -0.109097 -0.056147 255 0 0
0.117739 -0.108775 -0.0559344 255 0 0
0.122067 -0.109159 -0.0560115 255 0 0
0.128349 -0.109093 -0.0566691 255 0 0
0.132999 -0.108754 -0.0569375 255 0 0
0.138037 -0.108846 -0.0570602 255 0 0
0.142635 -0.108648 -0.0559729 255 0 0
0.145823 -0.109537 -0.0556419 255 0 0
0.206828 -0.200041 -0.0536278 255 0 0
0.202762 -0.197072 -0.052993 255 0 0
0.206881 -0.198287 -0.0519942 255 0 0
0.210484 -0.199986 -0.0516246 255 0 0
0.197759 -0.19241 -0.052873 255 0 0
0.203221 -0.192271 -0.0529817 255 0 0
0.207 -0.192898 -0.0510097 255 0 0
0.183033 -0.186311 -0.0524078 255 0 0
0.185579 -0.188354 -0.0525812 255 0 0
0.19336 -0.186755 -0.053797 255 0 0
0.19618 -0.188083 -0.0515888 255 0 0
0.203432 -0.187028 -0.0539703 255 0 0
0.206121 -0.187542 -0.0513358 255 0 0
0.183027 -0.182024 -0.0527919 255 0 0
0.187461 -0.18229 -0.0532012 255 0 0
0.191199 -0.183352 -0.0515278 255 0 0
0.205754 -0.182669 -0.0522551 255 0 0
0.178198 -0.176539 -0.0525517 255 0 0
0.181975 -0.177656 -0.0523039 255 0 0
0.188432 -0.178105 -0.052215 255 0 0
0.190593 -0.176336 -0.0522898 255 0 0
0.205327 -0.177484 -0.051877 255 0 0
0.168498 -0.171762 -0.0544181 255 0 0
0.172198 -0.172186 -0.0525671 255 0 0
0.175765 -0.174352 -0.0506168 255 0 0
0.18178 -0.173888 -0.0518162 255 0 0
0.192176 -0.172751 -0.0532157 255 0 0
0.203885 -0.172346 -0.0521291 255 0 0
0.162584 -0.166262 -0.0544848 255 0 0
0.167746 -0.167749 -0.0531092 255 0 0
0.171098 -0.168876 -0.0504509 255 0 0
0.187762 -0.166993 -0.0517182 255 0 0
0.190908 -0.169139 -0.0526953 255 0 0
0.201827 -0.167705 -0.0526345 255 0 0
0.159108 -0.160441 -0.0545264 255 0 0
0.162929 -0.162642 -0.0530014 255 0 0
0.166077 -0.163203 -0.0513677 255 0 0
0.188791 -0.162609 -0.0526649 255 0 0
0.190441 -0.164875 -0.0515781 255 0 0
0.199194 -0.161767 -0.053284 255 0 0
0.200509 -0.163952 -0.0518219 255 0 0
0.159349 -0.156961 -0.054126 255 0 0
0.161922 -0.157795 -0.0521823 255 0 0
0.165735 -0.159193 -0.0505495 255 0 0
0.170934 -0.155248 -0.0543084 255 0 0
0.177363 -0.155628 -0.0537334 255 0 0
0.183342 -0.156719 -0.053637 255 0 0
0.187037 -0.158383 -0.0524286 255 0 0
0.197162 -0.157247 -0.0525024 255 0 0
0.159353 -0.152656 -0.0537872 255 0 0
0.162073 -0.152096 -0.0518769 255 0 0
0.167741 -0.153763 -0.0529443 255 0 0
0.173198 -0.154403 -0.0525171 255 0 0
0.176166 -0.154415 -0.0516455 255 0 0
0.193862 -0.152107 -0.052918 255 0 0
0.195494 -0.153493 -0.0542999 255 0 0
0.158775 -0.146857 -0.053249 255 0 0
0.161901 -0.147841 -0.0520961 255 0 0
0.166752 -0.145481 -0.0541295 255 0 0
0.189626 -0.146478 -0.0538431 255 0 0
0.191027 -0.149264 -0.0529565 255 0 0
0.15499 -0.142773 -0.0521954 255 0 0
0.157689 -0.142382 -0.0529091 255 0 0
0.161724 -0.142426 -0.0526497 255 0 0
0.165916 -0.144235 -0.051524 255 0 0
0.152884 -0.135144 -0.0532223 255 0 0
0.157091 -0.137173 -0.0526843 255 0 0
0.161894 -0.137316 -0.0529726 255 0 0
0.143872 -0.131217 -0.0522075 255 0 0
0.147551 -0.132343 -0.0533961 255 0 0
0.152106 -0.132805 -0.0524106 255 0 0
0.157629 -0.13222 -0.0533231 255 0 0
0.160712 -0.132431 -0.0530303 255 0 0
0.138003 -0.126368 -0.0527453 255 0 0
0.142046 -0.129231 -0.0527649 255 0 0
0.148897 -0.126762 -0.0525403 255 0 0
0.150854 -0.129402 -0.0515851 255 0 0
0.157648 -0.127148 -0.0528456 255 0 0
0.161663 -0.127386 -0.0525852 255 0 0
0.114098 -0.120714 -0.0540577 255 0 0
0.115794 -0.120844 -0.0504766 255 0 0
0.121953 -0.120492 -0.0503812 255 0 0
0.127943 -0.121092 -0.0529754 255 0 0
0.132861 -0.122531 -0.0526795 255 0 0
0.135788 -0.124465 -0.0511961 255 0 0
0.148865 -0.122646 -0.0520336 255 0 0
0.151878 -0.120852 -0.0513241 255 0 0
0.158171 -0.122028 -0.0509133 255 0 0
0.161288 -0.122633 -0.0530869 255 0 0
0.102539 -0.115096 -0.0538132 255 0 0
0.1072 -0.116144 -0.054369 255 0 0
0.112009 -0.119267 -0.052947 255 0 0
0.129414 -0.119112 -0.0517204 255 0 0
0.131615 -0.116132 -0.0525494 255 0 0
0.137089 -0.115953 -0.05274 255 0 0
0.142849 -0.116844 -0.0508065 255 0 0
0.147364 -0.118656 -0.0515351 255 0 0
0.150867 -0.117503 -0.0529873 255 0 0
0.159148 -0.117522 -0.0520769 255 0 0
0.161699 -0.117772 -0.0531198 255 0 0
0.0976955 -0.114652 -0.0526549 255 0 0
0.10242 -0.113838 -0.0515738 255 0 0
0.107929 -0.112729 -0.0530302 255 0 0
0.112346 -0.11092 -0.0523089 255 0 0
0.117483 -0.111458 -0.0524451 255 0 0
0.122574 -0.112054 -0.0523 255 0 0
0.127805 -0.112824 -0.0527368 255 0 0
0.131504 -0.112663 -0.0525957 255 0 0
0.135803 -0.114315 -0.0503577 255 0 0
0.149062 -0.111377 -0.0525005 255 0 0
0.150305 -0.1139 -0.0527206 255 0 0
0.0980096 -0.106072 -0.0512714 255 0 0
0.102662 -0.108333 -0.0515235 255 0 0
0.107635 -0.108558 -0.0519538 255 0 0
0.112014 -0.108375 -0.0519347 255 0 0
0.117001 -0.107451 -0.0521254 255 0 0
0.122408 -0.107014 -0.0521467 255 0 0
0.126838 -0.108096 -0.0528785 255 0 0
0.132758 -0.108298 -0.0523354 255 0 0
0.137398 -0.107347 -0.0522411 255 0 0
0.142668 -0.107428 -0.0528343 255 0 0
0.146387 -0.108628 -0.0519928 255 0 0
0.0932708 -0.10221 -0.051641 255 0 0
0.0885023 -0.0973509 -0.0510691 255 0 0
0.0905287 -0.0991762 -0.0510154 255 0 0
0.203071 -0.196603 -0.047708 255 0 0
0.208282 -0.196766 -0.0468318 255 0 0
0.211764 -0.197479 -0.0472106 255 0 0
0.198581 -0.19122 -0.0472222 255 0 0
0.201029 -0.192406 -0.0467256 255 0 0
0.208278 -0.192324 -0.0475223 255 0 0
0.211097 -0.193838 -0.0470013 255 0 0
0.183518 -0.186822 -0.0468354 255 0 0
0.186626 -0.188369 -0.0470908 255 0 0
0.198391 -0.187344 -0.0483125 255 0 0
0.20241 -0.187007 -0.0459884 255 0 0
0.207448 -0.187826 -0.0471957 255 0 0
0.183911 -0.183583 -0.0481723 255 0 0
0.189976 -0.180414 -0.0489651 255 0 0
0.193058 -0.18168 -0.0483712 255 0 0
0.197316 -0.182601 -0.046916 255 0 0
0.200446 -0.184423 -0.0457816 255 0 0
0.206473 -0.182205 -0.0482032 255 0 0
0.18345 -0.176959 -0.0484519 255 0 0
0.187178 -0.177195 -0.0470305 255 0 0
0.191548 -0.177795 -0.0468211 255 0 0
0.205926 -0.177269 -0.0475531 255 0 0
0.173758 -0.171833 -0.0483096 255 0 0
0.178084 -0.172779 -0.0471582 255 0 0
0.182903 -0.173607 -0.0470631 255 0 0
0.18995 -0.170163 -0.047412 255 0 0
0.191686 -0.173132 -0.0475981 255 0 0
0.204661 -0.171654 -0.0483772 255 0 0
0.205804 -0.173523 -0.0463273 255 0 0
0.16872 -0.166336 -0.0477419 255 0 0
0.172201 -0.16897 -0.0466937 255 0 0
0.175244 -0.169527 -0.0451478 255 0 0
0.189035 -0.167584 -0.0475577 255 0 0
0.203263 -0.167595 -0.0474013 255 0 0
0.164457 -0.162218 -0.0482285 255 0 0
0.167103 -0.162494 -0.0476193 255 0 0
0.199598 -0.160461 -0.0499541 255 0 0
0.201345 -0.163122 -0.047295 255 0 0
0.16384 -0.15724 -0.047678 255 0 0
0.16628 -0.157685 -0.0472423 255 0 0
0.193217 -0.156011 -0.0474847 255 0 0
0.196998 -0.158295 -0.0478604 255 0 0
0.163029 -0.1524 -0.0477311 255 0 0
0.167237 -0.152015 -0.0471512 255 0 0
0.172556 -0.153258 -0.0473276 255 0 0
0.188651 -0.153565 -0.0472136 255 0 0
0.191768 -0.153266 -0.0496689 255 0 0
0.158556 -0.145905 -0.0473288 255 0 0
0.162539 -0.147274 -0.0478512 255 0 0
0.165338 -0.149134 -0.0459687 255 0 0
0.154063 -0.14216 -0.0460835 255 0 0
0.157899 -0.142853 -0.0472248 255 0 0
0.162855 -0.141901 -0.0473212 255 0 0
0.166612 -0.14339 -0.0474377 255 0 0
0.153211 -0.136452 -0.0472173 255 0 0
0.157421 -0.138395 -0.0467261 255 0 0
0.162192 -0.137891 -0.0484219 255 0 0
0.143208 -0.131092 -0.047825 255 0 0
0.14715 -0.133399 -0.0476458 255 0 0
0.153087 -0.13296 -0.0479204 255 0 0
0.155533 -0.132932 -0.045353 255 0 0
0.162581 -0.132874 -0.047482 255 0 0
0.13886 -0.127383 -0.0468438 255 0 0
0.141321 -0.12942 -0.0476125 255 0 0
0.149791 -0.127171 -0.0498412 255 0 0
0.152818 -0.127378 -0.0473872 255 0 0
0.158552 -0.126206 -0.0465938 255 0 0
0.161378 -0.127805 -0.047352 255 0 0
0.113607 -0.120245 -0.0491436 255 0 0
0.117648 -0.120468 -0.0493665 255 0 0
0.133293 -0.120998 -0.0488535 255 0 0
0.136265 -0.1227 -0.0478929 255 0 0
0.152615 -0.121831 -0.0470934 255 0 0
0.158271 -0.122666 -0.0475154 255 0 0
0.103185 -0.115762 -0.0471939 255 0 0
0.107634 -0.118538 -0.0462722 255 0 0
0.111763 -0.11955 -0.0478487 255 0 0
0.117914 -0.119607 -0.0473378 255 0 0
0.122954 -0.118391 -0.046709 255 0 0
0.128037 -0.118241 -0.0476836 255 0 0
0.132054 -0.117857 -0.047455 255 0 0
0.137615 -0.116965 -0.0476166 255 0 0
0.142534 -0.11605 -0.047946 255 0 0
0.147585 -0.117129 -0.0472079 255 0 0
0.151541 -0.118288 -0.0468587 255 0 0
0.15658 -0.118154 -0.0478044 255 0 0
0.0947047 -0.113564 -0.0461907 255 0 0
0.0967971 -0.113877 -0.0465417 255 0 0
0.100579 -0.114644 -0.0455787 255 0 0
0.118068 -0.110213 -0.0498487 255 0 0
0.122866 -0.110693 -0.0490824 255 0 0
0.128028 -0.111872 -0.0479172 255 0 0
0.131881 -0.112924 -0.0474852 255 0 0
0.137148 -0.114403 -0.0466024 255 0 0
0.143785 -0.112359 -0.0454457 255 0 0
0.146792 -0.112407 -0.0478194 255 0 0
0.0988662 -0.10584 -0.0478545 255 0 0
0.103003 -0.107132 -0.047824 255 0 0
0.107815 -0.107522 -0.047492 255 0 0
0.113054 -0.107604 -0.0477974 255 0 0
0.117606 -0.107192 -0.0472205 255 0 0
0.122213 -0.107279 -0.0473202 255 0 0
0.126951 -0.10832 -0.047298 255 0 0
0.131749 -0.108813 -0.0479854 255 0 0
0.139601 -0.107806 -0.0494685 255 0 0
0.143259 -0.108728 -0.0484286 255 0 0
0.0934879 -0.101632 -0.0479896 255 0 0
0.0958605 -0.103771 -0.0471906 255 0 0
0.0880511 -0.0962559 -0.0469808 255 0 0
0.0907882 -0.0987767 -0.0477148 255 0 0
0.0785367 -0.0914791 -0.0471475 255 0 0
0.0813424 -0.0911154 -0.0461473 255 0 0
0.0860895 -0.0941091 -0.046463 255 0 0
0.0774914 -0.08755 -0.0461603 255 0 0
0.0743376 -0.0835 -0.0452971 255 0 0
0.207552 -0.196864 -0.0428213 255 0 0
0.212249 -0.196881 -0.0427775 255 0 0
0.215689 -0.196743 -0.0415708 255 0 0
0.198228 -0.191746 -0.043139 255 0 0
0.203123 -0.192883 -0.0435797 255 0 0
0.20808 -0.192181 -0.0414671 255 0 0
0.21293 -0.192673 -0.0422277 255 0 0
0.184361 -0.185625 -0.0437422 255 0 0
0.186274 -0.186476 -0.0416853 255 0 0
0.191112 -0.187956 -0.040535 255 0 0
0.203766 -0.186962 -0.0435189 255 0 0
0.207715 -0.187382 -0.0424612 255 0 0
0.211872 -0.188139 -0.0414297 255 0 0
0.186481 -0.182262 -0.0419328 255 0 0
0.199648 -0.180255 -0.0435888 255 0 0
0.203025 -0.182335 -0.0421579 255 0 0
0.208089 -0.182535 -0.0426582 255 0 0
0.184356 -0.175721 -0.044791 255 0 0
0.187129 -0.177204 -0.0421852 255 0 0
0.192385 -0.176973 -0.0425627 255 0 0
0.197281 -0.178844 -0.0429643 255 0 0
0.200619 -0.179376 -0.041101 255 0 0
0.206502 -0.177462 -0.0426508 255 0 0
0.178504 -0.170668 -0.0443751 255 0 0
0.182465 -0.171483 -0.0433563 255 0 0
0.187402 -0.172685 -0.0426457 255 0 0
0.190689 -0.173964 -0.0421039 255 0 0
0.20451 -0.170906 -0.0412213 255 0 0
0.206041 -0.172432 -0.0429077 255 0 0
0.168875 -0.165217 -0.0433502 255 0 0
0.172973 -0.167019 -0.0426597 255 0 0
0.177789 -0.167998 -0.0423606 255 0 0
0.182368 -0.168186 -0.0411375 255 0 0
0.187738 -0.167556 -0.0425561 255 0 0
0.203443 -0.167546 -0.0428477 255 0 0
0.167864 -0.162217 -0.0427997 255 0 0
0.171915 -0.163062 -0.0415854 255 0 0
0.177634 -0.164425 -0.0404132 255 0 0
0.186509 -0.164703 -0.0406407 255 0 0
0.198397 -0.161319 -0.042098 255 0 0
0.201073 -0.164176 -0.0424643 255 0 0
0.164316 -0.15616 -0.0423514 255 0 0
0.167792 -0.157843 -0.0431351 255 0 0
0.170819 -0.156978 -0.0413078 255 0 0
0.196995 -0.159456 -0.0445476 255 0 0
0.162185 -0.152243 -0.0419721 255 0 0
0.168251 -0.151526 -0.0431439 255 0 0
0.172472 -0.15252 -0.0421848 255 0 0
0.158137 -0.147033 -0.0428404 255 0 0
0.163144 -0.147167 -0.0427705 255 0 0
0.16741 -0.147866 -0.0419677 255 0 0
0.170912 -0.149177 -0.0406087 255 0 0
0.153304 -0.142236 -0.0423617 255 0 0
0.158715 -0.141754 -0.0427737 255 0 0
0.162742 -0.142619 -0.0424081 255 0 0
0.166623 -0.143066 -0.0437704 255 0 0
0.152589 -0.138341 -0.0423403 255 0 0
0.157332 -0.137632 -0.0422998 255 0 0
0.162681 -0.137682 -0.0427416 255 0 0
0.141007 -0.130066 -0.0439791 255 0 0
0.146002 -0.133384 -0.0443406 255 0 0
0.154011 -0.134331 -0.0412052 255 0 0
0.156982 -0.132494 -0.0421325 255 0 0
0.162903 -0.132576 -0.0419991 255 0 0
0.137298 -0.12651 -0.0433005 255 0 0
0.158306 -0.127746 -0.0422387 255 0 0
0.161628 -0.127489 -0.0424858 255 0 0
0.134183 -0.120908 -0.0424022 255 0 0
0.135741 -0.12375 -0.0425813 255 0 0
0.154151 -0.120693 -0.041966 255 0 0
0.157267 -0.122303 -0.0429141 255 0 0
0.160604 -0.123331 -0.0414033 255 0 0
0.103329 -0.116126 -0.0429547 255 0 0
0.107275 -0.117653 -0.042388 255 0 0
0.112004 -0.118571 -0.0427033 255 0 0
0.117871 -0.117157 -0.0424514 255 0 0
0.122197 -0.116068 -0.0431586 255 0 0
0.127708 -0.115714 -0.0432373 255 0 0
0.132319 -0.117403 -0.0430367 255 0 0
0.137204 -0.117158 -0.0425746 255 0 0
0.142404 -0.116641 -0.0423229 255 0 0
0.147473 -0.117516 -0.0427816 255 0 0
0.152152 -0.118021 -0.0427522 255 0 0
0.156095 -0.118728 -0.0409144 255 0 0
0.093129 -0.112304 -0.042129 255 0 0
0.0982658 -0.113631 -0.0424287 255 0 0
0.101495 -0.114659 -0.0416539 255 0 0
0.113526 -0.1101 -0.0406773 255 0 0
0.116244 -0.110926 -0.0423704 255 0 0
0.123066 -0.112878 -0.0415653 255 0 0
0.127342 -0.11211 -0.0415261 255 0 0
0.132753 -0.112502 -0.0426499 255 0 0
0.137141 -0.112914 -0.0422154 255 0 0
0.142245 -0.112768 -0.0432009 255 0 0
0.146771 -0.113875 -0.0418201 255 0 0
0.151287 -0.114756 -0.0415623 255 0 0
0.103343 -0.105422 -0.0434239 255 0 0
0.107708 -0.106016 -0.0426376 255 0 0
0.112809 -0.10677 -0.0432221 255 0 0
0.117725 -0.105677 -0.0423706 255 0 0
0.122794 -0.107609 -0.0426805 255 0 0
0.127647 -0.109425 -0.0434556 255 0 0
0.132408 -0.108068 -0.0427382 255 0 0
0.0936655 -0.1005 -0.0444077 255 0 0
0.0975799 -0.101884 -0.0432832 255 0 0
0.102431 -0.10241 -0.0420142 255 0 0
0.106774 -0.102912 -0.0415431 255 0 0
0.112339 -0.102047 -0.0407681 255 0 0
0.115917 -0.104806 -0.041831 255 0 0
0.124176 -0.104314 -0.0400529 255 0 0
0.128072 -0.104705 -0.0404425 255 0 0
0.0887204 -0.0963841 -0.0421616 255 0 0
0.0924696 -0.0986557 -0.0421958 255 0 0
0.098417 -0.0995272 -0.0405264 255 0 0
0.115655 -0.0997788 -0.0404042 255 0 0
0.0834338 -0.0910005 -0.0426144 255 0 0
0.0860105 -0.0939125 -0.0411205 255 0 0
0.0786183 -0.0865357 -0.0439239 255 0 0
0.0816424 -0.0881667 -0.0422254 255 0 0
0.0737056 -0.0822446 -0.0413001 255 0 0
0.0768792 -0.0837458 -0.0412608 255 0 0
0.0755332 -0.0795384 -0.0400835 255 0 0
0.0707817 -0.0703435 -0.0403827 255 0 0
0.0689772 -0.0668759 -0.0406631 255 0 0
0.0678696 -0.0616703 -0.0406911 255 0 0
0.0662624 -0.0579819 -0.0405139 255 0 0
0.18973 -0.206126 -0.0397211 255 0 0
0.192637 -0.207825 -0.0381394 255 0 0
0.195379 -0.20675 -0.0378058 255 0 0
0.196012 -0.203272 -0.0369967 255 0 0
0.196088 -0.197758 -0.0363819 255 0 0
0.209294 -0.196624 -0.0385359 255 0 0
0.212652 -0.197489 -0.0376199 255 0 0
0.193449 -0.190911 -0.0360796 255 0 0
0.19512 -0.193442 -0.0362532 255 0 0
0.20804 -0.192183 -0.0376989 255 0 0
0.213448 -0.193886 -0.0375026 255 0 0
0.215504 -0.190989 -0.0367787 255 0 0
0.188042 -0.186219 -0.0374657 255 0 0
0.191741 -0.187944 -0.0379654 255 0 0
0.20486 -0.18635 -0.0374457 255 0 0
0.207072 -0.186885 -0.0372045 255 0 0
0.213942 -0.186325 -0.038201 255 0 0
0.216244 -0.187727 -0.0365829 255 0 0
0.18798 -0.18272 -0.0378044 255 0 0
0.204988 -0.181205 -0.0386768 255 0 0
0.207334 -0.182157 -0.0377602 255 0 0
0.212201 -0.183378 -0.0373593 255 0 0
0.188742 -0.176667 -0.0376662 255 0 0
0.197142 -0.176158 -0.0379118 255 0 0
0.203479 -0.177743 -0.0370415 255 0 0
0.206654 -0.178272 -0.0371953 255 0 0
0.184165 -0.170463 -0.0379233 255 0 0
0.187862 -0.172495 -0.0375608 255 0 0
0.192687 -0.172071 -0.0383491 255 0 0
0.195666 -0.172334 -0.0357099 255 0 0
0.20397 -0.171444 -0.0373795 255 0 0
0.205552 -0.173203 -0.0387011 255 0 0
0.173757 -0.165558 -0.0374052 255 0 0
0.177911 -0.167745 -0.0387606 255 0 0
0.182013 -0.167711 -0.0377243 255 0 0
0.188031 -0.167627 -0.0373201 255 0 0
0.191653 -0.168637 -0.0359628 255 0 0
0.198754 -0.166131 -0.0351465 255 0 0
0.201838 -0.167548 -0.038147 255 0 0
0.16814 -0.161441 -0.0377108 255 0 0
0.172716 -0.162991 -0.0383099 255 0 0
0.177698 -0.161454 -0.0384217 255 0 0
0.182429 -0.162663 -0.0371037 255 0 0
0.185576 -0.16391 -0.0377788 255 0 0
0.192342 -0.160765 -0.0362548 255 0 0
0.197536 -0.163182 -0.0369987 255 0 0
0.200143 -0.163828 -0.0397953 255 0 0
0.163848 -0.156197 -0.0377087 255 0 0
0.16657 -0.158524 -0.0367208 255 0 0
0.173528 -0.157009 -0.0376924 255 0 0
0.177215 -0.157492 -0.0367264 255 0 0
0.181445 -0.158527 -0.0353028 255 0 0
0.188562 -0.159412 -0.0361879 255 0 0
0.161909 -0.152671 -0.0375227 255 0 0
0.16906 -0.152563 -0.0377043 255 0 0
0.172926 -0.152684 -0.0375764 255 0 0
0.176331 -0.152666 -0.0365431 255 0 0
0.154995 -0.145082 -0.0387941 255 0 0
0.158316 -0.147315 -0.0373832 255 0 0
0.162928 -0.147249 -0.0375586 255 0 0
0.167951 -0.147366 -0.0375114 255 0 0
0.172127 -0.147666 -0.0371306 255 0 0
0.175359 -0.148958 -0.0367845 255 0 0
0.152321 -0.141371 -0.0384684 255 0 0
0.157036 -0.141975 -0.0371354 255 0 0
0.162515 -0.142576 -0.0378675 255 0 0
0.166886 -0.143019 -0.0369299 255 0 0
0.171716 -0.142428 -0.0352381 255 0 0
0.149375 -0.136423 -0.0388445 255 0 0
0.152911 -0.137971 -0.0382363 255 0 0
0.157295 -0.137641 -0.0372557 255 0 0
0.162772 -0.137234 -0.0377343 255 0 0
0.166426 -0.138143 -0.0362964 255 0 0
0.157972 -0.132558 -0.0380394 255 0 0
0.162825 -0.13199 -0.037624 255 0 0
0.165345 -0.132867 -0.0355767 255 0 0
0.134496 -0.126238 -0.0357409 255 0 0
0.162351 -0.127444 -0.0376616 255 0 0
0.165673 -0.128018 -0.0356458 255 0 0
0.134082 -0.121414 -0.0374817 255 0 0
0.138425 -0.121088 -0.0370947 255 0 0
0.158215 -0.121663 -0.0382241 255 0 0
0.16184 -0.123115 -0.0372038 255 0 0
0.104429 -0.115775 -0.0392419 255 0 0
0.107746 -0.116305 -0.0390945 255 0 0
0.112361 -0.116169 -0.0389536 255 0 0
0.116598 -0.115067 -0.0393202 255 0 0
0.132154 -0.117448 -0.0374465 255 0 0
0.137512 -0.117249 -0.0379315 255 0 0
0.142809 -0.11589 -0.0384465 255 0 0
0.147618 -0.116598 -0.0371411 255 0 0
0.153037 -0.117316 -0.037623 255 0 0
0.157208 -0.118159 -0.036985 255 0 0
0.0838654 -0.110953 -0.0365988 255 0 0
0.0889236 -0.110715 -0.039431 255 0 0
0.0930329 -0.110719 -0.038792 255 0 0
0.0980849 -0.111203 -0.0386813 255 0 0
0.102076 -0.112411 -0.0374345 255 0 0
0.107324 -0.113356 -0.0363808 255 0 0
0.113051 -0.11259 -0.0364105 255 0 0
0.117811 -0.112036 -0.0373731 255 0 0
0.122896 -0.111696 -0.0373005 255 0 0
0.127654 -0.112269 -0.0373898 255 0 0
0.132984 -0.11168 -0.0375499 255 0 0
0.13717 -0.112807 -0.037066 255 0 0
0.142561 -0.113011 -0.0367249 255 0 0
0.147245 -0.112682 -0.036992 255 0 0
0.151956 -0.113774 -0.036776 255 0 0
0.0782525 -0.107143 -0.0350913 255 0 0
0.082657 -0.107777 -0.0358607 255 0 0
0.0879807 -0.108862 -0.0368416 255 0 0
0.0931035 -0.108708 -0.0361788 255 0 0
0.0974653 -0.109209 -0.0363791 255 0 0
0.101999 -0.105556 -0.0388015 255 0 0
0.108496 -0.105988 -0.0385427 255 0 0
0.11218 -0.106821 -0.0372627 255 0 0
0.117585 -0.107558 -0.0374147 255 0 0
0.122454 -0.108607 -0.037915 255 0 0
0.128307 -0.107101 -0.036693 255 0 0
0.132282 -0.108157 -0.0374848 255 0 0
0.135727 -0.109976 -0.038283 255 0 0
0.0992636 -0.101549 -0.0368135 255 0 0
0.10249 -0.102051 -0.0380298 255 0 0
0.106592 -0.102733 -0.037061 255 0 0
0.113436 -0.102784 -0.0362836 255 0 0
0.117721 -0.103529 -0.0372014 255 0 0
0.122407 -0.103913 -0.0368026 255 0 0
0.126388 -0.104579 -0.0376871 255 0 0
0.0887159 -0.0950209 -0.03572 255 0 0
0.0923091 -0.0963621 -0.0374527 255 0 0
0.0975814 -0.097184 -0.0372743 255 0 0
0.102349 -0.0976379 -0.0374876 255 0 0
0.107661 -0.0974286 -0.0382054 255 0 0
0.111939 -0.0982412 -0.0389394 255 0 0
0.0848474 -0.0910238 -0.0369555 255 0 0
0.0872725 -0.0926185 -0.037378 255 0 0
0.0922902 -0.0935536 -0.0363526 255 0 0
0.0983961 -0.094322 -0.0355182 255 0 0
0.103303 -0.0943737 -0.0352967 255 0 0
0.106826 -0.0946627 -0.0363865 255 0 0
0.0826794 -0.0876476 -0.0374253 255 0 0
0.0688403 -0.0802934 -0.0380778 255 0 0
0.0725362 -0.0811704 -0.037588 255 0 0
0.077866 -0.0827462 -0.037736 255 0 0
0.0805812 -0.0826477 -0.0356437 255 0 0
0.0683942 -0.0786523 -0.0370334 255 0 0
0.0702901 -0.079742 -0.0361676 255 0 0
0.0777548 -0.0774809 -0.0373878 255 0 0
0.080298 -0.0790416 -0.0352182 255 0 0
0.0732353 -0.0715793 -0.0377308 255 0 0
0.0758148 -0.0725942 -0.0358796 255 0 0
0.0698469 -0.0658157 -0.0378269 255 0 0
0.0713116 -0.0682286 -0.0374762 255 0 0
0.0688069 -0.0625509 -0.0372833 255 0 0
0.0707136 -0.0648178 -0.0350319 255 0 0
0.0674431 -0.0583623 -0.0370014 255 0 0
0.1965 -0.207008 -0.0339791 255 0 0
0.197094 -0.20251 -0.0317175 255 0 0
0.195758 -0.198174 -0.0319541 255 0 0
0.212483 -0.197069 -0.0332037 255 0 0
0.216101 -0.19681 -0.0322952 255 0 0
0.193591 -0.192792 -0.0323293 255 0 0
0.209268 -0.191884 -0.0328785 255 0 0
0.211381 -0.192601 -0.0321408 255 0 0
0.215969 -0.192389 -0.0324632 255 0 0
0.188918 -0.186397 -0.0326572 255 0 0
0.191257 -0.189186 -0.0330348 255 0 0
0.204152 -0.185826 -0.0326844 255 0 0
0.20791 -0.187654 -0.033201 255 0 0
0.211041 -0.188293 -0.0313722 255 0 0
0.216199 -0.187247 -0.0321963 255 0 0
0.188711 -0.181914 -0.0332937 255 0 0
0.192395 -0.181409 -0.0327007 255 0 0
0.197766 -0.182057 -0.0310455 255 0 0
0.200673 -0.184012 -0.0317397 255 0 0
0.208453 -0.181632 -0.0326925 255 0 0
0.212641 -0.183127 -0.031937 255 0 0
0.215823 -0.184636 -0.0322906 255 0 0
0.181114 -0.176514 -0.030914 255 0 0
0.18975 -0.175758 -0.03179 255 0 0
0.191598 -0.17687 -0.0324708 255 0 0
0.196152 -0.176314 -0.0304496 255 0 0
0.20302 -0.17681 -0.0327228 255 0 0
0.206905 -0.178455 -0.0318703 255 0 0
0.210381 -0.178809 -0.0304813 255 0 0
0.188772 -0.173165 -0.033975 255 0 0
0.191077 -0.171421 -0.0316406 255 0 0
0.198187 -0.172268 -0.0327581 255 0 0
0.202364 -0.173025 -0.0327286 255 0 0
0.178182 -0.166015 -0.0329126 255 0 0
0.182795 -0.167579 -0.0323434 255 0 0
0.187199 -0.167988 -0.0330949 255 0 0
0.193068 -0.166651 -0.0326264 255 0 0
0.196777 -0.167278 -0.0316105 255 0 0
0.200613 -0.168551 -0.033181 255 0 0
0.169396 -0.160117 -0.0339044 255 0 0
0.172966 -0.162332 -0.0334558 255 0 0
0.176545 -0.162509 -0.0306012 255 0 0
0.183727 -0.161034 -0.0342135 255 0 0
0.187567 -0.162442 -0.0327848 255 0 0
0.192601 -0.162218 -0.0318287 255 0 0
0.168522 -0.156829 -0.032639 255 0 0
0.172455 -0.158325 -0.0313342 255 0 0
0.177816 -0.156986 -0.0339066 255 0 0
0.182976 -0.157187 -0.032785 255 0 0
0.186634 -0.157756 -0.0316683 255 0 0
0.190414 -0.159945 -0.0345579 255 0 0
0.163611 -0.152155 -0.0342496 255 0 0
0.167766 -0.15254 -0.0321681 255 0 0
0.172394 -0.152824 -0.0318822 255 0 0
0.178388 -0.152531 -0.032967 255 0 0
0.181753 -0.153375 -0.0315349 255 0 0
0.163412 -0.147374 -0.0333179 255 0 0
0.167383 -0.146834 -0.0329393 255 0 0
0.172476 -0.147447 -0.0324032 255 0 0
0.177509 -0.147391 -0.0325144 255 0 0
0.180529 -0.149843 -0.0302818 255 0 0
0.158426 -0.142119 -0.0326184 255 0 0
0.162519 -0.142994 -0.0326223 255 0 0
0.167211 -0.142565 -0.0322712 255 0 0
0.173138 -0.142815 -0.0324982 255 0 0
0.177105 -0.143008 -0.0323314 255 0 0
0.14749 -0.13691 -0.031473 255 0 0
0.152496 -0.137151 -0.0321073 255 0 0
0.158012 -0.138167 -0.0332972 255 0 0
0.163222 -0.138479 -0.0326266 255 0 0
0.167842 -0.137345 -0.0328281 255 0 0
0.172561 -0.13745 -0.0323858 255 0 0
0.176962 -0.138888 -0.0317097 255 0 0
0.134185 -0.130799 -0.0317985 255 0 0
0.136974 -0.131885 -0.0344473 255 0 0
0.162059 -0.132345 -0.0326114 255 0 0
0.167592 -0.132554 -0.0325124 255 0 0
0.17112 -0.132922 -0.0305819 255 0 0
0.133647 -0.12775 -0.031624 255 0 0
0.146947 -0.126743 -0.0313355 255 0 0
0.158887 -0.127152 -0.0311703 255 0 0
0.162834 -0.127956 -0.0329895 255 0 0
0.167514 -0.126743 -0.0321536 255 0 0
0.170815 -0.127144 -0.0306249 255 0 0
0.133881 -0.122635 -0.0326686 255 0 0
0.138373 -0.12174 -0.0325585 255 0 0
0.141177 -0.124042 -0.0325993 255 0 0
0.162751 -0.122072 -0.0331458 255 0 0
0.16709 -0.122912 -0.0318268 255 0 0
0.170234 -0.123771 -0.0306028 255 0 0
0.132834 -0.11735 -0.0329894 255 0 0
0.13742 -0.119482 -0.0348382 255 0 0
0.14479 -0.115287 -0.0346892 255 0 0
0.149096 -0.115657 -0.0319017 255 0 0
0.152804 -0.116055 -0.0330089 255 0 0
