ply
format ascii 1.0
element vertex 1231
property float x
property float y
property float z
property uchar diffuse_red
property uchar diffuse_green
property uchar diffuse_blue
end_header
0.121947 -0.148639 -0.0317723 255 0 0
0.122893 -0.14893 -0.0308395 255 0 0
0.117588 -0.147025 -0.0305721 255 0 0
0.119688 -0.146428 -0.031009 255 0 0
0.121243 -0.147104 -0.0313339 255 0 0
0.114679 -0.144319 -0.0304473 255 0 0
0.117239 -0.144537 -0.0314645 255 0 0
0.119141 -0.14509 -0.0309941 255 0 0
0.120632 -0.145008 -0.0306845 255 0 0
0.113075 -0.142821 -0.0313161 255 0 0
0.11486 -0.142597 -0.0306084 255 0 0
0.117184 -0.142919 -0.0310722 255 0 0
0.119111 -0.143184 -0.030799 255 0 0
0.111112 -0.140532 -0.030882 255 0 0
0.113354 -0.140696 -0.0310429 255 0 0
0.114501 -0.141124 -0.0307094 255 0 0
0.117283 -0.141324 -0.0308763 255 0 0
0.109631 -0.138437 -0.0308331 255 0 0
0.110244 -0.138883 -0.0315965 255 0 0
0.113085 -0.138562 -0.0307762 255 0 0
0.115374 -0.139281 -0.0314583 255 0 0
0.1164 -0.138731 -0.0307202 255 0 0
0.107772 -0.137128 -0.0307726 255 0 0
0.108541 -0.136909 -0.0311606 255 0 0
0.111563 -0.137101 -0.0308399 255 0 0
0.11317 -0.136925 -0.0310557 255 0 0
0.115053 -0.137225 -0.0307765 255 0 0
0.105938 -0.134239 -0.0308279 255 0 0
0.106878 -0.134954 -0.0310712 255 0 0
0.109951 -0.134183 -0.0311079 255 0 0
0.111055 -0.134899 -0.0313929 255 0 0
0.112591 -0.134881 -0.030873 255 0 0
0.105552 -0.132844 -0.0311976 255 0 0
0.106262 -0.133129 -0.0301624 255 0 0
0.10897 -0.132531 -0.0312454 255 0 0
0.11065 -0.133347 -0.030828 255 0 0
0.105121 -0.130986 -0.0310297 255 0 0
0.107485 -0.130842 -0.0314314 255 0 0
0.108451 -0.131108 -0.0305006 255 0 0
0.103798 -0.128246 -0.0304745 255 0 0
0.105148 -0.12902 -0.0311123 255 0 0
0.107079 -0.128928 -0.0308141 255 0 0
0.0994021 -0.12611 -0.0307568 255 0 0
0.103104 -0.126939 -0.030412 255 0 0
0.105149 -0.126843 -0.0311668 255 0 0
0.0988124 -0.124808 -0.0310302 255 0 0
0.101206 -0.124941 -0.0303205 255 0 0
0.10303 -0.124665 -0.0309547 255 0 0
0.10472 -0.125261 -0.0311556 255 0 0
0.0976372 -0.122212 -0.0315752 255 0 0
0.0989802 -0.123255 -0.0309021 255 0 0
0.101822 -0.122117 -0.0317105 255 0 0
0.103145 -0.122964 -0.0313869 255 0 0
0.104492 -0.123597 -0.0307442 255 0 0
0.0977942 -0.120436 -0.0307401 255 0 0
0.0987629 -0.121715 -0.0306209 255 0 0
0.100795 -0.120669 -0.0313026 255 0 0
0.102439 -0.121512 -0.0307668 255 0 0
0.0970741 -0.118834 -0.0311967 255 0 0
0.0988939 -0.118955 -0.0310456 255 0 0
0.100705 -0.119541 -0.030784 255 0 0
0.0954929 -0.11686 -0.0309128 255 0 0
0.0974397 -0.117448 -0.0306387 255 0 0
0.0987417 -0.117042 -0.0308911 255 0 0
0.0933069 -0.114683 -0.0311978 255 0 0
0.0946559 -0.115174 -0.0308535 255 0 0
0.0972128 -0.114976 -0.0304493 255 0 0
0.0913743 -0.112835 -0.0314516 255 0 0
0.0924715 -0.112844 -0.0306255 255 0 0
0.0966073 -0.113102 -0.031046 255 0 0
0.0898232 -0.110538 -0.0309582 255 0 0
0.0908628 -0.111368 -0.0306454 255 0 0
0.0947731 -0.111327 -0.0311507 255 0 0
0.0887541 -0.109093 -0.0312771 255 0 0
0.0932724 -0.109203 -0.031101 255 0 0
0.0878493 -0.106576 -0.0309771 255 0 0
0.0883669 -0.107527 -0.0304572 255 0 0
0.0910204 -0.106611 -0.0307928 255 0 0
0.0921456 -0.107906 -0.0309467 255 0 0
0.0872279 -0.105083 -0.0311628 255 0 0
0.0893584 -0.104608 -0.0309551 255 0 0
0.0905291 -0.105774 -0.0318946 255 0 0
0.0855274 -0.103305 -0.031078 255 0 0
0.0866757 -0.102936 -0.031112 255 0 0
0.0880938 -0.103368 -0.0314034 255 0 0
0.0834709 -0.100209 -0.0311512 255 0 0
0.0849203 -0.101382 -0.0309357 255 0 0
0.0864686 -0.100838 -0.0309101 255 0 0
0.0814367 -0.0983247 -0.0306597 255 0 0
0.0825369 -0.0991906 -0.0309025 255 0 0
0.0854234 -0.0988855 -0.0308842 255 0 0
0.079449 -0.0968584 -0.0313695 255 0 0
0.0808894 -0.0968463 -0.0307753 255 0 0
0.0821908 -0.0974951 -0.030528 255 0 0
0.0842131 -0.0970485 -0.0310697 255 0 0
0.0776618 -0.0946324 -0.0310248 255 0 0
0.078838 -0.0951112 -0.0307799 255 0 0
0.080422 -0.0951636 -0.030758 255 0 0
0.0830006 -0.0952084 -0.0312555 255 0 0
0.0769083 -0.092865 -0.031306 255 0 0
0.0790081 -0.0928048 -0.0311326 255 0 0
0.0813899 -0.092602 -0.0311534 255 0 0
0.0822072 -0.0936806 -0.0306797 255 0 0
0.0765261 -0.0906631 -0.0307348 255 0 0
0.0788818 -0.0908455 -0.0314507 255 0 0
0.0804473 -0.0911174 -0.0311813 255 0 0
0.0754589 -0.0894588 -0.0312458 255 0 0
0.0767498 -0.0889431 -0.0302766 255 0 0
0.0786597 -0.0887061 -0.0308982 255 0 0
0.0748746 -0.0871148 -0.0307489 255 0 0
0.0766594 -0.0875091 -0.0306289 255 0 0
0.0718072 -0.0845751 -0.0309241 255 0 0
0.0730815 -0.0855715 -0.0305923 255 0 0
0.0748762 -0.0850849 -0.0309431 255 0 0
0.0712422 -0.0828614 -0.0306288 255 0 0
0.0748532 -0.0830871 -0.030833 255 0 0
0.0706769 -0.081147 -0.0303335 255 0 0
0.0737471 -0.0802083 -0.0310366 255 0 0
0.0742694 -0.0813793 -0.0307796 255 0 0
0.0706538 -0.0792729 -0.0311083 255 0 0
0.073226 -0.0790397 -0.0312931 255 0 0
0.0697287 -0.076503 -0.03106 255 0 0
0.0710334 -0.077051 -0.0311367 255 0 0
0.0723809 -0.0779388 -0.0314046 255 0 0
0.0690369 -0.0748729 -0.0307194 255 0 0
0.070651 -0.0751095 -0.0308796 255 0 0
0.0686155 -0.0729194 -0.0309583 255 0 0
0.0652854 -0.0702884 -0.0307899 255 0 0
0.067158 -0.0716095 -0.0311481 255 0 0
0.0632199 -0.068535 -0.0307627 255 0 0
0.0648652 -0.0693971 -0.0314524 255 0 0
0.0611395 -0.0672985 -0.0307442 255 0 0
0.0625406 -0.0679595 -0.0317643 255 0 0
0.05935 -0.0655099 -0.0303845 255 0 0
0.0543438 -0.0629539 -0.0305206 255 0 0
0.0549507 -0.060808 -0.0308701 255 0 0
0.0552171 -0.0593593 -0.0308223 255 0 0
0.0583204 -0.058008 -0.0309727 255 0 0
0.0551061 -0.0574086 -0.030833 255 0 0
0.0569533 -0.0566126 -0.0307954 255 0 0
0.0549694 -0.0548958 -0.0307754 255 0 0
0.0563152 -0.055149 -0.0306966 255 0 0
0.0551514 -0.0530304 -0.0307896 255 0 0
0.129858 -0.154247 -0.0297038 255 0 0
0.131934 -0.154461 -0.0291581 255 0 0
0.133514 -0.155238 -0.0297091 255 0 0
0.125695 -0.152564 -0.0294621 255 0 0
0.127147 -0.15264 -0.029092 255 0 0
0.128708 -0.153199 -0.0289569 255 0 0
0.130365 -0.15369 -0.0286111 255 0 0
0.12179 -0.150429 -0.0296014 255 0 0
0.123125 -0.151116 -0.029585 255 0 0
0.125015 -0.150931 -0.028939 255 0 0
0.127025 -0.151765 -0.0285169 255 0 0
0.119576 -0.148793 -0.0299964 255 0 0
0.121418 -0.148957 -0.028905 255 0 0
0.123429 -0.148716 -0.0291548 255 0 0
0.124608 -0.149461 -0.0284495 255 0 0
0.117521 -0.146037 -0.0298688 255 0 0
0.119051 -0.147081 -0.0293057 255 0 0
0.120683 -0.146765 -0.0288757 255 0 0
0.122698 -0.146957 -0.0291488 255 0 0
0.124243 -0.147953 -0.0282299 255 0 0
0.116812 -0.144958 -0.02935 255 0 0
0.119244 -0.14501 -0.0285105 255 0 0
0.121473 -0.145343 -0.0298426 255 0 0
0.122613 -0.145213 -0.0289075 255 0 0
0.114996 -0.142564 -0.029396 255 0 0
0.116798 -0.143424 -0.0287137 255 0 0
0.118889 -0.142956 -0.0288202 255 0 0
0.121227 -0.142882 -0.0285954 255 0 0
0.111929 -0.140499 -0.0298035 255 0 0
0.113489 -0.140479 -0.0286296 255 0 0
0.114694 -0.141218 -0.0285205 255 0 0
0.11699 -0.140664 -0.0298326 255 0 0
0.119046 -0.140831 -0.0287244 255 0 0
0.120219 -0.141081 -0.0281963 255 0 0
0.109479 -0.138564 -0.0286009 255 0 0
0.111228 -0.139428 -0.0292871 255 0 0
0.112923 -0.139828 -0.0285537 255 0 0
0.115361 -0.1387 -0.0294533 255 0 0
0.117099 -0.139208 -0.0289599 255 0 0
0.118163 -0.139378 -0.028181 255 0 0
0.107514 -0.136813 -0.0291742 255 0 0
0.108599 -0.137616 -0.0289775 255 0 0
0.113206 -0.136909 -0.0291685 255 0 0
0.114856 -0.136614 -0.0288057 255 0 0
0.116596 -0.137152 -0.0287207 255 0 0
0.105705 -0.134461 -0.0285115 255 0 0
0.106397 -0.135521 -0.0290241 255 0 0
0.111411 -0.135143 -0.0288147 255 0 0
0.113231 -0.13464 -0.0296787 255 0 0
0.114415 -0.134952 -0.0286963 255 0 0
0.105027 -0.133364 -0.0290646 255 0 0
0.107553 -0.132834 -0.0292389 255 0 0
0.109698 -0.132379 -0.0294752 255 0 0
0.110796 -0.133366 -0.0291006 255 0 0
0.113274 -0.133146 -0.0284005 255 0 0
0.105176 -0.131537 -0.0295277 255 0 0
0.106876 -0.130783 -0.0293251 255 0 0
0.108751 -0.130831 -0.0287916 255 0 0
0.110853 -0.131791 -0.028846 255 0 0
0.103931 -0.128881 -0.0291315 255 0 0
0.10514 -0.129356 -0.0297798 255 0 0
0.107228 -0.129151 -0.029076 255 0 0
0.108698 -0.129754 -0.0280418 255 0 0
0.103177 -0.127061 -0.0285881 255 0 0
0.105569 -0.126886 -0.0293827 255 0 0
0.106836 -0.127606 -0.0289092 255 0 0
0.101676 -0.125128 -0.0288342 255 0 0
0.102718 -0.124992 -0.0287148 255 0 0
0.105125 -0.125102 -0.0287216 255 0 0
0.106226 -0.125119 -0.0289641 255 0 0
0.101117 -0.122732 -0.0288657 255 0 0
0.103328 -0.123328 -0.0290989 255 0 0
0.105039 -0.123371 -0.0291371 255 0 0
0.106025 -0.123967 -0.0281536 255 0 0
0.0995099 -0.121232 -0.0295094 255 0 0
0.100641 -0.120723 -0.0287708 255 0 0
0.103297 -0.121199 -0.0291949 255 0 0
0.10455 -0.12163 -0.0288536 255 0 0
0.0975716 -0.118679 -0.0297528 255 0 0
0.0993638 -0.118772 -0.0293895 255 0 0
0.101036 -0.119462 -0.0290339 255 0 0
0.102563 -0.119808 -0.0280786 255 0 0
0.095381 -0.116824 -0.0296305 255 0 0
0.0970918 -0.116409 -0.0292111 255 0 0
0.0986981 -0.117178 -0.0286803 255 0 0
0.100212 -0.117914 -0.0285053 255 0 0
0.0939562 -0.114943 -0.0298113 255 0 0
0.0954908 -0.114555 -0.0287782 255 0 0
0.0965847 -0.114779 -0.0284684 255 0 0
0.0934083 -0.112761 -0.0293403 255 0 0
0.0948843 -0.113266 -0.0290198 255 0 0
0.0970605 -0.11241 -0.0286205 255 0 0
0.0914398 -0.11067 -0.0289675 255 0 0
0.0927837 -0.11101 -0.0286563 255 0 0
0.0951254 -0.110987 -0.0298872 255 0 0
0.0968702 -0.111004 -0.0293852 255 0 0
0.0895224 -0.10846 -0.0293407 255 0 0
0.0904595 -0.109195 -0.0289119 255 0 0
0.0924533 -0.109594 -0.0288806 255 0 0
0.0957337 -0.108567 -0.0293134 255 0 0
0.0964851 -0.109616 -0.0291391 255 0 0
0.0889445 -0.107086 -0.0289605 255 0 0
0.0909565 -0.107033 -0.0290264 255 0 0
0.094923 -0.106912 -0.0286698 255 0 0
0.0875793 -0.104753 -0.0291497 255 0 0
0.0892247 -0.104994 -0.028616 255 0 0
0.0855268 -0.10269 -0.0290244 255 0 0
0.0869835 -0.102925 -0.0290875 255 0 0
0.0881515 -0.103578 -0.0292404 255 0 0
0.0839594 -0.100059 -0.0297114 255 0 0
0.0848659 -0.101115 -0.0289285 255 0 0
0.086485 -0.101548 -0.0287842 255 0 0
0.0829668 -0.0989183 -0.0288318 255 0 0
0.08505 -0.0992343 -0.0288899 255 0 0
0.0862147 -0.0996392 -0.0285885 255 0 0
0.0799436 -0.0966287 -0.0293724 255 0 0
0.0808824 -0.0971895 -0.0288781 255 0 0
0.0821948 -0.0970982 -0.0291715 255 0 0
0.08465 -0.096906 -0.0292642 255 0 0
0.0784942 -0.0951154 -0.0291948 255 0 0
0.0809523 -0.0949982 -0.0290152 255 0 0
0.0835007 -0.0950058 -0.029508 255 0 0
0.0775278 -0.0928451 -0.0291548 255 0 0
0.0786579 -0.0932481 -0.02875 255 0 0
0.0819586 -0.0928727 -0.0297899 255 0 0
0.0828277 -0.0933515 -0.0290534 255 0 0
0.0771257 -0.0910306 -0.0290579 255 0 0
0.0781548 -0.0908893 -0.0285615 255 0 0
0.081285 -0.091277 -0.0289606 255 0 0
0.0756366 -0.0887444 -0.0291119 255 0 0
0.0770251 -0.0891581 -0.02881 255 0 0
0.0793081 -0.0889628 -0.0292353 255 0 0
0.0800769 -0.0899079 -0.0298448 255 0 0
0.0750556 -0.0870232 -0.0292462 255 0 0
0.0769511 -0.0870202 -0.0292393 255 0 0
0.0787156 -0.0878208 -0.0288049 255 0 0
0.0719905 -0.0840998 -0.029676 255 0 0
0.0731276 -0.0849136 -0.0289049 255 0 0
0.0749154 -0.0855619 -0.0285099 255 0 0
0.0763199 -0.0854621 -0.0283263 255 0 0
0.0712794 -0.0828416 -0.0289156 255 0 0
0.0727377 -0.0830421 -0.0282306 255 0 0
0.0747391 -0.0828326 -0.0289195 255 0 0
0.0703631 -0.0810252 -0.028913 255 0 0
0.0739558 -0.0810762 -0.0293074 255 0 0
0.0696952 -0.0790319 -0.0289973 255 0 0
0.0719595 -0.0785771 -0.0280797 255 0 0
0.0731754 -0.079326 -0.029694 255 0 0
0.0690461 -0.0768477 -0.0288638 255 0 0
0.0711881 -0.0768433 -0.0284656 255 0 0
0.0720734 -0.0776461 -0.0299371 255 0 0
0.0677338 -0.0740801 -0.0288805 255 0 0
0.0690961 -0.0744453 -0.029108 255 0 0
0.0700995 -0.075182 -0.0287105 255 0 0
0.0666174 -0.0725949 -0.0290316 255 0 0
0.0693978 -0.0728179 -0.0293618 255 0 0
0.0648322 -0.0709163 -0.0289109 255 0 0
0.0685723 -0.0717448 -0.0294762 255 0 0
0.0614867 -0.0681562 -0.0287715 255 0 0
0.0632594 -0.0692647 -0.0290858 255 0 0
0.0520992 -0.0665695 -0.0283094 255 0 0
0.0596715 -0.0663636 -0.0292626 255 0 0
0.0604608 -0.0673526 -0.0289757 255 0 0
0.0530674 -0.0649584 -0.0285914 255 0 0
0.0586203 -0.0647055 -0.0292041 255 0 0
0.0537572 -0.0634126 -0.0287428 255 0 0
0.0541459 -0.062095 -0.0293876 255 0 0
0.0534295 -0.0607791 -0.0282491 255 0 0
0.0575124 -0.0607724 -0.0288176 255 0 0
0.053817 -0.059457 -0.028892 255 0 0
0.0542063 -0.0581288 -0.0295379 255 0 0
0.0576013 -0.059252 -0.0287925 255 0 0
0.0532042 -0.0569098 -0.0282651 255 0 0
0.0570875 -0.057306 -0.029153 255 0 0
0.0539533 -0.0543731 -0.0293233 255 0 0
0.0554881 -0.0546106 -0.0288629 255 0 0
0.0564122 -0.0557079 -0.0288188 255 0 0
0.0533203 -0.0533444 -0.0291446 255 0 0
0.0550371 -0.0532489 -0.028747 255 0 0
0.125698 -0.150034 -0.0278299 255 0 0
0.126652 -0.151221 -0.0278198 255 0 0
0.123184 -0.148502 -0.0279992 255 0 0
0.124493 -0.14869 -0.0276258 255 0 0
0.121972 -0.146193 -0.0271383 255 0 0
0.122578 -0.147347 -0.0275685 255 0 0
0.124253 -0.146244 -0.0275573 255 0 0
0.119752 -0.144559 -0.0275379 255 0 0
0.121209 -0.145317 -0.0270359 255 0 0
0.123119 -0.144662 -0.0278204 255 0 0
0.117539 -0.14293 -0.0279368 255 0 0
0.119378 -0.143084 -0.0268406 255 0 0
0.120761 -0.143888 -0.0262786 255 0 0
0.12287 -0.143057 -0.0269094 255 0 0
0.115267 -0.140316 -0.0276315 255 0 0
0.117067 -0.141178 -0.0272893 255 0 0
0.118951 -0.141476 -0.0266824 255 0 0
0.121231 -0.141004 -0.0271415 255 0 0
0.122749 -0.141397 -0.0261168 255 0 0
0.111166 -0.138962 -0.0278685 255 0 0
0.113143 -0.138651 -0.0270485 255 0 0
0.115167 -0.138832 -0.0265757 255 0 0
0.116756 -0.138652 -0.02703 255 0 0
0.118907 -0.139005 -0.0269688 255 0 0
0.121487 -0.139871 -0.0262616 255 0 0
0.107462 -0.136355 -0.0277621 255 0 0
0.109372 -0.137103 -0.0272001 255 0 0
0.111275 -0.137342 -0.0269963 255 0 0
0.112723 -0.136868 -0.0264483 255 0 0
0.115024 -0.136846 -0.0267252 255 0 0
0.116963 -0.137242 -0.0265948 255 0 0
0.105877 -0.134385 -0.0265683 255 0 0
0.106753 -0.135144 -0.0267835 255 0 0
0.108971 -0.135841 -0.0262451 255 0 0
0.111317 -0.134896 -0.0264417 255 0 0
0.11325 -0.135385 -0.0265778 255 0 0
0.11554 -0.134541 -0.0270176 255 0 0
0.116304 -0.135749 -0.0272137 255 0 0
0.105043 -0.132875 -0.0273582 255 0 0
0.106012 -0.133259 -0.026048 255 0 0
0.110503 -0.133033 -0.0269348 255 0 0
0.11386 -0.132203 -0.0273342 255 0 0
0.114941 -0.133286 -0.0269334 255 0 0
0.10498 -0.131368 -0.0266967 255 0 0
0.109427 -0.131118 -0.0268661 255 0 0
0.111415 -0.130609 -0.0272813 255 0 0
0.112775 -0.131107 -0.0269155 255 0 0
0.114499 -0.131964 -0.0261419 255 0 0
0.104536 -0.129052 -0.0268118 255 0 0
0.107861 -0.128586 -0.0278382 255 0 0
0.108607 -0.129097 -0.0269509 255 0 0
0.110622 -0.128932 -0.0260845 255 0 0
0.103762 -0.126413 -0.027379 255 0 0
0.104537 -0.127021 -0.0267063 255 0 0
0.106867 -0.126824 -0.0273143 255 0 0
0.10842 -0.126827 -0.0265427 255 0 0
0.102945 -0.124901 -0.0270995 255 0 0
0.104974 -0.125023 -0.0268239 255 0 0
0.107396 -0.125067 -0.0268631 255 0 0
0.101834 -0.123337 -0.0279933 255 0 0
0.102827 -0.122642 -0.0270168 255 0 0
0.104543 -0.122971 -0.0271849 255 0 0
0.106532 -0.12325 -0.0267535 255 0 0
0.101537 -0.121195 -0.0270468 255 0 0
0.103261 -0.12067 -0.0271193 255 0 0
0.104831 -0.121317 -0.0268574 255 0 0
0.101521 -0.118897 -0.027081 255 0 0
0.102504 -0.119465 -0.0265787 255 0 0
0.0975284 -0.116429 -0.0273756 255 0 0
0.0988161 -0.117252 -0.0265895 255 0 0
0.101039 -0.117655 -0.0268244 255 0 0
0.0955339 -0.114401 -0.0269059 255 0 0
0.0971606 -0.115108 -0.0274344 255 0 0
0.0984033 -0.115382 -0.0268415 255 0 0
0.0938503 -0.112337 -0.0272571 255 0 0
0.0950293 -0.112829 -0.027609 255 0 0
0.0971081 -0.113287 -0.0272183 255 0 0
0.0981177 -0.112939 -0.0263708 255 0 0
0.0918529 -0.110312 -0.0276921 255 0 0
0.0933598 -0.110909 -0.0272341 255 0 0
0.0949119 -0.111368 -0.0264839 255 0 0
0.0974451 -0.111087 -0.027097 255 0 0
0.0914468 -0.108762 -0.027163 255 0 0
0.0926104 -0.109399 -0.0267584 255 0 0
0.0969109 -0.109034 -0.0271713 255 0 0
0.0894065 -0.106529 -0.0273571 255 0 0
0.0908929 -0.10713 -0.0268359 255 0 0
0.0955545 -0.106749 -0.0268636 255 0 0
0.0965271 -0.107647 -0.0269238 255 0 0
0.0879729 -0.104191 -0.0274445 255 0 0
0.0887266 -0.104939 -0.0268982 255 0 0
0.0948051 -0.105703 -0.0270373 255 0 0
0.0871574 -0.10266 -0.02708 255 0 0
0.0882244 -0.103374 -0.026627 255 0 0
0.0852831 -0.10048 -0.0271974 255 0 0
0.0862971 -0.10069 -0.0267339 255 0 0
0.083213 -0.0984898 -0.0271251 255 0 0
0.0847508 -0.0991747 -0.0265793 255 0 0
0.0812145 -0.0964912 -0.0272282 255 0 0
0.0823686 -0.0969861 -0.0268427 255 0 0
0.0848144 -0.0970493 -0.027203 255 0 0
0.0794609 -0.0950534 -0.0273844 255 0 0
0.0809445 -0.0954229 -0.0271056 255 0 0
0.0835917 -0.094648 -0.0274191 255 0 0
0.0842743 -0.0956932 -0.0279354 255 0 0
0.0790097 -0.0929522 -0.0268474 255 0 0
0.0813785 -0.0930381 -0.0268939 255 0 0
0.082745 -0.0930758 -0.0275336 255 0 0
0.0774402 -0.0905651 -0.027276 255 0 0
0.0785979 -0.091078 -0.0271644 255 0 0
0.0808642 -0.0908513 -0.0267797 255 0 0
0.0758811 -0.0881063 -0.0274417 255 0 0
0.0766959 -0.0888288 -0.0268936 255 0 0
0.0792697 -0.0887904 -0.0270011 255 0 0
0.0803488 -0.0899795 -0.0278653 255 0 0
0.0756893 -0.0870075 -0.0266672 255 0 0
0.0766615 -0.0869838 -0.0269129 255 0 0
0.0782981 -0.0872203 -0.0277421 255 0 0
0.0732341 -0.0845316 -0.0271463 255 0 0
0.0748119 -0.0852704 -0.0268546 255 0 0
0.0766042 -0.0855483 -0.0263607 255 0 0
0.0711623 -0.0823927 -0.0274174 255 0 0
0.0727585 -0.0830185 -0.0267915 255 0 0
0.0744958 -0.0834832 -0.0270639 255 0 0
0.0705484 -0.0808852 -0.0269285 255 0 0
0.0733918 -0.0810038 -0.0266922 255 0 0
0.0691872 -0.078628 -0.0270132 255 0 0
0.0708799 -0.0788544 -0.0265801 255 0 0
0.0723217 -0.0795883 -0.0270957 255 0 0
0.0686607 -0.0771939 -0.0268699 255 0 0
0.0709509 -0.076605 -0.0266846 255 0 0
0.0674596 -0.0746865 -0.0266929 255 0 0
0.0684513 -0.0756356 -0.0270422 255 0 0
0.0650374 -0.072237 -0.0264762 255 0 0
0.0668476 -0.0731009 -0.0269985 255 0 0
0.0686586 -0.0738926 -0.027245 255 0 0
0.0634435 -0.0702437 -0.0270574 255 0 0
0.0648026 -0.0712295 -0.026993 255 0 0
0.0668238 -0.0714576 -0.0265297 255 0 0
0.0609934 -0.0685994 -0.0268914 255 0 0
0.0627009 -0.0692171 -0.0269381 255 0 0
0.0650108 -0.0689462 -0.0271313 255 0 0
0.0664147 -0.0692161 -0.0262334 255 0 0
0.0524197 -0.0661774 -0.0272006 255 0 0
0.0593096 -0.0668466 -0.0270105 255 0 0
0.0615128 -0.0665482 -0.0261151 255 0 0
0.0627421 -0.0676372 -0.0268346 255 0 0
0.0528409 -0.0645584 -0.0265968 255 0 0
0.0584971 -0.0650703 -0.0268282 255 0 0
0.0531348 -0.0626724 -0.0274214 255 0 0
0.0576308 -0.0627272 -0.027025 255 0 0
0.058001 -0.0638498 -0.0272182 255 0 0
0.0527075 -0.0612839 -0.0264252 255 0 0
0.0574193 -0.0607516 -0.0268582 255 0 0
0.0527981 -0.0585448 -0.0270428 255 0 0
0.0571379 -0.0586194 -0.0272987 255 0 0
0.0523926 -0.0568561 -0.0266287 255 0 0
0.0564651 -0.0570272 -0.0269661 255 0 0
0.0554006 -0.0547377 -0.0270594 255 0 0
0.0542939 -0.0531408 -0.02673 255 0 0
0.119773 -0.141441 -0.0255968 255 0 0
0.122748 -0.140376 -0.0250009 255 0 0
0.117633 -0.139245 -0.0257345 255 0 0
0.119072 -0.13876 -0.0256305 255 0 0
0.121066 -0.138915 -0.0254191 255 0 0
0.117235 -0.136951 -0.0255517 255 0 0
0.119218 -0.13709 -0.024793 255 0 0
0.109008 -0.134787 -0.0256355 255 0 0
0.111528 -0.134583 -0.0255962 255 0 0
0.112982 -0.134451 -0.0256595 255 0 0
0.115014 -0.134839 -0.0249951 255 0 0
0.116805 -0.135339 -0.0247396 255 0 0
0.106868 -0.132662 -0.0253929 255 0 0
0.108689 -0.132935 -0.0251241 255 0 0
0.11117 -0.132907 -0.0252487 255 0 0
0.113016 -0.133343 -0.0248192 255 0 0
0.115304 -0.133005 -0.0251896 255 0 0
0.1166 -0.133165 -0.0248084 255 0 0
0.118274 -0.132015 -0.0240663 255 0 0
0.105639 -0.130388 -0.0259 255 0 0
0.107318 -0.130773 -0.0251623 255 0 0
0.109477 -0.130484 -0.024723 255 0 0
0.110445 -0.131333 -0.0251039 255 0 0
0.113099 -0.130999 -0.024955 255 0 0
0.114955 -0.131262 -0.0246805 255 0 0
0.11697 -0.131856 -0.0244503 255 0 0
0.105978 -0.129098 -0.0255501 255 0 0
0.107235 -0.12925 -0.0251733 255 0 0
0.108677 -0.128681 -0.0250568 255 0 0
0.110588 -0.129403 -0.0253205 255 0 0
0.112894 -0.129467 -0.024656 255 0 0
0.115108 -0.128916 -0.0244988 255 0 0
0.11641 -0.129069 -0.0241143 255 0 0
0.105002 -0.126632 -0.0255834 255 0 0
0.107389 -0.126908 -0.0248159 255 0 0
0.109257 -0.127029 -0.024987 255 0 0
0.11074 -0.126925 -0.0246632 255 0 0
0.113076 -0.127169 -0.0243649 255 0 0
0.10557 -0.124906 -0.02545 255 0 0
0.106865 -0.125077 -0.0248031 255 0 0
0.108524 -0.125117 -0.0249085 255 0 0
0.111026 -0.124911 -0.0242349 255 0 0
0.103962 -0.123128 -0.0256243 255 0 0
0.105001 -0.123108 -0.0253009 255 0 0
0.107308 -0.123259 -0.0251098 255 0 0
0.10896 -0.12286 -0.0242456 255 0 0
0.110738 -0.123513 -0.0240672 255 0 0
0.100951 -0.120386 -0.0252486 255 0 0
0.102941 -0.121194 -0.0252028 255 0 0
0.105075 -0.120865 -0.0249859 255 0 0
0.106385 -0.121717 -0.0248542 255 0 0
0.098995 -0.118715 -0.0258945 255 0 0
0.101046 -0.119035 -0.0249644 255 0 0
0.103154 -0.119144 -0.025075 255 0 0
0.104465 -0.119643 -0.0245188 255 0 0
0.0977026 -0.116047 -0.0257812 255 0 0
0.0996172 -0.116485 -0.0252376 255 0 0
0.100619 -0.117444 -0.0249797 255 0 0
0.102209 -0.117082 -0.0245595 255 0 0
0.094711 -0.11416 -0.0247923 255 0 0
0.0973453 -0.114515 -0.0253325 255 0 0
0.0990828 -0.114814 -0.0252087 255 0 0
0.100418 -0.115753 -0.0243086 255 0 0
0.0931786 -0.112649 -0.025008 255 0 0
0.0949732 -0.113174 -0.0255687 255 0 0
0.0971961 -0.113013 -0.0252242 255 0 0
0.0988407 -0.112677 -0.0246558 255 0 0
0.100119 -0.113668 -0.0247529 255 0 0
0.0915804 -0.110158 -0.0245254 255 0 0
0.0930919 -0.110648 -0.0254696 255 0 0
0.095076 -0.110521 -0.0251033 255 0 0
0.0964529 -0.11151 -0.0247534 255 0 0
0.0982404 -0.111027 -0.0250541 255 0 0
0.0911593 -0.108763 -0.0253319 255 0 0
0.0929218 -0.108577 -0.0254896 255 0 0
0.0943974 -0.108941 -0.02479 255 0 0
0.0972198 -0.109358 -0.0249584 255 0 0
0.089775 -0.10658 -0.0253708 255 0 0
0.0912489 -0.106498 -0.0252142 255 0 0
0.0930003 -0.107712 -0.0243665 255 0 0
0.0969519 -0.107071 -0.0249639 255 0 0
0.0879001 -0.104354 -0.0246282 255 0 0
0.089448 -0.104504 -0.0249921 255 0 0
0.0905455 -0.105242 -0.0248367 255 0 0
0.0948852 -0.104822 -0.024766 255 0 0
0.0963457 -0.105835 -0.0244848 255 0 0
0.0876487 -0.102491 -0.0251034 255 0 0
0.0886359 -0.102958 -0.0248826 255 0 0
0.0857769 -0.101003 -0.0259701 255 0 0
0.0870694 -0.101049 -0.0250125 255 0 0
0.0847671 -0.0985826 -0.0250358 255 0 0
0.086271 -0.0999487 -0.0252993 255 0 0
0.0832883 -0.096749 -0.0252758 255 0 0
0.0843919 -0.0970203 -0.0247645 255 0 0
0.0812269 -0.0946509 -0.0251941 255 0 0
0.0828549 -0.0955066 -0.0245837 255 0 0
0.0797762 -0.0921924 -0.0250483 255 0 0
0.0807518 -0.0931786 -0.0248184 255 0 0
0.082486 -0.092996 -0.0258472 255 0 0
0.0778377 -0.0901784 -0.0257537 255 0 0
0.0787577 -0.0906469 -0.0252358 255 0 0
0.0807577 -0.0915313 -0.0247196 255 0 0
0.0773364 -0.0887106 -0.024759 255 0 0
0.0786116 -0.0892599 -0.0247658 255 0 0
0.0754281 -0.0861281 -0.0252339 255 0 0
0.0765401 -0.0869471 -0.0249409 255 0 0
0.0782309 -0.0876991 -0.0254304 255 0 0
0.0737268 -0.0843102 -0.0251665 255 0 0
0.0748402 -0.0847938 -0.0247069 255 0 0
0.0763164 -0.0854952 -0.0245853 255 0 0
0.0718508 -0.0824543 -0.025672 255 0 0
0.0729926 -0.0829056 -0.024696 255 0 0
0.0745877 -0.0832347 -0.0252326 255 0 0
0.0712935 -0.0810227 -0.024937 255 0 0
0.0730827 -0.0810401 -0.0249279 255 0 0
0.0694577 -0.0789324 -0.0252444 255 0 0
0.0713391 -0.0790799 -0.0249706 255 0 0
0.0679976 -0.0764225 -0.0252271 255 0 0
0.0686627 -0.0771792 -0.0246928 255 0 0
0.0708658 -0.0771579 -0.0246609 255 0 0
0.0671699 -0.074559 -0.0252537 255 0 0
0.0693935 -0.0748281 -0.0247922 255 0 0
0.0703348 -0.0757346 -0.0253381 255 0 0
0.0652302 -0.0726607 -0.0246502 255 0 0
0.0666099 -0.0730586 -0.0250989 255 0 0
0.0686007 -0.0733595 -0.0252535 255 0 0
0.0628615 -0.0705695 -0.0249347 255 0 0
0.064974 -0.0710405 -0.0250751 255 0 0
0.0667256 -0.0709287 -0.0246694 255 0 0
0.0680889 -0.0713013 -0.025264 255 0 0
0.0608135 -0.0687921 -0.0251333 255 0 0
0.0651144 -0.0688939 -0.0250318 255 0 0
0.0670222 -0.069013 -0.0251134 255 0 0
0.0523575 -0.0670826 -0.0254609 255 0 0
0.0594566 -0.0673876 -0.024973 255 0 0
0.0631655 -0.066585 -0.0249774 255 0 0
0.0647231 -0.0674806 -0.0245818 255 0 0
0.0528932 -0.0651406 -0.0254786 255 0 0
0.0550219 -0.0653278 -0.0250148 255 0 0
0.0570046 -0.0652567 -0.0250402 255 0 0
0.0583739 -0.0648716 -0.0247039 255 0 0
0.0610554 -0.0651151 -0.0250983 255 0 0
0.0626968 -0.0649462 -0.0245083 255 0 0
0.0529714 -0.0632146 -0.0248708 255 0 0
0.0577362 -0.0628422 -0.0249506 255 0 0
0.0524635 -0.0610521 -0.02506 255 0 0
0.0573503 -0.061121 -0.0251478 255 0 0
0.0523518 -0.0591316 -0.0250688 255 0 0
0.0567337 -0.0592507 -0.0248262 255 0 0
0.0523304 -0.0577862 -0.024889 255 0 0
0.0555486 -0.0562897 -0.0246588 255 0 0
0.0563083 -0.0568887 -0.024587 255 0 0
0.0553323 -0.0551088 -0.0252936 255 0 0
0.0560681 -0.0553548 -0.0242693 255 0 0
0.0548493 -0.0531275 -0.0247743 255 0 0
0.11922 -0.136077 -0.0236831 255 0 0
0.120728 -0.13748 -0.0237702 255 0 0
0.116967 -0.134333 -0.0233365 255 0 0
0.118217 -0.135145 -0.0236253 255 0 0
0.113368 -0.132858 -0.0236916 255 0 0
0.115104 -0.133122 -0.022906 255 0 0
0.11747 -0.13379 -0.0222602 255 0 0
0.111394 -0.131017 -0.0235776 255 0 0
0.112759 -0.131458 -0.0224504 255 0 0
0.115396 -0.130886 -0.0236637 255 0 0
0.117122 -0.130699 -0.0239139 255 0 0
0.118428 -0.130855 -0.0235284 255 0 0
0.120188 -0.130697 -0.023495 255 0 0
0.109426 -0.128336 -0.0231318 255 0 0
0.110699 -0.129528 -0.0229139 255 0 0
0.113105 -0.128519 -0.0233546 255 0 0
0.115221 -0.128747 -0.0224068 255 0 0
0.117152 -0.129144 -0.0231266 255 0 0
0.118771 -0.129031 -0.0228069 255 0 0
0.120086 -0.129184 -0.0224179 255 0 0
0.10854 -0.126801 -0.0232825 255 0 0
0.111461 -0.127164 -0.0237455 255 0 0
0.112419 -0.126819 -0.0227796 255 0 0
0.114727 -0.127112 -0.0232989 255 0 0
0.116878 -0.127338 -0.0229109 255 0 0
0.107328 -0.125018 -0.0230004 255 0 0
0.108901 -0.124688 -0.0235293 255 0 0
0.11099 -0.125392 -0.0227777 255 0 0
0.113175 -0.124967 -0.0238337 255 0 0
0.114982 -0.124764 -0.0228078 255 0 0
0.116645 -0.125731 -0.0223197 255 0 0
0.105841 -0.122942 -0.0233449 255 0 0
0.10673 -0.123134 -0.0229351 255 0 0
0.108525 -0.123142 -0.0228677 255 0 0
0.111094 -0.122181 -0.0237059 255 0 0
0.112802 -0.123101 -0.023263 255 0 0
0.114555 -0.122936 -0.0221912 255 0 0
0.103149 -0.120093 -0.0234048 255 0 0
0.105087 -0.121075 -0.0231483 255 0 0
0.106664 -0.121181 -0.022979 255 0 0
0.108455 -0.120901 -0.0237651 255 0 0
0.110806 -0.120774 -0.0235364 255 0 0
0.113076 -0.121302 -0.0224968 255 0 0
0.101437 -0.118155 -0.0235207 255 0 0
0.102994 -0.118911 -0.0230215 255 0 0
0.104801 -0.119341 -0.0231221 255 0 0
0.106746 -0.118854 -0.0231025 255 0 0
0.108876 -0.118979 -0.0231343 255 0 0
0.110969 -0.119055 -0.0226828 255 0 0
0.112681 -0.119974 -0.0222378 255 0 0
0.0979061 -0.116032 -0.0238354 255 0 0
0.0991471 -0.116161 -0.023454 255 0 0
0.101304 -0.116936 -0.0230618 255 0 0
0.102655 -0.117388 -0.0231271 255 0 0
0.104969 -0.11723 -0.0224209 255 0 0
0.107215 -0.116823 -0.0224901 255 0 0
0.108878 -0.117389 -0.0221517 255 0 0
0.0952921 -0.114577 -0.0229102 255 0 0
0.0968356 -0.115322 -0.0229854 255 0 0
0.0995483 -0.114442 -0.0231673 255 0 0
0.101085 -0.115226 -0.0225557 255 0 0
0.10256 -0.115483 -0.0224712 255 0 0
0.105042 -0.115411 -0.0223368 255 0 0
0.106454 -0.115954 -0.0223907 255 0 0
0.0932101 -0.112817 -0.0229072 255 0 0
0.0940765 -0.113688 -0.0235817 255 0 0
0.0977352 -0.112125 -0.0235583 255 0 0
0.0989796 -0.11309 -0.0233152 255 0 0
0.100583 -0.113051 -0.0230233 255 0 0
0.103666 -0.113214 -0.0230312 255 0 0
0.0918044 -0.110163 -0.0225975 255 0 0
0.0922955 -0.111374 -0.0229329 255 0 0
0.0974479 -0.111058 -0.023071 255 0 0
0.0991068 -0.111113 -0.0231048 255 0 0
0.101796 -0.111344 -0.0230923 255 0 0
0.0906903 -0.108832 -0.0231512 255 0 0
0.0954108 -0.108954 -0.0233379 255 0 0
0.096699 -0.109608 -0.0229798 255 0 0
0.0985888 -0.108968 -0.0239656 255 0 0
0.0893233 -0.106694 -0.0228401 255 0 0
0.0910621 -0.106268 -0.0239158 255 0 0
0.092926 -0.106766 -0.0231187 255 0 0
0.0951586 -0.106798 -0.022518 255 0 0
0.0967325 -0.107424 -0.022442 255 0 0
0.0875956 -0.104914 -0.0221919 255 0 0
0.0886504 -0.104822 -0.0232634 255 0 0
0.0912074 -0.105028 -0.0230135 255 0 0
0.0927475 -0.105677 -0.0225622 255 0 0
0.0946265 -0.104498 -0.0225308 255 0 0
0.0870614 -0.102797 -0.0231864 255 0 0
0.0891058 -0.102624 -0.0231281 255 0 0
0.0908324 -0.10265 -0.0232251 255 0 0
0.0932923 -0.103092 -0.0225616 255 0 0
0.0856637 -0.100685 -0.0230936 255 0 0
0.0876789 -0.10081 -0.0228431 255 0 0
0.0888449 -0.101466 -0.0231028 255 0 0
0.0905533 -0.101272 -0.0224124 255 0 0
0.0856445 -0.0986082 -0.0236054 255 0 0
0.0868442 -0.0993488 -0.0226205 255 0 0
0.0837716 -0.0965419 -0.0233839 255 0 0
0.0853126 -0.0974303 -0.0227214 255 0 0
0.0867434 -0.0975748 -0.0222508 255 0 0
0.0819999 -0.0946704 -0.022448 255 0 0
0.0833628 -0.0949578 -0.0232466 255 0 0
0.0848988 -0.0956891 -0.0226211 255 0 0
0.08158 -0.0928852 -0.0230554 255 0 0
0.0826855 -0.0935313 -0.0229253 255 0 0
0.0794968 -0.0904752 -0.0226516 255 0 0
0.0807753 -0.091116 -0.0232115 255 0 0
0.0825144 -0.0914239 -0.022199 255 0 0
0.0779393 -0.0881992 -0.0231511 255 0 0
0.0792054 -0.0892163 -0.0230717 255 0 0
0.0801959 -0.0898311 -0.0224145 255 0 0
0.0759855 -0.086271 -0.0235081 255 0 0
0.0770012 -0.0868425 -0.0231186 255 0 0
0.0785918 -0.0874808 -0.0223613 255 0 0
0.0715091 -0.0841326 -0.0228565 255 0 0
0.0754495 -0.0848853 -0.0229104 255 0 0
0.0768533 -0.0847915 -0.0230505 255 0 0
0.0718625 -0.0824533 -0.0234908 255 0 0
0.0733054 -0.0826455 -0.023147 255 0 0
0.0745341 -0.0831123 -0.0228612 255 0 0
0.0770973 -0.083749 -0.022068 255 0 0
0.0714065 -0.0804975 -0.0234815 255 0 0
0.0728873 -0.081188 -0.022721 255 0 0
0.0747353 -0.0816531 -0.0220636 255 0 0
0.0694832 -0.0788854 -0.023341 255 0 0
0.0707621 -0.079219 -0.022998 255 0 0
0.0725299 -0.0792758 -0.0226991 255 0 0
0.0692553 -0.0770945 -0.0230013 255 0 0
0.0709736 -0.0770146 -0.0229666 255 0 0
0.0674608 -0.0749652 -0.0232497 255 0 0
0.0688483 -0.0753354 -0.0227181 255 0 0
0.070024 -0.0749036 -0.0225376 255 0 0
0.0649723 -0.0723596 -0.023052 255 0 0
0.0670531 -0.0732156 -0.022881 255 0 0
0.0688254 -0.0733959 -0.023094 255 0 0
0.0634377 -0.0710616 -0.0228436 255 0 0
0.0671972 -0.0711741 -0.0228173 255 0 0
0.0598794 -0.0681747 -0.0230625 255 0 0
0.0611898 -0.0691435 -0.0231795 255 0 0
0.0621479 -0.0695868 -0.0227144 255 0 0
0.0657324 -0.0689746 -0.0230426 255 0 0
0.0664475 -0.0697855 -0.0226781 255 0 0
0.0591902 -0.0667147 -0.0231535 255 0 0
0.060708 -0.0679029 -0.0220958 255 0 0
0.0638972 -0.0662179 -0.0228366 255 0 0
0.0648285 -0.0670803 -0.0228578 255 0 0
0.055124 -0.0642323 -0.0234031 255 0 0
0.0585655 -0.0649521 -0.0232483 255 0 0
0.0613973 -0.064551 -0.0233319 255 0 0
0.0629752 -0.065351 -0.0232113 255 0 0
0.0533372 -0.0623098 -0.0235199 255 0 0
0.0545503 -0.0633796 -0.0226182 255 0 0
0.0577406 -0.062633 -0.022621 255 0 0
0.0583573 -0.0637788 -0.0225623 255 0 0
0.0631199 -0.0631073 -0.0224954 255 0 0
0.0528223 -0.0611028 -0.0231201 255 0 0
0.0570054 -0.0609059 -0.0228919 255 0 0
0.0523584 -0.0592855 -0.0229716 255 0 0
0.0557434 -0.0584036 -0.0222947 255 0 0
0.0563831 -0.0590794 -0.0232029 255 0 0
0.051566 -0.0574254 -0.0220554 255 0 0
0.0520875 -0.0575638 -0.0235309 255 0 0
0.0554807 -0.0573938 -0.0229911 255 0 0
0.0568366 -0.0565491 -0.0229432 255 0 0
0.058068 -0.0573806 -0.0220154 255 0 0
0.05522 -0.0551854 -0.0228539 255 0 0
0.0562043 -0.0555249 -0.0227719 255 0 0
0.114986 -0.13218 -0.0216914 255 0 0
0.116849 -0.132532 -0.021781 255 0 0
0.113502 -0.130799 -0.0216089 255 0 0
0.115231 -0.130354 -0.021248 255 0 0
0.116722 -0.131033 -0.0217605 255 0 0
0.111038 -0.128508 -0.0214722 255 0 0
0.112022 -0.129423 -0.0215267 255 0 0
0.109445 -0.126353 -0.0209438 255 0 0
0.110797 -0.127501 -0.0208004 255 0 0
0.113378 -0.126474 -0.021812 255 0 0
0.117512 -0.126203 -0.0215802 255 0 0
0.118635 -0.127016 -0.0213733 255 0 0
0.107593 -0.124611 -0.0217072 255 0 0
0.108703 -0.125317 -0.0211156 255 0 0
0.111549 -0.124216 -0.0212217 255 0 0
0.112623 -0.125287 -0.0216239 255 0 0
0.116901 -0.125041 -0.0211464 255 0 0
0.107161 -0.123077 -0.0215529 255 0 0
0.108766 -0.12302 -0.0206086 255 0 0
0.110479 -0.12315 -0.0208216 255 0 0
0.115388 -0.122905 -0.0210939 255 0 0
0.116289 -0.123881 -0.0207131 255 0 0
0.106762 -0.121009 -0.0209876 255 0 0
0.108515 -0.120975 -0.0209315 255 0 0
0.113767 -0.120279 -0.021672 255 0 0
0.114803 -0.121359 -0.0208087 255 0 0
0.103093 -0.118152 -0.0215114 255 0 0
0.104791 -0.11896 -0.0214569 255 0 0
0.106412 -0.119311 -0.0210261 255 0 0
0.108346 -0.11887 -0.0204917 255 0 0
0.113313 -0.118832 -0.020904 255 0 0
0.114567 -0.119744 -0.0202143 255 0 0
0.101422 -0.116215 -0.020855 255 0 0
0.103026 -0.117054 -0.0213242 255 0 0
0.104924 -0.116786 -0.0208523 255 0 0
0.107076 -0.117174 -0.0209071 255 0 0
0.108809 -0.116385 -0.021438 255 0 0
0.110885 -0.116998 -0.0212945 255 0 0
0.112617 -0.117366 -0.0205314 255 0 0
0.0971918 -0.114571 -0.0219272 255 0 0
0.0992554 -0.11434 -0.0211015 255 0 0
0.100993 -0.114714 -0.0209003 255 0 0
0.102822 -0.115119 -0.0208232 255 0 0
0.104662 -0.115206 -0.0207001 255 0 0
0.106966 -0.114811 -0.0209453 255 0 0
0.108741 -0.11538 -0.0207242 255 0 0
0.110783 -0.115486 -0.02022 255 0 0
0.0933784 -0.112241 -0.0216852 255 0 0
0.0949153 -0.113211 -0.0211642 255 0 0
0.0968983 -0.113268 -0.0207131 255 0 0
0.0992522 -0.1128 -0.0208575 255 0 0
0.100583 -0.113321 -0.0206577 255 0 0
0.103457 -0.113231 -0.0209385 255 0 0
0.104803 -0.113499 -0.0208312 255 0 0
0.106042 -0.113123 -0.0200842 255 0 0
0.0930064 -0.110783 -0.0209998 255 0 0
0.0949557 -0.111615 -0.0202475 255 0 0
0.0978383 -0.110577 -0.0219605 255 0 0
0.0986525 -0.11105 -0.0209806 255 0 0
0.102772 -0.111615 -0.0203603 255 0 0
0.0909785 -0.108783 -0.0212882 255 0 0
0.0922708 -0.109419 -0.0205855 255 0 0
0.0972059 -0.108886 -0.0213935 255 0 0
0.0893563 -0.106822 -0.0214488 255 0 0
0.0904614 -0.107116 -0.0202609 255 0 0
0.0938999 -0.106847 -0.0217559 255 0 0
0.0950293 -0.10713 -0.0209402 255 0 0
0.096108 -0.107138 -0.0203274 255 0 0
0.0871677 -0.104294 -0.0211643 255 0 0
0.0885811 -0.105328 -0.0208922 255 0 0
0.0912065 -0.104339 -0.0213847 255 0 0
0.0934492 -0.104762 -0.0207977 255 0 0
0.095202 -0.105684 -0.02045 255 0 0
0.08583 -0.102236 -0.0201655 255 0 0
0.0866766 -0.103084 -0.0208311 255 0 0
0.0896683 -0.102338 -0.0207518 255 0 0
0.0904694 -0.103092 -0.0208818 255 0 0
0.092797 -0.103006 -0.0207751 255 0 0
0.0851285 -0.101102 -0.0207018 255 0 0
0.0876225 -0.100723 -0.0214547 255 0 0
0.0888993 -0.100949 -0.0211154 255 0 0
0.0910307 -0.100834 -0.0209377 255 0 0
0.0924024 -0.10199 -0.020994 255 0 0
0.0845671 -0.0992911 -0.0210588 255 0 0
0.0875666 -0.0991228 -0.021249 255 0 0
0.088788 -0.0991979 -0.0212923 255 0 0
0.0905843 -0.0997215 -0.0205794 255 0 0
0.0836156 -0.0973533 -0.0207358 255 0 0
0.0853166 -0.0970062 -0.0213673 255 0 0
0.0871819 -0.096708 -0.0210864 255 0 0
0.0883168 -0.0970328 -0.0206482 255 0 0
0.0816057 -0.0946435 -0.0206186 255 0 0
0.0835191 -0.0946243 -0.0211124 255 0 0
0.0851091 -0.0947893 -0.0212414 255 0 0
0.0869842 -0.0955798 -0.020681 255 0 0
0.0810659 -0.0925825 -0.0214439 255 0 0
0.0833418 -0.0927624 -0.0212936 255 0 0
0.0846704 -0.0929535 -0.0208581 255 0 0
0.0882234 -0.0937025 -0.0200712 255 0 0
0.0766364 -0.0909161 -0.0214591 255 0 0
0.0788938 -0.09127 -0.0208077 255 0 0
0.0817126 -0.0908534 -0.021324 255 0 0
0.0830995 -0.0906866 -0.0210546 255 0 0
0.0843378 -0.0909381 -0.0201865 255 0 0
0.0769931 -0.089197 -0.0207976 255 0 0
0.0789412 -0.0889174 -0.0214402 255 0 0
0.0810053 -0.0890769 -0.0209508 255 0 0
0.0758663 -0.0862744 -0.0205184 255 0 0
0.0767412 -0.087429 -0.0211382 255 0 0
0.078809 -0.0870495 -0.0212237 255 0 0
0.0801281 -0.0873011 -0.0202798 255 0 0
0.0738831 -0.0844855 -0.0212058 255 0 0
0.0751983 -0.0845449 -0.0212919 255 0 0
0.0774542 -0.0851694 -0.0211603 255 0 0
0.0785148 -0.0854188 -0.0205601 255 0 0
0.0731149 -0.0828536 -0.0215353 255 0 0
0.0747655 -0.0827734 -0.0209573 255 0 0
0.0767862 -0.0833538 -0.0209883 255 0 0
0.0731116 -0.0807893 -0.0211578 255 0 0
0.0747386 -0.0808416 -0.0206095 255 0 0
0.076399 -0.0806229 -0.0201087 255 0 0
0.071674 -0.0785692 -0.0211543 255 0 0
0.0728967 -0.0791479 -0.0208785 255 0 0
0.0747982 -0.0790394 -0.0201804 255 0 0
0.0695355 -0.0765848 -0.0213193 255 0 0
0.0709501 -0.0772283 -0.0206961 255 0 0
0.0727864 -0.0771037 -0.0209669 255 0 0
0.0689954 -0.0749943 -0.0209418 255 0 0
0.0708457 -0.0750829 -0.021073 255 0 0
0.0654177 -0.0720541 -0.0215044 255 0 0
0.0669584 -0.0729499 -0.020949 255 0 0
0.068543 -0.0732749 -0.0206224 255 0 0
0.0636574 -0.0703968 -0.0214112 255 0 0
0.0649902 -0.0711603 -0.020668 255 0 0
0.0667754 -0.071371 -0.0207434 255 0 0
0.0619093 -0.0687504 -0.0213193 255 0 0
0.0629486 -0.0691315 -0.0208759 255 0 0
0.0658509 -0.068742 -0.0212966 255 0 0
0.0669142 -0.0690814 -0.0206335 255 0 0
0.0595076 -0.0660412 -0.021557 255 0 0
0.0607059 -0.0672239 -0.021219 255 0 0
0.06214 -0.0675427 -0.0200772 255 0 0
0.065485 -0.0669784 -0.021253 255 0 0
0.0664666 -0.0674087 -0.020421 255 0 0
0.059553 -0.0647853 -0.0208794 255 0 0
0.0608873 -0.0649156 -0.0210144 255 0 0
0.0634847 -0.0645426 -0.0214016 255 0 0
0.06455 -0.0653724 -0.0210456 255 0 0
0.0548183 -0.0631017 -0.0209958 255 0 0
0.0588474 -0.063405 -0.0207586 255 0 0
0.0617657 -0.0636654 -0.0203107 255 0 0
0.0634866 -0.0637641 -0.0209116 255 0 0
0.0530384 -0.0611923 -0.0211244 255 0 0
0.056955 -0.0611775 -0.0208688 255 0 0
0.0518312 -0.058747 -0.0207468 255 0 0
0.0522057 -0.0596325 -0.0214358 255 0 0
0.055656 -0.0588961 -0.0210252 255 0 0
0.0562496 -0.0598165 -0.0212928 255 0 0
0.0533665 -0.0563878 -0.0206711 255 0 0
0.054548 -0.0573316 -0.0209522 255 0 0
0.0575839 -0.0571302 -0.0209887 255 0 0
0.0559396 -0.0544923 -0.0213089 255 0 0
0.0565701 -0.0555129 -0.0214782 255 0 0
0.11255 -0.126721 -0.0188693 255 0 0
0.109808 -0.124324 -0.0198553 255 0 0
0.111433 -0.124961 -0.0193923 255 0 0
0.112599 -0.125261 -0.0184142 255 0 0
0.110948 -0.122969 -0.0187402 255 0 0
0.112171 -0.123972 -0.0184413 255 0 0
0.109234 -0.120765 -0.0196126 255 0 0
0.11018 -0.121027 -0.0186071 255 0 0
0.107198 -0.118982 -0.0197874 255 0 0
0.108955 -0.119291 -0.0187538 255 0 0
0.110644 -0.119456 -0.0182028 255 0 0
0.101506 -0.116447 -0.0195864 255 0 0
0.105363 -0.116781 -0.0194306 255 0 0
0.10719 -0.117272 -0.0191165 255 0 0
0.109222 -0.117064 -0.0185139 255 0 0
0.101031 -0.114536 -0.0192541 255 0 0
0.103411 -0.115309 -0.0196893 255 0 0
0.107909 -0.115419 -0.0193853 255 0 0
0.109212 -0.114526 -0.0197274 255 0 0
0.111468 -0.114454 -0.0193913 255 0 0
0.112622 -0.115765 -0.019541 255 0 0
0.0996803 -0.112738 -0.0193449 255 0 0
0.100761 -0.113211 -0.0193361 255 0 0
0.103231 -0.112054 -0.0199887 255 0 0
0.105132 -0.112236 -0.0193998 255 0 0
0.106975 -0.113008 -0.0190797 255 0 0
0.108933 -0.113695 -0.0188428 255 0 0
0.094888 -0.110635 -0.0195524 255 0 0
0.0968587 -0.111217 -0.0194022 255 0 0
0.0985722 -0.110979 -0.0193134 255 0 0
0.100891 -0.110688 -0.0192212 255 0 0
0.102927 -0.110735 -0.0187585 255 0 0
0.104625 -0.11106 -0.0183508 255 0 0
0.0933623 -0.109133 -0.0197697 255 0 0
0.0951988 -0.109307 -0.0191882 255 0 0
0.0973374 -0.108771 -0.0192873 255 0 0
0.0983629 -0.109347 -0.0193 255 0 0
0.100938 -0.109067 -0.0182895 255 0 0
0.0915326 -0.106243 -0.0198174 255 0 0
0.0930816 -0.107163 -0.0196538 255 0 0
0.0953782 -0.10705 -0.0195256 255 0 0
0.0965794 -0.107493 -0.0185942 255 0 0
0.0987267 -0.106993 -0.0183535 255 0 0
0.0890046 -0.104556 -0.0195502 255 0 0
0.0913775 -0.104617 -0.0195276 255 0 0
0.0929846 -0.104724 -0.0192011 255 0 0
0.0948637 -0.10537 -0.0190029 255 0 0
0.096485 -0.105084 -0.0187843 255 0 0
0.0869176 -0.103113 -0.0189295 255 0 0
0.0887214 -0.10327 -0.0183471 255 0 0
0.0907947 -0.103142 -0.018751 255 0 0
0.0934416 -0.1032 -0.0190988 255 0 0
0.0947966 -0.103096 -0.0184535 255 0 0
0.0970352 -0.103385 -0.0182129 255 0 0
0.085199 -0.100698 -0.0190334 255 0 0
0.0892112 -0.100636 -0.0191785 255 0 0
0.0911395 -0.100842 -0.0192814 255 0 0
0.0925177 -0.101233 -0.0185928 255 0 0
0.0839357 -0.0983768 -0.0195223 255 0 0
0.0842532 -0.0993936 -0.0183171 255 0 0
0.0888722 -0.098942 -0.0189513 255 0 0
0.090634 -0.0991723 -0.0191071 255 0 0
0.0829318 -0.0971351 -0.0187501 255 0 0
0.0874528 -0.0970786 -0.0192535 255 0 0
0.0889591 -0.0976225 -0.0192785 255 0 0
0.0902687 -0.0968637 -0.0185856 255 0 0
0.0810975 -0.0948421 -0.0187464 255 0 0
0.0833884 -0.0942077 -0.0195242 255 0 0
0.0853103 -0.0952326 -0.0191864 255 0 0
0.0866994 -0.0949954 -0.0191746 255 0 0
0.089426 -0.0951144 -0.0191182 255 0 0
0.0799318 -0.0929759 -0.0192905 255 0 0
0.0816592 -0.0926863 -0.0190544 255 0 0
0.0828754 -0.09308 -0.0186869 255 0 0
0.0870977 -0.0926069 -0.0190885 255 0 0
0.0887261 -0.0931809 -0.0190113 255 0 0
0.0790245 -0.0912277 -0.0193106 255 0 0
0.0805119 -0.0911922 -0.0190043 255 0 0
0.0854182 -0.0911696 -0.0188269 255 0 0
0.0868813 -0.091271 -0.0182512 255 0 0
0.0773583 -0.0889163 -0.0189471 255 0 0
0.0782903 -0.0892429 -0.0187253 255 0 0
0.0813971 -0.0887807 -0.0190167 255 0 0
0.0830901 -0.0890909 -0.0190083 255 0 0
0.0843312 -0.0898712 -0.0188187 255 0 0
0.0867415 -0.0889534 -0.0186608 255 0 0
0.075864 -0.0866022 -0.0183687 255 0 0
0.0768446 -0.0867864 -0.0189169 255 0 0
0.0794039 -0.0867695 -0.0195694 255 0 0
0.0804828 -0.0871538 -0.0191032 255 0 0
0.0852594 -0.086882 -0.0190027 255 0 0
0.0752022 -0.084981 -0.0191793 255 0 0
0.077151 -0.0846475 -0.0185483 255 0 0
0.0792478 -0.0855835 -0.0189982 255 0 0
0.0806197 -0.0852041 -0.0183048 255 0 0
0.0732293 -0.0826455 -0.0188689 255 0 0
0.0750664 -0.0835087 -0.0187142 255 0 0
0.0765599 -0.083306 -0.0192514 255 0 0
0.0790491 -0.0831212 -0.0193072 255 0 0
0.0729741 -0.0807265 -0.0193178 255 0 0
0.0751125 -0.0814231 -0.0191485 255 0 0
0.0768177 -0.0814683 -0.0187573 255 0 0
0.0789351 -0.0806919 -0.0180022 255 0 0
0.0718074 -0.0785872 -0.0193858 255 0 0
0.0731092 -0.0790574 -0.0194293 255 0 0
0.0748357 -0.0789909 -0.0188692 255 0 0
0.0771482 -0.0791323 -0.0180191 255 0 0
0.071058 -0.076474 -0.0191047 255 0 0
0.0728664 -0.07721 -0.0184745 255 0 0
0.0749205 -0.0769578 -0.0186037 255 0 0
0.0694555 -0.0742766 -0.0192811 255 0 0
0.0704103 -0.0748645 -0.0188738 255 0 0
0.073019 -0.0749538 -0.0192249 255 0 0
0.0740175 -0.0753494 -0.0184417 255 0 0
0.0674918 -0.0726471 -0.0197385 255 0 0
0.0688646 -0.0730005 -0.0186956 255 0 0
0.0709299 -0.0729003 -0.0193253 255 0 0
0.0720243 -0.0732661 -0.0185891 255 0 0
0.0645637 -0.0702686 -0.0198333 255 0 0
0.0669521 -0.0710982 -0.0188358 255 0 0
0.0688841 -0.0709889 -0.0193083 255 0 0
0.0700539 -0.0712057 -0.0187351 255 0 0
0.0636511 -0.0688603 -0.0194297 255 0 0
0.0654697 -0.0692488 -0.0191022 255 0 0
0.0671369 -0.0686337 -0.0191528 255 0 0
0.0684183 -0.0690944 -0.0190065 255 0 0
0.061536 -0.0666091 -0.0198087 255 0 0
0.0628975 -0.0669895 -0.0186361 255 0 0
0.0649712 -0.0675635 -0.018812 255 0 0
0.0669734 -0.0669289 -0.0192516 255 0 0
0.0682493 -0.0675619 -0.0181199 255 0 0
0.0611983 -0.0646475 -0.0191603 255 0 0
0.0628621 -0.0646538 -0.0188815 255 0 0
0.0650669 -0.0650364 -0.0191222 255 0 0
0.0663117 -0.0657202 -0.0189016 255 0 0
0.0539093 -0.0624455 -0.0195867 255 0 0
0.0548873 -0.0624757 -0.0185408 255 0 0
0.0594119 -0.0624583 -0.0194468 255 0 0
0.0609614 -0.0632369 -0.0187622 255 0 0
0.0632113 -0.0635579 -0.0186007 255 0 0
0.0529525 -0.0607687 -0.0192306 255 0 0
0.0572758 -0.0604816 -0.0191927 255 0 0
0.0585966 -0.0613048 -0.0188801 255 0 0
0.0515431 -0.0580432 -0.0191262 255 0 0
0.0520011 -0.0591018 -0.0188766 255 0 0
0.0555207 -0.0586151 -0.0192875 255 0 0
0.0572229 -0.0593146 -0.0183486 255 0 0
0.0524149 -0.0575957 -0.0183793 255 0 0
0.0543458 -0.0578005 -0.0186041 255 0 0
0.0565584 -0.0565525 -0.0196896 255 0 0
0.0556172 -0.0550271 -0.0194396 255 0 0
0.110452 -0.118819 -0.0169571 255 0 0
0.110265 -0.117306 -0.0174112 255 0 0
0.0996227 -0.112217 -0.0175653 255 0 0
0.101178 -0.11348 -0.0177499 255 0 0
0.107562 -0.112655 -0.0174665 255 0 0
0.109401 -0.112841 -0.0178458 255 0 0
0.0989677 -0.111033 -0.0170447 255 0 0
0.105017 -0.110827 -0.0172792 255 0 0
0.106529 -0.111496 -0.0168192 255 0 0
0.101497 -0.10813 -0.0173865 255 0 0
0.103321 -0.10889 -0.0170621 255 0 0
0.104949 -0.10983 -0.0165706 255 0 0
0.0940786 -0.106255 -0.0178658 255 0 0
0.096866 -0.106918 -0.0168286 255 0 0
0.0995138 -0.106372 -0.0179706 255 0 0
0.100879 -0.107153 -0.0174009 255 0 0
0.102687 -0.107248 -0.0162823 255 0 0
0.0926564 -0.104968 -0.0173334 255 0 0
0.0954194 -0.104826 -0.0170271 255 0 0
0.0963475 -0.105675 -0.0178306 255 0 0
0.0992681 -0.104767 -0.0173823 255 0 0
0.100963 -0.105313 -0.0163889 255 0 0
0.0872702 -0.102371 -0.0178815 255 0 0
0.0886535 -0.102294 -0.0176548 255 0 0
0.0908629 -0.102884 -0.0170587 255 0 0
0.0935254 -0.102325 -0.0172947 255 0 0
0.0943958 -0.103203 -0.0169495 255 0 0
0.0970631 -0.102298 -0.0175902 255 0 0
0.0990205 -0.10316 -0.0167935 255 0 0
0.0867035 -0.100722 -0.0171619 255 0 0
0.0894037 -0.100529 -0.0168999 255 0 0
0.0904064 -0.101256 -0.017167 255 0 0
0.0927289 -0.100622 -0.0171353 255 0 0
0.095224 -0.101057 -0.0175617 255 0 0
0.097277 -0.100894 -0.0166644 255 0 0
0.0987728 -0.101549 -0.0162035 255 0 0
0.0847697 -0.0990545 -0.0173818 255 0 0
0.0871836 -0.0986631 -0.0166502 255 0 0
0.0892732 -0.0989733 -0.0169503 255 0 0
0.091486 -0.0988501 -0.0168117 255 0 0
0.0929908 -0.098499 -0.0172757 255 0 0
0.0948837 -0.0991418 -0.0170327 255 0 0
0.0966547 -0.099384 -0.016353 255 0 0
0.0818446 -0.0961005 -0.01719 255 0 0
0.0833357 -0.0966733 -0.0167925 255 0 0
0.0846265 -0.0975871 -0.0166615 255 0 0
0.0873064 -0.0970737 -0.0170823 255 0 0
0.0886164 -0.0971921 -0.0167894 255 0 0
0.0909317 -0.0972142 -0.0167116 255 0 0
0.0931709 -0.0967254 -0.0164661 255 0 0
0.0945407 -0.0972229 -0.016503 255 0 0
0.0808507 -0.0948694 -0.0164269 255 0 0
0.0874703 -0.0949419 -0.0169902 255 0 0
0.0902813 -0.0950508 -0.0171711 255 0 0
0.0792147 -0.0928432 -0.0172679 255 0 0
0.0837543 -0.0927239 -0.0177608 255 0 0
0.0848888 -0.093167 -0.0173237 255 0 0
0.0866295 -0.092915 -0.0166092 255 0 0
0.0894772 -0.0932023 -0.0169539 255 0 0
0.0778666 -0.0907297 -0.0169624 255 0 0
0.0784054 -0.0913532 -0.0170325 255 0 0
0.0809601 -0.0907615 -0.0175132 255 0 0
0.0832514 -0.0911293 -0.0167817 255 0 0
0.0869184 -0.090643 -0.0168175 255 0 0
0.0884221 -0.0916129 -0.017264 255 0 0
0.0770053 -0.0887089 -0.0167221 255 0 0
0.0790354 -0.0886368 -0.0173192 255 0 0
0.0805756 -0.0893593 -0.0165688 255 0 0
0.0831366 -0.0881601 -0.0170252 255 0 0
0.0848394 -0.0893476 -0.017007 255 0 0
0.0868258 -0.0887709 -0.0171611 255 0 0
0.0753894 -0.08684 -0.0165176 255 0 0
0.0762109 -0.0876575 -0.0171699 255 0 0
0.0790066 -0.0870436 -0.0166388 255 0 0
0.0812899 -0.086882 -0.0173651 255 0 0
0.0822222 -0.0873476 -0.0166758 255 0 0
0.0853268 -0.0869592 -0.0167928 255 0 0
0.0738248 -0.0843911 -0.0160487 255 0 0
0.0743844 -0.0847718 -0.017217 255 0 0
0.0776418 -0.0848649 -0.0168027 255 0 0
0.0788242 -0.0850065 -0.0168661 255 0 0
0.0809623 -0.0847748 -0.0171173 255 0 0
0.0831502 -0.0852396 -0.0170752 255 0 0
0.0731916 -0.0831389 -0.0166562 255 0 0
0.0755855 -0.0825407 -0.0173354 255 0 0
0.0773084 -0.0833689 -0.0170076 255 0 0
0.0799946 -0.0830373 -0.0174606 255 0 0
0.0810948 -0.0831055 -0.0168897 255 0 0
0.0728071 -0.081286 -0.0169585 255 0 0
0.075236 -0.0809726 -0.017396 255 0 0
0.0766587 -0.0812483 -0.017021 255 0 0
0.0794038 -0.0812096 -0.0169908 255 0 0
0.0718927 -0.0790505 -0.0169181 255 0 0
0.0727778 -0.0793348 -0.0170074 255 0 0
0.0754219 -0.078819 -0.0173069 255 0 0
0.0766585 -0.0788282 -0.0168503 255 0 0
0.0789188 -0.0788853 -0.0165008 255 0 0
0.0711488 -0.0770252 -0.016674 255 0 0
0.073824 -0.0765367 -0.0170545 255 0 0
0.0747467 -0.0770622 -0.0165438 255 0 0
0.0767065 -0.0767908 -0.0165969 255 0 0
0.0695191 -0.074312 -0.0170935 255 0 0
0.0709633 -0.0751236 -0.0172574 255 0 0
0.0726101 -0.0754057 -0.0170009 255 0 0
0.0749649 -0.0751073 -0.0169237 255 0 0
0.0761898 -0.0754589 -0.0162176 255 0 0
0.0690453 -0.0723884 -0.0170633 255 0 0
0.070986 -0.0736432 -0.0167675 255 0 0
0.0729635 -0.0730232 -0.0170794 255 0 0
0.0748275 -0.0729555 -0.0165406 255 0 0
0.076021 -0.0737589 -0.0163166 255 0 0
