ply
format ascii 1.0
element vertex 1260
property float x
property float y
property float z
property uchar diffuse_red
property uchar diffuse_green
property uchar diffuse_blue
end_header
0.134987 -0.163308 -0.0348781 255 0 0
0.1372 -0.162903 -0.0359214 255 0 0
0.138818 -0.163113 -0.0348757 255 0 0
0.143574 -0.16239 -0.0350203 255 0 0
0.144892 -0.163736 -0.0348209 255 0 0
0.133389 -0.160893 -0.0347399 255 0 0
0.134426 -0.161886 -0.0340395 255 0 0
0.136953 -0.160802 -0.0348675 255 0 0
0.141475 -0.161177 -0.0356578 255 0 0
0.143055 -0.160923 -0.0347793 255 0 0
0.131975 -0.158044 -0.035185 255 0 0
0.132789 -0.15944 -0.0352687 255 0 0
0.135132 -0.159046 -0.035319 255 0 0
0.136143 -0.159023 -0.0341125 255 0 0
0.139558 -0.158489 -0.0346442 255 0 0
0.140514 -0.159829 -0.0351495 255 0 0
0.142087 -0.159573 -0.0342719 255 0 0
0.129262 -0.156283 -0.0350854 255 0 0
0.131328 -0.156804 -0.0351101 255 0 0
0.132591 -0.157522 -0.0345053 255 0 0
0.138712 -0.157057 -0.0351084 255 0 0
0.129131 -0.154938 -0.0348132 255 0 0
0.130663 -0.154779 -0.0352376 255 0 0
0.135385 -0.154573 -0.0359358 255 0 0
0.13696 -0.155085 -0.0350547 255 0 0
0.127489 -0.152382 -0.0350976 255 0 0
0.128813 -0.153116 -0.0349843 255 0 0
0.135004 -0.153186 -0.0348693 255 0 0
0.125369 -0.150141 -0.0353749 255 0 0
0.126679 -0.151127 -0.0352552 255 0 0
0.128694 -0.150578 -0.035281 255 0 0
0.131519 -0.150807 -0.0355624 255 0 0
0.133069 -0.151306 -0.0346875 255 0 0
0.124276 -0.148998 -0.035236 255 0 0
0.126973 -0.148911 -0.035836 255 0 0
0.128155 -0.148834 -0.0342754 255 0 0
0.130576 -0.148751 -0.0350809 255 0 0
0.132118 -0.149241 -0.0342062 255 0 0
0.123141 -0.146967 -0.0348582 255 0 0
0.12732 -0.1465 -0.0357855 255 0 0
0.12852 -0.146879 -0.0347324 255 0 0
0.122443 -0.144908 -0.0350149 255 0 0
0.127053 -0.145037 -0.0354136 255 0 0
0.128353 -0.145309 -0.0345604 255 0 0
0.121401 -0.143006 -0.0349548 255 0 0
0.125417 -0.143141 -0.0354824 255 0 0
0.12712 -0.142667 -0.0350208 255 0 0
0.128673 -0.143904 -0.0341385 255 0 0
0.120364 -0.141109 -0.0348968 255 0 0
0.123325 -0.14008 -0.0350585 255 0 0
0.12504 -0.140858 -0.0351362 255 0 0
0.126642 -0.141278 -0.0347899 255 0 0
0.118654 -0.139138 -0.0349341 255 0 0
0.121489 -0.138003 -0.0352849 255 0 0
0.122778 -0.138594 -0.0350641 255 0 0
0.115946 -0.136318 -0.0355945 255 0 0
0.116788 -0.137107 -0.0345657 255 0 0
0.121247 -0.136744 -0.0350415 255 0 0
0.122678 -0.137294 -0.0347086 255 0 0
0.114772 -0.13478 -0.0346136 255 0 0
0.118865 -0.134709 -0.0358277 255 0 0
0.120564 -0.135274 -0.0348299 255 0 0
0.12228 -0.134743 -0.0350242 255 0 0
0.11327 -0.132924 -0.0350561 255 0 0
0.114266 -0.133835 -0.0358504 255 0 0
0.119124 -0.13264 -0.034924 255 0 0
0.12069 -0.133299 -0.0348748 255 0 0
0.111703 -0.130163 -0.034926 255 0 0
0.112703 -0.131254 -0.0344283 255 0 0
0.116978 -0.130721 -0.0351202 255 0 0
0.120468 -0.131334 -0.0352398 255 0 0
0.110867 -0.128759 -0.0346198 255 0 0
0.115431 -0.129138 -0.0353768 255 0 0
0.11646 -0.128972 -0.0342911 255 0 0
0.119718 -0.128562 -0.0353512 255 0 0
0.121389 -0.129816 -0.0351834 255 0 0
0.10878 -0.126965 -0.0343731 255 0 0
0.110377 -0.127631 -0.035356 255 0 0
0.113451 -0.126775 -0.0350945 255 0 0
0.114599 -0.127949 -0.0349019 255 0 0
0.118918 -0.127228 -0.0354436 255 0 0
0.105136 -0.124033 -0.0350396 255 0 0
0.106738 -0.125066 -0.0346268 255 0 0
0.108922 -0.125078 -0.0349746 255 0 0
0.111869 -0.124283 -0.0350641 255 0 0
0.112689 -0.125457 -0.0355361 255 0 0
0.116063 -0.124728 -0.0357362 255 0 0
0.119132 -0.125061 -0.0347493 255 0 0
0.101529 -0.122491 -0.034758 255 0 0
0.10293 -0.123342 -0.0350389 255 0 0
0.10931 -0.123081 -0.0346937 255 0 0
0.110548 -0.123201 -0.0351313 255 0 0
0.114891 -0.122766 -0.0358717 255 0 0
0.117218 -0.123151 -0.0342455 255 0 0
0.0993623 -0.121142 -0.0346831 255 0 0
0.104503 -0.120824 -0.0351843 255 0 0
0.106853 -0.120644 -0.0354436 255 0 0
0.109262 -0.121404 -0.0348452 255 0 0
0.110242 -0.121955 -0.0341277 255 0 0
0.115645 -0.120535 -0.0344338 255 0 0
0.116009 -0.121893 -0.0343779 255 0 0
0.097689 -0.119807 -0.0341293 255 0 0
0.102834 -0.118901 -0.0349374 255 0 0
0.104759 -0.119317 -0.0341385 255 0 0
0.108002 -0.119666 -0.0345134 255 0 0
0.0974793 -0.117377 -0.0353683 255 0 0
0.100988 -0.117203 -0.0346159 255 0 0
0.102578 -0.117069 -0.0345212 255 0 0
0.0973157 -0.114786 -0.0349614 255 0 0
0.101082 -0.114676 -0.0344967 255 0 0
0.102161 -0.115788 -0.0343063 255 0 0
0.106157 -0.11496 -0.0354024 255 0 0
0.0970084 -0.112954 -0.0345306 255 0 0
0.0999458 -0.112137 -0.034714 255 0 0
0.101021 -0.113241 -0.0345234 255 0 0
0.102809 -0.113213 -0.0352904 255 0 0
0.10409 -0.113889 -0.0342525 255 0 0
0.0969806 -0.110994 -0.0348508 255 0 0
0.0988812 -0.110709 -0.0348086 255 0 0
0.10095 -0.111726 -0.0349125 255 0 0
0.0971455 -0.108853 -0.035395 255 0 0
0.0981813 -0.109499 -0.0348963 255 0 0
0.0954468 -0.106643 -0.0343292 255 0 0
0.0966022 -0.10732 -0.0349594 255 0 0
0.0953987 -0.104739 -0.035493 255 0 0
0.0964723 -0.105834 -0.0351221 255 0 0
0.0996026 -0.104548 -0.0351841 255 0 0
0.0928838 -0.102571 -0.0348678 255 0 0
0.0942885 -0.103602 -0.034712 255 0 0
0.0912622 -0.100726 -0.0348418 255 0 0
0.0922886 -0.101404 -0.0355998 255 0 0
0.0979987 -0.100013 -0.0340236 255 0 0
0.0988625 -0.101356 -0.0349906 255 0 0
0.0894298 -0.0980826 -0.0346357 255 0 0
0.0905215 -0.0991578 -0.0351586 255 0 0
0.0975184 -0.0986077 -0.0349423 255 0 0
0.0893797 -0.0968213 -0.0353097 255 0 0
0.0902919 -0.0979302 -0.0358502 255 0 0
0.0967688 -0.0970026 -0.0350719 255 0 0
0.0878212 -0.094583 -0.0348561 255 0 0
0.0884725 -0.095719 -0.0347715 255 0 0
0.0962217 -0.0951935 -0.0354731 255 0 0
0.0868503 -0.0928891 -0.0349822 255 0 0
0.0956106 -0.092987 -0.0353557 255 0 0
0.0855656 -0.0906468 -0.0351491 255 0 0
0.0939194 -0.0900011 -0.0353446 255 0 0
0.0946641 -0.0915972 -0.0352146 255 0 0
0.0846095 -0.0889774 -0.0352734 255 0 0
0.0929792 -0.0886198 -0.0352047 255 0 0
0.0835863 -0.0873214 -0.0347692 255 0 0
0.0827531 -0.0850159 -0.0348936 255 0 0
0.0816834 -0.0827721 -0.03441 255 0 0
0.0823359 -0.0826297 -0.0356082 255 0 0
0.0794747 -0.0802626 -0.0346842 255 0 0
0.0806467 -0.0807879 -0.0353905 255 0 0
0.0779289 -0.0782253 -0.0348808 255 0 0
0.0789379 -0.0791909 -0.0353843 255 0 0
0.21158 -0.248374 -0.0335697 255 0 0
0.210974 -0.246864 -0.0339842 255 0 0
0.198021 -0.218021 -0.0338031 255 0 0
0.196975 -0.216579 -0.0338365 255 0 0
0.195932 -0.215141 -0.0338699 255 0 0
0.196319 -0.21451 -0.0322406 255 0 0
0.195086 -0.213394 -0.0330897 255 0 0
0.19282 -0.210852 -0.0339701 255 0 0
0.194387 -0.210854 -0.0328862 255 0 0
0.193054 -0.208689 -0.033124 255 0 0
0.192023 -0.207271 -0.0331585 255 0 0
0.186653 -0.205088 -0.0328687 255 0 0
0.190698 -0.205117 -0.0333956 255 0 0
0.192257 -0.205112 -0.0323139 255 0 0
0.184882 -0.202853 -0.0327562 255 0 0
0.188946 -0.203038 -0.0332617 255 0 0
0.190715 -0.202997 -0.0323672 255 0 0
0.183971 -0.200783 -0.0320334 255 0 0
0.187206 -0.200972 -0.0331291 255 0 0
0.188751 -0.200963 -0.0320523 255 0 0
0.182809 -0.198347 -0.0335345 255 0 0
0.184642 -0.199326 -0.033249 255 0 0
0.187733 -0.199565 -0.0320882 255 0 0
0.181395 -0.197041 -0.0332033 255 0 0
0.183627 -0.197681 -0.0323002 255 0 0
0.179493 -0.195057 -0.0328916 255 0 0
0.181214 -0.195001 -0.0320085 255 0 0
0.175809 -0.192379 -0.0338399 255 0 0
0.178008 -0.193002 -0.0329442 255 0 0
0.16895 -0.190958 -0.0332966 255 0 0
0.171243 -0.190655 -0.0331839 255 0 0
0.172332 -0.191858 -0.0327787 255 0 0
0.174829 -0.191019 -0.0338739 255 0 0
0.176531 -0.190957 -0.0329968 255 0 0
0.161466 -0.188117 -0.0338685 255 0 0
0.162296 -0.188483 -0.0335139 255 0 0
0.16456 -0.188771 -0.0333501 255 0 0
0.167199 -0.188968 -0.0335288 255 0 0
0.168766 -0.188147 -0.0330359 255 0 0
0.170325 -0.189075 -0.0334342 255 0 0
0.173167 -0.18903 -0.0337444 255 0 0
0.175059 -0.188919 -0.0330494 255 0 0
0.17627 -0.188175 -0.0321891 255 0 0
0.15767 -0.186695 -0.0330233 255 0 0
0.160863 -0.186678 -0.0331087 255 0 0
0.162629 -0.187391 -0.0330279 255 0 0
0.165206 -0.187103 -0.0330491 255 0 0
0.167426 -0.1869 -0.0327157 255 0 0
0.168891 -0.187081 -0.0329665 255 0 0
0.170731 -0.187231 -0.0328981 255 0 0
0.173001 -0.187027 -0.0325628 255 0 0
0.155673 -0.185331 -0.0334713 255 0 0
0.157239 -0.185286 -0.0326163 255 0 0
0.159072 -0.185146 -0.0331322 255 0 0
0.161154 -0.184436 -0.0325034 255 0 0
0.163227 -0.185252 -0.0325732 255 0 0
0.165243 -0.18509 -0.0320628 255 0 0
0.167446 -0.184878 -0.0330706 255 0 0
0.168708 -0.185361 -0.032417 255 0 0
0.170959 -0.18515 -0.0320802 255 0 0
0.153269 -0.182582 -0.0335119 255 0 0
0.155662 -0.183068 -0.0332073 255 0 0
0.157126 -0.183032 -0.032829 255 0 0
0.159037 -0.182978 -0.0331443 255 0 0
0.160983 -0.182713 -0.0322948 255 0 0
0.165809 -0.182227 -0.0334638 255 0 0
0.166715 -0.182865 -0.0324752 255 0 0
0.168273 -0.183263 -0.0321017 255 0 0
0.151197 -0.180135 -0.0320259 255 0 0
0.152435 -0.1813 -0.0328802 255 0 0
0.155183 -0.180446 -0.033377 255 0 0
0.157096 -0.181107 -0.0328776 255 0 0
0.1587 -0.180478 -0.0329118 255 0 0
0.160051 -0.181402 -0.0323312 255 0 0
0.16303 -0.180106 -0.0336502 255 0 0
0.165185 -0.180753 -0.0329404 255 0 0
0.148699 -0.178789 -0.0330068 255 0 0
0.151176 -0.179327 -0.0336276 255 0 0
0.155062 -0.178747 -0.0331425 255 0 0
0.157203 -0.179474 -0.03305 255 0 0
0.158557 -0.178692 -0.0327527 255 0 0
0.161026 -0.17868 -0.0329396 255 0 0
0.163022 -0.178898 -0.0327911 255 0 0
0.164562 -0.179284 -0.0324193 255 0 0
0.145817 -0.176088 -0.0335834 255 0 0
0.146928 -0.176878 -0.0326064 255 0 0
0.149368 -0.176316 -0.0333094 255 0 0
0.150615 -0.177496 -0.0336188 255 0 0
0.152724 -0.177264 -0.0332919 255 0 0
0.155261 -0.176606 -0.0329041 255 0 0
0.157057 -0.177113 -0.0327407 255 0 0
0.158951 -0.176489 -0.0328253 255 0 0
0.160557 -0.177426 -0.0325299 255 0 0
0.1454 -0.174768 -0.0332397 255 0 0
0.147011 -0.175862 -0.0338244 255 0 0
0.148859 -0.174728 -0.0327608 255 0 0
0.150838 -0.17549 -0.0328273 255 0 0
0.153281 -0.174914 -0.0327659 255 0 0
0.155141 -0.175031 -0.0326192 255 0 0
0.157244 -0.174856 -0.032869 255 0 0
0.159063 -0.175101 -0.0328029 255 0 0
0.160269 -0.175606 -0.0321286 255 0 0
0.162108 -0.175855 -0.0320605 255 0 0
0.143301 -0.172575 -0.0332262 255 0 0
0.144816 -0.173315 -0.0326493 255 0 0
0.146893 -0.173973 -0.0326959 255 0 0
0.151175 -0.172841 -0.0327646 255 0 0
0.152739 -0.173031 -0.0329996 255 0 0
0.154252 -0.17293 -0.0327599 255 0 0
0.156953 -0.173287 -0.0326591 255 0 0
0.15937 -0.173778 -0.0322549 255 0 0
0.141592 -0.170897 -0.0330318 255 0 0
0.143012 -0.170757 -0.0325349 255 0 0
0.144779 -0.171548 -0.0324284 255 0 0
0.149236 -0.171004 -0.0337708 255 0 0
0.150945 -0.1707 -0.0332708 255 0 0
0.153071 -0.171255 -0.0325858 255 0 0
0.154557 -0.171619 -0.0322173 255 0 0
0.156354 -0.171852 -0.0321479 255 0 0
0.138946 -0.168219 -0.033416 255 0 0
0.1407 -0.169428 -0.0327915 255 0 0
0.145761 -0.1683 -0.0335774 255 0 0
0.147498 -0.168519 -0.033511 255 0 0
0.148956 -0.168873 -0.0331463 255 0 0
0.150967 -0.16933 -0.03283 255 0 0
0.153374 -0.169946 -0.0320444 255 0 0
0.137878 -0.166835 -0.0338993 255 0 0
0.138683 -0.16694 -0.0327437 255 0 0
0.145196 -0.1669 -0.0330772 255 0 0
0.147702 -0.166895 -0.0331915 255 0 0
0.149197 -0.167261 -0.0325469 255 0 0
0.150724 -0.167926 -0.0322414 255 0 0
0.135999 -0.164442 -0.0331494 255 0 0
0.13693 -0.165193 -0.0333704 255 0 0
0.141197 -0.164576 -0.0336337 255 0 0
0.143207 -0.164586 -0.0325311 255 0 0
0.144633 -0.165504 -0.0325791 255 0 0
0.146719 -0.1654 -0.0328385 255 0 0
0.148512 -0.164808 -0.0323036 255 0 0
0.135515 -0.162937 -0.0324771 255 0 0
0.136591 -0.163867 -0.0324886 255 0 0
0.13923 -0.162855 -0.0335006 255 0 0
0.140851 -0.163065 -0.0324524 255 0 0
0.145052 -0.16223 -0.0331588 255 0 0
0.146835 -0.16347 -0.0332225 255 0 0
0.133794 -0.16046 -0.0330303 255 0 0
0.134529 -0.161123 -0.032686 255 0 0
0.138503 -0.161023 -0.0328446 255 0 0
0.143735 -0.16089 -0.0333628 255 0 0
0.145325 -0.160635 -0.0324769 255 0 0
0.133088 -0.159016 -0.0330119 255 0 0
0.135903 -0.158038 -0.0330062 255 0 0
0.13702 -0.159073 -0.0327624 255 0 0
0.141462 -0.158214 -0.0330631 255 0 0
0.142765 -0.15954 -0.0328594 255 0 0
0.131393 -0.156731 -0.0331049 255 0 0
0.133018 -0.156866 -0.0331047 255 0 0
0.134526 -0.157152 -0.0329621 255 0 0
0.140727 -0.156821 -0.0326945 255 0 0
0.12911 -0.154499 -0.0333618 255 0 0
0.130864 -0.155014 -0.0333698 255 0 0
0.132431 -0.155215 -0.0328092 255 0 0
0.137598 -0.154276 -0.0336692 255 0 0
0.138823 -0.155097 -0.0331557 255 0 0
0.127687 -0.152856 -0.0333944 255 0 0
0.128986 -0.153015 -0.0328231 255 0 0
0.130529 -0.153536 -0.0328551 255 0 0
0.136659 -0.152961 -0.0331723 255 0 0
0.125923 -0.150267 -0.0336586 255 0 0
0.127007 -0.151226 -0.0324207 255 0 0
0.129612 -0.151165 -0.0330471 255 0 0
0.133701 -0.150505 -0.0333144 255 0 0
0.135192 -0.15123 -0.0329774 255 0 0
0.124505 -0.148715 -0.0325582 255 0 0
0.127956 -0.149546 -0.0328188 255 0 0
0.12836 -0.14852 -0.0329733 255 0 0
0.132782 -0.149213 -0.0328236 255 0 0
0.123296 -0.147352 -0.0333056 255 0 0
0.127966 -0.146098 -0.0333915 255 0 0
0.128071 -0.146621 -0.0328564 255 0 0
0.131102 -0.147009 -0.0331011 255 0 0
0.132292 -0.147802 -0.0325927 255 0 0
0.121736 -0.144027 -0.0335943 255 0 0
0.122418 -0.145602 -0.0325308 255 0 0
0.125797 -0.144095 -0.0338769 255 0 0
0.126149 -0.145019 -0.0323815 255 0 0
0.128128 -0.145157 -0.0328751 255 0 0
0.130234 -0.145146 -0.0332523 255 0 0
0.12104 -0.142919 -0.0330077 255 0 0
0.124491 -0.142711 -0.0334348 255 0 0
0.127777 -0.142642 -0.0336511 255 0 0
0.129091 -0.143181 -0.0326516 255 0 0
0.119328 -0.140399 -0.0332718 255 0 0
0.120348 -0.141816 -0.0324241 255 0 0
0.12346 -0.140632 -0.0328823 255 0 0
0.12404 -0.141942 -0.0320738 255 0 0
0.127299 -0.141253 -0.0334219 255 0 0
0.12837 -0.141094 -0.0323091 255 0 0
0.117293 -0.13805 -0.0333246 255 0 0
0.118305 -0.139459 -0.0324802 255 0 0
0.122878 -0.139318 -0.0336897 255 0 0
0.124998 -0.138839 -0.0330109 255 0 0
0.126823 -0.139867 -0.0331934 255 0 0
0.116282 -0.137122 -0.0325366 255 0 0
0.121589 -0.137955 -0.033252 255 0 0
0.122932 -0.136824 -0.0333001 255 0 0
0.114942 -0.135184 -0.0330893 255 0 0
0.11719 -0.134765 -0.0330628 255 0 0
0.121611 -0.135111 -0.0337325 255 0 0
0.122281 -0.135259 -0.0329776 255 0 0
0.112817 -0.132921 -0.0330979 255 0 0
0.11487 -0.132998 -0.0332685 255 0 0
0.116239 -0.133816 -0.0320407 255 0 0
0.121079 -0.133339 -0.0328985 255 0 0
0.122778 -0.132985 -0.0330887 255 0 0
0.112325 -0.131263 -0.032385 255 0 0
0.117945 -0.130148 -0.033426 255 0 0
0.118677 -0.131032 -0.0326814 255 0 0
0.122825 -0.131062 -0.0328764 255 0 0
0.109159 -0.128754 -0.0323976 255 0 0
0.111638 -0.129067 -0.0330729 255 0 0
0.117102 -0.128952 -0.0329542 255 0 0
0.1228 -0.128911 -0.0329139 255 0 0
0.1087 -0.127067 -0.0328391 255 0 0
0.11139 -0.126634 -0.0332264 255 0 0
0.112147 -0.127734 -0.0321541 255 0 0
0.115282 -0.126986 -0.0330616 255 0 0
0.116264 -0.127762 -0.0324849 255 0 0
0.121334 -0.126933 -0.0338028 255 0 0
0.105478 -0.12437 -0.0336487 255 0 0
0.106873 -0.125198 -0.0326936 255 0 0
0.110729 -0.125409 -0.0334235 255 0 0
0.113139 -0.12488 -0.0332487 255 0 0
0.100182 -0.122149 -0.0329062 255 0 0
0.103182 -0.12345 -0.0330099 255 0 0
0.106405 -0.123045 -0.0332187 255 0 0
0.110706 -0.122887 -0.0330634 255 0 0
0.0974475 -0.121145 -0.032446 255 0 0
0.104757 -0.12097 -0.0332362 255 0 0
0.109778 -0.12084 -0.0327026 255 0 0
0.110875 -0.121938 -0.0328097 255 0 0
0.0973857 -0.118641 -0.0337763 255 0 0
0.103654 -0.118454 -0.0336032 255 0 0
0.104783 -0.11887 -0.0327073 255 0 0
0.107833 -0.118506 -0.0327416 255 0 0
0.109049 -0.119579 -0.0330401 255 0 0
0.0966383 -0.117069 -0.0330495 255 0 0
0.100987 -0.116217 -0.0327042 255 0 0
0.102832 -0.117128 -0.0329229 255 0 0
0.104181 -0.116883 -0.0321701 255 0 0
0.0967736 -0.114985 -0.0329206 255 0 0
0.0989755 -0.114912 -0.0326263 255 0 0
0.10293 -0.114976 -0.0331457 255 0 0
0.0964685 -0.113162 -0.0324941 255 0 0
0.0992972 -0.113258 -0.0327174 255 0 0
0.102305 -0.11306 -0.0328261 255 0 0
0.0964571 -0.111166 -0.0322661 255 0 0
0.0992817 -0.11126 -0.032752 255 0 0
0.101889 -0.111786 -0.0326139 255 0 0
0.0964116 -0.109035 -0.033102 255 0 0
0.0986173 -0.108938 -0.0330821 255 0 0
0.0954991 -0.106516 -0.0326951 255 0 0
0.0973137 -0.10723 -0.0328865 255 0 0
0.0990505 -0.107952 -0.0321628 255 0 0
0.0951395 -0.104805 -0.0332845 255 0 0
0.096611 -0.105759 -0.033119 255 0 0
0.0926536 -0.102567 -0.0329258 255 0 0
0.0944232 -0.103527 -0.0327235 255 0 0
0.0992274 -0.103019 -0.0329794 255 0 0
0.0907524 -0.101003 -0.0331519 255 0 0
0.0982073 -0.10121 -0.0323265 255 0 0
0.0890005 -0.0987696 -0.0327267 255 0 0
0.0976635 -0.0994108 -0.032725 255 0 0
0.0877685 -0.0970916 -0.0322418 255 0 0
0.0886225 -0.0969373 -0.0334437 255 0 0
0.0971194 -0.09761 -0.0331239 255 0 0
0.0872209 -0.0953098 -0.0329759 255 0 0
0.0958292 -0.0942106 -0.0336539 255 0 0
0.0965747 -0.0958077 -0.0335231 255 0 0
0.0858807 -0.0924105 -0.0325268 255 0 0
0.0864094 -0.0931588 -0.0333122 255 0 0
0.0951947 -0.0932256 -0.0329404 255 0 0
0.0853409 -0.0906494 -0.0332548 255 0 0
0.0941441 -0.0912323 -0.0336477 255 0 0
0.0845569 -0.088938 -0.0333679 255 0 0
0.0830235 -0.0874127 -0.0329233 255 0 0
0.0814608 -0.0846771 -0.0331402 255 0 0
0.0820836 -0.0857676 -0.0330538 255 0 0
0.0794133 -0.0826974 -0.0321445 255 0 0
0.0804748 -0.0832624 -0.0328528 255 0 0
0.0772128 -0.0808322 -0.0324263 255 0 0
0.0784784 -0.0813249 -0.0331071 255 0 0
0.0756898 -0.0788068 -0.0326336 255 0 0
0.0768334 -0.0793192 -0.0333235 255 0 0
0.196916 -0.215995 -0.0318334 255 0 0
0.195667 -0.212454 -0.0306544 255 0 0
0.196705 -0.213881 -0.0306168 255 0 0
0.195073 -0.210973 -0.0310603 255 0 0
0.193884 -0.20801 -0.0318722 255 0 0
0.194893 -0.209152 -0.0308408 255 0 0
0.192851 -0.206593 -0.0319083 255 0 0
0.194712 -0.20733 -0.0306212 255 0 0
0.193382 -0.205175 -0.0308616 255 0 0
0.192491 -0.202955 -0.0314696 255 0 0
0.185259 -0.201332 -0.0313366 255 0 0
0.190949 -0.200845 -0.0315245 255 0 0
0.186294 -0.198247 -0.0317581 255 0 0
0.188984 -0.198818 -0.0312125 255 0 0
0.182211 -0.196378 -0.0319724 255 0 0
0.184864 -0.196937 -0.03143 255 0 0
0.186822 -0.196847 -0.0307212 255 0 0
0.182736 -0.194987 -0.0309419 255 0 0
0.184677 -0.19489 -0.0302337 255 0 0
0.179315 -0.193027 -0.0317014 255 0 0
0.181033 -0.192968 -0.0308175 255 0 0
0.172311 -0.19062 -0.0319082 255 0 0
0.177834 -0.19098 -0.0317562 255 0 0
0.179342 -0.190961 -0.0306944 255 0 0
0.164209 -0.188321 -0.0308493 255 0 0
0.171336 -0.189235 -0.031074 255 0 0
0.17685 -0.189621 -0.0317928 255 0 0
0.178673 -0.188503 -0.0304985 255 0 0
0.162431 -0.186882 -0.0317962 255 0 0
0.169791 -0.187106 -0.031542 255 0 0
0.170367 -0.187858 -0.0302456 255 0 0
0.17489 -0.186912 -0.0318659 255 0 0
0.176991 -0.186751 -0.0313457 255 0 0
0.1787 -0.186681 -0.0304634 255 0 0
0.159218 -0.184081 -0.0310785 255 0 0
0.161366 -0.185407 -0.0312754 255 0 0
0.168867 -0.185243 -0.031668 255 0 0
0.170103 -0.185764 -0.0309851 255 0 0
0.173427 -0.184891 -0.0319206 255 0 0
0.175519 -0.184723 -0.0314013 255 0 0
0.177713 -0.185326 -0.0305016 255 0 0
0.158904 -0.182503 -0.0309704 255 0 0
0.163453 -0.183201 -0.0317666 255 0 0
0.165373 -0.182276 -0.031624 255 0 0
0.166701 -0.183505 -0.0319397 255 0 0
0.169017 -0.183493 -0.0314388 255 0 0
0.171578 -0.182973 -0.0316184 255 0 0
0.172776 -0.182227 -0.0307621 255 0 0
0.174946 -0.183049 -0.0308293 255 0 0
0.17673 -0.183974 -0.0305397 255 0 0
0.157998 -0.180989 -0.0314533 255 0 0
0.159185 -0.180864 -0.03027 255 0 0
0.161577 -0.180573 -0.0318404 255 0 0
0.162513 -0.181886 -0.0318035 255 0 0
0.165203 -0.180538 -0.0314134 255 0 0
0.167165 -0.181131 -0.0314851 255 0 0
0.168731 -0.181212 -0.0312643 255 0 0
0.17082 -0.181362 -0.0308726 255 0 0
0.174373 -0.181381 -0.0302595 255 0 0
0.149968 -0.17898 -0.0311784 255 0 0
0.157442 -0.179459 -0.0312093 255 0 0
0.158627 -0.179332 -0.0300273 255 0 0
0.162828 -0.179034 -0.0315413 255 0 0
0.1651 -0.178869 -0.0314268 255 0 0
0.167315 -0.178947 -0.030933 255 0 0
0.169104 -0.178433 -0.0301693 255 0 0
0.170064 -0.179759 -0.0301305 255 0 0
0.147633 -0.176302 -0.0312316 255 0 0
0.148914 -0.177172 -0.0309326 255 0 0
0.156612 -0.177172 -0.0308449 255 0 0
0.161606 -0.177019 -0.0317719 255 0 0
0.163077 -0.176633 -0.0313926 255 0 0
0.164754 -0.176999 -0.0308967 255 0 0
0.166525 -0.177554 -0.0306931 255 0 0
0.145724 -0.175007 -0.0316784 255 0 0
0.146828 -0.175056 -0.030616 255 0 0
0.155786 -0.174893 -0.0304818 255 0 0
0.157214 -0.174764 -0.0318326 255 0 0
0.159007 -0.174622 -0.0311494 255 0 0
0.160904 -0.175024 -0.0313355 255 0 0
0.162852 -0.17457 -0.0304951 255 0 0
0.164688 -0.175327 -0.030783 255 0 0
0.143431 -0.17237 -0.0317303 255 0 0
0.145318 -0.172914 -0.0311995 255 0 0
0.146401 -0.172953 -0.0307872 255 0 0
0.148737 -0.172837 -0.0316313 255 0 0
0.15317 -0.172862 -0.0314127 255 0 0
0.155092 -0.173192 -0.031166 255 0 0
0.157337 -0.172635 -0.0310507 255 0 0
0.159299 -0.172588 -0.0308765 255 0 0
0.16055 -0.173433 -0.0306931 255 0 0
0.162095 -0.173459 -0.0303545 255 0 0
0.142645 -0.171144 -0.0311192 255 0 0
0.145597 -0.170766 -0.0312753 255 0 0
0.146996 -0.170104 -0.0307866 255 0 0
0.148959 -0.170843 -0.0308444 255 0 0
0.151138 -0.171161 -0.0313688 255 0 0
0.152632 -0.170619 -0.0307117 255 0 0
0.154682 -0.171064 -0.0309887 255 0 0
0.157524 -0.171128 -0.0305794 255 0 0
0.159518 -0.170737 -0.0302833 255 0 0
0.141142 -0.168761 -0.0313419 255 0 0
0.142901 -0.168892 -0.0314177 255 0 0
0.145217 -0.169316 -0.0308979 255 0 0
0.151151 -0.169403 -0.0304956 255 0 0
0.152938 -0.168459 -0.0316878 255 0 0
0.155165 -0.168995 -0.0311316 255 0 0
0.157106 -0.16967 -0.0302735 255 0 0
0.139607 -0.167116 -0.0312166 255 0 0
0.14104 -0.166261 -0.0304169 255 0 0
0.142242 -0.167394 -0.0307122 255 0 0
0.147523 -0.166198 -0.0318471 255 0 0
0.149443 -0.166873 -0.0312369 255 0 0
0.151026 -0.166623 -0.0317024 255 0 0
0.153489 -0.16682 -0.0308055 255 0 0
0.15547 -0.167683 -0.0305886 255 0 0
0.137561 -0.164621 -0.0311703 255 0 0
0.139025 -0.165614 -0.0308741 255 0 0
0.144649 -0.164354 -0.0317532 255 0 0
0.146956 -0.1648 -0.0313491 255 0 0
0.149005 -0.165064 -0.0307769 255 0 0
0.151185 -0.164807 -0.030598 255 0 0
0.152803 -0.165668 -0.0307919 255 0 0
0.135855 -0.162269 -0.0307196 255 0 0
0.136901 -0.163149 -0.0308103 255 0 0
0.14181 -0.162529 -0.0316626 255 0 0
0.143234 -0.162867 -0.0312966 255 0 0
0.144665 -0.163206 -0.0309294 255 0 0
0.146878 -0.163011 -0.0308331 255 0 0
0.148891 -0.163676 -0.0303901 255 0 0
0.135159 -0.161065 -0.0309841 255 0 0
0.139276 -0.160582 -0.0318644 255 0 0
0.140688 -0.160915 -0.0314996 255 0 0
0.143155 -0.161044 -0.0307121 255 0 0
0.145256 -0.161316 -0.0305965 255 0 0
0.133308 -0.158547 -0.0311808 255 0 0
0.134627 -0.159591 -0.0306332 255 0 0
0.139019 -0.158868 -0.0310916 255 0 0
0.141131 -0.158997 -0.030708 255 0 0
0.142551 -0.159326 -0.0303401 255 0 0
0.144687 -0.159266 -0.0312669 255 0 0
0.131567 -0.156951 -0.031234 255 0 0
0.133065 -0.157136 -0.0315349 255 0 0
0.135545 -0.15657 -0.0313577 255 0 0
0.136803 -0.156964 -0.0308496 255 0 0
0.138201 -0.157287 -0.0304838 255 0 0
0.142893 -0.157269 -0.0312263 255 0 0
0.129419 -0.154474 -0.031292 255 0 0
0.130863 -0.155029 -0.031235 255 0 0
0.132585 -0.155052 -0.0312951 255 0 0
0.13461 -0.155076 -0.0306107 255 0 0
0.13938 -0.154096 -0.0311333 255 0 0
0.141113 -0.155285 -0.0311855 255 0 0
0.12894 -0.152551 -0.0309358 255 0 0
0.130963 -0.153187 -0.0314496 255 0 0
0.137328 -0.152931 -0.0317782 255 0 0
0.138435 -0.152781 -0.0306426 255 0 0
0.140938 -0.153827 -0.0302515 255 0 0
0.127188 -0.150793 -0.0310243 255 0 0
0.129085 -0.150891 -0.0313521 255 0 0
0.130797 -0.151048 -0.0307075 255 0 0
0.135462 -0.150325 -0.0308004 255 0 0
0.136943 -0.151549 -0.0307213 255 0 0
0.125095 -0.148921 -0.0309073 255 0 0
0.126215 -0.149611 -0.0303892 255 0 0
0.129554 -0.149032 -0.0313005 255 0 0
0.134633 -0.148922 -0.0312634 255 0 0
0.121849 -0.146637 -0.0307579 255 0 0
0.123205 -0.147358 -0.0313604 255 0 0
0.124122 -0.147198 -0.0304526 255 0 0
0.127846 -0.146233 -0.0305313 255 0 0
0.128419 -0.147029 -0.0312565 255 0 0
0.132922 -0.147008 -0.0312264 255 0 0
0.134043 -0.14762 -0.0300876 255 0 0
0.120989 -0.144744 -0.0311932 255 0 0
0.122398 -0.14536 -0.030806 255 0 0
0.125444 -0.144399 -0.030743 255 0 0
0.126642 -0.145315 -0.0306378 255 0 0
0.131435 -0.145042 -0.0313167 255 0 0
0.119686 -0.142969 -0.0311969 255 0 0
0.120725 -0.142733 -0.0304258 255 0 0
0.124743 -0.143171 -0.0314088 255 0 0
0.129749 -0.143155 -0.0312807 255 0 0
0.130826 -0.142998 -0.030163 255 0 0
0.1193 -0.140767 -0.0304042 255 0 0
0.123593 -0.141178 -0.0307226 255 0 0
0.129027 -0.141069 -0.0309409 255 0 0
0.117456 -0.138686 -0.0309862 255 0 0
0.118287 -0.139337 -0.0306877 255 0 0
0.121731 -0.138513 -0.0310985 255 0 0
0.12255 -0.139655 -0.030574 255 0 0
0.127035 -0.13922 -0.0315888 255 0 0
0.128133 -0.139818 -0.0304634 255 0 0
0.115281 -0.13644 -0.0309472 255 0 0
0.116613 -0.137295 -0.0304807 255 0 0
0.118695 -0.136682 -0.0300909 255 0 0
0.120672 -0.137535 -0.0313421 255 0 0
0.123777 -0.136291 -0.0315044 255 0 0
0.125064 -0.137003 -0.0310847 255 0 0
0.113622 -0.134222 -0.0304107 255 0 0
0.114386 -0.134844 -0.0305116 255 0 0
0.117074 -0.134417 -0.0311306 255 0 0
0.118094 -0.135917 -0.0312769 255 0 0
0.12331 -0.134926 -0.031281 255 0 0
0.113197 -0.133008 -0.0311071 255 0 0
0.11518 -0.132957 -0.0308907 255 0 0
0.12126 -0.132504 -0.0310128 255 0 0
0.122444 -0.133707 -0.0308094 255 0 0
0.11147 -0.130651 -0.0306228 255 0 0
0.112758 -0.131468 -0.0305078 255 0 0
0.119459 -0.13078 -0.0308579 255 0 0
0.109742 -0.128653 -0.0306157 255 0 0
0.110657 -0.12919 -0.0311522 255 0 0
0.112121 -0.129349 -0.0311569 255 0 0
0.117744 -0.128932 -0.0316182 255 0 0
0.118385 -0.128912 -0.030283 255 0 0
0.107756 -0.12607 -0.0304553 255 0 0
0.108918 -0.127321 -0.0313505 255 0 0
0.112347 -0.126674 -0.0309102 255 0 0
0.116486 -0.127151 -0.0309207 255 0 0
0.104263 -0.12418 -0.0311008 255 0 0
0.107119 -0.125076 -0.0315128 255 0 0
0.111562 -0.12472 -0.0314469 255 0 0
0.1129 -0.124273 -0.0305596 255 0 0
0.114919 -0.125392 -0.0308911 255 0 0
0.0987278 -0.122144 -0.0302055 255 0 0
0.100696 -0.12265 -0.0308591 255 0 0
0.102708 -0.123412 -0.0307361 255 0 0
0.106857 -0.122959 -0.0310137 255 0 0
0.11127 -0.123217 -0.0310946 255 0 0
0.112639 -0.123073 -0.0312928 255 0 0
0.0974927 -0.12098 -0.0308187 255 0 0
0.0986817 -0.121645 -0.0317579 255 0 0
0.105499 -0.120654 -0.0313958 255 0 0
0.109913 -0.120746 -0.0304636 255 0 0
0.110811 -0.12165 -0.0307835 255 0 0
0.11214 -0.121904 -0.030176 255 0 0
0.0964051 -0.119075 -0.0314522 255 0 0
0.104519 -0.118681 -0.0312866 255 0 0
0.107727 -0.118804 -0.0309533 255 0 0
0.109206 -0.119782 -0.0309937 255 0 0
0.0959561 -0.117341 -0.0309314 255 0 0
0.102966 -0.116621 -0.0309476 255 0 0
0.105059 -0.117334 -0.031171 255 0 0
0.106935 -0.117668 -0.0305019 255 0 0
0.0967793 -0.114945 -0.0308788 255 0 0
0.0992819 -0.11451 -0.0307469 255 0 0
0.101073 -0.115303 -0.0310423 255 0 0
0.10357 -0.114797 -0.0313061 255 0 0
0.104742 -0.115428 -0.030901 255 0 0
0.0965761 -0.113127 -0.0306889 255 0 0
0.100582 -0.113004 -0.0305724 255 0 0
0.103235 -0.11304 -0.030889 255 0 0
0.0966521 -0.110937 -0.0307378 255 0 0
0.100903 -0.110932 -0.0306123 255 0 0
0.102642 -0.111849 -0.0305607 255 0 0
0.0958568 -0.108864 -0.0315681 255 0 0
0.0962022 -0.109215 -0.0302174 255 0 0
0.0989055 -0.108817 -0.0308037 255 0 0
0.100338 -0.109382 -0.0307518 255 0 0
0.0952755 -0.10705 -0.0310722 255 0 0
0.0971981 -0.107906 -0.0314046 255 0 0
0.0985502 -0.107168 -0.030611 255 0 0
0.100031 -0.107746 -0.0307206 255 0 0
0.0936967 -0.105021 -0.030894 255 0 0
0.095103 -0.104675 -0.0305488 255 0 0
0.0967773 -0.10502 -0.0311225 255 0 0
0.0989548 -0.10419 -0.0302452 255 0 0
0.0932111 -0.102706 -0.0306592 255 0 0
0.0946357 -0.103452 -0.0313833 255 0 0
0.0897337 -0.100532 -0.031969 255 0 0
0.0910603 -0.10089 -0.0311666 255 0 0
0.0920371 -0.101322 -0.0303952 255 0 0
0.0974693 -0.101003 -0.0305098 255 0 0
0.0894817 -0.0986168 -0.0307315 255 0 0
0.0969288 -0.0992134 -0.0309059 255 0 0
0.08832 -0.0969363 -0.0308919 255 0 0
0.0963878 -0.0974222 -0.0313023 255 0 0
0.0873687 -0.0945841 -0.0310396 255 0 0
0.088019 -0.0957189 -0.0309466 255 0 0
0.0865726 -0.0928507 -0.0311593 255 0 0
0.0854611 -0.090568 -0.0313241 255 0 0
0.0849452 -0.0887707 -0.0307733 255 0 0
0.0831737 -0.0871171 -0.0312192 255 0 0
0.0844049 -0.0876208 -0.0302185 255 0 0
0.0814713 -0.0850455 -0.0314505 255 0 0
0.0821245 -0.0856858 -0.0305205 255 0 0
0.0792665 -0.082702 -0.0309083 255 0 0
0.0802127 -0.0836901 -0.0307799 255 0 0
0.0771122 -0.0812258 -0.0307736 255 0 0
0.0753683 -0.0794611 -0.0308053 255 0 0
0.0689543 -0.0752833 -0.030879 255 0 0
0.0705438 -0.075968 -0.0307116 255 0 0
0.0687144 -0.0736164 -0.0302395 255 0 0
0.195901 -0.210293 -0.0298097 255 0 0
0.196495 -0.211774 -0.0294041 255 0 0
0.184657 -0.194389 -0.0282839 255 0 0
0.181847 -0.192308 -0.0295912 255 0 0
0.183258 -0.193595 -0.0299115 255 0 0
0.181259 -0.190612 -0.0290183 255 0 0
0.182247 -0.191733 -0.0280093 255 0 0
0.171603 -0.188382 -0.029562 255 0 0
0.179863 -0.189579 -0.0296696 255 0 0
0.180674 -0.188922 -0.028447 255 0 0
0.162237 -0.187007 -0.0289207 255 0 0
0.179511 -0.186024 -0.0292404 255 0 0
0.180093 -0.187473 -0.0288436 255 0 0
0.159527 -0.184138 -0.0284942 255 0 0
0.161074 -0.18552 -0.0292722 255 0 0
0.178524 -0.18467 -0.02928 255 0 0
0.180323 -0.185368 -0.028018 255 0 0
0.159459 -0.182523 -0.0285211 255 0 0
0.177943 -0.183223 -0.0296763 255 0 0
0.179248 -0.183244 -0.0284349 255 0 0
0.158902 -0.180992 -0.0282812 255 0 0
0.173004 -0.180142 -0.029943 255 0 0
0.175179 -0.18073 -0.0290443 255 0 0
0.177163 -0.181598 -0.0289277 255 0 0
0.158834 -0.179378 -0.0283081 255 0 0
0.171644 -0.178911 -0.0296285 255 0 0
0.173128 -0.17888 -0.0285754 255 0 0
0.176386 -0.17998 -0.0281827 255 0 0
0.157516 -0.17628 -0.029544 255 0 0
0.15835 -0.17727 -0.0287387 255 0 0
0.167538 -0.177488 -0.0297513 255 0 0
0.168946 -0.176468 -0.029005 255 0 0
0.170692 -0.177365 -0.028713 255 0 0
0.147934 -0.175104 -0.0295515 255 0 0
0.156963 -0.174761 -0.0293035 255 0 0
0.162991 -0.174093 -0.0293761 255 0 0
0.164926 -0.174911 -0.0294296 255 0 0
0.166899 -0.175069 -0.0289936 255 0 0
0.14602 -0.172343 -0.0298321 255 0 0
0.156412 -0.173246 -0.0290637 255 0 0
0.161687 -0.173037 -0.0298143 255 0 0
0.162772 -0.172406 -0.029068 255 0 0
0.164544 -0.173204 -0.0285027 255 0 0
0.146013 -0.17087 -0.0296606 255 0 0
0.153191 -0.170562 -0.0292299 255 0 0
0.154649 -0.171408 -0.0287837 255 0 0
0.15666 -0.17023 -0.0297372 255 0 0
0.159456 -0.170556 -0.0295475 255 0 0
0.161129 -0.171324 -0.0294907 255 0 0
0.163002 -0.171191 -0.0286163 255 0 0
0.141083 -0.168709 -0.0299063 255 0 0
0.146878 -0.168231 -0.0296663 255 0 0
0.148837 -0.168961 -0.0297197 255 0 0
0.153148 -0.168959 -0.0292491 255 0 0
0.155385 -0.16906 -0.0294343 255 0 0
0.156593 -0.168249 -0.0292579 255 0 0
0.158799 -0.16891 -0.0289999 255 0 0
0.160897 -0.169534 -0.0287463 255 0 0
0.162705 -0.169615 -0.0284066 255 0 0
0.139382 -0.166153 -0.0294441 255 0 0
0.140692 -0.167376 -0.0295204 255 0 0
0.143007 -0.166786 -0.0295616 255 0 0
0.144936 -0.167505 -0.0296133 255 0 0
0.147098 -0.166249 -0.0288839 255 0 0
0.149058 -0.166971 -0.0289345 255 0 0
0.151006 -0.167185 -0.0291813 255 0 0
0.152867 -0.166809 -0.0284175 255 0 0
0.155362 -0.166834 -0.0290241 255 0 0
0.156662 -0.167 -0.029077 255 0 0
0.158471 -0.1675 -0.0283067 255 0 0
0.16149 -0.16793 -0.0282385 255 0 0
0.13873 -0.164453 -0.0293925 255 0 0
0.141205 -0.165093 -0.0291238 255 0 0
0.143226 -0.16482 -0.0287849 255 0 0
0.145155 -0.165531 -0.0288337 255 0 0
0.147318 -0.164268 -0.0281019 255 0 0
0.149216 -0.165072 -0.028922 255 0 0
0.151318 -0.165092 -0.0284102 255 0 0
0.153239 -0.164739 -0.0288323 255 0 0
0.155475 -0.165338 -0.028911 255 0 0
0.156663 -0.165828 -0.028239 255 0 0
0.137472 -0.162898 -0.0295409 255 0 0
0.138571 -0.162826 -0.028736 255 0 0
0.140824 -0.162575 -0.0282055 255 0 0
0.142022 -0.163695 -0.0284943 255 0 0
0.147212 -0.162036 -0.0298751 255 0 0
0.149025 -0.162836 -0.0295796 255 0 0
0.151344 -0.162995 -0.0294963 255 0 0
0.153211 -0.163113 -0.0286215 255 0 0
0.13544 -0.160565 -0.0292927 255 0 0
0.136769 -0.161252 -0.0288112 255 0 0
0.145261 -0.160633 -0.0298664 255 0 0
0.146919 -0.16069 -0.0291191 255 0 0
0.148637 -0.161212 -0.0287945 255 0 0
0.151352 -0.161837 -0.028666 255 0 0
0.133735 -0.158127 -0.0293735 255 0 0
0.134895 -0.158969 -0.0288138 255 0 0
0.136559 -0.159759 -0.0281077 255 0 0
0.143602 -0.15802 -0.0298035 255 0 0
0.145383 -0.158873 -0.0293197 255 0 0
0.147291 -0.15896 -0.0288409 255 0 0
0.132996 -0.156691 -0.0288864 255 0 0
0.134489 -0.157533 -0.0282411 255 0 0
0.139616 -0.157047 -0.0297105 255 0 0
0.141035 -0.156806 -0.0289354 255 0 0
0.143283 -0.156658 -0.0290747 255 0 0
0.144624 -0.15735 -0.0288245 255 0 0
0.146155 -0.156771 -0.0282711 255 0 0
0.131172 -0.154938 -0.0292999 255 0 0
0.132415 -0.155406 -0.0288893 255 0 0
0.136589 -0.15487 -0.0289505 255 0 0
0.139085 -0.155125 -0.0288225 255 0 0
0.142123 -0.155239 -0.0290808 255 0 0
0.129199 -0.152533 -0.0292639 255 0 0
0.130801 -0.153416 -0.0285241 255 0 0
0.133234 -0.152935 -0.0291378 255 0 0
0.135232 -0.15344 -0.028516 255 0 0
0.139544 -0.152631 -0.0295046 255 0 0
0.14069 -0.153259 -0.0283513 255 0 0
0.127609 -0.150909 -0.029741 255 0 0
0.128178 -0.151111 -0.0287377 255 0 0
0.131664 -0.151104 -0.0293804 255 0 0
0.132788 -0.151009 -0.0283343 255 0 0
0.137327 -0.150035 -0.0292307 255 0 0
0.1386 -0.151322 -0.0290191 255 0 0
0.126858 -0.149387 -0.0288328 255 0 0
0.129759 -0.148389 -0.0297574 255 0 0
0.131135 -0.149413 -0.0290686 255 0 0
0.136394 -0.14874 -0.0287488 255 0 0
0.12324 -0.146415 -0.029814 255 0 0
0.124758 -0.147134 -0.02859 255 0 0
0.129438 -0.146776 -0.0289128 255 0 0
0.130897 -0.147745 -0.0283164 255 0 0
0.133126 -0.14634 -0.0296068 255 0 0
0.135103 -0.146698 -0.0289738 255 0 0
0.121773 -0.14488 -0.029684 255 0 0
0.12293 -0.144967 -0.0285242 255 0 0
0.127276 -0.144987 -0.0286465 255 0 0
0.128729 -0.145747 -0.0288139 255 0 0
0.132968 -0.144923 -0.0286928 255 0 0
0.121274 -0.143147 -0.0290663 255 0 0
0.122026 -0.143867 -0.0287225 255 0 0
0.125012 -0.143087 -0.0290045 255 0 0
0.126327 -0.143917 -0.0290324 255 0 0
0.131484 -0.142972 -0.0287919 255 0 0
0.119302 -0.140725 -0.0288183 255 0 0
0.120473 -0.141371 -0.0286754 255 0 0
0.123446 -0.140801 -0.0287862 255 0 0
0.12419 -0.141942 -0.029527 255 0 0
0.129684 -0.141044 -0.0295735 255 0 0
0.13034 -0.141019 -0.028207 255 0 0
0.117615 -0.138627 -0.0285834 255 0 0
0.118708 -0.139112 -0.0285995 255 0 0
0.122529 -0.139205 -0.0287793 255 0 0
0.127245 -0.138574 -0.0299886 255 0 0
0.128757 -0.139036 -0.0291133 255 0 0
0.115944 -0.136846 -0.0289385 255 0 0
0.116746 -0.137266 -0.0287456 255 0 0
0.119529 -0.137282 -0.0291813 255 0 0
0.120363 -0.137882 -0.0282723 255 0 0
0.125482 -0.136106 -0.0290467 255 0 0
0.126891 -0.137256 -0.0289617 255 0 0
0.113955 -0.134546 -0.0290108 255 0 0
0.115028 -0.135035 -0.0285196 255 0 0
0.117466 -0.134818 -0.0292869 255 0 0
0.118274 -0.135946 -0.0287669 255 0 0
0.123959 -0.134903 -0.0299299 255 0 0
0.124607 -0.134881 -0.0285797 255 0 0
0.113606 -0.132572 -0.028808 255 0 0
0.114553 -0.132768 -0.0287595 255 0 0
0.116222 -0.133494 -0.0288746 255 0 0
0.123019 -0.133273 -0.0288578 255 0 0
0.110967 -0.131041 -0.0288953 255 0 0
0.112917 -0.131099 -0.0289947 255 0 0
0.119873 -0.130087 -0.02941 255 0 0
0.12087 -0.130873 -0.0288268 255 0 0
0.109763 -0.129745 -0.028493 255 0 0
0.110997 -0.129083 -0.0288847 255 0 0
0.112949 -0.128657 -0.02919 255 0 0
0.119026 -0.128892 -0.0289486 255 0 0
0.108708 -0.127187 -0.028959 255 0 0
0.113069 -0.126917 -0.029313 255 0 0
0.117198 -0.126929 -0.0290715 255 0 0
0.118183 -0.127704 -0.0284896 255 0 0
0.105234 -0.124432 -0.0293389 255 0 0
0.107312 -0.125266 -0.0292515 255 0 0
0.112776 -0.125415 -0.0289626 255 0 0
0.115111 -0.12459 -0.0290404 255 0 0
0.0993656 -0.12231 -0.0290484 255 0 0
0.100904 -0.122648 -0.02855 255 0 0
0.103063 -0.123325 -0.0285141 255 0 0
0.107457 -0.123285 -0.0289733 255 0 0
0.111963 -0.122616 -0.0289682 255 0 0
0.113037 -0.12348 -0.0289628 255 0 0
0.0969355 -0.120763 -0.0293013 255 0 0
0.0981762 -0.121645 -0.028124 255 0 0
0.10669 -0.121136 -0.0291332 255 0 0
0.110938 -0.12091 -0.0289622 255 0 0
0.112772 -0.121887 -0.0288604 255 0 0
0.0955776 -0.11876 -0.0291793 255 0 0
0.0960682 -0.119668 -0.0280125 255 0 0
0.105126 -0.119021 -0.0292521 255 0 0
0.107799 -0.118824 -0.0299119 255 0 0
0.108934 -0.119015 -0.0292544 255 0 0
0.110149 -0.119758 -0.0290313 255 0 0
0.0957111 -0.116698 -0.0290491 255 0 0
0.103499 -0.116975 -0.029282 255 0 0
0.105276 -0.117065 -0.0292086 255 0 0
0.106845 -0.117221 -0.0287535 255 0 0
0.0959938 -0.115207 -0.0290906 255 0 0
0.0997524 -0.114455 -0.0285915 255 0 0
0.101314 -0.115324 -0.0295077 255 0 0
0.102125 -0.115914 -0.0286241 255 0 0
0.104962 -0.114858 -0.0285073 255 0 0
0.0959863 -0.113886 -0.0289395 255 0 0
0.0967577 -0.112708 -0.0291278 255 0 0
0.0991472 -0.113685 -0.0297332 255 0 0
0.10366 -0.112533 -0.0286793 255 0 0
0.0967117 -0.111066 -0.0289877 255 0 0
0.102783 -0.110981 -0.0291382 255 0 0
0.0959298 -0.108334 -0.0291032 255 0 0
0.0965462 -0.109564 -0.0288707 255 0 0
0.0996521 -0.108882 -0.028773 255 0 0
0.100891 -0.109886 -0.028686 255 0 0
0.102671 -0.109266 -0.0290517 255 0 0
0.095152 -0.106587 -0.029681 255 0 0
0.0971983 -0.106892 -0.0289444 255 0 0
0.0993255 -0.106814 -0.0291784 255 0 0
0.101401 -0.107469 -0.0292262 255 0 0
0.0936037 -0.104648 -0.0291886 255 0 0
0.0953508 -0.105233 -0.0289713 255 0 0
0.0973148 -0.104205 -0.0290797 255 0 0
0.0991425 -0.105189 -0.0288512 255 0 0
0.0886382 -0.103033 -0.0292637 255 0 0
0.0914944 -0.102008 -0.028746 255 0 0
0.0925156 -0.103057 -0.028546 255 0 0
0.095166 -0.102643 -0.0293567 255 0 0
0.0968892 -0.103134 -0.0290786 255 0 0
0.0984166 -0.103774 -0.0287075 255 0 0
0.0885493 -0.10096 -0.0293026 255 0 0
0.0908469 -0.10056 -0.0290741 255 0 0
0.0929703 -0.101099 -0.0289799 255 0 0
0.0967398 -0.100798 -0.0287136 255 0 0
0.087816 -0.0992303 -0.0288927 255 0 0
0.089412 -0.0993985 -0.0283098 255 0 0
0.0901927 -0.0990767 -0.029342 255 0 0
0.0962024 -0.099018 -0.0291073 255 0 0
0.0893975 -0.0970839 -0.0290364 255 0 0
0.0904487 -0.097694 -0.0280328 255 0 0
0.0958627 -0.0970352 -0.0297626 255 0 0
0.0875679 -0.0945043 -0.029729 255 0 0
0.088842 -0.095048 -0.028705 255 0 0
0.0871192 -0.0926876 -0.0298127 255 0 0
0.0881698 -0.0930475 -0.0283903 255 0 0
0.0871364 -0.0911676 -0.0289771 255 0 0
0.0859278 -0.088472 -0.028742 255 0 0
0.0862997 -0.0896724 -0.0293176 255 0 0
0.0836221 -0.0865204 -0.0290572 255 0 0
0.0849423 -0.0874487 -0.0288799 255 0 0
0.0814472 -0.0845558 -0.0287248 255 0 0
0.082314 -0.0856004 -0.0292329 255 0 0
0.0792119 -0.0826632 -0.0290352 255 0 0
0.0804919 -0.0835605 -0.0288606 255 0 0
0.0772493 -0.0809453 -0.0289284 255 0 0
0.0780344 -0.0817301 -0.0285736 255 0 0
0.0754225 -0.0790306 -0.0289417 255 0 0
0.0762616 -0.0788698 -0.028082 255 0 0
0.0713193 -0.0765427 -0.0298687 255 0 0
0.0729692 -0.076769 -0.0293439 255 0 0
0.0745826 -0.0774615 -0.0291739 255 0 0
0.0709954 -0.0749769 -0.0291056 255 0 0
0.0726411 -0.0751989 -0.0285792 255 0 0
0.0695049 -0.073101 -0.0295369 255 0 0
0.0709923 -0.072987 -0.0288349 255 0 0
0.0692247 -0.0713512 -0.0293204 255 0 0
0.070702 -0.0717804 -0.0285496 255 0 0
0.182829 -0.193183 -0.0276123 255 0 0
0.181484 -0.188265 -0.0272252 255 0 0
0.182065 -0.189713 -0.0268289 255 0 0
0.180904 -0.186817 -0.0276216 255 0 0
0.160783 -0.185633 -0.0272818 255 0 0
0.1582 -0.182808 -0.0260161 255 0 0
0.158133 -0.181202 -0.0260427 255 0 0
0.178578 -0.180569 -0.0272773 255 0 0
0.175214 -0.178472 -0.0270903 255 0 0
0.176792 -0.179431 -0.0266161 255 0 0
0.172963 -0.176905 -0.0274079 255 0 0
0.174446 -0.17687 -0.0263528 255 0 0
0.169267 -0.175169 -0.0278235 255 0 0
0.170931 -0.175079 -0.0269483 255 0 0
0.172798 -0.174937 -0.0262442 255 0 0
0.165372 -0.172329 -0.0265471 255 0 0
0.166694 -0.173524 -0.0268479 255 0 0
0.169972 -0.173762 -0.026991 255 0 0
0.155045 -0.170389 -0.0266217 255 0 0
0.156072 -0.171794 -0.027119 255 0 0
0.162986 -0.17107 -0.0276292 255 0 0
0.164057 -0.171141 -0.0262481 255 0 0
0.153812 -0.168927 -0.0278216 255 0 0
0.154501 -0.168891 -0.0263874 255 0 0
0.159738 -0.168125 -0.0268801 255 0 0
0.161031 -0.169298 -0.0271783 255 0 0
0.163121 -0.169846 -0.0262918 255 0 0
0.15327 -0.167433 -0.0275861 255 0 0
0.154434 -0.167293 -0.026414 255 0 0
0.15639 -0.166421 -0.027464 255 0 0
0.158758 -0.166622 -0.0272008 255 0 0
0.144323 -0.164097 -0.0279665 255 0 0
0.150008 -0.164558 -0.0279042 255 0 0
0.153253 -0.165329 -0.0270571 255 0 0
0.155326 -0.164729 -0.0276442 255 0 0
0.156817 -0.164955 -0.0267876 255 0 0
0.159063 -0.165111 -0.0269789 255 0 0
0.138762 -0.162932 -0.0278581 255 0 0
0.140601 -0.163435 -0.0273199 255 0 0
0.143115 -0.162972 -0.0276776 255 0 0
0.144542 -0.162129 -0.0271895 255 0 0
0.146816 -0.162712 -0.0275652 255 0 0
0.14877 -0.16342 -0.0276113 255 0 0
0.15108 -0.163044 -0.0275126 255 0 0
0.15365 -0.162696 -0.0274368 255 0 0
0.15491 -0.163466 -0.0268456 255 0 0
0.156665 -0.16349 -0.0265694 255 0 0
0.158157 -0.163836 -0.0261874 255 0 0
0.13873 -0.160939 -0.0275007 255 0 0
0.140966 -0.161566 -0.0271062 255 0 0
0.143333 -0.16101 -0.0269025 255 0 0
0.145095 -0.160041 -0.0267426 255 0 0
0.146313 -0.161161 -0.0270305 255 0 0
0.148941 -0.160763 -0.0272647 255 0 0
0.150926 -0.160569 -0.0268997 255 0 0
0.152681 -0.161153 -0.0268491 255 0 0
0.154514 -0.161585 -0.0264519 255 0 0
0.136511 -0.158594 -0.0272942 255 0 0
0.138765 -0.159201 -0.0268234 255 0 0
0.140609 -0.158912 -0.0260072 255 0 0
0.143007 -0.159411 -0.0265368 255 0 0
0.147195 -0.158997 -0.0270988 255 0 0
0.149264 -0.158693 -0.0267268 255 0 0
0.151588 -0.158535 -0.0266238 255 0 0
0.1528 -0.15934 -0.026435 255 0 0
0.13362 -0.156734 -0.0274159 255 0 0
0.134958 -0.156852 -0.0267447 255 0 0
0.136739 -0.156828 -0.0262794 255 0 0
0.139241 -0.157777 -0.0266602 255 0 0
0.145152 -0.15728 -0.0265207 255 0 0
0.147413 -0.156924 -0.026647 255 0 0
0.148619 -0.157075 -0.0266776 255 0 0
0.150464 -0.157085 -0.0262593 255 0 0
0.152263 -0.156785 -0.0262265 255 0 0
0.131829 -0.154834 -0.0277817 255 0 0
0.132872 -0.154823 -0.026707 255 0 0
0.134768 -0.155431 -0.0265873 255 0 0
0.141067 -0.155115 -0.0277188 255 0 0
0.143312 -0.154824 -0.0273708 255 0 0
0.144745 -0.154744 -0.0274194 255 0 0
0.146659 -0.154982 -0.0267813 255 0 0
0.148948 -0.155279 -0.0261586 255 0 0
0.129689 -0.152378 -0.0278553 255 0 0
0.131229 -0.152642 -0.0269861 255 0 0
0.132918 -0.153081 -0.026513 255 0 0
0.134295 -0.153927 -0.0260665 255 0 0
0.136628 -0.153197 -0.0277454 255 0 0
0.138939 -0.152994 -0.0274519 255 0 0
0.141148 -0.152779 -0.0269675 255 0 0
0.142862 -0.153411 -0.0266915 255 0 0
0.144769 -0.153047 -0.0261979 255 0 0
0.129163 -0.151183 -0.0276033 255 0 0
0.130381 -0.151147 -0.0265684 255 0 0
0.134848 -0.151471 -0.0277807 255 0 0
0.13683 -0.150889 -0.0271882 255 0 0
0.139069 -0.15106 -0.0271189 255 0 0
0.140956 -0.15114 -0.0263823 255 0 0
0.127265 -0.148825 -0.0275403 255 0 0
0.129057 -0.149433 -0.0266061 255 0 0
0.132816 -0.148817 -0.0275954 255 0 0
0.134857 -0.149277 -0.0274673 255 0 0
0.137326 -0.148926 -0.0267403 255 0 0
0.13912 -0.149756 -0.0265 255 0 0
0.125148 -0.146581 -0.027341 255 0 0
0.127006 -0.14715 -0.0264556 255 0 0
0.13093 -0.146649 -0.027523 255 0 0
0.132974 -0.147095 -0.0269677 255 0 0
0.135167 -0.146786 -0.0268822 255 0 0
0.136511 -0.14748 -0.0267716 255 0 0
0.123082 -0.144587 -0.0268043 255 0 0
0.124921 -0.145168 -0.0265545 255 0 0
0.12934 -0.144697 -0.0271455 255 0 0
0.130963 -0.145555 -0.0267315 255 0 0
0.132322 -0.14585 -0.0263603 255 0 0
0.134383 -0.144754 -0.0268809 255 0 0
0.122848 -0.143104 -0.0268816 255 0 0
0.124984 -0.142986 -0.0268035 255 0 0
0.126774 -0.14298 -0.0271879 255 0 0
0.128299 -0.143883 -0.0266832 255 0 0
0.132865 -0.143038 -0.0272506 255 0 0
0.119962 -0.140584 -0.0270179 255 0 0
0.121039 -0.141164 -0.027265 255 0 0
0.122928 -0.140527 -0.0267658 255 0 0
0.124602 -0.141246 -0.0268877 255 0 0
0.126196 -0.14083 -0.0264008 255 0 0
0.131415 -0.140859 -0.0270888 255 0 0
0.11794 -0.138254 -0.0270976 255 0 0
0.119128 -0.138905 -0.02721 255 0 0
0.121435 -0.138319 -0.0276353 255 0 0
0.123288 -0.138815 -0.0269495 255 0 0
0.129342 -0.138842 -0.0271365 255 0 0
0.130513 -0.139609 -0.0266208 255 0 0
0.117372 -0.137058 -0.0271117 255 0 0
0.119105 -0.136544 -0.0278606 255 0 0
0.120826 -0.137116 -0.0270418 255 0 0
0.122552 -0.13769 -0.0262207 255 0 0
0.127222 -0.136675 -0.0265729 255 0 0
0.115384 -0.135127 -0.0272705 255 0 0
0.116874 -0.135212 -0.0269105 255 0 0
0.118735 -0.135042 -0.0269522 255 0 0
0.120217 -0.135918 -0.0264514 255 0 0
0.125661 -0.134718 -0.0274749 255 0 0
0.126539 -0.135943 -0.0279397 255 0 0
0.113947 -0.132283 -0.0270993 255 0 0
0.114955 -0.132959 -0.0270843 255 0 0
0.116754 -0.133286 -0.0267976 255 0 0
0.123396 -0.132369 -0.027103 255 0 0
0.124787 -0.133499 -0.0270126 255 0 0
0.11099 -0.130631 -0.0271554 255 0 0
0.113073 -0.131197 -0.0272017 255 0 0
0.114083 -0.131123 -0.0276141 255 0 0
0.121157 -0.130046 -0.0267368 255 0 0
0.122013 -0.131245 -0.0271937 255 0 0
0.109461 -0.128271 -0.0269132 255 0 0
0.110926 -0.129225 -0.0265704 255 0 0
0.113277 -0.129344 -0.0271291 255 0 0
0.119666 -0.128872 -0.027615 255 0 0
0.1207 -0.128705 -0.0265223 255 0 0
0.108756 -0.126821 -0.027101 255 0 0
0.110687 -0.127939 -0.0260787 255 0 0
0.113253 -0.12667 -0.0275853 255 0 0
0.117981 -0.126503 -0.0267065 255 0 0
0.119336 -0.127601 -0.0266142 255 0 0
0.106683 -0.124685 -0.0270893 255 0 0
0.108323 -0.125287 -0.0272258 255 0 0
0.113189 -0.124971 -0.026533 255 0 0
0.11568 -0.124176 -0.0271275 255 0 0
0.116828 -0.125337 -0.0269175 255 0 0
0.101238 -0.122313 -0.0271201 255 0 0
0.102635 -0.122733 -0.0265185 255 0 0
0.104644 -0.123551 -0.0269191 255 0 0
0.107817 -0.122641 -0.0276371 255 0 0
0.108417 -0.123407 -0.0264853 255 0 0
0.112409 -0.123028 -0.027066 255 0 0
0.114349 -0.123097 -0.0272187 255 0 0
0.0972897 -0.12082 -0.0273985 255 0 0
0.0986605 -0.121233 -0.0268025 255 0 0
0.100037 -0.121647 -0.0262025 255 0 0
0.107138 -0.121057 -0.0269595 255 0 0
0.110962 -0.120687 -0.0273082 255 0 0
0.112808 -0.121371 -0.0272037 255 0 0
0.114034 -0.121853 -0.0262316 255 0 0
0.0957713 -0.11852 -0.0276714 255 0 0
0.0965508 -0.11926 -0.0266975 255 0 0
0.105321 -0.118631 -0.0268051 255 0 0
0.106092 -0.119588 -0.0276391 255 0 0
0.109369 -0.1186 -0.0271739 255 0 0
0.110905 -0.119812 -0.0269537 255 0 0
0.0963692 -0.117119 -0.0271385 255 0 0
0.103133 -0.116977 -0.0270393 255 0 0
0.104549 -0.116034 -0.02738 255 0 0
0.106904 -0.116747 -0.0266994 255 0 0
0.108496 -0.117631 -0.027252 255 0 0
0.0966488 -0.114971 -0.0271021 255 0 0
0.100963 -0.115336 -0.0272732 255 0 0
0.105081 -0.115346 -0.0263767 255 0 0
0.0971107 -0.112549 -0.0273167 255 0 0
0.098566 -0.113397 -0.027234 255 0 0
0.103507 -0.112857 -0.0268672 255 0 0
0.10452 -0.112307 -0.027427 255 0 0
0.0969231 -0.110851 -0.0269227 255 0 0
0.101361 -0.110669 -0.0272798 255 0 0
0.10218 -0.111286 -0.0261031 255 0 0
0.104494 -0.110938 -0.0267708 255 0 0
0.0965558 -0.109193 -0.0271041 255 0 0
0.0986876 -0.108039 -0.0273583 255 0 0
0.10005 -0.109113 -0.0265174 255 0 0
0.103677 -0.109061 -0.0275813 255 0 0
0.104299 -0.108921 -0.0261478 255 0 0
0.0955751 -0.106818 -0.0273193 255 0 0
0.0963953 -0.10714 -0.0267094 255 0 0
0.0983494 -0.10613 -0.0275345 255 0 0
0.100913 -0.106183 -0.0279562 255 0 0
0.102707 -0.107188 -0.0270491 255 0 0
0.0938435 -0.104107 -0.0277174 255 0 0
0.0949389 -0.104907 -0.0269916 255 0 0
0.0978182 -0.105709 -0.0260213 255 0 0
0.0989457 -0.105154 -0.0270106 255 0 0
0.101167 -0.105434 -0.0265901 255 0 0
0.0934187 -0.103045 -0.0266665 255 0 0
0.0952638 -0.103338 -0.0273803 255 0 0
0.0973453 -0.102813 -0.0272013 255 0 0
0.0985142 -0.10339 -0.0267578 255 0 0
0.091078 -0.100955 -0.0276971 255 0 0
0.0932209 -0.101045 -0.0272752 255 0 0
0.0955102 -0.101179 -0.0272693 255 0 0
0.0966948 -0.101288 -0.0267169 255 0 0
0.0896547 -0.0988723 -0.0268566 255 0 0
0.0913147 -0.0992101 -0.0274381 255 0 0
0.0930267 -0.0992907 -0.0268135 255 0 0
0.0953616 -0.0990209 -0.0271487 255 0 0
0.0915584 -0.0967695 -0.0266291 255 0 0
0.0920932 -0.0973041 -0.0265283 255 0 0
0.094455 -0.0972382 -0.0276918 255 0 0
0.0914977 -0.0944569 -0.0263669 255 0 0
0.089432 -0.0927183 -0.0269432 255 0 0
0.0909392 -0.09312 -0.0264246 255 0 0
0.0882708 -0.0910622 -0.0271184 255 0 0
0.0910686 -0.0906219 -0.0265313 255 0 0
