ply
format ascii 1.0
element vertex 1263
property float x
property float y
property float z
property uchar diffuse_red
property uchar diffuse_green
property uchar diffuse_blue
end_header
0.138898 -0.170755 -0.0352588 255 0 0
0.152617 -0.170629 -0.03541 255 0 0
0.127017 -0.168738 -0.0352385 255 0 0
0.128527 -0.168834 -0.0342621 255 0 0
0.131854 -0.168891 -0.0350121 255 0 0
0.137312 -0.168823 -0.0355965 255 0 0
0.138977 -0.169131 -0.0348355 255 0 0
0.152624 -0.168977 -0.0350121 255 0 0
0.125463 -0.166573 -0.0349359 255 0 0
0.127484 -0.167387 -0.0340624 255 0 0
0.129617 -0.166663 -0.0347643 255 0 0
0.130733 -0.167774 -0.0348879 255 0 0
0.135434 -0.166433 -0.0356382 255 0 0
0.136956 -0.167339 -0.034846 255 0 0
0.138978 -0.167609 -0.0340029 255 0 0
0.150614 -0.166558 -0.0346971 255 0 0
0.152235 -0.167503 -0.0344995 255 0 0
0.122942 -0.165049 -0.0357051 255 0 0
0.124434 -0.16514 -0.0347359 255 0 0
0.127813 -0.164295 -0.0345964 255 0 0
0.12892 -0.165397 -0.034719 255 0 0
0.134669 -0.165135 -0.0350543 255 0 0
0.136357 -0.164963 -0.0343348 255 0 0
0.144853 -0.164752 -0.0354744 255 0 0
0.147427 -0.164146 -0.0346094 255 0 0
0.148776 -0.165151 -0.0353978 255 0 0
0.121417 -0.162915 -0.0354041 255 0 0
0.122903 -0.163006 -0.0344384 255 0 0
0.12542 -0.162162 -0.0357721 255 0 0
0.126818 -0.163145 -0.0352242 255 0 0
0.132774 -0.163232 -0.0348122 255 0 0
0.134302 -0.163774 -0.0349278 255 0 0
0.139275 -0.16246 -0.0357671 255 0 0
0.143102 -0.162298 -0.0352199 255 0 0
0.144229 -0.163378 -0.0359467 255 0 0
0.119754 -0.160086 -0.0353946 255 0 0
0.121072 -0.16119 -0.0348685 255 0 0
0.124832 -0.160885 -0.0350174 255 0 0
0.126023 -0.161945 -0.0344298 255 0 0
0.129715 -0.160006 -0.0358397 255 0 0
0.13131 -0.160892 -0.034439 255 0 0
0.13281 -0.161026 -0.0341347 255 0 0
0.137429 -0.160683 -0.0349139 255 0 0
0.13968 -0.161217 -0.0349415 255 0 0
0.141979 -0.161223 -0.0344985 255 0 0
0.11924 -0.158381 -0.0346678 255 0 0
0.121062 -0.159056 -0.0348265 255 0 0
0.123089 -0.158645 -0.034831 255 0 0
0.124148 -0.159638 -0.0349724 255 0 0
0.126576 -0.158094 -0.0347867 255 0 0
0.129222 -0.158782 -0.0350948 255 0 0
0.130907 -0.159697 -0.0353297 255 0 0
0.133361 -0.15945 -0.0349689 255 0 0
0.135958 -0.158738 -0.0341767 255 0 0
0.13628 -0.159608 -0.035214 255 0 0
0.11776 -0.157296 -0.035 255 0 0
0.119279 -0.156588 -0.0358944 255 0 0
0.121364 -0.156366 -0.0349299 255 0 0
0.122285 -0.157305 -0.0347492 255 0 0
0.124168 -0.157261 -0.0342092 255 0 0
0.12703 -0.157134 -0.035101 255 0 0
0.129198 -0.157109 -0.0347607 255 0 0
0.13009 -0.157359 -0.0347817 255 0 0
0.132622 -0.157161 -0.0344541 255 0 0
0.115787 -0.154537 -0.0346103 255 0 0
0.117198 -0.155417 -0.0349462 255 0 0
0.119333 -0.155076 -0.0345638 255 0 0
0.120793 -0.155263 -0.0345779 255 0 0
0.123478 -0.154986 -0.0345468 255 0 0
0.124912 -0.155445 -0.0350589 255 0 0
0.128699 -0.154842 -0.0354587 255 0 0
0.130029 -0.155395 -0.0344753 255 0 0
0.114809 -0.153168 -0.0344172 255 0 0
0.119528 -0.153202 -0.0352759 255 0 0
0.120174 -0.15219 -0.0340017 255 0 0
0.122783 -0.153067 -0.0350218 255 0 0
0.126446 -0.153008 -0.0359112 255 0 0
0.129209 -0.152983 -0.0346784 255 0 0
0.113537 -0.150399 -0.0347937 255 0 0
0.114172 -0.151782 -0.0346056 255 0 0
0.117078 -0.150493 -0.0350116 255 0 0
0.118133 -0.151538 -0.0351322 255 0 0
0.121025 -0.151101 -0.034992 255 0 0
0.122765 -0.150858 -0.0354397 255 0 0
0.124666 -0.151218 -0.0348623 255 0 0
0.126986 -0.151458 -0.034544 255 0 0
0.11257 -0.149048 -0.0346015 255 0 0
0.115033 -0.148298 -0.0353159 255 0 0
0.116692 -0.149298 -0.0352194 255 0 0
0.119449 -0.148807 -0.0349744 255 0 0
0.12079 -0.149382 -0.0344961 255 0 0
0.110981 -0.146337 -0.0345979 255 0 0
0.113355 -0.146809 -0.0350501 255 0 0
0.115229 -0.146795 -0.0342712 255 0 0
0.117182 -0.147766 -0.0346224 255 0 0
0.118523 -0.146972 -0.0349595 255 0 0
0.111206 -0.144851 -0.0350582 255 0 0
0.112486 -0.145452 -0.0348645 255 0 0
0.117455 -0.145116 -0.0349454 255 0 0
0.10942 -0.142931 -0.0350645 255 0 0
0.110418 -0.143214 -0.0350183 255 0 0
0.115016 -0.14263 -0.0351889 255 0 0
0.116538 -0.14338 -0.0340859 255 0 0
0.105929 -0.140917 -0.0349649 255 0 0
0.109241 -0.14117 -0.035018 255 0 0
0.111272 -0.140677 -0.0351522 255 0 0
0.112732 -0.140937 -0.0348681 255 0 0
0.103952 -0.13899 -0.0355284 255 0 0
0.104955 -0.139462 -0.0348168 255 0 0
0.10756 -0.138873 -0.0356212 255 0 0
0.108927 -0.139227 -0.0349649 255 0 0
0.111159 -0.138889 -0.0351601 255 0 0
0.112463 -0.138834 -0.0340329 255 0 0
0.114516 -0.139371 -0.0350693 255 0 0
0.116532 -0.139262 -0.0346455 255 0 0
0.118247 -0.139351 -0.0341135 255 0 0
0.103046 -0.136745 -0.0352292 255 0 0
0.104003 -0.137522 -0.0342399 255 0 0
0.106315 -0.136899 -0.035523 255 0 0
0.108516 -0.137169 -0.035012 255 0 0
0.111316 -0.136824 -0.0350428 255 0 0
0.112401 -0.137453 -0.0340394 255 0 0
0.101629 -0.134762 -0.0357132 255 0 0
0.10235 -0.134931 -0.0344758 255 0 0
0.104922 -0.134963 -0.0352391 255 0 0
0.108106 -0.13511 -0.0350591 255 0 0
0.110816 -0.13489 -0.0350429 255 0 0
0.0986434 -0.132061 -0.0359884 255 0 0
0.10111 -0.133089 -0.0350783 255 0 0
0.103538 -0.13304 -0.0349575 255 0 0
0.107833 -0.133737 -0.0350905 255 0 0
0.108961 -0.133012 -0.0353311 255 0 0
0.110789 -0.133374 -0.0340782 255 0 0
0.0973391 -0.131117 -0.0341107 255 0 0
0.0991452 -0.13078 -0.0352804 255 0 0
0.100293 -0.1315 -0.0356183 255 0 0
0.102893 -0.130609 -0.0348063 255 0 0
0.105567 -0.130747 -0.0354003 255 0 0
0.107256 -0.131061 -0.0348734 255 0 0
0.109165 -0.131233 -0.0345822 255 0 0
0.111137 -0.131441 -0.0341408 255 0 0
0.0965456 -0.128666 -0.0343949 255 0 0
0.0984497 -0.128755 -0.0352132 255 0 0
0.100443 -0.12927 -0.0351771 255 0 0
0.103245 -0.129176 -0.035894 255 0 0
0.104577 -0.128865 -0.0350879 255 0 0
0.106867 -0.128917 -0.0349037 255 0 0
0.108454 -0.129259 -0.0342126 255 0 0
0.0945512 -0.126622 -0.034887 255 0 0
0.0966747 -0.127784 -0.0341871 255 0 0
0.0995693 -0.126762 -0.0352147 255 0 0
0.101109 -0.127 -0.0354507 255 0 0
0.103042 -0.127146 -0.0350002 255 0 0
0.104113 -0.127565 -0.0348437 255 0 0
0.106163 -0.126957 -0.0345356 255 0 0
0.0944602 -0.124626 -0.0348977 255 0 0
0.100832 -0.125461 -0.0345671 255 0 0
0.10319 -0.124973 -0.0343573 255 0 0
0.105339 -0.125802 -0.0340408 255 0 0
0.093642 -0.122379 -0.0340915 255 0 0
0.0943997 -0.123295 -0.0349051 255 0 0
0.100881 -0.123142 -0.035962 255 0 0
0.09226 -0.12001 -0.0346226 255 0 0
0.10015 -0.120777 -0.0343029 255 0 0
0.0915979 -0.119038 -0.0342231 255 0 0
0.0994128 -0.118804 -0.0347603 255 0 0
0.0906828 -0.117655 -0.0340826 255 0 0
0.0970213 -0.116687 -0.0347173 255 0 0
0.0985196 -0.117583 -0.0345777 255 0 0
0.0896146 -0.115435 -0.0356809 255 0 0
0.0914068 -0.114491 -0.0347304 255 0 0
0.0931591 -0.115299 -0.0349512 255 0 0
0.095533 -0.115796 -0.0348555 255 0 0
0.0895293 -0.113025 -0.0347798 255 0 0
0.0891051 -0.11103 -0.0355858 255 0 0
0.219227 -0.264908 -0.0337119 255 0 0
0.218722 -0.262381 -0.0337677 255 0 0
0.217751 -0.260738 -0.0337132 255 0 0
0.216782 -0.2591 -0.0336589 255 0 0
0.215816 -0.257466 -0.0336047 255 0 0
0.213894 -0.254214 -0.0334969 255 0 0
0.214854 -0.255838 -0.0335507 255 0 0
0.212316 -0.25265 -0.0333529 255 0 0
0.210747 -0.251096 -0.0332098 255 0 0
0.207639 -0.248015 -0.0329262 255 0 0
0.209189 -0.249551 -0.0330676 255 0 0
0.206099 -0.246489 -0.0327858 255 0 0
0.204569 -0.244971 -0.0326462 255 0 0
0.203643 -0.243394 -0.0325949 255 0 0
0.201801 -0.240252 -0.0324928 255 0 0
0.202721 -0.241821 -0.0325437 255 0 0
0.20935 -0.240844 -0.0338324 255 0 0
0.200295 -0.238764 -0.0323551 255 0 0
0.208601 -0.239069 -0.0335219 255 0 0
0.198686 -0.23733 -0.0330388 255 0 0
0.207853 -0.237299 -0.0332123 255 0 0
0.195609 -0.23444 -0.0335785 255 0 0
0.197198 -0.235858 -0.0329004 255 0 0
0.203733 -0.235263 -0.0339861 255 0 0
0.20629 -0.23586 -0.0333734 255 0 0
0.194139 -0.232985 -0.0334395 255 0 0
0.19179 -0.230013 -0.0332505 255 0 0
0.192552 -0.231241 -0.0336267 255 0 0
0.194853 -0.231503 -0.0333533 255 0 0
0.189165 -0.228314 -0.0322695 255 0 0
0.190445 -0.228858 -0.0333792 255 0 0
0.189073 -0.227204 -0.0332017 255 0 0
0.185671 -0.224462 -0.0338883 255 0 0
0.186555 -0.224549 -0.0327199 255 0 0
0.18856 -0.225661 -0.0332289 255 0 0
0.183133 -0.222625 -0.032607 255 0 0
0.184973 -0.223074 -0.0329644 255 0 0
0.181247 -0.220632 -0.0327559 255 0 0
0.183183 -0.220981 -0.0326686 255 0 0
0.179461 -0.219466 -0.032665 255 0 0
0.181392 -0.218819 -0.0331989 255 0 0
0.176962 -0.217117 -0.0333049 255 0 0
0.178825 -0.217333 -0.0330232 255 0 0
0.180557 -0.217143 -0.0330886 255 0 0
0.17484 -0.214757 -0.0331884 255 0 0
0.177619 -0.214876 -0.0334331 255 0 0
0.179283 -0.215204 -0.0327317 255 0 0
0.173318 -0.213205 -0.0333613 255 0 0
0.177038 -0.213049 -0.0329409 255 0 0
0.170654 -0.210099 -0.0329606 255 0 0
0.17216 -0.211633 -0.0327869 255 0 0
0.174968 -0.210984 -0.033194 255 0 0
0.169158 -0.208573 -0.0331335 255 0 0
0.173197 -0.20886 -0.0329852 255 0 0
0.168529 -0.206979 -0.0328509 255 0 0
0.170906 -0.206914 -0.0333088 255 0 0
0.172312 -0.206935 -0.0326317 255 0 0
0.167298 -0.205443 -0.0331665 255 0 0
0.168782 -0.205033 -0.0327713 255 0 0
0.170763 -0.205221 -0.0334692 255 0 0
0.165013 -0.203205 -0.0329141 255 0 0
0.1673 -0.203221 -0.0324682 255 0 0
0.169455 -0.202891 -0.0338699 255 0 0
0.170354 -0.203703 -0.032946 255 0 0
0.163243 -0.20093 -0.0329472 255 0 0
0.166895 -0.200539 -0.0325415 255 0 0
0.16862 -0.201516 -0.0332325 255 0 0
0.162036 -0.199421 -0.0332598 255 0 0
0.164811 -0.198405 -0.0325463 255 0 0
0.166509 -0.199297 -0.0330747 255 0 0
0.160879 -0.197117 -0.0327023 255 0 0
0.162888 -0.196876 -0.0332619 255 0 0
0.16593 -0.196032 -0.0328141 255 0 0
0.166237 -0.197573 -0.0327797 255 0 0
0.159034 -0.194873 -0.0336057 255 0 0
0.161015 -0.194809 -0.0331384 255 0 0
0.165123 -0.194625 -0.0327668 255 0 0
0.157952 -0.193396 -0.033048 255 0 0
0.159172 -0.192755 -0.0326667 255 0 0
0.161822 -0.1923 -0.0339645 255 0 0
0.164317 -0.193221 -0.0327196 255 0 0
0.155387 -0.190377 -0.0334814 255 0 0
0.156912 -0.191606 -0.0332975 255 0 0
0.160888 -0.190941 -0.0331086 255 0 0
0.163019 -0.191957 -0.0325914 255 0 0
0.152842 -0.188601 -0.0335194 255 0 0
0.154677 -0.189186 -0.0326719 255 0 0
0.157991 -0.188555 -0.0335744 255 0 0
0.1593 -0.189244 -0.0326974 255 0 0
0.149718 -0.18607 -0.0324151 255 0 0
0.151063 -0.187139 -0.0331875 255 0 0
0.153271 -0.186773 -0.0328376 255 0 0
0.15625 -0.187461 -0.0333648 255 0 0
0.149164 -0.184791 -0.0330699 255 0 0
0.151409 -0.185723 -0.0327131 255 0 0
0.152422 -0.184461 -0.0330179 255 0 0
0.14724 -0.182645 -0.033245 255 0 0
0.148596 -0.183085 -0.0326626 255 0 0
0.151496 -0.182974 -0.0334649 255 0 0
0.15218 -0.182929 -0.0320271 255 0 0
0.143358 -0.180396 -0.0332639 255 0 0
0.145492 -0.181189 -0.0328688 255 0 0
0.148444 -0.181182 -0.0335175 255 0 0
0.150915 -0.181468 -0.0331929 255 0 0
0.142621 -0.179076 -0.0332188 255 0 0
0.144475 -0.178925 -0.0329034 255 0 0
0.148895 -0.178995 -0.0331641 255 0 0
0.150334 -0.179967 -0.0329216 255 0 0
0.14152 -0.177104 -0.0331514 255 0 0
0.143124 -0.176947 -0.0327333 255 0 0
0.148662 -0.177269 -0.0328657 255 0 0
0.150423 -0.17606 -0.032329 255 0 0
0.13882 -0.174137 -0.0328853 255 0 0
0.141081 -0.174897 -0.0334224 255 0 0
0.142756 -0.175097 -0.0326733 255 0 0
0.145136 -0.174967 -0.0331253 255 0 0
0.146972 -0.175337 -0.0330248 255 0 0
0.150745 -0.174795 -0.0335555 255 0 0
0.135275 -0.172905 -0.0337774 255 0 0
0.136915 -0.173102 -0.0332498 255 0 0
0.138302 -0.172171 -0.0323056 255 0 0
0.140985 -0.1731 -0.0329806 255 0 0
0.142638 -0.173286 -0.0332241 255 0 0
0.144517 -0.173898 -0.0325136 255 0 0
0.151959 -0.1732 -0.0329301 255 0 0
0.131625 -0.171119 -0.0335829 255 0 0
0.132619 -0.170486 -0.0325009 255 0 0
0.134534 -0.171362 -0.033283 255 0 0
0.136583 -0.171048 -0.0326987 255 0 0
0.139387 -0.170816 -0.03371 255 0 0
0.140595 -0.171413 -0.0327645 255 0 0
0.152359 -0.171385 -0.0326424 255 0 0
0.129887 -0.168204 -0.0335776 255 0 0
0.13125 -0.169343 -0.0330408 255 0 0
0.133098 -0.168457 -0.0328683 255 0 0
0.134981 -0.169299 -0.0332797 255 0 0
0.137557 -0.168986 -0.0338284 255 0 0
0.138115 -0.169055 -0.0323698 255 0 0
0.140197 -0.169022 -0.0328626 255 0 0
0.152532 -0.169093 -0.0328617 255 0 0
0.129332 -0.166444 -0.0328417 255 0 0
0.130504 -0.167578 -0.0321088 255 0 0
0.132188 -0.167242 -0.0336836 255 0 0
0.135011 -0.166846 -0.0330257 255 0 0
0.137015 -0.166818 -0.0331118 255 0 0
0.139371 -0.166846 -0.0324673 255 0 0
0.151391 -0.166843 -0.0325788 255 0 0
0.125056 -0.164525 -0.0332779 255 0 0
0.126758 -0.165639 -0.0331331 255 0 0
0.130922 -0.165412 -0.0335789 255 0 0
0.133367 -0.165264 -0.0325031 255 0 0
0.134631 -0.16524 -0.0331946 255 0 0
0.137022 -0.164925 -0.0329376 255 0 0
0.149079 -0.165094 -0.0333725 255 0 0
0.124521 -0.162794 -0.0325511 255 0 0
0.126035 -0.163904 -0.0322108 255 0 0
0.1289 -0.163123 -0.0333767 255 0 0
0.131949 -0.162713 -0.032417 255 0 0
0.132987 -0.163565 -0.032576 255 0 0
0.135109 -0.1627 -0.0330753 255 0 0
0.136052 -0.163594 -0.0324095 255 0 0
0.144901 -0.162825 -0.0330309 255 0 0
0.147502 -0.163623 -0.0330952 255 0 0
0.122864 -0.160975 -0.033179 255 0 0
0.125938 -0.160474 -0.0330419 255 0 0
0.127036 -0.161562 -0.0331601 255 0 0
0.128878 -0.160845 -0.0320328 255 0 0
0.131046 -0.160945 -0.0324008 255 0 0
0.133122 -0.161112 -0.0330895 255 0 0
0.139352 -0.160339 -0.033896 255 0 0
0.141274 -0.160524 -0.0333386 255 0 0
0.143198 -0.161246 -0.0332494 255 0 0
0.121349 -0.158871 -0.0328898 255 0 0
0.124706 -0.158686 -0.0329404 255 0 0
0.130567 -0.159043 -0.0331074 255 0 0
0.132936 -0.159568 -0.0324887 255 0 0
0.136962 -0.158847 -0.0328914 255 0 0
0.138659 -0.159646 -0.0327459 255 0 0
0.140574 -0.159827 -0.0321844 255 0 0
0.119038 -0.15639 -0.0332267 255 0 0
0.120346 -0.157479 -0.0326986 255 0 0
0.123479 -0.156905 -0.0328392 255 0 0
0.12747 -0.156693 -0.0335443 255 0 0
0.129072 -0.157703 -0.0331171 255 0 0
0.13043 -0.156569 -0.0333998 255 0 0
0.133789 -0.157175 -0.0332318 255 0 0
0.135656 -0.157344 -0.0326782 255 0 0
0.117393 -0.155324 -0.0333702 255 0 0
0.118357 -0.154716 -0.0323198 255 0 0
0.120605 -0.154492 -0.0329911 255 0 0
0.122688 -0.154932 -0.0329029 255 0 0
0.125269 -0.154486 -0.0333208 255 0 0
0.127066 -0.155401 -0.0330562 255 0 0
0.128386 -0.154091 -0.0325886 255 0 0
0.130328 -0.15494 -0.0326423 255 0 0
0.132854 -0.155501 -0.033126 255 0 0
0.115431 -0.152587 -0.0329908 255 0 0
0.117153 -0.153571 -0.033025 255 0 0
0.119064 -0.153745 -0.0331311 255 0 0
0.120948 -0.153394 -0.0333411 255 0 0
0.124058 -0.153041 -0.0333292 255 0 0
0.126626 -0.152909 -0.0322276 255 0 0
0.129634 -0.15255 -0.0325792 255 0 0
0.130159 -0.153954 -0.0328367 255 0 0
0.114458 -0.151229 -0.0328028 255 0 0
0.11858 -0.150616 -0.0338242 255 0 0
0.120971 -0.151108 -0.0327944 255 0 0
0.122714 -0.151971 -0.0330237 255 0 0
0.125661 -0.150309 -0.0337607 255 0 0
0.12712 -0.150032 -0.0329155 255 0 0
0.128373 -0.151288 -0.0327478 255 0 0
0.112677 -0.149235 -0.0321483 255 0 0
0.115947 -0.148016 -0.0335313 255 0 0
0.117481 -0.14885 -0.0330235 255 0 0
0.119026 -0.14969 -0.0325134 255 0 0
0.120713 -0.148692 -0.0328151 255 0 0
0.122453 -0.148819 -0.0335675 255 0 0
0.125071 -0.14903 -0.0325619 255 0 0
0.113485 -0.146138 -0.0332265 255 0 0
0.115384 -0.146782 -0.0327934 255 0 0
0.116929 -0.147057 -0.0325302 255 0 0
0.119403 -0.147208 -0.0331844 255 0 0
0.120715 -0.147071 -0.0325434 255 0 0
0.123835 -0.147789 -0.0327301 255 0 0
0.111428 -0.144102 -0.0329979 255 0 0
0.113196 -0.145012 -0.0332237 255 0 0
0.114945 -0.144807 -0.0324379 255 0 0
0.117714 -0.14464 -0.0332541 255 0 0
0.11861 -0.145851 -0.033123 255 0 0
0.111214 -0.143102 -0.0333979 255 0 0
0.113022 -0.143012 -0.0330182 255 0 0
0.115659 -0.142351 -0.0332299 255 0 0
0.117103 -0.143486 -0.0326861 255 0 0
0.109673 -0.140385 -0.0332714 255 0 0
0.111038 -0.141156 -0.0333218 255 0 0
0.113054 -0.140512 -0.032991 255 0 0
0.114488 -0.140872 -0.0327516 255 0 0
0.12074 -0.140132 -0.0327275 255 0 0
0.106919 -0.139052 -0.032646 255 0 0
0.109705 -0.139106 -0.032901 255 0 0
0.111549 -0.139018 -0.0331253 255 0 0
0.112807 -0.138784 -0.0328564 255 0 0
0.114525 -0.139033 -0.0326513 255 0 0
0.116677 -0.13933 -0.0327091 255 0 0
0.118391 -0.139419 -0.0321693 255 0 0
0.120634 -0.139039 -0.0337842 255 0 0
0.103744 -0.136737 -0.0332825 255 0 0
0.105271 -0.137066 -0.0328426 255 0 0
0.106311 -0.137576 -0.0322473 255 0 0
0.108621 -0.137199 -0.0329167 255 0 0
0.11184 -0.137416 -0.0325383 255 0 0
0.11256 -0.136695 -0.0329289 255 0 0
0.102943 -0.13471 -0.0327591 255 0 0
0.104565 -0.135385 -0.0326735 255 0 0
0.10679 -0.135127 -0.0327277 255 0 0
0.111282 -0.134548 -0.0326916 255 0 0
0.112206 -0.135441 -0.0324471 255 0 0
0.101137 -0.132717 -0.0333772 255 0 0
0.103068 -0.132628 -0.0323807 255 0 0
0.104714 -0.133792 -0.0326025 255 0 0
0.108808 -0.132499 -0.0324795 255 0 0
0.11188 -0.132883 -0.0328076 255 0 0
0.098858 -0.130881 -0.0327347 255 0 0
0.100597 -0.131616 -0.0329682 255 0 0
0.102168 -0.130709 -0.0325615 255 0 0
0.104568 -0.130166 -0.0329823 255 0 0
0.106995 -0.130919 -0.0326 255 0 0
0.108082 -0.131758 -0.0337164 255 0 0
0.111239 -0.130543 -0.0330917 255 0 0
0.0971209 -0.128337 -0.0327581 255 0 0
0.0986338 -0.129092 -0.0330749 255 0 0
0.101402 -0.129319 -0.0333308 255 0 0
0.102732 -0.129543 -0.0320064 255 0 0
0.110496 -0.128788 -0.032985 255 0 0
0.112925 -0.128165 -0.0320003 255 0 0
0.0939271 -0.126749 -0.0321964 255 0 0
0.0949163 -0.127544 -0.0332723 255 0 0
0.0974204 -0.126688 -0.0330092 255 0 0
0.101136 -0.127355 -0.0335725 255 0 0
0.107746 -0.127293 -0.0338445 255 0 0
0.109228 -0.126171 -0.0331558 255 0 0
0.110386 -0.127324 -0.032991 255 0 0
0.0938373 -0.124768 -0.0322072 255 0 0
0.0966753 -0.124881 -0.0329847 255 0 0
0.101016 -0.124856 -0.0326561 255 0 0
0.105187 -0.124493 -0.0331426 255 0 0
0.106321 -0.125632 -0.0329789 255 0 0
0.108028 -0.125162 -0.0324118 255 0 0
0.0954568 -0.122612 -0.0329057 255 0 0
0.0960653 -0.123745 -0.0329452 255 0 0
0.100583 -0.122816 -0.0334794 255 0 0
0.102326 -0.123113 -0.0338702 255 0 0
0.1049 -0.123123 -0.0330249 255 0 0
0.0849179 -0.12017 -0.0329409 255 0 0
0.0918579 -0.120657 -0.0324785 255 0 0
0.0948878 -0.120714 -0.0329165 255 0 0
0.101814 -0.121109 -0.0336324 255 0 0
0.103191 -0.121503 -0.0328227 255 0 0
0.10457 -0.121897 -0.0320073 255 0 0
0.0814299 -0.118757 -0.0327888 255 0 0
0.0833254 -0.119358 -0.0330621 255 0 0
0.0914279 -0.118812 -0.0327956 255 0 0
0.0994196 -0.119148 -0.0322079 255 0 0
0.10101 -0.119982 -0.0331458 255 0 0
0.0897229 -0.116428 -0.0329856 255 0 0
0.0907842 -0.117222 -0.0327519 255 0 0
0.0982376 -0.117292 -0.0321248 255 0 0
0.0873085 -0.115214 -0.0324054 255 0 0
0.0886683 -0.115638 -0.0332176 255 0 0
0.0937805 -0.114809 -0.0335948 255 0 0
0.095129 -0.114848 -0.0326878 255 0 0
0.0855229 -0.112495 -0.0321363 255 0 0
0.0908617 -0.113061 -0.033878 255 0 0
0.0923383 -0.113763 -0.0327057 255 0 0
0.0848939 -0.11093 -0.0320949 255 0 0
0.0894442 -0.111329 -0.0334382 255 0 0
0.0854161 -0.10887 -0.0328853 255 0 0
0.0851746 -0.106974 -0.0329838 255 0 0
0.0848026 -0.105185 -0.0330354 255 0 0
0.0843008 -0.102956 -0.0332428 255 0 0
0.0836689 -0.100285 -0.0336062 255 0 0
0.0840738 -0.101126 -0.0327228 255 0 0
0.0834982 -0.0989115 -0.0332162 255 0 0
0.0828106 -0.0968872 -0.0330441 255 0 0
0.0807921 -0.0955589 -0.0322784 255 0 0
0.218818 -0.264843 -0.0319244 255 0 0
0.217275 -0.262298 -0.0301129 255 0 0
0.218315 -0.262319 -0.0319799 255 0 0
0.217143 -0.26065 -0.0310389 255 0 0
0.216493 -0.258994 -0.0310315 255 0 0
0.216159 -0.257315 -0.0310684 255 0 0
0.213611 -0.254118 -0.0308813 255 0 0
0.215196 -0.255688 -0.0310181 255 0 0
0.211923 -0.252607 -0.0315841 255 0 0
0.210359 -0.251056 -0.0314465 255 0 0
0.208804 -0.249514 -0.0313098 255 0 0
0.206791 -0.247187 -0.0311491 255 0 0
0.204793 -0.244876 -0.0309897 255 0 0
0.203868 -0.243299 -0.0309407 255 0 0
0.202484 -0.240943 -0.0308676 255 0 0
0.200518 -0.238672 -0.0307106 255 0 0
0.19902 -0.237192 -0.0305785 255 0 0
0.195653 -0.234346 -0.0310908 255 0 0
0.197531 -0.235722 -0.0304474 255 0 0
0.194185 -0.232893 -0.0309591 255 0 0
0.191445 -0.230012 -0.0315468 255 0 0
0.193008 -0.231405 -0.030869 255 0 0
0.189173 -0.229391 -0.0310833 255 0 0
0.190562 -0.228494 -0.0314984 255 0 0
0.18732 -0.227068 -0.0313808 255 0 0
0.189122 -0.22707 -0.0313669 255 0 0
0.185718 -0.225242 -0.0311449 255 0 0
0.18698 -0.224952 -0.0311712 255 0 0
0.183857 -0.222563 -0.031083 255 0 0
0.184606 -0.223109 -0.0309726 255 0 0
0.181381 -0.221023 -0.0317303 255 0 0
0.182733 -0.220952 -0.0307228 255 0 0
0.179588 -0.218567 -0.0318558 255 0 0
0.180771 -0.219002 -0.0308547 255 0 0
0.177443 -0.21623 -0.0307569 255 0 0
0.178509 -0.217444 -0.0309251 255 0 0
0.180345 -0.217124 -0.0306287 255 0 0
0.175909 -0.21467 -0.0309366 255 0 0
0.17695 -0.215436 -0.0309263 255 0 0
0.178651 -0.214189 -0.0305372 255 0 0
0.180031 -0.215549 -0.0306636 255 0 0
0.174793 -0.212882 -0.0309201 255 0 0
0.177171 -0.213316 -0.0304455 255 0 0
0.171715 -0.210015 -0.0307273 255 0 0
0.173393 -0.210927 -0.0306763 255 0 0
0.174899 -0.210433 -0.0311078 255 0 0
0.176332 -0.211422 -0.0311526 255 0 0
0.169864 -0.208517 -0.0316484 255 0 0
0.170569 -0.208462 -0.0301642 255 0 0
0.173569 -0.208758 -0.0308018 255 0 0
0.168727 -0.206973 -0.0310843 255 0 0
0.170987 -0.206924 -0.0314103 255 0 0
0.172584 -0.207395 -0.03104 255 0 0
0.167596 -0.205438 -0.0305236 255 0 0
0.168994 -0.204957 -0.0312216 255 0 0
0.171056 -0.205126 -0.0313882 255 0 0
0.165154 -0.202392 -0.031161 255 0 0
0.167523 -0.202887 -0.0311138 255 0 0
0.169128 -0.202452 -0.0311326 255 0 0
0.170002 -0.203815 -0.0306992 255 0 0
0.164042 -0.20088 -0.0306044 255 0 0
0.167244 -0.200698 -0.0310087 255 0 0
0.163081 -0.199344 -0.0310618 255 0 0
0.166446 -0.199322 -0.0311854 255 0 0
0.161329 -0.197097 -0.0311011 255 0 0
0.163061 -0.197114 -0.0308265 255 0 0
0.165202 -0.197809 -0.0310236 255 0 0
0.15959 -0.194864 -0.0311405 255 0 0
0.161545 -0.194648 -0.0304515 255 0 0
0.162328 -0.19545 -0.0316388 255 0 0
0.165335 -0.194553 -0.0312225 255 0 0
0.166142 -0.19596 -0.0312678 255 0 0
0.158599 -0.192848 -0.0312012 255 0 0
0.160491 -0.193389 -0.0308241 255 0 0
0.162737 -0.192022 -0.0309746 255 0 0
0.16453 -0.193149 -0.0311773 255 0 0
0.155806 -0.190468 -0.0319428 255 0 0
0.157289 -0.190954 -0.0308206 255 0 0
0.158422 -0.191421 -0.0310035 255 0 0
0.161448 -0.190768 -0.0308517 255 0 0
0.154643 -0.188774 -0.0313642 255 0 0
0.156371 -0.189468 -0.0311824 255 0 0
0.159378 -0.188138 -0.0306855 255 0 0
0.160167 -0.189519 -0.0307295 255 0 0
0.151328 -0.186528 -0.0317413 255 0 0
0.15328 -0.18656 -0.0310129 255 0 0
0.154654 -0.186858 -0.030445 255 0 0
0.157042 -0.187218 -0.0311679 255 0 0
0.149757 -0.185003 -0.0314715 255 0 0
0.151125 -0.185188 -0.0310349 255 0 0
0.153508 -0.185187 -0.0308569 255 0 0
0.147962 -0.182055 -0.0308569 255 0 0
0.149276 -0.183402 -0.030974 255 0 0
0.152398 -0.182965 -0.0303177 255 0 0
0.144455 -0.180041 -0.0319456 255 0 0
0.146573 -0.180917 -0.0311669 255 0 0
0.149159 -0.181492 -0.0310777 255 0 0
0.151168 -0.180993 -0.0309161 255 0 0
0.143269 -0.178867 -0.0318257 255 0 0
0.144875 -0.179084 -0.0307505 255 0 0
0.149542 -0.179012 -0.0311758 255 0 0
0.150167 -0.178407 -0.0300019 255 0 0
0.143049 -0.17694 -0.0312746 255 0 0
0.148944 -0.177112 -0.0304093 255 0 0
0.150101 -0.177319 -0.0311093 255 0 0
0.141387 -0.174818 -0.0310006 255 0 0
0.142706 -0.175325 -0.0306893 255 0 0
0.146731 -0.175067 -0.031029 255 0 0
0.151469 -0.175109 -0.0310893 255 0 0
0.139042 -0.173036 -0.0309875 255 0 0
0.141089 -0.173234 -0.0308642 255 0 0
0.142557 -0.172638 -0.0309432 255 0 0
0.144811 -0.173191 -0.0313918 255 0 0
0.152063 -0.173222 -0.0308515 255 0 0
0.137057 -0.17036 -0.031543 255 0 0
0.138663 -0.170935 -0.0314889 255 0 0
0.141032 -0.170959 -0.0310694 255 0 0
0.142248 -0.171325 -0.0302639 255 0 0
0.144007 -0.171747 -0.0308094 255 0 0
0.152464 -0.171409 -0.0305598 255 0 0
0.13399 -0.169855 -0.0318118 255 0 0
0.135365 -0.169222 -0.0311214 255 0 0
0.136679 -0.168584 -0.030723 255 0 0
0.139421 -0.169021 -0.0306363 255 0 0
0.1412 -0.168963 -0.0307556 255 0 0
0.151619 -0.169007 -0.031064 255 0 0
0.132735 -0.166628 -0.031274 255 0 0
0.13527 -0.166724 -0.0309529 255 0 0
0.136766 -0.16712 -0.0311825 255 0 0
0.139028 -0.166928 -0.0307789 255 0 0
0.140314 -0.167531 -0.0311957 255 0 0
0.1512 -0.166983 -0.0311164 255 0 0
0.128905 -0.164389 -0.0311866 255 0 0
0.131184 -0.165498 -0.0316189 255 0 0
0.132171 -0.164871 -0.0305436 255 0 0
0.134881 -0.164748 -0.0310117 255 0 0
0.136337 -0.165455 -0.0303087 255 0 0
0.138665 -0.164711 -0.0312406 255 0 0
0.147649 -0.164215 -0.030471 255 0 0
0.149383 -0.165036 -0.0313501 255 0 0
0.127322 -0.162977 -0.030419 255 0 0
0.133511 -0.162921 -0.0309551 255 0 0
0.137571 -0.163344 -0.0315462 255 0 0
0.138235 -0.163307 -0.0301506 255 0 0
0.14548 -0.162475 -0.0306001 255 0 0
0.147193 -0.163284 -0.0314758 255 0 0
0.12399 -0.161073 -0.0318281 255 0 0
0.125116 -0.161173 -0.0304785 255 0 0
0.130882 -0.160838 -0.0308784 255 0 0
0.133007 -0.160801 -0.0308618 255 0 0
0.134551 -0.160844 -0.0316254 255 0 0
0.136543 -0.161249 -0.0310247 255 0 0
0.141763 -0.160379 -0.0314053 255 0 0
0.14294 -0.161468 -0.0310949 255 0 0
0.121967 -0.158274 -0.0314502 255 0 0
0.123284 -0.15937 -0.0309191 255 0 0
0.127374 -0.158899 -0.0314136 255 0 0
0.128792 -0.159364 -0.0306354 255 0 0
0.131628 -0.158676 -0.031604 255 0 0
0.133119 -0.158881 -0.0308457 255 0 0
0.135096 -0.159275 -0.0302433 255 0 0
0.139104 -0.158953 -0.0313712 255 0 0
0.141061 -0.159683 -0.030256 255 0 0
0.120964 -0.156885 -0.0312631 255 0 0
0.122584 -0.157678 -0.0300154 255 0 0
0.125044 -0.156796 -0.0311617 255 0 0
0.126583 -0.157195 -0.0304109 255 0 0
0.129272 -0.156473 -0.0313983 255 0 0
0.131149 -0.157356 -0.0312185 255 0 0
0.13253 -0.156703 -0.0305918 255 0 0
0.136858 -0.156831 -0.030979 255 0 0
0.138008 -0.1579 -0.0306699 255 0 0
0.119471 -0.154817 -0.0309846 255 0 0
0.123455 -0.154652 -0.0315108 255 0 0
0.1248 -0.154875 -0.0302599 255 0 0
0.127117 -0.154084 -0.0313756 255 0 0
0.128618 -0.155267 -0.0308206 255 0 0
0.131879 -0.155252 -0.031157 255 0 0
0.133864 -0.15508 -0.0313857 255 0 0
0.135553 -0.155334 -0.0307717 255 0 0
0.11702 -0.152386 -0.0311387 255 0 0
0.122932 -0.152596 -0.0308153 255 0 0
0.124651 -0.153352 -0.0308567 255 0 0
0.126896 -0.152881 -0.0302372 255 0 0
0.129109 -0.152683 -0.031884 255 0 0
0.131138 -0.153056 -0.0309365 255 0 0
0.132578 -0.153597 -0.03118 255 0 0
0.115077 -0.150654 -0.0313849 255 0 0
0.116668 -0.15143 -0.0301517 255 0 0
0.121078 -0.150334 -0.0313684 255 0 0
0.122861 -0.151178 -0.0310086 255 0 0
0.125117 -0.15182 -0.0305033 255 0 0
0.127556 -0.150752 -0.0315356 255 0 0
0.129105 -0.150889 -0.0309468 255 0 0
0.130969 -0.15179 -0.0304121 255 0 0
0.11313 -0.148681 -0.0305532 255 0 0
0.118943 -0.148242 -0.0311443 255 0 0
0.120978 -0.148768 -0.0307859 255 0 0
0.122326 -0.149706 -0.0305747 255 0 0
0.126445 -0.148859 -0.0307759 255 0 0
0.129151 -0.149066 -0.0303735 255 0 0
0.130566 -0.149845 -0.0304637 255 0 0
0.110914 -0.14726 -0.0315009 255 0 0
0.117357 -0.146687 -0.0309778 255 0 0
0.119052 -0.146084 -0.0315279 255 0 0
0.120631 -0.147102 -0.0311732 255 0 0
0.123254 -0.146524 -0.0315405 255 0 0
0.125205 -0.147618 -0.0309479 255 0 0
0.109656 -0.145258 -0.0314148 255 0 0
0.113783 -0.144529 -0.0319466 255 0 0
0.115121 -0.144759 -0.0311528 255 0 0
0.11709 -0.145122 -0.0311907 255 0 0
0.119176 -0.144984 -0.0310239 255 0 0
0.120713 -0.145776 -0.0305693 255 0 0
0.12228 -0.145393 -0.0301043 255 0 0
0.108407 -0.143268 -0.0313297 255 0 0
0.111722 -0.142499 -0.0317239 255 0 0
0.113037 -0.143397 -0.0311789 255 0 0
0.114532 -0.142778 -0.0314031 255 0 0
0.11687 -0.143096 -0.0309709 255 0 0
0.118501 -0.143579 -0.0301815 255 0 0
0.107486 -0.141253 -0.0316131 255 0 0
0.111447 -0.141122 -0.031755 255 0 0
0.112976 -0.141131 -0.030924 255 0 0
0.114982 -0.14073 -0.03083 255 0 0
0.116452 -0.141304 -0.0301708 255 0 0
0.121832 -0.140625 -0.0319782 255 0 0
0.122616 -0.140805 -0.0306739 255 0 0
0.124366 -0.141416 -0.0305711 255 0 0
0.109859 -0.138244 -0.0319514 255 0 0
0.111269 -0.138854 -0.0311931 255 0 0
0.113651 -0.138706 -0.0312162 255 0 0
0.11494 -0.138827 -0.0305691 255 0 0
0.117462 -0.139 -0.030976 255 0 0
0.119831 -0.138688 -0.0306267 255 0 0
0.120665 -0.139754 -0.0312499 255 0 0
0.105207 -0.136081 -0.0309801 255 0 0
0.107019 -0.13693 -0.031298 255 0 0
0.109177 -0.136886 -0.0313724 255 0 0
0.110775 -0.13687 -0.0304223 255 0 0
0.113246 -0.137084 -0.0313457 255 0 0
0.11436 -0.137672 -0.0301674 255 0 0
0.117497 -0.137987 -0.0300847 255 0 0
0.104819 -0.134715 -0.0308718 255 0 0
0.107258 -0.134906 -0.0311149 255 0 0
0.108858 -0.134878 -0.0301607 255 0 0
0.110553 -0.135049 -0.0305674 255 0 0
0.112997 -0.134948 -0.0309582 255 0 0
0.103481 -0.132563 -0.0311695 255 0 0
0.10468 -0.132751 -0.0308666 255 0 0
0.106556 -0.133102 -0.0306374 255 0 0
0.108692 -0.133235 -0.0305941 255 0 0
0.113573 -0.132563 -0.0313184 255 0 0
0.0993786 -0.130427 -0.0316685 255 0 0
0.100769 -0.130661 -0.0315514 255 0 0
0.102869 -0.131291 -0.0309362 255 0 0
0.105416 -0.130351 -0.0309421 255 0 0
0.107561 -0.131042 -0.0312334 255 0 0
0.113463 -0.131093 -0.0313241 255 0 0
0.0956657 -0.129373 -0.0312033 255 0 0
0.0973264 -0.129324 -0.0307306 255 0 0
0.0990618 -0.128814 -0.0314888 255 0 0
0.10079 -0.129293 -0.0307238 255 0 0
0.102815 -0.129613 -0.0308764 255 0 0
0.113421 -0.129129 -0.0311102 255 0 0
0.0944495 -0.127643 -0.030807 255 0 0
0.0960478 -0.127795 -0.0306108 255 0 0
0.0989994 -0.127151 -0.0309608 255 0 0
0.101605 -0.126665 -0.0309682 255 0 0
0.109858 -0.126148 -0.031835 255 0 0
0.112759 -0.126832 -0.0310912 255 0 0
0.0922396 -0.125207 -0.0301501 255 0 0
0.0974758 -0.125013 -0.0312866 255 0 0
0.0980101 -0.125747 -0.0304205 255 0 0
0.101167 -0.12514 -0.0302909 255 0 0
0.107197 -0.12401 -0.031921 255 0 0
0.109019 -0.12499 -0.0313437 255 0 0
0.110984 -0.125171 -0.0308907 255 0 0
0.0923281 -0.123139 -0.0306044 255 0 0
0.0957391 -0.122558 -0.030909 255 0 0
0.0963477 -0.123691 -0.0309462 255 0 0
0.100736 -0.12311 -0.0311104 255 0 0
0.107062 -0.123232 -0.0307218 255 0 0
0.109537 -0.123512 -0.0300329 255 0 0
0.0860926 -0.120166 -0.0313829 255 0 0
0.0919021 -0.120177 -0.0314144 255 0 0
0.0925633 -0.121289 -0.0310376 255 0 0
0.0948289 -0.120864 -0.0308533 255 0 0
0.100641 -0.12063 -0.0315875 255 0 0
0.103404 -0.120916 -0.0312776 255 0 0
0.104962 -0.121233 -0.0305839 255 0 0
0.0798375 -0.11823 -0.0318777 255 0 0
0.0812043 -0.118091 -0.0305992 255 0 0
0.0830888 -0.118685 -0.0308589 255 0 0
0.084779 -0.119422 -0.030861 255 0 0
0.0914613 -0.119007 -0.0309284 255 0 0
0.0934122 -0.118035 -0.0300986 255 0 0
0.0940911 -0.119073 -0.0308318 255 0 0
0.0992278 -0.118826 -0.0302852 255 0 0
0.102246 -0.119943 -0.0305535 255 0 0
0.080344 -0.11709 -0.0306033 255 0 0
0.0905831 -0.117102 -0.0306944 255 0 0
0.0931111 -0.117174 -0.0310024 255 0 0
0.0970575 -0.116155 -0.0315925 255 0 0
0.0982559 -0.116935 -0.0300532 255 0 0
0.0868161 -0.114686 -0.0313913 255 0 0
0.0887228 -0.115363 -0.0309446 255 0 0
0.092508 -0.115089 -0.0305663 255 0 0
0.0958867 -0.115027 -0.0310645 255 0 0
0.0854212 -0.113277 -0.0306634 255 0 0
0.0865868 -0.113949 -0.0304721 255 0 0
0.0913621 -0.112449 -0.0313331 255 0 0
0.0927997 -0.112966 -0.030967 255 0 0
0.094434 -0.11398 -0.030188 255 0 0
0.0853114 -0.11129 -0.0308047 255 0 0
0.0892181 -0.110381 -0.031488 255 0 0
0.0903706 -0.111313 -0.0309899 255 0 0
0.0849419 -0.109512 -0.0308552 255 0 0
0.0886575 -0.10914 -0.0316702 255 0 0
0.0856105 -0.106862 -0.0312715 255 0 0
0.0852388 -0.105073 -0.0313224 255 0 0
0.0870482 -0.105135 -0.0301969 255 0 0
0.0847962 -0.102881 -0.0309274 255 0 0
0.0843444 -0.100861 -0.0312063 255 0 0
0.0837548 -0.0988504 -0.0309853 255 0 0
0.0829341 -0.0971018 -0.0309071 255 0 0
0.0784448 -0.0946665 -0.0307776 255 0 0
0.0808998 -0.0951464 -0.0309679 255 0 0
0.216835 -0.258842 -0.0284974 255 0 0
0.216501 -0.257164 -0.028534 255 0 0
0.213329 -0.254022 -0.0282757 255 0 0
0.21491 -0.255589 -0.0284045 255 0 0
0.211758 -0.252466 -0.0281478 255 0 0
0.21215 -0.252509 -0.0299065 255 0 0
0.210391 -0.250938 -0.0288973 255 0 0
0.209029 -0.249417 -0.0296421 255 0 0
0.207016 -0.247091 -0.0294876 255 0 0
0.205017 -0.244781 -0.0293342 255 0 0
0.204092 -0.243205 -0.0292876 255 0 0
0.203168 -0.241634 -0.0292412 255 0 0
0.20133 -0.238504 -0.0291487 255 0 0
0.202841 -0.239993 -0.0292772 255 0 0
0.199828 -0.237023 -0.0290211 255 0 0
0.196273 -0.23417 -0.0286877 255 0 0
0.198335 -0.235552 -0.0288942 255 0 0
0.194801 -0.232717 -0.0285628 255 0 0
0.193339 -0.231273 -0.0284387 255 0 0
0.188273 -0.228465 -0.0298396 255 0 0
0.191052 -0.229166 -0.0290604 255 0 0
0.187139 -0.227061 -0.0291338 255 0 0
0.188893 -0.227032 -0.0288737 255 0 0
0.185072 -0.224813 -0.0293791 255 0 0
0.186958 -0.225096 -0.0292267 255 0 0
0.184743 -0.223039 -0.0290858 255 0 0
0.18144 -0.220246 -0.029978 255 0 0
0.183414 -0.221317 -0.0289995 255 0 0
0.178754 -0.218757 -0.029472 255 0 0
0.180919 -0.218955 -0.0291321 255 0 0
0.182265 -0.219992 -0.0291341 255 0 0
0.176546 -0.217166 -0.0290824 255 0 0
0.178856 -0.217213 -0.0286458 255 0 0
0.180561 -0.217043 -0.0290463 255 0 0
0.176592 -0.214796 -0.0293404 255 0 0
0.179399 -0.214001 -0.0290372 255 0 0
0.180247 -0.215468 -0.0290809 255 0 0
0.175571 -0.213036 -0.029029 255 0 0
0.176161 -0.213988 -0.0281442 255 0 0
0.178553 -0.212538 -0.0289936 255 0 0
0.173764 -0.21146 -0.0289136 255 0 0
0.177181 -0.211191 -0.0288722 255 0 0
0.170763 -0.208453 -0.0284009 255 0 0
0.172754 -0.209691 -0.0290458 255 0 0
0.175139 -0.209186 -0.0286917 255 0 0
0.16943 -0.206919 -0.0296044 255 0 0
0.171145 -0.206369 -0.0298129 255 0 0
0.172573 -0.20736 -0.0291007 255 0 0
0.169312 -0.204967 -0.029067 255 0 0
0.171087 -0.205581 -0.0287598 255 0 0
0.165355 -0.202394 -0.0294123 255 0 0
0.16724 -0.202689 -0.0292866 255 0 0
0.168689 -0.203289 -0.0288226 255 0 0
0.164245 -0.200885 -0.0288617 255 0 0
0.167442 -0.200939 -0.0286132 255 0 0
0.163632 -0.199326 -0.0285895 255 0 0
0.165337 -0.198788 -0.029977 255 0 0
0.166804 -0.199206 -0.0294106 255 0 0
0.162855 -0.196591 -0.0287621 255 0 0
0.165042 -0.196755 -0.0286908 255 0 0
0.166662 -0.197426 -0.0296883 255 0 0
0.161169 -0.194754 -0.0287438 255 0 0
0.162005 -0.195583 -0.0294326 255 0 0
0.165259 -0.194542 -0.0280617 255 0 0
0.166201 -0.195117 -0.0297394 255 0 0
0.159459 -0.192849 -0.0290229 255 0 0
0.160395 -0.19355 -0.0289793 255 0 0
0.164598 -0.19311 -0.0288284 255 0 0
0.15724 -0.191172 -0.0290502 255 0 0
0.158941 -0.191076 -0.0284135 255 0 0
0.162796 -0.191188 -0.0294566 255 0 0
0.15563 -0.188522 -0.0297695 255 0 0
0.156882 -0.189083 -0.0290514 255 0 0
0.159588 -0.188069 -0.0291608 255 0 0
0.160866 -0.189311 -0.0292786 255 0 0
0.153782 -0.186014 -0.0291457 255 0 0
0.154823 -0.187017 -0.0291209 255 0 0
0.158317 -0.186833 -0.0290437 255 0 0
0.151466 -0.184243 -0.0297993 255 0 0
0.153298 -0.1851 -0.0290391 255 0 0
0.156098 -0.18589 -0.0287781 255 0 0
0.151011 -0.182768 -0.029097 255 0 0
0.152655 -0.183604 -0.0283812 255 0 0
0.149187 -0.1807 -0.0292111 255 0 0
0.150466 -0.181419 -0.0284959 255 0 0
0.152033 -0.181502 -0.0283495 255 0 0
0.145469 -0.178148 -0.0291766 255 0 0
0.146667 -0.179325 -0.0292903 255 0 0
0.148239 -0.178815 -0.0280251 255 0 0
0.150678 -0.179027 -0.0290218 255 0 0
0.144478 -0.176943 -0.0294675 255 0 0
0.149165 -0.177158 -0.0287165 255 0 0
0.150982 -0.177004 -0.0292624 255 0 0
0.14318 -0.175053 -0.0290975 255 0 0
0.146955 -0.175117 -0.0293415 255 0 0
0.148139 -0.175767 -0.0281875 255 0 0
0.151573 -0.175128 -0.0290224 255 0 0
0.139573 -0.172348 -0.028617 255 0 0
0.140739 -0.173496 -0.0287277 255 0 0
0.14339 -0.172863 -0.0292159 255 0 0
0.144874 -0.173116 -0.0291234 255 0 0
0.152167 -0.173243 -0.0287791 255 0 0
0.138311 -0.171236 -0.0292343 255 0 0
0.141746 -0.17016 -0.0297894 255 0 0
0.143002 -0.171028 -0.0293581 255 0 0
0.151685 -0.170119 -0.0299455 255 0 0
0.152142 -0.171054 -0.0289355 255 0 0
0.137507 -0.168931 -0.0294827 255 0 0
0.138668 -0.169586 -0.029234 255 0 0
0.140469 -0.168884 -0.0288726 255 0 0
0.142732 -0.169429 -0.0289379 255 0 0
0.151104 -0.168744 -0.0293866 255 0 0
0.137138 -0.167101 -0.0293214 255 0 0
0.139093 -0.166876 -0.028796 255 0 0
0.141241 -0.166984 -0.0287733 255 0 0
0.150491 -0.166815 -0.0293859 255 0 0
0.133534 -0.164237 -0.0298561 255 0 0
0.135935 -0.164687 -0.0296669 255 0 0
0.136953 -0.164748 -0.0286853 255 0 0
0.138958 -0.165232 -0.0288695 255 0 0
0.140865 -0.165942 -0.0297981 255 0 0
0.147376 -0.164431 -0.0283077 255 0 0
0.149103 -0.16525 -0.0291743 255 0 0
0.128971 -0.162043 -0.0290133 255 0 0
0.131239 -0.163134 -0.0294321 255 0 0
0.133086 -0.162189 -0.0282104 255 0 0
0.13535 -0.162981 -0.0291533 255 0 0
0.136651 -0.162955 -0.0288646 255 0 0
0.139331 -0.163163 -0.0290176 255 0 0
0.144611 -0.162414 -0.0288412 255 0 0
0.14654 -0.163684 -0.0292047 255 0 0
0.127088 -0.160951 -0.0289797 255 0 0
0.132907 -0.160829 -0.0297128 255 0 0
0.134776 -0.161042 -0.028887 255 0 0
0.137407 -0.160943 -0.0291698 255 0 0
0.138784 -0.161727 -0.0287605 255 0 0
0.14188 -0.160419 -0.0293695 255 0 0
0.143448 -0.160788 -0.0286864 255 0 0
0.14416 -0.16149 -0.0298373 255 0 0
0.124892 -0.159164 -0.0290459 255 0 0
0.131215 -0.159179 -0.0295459 255 0 0
0.13284 -0.15869 -0.0285936 255 0 0
0.13618 -0.159127 -0.0291172 255 0 0
0.139548 -0.158259 -0.0299961 255 0 0
0.141509 -0.158987 -0.028874 255 0 0
0.12158 -0.156294 -0.0298322 255 0 0
0.122846 -0.157102 -0.0282095 255 0 0
0.128565 -0.15717 -0.0292546 255 0 0
0.130774 -0.15679 -0.0286083 255 0 0
0.13265 -0.157576 -0.0287134 255 0 0
0.134727 -0.1571 -0.029232 255 0 0
0.13736 -0.156162 -0.0286035 255 0 0
0.138999 -0.156928 -0.0294508 255 0 0
0.141507 -0.157369 -0.0284813 255 0 0
0.121214 -0.15532 -0.0288408 255 0 0
0.126561 -0.154926 -0.0290719 255 0 0
0.129178 -0.154447 -0.0291187 255 0 0
0.133491 -0.155025 -0.0294763 255 0 0
0.134914 -0.15466 -0.0285248 255 0 0
0.136554 -0.155437 -0.0294822 255 0 0
0.119098 -0.152866 -0.0293793 255 0 0
0.120205 -0.152965 -0.0280508 255 0 0
0.125525 -0.153058 -0.0290145 255 0 0
0.127745 -0.152864 -0.0291104 255 0 0
0.133029 -0.152888 -0.0294255 255 0 0
0.134046 -0.153558 -0.0280029 255 0 0
0.115358 -0.150107 -0.0295997 255 0 0
0.117283 -0.150855 -0.028739 255 0 0
0.119584 -0.150866 -0.0287165 255 0 0
0.124646 -0.151184 -0.0291054 255 0 0
0.1271 -0.151676 -0.0285427 255 0 0
0.13134 -0.150753 -0.029329 255 0 0
0.132145 -0.151271 -0.028726 255 0 0
0.115016 -0.149165 -0.0286227 255 0 0
0.120565 -0.149545 -0.0281433 255 0 0
0.122796 -0.148683 -0.0290433 255 0 0
0.124554 -0.149339 -0.0290943 255 0 0
0.127498 -0.148704 -0.0296685 255 0 0
0.128816 -0.149243 -0.0286849 255 0 0
0.131695 -0.148771 -0.0293132 255 0 0
0.111204 -0.146728 -0.0297309 255 0 0
0.112771 -0.147492 -0.0285094 255 0 0
0.119252 -0.146614 -0.0298455 255 0 0
0.121101 -0.146968 -0.0291795 255 0 0
0.122872 -0.147008 -0.0285276 255 0 0
0.124618 -0.146352 -0.0297624 255 0 0
0.126523 -0.146694 -0.0291655 255 0 0
0.109465 -0.144785 -0.029102 255 0 0
0.117275 -0.145246 -0.0296142 255 0 0
0.119954 -0.144757 -0.0291222 255 0 0
0.120935 -0.144993 -0.028901 255 0 0
0.123065 -0.144554 -0.0288841 255 0 0
0.125551 -0.144693 -0.0286645 255 0 0
0.108062 -0.142824 -0.0288427 255 0 0
0.115179 -0.143196 -0.0294007 255 0 0
0.117573 -0.142576 -0.0289485 255 0 0
0.118685 -0.143558 -0.0285878 255 0 0
0.126639 -0.142965 -0.0285191 255 0 0
0.106989 -0.140841 -0.028948 255 0 0
0.113672 -0.140887 -0.0292916 255 0 0
0.115621 -0.140722 -0.0288239 255 0 0
0.116873 -0.14125 -0.0285302 255 0 0
0.123252 -0.140572 -0.0288648 255 0 0
0.125326 -0.141498 -0.0293086 255 0 0
0.106235 -0.138826 -0.0294148 255 0 0
0.11269 -0.139094 -0.0292358 255 0 0
0.114805 -0.138979 -0.0284458 255 0 0
0.11646 -0.139574 -0.0284648 255 0 0
0.120758 -0.138992 -0.0288611 255 0 0
0.122008 -0.139666 -0.0291212 255 0 0
0.105944 -0.137457 -0.0299676 255 0 0
0.111669 -0.136427 -0.0294474 255 0 0
0.11316 -0.137313 -0.0289157 255 0 0
0.114517 -0.136972 -0.0289266 255 0 0
0.117854 -0.136771 -0.0292904 255 0 0
0.119398 -0.13746 -0.0291339 255 0 0
0.109716 -0.134535 -0.0290207 255 0 0
0.110952 -0.135061 -0.0293458 255 0 0
0.113043 -0.135033 -0.0289349 255 0 0
0.114258 -0.134134 -0.0290726 255 0 0
0.105764 -0.13202 -0.0299388 255 0 0
0.107645 -0.133537 -0.0298293 255 0 0
0.108689 -0.132937 -0.0290095 255 0 0
0.111011 -0.132929 -0.0286742 255 0 0
0.112884 -0.13353 -0.0282888 255 0 0
0.114522 -0.132526 -0.0293257 255 0 0
0.103239 -0.130733 -0.0293719 255 0 0
0.105137 -0.130905 -0.0292771 255 0 0
0.106932 -0.131326 -0.0288938 255 0 0
0.108373 -0.131286 -0.0282588 255 0 0
0.114412 -0.131057 -0.0293312 255 0 0
0.095577 -0.128034 -0.0298956 255 0 0
0.0970963 -0.128078 -0.0293705 255 0 0
0.0986522 -0.128742 -0.0288963 255 0 0
0.101051 -0.128543 -0.0294135 255 0 0
0.102663 -0.129131 -0.028877 255 0 0
0.104449 -0.129687 -0.0286105 255 0 0
0.107629 -0.1295 -0.0282352 255 0 0
0.113818 -0.128266 -0.0290947 255 0 0
0.114302 -0.129588 -0.0293368 255 0 0
0.0932821 -0.12622 -0.0295475 255 0 0
0.0948627 -0.127059 -0.0292137 255 0 0
0.0968702 -0.127518 -0.0289059 255 0 0
0.0998618 -0.126258 -0.0293178 255 0 0
0.100758 -0.127482 -0.0289683 255 0 0
0.102266 -0.127344 -0.028462 255 0 0
0.113335 -0.126947 -0.0288533 255 0 0
0.0926927 -0.125083 -0.0288431 255 0 0
0.0951079 -0.125437 -0.0284369 255 0 0
0.0979322 -0.124372 -0.0291148 255 0 0
0.0988947 -0.125313 -0.029216 255 0 0
0.101008 -0.124976 -0.0283901 255 0 0
0.102375 -0.125923 -0.02874 255 0 0
0.111374 -0.124493 -0.0294477 255 0 0
0.112538 -0.125643 -0.0292744 255 0 0
0.0928471 -0.122897 -0.0286611 255 0 0
0.0964977 -0.12297 -0.028964 255 0 0
0.100896 -0.122696 -0.0292111 255 0 0
0.107978 -0.12267 -0.0290589 255 0 0
0.110164 -0.123491 -0.028717 255 0 0
0.0862229 -0.120572 -0.029563 255 0 0
0.0911207 -0.121662 -0.0293047 255 0 0
0.09273 -0.121377 -0.0292197 255 0 0
0.0951106 -0.120811 -0.0288615 255 0 0
0.100012 -0.120768 -0.0294927 255 0 0
0.102515 -0.120078 -0.0290181 255 0 0
0.104996 -0.120723 -0.0289198 255 0 0
0.10666 -0.121616 -0.0291101 255 0 0
0.0847774 -0.119255 -0.0289252 255 0 0
0.091174 -0.11841 -0.0290487 255 0 0
0.0929786 -0.118791 -0.0290224 255 0 0
0.0942029 -0.119123 -0.0288093 255 0 0
0.098853 -0.1188 -0.0291212 255 0 0
0.100408 -0.119286 -0.0293553 255 0 0
0.0811152 -0.117089 -0.0295806 255 0 0
0.0826713 -0.117617 -0.0288091 255 0 0
0.089136 -0.116382 -0.0285147 255 0 0
0.0905167 -0.117303 -0.0294252 255 0 0
0.0929978 -0.116881 -0.02874 255 0 0
0.0991614 -0.117079 -0.0286091 255 0 0
0.0820367 -0.115673 -0.0288215 255 0 0
0.0873956 -0.114534 -0.0291162 255 0 0
0.0926017 -0.114894 -0.0287848 255 0 0
0.0970247 -0.114947 -0.0288641 255 0 0
0.0855401 -0.112383 -0.0289436 255 0 0
0.086358 -0.113215 -0.0295548 255 0 0
0.092898 -0.112768 -0.0289165 255 0 0
0.095048 -0.113497 -0.0288484 255 0 0
0.0851714 -0.110608 -0.0289938 255 0 0
0.0910101 -0.110676 -0.0286476 255 0 0
0.092458 -0.111012 -0.028449 255 0 0
0.0850612 -0.108618 -0.0291325 255 0 0
0.089292 -0.109493 -0.0290849 255 0 0
0.0852812 -0.10693 -0.028877 255 0 0
0.0878804 -0.107672 -0.0294855 255 0 0
0.0852939 -0.105522 -0.029 255 0 0
0.084965 -0.103294 -0.0288684 255 0 0
0.0844441 -0.100878 -0.0287006 255 0 0
0.0706308 -0.0980336 -0.0280287 255 0 0
0.0833711 -0.0986471 -0.0285979 255 0 0
0.0840565 -0.0995634 -0.0291655 255 0 0
0.0818836 -0.0960585 -0.0297866 255 0 0
0.0824875 -0.0973153 -0.0284709 255 0 0
0.0665592 -0.0943554 -0.0280456 255 0 0
0.0809804 -0.0948496 -0.0290318 255 0 0
0.0681198 -0.0935689 -0.0280916 255 0 0
0.0790046 -0.0933853 -0.0292218 255 0 0
0.0789626 -0.0908467 -0.0289724 255 0 0
0.079671 -0.0886628 -0.028893 255 0 0
0.0799546 -0.0874778 -0.0281541 255 0 0
0.080595 -0.0847245 -0.0285562 255 0 0
0.209254 -0.24932 -0.0279754 255 0 0
0.208315 -0.247726 -0.0279303 255 0 0
0.201879 -0.240047 -0.027468 255 0 0
0.200375 -0.238563 -0.0273452 255 0 0
0.198881 -0.237087 -0.0272233 255 0 0
0.196945 -0.23485 -0.0270807 255 0 0
0.195022 -0.232628 -0.0269392 255 0 0
0.193559 -0.231185 -0.0268197 255 0 0
0.190658 -0.228322 -0.026583 255 0 0
0.192104 -0.229749 -0.026701 255 0 0
0.186954 -0.226517 -0.0274821 255 0 0
0.189221 -0.226903 -0.0264657 255 0 0
0.185591 -0.224643 -0.0273139 255 0 0
0.186972 -0.224833 -0.0270902 255 0 0
0.183775 -0.222891 -0.027038 255 0 0
0.18485 -0.222736 -0.0269136 255 0 0
0.181949 -0.220044 -0.0276981 255 0 0
0.183259 -0.221205 -0.0268581 255 0 0
0.180856 -0.218685 -0.0275878 255 0 0
0.176823 -0.216527 -0.0275718 255 0 0
0.179556 -0.216899 -0.0271382 255 0 0
0.180241 -0.217065 -0.0273888 255 0 0
0.175307 -0.215305 -0.0267829 255 0 0
0.177216 -0.215221 -0.0269999 255 0 0
0.179251 -0.214976 -0.0270717 255 0 0
0.175088 -0.21265 -0.027459 255 0 0
0.17616 -0.212977 -0.0273772 255 0 0
0.178926 -0.213244 -0.0273991 255 0 0
0.173117 -0.210499 -0.0277074 255 0 0
0.174994 -0.211408 -0.0268204 255 0 0
0.177396 -0.211112 -0.0272993 255 0 0
0.170956 -0.208444 -0.0266439 255 0 0
0.172532 -0.209347 -0.0272474 255 0 0
0.174675 -0.208442 -0.0270675 255 0 0
0.176032 -0.209773 -0.027183 255 0 0
0.169722 -0.206909 -0.0269716 255 0 0
0.171418 -0.207191 -0.0270264 255 0 0
0.172808 -0.207235 -0.0268783 255 0 0
0.168998 -0.20533 -0.0275734 255 0 0
0.170653 -0.205291 -0.026778 255 0 0
0.16731 -0.203047 -0.0267518 255 0 0
0.169157 -0.20337 -0.0267011 255 0 0
0.165435 -0.200776 -0.0276735 255 0 0
0.167497 -0.200595 -0.0265688 255 0 0
0.168442 -0.201944 -0.026397 255 0 0
0.16533 -0.198922 -0.0276902 255 0 0
0.16657 -0.199168 -0.0271817 255 0 0
0.163693 -0.196089 -0.0267501 255 0 0
0.165299 -0.19705 -0.0272311 255 0 0
0.166082 -0.197538 -0.0264551 255 0 0
0.161764 -0.194651 -0.027026 255 0 0
0.162745 -0.194993 -0.027021 255 0 0
0.164972 -0.194603 -0.0264499 255 0 0
0.160987 -0.193257 -0.0266494 255 0 0
0.163029 -0.19271 -0.0262837 255 0 0
0.157867 -0.190324 -0.0276078 255 0 0
0.159031 -0.190205 -0.0264334 255 0 0
0.161014 -0.190988 -0.0268889 255 0 0
0.163159 -0.191881 -0.0279055 255 0 0
0.156797 -0.188874 -0.0270723 255 0 0
0.159001 -0.189094 -0.0271042 255 0 0
0.160449 -0.189415 -0.0268789 255 0 0
0.155433 -0.186993 -0.0273618 255 0 0
0.156946 -0.187151 -0.0272991 255 0 0
0.159162 -0.187382 -0.0275805 255 0 0
0.153896 -0.184497 -0.027379 255 0 0
0.154911 -0.185153 -0.0269501 255 0 0
0.156784 -0.18568 -0.027339 255 0 0
0.151485 -0.182245 -0.0279519 255 0 0
0.15294 -0.18298 -0.0268841 255 0 0
0.151525 -0.180761 -0.0269726 255 0 0
0.152365 -0.181936 -0.0261065 255 0 0
0.149362 -0.178452 -0.0266799 255 0 0
0.150871 -0.179441 -0.0268553 255 0 0
0.145379 -0.176612 -0.0277326 255 0 0
0.146768 -0.177201 -0.0268902 255 0 0
0.149385 -0.177205 -0.0270294 255 0 0
0.151507 -0.177399 -0.0267579 255 0 0
0.143104 -0.174252 -0.0267803 255 0 0
0.144514 -0.175337 -0.0269216 255 0 0
0.146669 -0.174476 -0.0273975 255 0 0
0.14836 -0.175816 -0.0265058 255 0 0
0.151677 -0.175146 -0.0269615 255 0 0
0.141824 -0.173127 -0.0274062 255 0 0
0.145657 -0.173102 -0.026876 255 0 0
0.151652 -0.172969 -0.0271143 255 0 0
0.139485 -0.170833 -0.0271916 255 0 0
0.140651 -0.171977 -0.0272986 255 0 0
0.143704 -0.171047 -0.0276339 255 0 0
0.144651 -0.171735 -0.0263575 255 0 0
0.151236 -0.17096 -0.027165 255 0 0
0.138614 -0.16881 -0.0271704 255 0 0
0.142869 -0.168864 -0.0272478 255 0 0
0.15082 -0.168949 -0.0272149 255 0 0
0.138264 -0.166977 -0.0275464 255 0 0
0.142314 -0.167415 -0.0269915 255 0 0
0.149179 -0.166958 -0.0268096 255 0 0
0.137494 -0.164592 -0.0274885 255 0 0
0.138958 -0.165132 -0.0274503 255 0 0
0.140878 -0.164545 -0.0271787 255 0 0
0.142198 -0.165865 -0.0269959 255 0 0
0.147277 -0.165093 -0.0266814 255 0 0
0.136965 -0.162976 -0.0272265 255 0 0
0.138916 -0.163561 -0.0271175 255 0 0
0.140659 -0.163088 -0.0262267 255 0 0
0.144894 -0.162895 -0.0273232 255 0 0
0.146272 -0.163901 -0.0270528 255 0 0
0.129248 -0.160725 -0.0276688 255 0 0
0.131293 -0.160792 -0.0272644 255 0 0
0.135984 -0.160017 -0.0268714 255 0 0
0.136102 -0.161298 -0.0270375 255 0 0
0.138314 -0.161194 -0.0267223 255 0 0
0.1434 -0.160876 -0.0272949 255 0 0
0.126675 -0.158948 -0.0273621 255 0 0
0.129886 -0.159396 -0.0267065 255 0 0
0.134973 -0.159112 -0.0271313 255 0 0
0.137171 -0.159073 -0.0270379 255 0 0
0.143151 -0.158839 -0.0267008 255 0 0
0.123809 -0.156493 -0.0271595 255 0 0
0.125301 -0.157572 -0.0268099 255 0 0
0.129449 -0.156057 -0.0279802 255 0 0
0.131605 -0.156744 -0.0267879 255 0 0
0.133073 -0.156979 -0.0270557 255 0 0
0.134924 -0.156874 -0.0271886 255 0 0
