# .PCD v0.7 - Point Cloud Data file format
VERSION 0.7
FIELDS x y z rgb
SIZE 4 4 4 4
TYPE F F F F
COUNT 1 1 1 1
WIDTH 1035
HEIGHT 1
VIEWPOINT 0 0 0 1 0 0 0
POINTS 1035
DATA ascii
-0.35213101 0.0297343 0.17050201 1.1819647e-38
-0.35070601 0.030566299 0.171351 1.1081729e-38
-0.34902799 0.031318601 0.17233001 1.0067944e-38
-0.348171 0.032277901 0.172884 9.3311035e-39
-0.34731999 0.033231899 0.173434 9.7917174e-39
-0.34674001 0.034254301 0.17384399 1.0989173e-38
-0.34669 0.035423301 0.173981 1.1635616e-38
-0.34637499 0.036516599 0.174254 1.1911122e-38
-0.34423 0.037071001 0.175467 1.2002959e-38
-0.34340501 0.0379995 0.176001 1.2095514e-38
-0.34207201 0.0387679 0.17679401 1.2279186e-38
-0.33999899 0.039296601 0.177965 1.2371739e-38
-0.33970001 0.0403613 0.17822701 1.2372098e-38
-0.35204101 0.051546901 0.17260601 1.4767396e-38
-0.351713 0.052658901 0.172888 1.4206346e-38
-0.351661 0.0538662 0.17303 1.3094993e-38
-0.35194701 0.027528901 0.16909701 1.2279908e-38
-0.35189599 0.028719099 0.169236 1.1912206e-38
-0.35047001 0.0295578 0.170094 1.0622553e-38
-0.348519 0.0302472 0.171223 8.9616078e-39
-0.34739599 0.031139299 0.17192 7.6697984e-39
-0.34654701 0.0320962 0.172473 6.9325948e-39
-0.34596801 0.033120401 0.172885 7.9467398e-39
-0.345128 0.0340675 0.17343201 1.0343451e-38
-0.345604 0.035382502 0.17329501 1.1635619e-38
-0.34450501 0.036247201 0.173976 1.2002601e-38
-0.34315699 0.037029099 0.174785 1.1911483e-38
-0.34233499 0.037956901 0.175321 1.2002958e-38
-0.33999899 0.038417201 0.17663901 1.2094437e-38
-0.33820099 0.039022699 0.17767701 1.2463933e-38
-0.337657 0.040005699 0.178066 1.2463936e-38
-0.33687001 0.040907301 0.17858 1.2280265e-38
-0.35091901 0.051488802 0.171901 1.4311793e-38
-0.35086799 0.052695401 0.172043 1.4675205e-38
-0.350541 0.053805798 0.172325 1.3929763e-38
-0.35048899 0.055012699 0.17246599 1.2726216e-38
-0.35110801 0.0275633 0.168257 1.2096956e-38
-0.35105699 0.028753599 0.168396 1.0714391e-38
-0.34936199 0.029522199 0.169401 8.5935441e-39
-0.34715399 0.0301411 0.17067599 6.7474917e-39
-0.346304 0.0311026 0.171233 5.9166577e-39
-0.34519601 0.031987101 0.17192601 5.641147e-39
-0.34383699 0.032792799 0.17275 7.1159057e-39
-0.34326801 0.033808801 0.173158 1.0341653e-38
-0.34373701 0.035117801 0.173021 1.163526e-38
-0.34290901 0.0360552 0.173565 1.181893e-38
-0.34208599 0.036987301 0.174105 1.1911122e-38
-0.340505 0.037684999 0.17504101 1.2002599e-38
-0.33869299 0.038298301 0.17609601 1.1911484e-38
-0.33690801 0.038903501 0.177136 1.2188068e-38
-0.33442399 0.0392721 0.17853899 1.2371383e-38
-0.33365399 0.040166698 0.17904601 1.2372101e-38
-0.33289 0.041056599 0.17955001 1.2556848e-38
-0.350023 0.052731901 0.171197 1.4403276e-38
-0.34942299 0.053745501 0.17162199 1.4581936e-38
-0.34937099 0.054951198 0.171763 1.3744657e-38
-0.34931901 0.056157801 0.171904 1.2634382e-38
-0.35087201 0.026542399 0.16698501 1.200476e-38
-0.35026899 0.027597699 0.167418 1.0530719e-38
-0.35021701 0.0287882 0.167556 8.776855e-39
-0.35016599 0.0299794 0.167695 7.4843225e-39
-0.34820601 0.0306696 0.16884799 6.65385e-39
-0.34547901 0.0311368 0.170408 5.9173709e-39
-0.34307 0.0316655 0.17179599 5.3659992e-39
-0.34172899 0.032468699 0.172616 7.3932087e-39
-0.341423 0.033552401 0.172887 1.1172481e-38
-0.342143 0.034929302 0.17261299 1.2003678e-38
-0.341322 0.035864301 0.17315599 1.2094795e-38
-0.33999899 0.036643501 0.17396399 1.2095152e-38
-0.33843899 0.037339799 0.174895 1.1912197e-38
-0.337394 0.0381799 0.17555401 1.1911483e-38
-0.33464801 0.038481601 0.177109 1.2002603e-38
-0.33291599 0.039078299 0.17812701 1.2462861e-38
-0.331916 0.039894801 0.178758 1.2464299e-38
-0.33045599 0.040552501 0.17963099 1.2556849e-38
-0.331819 0.0421317 0.179019 1.2557208e-38
-0.34917799 0.052768499 0.170351 1.3390559e-38
-0.34857899 0.053782102 0.17077801 1.4403636e-38
-0.34852701 0.0549879 0.170918 1.4673773e-38
-0.347931 0.055996101 0.171343 1.3836495e-38
-0.34787899 0.057200901 0.171483 1.2910607e-38
-0.35230401 0.0259184 0.16480701 1.1820369e-38
-0.35003099 0.0265768 0.166143 1.0345251e-38
-0.34942999 0.027632101 0.16657799 8.7761389e-39
-0.34937799 0.0288227 0.16671599 7.8538281e-39
-0.344603 0.0323429 0.169718 7.110875e-39
-0.34066001 0.032431401 0.171939 9.9703577e-39
-0.34035501 0.033514 0.17220999 1.2003678e-38
-0.34055999 0.034742001 0.172208 1.2095512e-38
-0.33924001 0.035526399 0.17302001 1.2003318e-38
-0.33768499 0.036228999 0.17395701 1.2094793e-38
-0.336642 0.037073001 0.17462 1.1911122e-38
-0.33390501 0.037386701 0.176184 1.2003321e-38
-0.332894 0.038214501 0.176828 1.2002964e-38
-0.33141699 0.038885798 0.177718 1.2188071e-38
-0.32972401 0.039474402 0.17872199 1.2463217e-38
-0.32851601 0.040206201 0.17946699 1.237174e-38
-0.32823801 0.041236199 0.179718 1.2556846e-38
-0.34833199 0.052804999 0.169505 1.2376051e-38
-0.34773499 0.053818598 0.16993301 1.3390916e-38
-0.347141 0.054828599 0.17036 1.4679501e-38
-0.34708899 0.056032699 0.1705 1.4765609e-38
-0.346497 0.057037398 0.17092399 1.3927972e-38
-0.346176 0.058139399 0.171205 1.3002084e-38
-0.35235 0.02495 0.163361 1.1544143e-38
-0.35145599 0.025953 0.163958 1.016122e-38
-0.34946501 0.0266787 0.165152 8.8679758e-39
-0.34913799 0.0278037 0.16543999 8.2208141e-39
-0.33959401 0.0323941 0.17126299 1.1632739e-38
-0.33603999 0.0325513 0.173289 1.2279543e-38
-0.33797899 0.034264501 0.17234799 1.2187708e-38
-0.33618701 0.034900099 0.17342 1.2004398e-38
-0.335154 0.035746299 0.17408299 1.1911485e-38
-0.332681 0.036146201 0.175519 1.1910766e-38
-0.33215401 0.0371239 0.175907 1.181965e-38
-0.330917 0.037875298 0.17667601 1.1911125e-38
-0.32945901 0.038545299 0.177562 1.1910766e-38
-0.32824999 0.039282698 0.178314 1.2095154e-38
-0.32751101 0.040163901 0.178813 1.2280262e-38
-0.32654801 0.040964499 0.17943101 1.2372458e-38
-0.3265 0.042066399 0.17955901 1.2464292e-38
-0.347487 0.0528416 0.168659 1.2189863e-38
-0.346892 0.053855199 0.169089 1.2559362e-38
-0.34629899 0.0548652 0.169517 1.3575309e-38
-0.345709 0.055871699 0.169943 1.4679505e-38
-0.345388 0.056974199 0.17022499 1.4673056e-38
-0.34480199 0.057974402 0.17064799 1.383506e-38
-0.34421799 0.0589712 0.171069 1.2909532e-38
-0.35239601 0.023975801 0.161906 1.163562e-38
-0.35149899 0.0249846 0.16250999 9.977189e-39
-0.350887 0.0260549 0.162956 8.5009925e-39
-0.350555 0.027189899 0.163249 8.2215358e-39
-0.33529001 0.031447701 0.17235699 1.2187348e-38
-0.33475 0.032444701 0.172756 1.2279545e-38
-0.33494499 0.033651199 0.172754 1.2188069e-38
-0.33391801 0.0345002 0.173417 1.2096235e-38
-0.33170199 0.034982901 0.17472699 1.1911845e-38
-0.33093899 0.035888899 0.175245 1.181929e-38
-0.330181 0.0367902 0.17576 1.16349e-38
-0.32872701 0.037466198 0.176652 1.1910046e-38
-0.32798299 0.038355902 0.177158 1.2094795e-38
-0.32747301 0.039315801 0.17753699 1.2095512e-38
-0.32673499 0.040197 0.178038 1.1911843e-38
-0.32509699 0.0407704 0.17902599 1.2279542e-38
-0.32504901 0.0418691 0.179153 1.2279545e-38
-0.32410201 0.042659 0.179765 1.2280621e-38
-0.346048 0.0538918 0.168244 1.2282056e-38
-0.345456 0.054901801 0.16867401 1.2560439e-38
-0.34460101 0.055809699 0.169245 1.3576026e-38
-0.34375101 0.0567124 0.16981199 1.4863532e-38
-0.34316999 0.0577101 0.17023499 1.4763813e-38
-0.34285399 0.058805201 0.170515 1.3741428e-38
-0.34227699 0.059796799 0.17093401 1.299993e-38
-0.351542 0.0240105 0.161052 1.0068307e-38
-0.35148901 0.025219301 0.161191 8.5924679e-39
-0.350595 0.0262249 0.161797 8.4055669e-39
-0.351381 0.0276394 0.16147099 9.5998011e-39
-0.33400199 0.031343199 0.17182501 1.2188069e-38
-0.33273801 0.0321302 0.17262401 1.2279905e-38
-0.332688 0.033259802 0.172755 1.2095874e-38
-0.330962 0.033893101 0.173807 1.1543783e-38
-0.329965 0.034730598 0.174457 1.0805865e-38
-0.32874301 0.035490502 0.17523099 1.0436724e-38
-0.327764 0.036315501 0.175869 1.0436364e-38
-0.32725301 0.037280001 0.17625099 1.1173204e-38
-0.32674399 0.038241301 0.176631 1.181893e-38
-0.32646599 0.0392741 0.176884 1.1819648e-38
-0.32573199 0.040154699 0.177386 1.1727454e-38
-0.32432699 0.040803399 0.17825501 1.2004036e-38
-0.32293901 0.041445199 0.179113 1.2096233e-38
-0.322447 0.0423848 0.179481 1.228062e-38
-0.32108 0.043013599 0.180326 1.2280264e-38
-0.344614 0.054938398 0.167831 1.237389e-38
-0.34296599 0.0555516 0.168836 1.2835586e-38
-0.34212399 0.0564523 0.169402 1.3943727e-38
-0.34180999 0.057546999 0.169682 1.5047923e-38
-0.34149501 0.058639999 0.169962 1.4947847e-38
-0.34118199 0.059731599 0.170241 1.3924743e-38
-0.341129 0.0609245 0.170379 1.2999573e-38
-0.35068899 0.0240451 0.160197 8.5910344e-39
-0.35063499 0.025254 0.160337 8.7725516e-39
-0.35058099 0.026463799 0.160476 1.0058983e-38
-0.33271801 0.0312392 0.171296 1.2188069e-38
-0.329799 0.031546 0.173021 1.2096233e-38
-0.32974899 0.032665301 0.173151 1.1359033e-38
-0.32922801 0.033645101 0.17354099 9.97611e-39
-0.32800999 0.034409899 0.174319 8.6853796e-39
-0.326803 0.035167702 0.175088 7.94746e-39
-0.32629499 0.036132898 0.17547099 8.4077151e-39
-0.32578799 0.037094899 0.175851 1.0158698e-38
-0.325739 0.038200699 0.175979 1.1634538e-38
-0.325461 0.0392326 0.17623299 1.1819288e-38
-0.32473099 0.040112499 0.176736 1.1819648e-38
-0.323333 0.040760901 0.177607 1.1911481e-38
-0.32195199 0.0414024 0.178469 1.2003678e-38
-0.31993401 0.0418103 0.17967901 1.2188427e-38
-0.31859201 0.042437699 0.180516 1.2372099e-38
-0.31811699 0.043362301 0.180875 1.2463935e-38
-0.34212899 0.055588 0.167998 1.2465371e-38
-0.341028 0.0563903 0.16870999 1.3019977e-38
-0.340455 0.057384599 0.16913199 1.3943728e-38
-0.34040201 0.058575999 0.16926999 1.4863178e-38
-0.34009001 0.059666499 0.169549 1.4763461e-38
-0.33952001 0.060653001 0.16996901 1.3558485e-38
-0.33946699 0.061843 0.17010599 1.2909541e-38
-0.33269799 0.0303433 0.16996001 1.2095874e-38
-0.33143899 0.0311356 0.17076901 1.2096233e-38
-0.32877699 0.031510901 0.17236499 1.1267198e-38
-0.32872701 0.032629199 0.17249399 9.5151361e-39
-0.327975 0.033538401 0.173016 7.8541896e-39
-0.326074 0.034092501 0.174181 6.6560122e-39
-0.32556701 0.035059199 0.174565 6.1946767e-39
-0.32506099 0.0360227 0.17494699 6.7478435e-39
-0.32478401 0.037055399 0.175201 9.2356681e-39
-0.32473499 0.038160101 0.175329 1.1542701e-38
-0.32423201 0.0391168 0.17570899 1.1910764e-38
-0.32350701 0.039995302 0.176212 1.181929e-38
-0.322341 0.0407185 0.176961 1.2002959e-38
-0.32096601 0.0413597 0.177825 1.2003319e-38
-0.318744 0.0416926 0.17916 1.2095874e-38
-0.31677499 0.042094398 0.180351 1.2372099e-38
-0.31651601 0.043090899 0.180591 1.2371738e-38
-0.316468 0.044162799 0.18071499 1.2187707e-38
-0.34045401 0.056525301 0.167731 1.2742312e-38
-0.33962199 0.057420999 0.168299 1.3204724e-38
-0.33930999 0.058512099 0.168579 1.4127399e-38
-0.33874199 0.059500299 0.169 1.5045772e-38
-0.33843201 0.060587302 0.16927899 1.476167e-38
-0.338379 0.061776102 0.169415 1.3556695e-38
-0.33165699 0.030308699 0.16929699 1.200368e-38
-0.33064401 0.031168699 0.169973 1.1358676e-38
-0.32799 0.031543799 0.171578 9.6991658e-39
-0.32793999 0.032662101 0.17170601 7.6697984e-39
-0.32695699 0.0335017 0.172362 6.3779889e-39
-0.32506701 0.034055501 0.173531 5.8248166e-39
-0.32433501 0.034951098 0.174044 5.6404253e-39
-0.32383201 0.035913002 0.174426 6.1939522e-39
-0.32355699 0.036943801 0.17467999 9.2342304e-39
-0.32350701 0.038046401 0.174807 1.1635617e-38
-0.32278401 0.038927499 0.175313 1.1818571e-38
-0.321843 0.039729599 0.17594101 1.1818931e-38
-0.32113001 0.040601101 0.17644 1.2003319e-38
-0.32020199 0.041392501 0.17705999 1.2187708e-38
-0.317772 0.041650102 0.17852201 1.2095512e-38
-0.31581399 0.042052101 0.179717 1.2279543e-38
-0.313272 0.042225201 0.18123899 1.2371739e-38
-0.31301901 0.043209899 0.181475 1.2371379e-38
-0.312971 0.044269301 0.18159699 1.2556129e-38
-0.33873501 0.0586491 0.167603 1.3297278e-38
-0.33791101 0.0595368 0.16816901 1.4311791e-38
-0.337093 0.060419701 0.168732 1.5045777e-38
-0.33703899 0.061606102 0.16886801 1.466984e-38
-0.335722 0.062274098 0.169707 1.3374463e-38
-0.33115 0.0292749 0.168229 1.1912203e-38
-0.33061799 0.0302743 0.168635 1.1083168e-38
-0.32984799 0.031201901 0.169176 9.3307462e-39
-0.32720301 0.0315766 0.17079 8.0367816e-39
-0.32715201 0.0326951 0.170919 7.4818142e-39
-0.32710201 0.0338143 0.171047 6.9293635e-39
-0.32428899 0.034088299 0.17275199 6.1925229e-39
-0.32310799 0.0348434 0.17352401 5.4556767e-39
-0.322833 0.035874601 0.173779 6.7453239e-39
-0.322335 0.036832601 0.17416 1.0339492e-38
-0.321839 0.037787501 0.17454 1.1820369e-38
-0.321123 0.038665999 0.175045 1.1727096e-38
-0.32041201 0.0395399 0.175547 1.1727454e-38
-0.31948599 0.040334899 0.17617001 1.1911844e-38
-0.31835201 0.041049499 0.17691 1.2188425e-38
-0.316589 0.041533001 0.17800599 1.2095152e-38
-0.313813 0.041638799 0.179675 1.2095512e-38
-0.312121 0.042109501 0.18072701 1.2279545e-38
-0.311463 0.042943601 0.18119401 1.2372098e-38
-0.30980599 0.043400999 0.18222401 1.2464654e-38
-0.30916199 0.044224199 0.18268099 1.2648325e-38
-0.33702701 0.060762901 0.167474 1.4403629e-38
-0.33495101 0.0611296 0.16874699 1.5045419e-38
-0.33439699 0.0621044 0.169163 1.4577285e-38
-0.333846 0.0630759 0.169578 1.3557416e-38
-0.330403 0.028173899 0.1673 1.2004396e-38
-0.330111 0.0292414 0.167568 1.0990256e-38
-0.32982001 0.030307399 0.16783699 8.870131e-39
-0.32905301 0.031235 0.16838001 7.8541854e-39
-0.32900101 0.032365501 0.16850901 7.8513141e-39
-0.32636499 0.032728001 0.170131 9.2277844e-39
-0.32233301 0.034876 0.172749 6.5591418e-39
-0.321612 0.035765499 0.173261 8.0374935e-39
-0.32001299 0.0363658 0.17427801 1.1634175e-38
-0.31996301 0.037458699 0.174403 1.2095872e-38
-0.319475 0.038406599 0.174779 1.1911483e-38
-0.31855401 0.039204601 0.175404 1.1911841e-38
-0.31764001 0.039997 0.176024 1.1819648e-38
-0.31588301 0.040488198 0.177127 1.1911485e-38
-0.313115 0.040606402 0.17880601 1.2095514e-38
-0.311836 0.041230202 0.17963199 1.2095155e-38
-0.310974 0.0419943 0.180218 1.2186989e-38
-0.30912 0.042385399 0.18137001 1.2188069e-38
-0.307886 0.0429901 0.18216699 1.2280625e-38
-0.30764201 0.043958001 0.18239801 1.2556132e-38
-0.306813 0.044700298 0.182963 1.2648683e-38
-0.333628 0.060962301 0.16820499 1.4312155e-38
-0.33283001 0.061833099 0.168761 1.4952869e-38
-0.33277699 0.063008703 0.168896 1.4576214e-38
-0.33149499 0.063664101 0.169726 1.3464867e-38
-0.32965499 0.027073501 0.16637 1.1912562e-38
-0.329604 0.0282069 0.1665 1.0622191e-38
-0.329312 0.029274501 0.166769 8.96017e-39
-0.32878399 0.030273 0.16717701 7.9456636e-39
-0.32873201 0.031405199 0.16730601 7.9449475e-39
-0.32820499 0.032398801 0.167712 9.965711e-39
-0.32017499 0.035586402 0.172874 1.0986292e-38
-0.318156 0.036045499 0.174142 1.2188428e-38
-0.31767401 0.036990799 0.17451701 1.2187348e-38
-0.31697801 0.037861399 0.175015 1.2095512e-38
-0.31543699 0.038439602 0.17600299 1.2095871e-38
-0.314336 0.0391545 0.176735 1.2003319e-38
-0.31200701 0.039431199 0.178176 1.2002961e-38
-0.311142 0.040203799 0.17876901 1.2095514e-38
-0.31028301 0.0409711 0.17935801 1.2186992e-38
-0.30883199 0.041515101 0.180288 1.2094435e-38
-0.307991 0.042270899 0.180865 1.1911485e-38
-0.306961 0.042948399 0.18155 1.2096593e-38
-0.30555299 0.0434734 0.18245199 1.2372101e-38
-0.30531299 0.044434398 0.18268099 1.2465012e-38
-0.30469 0.045244802 0.18313 1.2465012e-38
-0.33201 0.061869401 0.16794001 1.4312158e-38
-0.33073199 0.0625301 0.16877501 1.4860678e-38
-0.329467 0.063184701 0.16960099 1.4392186e-38
-0.329173 0.064245999 0.169871 1.3465224e-38
-0.328857 0.027106401 0.165571 1.0345253e-38
-0.32880399 0.0282399 0.1657 8.7765018e-39
-0.32851401 0.0293075 0.16597 8.1293374e-39
-0.327986 0.030306101 0.166379 8.6796371e-39
-0.327934 0.031438399 0.166508 1.0519242e-38
-0.31696099 0.0359377 0.17363 1.2188067e-38
-0.31457001 0.036250301 0.175125 1.2096233e-38
-0.31368199 0.037043702 0.17573801 1.2096591e-38
-0.312594 0.037761301 0.176468 1.2003677e-38
-0.310904 0.038261101 0.17754801 1.2094796e-38
-0.31024599 0.039106801 0.17802399 1.1911481e-38
-0.30919099 0.039805699 0.17873199 1.1727451e-38
-0.308146 0.0404987 0.179433 1.2002959e-38
-0.307504 0.041329801 0.17989799 1.2186272e-38
-0.30706301 0.042229701 0.18024699 1.2002599e-38
-0.30623201 0.042980101 0.180821 1.2004033e-38
-0.304829 0.043504901 0.18172701 1.2188067e-38
-0.30401501 0.0442442 0.18229 1.2372815e-38
-0.303397 0.045053001 0.182739 1.2373175e-38
-0.30297101 0.0459328 0.18307599 1.2280618e-38
-0.32991499 0.0625664 0.16795801 1.4496189e-38
-0.32769799 0.062811904 0.16934 1.4952156e-38
-0.327645 0.063972197 0.16947199 1.4482942e-38
-0.32735401 0.065029196 0.169741 1.364674e-38
-0.32805699 0.027139399 0.16477101 8.5006352e-39
-0.32800499 0.028272999 0.1649 7.945672e-39
-0.32795301 0.029407401 0.165029 9.5980019e-39
-0.327425 0.0304069 0.16543999 1.1530161e-38
-0.31344599 0.035071701 0.174496 1.2279542e-38
-0.31277201 0.0359364 0.174987 1.2279902e-38
-0.31107399 0.0364508 0.176083 1.209659e-38
-0.31020999 0.037234399 0.17668501 1.2004396e-38
-0.30935299 0.038012601 0.17728201 1.1726734e-38
-0.30830199 0.0387154 0.177992 1.135831e-38
-0.307262 0.0394122 0.17869601 1.1173562e-38
-0.30682001 0.040316101 0.17904601 1.1633822e-38
-0.30637899 0.041217402 0.179396 1.2002961e-38
-0.306135 0.0421886 0.17963 1.2094436e-38
-0.305309 0.042938501 0.180205 1.1819283e-38
-0.304104 0.043536499 0.18100201 1.2095509e-38
-0.303103 0.0442021 0.181679 1.2188067e-38
-0.302111 0.0448622 0.18234999 1.228062e-38
-0.30057099 0.045295 0.183341 1.2280261e-38
-0.29996899 0.046091899 0.183781 1.2188067e-38
-0.32688901 0.062847897 0.16853 1.467986e-38
-0.32636201 0.063802697 0.168938 1.5226585e-38
-0.32630801 0.064961404 0.16907001 1.4481149e-38
-0.32578301 0.0659113 0.169475 1.346307e-38
-0.32720599 0.028306 0.16409899 9.6905646e-39
-0.327153 0.0294405 0.16422801 1.1898236e-38
-0.31274301 0.034032501 0.173621 1.2004396e-38
-0.312071 0.034899499 0.174115 1.2188067e-38
-0.31037799 0.035421301 0.175217 1.2095872e-38
-0.30951601 0.036208201 0.17582101 1.1359393e-38
-0.30866101 0.0369897 0.176421 1.0344531e-38
-0.307614 0.037696801 0.17713501 9.6977281e-39
-0.306577 0.0383978 0.177843 9.2374688e-39
-0.30594 0.039232899 0.17831101 9.606966e-39
-0.30569601 0.040205602 0.178546 1.052928e-38
-0.305453 0.041177101 0.17878 1.1359032e-38
-0.30501601 0.042075001 0.179129 1.1818572e-38
-0.304387 0.042897001 0.179591 1.1910406e-38
-0.30338001 0.043568 0.180277 1.1727091e-38
-0.30238101 0.044233602 0.180957 1.1912201e-38
-0.30139199 0.0448936 0.181631 1.2096231e-38
-0.29912201 0.0450323 0.183062 1.2187709e-38
-0.298163 0.045679901 0.183716 1.2188068e-38
-0.29613999 0.045882199 0.18499701 1.2280622e-38
-0.32555401 0.063838698 0.168129 1.4863892e-38
-0.32503 0.064790301 0.16853701 1.5134035e-38
-0.32474199 0.065843001 0.168805 1.4296403e-38
-0.324689 0.066999897 0.168937 1.3463069e-38
-0.31178299 0.0339971 0.172993 1.2188068e-38
-0.31111401 0.034863502 0.17348801 1.2096231e-38
-0.30902499 0.035250001 0.17483699 1.1267196e-38
-0.30837101 0.036103401 0.17532 9.79136e-39
-0.307522 0.036883902 0.17592099 8.2229665e-39
-0.30608901 0.037452601 0.176872 7.1162714e-39
-0.30525699 0.0382213 0.177461 6.8393272e-39
-0.30501401 0.039194301 0.177696 7.6690753e-39
-0.30438399 0.040024798 0.17816301 9.8817536e-39
-0.304335 0.041065302 0.17828099 1.1266835e-38
-0.304093 0.042034101 0.178514 1.1543064e-38
-0.30346799 0.042855501 0.178978 1.1818211e-38
-0.302275 0.043453101 0.17977899 1.1543064e-38
-0.30166 0.044265099 0.180235 1.1726372e-38
-0.30067399 0.044925101 0.180912 1.2186628e-38
-0.29822901 0.044990301 0.18246 1.2187707e-38
-0.295486 0.044910301 0.184182 1.2279904e-38
-0.29473299 0.0456222 0.184717 1.2279902e-38
-0.29468599 0.046622001 0.18483 1.2188425e-38
-0.324691 0.065033697 0.16745199 1.4955731e-38
-0.32393599 0.065879099 0.167999 1.513296e-38
-0.32364899 0.0669306 0.168268 1.4202414e-38
-0.311288 0.033025499 0.171993 1.1912203e-38
-0.31082499 0.033961799 0.17236599 1.1912201e-38
-0.310159 0.034827501 0.17286199 1.1175001e-38
-0.30828199 0.035281599 0.17409299 9.5147759e-39
-0.30763 0.036134899 0.17457899 7.7609178e-39
-0.306784 0.036915399 0.175182 6.5620187e-39
-0.305159 0.0374154 0.176257 6.0095666e-39
-0.30433199 0.0381836 0.176847 5.7333398e-39
-0.30370301 0.039016299 0.177316 6.1928774e-39
-0.303462 0.039985701 0.17755 9.2345877e-39
-0.303413 0.0410253 0.17766701 1.1451225e-38
-0.302789 0.041848999 0.178133 1.1727451e-38
-0.30197901 0.042596199 0.17871 1.1634898e-38
-0.30136299 0.043411501 0.17917 1.1634898e-38
-0.30093801 0.0442966 0.17951301 1.1817851e-38
-0.29977 0.044882599 0.180305 1.2002596e-38
-0.29518601 0.044081599 0.183155 1.2187708e-38
-0.294081 0.044653799 0.18390501 1.2371742e-38
-0.293161 0.045292299 0.184543 1.2279543e-38
-0.292422 0.045997899 0.185072 1.2186988e-38
-0.32336199 0.0660199 0.167053 1.5231237e-38
-0.32238099 0.066756196 0.16773801 1.5039684e-38
-0.32163799 0.0675928 0.16828001 1.3925465e-38
-0.31099901 0.0321179 0.170865 1.1820366e-38
-0.310536 0.033057202 0.17124 1.1636338e-38
-0.30986801 0.033926599 0.17174 1.0806583e-38
-0.30940899 0.0348593 0.172111 9.4225775e-39
-0.30935901 0.035926301 0.172232 7.9456622e-39
-0.30748799 0.0363716 0.17346901 6.7464113e-39
-0.30683899 0.037222601 0.17395601 6.0999657e-39
-0.30599499 0.037999801 0.17456099 5.5485898e-39
-0.303601 0.038215 0.17611501 5.0883347e-39
-0.302782 0.0389781 0.176704 5.7322622e-39
-0.302542 0.039946601 0.176938 9.5097383e-39
-0.302111 0.040842999 0.177288 1.1635977e-38
-0.301303 0.041593399 0.17786799 1.2002601e-38
-0.300877 0.042482998 0.178215 1.1818211e-38
-0.30026501 0.043297201 0.178675 1.1818571e-38
-0.29947099 0.044034202 0.17924599 1.1910406e-38
-0.29649499 0.043893099 0.181144 1.1726372e-38
-0.29413101 0.043969799 0.182667 1.1819286e-38
-0.29251301 0.044328101 0.183735 1.2004397e-38
-0.291776 0.045036599 0.184266 1.237138e-38
-0.290874 0.045669001 0.18489701 1.2371017e-38
-0.29306701 0.047610201 0.18365 1.2279541e-38
-0.32089001 0.066478103 0.167348 1.5230877e-38
-0.32038 0.067418098 0.167753 1.4854938e-38
-0.320326 0.068567298 0.16788299 1.3740363e-38
-0.31024501 0.032149602 0.17011 1.1452308e-38
-0.30978301 0.0330889 0.170487 1.0437807e-38
-0.309118 0.033958402 0.17098799 9.1459962e-39
-0.30906701 0.0350268 0.17110901 7.9456622e-39
-0.30901599 0.036095899 0.171229 7.6672844e-39
-0.30205399 0.0390094 0.17597499 6.1943165e-39
-0.301433 0.039837498 0.17644399 1.0526037e-38
-0.30062801 0.040591002 0.177027 1.1912203e-38
-0.300203 0.041481901 0.177375 1.2002958e-38
-0.29959199 0.042298298 0.177837 1.1818568e-38
-0.29879999 0.043038402 0.17840999 1.2001885e-38
-0.29728201 0.0434842 0.17942999 1.2001882e-38
-0.29489201 0.043565702 0.18098401 1.1818569e-38
-0.293255 0.043929301 0.182073 1.1634897e-38
-0.291473 0.044217002 0.18325099 1.1818569e-38
-0.29023001 0.044711899 0.18409599 1.2095155e-38
-0.290014 0.045628 0.184311 1.2279545e-38
-0.28912401 0.046255101 0.184938 1.2279902e-38
-0.29043001 0.047823701 0.184221 1.2371738e-38
-0.31957901 0.067454197 0.166952 1.5414551e-38
-0.31929901 0.068497203 0.167219 1.4946056e-38
-0.31946999 0.069753602 0.167211 1.3739645e-38
-0.30995399 0.031238999 0.16897701 1.1543425e-38
-0.30949101 0.0321813 0.169356 1.0345253e-38
-0.30903 0.033120699 0.169733 8.7772207e-39
-0.30857 0.034057099 0.170109 7.9453076e-39
-0.30831599 0.035058599 0.170357 8.3108574e-39
-0.29995301 0.0395892 0.17618699 1.1542703e-38
-0.299155 0.040341001 0.176768 1.2095514e-38
-0.29892001 0.041299898 0.177 1.2002961e-38
-0.29776201 0.041900799 0.17780501 1.2002599e-38
-0.296617 0.042495701 0.178601 1.1910048e-38
-0.29423401 0.0425882 0.18016499 1.1910406e-38
-0.29330301 0.043241199 0.18082599 1.1726734e-38
-0.29186001 0.043676499 0.181804 1.1910405e-38
-0.29009601 0.0439655 0.182979 1.1909683e-38
-0.28937101 0.044671599 0.18351001 1.2278104e-38
-0.28848401 0.045302499 0.184141 1.2370663e-38
-0.287274 0.045786399 0.18497001 1.2279902e-38
-0.287227 0.046764102 0.18508001 1.2280261e-38
-0.28718001 0.047742501 0.18519001 1.2280262e-38
-0.31866899 0.069789797 0.166409 1.4761312e-38
-0.318389 0.070832103 0.166677 1.3647812e-38
-0.30919901 0.031270701 0.168221 1.0252337e-38
-0.30873701 0.032212999 0.16860101 8.7761389e-39
-0.30827701 0.033152401 0.16898 8.0371403e-39
-0.307818 0.034088898 0.169357 8.6792798e-39
-0.307767 0.035158601 0.169477 1.0701122e-38
-0.29848301 0.039342798 0.17593101 1.2095875e-38
-0.29751 0.0400232 0.176627 1.2095514e-38
-0.296363 0.040628299 0.177431 1.2095515e-38
-0.294871 0.041088101 0.178451 1.2002958e-38
-0.29339999 0.0415418 0.17945699 1.1818927e-38
-0.292649 0.042268101 0.18001001 1.1726734e-38
-0.29121 0.042709898 0.180994 1.1635259e-38
-0.289621 0.0430764 0.18207 1.1911124e-38
-0.289235 0.043925699 0.182393 1.1910042e-38
-0.28834599 0.044560999 0.18302999 1.200152e-38
-0.28729799 0.045120701 0.18376499 1.2094795e-38
-0.28626201 0.045675099 0.18449201 1.2187707e-38
-0.28621501 0.046651199 0.18460201 1.2279902e-38
-0.28486601 0.047053099 0.185523 1.2188067e-38
-0.28481999 0.048023701 0.18563201 1.2279901e-38
-0.317085 0.071800001 0.166282 1.3371231e-38
-0.30849499 0.0302293 0.167345 9.975394e-39
-0.308034 0.031173101 0.167726 8.5910316e-39
-0.30777901 0.032179199 0.16797601 8.3122895e-39
-0.30732101 0.033117902 0.168356 9.0477007e-39
-0.30726901 0.034187902 0.168475 1.1162821e-38
-0.30721799 0.035258699 0.168595 1.3279021e-38
-0.29684001 0.039029598 0.17579301 1.2187709e-38
-0.29461601 0.039229602 0.177288 1.2187346e-38
-0.29279199 0.039560899 0.178527 1.2096231e-38
-0.292043 0.040293101 0.179083 1.2003675e-38
-0.29129899 0.041020699 0.179636 1.1819286e-38
-0.28987399 0.041469201 0.180618 1.16349e-38
-0.288977 0.042117398 0.18126699 1.1726377e-38
-0.288591 0.042967901 0.181591 1.1727094e-38
-0.28787199 0.043676399 0.182125 1.1726374e-38
-0.28715801 0.044380601 0.18265601 1.1817849e-38
-0.286448 0.045080401 0.183184 1.1818208e-38
-0.28541699 0.045634702 0.18391301 1.1911121e-38
-0.28423601 0.046113301 0.184737 1.2095871e-38
-0.28354701 0.046798799 0.185249 1.2096231e-38
-0.28286299 0.047480199 0.18575799 1.209695e-38
-0.282341 0.048229199 0.186165 1.2097307e-38
-0.316008 0.072875202 0.165749 1.3462707e-38
-0.30753601 0.030197199 0.16672 8.4070019e-39
-0.30728 0.0312047 0.166971 8.2204596e-39
-0.306822 0.0321455 0.167353 9.5072482e-39
-0.306568 0.0331496 0.167602 1.1715276e-38
-0.30651599 0.034219701 0.167722 1.3464495e-38
-0.29324299 0.037979599 0.17692 1.2279904e-38
-0.29196101 0.0385198 0.17782199 1.209587e-38
-0.291042 0.039187498 0.178491 1.191256e-38
-0.29030201 0.039917201 0.17904501 1.2003675e-38
-0.28922701 0.040507 0.179812 1.1819286e-38
-0.28833199 0.041159 0.180464 1.163454e-38
-0.28777999 0.041942202 0.180896 1.1634181e-38
-0.287231 0.042721901 0.181326 1.1358675e-38
-0.28651801 0.043428801 0.18186 1.1634537e-38
-0.28613999 0.044270899 0.18218 1.1818208e-38
-0.28560001 0.045040298 0.182603 1.1725295e-38
-0.284574 0.045594402 0.18333501 1.1634534e-38
-0.283398 0.0460728 0.18416101 1.1819646e-38
-0.28223699 0.046546198 0.18497699 1.1912559e-38
-0.28171599 0.047297001 0.185385 1.1912919e-38
-0.28042001 0.047689401 0.186286 1.1912559e-38
-0.279755 0.0483604 0.186785 1.2096587e-38
-0.27955499 0.049242198 0.18698899 1.2097306e-38
-0.27950901 0.050195701 0.187095 1.2190579e-38
-0.31493199 0.073949099 0.165217 1.3372311e-38
-0.30708799 0.0281482 0.165594 9.3296714e-39
-0.30703601 0.02922 0.165713 8.4059257e-39
-0.30657801 0.030165199 0.166097 8.312658e-39
-0.30632299 0.031171801 0.166348 1.0241942e-38
-0.305868 0.032111902 0.16673 1.2451051e-38
-0.30581599 0.033181399 0.166849 1.3371945e-38
-0.29293799 0.037132598 0.17587 1.2003321e-38
-0.29130599 0.037546899 0.17700601 1.2095872e-38
-0.29039001 0.038218401 0.177679 1.19122e-38
-0.28965199 0.038950998 0.17823499 1.1820007e-38
-0.28858101 0.039545398 0.17900699 1.1543062e-38
-0.28785601 0.040268101 0.179553 1.1081727e-38
-0.287137 0.040986199 0.180096 1.0621114e-38
-0.28642401 0.041700002 0.18063501 1.0621114e-38
-0.28571501 0.042409301 0.18117 1.0805504e-38
-0.28550199 0.043320801 0.181385 1.1450148e-38
-0.28512701 0.0441617 0.181705 1.1726014e-38
-0.28458899 0.0449301 0.182128 1.1725654e-38
-0.28389299 0.045624599 0.18265399 1.1634177e-38
-0.283041 0.0462441 0.18327899 1.1726731e-38
-0.281564 0.046576101 0.184304 1.1820365e-38
-0.27979901 0.046763599 0.18551201 1.1820366e-38
-0.279136 0.047437198 0.186014 1.2003678e-38
-0.278478 0.048106801 0.186511 1.2095871e-38
-0.27812701 0.048914701 0.186812 1.2004394e-38
-0.27747601 0.0495773 0.18730401 1.2005112e-38
-0.27682799 0.050236002 0.187794 1.2374252e-38
-0.27663299 0.051107801 0.187995 1.2837022e-38
-0.314078 0.0751343 0.164546 1.3187923e-38
-0.30638599 0.0271085 0.164719 9.3282323e-39
-0.30592799 0.0280564 0.165105 8.4062816e-39
-0.30587599 0.029126201 0.165224 8.6807217e-39
-0.30562201 0.030133201 0.165475 1.1345771e-38
-0.30516699 0.031074701 0.165859 1.3463771e-38
-0.30511501 0.0321435 0.165977 1.3833291e-38
-0.292633 0.036283098 0.174817 1.1819288e-38
-0.29170001 0.036965799 0.175506 1.1819287e-38
-0.29025599 0.037445899 0.17652901 1.2004036e-38
-0.289345 0.038116802 0.177202 1.1819646e-38
-0.28861299 0.038848501 0.17775901 1.1266476e-38
-0.28771701 0.039508998 0.17842101 1.0251617e-38
-0.28682899 0.040164299 0.179078 9.0537992e-39
-0.28578299 0.0407473 0.179837 8.31696e-39
-0.28507701 0.041459501 0.18037499 8.5924679e-39
-0.28470099 0.0423031 0.180696 9.6062485e-39
-0.28448999 0.0432132 0.180911 1.0896622e-38
-0.28427899 0.044122301 0.181126 1.1450147e-38
-0.28390601 0.044960301 0.181445 1.1634896e-38
-0.28305101 0.045584299 0.18207701 1.163418e-38
-0.28284299 0.046487 0.182289 1.1634537e-38
-0.28088999 0.046606101 0.183631 1.1635616e-38
-0.27897799 0.046723399 0.184945 1.1820725e-38
-0.27786201 0.047186598 0.185743 1.209623e-38
-0.27705899 0.047784898 0.18633699 1.2187346e-38
-0.27656201 0.048519399 0.18673301 1.2003674e-38
-0.27606699 0.049250901 0.18712699 1.1912199e-38
-0.27572399 0.050050698 0.187424 1.2188784e-38
-0.27567801 0.050992802 0.187528 1.2559e-38
-0.27563199 0.051935598 0.18763299 1.3666062e-38
-0.30522701 0.0270187 0.164232 8.31373e-39
-0.304773 0.027965 0.164618 9.3239317e-39
-0.30472001 0.0290328 0.164736 1.1900021e-38
-0.30446801 0.030037999 0.164987 1.3741803e-38
-0.29197201 0.035301998 0.173994 1.1635619e-38
-0.29156899 0.036183201 0.174339 1.181893e-38
-0.29081801 0.036930699 0.174913 1.1911122e-38
-0.28955299 0.037476201 0.175826 1.1911483e-38
-0.28898799 0.038279001 0.176277 1.1174641e-38
-0.28842601 0.039078102 0.176725 9.5136969e-39
-0.28769699 0.0398065 0.177283 8.1289758e-39
-0.286138 0.0401944 0.178386 6.9315144e-39
-0.284767 0.040643498 0.17936499 6.1953969e-39
-0.28406399 0.041354802 0.179903 6.3787106e-39
-0.28385401 0.042265099 0.18011799 7.5775985e-39
-0.28364301 0.043174502 0.180333 1.0159059e-38
-0.28343299 0.044082899 0.180547 1.1174283e-38
-0.28290001 0.044850301 0.18097299 1.1634896e-38
-0.28221101 0.045544099 0.181501 1.1726734e-38
-0.281526 0.046233598 0.182026 1.1634538e-38
-0.280846 0.046918999 0.182547 1.1634896e-38
-0.27800599 0.0466136 0.184478 1.191148e-38
-0.276445 0.046868499 0.185572 1.2003675e-38
-0.27595001 0.047604799 0.18596999 1.2095509e-38
-0.27545699 0.048338 0.18636499 1.2004033e-38
-0.275114 0.0491389 0.186663 1.2004393e-38
-0.27477199 0.049937598 0.18696 1.2189143e-38
-0.27457899 0.050806198 0.18716 1.2651196e-38
-0.27438501 0.051674001 0.18735901 1.3389477e-38
-0.27433899 0.052614301 0.187463 1.4219956e-38
-0.30407301 0.0269292 0.163747 1.0242301e-38
-0.303821 0.027935101 0.16399901 1.2269531e-38
-0.30376801 0.029001901 0.16411699 1.3465937e-38
-0.29131201 0.034321401 0.173172 1.1819288e-38
-0.291262 0.0353324 0.173283 1.1819288e-38
-0.29051 0.036083698 0.17386299 1.1819288e-38
-0.28993699 0.036895599 0.17432199 1.1819646e-38
-0.28885099 0.037506498 0.17512301 1.0989892e-38
-0.28880101 0.0385083 0.175234 9.3296644e-39
-0.28823799 0.039309099 0.175686 7.3924954e-39
-0.28408 0.040673502 0.17867699 5.6400666e-39
-0.28321701 0.041317601 0.179325 5.3634825e-39
-0.283007 0.042227201 0.17954101 5.825897e-39
-0.28279799 0.0431359 0.179756 9.6973637e-39
-0.28258801 0.044043701 0.17997 1.1174286e-38
-0.28173801 0.0446712 0.180608 1.1726374e-38
-0.280738 0.045224201 0.181345 1.1635256e-38
-0.28006101 0.045911901 0.181867 1.1634897e-38
-0.27970001 0.046736602 0.182181 1.1634538e-38
-0.276885 0.046434902 0.184112 1.1726372e-38
-0.27533799 0.046690699 0.18520699 1.1818927e-38
-0.27484599 0.047425698 0.18560401 1.1911481e-38
-0.27450401 0.0482275 0.185903 1.2004393e-38
-0.27416301 0.049027201 0.18619999 1.2189143e-38
-0.27397001 0.049896002 0.1864 1.2374253e-38
-0.27363101 0.050692201 0.18669701 1.2466809e-38
-0.27343899 0.051558699 0.186896 1.209803e-38
-0.273247 0.052424401 0.187096 1.2005477e-38
-0.27305499 0.053289302 0.187295 1.2007991e-38
-0.273884 0.054677099 0.18682399 1.2930302e-38
-0.30337399 0.025893901 0.162876 1.1254293e-38
-0.30312201 0.0269002 0.163129 1.2819842e-38
-0.303069 0.027966401 0.16324601 1.3649255e-38
-0.29082799 0.0334039 0.172231 1.1727453e-38
-0.290602 0.034351699 0.172461 1.1910764e-38
-0.29020101 0.035234202 0.17280801 1.2002239e-38
-0.28980201 0.0361141 0.173154 1.1818569e-38
-0.289231 0.036926001 0.17361499 1.0713309e-38
-0.28814799 0.0375368 0.17442 8.9608861e-39
-0.28809899 0.038538702 0.174531 7.5765209e-39
-0.28253299 0.041347601 0.17864101 4.9954188e-39
-0.28216299 0.042189401 0.178964 5.6400736e-39
-0.28195301 0.043097399 0.179179 9.8806774e-39
-0.281425 0.043866299 0.179607 1.1450153e-38
-0.28026599 0.0443548 0.180456 1.1543063e-38
-0.279434 0.044976201 0.181086 1.1634894e-38
-0.27845401 0.045523599 0.181814 1.1726374e-38
-0.27641901 0.0455826 0.18324301 1.1726735e-38
-0.27546999 0.046119299 0.183948 1.163418e-38
-0.27438301 0.046582501 0.184745 1.1634538e-38
-0.27389401 0.0473166 0.185142 1.1819647e-38
-0.27355501 0.048117299 0.185441 1.2188786e-38
-0.27336201 0.048986301 0.185642 1.246573e-38
-0.27302301 0.049783401 0.185939 1.2189865e-38
-0.27297699 0.050721802 0.186042 1.1635976e-38
-0.27278501 0.051588401 0.186242 1.0897698e-38
-0.27259299 0.0524542 0.186442 1.0529277e-38
-0.27240199 0.0533191 0.18664099 1.062291e-38
-0.27279001 0.054481901 0.18645699 1.1546656e-38
-0.27332699 0.055727299 0.186175 1.3482398e-38
-0.30237001 0.026931399 0.162376 1.401696e-38
-0.29092199 0.031657699 0.170819 1.1727453e-38
-0.29034299 0.032485299 0.17129 1.172745e-38
-0.289942 0.033371501 0.171639 1.1911124e-38
-0.28971699 0.0343186 0.17186899 1.2094439e-38
-0.289318 0.035200398 0.172217 1.1725661e-38
-0.288921 0.036079701 0.172563 1.0344172e-38
-0.28852499 0.0369564 0.17290901 8.6835845e-39
-0.28847501 0.0379632 0.17301901 7.5765251e-39
-0.281479 0.0422194 0.17828 6.4691112e-39
-0.28095099 0.042990599 0.178711 1.0711151e-38
-0.27963701 0.043416101 0.179671 1.1634181e-38
-0.27880701 0.044041101 0.180305 1.1635256e-38
-0.27783 0.044592701 0.181036 1.172673e-38
-0.276104 0.044797398 0.182271 1.1726733e-38
-0.27441099 0.044999 0.183483 1.181893e-38
-0.27421501 0.0458747 0.183686 1.163454e-38
-0.273579 0.0465432 0.184186 1.1634897e-38
-0.27323899 0.047346 0.184486 1.2279904e-38
-0.272899 0.048146699 0.18478601 1.2557208e-38
-0.27256101 0.048945401 0.185084 1.2188428e-38
-0.272369 0.049812999 0.185285 1.1358314e-38
-0.27217799 0.050679699 0.18548501 1.0620393e-38
-0.272131 0.051618099 0.185588 1.0067222e-38
-0.272084 0.052556999 0.185692 9.7913544e-39
-0.27218199 0.053570699 0.185698 9.9768247e-39
-0.27228001 0.054586802 0.18570501 1.0531791e-38
-0.27266899 0.0557574 0.185517 1.2007991e-38
-0.27320701 0.0570121 0.185231 1.3849752e-38
-0.29025999 0.0306748 0.169994 1.163562e-38
-0.28968301 0.031504501 0.170467 1.1727814e-38
-0.28945699 0.032453701 0.170698 1.1727812e-38
-0.28923199 0.033401798 0.170929 1.2003321e-38
-0.28883401 0.034285501 0.171278 1.1725662e-38
-0.28861001 0.0352307 0.171508 1.0342018e-38
-0.28821301 0.036109999 0.171855 8.5903127e-39
-0.28799099 0.0370523 0.172084 7.7605591e-39
-0.28794 0.038060099 0.172195 8.1275479e-39
-0.279165 0.042545401 0.178781 1.1358316e-38
-0.27818099 0.043106399 0.179524 1.1910761e-38
-0.27720699 0.043662298 0.180259 1.1818207e-38
-0.27548701 0.043875199 0.181501 1.1635254e-38
-0.27394599 0.044151701 0.18261901 1.154306e-38
-0.27345601 0.044893298 0.18302301 1.1634897e-38
-0.27326199 0.045767698 0.183226 1.1727093e-38
-0.27292201 0.0465726 0.183529 1.2279901e-38
-0.27243701 0.047306199 0.183929 1.2832354e-38
-0.27209899 0.048106398 0.184229 1.2279187e-38
-0.271907 0.048974901 0.18443 1.1081011e-38
-0.27157101 0.049771599 0.184728 1.0250898e-38
-0.27152401 0.0507093 0.18483099 9.8817578e-39
-0.27147701 0.0516477 0.18493401 9.698084e-39
-0.27157399 0.0526601 0.18494 9.6980826e-39
-0.27167201 0.053674798 0.184946 9.7913544e-39
-0.27176899 0.0546919 0.18495101 9.9771834e-39
-0.27230299 0.0559403 0.184664 1.0899854e-38
-0.27254701 0.057042401 0.184571 1.2377134e-38
-0.27279201 0.058148898 0.184478 1.4308576e-38
-0.29159901 0.029331099 0.167705 1.1910766e-38
-0.29030299 0.029931201 0.168681 1.1911124e-38
-0.289372 0.030644599 0.169403 1.181929e-38
-0.28897199 0.031534601 0.169756 1.1910766e-38
-0.288573 0.032422099 0.17010801 1.2002602e-38
-0.288349 0.0333694 0.170338 1.13576e-38
-0.28812501 0.034315702 0.170569 9.8817634e-39
-0.28790101 0.035261001 0.170799 8.5899526e-39
-0.28750601 0.036140401 0.171147 8.0360655e-39
-0.28728399 0.037082799 0.171376 8.9544359e-39
-0.287233 0.038090602 0.171487 1.1070272e-38
-0.27755499 0.042172201 0.178743 1.16349e-38
-0.27643099 0.0426655 0.17958701 1.1910761e-38
-0.27486899 0.042953499 0.180731 1.1817845e-38
-0.273334 0.043237198 0.18185601 1.1543059e-38
-0.27299201 0.0440473 0.182161 1.1267195e-38
-0.27250499 0.044787899 0.182565 1.1633821e-38
-0.27231199 0.045661099 0.182768 1.2186989e-38
-0.271974 0.046464801 0.18307 1.2740157e-38
-0.27163601 0.047266599 0.18337201 1.2002599e-38
-0.27144399 0.048135899 0.18357401 1.0804066e-38
-0.27125299 0.049004398 0.18377499 1.0065788e-38
-0.27091801 0.0498011 0.184074 9.6970078e-39
-0.27087 0.050738901 0.184177 9.5126193e-39
-0.270823 0.051677398 0.18427999 9.5133368e-39
-0.27092001 0.052689899 0.184285 9.6051709e-39
-0.27116001 0.053779099 0.184192 9.605887e-39
-0.271402 0.054872598 0.18409801 9.6991616e-39
-0.27178901 0.056047 0.183906 1.0161575e-38
-0.27203301 0.057150401 0.18381201 1.1177517e-38
-0.272277 0.058258001 0.183717 1.3205454e-38
-0.29093099 0.028339799 0.16687401 1.1819291e-38
-0.289992 0.029063899 0.16760799 1.1819646e-38
-0.28906101 0.029782001 0.16833501 1.1819647e-38
-0.288486 0.0306144 0.16881201 1.2003678e-38
-0.28808701 0.0315038 0.169166 1.2002961e-38
-0.28786299 0.0324522 0.169397 1.1080653e-38
-0.28763899 0.033399701 0.16962799 9.6044576e-39
-0.28741601 0.034345999 0.16985901 8.5892337e-39
-0.28719199 0.0352914 0.17009 8.4041278e-39
-0.286798 0.036170699 0.170439 9.9660697e-39
-0.286576 0.037113201 0.170669 1.2173748e-38
-0.28652501 0.038121101 0.170779 1.309572e-38
-0.27580899 0.041736901 0.178812 1.1726731e-38
-0.274252 0.042032301 0.17996199 1.1727451e-38
-0.27272201 0.042323299 0.18109301 1.15427e-38
-0.27238101 0.043134298 0.181399 1.1635254e-38
-0.27204099 0.0439432 0.181704 1.1451944e-38
-0.271703 0.044750001 0.182008 1.2002959e-38
-0.27136499 0.045554802 0.182312 1.2646531e-38
-0.271173 0.046425801 0.182514 1.1541268e-38
-0.27098101 0.047295898 0.182716 1.0527483e-38
-0.270789 0.048165299 0.182918 1.0065788e-38
-0.27059799 0.049033899 0.18312 9.6973651e-39
-0.27040699 0.049901601 0.183322 9.513334e-39
-0.27021599 0.050768498 0.183523 9.3293029e-39
-0.27031201 0.051779699 0.18352699 9.3289455e-39
-0.27055201 0.052866701 0.183432 9.4207796e-39
-0.27079201 0.0539582 0.183337 9.5129753e-39
-0.27103299 0.055053901 0.18324199 9.514413e-39
-0.27113 0.056077302 0.183246 9.7909971e-39
-0.27151701 0.057258502 0.18305101 1.0437441e-38
-0.271615 0.0582885 0.183055 1.1729611e-38
-0.29031599 0.0263287 0.165931 1.2002249e-38
-0.29026401 0.027349001 0.166042 1.1727812e-38
-0.28950301 0.028135501 0.166655 1.1728173e-38
-0.28874901 0.0289168 0.167263 1.1820006e-38
-0.28817299 0.0297525 0.167744 1.1911841e-38
-0.287774 0.030644501 0.1681 1.1726737e-38
-0.287377 0.031533901 0.168455 1.0711874e-38
-0.28715301 0.032482401 0.168687 9.3282309e-39
-0.28692901 0.033429898 0.168918 8.4973996e-39
-0.28653499 0.034313001 0.16926999 8.955145e-39
-0.286313 0.0352576 0.16950101 1.0335214e-38
-0.286091 0.036201101 0.16973101 1.2084435e-38
-0.28603899 0.037209399 0.16984101 1.3280115e-38
-0.274084 0.041306801 0.17887899 1.1819644e-38
-0.272257 0.041474499 0.18022799 1.1635619e-38
-0.27177101 0.042221799 0.180637 1.1542344e-38
-0.27143201 0.0430317 0.180943 1.1726014e-38
-0.27109399 0.043839499 0.18124899 1.2095509e-38
-0.27090099 0.044712201 0.18145201 1.255613e-38
-0.27070901 0.045584001 0.181655 1.1539473e-38
-0.27051699 0.0464551 0.181858 1.0617879e-38
-0.27032599 0.047325298 0.182061 1.0341654e-38
-0.270134 0.048194699 0.182263 1.0065427e-38
-0.269943 0.049063399 0.182465 9.6051723e-39
-0.269896 0.050002299 0.182568 9.5129753e-39
-0.269705 0.050869901 0.18277 9.4207796e-39
-0.269943 0.051954899 0.18267301 9.3289441e-39
-0.27018201 0.0530442 0.182577 9.4207796e-39
-0.27042201 0.0541379 0.18248001 9.3289455e-39
-0.270518 0.0551599 0.182483 9.2374716e-39
-0.27075899 0.0562612 0.182386 9.605531e-39
-0.27100101 0.0573669 0.182289 1.0066505e-38
-0.270953 0.058318999 0.182393 1.0621474e-38
-0.28947201 0.0252831 0.165227 1.2002965e-38
-0.28889 0.026131701 0.16571601 1.1911127e-38
-0.28883901 0.027148301 0.16582701 1.1727812e-38
-0.288261 0.027990701 0.16631299 1.1728173e-38
-0.28768599 0.0288292 0.166797 1.1820007e-38
-0.287287 0.0297231 0.167154 1.1450511e-38
-0.28689 0.0306144 0.167511 1.0251263e-38
-0.28649399 0.0315031 0.16786601 9.0520083e-39
-0.286443 0.032512601 0.16797601 8.4974038e-39
-0.28604901 0.0333976 0.16833 9.6902017e-39
-0.285826 0.034343202 0.168561 1.1530886e-38
-0.285604 0.035287902 0.16879199 1.2728367e-38
-0.28555301 0.036296401 0.16890199 1.318864e-38
-0.27482 0.040968999 0.17715199 1.154378e-38
-0.27282301 0.0410759 0.178633 1.1635617e-38
-0.271451 0.0414389 0.17967001 1.1452304e-38
-0.27096701 0.042185701 0.18008099 1.1635256e-38
-0.27062899 0.042995099 0.180388 1.2095514e-38
-0.270437 0.043868601 0.180592 1.2189146e-38
-0.27024499 0.0447414 0.180795 1.0804433e-38
-0.26990899 0.0455456 0.1811 1.0618237e-38
-0.269862 0.0464844 0.18120199 1.0433848e-38
-0.26981401 0.047423899 0.18130501 1.0066148e-38
-0.269622 0.048294 0.18150701 9.6970092e-39
-0.26943099 0.049163301 0.18171 9.4211412e-39
-0.26938301 0.050103098 0.181812 9.328584e-39
-0.269335 0.0510436 0.181915 9.2363884e-39
-0.269573 0.0521308 0.181817 9.2363884e-39
-0.26981199 0.053222299 0.18171801 9.3282253e-39
-0.269907 0.054242998 0.181721 9.2363926e-39
-0.270147 0.055342101 0.181622 9.2363926e-39
-0.27038699 0.056445699 0.181523 9.6966477e-39
-0.27033901 0.057397299 0.18162701 9.7888419e-39
-0.28903401 0.023331599 0.16416 1.2368537e-38
-0.28880599 0.0242949 0.164398 1.1910771e-38
-0.28822601 0.0251456 0.16488899 1.1911484e-38
-0.287824 0.026048601 0.165252 1.200368e-38
-0.287772 0.0270634 0.165362 1.1911484e-38
-0.28719801 0.0279046 0.165848 1.1727816e-38
-0.2868 0.0288004 0.166208 1.1173927e-38
-0.28657499 0.0297531 0.16644201 1.0249821e-38
-0.28617901 0.0306444 0.16679899 8.959098e-39
-0.28578401 0.0315332 0.167156 8.497408e-39
-0.28556201 0.032481 0.16738801 9.9675102e-39
-0.285339 0.033427801 0.16762 1.2267021e-38
-0.28528801 0.0344369 0.16773 1.3464498e-38
-0.27419701 0.0400397 0.176376 1.1727094e-38
-0.2728 0.040413499 0.177442 1.1819288e-38
-0.271864 0.0409756 0.178178 1.1819287e-38
-0.27079201 0.041467901 0.179011 1.1820003e-38
-0.270165 0.0421497 0.179526 1.2188065e-38
-0.26982799 0.042958502 0.17983299 1.1820367e-38
-0.26978001 0.0438978 0.17993499 1.0620037e-38
-0.26958799 0.044770598 0.18013901 1.0066867e-38
-0.26939699 0.045642599 0.180343 9.8824781e-39
-0.26920599 0.0465138 0.180546 9.8821165e-39
-0.26915801 0.047453299 0.180648 9.6051723e-39
-0.26910901 0.048393399 0.18075 9.4207852e-39
-0.269061 0.049334299 0.180852 9.2367513e-39
-0.26901299 0.050275698 0.18095499 9.2367457e-39
-0.26896399 0.051217798 0.18105701 9.2363856e-39
-0.26920199 0.0523072 0.180957 9.2356695e-39
-0.269297 0.053326599 0.180958 9.2356723e-39
-0.26953501 0.0544236 0.180858 9.2356723e-39
-0.26963001 0.055448599 0.180859 9.5115389e-39
-0.26972499 0.056476001 0.180861 9.6952141e-39
-0.28895101 0.021483799 0.162834 1.2917424e-38
-0.28836799 0.0223436 0.16333 1.2277062e-38
-0.28814 0.023307201 0.163569 1.1911134e-38
-0.28773701 0.024214899 0.16393501 1.181965e-38
-0.28751001 0.025175501 0.16417199 1.1819648e-38
-0.28710899 0.0260785 0.164536 1.2095514e-38
-0.286883 0.027036101 0.164772 1.1818934e-38
-0.28631201 0.027876699 0.165259 1.0897347e-38
-0.28608701 0.0288304 0.16549399 9.7895706e-39
-0.28569099 0.0297237 0.16585401 9.0498531e-39
-0.28546801 0.0306745 0.166088 9.2320962e-39
-0.285074 0.031563301 0.166445 1.042885e-38
-0.284852 0.0325111 0.166678 1.2176272e-38
-0.28479999 0.033520602 0.166787 1.3740729e-38
-0.27312499 0.038919799 0.175925 1.1635257e-38
-0.27218199 0.0394913 0.176673 1.172781e-38
-0.27169001 0.040249702 0.177095 1.1820006e-38
-0.270762 0.0408113 0.17783 1.2004037e-38
-0.269988 0.041432399 0.178455 1.2372814e-38
-0.26950699 0.042178798 0.178868 1.237102e-38
-0.269315 0.043053299 0.17907301 1.0895538e-38
-0.26912299 0.043926999 0.179277 1.0066501e-38
-0.26907501 0.044867001 0.179379 9.7899181e-39
-0.26888299 0.045739699 0.179584 9.6970064e-39
-0.26869199 0.0466116 0.17978799 9.6051695e-39
-0.26864401 0.047552001 0.17989001 9.5118963e-39
-0.26859501 0.048493002 0.17999201 9.3282309e-39
-0.268832 0.049576901 0.17988899 9.2367527e-39
-0.26878399 0.0505208 0.17999201 9.2363898e-39
-0.26873499 0.0514654 0.180094 9.1441927e-39
-0.26882899 0.0524843 0.180094 9.0519999e-39
-0.26906699 0.053580299 0.17999201 9.0520013e-39
-0.26901799 0.054529201 0.180095 9.3275092e-39
-0.268969 0.0554788 0.180198 9.4186286e-39
-0.269063 0.056506298 0.180199 9.0498517e-39
-0.28828299 0.0204942 0.162003 1.2641195e-38
-0.28787801 0.0214085 0.16237199 1.2092308e-38
-0.28764999 0.0223733 0.16261099 1.2094806e-38
-0.287422 0.023336999 0.16285001 1.1820373e-38
-0.28702 0.024244601 0.16321699 1.182037e-38
-0.28679401 0.025205299 0.16345499 1.2003681e-38
-0.286394 0.026108401 0.16382 1.1727094e-38
-0.28616801 0.027066 0.164057 1.0804432e-38
-0.28559801 0.0279066 0.164546 9.4207908e-39
-0.28537399 0.028860399 0.164781 8.8658276e-39
-0.28498 0.0297537 0.165141 9.7831162e-39
-0.28458601 0.0306444 0.165501 1.1439412e-38
-0.28436401 0.031593401 0.16573399 1.2728725e-38
-0.28414199 0.032541301 0.165967 1.3464868e-38
-0.27360499 0.0374755 0.174284 1.1450869e-38
-0.27250499 0.0379939 0.175152 1.1543063e-38
-0.27156499 0.038569599 0.17590301 1.1635259e-38
-0.27107501 0.039329801 0.17632701 1.1819646e-38
-0.270441 0.040022898 0.176855 1.1912557e-38
-0.26995599 0.0407761 0.177274 1.2004752e-38
-0.26932901 0.041461401 0.17779499 1.1543062e-38
-0.26913601 0.0423382 0.178002 1.0988816e-38
-0.268801 0.043148201 0.17831101 9.9743079e-39
-0.26860899 0.044022601 0.178517 9.6066058e-39
-0.26841801 0.044896301 0.17872199 9.6051667e-39
-0.26836899 0.045837 0.17882299 9.5129739e-39
-0.26831999 0.046778399 0.17892499 9.4200622e-39
-0.268271 0.047720499 0.17902701 9.5118991e-39
-0.26822299 0.048663199 0.179129 9.3275134e-39
-0.268316 0.0496778 0.17912801 9.2363898e-39
-0.26826701 0.050622601 0.17923 9.1441941e-39
-0.268361 0.051641099 0.17922901 8.9594456e-39
-0.268455 0.052662 0.17922901 8.959447e-39
-0.26926801 0.054061402 0.17871 9.0512839e-39
-0.26835701 0.054559398 0.179434 9.0509265e-39
-0.268307 0.055509102 0.179536 8.8654605e-39
-0.28796899 0.0196067 0.16091 1.3007473e-38
-0.287388 0.020472201 0.161413 1.2091227e-38
-0.28716001 0.021438099 0.161653 1.200189e-38
-0.28693199 0.022403 0.161892 1.2094443e-38
-0.286704 0.023366701 0.16213199 1.2003684e-38
-0.28630301 0.0242744 0.16249999 1.2004041e-38
-0.28607699 0.0252351 0.162738 1.1634544e-38
-0.285678 0.026138199 0.163104 1.0528206e-38
-0.28545299 0.027095901 0.163341 9.2363996e-39
-0.28488499 0.0279365 0.16383199 9.0491413e-39
-0.284491 0.0288317 0.164194 1.0243375e-38
-0.28392801 0.029665001 0.16468 1.2174466e-38
-0.28370601 0.0306143 0.164914 1.3280107e-38
