# .PCD v0.7 - Point Cloud Data file format
VERSION 0.7
FIELDS x y z rgb
SIZE 4 4 4 4
TYPE F F F F
COUNT 1 1 1 1
WIDTH 1041
HEIGHT 1
VIEWPOINT 0 0 0 1 0 0 0
POINTS 1041
DATA ascii
-0.37486199 0.036921199 0.118836 1.0347406e-38
-0.37515399 0.038433101 0.118755 9.7027517e-39
-0.375808 0.040047899 0.118436 9.5194381e-39
-0.37646601 0.0416722 0.118115 9.5201541e-39
-0.37859499 0.043719601 0.116824 9.4286802e-39
-0.38001099 0.045586199 0.116005 9.5205157e-39
-0.38031501 0.0471448 0.115919 9.0581054e-39
-0.380247 0.048597399 0.116081 7.856335e-39
-0.379805 0.049938001 0.116488 7.5819033e-39
-0.37973601 0.051390599 0.116649 7.8584888e-39
-0.378185 0.0523801 0.117785 8.3183837e-39
-0.37738201 0.053592902 0.118428 8.5027722e-39
-0.37549299 0.0544478 0.119784 8.778999e-39
-0.372917 0.055058401 0.121589 8.9637517e-39
-0.37108701 0.055892602 0.122904 8.8715603e-39
-0.36962599 0.056834601 0.123975 8.8704841e-39
-0.36818001 0.057767902 0.125035 8.7779284e-39
-0.367089 0.058811702 0.125862 8.5017016e-39
-0.366005 0.059848599 0.126682 8.1322044e-39
-0.365266 0.060999501 0.127277 7.7630674e-39
-0.363864 0.061901599 0.128305 7.4857658e-39
-0.36280501 0.062918 0.129108 7.3932101e-39
-0.36208099 0.064051099 0.12969001 7.4861218e-39
-0.361361 0.065179601 0.13027 8.0392899e-39
-0.36032099 0.0661778 0.13105901 8.5913847e-39
-0.35928801 0.067169398 0.131841 8.5921064e-39
-0.35794401 0.068027802 0.132826 8.5002681e-39
-0.35661301 0.068878703 0.133801 8.4988275e-39
-0.354673 0.069467798 0.13517 8.2229651e-39
-0.352456 0.069922701 0.136719 7.8541882e-39
-0.349379 0.069994599 0.138824 7.5765251e-39
-0.347837 0.070687301 0.13993099 7.0237115e-39
-0.346313 0.0713728 0.14102399 6.6545716e-39
-0.34509501 0.072176501 0.141919 6.285436e-39
-0.343602 0.072847903 0.14298999 6.3769099e-39
-0.34297401 0.073890403 0.143501 6.4705419e-39
-0.341786 0.074674897 0.144373 6.931876e-39
-0.34088701 0.075580299 0.14505801 7.5776013e-39
-0.33971801 0.076352403 0.145916 8.4991933e-39
-0.33801499 0.076862998 0.147118 9.1441998e-39
-0.33714199 0.077750199 0.14778399 9.2363968e-39
-0.33654299 0.0787609 0.14827199 9.3278721e-39
-0.33594701 0.079767801 0.148757 9.3282295e-39
-0.335354 0.080771104 0.149241 9.2363954e-39
-0.33907899 0.083910801 0.146947 9.1438438e-39
-0.33984399 0.085609399 0.146558 9.1434837e-39
-0.34006 0.087039098 0.146523 8.9587351e-39
-0.33999899 0.088330902 0.146667 8.7739837e-39
-0.34049299 0.089911103 0.14645401 8.7729131e-39
-0.340431 0.091207698 0.146598 1.1070626e-38
-0.34037 0.092505202 0.146742 1.2542548e-38
-0.34030899 0.093803503 0.14688601 1.3002817e-38
-0.37357199 0.0354563 0.117916 1.1258971e-38
-0.37350401 0.036869999 0.118073 1.0532162e-38
-0.37379399 0.038380001 0.117991 9.8867828e-39
-0.37408501 0.039895002 0.117909 9.3343265e-39
-0.374735 0.041514698 0.117588 8.9659069e-39
-0.375752 0.0432465 0.117023 8.6907592e-39
-0.37751001 0.045204099 0.115966 8.5989251e-39
-0.37891999 0.047079701 0.115142 8.5056533e-39
-0.378851 0.0485304 0.115303 7.3989526e-39
-0.378041 0.049757101 0.115955 7.3067556e-39
-0.37797201 0.0512059 0.116116 7.7673708e-39
-0.376434 0.052193899 0.117251 8.5038526e-39
-0.376001 0.053520501 0.117653 8.780078e-39
-0.37448299 0.0544919 0.118773 9.0566634e-39
-0.371916 0.055102199 0.120587 9.0573837e-39
-0.370092 0.055936199 0.121908 8.9648321e-39
-0.36863601 0.056878 0.122984 8.8708415e-39
-0.366853 0.057693101 0.124274 8.7775668e-39
-0.36543 0.058617201 0.12532599 8.408427e-39
-0.36368799 0.059413899 0.126587 7.9463768e-39
-0.363289 0.060680501 0.12695999 7.4854029e-39
-0.36256099 0.0618232 0.127551 7.301013e-39
-0.36150801 0.062838703 0.128355 7.3932087e-39
-0.36078799 0.063970797 0.128938 7.7619884e-39
-0.36007199 0.065098204 0.129519 8.5910232e-39
-0.35871601 0.065970398 0.13052 8.8676073e-39
-0.35769099 0.066960499 0.131303 8.6839433e-39
-0.35635799 0.067817897 0.132287 8.5921036e-39
-0.35503799 0.068667904 0.13326199 8.4069934e-39
-0.35280699 0.069131002 0.13483401 8.2226036e-39
-0.350613 0.069587201 0.136379 7.8538267e-39
-0.34727401 0.069538899 0.13867299 7.576165e-39
-0.34604201 0.070355304 0.139585 7.1151882e-39
-0.34482101 0.071164802 0.140488 6.7474861e-39
-0.34332699 0.071842901 0.141569 6.5630991e-39
-0.34241399 0.072764002 0.14227 7.0222737e-39
-0.34207001 0.073932096 0.142597 7.2084601e-39
-0.340886 0.074716397 0.143473 7.6701543e-39
-0.33998999 0.075621702 0.144161 8.4991905e-39
-0.3391 0.076521702 0.144843 9.2356765e-39
-0.33794299 0.077287897 0.14569999 9.3278735e-39
-0.33706701 0.0781767 0.14637201 9.2360381e-39
-0.33619699 0.079060398 0.147039 9.3278735e-39
-0.335868 0.080199502 0.14735501 9.2367541e-39
-0.33824599 0.082669497 0.14591099 9.1445585e-39
-0.33928499 0.084500402 0.145339 9.3278707e-39
-0.33977699 0.086069196 0.14512201 9.5115417e-39
-0.339715 0.087363198 0.145266 9.3271561e-39
-0.33993101 0.0888009 0.145229 9.1431278e-39
-0.34014699 0.090242803 0.145193 1.0704002e-38
-0.34008601 0.091542497 0.145337 1.2450713e-38
-0.34002399 0.0928431 0.14548101 1.3094292e-38
-0.37257299 0.035498399 0.116916 1.0983847e-38
-0.37250501 0.0369123 0.117072 1.136228e-38
-0.372437 0.038327102 0.117229 1.0440308e-38
-0.37272501 0.039840098 0.117146 9.7027461e-39
-0.373014 0.041358098 0.117063 9.1502982e-39
-0.37366199 0.042982701 0.116738 8.506012e-39
-0.37539899 0.044931099 0.115683 8.0453968e-39
-0.376791 0.046797901 0.114861 7.8602895e-39
-0.37708899 0.048353199 0.114774 7.122737e-39
-0.37665299 0.049688999 0.11518 7.0305302e-39
-0.37585199 0.050908901 0.115831 7.8599237e-39
-0.37505499 0.052123301 0.116478 8.781157e-39
-0.37426201 0.053332299 0.117122 9.2406946e-39
-0.373115 0.054418899 0.118002 9.424367e-39
-0.371268 0.055263001 0.119349 9.2403386e-39
-0.36909699 0.055979799 0.120912 8.963756e-39
-0.367645 0.056921501 0.121993 8.7782871e-39
-0.36586899 0.057736401 0.123289 8.5002611e-39
-0.363446 0.058305699 0.12501501 7.9470915e-39
-0.36238199 0.059338201 0.125833 7.5775957e-39
-0.36198601 0.060603399 0.12620699 7.3921283e-39
-0.36093301 0.061623901 0.12701599 7.3006529e-39
-0.36021399 0.062759601 0.12760299 7.5772384e-39
-0.35949799 0.063890599 0.128188 8.1304094e-39
-0.358464 0.064892799 0.12898301 8.8683289e-39
-0.35743701 0.065888599 0.12977301 8.9608833e-39
-0.35610199 0.066752598 0.130767 8.6846579e-39
-0.35477999 0.067608997 0.131751 8.5006268e-39
-0.35347 0.068458103 0.132726 8.3151565e-39
-0.351257 0.068921901 0.134298 8.0382123e-39
-0.34908101 0.069378898 0.13584401 7.761987e-39
-0.34577 0.069333598 0.13813899 7.3921311e-39
-0.34483701 0.0702729 0.13886 7.2992152e-39
-0.34276599 0.070710301 0.140331 7.0240702e-39
-0.34213701 0.071759902 0.14084899 6.9325962e-39
-0.34151 0.072805598 0.14136501 7.4843267e-39
-0.340886 0.073847197 0.14187901 7.854184e-39
-0.33998701 0.074758001 0.142573 8.4991905e-39
-0.339647 0.075918801 0.14289901 9.1434795e-39
-0.338756 0.076819897 0.14358699 9.3278735e-39
-0.33814499 0.077845097 0.144091 9.3278735e-39
-0.336992 0.078606203 0.14495 9.3282323e-39
-0.33693099 0.079884097 0.145091 9.4204265e-39
-0.337414 0.0814289 0.144875 9.2363968e-39
-0.33844799 0.083253302 0.144298 9.0527244e-39
-0.33921501 0.084956698 0.143898 9.2363968e-39
-0.33943 0.086391598 0.143859 9.5115445e-39
-0.33964601 0.087830797 0.14382 9.6033828e-39
-0.33958399 0.089130297 0.14396399 1.0155133e-38
-0.339522 0.090430699 0.144108 1.2176636e-38
-0.33945999 0.091732003 0.144251 1.3003534e-38
-0.37157401 0.035540599 0.115916 1.153631e-38
-0.37150601 0.0369546 0.116072 1.274017e-38
-0.371438 0.038369499 0.116228 1.1454095e-38
-0.371369 0.0397854 0.116384 1.044103e-38
-0.371656 0.041301399 0.116299 9.7038265e-39
-0.37229899 0.042923901 0.115973 9.1506555e-39
-0.37330401 0.044660199 0.115403 8.412736e-39
-0.374679 0.0465183 0.114582 7.767375e-39
-0.375337 0.0481769 0.114248 6.9369122e-39
-0.37490401 0.049509499 0.114653 6.9376199e-39
-0.374109 0.050726801 0.115303 7.8613629e-39
-0.37331799 0.051938601 0.11595 8.7825961e-39
-0.37289 0.053260501 0.116351 9.2421337e-39
-0.37210599 0.054462899 0.116992 9.3328916e-39
-0.37026501 0.0553068 0.118346 9.2399785e-39
-0.368101 0.0560234 0.119916 8.8708387e-39
-0.364952 0.0563794 0.122149 8.4095032e-39
-0.36320299 0.057192702 0.123436 8.040006e-39
-0.362138 0.0582311 0.124262 7.4864777e-39
-0.36107999 0.0592626 0.125081 7.2088132e-39
-0.36068499 0.060526501 0.12545501 7.3910465e-39
-0.35963899 0.061546098 0.126266 7.5754377e-39
-0.35892299 0.062680803 0.126854 7.7616254e-39
-0.357889 0.063687898 0.127655 8.1307667e-39
-0.35686299 0.064688496 0.12845001 8.5002695e-39
-0.355845 0.065682702 0.12923899 8.7775738e-39
-0.35451999 0.066545703 0.130233 8.6853754e-39
-0.35320899 0.067401201 0.131217 8.4095116e-39
-0.35221699 0.068374902 0.13198601 8.4084326e-39
-0.35001701 0.068838999 0.133563 8.1307709e-39
-0.34755701 0.069171697 0.13531099 7.945302e-39
-0.34456199 0.0692522 0.13741399 7.5768811e-39
-0.34305999 0.069943897 0.138519 7.6679921e-39
-0.34157601 0.070628501 0.13961101 7.3010144e-39
-0.340949 0.0716772 0.14013 7.2102579e-39
-0.34032601 0.072721899 0.14064699 7.5786789e-39
-0.33970499 0.073762603 0.14116099 8.223684e-39
-0.33908701 0.0747995 0.141673 9.1431194e-39
-0.33902499 0.0760886 0.14181601 9.327512e-39
-0.33868599 0.077248998 0.142142 9.2360381e-39
-0.337798 0.078146502 0.142832 9.2360395e-39
-0.33773601 0.079432398 0.142974 9.3282323e-39
-0.33849999 0.081119999 0.14256801 9.4204251e-39
-0.338992 0.082683899 0.142344 9.3278735e-39
-0.33920699 0.0841178 0.142303 9.2356807e-39
-0.339145 0.085416302 0.142446 9.3278778e-39
-0.339082 0.086715601 0.142589 9.6033856e-39
-0.33902001 0.088015802 0.14273299 1.0063293e-38
-0.33895701 0.089317001 0.142876 1.2085864e-38
-0.33889499 0.090618998 0.14302 1.3279042e-38
-0.370222 0.035491198 0.115157 1.2730174e-38
-0.37015399 0.036903501 0.115313 1.4117342e-38
-0.370085 0.038316701 0.115468 1.2468244e-38
-0.37036899 0.039827999 0.115382 1.1179667e-38
-0.37030101 0.041244902 0.115538 1.035099e-38
-0.37058499 0.042764001 0.115453 9.9814896e-39
-0.37158 0.044495098 0.114881 9.3350454e-39
-0.37294301 0.046347599 0.114059 8.41238e-39
-0.37323299 0.047892299 0.113971 7.3960855e-39
-0.373164 0.049330998 0.114129 6.7525126e-39
-0.372017 0.050433502 0.115023 7.8610055e-39
-0.371948 0.051868498 0.115181 8.9669859e-39
-0.37116599 0.053073701 0.115825 9.1510199e-39
-0.37074199 0.054389998 0.116224 9.2410575e-39
-0.367174 0.054652199 0.118764 9.1474213e-39
-0.36539099 0.055484101 0.120087 8.7772053e-39
-0.363967 0.056422599 0.121164 8.2236784e-39
-0.36222401 0.057235699 0.122457 7.5786747e-39
-0.36116201 0.058274101 0.123286 7.1180567e-39
-0.360109 0.059305701 0.124109 6.9333067e-39
-0.35938799 0.060449801 0.124705 6.9325892e-39
-0.358347 0.061468601 0.125517 7.0247835e-39
-0.35763499 0.062602103 0.12610599 7.301369e-39
-0.356608 0.063608401 0.126908 7.8545399e-39
-0.35527101 0.064485297 0.127919 8.4080724e-39
-0.35426 0.065477803 0.128708 8.5939028e-39
-0.35294601 0.066339798 0.129702 8.7782913e-39
-0.35164499 0.067194402 0.130686 8.5939014e-39
-0.35096699 0.068291903 0.131248 8.5924637e-39
-0.34878001 0.068756297 0.132829 8.3151608e-39
-0.34662899 0.0692138 0.13438299 8.0385753e-39
-0.34364501 0.069293901 0.13649701 7.7612737e-39
-0.34214801 0.069985501 0.13760699 7.7609108e-39
-0.34038699 0.070546798 0.13889299 7.5779615e-39
-0.34004399 0.0717187 0.13922501 7.5790391e-39
-0.33942199 0.072763398 0.139743 8.0392941e-39
-0.33880299 0.0738042 0.140259 8.9598071e-39
-0.33846399 0.0749681 0.140587 9.2356765e-39
-0.33812499 0.076130301 0.14091501 9.3275134e-39
-0.338063 0.077420503 0.141057 9.1434851e-39
-0.338 0.078711502 0.14119899 9.1438466e-39
-0.33849099 0.08027 0.140971 9.2360395e-39
-0.339542 0.082108699 0.140368 9.4197076e-39
-0.339479 0.083411403 0.14051101 9.5111844e-39
-0.339416 0.084715098 0.140654 9.4193531e-39
-0.33907399 0.085878998 0.140985 9.4197132e-39
-0.33901101 0.087182999 0.141128 9.9714549e-39
-0.33866999 0.088344499 0.14145701 1.1717796e-38
-0.33832899 0.0895041 0.14178599 1.3188999e-38
-0.36922401 0.035533398 0.114158 1.3648888e-38
-0.36880499 0.036852501 0.114556 1.4206664e-38
-0.368736 0.038263999 0.114711 1.2838828e-38
-0.36901799 0.0397733 0.114624 1.1917948e-38
-0.36930001 0.041287601 0.114536 1.1181822e-38
-0.36923099 0.0427057 0.114692 1.0812324e-38
-0.36986601 0.044330899 0.114362 1.0258434e-38
-0.37121499 0.046177901 0.113539 9.3350468e-39
-0.37114599 0.04761 0.113696 7.6741031e-39
-0.37107599 0.049043201 0.113854 6.5684801e-39
-0.37065101 0.0503654 0.114256 7.6773331e-39
-0.37022701 0.051685199 0.114658 8.8751476e-39
-0.36980301 0.0530026 0.115058 9.2428512e-39
-0.36832899 0.053969499 0.116182 9.148143e-39
-0.36617899 0.054695699 0.117768 8.7786458e-39
-0.364402 0.0555274 0.119097 8.4087885e-39
-0.36298299 0.056465901 0.120179 7.9474544e-39
-0.36124599 0.057278801 0.121478 7.2109712e-39
-0.360517 0.058435 0.122084 6.6581575e-39
-0.359137 0.059348602 0.123136 6.2904554e-39
-0.35841799 0.060492799 0.123734 6.1067872e-39
-0.35738099 0.061511502 0.12455 6.1067886e-39
-0.35635099 0.062523603 0.12536 6.2908184e-39
-0.35532901 0.063529097 0.126164 6.9351032e-39
-0.354 0.064405397 0.127177 7.9481705e-39
-0.35299501 0.065397099 0.127967 8.5935399e-39
-0.35199699 0.066382498 0.12875199 8.8697681e-39
-0.35069999 0.067236997 0.12974 8.7772123e-39
-0.34972 0.068209097 0.130512 8.5921064e-39
-0.347844 0.068798602 0.13189299 8.407355e-39
-0.34599599 0.069380596 0.13325401 8.038934e-39
-0.34272799 0.069335699 0.135579 7.7609136e-39
-0.341236 0.070027098 0.136694 7.8534651e-39
-0.339481 0.070588201 0.137987 7.5779601e-39
-0.33913901 0.071760103 0.138319 7.855263e-39
-0.33851901 0.072804898 0.13883901 8.9587295e-39
-0.33817899 0.073972002 0.13916899 9.4200664e-39
-0.33783901 0.075137198 0.13949899 9.2349605e-39
-0.33750001 0.076300599 0.139828 9.2346031e-39
-0.33798999 0.077853598 0.139596 9.1431278e-39
-0.33904001 0.079681396 0.13898499 9.0516538e-39
-0.339818 0.081390999 0.138559 9.1438466e-39
-0.340036 0.082837 0.138513 9.4193489e-39
-0.33997199 0.084147498 0.13865601 9.6030213e-39
-0.339627 0.085318103 0.13899 9.5115487e-39
-0.33928299 0.086486802 0.13932399 9.7877825e-39
-0.33838099 0.087368101 0.14003199 1.1350089e-38
-0.33803999 0.088530801 0.14036299 1.3005319e-38
-0.36746001 0.036801599 0.1138 1.264332e-38
-0.36739099 0.038211402 0.113955 1.3117576e-38
-0.36767 0.0397189 0.113867 1.2563673e-38
-0.36760101 0.041132402 0.114021 1.2011219e-38
-0.36822999 0.0427485 0.11369 1.1733916e-38
-0.36851099 0.044270702 0.113601 1.1181462e-38
-0.36985099 0.046115 0.112775 1.0442105e-38
-0.36978099 0.0475454 0.112932 8.4130975e-39
-0.36971101 0.048976801 0.113089 6.8443453e-39
-0.369288 0.050297499 0.113491 7.6762527e-39
-0.368514 0.051502898 0.114137 8.5996398e-39
-0.368094 0.052817199 0.114537 9.05882e-39
-0.36732599 0.0540132 0.115178 8.9641133e-39
-0.36518401 0.0547392 0.116772 8.5942574e-39
-0.36341199 0.0555708 0.118107 8.2247602e-39
-0.36199799 0.0565091 0.119193 8.0400088e-39
-0.360598 0.057438899 0.120269 7.3028053e-39
-0.35953999 0.058478098 0.121107 6.290454e-39
-0.358165 0.059391599 0.122163 5.8298402e-39
-0.35744801 0.0605358 0.122763 5.9209582e-39
-0.35641399 0.061554499 0.123583 6.1961074e-39
-0.35506901 0.062445398 0.124615 6.1964661e-39
-0.35405299 0.063450001 0.125421 6.4737677e-39
-0.35273099 0.064325698 0.126436 7.2116873e-39
-0.35173199 0.065316603 0.12722801 8.2251175e-39
-0.35104799 0.066425197 0.127802 8.8697667e-39
-0.350061 0.0674043 0.128585 8.8697695e-39
-0.34877801 0.068251699 0.12957001 8.5002737e-39
-0.34690899 0.068841003 0.13095701 8.2229679e-39
-0.34536099 0.069547802 0.132122 7.7623485e-39
-0.342098 0.069500796 0.134464 7.3942905e-39
-0.34032401 0.070068702 0.13578101 7.670513e-39
-0.33885401 0.070752896 0.136889 7.8545441e-39
-0.33823299 0.071801603 0.137413 8.958012e-39
-0.33816999 0.073097497 0.137555 9.6037374e-39
-0.33755201 0.074140102 0.13807701 9.3271533e-39
-0.33748901 0.0754347 0.138219 9.1427648e-39
-0.33742601 0.076730303 0.13836101 9.143125e-39
-0.33875301 0.078686804 0.13755199 9.051651e-39
-0.339531 0.080396101 0.13711999 9.0512951e-39
-0.33974901 0.081843503 0.137071 9.2356821e-39
-0.33968499 0.083156303 0.137215 9.4197104e-39
-0.33962101 0.084469996 0.13735899 9.51119e-39
-0.338994 0.085501797 0.137886 9.7870664e-39
-0.33864999 0.086671799 0.138221 1.1074225e-38
-0.33830601 0.087839998 0.13855501 1.2912764e-38
-0.36611801 0.036750901 0.113047 1.1905436e-38
-0.365704 0.038064498 0.113444 1.3298732e-38
-0.36563501 0.039471701 0.113598 1.2932094e-38
-0.36591101 0.040978 0.113509 1.2564388e-38
-0.36653301 0.042589601 0.113176 1.2287443e-38
-0.36715901 0.044210602 0.112842 1.1827187e-38
-0.36849001 0.046052299 0.112013 1.1273296e-38
-0.36842 0.0474809 0.112169 9.6123526e-39
-0.367998 0.048801001 0.112572 7.3967988e-39
-0.367578 0.0501187 0.112974 7.3989498e-39
-0.367158 0.051433899 0.113375 8.3234172e-39
-0.36673999 0.052746601 0.113775 8.9666272e-39
-0.36597601 0.053941499 0.114417 9.0563061e-39
-0.36418799 0.0547827 0.115775 8.6864516e-39
-0.362086 0.055498298 0.117352 8.5002667e-39
-0.361013 0.056552298 0.118208 8.1329247e-39
-0.35961801 0.057482 0.119288 7.2116901e-39
-0.35889101 0.0586394 0.1199 6.2900953e-39
-0.357517 0.0595534 0.120964 6.2897366e-39
-0.35647801 0.060578801 0.121793 6.5648871e-39
-0.35544699 0.0615975 0.122615 6.8400363e-39
-0.35410699 0.062488198 0.123652 6.6556478e-39
-0.35309401 0.063492902 0.124461 6.3804973e-39
-0.35177699 0.064368397 0.12548099 6.8425488e-39
-0.35078099 0.065359302 0.126276 8.0403675e-39
-0.35009801 0.066467904 0.12685201 8.5020659e-39
-0.34911501 0.067446999 0.127638 8.5009925e-39
-0.348441 0.068545498 0.128207 8.2236868e-39
-0.346569 0.069134302 0.12960701 7.9467398e-39
-0.34472501 0.0697155 0.130987 7.7623485e-39
-0.34117901 0.069542602 0.133545 7.6697969e-39
-0.33969399 0.070233896 0.134673 8.0382151e-39
-0.339066 0.071290404 0.135206 8.8665339e-39
-0.337883 0.072092503 0.136123 9.6037374e-39
-0.337264 0.073139101 0.136649 9.0512895e-39
-0.337201 0.074435897 0.13679001 9.0505748e-39
-0.33853 0.076382004 0.13597 9.0512937e-39
-0.338186 0.077556401 0.136306 9.0512937e-39
-0.338963 0.079263002 0.135869 9.0512951e-39
-0.33946201 0.080845997 0.13562299 9.1427718e-39
-0.339398 0.082161203 0.135767 9.3268002e-39
-0.339333 0.083477199 0.135911 9.4189972e-39
-0.33898699 0.0846534 0.13624901 9.6945135e-39
-0.33864099 0.085827701 0.136586 1.0889475e-38
-0.338016 0.086857297 0.137115 1.2544343e-38
-0.364779 0.036700301 0.112295 1.2731253e-38
-0.36402601 0.0379184 0.112935 1.3383737e-38
-0.36395699 0.039322101 0.113088 1.2748065e-38
-0.36388701 0.040726699 0.113241 1.2380719e-38
-0.36484501 0.0424316 0.112666 1.2288163e-38
-0.366853 0.044460099 0.111345 1.1920459e-38
-0.36713201 0.0459897 0.111253 1.1551319e-38
-0.367062 0.047416601 0.111409 1.0627218e-38
-0.366642 0.048735201 0.111812 8.1350799e-39
-0.36622399 0.050051399 0.112214 7.122007e-39
-0.36580601 0.0513651 0.112615 8.0461128e-39
-0.36573601 0.052790299 0.11277 8.782236e-39
-0.36463001 0.053869899 0.113658 9.0563047e-39
-0.36251399 0.054595299 0.115258 8.6864502e-39
-0.36109799 0.055541601 0.116363 8.9615966e-39
-0.360028 0.056595601 0.117222 8.5027778e-39
-0.35929701 0.057760298 0.117842 7.488993e-39
-0.358569 0.05892 0.118459 6.8432677e-39
-0.35751799 0.059954699 0.119303 7.0265785e-39
-0.356152 0.060862102 0.120368 7.3017277e-39
-0.35511899 0.061882298 0.121198 7.3013704e-39
-0.35377699 0.062774003 0.122245 7.0247891e-39
-0.352135 0.063535698 0.123501 6.6560094e-39
-0.350822 0.064411201 0.124525 7.2091761e-39
-0.34982899 0.065402001 0.125324 8.4073494e-39
-0.34914899 0.066510603 0.125902 8.4087899e-39
-0.348472 0.067614697 0.126477 8.4087927e-39
-0.34779799 0.068714403 0.12705 8.0396529e-39
-0.346827 0.069682397 0.127831 7.7630688e-39
-0.344087 0.069883503 0.12985 7.5786817e-39
-0.34083101 0.069832198 0.132227 7.946744e-39
-0.33962801 0.070647903 0.133167 9.3246365e-39
-0.338716 0.071581997 0.133902 9.60338e-39
-0.33809 0.072636403 0.134436 9.2353178e-39
-0.33830601 0.0740695 0.13438299 9.143125e-39
-0.339086 0.0757671 0.133936 8.8669038e-39
-0.339587 0.077344902 0.13368499 9.0509321e-39
-0.33867499 0.078260899 0.13441899 9.2346059e-39
-0.33889201 0.079709299 0.13436601 9.0509349e-39
-0.339109 0.081161998 0.134313 9.1431292e-39
-0.339044 0.082480296 0.13445701 9.1431306e-39
-0.33869699 0.083659701 0.13479701 9.6026752e-39
-0.33863199 0.084978297 0.134941 1.0889113e-38
-0.33800501 0.086012699 0.13547499 1.2452503e-38
-0.36310399 0.0365576 0.11179 1.3926554e-38
-0.36201799 0.037679698 0.112672 1.2459641e-38
-0.361949 0.039078102 0.112824 1.2286375e-38
-0.36255601 0.040671598 0.112491 1.2103774e-38
-0.363848 0.042474199 0.111668 1.1919743e-38
-0.36515501 0.044296499 0.110836 1.1828265e-38
-0.36577699 0.045927402 0.110495 1.1643515e-38
-0.36570701 0.0473525 0.11065 1.1181106e-38
-0.365289 0.048669599 0.111053 9.1506625e-39
-0.36487299 0.049984299 0.111455 7.3056808e-39
-0.364802 0.0514086 0.11161 7.492223e-39
-0.36438701 0.052719999 0.112011 8.2297824e-39
-0.36328799 0.0537985 0.1129 8.5960496e-39
-0.361184 0.054523699 0.114504 8.6860915e-39
-0.36011001 0.0555849 0.115373 9.2399785e-39
-0.359043 0.0566389 0.116236 8.7800808e-39
-0.35831401 0.0578035 0.116858 7.7659372e-39
-0.35758799 0.058963198 0.117478 7.3038843e-39
-0.35654101 0.059997901 0.118325 7.4871937e-39
-0.35517901 0.060905199 0.119395 7.8548987e-39
-0.35415 0.0619254 0.120228 7.946737e-39
-0.35281199 0.062817 0.121279 7.670513e-39
-0.35148701 0.063700698 0.12232 7.3013746e-39
-0.35048601 0.064699501 0.123131 7.8556259e-39
-0.34918401 0.065568097 0.124154 8.5935455e-39
-0.34819901 0.066553399 0.124951 8.3155195e-39
-0.34813201 0.067908801 0.125099 8.1318471e-39
-0.347155 0.068883702 0.12589 7.855263e-39
-0.34618399 0.069852397 0.12667599 7.6712347e-39
-0.344331 0.070432097 0.128085 7.8556231e-39
-0.342213 0.070877597 0.12967899 8.8672527e-39
-0.339845 0.071190603 0.131448 9.602301e-39
-0.33892801 0.072127298 0.132193 9.0498573e-39
-0.34 0.073955499 0.131534 8.9583764e-39
-0.340794 0.075670101 0.131072 9.0502119e-39
-0.34101599 0.077129997 0.131014 8.7754284e-39
-0.34095001 0.078458898 0.13115899 9.1420502e-39
-0.339169 0.078973703 0.13251001 9.1420516e-39
-0.339104 0.080295101 0.132654 9.0509321e-39
-0.33903801 0.081617303 0.132797 9.1434907e-39
-0.338689 0.082800999 0.13314 9.3271673e-39
-0.338341 0.0839829 0.13348199 1.0797274e-38
-0.337713 0.085021302 0.134021 1.2453219e-38
-0.36036 0.0375355 0.112168 1.1904349e-38
-0.36028999 0.038930401 0.112319 1.2096598e-38
-0.360221 0.040326301 0.112471 1.1733918e-38
-0.36149499 0.042117901 0.111651 1.1458409e-38
-0.36278099 0.0439291 0.110824 1.1366931e-38
-0.36408201 0.045759998 0.109987 1.1366571e-38
-0.36401099 0.047181599 0.110142 1.1089628e-38
-0.36394 0.048604202 0.110296 9.9818539e-39
-0.36386901 0.050027698 0.110451 7.8584916e-39
-0.363455 0.051339898 0.110853 7.122723e-39
-0.36269999 0.052536201 0.1115 7.584776e-39
-0.36194801 0.053727299 0.112144 7.8599265e-39
-0.35985699 0.0544523 0.113752 9.1474227e-39
-0.358789 0.055512499 0.114623 9.5180003e-39
-0.35805801 0.056682099 0.11525 8.8733526e-39
-0.35733101 0.057846799 0.115874 7.9503271e-39
-0.35660699 0.059006501 0.116496 7.6733829e-39
-0.35556301 0.0600412 0.117347 8.1332792e-39
-0.354206 0.060948301 0.118421 8.8697625e-39
-0.35317999 0.061968502 0.119257 9.0537964e-39
-0.352162 0.062982 0.120087 8.3165985e-39
-0.35115099 0.063988797 0.120912 8.4069977e-39
-0.35014799 0.064989202 0.12173 8.7765004e-39
-0.34884399 0.065858699 0.122762 8.2254889e-39
-0.34785801 0.066845402 0.123566 7.9474586e-39
-0.34718201 0.067951597 0.124148 7.8552644e-39
-0.346811 0.069180503 0.124512 7.7630716e-39
-0.34584001 0.070150703 0.125304 8.2229679e-39
-0.34398401 0.070729703 0.126726 9.0509251e-39
-0.34332699 0.071814202 0.12729201 9.3264358e-39
-0.34179699 0.072506301 0.12848 9.1416886e-39
-0.34173101 0.073839702 0.12862501 8.8661807e-39
-0.34195599 0.075306199 0.128562 8.8665409e-39
-0.34188899 0.076642998 0.128708 8.8661821e-39
-0.34124199 0.0777101 0.12926599 8.7747082e-39
-0.340886 0.078909099 0.12961601 9.0494986e-39
-0.34024301 0.079968803 0.13017 9.0502147e-39
-0.33960301 0.081024401 0.130722 8.8669052e-39
-0.338682 0.081937 0.13147201 9.2338955e-39
-0.33804899 0.082983501 0.132018 1.0704362e-38
-0.33770099 0.084166601 0.13236099 1.263653e-38
-0.35837901 0.0372997 0.111909 1.3097516e-38
-0.358309 0.038689502 0.112059 1.1814633e-38
-0.35857001 0.040176 0.111968 1.1547016e-38
-0.35916501 0.041765299 0.111635 1.1271864e-38
-0.36043301 0.0435654 0.110811 1.0904878e-38
-0.36171401 0.045385201 0.109978 1.081304e-38
-0.362665 0.047118101 0.109387 1.0720845e-38
-0.36259401 0.048538901 0.109541 1.0443545e-38
-0.36218199 0.049850501 0.109943 8.6882467e-39
-0.362111 0.051271401 0.110097 7.2138397e-39
-0.361359 0.052466501 0.110745 6.939052e-39
-0.360275 0.0535422 0.111635 7.5829837e-39
-0.35853401 0.054381002 0.113001 9.426525e-39
-0.35780099 0.055555701 0.113634 9.6116323e-39
-0.35707301 0.056725401 0.114264 8.9662671e-39
-0.35602099 0.057772201 0.115127 8.2272727e-39
-0.35562599 0.0590498 0.115514 8.3183921e-39
-0.35458499 0.060084399 0.116368 9.7009553e-39
-0.35291401 0.060871098 0.117678 1.0899849e-38
-0.35220999 0.0620116 0.118287 1.089985e-38
-0.35150999 0.063147403 0.118893 9.5158535e-39
-0.35049999 0.064154997 0.119722 9.4229404e-39
-0.34980801 0.065280303 0.120321 9.2385506e-39
-0.34819499 0.066026002 0.121584 8.0403731e-39
-0.34690499 0.066888198 0.122613 7.7637848e-39
-0.34653401 0.068120703 0.122979 7.855263e-39
-0.34616399 0.069351003 0.123344 8.1314898e-39
-0.345193 0.070321798 0.124141 8.8672541e-39
-0.34422901 0.071286403 0.124933 8.8661807e-39
-0.34297699 0.072115302 0.12593099 8.5895967e-39
-0.34261501 0.073328197 0.126288 8.497401e-39
-0.34254801 0.074671298 0.126434 8.5895952e-39
-0.342188 0.075881399 0.12679 8.8654619e-39
-0.341245 0.076820202 0.127564 8.8654633e-39
-0.34088701 0.078023799 0.12791701 8.9576631e-39
-0.34053099 0.079225399 0.12827 8.9576631e-39
-0.33988699 0.080287002 0.128828 8.8665451e-39
-0.33867499 0.081067398 0.129793 8.9587435e-39
-0.338608 0.082397804 0.12993699 1.0703645e-38
-0.33769 0.083306499 0.13068999 1.2820922e-38
-0.357068 0.037249301 0.111168 1.4293541e-38
-0.356998 0.0386374 0.111318 1.1995461e-38
-0.35692799 0.0400264 0.111468 1.1910411e-38
-0.35685799 0.041416299 0.111618 1.1546296e-38
-0.35810801 0.0432055 0.110798 1.0903083e-38
-0.35936999 0.045014098 0.10997 1.0535378e-38
-0.36030701 0.046736799 0.109381 1.0350987e-38
-0.36057401 0.048257899 0.109286 1.0258794e-38
-0.360502 0.049674299 0.109439 9.3350496e-39
-0.36043099 0.0510916 0.109592 7.7662946e-39
-0.35968599 0.0522842 0.110239 6.7543048e-39
-0.35794601 0.053131402 0.111616 8.5038526e-39
-0.357214 0.054310001 0.112253 9.7971025e-39
-0.35648501 0.055483501 0.112886 9.6134273e-39
-0.356087 0.0567687 0.113278 9.0588228e-39
-0.35471499 0.0576979 0.114381 8.5038582e-39
-0.35399899 0.058855299 0.115004 8.9641161e-39
-0.35232899 0.059649799 0.116324 1.0071171e-38
-0.35162601 0.060794 0.116936 1.1454455e-38
-0.35124001 0.062054701 0.117316 1.2007987e-38
-0.35054201 0.063190497 0.117924 1.0808024e-38
-0.34953499 0.064198099 0.118757 9.793881e-39
-0.34884501 0.065323398 0.119358 8.7782927e-39
-0.347238 0.066068903 0.120627 7.7627086e-39
-0.34595299 0.066931099 0.12166 7.946737e-39
-0.34558201 0.068163604 0.122027 8.5906644e-39
-0.345213 0.069394 0.122393 9.0516426e-39
-0.34424499 0.070364699 0.123193 8.7747026e-39
-0.34358099 0.071458697 0.123772 8.4052068e-39
-0.343216 0.072678901 0.124134 8.312651e-39
-0.34314901 0.074029401 0.12428 8.3122909e-39
-0.343081 0.075380802 0.124426 8.4044837e-39
-0.342127 0.076327398 0.125213 8.4966822e-39
-0.34118101 0.077267997 0.12599599 8.4048495e-39
-0.340532 0.078338899 0.126562 8.4970493e-39
-0.339885 0.079405703 0.12712599 8.7732761e-39
-0.33952901 0.080606699 0.12748 9.0498671e-39
-0.33888701 0.081666097 0.12804 1.1253946e-38
-0.33768001 0.082440898 0.129008 1.3004598e-38
-0.35569 0.038585398 0.110579 1.3373386e-38
-0.35529399 0.039877601 0.11097 1.190647e-38
-0.35522401 0.041264098 0.11112 1.2099109e-38
-0.35547999 0.042750299 0.111028 1.1455535e-38
-0.35639101 0.0444436 0.110449 1.0811247e-38
-0.35764101 0.046255 0.109621 1.0350628e-38
-0.35790199 0.047765899 0.109526 9.9822071e-39
-0.357831 0.049173199 0.109678 9.6127127e-39
-0.35876101 0.050912801 0.109089 8.3205445e-39
-0.35702601 0.051767901 0.110472 7.5819075e-39
-0.356296 0.052949101 0.111112 9.6116309e-39
-0.35556901 0.054125302 0.111748 9.9822085e-39
-0.35517201 0.055411398 0.11214 9.6137847e-39
-0.35412699 0.0564625 0.11301 8.7826003e-39
-0.353412 0.057623699 0.113637 8.5042183e-39
-0.35142601 0.058308799 0.1152 8.9651923e-39
-0.35072401 0.059455499 0.115816 9.6109148e-39
-0.35034001 0.060717098 0.116196 1.0625058e-38
-0.34995699 0.0619765 0.116577 1.1178594e-38
-0.349262 0.063111201 0.117185 1.0715825e-38
-0.348571 0.064241201 0.117791 9.4250928e-39
-0.34788299 0.065366499 0.118395 7.8577755e-39
-0.34597701 0.065987296 0.119893 7.6701529e-39
-0.345 0.066973902 0.120707 8.682144e-39
-0.34493199 0.068333097 0.120853 9.2349548e-39
-0.34456199 0.069564901 0.121221 9.1424033e-39
-0.343595 0.070536397 0.122026 8.5888778e-39
-0.343229 0.0717614 0.122391 8.2204582e-39
-0.342567 0.072852902 0.122971 8.3119336e-39
-0.34249899 0.074205197 0.123117 8.2200967e-39
-0.34213501 0.075424001 0.123479 8.3126496e-39
-0.342067 0.076776497 0.123625 8.2208155e-39
-0.34111699 0.077719003 0.124416 8.2211785e-39
-0.34017399 0.078655697 0.125201 8.4963318e-39
-0.339526 0.079724297 0.125769 9.0484294e-39
-0.33917001 0.080927998 0.12612499 1.1530172e-38
-0.33881399 0.082129702 0.126479 1.3279395e-38
-0.35438499 0.038533598 0.109841 1.4294262e-38
-0.353991 0.0398243 0.110233 1.172211e-38
-0.353598 0.041112699 0.110624 1.3018908e-38
-0.35352799 0.0424967 0.110773 1.2376767e-38
-0.35410401 0.044082101 0.110438 1.1549167e-38
-0.35468301 0.0456766 0.110102 1.0811964e-38
-0.35559201 0.047385301 0.109519 1.0259153e-38
-0.35552099 0.048785601 0.10967 9.8896555e-39
-0.35610601 0.050405201 0.109329 8.8737169e-39
-0.355378 0.051589102 0.109971 9.0545096e-39
-0.35465401 0.052767899 0.11061 1.0074048e-38
-0.35361001 0.053828601 0.111487 9.8907289e-39
-0.35321599 0.055110302 0.111877 9.9814854e-39
-0.352503 0.056274001 0.112507 9.9804176e-39
-0.35052401 0.056968499 0.114078 1.0255924e-38
-0.34982401 0.058117799 0.114696 1.0347398e-38
-0.34944001 0.0593802 0.115077 9.8871402e-39
-0.349058 0.060640398 0.115458 9.8871402e-39
-0.34836501 0.0617777 0.11607 9.9775421e-39
-0.347985 0.063032098 0.116448 9.7013154e-39
-0.34729701 0.064161003 0.117055 8.7811584e-39
-0.34661299 0.065285198 0.117659 8.1336366e-39
-0.34502101 0.066030197 0.118936 8.591026e-39
-0.34465 0.067267701 0.119307 9.1420474e-39
-0.34397799 0.068376102 0.119899 9.0498545e-39
-0.343909 0.069736302 0.120046 8.8647472e-39
-0.34324199 0.070837803 0.120635 8.5885205e-39
-0.34257701 0.071934797 0.121222 8.4966836e-39
-0.34221199 0.073159203 0.121587 8.4963248e-39
-0.341847 0.074381404 0.121952 8.4041306e-39
-0.341483 0.075601697 0.122316 8.4963262e-39
-0.34112099 0.076819897 0.122679 8.5881617e-39
-0.340758 0.0780361 0.123041 8.5885261e-39
-0.33981401 0.078973897 0.123832 9.4164973e-39
-0.33887699 0.079905897 0.124618 1.1899675e-38
-0.33851999 0.081110902 0.124975 1.3372312e-38
-0.35269201 0.039771199 0.109497 1.2549016e-38
-0.35229999 0.041058101 0.109888 1.4120215e-38
-0.35223001 0.0424405 0.110037 1.2929935e-38
-0.35247999 0.043923799 0.109943 1.2103414e-38
-0.353053 0.045513902 0.109606 1.1642079e-38
-0.35362801 0.047113001 0.109267 1.1088908e-38
-0.35355699 0.0485081 0.109417 1.071869e-38
-0.354462 0.050229698 0.108831 9.3354111e-39
-0.35341501 0.051301099 0.109717 1.0439229e-38
-0.352698 0.052476201 0.110353 1.0258794e-38
-0.352305 0.0537588 0.110745 9.7052628e-39
-0.351594 0.054925099 0.111377 1.0164799e-38
-0.349307 0.0555152 0.113192 1.1271145e-38
-0.34892401 0.0567807 0.113576 1.2285654e-38
-0.34854099 0.058044001 0.113959 1.191651e-38
-0.347848 0.059187401 0.114574 1.0992762e-38
-0.34746799 0.060444798 0.114955 9.7020329e-39
-0.34708899 0.061700098 0.115334 9.6998763e-39
-0.346403 0.062831499 0.115943 9.7917131e-39
-0.34572101 0.063958198 0.116549 8.9641161e-39
-0.345651 0.0653283 0.116697 8.6850167e-39
-0.344367 0.066197798 0.117753 8.9580162e-39
-0.343995 0.067436703 0.118126 8.9569456e-39
-0.34392601 0.068801098 0.118272 8.7725586e-39
-0.343555 0.070037201 0.118643 8.6807231e-39
-0.34318599 0.071271099 0.119014 8.5888848e-39
-0.34222099 0.072239801 0.119829 8.5888834e-39
-0.34185499 0.073466897 0.120197 8.6807189e-39
-0.341194 0.074558102 0.120784 8.6807203e-39
-0.34112501 0.075914897 0.120929 8.7725572e-39
-0.34046701 0.076999404 0.121513 9.1399048e-39
-0.340105 0.078216903 0.121877 1.0335219e-38
-0.33945301 0.079293698 0.122457 1.2085504e-38
-0.338514 0.080227003 0.123249 1.3189e-38
-0.35139501 0.0397182 0.108763 1.3650323e-38
-0.351006 0.0410037 0.109154 1.448468e-38
-0.35093501 0.042384502 0.109302 1.3022131e-38
-0.35086399 0.043766201 0.10945 1.2471835e-38
-0.35143101 0.045352001 0.109112 1.2379278e-38
-0.35200101 0.046946801 0.108773 1.2010856e-38
-0.35192901 0.048338398 0.108922 1.1549523e-38
-0.35185799 0.049731001 0.109071 1.0348121e-38
-0.352108 0.0512341 0.108976 1.0536104e-38
-0.35139501 0.052407999 0.109613 9.6137889e-39
-0.350685 0.053576998 0.110247 9.2428512e-39
-0.348407 0.0541781 0.112073 9.7027475e-39
-0.34802401 0.055444401 0.112457 1.0718334e-38
-0.34733099 0.056593999 0.113077 1.2286017e-38
-0.34695101 0.057854399 0.113459 1.191795e-38
-0.346264 0.0589955 0.114073 1.1268989e-38
-0.34588701 0.0602502 0.114453 1.0068659e-38
-0.34520501 0.061383002 0.115063 9.7920761e-39
-0.34483001 0.062631898 0.115441 9.8813991e-39
-0.34476 0.064001098 0.115587 9.1442012e-39
-0.34469 0.065371297 0.115734 8.6825125e-39
-0.343409 0.066240698 0.116795 8.680363e-39
-0.343339 0.067606002 0.116941 8.6800056e-39
-0.34357101 0.069100603 0.11686 8.7722013e-39
-0.34289899 0.070209801 0.117461 8.6803658e-39
-0.342529 0.0714451 0.117833 8.6807217e-39
-0.34186301 0.072546303 0.118429 8.6807217e-39
-0.34119901 0.073642999 0.119022 8.77256e-39
-0.34083399 0.074869402 0.11939 8.7729215e-39
-0.340469 0.0760938 0.119758 9.4157798e-39
-0.34010601 0.077316098 0.120125 1.1346499e-38
-0.33945 0.078398198 0.12071 1.3097144e-38
-0.33879799 0.079475999 0.121294 1.3833285e-38
-0.35010201 0.039665401 0.108031 1.4110221e-38
-0.34971401 0.040949401 0.108422 1.457508e-38
-0.349327 0.042231102 0.108812 1.2930297e-38
-0.349572 0.043708701 0.108717 1.2471476e-38
-0.34981701 0.045190901 0.108621 1.2563669e-38
-0.34974599 0.046574701 0.108769 1.2380357e-38
-0.34999201 0.0480644 0.108674 1.2103773e-38
-0.34992099 0.049451798 0.108822 1.163777e-38
-0.350485 0.051057901 0.108482 9.9829357e-39
-0.349778 0.052229501 0.109119 8.7829548e-39
-0.34750599 0.0528416 0.110953 8.9651853e-39
-0.34681401 0.053997401 0.111577 9.608754e-39
-0.34612599 0.055148199 0.112197 1.0164087e-38
-0.34574699 0.0564081 0.112579 1.1362265e-38
-0.34536999 0.057665799 0.112961 1.1085678e-38
-0.344993 0.0589213 0.113342 1.0438517e-38
-0.34400901 0.0599388 0.114186 1.006507e-38
-0.34363601 0.0611871 0.114564 9.6041017e-39
-0.34386799 0.062674701 0.114479 9.2342486e-39
-0.34379801 0.064044103 0.114625 8.8647528e-39
-0.34372699 0.065414399 0.114771 8.5885289e-39
-0.34335399 0.066659696 0.115148 8.6796469e-39
-0.34328401 0.068030201 0.115295 8.6796483e-39
-0.34321299 0.069401696 0.115441 8.7714838e-39
-0.34254101 0.070512898 0.116046 8.6796497e-39
-0.34187099 0.0716196 0.116649 8.6800084e-39
-0.341205 0.072721802 0.117248 8.6803672e-39
-0.34083799 0.0739531 0.117619 9.0480735e-39
-0.340177 0.075047404 0.118214 1.0243744e-38
-0.33981201 0.076273099 0.118583 1.2083708e-38
-0.339448 0.077496797 0.118952 1.3371229e-38
-0.33879399 0.078579903 0.119541 1.4292825e-38
-0.34912699 0.039706901 0.107055 1.4570118e-38
-0.348425 0.040895201 0.107691 1.4207383e-38
-0.34804001 0.042175502 0.108082 1.2653713e-38
-0.347969 0.043552302 0.108229 1.2562592e-38
-0.348212 0.045030698 0.108132 1.2839896e-38
-0.34814 0.046411101 0.108279 1.256475e-38
-0.347756 0.047688201 0.10867 1.2288167e-38
-0.347684 0.049068801 0.108817 1.182575e-38
-0.34887001 0.050882701 0.10799 9.6130728e-39
-0.34691799 0.051614501 0.109594 8.8729924e-39
-0.34591699 0.052664101 0.11046 9.1488591e-39
-0.34523001 0.053817499 0.111083 9.6091156e-39
-0.344852 0.055078201 0.111466 1.0071173e-38
-0.34447601 0.056336801 0.111849 1.0530352e-38
-0.3441 0.0575931 0.112231 1.0159418e-38
-0.343119 0.058614701 0.113079 9.6041017e-39
-0.34304801 0.059981398 0.113225 9.3250079e-39
-0.34267601 0.061229799 0.113603 9.1402593e-39
-0.34290701 0.062717497 0.113516 8.8643997e-39
-0.34283599 0.064087003 0.113662 8.7718481e-39
-0.342765 0.065457501 0.113808 8.7718481e-39
-0.34269401 0.066828899 0.113955 8.8629634e-39
-0.34262401 0.068201199 0.114101 8.8629634e-39
-0.34255299 0.069574498 0.114247 8.7714866e-39
-0.34187999 0.070686802 0.114856 8.6796525e-39
-0.34121099 0.071794502 0.115461 8.7718523e-39
-0.34084299 0.073030598 0.115836 9.7831274e-39
-0.34017801 0.074130401 0.116437 1.1439413e-38
-0.33951801 0.0752258 0.117035 1.2729081e-38
-0.33915299 0.076452903 0.117406 1.3741089e-38
-0.33878899 0.077678002 0.117776 1.3924054e-38
-0.34815201 0.039748501 0.106079 1.4386808e-38
-0.347453 0.040936898 0.106718 1.3562735e-38
-0.34675699 0.042120099 0.107353 1.2192377e-38
-0.34668499 0.043495301 0.107499 1.2836663e-38
-0.346614 0.0448713 0.107646 1.2837744e-38
-0.346542 0.046248399 0.107792 1.2470759e-38
-0.34615999 0.047522601 0.108182 1.2654793e-38
-0.34547001 0.048689499 0.108812 1.1089279e-38
-0.346017 0.0502779 0.108475 9.3339748e-39
-0.34532699 0.051439799 0.109104 9.5180003e-39
-0.34433499 0.0524875 0.10997 9.5180017e-39
-0.34395799 0.053749099 0.110354 9.7031104e-39
-0.343582 0.055008501 0.110738 9.9779009e-39
-0.343207 0.0562656 0.11112 9.8821165e-39
-0.34283301 0.057520598 0.111502 9.4182741e-39
-0.34246001 0.058773398 0.111883 9.1406208e-39
-0.342087 0.060024001 0.112263 9.0477105e-39
-0.342318 0.061511301 0.112174 8.9558765e-39
-0.342246 0.062881701 0.11232 8.8640438e-39
-0.34247699 0.064376302 0.112231 8.8644053e-39
-0.342406 0.065750197 0.112377 9.0480777e-39
-0.342334 0.067125097 0.112524 9.1391957e-39
-0.341961 0.0683726 0.112904 9.231034e-39
-0.341589 0.069617897 0.113283 9.8742454e-39
-0.34091899 0.070730202 0.113894 1.0701847e-38
-0.340848 0.0721021 0.11404 1.1163911e-38
-0.34018099 0.073207401 0.114647 1.1992604e-38
-0.339517 0.074308299 0.115252 1.3648531e-38
-0.339151 0.0755402 0.115625 1.4293904e-38
-0.33849201 0.0766332 0.116225 1.4200998e-38
-0.347177 0.039790101 0.105103 1.3375179e-38
-0.34648001 0.040978499 0.105744 1.2643658e-38
-0.34578601 0.042161699 0.106381 1.1546294e-38
-0.345714 0.043536998 0.106527 1.108712e-38
-0.345642 0.044913199 0.106673 9.6116477e-39
-0.34526101 0.046188202 0.107064 9.7034762e-39
-0.34457299 0.047357701 0.107696 1.071762e-38
-0.34358299 0.048418101 0.108566 9.7052769e-39
-0.34443 0.050106298 0.107988 9.7917131e-39
-0.34344 0.051158302 0.108857 1.0990968e-38
-0.34306401 0.052420702 0.109242 1.0347762e-38
-0.34238601 0.053570598 0.109865 1.0162652e-38
-0.342013 0.054827102 0.110248 9.9743135e-39
-0.341941 0.0561946 0.110393 9.7877713e-39
-0.34156901 0.057448201 0.110775 9.2349689e-39
-0.34149799 0.0588159 0.11092 9.0498629e-39
-0.34142601 0.060184501 0.111065 9.0487867e-39
-0.341656 0.061673999 0.110975 8.9565953e-39
-0.341885 0.063168101 0.110884 8.9558793e-39
-0.342116 0.064666897 0.110793 9.1395544e-39
-0.342044 0.066044398 0.110939 1.0058637e-38
-0.34167001 0.067295499 0.111322 1.0978436e-38
-0.341598 0.068673201 0.111468 1.1623814e-38
-0.341225 0.069921397 0.11185 1.272693e-38
-0.340554 0.071035802 0.112465 1.3922232e-38
-0.33988601 0.0721457 0.113078 1.3740726e-38
-0.33981401 0.073518597 0.113223 1.3557787e-38
-0.33915001 0.074621499 0.113832 1.4293192e-38
-0.34658599 0.038545098 0.103731 1.4015527e-38
-0.346201 0.039831702 0.104126 1.2181314e-38
-0.34550601 0.041020099 0.104769 1.1450873e-38
-0.344506 0.042106401 0.105655 1.0808375e-38
-0.34443399 0.043480001 0.105801 1.043852e-38
-0.34436199 0.0448546 0.105946 7.94746e-39
-0.343676 0.046026699 0.106581 6.470902e-39
-0.34268901 0.047091201 0.107455 6.7500029e-39
-0.342314 0.048356 0.107842 8.3169586e-39
-0.34254599 0.049829699 0.107745 9.0537964e-39
-0.34217 0.0510929 0.108131 1.007082e-38
-0.341194 0.052136999 0.108996 1.0531795e-38
-0.339926 0.0530653 0.11009 1.0435289e-38
-0.33926201 0.054204699 0.110705 1.0065793e-38
-0.34038001 0.056010999 0.109905 9.7884944e-39
-0.34060699 0.057490699 0.109812 9.6037472e-39
-0.340536 0.058858499 0.109957 9.4193601e-39
-0.34076399 0.060345501 0.109865 9.2349717e-39
-0.340992 0.061837099 0.109772 9.1420614e-39
-0.341221 0.0633334 0.109679 9.2324661e-39
-0.34145001 0.064834401 0.109586 1.0335584e-38
-0.341378 0.066213802 0.109732 1.2265948e-38
-0.341306 0.067594104 0.109879 1.3554892e-38
-0.34123299 0.0689753 0.110025 1.429354e-38
-0.34055901 0.070095502 0.110647 1.4846359e-38
-0.34560999 0.038586698 0.102753 1.3466672e-38
-0.34522599 0.039873298 0.10315 1.1169321e-38
-0.344843 0.0411577 0.103546 1.071619e-38
-0.34353599 0.042148001 0.104684 1.0348118e-38
-0.34346399 0.043521699 0.10483 1.0070099e-38
-0.34277999 0.044696301 0.105467 7.948539e-39
-0.34240299 0.045967001 0.105857 5.7319049e-39
-0.34142199 0.047030602 0.106732 4.9043078e-39
-0.340747 0.0481904 0.10736 7.023001e-39
-0.34067601 0.049555201 0.107504 7.303171e-39
-0.34030399 0.0508141 0.107889 7.3020976e-39
-0.33904099 0.051748101 0.108988 9.6051723e-39
-0.337497 0.0525662 0.110312 1.0342739e-38
-0.336842 0.0537 0.110922 1.0066513e-38
-0.33794099 0.055492699 0.110128 9.9736003e-39
-0.33934799 0.057418499 0.109088 9.9725227e-39
-0.339573 0.058901001 0.108994 9.8803313e-39
-0.34009901 0.060506798 0.108661 9.60375e-39
-0.34062701 0.0621216 0.108326 9.5104824e-39
-0.34085599 0.063622102 0.108231 1.0337376e-38
-0.340783 0.065002397 0.108377 1.2636527e-38
-0.34071001 0.066383503 0.108523 1.3741451e-38
-0.34063801 0.067765698 0.108669 1.4109523e-38
-0.345256 0.038814999 0.101269 1.4200987e-38
-0.34456101 0.0400097 0.101921 1.1628111e-38
-0.34386799 0.0411993 0.10257 1.0531799e-38
-0.34256601 0.042189602 0.103713 9.9797015e-39
-0.34188399 0.0433666 0.104353 9.7942313e-39
-0.341508 0.044638202 0.104744 8.1329289e-39
-0.341133 0.045907602 0.105134 6.0088491e-39
-0.340157 0.0469702 0.10601 4.5358826e-39
-0.339486 0.048128799 0.106639 5.1776577e-39
-0.338819 0.049282599 0.107265 6.1935935e-39
-0.33874699 0.050643399 0.107408 6.4687496e-39
-0.33661601 0.051256999 0.109217 1.034129e-38
-0.33567399 0.052286301 0.110064 1.0620043e-38
-0.335603 0.053633101 0.110206 1.0067232e-38
-0.335531 0.0549808 0.110348 1.0066513e-38
-0.33838701 0.0574609 0.108127 1.0157271e-38
-0.33890799 0.059060302 0.107791 9.9736017e-39
-0.33973199 0.060787901 0.107212 9.972887e-39
-0.339959 0.0622859 0.107115 1.0523552e-38
-0.33988601 0.063665301 0.107261 1.2637598e-38
-0.33981299 0.065045699 0.107406 1.4200988e-38
-0.33974001 0.066427 0.107552 1.410952e-38
-0.34427699 0.038856599 0.100289 1.45712e-38
-0.34389299 0.040146399 0.10069 1.2179464e-38
-0.342893 0.041241001 0.101594 1.0622195e-38
-0.34098899 0.042037699 0.10324 1.0070818e-38
-0.34091601 0.0434082 0.103384 9.7013168e-39
-0.34054101 0.044679899 0.103775 7.9485362e-39
-0.33986601 0.045848299 0.104412 6.0095652e-39
-0.339194 0.0470118 0.105046 4.8113863e-39
-0.338229 0.048067398 0.10592 5.3631224e-39
-0.33697701 0.049012199 0.107027 6.3790651e-39
-0.33661199 0.050262701 0.107409 7.3914192e-39
-0.33537501 0.051192801 0.108502 1.0896985e-38
-0.33472601 0.052327901 0.109115 1.1081014e-38
-0.334654 0.053674798 0.109257 1.062004e-38
-0.334582 0.055022601 0.109399 1.0435293e-38
-0.33772099 0.0576181 0.106924 1.0342379e-38
-0.33824101 0.059219901 0.106585 1.0250186e-38
-0.33906299 0.060950398 0.106 1.025055e-38
-0.33899 0.062329002 0.106145 1.2179841e-38
-0.33891699 0.063708499 0.106291 1.4202779e-38
-0.33884299 0.065089002 0.106436 1.4753448e-38
-0.34329799 0.0388983 0.099309102 1.356065e-38
-0.342915 0.0401881 0.099710204 1.218017e-38
-0.34191799 0.041282699 0.100618 1.0345606e-38
-0.34002101 0.042079199 0.102271 9.7942313e-39
-0.33964601 0.043351699 0.102663 9.4247341e-39
-0.339573 0.0447216 0.102807 8.0407319e-39
-0.3389 0.04589 0.103446 6.3783449e-39
-0.338231 0.047053501 0.104082 5.2709323e-39
-0.33667901 0.0479034 0.105445 6.2847115e-39
-0.335729 0.048950098 0.106311 6.8393216e-39
-0.33536601 0.0501993 0.106693 9.0487671e-39
-0.334425 0.051234301 0.107551 1.1359398e-38
-0.33377701 0.052369401 0.108166 1.135832e-38
-0.33370501 0.053716399 0.108307 1.0989182e-38
-0.33392099 0.055174701 0.108212 1.089627e-38
-0.33705401 0.057775602 0.105718 1.0804073e-38
-0.33757299 0.059379999 0.105375 1.0804433e-38
-0.338094 0.060993399 0.105031 1.0988117e-38
-0.33802101 0.0623721 0.105175 1.3285125e-38
-0.338245 0.063875102 0.105075 1.4570851e-38
-0.342011 0.038846299 0.098585904 1.2459708e-38
-0.341629 0.040134698 0.098987103 1.1264328e-38
-0.34094301 0.041324399 0.099642299 1.0162652e-38
-0.339053 0.042120699 0.101302 9.6098414e-39
-0.33867899 0.043393198 0.101695 9.2414204e-39
-0.33830699 0.044663601 0.102088 7.9481775e-39
-0.337935 0.045931701 0.10248 6.5638165e-39
-0.33697101 0.0469932 0.103364 5.5493143e-39
-0.335722 0.0479449 0.104486 6.8396761e-39
-0.33477399 0.048991598 0.105355 7.0233555e-39
-0.33441201 0.0502409 0.105738 1.0708633e-38
-0.33347401 0.051275801 0.106599 1.1727816e-38
-0.332829 0.052411001 0.107217 1.154271e-38
-0.33275601 0.0537581 0.107358 1.1265048e-38
-0.33354399 0.055438198 0.106785 1.1356524e-38
-0.33609 0.0578181 0.104754 1.1173571e-38
-0.336606 0.059422798 0.104408 1.1358324e-38
-0.337125 0.0610363 0.104061 1.2367818e-38
-0.33734801 0.062536903 0.103959 1.3836876e-38
-0.341032 0.038887899 0.097606599 1.1539902e-38
-0.34065199 0.040176399 0.0980087 1.0898419e-38
-0.33966401 0.041269802 0.0989215 9.8853479e-39
-0.33808401 0.042162199 0.100332 9.4258117e-39
-0.33771199 0.043434799 0.100727 9.0559544e-39
-0.33734 0.044705201 0.10112 7.7645037e-39
-0.33667299 0.045872401 0.101762 6.5630963e-39
-0.335715 0.046932999 0.102648 5.917015e-39
-0.33418199 0.047781698 0.104015 7.1166246e-39
-0.33353099 0.048929699 0.104642 7.4843379e-39
-0.33317 0.0501776 0.105025 1.1265044e-38
-0.33223799 0.0512117 0.105887 1.1911844e-38
-0.33188 0.052452501 0.106267 1.1635261e-38
-0.33180699 0.053799801 0.106408 1.1449798e-38
-0.33287799 0.055591401 0.105591 1.1449076e-38
-0.33512601 0.057860699 0.103789 1.1449794e-38
-0.33564001 0.059465501 0.103441 1.163527e-38
-0.33615601 0.061079301 0.103091 1.3653531e-38
-0.336674 0.062702201 0.102739 1.4755238e-38
-0.34005401 0.0389295 0.096627101 1.1720317e-38
-0.339674 0.0402181 0.0970302 1.0254133e-38
-0.33838901 0.041215401 0.098202497 9.7013168e-39
-0.33681801 0.042107102 0.099615797 9.3328958e-39
-0.33674401 0.043476399 0.099758402 8.5949762e-39
-0.336077 0.044647299 0.100404 7.6708731e-39
-0.33541399 0.0458134 0.101046 6.3779875e-39
-0.334461 0.046872899 0.101933 6.9293592e-39
-0.33293799 0.047721099 0.103303 7.7616338e-39
-0.33257699 0.048971198 0.103688 8.5895952e-39
-0.33193099 0.050114501 0.104314 1.1543787e-38
-0.33128801 0.0512532 0.104937 1.1912564e-38
-0.33093101 0.052494101 0.105318 1.1635983e-38
-0.33085799 0.053841501 0.105458 1.1267208e-38
-0.33221099 0.055744998 0.104394 1.1357963e-38
-0.334454 0.058018699 0.102578 1.1634548e-38
-0.33467299 0.059508301 0.102473 1.1818955e-38
-0.335186 0.061122298 0.10212 1.3929781e-38
-0.335702 0.0627454 0.101766 1.5307339e-38
-0.33915001 0.037588201 0.0955038 1.5493154e-38
-0.338772 0.038877599 0.0959078 1.2269503e-38
-0.33839399 0.040164702 0.096310899 1.0069385e-38
-0.337116 0.041161101 0.097485103 9.7927936e-39
-0.33585101 0.042148501 0.098647498 9.4240138e-39
-0.33548099 0.043419801 0.0990429 8.4102304e-39
-0.33511201 0.044688899 0.099437498 7.3939289e-39
-0.334158 0.0457545 0.100332 6.1943179e-39
-0.33350101 0.046914499 0.100972 7.5779558e-39
-0.33198401 0.047762498 0.102348 7.761994e-39
-0.33162299 0.049012698 0.102733 1.0063987e-38
-0.33097899 0.050156001 0.103361 1.1821451e-38
