# .PCD v0.7 - Point Cloud Data file format
VERSION 0.7
FIELDS x y z rgb
SIZE 4 4 4 4
TYPE F F F F
COUNT 1 1 1 1
WIDTH 1036
HEIGHT 1
VIEWPOINT 0 0 0 1 0 0 0
POINTS 1036
DATA ascii
-0.34729499 0.055050801 0.13125101 1.6068533e-38
-0.347231 0.056371801 0.131396 1.6802862e-38
-0.34716699 0.057693601 0.131541 1.5782986e-38
-0.34680599 0.058903702 0.131889 1.4484026e-38
-0.34644601 0.060111899 0.132236 1.3926205e-38
-0.34608701 0.061318099 0.13258301 1.3925848e-38
-0.321455 0.0139089 0.145163 8.6814279e-39
-0.321161 0.0150133 0.145456 8.8650975e-39
-0.31968999 0.015845001 0.146575 8.8658192e-39
-0.31940001 0.0169407 0.146865 9.0523629e-39
-0.31911099 0.0180349 0.147155 9.4207796e-39
-0.31766501 0.018842701 0.14825401 9.6055282e-39
-0.31623799 0.0196412 0.14933901 9.6995203e-39
-0.31505299 0.0204881 0.150254 1.1452298e-38
-0.31455001 0.0215024 0.150691 1.3945519e-38
-0.314271 0.022572899 0.150971 1.5881976e-38
-0.31421599 0.0237028 0.151095 1.6616663e-38
-0.32569301 0.032885 0.143529 1.4134578e-38
-0.325634 0.034081701 0.14365999 1.5606827e-38
-0.32557601 0.035279199 0.143792 1.5880541e-38
-0.347179 0.044651698 0.128962 1.5327368e-38
-0.347413 0.046064399 0.12889899 1.5512113e-38
-0.34734899 0.047382198 0.129043 1.5697585e-38
-0.34728399 0.048700999 0.129188 1.6159282e-38
-0.34692201 0.049918599 0.129539 1.6529142e-38
-0.34685799 0.051237602 0.129683 1.6437308e-38
-0.346793 0.052557498 0.12982801 1.6159286e-38
-0.346432 0.053771801 0.130178 1.5513201e-38
-0.34636801 0.055091899 0.13032199 1.4869989e-38
-0.34600699 0.056303501 0.13067099 1.5424601e-38
-0.34564799 0.057513099 0.13101999 1.6436237e-38
-0.34528899 0.0587206 0.131368 1.6151407e-38
-0.34522501 0.060039598 0.131512 1.4668052e-38
-0.344574 0.061129902 0.132061 1.3832928e-38
-0.34421799 0.062331501 0.132406 1.383257e-38
-0.32028401 0.016204899 0.14476199 8.6814293e-39
-0.318353 0.0169196 0.14621399 9.0516426e-39
-0.31760201 0.017900901 0.14683101 9.5118977e-39
-0.31549001 0.0185387 0.14841001 9.5126151e-39
-0.31408501 0.0193341 0.149487 9.6980826e-39
-0.31336099 0.0202918 0.15008201 1.0712586e-38
-0.31264201 0.0212442 0.150673 1.3206516e-38
-0.31214699 0.0222505 0.151107 1.5421355e-38
-0.31143501 0.023193499 0.151692 1.6434068e-38
-0.31291801 0.024743499 0.150731 1.6431913e-38
-0.32114601 0.033001799 0.145375 1.5146927e-38
-0.34654999 0.044787701 0.12782601 1.5327725e-38
-0.34648499 0.046104699 0.12797 1.5511394e-38
-0.34641999 0.0474227 0.128114 1.560359e-38
-0.346356 0.048741601 0.128259 1.578906e-38
-0.34599501 0.049959298 0.12861 1.6067085e-38
-0.34593001 0.051278401 0.128754 1.6436948e-38
-0.34586501 0.052598398 0.12889899 1.6713176e-38
-0.345505 0.053812701 0.12924901 1.67121e-38
-0.34514499 0.055025 0.129599 1.5790505e-38
-0.34478599 0.056235299 0.129949 1.4777797e-38
-0.34442899 0.057443701 0.13029701 1.5240212e-38
-0.344071 0.058649998 0.13064501 1.6528789e-38
-0.34371501 0.059854399 0.130992 1.6336148e-38
-0.34336001 0.0610568 0.131339 1.476024e-38
-0.34242699 0.062026501 0.13208701 1.3558137e-38
-0.34236199 0.063338898 0.13223 1.3557064e-38
-0.316847 0.016789099 0.14589299 9.0509209e-39
-0.312509 0.016894201 0.149073 9.5115375e-39
-0.31245399 0.018018 0.149196 9.5118963e-39
-0.312399 0.0191427 0.14931899 9.697005e-39
-0.311683 0.020097099 0.149911 1.0066504e-38
-0.31053701 0.0209313 0.150811 1.2282769e-38
-0.310265 0.0219904 0.151087 1.477563e-38
-0.30999401 0.0230482 0.151362 1.6158202e-38
-0.309939 0.024165099 0.151484 1.6524826e-38
-0.320077 0.032964502 0.144712 1.4502638e-38
-0.32025701 0.034216002 0.14467201 1.579122e-38
-0.34549201 0.047463201 0.127185 1.5418843e-38
-0.34542701 0.0487822 0.12732901 1.5511757e-38
-0.34506699 0.0499999 0.127682 1.5605031e-38
-0.345002 0.0513191 0.12782501 1.5975252e-38
-0.34464201 0.0525342 0.128177 1.6345114e-38
-0.34428301 0.0537473 0.128528 1.6529506e-38
-0.343925 0.054958299 0.128878 1.6528792e-38
-0.343568 0.056167401 0.129228 1.5882704e-38
-0.34321201 0.0573745 0.129577 1.4869631e-38
-0.34285599 0.058579601 0.129925 1.5056177e-38
-0.342502 0.059782699 0.130272 1.6619901e-38
-0.341571 0.060756199 0.131023 1.6519819e-38
-0.34150699 0.062067799 0.131166 1.4761319e-38
-0.34144199 0.063380301 0.131309 1.4110225e-38
-0.34109101 0.064575702 0.13165399 1.4108433e-38
-0.30921501 0.0140726 0.149913 8.4977555e-39
-0.30915999 0.0151813 0.150034 8.7743354e-39
-0.30932 0.0163431 0.15000001 9.3267889e-39
-0.30969599 0.017561899 0.149811 9.3275064e-39
-0.30985701 0.0187314 0.149777 9.5126165e-39
-0.309802 0.0198476 0.14989799 9.605887e-39
-0.30888501 0.0207358 0.150638 1.1266832e-38
-0.308402 0.021733001 0.151067 1.3852962e-38
-0.30813399 0.0227858 0.15134101 1.5697945e-38
-0.34420401 0.0487222 0.126609 1.5511396e-38
-0.34413901 0.050040599 0.126753 1.5512476e-38
-0.34378001 0.0512564 0.127106 1.5605394e-38
-0.34371501 0.052575 0.127249 1.5883774e-38
-0.343357 0.053788099 0.127601 1.6344749e-38
-0.34299901 0.054999299 0.12795199 1.6529145e-38
-0.34235299 0.056099601 0.128508 1.6804297e-38
-0.34170899 0.0571956 0.129062 1.6250043e-38
-0.340781 0.058176599 0.12981699 1.4961105e-38
-0.34042999 0.059374601 0.130163 1.5239848e-38
-0.34007999 0.060570698 0.13050801 1.6804294e-38
-0.34001499 0.0618793 0.13065 1.6796045e-38
-0.33995101 0.063188799 0.13079201 1.5221211e-38
-0.33988601 0.064499304 0.130935 1.4293897e-38
-0.33982101 0.065810598 0.131078 1.4107361e-38
-0.308485 0.0129973 0.14900699 7.114475e-39
-0.30842999 0.0141053 0.14912701 8.4055599e-39
-0.30794799 0.0151116 0.14955799 8.5903071e-39
-0.30789301 0.0162188 0.14967801 9.0509237e-39
-0.30826399 0.0174338 0.149488 9.1438368e-39
-0.308209 0.018544801 0.149609 9.4200622e-39
-0.30751401 0.019489501 0.15019301 9.4211384e-39
-0.306824 0.020429101 0.150774 1.0436001e-38
-0.306348 0.021421 0.151199 1.2928855e-38
-0.30566499 0.0223515 0.151774 1.5235892e-38
-0.30561 0.023453901 0.151894 1.6250041e-38
-0.343211 0.050081201 0.125824 1.5512118e-38
-0.34314501 0.051400699 0.125967 1.5512478e-38
-0.342787 0.0526159 0.126321 1.5697584e-38
-0.34243 0.053828999 0.126673 1.5974888e-38
-0.34149399 0.054825399 0.127441 1.6252195e-38
-0.34085199 0.0559236 0.127997 1.6620979e-38
-0.339358 0.056690902 0.129164 1.689613e-38
-0.33900899 0.0578871 0.129509 1.6525549e-38
-0.33866099 0.059081301 0.129853 1.5328451e-38
-0.33859599 0.060386099 0.129994 1.5239495e-38
-0.33853099 0.061691701 0.130136 1.6895772e-38
-0.33846599 0.062998302 0.13027801 1.6887879e-38
-0.33840099 0.0643057 0.13042 1.5037899e-38
-0.33833599 0.065614 0.13056201 1.4110947e-38
-0.33827099 0.066923298 0.130704 1.4016962e-38
-0.30775499 0.0119226 0.148101 6.7464141e-39
-0.30727401 0.0129319 0.148533 8.3112175e-39
-0.30700701 0.0139878 0.148808 8.6807063e-39
-0.30652899 0.0149914 0.14923801 8.4988331e-39
-0.30647299 0.016095299 0.149358 8.7750585e-39
-0.306418 0.017200001 0.149478 9.2360324e-39
-0.30636299 0.0183054 0.149597 9.3275092e-39
-0.306097 0.0193564 0.14987101 9.4207796e-39
-0.30541301 0.0202937 0.150451 9.8831913e-39
-0.30452499 0.021169299 0.151179 1.2005109e-38
-0.30426401 0.022211101 0.15144899 1.4589448e-38
-0.30379599 0.023193 0.15187 1.6157487e-38
-0.30415401 0.024410101 0.151687 1.6433349e-38
-0.341793 0.053976499 0.125535 1.5513195e-38
-0.34114701 0.0550812 0.12609801 1.5882694e-38
-0.33993 0.0559645 0.127074 1.6344031e-38
-0.33815801 0.056623299 0.12845001 1.6620978e-38
-0.33752999 0.0577088 0.12899899 1.6988322e-38
-0.33718401 0.058900502 0.129343 1.7076566e-38
-0.33711901 0.060202301 0.129484 1.5971305e-38
-0.33705401 0.061505001 0.12962499 1.5698677e-38
-0.33698899 0.062808603 0.129766 1.6712101e-38
-0.33720401 0.064229898 0.129705 1.6153551e-38
-0.337138 0.065536797 0.12984701 1.485459e-38
-0.337073 0.066844597 0.129988 1.4110588e-38
-0.33700699 0.068153299 0.13012999 1.4016601e-38
-0.306279 0.0129156 0.14790501 1.0153708e-38
-0.305592 0.013871 0.14849199 9.0480511e-39
-0.305327 0.0149225 0.148766 8.6817881e-39
-0.30485401 0.0159209 0.149194 8.6825069e-39
-0.30479899 0.0170212 0.149313 9.3271519e-39
-0.30474401 0.018122301 0.149432 9.2360324e-39
-0.30427301 0.0191145 0.149858 9.3285868e-39
-0.30339101 0.019992501 0.15058599 9.7902782e-39
-0.30313101 0.0210327 0.150856 1.0990607e-38
-0.30287099 0.0220716 0.151126 1.35753e-38
-0.302407 0.0230508 0.151545 1.5788343e-38
-0.30296499 0.0243237 0.15121201 1.625004e-38
-0.336615 0.057749499 0.128084 1.6345473e-38
-0.33627099 0.058941301 0.128429 1.7171996e-38
-0.335926 0.0601312 0.12877201 1.7351716e-38
-0.335583 0.061319198 0.129116 1.6154616e-38
-0.335796 0.062734596 0.129054 1.5329891e-38
-0.336009 0.064154297 0.12899201 1.542353e-38
-0.33594301 0.065459803 0.129133 1.5600028e-38
-0.335877 0.066766098 0.129274 1.4853154e-38
-0.335812 0.068073399 0.129416 1.4200987e-38
-0.33574599 0.069381602 0.129557 1.4107718e-38
-0.304602 0.0138539 0.147866 8.9569344e-39
-0.30392301 0.0148035 0.14845 8.7732648e-39
-0.30324799 0.015748 0.149031 8.8661779e-39
-0.30298701 0.016791699 0.149303 9.2342388e-39
-0.30293199 0.0178873 0.14942101 9.0523601e-39
-0.30267099 0.018929301 0.149692 9.3282267e-39
-0.30241099 0.019969899 0.14996199 9.7895594e-39
-0.301541 0.0208409 0.15068699 1.0436718e-38
-0.30128399 0.021875801 0.15095501 1.265191e-38
-0.300825 0.0228517 0.151373 1.5143334e-38
-0.30077001 0.0239418 0.151491 1.6158925e-38
-0.334737 0.060060199 0.12806299 1.680429e-38
-0.33467099 0.061360098 0.128203 1.5880184e-38
-0.33460501 0.062660798 0.128343 1.4039517e-38
-0.33454001 0.0639624 0.128484 1.3950557e-38
-0.33475101 0.065382898 0.12842099 1.5145862e-38
-0.334685 0.066687897 0.128562 1.5506756e-38
-0.33461899 0.067993701 0.128702 1.4943553e-38
-0.334553 0.069300503 0.12884299 1.4568328e-38
-0.33448699 0.070608102 0.128984 1.4384302e-38
-0.30252701 0.0146852 0.148136 8.6817881e-39
-0.302062 0.015678201 0.148562 8.958012e-39
-0.30180299 0.016720001 0.148834 9.0498475e-39
-0.30174699 0.017813399 0.14895099 9.0519999e-39
-0.30169201 0.018907599 0.149069 9.5122564e-39
-0.300825 0.0197822 0.14979599 9.8810361e-39
-0.30056801 0.0208176 0.150065 1.0067222e-38
-0.29931 0.021569001 0.151085 1.1636691e-38
-0.29885799 0.022539699 0.1515 1.412955e-38
-0.29840699 0.023507301 0.151913 1.6250041e-38
-0.29874799 0.0247079 0.151733 1.6432631e-38
-0.33348399 0.061287899 0.12749401 1.5604673e-38
-0.33341801 0.062587202 0.127634 1.4774917e-38
-0.333352 0.063887402 0.127774 1.4499408e-38
-0.33328599 0.065188497 0.127914 1.5051862e-38
-0.33349499 0.066609703 0.12785099 1.5418856e-38
-0.33342901 0.067914203 0.12799101 1.5321647e-38
-0.33336201 0.0692195 0.128131 1.4759528e-38
-0.33302099 0.0704019 0.128475 1.420135e-38
-0.332955 0.071707502 0.12861501 1.401732e-38
-0.301752 0.0147175 0.147359 8.6821454e-39
-0.30108401 0.0156596 0.14794099 8.7736222e-39
-0.301029 0.0167524 0.148059 8.7739809e-39
-0.30077001 0.017792899 0.14833 9.3267889e-39
-0.30071399 0.018886101 0.14844701 9.5122564e-39
-0.29985201 0.01976 0.149176 9.7888405e-39
-0.298599 0.020517001 0.15020099 9.8817564e-39
-0.29755601 0.021321399 0.15106501 1.0805861e-38
-0.29730499 0.0223446 0.151329 1.3206162e-38
-0.296859 0.023308801 0.151741 1.5972375e-38
-0.29680401 0.0243869 0.151857 1.6433711e-38
-0.33229899 0.0612159 0.12678701 1.588018e-38
-0.33060601 0.061832801 0.128144 1.5602514e-38
-0.33054 0.063122503 0.128282 1.5326649e-38
-0.33155599 0.064878099 0.12761299 1.5327009e-38
-0.33149001 0.066175699 0.12775201 1.5419565e-38
-0.331424 0.067474097 0.127891 1.5418494e-38
-0.331357 0.068773396 0.128031 1.5044712e-38
-0.33129099 0.070073597 0.12817 1.4391475e-38
-0.33095399 0.071250498 0.128512 1.4109517e-38
-0.330888 0.072550997 0.12865201 1.4109159e-38
-0.300513 0.015743 0.147011 8.5895924e-39
-0.30025399 0.016784901 0.147283 8.6825027e-39
-0.29999599 0.0178254 0.14755499 9.1416816e-39
-0.299337 0.018756701 0.14813399 9.4200636e-39
-0.29769 0.019411501 0.149468 9.6048094e-39
-0.296848 0.0202746 0.150185 9.8813948e-39
-0.29601401 0.021131599 0.150897 1.0343807e-38
-0.295571 0.022094799 0.151308 1.2467163e-38
-0.29513001 0.023054801 0.15171701 1.5050782e-38
-0.29430899 0.0238964 0.152417 1.6342596e-38
-0.29559901 0.0253793 0.15150601 1.6340794e-38
-0.319646 0.048868399 0.13424399 1.5420278e-38
-0.32081401 0.050568599 0.133443 1.5604669e-38
-0.32099801 0.051898401 0.133388 1.5328089e-38
-0.32143199 0.053330999 0.13314401 1.3946957e-38
-0.32211801 0.054871801 0.13270999 1.3396657e-38
-0.322557 0.056320801 0.13246401 1.4870704e-38
-0.32375801 0.058092698 0.131641 1.5881616e-38
-0.324716 0.059777699 0.13100401 1.5695787e-38
-0.32724699 0.062145699 0.12918 1.5418844e-38
-0.328502 0.063993201 0.12832101 1.5419204e-38
-0.329236 0.065628499 0.127856 1.5511759e-38
-0.32943699 0.067038096 0.127792 1.5603956e-38
-0.32937101 0.068331502 0.127931 1.5326305e-38
-0.32930499 0.069625802 0.128069 1.4861043e-38
-0.328971 0.070797801 0.128409 1.4299997e-38
-0.32863799 0.071967997 0.128749 1.401768e-38
-0.32804 0.0730111 0.12928601 1.4384664e-38
-0.29922301 0.0178579 0.146781 9.0491245e-39
-0.297571 0.018521201 0.148129 9.4200636e-39
-0.29497799 0.0189083 0.150204 9.4207796e-39
-0.29492199 0.0199805 0.150318 9.6048108e-39
-0.29409999 0.020833701 0.151025 1.0066861e-38
-0.29347301 0.0217363 0.15157899 1.1451582e-38
-0.29322901 0.0227469 0.151839 1.4035917e-38
-0.29298499 0.023756299 0.152099 1.6341518e-38
-0.29293001 0.024822701 0.15221301 1.6617022e-38
-0.317635 0.047225598 0.134179 1.5327724e-38
-0.31757301 0.048443101 0.13431001 1.5420278e-38
-0.31872201 0.050131701 0.133513 1.5512834e-38
-0.31963801 0.051743001 0.13289601 1.5696869e-38
-0.320068 0.0531721 0.132652 1.4500488e-38
-0.32025099 0.054508202 0.132595 1.3488493e-38
-0.320932 0.0560521 0.13215999 1.4226771e-38
-0.32161701 0.057607401 0.131721 1.5515709e-38
-0.32205501 0.059067801 0.13147201 1.5789779e-38
-0.32300201 0.060752399 0.130836 1.5419562e-38
-0.32550499 0.0631245 0.129016 1.5142978e-38
-0.326745 0.064972103 0.128158 1.5235891e-38
-0.32746899 0.066606201 0.127694 1.5513197e-38
-0.327667 0.068012998 0.12763099 1.5421364e-38
-0.32760099 0.069302902 0.12776799 1.5326663e-38
-0.327535 0.0705937 0.12790599 1.4861038e-38
-0.32720399 0.071761496 0.128245 1.4392187e-38
-0.32661101 0.0728027 0.128783 1.4386099e-38
-0.32575899 0.073714703 0.12951601 1.4386104e-38
-0.29433 0.0167979 0.149216 8.8650933e-39
-0.29256201 0.0174048 0.150665 9.2353136e-39
-0.29250699 0.018466899 0.150778 9.4204195e-39
-0.29245201 0.019529801 0.15089101 9.5126137e-39
-0.29220799 0.0205392 0.151151 9.6980826e-39
-0.29196599 0.021547399 0.151411 1.0528918e-38
-0.29172301 0.022554301 0.15166999 1.3021409e-38
-0.29148099 0.023560001 0.15192799 1.5880894e-38
-0.29198799 0.0247967 0.151605 1.6618101e-38
-0.31719801 0.048665799 0.133081 1.5419921e-38
-0.31761801 0.050075401 0.132838 1.560431e-38
-0.318528 0.051684801 0.132219 1.5790857e-38
-0.31870899 0.053013999 0.13216101 1.5239484e-38
-0.31913599 0.054446898 0.131915 1.4041302e-38
-0.319318 0.055785298 0.13185801 1.3581763e-38
-0.31974801 0.057231002 0.13161001 1.4871421e-38
-0.32042801 0.058789399 0.13117 1.6067804e-38
-0.320613 0.060144398 0.131111 1.5973093e-38
-0.32129899 0.061721601 0.130668 1.5234453e-38
-0.32403001 0.0642111 0.128654 1.4774914e-38
-0.32525799 0.066061698 0.12779699 1.4869625e-38
-0.32571399 0.067578197 0.127533 1.5147292e-38
-0.32590899 0.068982303 0.127469 1.5606471e-38
-0.32584301 0.070268698 0.127607 1.560432e-38
-0.325515 0.071432903 0.12794399 1.5230531e-38
-0.32466799 0.072347797 0.12867901 1.4761323e-38
-0.323569 0.0731332 0.12960599 1.4296774e-38
-0.32273501 0.074036703 0.130329 1.4109876e-38
-0.28911999 0.0114125 0.151684 8.773625e-39
-0.28906599 0.0124548 0.151795 8.0360627e-39
-0.28883001 0.0134513 0.15204901 7.8505981e-39
-0.28877601 0.014494 0.15216 8.4963178e-39
-0.28908601 0.015634499 0.151985 8.6810678e-39
-0.28939801 0.016780199 0.15180799 9.2338758e-39
-0.28970999 0.017930999 0.151631 9.4200622e-39
-0.29076499 0.019296899 0.15087201 9.6037318e-39
-0.29071 0.0203554 0.150985 9.6048108e-39
-0.29009899 0.0212509 0.15153401 9.9746709e-39
-0.28986001 0.022252301 0.15179101 1.1914352e-38
-0.289253 0.0231403 0.152335 1.4590526e-38
-0.28919899 0.024194499 0.152448 1.6526267e-38
-0.31748399 0.050397702 0.131412 1.5695786e-38
-0.31766301 0.051723201 0.13135301 1.5791213e-38
-0.317599 0.052954402 0.131484 1.5700098e-38
-0.31753501 0.054186501 0.131615 1.4962894e-38
-0.317471 0.0554194 0.13174599 1.4041661e-38
-0.317895 0.056857798 0.13149901 1.4226055e-38
-0.318075 0.058199301 0.131441 1.5700466e-38
-0.31825501 0.059544601 0.131383 1.6528066e-38
-0.31819099 0.0607864 0.131515 1.6064208e-38
-0.31935799 0.062575303 0.130693 1.5142974e-38
-0.32154599 0.0648375 0.129081 1.4776708e-38
-0.32224101 0.066447899 0.128627 1.4962541e-38
-0.32243001 0.067834698 0.128565 1.4962901e-38
-0.322364 0.069106497 0.1287 1.5146573e-38
-0.32229701 0.070379198 0.12883499 1.5605757e-38
-0.32197699 0.071530998 0.12916701 1.5508547e-38
-0.321657 0.072681002 0.129499 1.5041846e-38
-0.321338 0.073829398 0.12983 1.4299283e-38
-0.32101899 0.0749759 0.13016 1.3465232e-38
-0.320701 0.076120801 0.13048901 1.3556712e-38
-0.28838199 0.0114432 0.15094399 8.3130112e-39
-0.28814599 0.0124401 0.151199 7.5732909e-39
-0.288091 0.0134822 0.15131 6.929725e-39
-0.288037 0.014525 0.15142 8.1271822e-39
-0.287983 0.0155685 0.151531 8.7736236e-39
-0.288109 0.0166623 0.151498 8.8658164e-39
-0.28823599 0.0177589 0.151465 9.3275092e-39
-0.288546 0.018910101 0.151288 9.5111774e-39
-0.28849101 0.019960601 0.151399 9.6044506e-39
-0.288436 0.021011701 0.151511 9.6058898e-39
-0.28801799 0.021953899 0.15191001 1.0899131e-38
-0.287781 0.022948699 0.152165 1.348311e-38
-0.287727 0.023998899 0.15227699 1.624896e-38
-0.28803501 0.0251655 0.15210199 1.6525185e-38
-0.29623899 0.034508899 0.14604899 1.4777783e-38
-0.29618099 0.035615001 0.146167 1.6067445e-38
-0.31661999 0.050436001 0.130547 1.578762e-38
-0.31655601 0.051665101 0.130678 1.5973446e-38
-0.31673399 0.052993 0.13061801 1.5975603e-38
-0.31667 0.054225098 0.130749 1.5700099e-38
-0.31660599 0.055458099 0.13088 1.551499e-38
-0.31654099 0.056692 0.13101099 1.4870703e-38
-0.316477 0.0579267 0.13114201 1.4871789e-38
-0.31665501 0.059267301 0.131084 1.5976694e-38
-0.31683299 0.060611699 0.131025 1.6527703e-38
-0.317011 0.061960101 0.13096599 1.5881615e-38
-0.31767899 0.063532896 0.13052499 1.532916e-38
-0.31884599 0.065343097 0.129695 1.5052937e-38
-0.32002601 0.0671748 0.128856 1.4408294e-38
-0.32021099 0.068555601 0.128794 1.3764005e-38
-0.32014501 0.069821097 0.128929 1.4317896e-38
-0.320079 0.071087502 0.129063 1.5238052e-38
-0.32001299 0.072354801 0.129197 1.5512132e-38
-0.319947 0.073623002 0.12933201 1.5138704e-38
-0.31963 0.074767299 0.12966201 1.4486175e-38
-0.31956401 0.076035798 0.129796 1.3652843e-38
-0.319498 0.077305101 0.129931 1.3741819e-38
-0.31968099 0.078704402 0.129871 1.3464153e-38
-0.28764299 0.011474 0.150204 7.7598374e-39
-0.28740701 0.0124709 0.15046 6.7442603e-39
-0.28735301 0.0135131 0.15057001 7.2974285e-39
-0.28729799 0.0145559 0.15068001 8.2190289e-39
-0.28724301 0.0155995 0.150791 8.7736236e-39
-0.28700799 0.016594401 0.15104599 8.5892309e-39
-0.28695399 0.0176384 0.15115599 9.1420432e-39
-0.28725901 0.018786199 0.150979 9.3271491e-39
-0.28720501 0.019833701 0.15109 9.4207796e-39
-0.28696901 0.020828299 0.151345 9.4214943e-39
-0.28673401 0.0218217 0.151599 1.0159775e-38
-0.28632101 0.022758599 0.151996 1.2744107e-38
-0.28608701 0.0237487 0.15225001 1.5419919e-38
-0.28603199 0.0247947 0.15236101 1.6434071e-38
-0.295517 0.033437502 0.145152 1.2935682e-38
-0.29545999 0.0345429 0.14526901 1.3856193e-38
-0.29540199 0.035649002 0.145386 1.5790495e-38
-0.295344 0.036755901 0.145504 1.6249674e-38
-0.29528499 0.037863601 0.145621 1.5696142e-38
-0.31593299 0.051800098 0.129622 1.5787979e-38
-0.315869 0.0530315 0.12975299 1.5974525e-38
-0.315804 0.0542638 0.12988301 1.5975967e-38
-0.31573999 0.055496901 0.130014 1.6529145e-38
-0.31567499 0.056730799 0.130144 1.6620983e-38
-0.31536901 0.0578622 0.130465 1.5514634e-38
-0.31530499 0.0590964 0.130596 1.4962542e-38
-0.315 0.060225502 0.130916 1.5424962e-38
-0.314935 0.0614601 0.131047 1.6068171e-38
-0.31535101 0.062913403 0.130799 1.625004e-38
-0.31601101 0.064485103 0.13035899 1.5788343e-38
-0.31740901 0.066409603 0.129337 1.4772757e-38
-0.31808299 0.068010896 0.128887 1.2931013e-38
-0.31826401 0.069387302 0.12882601 1.2288886e-38
-0.318694 0.070887603 0.12856901 1.3211913e-38
-0.31887701 0.072273798 0.128507 1.4134225e-38
-0.31880999 0.073540598 0.12864099 1.4869996e-38
-0.318744 0.0748083 0.128775 1.5326312e-38
-0.31867799 0.076076902 0.12891001 1.486248e-38
-0.318611 0.077346303 0.129044 1.4670569e-38
-0.318544 0.078616701 0.129179 1.3927989e-38
-0.31847799 0.079887897 0.12931301 1.3832209e-38
-0.31841099 0.081160001 0.129448 1.318828e-38
-0.318344 0.082433 0.129583 1.3557062e-38
-0.28655899 0.0145869 0.14994 9.6009039e-39
-0.28632399 0.0155821 0.150196 8.6821496e-39
-0.28608999 0.0165761 0.150451 8.4981157e-39
-0.286035 0.0176192 0.150561 8.8658178e-39
-0.28597999 0.018663101 0.15067101 9.2353164e-39
-0.285925 0.0197076 0.15078101 9.4200636e-39
-0.28586999 0.020752801 0.150892 9.4204195e-39
-0.28527999 0.021636199 0.15143301 9.6988029e-39
-0.28487101 0.0225699 0.151829 1.1728885e-38
-0.28428701 0.0234452 0.152365 1.4314297e-38
-0.28405601 0.0244289 0.15261599 1.6434787e-38
-0.284706 0.0256992 0.15215901 1.6525183e-38
-0.29473901 0.033471402 0.144373 1.3395581e-38
-0.29468 0.0345769 0.14448901 1.3303738e-38
-0.294622 0.035683099 0.14460599 1.5054727e-38
-0.29436699 0.036718 0.144881 1.6158916e-38
-0.29372299 0.037605699 0.145467 1.5972011e-38
-0.294447 0.039006401 0.14495701 1.560287e-38
-0.31480899 0.056769699 0.12927701 1.7172726e-38
-0.314504 0.057901099 0.129599 1.6527348e-38
-0.31372201 0.058822099 0.1303 1.4962181e-38
-0.31318301 0.059842799 0.13080899 1.4134948e-38
-0.31311801 0.061071999 0.13093901 1.5055823e-38
-0.31329 0.062410001 0.13088 1.6159648e-38
-0.31393901 0.063971303 0.13044199 1.6434433e-38
-0.31459299 0.065544002 0.13000201 1.5878738e-38
-0.31597799 0.067472398 0.128979 1.4127031e-38
-0.31639999 0.068957403 0.12872399 1.28381e-38
-0.31706899 0.070569202 0.128272 1.2379278e-38
-0.317249 0.071950398 0.12820999 1.2105215e-38
-0.31742999 0.073335603 0.128148 1.2936408e-38
-0.31736299 0.074600503 0.128281 1.4042032e-38
-0.317543 0.075992003 0.12821899 1.4870356e-38
-0.31747699 0.077260099 0.128353 1.5234838e-38
-0.31765699 0.078658 0.128291 1.5136907e-38
-0.31759 0.0799293 0.128425 1.4761683e-38
-0.317523 0.081201598 0.12856001 1.3467737e-38
-0.31745601 0.082474597 0.128694 1.3557423e-38
-0.31738901 0.083748601 0.128829 1.3926567e-38
-0.31707501 0.0848874 0.129159 1.4294271e-38
-0.28540701 0.0155647 0.149602 8.6817881e-39
-0.28535199 0.016607201 0.149711 8.4973954e-39
-0.285119 0.0176001 0.149966 8.5892323e-39
-0.28470799 0.0185406 0.150365 9.144197e-39
-0.28465301 0.019582201 0.150475 9.4200608e-39
-0.28459799 0.0206246 0.150585 9.3278679e-39
-0.284013 0.021505799 0.151125 9.6062499e-39
-0.28308299 0.022274001 0.15194599 1.0897696e-38
-0.28285399 0.0232553 0.152197 1.3575659e-38
-0.28262499 0.0242355 0.152447 1.5973449e-38
-0.28257099 0.0252715 0.152556 1.6341871e-38
-0.29125401 0.032553799 0.14578401 1.4040231e-38
-0.291197 0.033643998 0.145899 1.3027513e-38
-0.29094899 0.034665801 0.146167 1.4133136e-38
-0.29089099 0.035756402 0.146282 1.5882331e-38
-0.290833 0.0368478 0.14639699 1.6432985e-38
-0.290775 0.037939899 0.146513 1.578762e-38
-0.313227 0.0565027 0.128986 1.6804291e-38
-0.31127799 0.0569169 0.130632 1.6528783e-38
-0.31097999 0.058035299 0.13094801 1.5699746e-38
-0.31091499 0.059255701 0.13107701 1.5053659e-38
-0.31085101 0.060476899 0.13120601 1.4501207e-38
-0.311019 0.061805401 0.131147 1.4411173e-38
-0.31189099 0.0634633 0.13052499 1.5424602e-38
-0.31277001 0.065136798 0.129896 1.6435866e-38
-0.313418 0.066712603 0.129454 1.6156044e-38
-0.314311 0.0684155 0.12881599 1.4956786e-38
-0.31521201 0.070134602 0.12817299 1.3850805e-38
-0.315633 0.071629196 0.12791499 1.2746265e-38
-0.316055 0.073131502 0.127656 1.2195608e-38
-0.31623301 0.074517399 0.127593 1.2105216e-38
-0.31616601 0.075781897 0.127727 1.2844569e-38
-0.31634501 0.077174097 0.127664 1.3858e-38
-0.316524 0.078570403 0.127601 1.5052946e-38
-0.31645599 0.079840399 0.12773401 1.5326314e-38
-0.31638899 0.081111297 0.127868 1.4952161e-38
-0.31656799 0.082516298 0.12780599 1.4485819e-38
-0.316255 0.0836557 0.12813701 1.4112744e-38
-0.31618699 0.084929198 0.128271 1.4111315e-38
-0.31587401 0.086066402 0.128601 1.4386464e-38
-0.28484699 0.0156442 0.148716 8.7739823e-39
-0.28461301 0.016638299 0.148972 8.4981143e-39
-0.28385001 0.017480699 0.149663 8.4981129e-39
-0.28361899 0.018469701 0.14991701 9.0505664e-39
-0.28338799 0.0194575 0.15017 9.1434753e-39
-0.283158 0.020444199 0.15042301 9.3282253e-39
-0.28205901 0.021162899 0.151388 9.6055296e-39
-0.28165901 0.0220889 0.15177999 1.0251972e-38
-0.28126001 0.0230121 0.15217 1.24686e-38
-0.28103399 0.023987999 0.152419 1.5144053e-38
-0.28063801 0.024906401 0.152807 1.6158923e-38
-0.28126699 0.026166299 0.152355 1.6249317e-38
-0.29010701 0.032453399 0.14532401 1.4962184e-38
-0.29004899 0.033541501 0.145439 1.311971e-38
-0.28999099 0.034630399 0.14555299 1.3396294e-38
-0.289933 0.035719998 0.145668 1.5238399e-38
-0.28987601 0.036810402 0.14578199 1.6158916e-38
-0.28981799 0.037901498 0.145897 1.6064205e-38
-0.28975999 0.038993299 0.14601199 1.5695067e-38
-0.312428 0.0553113 0.127993 1.5698305e-38
-0.31048599 0.055735201 0.129647 1.6067805e-38
-0.31018901 0.0568542 0.12996399 1.616072e-38
-0.30989301 0.0579716 0.13028 1.6436945e-38
-0.30982801 0.059190799 0.130408 1.6619539e-38
-0.30976301 0.060410801 0.130537 1.5422439e-38
-0.30993 0.061737899 0.130477 1.4133502e-38
-0.310096 0.063068703 0.130418 1.4042029e-38
-0.31096399 0.064733103 0.129792 1.5239848e-38
-0.31183901 0.066413201 0.12916 1.6344032e-38
-0.31248301 0.067994297 0.12871499 1.5789063e-38
-0.31313199 0.069586799 0.12826701 1.5325928e-38
-0.31450999 0.071549602 0.127231 1.4679844e-38
-0.314686 0.072928302 0.127167 1.3667136e-38
-0.314619 0.0741878 0.12729999 1.2562596e-38
-0.31479499 0.075572699 0.12723599 1.1920099e-38
-0.31472799 0.076835401 0.127369 1.1921181e-38
-0.314904 0.078226604 0.127305 1.3027879e-38
-0.315081 0.079622 0.127242 1.3949476e-38
-0.31501299 0.080890097 0.12737501 1.4777082e-38
-0.314946 0.082158998 0.127509 1.5050449e-38
-0.31536701 0.083697401 0.127249 1.4952522e-38
-0.315299 0.0849711 0.12738299 1.4578732e-38
-0.314987 0.086108297 0.12771299 1.4572997e-38
-0.31492001 0.087382197 0.127847 1.4754162e-38
-0.314365 0.088377602 0.128373 1.4477221e-38
-0.28405201 0.0167189 0.148086 8.4973982e-39
-0.28293899 0.0174617 0.14907099 8.5892351e-39
-0.282186 0.0182977 0.149758 8.9572932e-39
-0.281611 0.019179299 0.150297 9.3275064e-39
-0.28121099 0.020108599 0.150691 9.4197034e-39
-0.280642 0.020982301 0.151225 9.4207824e-39
-0.28024599 0.021905299 0.15161499 9.791716e-39
-0.27985099 0.022825399 0.152004 1.1544852e-38
-0.27928901 0.023687899 0.152531 1.4221383e-38
-0.278898 0.0246018 0.152916 1.5973813e-38
-0.27901101 0.025682701 0.152885 1.6341154e-38
-0.28928199 0.033574998 0.14467099 1.3488135e-38
-0.289224 0.034663901 0.144785 1.3027514e-38
-0.28897801 0.035683699 0.145054 1.422677e-38
-0.28873199 0.0367021 0.14532299 1.569938e-38
-0.28830001 0.037647601 0.145744 1.6157479e-38
-0.286762 0.038158 0.147075 1.5695427e-38
-0.28670499 0.039237801 0.14718901 1.5511397e-38
-0.31163001 0.0541206 0.12699901 1.5512472e-38
-0.31086001 0.0550499 0.127707 1.560395e-38
-0.30963001 0.055773702 0.12879001 1.5605031e-38
-0.30910301 0.056791801 0.129297 1.6158558e-38
-0.30903801 0.058010198 0.129425 1.6252191e-38
-0.30897301 0.0592294 0.12955201 1.6161797e-38
-0.308907 0.0604495 0.12968101 1.5977408e-38
-0.308842 0.0616704 0.12980901 1.5515352e-38
-0.30923799 0.063107803 0.12955999 1.4592684e-38
-0.30940399 0.064442597 0.129499 1.4132789e-38
-0.31050301 0.066228002 0.128677 1.4595199e-38
-0.31090599 0.067690797 0.12842301 1.5330603e-38
-0.311784 0.069393396 0.127782 1.5695789e-38
-0.31243101 0.070993401 0.127331 1.5417767e-38
-0.31284299 0.0724843 0.12707201 1.4866033e-38
-0.313256 0.073982798 0.126812 1.4405058e-38
-0.313189 0.075240403 0.12694401 1.3667853e-38
-0.313122 0.076498903 0.127076 1.2929936e-38
-0.31305501 0.0777582 0.12720799 1.2287082e-38
-0.31322801 0.079146802 0.12714501 1.1920824e-38
-0.31316099 0.080409303 0.127277 1.2751298e-38
-0.31309301 0.081672698 0.12740999 1.3765088e-38
-0.31399301 0.083470598 0.126756 1.4776723e-38
-0.31416801 0.084876999 0.126692 1.5233759e-38
-0.3141 0.086150199 0.126826 1.5319864e-38
-0.31378901 0.087285802 0.127157 1.5130464e-38
-0.313721 0.0885593 0.12729 1.4665194e-38
-0.313411 0.0896926 0.12762 1.4386101e-38
-0.31334299 0.0909665 0.127754 1.4385745e-38
-0.28308001 0.017743999 0.14760201 8.4981129e-39
-0.28093499 0.018177399 0.14945699 8.589947e-39
-0.279854 0.0189043 0.15042301 9.2353108e-39
-0.27979901 0.019932101 0.15053 9.2349534e-39
-0.27940401 0.0208556 0.150921 9.328584e-39
-0.27901101 0.021776199 0.15131 9.790637e-39
-0.27794999 0.022479 0.152257 1.0714379e-38
-0.277729 0.0234455 0.152502 1.2930654e-38
-0.27750799 0.0244109 0.152748 1.5512838e-38
-0.27745301 0.025431501 0.15285499 1.6434065e-38
-0.288515 0.033608399 0.143903 1.4225695e-38
-0.288082 0.034559701 0.144328 1.2843485e-38
-0.28654301 0.0350933 0.14567199 1.3581404e-38
-0.285936 0.0359644 0.14624099 1.5514987e-38
-0.28533199 0.0368311 0.146807 1.6250753e-38
-0.28527501 0.037906099 0.146919 1.5788344e-38
-0.28521699 0.038981799 0.14703199 1.5511399e-38
-0.28515899 0.0400583 0.147145 1.5511397e-38
-0.31076699 0.054159101 0.12613501 1.5419918e-38
-0.30999899 0.055088501 0.126845 1.5511393e-38
-0.30877399 0.055812102 0.127933 1.5511394e-38
-0.308478 0.056931201 0.128251 1.5604668e-38
-0.30818301 0.0580488 0.12856901 1.5606827e-38
-0.308117 0.059268098 0.12869699 1.5883773e-38
-0.308052 0.060488299 0.128824 1.6161074e-38
-0.30798599 0.0617093 0.128952 1.6161797e-38
-0.30838001 0.0631468 0.128701 1.5607553e-38
-0.30854499 0.064481802 0.128639 1.4039874e-38
-0.30917299 0.066043504 0.128195 1.3303024e-38
-0.30980599 0.0676165 0.127749 1.4593037e-38
-0.310442 0.069200903 0.127299 1.5603953e-38
-0.31061101 0.070560902 0.12723599 1.5509961e-38
-0.31101599 0.072044298 0.126977 1.5050065e-38
-0.311423 0.073535196 0.126718 1.4682365e-38
-0.31159401 0.074910298 0.126654 1.4774199e-38
-0.311526 0.0761647 0.126785 1.477276e-38
-0.311459 0.077419803 0.12691601 1.4036994e-38
-0.31163001 0.078803502 0.12685201 1.2931373e-38
-0.311562 0.080061898 0.126984 1.2378918e-38
-0.31149501 0.081321098 0.12711599 1.1920105e-38
-0.311427 0.0825812 0.127248 1.275058e-38
-0.312316 0.084378101 0.126596 1.3856563e-38
-0.31248799 0.085781798 0.126532 1.4775644e-38
-0.31266099 0.0871896 0.126467 1.5141925e-38
-0.31259301 0.088461697 0.1266 1.5136911e-38
-0.31276599 0.089875899 0.126536 1.4854596e-38
-0.31269699 0.091151297 0.12667 1.4665194e-38
-0.31262901 0.092427596 0.126803 1.4753803e-38
-0.31255999 0.0937047 0.126937 1.4661611e-38
-0.312251 0.0948359 0.127268 1.4845642e-38
-0.27918199 0.017907901 0.14958701 8.5888736e-39
-0.27794901 0.018582201 0.15068799 9.2342346e-39
-0.27789399 0.0196034 0.150794 9.4189804e-39
-0.27767199 0.020573299 0.151041 9.4204195e-39
-0.276952 0.021384301 0.15170699 9.7888405e-39
-0.27656701 0.0222962 0.15209199 1.0160852e-38
-0.27618399 0.0232054 0.152474 1.2191654e-38
-0.27596501 0.024166601 0.15271799 1.4866748e-38
-0.275583 0.0250712 0.153099 1.6066366e-38
-0.275529 0.0260859 0.15320501 1.6340436e-38
-0.28584099 0.034047399 0.144798 1.3119712e-38
-0.28469101 0.034716502 0.145825 1.3120067e-38
-0.28463399 0.035790101 0.14593799 1.4686667e-38
-0.284576 0.0368644 0.14605001 1.5975608e-38
-0.284518 0.0379395 0.146162 1.6157123e-38
-0.28374001 0.038727898 0.14687601 1.5970936e-38
-0.28332499 0.039655201 0.14728799 1.5694349e-38
-0.28398401 0.041021001 0.1468 1.5511036e-38
-0.309138 0.055126999 0.125984 1.5419919e-38
-0.308377 0.056051001 0.126692 1.5511755e-38
-0.30785099 0.057071 0.127204 1.5512113e-38
-0.307556 0.058189701 0.12752201 1.5512116e-38
-0.307262 0.0593068 0.127841 1.5605391e-38
-0.30719599 0.060527001 0.127968 1.5883773e-38
-0.30735901 0.061854601 0.127905 1.5977049e-38
-0.307522 0.0631859 0.12784199 1.5516438e-38
-0.30768499 0.064521 0.12777901 1.4040234e-38
-0.30807999 0.0659713 0.127524 1.3209752e-38
-0.30893999 0.067656197 0.126882 1.4315014e-38
-0.30910599 0.0690092 0.126818 1.5510318e-38
-0.309506 0.070483401 0.126559 1.5418125e-38
-0.30967301 0.071845897 0.126495 1.4865675e-38
-0.30984101 0.073212199 0.12643 1.3759699e-38
-0.310009 0.074582398 0.12636501 1.3206169e-38
-0.30994201 0.075832702 0.126496 1.3576744e-38
-0.309874 0.077083804 0.126626 1.4223547e-38
-0.310278 0.078589499 0.126366 1.4590528e-38
-0.310211 0.079845197 0.126498 1.4221743e-38
-0.30990699 0.0809718 0.12682401 1.3114328e-38
-0.30983901 0.082227796 0.126955 1.2377843e-38
-0.31048 0.083883598 0.1265 1.2011942e-38
-0.31041199 0.085145503 0.126632 1.2658024e-38
-0.311057 0.086818598 0.126174 1.3764368e-38
-0.31146699 0.0883644 0.125912 1.4591973e-38
-0.311638 0.089777 0.125847 1.5049368e-38
-0.311809 0.091193601 0.125782 1.5135835e-38
-0.31174099 0.092469998 0.12591501 1.503791e-38
-0.311912 0.093893103 0.12585001 1.4665554e-38
-0.31184301 0.095172703 0.125984 1.4754165e-38
-0.31177399 0.096453197 0.12611701 1.4937119e-38
-0.277226 0.0186128 0.149964 8.9576519e-39
-0.27634299 0.019379901 0.150775 9.235315e-39
-0.27595901 0.020294299 0.15116 9.3278679e-39
-0.27574 0.021258 0.15140601 9.6962875e-39
-0.27535799 0.022167699 0.15178899 9.8828326e-39
-0.27465299 0.022967501 0.152446 1.1268986e-38
-0.274275 0.023870301 0.152826 1.4035913e-38
-0.27389801 0.0247705 0.15320399 1.5880896e-38
-0.27368301 0.025723901 0.15344501 1.6340796e-38
-0.27378899 0.026789499 0.15341499 1.6431552e-38
-0.28399301 0.033676699 0.14495701 1.394839e-38
-0.28393501 0.034749601 0.145069 1.2750933e-38
-0.28369701 0.035754301 0.14533301 1.4133139e-38
-0.28345999 0.036757901 0.145596 1.5607187e-38
-0.28304401 0.0376895 0.14601 1.6341512e-38
-0.281746 0.038263299 0.14716899 1.6339717e-38
-0.281688 0.039328501 0.14727999 1.6062413e-38
-0.28163001 0.040394399 0.14739101 1.5603231e-38
-0.307749 0.0561901 0.12563901 1.5511037e-38
-0.30768299 0.057414699 0.12576599 1.5511756e-38
-0.307616 0.058640201 0.125894 1.5419922e-38
-0.307091 0.059657399 0.126408 1.5419202e-38
-0.306568 0.060670901 0.12692 1.5420639e-38
-0.30673 0.0620002 0.126856 1.5514636e-38
-0.30689201 0.063333198 0.126791 1.505402e-38
-0.307055 0.064669997 0.126727 1.4130631e-38
-0.30767801 0.066234402 0.126275 1.3945878e-38
-0.30761099 0.067468502 0.126404 1.4775273e-38
-0.308007 0.068933599 0.12614501 1.5326649e-38
-0.30817199 0.070289001 0.12608001 1.5326647e-38
-0.30856901 0.071767002 0.125819 1.4589092e-38
-0.30873501 0.073131897 0.125753 1.2559733e-38
-0.30866799 0.074378602 0.125883 1.1082092e-38
-0.30860001 0.075626098 0.126013 1.1177876e-38
-0.30853301 0.076874502 0.12614299 1.2009788e-38
-0.30869901 0.078249998 0.12607799 1.3210119e-38
-0.308631 0.079501599 0.12620901 1.4224267e-38
-0.30833 0.080624998 0.126534 1.4773842e-38
-0.30826199 0.081876799 0.126664 1.422067e-38
-0.30842799 0.0832614 0.1266 1.3206523e-38
-0.309062 0.084917903 0.12614501 1.2377843e-38
-0.30922899 0.086313903 0.12608001 1.2011582e-38
-0.309632 0.0878518 0.125818 1.256583e-38
-0.31027499 0.089537703 0.125357 1.3579618e-38
-0.310682 0.091093302 0.125093 1.4591617e-38
-0.31085199 0.092512503 0.125027 1.5141565e-38
-0.311023 0.093935698 0.12496 1.5136553e-38
-0.310954 0.095215403 0.125094 1.503827e-38
-0.311124 0.096645199 0.125027 1.4848863e-38
-0.311055 0.097928099 0.12516101 1.4753085e-38
-0.31122601 0.099364303 0.12509499 1.4383587e-38
-0.27562401 0.0194105 0.15005501 9.1438396e-39
-0.27507699 0.020273499 0.150581 9.3275078e-39
-0.27469599 0.0211844 0.150966 9.3289413e-39
-0.27383199 0.021934699 0.15176401 9.6058898e-39
-0.27313501 0.0227318 0.152419 1.0531066e-38
-0.272762 0.023631001 0.152796 1.2837378e-38
-0.27270699 0.024636799 0.15290099 1.5236607e-38
-0.272493 0.0255877 0.15314101 1.6157843e-38
-0.272439 0.026593899 0.153246 1.6248241e-38
-0.28323701 0.033709701 0.1442 1.477779e-38
-0.28299999 0.034714799 0.144465 1.2843129e-38
-0.28187501 0.0353764 0.145487 1.3395937e-38
-0.28093699 0.036099501 0.146348 1.505509e-38
-0.28070399 0.037092801 0.146607 1.6066365e-38
-0.28047201 0.038084999 0.14686599 1.6432268e-38
-0.28024 0.039076 0.14712501 1.624752e-38
-0.28018299 0.040137898 0.14723501 1.5970576e-38
-0.28012499 0.0412005 0.147346 1.5602514e-38
-0.307713 0.054076999 0.123937 1.532701e-38
-0.30764601 0.055304099 0.124064 1.5419203e-38
-0.307349 0.056430701 0.124388 1.5419202e-38
-0.307282 0.057658099 0.124515 1.5327722e-38
-0.30721599 0.058886401 0.124643 1.5419559e-38
-0.30691901 0.060010299 0.124966 1.5327365e-38
-0.30639401 0.061026599 0.12548301 1.5326649e-38
-0.306328 0.0622533 0.12560999 1.5327368e-38
-0.306261 0.063480899 0.12573799 1.4959307e-38
-0.30665201 0.064929903 0.125477 1.4773839e-38
-0.30681399 0.066273898 0.125411 1.4958226e-38
-0.30674699 0.067508101 0.125539 1.5234813e-38
-0.30667999 0.068743199 0.125668 1.5418486e-38
-0.307073 0.070212103 0.125407 1.5418124e-38
-0.307468 0.071688399 0.125145 1.4494743e-38
-0.30739999 0.072931603 0.125274 1.1634912e-38
-0.30756399 0.0742971 0.12520801 1.006615e-38
-0.30759299 0.078164503 0.12540101 1.1086755e-38
-0.30752501 0.0794148 0.125531 1.219274e-38
-0.307457 0.080665901 0.125661 1.3300878e-38
-0.30715701 0.081787698 0.12598599 1.4223189e-38
-0.30732101 0.083170801 0.125921 1.4773839e-38
-0.307253 0.084424503 0.12605099 1.4220668e-38
-0.30788201 0.086084098 0.125594 1.3206523e-38
-0.308281 0.087618001 0.125332 1.2377486e-38
-0.30868199 0.089159802 0.12506799 1.2102698e-38
-0.30932099 0.090851203 0.124605 1.2565471e-38
-0.309726 0.092410803 0.124338 1.3579618e-38
-0.30989501 0.093832403 0.124271 1.4591256e-38
-0.310063 0.095258199 0.124203 1.5049009e-38
-0.310233 0.096688002 0.124136 1.5228025e-38
-0.31040201 0.098122098 0.124068 1.5037548e-38
-0.310332 0.099407502 0.124202 1.4203858e-38
-0.310743 0.101003 0.123933 1.4018042e-38
-0.27403501 0.0202017 0.150144 9.327505e-39
-0.273334 0.021007599 0.15080699 9.3278665e-39
-0.27232 0.021703901 0.15174 9.4214999e-39
-0.27194801 0.022603599 0.152118 9.9768219e-39
-0.27173501 0.0235542 0.15235899 1.2006905e-38
-0.27168 0.0245582 0.152463 1.4314302e-38
-0.271153 0.025397001 0.15297499 1.6065653e-38
-0.270785 0.0262878 0.153349 1.6156767e-38
-0.270574 0.0272326 0.153587 1.6063133e-38
-0.28118101 0.034342799 0.14462399 1.339558e-38
-0.27955201 0.034801301 0.14608701 1.3027153e-38
-0.27949399 0.035859302 0.14619701 1.4593754e-38
-0.27943599 0.0369181 0.14630701 1.6067082e-38
-0.27937901 0.037977699 0.14641599 1.6433342e-38
-0.27932101 0.039037898 0.14652599 1.6431909e-38
-0.27908999 0.040026899 0.14678501 1.6247162e-38
-0.27920499 0.041160699 0.14674599 1.6155685e-38
-0.279147 0.0422231 0.14685699 1.5971655e-38
-0.27960801 0.0435124 0.146521 1.5971298e-38
-0.27954999 0.044579402 0.146632 1.5878741e-38
-0.30665001 0.0577996 0.123456 1.5694348e-38
-0.306353 0.058925301 0.12378 1.5510315e-38
-0.30628601 0.060154501 0.123908 1.5510677e-38
-0.30576199 0.061171599 0.124427 1.5602155e-38
-0.30546701 0.062292401 0.124749 1.5601796e-38
-0.30585599 0.063738003 0.124486 1.532665e-38
-0.30578899 0.064969197 0.124614 1.5235173e-38
-0.305722 0.066201396 0.124742 1.5327366e-38
-0.30588299 0.067547701 0.124674 1.5418843e-38
-0.30581501 0.068782903 0.124803 1.551032e-38
-0.30574799 0.070018902 0.124931 1.5233017e-38
-0.30613899 0.071491703 0.124668 1.3756107e-38
-0.30653101 0.072971798 0.124404 1.0895913e-38
-0.306054 0.081698798 0.12530901 1.200835e-38
-0.306216 0.083080299 0.12524299 1.3300158e-38
-0.30637899 0.084465802 0.125177 1.4130991e-38
-0.30677301 0.085990302 0.124914 1.4773841e-38
-0.306936 0.087385401 0.124847 1.422067e-38
-0.30733201 0.088923298 0.124583 1.3389837e-38
-0.307731 0.090469003 0.124317 1.2560798e-38
-0.308366 0.092165798 0.123851 1.2102695e-38
-0.308532 0.093584001 0.123783 1.2472916e-38
-0.30869901 0.095006399 0.123715 1.3394869e-38
-0.30910301 0.096581697 0.123446 1.4498701e-38
-0.30950901 0.098165102 0.123175 1.5048649e-38
-0.309439 0.0994507 0.123309 1.4768128e-38
-0.309847 0.101046 0.123038 1.4578012e-38
-0.27166501 0.020729501 0.150925 9.1445543e-39
-0.271294 0.021630401 0.15130401 9.1449172e-39
-0.271081 0.0225813 0.151545 9.5151291e-39
-0.27086899 0.0235311 0.151786 1.108388e-38
-0.27050099 0.0244256 0.152163 1.3667856e-38
-0.270134 0.025317499 0.152538 1.5788704e-38
-0.269613 0.026151299 0.153047 1.6248962e-38
-0.26924899 0.027037401 0.153419 1.6064212e-38
-0.26903999 0.027977901 0.153657 1.6062772e-38
-0.279037 0.033842601 0.145082 1.4224617e-38
-0.27880701 0.034834001 0.14534099 1.2751649e-38
-0.27874899 0.035892099 0.14545099 1.3764358e-38
-0.278519 0.036881998 0.14571001 1.5789775e-38
-0.27828899 0.037870798 0.14596801 1.6433704e-38
-0.27823099 0.038929101 0.14607801 1.6524463e-38
-0.278173 0.039988201 0.14618701 1.6339359e-38
-0.27828601 0.041120801 0.146148 1.6340075e-38
-0.2784 0.042256501 0.146109 1.6247878e-38
-0.27868599 0.043470401 0.14592101 1.6063848e-38
-0.27880001 0.044613 0.145882 1.5972013e-38
-0.27874199 0.045680799 0.145992 1.6063489e-38
-0.305491 0.0589642 0.122917 1.6063128e-38
-0.30519599 0.060088199 0.123242 1.5879098e-38
-0.304674 0.061104499 0.123761 1.5879458e-38
-0.30506101 0.0625467 0.123496 1.5879099e-38
-0.30499399 0.063777201 0.123623 1.5787261e-38
-0.30492601 0.065008603 0.123751 1.5603592e-38
-0.304858 0.066240802 0.123878 1.5419562e-38
-0.304791 0.067473903 0.124006 1.5326649e-38
-0.30472299 0.068707801 0.124133 1.4864959e-38
-0.304656 0.069942601 0.124261 1.3942291e-38
-0.30481499 0.071295798 0.124193 1.2188072e-38
-0.30504599 0.084241197 0.124696 1.1824318e-38
-0.30543599 0.085761897 0.124432 1.3207964e-38
-0.30582699 0.087290302 0.124167 1.4038438e-38
-0.305989 0.0886878 0.1241 1.4681288e-38
-0.30638301 0.090229698 0.123833 1.4311428e-38
-0.306779 0.091779299 0.123566 1.3389475e-38
-0.30717599 0.093336798 0.123298 1.2468961e-38
-0.30757499 0.094902299 0.123028 1.1918664e-38
-0.30774099 0.096327104 0.122959 1.2380002e-38
-0.30814201 0.097906403 0.122688 1.3303034e-38
-0.30854601 0.099493802 0.122415 1.4039878e-38
-0.30895099 0.101089 0.122142 1.4956812e-38
-0.27063999 0.0206577 0.150491 9.2360296e-39
-0.270271 0.021557201 0.15087 9.0520027e-39
-0.27006 0.0225065 0.15111101 9.4214985e-39
-0.269849 0.0234547 0.151352 1.0437078e-38
-0.269483 0.024347801 0.151728 1.2654068e-38
-0.26911801 0.0252383 0.15210301 1.5419922e-38
-0.26875401 0.026126301 0.152477 1.6156772e-38
-0.26854599 0.027068 0.152715 1.6156407e-38
-0.26818401 0.027951499 0.15308701 1.6431191e-38
-0.27806199 0.034866702 0.144596 1.3119353e-38
-0.277832 0.035856899 0.14485499 1.3303022e-38
-0.277603 0.036846001 0.145114 1.4961098e-38
-0.277374 0.037834 0.145372 1.5882335e-38
-0.277145 0.038820699 0.145631 1.6064568e-38
-0.277087 0.039877798 0.14574 1.6247163e-38
-0.277199 0.041008301 0.14569999 1.5786186e-38
-0.27765301 0.042289801 0.145362 1.4865315e-38
-0.27776599 0.043428499 0.145322 1.4681642e-38
-0.277879 0.0445701 0.145282 1.5050782e-38
-0.27799201 0.045714598 0.14524201 1.5235175e-38
-0.30372301 0.058588602 0.122845 1.5511397e-38
-0.30433401 0.060127199 0.122379 1.5511397e-38
-0.30426601 0.061356101 0.122506 1.5603593e-38
-0.30419901 0.062585898 0.122633 1.5603231e-38
-0.304131 0.063816503 0.12276 1.541884e-38
-0.30406299 0.065048002 0.122887 1.5142256e-38
-0.30399501 0.066280298 0.123014 1.4589091e-38
-0.30370101 0.067400202 0.123338 1.3943009e-38
-0.30318299 0.068404399 0.123858 1.2927788e-38
-0.30311501 0.069635198 0.123985 1.1542707e-38
-0.304492 0.087059103 0.123687 1.1731765e-38
-0.30488101 0.088591397 0.12342 1.2931021e-38
-0.30527201 0.090131402 0.123152 1.3853689e-38
-0.30543301 0.091537103 0.123083 1.4589092e-38
-0.30582601 0.093090698 0.122814 1.4311785e-38
-0.30622101 0.094652198 0.122544 1.3206521e-38
-0.30661801 0.096221603 0.122272 1.2560076e-38
-0.30725101 0.097949401 0.121796 1.1642439e-38
-0.30765301 0.099537 0.121522 1.1920821e-38
-0.30758199 0.100824 0.121655 1.3302312e-38
-0.269775 0.020637101 0.14992 9.3271477e-39
-0.269252 0.0214842 0.150438 8.9598099e-39
-0.26919699 0.022484301 0.15054099 9.2360352e-39
-0.268832 0.023378599 0.15091801 1.0159058e-38
-0.26846799 0.0242703 0.15129501 1.2191298e-38
-0.26825899 0.0252141 0.15153401 1.5511404e-38
-0.26804999 0.0261568 0.15177301 1.6801421e-38
-0.26784199 0.027098499 0.15201101 1.6525185e-38
-0.26748201 0.0279822 0.152384 1.6248598e-38
-0.26727399 0.028921001 0.152621 1.6524103e-38
-0.277087 0.0358897 0.14410999 1.431322e-38
-0.27668801 0.0368101 0.144519 1.4866031e-38
-0.27629101 0.037727699 0.144927 1.5972374e-38
-0.27606401 0.038712699 0.14518499 1.6248241e-38
-0.276005 0.039767899 0.145294 1.6247162e-38
-0.27611601 0.0408962 0.145254 1.4863882e-38
-0.276566 0.042174999 0.144914 1.3110384e-38
-0.276847 0.043386601 0.144724 1.2281704e-38
-0.276959 0.044527199 0.144683 1.2374976e-38
-0.277071 0.045670599 0.144642 1.2652641e-38
-0.30347201 0.060166098 0.121517 1.3390916e-38
-0.30362999 0.061501902 0.121445 1.3482393e-38
-0.30356199 0.062733099 0.121571 1.3573509e-38
-0.30349401 0.063965201 0.121698 1.3296567e-38
-0.303426 0.065198198 0.121825 1.3018906e-38
-0.303132 0.066319801 0.12215 1.2465022e-38
-0.302614 0.067326702 0.122672 1.1634908e-38
-0.302322 0.068443999 0.122996 1.0895907e-38
-0.30354699 0.088357396 0.122941 1.0715822e-38
-0.30393401 0.089893602 0.122672 1.1639209e-38
-0.304322 0.091437504 0.122403 1.2838824e-38
-0.30448201 0.092845701 0.122333 1.3761494e-38
-0.30487201 0.0944032 0.122061 1.422175e-38
-0.30526501 0.095968597 0.121789 1.4219951e-38
-0.30589199 0.097691797 0.121313 1.3206522e-38
-0.30605501 0.099123403 0.121241 1.2468239e-38
-0.30668801 0.100867 0.120761 1.1550245e-38
-0.268756 0.0205657 0.149489 9.4193433e-39
-0.26839101 0.021462999 0.149868 9.1431222e-39
-0.268181 0.022409899 0.15010899 9.3275078e-39
-0.26797199 0.023355899 0.15034901 1.0067584e-38
-0.26776299 0.0243007 0.150589 1.2005476e-38
-0.26755399 0.025244599 0.150829 1.3944811e-38
-0.26734599 0.026187399 0.151068 1.4591256e-38
-0.267138 0.027129199 0.151307 1.5144417e-38
-0.266931 0.0280699 0.151545 1.5605033e-38
-0.26672301 0.029009599 0.151783 1.6248961e-38
-0.27560699 0.036705699 0.144076 1.5878741e-38
-0.274212 0.037208799 0.145376 1.6248239e-38
-0.27448601 0.038395401 0.14518701 1.624752e-38
-0.274427 0.039445698 0.14529499 1.6154966e-38
-0.27503699 0.040784601 0.14480899 1.44926e-38
-0.275314 0.041987099 0.144618 1.1999746e-38
-0.27576101 0.043269899 0.14427701 1.0894478e-38
-0.27603999 0.044484399 0.144085 1.0894476e-38
-0.27632099 0.045704398 0.14389201 1.1078866e-38
-0.304196 0.060947798 0.119245 1.1357244e-38
-0.30344501 0.0618627 0.119979 1.1540559e-38
-0.30337599 0.0630982 0.120105 1.1632037e-38
-0.30308101 0.064224303 0.120433 1.1722799e-38
-0.30278701 0.0653487 0.120761 1.1905038e-38
-0.30249301 0.066471502 0.121087 1.1720651e-38
-0.302986 0.091196902 0.121924 1.0623267e-38
-0.30314299 0.092601798 0.121853 1.145446e-38
-0.30330101 0.094010703 0.121782 1.2562241e-38
-0.30437899 0.096011303 0.120903 1.3577105e-38
-0.304539 0.0974354 0.120831 1.4405421e-38
-0.304932 0.099014901 0.120555 1.440362e-38
-0.30509299 0.100449 0.120482 1.2930657e-38
-0.32142699 0.121301 0.106659 1.22756e-38
-0.267894 0.0205452 0.14892 9.3275092e-39
-0.267225 0.0213391 0.14957701 9.2349562e-39
-0.267322 0.022388 0.14954101 9.5126123e-39
-0.26726699 0.023386201 0.149643 1.0067221e-38
-0.26705801 0.024331201 0.149883 1.0805142e-38
-0.26684999 0.0252751 0.150123 1.1359393e-38
-0.266642 0.0262179 0.150363 1.172853e-38
-0.26658601 0.0272162 0.150465 1.2561517e-38
-0.266379 0.0281578 0.150704 1.3760772e-38
-0.26617199 0.029098401 0.150943 1.4867833e-38
-0.26611599 0.0300969 0.15104499 1.5697945e-38
-0.27320299 0.036059801 0.14482699 1.6156404e-38
-0.27314499 0.0371047 0.144934 1.6339713e-38
-0.27308601 0.038150299 0.145042 1.6338999e-38
-0.273193 0.039266899 0.14500099 1.6155328e-38
