# .PCD v0.7 - Point Cloud Data file format
VERSION 0.7
FIELDS x y z
SIZE 4 4 4
TYPE F F F
COUNT 1 1 1
WIDTH 1340
HEIGHT 1
VIEWPOINT 0 0 0 1 0 0 0
POINTS 1340
DATA ascii
0.053491175 -0.2127506 -0.019545395
0.054555368 -0.21263565 -0.018144336
0.055020012 -0.2126518 -0.016521545
0.054887295 -0.21280095 -0.014669045
0.055020392 -0.21373954 -0.00014599219
0.056092277 -0.2136208 0.001235513
0.0577581 -0.2133681 0.0023524091
0.058225408 -0.21338521 0.0039844993
0.058692712 -0.21340135 0.0056164758
0.031397499 -0.2150629 -0.022715449
0.031887416 -0.21508095 -0.02100469
0.043413103 -0.2127278 -0.023161285
0.049472865 -0.21154316 -0.023483619
0.051158354 -0.21129805 -0.0222851
0.052229956 -0.21118499 -0.020874539
0.052696217 -0.21120115 -0.019246049
0.053763542 -0.21108809 -0.01784309
0.054228943 -0.21110424 -0.01621745
0.054094709 -0.2112515 -0.01436134
0.051919498 -0.21256155 -0.00068482273
0.053003825 -0.21244375 0.00070706219
0.055295605 -0.2120609 0.0015734945
0.05636711 -0.211945 0.0029521536
0.057435006 -0.2118291 0.0043261764
0.057903074 -0.21184619 0.0059609842
0.058371041 -0.21186329 0.0075957156
0.028680215 -0.21370155 -0.023666969
0.029848808 -0.21357711 -0.02217737
0.031013317 -0.21345456 -0.02069309
0.03284131 -0.21319044 -0.019447925
0.035973746 -0.2126518 -0.01867947
0.044795446 -0.21091235 -0.019986384
0.049604632 -0.2100146 -0.019910006
0.051898595 -0.209646 -0.018945755
0.052365616 -0.20966309 -0.017314605
0.052832637 -0.2096802 -0.015683454
0.05269574 -0.20982461 -0.013820125
0.046420611 -0.21175215 -0.002124181
0.048153032 -0.21150041 -0.00097260997
0.050492406 -0.2111185 -8.8631386e-05
0.051582813 -0.2110026 0.001307067
0.053280465 -0.21075654 0.0024353345
0.054966811 -0.21051145 0.0035559449
0.056040596 -0.21039839 0.004933673
0.05651018 -0.2104155 0.006574057
0.056979861 -0.21043259 0.0082143173
0.05804842 -0.21031955 0.0095817
0.054827351 -0.21174075 0.022338964
0.055303872 -0.21175784 0.024003174
0.055780388 -0.21177495 0.025667291
0.056256723 -0.21179205 0.027331214
0.056733146 -0.2118101 0.02899514
0.057209477 -0.2118272 0.030658873
0.026619568 -0.21218535 -0.0248558
0.027795862 -0.21206374 -0.0233586
0.029644564 -0.21180344 -0.022097379
0.030809548 -0.21168281 -0.020613004
0.031300221 -0.21170086 -0.018899111
0.03179099 -0.2117189 -0.01718531
0.034941573 -0.21118785 -0.016429774
0.036743436 -0.21093421 -0.015208075
0.035915986 -0.21122395 -0.0130264
0.031378593 -0.21252166 -0.0056136069
0.035224859 -0.21184334 -0.0051921108
0.036377683 -0.2117227 -0.0037408054
0.03686722 -0.21174075 -0.0020310713
0.03867146 -0.2114833 -0.00085362722
0.041758485 -0.21095699 -0.0002150591
0.045438025 -0.2103053 0.000151449
0.047807042 -0.20992625 0.0010358135
0.049531765 -0.20968209 0.0021747113
0.051244903 -0.20943889 0.0033058764
0.052334074 -0.2093268 0.0046958025
0.053419452 -0.2092147 0.0060809692
0.054501217 -0.2091026 0.0074613853
0.054973271 -0.20911971 0.0091099869
0.054837897 -0.20926601 0.011035105
0.051678576 -0.2105314 0.02194747
0.052779529 -0.2104155 0.023321075
0.05387678 -0.21030055 0.02468993
0.054970231 -0.2101856 0.026054131
0.055447511 -0.21020269 0.027720999
0.056536399 -0.2100887 0.029077504
0.057012826 -0.21010581 0.030741332
0.056879066 -0.21025495 0.032721136
0.026414085 -0.21040125 -0.024775621
0.027590854 -0.21028249 -0.023278516
0.029440314 -0.21002884 -0.022017295
0.029932031 -0.2100469 -0.02030017
0.031096449 -0.20993005 -0.01881893
0.031587213 -0.20994715 -0.017104939
0.032746788 -0.2098303 -0.015632059
0.033236511 -0.20984834 -0.013921395
0.031718127 -0.21027204 -0.011467545
0.02981385 -0.21101116 -0.0050084949
0.030990427 -0.21089146 -0.0035394528
0.032162912 -0.21077174 -0.0020756836
0.033331223 -0.21065204 -0.0006171561
0.035829253 -0.21026066 0.00029631544
0.038301434 -0.20987399 0.0012001729
0.041396156 -0.20935814 0.001825786
0.045719322 -0.20858864 0.0019093099
0.047459912 -0.20834735 0.0030511813
0.049188815 -0.20810795 0.0041852347
0.050286826 -0.2079968 0.0055808323
0.05138132 -0.20788659 0.0069716512
0.052472018 -0.2077764 0.0083576441
0.052946448 -0.20779444 0.01001471
0.052807081 -0.20793884 0.011951189
0.050520431 -0.20876345 0.018677475
0.048486575 -0.20930494 0.021550274
0.048969746 -0.20932205 0.023237759
0.051336482 -0.20894586 0.024008971
0.052439906 -0.2088328 0.025381435
0.054157313 -0.20859055 0.026442204
0.055250291 -0.20847844 0.02780346
0.055727571 -0.20849554 0.029470328
0.056204848 -0.20851359 0.031137202
0.056682035 -0.20853069 0.032803882
0.054001231 -0.20981605 0.045849849
0.054485541 -0.20983316 0.047541514
0.055592578 -0.20971724 0.048883867
0.056695811 -0.2096023 0.050221559
0.057795245 -0.2094883 0.051554501
0.058890786 -0.20937335 0.052882891
0.059371676 -0.2093914 0.0545623
0.025027374 -0.20873304 -0.026197961
0.026208693 -0.20861715 -0.024695439
0.027385838 -0.2085022 -0.023198335
0.029236153 -0.20825425 -0.021937303
0.029727781 -0.20827231 -0.020219989
0.030219501 -0.20829035 -0.01850277
0.031383444 -0.20817634 -0.017024666
0.031874213 -0.2081944 -0.015310675
0.032364979 -0.20821245 -0.01359678
0.031513777 -0.20849459 -0.01138651
0.029978393 -0.20891355 -0.0089065637
0.028426757 -0.2093363 -0.006400587
0.028924175 -0.20935436 -0.0046631508
0.029421598 -0.2093724 -0.0029258099
0.030601021 -0.20925459 -0.0014578415
0.03109749 -0.20927264 0.0002761783
0.032271788 -0.2091558 0.0017357544
0.035451625 -0.20863806 0.002366564
0.038587578 -0.20812695 0.002988548
0.041680302 -0.20762344 0.0036018966
0.044731036 -0.20712659 0.0042067519
0.046480935 -0.20688909 0.0053447285
0.048218962 -0.20665349 0.0064748675
0.049322482 -0.2065452 0.0078713484
0.049800139 -0.2065623 0.0095398994
0.050277896 -0.20658036 0.01120829
0.048881777 -0.20697649 0.01372978
0.045561433 -0.207765 0.01715662
0.043472379 -0.20830555 0.020048989
0.042662032 -0.20858675 0.022365849
0.043151945 -0.2086048 0.024076991
0.046223581 -0.20809655 0.024545815
0.047986023 -0.20785335 0.025624445
0.050365865 -0.20748284 0.02638606
0.052099142 -0.2072444 0.027448919
0.053201236 -0.20713419 0.028815495
0.05429953 -0.20702401 0.030177318
0.055394121 -0.20691475 0.031534392
0.055872254 -0.2069328 0.033204116
0.052059431 -0.2083084 0.04492759
0.052545547 -0.20832644 0.046625238
0.0536598 -0.2082134 0.047974143
0.05477016 -0.20810035 0.049318202
0.055254471 -0.20811746 0.051009774
0.056360174 -0.20800534 0.052346043
0.058078345 -0.20776404 0.053322263
0.058560185 -0.20778114 0.055004712
0.059041835 -0.2077992 0.056687072
0.06067327 -0.20877674 0.077562846
0.024821509 -0.20694515 -0.026117779
0.026003212 -0.20683305 -0.02461526
0.027861603 -0.2065908 -0.023346914
0.029031809 -0.20647964 -0.021857219
0.029523628 -0.2064977 -0.02013981
0.030015249 -0.20651574 -0.018422401
0.030506968 -0.20653379 -0.01670518
0.030998694 -0.20655185 -0.01498815
0.031490315 -0.20656991 -0.01327112
0.031309433 -0.20671713 -0.011305476
0.029773002 -0.20712659 -0.0088249296
0.0268432 -0.20780584 -0.0057951803
0.025957422 -0.2080918 -0.0035183534
0.026458358 -0.20811079 -0.001768577
0.026959293 -0.20812884 -1.8926754e-05
0.02746032 -0.2081469 0.0017305865
0.028651429 -0.208031 0.0032006071
0.030522836 -0.2077821 0.0043848576
0.033731557 -0.20727099 0.0050004865
0.036895815 -0.20676655 0.0056074415
0.039362397 -0.20639795 0.0064837211
0.042449895 -0.20590585 0.0070729586
0.043578494 -0.20579755 0.0084877936
0.04534122 -0.20556384 0.0096169449
0.045823917 -0.20558189 0.011302625
0.045031521 -0.20585075 0.01356239
0.040333487 -0.20689291 0.017613379
0.036847461 -0.20769756 0.021159351
0.03734355 -0.2077156 0.022891959
0.037839644 -0.20773365 0.024624379
0.040326837 -0.2073565 0.02540908
0.043439321 -0.206853 0.025872014
0.045867424 -0.20648345 0.026640469
0.04763414 -0.20624594 0.027713779
0.050648868 -0.20575765 0.028153535
0.051757235 -0.2056503 0.029523719
0.052861802 -0.20554295 0.030889058
0.053962566 -0.2054356 0.032249648
0.054442316 -0.20545271 0.033925164
0.049466502 -0.20691951 0.044342294
0.049955182 -0.20693755 0.046048969
0.050443862 -0.2069556 0.047755644
0.052200411 -0.20671524 0.048758369
0.05268738 -0.20673329 0.050458871
0.05443006 -0.20649485 0.051448677
0.05491532 -0.20651194 0.053143095
0.056023497 -0.20640269 0.054478034
0.056507714 -0.2064198 0.056169316
0.056991927 -0.20643784 0.057860509
0.055537 -0.20744865 0.070710875
0.05602682 -0.20746669 0.07242173
0.057144307 -0.20735364 0.073736057
0.05888024 -0.2071114 0.074648909
0.059367497 -0.20712945 0.076350555
0.060473301 -0.20701735 0.077650808
0.060959604 -0.20703539 0.079349317
0.06144591 -0.20705345 0.081047632
0.06131614 -0.20720071 0.083155975
0.024615545 -0.20515725 -0.0260376
0.026482105 -0.20492071 -0.024761749
0.027656877 -0.20481239 -0.02326683
0.028827466 -0.20470411 -0.021777134
0.029319279 -0.20472215 -0.020059533
0.029811097 -0.2047402 -0.018342029
0.030302815 -0.20475824 -0.016624715
0.030794535 -0.2047763 -0.014907495
0.029936591 -0.20504799 -0.012697509
0.029072566 -0.20532064 -0.010472135
0.02613659 -0.2059847 -0.0074566449
0.024550851 -0.20639606 -0.0049204491
0.023652242 -0.20667915 -0.0026282321
0.02415603 -0.2066972 -0.00086895836
0.024659719 -0.20671524 0.00089019275
0.025163414 -0.20673424 0.0026491985
0.026364878 -0.20662025 0.0041255937
0.028254427 -0.20637514 0.0053129508
0.030130578 -0.206131 0.0064918627
0.03131276 -0.20601889 0.0079481183
0.03451607 -0.20552014 0.0085387332
0.036347378 -0.20528264 0.0096916147
0.038165871 -0.20504704 0.01083646
0.038657114 -0.2050651 0.012551685
0.036494441 -0.2055933 0.015448046
0.032943249 -0.20639035 0.018996581
0.032761227 -0.20654045 0.021052191
0.032578446 -0.20669053 0.023115018
0.033079855 -0.20670861 0.024866154
0.033581264 -0.20672761 0.026617195
0.036117289 -0.20635045 0.027399709
0.039292097 -0.20584884 0.027853809
0.041767225 -0.2054812 0.028620079
0.044216704 -0.2051183 0.029378369
0.047919046 -0.20450935 0.029493606
0.048404686 -0.20452644 0.031189831
0.050786432 -0.20417304 0.031924088
0.052521225 -0.20394506 0.032969844
0.053002685 -0.2039631 0.03465125
0.04971312 -0.2047231 0.038304664
0.047001254 -0.20537099 0.041692842
0.04554851 -0.20577285 0.044442806
0.046041656 -0.20579089 0.046164773
0.046534609 -0.20580894 0.047886651
0.04832023 -0.20557049 0.048897829
0.050093308 -0.20533395 0.049901981
0.051219538 -0.20522469 0.051254589
0.05234196 -0.20511639 0.052602451
0.053460397 -0.20500906 0.05394556
0.05394727 -0.20502615 0.055645868
0.05506086 -0.20491879 0.056981187
0.055546787 -0.20493685 0.058678363
0.054986663 -0.20551351 0.066991627
0.054212701 -0.20578615 0.069476731
0.054069441 -0.20593245 0.071584307
0.054561064 -0.2059505 0.073301338
0.056315146 -0.20571299 0.074220747
0.057432059 -0.20560279 0.07553184
0.058545176 -0.20549354 0.076838374
0.059654299 -0.20538525 0.078140162
0.060759623 -0.205276 0.079437479
0.06062872 -0.2054204 0.081543252
0.061115783 -0.20543845 0.08324451
0.059069861 -0.20657465 0.096925646
0.058933631 -0.20672284 0.099094495
0.060684197 -0.20648059 0.099928595
0.062422503 -0.2062393 0.10075605
0.063532203 -0.20612815 0.1020243
0.064022303 -0.2061462 0.1037362
0.02440968 -0.20336935 -0.02595742
0.026276905 -0.20313944 -0.024681665
0.027452054 -0.203034 -0.023186745
0.028623123 -0.20292854 -0.02169705
0.029115034 -0.20294659 -0.019979354
0.029606845 -0.20296463 -0.01826166
0.030098565 -0.20298271 -0.016544154
0.029915499 -0.20312425 -0.01458364
0.029052995 -0.20339024 -0.012368525
0.027499462 -0.20378354 -0.0098844655
0.023840442 -0.20456445 -0.0065908814
0.021526145 -0.20510024 -0.0037673677
0.022031829 -0.20511924 -0.0020015738
0.022537421 -0.20513825 -0.00023586885
0.023042915 -0.2051563 0.0015296804
0.023548508 -0.2051753 0.0032951415
0.024757382 -0.20506319 0.004775764
0.025961889 -0.20495205 0.006251019
0.027161924 -0.20484088 0.0077208872
0.02835788 -0.2047307 0.0091854455
0.029549563 -0.2046205 0.010644655
0.030050399 -0.20463949 0.0123937
0.031236857 -0.2045293 0.013844444
0.031736743 -0.2045483 0.015590164
0.030866263 -0.20482284 0.01794569
0.030679964 -0.20497105 0.020006999
0.029801123 -0.2052494 0.02239055
0.029611878 -0.20539854 0.02447067
0.030116905 -0.20541659 0.026234534
0.031313617 -0.2053045 0.027672645
0.033191767 -0.20506319 0.02877911
0.035734441 -0.20469555 0.029551554
0.037580483 -0.20445806 0.030641491
0.042056218 -0.2037199 0.030424891
0.043854568 -0.20348905 0.031496298
0.045640472 -0.20326009 0.0325603
0.047414027 -0.20303304 0.033616796
0.047901373 -0.20305109 0.035318624
0.047749188 -0.2031917 0.037351433
0.045010813 -0.20382915 0.040743314
0.041561551 -0.20460434 0.044544835
0.041394826 -0.20475064 0.046636544
0.041893195 -0.20476869 0.048376851
0.043713965 -0.20453215 0.049397338
0.046174183 -0.2041702 0.050051983
0.047964171 -0.20393744 0.051057465
0.049741525 -0.20370564 0.052055914
0.050231915 -0.20372368 0.053768381
0.051359944 -0.20361824 0.055116527
0.053116307 -0.2033893 0.05609541
0.053604037 -0.20340735 0.057798665
0.053460967 -0.20354794 0.059872232
0.053317424 -0.20369045 0.061953016
0.053173307 -0.203832 0.064040832
0.053028714 -0.20397544 0.066135772
0.051604666 -0.20436969 0.069017217
0.052098189 -0.20438871 0.07074061
0.051950563 -0.2045331 0.072861582
0.052444845 -0.20455115 0.074587725
0.05421555 -0.2043165 0.075507611
0.056603376 -0.20395835 0.076019853
0.057093289 -0.20397639 0.077730618
0.058208875 -0.20387 0.079035632
0.059941202 -0.2036401 0.07993006
0.060428362 -0.20365815 0.081631601
0.060296688 -0.20379969 0.083744869
0.059273634 -0.20435356 0.090554193
0.057879511 -0.2047516 0.093567215
0.057741284 -0.20489694 0.095730551
0.055046611 -0.2055591 0.099689201
0.062221013 -0.20446184 0.10084725
0.063330993 -0.20435449 0.10211454
0.064437173 -0.20424715 0.10337805
0.064926513 -0.20426521 0.1050871
0.024891999 -0.20145984 -0.026101915
0.026754469 -0.20123659 -0.024827775
0.027926771 -0.20113495 -0.02333504
0.028418681 -0.201153 -0.021616966
0.028910592 -0.20117106 -0.01989908
0.029402502 -0.2011891 -0.01818129
0.029894313 -0.20120715 -0.01646369
0.029710963 -0.20134585 -0.014502794
0.028847795 -0.2016052 -0.0122873
0.025222594 -0.2023595 -0.0090362672
0.020810604 -0.20325629 -0.0054499027
0.021316288 -0.20327435 -0.0036838055
0.021112137 -0.20342065 -0.0016446305
0.021618769 -0.20343965 0.0001243968
0.022125218 -0.2034577 0.0018932835
0.022631658 -0.2034767 0.0036620125
0.023844434 -0.2033684 0.0051448103
0.024349827 -0.20338646 0.0069101476
0.025557378 -0.20327814 0.0083842063
0.026061824 -0.20329715 0.010146189
0.027263954 -0.20318885 0.01161166
0.028461715 -0.2030815 0.013071715
0.028964363 -0.20309955 0.014827126
0.028774552 -0.20324491 0.016886914
0.027887346 -0.20351756 0.019264005
0.028392555 -0.2035356 0.021028344
0.028200563 -0.20368285 0.023109986
0.027306514 -0.20395835 0.025521845
0.027814293 -0.20397639 0.027295304
0.029021554 -0.20386715 0.0287394
0.030918034 -0.20362966 0.029848143
0.032801028 -0.2033931 0.030948911
0.034670632 -0.20315941 0.032041695
0.037200861 -0.20280126 0.032795519
0.040368162 -0.2023253 0.033211619
0.041523647 -0.2022208 0.034609355
0.042017836 -0.20223884 0.036335316
0.041853394 -0.20237944 0.03839862
0.037678141 -0.20327055 0.042544797
0.036144745 -0.20366955 0.045358699
0.035281863 -0.2039441 0.04783991
0.035787359 -0.2039631 0.049605485
0.037656005 -0.20372465 0.050636332
0.040183388 -0.2033627 0.051293921
0.042019926 -0.20312899 0.052309565
0.045158438 -0.20264924 0.052588105
0.047606874 -0.2022987 0.053224891
0.048745357 -0.2021942 0.054581299
0.049879942 -0.20209064 0.055932961
0.051010344 -0.20198709 0.057279777
0.051500641 -0.20200515 0.058992054
0.051991031 -0.20202321 0.060704235
0.051844444 -0.20216285 0.062793761
0.051056989 -0.202426 0.065273553
0.050907936 -0.20256659 0.067381792
0.048815276 -0.2030815 0.070681229
0.049312316 -0.20309955 0.072416879
0.049809262 -0.20311855 0.07415244
0.052241452 -0.20276324 0.074676558
0.05401282 -0.20253524 0.075596251
0.055771936 -0.20230819 0.076509483
0.056262705 -0.20232624 0.078223377
0.057381712 -0.20222269 0.079529911
0.058496822 -0.20211916 0.080831796
0.058985692 -0.2021372 0.082539417
0.058851074 -0.20227686 0.084661618
0.059340801 -0.2022949 0.086372003
0.058580421 -0.20255806 0.088927984
0.056548558 -0.2030701 0.092365362
0.055130117 -0.20346434 0.095409453
0.053696565 -0.20386145 0.098485552
0.052247722 -0.20426424 0.1015949
0.062019322 -0.20268439 0.1009375
0.063129775 -0.20257989 0.10220575
0.064236432 -0.2024754 0.1034683
0.064725779 -0.20249344 0.10517734
0.024686417 -0.19967385 -0.026021831
0.026549559 -0.19945726 -0.024747783
0.027722329 -0.19935845 -0.02325505
0.028214239 -0.19937649 -0.021536879
0.028706249 -0.19939454 -0.019818805
0.029198159 -0.19941355 -0.018100921
0.029690068 -0.1994316 -0.01638313
0.029506337 -0.1995665 -0.01442195
0.028642504 -0.19982015 -0.01220598
0.025015214 -0.20055544 -0.0089540072
0.020600753 -0.20142946 -0.0053664548
0.020395363 -0.20157196 -0.0033299779
0.020901995 -0.20159094 -0.001560736
0.021408536 -0.20160994 0.000208449
0.021915169 -0.20162894 0.001977463
0.021711582 -0.20177145 0.0040302132
0.022928158 -0.201666 0.0055151302
0.024140352 -0.20156056 0.0069946409
0.024645854 -0.20157956 0.0087600071
0.025151255 -0.20159855 0.01052524
0.025656747 -0.2016166 0.01229034
0.026162149 -0.2016356 0.014055345
0.026667543 -0.2016546 0.015820161
0.026472514 -0.2017971 0.017893059
0.026276905 -0.20194149 0.019973179
0.026783921 -0.20195955 0.021743979
0.02658841 -0.20210394 0.023834549
0.025685342 -0.2023747 0.026257811
0.026195111 -0.2023937 0.028037826
0.027409591 -0.20228635 0.029486006
0.029318804 -0.20205359 0.030596176
0.030521223 -0.2019472 0.032031719
0.031719267 -0.20184176 0.033461943
0.03359941 -0.20161185 0.034549695
0.036144271 -0.2012613 0.035292882
0.036644731 -0.2012803 0.037040498
0.035108678 -0.2016679 0.039820578
0.034243699 -0.20193484 0.042278137
0.033372644 -0.20220369 0.044753075
0.031799447 -0.20260175 0.047609534
0.031611349 -0.20274805 0.049756344
0.032121494 -0.20276704 0.051537879
0.034710623 -0.2024051 0.052199174
0.037271921 -0.20204695 0.052853342
0.039131925 -0.20181705 0.0538707
0.042313095 -0.201343 0.054140404
0.045449615 -0.2008756 0.054406215
0.046597976 -0.20077394 0.055767849
0.047092639 -0.20079198 0.05749552
0.048882533 -0.20057064 0.058476586
0.049375396 -0.20058869 0.060197987
0.049223587 -0.20072645 0.062297866
0.049071208 -0.20086515 0.064404964
0.04630547 -0.20149121 0.068082318
0.045485716 -0.2017553 0.070620529
0.044660166 -0.20202224 0.0731766
0.045162622 -0.2020403 0.074930966
0.048300661 -0.2015653 0.075050376
0.049451679 -0.20146079 0.076383799
0.05381009 -0.20075305 0.07568498
0.054302666 -0.20077109 0.077405147
0.055429082 -0.20067041 0.078717947
0.055920705 -0.20068845 0.080434784
0.057670034 -0.20046805 0.081329405
0.058159947 -0.20048705 0.08304017
0.057395484 -0.2007426 0.085584931
0.057257354 -0.2008813 0.087723576
0.056485672 -0.20113969 0.090297781
0.053139105 -0.20189114 0.094642609
0.051689882 -0.20228255 0.097725548
0.051538546 -0.202426 0.099931449
0.052041285 -0.202445 0.10168704
0.061195008 -0.20102665 0.10147425
0.062928572 -0.20080529 0.102296
0.064035513 -0.20070459 0.1035595
0.064524949 -0.20072265 0.10526855
0.024480645 -0.19788785 -0.025941649
0.026344642 -0.19767696 -0.024667796
0.027517794 -0.19758195 -0.023175061
0.028009804 -0.19760001 -0.0214567
0.028501805 -0.19761805 -0.019738531
0.028993716 -0.19763705 -0.018020455
0.029485719 -0.1976551 -0.016302571
0.029301703 -0.19778715 -0.014341105
0.028437303 -0.19803511 -0.012124755
0.025501136 -0.1986336 -0.0091283694
0.02110064 -0.19948195 -0.0055492255
0.02089658 -0.19962159 -0.003516577
0.020691764 -0.19976124 -0.0014768034
0.020486182 -0.1999009 0.00057016528
0.02099367 -0.19991991 0.0023425194
0.021501159 -0.19993891 0.0041147158
0.022008648 -0.19995789 0.0058868271
0.022516046 -0.19997689 0.0076587861
0.023023443 -0.19999589 0.0094306497
0.023530742 -0.20001394 0.011202305
0.024038039 -0.20003295 0.01297396
0.024545245 -0.20005195 0.014745425
0.025052544 -0.20007095 0.0165167
0.02485409 -0.20021155 0.018598435
0.025362153 -0.20023054 0.02037275
0.025163697 -0.20037208 0.02246484
0.024964578 -0.20051365 0.024564341
0.024764694 -0.20065615 0.026671346
0.025275318 -0.20067514 0.028454686
0.026493883 -0.20057064 0.029904859
0.027003558 -0.20058964 0.031684685
0.028216617 -0.20048609 0.03312612
0.028725337 -0.20050511 0.034902617
0.029933073 -0.20040061 0.036335412
0.031136539 -0.20029706 0.037762977
0.031643264 -0.20031604 0.039532635
0.029359467 -0.20082715 0.042717036
0.029166803 -0.20097061 0.04485938
0.028266206 -0.20123945 0.047375359
0.028070413 -0.2013848 0.049537655
0.028584456 -0.2014038 0.051332392
0.029098308 -0.2014228 0.053127136
0.031021684 -0.20119099 0.05416235
0.033626102 -0.20083666 0.054811865
0.035515942 -0.20060864 0.055831499
0.038072959 -0.20026 0.056466099
0.040602621 -0.19991609 0.057093766
0.042440873 -0.19969475 0.058090504
0.042940948 -0.1997128 0.059836701
0.044103749 -0.1996121 0.061200712
0.044602878 -0.19963109 0.062943481
0.043111477 -0.2000092 0.065855049
0.041604109 -0.20039205 0.068797477
0.0407588 -0.20065521 0.071365803
0.041264962 -0.20067419 0.073133089
0.041770931 -0.20069319 0.074900277
0.042950165 -0.20058869 0.076253556
0.044792883 -0.20036355 0.077187881
0.046622299 -0.20013936 0.078115456
0.051041219 -0.19944111 0.077393554
0.051537309 -0.19945915 0.079125874
0.053317513 -0.19924159 0.080033317
0.054449536 -0.1991428 0.081346124
0.054942872 -0.1991618 0.083069049
0.054800183 -0.1992967 0.085211195
0.055294372 -0.1993157 0.086936966
0.055151869 -0.19945155 0.089089379
0.052434582 -0.20006619 0.092990182
0.050326347 -0.2005697 0.096512392
0.049513243 -0.20083284 0.099172398
0.050017882 -0.20085184 0.10093465
0.051179729 -0.20074734 0.1022371
0.051683325 -0.20076635 0.1039965
0.053491082 -0.2005412 0.10482775
0.060367752 -0.1993632 0.10201385
0.062107299 -0.1991466 0.10283465
0.063834682 -0.19893284 0.10364975
0.064324215 -0.1989509 0.10535975
0.024274969 -0.19610184 -0.025861565
0.026139634 -0.19589761 -0.024587804
0.027313167 -0.19580545 -0.023095069
0.027805269 -0.19582349 -0.021376614
0.028297363 -0.19584155 -0.019658254
0.028789373 -0.19586053 -0.01793999
0.029281376 -0.1958786 -0.016222009
0.029097077 -0.19600779 -0.01426026
0.028912013 -0.19613795 -0.01229186
0.026674196 -0.19660535 -0.0095570944
0.022303909 -0.19742616 -0.0059958585
0.021395994 -0.19767696 -0.0037025111
0.021192407 -0.19781375 -0.0016665375
0.020988164 -0.1979496 0.00037657336
0.020783149 -0.1980864 0.0024268983
0.020577284 -0.19822414 0.0044844369
0.021085728 -0.19824314 0.006259854
0.021594074 -0.19826216 0.0080351755
0.022102419 -0.19828115 0.0098103648
0.022610765 -0.19830015 0.011585345
0.022407554 -0.1984379 0.01366252
0.022916757 -0.1984569 0.015440445
0.023425858 -0.1984759 0.01721837
0.02393497 -0.1984949 0.018996105
0.023733754 -0.1986336 0.021089714
0.024243621 -0.1986526 0.022870395
0.02332896 -0.19891195 0.025299449
0.023125473 -0.19905254 0.027415574
0.022201689 -0.19931474 0.029874081
0.022716114 -0.19933374 0.031670433
0.02323054 -0.19935369 0.033466693
0.023744775 -0.19937269 0.035262764
0.024974834 -0.1992701 0.036710847
0.02548812 -0.1992891 0.038503405
0.026001407 -0.1993081 0.040295865
0.025801713 -0.19944966 0.042445902
0.025601262 -0.1995912 0.044603638
0.025400056 -0.19973369 0.046769165
0.025198083 -0.1998762 0.04894248
0.024995262 -0.20001964 0.051123586
0.025513014 -0.2000396 0.052931625
0.026748579 -0.19993414 0.054356813
0.028691044 -0.19970615 0.055393357
0.029913982 -0.19960259 0.056806106
0.031132357 -0.19949999 0.058213528
0.034434367 -0.1990326 0.05845749
0.037006397 -0.1986925 0.059080213
0.038873903 -0.19847305 0.060078945
0.039378449 -0.19849205 0.061840821
0.039882902 -0.19851105 0.063602589
0.03971076 -0.1986488 0.065757856
0.038857378 -0.19890624 0.068320297
0.035234362 -0.19965295 0.072538391
0.03574698 -0.19967194 0.074328475
0.036259506 -0.19969094 0.076118372
0.037463821 -0.19958739 0.077486843
0.040033001 -0.19924159 0.078008868
0.041899469 -0.19902024 0.07894367
0.043752439 -0.19879889 0.079871818
0.047576379 -0.198227 0.079540744
0.048076935 -0.198246 0.081288643
0.049885068 -0.19803035 0.082196563
0.05103324 -0.1979325 0.083517253
0.051531043 -0.1979515 0.085255563
0.050730951 -0.19820325 0.087849066
0.049925257 -0.1984569 0.090460896
0.048453894 -0.19883025 0.093533672
0.048957773 -0.19884925 0.095293552
0.046805743 -0.19934894 0.098863646
0.046644051 -0.1994886 0.1010952
0.047152396 -0.19950759 0.10286979
0.050315134 -0.19904399 0.10279
0.051476508 -0.1989433 0.10408865
0.053285025 -0.19872481 0.10492085
0.058907505 -0.19780806 0.10300566
0.061283071 -0.1974822 0.1033752
0.063016444 -0.19727319 0.1041903
0.064123288 -0.19717914 0.10545
0.024069205 -0.1943149 -0.025781386
0.025250524 -0.19422466 -0.024281144
0.026427668 -0.19413535 -0.022786131
0.027600734 -0.19404604 -0.021296434
0.02809283 -0.19406505 -0.01957798
0.028584931 -0.19408309 -0.017859619
0.029076932 -0.19410115 -0.016141355
0.029568942 -0.19412015 -0.01442328
0.029385211 -0.19424649 -0.012458395
0.027838988 -0.1945904 -0.0099827899
0.024196878 -0.19527155 -0.0067011574
0.022598222 -0.19562685 -0.0041555278
0.020982558 -0.19598596 -0.0015827476
0.021488434 -0.19600494 0.00018369676
0.019857848 -0.19636786 0.0027934371
0.020366386 -0.19638686 0.0045691198
0.020159472 -0.19652174 0.0066342587
0.020668773 -0.19654074 0.0084129144
0.02117816 -0.19655976 0.01019141
0.021687362 -0.19657876 0.011969809
0.022196656 -0.19659775 0.013748115
0.02270576 -0.19661675 0.01552623
0.022502463 -0.19675261 0.017614044
0.023012515 -0.19677161 0.019395106
0.022809312 -0.19690745 0.021493465
0.023320219 -0.19692646 0.023277564
0.022400625 -0.19718011 0.025712511
0.021474278 -0.1974366 0.028165219
0.021266324 -0.19757435 0.030298064
0.021057514 -0.19771305 0.032438602
0.021573838 -0.197733 0.034241609
0.022090068 -0.197752 0.036044426
0.022606298 -0.197771 0.03784705
0.023122529 -0.19779095 0.039649673
0.02363866 -0.19780995 0.04145211
0.023433553 -0.1979496 0.043616112
0.023950547 -0.1979686 0.045421589
0.023745632 -0.19810919 0.047596712
0.023539957 -0.1982498 0.04977962
0.023333427 -0.19839039 0.051970415
0.023853077 -0.19840939 0.053785387
0.025096243 -0.19830775 0.055214379
0.026334761 -0.1982061 0.056637954
0.026852513 -0.1982251 0.058445901
0.028085418 -0.19812346 0.059860736
0.029313864 -0.19802274 0.061270345
0.031243412 -0.19780235 0.062279526
0.031757262 -0.19782135 0.064073697
0.032271024 -0.19784035 0.065867774
0.031376407 -0.1980997 0.068473056
0.031184988 -0.19823934 0.070684657
0.029567704 -0.19862409 0.073740803
0.030086879 -0.19864309 0.075554162
0.030606152 -0.19866306 0.077367336
0.031125421 -0.19868205 0.079180509
0.033062089 -0.19845785 0.080130316
0.034984607 -0.19823459 0.08107309
0.036893249 -0.1980142 0.082008846
0.043544482 -0.19697206 0.079962544
0.0447184 -0.19687515 0.08130423
0.045222566 -0.19689415 0.083064862
0.047053784 -0.1966823 0.083973065
0.04755605 -0.1967013 0.085727051
0.048058316 -0.19671935 0.08748094
0.047238845 -0.1969692 0.090105787
0.043725938 -0.19769025 0.094535545
0.044235326 -0.19770925 0.096314795
0.042025436 -0.1982061 0.099931449
0.041853484 -0.19834575 0.1021896
0.042367436 -0.19836475 0.10398415
0.042881291 -0.19838375 0.10577869
0.046781801 -0.1978052 0.1052068
0.051269695 -0.19712025 0.10418174
0.051773291 -0.19713925 0.1059402
0.055519141 -0.19658254 0.10537779
0.059828624 -0.19592325 0.10436985
0.062195264 -0.19560881 0.1047318
0.063305527 -0.19551665 0.1059934
0.023173258 -0.19263341 -0.025475865
0.025045132 -0.19244151 -0.024200965
0.025539039 -0.19245955 -0.022476049
0.027396193 -0.1922686 -0.021216255
0.027888294 -0.19228759 -0.019497609
0.028380487 -0.19230565 -0.017779155
0.028872497 -0.19232464 -0.016060794
0.029364599 -0.1923427 -0.01434253
0.029856602 -0.1923617 -0.01262436
0.028995711 -0.1925897 -0.01040554
0.026758559 -0.1930324 -0.007657351
0.024489669 -0.19348174 -0.0048704315
0.022892626 -0.19382754 -0.0023150074
0.021278484 -0.19417714 0.00026763495
0.01964695 -0.19453055 0.0028779774
0.019438714 -0.1946626 0.0049403417
0.019948192 -0.1946816 0.0067192647
0.020457586 -0.19470058 0.0084980819
0.020966979 -0.1947196 0.01027672
0.021476272 -0.1947386 0.012055215
0.021985568 -0.1947576 0.01383371
0.021781033 -0.19488965 0.015918769
0.022291183 -0.19490865 0.017700115
0.022086741 -0.19504166 0.019795625
0.022597749 -0.19506066 0.021580009
0.023108656 -0.19507965 0.023364205
0.021468764 -0.19544254 0.026127186
0.020537483 -0.19569239 0.028585974
0.020327434 -0.19582731 0.030723667
0.020116629 -0.19596314 0.032869048
0.020633908 -0.1959831 0.034675471
0.020423101 -0.19611895 0.036831785
0.020941328 -0.19613889 0.038641248
0.021459457 -0.19615789 0.040450525
0.021977492 -0.19617786 0.042259704
0.022495618 -0.19619685 0.044068791
0.022287665 -0.1963346 0.04624562
0.02280665 -0.1963536 0.048057742
0.022598887 -0.19649135 0.050245691
0.023118729 -0.1965113 0.052060857
0.02363847 -0.1965303 0.053875923
0.024158217 -0.19655024 0.055690803
0.024677867 -0.19656925 0.057505589
0.025197608 -0.1965892 0.059320375
0.025717165 -0.1966082 0.061134871
0.026956724 -0.19650941 0.062549993
0.028191822 -0.19641155 0.063959889
0.028709384 -0.19643055 0.065767355
0.029227037 -0.1964505 0.067574732
0.029030954 -0.19658731 0.069793075
0.028116293 -0.19684474 0.072436832
0.027194893 -0.19710316 0.075100064
0.027717013 -0.1971231 0.076923594
0.028239224 -0.19714305 0.078747019
0.028761443 -0.19716205 0.080570355
0.029283464 -0.197182 0.082393505
0.031237714 -0.1969616 0.083336748
0.033177517 -0.1967431 0.084272981
0.039949305 -0.19571234 0.082171679
0.040458981 -0.1957323 0.083951503
0.04164914 -0.19563635 0.085298121
0.04283493 -0.19554135 0.086639807
0.043342706 -0.19556035 0.088412985
0.042497396 -0.19580829 0.091069847
0.04096172 -0.19617499 0.094196588
0.038716014 -0.19666234 0.09781865
0.037839644 -0.19691885 0.10055275
0.037658475 -0.19705756 0.1028337
0.038177177 -0.19707654 0.10464535
0.039393079 -0.1969768 0.10597725
0.042670105 -0.19652364 0.1058737
0.046572611 -0.19596125 0.1052999
0.051062785 -0.19529626 0.1042739
0.051566474 -0.19531524 0.1060333
0.053374801 -0.1951091 0.10685885
0.056454416 -0.19468349 0.10675055
0.060746614 -0.1940451 0.10573025
0.023462813 -0.19086166 -0.023664406
0.023958525 -0.19088066 -0.021933315
0.026510799 -0.1905928 -0.020903895
0.027683759 -0.19051014 -0.019417336
0.028175954 -0.1905282 -0.017698688
0.028668055 -0.1905472 -0.015980139
0.029160157 -0.19056526 -0.01426178
0.029652258 -0.19058426 -0.012543515
0.03014436 -0.1906023 -0.010825344
0.028604884 -0.19092719 -0.0083453031
0.027049255 -0.1912559 -0.0058392794
0.02478246 -0.19169195 -0.0030395156
0.022483367 -0.1921356 -0.00020001204
0.020864092 -0.19247666 0.0023986739
0.019944491 -0.19271225 0.0047385432
0.019736912 -0.19284049 0.0068042893
0.019528585 -0.19296874 0.0088773416
0.020755792 -0.1928785 0.01036203
0.021265086 -0.19289845 0.012140715
0.021059411 -0.19302671 0.01422302
0.021569654 -0.19304571 0.01600465
0.021363979 -0.1931749 0.018097404
0.021874987 -0.19319485 0.019882075
0.022386085 -0.19321385 0.021666555
0.022896994 -0.19323285 0.023450844
0.021256153 -0.19358531 0.02621449
0.019597171 -0.19394153 0.029008249
0.019385133 -0.1940736 0.031150784
0.019172233 -0.1942066 0.033301111
0.019690558 -0.19422655 0.035110954
0.019477658 -0.19435954 0.037272111
0.019996833 -0.19437951 0.03908509
0.020516008 -0.19439849 0.04089788
0.021035092 -0.19441845 0.042710479
0.020824194 -0.19455239 0.044889115
0.021344218 -0.19457234 0.046704847
0.021864157 -0.1945923 0.048520491
0.02238409 -0.1946113 0.05033594
0.022175089 -0.1947462 0.052532148
0.022695977 -0.19476615 0.054350734
0.023216674 -0.19478515 0.05616913
0.024463261 -0.19469014 0.057596505
0.024983009 -0.19470914 0.059411388
0.025502751 -0.1947291 0.061226074
0.026022308 -0.19474904 0.063040674
0.026541958 -0.19476804 0.064855076
0.027061515 -0.19478799 0.066669382
0.027581064 -0.19480701 0.068483599
0.026659474 -0.19505875 0.071127638
0.025731038 -0.19531144 0.073791251
0.025526214 -0.19544825 0.076045692
0.026050521 -0.19546819 0.077876158
0.025845895 -0.19560595 0.080142096
0.026371051 -0.19562495 0.08197578
0.026896114 -0.1956449 0.083809279
0.028146883 -0.19554704 0.08519686
0.030112529 -0.19533235 0.086133175
0.035590801 -0.19454384 0.084857233
0.036802907 -0.1944498 0.08621715
0.037317332 -0.19446975 0.088013321
0.03783166 -0.19448875 0.089809299
0.037652016 -0.19462174 0.092054524
0.036072828 -0.1949856 0.095221356
0.03588853 -0.1951205 0.097492799
0.034287877 -0.19549005 0.1007133
0.034809615 -0.19550905 0.1025354
0.035331354 -0.195529 0.10435655
0.037262898 -0.19531524 0.1052182
0.038482696 -0.19521835 0.10655105
0.039698031 -0.19512241 0.1078801
0.04228735 -0.19479655 0.1082411
0.04687262 -0.19413725 0.10717236
0.050702643 -0.19360146 0.10659285
0.053817693 -0.19318345 0.10648645
0.056888945 -0.19277114 0.10638195
0.023752376 -0.18908991 -0.021852754
0.025622355 -0.18891035 -0.020590395
0.026798932 -0.18883055 -0.01910165
0.027971419 -0.18875076 -0.017618224
0.028463619 -0.1887688 -0.015899485
0.028955715 -0.1887878 -0.014180935
0.029447816 -0.18880585 -0.012462575
0.029939918 -0.18882485 -0.010744215
0.02975685 -0.1889417 -0.008772823
0.028212724 -0.18925899 -0.0062776571
0.027339958 -0.18947844 -0.0040210555
0.024378713 -0.19000474 -0.00093681581
0.021364454 -0.19054055 0.0022023469
0.02044837 -0.19076949 0.0045375135
0.018806489 -0.1911058 0.0071803755
0.019316824 -0.1911248 0.0089626797
0.019827263 -0.1911438 0.01074488
0.021053897 -0.19105735 0.012226215
0.021563292 -0.19107634 0.014004994
0.021358183 -0.19120176 0.016090624
0.021152226 -0.19132809 0.018183665
0.021663234 -0.19134709 0.01996843
0.022174332 -0.19136705 0.021753099
0.022685431 -0.19138606 0.023537578
0.021043358 -0.19172806 0.026301796
0.019383328 -0.19207384 0.02909622
0.01917091 -0.19220304 0.03123904
0.018957725 -0.19233319 0.03338965
0.018743593 -0.19246335 0.035547953
0.019262867 -0.19248234 0.03736122
0.019782135 -0.1925023 0.039174292
0.019569051 -0.19263244 0.041346848
0.020089174 -0.1926524 0.043162964
0.020609206 -0.19267234 0.044978987
0.021129236 -0.19269229 0.046794813
0.021649268 -0.19271129 0.048610646
0.022169201 -0.19273125 0.050426286
0.021959916 -0.19286235 0.05262278
0.022480804 -0.1928823 0.054441459
0.023001593 -0.19290224 0.056260046
0.023522383 -0.19292125 0.058078438
0.024043079 -0.1929412 0.059896834
0.024563769 -0.19296114 0.061714947
0.024358286 -0.1930932 0.06393557
0.024879931 -0.19311315 0.06575691
0.025401386 -0.19313215 0.067578055
0.025197042 -0.19326515 0.069813222
0.024991842 -0.19339815 0.072056457
0.024785787 -0.19353114 0.074308045
0.023845283 -0.19378005 0.076998353
0.022897568 -0.19403085 0.079708606
0.022685522 -0.19416669 0.081995167
0.023214677 -0.19418666 0.083842725
0.023743734 -0.1942066 0.085690089
0.024272783 -0.19422655 0.087537274
0.024801748 -0.19424649 0.089384452
0.032560587 -0.19312455 0.08671163
0.033079762 -0.19314355 0.08852452
0.032889757 -0.1932756 0.090788461
0.032699097 -0.19340859 0.093060672
0.031792603 -0.1936556 0.0958037
0.030879274 -0.19390355 0.098567247
0.029959198 -0.19415435 0.1013517
0.030485975 -0.19417429 0.1031909
0.032453615 -0.19396339 0.1040649
0.034406628 -0.19375439 0.10493225
0.035638586 -0.19366035 0.10627365
0.037568983 -0.19345325 0.1071277
0.038788218 -0.19336015 0.1084577
0.040696483 -0.19315495 0.1092994
0.043275636 -0.19284144 0.10965185
0.047842 -0.192204 0.1085698
0.050999992 -0.19179359 0.1084482
0.022854341 -0.18739603 -0.021539444
0.02404194 -0.18731815 -0.020040914
0.025225539 -0.18724026 -0.018547799
0.026404869 -0.18716331 -0.017060004
0.027580116 -0.18708634 -0.015577434
0.028073166 -0.18710534 -0.013855751
0.029243372 -0.18702839 -0.012381635
0.029735574 -0.18704739 -0.01066318
0.030227669 -0.18706545 -0.0089448486
0.02936811 -0.18727541 -0.0067129754
0.028502472 -0.18748724 -0.0044656266
0.026943615 -0.18779789 -0.0019347225
0.023272535 -0.18841065 0.0014502604
0.020950353 -0.18883245 0.0043371771
0.018594727 -0.1892609 0.0072656092
0.01838393 -0.18938345 0.0093435254
0.018895311 -0.18940245 0.01112906
0.020842716 -0.18921624 0.012311715
0.021352103 -0.18923524 0.014090589
0.02114662 -0.18935779 0.0161766
0.021656863 -0.18937679 0.017958419
0.022167204 -0.18939675 0.019740051
0.021962577 -0.1895193 0.021839645
0.022473769 -0.1895383 0.023624316
0.020830557 -0.1898708 0.026389195
0.019897088 -0.1901007 0.028849315
0.018956678 -0.1903325 0.031327389
0.018743118 -0.19045885 0.033478286
0.018528704 -0.1905852 0.035636876
0.019047977 -0.19060515 0.037450235
0.019567246 -0.19062509 0.039263498
0.019353969 -0.1907524 0.041436341
0.019874092 -0.1907714 0.043252647
0.020394223 -0.19079134 0.045068856
0.020914346 -0.19081131 0.046884876
0.021434279 -0.19083124 0.048700701
0.021954311 -0.1908512 0.050516535
0.021744743 -0.1909785 0.052713409
0.022265624 -0.19099845 0.054532278
0.022786414 -0.1910184 0.056350958
0.023307301 -0.19103836 0.058169641
0.023828091 -0.19105735 0.059988037
0.023621369 -0.19118655 0.062205717
0.024143014 -0.1912065 0.064027339
0.024664659 -0.1912255 0.065848775
0.024458893 -0.19135469 0.068080992
0.024981488 -0.19137464 0.069905564
0.024775906 -0.19150479 0.07214918
0.023102002 -0.19185631 0.075254053
0.022151534 -0.1920995 0.077958137
0.021938257 -0.19223155 0.080241658
0.021724224 -0.19236454 0.082533628
0.022254322 -0.1923845 0.084384792
0.02204038 -0.19251844 0.086688541
0.022571431 -0.1925384 0.088542938
0.024583815 -0.19233225 0.089479454
0.025112869 -0.19235219 0.091326542
0.025641834 -0.19237216 0.093173534
0.026170699 -0.1923921 0.095020905
0.02596426 -0.19252604 0.0973389
0.025756972 -0.19265905 0.099666394
0.025548829 -0.19279395 0.10200245
0.026080638 -0.19281389 0.10385875
0.027349174 -0.19271985 0.10522579
0.028613051 -0.19262581 0.1065881
0.03276246 -0.1920843 0.10599245
0.034714423 -0.19188194 0.1068522
0.035945818 -0.19179074 0.10819075
0.037875172 -0.19159125 0.10903814
0.03909383 -0.19150101 0.11036435
0.041000955 -0.1913034 0.11119845
0.023835883 -0.1855274 -0.01996007
0.025019772 -0.18545236 -0.018466955
0.02551472 -0.18547136 -0.016738905
0.026693575 -0.18539724 -0.015254149
0.027868349 -0.18532315 -0.01377481
0.028361399 -0.18534215 -0.012053125
0.029531131 -0.185269 -0.010582049
0.030023232 -0.18528706 -0.0088636139
0.030515334 -0.18530604 -0.0071452539
0.029656908 -0.18551029 -0.0049071014
0.027424414 -0.18590359 -0.0021200865
0.024464019 -0.18639855 0.00098113157
0.021450523 -0.186903 0.0041375919
0.018382881 -0.187416 0.007350815
0.018171884 -0.18753475 0.0094290534
0.018683273 -0.1875547 0.01121475
0.020631436 -0.1873742 0.01239731
0.021140922 -0.18739414 0.01417628
0.021650407 -0.18741314 0.015955154
0.022159794 -0.18743311 0.017733933
0.022669187 -0.18745209 0.01951262
0.023178481 -0.18747109 0.021291019
0.022976225 -0.18759081 0.023389665
0.022773113 -0.18771049 0.025495719
0.021131607 -0.18803254 0.028270859
0.020199187 -0.1882558 0.030737819
0.019259922 -0.18848096 0.033222832
0.019046931 -0.18860351 0.035377145
0.019565348 -0.18862344 0.037187371
0.019352455 -0.18874694 0.039352704
0.019138796 -0.18887044 0.041525923
0.019658919 -0.1888904 0.043342326
0.020179043 -0.18891035 0.045158628
0.020699266 -0.18893029 0.046974842
0.021219298 -0.18895026 0.048790954
0.021739421 -0.18897019 0.05060688
0.021529472 -0.18909465 0.052804042
0.022050353 -0.18911459 0.054623004
0.022571333 -0.1891336 0.056441966
0.023092128 -0.18915355 0.058260649
0.02361301 -0.18917349 0.060079329
0.024133798 -0.18919344 0.061897822
0.023927649 -0.18931885 0.064119011
0.024449296 -0.1893388 0.065940641
0.024243338 -0.1894642 0.068173237
0.024765933 -0.18948415 0.069997899
0.024559967 -0.1896105 0.072241895
0.022884835 -0.18995154 0.075347446
0.021190794 -0.1902964 0.078487761
0.021720134 -0.19031635 0.080335893
0.021505626 -0.1904465 0.082628146
0.021290354 -0.1905757 0.084928952
0.021074234 -0.1907068 0.087238312
0.021606326 -0.19072674 0.089096315
0.022883695 -0.1906365 0.090492532
0.023414746 -0.19065645 0.092346743
0.023945699 -0.19067734 0.094200857
0.024476659 -0.1906973 0.096054494
0.023522191 -0.19093859 0.098861746
0.023309199 -0.19106969 0.1012054
0.023843102 -0.1910906 0.1030693
0.025120663 -0.19099939 0.10444394
0.026393658 -0.19090915 0.1058129
0.027661627 -0.19081891 0.10717615
0.028924938 -0.19072865 0.10853465
0.033786751 -0.19009595 0.10743359
0.035731304 -0.18990216 0.1082867
0.036958613 -0.18981475 0.1096205
0.03818126 -0.1897283 0.1109486
0.025803899 -0.18370244 -0.014929821
0.026982283 -0.1836312 -0.013448295
0.028156573 -0.18356089 -0.011971995
0.029326688 -0.1834906 -0.01050092
0.029818889 -0.18350865 -0.0087823225
0.030311083 -0.18352765 -0.0070638484
0.029451808 -0.18372621 -0.0048252782
0.027217975 -0.18410715 -0.002037541
0.024255782 -0.18458594 0.0010645415
0.021240573 -0.18507424 0.0042219236
0.017448176 -0.18566704 0.0077286297
0.017959656 -0.18568604 0.0095146298
0.018471139 -0.185706 0.01130044
0.020420156 -0.18553309 0.01248281
0.021643663 -0.18545614 0.01395873
0.022152292 -0.18547514 0.015734565
0.021948704 -0.18559106 0.017819909
0.022458099 -0.18561006 0.019598689
0.022967484 -0.18562999 0.021377375
0.023476878 -0.18564899 0.02315587
0.02256136 -0.1858618 0.025582643
0.020918813 -0.18617435 0.028358355
0.020710569 -0.18629214 0.030488636
0.019774916 -0.1865097 0.032968231
0.018832423 -0.18672915 0.035465971
0.019350834 -0.1867491 0.03727629
0.019869251 -0.18676808 0.039086513
0.019656925 -0.18688874 0.041255366
0.01944384 -0.18700939 0.043432098
0.019963963 -0.18702935 0.045248594
0.020484185 -0.1870493 0.047064897
0.021004308 -0.18706925 0.04888111
0.021524439 -0.18708825 0.050697222
0.022044463 -0.18710819 0.052513149
0.021835089 -0.1872298 0.054713823
0.023084527 -0.18714809 0.056144714
0.02360446 -0.18716805 0.057960261
0.02412449 -0.187188 0.05977571
0.023918718 -0.18730959 0.061989207
0.024439605 -0.18732955 0.063807793
0.024234023 -0.18745115 0.066032603
0.024027592 -0.1875737 0.068265475
0.024550278 -0.18759365 0.070090331
0.024344038 -0.1877162 0.072334617
0.023403727 -0.1879423 0.075013138
0.021715859 -0.18827574 0.078145958
0.021501824 -0.18840115 0.080430135
0.021287035 -0.18852749 0.082722671
0.02107138 -0.18865386 0.085023865
0.020854877 -0.1887802 0.0873335
0.020637518 -0.1889075 0.089651689
0.021170657 -0.1889284 0.091513209
0.021703698 -0.18894835 0.093374737
0.022236839 -0.1889683 0.095235601
0.022769794 -0.18898919 0.097096644
0.02255547 -0.18911651 0.099437453
0.022340298 -0.18924569 0.1017868
0.022875244 -0.18926565 0.1036545
0.024157269 -0.18917826 0.1050301
0.025434349 -0.18909085 0.10640095
0.026706684 -0.18900345 0.1077661
0.02797408 -0.188917 0.10912555
0.032855656 -0.18830425 0.1080169
0.034807336 -0.18811615 0.10886905
0.036744479 -0.18792899 0.1097155
0.026093081 -0.1819326 -0.01312064
0.027951663 -0.1817787 -0.011890865
0.029122155 -0.18171124 -0.01041979
0.029614447 -0.18173024 -0.0087010693
0.030106641 -0.18174924 -0.0069824238
0.029924048 -0.18185374 -0.0050041345
0.027697442 -0.1822214 -0.002222392
0.024047539 -0.1827724 0.001147999
0.021030532 -0.18324456 0.0043062833
0.016510149 -0.18391144 0.0081078131
0.015564706 -0.18411855 0.010494459
0.017535008 -0.18395041 0.011686425
0.020208877 -0.1836901 0.012568405
0.021432856 -0.18361694 0.01404423
0.021941485 -0.1836369 0.015820256
0.021737425 -0.18374899 0.017905885
0.022247009 -0.18376896 0.019684853
0.023467187 -0.18369579 0.021147475
0.023975626 -0.18371481 0.022923024
0.023063725 -0.18392 0.02534467
0.020706011 -0.18431614 0.028445851
0.020497393 -0.18443111 0.030576413
0.020287918 -0.18454605 0.032714676
0.019349029 -0.18475695 0.035207096
0.019136326 -0.18487379 0.037365209
0.019654743 -0.18489376 0.039175626
0.019442035 -0.1850106 0.041344855
0.019228574 -0.18512744 0.043521874
0.01974879 -0.1851474 0.045338467
0.020269105 -0.18516734 0.047154959
0.020789228 -0.1851873 0.048971266
0.02130945 -0.18520725 0.050787572
0.021829573 -0.1852272 0.052603684
0.022349698 -0.18524714 0.054419611
0.022869729 -0.18526709 0.056235533
0.02338976 -0.18528706 0.058051173
0.023909694 -0.185307 0.059866816
0.024429632 -0.18532695 0.061682265
0.024224525 -0.18544476 0.063899375
0.024745313 -0.1854647 0.065717869
0.024540404 -0.18558346 0.067946188
0.024334632 -0.18570219 0.070182674
0.024857225 -0.18572216 0.072007619
0.023920622 -0.18594065 0.074680164
0.022977082 -0.18616199 0.077372469
0.022026323 -0.18638429 0.080084711
0.021812947 -0.1865059 0.082372598
0.021598723 -0.18662845 0.084668942
0.020635612 -0.18685359 0.087428689
0.02041778 -0.18697806 0.089747354
0.020951018 -0.18699799 0.091609068
0.020733368 -0.18712245 0.09393961
0.021267464 -0.18714239 0.095804647
0.021801645 -0.18716331 0.097669505
0.021585049 -0.18728775 0.10001504
0.022120086 -0.18730864 0.10188369
0.022655031 -0.18732861 0.1037514
0.023189975 -0.1873495 0.1056191
0.024471428 -0.18726589 0.10699185
0.026487902 -0.18707874 0.107863
0.027755773 -0.18699513 0.1092234
0.03263982 -0.1864033 0.10811285
0.034592349 -0.18622279 0.10896499
0.036530446 -0.18604325 0.10981145
0.027065691 -0.1800801 -0.01156093
0.028917719 -0.17993189 -0.01033866
0.029409913 -0.17995089 -0.0086197779
0.029902197 -0.17996989 -0.006901009
0.030394491 -0.17998891 -0.0051823258
0.028175104 -0.1803423 -0.002406578
0.023839302 -0.18095981 0.0012314565
0.020820485 -0.18141484 0.004390615
0.014102847 -0.18233065 0.0090816198
0.014618123 -0.18235059 0.010880919
0.016595362 -0.18218815 0.01207374
0.019997498 -0.18184805 0.012653905
0.021221859 -0.1817787 0.014129825
0.021730587 -0.1817977 0.015905945
0.022239216 -0.18181765 0.017681971
0.022747844 -0.18183665 0.019457899
0.023256382 -0.1818566 0.021233639
0.023765011 -0.18187656 0.023009285
0.022852346 -0.1820751 0.025431406
0.021933125 -0.18227555 0.027870908
0.020284116 -0.18256909 0.030664288
0.020074358 -0.18268025 0.032802831
0.019863836 -0.18279235 0.034949075
0.019652365 -0.18290541 0.037103008
0.01944023 -0.18301845 0.039264735
0.019958738 -0.1830384 0.041075151
0.019746603 -0.18315145 0.0432478
0.019533709 -0.18326545 0.045428336
0.020785335 -0.18319136 0.046874616
0.021304609 -0.1832113 0.048687786
0.021823784 -0.18323125 0.050500859
0.021614593 -0.18334524 0.052694216
0.022134716 -0.1833652 0.054510336
0.022654839 -0.18338515 0.056326356
0.023174964 -0.1834051 0.058142181
0.023694994 -0.18342504 0.059957918
0.024214935 -0.18344501 0.061773561
0.024734959 -0.18346494 0.063589007
0.024530333 -0.18357989 0.065809637
0.025051214 -0.18359984 0.06762822
0.024846777 -0.18371481 0.069860145
0.024641577 -0.18383069 0.072100155
0.024435613 -0.18394659 0.07434833
0.023495683 -0.1841594 0.077034548
0.02180839 -0.184471 0.080178857
0.02159464 -0.18458974 0.082467027
0.021380132 -0.18470849 0.084763654
0.020416165 -0.18492699 0.087523974
0.020198047 -0.18504764 0.089842923
0.019979166 -0.1851683 0.092170425
0.020513354 -0.18518825 0.094035648
0.020294564 -0.18530984 0.0963756
0.0208297 -0.18532981 0.09824425
0.021364745 -0.1853507 0.10011195
0.021899782 -0.18537159 0.1019806
0.022434818 -0.18539155 0.1038483
0.022969862 -0.18541245 0.10571695
0.024251789 -0.18533264 0.10708874
0.026269119 -0.18515214 0.1079599
0.028271237 -0.18497355 0.10882439
0.033140562 -0.18440545 0.10772145
0.035087679 -0.18423255 0.1085736
0.036316223 -0.18415655 0.10990645
0.02617668 -0.17837486 -0.011229759
0.028034972 -0.17823234 -0.010006445
0.029205469 -0.17817155 -0.0085384948
0.029697664 -0.17819056 -0.0068195462
0.030190049 -0.17820956 -0.0051007397
0.030007554 -0.17830835 -0.0031190021
0.027095899 -0.17873301 -5.3170359e-05
0.020610444 -0.17958514 0.0044750036
0.013151706 -0.18055606 0.0094660558
0.013668029 -0.180576 0.011268805
0.01638237 -0.18033186 0.01215981
0.019786034 -0.18000504 0.0127395
0.021010863 -0.17993855 0.01421542
0.021519683 -0.17995849 0.015991731
0.02202832 -0.17997845 0.01776785
0.022536948 -0.17999746 0.019543875
0.023045668 -0.1800174 0.021319805
0.023554206 -0.18003735 0.023095639
0.023353189 -0.18014279 0.02519419
0.023151308 -0.18024918 0.027300149
0.021514934 -0.1805304 0.030080516
