# .PCD v0.7 - Point Cloud Data file format
VERSION 0.7
FIELDS x y z
SIZE 4 4 4
TYPE F F F
COUNT 1 1 1
WIDTH 1204
HEIGHT 1
VIEWPOINT 0 0 0 1 0 0 0
POINTS 1204
DATA ascii
-0.00077631854 -0.020975536 0.007377347
0.00081462297 -0.021059953 0.0073712994
0.0030941716 -0.020966426 0.0067589935
0.0043130624 -0.021288699 0.0060894736
-0.0042321375 -0.022720916 -0.0061543724
-0.0033691463 -0.023255017 -0.0066465731
-0.00069919426 -0.023230534 -0.0073896847
0.0010122753 -0.023144754 -0.0073400275
0.0029614873 -0.022747008 -0.006799656
0.0042099766 -0.023535486 -0.0061721047
-0.006149576 -0.023249708 -0.0042381147
-0.0052122031 -0.023045871 -0.0053070192
0.0051827128 -0.023017926 -0.0053065647
0.0061738724 -0.022782711 -0.0042077419
-0.0068449001 -0.022997638 -0.0028596118
0.0068580369 -0.023129258 -0.0028249973
-0.0073335432 -0.022906013 -0.0010543069
0.0073552644 -0.022991093 -0.00091520196
-0.0073256325 -0.023087967 0.0011042473
0.0073753507 -0.022974748 0.00078936445
-0.0068024644 -0.022995969 0.0029780669
0.0067987856 -0.023307687 0.0029773312
-0.006100181 -0.023158444 0.0042996905
-0.0052354657 -0.022962196 0.0052809864
0.0051726429 -0.023198977 0.0053488505
0.0061333394 -0.022986978 0.004258242
-0.0041955737 -0.023249365 0.0061834576
-0.0029882328 -0.023226617 0.0067904415
-0.00093023072 -0.023019757 0.0073514981
0.0008702504 -0.022950375 0.0073612803
0.0030165033 -0.022919917 0.0067820572
0.0040506031 -0.022953039 0.0062994352
-0.0041484432 -0.025528971 -0.0062213382
-0.0032012486 -0.02512553 -0.006709001
-0.00083544513 -0.025124365 -0.0073681786
0.00093123218 -0.025198847 -0.0073530544
0.0030054012 -0.024956154 -0.0067887851
0.0042042136 -0.025281865 -0.0061767208
-0.0062021725 -0.025256984 -0.0041723759
-0.0051537463 -0.024789039 -0.0053640101
0.0052787978 -0.024949836 -0.0052425587
0.0061274036 -0.024962146 -0.0042658355
-0.0067042862 -0.024819624 -0.0032368272
0.0068060509 -0.025019607 -0.0029530281
-0.0073191728 -0.025064081 -0.0011382428
0.0073765172 -0.025115611 -0.00078215083
-0.0073295711 -0.024865434 0.0010792922
0.0073273182 -0.02501554 0.0010871443
-0.0066928118 -0.024947572 0.0032197079
0.006751461 -0.024962215 0.003117373
-0.0061953645 -0.025093794 0.0041807033
-0.0052183089 -0.024825914 0.0052903355
0.0053633056 -0.025161773 0.0051589501
0.0061874478 -0.024831761 0.0041906
-0.0041906941 -0.024251271 0.0061873565
-0.0030504777 -0.024920933 0.0067580766
-0.0010629536 -0.024938649 0.0073316498
0.0009396369 -0.024844475 0.0073500122
0.0030356199 -0.025044842 0.006779057
0.0040448569 -0.02426533 0.0063040261
-0.0042933309 -0.026631247 -0.0061054328
-0.0030861981 -0.026950609 -0.0067587132
-0.0011320715 -0.027000993 -0.0073210872
0.0010824993 -0.026987312 -0.0073291766
0.0030463671 -0.026796374 -0.0067709093
0.0042583747 -0.027092248 -0.0061333994
-0.0062578018 -0.027476683 -0.004102848
-0.0052360403 -0.026904192 -0.0052813226
0.005337094 -0.02722384 -0.0051702247
0.0060143834 -0.027404051 -0.004407119
-0.0067658015 -0.026926981 -0.0030554093
0.006834582 -0.0269731 -0.0028914728
-0.0073286621 -0.027021155 -0.0010852352
0.0072929054 -0.026772527 -0.0013096544
-0.0073443428 -0.026944866 0.00098572415
0.0073286472 -0.027062194 0.0010793495
-0.0067980271 -0.027096439 0.0029520369
0.0068083229 -0.026633063 0.0029416704
-0.0061784191 -0.026708091 0.0042018797
-0.0053862035 -0.027166331 0.0051394617
0.0053512207 -0.026803922 0.0051710596
0.0061765229 -0.027060252 0.004204249
-0.004417704 -0.02685008 0.0060057393
-0.0029225566 -0.027184067 0.0068231705
-0.0011222854 -0.027132252 0.0073226248
0.0012012454 -0.026942728 0.0073094782
0.003149613 -0.027030544 0.0067395186
0.0043589259 -0.027602457 0.006052759
-0.0041684574 -0.028536512 -0.0062053381
-0.0029724103 -0.028853485 -0.0068035061
-0.0007919569 -0.028893925 -0.0073750587
0.00067328545 -0.02905363 -0.0073937965
0.0028850418 -0.028925074 -0.006824967
0.0043156254 -0.02904493 -0.0060876049
-0.0061502466 -0.029213248 -0.0042372975
-0.0052306694 -0.029521845 -0.005279474
0.0052496716 -0.029157232 -0.0052566458
0.0061583119 -0.029054467 -0.0042272159
-0.006859995 -0.029210066 -0.0028229787
0.0068044798 -0.029040128 -0.002956748
-0.007331301 -0.029157255 -0.0010683731
0.0073473584 -0.028875079 -0.00096683356
-0.0073535526 -0.02900739 0.00091840734
0.0073470604 -0.029150972 0.00096306554
-0.0068270783 -0.028732667 0.0029121118
0.0067232861 -0.02886221 0.0031813665
-0.0060963961 -0.028700149 0.0043044011
-0.0053866114 -0.029148826 0.0051508201
0.0052264966 -0.028876165 0.0052664867
0.0061408277 -0.029392874 0.0042488594
-0.0041375519 -0.028814873 0.0062298547
-0.0031174822 -0.028964994 0.0067442297
-0.0014207062 -0.028886367 0.0072729071
0.00096317299 -0.029005727 0.0073478161
0.0029744268 -0.028987179 0.0068040541
0.0042747087 -0.029073237 0.0061201276
-0.0042143278 -0.031210912 -0.0061686509
-0.0028553316 -0.031395782 -0.0068481504
-0.00089317962 -0.03113802 -0.0073583093
0.0010262011 -0.030997213 -0.007338081
0.0030201362 -0.030926198 -0.006781253
0.0040618116 -0.031116217 -0.0062906635
-0.0062075341 -0.031231476 -0.0041656955
-0.0053183767 -0.031186245 -0.0052048438
0.0051825466 -0.031039426 -0.0053537562
0.0060915779 -0.031006236 -0.0043106396
-0.0067547024 -0.030825833 -0.0030991307
0.0068323109 -0.03106828 -0.0028968013
-0.0073512709 -0.030819228 -0.00094206014
0.0073580095 -0.031275108 -0.0008993941
-0.0073418966 -0.031014884 0.00099582516
0.0073800068 -0.03115475 0.00075840694
-0.0067864782 -0.031019932 0.0030223033
0.0068053775 -0.031056609 0.0029559522
-0.0062774648 -0.03157524 0.0040780553
-0.0052979183 -0.031148985 0.0052260533
0.0051993793 -0.030874867 0.0053057838
0.0061459951 -0.030611036 0.0042423964
-0.0041735363 -0.031111233 0.0062010586
-0.0028694898 -0.030968895 0.006842243
-0.00098489935 -0.030834405 0.0073432806
0.00076094788 -0.030876912 0.0073797381
0.0029890116 -0.031060552 0.0067976811
0.0041943486 -0.030956265 0.0061844089
-0.0041826256 -0.033191349 -0.0061940197
-0.002898321 -0.033102628 -0.0068257055
-0.00089477288 -0.032910183 -0.0073588393
0.0010194377 -0.033165373 -0.0073382133
0.0031107117 -0.033050198 -0.006745006
0.0040414203 -0.033199184 -0.0063069845
-0.0061048483 -0.033077784 -0.0042940597
-0.005409101 -0.033058882 -0.0050942772
0.0054512662 -0.033159249 -0.0050613591
0.0062501929 -0.032930575 -0.0041123787
-0.006806992 -0.033186927 -0.0029502546
0.0068766871 -0.032973688 -0.0027776833
-0.0073477533 -0.032915063 -0.00096434652
0.0073469239 -0.03291345 -0.00096960616
-0.0073706703 -0.033039171 0.00081896706
0.0073578251 -0.032803401 0.0008994001
-0.0068229781 -0.032938965 0.0029085216
0.0066735782 -0.032876268 0.003280974
-0.0060804328 -0.032442231 0.0043243417
-0.0053672041 -0.032971818 0.0051296595
0.0053075743 -0.032893743 0.0052019558
0.0062040766 -0.032882005 0.0041697854
-0.0040512895 -0.033226892 0.0062988494
-0.0028007505 -0.033213399 0.0068680244
-0.00098571484 -0.03309894 0.007343472
0.00097449165 -0.03297602 0.0073448243
0.0030671554 -0.032772433 0.0067629465
0.0042715375 -0.032824829 0.006122651
-0.004285574 -0.034994341 -0.006111667
-0.00301426 -0.034857299 -0.0067821941
-0.0011925373 -0.034632802 -0.0073116692
0.00089107343 -0.034939982 -0.0073584425
0.0030580952 -0.035016812 -0.0067701642
0.0041265837 -0.034907438 -0.0062388596
-0.0061194561 -0.035147466 -0.0042758076
-0.0052345437 -0.035105359 -0.0052858396
0.005409488 -0.035102397 -0.0051220483
0.0061367704 -0.03491294 -0.0042541632
-0.0067344136 -0.0348051 -0.0031512026
0.0068116146 -0.034992028 -0.002939343
-0.0073900982 -0.034920897 -0.00069617387
0.0073565394 -0.034858573 -0.00090870913
-0.0073694694 -0.034927968 0.00082656881
0.0073311785 -0.035085458 0.0010690778
-0.0068080155 -0.035081066 0.0029482387
0.0068120291 -0.035061866 0.0029368389
-0.0062224115 -0.034785833 0.0041468595
-0.0051810113 -0.035175275 0.0053349794
0.0052000866 -0.03519645 0.0053231171
0.0060704309 -0.034981035 0.0043368354
-0.0041045314 -0.03590012 0.0062562451
-0.0031719753 -0.035012633 0.0067286505
-0.00087763881 -0.034712125 0.0073613008
0.0011121522 -0.035182975 0.007324269
0.0029797242 -0.035187308 0.0067917304
0.0042623458 -0.035275951 0.0061299959
-0.0041624615 -0.036710892 -0.0062101637
-0.0029321657 -0.037169676 -0.0068164272
-0.0012586309 -0.036987484 -0.0073014032
0.00089055585 -0.037110034 -0.0073587745
0.0030629437 -0.036699422 -0.006760112
0.0041637267 -0.037084587 -0.0062091532
-0.0060816719 -0.037323527 -0.0043230457
-0.0052791564 -0.037030287 -0.0052434155
0.0054186387 -0.036954671 -0.0050981948
0.0060762651 -0.037245363 -0.0043298034
-0.0068188058 -0.03720862 -0.0029260127
0.0067442362 -0.037213057 -0.0031158766
-0.0073309354 -0.037061233 -0.0010617437
0.0073132161 -0.037024613 -0.0011741468
-0.0073596858 -0.037200782 0.00088788068
0.0073517873 -0.037066761 0.00093854882
-0.0067794053 -0.037333123 0.0030166185
0.0067573655 -0.037173878 0.003088908
-0.006133398 -0.036833607 0.004258119
-0.005171292 -0.037023321 0.0053290967
0.0052397866 -0.037149899 0.0052765771
0.0061688307 -0.036758248 0.0042138286
-0.0042302362 -0.036919158 0.0061556785
-0.0029677404 -0.036979351 0.0068040648
-0.0010587939 -0.0370952 0.0073326873
0.001040734 -0.036752034 0.0073342863
0.0029809915 -0.036892254 0.0068000313
0.0042170072 -0.037185282 0.0061662598
-0.0040537976 -0.038160447 -0.0062971003
-0.0030824633 -0.038980015 -0.0067580235
-0.00093792885 -0.039000835 -0.0073513757
0.00096374133 -0.039468374 -0.007347974
0.0028935566 -0.038916718 -0.0068340935
0.0042521697 -0.03896755 -0.0061384058
-0.0060886103 -0.038824681 -0.0043143784
-0.005295753 -0.03905566 -0.0052127661
0.0053302585 -0.039020222 -0.0051858113
0.0061184708 -0.038506076 -0.0042770514
-0.0067381496 -0.03868572 -0.0031291533
0.0068317247 -0.03900063 -0.0028997457
-0.0074046138 -0.039079055 -0.00060425559
0.0073238928 -0.038766377 -0.0011154851
-0.007344136 -0.038945273 0.00098699995
0.0073123146 -0.039021194 0.0011680567
-0.0067625432 -0.039019424 0.0030636285
0.0067524184 -0.039012201 0.003109175
-0.006184252 -0.038905051 0.0041945451
-0.0052219122 -0.038760733 0.0053058653
0.0052670427 -0.03895798 0.0052400292
0.006099279 -0.038741477 0.0043007615
-0.0041197464 -0.039585877 0.0062440597
-0.0027720076 -0.039177936 0.0068735792
-0.00093212607 -0.038889635 0.0073526823
0.0010706558 -0.038874004 0.0073308088
0.0031715375 -0.039020974 0.00672724
0.0041906266 -0.03933166 0.0061873561
-0.0041535972 -0.040754903 -0.0062172702
-0.0031690535 -0.041243535 -0.0067255064
-0.0012619975 -0.04088803 -0.0072996542
0.0010278918 -0.041076653 -0.0073365211
0.0031569123 -0.041304395 -0.0067279954
0.0041662939 -0.041050229 -0.0062071132
-0.0061303629 -0.041018683 -0.004262195
-0.0050260499 -0.040993884 -0.0054840655
0.0051890127 -0.04108816 -0.0053122616
0.0062553873 -0.041337531 -0.0041059162
-0.0067830286 -0.041143898 -0.0030154802
0.0067908037 -0.041088145 -0.0029876132
-0.0073647406 -0.041119788 -0.00085543393
0.0073354258 -0.040940467 -0.0010374244
-0.0073293336 -0.04095019 0.001063771
0.0073720282 -0.041274954 0.00081033865
-0.0067168414 -0.041174296 0.0031807264
0.006866823 -0.040917497 0.002804189
-0.0062663378 -0.04153233 0.0040919269
-0.0051875664 -0.040933996 0.005313308
0.0053420314 -0.040869698 0.0052189962
0.0061915717 -0.040958609 0.0041853879
-0.0041394657 -0.040834848 0.0062282803
-0.0032165777 -0.041065667 0.0067087281
-0.0010719843 -0.04087992 0.0073305913
0.0010697625 -0.041109875 0.007328881
0.0029408268 -0.040935569 0.0068163895
0.0042501674 -0.040823743 0.0061397185
-0.0042408295 -0.04313083 -0.0061474922
-0.0027299793 -0.043099262 -0.0068914937
-0.0011619602 -0.042857789 -0.0073158047
0.0014866737 -0.043025218 -0.0072631496
0.0030999086 -0.042881649 -0.0067491536
0.0043497132 -0.042336799 -0.0060603828
-0.0062052081 -0.043007787 -0.0041686459
-0.0053617097 -0.043026857 -0.0051508727
0.0052961907 -0.043062393 -0.0052117021
0.0061125918 -0.043136355 -0.0042844168
-0.0067990548 -0.042749658 -0.0029775021
0.0068781767 -0.043089077 -0.002761621
-0.0073746378 -0.042908717 -0.00078303099
0.007322425 -0.043117322 -0.0011143992
-0.0073587694 -0.043123879 0.00089352799
0.0073564267 -0.043050211 0.00090627524
-0.0068009486 -0.043162808 0.0029723863
0.0066851298 -0.042952344 0.0032785619
-0.0060483874 -0.042687163 0.0043643615
-0.0052271932 -0.043092161 0.0052619521
0.0053236047 -0.04319727 0.005199587
0.0062224506 -0.043281041 0.0041467804
-0.0041189231 -0.043144606 0.0062447065
-0.0028003762 -0.043120135 0.0068637473
-0.0011109209 -0.042760227 0.0073234616
0.0010169381 -0.043047979 0.0073385737
0.0029460541 -0.043052129 0.0068067629
0.0041704867 -0.042975686 0.0062034549
-0.0040676575 -0.04482235 -0.0062860358
-0.0030016082 -0.044918332 -0.0067893923
-0.00087929139 -0.045030773 -0.0073613278
0.00098179677 -0.044971399 -0.0073451432
0.0030681908 -0.044899516 -0.0067540547
0.0042216699 -0.044670224 -0.006162826
-0.0062044435 -0.044900306 -0.0041696085
-0.0051514735 -0.04501776 -0.0053353356
0.0052281339 -0.045067389 -0.0052923397
0.0061472282 -0.04456377 -0.0042411261
-0.0067147701 -0.044930991 -0.0031903356
0.0068122488 -0.045217548 -0.002930928
-0.0073625697 -0.045027558 -0.0008705568
0.0073286956 -0.044991102 -0.0010839382
-0.0073211864 -0.045391511 0.0011164608
0.0073330165 -0.044947963 0.0010573984
-0.0068334513 -0.044909749 0.0028947575
0.0066827787 -0.044869225 0.003282516
-0.0061346022 -0.044829674 0.0042565851
-0.0053621125 -0.045286253 0.0051625962
0.005331778 -0.04487757 0.0051816097
0.0062202215 -0.044812646 0.0041495613
-0.0043282444 -0.044336796 0.0060772439
-0.003271718 -0.044800207 0.006685412
-0.00066736381 -0.045184549 0.0073944638
0.00098947831 -0.044778991 0.0073423497
0.0029023006 -0.044857264 0.0068262923
0.0042199232 -0.045175388 0.0061638984
-0.0041361568 -0.046717528 -0.0062312437
-0.0031025831 -0.047049522 -0.0067485739
-0.0010143337 -0.047238529 -0.0073390254
0.0010018706 -0.047048412 -0.0073404498
0.0031591184 -0.047074579 -0.0067324229
0.0041670906 -0.046890341 -0.0062064971
-0.0062600593 -0.046510812 -0.0041000945
-0.0051550227 -0.047108047 -0.0053640287
0.0055360347 -0.04706382 -0.0049549565
0.0061698235 -0.046754595 -0.0042128894
-0.0068064518 -0.047035825 -0.0029637073
0.0067713493 -0.04711457 -0.0030636517
-0.0073749535 -0.046881363 -0.00078935595
0.0073770131 -0.046863291 -0.00077908539
-0.0073634782 -0.04702729 0.00086086901
0.0073768795 -0.047034282 0.00077959505
-0.0067561441 -0.047097646 0.0030888626
0.0066626258 -0.046750959 0.003333464
-0.0061940788 -0.047396507 0.0041822297
-0.0051962803 -0.047165561 0.0053364257
0.0051282421 -0.046897616 0.0053716507
0.006170853 -0.047055542 0.0042112637
-0.0042459304 -0.046520717 0.0061430871
-0.0030398504 -0.046938237 0.0067764879
-0.0010033876 -0.047197007 0.0073385197
0.0011597195 -0.047113985 0.0073167165
0.0028394703 -0.046931032 0.0068520079
0.004284793 -0.046768162 0.0061119958
-0.0041013579 -0.048913203 -0.0062590907
-0.0027815592 -0.049010374 -0.006875392
-0.00088716485 -0.048672169 -0.0073600975
0.0011124837 -0.048969142 -0.0073232348
0.0030096639 -0.04881683 -0.0067760157
0.0042155129 -0.048955996 -0.0061677676
-0.0062311976 -0.048845023 -0.00413618
-0.0051112971 -0.048801463 -0.0054191407
0.0052176989 -0.048829816 -0.0053205439
0.0061952532 -0.04864284 -0.0041811098
-0.006675486 -0.048906289 -0.0032871917
0.0067387908 -0.049238067 -0.0031368632
-0.0073512169 -0.048984546 -0.00093988964
0.0073396158 -0.048840318 -0.0010135575
-0.0073774066 -0.048981324 0.00077624747
0.0073352912 -0.049019504 0.0010378073
-0.0068072299 -0.048918288 0.0029659122
0.0067079938 -0.049180329 0.0032229302
-0.0061463509 -0.048582435 0.0042418856
-0.0051891236 -0.049094409 0.0053165904
0.0051531913 -0.049095433 0.0053614224
0.0061106663 -0.049150966 0.004286489
-0.0042020325 -0.04857165 0.0061781984
-0.0030394557 -0.048905205 0.0067795576
-0.0010722565 -0.049172066 0.0073305178
0.00085050607 -0.049155716 0.0073644537
0.0028868527 -0.048818447 0.0068333438
0.0042077657 -0.04907674 0.0061736098
-0.0042185113 -0.050852861 -0.006165375
-0.0029765656 -0.051155135 -0.0067995363
-0.00092175405 -0.05098439 -0.0073536583
0.00100739 -0.050830577 -0.007340624
0.0027839658 -0.050906185 -0.0068700612
0.0042010359 -0.050477438 -0.0061793532
-0.0061852681 -0.050836686 -0.0041935993
-0.0051252474 -0.051021453 -0.0053934078
0.0054009994 -0.050851736 -0.005118221
0.0062630954 -0.050973162 -0.0040963148
-0.0068242466 -0.050961934 -0.0029200877
0.0067069056 -0.051224321 -0.0032125178
-0.0073835645 -0.050742779 -0.00073098211
0.0073090992 -0.050991882 -0.0011995115
-0.0073159789 -0.050832018 0.0011539811
0.0073732613 -0.050880741 0.00080249546
-0.0068318746 -0.050970595 0.0028909522
0.006741005 -0.050772976 0.0031269395
-0.006075975 -0.05065408 0.0043298472
-0.0054598409 -0.051015902 0.0050543151
0.005340674 -0.051085703 0.005169699
0.0061679799 -0.051088169 0.0042148405
-0.0042773993 -0.051174879 0.0061178952
-0.0029401786 -0.050853234 0.0068110316
-0.00055038207 -0.051018257 0.0074129128
0.0010151489 -0.051181216 0.0073395269
0.0029511217 -0.051134642 0.0068074958
0.0040798727 -0.05067876 0.0062759188
-0.0041969372 -0.052537903 -0.0061826408
-0.0028347678 -0.053163204 -0.006848684
-0.000865518 -0.053024914 -0.0073630493
0.0009770568 -0.053013451 -0.0073453551
0.0033381516 -0.052974802 -0.0066540288
0.0041538775 -0.053151984 -0.0062170904
-0.0062170029 -0.052965112 -0.0041539385
-0.0053401124 -0.05319066 -0.0051760776
0.0053279558 -0.053050302 -0.0052045835
0.0062873284 -0.053215627 -0.0040660328
-0.0068005049 -0.053062346 -0.0029811056
0.0068006776 -0.053006396 -0.0029713803
-0.0073775086 -0.052807041 -0.00077596825
0.007338596 -0.053010926 -0.0010208932
-0.0073236376 -0.053187784 0.0011167689
0.0073854425 -0.053232905 0.00072533876
-0.006729444 -0.05306216 0.0031520657
0.0067655975 -0.053033054 0.0030679742
-0.0061515532 -0.052814331 0.0042353668
-0.0051923376 -0.053131975 0.0053138114
0.0052446174 -0.053050641 0.0052628964
0.0061415504 -0.053263243 0.0042478708
-0.0042358502 -0.05293918 0.0061511281
-0.0030347279 -0.053077664 0.0067785042
-0.00095706497 -0.052818861 0.007348693
0.0010569035 -0.053213201 0.0073329285
0.0028543749 -0.052815307 0.0068471693
0.0041052988 -0.052816842 0.0062555703
-0.0041260044 -0.055040877 -0.0062393961
-0.0030738413 -0.055255007 -0.0067587532
-0.0010541823 -0.055107076 -0.0073337499
0.0010209464 -0.054793671 -0.0073385774
0.003198185 -0.054987617 -0.006716704
0.0042834268 -0.055319376 -0.0061134589
-0.0060747759 -0.0550052 -0.0043317294
-0.0053050518 -0.055330217 -0.0052062315
0.0052170916 -0.055035524 -0.0052843667
0.0061522434 -0.055479567 -0.0042348965
-0.0067733545 -0.054902781 -0.0030255485
0.0067646517 -0.054938093 -0.0030582878
-0.0073283021 -0.055211484 -0.0010814496
0.0073446473 -0.05510442 -0.00097833562
-0.0073688338 -0.055139538 0.00083042984
0.0073445537 -0.054987118 0.00098048477
-0.0068370425 -0.055174861 0.002866671
0.0067598261 -0.054868396 0.0030861215
-0.0061273607 -0.0546863 0.0042656013
-0.0054158517 -0.055070519 0.0050856541
0.0050862241 -0.054930311 0.00540207
0.0061596059 -0.054761332 0.0042252941
-0.0030382699 -0.055296171 0.0067799496
-0.001077516 -0.055331737 0.0073285731
0.00093463768 -0.054833833 0.0073520886
0.0030779263 -0.054923464 0.0067611695
0.0040858141 -0.054909933 0.00627115
-0.0042121271 -0.056768686 -0.0061705043
-0.0029246921 -0.056778163 -0.0068168766
-0.0014227255 -0.056733444 -0.0072745639
0.00087710022 -0.056887895 -0.0073617166
0.0029027534 -0.056867819 -0.0068229274
0.0042117508 -0.056851447 -0.0061708055
-0.0061247791 -0.056645527 -0.0042692311
-0.0051635792 -0.056751609 -0.0053557735
0.0053039682 -0.05710246 -0.0052181212
0.0061431304 -0.057259828 -0.004246294
-0.0067885108 -0.057061981 -0.0030171054
0.0066930787 -0.056925885 -0.0032507253
-0.0073253065 -0.056873173 -0.0010792221
0.0073380605 -0.056670345 -0.0010258233
-0.0073522567 -0.057223845 0.00093549746
0.0073296083 -0.057038341 0.0010789426
-0.0066973679 -0.057123382 0.0032456673
0.006802585 -0.057080347 0.0029484939
-0.0061944812 -0.057098866 0.0041816924
-0.005097969 -0.057014167 0.0053997412
0.005161569 -0.056783132 0.0053543206
0.0062070806 -0.056812651 0.0041659437
-0.0041136178 -0.056737721 0.0062488997
-0.0031882089 -0.056775354 0.0067143142
-0.0010489284 -0.057104371 0.0073333662
0.0013429594 -0.057188861 0.0072863093
0.0028783372 -0.056933634 0.0068393536
0.0041756527 -0.057084978 0.006199271
-0.0043110861 -0.059265763 -0.006091346
-0.0030794151 -0.059162084 -0.006765693
-0.0010230134 -0.059195261 -0.0073386854
0.0007100738 -0.058974531 -0.0073880963
0.0031515509 -0.059032869 -0.0067333137
0.004282224 -0.059152752 -0.0061144349
-0.0060802246 -0.059288524 -0.004324934
-0.0051505184 -0.059019044 -0.0053613158
0.0053960336 -0.05914209 -0.0051270979
0.006183818 -0.059028711 -0.0041954415
-0.0067333318 -0.059048496 -0.0031463082
0.0067540407 -0.059112836 -0.0031074269
-0.0073272386 -0.058837123 -0.001094366
0.0073563736 -0.059402708 -0.00090628618
-0.007335302 -0.05881172 0.0010428721
0.0073300474 -0.05908173 0.0010761509
-0.0068434598 -0.058825478 0.0028548294
0.0068795704 -0.058874734 0.0027654159
-0.006180312 -0.058664571 0.0041993982
-0.0054887128 -0.058991104 0.0050202655
0.0049904762 -0.058811452 0.005523928
0.0062219985 -0.05893632 0.0041472884
-0.0041982429 -0.059404679 0.0061811917
-0.0027874112 -0.05895872 0.0068661049
-0.0008738999 -0.058855534 0.0073618023
0.00096330617 -0.058795523 0.0073462403
0.0030386103 -0.058959126 0.0067802989
0.004363216 -0.059392668 0.0060492121
-0.0041570044 -0.061003573 -0.0062146173
-0.0031979261 -0.061000366 -0.0067076804
-0.00089454371 -0.060898032 -0.0073577613
0.0005957766 -0.061020382 -0.0074061509
0.0026828889 -0.060860425 -0.0069117881
0.004154705 -0.061217073 -0.006216458
-0.0061137769 -0.061302792 -0.0042830012
-0.0054132994 -0.061161935 -0.0050988146
0.0051626102 -0.061086636 -0.0053316429
0.0062311888 -0.060396086 -0.0041362336
-0.0067585101 -0.061311841 -0.0030827483
0.0068159215 -0.060893986 -0.0029304007
-0.0073840064 -0.061136067 -0.00072787562
0.0073422086 -0.060990408 -0.00098390772
-0.0073428154 -0.060989387 0.00098090281
0.007305142 -0.06110473 0.0012257452
-0.0067326413 -0.061131302 0.0031413839
0.0066943234 -0.061078753 0.0032394964
-0.0061167101 -0.060726322 0.0042788936
-0.0052928319 -0.06102429 0.0052078981
0.0052895141 -0.060933746 0.0052331085
0.0062147323 -0.060742509 0.0041563651
-0.004306579 -0.061472513 0.0060945144
-0.0031033317 -0.060797036 0.0067531085
-0.00076617923 -0.061000455 0.007378804
0.0009499485 -0.060882945 0.0073497873
0.0030458204 -0.060788307 0.0067670671
0.0041590957 -0.061106887 0.0062125027
-0.0041822554 -0.062946394 -0.0061944243
-0.0029685209 -0.063257568 -0.0068065636
-0.00098707376 -0.063149191 -0.0073443749
0.0008155962 -0.062859498 -0.0073714498
0.0031434377 -0.063389413 -0.0067350711
0.0042240443 -0.062897779 -0.0061609931
-0.0060931612 -0.062960595 -0.0043087769
-0.0052344501 -0.063104011 -0.0052804952
0.0054665012 -0.063074976 -0.0050438172
0.0061452901 -0.063370846 -0.0042436165
-0.0067388448 -0.063206524 -0.0031462715
0.0067909458 -0.063140161 -0.0029940957
-0.0072621568 -0.063059092 -0.0014863174
0.0073402985 -0.063146368 -0.0010111694
-0.0073572653 -0.063203156 0.00089673221
0.0073318323 -0.06260705 0.0010648406
-0.006733601 -0.062904723 0.0031431613
0.0067338152 -0.062967382 0.003147485
-0.0061080772 -0.062905043 0.0042896755
-0.0051579042 -0.062906682 0.0053430418
0.0054999404 -0.063148506 0.0050265961
0.0062011862 -0.063424736 0.0041732881
-0.0043114726 -0.063029654 0.006090594
-0.0030105228 -0.063137732 0.0067816786
-0.0012564885 -0.062940776 0.007301101
0.0011959247 -0.062967688 0.0073093786
0.0028893973 -0.063073434 0.0068352567
0.0043629287 -0.062166575 0.0060494319
-0.0028279712 -0.064909711 -0.0068573928
-0.00090729474 -0.064875387 -0.007356978
0.00093274837 -0.064936869 -0.0073529589
0.0030829473 -0.065096788 -0.0067581558
0.0041291243 -0.064961307 -0.006236936
-0.0062622046 -0.064987674 -0.0040974794
-0.0052551501 -0.064738415 -0.0052493615
0.0052602934 -0.064874232 -0.005237747
0.006178881 -0.065288149 -0.0042016353
-0.0068370053 -0.064960025 -0.0028737048
0.0067076725 -0.065021522 -0.0032342291
-0.0073178611 -0.064989209 -0.0011504138
0.007333728 -0.065082736 -0.0010532868
-0.0073391357 -0.065044805 0.0010134797
0.007319964 -0.065082669 0.0011291193
-0.006848251 -0.06522283 0.0028545132
0.0067292796 -0.064881876 0.0031607472
-0.0061225025 -0.065392047 0.0042716353
-0.005069444 -0.064853281 0.0054309969
0.0052524321 -0.064815789 0.0052734809
0.0062692836 -0.06472832 0.0040881615
-0.0042259675 -0.06494958 0.0061589913
-0.0030096264 -0.065038435 0.0067811687
-0.00096764247 -0.065067306 0.0073469793
0.0012976397 -0.064717501 0.007292401
0.0034326254 -0.06478709 0.0066208704
0.0042456561 -0.065183491 0.0061432389
-0.0042448542 -0.066971831 -0.0061443597
-0.0030790521 -0.066908404 -0.0067546512
-0.0011170865 -0.066988342 -0.0073236721
0.0010287463 -0.066890754 -0.0073376363
0.0029236611 -0.066936851 -0.0068231048
0.0041718655 -0.067550465 -0.0062027518
-0.0061701816 -0.067063056 -0.0042125164
-0.0053449147 -0.067024872 -0.005183782
0.0052316794 -0.066952489 -0.0052811448
0.0061455667 -0.067101806 -0.0042432845
-0.006785877 -0.067022949 -0.0030148383
0.0067624687 -0.066920131 -0.0030669917
-0.0073618172 -0.067088142 -0.00087118254
0.0073428922 -0.06720528 -0.00098529761
-0.0073576113 -0.067138247 0.00090154808
0.0073402012 -0.066895142 0.0010033887
-0.0067789331 -0.066949397 0.0030426562
0.0067071728 -0.066655234 0.0032097332
-0.0061750235 -0.066602856 0.0042059799
-0.0050426833 -0.066936933 0.005452319
0.0053668339 -0.066746481 0.0051537436
0.0062177898 -0.06729047 0.0041525192
-0.0041258181 -0.066984653 0.0062391027
-0.0031592918 -0.067102842 0.0067266333
-0.0012370382 -0.066834852 0.0073023676
0.001282902 -0.066840284 0.0072967387
0.0030947968 -0.066830292 0.006753521
0.0041632499 -0.066655226 0.0062091593
-0.0042096907 -0.069607757 -0.0061724992
-0.0030069554 -0.068766013 -0.0067924242
-0.00097531045 -0.069244057 -0.007344672
0.0011482983 -0.069229454 -0.0073182229
0.0032731765 -0.069025293 -0.0066874158
0.0042590466 -0.068718985 -0.0061330111
-0.0060428604 -0.069249585 -0.0043716757
-0.0053573921 -0.068964578 -0.0051485053
0.0053037568 -0.068967067 -0.0052026091
0.0062498054 -0.068890378 -0.0041129934
-0.0067318184 -0.068693683 -0.0031487679
0.0067913174 -0.068902425 -0.0030086546
-0.0073131798 -0.068926781 -0.0011826927
0.0073300069 -0.068967573 -0.001067879
-0.0073365066 -0.069020063 0.0010352072
0.0073687905 -0.068890281 0.00082889613
-0.0068205423 -0.069208942 0.0029109668
0.0067872778 -0.069106765 0.0030199962
-0.0061748549 -0.068757072 0.004206182
-0.0053745015 -0.068911634 0.0051352945
0.0051866537 -0.068932354 0.0053100646
0.0061375643 -0.068783082 0.004252797
-0.0041775284 -0.068651907 0.0061977282
-0.0029140867 -0.068932794 0.0068217497
-0.00089400803 -0.068960376 0.0073585915
0.00093407411 -0.069236591 0.0073522632
0.0029513005 -0.068964384 0.0067953272
0.0041904566 -0.068868846 0.0061873863
-0.0042327275 -0.070460752 -0.0061540734
-0.0031363112 -0.071023881 -0.0067380234
-0.0009374959 -0.070844099 -0.0073522306
0.00075230119 -0.07117071 -0.0073802401
0.0030109389 -0.070972882 -0.0067909639
0.0042876364 -0.070612386 -0.0061101471
-0.0061203851 -0.070544191 -0.0042747739
-0.0051529934 -0.071177147 -0.0053604068
0.0053630574 -0.070902921 -0.005154314
0.0061851861 -0.071024746 -0.0041937744
-0.0067776521 -0.070922315 -0.0030352715
0.0067835017 -0.071125761 -0.0030132472
-0.0073570851 -0.071034811 -0.00090538163
0.0073367916 -0.070834927 -0.0010339137
-0.0073161707 -0.070925266 0.0011640014
0.0073508886 -0.070957616 0.00094411941
-0.0068814266 -0.070803024 0.0027644434
0.006757787 -0.070900984 0.0030726502
-0.0061706654 -0.071382001 0.0042114104
-0.0052327202 -0.070971027 0.0052598198
0.0052277488 -0.071013846 0.0052866847
0.0061164601 -0.070712499 0.0042791688
-0.0042770375 -0.071050972 0.0061181127
-0.002938167 -0.071252532 0.0068172603
-0.00095194607 -0.070724681 0.0073494366
0.0014122532 -0.070618652 0.0072766161
0.0030678564 -0.070824258 0.0067643235
0.0042022532 -0.070938908 0.0061779409
-0.0042022001 -0.072865158 -0.0061785043
-0.0030837171 -0.073192351 -0.0067563336
-0.0010476473 -0.072631888 -0.0073336242
0.0011970452 -0.073139504 -0.007309793
0.0029250789 -0.073032916 -0.0068226038
0.0042605763 -0.073031463 -0.0061318032
-0.0061660642 -0.073010892 -0.0042176852
-0.0052846936 -0.073103465 -0.0052242144
0.0050971205 -0.073117867 -0.005431613
-0.0067788865 -0.073060788 -0.0030432877
0.0067475918 -0.073085874 -0.003096672
-0.0073469556 -0.073069878 -0.00096794742
0.0073744045 -0.073206536 -0.00079570786
-0.0073566404 -0.07336171 0.00090768258
0.0073241433 -0.072844744 0.0011113214
-0.0067014638 -0.073050849 0.0032434992
0.0068642148 -0.072989866 0.0028028442
-0.0062197223 -0.07340768 0.004150081
-0.0051899552 -0.072936594 0.0053313044
0.0052759023 -0.072805502 0.0052557215
0.0062288549 -0.073357493 0.0041386657
-0.0040965155 -0.072533473 0.006262525
-0.0030427638 -0.073076241 0.0067706802
-0.0010780144 -0.072973594 0.0073291585
0.0011822655 -0.072888084 0.0073121944
0.003050697 -0.072959699 0.0067743771
0.0040299832 -0.073161416 0.0063157487
-0.0041458923 -0.075246535 -0.0062235589
-0.003021349 -0.074913539 -0.0067871427
-0.0011854669 -0.074997976 -0.007311143
0.00096288644 -0.075050451 -0.0073481128
0.0030967218 -0.075153746 -0.006745398
0.0042087412 -0.074580528 -0.0061732773
-0.0062300661 -0.074248344 -0.004137686
-0.0053037317 -0.074913092 -0.0052191368
0.0051280386 -0.07506825 -0.005392259
0.0061194687 -0.075120308 -0.0042759362
-0.0067685293 -0.074916638 -0.0030549662
0.006802646 -0.074995972 -0.0029654764
-0.0073607438 -0.075143777 -0.00088222435
0.0073530329 -0.074655734 -0.00093105959
-0.0073732403 -0.074818075 0.00080253743
0.0073485402 -0.075005382 0.00095068914
-0.0068286774 -0.074969351 0.0028962775
0.0068180747 -0.075054549 0.002930094
-0.0052623195 -0.074816287 0.0052454309
0.0052260696 -0.074932888 0.0052673677
0.0061808564 -0.075073466 0.0041986573
-0.0042526159 -0.074719705 0.0061376365
-0.0029499605 -0.074758098 0.0068129022
-0.0010295666 -0.074993432 0.0073359585
0.00109903 -0.074877277 0.0073251766
0.002998695 -0.075138353 0.0067823622
0.0041652536 -0.075235978 0.0062075253
-0.0042645624 -0.076753207 -0.0061286278
-0.0030245269 -0.077337421 -0.0067843292
-0.001197982 -0.076821484 -0.0073098689
0.00092411623 -0.076954909 -0.0073543163
0.0032886842 -0.077225387 -0.0066858944
0.0043050135 -0.076577358 -0.0060962667
-0.0061334288 -0.076779187 -0.004258493
-0.0053758132 -0.076994479 -0.0051482925
0.0054496941 -0.076873496 -0.0050667915
0.0062209107 -0.076336294 -0.004149138
-0.0068959417 -0.076875508 -0.002725577
0.0066621224 -0.076887369 -0.0033435037
-0.0073721446 -0.077049389 -0.00081000425
0.0073611303 -0.076893732 -0.00087452173
-0.0073220991 -0.077078216 0.0011264262
0.0073586283 -0.077131227 0.00088947109
-0.006834792 -0.077034466 0.0028910011
0.0067559308 -0.076953053 0.003099788
-0.0061255423 -0.076806717 0.0042677941
-0.0055439202 -0.076936305 0.004988933
0.0050744233 -0.077112958 0.0054517146
0.0062171868 -0.07702148 0.0041532377
-0.0042961538 -0.077413887 0.0061027966
-0.0030932974 -0.076822631 0.0067555313
-0.0011496077 -0.077053972 0.0073172622
0.0011191712 -0.077093951 0.0073219128
0.0027775585 -0.076974034 0.0068764114
0.0041644708 -0.076919533 0.0062081446
-0.0041889115 -0.079325892 -0.0061891582
-0.0030506577 -0.079022035 -0.0067732721
-0.00086093298 -0.078992926 -0.0073643485
0.0010960886 -0.078837529 -0.0073272195
0.0032491121 -0.079049163 -0.0066953045
0.0042265719 -0.078910865 -0.006159028
-0.0061242431 -0.079398721 -0.0042699832
-0.0053156605 -0.07891652 -0.0052167689
0.0052174497 -0.078868099 -0.0053003784
0.0061203567 -0.079002306 -0.0042748395
-0.0067958017 -0.079187311 -0.0029813915
0.0068339282 -0.079041235 -0.0028730298
-0.0074101412 -0.079257891 -0.0005693924
0.0073697786 -0.079058297 -0.00082502252
-0.0073299706 -0.079065539 0.0010751331
0.0073500751 -0.079040103 0.00093884626
-0.0067165121 -0.078912489 0.0031940378
0.0067399316 -0.078907296 0.0031149345
-0.0060550529 -0.07973969 0.0043558953
-0.0053761257 -0.078839757 0.0051254034
0.0054646712 -0.079035759 0.0050462177
0.0062031373 -0.079028115 0.0041707931
-0.004413303 -0.079850137 0.0060090683
-0.0029489312 -0.079158336 0.0068054157
-0.0011549983 -0.078716263 0.0073156361
0.0009083238 -0.078960419 0.0073558893
0.0028072677 -0.078982949 0.0068586324
0.0041658981 -0.078796424 0.0062069963
-0.0041887593 -0.08066617 -0.0061892844
-0.0033200744 -0.081246458 -0.0066762678
-0.001348181 -0.081156857 -0.0072874227
0.0011379702 -0.08132261 -0.0073197968
0.0032179712 -0.081023268 -0.0067055039
0.0042157108 -0.080984481 -0.0061677247
-0.0060981973 -0.080929108 -0.0043025459
-0.0051110829 -0.081159957 -0.0054036588
0.0052585271 -0.081098162 -0.0052558724
0.0061241426 -0.080754787 -0.0042701149
-0.0067823725 -0.080946349 -0.0030040031
0.0067748665 -0.080989234 -0.0030391249
-0.0073707006 -0.080681704 -0.00081117515
0.0073997504 -0.080627911 -0.00063519954
-0.0073006363 -0.080957346 0.0012541807
0.0073817074 -0.081114456 0.0007488894
-0.0068028392 -0.080979809 0.0029725865
0.0067760441 -0.081007384 0.0030232107
-0.0060728602 -0.081795663 0.0043336283
-0.0053724744 -0.081056297 0.0051253466
0.0053453762 -0.080844454 0.0051793363
0.0060990616 -0.081051879 0.0043008793
-0.0041856812 -0.08092282 0.0061911629
-0.0030397286 -0.081242271 0.0067757615
-0.0011639257 -0.081006803 0.0073157288
0.0008748956 -0.081006572 0.0073608998
0.0031974448 -0.081030227 0.0067158318
0.004180708 -0.0810223 0.0061951401
-0.0029490769 -0.082985021 -0.0068103769
-0.00079311751 -0.08283639 -0.0073750708
0.0013472574 -0.083352685 -0.007287052
0.0030829094 -0.082677618 -0.0067612003
0.0043289061 -0.083278544 -0.006077176
-0.0061760503 -0.083090156 -0.0042052385
-0.0053082099 -0.083002292 -0.0052063805
0.0052255415 -0.082753353 -0.0053004506
0.0061551896 -0.083794892 -0.004231316
-0.0068060625 -0.082842112 -0.0029637711
0.0067662387 -0.083113514 -0.0030602813
-0.0073480443 -0.08339601 -0.00095197372
0.0073072417 -0.082872406 -0.0012162304
-0.0073062913 -0.082885943 0.0012265287
0.0073585194 -0.082845859 0.00089075806
-0.0067524021 -0.083124585 0.0030812197
0.0068505523 -0.08300484 0.0028423581
-0.0062953252 -0.083194852 0.0040555424
-0.0054506552 -0.083113223 0.0050662099
0.0053831926 -0.083104782 0.0051270663
0.0061492855 -0.082923599 0.0042380937
-0.0041224146 -0.083232976 0.0062417667
-0.0028600791 -0.082810298 0.0068433122
-0.00086928968 -0.083316192 0.007362443
0.0010154921 -0.082877293 0.0073393588
0.0028066584 -0.082855657 0.0068656681
0.0041922685 -0.083527945 0.0061858832
-0.0041895211 -0.085034847 -0.0061886916
-0.0031245518 -0.084849268 -0.0067443503
-0.00094274897 -0.084819391 -0.0073514511
0.00084504869 -0.08522696 -0.0073668798
0.0029067309 -0.084779173 -0.0068294057
0.004213783 -0.085327268 -0.0061692828
-0.0061845398 -0.084986717 -0.0041946336
-0.0052211881 -0.085054755 -0.0052922359
0.0052165738 -0.084906638 -0.0052962392
0.0061432309 -0.085112981 -0.0042462698
-0.0067599886 -0.085198283 -0.0030700869
0.0067498619 -0.085292272 -0.0031221127
-0.007312648 -0.085099749 -0.0011737215
0.0073415944 -0.085229635 -0.001003544
-0.0073119332 -0.085230783 0.0011897745
0.0073490636 -0.085201658 0.00095562043
-0.0069389925 -0.084843874 0.002608143
0.0067423256 -0.084927931 0.0031143492
-0.0062068789 -0.084538437 0.004166096
-0.0051349481 -0.084904529 0.0053624325
0.0053666616 -0.084911957 0.0051449351
0.0062623173 -0.084950745 0.0040967967
-0.0041399198 -0.084847011 0.0062277578
-0.0030269029 -0.084983207 0.006778074
-0.0011848673 -0.085050888 0.0073112375
0.0011148771 -0.085060604 0.0073236586
0.0029065912 -0.08486037 0.0068288427
0.0041901385 -0.084898673 0.0061875824
-0.0043663858 -0.086391203 -0.0060472037
-0.0032180727 -0.087124377 -0.0067110285
-0.001347354 -0.087174319 -0.0072848578
0.00058389263 -0.087061189 -0.0074081216
0.0029434937 -0.087180249 -0.0068089808
0.0043115132 -0.086793423 -0.0060911039
-0.0062382668 -0.087024435 -0.0041274815
-0.0051594684 -0.087053165 -0.0053545744
0.0051894607 -0.086940661 -0.0053421701
-0.0066431551 -0.087005146 -0.0033646023
0.0067413794 -0.087108314 -0.0031263393
-0.0072974279 -0.086743228 -0.0012827414
0.0073094359 -0.086880118 -0.0012072212
-0.0073256111 -0.087017149 0.0010955433
0.0072959284 -0.08720915 0.001284448
-0.0069481335 -0.086917885 0.0025833247
0.0066829342 -0.08682853 0.003285886
-0.0061854473 -0.087132975 0.0041928762
-0.005275148 -0.086927764 0.0052497042
0.0052538915 -0.086872913 0.0052597071
0.0061164983 -0.0863114 0.0042790645
-0.0041282782 -0.087059431 0.0062370622
-0.0032901017 -0.086728074 0.0066857515
-0.0011636928 -0.086907841 0.0073158247
0.0012784799 -0.087022372 0.0072956993
0.0030856528 -0.086974449 0.0067614568
0.0041463226 -0.086719885 0.0062226285
-0.0042443317 -0.088674203 -0.0061448556
-0.00266633 -0.089119218 -0.0069179349
-0.0011032787 -0.089070767 -0.0073260013
0.00099842413 -0.08861398 -0.0073426752
0.0030971558 -0.089048542 -0.0067540924
0.0041560065 -0.088921584 -0.0062155174
-0.0060905651 -0.089621104 -0.0043121185
-0.0051426096 -0.088936754 -0.0053617791
0.0054398393 -0.088850833 -0.0050955848
0.0062025841 -0.0892286 -0.0041720932
-0.0068436726 -0.08886081 -0.0028553621
0.0067719561 -0.089109071 -0.0030621565
-0.0073253987 -0.088774331 -0.0011061325
0.0073594428 -0.089206234 -0.00089052145
-0.0073594362 -0.089030325 0.00088279642
0.0073320521 -0.088780969 0.0010601963
-0.0067769978 -0.08913365 0.0030205222
0.0069143758 -0.088667735 0.0026749435
-0.0060546184 -0.089268938 0.0043564038
-0.0053446679 -0.089058504 0.0051621608
0.0051768306 -0.089109972 0.005349956
0.0060233111 -0.0888073 0.0043955399
-0.0042363605 -0.089365132 0.0061505884
-0.0031006837 -0.089313865 0.0067533813
-0.0010325846 -0.089114949 0.0073366379
0.00083341228 -0.089285344 0.0073679336
0.0028894066 -0.088893987 0.0068323477
0.0042954735 -0.08884953 0.0061032996
-0.0042227106 -0.090976283 -0.006162161
-0.0030043544 -0.09120696 -0.0067908065
-0.0009442945 -0.090829544 -0.0073512299
0.0011389321 -0.091355331 -0.0073187305
0.003172694 -0.09101484 -0.0067192186
0.0041761324 -0.090325847 -0.0061994214
-0.0061912271 -0.091230787 -0.0041862964
-0.005436745 -0.090967767 -0.0050627314
0.0054487372 -0.091183938 -0.0050697937
0.0061438982 -0.090978384 -0.0042454558
-0.0066943564 -0.091007881 -0.0032473011
0.0067673214 -0.091038339 -0.0030472591
-0.0073633688 -0.091245346 -0.00086565613
0.0073631164 -0.091083862 -0.00086726103
-0.0073280721 -0.09108372 0.0010885501
0.0073488308 -0.091043748 0.00095707661
-0.0068406216 -0.090925783 0.0028751262
0.0067283208 -0.090883739 0.0031514384
-0.0060929079 -0.091550663 0.0043085339
-0.0052476181 -0.090777628 0.0052650808
0.0054032831 -0.090900622 0.0051164981
0.0062826178 -0.091403916 0.0040713977
-0.0044131647 -0.090915814 0.0060091391
-0.0033257618 -0.090639494 0.0066596349
-0.0010447095 -0.091166899 0.0073347162
0.00077774626 -0.09103734 0.0073767207
0.0027812456 -0.091008313 0.0068710824
0.0043368642 -0.090996251 0.0060701799
-0.0042195562 -0.092907853 -0.0061646914
-0.0029782641 -0.09296573 -0.0068030818
-0.00096776889 -0.092813618 -0.0073459628
0.00093215 -0.093071222 -0.0073527605
0.0030849322 -0.092962205 -0.0067546065
0.0041462528 -0.0931862 -0.0062233354
-0.0061559076 -0.093177848 -0.0042304527
-0.0051687686 -0.09287563 -0.0053503565
0.0052005206 -0.093420312 -0.0052816006
0.0061142282 -0.09295518 -0.0042825514
-0.0067872498 -0.093104154 -0.0029976703
0.0067984802 -0.093039297 -0.0029841636
-0.0073199244 -0.092852376 -0.0011294098
0.0073702363 -0.092797287 -0.00081965449
-0.0073753945 -0.092926927 0.00078883464
0.0073014298 -0.092925735 0.0012572731
-0.0068071014 -0.093234383 0.0029454799
0.0067682439 -0.093039289 0.0030479054
-0.0061886767 -0.093077727 0.0041888175
-0.0051463558 -0.092912018 0.0053746062
0.0051299497 -0.092888884 0.0054005645
0.0062182583 -0.093309388 0.0041518402
-0.0042944555 -0.092296973 0.0061041014
-0.0029923122 -0.092971891 0.0067945723
-0.0009993884 -0.092899553 0.0073394231
0.001066939 -0.092941172 0.0073295087
0.0032084787 -0.092717148 0.0067050215
0.0042419573 -0.093328543 0.0061460966
-0.0042912294 -0.095389925 -0.006107362
-0.003016684 -0.094957121 -0.0067789746
-0.00098969345 -0.095123291 -0.0073440764
0.0010061382 -0.095000036 -0.0073401635
0.0029057558 -0.094858401 -0.0068298029
0.004279119 -0.09486109 -0.0061170477
-0.0061378386 -0.095015809 -0.0042530461
-0.0052226577 -0.094958968 -0.0053127552
0.0053195357 -0.094927631 -0.0051969076
0.006228569 -0.095257834 -0.0041396348
-0.0067435317 -0.094896056 -0.0031034476
0.0067947935 -0.094955601 -0.0029805782
-0.0073273317 -0.094800033 -0.0010913814
0.0073255324 -0.094854333 -0.0010899847
-0.0073428489 -0.094749294 0.00099264982
0.0073247366 -0.094786204 0.001098367
-0.0067547541 -0.094989404 0.003090322
0.0067810174 -0.094973817 0.0030305295
-0.0061550587 -0.095078617 0.0042308331
-0.0051288214 -0.094815113 0.0053589796
0.0053746072 -0.094962746 0.0051295571
0.006210831 -0.094898596 0.0041611181
-0.0042179143 -0.095082194 0.0061653252
-0.0032511784 -0.095291421 0.006697542
-0.0011214283 -0.09484385 0.0073218374
0.0008654152 -0.09495014 0.0073617669
0.0028961326 -0.095113792 0.0068258448
0.0042373091 -0.09500175 0.0061498089
-0.0041896412 -0.097302906 -0.0061886399
-0.0030036105 -0.097211733 -0.0067921029
-0.0011378168 -0.097167276 -0.0073182494
0.0010378407 -0.096925333 -0.007336481
0.0032269305 -0.096950486 -0.0066949953
0.0042183511 -0.096400782 -0.0061656674
-0.0061857528 -0.096248634 -0.0041931574
-0.0054250802 -0.096983463 -0.0050809514
0.0052095884 -0.097089812 -0.0053127222
0.0061182827 -0.097752869 -0.0042775008
-0.0067672622 -0.0967324 -0.0030749268
0.0067529576 -0.096621022 -0.0031055789
-0.0073623233 -0.097090878 -0.00087230606
0.0073362705 -0.096997418 -0.0010369513
-0.0073911706 -0.096717708 0.0006889074
0.0073185074 -0.096995443 0.0011377649
-0.0067826388 -0.09706267 0.0030068248
0.0069026775 -0.096723385 0.0027066667
-0.006167925 -0.096931294 0.0042147432
-0.0053358059 -0.09724661 0.0051716543
0.0053645559 -0.096593298 0.0051649096
0.0060412465 -0.097324148 0.0043730899
-0.0042399857 -0.096615449 0.0061476617
-0.0029294316 -0.097136796 0.0068165921
-0.0013628843 -0.097105734 0.0072834208
0.00089404901 -0.096675776 0.007358484
0.0030386753 -0.097218685 0.0067731449
0.0042353165 -0.096713319 0.0061513968
-0.0043423199 -0.098967463 -0.006066503
-0.0030617213 -0.0992494 -0.0067684636
-0.00083178945 -0.099186145 -0.007368295
0.00094769383 -0.098738067 -0.0073507219
0.0029235601 -0.098925486 -0.0068232571
0.0042334907 -0.099420458 -0.0061535682
-0.0061896662 -0.098655142 -0.004188275
-0.0050609135 -0.098792121 -0.005441674
0.0053188372 -0.099068582 -0.0051861438
0.0060698078 -0.099565148 -0.0043381015
-0.0067596911 -0.098909877 -0.0030925076
0.0067467098 -0.098997869 -0.0031228885
-0.0073625064 -0.098825768 -0.00087114953
0.007315923 -0.099200375 -0.0011659884
-0.0073488425 -0.09904974 0.00095697294
0.0073373672 -0.098898411 0.0010296497
-0.0067166928 -0.09891893 0.0031777886
0.0066632265 -0.098992988 0.0033315087
-0.0061500156 -0.098744065 0.0042371228
-0.0052829525 -0.098875456 0.0052210614
0.0054681897 -0.099104568 0.0050434563
0.006254761 -0.099196248 0.0041061905
-0.0041917623 -0.09878885 0.0061862334
-0.0033402464 -0.099128999 0.0066519487
-0.0011267014 -0.098997623 0.0073196553
0.00074596715 -0.098963007 0.0073818583
0.0030922864 -0.098768063 0.0067501194
0.0042017349 -0.09900979 0.0061782533
-0.0041709836 -0.10076787 -0.0062035779
-0.0026008084 -0.10088181 -0.0069421721
-0.0011405931 -0.10080702 -0.0073198429
0.00085218897 -0.1011159 -0.0073655741
0.0029893098 -0.10083844 -0.0067974096
0.0041121212 -0.10083441 -0.0062506683
-0.0061146538 -0.10102989 -0.0042820498
-0.0050188908 -0.10091745 -0.0054925699
0.0053240331 -0.100913 -0.0051734862
0.0062175887 -0.10131049 -0.0041533811
-0.0067446381 -0.1011198 -0.0031244301
0.006858475 -0.10098831 -0.0028273622
-0.0073018586 -0.10098919 -0.0012487626
0.0073623457 -0.10115761 -0.00087217626
-0.0073175873 -0.1009608 0.001148795
0.0073382221 -0.1009926 0.001024226
-0.0068262187 -0.1010443 0.0029058112
0.0067080576 -0.10094578 0.0032224266
-0.0062171412 -0.10025424 0.0041532111
-0.0053636855 -0.10111465 0.0051566497
0.0053062639 -0.1012383 0.0051823887
0.0061134584 -0.10094509 0.0042828112
-0.0042441441 -0.10105933 0.0061443197
-0.0032303336 -0.10097585 0.0066916002
-0.0010620482 -0.10097843 0.0073314146
0.0008292984 -0.10088494 0.0073685772
0.0030687703 -0.10097291 0.0067622326
0.0041491077 -0.10060783 0.0062203505
-0.0042123869 -0.10285039 -0.0061704637
-0.0027886478 -0.1032903 -0.0068645896
-0.00092979323 -0.10310866 -0.0073535638
0.00048524898 -0.10283063 -0.0074237534
0.0029913173 -0.10316871 -0.0067983088
0.004181359 -0.10288391 -0.0061952854
-0.0061700046 -0.10266093 -0.0042128661
-0.0052511813 -0.10299731 -0.0052737943
0.0052172621 -0.1032763 -0.0052957386
0.0060777934 -0.10283975 -0.0043281303
-0.006735547 -0.10282238 -0.0031407657
0.0067501846 -0.10316469 -0.0031187776
-0.0073561599 -0.10307433 -0.00090645987
0.0073164077 -0.10287413 -0.0011596812
-0.0073555144 -0.10284292 0.00091470766
0.0073673911 -0.10283016 0.00083400978
-0.0068163532 -0.10273309 0.0029409532
0.0067515522 -0.10295819 0.0030917733
-0.0061395946 -0.10297796 0.0042501343
-0.0050511681 -0.10284803 0.0054591568
0.005168268 -0.10305312 0.0053399415
0.0062075439 -0.1031223 0.0041651968
-0.0040076943 -0.10377738 0.0063334689
-0.0029639155 -0.10272494 0.0068015382
-0.0010431901 -0.10337103 0.0073335804
0.0012223782 -0.10269081 0.0073066209
0.0030137068 -0.10310141 0.0067848251
0.0042883549 -0.10309805 0.0061089429
-0.0041895569 -0.10561123 -0.0061887368
-0.0031760221 -0.10513867 -0.0067216121
-0.00084190309 -0.10508225 -0.0073673027
0.0010419816 -0.10499363 -0.0073358556
0.0027215774 -0.10507385 -0.0068976944
0.0043472419 -0.10546646 -0.0060625877
-0.006242401 -0.10505278 -0.0041223797
-0.005103833 -0.10516485 -0.0053804982
0.0051695332 -0.10476825 -0.0053446633
0.0062310686 -0.10496976 -0.0041365437
-0.0067578987 -0.10497008 -0.0030871325
0.0067930985 -0.10510127 -0.0029704925
-0.0073061003 -0.10480067 -0.0012235034
0.0073107071 -0.1052277 -0.0011992357
-0.0073656547 -0.10484739 0.00085047534
0.0073149786 -0.10510178 0.0011674527
-0.0067502372 -0.10497151 0.0030963074
0.0067870622 -0.10516614 0.0030122988
-0.006169477 -0.10471792 0.0042127743
-0.0051249475 -0.10479812 0.0054043401
0.0052540088 -0.10499844 0.005244955
0.0062155081 -0.10446525 0.0041552358
-0.0042156451 -0.10529621 0.0061671021
-0.0028621373 -0.10501982 0.006836059
-0.00095483032 -0.10493445 0.0073488564
0.0010515564 -0.10516714 0.0073326291
0.002867358 -0.10519592 0.0068383887
0.0042089336 -0.10508608 0.0061724721
-0.0042520389 -0.10681669 -0.0061387555
-0.0031383636 -0.10695938 -0.0067397594
-0.0011173448 -0.10688217 -0.007323964
0.00098547398 -0.10715674 -0.0073439959
0.0032435525 -0.10700253 -0.0066926405
0.0042142058 -0.10685099 -0.0061690225
-0.0061660819 -0.10725254 -0.0042177862
-0.0053272536 -0.10681374 -0.0051954584
0.0051582977 -0.10703168 -0.0053616199
0.0061360905 -0.10641623 -0.004255272
-0.0067937649 -0.10671207 -0.0029909238
0.0067299753 -0.10706346 -0.003151821
-0.0073162313 -0.10724618 -0.001157939
0.0073216883 -0.1070432 -0.0011212243
-0.0073436322 -0.10692269 0.00098430226
0.0073232292 -0.10666694 0.0011043776
-0.0068584359 -0.10756782 0.0028157122
0.0068130847 -0.10713872 0.0029282786
-0.0061581931 -0.1070855 0.0042268722
-0.0054660225 -0.10707433 0.0050453264
0.0053840335 -0.1070736 0.0051202266
0.0062417402 -0.10698845 0.0041224374
-0.0041669584 -0.10658115 0.0062060477
-0.0029923113 -0.10711417 0.0067880685
-0.00098289095 -0.10703915 0.0073435088
0.0010155976 -0.10703296 0.0073390645
0.0029665944 -0.1068362 0.0068034786
0.004292326 -0.10710514 0.0061057517
-0.0042263796 -0.10873543 -0.0061592902
-0.0031291216 -0.1089336 -0.0067362278
