# .PCD v0.7 - Point Cloud Data file format
VERSION 0.7
FIELDS x y z
SIZE 4 4 4
TYPE F F F
COUNT 1 1 1
WIDTH 1260
HEIGHT 1
VIEWPOINT 0 0 0 1 0 0 0
POINTS 1260
DATA ascii
0.0030365877 -0.15917745 -0.0067757703
0.0042083035 -0.15867649 -0.006173932
-0.0061196648 -0.15906565 -0.0042759953
-0.0054217088 -0.15890196 -0.005085032
0.0053100153 -0.15904671 -0.0051884358
0.0062039737 -0.15954052 -0.0041706106
-0.0068736644 -0.15943651 -0.0027778517
0.0068049305 -0.15892276 -0.0029729079
-0.0073340652 -0.15922242 -0.0010514943
0.0073519042 -0.15881044 -0.00093851465
-0.0073288125 -0.15895636 0.0010746709
0.0073790243 -0.1591692 0.00076560111
-0.0068596513 -0.15892228 0.0028108265
0.0067690429 -0.15928406 0.0030611739
-0.0061198436 -0.15938844 0.0042746183
-0.0050605624 -0.15909721 0.0054496457
0.0050258869 -0.15912984 0.0054858909
0.0061657159 -0.15895425 0.0042172791
-0.0042910506 -0.15899934 0.0061065843
-0.0030776116 -0.15913962 0.0067535085
-0.0011576419 -0.15890269 0.0073166396
0.0009506059 -0.15903546 0.0073493291
0.0030685763 -0.1588704 0.0067663635
0.0041453103 -0.15851104 0.0062231775
-0.0041786577 -0.16099855 -0.006197657
-0.0029226488 -0.16077295 -0.0068235942
-0.0010200224 -0.16109321 -0.0073395269
0.0011448013 -0.16084981 -0.0073190755
0.0030584536 -0.1608007 -0.0067682359
0.004283098 -0.16072959 -0.0061141034
-0.0061306846 -0.16122998 -0.0042622271
-0.0053291065 -0.16102944 -0.005177686
0.0053143105 -0.16109146 -0.0052043474
0.0061299345 -0.16122793 -0.0042631649
-0.0067931442 -0.16118518 -0.0030006822
0.0067166951 -0.16117513 -0.0031931046
-0.0073283007 -0.16096625 -0.0010804007
0.0073366771 -0.16111545 -0.0010248331
-0.0073194015 -0.16083881 0.001134076
0.0073884316 -0.16092156 0.00070601434
-0.0068312045 -0.16110604 0.0028826264
0.0066635637 -0.16091864 0.0033248689
-0.0061701564 -0.1610492 0.0042117219
-0.0050959117 -0.16109456 0.0054169493
0.0053276303 -0.16111036 0.0051932428
0.0061613005 -0.16070803 0.0042227926
-0.0041935439 -0.16135055 0.0061845807
-0.0030308848 -0.1611335 0.006773653
-0.00085163198 -0.16104962 0.0073647704
0.0011142787 -0.1610743 0.0073234783
0.0031435899 -0.1609558 0.0067361495
0.0041329134 -0.16122936 0.0062330859
-0.0041684778 -0.16365485 -0.0062058107
-0.0029305597 -0.16280586 -0.0068151704
-0.00099472306 -0.16305368 -0.0073410915
0.00096536009 -0.16304459 -0.0073476657
0.003039768 -0.16305225 -0.0067748185
0.0042241248 -0.163197 -0.0061612912
-0.00624179 -0.1628153 -0.0041233534
-0.005271405 -0.1632055 -0.0052392739
0.0052815597 -0.16298123 -0.0052341567
0.0061382963 -0.1631991 -0.0042527206
-0.0068085268 -0.1626996 -0.0029256125
0.0067738234 -0.1630692 -0.003024199
-0.0073183072 -0.16296104 -0.0011513107
0.0073377518 -0.16283582 -0.0010164619
-0.0073630549 -0.16288552 0.00086417591
0.0073323799 -0.1632404 0.0010610035
-0.0067750448 -0.16292037 0.003037211
0.0066992207 -0.16308729 0.0032310465
-0.0061763735 -0.1635811 0.0042039407
-0.0051134736 -0.16282941 0.0053677168
0.0051012444 -0.16281788 0.0054312251
0.0062016384 -0.16291265 0.0041723624
-0.0040731486 -0.1632589 0.0062808902
-0.0032530006 -0.16323018 0.0066902493
-0.001018566 -0.16292115 0.0073385835
0.0012606765 -0.16292571 0.0073003569
0.0029689488 -0.16296339 0.0067961914
0.0042024138 -0.16297664 0.0061774794
-0.0042474084 -0.16561902 -0.0061426735
-0.003366912 -0.16523047 -0.0066546635
-0.00099781563 -0.16502206 -0.0073415213
0.0012713319 -0.16501364 -0.0072969082
0.003071981 -0.16507277 -0.0067688143
0.0041284063 -0.16453286 -0.0062378715
-0.0061300164 -0.16491529 -0.004263076
-0.0052489359 -0.16490254 -0.0052652569
0.0053009898 -0.16525222 -0.0051871203
0.0062120259 -0.16482835 -0.0041605644
-0.00684046 -0.16519247 -0.0028764913
0.0068540117 -0.16507974 -0.0028219293
-0.0073516769 -0.16501246 -0.000939978
0.0073627406 -0.16480355 -0.0008681888
-0.0073219566 -0.16502884 0.0011270144
0.0073512718 -0.16508597 0.00093768607
-0.0067905793 -0.16498101 0.0029931827
0.0067775431 -0.16493958 0.0030304014
-0.0061409744 -0.16482794 0.0042481851
-0.0051335194 -0.16519128 0.0053927512
0.0052388129 -0.1650575 0.0052719475
0.0062096091 -0.16451012 0.0041623926
-0.0043859091 -0.16467881 0.0060306769
-0.0030615758 -0.16500527 0.0067597581
-0.0012607281 -0.16492796 0.0072992709
0.0010423372 -0.16502385 0.0073348228
0.003164544 -0.165269 0.0067335172
0.0042115031 -0.16498032 0.0061702006
-0.004158813 -0.16796917 -0.0062135579
-0.0028930611 -0.16682148 -0.0068277135
-0.00084762479 -0.16697086 -0.0073667695
0.0010403913 -0.16715392 -0.0073354323
0.0029941096 -0.16709788 -0.0067948685
0.0042617442 -0.16672607 -0.006131208
-0.006156804 -0.16724811 -0.0042296005
-0.0052781361 -0.16686234 -0.0052588088
0.0053572352 -0.16700298 -0.0051442315
0.0062530031 -0.16657352 -0.0041093491
-0.0067021693 -0.1671368 -0.003202098
0.0066830828 -0.16723697 -0.0032649802
-0.0073145209 -0.1672717 -0.0011727527
0.0073425872 -0.16683377 -0.00099585287
-0.0073285275 -0.16706412 0.0010834817
0.0073524243 -0.16701359 0.00093403953
-0.0066709798 -0.16692813 0.0033047805
0.0067806267 -0.16687696 0.0030263015
-0.0061529703 -0.1667583 0.0042331833
-0.0051674559 -0.16729414 0.005343718
0.005504617 -0.16719893 0.0049907384
0.00631986 -0.16785428 0.0040245675
-0.0042938972 -0.16744626 0.0061042765
-0.0031507085 -0.16704392 0.006733641
-0.00077046466 -0.16724801 0.0073777428
0.00097957253 -0.16696501 0.0073441863
0.0031509523 -0.16682009 0.0067293295
-0.0043636756 -0.16873966 -0.0060496703
-0.0030960501 -0.16892079 -0.0067484584
-0.0011151815 -0.16924423 -0.0073237559
0.00142451 -0.16889009 -0.0072746417
0.0029787708 -0.16900125 -0.0067972923
0.0042317631 -0.16878806 -0.0061552003
-0.0062164422 -0.1687388 -0.0041550584
-0.005262407 -0.16896671 -0.0052670422
0.0051098168 -0.16942015 -0.0054167737
0.0061728014 -0.16873646 -0.0042096092
-0.006758899 -0.16931917 -0.0030803031
0.006716927 -0.1689149 -0.0031827588
-0.0073429444 -0.16906448 -0.00098838995
0.0073993867 -0.1690726 -0.00063782767
-0.0073135304 -0.16914579 0.0011727447
0.0073305126 -0.16879989 0.0010703864
-0.006778446 -0.16909407 0.0030262705
0.0067710886 -0.16881965 0.0030495815
-0.0060781874 -0.16853489 0.0043266555
-0.0053078905 -0.16923431 0.0051803328
0.0052703335 -0.16901696 0.0052661621
0.006092154 -0.16814375 0.0043091984
-0.0042055682 -0.16911174 0.0061749332
-0.0027938231 -0.16912912 0.0068700844
-0.0010572735 -0.16878426 0.0073318025
0.00099805195 -0.16897117 0.0073418007
0.0032228387 -0.16886586 0.0067066215
0.0041999198 -0.16932207 0.0061794515
-0.0041166125 -0.17060056 -0.0062473277
-0.0030978674 -0.17119527 -0.0067552538
-0.00097866508 -0.17107619 -0.0073459544
0.00088218227 -0.17093834 -0.0073613268
0.0033681614 -0.17087571 -0.0066503105
0.0042236592 -0.17119801 -0.0061616926
-0.0061721988 -0.17124175 -0.004210372
-0.005291203 -0.17119172 -0.0052170837
0.0053259963 -0.17094049 -0.005188466
0.0061728535 -0.17090493 -0.0042095524
-0.0068233251 -0.17099558 -0.002915327
0.006719714 -0.17092824 -0.0031919491
-0.0073789684 -0.17099461 -0.00076714996
0.0073027485 -0.17087373 -0.0012436692
-0.0073024398 -0.17087159 0.0012413579
0.0073721888 -0.17124873 0.00080884981
-0.0067588245 -0.17074607 0.003077802
0.006840094 -0.17102709 0.0028732568
-0.0061660763 -0.17085356 0.0042167865
-0.0052315774 -0.17105019 0.005274544
0.0051738252 -0.17100731 0.0053292238
0.006146282 -0.1708038 0.004241528
-0.0042682234 -0.1713502 0.0061248015
-0.0031809357 -0.17092609 0.0067203273
-0.0010544918 -0.17122029 0.0073314593
0.0010903082 -0.17081781 0.007326351
0.00322829 -0.17095836 0.0067061344
0.0042246063 -0.17100376 0.0061596972
-0.0030295763 -0.17299098 -0.0067771319
-0.0011907588 -0.17281656 -0.0073112105
0.0013122964 -0.17316335 -0.0072906888
0.0028273573 -0.17298509 -0.0068548489
0.0042467844 -0.17299303 -0.0061431993
-0.0061122458 -0.17378363 -0.0042853211
-0.0054230057 -0.1730946 -0.0050675655
0.0053155567 -0.17320144 -0.0052045654
0.0062183514 -0.17308661 -0.0041526873
-0.0067507448 -0.17304653 -0.0031073217
0.0067622098 -0.17299221 -0.0030755003
-0.0073497253 -0.17285259 -0.00095236825
0.0073050405 -0.17291424 -0.0012353719
-0.0073286667 -0.17288826 0.001077075
0.0073696603 -0.1728999 0.00082485605
-0.0068114148 -0.17296302 0.0029328994
0.0067103105 -0.17294361 0.0032227179
-0.006204206 -0.1732281 0.0041691153
-0.0052534854 -0.17283508 0.0052693067
0.0051861117 -0.17300773 0.0053284201
0.0062559503 -0.17211889 0.0041044392
-0.0042390702 -0.1729645 0.0061481176
-0.0028713292 -0.17248774 0.006841518
-0.0010743092 -0.17279027 0.007328283
0.0010581847 -0.17293841 0.007332047
0.0028829016 -0.17290722 0.0068348949
0.0044073197 -0.17328526 0.0060135173
-0.0042953398 -0.17479303 -0.0061043608
-0.0030333505 -0.17495926 -0.0067830831
-0.0012055594 -0.17484066 -0.0073068803
0.0010617285 -0.17519571 -0.0073329923
0.0029180325 -0.17498165 -0.0068175797
0.0042539407 -0.17567183 -0.0061374838
-0.0062227258 -0.17546976 -0.0041472279
-0.0052275527 -0.17498527 -0.0052870093
0.0053270184 -0.17495957 -0.0051780613
0.006095632 -0.17478569 -0.0043060929
-0.0068310434 -0.17477612 -0.0029020885
0.0068064164 -0.17513892 -0.0029458343
-0.0073302118 -0.1750468 -0.0010759562
0.0072658383 -0.17503698 -0.0014820115
-0.0073401262 -0.17491439 0.001004476
0.0073373849 -0.17509502 0.001029265
-0.0067770779 -0.17502019 0.0030364962
0.0067140199 -0.1749163 0.0031976386
-0.0063128034 -0.17503284 0.004033362
-0.0051877126 -0.17497918 0.0053179548
0.0053899656 -0.17526139 0.0051272865
0.0061312495 -0.17493342 0.0042603048
-0.0041686567 -0.17515585 0.0062044412
-0.0031459876 -0.17507929 0.0067343758
-0.0008417177 -0.17506891 0.0073664631
0.0010148993 -0.17500922 0.0073382985
0.0029112776 -0.17492969 0.0068226638
-0.0041760514 -0.17720829 -0.0061998013
-0.0032303401 -0.17718016 -0.0066980482
-0.0011352303 -0.17691155 -0.0073207738
0.00098186987 -0.17712793 -0.0073456038
0.0029636663 -0.17707054 -0.0068078246
0.0040760776 -0.1767993 -0.0062797777
-0.006149062 -0.17696702 -0.0042393133
-0.0051326477 -0.17692783 -0.005390455
0.0052904012 -0.1771681 -0.0052089933
0.006218534 -0.17732351 -0.0041524749
-0.0068541057 -0.17699316 -0.00283665
0.0067067118 -0.17691973 -0.0031942963
-0.0073723653 -0.17667505 -0.00080747867
0.0073450529 -0.17697699 -0.00097641232
-0.0073138215 -0.17720637 0.0011704428
0.007344312 -0.1768876 0.00097863236
-0.0068178745 -0.1769087 0.0029365593
0.0068747508 -0.17687617 0.002782179
-0.0060762516 -0.17700414 0.0043290448
-0.0052022417 -0.17695034 0.0052940822
0.0052502523 -0.17711811 0.0052587031
0.0061096624 -0.17669187 0.004287282
-0.0043749544 -0.17703646 0.0060393959
-0.0030434993 -0.17679343 0.0067734532
-0.0010529126 -0.17695791 0.0073323823
0.0011134886 -0.17704722 0.0073235459
0.0031500203 -0.177055 0.0067293663
0.004184626 -0.17647897 0.0061916602
-0.0041892147 -0.1789027 -0.0061892765
-0.0030892834 -0.17911477 -0.0067552743
-0.00089331926 -0.17907959 -0.0073588444
0.00095998758 -0.17922628 -0.0073490716
0.0029931969 -0.17893377 -0.0067953886
0.0042379815 -0.17943171 -0.0061502648
-0.0062676393 -0.17916401 -0.0040910998
-0.0050956928 -0.17901357 -0.0054079494
0.0050920146 -0.1788902 -0.0054244725
0.0061801579 -0.17968743 -0.0042004525
-0.0066746185 -0.17900361 -0.0032905468
0.0069151805 -0.17913155 -0.0026720269
-0.0073507251 -0.17904037 -0.00094280037
0.0073557743 -0.17890494 -0.0009140711
-0.0073378701 -0.17903945 0.0010261728
0.0073284917 -0.17911829 0.0010794967
-0.0068347123 -0.17886415 0.0028893044
0.0069371955 -0.17926802 0.0026126783
-0.0061756331 -0.17912686 0.0042048111
-0.0050416132 -0.17918003 0.005458612
0.0054522473 -0.17907403 0.0050619524
0.0062111467 -0.17949365 0.0041604177
-0.004140866 -0.17864171 0.0062266602
-0.0029892256 -0.17920949 0.0067937118
-0.0010831605 -0.17910169 0.0073283268
0.00093972776 -0.17928572 0.0073497151
0.0031988432 -0.17883763 0.006714372
0.0042961091 -0.17909817 0.0061024642
-0.004253923 -0.18061015 -0.0061375159
-0.0028855274 -0.1813619 -0.0068282112
-0.0010534062 -0.18084252 -0.0073340163
0.0010863825 -0.18101685 -0.0073280623
0.0028129991 -0.18099299 -0.0068582096
0.0041975295 -0.18137598 -0.0061826329
-0.0061394079 -0.1806408 -0.0042513949
-0.0052262018 -0.18126003 -0.0052719177
0.0053772661 -0.18111369 -0.0051355776
0.0061815176 -0.18090768 -0.0041987579
-0.0067509273 -0.18101753 -0.0031060369
0.0068628523 -0.1812841 -0.0028074025
-0.0073250439 -0.18117976 -0.0010946088
0.0073785386 -0.18090825 -0.00076990959
-0.0073320298 -0.18096311 0.0010577997
0.0073423041 -0.18110122 0.00099808618
-0.0067216461 -0.18110271 0.0031809686
0.0067524626 -0.18083864 0.0030958569
-0.0061625019 -0.18038425 0.0042212205
-0.0052312347 -0.18096676 0.0052937143
0.0050273743 -0.1807894 0.0054933736
0.0060650646 -0.18183132 0.0043430114
-0.0042018853 -0.18124057 0.0061778356
-0.0031256154 -0.18093851 0.0067439745
-0.0011721652 -0.18095778 0.007313123
0.0011702836 -0.18084438 0.0073137186
0.003111254 -0.18085501 0.0067454851
0.0042437995 -0.18112616 0.0061443052
-0.00426292 -0.18286808 -0.0061303265
-0.0034125012 -0.18292134 -0.0066423099
-0.0011061148 -0.18285026 -0.007326012
0.0008664343 -0.18297844 -0.0073638572
0.0030389463 -0.18301789 -0.0067764134
0.0042572664 -0.18287948 -0.0061348495
-0.0062656878 -0.18340164 -0.0040935548
-0.0053024115 -0.18304111 -0.0052143014
0.0053591412 -0.18295465 -0.0051533203
0.0062093157 -0.18308975 -0.0041640182
-0.006797194 -0.18307573 -0.0029938358
0.0067710523 -0.18292081 -0.0030478474
-0.0073474613 -0.18305105 -0.00096291705
0.0073416568 -0.18312949 -0.00099641178
-0.0073135328 -0.18256047 0.0011802992
0.0073472993 -0.18303487 0.00096643984
-0.0069222264 -0.18307829 0.0026532975
0.0067199236 -0.18280795 0.0031911726
-0.0062196977 -0.1828173 0.0041497173
-0.005194216 -0.18282974 0.0053175995
0.0052346792 -0.18293662 0.0052591627
0.0061375313 -0.1832862 0.0042524221
-0.0042876406 -0.18302476 0.0061092251
-0.003097974 -0.18289229 0.006752789
-0.0009359137 -0.18300612 0.007351561
0.0010990797 -0.18279798 0.0073241028
0.0030194116 -0.18282516 0.0067806682
0.0042766538 -0.1827531 0.0061180154
-0.0041688196 -0.18490888 -0.0062056142
-0.0029999223 -0.1848181 -0.0067863325
-0.00097327033 -0.18501915 -0.0073462348
0.0012033168 -0.18512428 -0.0073105721
0.0028360737 -0.18509889 -0.0068558017
0.0040388871 -0.18528679 -0.0063095614
-0.0061486997 -0.1852452 -0.0042397957
-0.0052685356 -0.18524697 -0.0052346154
0.0051685632 -0.1852745 -0.005364974
0.006132945 -0.18496999 -0.004259489
-0.0066854195 -0.18501702 -0.0032805968
0.0068186619 -0.18498017 -0.002932566
-0.0073361867 -0.18496035 -0.0010224138
0.0073281899 -0.18506773 -0.0010826879
-0.0073403828 -0.18466315 0.0010060712
0.0073232302 -0.18499513 0.0011181878
-0.0067354981 -0.18501273 0.0031285863
0.0067281998 -0.18518834 0.0031655973
-0.006174475 -0.18482587 0.0042062374
-0.0051986859 -0.18481551 0.0053135091
0.0052351924 -0.18515582 0.0052769016
0.0061395299 -0.18537579 0.0042499169
-0.0042280219 -0.18419021 0.0061569158
-0.002864796 -0.185032 0.0068424167
-0.00097254035 -0.18512014 0.0073451232
0.0010085594 -0.18500081 0.0073400848
0.0030751755 -0.18517414 0.006757773
0.0042829784 -0.18430431 0.0061129504
-0.004183379 -0.18688372 -0.0061939731
-0.0031998972 -0.18713458 -0.0067149224
-0.00061967893 -0.18682118 -0.0074028326
0.00099857978 -0.18685225 -0.0073430063
0.0030881537 -0.18697415 -0.0067559695
0.0042774985 -0.18656908 -0.0061186766
-0.0061397902 -0.1872576 -0.0042509409
-0.0053464426 -0.18713811 -0.005177821
0.0054448214 -0.18705483 -0.0050805798
0.0061749341 -0.18740289 -0.0042070113
-0.0066945688 -0.18693656 -0.0032490238
0.0067991479 -0.18701045 -0.0029791293
-0.0073231957 -0.18707962 -0.001120438
0.0073206346 -0.18695517 -0.0011306081
-0.0073421714 -0.18694134 0.0009941624
0.0073185386 -0.18695058 0.0011379551
-0.0065981941 -0.18654639 0.0034926133
0.0067423075 -0.18681756 0.0031273365
-0.0061750864 -0.18648688 0.0042054676
-0.0052173198 -0.18702348 0.0053063822
0.0053200666 -0.18671559 0.0051927036
0.006147787 -0.18665504 0.0042395908
-0.0041616629 -0.18699175 0.0062099928
-0.0029307024 -0.18696637 0.0068195038
-0.00070159754 -0.18707426 0.0073885452
0.0006266713 -0.1869528 0.0074003758
0.0029564595 -0.18692644 0.0068023554
0.0042660972 -0.18680513 0.0061264466
-0.0041926578 -0.18945353 -0.0061865589
-0.0026307867 -0.18913838 -0.0069314484
-0.0010007507 -0.1887022 -0.0073426706
0.0011957309 -0.18909222 -0.0073111188
0.0028892711 -0.18901722 -0.0068301661
0.0042376388 -0.18918121 -0.0061505749
-0.0061669988 -0.18919848 -0.0042169364
-0.0050671524 -0.18902676 -0.0054199141
0.0052887686 -0.1891052 -0.0052324417
0.0062473021 -0.18877104 -0.0041165547
-0.006777117 -0.18895607 -0.0030267155
0.0067264754 -0.18913798 -0.0031636327
-0.0073147761 -0.18887816 -0.0011660558
0.0073221214 -0.18908742 -0.0011272521
-0.007357561 -0.18900575 0.00090142852
0.0073356694 -0.18886262 0.0010353766
-0.0068198042 -0.18899174 0.0029190527
0.0067412499 -0.18896638 0.0031229078
-0.0061372309 -0.18891211 0.0042527779
-0.0052763461 -0.18888618 0.0052089975
0.0053712367 -0.18877685 0.0051668691
0.006142702 -0.1888081 0.0042459387
-0.004243738 -0.18895575 0.0061443257
-0.002829148 -0.18899466 0.0068569989
-0.0010000658 -0.18896638 0.0073402128
0.0010354734 -0.18897663 0.0073349583
0.0028520932 -0.18888897 0.0068435683
0.0041419286 -0.1889587 0.0062257727
-0.0041484553 -0.19125775 -0.0062219282
-0.0030560081 -0.19110478 -0.0067670485
-0.00084484927 -0.19115159 -0.007366668
0.00070069829 -0.19088237 -0.0073900549
0.0029086084 -0.19129008 -0.0068265568
0.0042720805 -0.19112721 -0.0061230273
-0.0061850273 -0.19051751 -0.0041944054
-0.0052258782 -0.19089562 -0.0052920915
0.0053706928 -0.19107091 -0.0051399334
0.0062207906 -0.19092803 -0.0041497042
-0.0066834292 -0.19090162 -0.0033028116
0.0068371608 -0.1909623 -0.0028740373
-0.0073150992 -0.19127987 -0.0011609717
0.0073257363 -0.19115742 -0.0011023736
-0.0073008891 -0.19094762 0.0012603423
0.007330256 -0.19108531 0.0010743517
-0.0067258077 -0.19085167 0.0031641275
0.006728644 -0.19110806 0.003170213
-0.0061186915 -0.19108939 0.0042759441
-0.0051875846 -0.19122827 0.0053207329
0.0052425326 -0.19078383 0.005249911
0.006281808 -0.19077654 0.0040720496
-0.0043935496 -0.19078363 0.0060244696
-0.0032422643 -0.19107513 0.0067019719
-0.0010923039 -0.19108897 0.0073253075
0.0012279061 -0.1910906 0.0073048556
0.002847139 -0.19086416 0.0068485443
-0.0041396795 -0.19309194 -0.0062289555
-0.0030250661 -0.19323397 -0.0067718276
-0.00098548608 -0.19308919 -0.0073450957
0.0011692026 -0.19312863 -0.0073160878
0.0031354162 -0.1929543 -0.0067433808
0.0042951917 -0.1931937 -0.0061045461
-0.0061515863 -0.19297881 -0.0042362157
-0.0052463785 -0.19285513 -0.0052685416
0.0051286304 -0.19287822 -0.0053757597
0.0060939579 -0.19225587 -0.0043082484
-0.006811738 -0.19300488 -0.0029410128
0.006746755 -0.19317876 -0.0030947938
-0.0073517868 -0.19327739 -0.00093937857
0.0073566041 -0.1929473 -0.00090529292
-0.0073793372 -0.19318172 0.0007607257
0.0073592947 -0.19314753 0.00088875595
-0.006738666 -0.19302958 0.0031321694
0.0067953472 -0.19328436 0.0029976426
-0.0061377413 -0.19329834 0.0042521232
-0.0052743638 -0.19286729 0.0052212663
0.005240276 -0.19292359 0.0052667856
0.0061337445 -0.1925106 0.004257123
-0.0041947714 -0.19323705 0.0061834836
-0.0031070004 -0.19302167 0.0067526288
-0.00074251753 -0.192889 0.0073820623
0.0011351592 -0.19325341 0.0073195966
0.0028880078 -0.19297348 0.006831232
0.0041363281 -0.19285676 0.0062302398
-0.004250478 -0.19507149 -0.0061403234
-0.0028720964 -0.1951499 -0.0068388078
-0.0010595612 -0.19509526 -0.0073324665
0.0009365204 -0.19547486 -0.0073528364
0.0029705314 -0.19472829 -0.0068016103
0.0041858628 -0.19521452 -0.0061920173
-0.0062083183 -0.19491675 -0.0041653076
-0.0051948703 -0.1950554 -0.0053332942
0.0049499078 -0.19495419 -0.0055562588
0.0061759185 -0.19489937 -0.0042058071
-0.0067621646 -0.19494802 -0.003089116
0.0067616752 -0.19512069 -0.0030838668
-0.0073488173 -0.19517453 -0.00095819926
0.0073320768 -0.19503777 -0.0010642185
-0.0073347134 -0.19560593 0.0010461088
0.0073101488 -0.19514202 0.0011974765
-0.006751698 -0.19489303 0.0031134244
0.006812498 -0.19518013 0.0029375805
-0.006041484 -0.19425781 0.0043724412
-0.0051882467 -0.19513263 0.0053089843
0.0055042962 -0.19480942 0.0049904785
0.0061215325 -0.19506583 0.0042723785
-0.0041509965 -0.19497102 0.0062184976
-0.0031707883 -0.19475585 0.006725756
-0.00099667918 -0.19488275 0.0073419237
0.00082000357 -0.1948953 0.0073698205
0.0032736633 -0.19481413 0.0066737309
0.0044042589 -0.19561432 0.0060158847
-0.0041924831 -0.19687356 -0.006186726
-0.0032254788 -0.19712238 -0.0067086103
-0.00090078043 -0.19676806 -0.0073584844
0.0010262412 -0.1967451 -0.0073363627
0.0029945683 -0.19676851 -0.006794034
0.0042008171 -0.19725515 -0.006180061
-0.006208621 -0.19777294 -0.0041649393
-0.0053829872 -0.19714195 -0.0051278765
0.0053919521 -0.19691275 -0.0051225792
0.0061501497 -0.19603135 -0.0042380225
-0.0067566852 -0.19698563 -0.0030796523
0.0067801275 -0.1971143 -0.0030304666
-0.0073633539 -0.19711642 -0.00085946359
0.0073103709 -0.19695552 -0.0011938412
-0.0073378072 -0.19707267 0.0010200823
0.0073488541 -0.19719823 0.00094911177
-0.0067816772 -0.19702539 0.0030117682
0.0066684727 -0.19678459 0.0033179126
-0.0061392575 -0.1975002 0.0042502135
-0.0052293711 -0.19723286 0.00529553
0.0051709749 -0.1971664 0.0053412952
0.0061275763 -0.19623099 0.0042648194
-0.0041750171 -0.19660281 0.0061992747
-0.0029152134 -0.1969516 0.006820688
-0.0009830686 -0.19710317 0.0073440652
0.00089935411 -0.1968006 0.007357284
0.0029186481 -0.19658983 0.0068218913
0.0042079692 -0.19710664 0.0061729117
-0.0040762681 -0.19900297 -0.0062797056
-0.0028069681 -0.19930848 -0.006863595
-0.00076689827 -0.19886705 -0.0073789083
0.00085862307 -0.19908565 -0.0073632048
0.0030928946 -0.19913805 -0.0067546531
0.0042303228 -0.19900578 -0.0061564622
-0.0061301845 -0.19894268 -0.0042629908
-0.0053105652 -0.19888608 -0.0052215918
0.0049816598 -0.19855689 -0.0055055837
0.0061911633 -0.19916685 -0.0041867662
-0.0067510777 -0.19928324 -0.0031101108
0.0067523285 -0.19903296 -0.0031039431
-0.0073628807 -0.19874784 -0.00086914533
0.0073142666 -0.19890557 -0.0011770255
-0.0073712808 -0.19913687 0.000814503
0.0073688217 -0.19893152 0.00083007751
-0.0067837373 -0.19891559 0.0030281164
0.0068512461 -0.19899981 0.0028416349
-0.0061576827 -0.19918799 0.0042271772
-0.0051563024 -0.19893286 0.0053510969
0.0053203455 -0.19886386 0.0051884851
0.0060912273 -0.19983184 0.0043102424
-0.004171859 -0.19867878 0.0062017939
-0.003143826 -0.19924675 0.0067282566
-0.0011891535 -0.19909512 0.0073105353
0.0010069064 -0.19923536 0.0073402938
0.0028750547 -0.199109 0.0068307458
0.0041051484 -0.19855022 0.0062551629
-0.0041767433 -0.2007135 -0.0061993324
-0.0030025567 -0.20116353 -0.0067874445
-0.001045141 -0.20088121 -0.0073347441
0.0011229708 -0.20095275 -0.0073217126
0.0028532736 -0.20109408 -0.0068495227
0.0041556279 -0.20079839 -0.0062162247
-0.0062698685 -0.2008096 -0.0040883915
-0.0054046358 -0.20077218 -0.0051025157
0.005236316 -0.20100251 -0.0052774539
0.0061999718 -0.20107459 -0.0041757645
-0.006852597 -0.20106795 -0.0028286125
0.0068879002 -0.20095871 -0.0027358173
-0.0073495731 -0.20066004 -0.00094840594
0.0073259389 -0.20112894 -0.0010877767
-0.0073658293 -0.20089988 0.00084902358
0.0073410394 -0.20079857 0.0010060222
-0.0068343552 -0.20088358 0.0028825726
0.0068008541 -0.20129 0.0029826663
-0.0062405057 -0.20092499 0.0041236407
-0.0053989552 -0.20111626 0.0051282253
0.0051867394 -0.20116271 0.0053278659
0.006244163 -0.20097637 0.0041190693
-0.0042330441 -0.2013067 0.0061528361
-0.0031872944 -0.20100917 0.0067156437
-0.00090731855 -0.20085679 0.0073551289
0.0011210492 -0.20083481 0.0073213489
0.0029106883 -0.20088346 0.0068230829
0.0041504502 -0.20101093 0.0062189125
-0.0042768251 -0.20274678 -0.0061192736
-0.0030158525 -0.20301771 -0.0067833685
-0.0011238082 -0.20282908 -0.0073231165
0.0010504572 -0.20312279 -0.007334874
0.0031534275 -0.20280102 -0.0067359321
0.0041642445 -0.20214809 -0.0062093362
-0.0061209821 -0.2033737 -0.0042745085
-0.0052936655 -0.20325854 -0.0052247914
0.0053177103 -0.20286667 -0.0052036042
0.006178156 -0.2027709 -0.0042030402
0.050268471 -0.20395257 -0.0043664826
0.053925794 -0.20391515 -0.0043196972
0.054536194 -0.20378976 -0.0041629639
0.056930374 -0.20381418 -0.004193469
0.058841784 -0.20376866 -0.00413656
0.061064698 -0.20379242 -0.0041662795
0.062920682 -0.20395796 -0.0043731844
0.065990433 -0.20378187 -0.0041530998
0.066978566 -0.20386177 -0.0042529711
0.068852141 -0.20382567 -0.0042078267
0.070951015 -0.20382275 -0.0042041829
0.073881261 -0.20383137 -0.004214949
0.075267375 -0.20379077 -0.0041642077
0.07710693 -0.20381568 -0.0041953744
0.078942575 -0.2037836 -0.004155234
0.081292436 -0.203751 -0.0041145002
0.082723081 -0.20382234 -0.0042036595
0.085047737 -0.20375572 -0.0041204165
0.087195106 -0.20387012 -0.004263402
0.089064918 -0.20387618 -0.0042709867
0.090484127 -0.20376001 -0.0041257711
0.093185186 -0.20387858 -0.0042739818
0.09491758 -0.20386593 -0.0042581609
0.096671179 -0.20379773 -0.0041729007
0.098750666 -0.20382334 -0.0042049205
0.10126309 -0.20382477 -0.0042067124
0.10299071 -0.20388931 -0.0042873793
0.10508746 -0.20391431 -0.0043186494
0.10726152 -0.20379767 -0.0041728183
0.10909095 -0.20391557 -0.0043202289
0.11086174 -0.2038672 -0.0042597526
0.11335027 -0.20382364 -0.0042052879
0.11489782 -0.20389225 -0.0042910515
0.11737608 -0.20385537 -0.0042449515
0.11836476 -0.203788 -0.0041607455
0.12090628 -0.20379309 -0.0041671325
-0.0067887497 -0.20319773 -0.0030151866
0.0067585018 -0.20302328 -0.0030816684
0.051038373 -0.20335594 -0.0031583209
0.052769933 -0.20323695 -0.0030758644
0.054939732 -0.20333448 -0.0033302729
0.057130121 -0.20323645 -0.0030823804
0.05897785 -0.20316963 -0.0028976637
0.061039072 -0.20326261 -0.0031219553
0.063069448 -0.20316944 -0.002885035
0.065033913 -0.20323415 -0.0030792195
0.066812508 -0.20312844 -0.0027760055
0.069515407 -0.20329608 -0.0032384521
0.07087598 -0.20317692 -0.0029114611
0.073130719 -0.20309174 -0.0026917693
0.075079478 -0.2031768 -0.0029202821
0.077114917 -0.20320827 -0.0030083866
0.079064339 -0.20311758 -0.0027587174
0.080821313 -0.20318764 -0.0029528672
0.083053589 -0.2032336 -0.0030522163
0.08511468 -0.20324996 -0.0030918049
0.086820051 -0.2032381 -0.0030786246
0.088874958 -0.20316494 -0.0028855698
0.091038451 -0.2032418 -0.0030729275
0.092952162 -0.20316164 -0.0028680393
0.094994031 -0.20322749 -0.0030460374
0.097028069 -0.20326214 -0.0031341282
0.098875046 -0.20326224 -0.0031468493
0.10121296 -0.20313877 -0.0028002828
0.10280438 -0.2031357 -0.0027908762
0.10490842 -0.20325509 -0.0031140887
0.10684568 -0.20310147 -0.0027191213
0.10886627 -0.20301215 -0.0024765809
0.11116701 -0.20318907 -0.0029528406
0.11314827 -0.20322554 -0.0030441654
0.11514338 -0.20324536 -0.0030909288
0.11727713 -0.20327502 -0.0031558061
0.11883374 -0.20333098 -0.0033265175
0.12121136 -0.20330293 -0.0029133167
0.12200822 -0.2038755 -0.0024212855
-0.0073317238 -0.20299752 -0.0010553825
0.007337918 -0.20318201 -0.0010205719
0.050681643 -0.20290707 -0.00069223094
0.052914947 -0.20266049 -0.0010112406
0.05501214 -0.20263657 -0.00086534192
0.056976192 -0.2026318 -0.00083531812
0.059075318 -0.20269912 -0.0012617443
0.061182003 -0.20270537 -0.0012999751
0.062883265 -0.202663 -0.0010278991
0.06517186 -0.20265473 -0.00097606203
0.066927396 -0.20265481 -0.00098101061
0.069111869 -0.20265755 -0.00099722727
0.071035087 -0.20269245 -0.0012138255
0.072866879 -0.20268345 -0.00116253
0.074979223 -0.2026235 -0.00078288704
0.077315241 -0.20265369 -0.00097418472
0.078976929 -0.20266569 -0.0010457297
0.081097193 -0.20268692 -0.001184547
0.083001837 -0.20264548 -0.00092208281
0.085035942 -0.20267236 -0.0010922715
0.086770713 -0.20260887 -0.00068855961
0.088889696 -0.20262985 -0.0008139711
0.090979062 -0.20270382 -0.0012760239
0.093131959 -0.20266168 -0.001024848
0.094875887 -0.20268936 -0.0012000658
0.09680146 -0.20266157 -0.0010188185
0.098931856 -0.20269033 -0.0011924873
0.10092143 -0.20262417 -0.00078707066
0.10303159 -0.20265569 -0.00097915973
0.10499629 -0.20264441 -0.00090637786
0.10712879 -0.20266792 -0.0010602615
0.1088677 -0.20263642 -0.00086455583
0.11100248 -0.20263302 -0.00084304082
0.11306117 -0.20261885 -0.00075344573
0.11529039 -0.20267355 -0.0010999917
0.11705507 -0.20268343 -0.0011616602
0.11900295 -0.20267992 -0.0011330697
0.12086604 -0.2026941 -0.0012209541
0.12225976 -0.2030452 -0.0010721118
-0.0073278164 -0.20314319 0.001087497
0.0073289033 -0.20326917 0.0010828716
0.050570112 -0.20295708 0.0010384046
0.053108864 -0.20266177 0.0010214017
0.055135824 -0.20265365 0.00097234081
0.056984972 -0.20268209 0.0011492583
0.058920875 -0.20267469 0.0011054672
0.061293501 -0.2026675 0.0010568533
0.062629931 -0.20267031 0.0010703248
0.065149985 -0.20267548 0.001107013
0.067226976 -0.20264114 0.00089309824
0.069117464 -0.20265719 0.00098800578
0.070942819 -0.20265745 0.00099625532
0.072914675 -0.20265914 0.0010000442
0.074790083 -0.20265451 0.00097788242
0.077109575 -0.20264506 0.00091796368
0.078832798 -0.20263179 0.00083397719
0.081123643 -0.20263001 0.00082250364
0.082829572 -0.20266928 0.0010671017
0.084973328 -0.20264673 0.0009278832
0.086988755 -0.20270772 0.0013075928
0.08911562 -0.20263731 0.00086885755
0.09097521 -0.20267998 0.0011318637
0.09287329 -0.20268109 0.0011392424
0.094938569 -0.20263365 0.00084545213
0.097072832 -0.2026431 0.00090541027
0.0990583 -0.20265126 0.00094786531
0.10105494 -0.20267755 0.0011173864
0.10274556 -0.2026359 0.00084453623
0.10492086 -0.20264424 0.00090793218
0.10679247 -0.2026847 0.0011690288
0.10887667 -0.20262335 0.00078061165
0.11095164 -0.20266381 0.0010367598
0.11296646 -0.20264596 0.00092213339
0.11484187 -0.2026336 0.00084544212
0.11704406 -0.20269679 0.0012351908
0.1191869 -0.20266627 0.0010489082
0.12091432 -0.20266943 0.0010651107
0.12228289 -0.20322642 0.0012225539
-0.0068210606 -0.20312725 0.0029110133
0.0067784917 -0.20278603 0.0030377361
0.050922856 -0.20319661 0.0026605385
0.053007539 -0.20321965 0.0030164605
0.055321615 -0.20322897 0.0030516374
0.057179332 -0.20319949 0.0029693204
0.058902808 -0.20323434 0.0030522726
0.060930233 -0.20329925 0.0032258139
0.063012876 -0.20324059 0.0030653365
0.064894639 -0.20317008 0.0028886711
0.067267023 -0.20326851 0.0031432656
0.068980277 -0.2030945 0.002691281
0.070707098 -0.2032546 0.0031130642
0.07319098 -0.2031808 0.0029231268
0.075004682 -0.20321703 0.0030176332
0.076697998 -0.20317914 0.0029056035
0.078962296 -0.20328838 0.0032191877
0.081067406 -0.20313442 0.0027884478
0.082749948 -0.20317009 0.0028991816
0.084892713 -0.20324935 0.0030930329
0.086910613 -0.20329987 0.0032384694
0.08894895 -0.20316146 0.0028802624
0.09086442 -0.20330068 0.0032266381
0.09280429 -0.20331819 0.0032836741
0.095065668 -0.2031856 0.0029238607
0.09710747 -0.20325172 0.0031017317
0.098803461 -0.20310746 0.0027196554
0.10109982 -0.20320925 0.0029881846
0.10309471 -0.20326044 0.0031260056
0.10505587 -0.20327803 0.0031777404
0.10698324 -0.20319499 0.0029639094
0.10919625 -0.20315163 0.0028536809
0.11091138 -0.20323101 0.00305028
0.11325022 -0.2032381 0.0030614929
0.11496103 -0.20328273 0.0031939389
0.11696759 -0.20319808 0.0029747356
0.11896425 -0.20324524 0.0030903274
0.12119328 -0.20332827 0.0029470543
0.12200755 -0.20382586 0.0024216173
-0.006108555 -0.20324679 0.004288571
-0.0051611429 -0.20321327 0.0053598792
0.0054012784 -0.2029072 0.0050994451
0.0061423047 -0.20352675 0.0042463825
0.05102703 -0.20387396 0.0042666881
0.053347528 -0.20377032 0.0041371491
0.054921638 -0.20393525 0.0043432997
0.057142746 -0.20379303 0.0041655349
0.05934798 -0.20376234 0.0041271495
0.061449081 -0.20380464 0.0041800323
0.062669158 -0.20381139 0.0041884594
0.06457261 -0.20382972 0.0042113955
0.067304768 -0.20384051 0.0042248699
0.06910374 -0.20380929 0.0041858251
0.070741765 -0.20384055 0.0042249341
0.072970912 -0.20385061 0.004237521
0.074200571 -0.20384556 0.0042311926
0.077323899 -0.20383298 0.0042154789
0.079325065 -0.20381141 0.0041885022
0.081209593 -0.20390254 0.0043024174
0.083576351 -0.20389216 0.0042894343
0.084602237 -0.20385401 0.0042417608
0.086518101 -0.20385896 0.0042479136
0.088818036 -0.20379592 0.0041691493
0.091538504 -0.2038022 0.0041769869
0.09569189 -0.20367987 0.0040240795
0.096632615 -0.20384224 0.0042270487
0.099058285 -0.20377085 0.0041378075
0.10055301 -0.20382704 0.00420804
0.10323206 -0.20382972 0.0042114039
0.10482964 -0.20383519 0.0042182184
0.10684007 -0.2038472 0.0042332401
0.10875691 -0.20385748 0.0042460705
0.11138668 -0.20387478 0.0042676949
0.11334187 -0.20380989 0.0041866046
0.11554688 -0.20385979 0.0042489651
0.11694445 -0.20383655 0.0042198887
0.11913627 -0.20379446 0.0041673291
0.12031429 -0.20374303 0.004103017
-0.0041797902 -0.20266342 0.0061954344
-0.0030854384 -0.20278785 0.006757983
-0.00092274375 -0.20325144 0.007352313
0.0011930468 -0.20297192 0.0073106019
0.0028579973 -0.20283791 0.006846319
0.0042395024 -0.2031026 0.0061476626
-0.0041851224 -0.2048438 -0.0061926441
-0.0028998931 -0.20509388 -0.0068323608
-0.00088327716 -0.20469251 -0.007359901
0.0011211309 -0.20519997 -0.0073223389
0.0030672804 -0.20513043 -0.0067638382
0.0043055406 -0.20551099 -0.0060963118
0.051175684 -0.205667 -0.0060260086
0.053339805 -0.20589226 -0.0061949594
0.054531537 -0.20578101 -0.0061115185
0.057168975 -0.20581262 -0.0061352132
0.06098599 -0.20578994 -0.006118211
0.063859254 -0.2057751 -0.0061070845
0.065138206 -0.20569588 -0.006047674
0.067077637 -0.20581533 -0.0061372519
0.068946563 -0.2057469 -0.0060859355
0.070667446 -0.2058894 -0.0061928146
0.072680637 -0.20576714 -0.0061011165
0.074593715 -0.20594685 -0.0062359027
0.077047564 -0.20573285 -0.0060753925
0.079333559 -0.20586458 -0.0061741918
0.080198854 -0.20579149 -0.0061193733
0.083306335 -0.20576806 -0.0061017959
0.084941044 -0.20594114 -0.006231626
0.087199241 -0.20582771 -0.0061465288
0.089534849 -0.20569079 -0.0060438416
0.091480047 -0.20596829 -0.0062519801
0.092942186 -0.20576717 -0.0061011403
0.095404729 -0.2058842 -0.0061889156
0.096852809 -0.20576136 -0.0060967728
0.099205472 -0.20582718 -0.0061461353
0.10275518 -0.20579992 -0.006125696
0.10504705 -0.20572406 -0.0060687973
0.10786282 -0.20579155 -0.0061194152
0.10881372 -0.20582624 -0.0061454335
0.11082067 -0.20582746 -0.0061463555
0.11280384 -0.205759 -0.0060950015
0.11485857 -0.2058308 -0.0061488552
0.11711824 -0.20588566 -0.0061900052
0.11863007 -0.20577928 -0.0061102202
-0.0062235007 -0.20519723 -0.0041463673
-0.0052005374 -0.20479621 -0.0053260475
0.0050861416 -0.20506404 -0.0054488652
0.0061271344 -0.20513132 -0.0042668255
0.050918348 -0.2049343 -0.0051656738
0.05303986 -0.20480345 -0.0052861143
0.055104814 -0.20476036 -0.0052560545
0.05713686 -0.20471923 -0.0052248836
0.058927014 -0.20473848 -0.005237536
0.060614474 -0.20483088 -0.005306439
0.062888488 -0.20470622 -0.0051934728
0.065168537 -0.2048555 -0.0053442791
0.067190208 -0.20470089 -0.0051943534
0.069141909 -0.20492633 -0.0054215812
0.071132116 -0.20479991 -0.0053040646
0.072737008 -0.20460315 -0.005111896
0.075107083 -0.20483485 -0.0053512687
0.077094205 -0.20480211 -0.005313905
0.079199992 -0.20482357 -0.0053250985
0.08065211 -0.20478797 -0.0052618082
0.08286272 -0.20501213 -0.0054989392
0.085191503 -0.20484753 -0.0053675352
0.087078333 -0.2047614 -0.0052430476
0.088916525 -0.20500964 -0.0054849954
0.091151699 -0.20459266 -0.0051312842
0.093227223 -0.20488527 -0.0053727622
0.095052019 -0.20483705 -0.0053359242
0.096975476 -0.20451047 -0.0050094021
0.099040918 -0.20468488 -0.0051766457
0.10080267 -0.20481813 -0.0053050518
0.10307785 -0.20479883 -0.005325289
0.10497554 -0.20488566 -0.0054102484
0.10708977 -0.20480677 -0.0053032106
0.10871194 -0.20475815 -0.005251925
0.11100899 -0.20479691 -0.005296737
0.11299847 -0.20489962 -0.0053714407
0.11492604 -0.2047856 -0.0052751261
0.11698616 -0.20470999 -0.0051897187
0.11884482 -0.20478195 -0.0052677756
0.12082522 -0.2050239 -0.0045902831
-0.0068534929 -0.20509484 -0.0028412605
0.00669005 -0.20517954 -0.0032820173
0.050199993 -0.20494232 -0.0031928101
0.12167323 -0.20491003 -0.0033305506
0.12208088 -0.20479912 -0.002224121
-0.0073841247 -0.2049761 -0.00073461916
0.0073751891 -0.20487973 -0.00079121214
0.050199993 -0.20476082 -0.0011596883
0.12234519 -0.20513968 -0.00097963621
-0.0073094885 -0.20481892 0.0012019303
0.0073544085 -0.2050382 0.00092133327
0.050199993 -0.20524956 0.0009880868
0.12230475 -0.20510915 0.0012358516
-0.0067570554 -0.20511839 0.0030373172
0.0066664345 -0.2049844 0.0033192458
0.050199993 -0.20506744 0.0031317573
0.12171055 -0.20477848 0.0032277924
0.1220663 -0.20528217 0.0022621416
-0.0061021103 -0.20593756 0.0042966167
-0.0050737113 -0.20476715 0.0054388545
0.0050155041 -0.20512192 0.0054752184
0.050863724 -0.20480308 0.0049837516
0.053467494 -0.20457304 0.0050553479
0.054996226 -0.20470338 0.0051821438
0.056963556 -0.2046558 0.0051541827
0.058965717 -0.20466405 0.0051814187
0.061109304 -0.20467538 0.0051772329
0.063006386 -0.20462306 0.0051088692
0.065146141 -0.20495284 0.0054397746
0.066923618 -0.20464842 0.0051756604
0.068886496 -0.20463103 0.0051168916
0.070997722 -0.20466079 0.0051825657
0.07284385 -0.2049024 0.0053952313
0.074935041 -0.20470116 0.0052163186
0.077044785 -0.20482059 0.0053196615
0.078908831 -0.20480531 0.0052962601
0.081203289 -0.20457938 0.0050739781
0.083098978 -0.20467709 0.0051859664
0.08497151 -0.2046517 0.0051422515
0.087023176 -0.20489125 0.0053774868
0.088916712 -0.20478612 0.0052752644
0.090851098 -0.20484941 0.0053401403
0.09305837 -0.20483461 0.0053070658
0.094987698 -0.20454025 0.0050586574
0.097031347 -0.2047164 0.0052089337
0.099028014 -0.20469308 0.005229271
0.10117849 -0.20489551 0.005396327
0.10274342 -0.20482023 0.005326157
0.10482099 -0.2046262 0.0051199254
0.10689165 -0.20487128 0.0053708674
0.10911624 -0.20471387 0.0052160337
0.11097944 -0.20464244 0.0051588388
0.11297878 -0.20485711 0.0053511173
0.11472738 -0.2047866 0.0052862605
0.11705517 -0.20482439 0.0053311167
0.11920796 -0.20472634 0.0052001877
0.12055197 -0.20493318 0.0048316675
-0.0041280948 -0.20484802 0.0062367828
-0.0031493807 -0.20489256 0.0067342222
-0.0008596952 -0.20515013 0.0073635164
0.0010781137 -0.20516159 0.007329029
0.0029058033 -0.20512223 0.0068268906
0.0041734893 -0.20500328 0.0062004663
0.051092766 -0.20585769 0.0061675105
0.053189464 -0.20588005 0.0061842673
0.055101633 -0.20580119 0.0061251302
0.057263911 -0.20572306 0.0060665482
0.059215497 -0.2058862 0.0061888816
0.061229747 -0.20585138 0.0061627738
0.062668376 -0.20578754 0.006114901
0.06715934 -0.20585196 0.0061632143
0.068920441 -0.2057782 0.0061078863
0.070742399 -0.20582937 0.0061462536
0.072548024 -0.20571482 0.0060603539
0.07485006 -0.20587078 0.0061773178
0.076116338 -0.2059893 0.0062662056
0.079402894 -0.20582189 0.0061406642
0.081599094 -0.20576158 0.0060954355
0.082936928 -0.20590122 0.0062001357
0.084672138 -0.20592836 0.0062204888
0.087098897 -0.20580196 0.0061257072
0.088251755 -0.20579588 0.0061211521
0.091566578 -0.2058007 0.0061247763
0.092963181 -0.20575745 0.0060923398
0.094914578 -0.20582919 0.0061461334
0.097308442 -0.20578682 0.0061143674
0.098849103 -0.20582651 0.006144125
0.10088333 -0.20584007 0.0061542951
0.10277621 -0.20574009 0.0060793101
0.10496233 -0.20580226 0.0061259409
0.10772943 -0.20586061 0.0061697066
0.10860224 -0.2058229 0.0061414111
0.11039032 -0.20573567 0.0060759946
0.11318113 -0.20577766 0.0061074905
0.1152549 -0.2058159 0.0061361678
0.1166262 -0.20593444 0.0062250597
0.11879168 -0.2057151 0.0060605742
-0.0028977143 -0.2069279 -0.0068300921
-0.0010998596 -0.20687088 -0.0073235966
0.0010188358 -0.20668827 -0.0073398799
0.0030732919 -0.20686312 -0.0067615951
0.0041824682 -0.20675716 -0.0061947736
0.050948221 -0.20713329 -0.0066825319
0.052852768 -0.20686206 -0.0067080562
0.054944392 -0.20703495 -0.006784074
0.057114441 -0.20695041 -0.006738185
0.059064712 -0.20707023 -0.0067949807
0.060995188 -0.2072425 -0.0068526012
0.063052662 -0.2068854 -0.0067239138
0.065213554 -0.20668271 -0.006633915
0.06707079 -0.20719077 -0.0068433667
0.069046207 -0.20688908 -0.0067092921
0.070810743 -0.2070878 -0.0068048546
0.073352396 -0.20741577 -0.0069346749
0.075244837 -0.20680909 -0.0066955891
0.076867178 -0.20705906 -0.0067959446
0.079310499 -0.20690666 -0.006730272
0.081087209 -0.2069298 -0.0067312
0.083045423 -0.20654292 -0.0065576769
0.084940985 -0.20691654 -0.0067349859
0.086835526 -0.20678231 -0.0066719577
0.088872977 -0.20706661 -0.0067846142
0.091067918 -0.20700528 -0.0067740907
0.09303388 -0.20707427 -0.0067982487
0.094903074 -0.2071187 -0.0068063429
0.096938193 -0.20712344 -0.0068140794
0.099004321 -0.20709825 -0.0067980676
0.1011277 -0.2071694 -0.0068310807
0.10269436 -0.20701425 -0.0067671845
0.10496081 -0.20694636 -0.0067452164
0.1070524 -0.20704915 -0.0067777764
0.10889873 -0.20705929 -0.0067850738
0.11075021 -0.20682833 -0.0066946251
0.11283307 -0.20695141 -0.0067412108
0.11490146 -0.20692293 -0.0067255367
0.11701132 -0.20699576 -0.0067583793
0.11863077 -0.20699582 -0.0064621586
-0.0062305629 -0.20735115 -0.0041375463
-0.0051201531 -0.20722386 -0.005384177
0.0052018785 -0.20695665 -0.0053093606
0.0062179109 -0.20668307 -0.0041533601
0.050199993 -0.20706493 -0.0053024963
0.11977313 -0.2067399 -0.005722241
0.12066883 -0.20700757 -0.0048344145
-0.0068209046 -0.2069425 -0.0029280712
0.0068384772 -0.20726188 -0.0028764023
0.050199989 -0.20727026 -0.003123332
0.1216962 -0.20659399 -0.0032589245
0.12214563 -0.20723188 -0.0020483215
-0.00728651 -0.2068588 -0.0013400125
0.0073416852 -0.20708504 -0.00099525962
0.050199993 -0.20712854 -0.0008234735
0.12230297 -0.20676355 -0.0012388374
-0.0073521072 -0.20710586 0.00093590427
0.0073659495 -0.20677474 0.00084823871
0.050199989 -0.20701636 0.00084321405
0.1223547 -0.20675217 0.00091946934
-0.0067483759 -0.20713943 0.0030850079
0.0067801303 -0.20702033 0.0030082928
0.050199989 -0.20708451 0.0030241034
0.12181198 -0.20678455 0.0029524646
0.12208857 -0.20674378 0.0022017511
-0.0062692622 -0.20702513 0.004087673
-0.0051888176 -0.20711595 0.0053245192
0.0053627952 -0.20680909 0.0051610046
0.0061213132 -0.20710887 0.0042726099
0.050199993 -0.20706344 0.0050786184
0.11966737 -0.20722231 0.005805348
0.12072081 -0.20703906 0.0047549112
-0.0041372674 -0.2068342 0.0062294379
-0.0030376767 -0.20718698 0.0067734043
-0.0009065115 -0.20718442 0.0073559852
0.00092069281 -0.20691571 0.007353704
0.0029483337 -0.20683795 0.0068125697
0.0042149876 -0.20731187 0.0061672595
0.050756227 -0.20709336 0.0067287744
0.052986898 -0.20723145 0.0068560871
0.055058952 -0.20685723 0.006706384
0.057304334 -0.20714889 0.0068266536
0.058961187 -0.20711915 0.0068122786
0.061107054 -0.20661347 0.006610957
0.063063644 -0.20690426 0.0067304578
0.06507761 -0.20698299 0.0067498591
0.066812404 -0.20711018 0.0068056365
0.069344953 -0.20655875 0.0065800203
0.071388774 -0.20694396 0.0067428369
0.073105901 -0.20684075 0.0066939597
0.074908949 -0.20695239 0.0067415969
0.07709258 -0.20701148 0.0067653228
0.078976884 -0.20665397 0.0066220877
0.080944687 -0.20711766 0.0068070893
0.083129629 -0.20674273 0.0066584698
0.085419506 -0.20680712 0.0066819089
0.08686962 -0.20699623 0.0067699924
0.089324385 -0.20689206 0.0067143273
0.091194801 -0.20684236 0.0066932472
0.092767812 -0.2071408 0.006823631
0.095295668 -0.20706084 0.0067861523
0.097076632 -0.206784 0.0066671348
0.098805659 -0.20706809 0.0067965314
0.10113499 -0.20702134 0.0067713959
0.10295445 -0.20719744 0.0068406644
0.10497311 -0.20696977 0.0067478628
0.10719628 -0.20688002 0.0067144064
0.10885805 -0.20681652 0.0066849478
0.11119402 -0.2070944 0.006802347
0.11304068 -0.20682941 0.0067001344
0.11482874 -0.20702715 0.0067705703
0.11700033 -0.2072356 0.0068531092
0.11884248 -0.20723218 0.0063987509
-0.0043336367 -0.20808762 -0.0060738437
-0.0027918939 -0.20897743 -0.0068721646
-0.00099323224 -0.2092811 -0.0073439307
0.0010739987 -0.20892704 -0.007330393
0.0029562733 -0.2090622 -0.0068060462
0.0042412411 -0.20913599 -0.0061477642
0.050438713 -0.20897011 -0.0069883084
0.053172011 -0.20913096 -0.0073633399
0.054844175 -0.20895059 -0.0073350626
0.056930862 -0.20918706 -0.0073724017
0.059084423 -0.20915532 -0.0073673921
0.061000649 -0.20896445 -0.0073366123
0.063010089 -0.20887509 -0.0073228031
0.065155774 -0.20896837 -0.0073378715
0.066993192 -0.20893236 -0.007332183
0.069016948 -0.20887606 -0.0073232995
0.070885085 -0.20873623 -0.0073009897
0.072900698 -0.20911162 -0.0073603438
0.075030886 -0.20890009 -0.0073266001
0.076709427 -0.20895946 -0.0073350826
0.078993455 -0.20902121 -0.0073448387
0.081353746 -0.20866609 -0.0072895428
0.083099462 -0.20898618 -0.0073388061
0.084917627 -0.20901152 -0.0073446836
0.087132022 -0.20907219 -0.0073542655
0.088982046 -0.20910001 -0.0073586553
0.09095525 -0.20914997 -0.0073665436
0.092835009 -0.20897622 -0.0073391125
0.094946876 -0.20938957 -0.0074043786
0.096990764 -0.20881465 -0.007312471
0.099001244 -0.20930833 -0.0073915473
0.1010504 -0.20870353 -0.0072945817
0.10321709 -0.20902535 -0.0073468685
0.1050598 -0.20882742 -0.0073136417
0.10715901 -0.20873776 -0.0073014605
0.10895283 -0.20892936 -0.007331715
0.11115856 -0.20896739 -0.007336915
0.1129017 -0.20871527 -0.0072963908
0.11488837 -0.20881736 -0.0073117195
0.11700785 -0.20910624 -0.0071154311
0.11867037 -0.209299 -0.0065053566
-0.0062197512 -0.20916967 -0.0041510686
-0.0052420027 -0.20899847 -0.0052799806
0.0053139003 -0.20898949 -0.0051875771
0.0061962488 -0.2094418 -0.0041804472
0.050199989 -0.20910652 -0.0051158373
0.11980809 -0.2090802 -0.0056942864
0.12064816 -0.20898613 -0.0048446483
-0.0067073549 -0.20899434 -0.0032234893
0.0066833128 -0.20888305 -0.0032726123
0.050199993 -0.20886138 -0.0031410414
0.1216661 -0.20922066 -0.0033016531
0.12204313 -0.2089937 -0.0023265488
-0.0073401816 -0.20906794 -0.0010009604
0.0073489868 -0.2088279 -0.00095717481
0.050199989 -0.20904864 -0.00090400223
0.12235004 -0.20902392 -0.00095065258
-0.0073405481 -0.20907634 0.0010068519
0.0073269331 -0.20926364 0.0010911846
0.050199993 -0.20919743 0.0010917862
0.12235627 -0.20870884 0.00090945722
-0.0067628105 -0.20881052 0.0030597374
0.006784495 -0.20897619 0.0030195909
0.050199993 -0.20898269 0.0027918874
0.12170072 -0.2090905 0.0032209621
0.12206304 -0.2094022 0.0022709838
-0.0061272262 -0.20851459 0.004265212
-0.0052735223 -0.20893943 0.0052459296
0.0052309055 -0.20876555 0.0052858349
0.050199989 -0.20896158 0.0051305802
0.11984397 -0.20842712 0.0056640692
0.12075827 -0.20905843 0.0047181607
-0.0041993032 -0.20889033 0.0061798017
-0.0027999363 -0.20901676 0.0068673459
-0.0010733873 -0.20887621 0.0073297611
0.00090358686 -0.2088457 0.0073565724
0.0029674685 -0.20888346 0.0068046674
0.0042177299 -0.20865528 0.0061650611
0.05062633 -0.20911728 0.0070390296
0.052984186 -0.20919394 0.0073719667
0.055113949 -0.20870233 0.0072930865
0.057054974 -0.20900697 0.0073399497
0.058831304 -0.20902731 0.007345112
0.06116182 -0.20878929 0.0073075248
0.063041195 -0.20883834 0.0073158187
0.064715303 -0.20894045 0.007330162
0.066740774 -0.2088467 0.0073171393
0.068915546 -0.20894235 0.0073313615
0.071063951 -0.20884368 0.0073166634
0.072956108 -0.20876282 0.0073026288
0.075068355 -0.20884402 0.0073167137
0.077037536 -0.20918621 0.0073707448
0.078993432 -0.20909008 0.0073548215
0.080809884 -0.20902354 0.00734457
0.08281 -0.20904905 0.0073490865
0.085114144 -0.20896845 0.0073350975
0.087350212 -0.20911784 0.0073599494
0.089232855 -0.20904994 0.0073489579
0.090900652 -0.20899999 0.0073393155
0.09308707 -0.20886156 0.0073156822
0.095166743 -0.20923848 0.0073776003
0.09685941 -0.20907533 0.0073517296
0.099141404 -0.20892687 0.0073290556
0.10114112 -0.20876819 0.0073040598
0.1029186 -0.20907125 0.0073525929
0.10480646 -0.20896481 0.0073357909
0.106947 -0.20923358 0.0073771505
0.10877775 -0.20886748 0.0073176031
0.11085545 -0.2088857 0.0073209028
0.11290274 -0.20899218 0.0073401057
0.11502244 -0.20911348 0.0073546874
0.11685439 -0.2090878 0.0071418448
0.11876997 -0.20901874 0.0064230296
-0.0041496125 -0.21098383 -0.0062210741
-0.0030420991 -0.21098551 -0.0067760581
-0.00062622683 -0.21107124 -0.0074018859
