# .PCD v0.7 - Point Cloud Data file format
VERSION 0.7
FIELDS x y z
SIZE 4 4 4
TYPE F F F
COUNT 1 1 1
WIDTH 1253
HEIGHT 1
VIEWPOINT 0 0 0 1 0 0 0
POINTS 1253
DATA ascii
0.0010670483 -0.17500158 0.0073291133
0.0029104326 -0.17502767 0.0068244478
0.0040621003 -0.17491999 0.006289687
-0.0042598294 -0.17709762 -0.0061327782
-0.0029373597 -0.17710547 -0.0068167807
-0.0011712466 -0.17699951 -0.0073137856
0.0010690615 -0.17695083 -0.0073318416
0.0028394079 -0.17724648 -0.0068545453
0.0041992585 -0.17721604 -0.0061812345
-0.0062459828 -0.17674769 -0.0041181608
-0.0052235257 -0.17694949 -0.0053029037
0.0051955511 -0.17704904 -0.0053212913
0.0061141104 -0.17719886 -0.004283004
-0.0067793527 -0.17680922 -0.003020745
0.0068810089 -0.17730318 -0.0027632937
-0.0073707937 -0.17697252 -0.00081894337
0.0073425872 -0.17719944 -0.00099410117
-0.0073503121 -0.17687964 0.00094307942
0.0073350081 -0.17713356 0.0010384873
-0.0068263095 -0.17707756 0.0028900413
0.0067550777 -0.17695488 0.0030775783
-0.0062600579 -0.17703706 0.0040992876
-0.0050938311 -0.17696331 0.0054179984
0.0054717963 -0.17701213 0.0050528557
0.0061343396 -0.17738841 0.0042564338
-0.0041783154 -0.17691347 0.0061967075
-0.0027715999 -0.17679662 0.0068692234
-0.0011983376 -0.1769293 0.007308186
0.00093662459 -0.1770115 0.0073514716
0.0031186417 -0.17713012 0.0067378413
0.0043325862 -0.17710935 0.00607329
-0.0041583269 -0.17877349 -0.0062139858
-0.0030458418 -0.17915064 -0.0067717829
-0.00096971361 -0.17925997 -0.0073475363
0.0011475118 -0.17915301 -0.0073194625
0.0028960884 -0.17906851 -0.0068263067
0.0041359253 -0.17867887 -0.0062319064
-0.0060203038 -0.17878173 -0.0044002677
-0.0051667145 -0.17912599 -0.005346809
0.0055300142 -0.17903706 -0.0049832817
0.0061794282 -0.17893834 -0.0042013628
-0.0067316345 -0.17866485 -0.0031565051
0.0068369671 -0.17906651 -0.0028790568
-0.0073074936 -0.17931139 -0.0012198571
0.0073291524 -0.17898668 -0.0010775045
-0.0073285131 -0.17914259 0.001085435
0.0073566251 -0.17914131 0.00089959503
-0.0068072942 -0.17902903 0.0029525638
0.0066849785 -0.1790984 0.0032809647
-0.0061346833 -0.17887001 0.0042559989
-0.0051646847 -0.17897506 0.0053640595
0.0053151236 -0.17903349 0.0052060052
0.0061519342 -0.17928995 0.0042344332
-0.0043114019 -0.17880617 0.0060902312
-0.0031240939 -0.17918693 0.0067403028
-0.0011394384 -0.17874624 0.0073184143
0.00082917861 -0.17919388 0.0073684282
0.0030292107 -0.17890631 0.0067789159
0.0042405101 -0.17915492 0.0061469437
-0.0041588503 -0.18087527 -0.0062135747
-0.0029887951 -0.18122871 -0.0067969272
-0.0012266287 -0.18096441 -0.0073056309
0.00090580899 -0.18090484 -0.0073570749
0.0028775421 -0.18077804 -0.0068365154
0.0041705496 -0.18127991 -0.0062042172
-0.0061292262 -0.1816939 -0.0042641256
-0.0051960279 -0.18101637 -0.0053246533
0.0050421744 -0.18119912 -0.0054829745
0.0061893123 -0.18109177 -0.0041890158
-0.0068247993 -0.18077226 -0.0029190567
0.006802605 -0.18081608 -0.0029600644
-0.0073638284 -0.18115789 -0.00086307898
0.0073314244 -0.18084502 -0.0010683013
-0.0073346752 -0.18104631 0.0010461329
0.0073070428 -0.18090506 0.0012185811
-0.0067490698 -0.18086289 0.0031232976
0.0068353275 -0.180905 0.0028875668
-0.00621018 -0.18107595 0.0041616191
-0.0050011901 -0.18104158 0.0055228639
0.0053329286 -0.18123747 0.0051802914
0.006153197 -0.18152858 0.0042328471
-0.0043260306 -0.18104805 0.0060785203
-0.003018663 -0.18087496 0.0067799431
-0.00098663708 -0.18131664 0.0073419339
0.00077907665 -0.1809455 0.0073763328
0.0030733955 -0.18089342 0.0067656278
0.0042382982 -0.1809492 0.0061487062
-0.0041579357 -0.18314615 -0.0062143141
-0.0029138436 -0.18300958 -0.0068233544
-0.0011163817 -0.18296842 -0.0073243906
0.0012270696 -0.18275508 -0.0073053818
0.0033452797 -0.18301535 -0.006656799
0.004167493 -0.18274981 -0.0062066684
-0.0061533814 -0.18297832 -0.0042339358
-0.0052819452 -0.18313251 -0.0052189948
0.0051379101 -0.18305789 -0.0053703864
0.0061544809 -0.18348512 -0.0042325631
-0.0067974082 -0.18298861 -0.0029870176
0.0067916554 -0.18296359 -0.0029816958
-0.0073577007 -0.18304189 -0.00089797383
0.0073544942 -0.18325496 -0.00092220522
-0.0073488592 -0.18308771 0.0009565666
0.0073536187 -0.18288159 0.00092518731
-0.0068429844 -0.18303175 0.0028477379
0.0067854612 -0.18291324 0.0030078944
-0.0062400657 -0.18300498 0.0041242554
-0.0052727745 -0.18281797 0.0052500512
0.0052707638 -0.18314989 0.0052585034
0.0061493479 -0.18246554 0.0042376556
-0.004170191 -0.18272418 0.0062031858
-0.0032070677 -0.18292673 0.0067066499
-0.00086975069 -0.18269122 0.0073620104
0.0011959858 -0.18292645 0.0073094959
0.0032892497 -0.1829634 0.0066645588
-0.0043365639 -0.18543182 -0.0060714204
-0.0029642789 -0.18492103 -0.0068063899
-0.00099813228 -0.18480305 -0.007342672
0.00090058194 -0.18498974 -0.0073579317
0.0029008705 -0.1848817 -0.0068250252
0.004090731 -0.18529072 -0.0062680868
-0.0061542434 -0.18472312 -0.0042328648
-0.0053135571 -0.18492787 -0.0052170246
0.0053198859 -0.18497126 -0.0052012694
0.0062385011 -0.18532401 -0.0041275453
-0.0067434399 -0.18519117 -0.0031021596
0.0066758217 -0.18543535 -0.0033174432
-0.0073587224 -0.18482199 -0.00089542696
0.0073422873 -0.18494925 -0.00099780352
-0.0073242211 -0.18487391 0.001104597
0.0073535684 -0.18518053 0.00092673133
-0.006790265 -0.18486422 0.002999645
0.0068265884 -0.18518955 0.002899548
-0.0062540132 -0.1844485 0.0041068159
-0.0050747157 -0.18493398 0.0054655033
0.0050884951 -0.18503109 0.0054287221
0.0060483562 -0.18595371 0.0043638814
-0.0042090714 -0.1851255 0.0061720726
-0.002858727 -0.18491158 0.0068430859
-0.00098351284 -0.18522376 0.0073440373
0.0011104948 -0.18507873 0.0073214644
0.0033436012 -0.18528344 0.0066603534
0.0042028171 -0.18518791 0.0061770761
-0.0042095776 -0.18665868 -0.0061730137
-0.0032991976 -0.18702479 -0.0066694049
-0.0011381187 -0.18714161 -0.0073201894
0.00084430265 -0.18680164 -0.0073673651
0.0030329963 -0.18723859 -0.0067832582
0.0043573692 -0.18678437 -0.0060547809
-0.0061101294 -0.18720964 -0.0042880154
-0.0052730348 -0.18696108 -0.0052544428
0.0052416483 -0.1869469 -0.0052650687
0.0062277452 -0.18715827 -0.0041409959
-0.0068561784 -0.1867566 -0.0028238678
0.0067819855 -0.18702312 -0.0030334976
-0.0073215556 -0.18713693 -0.0011308282
0.0073395674 -0.18710019 -0.0010159346
-0.0073634419 -0.18699116 0.00086418545
0.007314323 -0.18686096 0.0011752791
-0.0067933002 -0.18700103 0.0029855247
0.0067032203 -0.18696575 0.003234745
-0.0061551165 -0.18656428 0.0042304294
-0.0052688434 -0.18712842 0.0052568871
0.0052733817 -0.18694563 0.0052528265
0.0060991673 -0.18670003 0.0043003652
-0.0041937106 -0.18681256 0.0061843558
-0.0029272109 -0.18691099 0.0068166107
-0.0010884152 -0.18720452 0.007326575
0.00092131854 -0.18722501 0.0073538516
0.0028569729 -0.18673828 0.0068430407
0.0042379322 -0.187208 0.0061489777
-0.0042275293 -0.18907462 -0.0061586611
-0.0030969358 -0.18883051 -0.0067473287
-0.00095863565 -0.18931748 -0.0073483363
0.0008434804 -0.18858242 -0.0073672542
0.0031605719 -0.18890429 -0.0067304065
0.004166509 -0.18909527 -0.0062074778
-0.0063305083 -0.18968093 -0.0040125516
-0.0053638872 -0.18881081 -0.0051581962
0.0052446816 -0.18898751 -0.0052689495
0.0061579435 -0.18920237 -0.0042282552
-0.0067385333 -0.18912271 -0.0031510629
0.0067342422 -0.18899988 -0.0031522571
-0.0073588905 -0.18906738 -0.00088200165
0.007329545 -0.1889537 -0.0010728282
-0.0073561254 -0.18891487 0.00091051968
0.0072922241 -0.18883426 0.0012956284
-0.0067745005 -0.18898652 0.003043686
0.0067991591 -0.1890177 0.0029862591
-0.0061498727 -0.18930468 0.0042369734
-0.0052179159 -0.18895753 0.0053147003
0.0052833343 -0.18899262 0.0052297423
0.006279808 -0.18886635 0.0040745568
-0.0041706245 -0.18851399 0.0062028188
-0.0031646227 -0.18901448 0.0067307367
-0.0011514919 -0.18934225 0.0073165945
0.0010803652 -0.18917513 0.007328195
0.0030545027 -0.18909827 0.0067653926
0.0041925376 -0.18943346 0.0061852839
-0.0042428984 -0.19149376 -0.0061463751
-0.0029334016 -0.19116801 -0.006813426
-0.0009393373 -0.19087116 -0.007350482
0.00094106951 -0.1908318 -0.0073506301
0.0030417156 -0.19107378 -0.0067748008
0.0041889809 -0.19085319 -0.006189507
-0.0062656766 -0.19047995 -0.0040935944
-0.005370887 -0.19118167 -0.0051150396
0.0053872718 -0.19089477 -0.0051136189
0.0061632595 -0.19055964 -0.0042216158
-0.0067911763 -0.19124369 -0.0030002038
0.0068572378 -0.19107938 -0.0028137488
-0.0073708422 -0.19140123 -0.00081869302
0.0073645562 -0.19115721 -0.00085850316
-0.0073483298 -0.19104815 0.00095552154
0.0073378771 -0.19083528 0.0010260908
-0.0068139131 -0.19107571 0.0029471004
0.0067594135 -0.19103029 0.0030753124
-0.0062159766 -0.19072761 0.004154339
-0.0051756045 -0.19119176 0.005329628
0.0054634237 -0.1911474 0.0050502825
0.0061578578 -0.19119318 0.0042269863
-0.0042280275 -0.1913396 0.0061568855
-0.0031737615 -0.19106324 0.0067217746
-0.00079983159 -0.19113177 0.0073730196
0.0011434446 -0.19083937 0.0073187649
0.0029575764 -0.19084947 0.0068041319
0.0040505463 -0.19107071 0.0062988712
-0.0042554662 -0.19255403 -0.0061363243
-0.0027311279 -0.19304934 -0.0068944939
-0.0011049878 -0.19294369 -0.0073245806
0.0012700557 -0.1929086 -0.0072981515
0.0032191139 -0.19309343 -0.0067089307
0.0040218895 -0.1939562 -0.0063231909
-0.0060645207 -0.19297548 -0.0043450482
-0.0052009486 -0.19315365 -0.0053209001
0.0052301451 -0.19307788 -0.0052835899
0.0061882166 -0.19268978 -0.0041904273
-0.0067737577 -0.19298628 -0.003042504
0.0068634679 -0.19325884 -0.0027916685
-0.0073683932 -0.19286917 -0.00082891661
0.0073304963 -0.19266926 -0.0010735813
-0.0073517635 -0.19309615 0.00093813287
0.0073498012 -0.19309847 0.00093972345
-0.0068252254 -0.19311303 0.0029136012
0.0067124008 -0.19318888 0.0031818855
-0.0061905095 -0.19317056 0.0041861646
-0.0049213879 -0.19302735 0.0055463728
0.0053095487 -0.19286524 0.005197953
0.0061391164 -0.1928127 0.0042504058
-0.0042069694 -0.1929678 0.0061737257
-0.0031634215 -0.19295242 0.0067259832
-0.00095371471 -0.19300595 0.0073487158
0.0011212733 -0.19283569 0.0073205712
0.0030128141 -0.19288819 0.0067880838
0.004175867 -0.19250396 0.0061986097
-0.0041283499 -0.19495019 -0.0062380265
-0.0030629709 -0.19510894 -0.0067683505
-0.0010851393 -0.19520094 -0.0073288484
0.0009469064 -0.19483875 -0.0073486255
0.0028263971 -0.19495197 -0.0068553295
0.0041479697 -0.1949764 -0.006222331
-0.0061055729 -0.1952236 -0.0042937403
-0.0052311411 -0.19484891 -0.0052947979
0.0051238448 -0.19503629 -0.0053752312
0.0060537434 -0.19599459 -0.00435853
-0.0067989924 -0.19495016 -0.0029834984
0.006874498 -0.19508138 -0.0027842121
-0.0073124804 -0.19526963 -0.0011681139
0.0073388945 -0.19484153 -0.001012948
-0.0073778429 -0.19489056 0.00077295431
0.007374703 -0.19485962 0.00079284288
-0.0068093813 -0.19497119 0.0029475419
0.006769829 -0.19495901 0.0030485918
-0.0062643336 -0.19581307 0.0040938742
-0.0052784947 -0.19487292 0.0052307374
0.0052963048 -0.19491743 0.0052220356
0.0061951475 -0.19473113 0.0041803606
-0.0042676963 -0.19512561 0.0061251367
-0.0029099248 -0.19516335 0.0068231463
-0.0010076655 -0.1949265 0.0073388908
0.0010214448 -0.19488075 0.007336854
0.0029696384 -0.19510832 0.0068037678
0.0041530337 -0.19434404 0.0062168697
-0.0042264224 -0.19711433 -0.0061595757
-0.0030450544 -0.19681531 -0.0067743552
-0.0010786008 -0.19704704 -0.0073284446
0.0011390358 -0.19694547 -0.0073189358
0.0030342317 -0.19743979 -0.0067764726
0.004225736 -0.19702397 -0.0061601251
-0.0061781178 -0.19667916 -0.0042030648
-0.0053561344 -0.19708033 -0.0051574721
0.0052861948 -0.19709124 -0.0052303681
0.0061108349 -0.19720975 -0.0042871716
-0.0068136086 -0.19726983 -0.0029308854
0.0067147999 -0.19697416 -0.0031898629
-0.0073552467 -0.19691782 -0.00090961281
0.00734076 -0.1969353 -0.0010069226
-0.0073411916 -0.19707155 0.00098928891
0.0073023699 -0.19678733 0.0012416913
-0.0067657246 -0.19713886 0.0030555231
0.0067069409 -0.19719821 0.0031857146
-0.0061960015 -0.1966438 0.0041792863
-0.0052915593 -0.19691285 0.0052074287
0.0056042243 -0.19683872 0.004894733
0.0062011275 -0.19683079 0.0041728783
-0.004244945 -0.19741102 0.0061433292
-0.0029524288 -0.19717643 0.0068088425
-0.00099827687 -0.19712225 0.0073416643
0.001246235 -0.19688939 0.0072988989
0.0030840309 -0.1969073 0.0067538004
0.0042181639 -0.1966769 0.0061647571
-0.0042076055 -0.19935182 -0.0061746379
-0.0027533835 -0.19903949 -0.0068862829
-0.0008393788 -0.19909039 -0.007368187
0.0012680507 -0.19889086 -0.0072985324
0.0030947626 -0.19902116 -0.0067568016
0.0041266996 -0.19873014 -0.0062393597
-0.0051257783 -0.19899216 -0.005354302
0.0052511883 -0.19881633 -0.0052645518
0.0061095455 -0.19875009 -0.004288788
-0.0068452545 -0.19881055 -0.0028535321
0.0068097301 -0.1989018 -0.0029544474
-0.0073448149 -0.19904135 -0.00098355638
0.007394759 -0.19921368 -0.00066725077
-0.0073686847 -0.19865142 0.00083094253
0.0073211538 -0.199536 0.0011319697
-0.0068894201 -0.19914547 0.0027421715
0.006886554 -0.19899707 0.0027500624
-0.0061517805 -0.19865946 0.0042345552
-0.0053539765 -0.19913046 0.0051581431
0.0052865939 -0.19908243 0.0052238978
0.0062104552 -0.19878496 0.0041612117
-0.0042614462 -0.19872785 0.0061301244
-0.0033974114 -0.19858447 0.0066360482
-0.00090194523 -0.19921313 0.0073565356
0.0010288634 -0.19913617 0.0073368265
0.0030465506 -0.19922452 0.0067733265
0.0041502919 -0.19959222 0.0062190443
-0.0041862107 -0.20117661 -0.0061917598
-0.0028920081 -0.20090276 -0.0068303454
-0.0010604636 -0.2009555 -0.0073332852
0.00068013562 -0.20088258 -0.0073930952
0.0029610419 -0.20082824 -0.0068077017
0.0042130332 -0.20059459 -0.0061702994
-0.0062273717 -0.20172623 -0.0041415151
-0.0052117473 -0.20101485 -0.0053024837
0.0051237931 -0.20112132 -0.0053753513
0.0061412673 -0.20088348 -0.0042491439
-0.0068581142 -0.20098454 -0.002828703
0.006701278 -0.20101513 -0.0032142987
-0.007324317 -0.20089291 -0.0011133876
0.0073271603 -0.20095864 -0.0010947797
-0.0073260469 -0.20105205 0.0010930286
0.0073389178 -0.20098764 0.0010194615
-0.0067716399 -0.20105433 0.0030436527
0.0069015268 -0.20098072 0.002709415
-0.0062078177 -0.20079054 0.0041645006
-0.0052975579 -0.20108616 0.0052075237
0.0053034825 -0.20101148 0.0052186283
0.0061414884 -0.20112385 0.0042474112
-0.0040626614 -0.20045434 0.0062891454
-0.0033428157 -0.20120333 0.0066641048
-0.00083814957 -0.20071633 0.0073664058
0.00088732626 -0.20102972 0.0073583927
0.0028175251 -0.20108499 0.0068612369
0.004143659 -0.2013033 0.006224344
-0.0030713924 -0.20319389 -0.0067560724
-0.0010412935 -0.20305447 -0.0073346961
0.00092022453 -0.20285758 -0.0073554353
0.0033327376 -0.20278746 -0.0066569345
0.0041964916 -0.20271611 -0.0061835409
-0.00544834 -0.20317613 -0.0050451783
0.0051416471 -0.20289934 -0.0053935284
0.0062112072 -0.20302126 -0.0041617267
-0.0067716218 -0.2030365 -0.0030634757
0.0068463669 -0.20292893 -0.0028461183
-0.007326738 -0.20275448 -0.001096072
0.0073015443 -0.20304613 -0.0012496153
-0.0073582106 -0.20295203 0.00089595822
0.0073294067 -0.20314033 0.0010796913
-0.006749284 -0.20298876 0.0031101627
0.0067292876 -0.20268379 0.0031767359
-0.0061334008 -0.20303121 0.0042575141
-0.0051937173 -0.20322017 0.0053094248
0.0051626731 -0.20303711 0.0053483765
0.0060647251 -0.20228313 0.0043433616
-0.0041913427 -0.20349047 0.0061861896
-0.0029007734 -0.20290512 0.0068265884
-0.00091073167 -0.20319822 0.0073554637
0.00099694636 -0.20283429 0.0073400359
0.0030556608 -0.20297992 0.0067700469
0.0041844994 -0.20336893 0.0061916644
-0.0042241504 -0.20512457 -0.006161422
-0.0029121994 -0.20538022 -0.0068214131
-0.00098877808 -0.20522416 -0.0073442142
0.0010839992 -0.20503534 -0.0073294309
0.0031711708 -0.20516849 -0.0067270212
0.0042675175 -0.20483531 -0.0061267274
-0.0061351503 -0.2050087 -0.0042568054
-0.0052378061 -0.20499434 -0.0052601863
0.0052202726 -0.20503575 -0.0053041005
0.0062507279 -0.20538399 -0.0041123345
-0.0069211563 -0.20498982 -0.0026535694
0.0067442153 -0.2047492 -0.0031155911
-0.0073237456 -0.20498914 -0.0011096166
0.0073101437 -0.20508488 -0.0011992926
-0.0073393933 -0.20498969 0.0010164294
0.0073050815 -0.20522906 0.0012275821
-0.0068238373 -0.20473742 0.0029024887
0.0067759277 -0.20497493 0.0030313232
-0.0061590397 -0.20464203 0.0042254599
-0.0052853376 -0.20499478 0.0052059623
0.005157745 -0.20500307 0.0053578643
0.006154255 -0.20492978 0.0042314404
-0.004174863 -0.20468414 0.0061993687
-0.0031450195 -0.20510109 0.0067382851
-0.0012573205 -0.20493349 0.0073007336
0.00095403864 -0.20498577 0.0073478385
0.00295251 -0.2049775 0.0068069114
0.0042113159 -0.20523547 0.0061702044
-0.0041669132 -0.20648611 -0.006207217
-0.0030339803 -0.20716007 -0.0067792255
-0.00084085035 -0.20716223 -0.0073675914
0.00085226219 -0.20712283 -0.0073648877
0.00321895 -0.20675534 -0.0067079337
0.0042140814 -0.2071002 -0.0061694849
-0.0061479686 -0.20689927 -0.0042407876
-0.0053352141 -0.20707816 -0.0051809214
0.0051698163 -0.20692626 -0.0053425934
0.006166412 -0.20760281 -0.0042177364
-0.006775484 -0.20704897 -0.0030530081
0.0067344131 -0.20700662 -0.0031487469
-0.0073517873 -0.20707302 -0.00093942852
0.0073689488 -0.20699143 -0.00083074358
-0.0073424559 -0.20678461 0.00098949403
0.0073441486 -0.20705292 0.00097802805
-0.0068714111 -0.20703825 0.0027895642
0.0068263332 -0.206966 0.0029134902
-0.0062660458 -0.20719348 0.0040916922
-0.0051697791 -0.20725131 0.0053164358
0.0052008829 -0.20706557 0.0053279721
0.0061944718 -0.20767607 0.0041811587
-0.0042876834 -0.20740263 0.0061091031
-0.0032624481 -0.20698494 0.0066877878
-0.0011259172 -0.20702451 0.007320853
0.0010699662 -0.2072949 0.0073289094
0.0030276759 -0.20690818 0.0067687659
0.004236293 -0.20676054 0.0061502168
-0.0041919742 -0.20857963 -0.0061871759
-0.0030349616 -0.20883468 -0.0067743566
-0.00078116113 -0.20888013 -0.0073770555
0.00083614752 -0.20893553 -0.0073687336
0.0028137055 -0.20889807 -0.0068574981
0.004196085 -0.20887059 -0.0061838888
-0.0061560934 -0.20954184 -0.0042306418
-0.0052588852 -0.20911565 -0.0052686841
0.0053486163 -0.20911476 -0.0051584644
0.0061438414 -0.20875677 -0.0042459546
-0.0067767021 -0.20908524 -0.0030212393
0.0067569334 -0.20904145 -0.0030837425
-0.0073480206 -0.20912857 -0.00096329435
0.0073521379 -0.20922366 -0.00093721342
-0.00732848 -0.20883515 0.0010805231
0.0073297727 -0.2090987 0.0010773507
-0.0067489659 -0.20925918 0.0031199045
0.0068564438 -0.209039 0.002830467
-0.0062145232 -0.20910043 0.0041560889
-0.005278239 -0.20897299 0.0052231769
0.0052805543 -0.20869869 0.0052406248
0.006191276 -0.20883629 0.0041851494
-0.0042568371 -0.20869972 0.0061337748
-0.0029840551 -0.20906915 0.0067878282
-0.0010255168 -0.20902808 0.0073366142
0.0010935318 -0.20910992 0.0073259175
0.0030767117 -0.20908435 0.0067574745
0.0042646485 -0.20911686 0.0061275237
-0.0043089455 -0.21190096 -0.0060936105
-0.0029802932 -0.21110016 -0.0068027605
-0.00067082135 -0.21098472 -0.0073948442
0.0013197958 -0.21114996 -0.0072919019
0.0030577963 -0.21102233 -0.0067742071
0.0042517064 -0.2112513 -0.0061393995
-0.0061740642 -0.21114495 -0.0042081834
-0.0053841453 -0.21113263 -0.0051089223
0.0051398799 -0.21105514 -0.0053756405
0.0061778175 -0.21128219 -0.0042034932
-0.0068149981 -0.21136615 -0.0029174243
0.0068404442 -0.21100989 -0.0028766994
-0.0073361956 -0.21103197 -0.0010296549
0.0073019913 -0.21093029 -0.0012465268
-0.007337362 -0.21079075 0.0010231608
0.0073376456 -0.21092986 0.0010274842
-0.0068152226 -0.21089579 0.0029270742
0.0067680245 -0.21084099 0.0030498342
-0.0061316588 -0.21034023 0.004259665
-0.0052256999 -0.21087927 0.0052865287
0.0053028213 -0.21124926 0.0052047051
0.0061100083 -0.21091487 0.0042867269
-0.0042290571 -0.2111413 0.0061559901
-0.0028232834 -0.21071228 0.0068538184
-0.0010666962 -0.21082716 0.0073291096
0.00098590564 -0.21089107 0.0073435679
0.0032359494 -0.21088383 0.0067008222
0.0042007174 -0.21045829 0.0061786645
-0.0041955034 -0.21267101 -0.0061843675
-0.0031223157 -0.21296272 -0.0067483131
-0.00089538808 -0.2131137 -0.0073593943
0.0012023 -0.21297906 -0.0073093628
0.0029091281 -0.21291448 -0.0068235132
0.00424447 -0.21349861 -0.006145197
-0.0062207617 -0.21295618 -0.0041498188
-0.0052464702 -0.21300083 -0.0052697151
0.0052305777 -0.21341951 -0.0052757561
0.0060499683 -0.21274474 -0.0043633096
-0.006764017 -0.2127962 -0.0030337065
0.0067843283 -0.21299136 -0.0030210696
-0.0073913066 -0.2127324 -0.00068915793
0.0073473682 -0.21297961 -0.00096744148
-0.0073118857 -0.2131625 0.0011906234
0.0073107746 -0.21310657 0.0011943672
-0.0067385114 -0.21296583 0.0031208941
0.0068154507 -0.21303736 0.0029395069
-0.0061673275 -0.2133863 0.0042150677
-0.0053183981 -0.21297804 0.0052032224
0.005244391 -0.21300934 0.0052712532
0.0062216264 -0.21272357 0.0041471967
-0.0042001046 -0.21290401 0.006179146
-0.0027905405 -0.21300675 0.0068691382
-0.00082648074 -0.21316023 0.0073687313
0.00092856144 -0.21288411 0.0073520169
0.0028536848 -0.21299626 0.006847871
0.0041464246 -0.21277773 0.0062220907
-0.0041798213 -0.21442832 -0.0061969203
-0.0030372541 -0.21510215 -0.0067769671
-0.00099976652 -0.21463178 -0.0073412568
0.0010223696 -0.21481389 -0.0073393509
0.0027267179 -0.21471138 -0.0068961969
0.004243386 -0.21497868 -0.0061460696
-0.0063357996 -0.21496657 -0.0040060291
-0.0053066909 -0.21489091 -0.005220395
0.0051304488 -0.21532618 -0.0053825481
0.0061859549 -0.2148011 -0.0041933344
-0.0067562172 -0.21510831 -0.003094669
0.0068481751 -0.21467933 -0.0028557312
-0.0073602949 -0.21477884 -0.00087660638
0.0073260777 -0.21501409 -0.0011007559
-0.0073346747 -0.21512337 0.001046284
0.0073086931 -0.21503691 0.001192549
-0.0067976848 -0.2147509 0.0029705565
0.0068279067 -0.21522905 0.0029062526
-0.0060153371 -0.21477337 0.004405051
-0.0052979873 -0.21496305 0.0052050115
0.0051463335 -0.21514858 0.0053556436
0.0061382083 -0.21519434 0.004251461
-0.0041858153 -0.21467081 0.0061905705
-0.0029388142 -0.21499328 0.0068165013
-0.0010564036 -0.21503483 0.0073324204
0.0011342865 -0.2149559 0.0073197298
0.0032495444 -0.21491213 0.0067010825
0.0042078071 -0.21476246 0.0061729765
-0.0040869974 -0.21680424 -0.0062711872
-0.0031639922 -0.21673019 -0.0067325532
-0.0010431324 -0.21696487 -0.0073360801
0.00098531018 -0.21699579 -0.0073434669
0.0025896942 -0.21714857 -0.0069466885
-0.0061318181 -0.21765707 -0.004261015
-0.0052158828 -0.21696925 -0.0053290119
0.0051568863 -0.21720444 -0.0053705187
0.0062269615 -0.21710047 -0.0041420846
-0.0068587847 -0.21689044 -0.0028147176
0.0068146884 -0.21706717 -0.002929548
-0.0073360079 -0.21711445 -0.0010387398
0.007380411 -0.21718083 -0.00075817871
-0.0073198029 -0.21690741 0.001140462
0.007368702 -0.21699272 0.00083076861
-0.006787607 -0.2170707 0.0030067868
0.0067790556 -0.21675317 0.0030289583
-0.0061858939 -0.21736053 0.0041918457
-0.0053726025 -0.2170271 0.0051333187
0.0052817604 -0.21662106 0.005213235
0.0061895 -0.21685871 0.0041873395
-0.0042096945 -0.21624433 0.0061714621
-0.0030651363 -0.21676722 0.0067643817
-0.0010287315 -0.21704119 0.0073367832
0.00082986138 -0.21695611 0.0073681837
0.0030011104 -0.21675022 0.006792862
0.0042020297 -0.2171455 0.0061775907
-0.0042375512 -0.21873938 -0.0061507504
-0.002989277 -0.21889333 -0.0067943507
-0.0011190913 -0.21888474 -0.0073220991
0.0010269582 -0.21911955 -0.0073386417
0.0031769741 -0.21923053 -0.0067263125
0.0041573318 -0.2194096 -0.0062149288
-0.0061403154 -0.21900567 -0.0042503988
-0.0052401051 -0.21872076 -0.0052932659
0.0051526669 -0.21904194 -0.0053607118
0.0060204882 -0.21904837 -0.004400183
-0.0067587378 -0.21897985 -0.0030963612
0.0067288005 -0.21904686 -0.0031567458
-0.0073535312 -0.21917737 -0.00092843227
0.0073917881 -0.2190516 -0.00068613747
-0.0073330016 -0.21892194 0.001051818
0.007362816 -0.21894078 0.00086803938
-0.0066504045 -0.21903038 0.0033664873
0.0069448655 -0.21892595 0.0025917159
-0.006116244 -0.21909082 0.004278902
-0.0051315944 -0.21886607 0.0053790216
0.0049995324 -0.21914205 0.0055102129
0.0061611617 -0.21828368 0.0042227586
-0.0042595263 -0.21886115 0.0061315871
-0.0028955217 -0.21923682 0.006826207
-0.00092689134 -0.21907315 0.0073522963
0.00086518703 -0.21875075 0.0073625986
0.003182661 -0.21920142 0.0067153736
0.0041961158 -0.21907122 0.0061823148
-0.0043018172 -0.22081254 -0.0060993466
-0.0031342695 -0.22088575 -0.0067432742
-0.001116805 -0.22092502 -0.0073214439
0.00088827446 -0.22109851 -0.0073605464
0.0032588735 -0.22067237 -0.006692423
0.004234469 -0.22112171 -0.0061532254
-0.0061272737 -0.22076303 -0.0042667068
-0.0051645203 -0.22089332 -0.0053489283
0.0054616737 -0.22114447 -0.0050623277
0.0061682351 -0.22122563 -0.0042155078
-0.0068212035 -0.2209271 -0.0029265883
0.006977112 -0.22112955 -0.0025057837
-0.0073406869 -0.22092059 -0.0010075081
0.0073186839 -0.22087522 -0.0011366778
-0.0073036035 -0.22122507 0.0012308693
0.0073456317 -0.22102427 0.00097591686
-0.0068358672 -0.22109926 0.0028761555
0.0068112728 -0.22106437 0.0029382438
-0.0061371415 -0.22078602 0.0042527746
-0.005047454 -0.22081146 0.0054540979
0.005303788 -0.22087561 0.0052173706
0.0061375936 -0.22068824 0.0042522089
-0.0042220885 -0.22145848 0.0061615282
-0.0028519544 -0.22076491 0.006848481
-0.0012067135 -0.22108714 0.0073071253
0.00094332715 -0.22085571 0.0073502548
0.0029631495 -0.22065023 0.0068017729
0.0042220089 -0.22067091 0.0061615948
-0.004191264 -0.22305104 -0.0061877961
-0.0027122095 -0.22318159 -0.0069015729
-0.00095987838 -0.22287142 -0.0073479228
0.00090544234 -0.22282621 -0.0073578428
0.0031029889 -0.22323781 -0.0067548039
0.004286164 -0.22331464 -0.006111878
-0.0061519346 -0.22289966 -0.0042358884
-0.0049563586 -0.22297494 -0.0055424389
0.0053927549 -0.223234 -0.0051265988
0.0060724011 -0.22345878 -0.0043353075
0.050761882 -0.22391717 -0.004322282
0.053116836 -0.22381543 -0.0041951109
0.055103414 -0.22381744 -0.0041976422
0.056753658 -0.2238325 -0.0042164698
0.059100043 -0.22381583 -0.0041955994
0.061319515 -0.22382431 -0.0042062365
0.063188367 -0.22377929 -0.0041499427
0.065509692 -0.22384427 -0.0042311717
0.067332864 -0.2238597 -0.0042504561
0.06904462 -0.22388355 -0.0042802561
0.070642956 -0.22385418 -0.0042435513
0.073023237 -0.22389592 -0.0042957109
0.074785776 -0.22381665 -0.0041966285
0.077115171 -0.22376262 -0.0041291039
0.07843098 -0.22389364 -0.0042928611
0.081293613 -0.22381558 -0.0041952711
0.083368883 -0.22383377 -0.0042180391
0.085350119 -0.2237605 -0.0041264491
0.086675756 -0.22378574 -0.0041580051
0.088570192 -0.22388142 -0.0042776051
0.091180459 -0.22385116 -0.0042397911
0.094998702 -0.22388063 -0.0042698486
0.096905254 -0.22391313 -0.0041842852
-0.0066640405 -0.22307709 -0.0033277732
0.0068638888 -0.22298566 -0.0027835213
0.050000001 -0.22346847 -0.0028569538
0.050994307 -0.22337361 -0.0033079945
0.053057704 -0.22316264 -0.0028845489
0.055066124 -0.2230583 -0.0026019907
0.0569853 -0.22316256 -0.0028778177
0.05895884 -0.22322534 -0.0030497722
0.060902029 -0.22315237 -0.0028541849
0.062994406 -0.22311307 -0.0027485839
0.06491439 -0.22329307 -0.0032278728
0.067168184 -0.22332014 -0.0032646584
0.068872519 -0.2232625 -0.0031535614
0.070777677 -0.22327355 -0.0031662711
0.072938107 -0.2232361 -0.0030733536
0.074970081 -0.22316493 -0.0028892772
0.076999515 -0.22328958 -0.0032133912
0.079101667 -0.22325541 -0.0031154053
0.081065044 -0.22324233 -0.0030811927
0.082924478 -0.22322792 -0.0030576098
0.085015841 -0.22320466 -0.0029972047
0.086891375 -0.22322196 -0.003035821
0.088751711 -0.22316906 -0.0029012652
0.090786822 -0.22315153 -0.0028528448
0.0931357 -0.22316629 -0.0028950409
0.094914258 -0.22315724 -0.0028479837
0.097099319 -0.22334823 -0.0030527525
0.099045798 -0.22351359 -0.0029783575
0.10067902 -0.22382019 -0.0029445826
0.10237159 -0.22389002 -0.0021397064
-0.0073309275 -0.2231413 -0.0010638174
0.0073767579 -0.22301346 -0.00078134402
0.050000008 -0.22313082 -0.00082527049
0.050920386 -0.22278138 -0.00093492348
0.052970335 -0.22269316 -0.0012114983
0.055151336 -0.22263455 -0.00085308938
0.056977071 -0.22267431 -0.0011048601
0.05895669 -0.22267845 -0.001121892
0.060940418 -0.22262149 -0.00076458213
0.063158691 -0.22266281 -0.0010319832
0.064884812 -0.22262199 -0.0007719695
0.067147419 -0.22268116 -0.001144694
0.06916821 -0.22263825 -0.00087520946
0.07114175 -0.22267216 -0.0010909557
0.073045112 -0.2226578 -0.0010000359
0.074940734 -0.22266164 -0.00102389
0.077030785 -0.2226667 -0.0010463228
0.078871123 -0.22265327 -0.0009717177
0.080785885 -0.22268416 -0.001167226
0.083085403 -0.22267634 -0.0011126716
0.08515913 -0.22264704 -0.00093206269
0.087172285 -0.22264944 -0.00094728189
0.08900705 -0.22267044 -0.0010758304
0.091115676 -0.22261912 -0.00075519661
0.092939034 -0.22264603 -0.00092315138
0.095041342 -0.22270499 -0.0012395857
0.09688355 -0.22275837 -0.0010099772
0.099083938 -0.22290859 -0.00061646162
0.10112336 -0.22335598 -0.00095626799
0.10284913 -0.22378157 -0.00080626231
-0.0073265024 -0.22306404 0.0010972813
0.0072991559 -0.22306874 0.0012622969
0.050000004 -0.22343236 0.0012218258
0.050933897 -0.2228 0.00094407081
0.052840561 -0.22264677 0.00092878408
0.055027168 -0.22266774 0.0010615576
0.057139095 -0.22265692 0.00099209067
0.059036739 -0.22261138 0.00070449419
0.060826745 -0.22264111 0.00088976684
0.062529147 -0.222684 0.0011507408
0.064971559 -0.22266915 0.0010667577
0.067041412 -0.22262406 0.00078495126
0.068975173 -0.22261594 0.00073196576
0.070986129 -0.22263077 0.00082740601
0.072955512 -0.222666 0.0010505887
0.075043492 -0.22267863 0.0011295156
0.076850407 -0.22263522 0.00085554185
0.079057492 -0.22267701 0.0011148445
0.081168555 -0.22269529 0.0012359818
0.082722068 -0.22263354 0.00084179523
0.0851686 -0.22264044 0.00088447588
0.086760677 -0.22267631 0.0011156916
0.088770978 -0.22267471 0.0010985971
0.090675443 -0.22267155 0.0010761814
0.09294422 -0.2226496 0.00093842612
0.09497717 -0.22267854 0.0010656167
0.097178787 -0.22278936 0.0010933547
0.098957248 -0.22292948 0.00091271318
0.10082208 -0.22329907 0.00097778603
0.10260715 -0.22367218 0.00057763059
-0.0067496868 -0.22281128 0.003112182
0.0068331212 -0.22279789 0.0028950074
0.049999997 -0.22338752 0.0027610552
0.050995205 -0.22314285 0.0028269938
0.052751746 -0.22329096 0.0032243913
0.055095885 -0.22315854 0.0028650064
0.056792088 -0.22318818 0.0029527831
0.059228498 -0.22313541 0.0027977214
0.060938921 -0.22318101 0.0029238814
0.063010827 -0.22323626 0.0030516044
0.064967014 -0.22326761 0.0031554867
0.06690453 -0.22322753 0.0030340881
0.068986982 -0.22326656 0.003127744
0.071056224 -0.22318015 0.0029189088
0.072864577 -0.22319059 0.0029541
0.075059079 -0.22317091 0.0029034563
0.076768182 -0.22315776 0.0028539905
0.07882034 -0.22319247 0.0029443486
0.080975294 -0.2232856 0.0031723101
0.082912326 -0.22331254 0.0032839577
0.085279383 -0.22320105 0.0029781021
0.086934201 -0.22325779 0.0031208049
0.089275472 -0.22315077 0.0028512555
0.091185115 -0.22311275 0.0027480565
0.093087107 -0.22327746 0.0031803714
0.094884604 -0.22318126 0.0029095446
0.096751444 -0.22333893 0.003082566
0.098756351 -0.22350302 0.003071246
0.10084386 -0.22379464 0.0028040248
0.10224655 -0.22395192 0.0024024257
-0.0061386004 -0.22225042 0.0042509451
-0.0052724616 -0.22296377 0.0052723624
0.0051509007 -0.222877 0.0053714612
0.0061925184 -0.22293925 0.0041835452
0.050928026 -0.22370255 0.0040523615
0.05306343 -0.22387987 0.004274027
0.05489419 -0.22383766 0.004221234
0.056924317 -0.22383675 0.0042201271
0.058979042 -0.22383004 0.0042117145
0.060695998 -0.22383638 0.0042196349
0.063059472 -0.22377272 0.0041400851
0.064444937 -0.22382651 0.0042073149
0.066935554 -0.22386895 0.0042603584
0.069109932 -0.2238109 0.0041877972
0.071264841 -0.22380428 0.004179528
0.073525473 -0.22384004 0.0042242333
0.074739262 -0.22376309 0.0041280133
0.077117786 -0.223821 0.0042004175
0.079445027 -0.22382672 0.0042075654
0.08110749 -0.22384758 0.0042336294
0.083394304 -0.22384031 0.0042245472
0.085286893 -0.22374299 0.0041029183
0.087622404 -0.2238048 0.0041801818
0.089372084 -0.22374262 0.0041024354
0.09127149 -0.22366492 0.0040053329
0.092669956 -0.22375101 0.0041129305
0.094898149 -0.22381343 0.0041836901
0.096317694 -0.22379123 0.0040785163
0.098696716 -0.22397476 0.0040742122
-0.0043058582 -0.22285511 0.0060945074
-0.0027986367 -0.22298363 0.0068643568
-0.00092314638 -0.22332409 0.0073534311
0.0013598751 -0.22302137 0.0072824867
0.0030740441 -0.22292173 0.0067649325
0.0043104873 -0.22325633 0.0060908017
-0.0040735896 -0.22563152 -0.0062819449
-0.003088993 -0.22490543 -0.0067519927
-0.0012361943 -0.2251687 -0.0073056263
0.0010539755 -0.22516103 -0.0073343972
0.0031182168 -0.22517169 -0.006745466
0.0041721128 -0.22497721 -0.0062031243
0.049999997 -0.22588418 -0.0060387338
0.05148384 -0.22572069 -0.0060663442
0.052903611 -0.22584675 -0.0061608795
0.054855723 -0.22588047 -0.0061862036
0.057038259 -0.22580877 -0.0061323992
0.058323927 -0.22579451 -0.0061217146
0.060757574 -0.2256725 -0.006030208
0.062972456 -0.22580664 -0.0061308001
0.065006472 -0.2257807 -0.0061113411
0.066797912 -0.22583392 -0.0061512659
0.068692341 -0.22576626 -0.0061005163
0.070724197 -0.22583526 -0.0061522773
0.072332673 -0.2258665 -0.0061757038
0.074546181 -0.22595556 -0.0062425067
0.077443354 -0.22583114 -0.0061491742
0.079228804 -0.22573341 -0.0060758954
0.080620915 -0.22579505 -0.0061221011
0.082431085 -0.2258593 -0.0061703012
0.085142836 -0.22580972 -0.0061331182
0.087470189 -0.22584222 -0.0061574923
0.089079551 -0.22584312 -0.0061581619
0.091018975 -0.22583719 -0.0061537186
0.092754155 -0.22591563 -0.0062125558
0.095110588 -0.22579204 -0.0061142603
0.096332446 -0.22575866 -0.0060649193
-0.0061836238 -0.22501305 -0.0041962857
-0.0050901161 -0.22515905 -0.0054322071
0.0052880077 -0.22500493 -0.005237672
0.006170263 -0.22474276 -0.0042129857
0.050000001 -0.22543761 -0.0047679688
0.050966967 -0.22475627 -0.0051790592
0.053041849 -0.22492142 -0.005407548
0.055006754 -0.22478858 -0.0052834447
0.05704806 -0.22481744 -0.0052942163
0.058922026 -0.22456875 -0.0050916933
0.061152458 -0.22479549 -0.0052713775
0.063259184 -0.22457917 -0.0050784331
0.065039739 -0.22496484 -0.0053993813
0.067148507 -0.22477841 -0.0052754073
0.069111861 -0.22482416 -0.0053223707
0.071047425 -0.22457641 -0.0050877938
0.072735667 -0.22438164 -0.0048708022
0.075028032 -0.22473419 -0.0052349977
0.076931857 -0.22486649 -0.0053509674
0.079177305 -0.22502373 -0.0054913373
0.081340358 -0.22474974 -0.0052498151
0.083179258 -0.22470455 -0.0052051446
0.084937997 -0.2248206 -0.0053065238
0.086702995 -0.22459666 -0.0050956728
0.089032836 -0.22499627 -0.0054792026
0.091097698 -0.22476357 -0.0052647674
0.092802204 -0.22478062 -0.005263675
0.09490405 -0.22491215 -0.0053985757
0.097040363 -0.22508131 -0.0054695872
0.099029146 -0.22500193 -0.0051599168
0.10096087 -0.22504902 -0.0048525315
0.10271306 -0.22546627 -0.0047696559
0.10450649 -0.2257749 -0.0043813465
-0.0067488733 -0.22504038 -0.003103778
0.0068804557 -0.22513433 -0.0027526277
0.050000001 -0.22501928 -0.0031468708
0.050000004 -0.22575904 -0.0031878091
0.099854618 -0.22402705 -0.0038630285
0.10118933 -0.22420676 -0.0036072829
0.10311832 -0.22455665 -0.0031393704
0.10484001 -0.22505881 -0.0029275876
0.10675919 -0.22578023 -0.0026452048
-0.0073530017 -0.22508438 -0.00093180168
0.0073419628 -0.22517216 -0.0010000974
0.050000001 -0.22483705 -0.00094413344
0.050000004 -0.22477266 -0.0011999377
0.10358432 -0.22407825 -0.0011224941
0.1050666 -0.2245758 -0.00090730732
0.10710853 -0.22552012 -0.00092816376
0.1081448 -0.22592872 -0.00029772436
-0.0073745982 -0.2250572 0.00079339684
0.0073151444 -0.22496414 0.0011612558
0.050000008 -0.22530888 0.00099149509
0.050000004 -0.22478049 0.00016640882
0.10351312 -0.22406101 0.0010603701
0.1053144 -0.22463654 0.00073382427
0.10691241 -0.22543062 0.0010574287
0.10810495 -0.2259838 0.00083087257
-0.006790231 -0.22500911 0.0029942044
0.0068140808 -0.22497986 0.00293816
0.050000008 -0.22494175 0.0031893521
0.050000008 -0.22527961 0.0030916759
0.1013351 -0.22416672 0.0034540021
0.10281564 -0.22442597 0.0030921206
0.10513756 -0.22516359 0.0028914791
0.10659574 -0.22575882 0.0027059366
-0.0062446697 -0.22558807 0.0041183466
-0.0053975265 -0.22485222 0.0050818226
0.0051409267 -0.22517744 0.00535441
0.0062127304 -0.22554837 0.004158271
0.050000004 -0.225252 0.0048554605
0.050867219 -0.22500734 0.0054206252
0.052960705 -0.22474165 0.0052439636
0.054977924 -0.22482409 0.005308263
0.056879714 -0.22463575 0.0051201414
0.05885246 -0.22459082 0.005088964
0.06087891 -0.22475743 0.0052556708
0.063216127 -0.22472745 0.0052120308
0.065015703 -0.22478862 0.0053085731
0.067025073 -0.22502249 0.0055029248
0.069021881 -0.22488974 0.0053818193
0.071078762 -0.22482732 0.0053268871
0.072927594 -0.22483365 0.0053624143
0.075084649 -0.2247455 0.0052405531
0.076814428 -0.22475162 0.0052722427
0.078744195 -0.22501983 0.0055084471
0.081237048 -0.22488402 0.0053829155
0.083036765 -0.2247355 0.0052219727
0.085006908 -0.22466709 0.0051641846
0.087009758 -0.22460301 0.0050820452
0.089260191 -0.22483841 0.0053230552
0.091058955 -0.22488314 0.0053684502
0.09278401 -0.22462295 0.0051138047
0.094936907 -0.22479439 0.0052805487
0.097094491 -0.22468473 0.0050583016
0.099156514 -0.22508751 0.0052184584
0.10102721 -0.22524974 0.005048065
0.10280211 -0.22550187 0.004776956
0.10433072 -0.2257566 0.0044381977
-0.0042199157 -0.22517385 0.0061632525
-0.0027919982 -0.22505012 0.0068679168
-0.00098657585 -0.22513671 0.00734341
0.0010623519 -0.22497201 0.0073291673
0.0030916522 -0.22518821 0.0067545255
0.004278013 -0.22479348 0.0061167758
0.050716966 -0.22586972 0.0061764531
0.053229269 -0.22584526 0.0061581074
0.055517115 -0.22582011 0.006139257
0.057509977 -0.22576039 0.0060944655
0.059667226 -0.22574338 0.0060817073
0.060308687 -0.2257562 0.0060913139
0.063161962 -0.22576739 0.0060997182
0.065201856 -0.22566104 0.0060199518
0.067328215 -0.22576721 0.0060995775
0.068955593 -0.22580604 0.0061287093
0.070891216 -0.22576763 0.0060998951
0.073030904 -0.2257318 0.0060730292
0.0749567 -0.22578298 0.0061113969
0.077245921 -0.22573863 0.0060781525
0.079173148 -0.22584833 0.0061604255
0.081398144 -0.2258167 0.0061366921
0.083275318 -0.22592494 0.0062178588
0.084957644 -0.22578129 0.0061101327
0.087264188 -0.22576617 0.006098791
0.089030311 -0.22571395 0.0060596238
0.091883734 -0.22597235 0.0062534316
0.093264244 -0.22595617 0.0062412815
0.094982311 -0.22581047 0.0061224098
0.098465905 -0.22584711 0.0060039661
-0.0042998306 -0.22747023 -0.0061009582
-0.0029287797 -0.22705977 -0.006820546
-0.00087778643 -0.22669643 -0.0073622223
0.00085450325 -0.22671013 -0.0073658992
0.0026979039 -0.22699443 -0.0069036409
0.0041986695 -0.22691838 -0.0061818855
0.050000001 -0.22789797 -0.006473003
0.051021636 -0.22692674 -0.0066679451
0.053136591 -0.22690609 -0.0067221913
0.054751288 -0.22712132 -0.0068115899
0.057317469 -0.22685006 -0.0067040138
0.058957048 -0.22663251 -0.0066066422
0.060989782 -0.22708331 -0.0067915265
0.063019201 -0.22703888 -0.0067820325
0.065000042 -0.22709256 -0.006803018
0.067022949 -0.22706151 -0.0067913439
0.068973668 -0.22681007 -0.0066831806
0.071068421 -0.22723316 -0.0068601351
0.073072016 -0.22706944 -0.0067931851
0.074832603 -0.22694603 -0.0067395801
0.076953463 -0.22706464 -0.0067854146
0.078881867 -0.22682521 -0.0066942135
0.081118904 -0.22701289 -0.0067698723
0.083069794 -0.22679588 -0.0066771926
0.085032903 -0.22702862 -0.0067741941
0.086928084 -0.22699502 -0.0067644296
0.088751495 -0.22700346 -0.0067640031
0.09107668 -0.22701129 -0.0067666718
0.092771553 -0.22686839 -0.0067130066
0.095372699 -0.22699539 -0.0067446134
0.096991614 -0.22689071 -0.0066912719
0.099007219 -0.22702111 -0.0066453828
0.10132033 -0.22702459 -0.0063467436
0.10297376 -0.22743391 -0.0063031381
0.10448207 -0.22787389 -0.0062252874
-0.0061385175 -0.22693513 -0.0042526745
-0.0050991457 -0.22717233 -0.005401371
0.0053178477 -0.22697534 -0.0051987674
0.0061775632 -0.22706132 -0.0042038676
0.050000008 -0.22700924 -0.0050475528
0.050000004 -0.2267008 -0.0046701683
0.10097033 -0.2261713 -0.0058518811
0.10331311 -0.22641405 -0.0055145691
0.10532772 -0.22682483 -0.0050856415
0.10687648 -0.2273588 -0.0049202708
0.10858973 -0.22780342 -0.0044111148
-0.0067217429 -0.22722326 -0.0031907081
0.0068047117 -0.2271286 -0.0029619732
0.050000008 -0.22715712 -0.0028461076
0.050000004 -0.22737776 -0.0024684523
0.10727262 -0.22638838 -0.0034658073
0.10897838 -0.22720484 -0.0031039403
0.1102713 -0.22781639 -0.0025160054
-0.007392229 -0.2269772 -0.00068337779
0.0073238146 -0.22715531 -0.0011134221
0.050000001 -0.2269029 -0.0010308679
0.050000004 -0.22756344 -0.00029820323
0.1090565 -0.22660556 -0.0012005293
0.11068966 -0.22761966 -0.00089601497
-0.0072825979 -0.22728373 0.0013671585
0.0073280116 -0.22722514 0.0010878751
0.050000008 -0.22715719 0.00061939983
0.050000004 -0.22701304 0.00050272146
0.10915719 -0.22663508 0.0010407998
0.1105652 -0.22749469 0.00067114749
-0.0067423126 -0.22704326 0.0031319119
0.0067289472 -0.22683448 0.0031482917
0.049999997 -0.22677228 0.002752922
0.050000004 -0.2270989 0.0029941916
0.1075775 -0.22645147 0.0032193211
0.10886902 -0.22710393 0.0030865599
0.11033167 -0.2277457 0.0023533632
-0.006241716 -0.22697908 0.0041220342
-0.0051865727 -0.2270745 0.0053262995
0.0051184576 -0.2269235 0.0054001249
0.0061336337 -0.2265545 0.0042571388
0.050000008 -0.22689338 0.0051163184
0.050000008 -0.2274314 0.0049485303
0.10183468 -0.22615831 0.0056931796
0.10302924 -0.22663309 0.0057351328
0.10526038 -0.22685243 0.0051757819
0.1069745 -0.22720049 0.0047110193
0.10846493 -0.22774695 0.0044165254
-0.0042507155 -0.22695225 0.0061386069
-0.0029794977 -0.22680546 0.0067952406
-0.00086192659 -0.22701825 0.0073630838
0.0012264935 -0.22697797 0.0073024654
0.0031971938 -0.22704059 0.0067138383
0.0040918016 -0.22699061 0.0062657371
0.050000001 -0.22723706 0.006460872
0.050988317 -0.22675498 0.0066582272
0.052816451 -0.22696584 0.0067416667
0.054954134 -0.22707261 0.0067899846
0.056984555 -0.22674742 0.006663172
0.059078269 -0.22679712 0.006684721
0.060740255 -0.22667117 0.0066264402
0.062954858 -0.22693972 0.0067382953
0.065328613 -0.22687306 0.0067154565
0.066924602 -0.22698161 0.0067511885
0.06877093 -0.22692518 0.0067366157
0.071125217 -0.22699367 0.0067536822
0.07305225 -0.22692437 0.0067199301
0.075053312 -0.22714223 0.006813983
0.077006198 -0.22693484 0.0067393277
0.079086475 -0.22698361 0.0067582736
0.080940083 -0.2270681 0.0067939414
0.083024062 -0.22701731 0.0067709372
0.085294418 -0.22703123 0.0067719612
0.087056577 -0.22687235 0.0067131235
0.08881937 -0.22717099 0.0068378816
0.0909556 -0.22700973 0.0067676981
0.092991821 -0.22714181 0.006813454
0.094953358 -0.22678119 0.006674367
0.096777856 -0.22701077 0.0067380662
0.098830462 -0.22724903 0.0067431503
0.10103525 -0.22695722 0.0063474686
0.10312247 -0.22743171 0.0062645031
0.1049463 -0.22789231 0.0060939235
-0.0042264271 -0.22875676 -0.0061596865
-0.0030193056 -0.2292219 -0.0067881881
-0.0011570884 -0.22877169 -0.0073169903
0.00095543661 -0.22909051 -0.0073490813
0.0028828618 -0.22898866 -0.0068377126
0.0042248145 -0.22932491 -0.0061609792
0.050000001 -0.22854383 -0.0064693261
0.050743829 -0.22883688 -0.0071910252
0.053068228 -0.22876547 -0.0073040533
0.055091042 -0.22911665 -0.0073613599
0.056869056 -0.22870933 -0.0072970423
0.059037033 -0.2287403 -0.0073015396
0.061201368 -0.22904804 -0.0073499065
0.062925734 -0.22936751 -0.0074009704
0.065045968 -0.22924475 -0.007381585
0.066885941 -0.22866257 -0.0072896625
0.068733521 -0.22899669 -0.007341506
0.071119741 -0.22925019 -0.0073824427
0.073024154 -0.22895285 -0.0073318975
0.075020224 -0.22911519 -0.0073611215
0.076850235 -0.22912186 -0.0073604174
0.079032697 -0.2289665 -0.0073355073
0.080679812 -0.22883756 -0.0073163165
0.082978904 -0.22887513 -0.0073213149
0.084918454 -0.22878401 -0.0073088338
0.087133966 -0.22874053 -0.0073019676
0.089013182 -0.22887966 -0.0073234094
0.091101356 -0.22889267 -0.0073254253
0.092902385 -0.22913593 -0.007364403
0.094894037 -0.22910039 -0.0073562781
0.097263396 -0.22903532 -0.0073285042
0.098815985 -0.22882913 -0.0072563812
0.10080244 -0.22887091 -0.0071565313
0.10311697 -0.2292403 -0.0070315292
0.10499308 -0.22899325 -0.0066455519
0.1070026 -0.22946653 -0.0064444328
-0.0062228367 -0.22941582 -0.0041472851
-0.0053386721 -0.22908154 -0.0051690065
0.0051367031 -0.22895876 -0.0053868764
0.0062103756 -0.22890867 -0.0041628601
0.050000008 -0.22937639 -0.0048488486
0.050000004 -0.22949883 -0.0045057121
0.10599525 -0.22805007 -0.0058672605
0.10751939 -0.22851321 -0.0056230039
0.10907902 -0.22899912 -0.0052159703
0.11057641 -0.22949159 -0.0047124755
-0.006806076 -0.22899158 -0.0029636614
0.0068723159 -0.22878665 -0.0027902559
0.050000008 -0.22880879 -0.0030879222
0.050000008 -0.22863759 -0.0032243528
0.11126789 -0.22901036 -0.0034790151
0.11233277 -0.22931074 -0.0023978422
-0.0073514129 -0.22884911 -0.00094188261
0.0073192813 -0.22908427 -0.0011308884
0.050000008 -0.22909792 -0.00079451891
0.050000008 -0.22918263 -0.0010453045
0.11164882 -0.22831474 -0.0011212635
0.11281648 -0.229323 -0.0013010601
-0.0073051401 -0.22912101 0.001225103
0.0072964467 -0.22921562 0.0012821589
0.050000008 -0.2289511 0.0012962816
0.050000004 -0.22916254 0.00050322351
0.11139612 -0.22810766 0.0010076042
0.11269947 -0.2291238 0.00080316397
-0.006729275 -0.22880135 0.0031623517
0.0067531453 -0.22897542 0.0031053761
0.050000008 -0.22890148 0.003159214
0.050000008 -0.22894701 0.0024967573
0.11132355 -0.22885273 0.0031147636
0.11258202 -0.22978383 0.0029000193
-0.006186157 -0.22968288 0.0041914722
-0.0051670927 -0.22904664 0.0053674402
0.0052794782 -0.22916585 0.0052043088
0.0060501099 -0.22852902 0.0043615359
0.050000008 -0.22870071 0.0051526749
0.050000008 -0.22946613 0.0052101943
0.10586456 -0.22802329 0.0058928235
0.10722878 -0.22844629 0.0056954115
0.10885434 -0.22882961 0.0051628444
0.11076507 -0.22945715 0.0045047426
-0.0041764705 -0.22892304 0.0061979946
-0.0031231374 -0.2289484 0.0067427922
-0.00099141244 -0.22868939 0.0073416024
0.0011712668 -0.22896153 0.007314235
0.0030002701 -0.22899576 0.0067915129
0.0041243909 -0.22905383 0.0062396578
0.050000008 -0.22908385 0.0066879853
0.051140845 -0.22915293 0.0073644752
0.052759971 -0.2291214 0.007360436
0.055164959 -0.22907969 0.0073538548
0.056727994 -0.22894686 0.007331477
0.058830839 -0.22901478 0.0073433425
0.06079809 -0.22907048 0.0073523996
0.062885515 -0.22919177 0.0073715462
0.065466739 -0.2292213 0.0073762145
0.067338064 -0.22903877 0.0073460108
0.069163501 -0.22892308 0.0073259203
0.070966154 -0.22882046 0.0073119411
0.072910883 -0.22908953 0.0073544928
0.075041488 -0.22933923 0.0073940898
0.076966338 -0.22895141 0.0073335888
0.079092532 -0.2293279 0.0073930402
0.080761723 -0.22891481 0.0073278225
0.083084382 -0.22878923 0.0073073879
0.085088737 -0.22889057 0.0073226509
0.086984098 -0.22896674 0.0073349481
0.0890617 -0.22885275 0.0073166168
0.090948038 -0.2290329 0.0073451009
0.092836082 -0.22916399 0.0073669106
0.094932757 -0.22903927 0.0073459959
0.097252339 -0.22938032 0.0073781163
0.098941654 -0.22896713 0.0072654421
0.10081534 -0.22911534 0.0071884901
0.10298438 -0.22892424 0.0069468413
0.10501491 -0.22878276 0.0065483712
0.10715855 -0.22935329 0.0063003539
-0.0042450009 -0.23126955 -0.0061448365
-0.0030054154 -0.23124431 -0.0067892941
-0.00074827415 -0.2310084 -0.0073826876
0.0013970932 -0.23069277 -0.0072797849
0.0030744751 -0.23068981 -0.006764452
0.0042200116 -0.23083872 -0.0061648269
0.050000004 -0.23073415 -0.0066216462
0.051012672 -0.23106994 -0.0072563789
0.053073596 -0.23067214 -0.0073947054
0.054954629 -0.2310254 -0.0073380452
0.057188086 -0.23077489 -0.0073777041
0.059160046 -0.23091525 -0.0073563228
0.060881276 -0.23097618 -0.0073466795
0.0630126 -0.23127781 -0.007298253
0.06500949 -0.23101807 -0.0073391781
0.066881634 -0.23094118 -0.0073522246
0.069074869 -0.23102137 -0.0073377672
0.071110658 -0.23121761 -0.0073074652
0.073007405 -0.23094726 -0.0073501039
0.075016893 -0.23119593 -0.0073120072
0.077204332 -0.2311144 -0.0073229442
0.079007201 -0.23092191 -0.0073552676
0.081186607 -0.23107459 -0.0073311613
0.082947887 -0.23105241 -0.0073340177
0.085008793 -0.23076981 -0.0073792865
0.086938731 -0.23103754 -0.00733701
0.089200199 -0.23079145 -0.0073758676
0.090871543 -0.23097686 -0.0073465891
0.092900902 -0.23096675 -0.0073481915
