# .PCD v0.7 - Point Cloud Data file format
VERSION 0.7
FIELDS x y z
SIZE 4 4 4
TYPE F F F
COUNT 1 1 1
WIDTH 1295
HEIGHT 1
VIEWPOINT 0 0 0 1 0 0 0
POINTS 1295
DATA ascii
0.00075443985 -0.0040000007 0.27212656
-0.0040000007 -0.0037597166 0.27383947
-0.0035194713 -0.0034576585 0.27300024
-0.00084405678 -0.0040000002 0.27296096
0.00091637962 -0.0040000002 0.27302057
0.0031144626 -0.0040000007 0.27299911
0.0040000007 -0.0031607528 0.27327481
-0.0033510977 -0.0012267507 0.27301753
-0.0020000003 -0.00056207145 0.27311113
0.0025309313 -0.0008383125 0.27307367
0.0040000002 -0.0015547965 0.273047
-0.00318102 0.0011333009 0.27308074
-0.0020000001 0.00052628154 0.27322587
0.0026808633 0.00081099285 0.27301425
0.0040000002 0.0016331848 0.27311581
-0.0040000007 0.0028448422 0.2724843
-0.0040000002 0.0030439245 0.27300641
-0.000721391 0.0039999997 0.27282667
0.0039999997 0.0039295545 0.27247524
0.0040000002 0.0028725825 0.27303258
-0.0033335686 0.0040000002 0.27295122
-0.00088743132 0.0040000007 0.27313513
0.0010229376 0.0040000007 0.27296665
0.0029604153 0.0040000002 0.27279839
-0.0014634086 -0.0040000007 0.27553266
-0.0035647778 -0.0034218701 0.27495679
-0.00073589245 -0.0040000007 0.27500176
0.00086396298 -0.0040000002 0.27484173
0.0031222545 -0.0040000002 0.27490091
0.0040000007 -0.0026422893 0.27509394
-0.0034409096 -0.0011633248 0.27503502
-0.0020000003 -0.00060465554 0.27487689
0.0026992292 -0.00085392495 0.27491117
0.0040000002 -0.0014971554 0.27496892
-0.0040000007 0.0016173846 0.27452442
-0.003306465 0.0011833792 0.27512625
-0.0020000001 0.00070703134 0.2749005
0.0019999999 0.00020774468 0.27505445
0.0028351787 0.00089115388 0.27475306
0.0040000007 0.0016412053 0.27459866
-0.0040000007 0.0021567768 0.27537504
-0.0040000002 0.0029790758 0.27505049
-0.00013648659 0.0039999997 0.27437845
0.0013728585 0.0039999997 0.27489534
0.0039999997 0.0030135177 0.27523369
0.0040000002 0.0028936504 0.27488664
-0.0029212637 0.0040000002 0.27499542
-0.00088295096 0.0040000002 0.27495199
0.0006969329 0.0040000007 0.27527836
0.002914062 0.0040000002 0.27509883
-0.0030892729 -0.0040000007 0.27639329
-0.0011675383 -0.0040000007 0.27731988
0.00064243801 -0.0040000007 0.27718547
-0.0035202664 -0.0035193407 0.27702689
-0.0010089102 -0.0040000007 0.2770969
0.00083985872 -0.0040000002 0.27700558
0.002922077 -0.0039266618 0.27710661
0.0040000002 -0.0030548023 0.27694201
-0.0033751929 -0.0011431014 0.27715826
-0.0020000003 -0.00060960453 0.2771211
0.0019999999 -0.00026790443 0.27600235
0.0027300727 -0.00084532198 0.27693978
0.0040000007 -0.001560633 0.27682477
-0.0031914467 0.0011411946 0.27690655
-0.0020000001 0.00045804618 0.27705845
0.0019999999 0.00012277406 0.27704555
0.0024312739 0.00080272893 0.2769548
0.0040000002 0.0012901447 0.27772826
-0.0040000007 0.0020720414 0.27789506
-0.0040000002 0.0032107795 0.27688262
-0.0014826442 0.0039999997 0.27682585
0.00028482219 0.0039999997 0.27677947
0.0039999997 0.0020196105 0.27754328
0.0040000007 0.0029165205 0.2769635
-0.0027449816 0.0040000007 0.27693683
-0.00091307546 0.0040000002 0.276784
0.000723593 0.0040000007 0.27691498
0.0031503898 0.0040000007 0.27699369
-0.0035134864 -0.003554442 0.27895409
-0.00093362882 -0.0040000007 0.27893198
0.0010477613 -0.0040000002 0.27896568
0.0029689658 -0.0040000007 0.27903423
0.0040000007 -0.0032388624 0.27894211
-0.0040000007 -0.0011675721 0.27850616
-0.0033478073 -0.0011740132 0.27897507
-0.0020000001 -0.00046655687 0.27873018
0.0019999999 -0.00022090878 0.27928641
0.0027922464 -0.00087174453 0.27885365
0.0040000007 -0.0014642742 0.27942768
-0.0040000007 0.001396077 0.27898347
-0.0033901585 0.0012610403 0.27911741
-0.0020000003 0.00055923266 0.27923721
0.0025352745 0.00080733118 0.27915889
0.0040000002 0.0015087979 0.27947542
-0.0040000002 0.003121862 0.27891865
0.00068869244 0.0039999997 0.27919853
0.0039999997 0.0022909567 0.2798897
0.0040000007 0.0030207715 0.27904341
-0.0027421808 0.0040000007 0.27881601
-0.00086504436 0.0040000002 0.27909037
0.0010727482 0.0040000007 0.27892849
0.0030348466 0.0040000002 0.27904013
-0.0037151868 -0.0040000007 0.28066209
0.0031100772 -0.0040000007 0.28004834
-0.0040000007 -0.0034294038 0.28127328
-0.0036704952 -0.0035161579 0.28107503
-0.00097535475 -0.0040000002 0.28097498
0.0011665138 -0.0040000002 0.2807503
0.003196035 -0.0039365841 0.28108066
0.0040000007 -0.0030616589 0.28119507
-0.0040000007 -0.0011950668 0.28069264
-0.0030539397 -0.0010086895 0.28094992
-0.0020000001 -0.00067319808 0.28084067
0.0019999999 -0.00086074864 0.2805745
0.0027359284 -0.00090998429 0.28107521
0.0040000002 -0.0013624999 0.28090292
-0.0032480722 0.0011300081 0.2810491
-0.0020000003 0.00057874992 0.28088114
0.0028032665 0.00087932713 0.28095579
0.0040000007 0.0015574184 0.28116918
-0.0040000007 0.003070578 0.28061235
-0.0040000002 0.003041642 0.28104886
0.0040000002 0.0028931708 0.28100038
-0.0030861229 0.0040000007 0.28103232
-0.0010716314 0.0040000007 0.28088173
0.0010905929 0.0040000007 0.28125805
0.0030966422 0.0040000002 0.28097087
-0.0030271225 -0.0040000007 0.28275633
-0.0011541841 -0.0040000007 0.28354532
-0.0040000007 -0.003060662 0.28264067
-0.0035683974 -0.003527991 0.2830281
-0.00095228892 -0.0040000002 0.28309113
0.0011358126 -0.0040000002 0.28307185
0.0030991463 -0.0040000002 0.28296608
0.0040000007 -0.0029863489 0.28318256
-0.003302224 -0.0011885175 0.28306288
-0.0020000003 -0.00067764771 0.2832709
0.0026745396 -0.00088346645 0.28321666
0.0040000002 -0.0015097746 0.28327829
-0.0031916799 0.001066878 0.28311059
-0.0020000001 0.00046895086 0.28315538
0.0019999999 0.00069848937 0.28296298
0.0029231231 0.00091254862 0.28282392
0.0040000002 0.0015194068 0.28311417
-0.0040000007 0.00218492 0.28391704
-0.0040000007 0.0030376127 0.28286844
-0.0010603212 0.0039999997 0.28308037
0.00076936255 0.0039999997 0.28301051
0.0040000002 0.0028191034 0.28324968
-0.0029452986 0.0040000002 0.28326276
-0.00083755946 0.0040000007 0.28292972
0.0012884048 0.0040000007 0.28305608
0.0029395951 0.0040000002 0.28317019
-0.0022076587 -0.0040000007 0.28407145
0.00065938523 -0.0040000007 0.28515321
-0.0040000007 -0.0028598935 0.28491092
-0.0036468785 -0.0035148335 0.28497094
-0.00090880558 -0.0040000002 0.28479472
0.0011332583 -0.0040000002 0.28500187
0.0029201042 -0.0040000007 0.28505704
0.0040000002 -0.0029945883 0.28501281
-0.0030992483 -0.0010904837 0.28524724
-0.0020000001 -0.00043134502 0.28471068
0.0026108031 -0.00084338122 0.28503323
0.0040000007 -0.0014703561 0.2848734
-0.0033345129 0.0011476583 0.28492311
-0.0020000001 0.00046261711 0.28510985
0.0027326916 0.00084746495 0.28494945
0.0040000002 0.0015099794 0.28500175
-0.0039455779 0.0030064906 0.28503895
-0.0005210567 0.0039999997 0.28436089
0.0039999997 0.0026593835 0.28400689
0.0040000002 0.0030104048 0.28497747
-0.0032438547 0.0040000002 0.28493717
-0.00077281153 0.0040000007 0.28507838
0.0012018691 0.0040000007 0.28503644
0.0031484177 0.0040000007 0.28489345
-0.0025580542 -0.0040000007 0.28729299
-0.00027504953 -0.0040000007 0.28609103
0.00058717845 -0.0040000007 0.28664443
-0.0035583533 -0.0032827579 0.28700632
-0.0010653486 -0.0040000007 0.28694469
0.00078609382 -0.0040000007 0.28721395
0.0033267078 -0.003820518 0.2869826
0.0040000002 -0.0030901525 0.28705031
-0.0040000007 -0.0010326116 0.28796646
-0.0032563221 -0.001129053 0.28722793
-0.0020000003 -0.00040783788 0.28706172
0.0019999999 -0.00011924646 0.28775141
0.0029027381 -0.00086197257 0.28716633
0.0040000002 -0.0013926292 0.2871272
-0.0032543589 0.0011100738 0.28708154
-0.0020000003 0.00036114972 0.28716066
0.0027590417 0.00084259041 0.28692874
0.0040000007 0.001558179 0.28706801
-0.0040000007 0.0022212067 0.28719428
-0.0039837291 0.0030496526 0.2869426
-0.0010972377 0.0039999997 0.28729847
0.0012722461 0.0039999997 0.28723249
0.0039999997 0.0037971595 0.28693318
0.0040000007 0.0028238266 0.2870895
-0.0031340022 0.0040000002 0.28709161
-0.00099120347 0.0040000002 0.28672865
0.001076665 0.0040000002 0.28700897
0.0030555699 0.0040000007 0.28666484
-0.0032740259 -0.0040000007 0.28939056
0.00059088174 -0.0040000007 0.2893931
-0.0040000007 -0.0023777471 0.28926551
-0.0034672436 -0.0034548626 0.28896171
-0.0011347661 -0.0040000002 0.2890543
0.0012843225 -0.0040000007 0.2888397
0.0029110564 -0.0040000007 0.28914595
0.0040000002 -0.0030084774 0.28916594
-0.0033366124 -0.0011476604 0.28890914
-0.0020000001 -0.00037519005 0.28909317
0.0026403847 -0.0008554064 0.2890462
0.0040000007 -0.0015741525 0.28888524
-0.003455502 0.0012021604 0.28917629
-0.0020000003 0.0003578063 0.28896838
0.0028199847 0.00084107398 0.28921738
0.0040000002 0.0014486015 0.28924197
-0.0040000007 0.0024528196 0.2888023
-0.0040000007 0.003027451 0.28884906
0.00072166906 0.0039999997 0.28900567
0.0039999997 0.0037803978 0.28929105
0.0040000002 0.0030412315 0.28910428
-0.0029713353 0.0040000002 0.28905424
-0.0008686558 0.0040000007 0.28907841
0.0011960462 0.0040000002 0.28895935
0.003090878 0.0040000002 0.28905553
-0.0039129313 -0.0040000007 0.29062098
-0.0040000007 -0.0026352494 0.29066324
-0.0035422174 -0.0033723279 0.2909463
-0.00092209905 -0.0040000002 0.29104093
0.0011037653 -0.0040000002 0.29105958
0.0031573034 -0.0038188975 0.29082906
0.0040000002 -0.0029909052 0.29113993
-0.0033073423 -0.0011555037 0.29108125
-0.0020000003 -0.00032206925 0.29074994
0.0019999999 -0.000863055 0.29090393
0.0029431854 -0.00085799367 0.29117647
0.0040000002 -0.0013820489 0.29092002
-0.0032132284 0.0011424904 0.29108721
-0.0020000003 0.00053641846 0.290656
0.0026939483 0.00084295269 0.2910898
0.0040000007 0.0015778204 0.29070196
-0.0040000007 0.0029465291 0.29095632
0.00078098022 0.0039999997 0.29140612
0.0040000002 0.0031141639 0.29102534
-0.0028839419 0.0040000007 0.2910178
-0.00097651634 0.0040000007 0.29107854
0.001065544 0.0040000002 0.29107848
0.0029458848 0.0040000002 0.29110172
0.003621242 -0.0040000007 0.29218239
-0.0035052509 -0.0035652157 0.29323357
-0.0013356054 -0.0040000002 0.29320624
0.00095551473 -0.0040000002 0.29301861
0.0030132015 -0.0038899134 0.29299551
0.0040000007 -0.0029662244 0.29332328
-0.003238779 -0.0011468539 0.29291573
-0.0020000003 -0.00043545134 0.2932758
0.002746009 -0.00090496719 0.29310077
0.0040000007 -0.0014570685 0.29281899
-0.0033012936 0.0011422904 0.29300824
-0.0020000003 0.00061334943 0.29285467
0.0026529345 0.00086102216 0.29288897
0.0040000007 0.0013310552 0.29283628
-0.0039364863 0.0030568633 0.29290643
0.0016489939 0.0039999997 0.29292184
0.0037156355 0.0032501984 0.29335326
0.0040000002 0.0028144245 0.29317123
-0.003012148 0.0040000007 0.29315582
-0.0011647695 0.0040000002 0.29273826
0.00094086741 0.0040000002 0.29286823
0.0030055551 0.0040000002 0.29329297
-0.0013518078 -0.0040000007 0.2958034
0.0024672591 -0.0040000007 0.29599547
-0.0040000007 -0.0021403085 0.29466367
-0.003397577 -0.0034938904 0.29497322
-0.00084185146 -0.0040000007 0.29518268
0.0011245442 -0.0040000002 0.29513073
0.003170392 -0.0039157299 0.29511917
0.0040000002 -0.003235796 0.29490042
-0.0031599791 -0.0011413784 0.2949594
-0.0020000003 -0.0005232144 0.29480204
0.0027981699 -0.00086888508 0.29505444
0.0040000007 -0.0014987969 0.29478154
-0.0032466436 0.001191448 0.29495183
-0.0020000003 0.00053163909 0.29517156
0.0027320706 0.00085917575 0.29480818
0.0040000002 0.0014993333 0.29513022
-0.0039097946 0.0029158529 0.29475603
-0.0012667556 0.0039999997 0.29456443
0.00036953657 0.0039999997 0.29406604
0.0034653633 0.0039459229 0.29472953
0.0040000007 0.003054454 0.29482359
-0.0029389614 0.0040000002 0.29498991
-0.0010833474 0.0040000002 0.2948643
0.001070309 0.0040000002 0.29493657
0.0029727595 0.0040000002 0.29483345
-0.00078295276 -0.0040000007 0.29743832
0.0014921448 -0.0040000007 0.29679853
-0.0040000007 -0.0023682115 0.29676348
-0.0034498419 -0.0036714007 0.29702321
-0.0010485603 -0.0040000002 0.29691759
0.00085793261 -0.0040000002 0.29701343
0.0028728817 -0.0040000002 0.29704282
0.0040000002 -0.0030832735 0.2967988
-0.0034509483 -0.0011763886 0.29706168
-0.0020000001 -0.000516759 0.29705533
0.0026269699 -0.00088877376 0.29689974
0.0040000002 -0.0013446804 0.29701784
-0.0040000007 0.0011338561 0.29704061
-0.0032222141 0.0010948299 0.29700986
-0.0020000001 0.00050905114 0.29733026
0.0019999999 0.00068920472 0.29729837
0.0028511889 0.00090851111 0.2970469
0.0040000007 0.0015065992 0.29691228
-0.0039337203 0.0030245248 0.29702067
-0.00084336521 0.0039999997 0.29688048
0.00079353759 0.0039999997 0.2963993
0.0020880071 0.0039999997 0.29798931
0.0040000007 0.0032502485 0.29676604
-0.0028654076 0.0040000007 0.29709253
-0.001004084 0.0040000007 0.29706252
0.0010376845 0.0040000002 0.29676786
0.0029604116 0.0040000002 0.2969631
-0.0039386698 -0.0040000007 0.29947269
0.0018183435 -0.0040000007 0.29862908
-0.0040000007 -0.0026131216 0.29965484
-0.0037311139 -0.0034264931 0.29906103
-0.00089874637 -0.0040000002 0.29922482
0.0013537785 -0.0040000002 0.29898807
0.0030886084 -0.0039125397 0.29895505
0.0040000002 -0.0030202277 0.29908744
-0.0040000007 -0.0012441697 0.2989068
-0.0033624077 -0.0011082978 0.29902148
-0.0020000003 -0.00053365377 0.29901069
0.0019999999 -8.9521578e-05 0.29815742
0.0029312596 -0.00094159832 0.29880592
0.0040000002 -0.0015754739 0.29919091
-0.0034705536 0.0011909659 0.29906413
-0.0020000001 0.00043284029 0.29891646
0.002706737 0.00081370649 0.2988545
0.0040000002 0.0015681845 0.29911262
-0.0040000007 0.0020204675 0.29896197
-0.0040000007 0.0032188483 0.2993196
-0.0011408066 0.0039999997 0.29800588
0.003666094 0.0034997375 0.29826954
0.0040000007 0.0032318088 0.29889736
-0.0030666708 0.0040000007 0.29896313
-0.00097797485 0.0040000007 0.29900065
0.0012820595 0.0040000007 0.29912183
0.0029069004 0.0040000002 0.29872614
0.0007995636 -0.0040000007 0.30085257
-0.0035905335 -0.003448196 0.30094057
-0.00098096149 -0.0040000002 0.30090719
0.00076118286 -0.0040000002 0.30101982
0.00307326 -0.003952248 0.30085838
0.0040000007 -0.0030251425 0.30097461
-0.0033915935 -0.0011859725 0.301155
-0.0020000003 -0.00047705875 0.30136514
0.0019999999 -0.00078501698 0.30051744
0.0027146842 -0.00082012883 0.30086407
0.0040000002 -0.0015744752 0.30095291
-0.0034910296 0.0012082409 0.30104715
-0.0020000003 0.00070305541 0.30061638
0.0028904597 0.00093864364 0.30097145
0.0040000002 0.0014075324 0.30115876
-0.0040000007 0.0024203612 0.30070311
-0.0039852923 0.003110863 0.3009738
0.0014924376 0.0039999997 0.30025381
0.0039999997 0.002597356 0.30104792
0.0040000002 0.0029132427 0.30095899
-0.0029989902 0.0040000007 0.30108848
-0.0013076181 0.0040000007 0.30094162
0.00087670155 0.0040000002 0.30080572
0.0030984811 0.0040000002 0.30077454
-0.00071668293 -0.0040000007 0.30278638
-0.0035563009 -0.0034646036 0.30290884
-0.00077807822 -0.0040000007 0.30316052
0.00083060353 -0.0040000002 0.30292267
0.0030822631 -0.0038232692 0.30282176
0.0040000007 -0.0030499084 0.30304036
-0.0040000007 -0.0011189277 0.30313757
-0.0033664543 -0.0011534952 0.3030434
-0.0020000003 -0.00053169241 0.3028985
0.0026841424 -0.00087354775 0.30331212
0.0040000007 -0.0013413408 0.30273432
-0.003422386 0.0011761923 0.30310717
-0.0020000001 0.00059776194 0.30294794
0.0025633422 0.00081147405 0.30296203
0.0040000007 0.0015176586 0.3028065
-0.0040000007 0.0031322655 0.30272993
-0.0038771392 0.0030629104 0.30326742
-0.00045216398 0.0039999997 0.30339974
0.0040000007 0.0030669151 0.30301788
-0.0031125669 0.0040000002 0.30308139
-0.0010450049 0.0040000002 0.30323651
0.0010338653 0.0040000002 0.30318728
0.0030420623 0.0040000002 0.30332151
0.0011435477 -0.0040000007 0.30515274
0.0028411783 -0.0040000007 0.30435348
-0.0034375603 -0.0034959621 0.30486819
-0.0010112949 -0.0040000002 0.30494651
0.00087285938 -0.0040000007 0.30477735
0.0030086865 -0.00390324 0.30510765
0.0040000007 -0.003303438 0.3050456
-0.0033667972 -0.0011663152 0.30481872
-0.0020000003 -0.00053332211 0.30515227
0.0025704177 -0.0009170507 0.30507228
0.0040000007 -0.0014336021 0.30505642
-0.0032983702 0.0011458186 0.30492336
-0.0020000003 0.00050240848 0.30464211
0.0029005783 0.00089063536 0.30500183
0.0040000002 0.0015354617 0.30508503
-0.0040000002 0.0028904604 0.30506736
-0.0014077323 0.0039999997 0.30555484
0.0010713709 0.0039999997 0.30580592
0.0039999997 0.0023059731 0.30534989
0.0040000007 0.0030204351 0.30529737
-0.0027727124 0.0040000007 0.30497909
-0.00080956344 0.0040000002 0.30528599
0.0012628919 0.0040000007 0.30514663
0.0029458622 0.0040000007 0.30502066
-0.00069887593 -0.0040000007 0.30606511
-0.0040000007 -0.003512305 0.30785123
-0.0034285451 -0.0034578105 0.30697456
-0.0010465478 -0.0040000002 0.30669701
0.00098603021 -0.0040000002 0.30691871
0.0029321883 -0.0039561749 0.30708015
0.0040000007 -0.0029587646 0.30696553
-0.0040000007 -0.0017218986 0.30765218
-0.0034013751 -0.0011720228 0.30711219
-0.0020000003 -0.00049754622 0.30723485
0.0019999999 -2.295067e-05 0.30712876
0.0026818998 -0.00085736345 0.30685517
0.0040000002 -0.001441479 0.30708647
-0.0033263511 0.0011863996 0.30691662
-0.0020000001 0.00049239642 0.30667427
0.0026983516 0.00083367713 0.30697942
0.0040000007 0.0014426723 0.30751944
-0.0040000007 0.0022676601 0.30732515
-0.0040000002 0.0028039131 0.30704296
-0.0011507389 0.0039999997 0.30685258
0.0011043629 0.0039999997 0.30714512
0.0040000002 0.0030096348 0.30708215
-0.0031467353 0.0040000007 0.30699769
-0.00088094751 0.0040000002 0.30694294
0.00096682139 0.0040000007 0.30716544
0.0030121966 0.0040000007 0.30687821
0.00058285869 -0.0040000007 0.30918556
0.0035341361 -0.0040000007 0.30891213
-0.0040000007 -0.0027736758 0.30922109
-0.00345365 -0.0035885326 0.30912709
-0.0010326327 -0.0040000002 0.30900618
0.0013262311 -0.0040000007 0.30900076
0.0029244407 -0.0038929819 0.30910853
0.0040000007 -0.0031471341 0.30909202
-0.0032772881 -0.0011953722 0.30885774
-0.0020000001 -0.00048913836 0.30892536
0.002795072 -0.0009152696 0.30922979
0.0040000002 -0.0016226175 0.30891454
-0.0033086131 0.0011837176 0.30899227
-0.0020000003 0.00038167075 0.30885839
0.0026452299 0.00082042854 0.30900741
0.0040000002 0.0015669158 0.30921927
-0.0040000007 0.0032749742 0.30881208
-0.0040000002 0.0029523829 0.30895382
0.0011161326 0.0039999997 0.30850893
0.0026863909 0.0039999997 0.3087489
0.0040000007 0.0031827828 0.30901468
-0.0030403584 0.0040000002 0.30894554
-0.0012154827 0.0040000002 0.30908641
0.00089758186 0.0040000002 0.3089726
0.0030721787 0.0040000002 0.30917993
-0.00066050666 -0.0040000007 0.31106764
0.0010519444 -0.0040000007 0.31168562
-0.0034815103 -0.0035108866 0.31101489
-0.00092373503 -0.0040000002 0.31124654
0.0010081391 -0.0040000002 0.31092268
0.0027221101 -0.0040000007 0.31102186
0.0040000002 -0.0030248757 0.31097144
-0.0032422373 -0.001108211 0.31105942
-0.0020000001 -0.00054869719 0.31097513
0.0025203584 -0.00081625761 0.31094661
0.0040000007 -0.0015086783 0.31105691
-0.0032340284 0.001140956 0.31108478
-0.0020000001 0.00055379292 0.31103113
0.0026361998 0.00081134803 0.31106806
0.0040000002 0.0015470296 0.31123626
-0.0040000007 0.0032858702 0.31062776
-0.0040000002 0.0030102406 0.31104273
-0.00080758519 0.0039999997 0.31195739
0.0014382207 0.0039999997 0.3109411
0.0034854941 0.0030596142 0.31152603
0.0040000007 0.0027662709 0.31108347
-0.0028151416 0.0040000002 0.31089753
-0.0013016061 0.0040000002 0.31104937
0.0012041947 0.0040000002 0.31098321
0.0032034549 0.0040000002 0.31110403
-0.0010152645 -0.0040000007 0.31304955
6.7582005e-06 -0.0040000007 0.31356272
-0.0040000007 -0.0021424601 0.3127563
-0.0035290797 -0.0033132269 0.31283471
-0.00088298164 -0.0040000007 0.31289992
0.00077323528 -0.0040000002 0.31289238
0.0029788651 -0.0040000002 0.31313643
0.0040000007 -0.0030058902 0.31312117
-0.0033222751 -0.0011744797 0.31300873
-0.0020000001 -0.00042795998 0.31293461
0.0027665324 -0.00087320135 0.31299716
0.0040000007 -0.0013309915 0.31287643
-0.0035836294 0.0011625425 0.31308874
-0.0020000003 0.00032569241 0.31325004
0.0019999999 0.00071610068 0.31269699
0.0025561647 0.00085551961 0.31289971
0.0040000007 0.0014494451 0.31324732
-0.0040000007 0.0030574773 0.31292152
0.003410435 0.0031536063 0.31295657
0.0040000002 0.0029687958 0.31304851
-0.0030977093 0.0040000002 0.31298062
-0.00073813874 0.0040000007 0.31308022
0.0010000333 0.0040000002 0.31294084
0.0029363034 0.0040000007 0.31280589
-0.0020026464 -0.0040000007 0.31508991
-0.0040000007 -0.0024202731 0.3152777
-0.0036506129 -0.0033494455 0.31504524
-0.0011288576 -0.0040000002 0.3149986
0.0010226908 -0.0040000002 0.31519943
0.002864474 -0.0039251372 0.31495011
0.0040000002 -0.0030376993 0.31496724
-0.0040000007 -0.0019468511 0.31559664
-0.0032468131 -0.0011509983 0.31488097
-0.0020000001 -0.00037626128 0.31491628
0.0019999999 -0.00071333494 0.31542951
0.0028120598 -0.00085232605 0.31492609
0.0040000007 -0.0014616407 0.31480247
-0.0033662254 0.0011788702 0.3148638
-0.0020000003 0.00069348887 0.3150292
0.0028917689 0.00088239129 0.31487706
0.0040000002 0.0013800347 0.31487224
-0.0039602499 0.0030160323 0.31483963
-0.0012006233 0.0039999997 0.31501541
0.0031707459 0.0034540752 0.31494612
0.0040000007 0.003034686 0.31493142
-0.0029905387 0.0040000002 0.31487018
-0.00098837435 0.0040000007 0.31475994
0.0013478736 0.0040000002 0.31492373
0.0029915762 0.0040000002 0.3149941
-0.002271069 -0.0040000007 0.31617808
-0.0010453865 -0.0040000007 0.31658277
0.0013108279 -0.0040000007 0.31736416
-0.0040000007 -0.0026054024 0.31620321
-0.0035816382 -0.0035037177 0.31694141
-0.0011055408 -0.0040000002 0.31689665
0.0011269219 -0.0040000007 0.3170383
0.0028457867 -0.0039746384 0.31683749
0.0040000002 -0.0030461852 0.31697431
-0.0034009863 -0.0011998498 0.31691578
-0.0020000003 -0.00052190782 0.31689352
0.0030590685 -0.00091450353 0.31689364
0.0040000002 -0.0013712203 0.31680709
-0.0036336333 0.0013131456 0.31717503
-0.0020000003 0.00052807637 0.31703997
0.002837399 0.00088720553 0.31693307
0.0040000002 0.0015945612 0.31704804
-0.0040000007 0.0022809068 0.31749904
-0.0040000007 0.0030729889 0.31699395
0.00097756367 0.0039999997 0.31761542
0.0032245433 0.0032384819 0.31755352
0.0040000007 0.0029446767 0.31714892
-0.0031021519 0.0040000007 0.31709471
-0.0010947995 0.0040000007 0.31712422
0.0010793223 0.0040000007 0.31721112
0.0029844886 0.0040000002 0.31702858
-0.0012594901 -0.0040000007 0.31971082
0.0022561939 -0.0040000007 0.31881046
-0.0036326442 -0.003444622 0.31899992
-0.0013287964 -0.0040000007 0.31881616
0.00099961332 -0.0040000002 0.3189804
0.0033439205 -0.0038750523 0.31912532
0.0040000002 -0.0030639987 0.31891945
-0.0032180387 -0.0011054468 0.3189992
-0.0020000001 -0.00052379572 0.31897193
0.0026128357 -0.00082410109 0.31899977
0.0040000002 -0.0016432407 0.31869522
-0.0030633656 0.0010745677 0.31892607
-0.0020000003 0.00039785373 0.31898248
0.0026576042 0.00079212984 0.3189919
0.0040000002 0.001434373 0.31913367
-0.0040000007 0.0030864773 0.31885102
-0.0039573251 0.0030214509 0.31914744
-0.0016900916 0.0039999997 0.31814617
0.0040000007 0.0028972013 0.31891376
-0.0032155176 0.0040000007 0.31896991
-0.0010700257 0.0040000002 0.31927022
0.00096089387 0.0040000007 0.3188903
0.0030774511 0.0040000002 0.31912503
-0.0022732913 -0.0040000007 0.32032663
-0.0040000007 -0.0020672136 0.32129255
-0.0034460668 -0.0036628663 0.32082063
-0.0008678789 -0.0040000007 0.32104975
0.0012529409 -0.0040000002 0.32080129
0.003073147 -0.0040000007 0.32059628
0.0040000002 -0.0029558605 0.32082012
-0.003158096 -0.0011137336 0.32089239
-0.0020000001 -0.00041427123 0.32104915
0.0027393505 -0.00088225363 0.32078743
0.0040000007 -0.0014303388 0.32118449
-0.0034537991 0.0012108705 0.32118437
-0.0020000003 0.00047519655 0.32096687
0.0026779135 0.00084712118 0.32100302
0.0040000007 0.0015048311 0.3210853
-0.0040000002 0.0028183863 0.32109022
-0.00042230231 0.0039999997 0.32057729
0.0016580923 0.0039999997 0.32008111
0.0032509479 0.0032817302 0.32130522
0.0040000002 0.0029237072 0.32092574
-0.0030704373 0.0040000002 0.32090405
-0.0010254651 0.0040000002 0.32104293
0.0011562199 0.0040000007 0.32103989
0.0030425643 0.0040000002 0.32101166
0.00075565965 -0.0040000007 0.32273784
-0.0040000007 -0.0028623838 0.32205385
-0.0037183505 -0.0034476225 0.32295465
-0.0011077051 -0.0040000002 0.32333276
0.0013125752 -0.0040000002 0.32288399
0.0031445851 -0.0039201975 0.32305443
0.0040000007 -0.0032234725 0.32306704
-0.0032930959 -0.0011621906 0.32296562
-0.0020000001 -0.00032776495 0.32327381
0.0019999999 -0.00060135836 0.3237001
0.0026191012 -0.0008491812 0.3229681
0.0040000007 -0.001515526 0.32318458
-0.0032113756 0.0011601489 0.32293719
-0.0020000001 0.0004304311 0.32305387
0.0024834534 0.00075217255 0.32311314
0.0040000002 0.0014767377 0.32287821
-0.0040000007 0.0024576308 0.32235584
-0.0039199153 0.0028612411 0.32309642
-0.0014651655 0.0039999997 0.3233144
0.0030080895 0.0034679635 0.32371053
0.0040000007 0.0031554149 0.32308611
-0.0030274433 0.0040000002 0.32292458
-0.00098652241 0.0040000007 0.32316026
0.00097261299 0.0040000007 0.32319686
0.0029232763 0.0040000007 0.32308704
0.0016346658 -0.0040000007 0.32419896
0.0023198838 -0.0040000007 0.32566497
-0.0040000007 -0.0028972118 0.32519671
-0.0035408728 -0.003506826 0.32494906
-0.001256361 -0.0040000007 0.32503036
0.0010483783 -0.0040000007 0.32499179
0.0032246299 -0.0040000002 0.32515445
0.0040000002 -0.002980141 0.32482922
-0.0034028934 -0.0011364609 0.32501456
-0.0020000003 -0.00047336105 0.3247152
0.0019999999 -0.00023457724 0.32536203
0.0027297346 -0.00091573282 0.3247577
0.0040000002 -0.0015160417 0.3251628
-0.0032672998 0.0011205272 0.32488769
-0.0020000003 0.00054233224 0.3251552
0.0019999999 0.00029716347 0.3254253
0.0025927746 0.00089401891 0.32490242
0.0040000007 0.0014768703 0.32512721
-0.0040000002 0.0028370274 0.32502073
0.0013324637 0.0039999997 0.32515737
0.0040000002 0.0028763253 0.32494819
-0.0030977987 0.0040000002 0.32491785
-0.001179446 0.0040000002 0.32516336
0.0011239459 0.0040000002 0.32475775
0.0030632862 0.0040000007 0.32489192
-0.00025103134 -0.0040000007 0.32684416
-0.0034445724 -0.0035781332 0.32683429
-0.00094037328 -0.0040000002 0.32686034
0.001031662 -0.0040000007 0.32685217
0.003064221 -0.0038849553 0.32683548
0.0040000007 -0.003030411 0.32708311
-0.0033800327 -0.0011784394 0.32693532
-0.0020000001 -0.00052009983 0.32744819
0.0026094746 -0.0008558181 0.32702231
0.0040000002 -0.0017314844 0.32700935
-0.0031759711 0.0011118352 0.32704884
-0.0020000003 0.00037153481 0.32698902
0.0026492178 0.00083536736 0.32694235
0.0040000002 0.0014673705 0.32719287
-0.0039106389 0.0031318436 0.32714215
-0.0016548288 0.0039999997 0.32796228
0.0040000002 0.0030195573 0.32709789
-0.0028740852 0.0040000002 0.32687378
-0.0013107988 0.0040000007 0.32684857
0.00095695164 0.0040000002 0.32699743
0.0029642845 0.0040000007 0.32711133
-0.0035662788 -0.0034096907 0.32891414
-0.0006913282 -0.0040000007 0.32912931
0.001057036 -0.0040000002 0.32905886
0.0028966749 -0.0039501586 0.32892591
0.0040000007 -0.0029010815 0.32888743
-0.0034261316 -0.0011564994 0.32903659
-0.0020000003 -0.00053464418 0.32910571
0.0019999999 -0.00020990804 0.32986677
0.0027594343 -0.00095097604 0.32897744
0.0040000007 -0.0015323053 0.32911214
-0.0033557317 0.0011646713 0.32914937
-0.0020000001 0.00040644879 0.32907569
0.002563599 0.0008424159 0.32906136
0.0040000002 0.0013190119 0.32899392
-0.0040000007 0.0030170521 0.32955116
-0.0040000007 0.0030356327 0.3289184
0.0035155371 0.002807131 0.32922971
0.0040000007 0.0029839901 0.32907709
-0.0029782997 0.0040000002 0.32900354
-0.0010084494 0.0040000007 0.32891747
0.00095366297 0.0039999997 0.32881096
0.0029097439 0.0040000002 0.32900503
3.2485586e-05 -0.0040000007 0.33029613
-0.0034023435 -0.0035216794 0.33098873
-0.00099241722 -0.0040000002 0.33093548
0.00095351535 -0.0040000002 0.33105525
0.0027640942 -0.0040000007 0.33081347
0.0040000002 -0.0030517271 0.33113557
-0.0031962153 -0.0010756387 0.33082294
-0.0020000001 -0.00041324995 0.33090508
0.0024928977 -0.00079104776 0.33085307
0.0040000002 -0.0016270247 0.33060461
-0.0034010813 0.0011481507 0.33100733
-0.0020000001 0.00041144362 0.33124468
0.0026109933 0.00084925193 0.3310827
0.0040000002 0.001483278 0.33095288
-0.0039956979 0.0031695797 0.33103001
-0.0013529194 0.0039999997 0.3319827
0.00053605437 0.0039999997 0.33132917
0.0030860645 0.0033667653 0.33117351
0.0040000002 0.0028768643 0.3310208
-0.0030363603 0.0040000002 0.33116776
-0.00079285825 0.0040000002 0.33093342
0.0010971669 0.0040000007 0.33098331
0.0030703903 0.0040000007 0.33102325
-0.0048961649 -0.0040000007 0.33383766
-0.002748094 -0.0040000007 0.33260405
-0.0012490952 -0.0040000007 0.33285064
-0.018046129 -0.0023538724 0.33301726
-0.016802486 -0.0028970276 0.3332687
-0.01495842 -0.0032525198 0.33317047
-0.012973488 -0.0032771721 0.33312285
-0.010919962 -0.0032411464 0.33318868
-0.008827067 -0.0034435256 0.33317095
-0.0069780843 -0.0034573807 0.33320609
-0.0049298815 -0.003374313 0.33321038
-0.0033334023 -0.0038053303 0.33287263
-0.00090329826 -0.0040000002 0.33284384
0.0012306456 -0.0040000007 0.33297887
0.0028729427 -0.0040000007 0.33301222
0.0048000952 -0.0032161805 0.33299106
0.0070871906 -0.0034458945 0.33321863
0.0090460526 -0.0032491505 0.33313209
0.011085053 -0.0033986145 0.33322135
0.01312966 -0.0033679812 0.33314463
0.015089097 -0.0031650085 0.33312327
0.016795689 -0.0028731523 0.33323663
0.018023908 -0.0021951175 0.33344743
-0.018595662 -0.00095749076 0.33327255
-0.017134434 -0.00098243519 0.333
-0.01507737 -0.0010728691 0.33300003
-0.013006385 -0.0010430178 0.333
-0.010956991 -0.0012497624 0.33300006
-0.0089881262 -0.0011639224 0.33300009
-0.0070786322 -0.0010059207 0.33300003
-0.0049135713 -0.0010218591 0.33300006
-0.0031787727 -0.0008860188 0.33285317
-0.0020000001 -0.00070524111 0.3325164
0.0019999999 -0.00015863741 0.33259875
0.0026596335 -0.00071685773 0.33271965
0.004904741 -0.0010234028 0.33287159
0.0068283402 -0.001106364 0.33300009
0.0089004245 -0.0010086418 0.33300009
0.011080035 -0.00096018106 0.333
0.013171874 -0.00099505705 0.333
0.015078652 -0.00098176894 0.333
0.017057652 -0.00083165051 0.33300009
0.018706886 -0.00087775645 0.33334258
-0.018747054 0.0012106021 0.33318448
-0.017064534 0.00098406698 0.33300009
-0.014915677 0.00091011752 0.33300006
-0.012967532 0.0010066464 0.33299997
-0.010907731 0.0010688008 0.33300003
-0.0090168286 0.0010501352 0.33300003
-0.0071701417 0.0008968098 0.33300003
-0.0049276003 0.00097535289 0.33283681
-0.0031010553 0.0008763019 0.33269182
-0.0020000001 0.00054886594 0.33244205
0.0030146437 0.00079165952 0.33279267
0.0047937613 0.001274221 0.33289564
0.0068152272 0.00099026819 0.33300003
0.0088861827 0.00093779317 0.33300006
0.011100303 0.00090042962 0.33300003
0.013067185 0.00086187117 0.33300003
0.015065669 0.00099999097 0.33300009
0.017185878 0.0011185195 0.333
0.018902214 0.0012135964 0.33321017
-0.01907154 0.0030029754 0.33325988
-0.017173868 0.0029742082 0.33300006
-0.015211232 0.0030132046 0.333
-0.013091926 0.002943632 0.33300006
-0.011014885 0.002945117 0.33300006
-0.0090110702 0.0029197955 0.333
-0.007282855 0.0031623801 0.33300006
-0.0049118008 0.0029221345 0.33300006
-0.003979472 0.0030886396 0.3325035
0.0017169239 0.0039999997 0.33251783
0.0047303955 0.00315957 0.33285114
0.006906895 0.0030585041 0.33300006
0.0088123605 0.0031016266 0.333
0.010978886 0.0030759592 0.33299997
0.012818832 0.0029095127 0.33300003
0.014840372 0.0031813944 0.33300009
0.01698315 0.0029639329 0.33300006
0.019122239 0.0028083825 0.33321437
-0.019021759 0.0049317726 0.33313766
-0.017075969 0.0051718554 0.33300006
-0.014865299 0.0052296058 0.333
-0.013000576 0.0049738255 0.33300006
-0.010937566 0.0050545726 0.33300003
-0.0089073312 0.0047593513 0.33300003
-0.0072690798 0.0047804988 0.333
-0.0049675424 0.0049661985 0.33300006
-0.002962288 0.0047234297 0.33285582
-0.0010781692 0.0045743361 0.33284909
0.001051512 0.0046614665 0.33287543
0.0028163376 0.0046873768 0.33282968
0.0051236693 0.0049589463 0.33300003
0.0072645941 0.0050866902 0.33300003
0.0089444872 0.0050314944 0.33300006
0.011021487 0.0052421046 0.33300006
0.012929614 0.0050873249 0.33300003
0.014659278 0.0048245904 0.33300009
0.016822206 0.0048759654 0.33300003
0.019016938 0.0049981303 0.33322793
-0.019078061 0.0071005248 0.33320519
-0.017078184 0.007207131 0.333
-0.015092456 0.0070729307 0.33300006
-0.012927226 0.0071266671 0.33300009
-0.010926784 0.006913214 0.33300003
-0.0089012673 0.0068719625 0.33300009
-0.0070486655 0.0067173233 0.33300003
-0.0049437736 0.0070110168 0.33300006
-0.0029582044 0.0070316349 0.333
-0.0011334493 0.0070021069 0.333
0.00093942491 0.0068386495 0.33300003
0.002915292 0.0069586094 0.33300006
0.0051725302 0.0069944463 0.33300006
0.0070765908 0.0071568508 0.33300006
0.0090835355 0.006960596 0.33300003
0.010764368 0.0070240451 0.33300006
0.013348909 0.0071027349 0.33300003
0.014904348 0.0071320981 0.33300003
0.017040588 0.006908562 0.333
0.019039821 0.0069117136 0.33311701
-0.019327292 0.0090083079 0.33325911
-0.016972719 0.0089879502 0.33300006
-0.015049966 0.0089542773 0.33300006
-0.013216196 0.0089742169 0.33300009
-0.010902881 0.0091596274 0.333
-0.008949602 0.008877879 0.33300003
-0.0071992688 0.0090451045 0.33300009
-0.0049549961 0.008684081 0.33300006
-0.0029996692 0.0089307148 0.33300006
-0.0012344635 0.0087920735 0.33300006
0.00071283884 0.0090207485 0.333
0.0031483721 0.0088410722 0.33300006
0.0050243544 0.0091170846 0.33300003
0.0071676876 0.0089196749 0.33300009
0.0086597931 0.0089399731 0.333
0.010806869 0.0086834496 0.33300003
0.012965488 0.0088549247 0.33300006
0.014967385 0.0090837628 0.33300006
0.0170385 0.0089092758 0.33300006
0.019265113 0.0089912051 0.33314699
-0.019188691 0.01116262 0.33314827
-0.01704609 0.011103631 0.333
-0.015105838 0.010974345 0.333
-0.012895589 0.010754778 0.33300006
-0.010961252 0.010864479 0.33299997
-0.0091115395 0.010996777 0.33300003
-0.0070323423 0.010716708 0.333
-0.0049744355 0.011023515 0.33300006
-0.0031764917 0.010931231 0.33300003
-0.0010918943 0.011130963 0.33299997
0.00099040184 0.010911219 0.33300006
0.0030574852 0.010739127 0.33300006
0.0048286808 0.011118443 0.33300009
0.0070047635 0.01092925 0.33300006
0.0091671357 0.010830492 0.33300006
0.011003995 0.010969589 0.333
0.013072527 0.011254459 0.33300003
0.014869092 0.011059157 0.33300009
0.016813478 0.011091502 0.33300006
0.019139405 0.011091908 0.33315974
-0.019332882 0.01298071 0.3331337
-0.017220348 0.01313424 0.333
-0.014959635 0.012783566 0.33300009
-0.012990003 0.012963186 0.33300006
-0.011116094 0.012712141 0.33300003
-0.0089092022 0.012886288 0.33300009
-0.006854007 0.013074684 0.33300009
-0.0049086562 0.012962758 0.33300009
-0.0030970809 0.013052338 0.33300006
-0.0008709135 0.013042626 0.333
0.00097595912 0.01310256 0.33300003
0.0029002894 0.012993426 0.33300003
0.0050601172 0.012883455 0.33300003
0.0067625013 0.013166053 0.333
0.0088733416 0.013111378 0.333
0.011055098 0.012887349 0.33300003
0.012755819 0.013176505 0.33300003
0.015170167 0.012886872 0.33300009
0.017051619 0.012998721 0.33300006
0.019224901 0.012932534 0.33313414
0.020012654 0.013905488 0.33354273
-0.02005223 0.015294515 0.33330026
-0.019444389 0.014786426 0.33310539
-0.016937332 0.014828989 0.33300009
-0.01501823 0.015000494 0.33300006
-0.013031783 0.01489996 0.333
-0.011038609 0.015091644 0.33300003
-0.009006924 0.015026257 0.33300009
-0.0068954313 0.0151216 0.33300009
-0.0050294977 0.015125285 0.33300003
-0.0031954227 0.014986328 0.333
-0.0010488401 0.014927722 0.33300003
0.00084876979 0.014949477 0.33300009
0.00300296 0.015120601 0.33300009
0.0049461806 0.015109402 0.33300006
0.0070147202 0.015105066 0.33300003
0.0090336623 0.014867339 0.33300003
0.011050314 0.014947099 0.33300003
0.012931036 0.014764753 0.33300006
0.014928088 0.014860245 0.33300006
0.016912177 0.01494145 0.33300006
0.018995613 0.014980063 0.33300003
0.020062882 0.014899335 0.33347356
-0.020139171 0.017083094 0.33355436
-0.019180952 0.016954975 0.33300006
-0.016894525 0.016936025 0.333
-0.015028843 0.017351205 0.333
-0.013098383 0.016921537 0.333
-0.011028565 0.017078737 0.33300003
-0.009009595 0.017090132 0.33300003
-0.0069634053 0.016743446 0.33300003
-0.0051632281 0.016879085 0.33300006
-0.003154312 0.017006285 0.33300006
-0.0012434574 0.016693858 0.33300003
0.0010031384 0.016823355 0.33299997
0.0030397442 0.017030938 0.33300006
0.0048334426 0.017082831 0.33300003
0.0069988105 0.017057545 0.333
0.0090182507 0.016778508 0.333
0.010876212 0.016955411 0.33300009
0.012908967 0.017189039 0.33300006
0.015114067 0.016996309 0.33300003
0.016736271 0.01697279 0.33300003
0.018880147 0.017165367 0.333
0.020163301 0.017048782 0.33339289
-0.020258125 0.019203825 0.33349219
-0.019009814 0.019294992 0.33299997
-0.016833454 0.018788893 0.33300006
-0.014963595 0.018974436 0.333
-0.013167078 0.018927151 0.333
-0.010944088 0.018923689 0.33300003
-0.0089434441 0.018895874 0.33300006
-0.0069733565 0.018907718 0.333
-0.0049020313 0.018888971 0.33300003
-0.0029382214 0.019048885 0.33300006
-0.0011934554 0.019114438 0.33300009
0.00082655466 0.018956343 0.33300003
0.0030032492 0.019006351 0.33300009
0.0050197039 0.018888097 0.333
0.0070241643 0.018994447 0.33300009
0.009110583 0.018731784 0.33300006
0.010866812 0.019088147 0.333
0.013004129 0.019167194 0.33300009
0.015087088 0.019075163 0.333
0.016760519 0.018977731 0.33300003
0.018933129 0.018916296 0.33300006
0.020234941 0.018754875 0.33340904
-0.020337768 0.021256834 0.33326843
-0.018835815 0.021095229 0.33300006
-0.016973054 0.021130012 0.333
-0.014779725 0.021148628 0.33300003
-0.0130345 0.020951241 0.33300006
-0.011031571 0.021107124 0.33300009
-0.0090804854 0.020954516 0.33300003
-0.0070503098 0.021040715 0.333
-0.0049400101 0.020779746 0.33300003
-0.0031859374 0.021058887 0.33300003
-0.0010712122 0.020913029 0.33300006
0.00095546374 0.021081239 0.333
0.0028719928 0.020965556 0.33300003
0.0050608949 0.020965572 0.33300006
0.0070392387 0.020991661 0.33300006
0.009037802 0.021133499 0.33300006
0.010961336 0.021037601 0.33300009
0.013129333 0.020940436 0.33300003
0.015072777 0.020956602 0.33300006
0.016881704 0.020982413 0.33300006
0.019146048 0.021097217 0.33300006
0.020336257 0.02092845 0.33339208
-0.0204037 0.023225714 0.33333316
-0.018956551 0.023163313 0.33299997
-0.017141521 0.022738848 0.33300006
-0.014808427 0.022932893 0.33300006
-0.013353351 0.023214776 0.33300009
-0.010979589 0.023211306 0.33300003
-0.0091612972 0.023041923 0.33300006
-0.0071119233 0.022953141 0.33300006
-0.0049944664 0.023078224 0.33300006
-0.0030365069 0.023088709 0.333
-0.00098103995 0.022955421 0.33300006
0.0010632602 0.022990536 0.33299997
0.0029634507 0.023015108 0.33300009
0.0049761799 0.022941701 0.33300006
0.0070060077 0.022964463 0.333
0.0088960323 0.022899766 0.33300003
0.010990307 0.023027748 0.33300006
0.013014228 0.023096589 0.33300009
0.014940874 0.022914862 0.333
0.017144911 0.022985034 0.33300006
0.019000854 0.022730526 0.33300003
0.020453578 0.023339586 0.33317888
-0.020473767 0.025053507 0.33321095
-0.018899178 0.025105847 0.33300006
-0.017065775 0.024827082 0.33300006
-0.014753661 0.024882762 0.33300006
-0.012998034 0.024781665 0.333
-0.010783844 0.024880448 0.33300003
-0.0091214748 0.024981972 0.33300003
-0.0071946564 0.025040349 0.333
-0.0050265528 0.024967119 0.33300006
-0.0031485339 0.024841154 0.33299997
-0.0011846832 0.024891058 0.33300006
0.00096123456 0.025004018 0.33300009
0.0030047197 0.025014933 0.33300009
0.005203628 0.024977975 0.33300006
0.0068803667 0.025117973 0.33300003
0.008786615 0.025028177 0.33300003
0.010958727 0.025020383 0.33300006
0.012813963 0.025164487 0.333
0.015047102 0.024788251 0.33300006
0.017034188 0.024754729 0.33300003
0.018978018 0.025145952 0.33300006
0.020498559 0.024972802 0.33318964
-0.020533627 0.02679834 0.33323109
-0.019111173 0.027060237 0.33300006
-0.017227259 0.027116964 0.33300009
-0.015184807 0.026942436 0.33300006
-0.013141065 0.026949804 0.33300006
-0.010813518 0.027119303 0.33300009
-0.0089919539 0.027011752 0.33300009
-0.0068448768 0.027197583 0.333
-0.0052235038 0.026882548 0.33300003
-0.0030557483 0.026901815 0.33300009
-0.00090868166 0.027035654 0.33300003
0.00097951398 0.026992979 0.33300009
0.0031115189 0.027054103 0.33299997
0.0052392366 0.026847057 0.333
0.0070238803 0.027153045 0.33300009
0.0089060152 0.026927074 0.33300009
0.010812101 0.026900752 0.33300006
0.013120994 0.027166074 0.33300006
0.014919728 0.027075328 0.33300003
0.017125463 0.027056497 0.33300003
0.018898726 0.027069574 0.33300006
0.020490211 0.027015893 0.33319527
-0.020665461 0.028839191 0.33322427
-0.018981189 0.028955942 0.33300006
-0.016883429 0.028975818 0.33300003
-0.015028312 0.028901989 0.33300009
-0.012897801 0.028971832 0.33300003
-0.010935144 0.029006764 0.33300006
-0.008698754 0.029056398 0.33300009
-0.0067995512 0.028936902 0.33300009
-0.0051486227 0.028990215 0.33300003
-0.0030420197 0.028862478 0.33300009
-0.0011038785 0.02914156 0.33300006
0.00082540471 0.028911548 0.33300006
0.002998068 0.028873252 0.33300009
0.0050157881 0.029039536 0.33300003
0.0072342902 0.028906623 0.33300006
0.0091317939 0.029227052 0.33300003
0.011061752 0.029071305 0.33299997
0.01292068 0.028972317 0.333
0.014986895 0.029122699 0.33300009
0.017117672 0.028818203 0.333
0.018896395 0.028885281 0.333
0.020653505 0.028972013 0.33335933
-0.020823004 0.030937249 0.33337301
-0.019096931 0.03098388 0.333
-0.017061142 0.031194402 0.33300003
-0.014998832 0.031118495 0.33300009
-0.013166828 0.031027583 0.33299997
-0.010949953 0.031023955 0.33300009
-0.0091024544 0.030876258 0.333
-0.0070042787 0.031066997 0.33300006
-0.0051568998 0.030854991 0.33300006
-0.0028551039 0.030976534 0.33300006
-0.00089515088 0.031204771 0.33300006
0.001070058 0.030957475 0.33300009
0.0028217363 0.030937498 0.33300009
0.0050152689 0.03108169 0.33300006
0.0071435478 0.031285878 0.333
0.0089010466 0.030877365 0.33300009
0.011019244 0.030977841 0.33299997
0.012972074 0.031071512 0.33300006
0.014957277 0.030926472 0.33300006
0.017012885 0.03068085 0.33299997
0.019097222 0.031201025 0.33300006
0.02068753 0.030896928 0.33325967
-0.020813404 0.033058219 0.33334541
-0.018958163 0.032986265 0.33300003
-0.016844297 0.032874428 0.33300006
-0.015106441 0.033020753 0.33300003
-0.01301728 0.03309745 0.33300006
-0.010999857 0.032960355 0.33300009
-0.0089060515 0.033073351 0.33300003
-0.0069898996 0.033128746 0.33300009
-0.0048739109 0.032969676 0.33300003
-0.0032774145 0.03275796 0.33300003
-0.00099018693 0.033001576 0.33300006
0.0010488735 0.033192884 0.33300009
0.0030770218 0.032940462 0.33300009
0.0049261292 0.032919984 0.33300006
0.007194858 0.032938961 0.33300006
0.0090615693 0.033042997 0.33300003
0.011014138 0.032952119 0.333
0.012964123 0.033082414 0.33300009
0.015067626 0.033019274 0.33300003
0.017036272 0.032815974 0.33300006
0.019095315 0.033028182 0.33300003
0.020641854 0.032997508 0.33313316
-0.020869462 0.034910452 0.33324742
-0.019037671 0.034905706 0.33300009
-0.017082928 0.034874804 0.33300006
-0.01507257 0.03488455 0.33300009
-0.013037954 0.034997776 0.33300006
-0.010984473 0.035025805 0.333
-0.0088696256 0.034996778 0.33300006
-0.0070752995 0.034848653 0.333
-0.004891078 0.034966879 0.33300003
-0.0028730838 0.034969285 0.33300003
-0.001058954 0.034983825 0.333
0.00088701822 0.035060439 0.33300006
0.0030938853 0.034863688 0.333
0.0049903579 0.035051532 0.33300009
0.0071792402 0.034778465 0.33300003
0.0092584193 0.034835979 0.333
0.01119363 0.035044856 0.33300006
0.01306314 0.034877248 0.333
0.014789819 0.034994949 0.33300006
0.016964089 0.035068877 0.33300009
0.019049885 0.034952365 0.33300009
0.020952659 0.035079278 0.33329102
-0.02079238 0.036953665 0.33320987
-0.019264091 0.037084512 0.33300006
-0.016953364 0.037186652 0.33300006
-0.015010687 0.037150163 0.33300003
-0.013185661 0.036936469 0.33300006
-0.011038281 0.037070803 0.33300003
-0.0090478752 0.036954988 0.33300003
-0.0069142031 0.03716154 0.33300003
-0.0052205953 0.036833916 0.33300006
-0.0030457829 0.037070513 0.33300009
-0.00082945952 0.036811195 0.33300006
0.0011671649 0.037022103 0.33300006
0.00285112 0.036746159 0.333
0.0050392672 0.037004557 0.333
0.0069843428 0.037218492 0.33300009
0.0091765998 0.037004352 0.33300009
0.011099235 0.036779393 0.33300003
0.012928758 0.037008341 0.33300006
0.015033094 0.037091687 0.33300006
0.016978759 0.037060458 0.33300006
0.018879317 0.037187383 0.33300003
0.020861 0.036971163 0.3331942
-0.02114532 0.039041158 0.33333418
-0.019253545 0.0390203 0.33300009
-0.017001739 0.038966291 0.33300009
-0.015241168 0.039161209 0.33300003
-0.012861351 0.039113082 0.333
-0.011006965 0.039064225 0.33300003
-0.0089240419 0.038897231 0.33300006
-0.006940769 0.038954992 0.333
-0.0051321154 0.038936522 0.33300003
-0.0030698669 0.039101139 0.33300006
-0.00099902158 0.039262541 0.33300006
0.00070315873 0.038798716 0.33300003
0.0033708857 0.038964506 0.333
0.0047665252 0.039122399 0.33300006
0.0068508177 0.039279755 0.33300003
0.0091416799 0.039049022 0.33300006
0.011113846 0.039199352 0.33300003
0.013098058 0.039037015 0.33300006
0.014913367 0.039409738 0.33299997
0.017012954 0.038847577 0.33300003
0.019110704 0.039085042 0.33300003
0.020990497 0.039055023 0.3333638
-0.021083035 0.041012868 0.33315936
-0.01907075 0.041134074 0.33300003
-0.017015902 0.040903281 0.33300003
-0.015165497 0.04094024 0.33300009
-0.01292789 0.041177284 0.33300006
-0.010976263 0.040990923 0.33300009
-0.0087557612 0.041087553 0.33300006
-0.0069296961 0.041092325 0.333
-0.0052196695 0.040771205 0.333
-0.0029112925 0.041048467 0.33300003
-0.0011350177 0.04098276 0.333
0.0013422606 0.041073125 0.33300003
0.002967092 0.041105222 0.33300009
0.0050340975 0.040798739 0.333
0.006746483 0.040721752 0.33300003
0.0089209136 0.04101757 0.33300006
0.010754031 0.041038111 0.33300006
0.013131072 0.040967256 0.33300006
0.014887913 0.041122224 0.333
0.017018346 0.040942647 0.333
0.018885719 0.041053083 0.33300003
0.021134079 0.04101558 0.33319378
-0.02118085 0.043033753 0.33320057
-0.018971002 0.042910196 0.333
-0.017040083 0.042890482 0.33300003
-0.014848224 0.043050837 0.33300006
-0.013060878 0.043115299 0.33300006
-0.011084759 0.043015365 0.33300006
-0.0089490619 0.042920828 0.33300006
-0.0071273684 0.043263387 0.33300003
-0.0049507413 0.043307953 0.333
-0.0028493674 0.042966351 0.333
-0.0010522554 0.043019447 0.333
0.0010497308 0.042948928 0.33300003
0.0029539259 0.043132916 0.33300009
0.0048662489 0.042863823 0.33300006
0.0071485145 0.042848013 0.33300003
0.0089262035 0.042942587 0.33300009
0.011100141 0.043009043 0.33300009
0.012921599 0.043014437 0.333
0.015112463 0.043009087 0.33300009
0.016952114 0.042973328 0.33300009
0.019101866 0.04290837 0.33300006
0.021145385 0.043043159 0.33314338
-0.021374337 0.044989347 0.33341512
-0.018814463 0.044894993 0.33322376
-0.01700083 0.045022082 0.33325553
-0.01506835 0.044968061 0.33324203
-0.013032528 0.045099966 0.33327499
-0.011029764 0.045009058 0.33325228
-0.0090366388 0.044829946 0.33320749
-0.0071790535 0.04509031 0.33327258
-0.0052040131 0.044857331 0.33321434
-0.0030236244 0.044937469 0.33323434
-0.0010562415 0.045124147 0.33328098
0.00097586139 0.044986047 0.33324653
0.0030032443 0.044859663 0.33321497
0.0049644164 0.045076575 0.33326945
0.0069052908 0.045139682 0.33328584
0.0086887386 0.045189399 0.33329841
0.011277242 0.044915564 0.33322987
0.013049055 0.044952247 0.33324003
0.015064378 0.044820193 0.33320701
0.017073099 0.044986662 0.33325022
0.018922053 0.045015242 0.33325839
0.020946315 0.04490082 0.33327556
-0.020946212 0.047153641 0.33380389
-0.01874374 0.046990022 0.33374751
-0.016866496 0.046827458 0.33370695
-0.014979883 0.046861697 0.33371586
-0.012992918 0.047063988 0.33376703
-0.010883585 0.046985906 0.33374795
-0.0090019573 0.046762567 0.33369181
-0.0070694932 0.046998288 0.33375213
-0.0049474477 0.04711527 0.33378297
-0.0030285344 0.04702919 0.33376178
-0.00102796 0.046981733 0.33375064
0.00098908972 0.047022343 0.33376211
0.003278835 0.046910748 0.33373472
0.0048576072 0.046936166 0.33374211
0.0068456666 0.046903018 0.33373466
0.0091954395 0.04675319 0.33369756
0.011136113 0.046933629 0.33374479
0.013055884 0.047044985 0.3337743
0.014745492 0.047011413 0.33376664
0.016912054 0.047092881 0.33378854
0.019123469 0.047297273 0.33384207
0.020816939 0.046951354 0.33375672
0.00079165399 -0.0040000007 0.33480453
