# .PCD v0.7 - Point Cloud Data file format
VERSION 0.7
FIELDS x y z
SIZE 4 4 4
TYPE F F F
COUNT 1 1 1
WIDTH 1232
HEIGHT 1
VIEWPOINT 0 0 0 1 0 0 0
POINTS 1232
DATA ascii
0.0042069121 -0.10080425 -0.0061748354
-0.0061546504 -0.10095014 -0.0042320532
-0.0053429245 -0.10107915 -0.005179639
0.0054216306 -0.10105424 -0.0050888709
0.0061612576 -0.10098621 -0.0042237937
-0.0068088085 -0.1010095 -0.0029410347
0.0067889621 -0.10090537 -0.0030094835
-0.0073523303 -0.10097905 -0.00092664576
0.0073164585 -0.10116034 -0.0011500517
-0.0073572602 -0.10111639 0.0009036464
0.0073519321 -0.10103549 0.00093739771
-0.0067379256 -0.10096704 0.0031432207
0.0067295334 -0.10101218 0.0031253409
-0.0060783913 -0.10132532 0.0043266444
-0.0054203044 -0.1008539 0.0050930982
0.0051912442 -0.10106385 0.0053394758
0.0062540821 -0.10096744 0.004107032
-0.0041896058 -0.10128427 0.0061879493
-0.003307387 -0.10091175 0.006670685
-0.0010241792 -0.10069453 0.0073370864
0.0010469584 -0.10113543 0.0073336004
0.0028334174 -0.10093788 0.0068523274
0.0041711726 -0.10120388 0.0062026959
-0.004216739 -0.10305681 -0.006166982
-0.0028401867 -0.1029935 -0.0068491641
-0.000886505 -0.10294913 -0.0073603969
0.0010436254 -0.10314874 -0.007335382
0.0031605973 -0.10303672 -0.0067237243
0.0041813697 -0.10277162 -0.0061952765
-0.0061493772 -0.10304485 -0.0042386525
-0.0049975496 -0.10282335 -0.005498847
0.0051874816 -0.10306045 -0.0053310567
-0.0067444495 -0.10290383 -0.003122976
0.0068029952 -0.10300256 -0.0029738194
-0.0073002786 -0.10290232 -0.0012645384
0.0072909645 -0.10263056 -0.0013242583
-0.0073331827 -0.10297064 0.0010553595
0.0073818346 -0.10280189 0.00074801064
-0.0068627591 -0.10278159 0.0028000523
0.006857608 -0.10298464 0.0028289757
-0.0061492561 -0.10325602 0.004238056
-0.0052546021 -0.10312522 0.0052451282
0.0053319219 -0.10298579 0.0051665353
0.0061361818 -0.10317325 0.0042543998
-0.0041853418 -0.10269523 0.0061913552
-0.0030995663 -0.10293391 0.0067518027
-0.0010958035 -0.10303679 0.0073266053
0.00088802213 -0.10311212 0.007359412
0.0030139354 -0.10300623 0.006786006
0.00437422 -0.10249432 0.0060402523
-0.0042784773 -0.10473116 -0.0061175977
-0.0031386663 -0.10485472 -0.0067374664
-0.0010410058 -0.10525752 -0.0073350184
0.00082402333 -0.10505532 -0.0073702713
0.0030493897 -0.10508692 -0.006772886
0.004194017 -0.10496283 -0.0061851665
-0.0061933058 -0.1052629 -0.0041837492
-0.0052119987 -0.10499343 -0.0053020008
0.0052944357 -0.10487454 -0.0052303723
0.0060883677 -0.10475039 -0.0043149199
-0.0067788227 -0.10480541 -0.0030320864
0.0067921397 -0.10472418 -0.0029801982
-0.00736586 -0.10495593 -0.00084993313
0.0073389197 -0.10511803 -0.0010199534
-0.0073093604 -0.10506921 0.0012070014
0.0073753395 -0.10496569 0.00078912853
-0.0067733652 -0.10506692 0.0030528263
0.0067569846 -0.10479604 0.0030591893
-0.0061718365 -0.10537089 0.0042098239
-0.0050863433 -0.10516102 0.0054151486
0.0053208428 -0.10488574 0.0051673949
0.0061966851 -0.10528606 0.0041787629
-0.0041864081 -0.1048253 0.0061904942
-0.0031155723 -0.10517361 0.0067517767
-0.0010123746 -0.10487998 0.0073397728
0.00098754477 -0.10494193 0.0073436913
0.0030312575 -0.10486072 0.0067759156
0.0042749564 -0.10485677 0.0061196554
-0.0042219283 -0.10699545 -0.0061628451
-0.0029683174 -0.10697006 -0.0068036756
-0.00082913524 -0.10674377 -0.0073694699
0.00079744152 -0.1069328 -0.0073744748
0.00318434 -0.10698926 -0.0067196758
0.0041967193 -0.10658374 -0.006183011
-0.0062150089 -0.10685263 -0.0041566268
-0.0053006192 -0.10686016 -0.0052255299
0.0053776596 -0.10702229 -0.0051312326
0.0061303331 -0.10739244 -0.004262472
-0.0068007791 -0.10701867 -0.002970417
0.0066562691 -0.10704301 -0.0033248249
-0.0073419753 -0.10695824 -0.00099501351
0.0073136669 -0.10705626 -0.0011784765
-0.0073535396 -0.1070048 0.00092719134
0.0073478743 -0.1069968 0.00096291397
-0.0067304336 -0.10702257 0.0031523639
0.0068046898 -0.10694221 0.0029554896
-0.0061668046 -0.10753322 0.0042161052
-0.0053655305 -0.1070313 0.0051528062
0.0052713519 -0.10691588 0.005244425
0.0063062916 -0.10670366 0.0040417491
-0.0041369637 -0.10719495 0.0062300419
-0.0028237998 -0.10694198 0.0068569616
-0.0010318919 -0.10697182 0.0073364559
0.00082601263 -0.10721575 0.0073691895
0.0026881571 -0.10686226 0.0069075609
0.0041291127 -0.10710488 0.0062363222
-0.0042110081 -0.10898156 -0.0061715879
-0.0030775832 -0.10905899 -0.0067628655
-0.0010270287 -0.10911393 -0.0073382328
0.0010196136 -0.1089244 -0.0073380452
0.0030479957 -0.10898555 -0.0067712939
0.0041674757 -0.10906298 -0.0062064151
-0.0061959219 -0.10923169 -0.0041804933
-0.005076671 -0.10902846 -0.0054377713
0.0053012669 -0.10905281 -0.0052068657
0.0062107146 -0.10898242 -0.0041620014
-0.0068007163 -0.10905365 -0.002977785
0.006784284 -0.10894655 -0.003000661
-0.007314255 -0.10894538 -0.001175491
0.0073800134 -0.10906476 -0.00074910081
-0.0073366133 -0.10919002 0.0010314804
0.0073134401 -0.10902961 0.0011811522
-0.0066996692 -0.10909806 0.0032160955
0.0066987174 -0.10875476 0.0032410813
-0.0061783306 -0.1087451 0.0042016939
-0.0053248373 -0.108978 0.0051990892
0.0052163689 -0.10891356 0.0052892831
0.0062516234 -0.10873677 0.0041100769
-0.0042078993 -0.10880126 0.0061732871
-0.0029261617 -0.10875665 0.0068197544
-0.00093719526 -0.10887507 0.007351628
0.0009504747 -0.10869913 0.0073480736
0.0029244218 -0.1089733 0.006819672
0.0040990384 -0.10903806 0.0062603746
-0.0043031569 -0.11095719 -0.0060978765
-0.0031119846 -0.11123399 -0.0067472588
-0.0010945975 -0.11084548 -0.007324791
0.0012454753 -0.11118045 -0.0073037492
0.0030934543 -0.11103814 -0.0067586736
0.0041810358 -0.11064817 -0.0061955717
-0.0061908821 -0.11091357 -0.0041867984
-0.0053262436 -0.11103176 -0.0051900302
0.0051564807 -0.11088352 -0.0053581507
0.0061511407 -0.11170045 -0.0042364788
-0.0068071461 -0.11123408 -0.0029582018
0.0067841327 -0.11111363 -0.0030172192
-0.0073688147 -0.11119065 -0.00083124347
0.0073454897 -0.11093961 -0.00097369764
-0.0073298672 -0.11114085 0.0010742875
0.0073217433 -0.11118094 0.0011272926
-0.006840013 -0.1107198 0.0028556976
0.0067513818 -0.11121067 0.0031012036
-0.006181391 -0.11105119 0.0041978601
-0.0052719107 -0.11100853 0.0052308976
0.0053642271 -0.11109501 0.0051407889
0.006147217 -0.11120085 0.0042405762
-0.0040458352 -0.11166671 0.0063029281
-0.0031945836 -0.11106891 0.0067194137
-0.0010182967 -0.11107277 0.0073384349
0.00090180273 -0.11117439 0.0073572085
0.0029748019 -0.11089559 0.0068008476
0.0042378465 -0.11123654 0.0061493204
-0.0042568534 -0.11334947 -0.0061349282
-0.0030981805 -0.11279071 -0.0067508803
-0.00090041995 -0.11287872 -0.0073582376
0.0012595623 -0.11301099 -0.0073012034
0.0029861666 -0.11328964 -0.0067970622
0.0042684251 -0.11267076 -0.006125669
-0.0062317387 -0.11286131 -0.0041357353
-0.0052631418 -0.11279051 -0.005227298
0.0051685232 -0.11317578 -0.0053227083
0.0061601731 -0.11331145 -0.0042251945
-0.0067651048 -0.11326227 -0.0030749461
0.0068241442 -0.11327709 -0.0029205913
-0.0073275943 -0.11311013 -0.001091995
0.0073524755 -0.1129591 -0.00093472935
-0.0073563471 -0.11316711 0.00090939377
0.0073596644 -0.11295041 0.00088382361
-0.006816918 -0.11279606 0.0029198518
0.0067669949 -0.11319971 0.0030601374
-0.0061604092 -0.11296801 0.0042240806
-0.0051851198 -0.11303604 0.0053360332
0.0051197847 -0.11291644 0.005387859
0.0062308381 -0.11295039 0.0041360436
-0.004378309 -0.11290507 0.0060369438
-0.0032790438 -0.11317221 0.0066789826
-0.00099713239 -0.11288217 0.00734177
0.00087066722 -0.11306198 0.0073621175
0.0030807897 -0.1130764 0.0067629139
-0.0040821102 -0.11458218 -0.0062747272
-0.0030985426 -0.11494977 -0.0067566861
-0.0009324408 -0.11523405 -0.0073531903
0.0010180572 -0.11500899 -0.0073390636
0.0031463704 -0.11499497 -0.006739838
0.0042057331 -0.11506122 -0.0061758296
-0.0061704195 -0.11435144 -0.0042123902
-0.0051360368 -0.11515657 -0.0053738444
0.005258047 -0.11489212 -0.0052432651
0.0062121823 -0.11468294 -0.0041601867
-0.0067779855 -0.11512322 -0.0030371009
0.0067723589 -0.11492163 -0.0030538591
-0.0073829563 -0.11515184 -0.00074169226
0.0073308144 -0.11474475 -0.0010719287
-0.0073172096 -0.11500636 0.0011482806
0.0072928905 -0.11486705 0.0013089926
-0.0068343924 -0.11489233 0.0028779958
0.0067709251 -0.11493114 0.0030531073
-0.0061903121 -0.11509757 0.0041866936
-0.005293007 -0.11488941 0.0052310727
0.0052696564 -0.11532877 0.0052260514
0.0061676288 -0.11449327 0.0042150496
-0.004247895 -0.11478568 0.0061412686
-0.0032092945 -0.11494348 0.0067031509
-0.00075204507 -0.11498848 0.0073808404
0.00088501029 -0.11486807 0.0073598465
0.002583015 -0.1149459 0.0069479472
0.0043078614 -0.11473573 0.0060932958
-0.0041673454 -0.11689417 -0.0062065474
-0.0030516069 -0.11691891 -0.0067714537
-0.0011000936 -0.11668 -0.0073267235
0.0010466778 -0.11689827 -0.0073349006
0.0031689776 -0.1174222 -0.0067329071
0.0042398567 -0.11740275 -0.0061485399
-0.0062613706 -0.11643258 -0.0040987083
-0.0051161642 -0.11706419 -0.0054037087
0.0052399933 -0.1168884 -0.0052477117
0.0061541991 -0.11738732 -0.0042326762
-0.0067538726 -0.11708011 -0.0030956042
0.0066645006 -0.11684317 -0.0033409537
-0.007305345 -0.11713044 -0.0012332427
0.0073328125 -0.1172417 -0.001055241
-0.0073841861 -0.11707206 0.00072471105
0.007344034 -0.11699852 0.00098261388
-0.00685554 -0.11706458 0.0028221526
0.0068227146 -0.11694197 0.0029108562
-0.0061263964 -0.11774834 0.0042665787
-0.005215541 -0.11700399 0.0052827285
0.0053394232 -0.11698866 0.0051818346
0.0061375797 -0.11720216 0.0042526009
-0.0041972739 -0.11709617 0.0061817565
-0.0028597675 -0.11700453 0.0068444205
-0.00097626221 -0.11704683 0.0073446017
0.00076748483 -0.11695738 0.0073783956
0.0031611787 -0.11706425 0.006723898
0.0042345324 -0.11683442 0.0061519514
-0.0041989139 -0.11856049 -0.0061812978
-0.0029823328 -0.11898734 -0.0067958827
-0.00097367831 -0.11924306 -0.0073466939
0.00093509292 -0.11897839 -0.0073527838
0.0033326559 -0.11897355 -0.0066637909
0.0042958581 -0.11848982 -0.0061037424
-0.0060724295 -0.11897893 -0.0043348945
-0.0054049329 -0.11903778 -0.0050898828
0.005210008 -0.11904323 -0.0053080772
0.0062124445 -0.11897813 -0.0041598757
-0.0067377589 -0.11886185 -0.0031216289
0.0068391096 -0.119075 -0.0028614346
-0.0072953021 -0.11887685 -0.0012968529
0.0073684538 -0.11887442 -0.00083356031
-0.0073186024 -0.11901468 0.0011357509
0.0073482404 -0.1190053 0.00095240434
-0.0067860722 -0.11914621 0.0030230894
0.0067350753 -0.11902784 0.0031367766
-0.006060902 -0.11902683 0.0043484424
-0.0051595932 -0.11883865 0.0053488766
0.0052262489 -0.11913192 0.0052962704
0.006127411 -0.11914174 0.0042653047
-0.0042664595 -0.11829194 0.0061264038
-0.0028593836 -0.11900321 0.006845199
-0.0012082553 -0.11896881 0.0073084328
0.00098857342 -0.11902486 0.007343479
0.0030564384 -0.11891614 0.0067667146
0.0043003326 -0.11885659 0.0060993037
-0.0042062085 -0.12064743 -0.0061754696
-0.0030124953 -0.12091685 -0.0067834873
-0.0011252023 -0.12085941 -0.0073223701
0.0010944096 -0.12113751 -0.007326419
0.0031323091 -0.12103494 -0.0067439876
0.004126952 -0.12070933 -0.006238875
-0.0062212716 -0.12076083 -0.0041488484
-0.0051768208 -0.12086863 -0.0053473292
0.0053157718 -0.12110958 -0.0051951208
0.0061722039 -0.12104283 -0.0042101843
-0.0068100779 -0.12095086 -0.0029445766
0.0067542261 -0.12100088 -0.0031052269
-0.0073010921 -0.12070863 -0.0012575398
0.0073066209 -0.1210105 -0.0012200974
-0.0073451325 -0.12115244 0.00097934739
0.0073554828 -0.12106024 0.000911807
-0.0067776977 -0.120992 0.0030327674
0.0067781555 -0.12087702 0.003036954
-0.0049967039 -0.12085129 0.0055164434
0.0052505159 -0.12087337 0.0052717137
0.0061730277 -0.12097532 0.0042082779
-0.0042703915 -0.12131415 0.0061232476
-0.0031291298 -0.1208205 0.0067396206
-0.0009832473 -0.12086768 0.0073438124
0.00098825223 -0.12112733 0.0073435218
0.0028800543 -0.1210886 0.0068376409
0.0041967588 -0.12104307 0.0061821551
-0.0042210422 -0.12286504 -0.0061636115
-0.0029202055 -0.12294081 -0.0068196221
-0.00087481487 -0.12305867 -0.0073623178
0.00085524801 -0.12298303 -0.0073645636
0.0030286161 -0.1229682 -0.0067776698
0.0041937497 -0.12295125 -0.0061854455
-0.0062884334 -0.12265249 -0.0040649022
-0.0051452238 -0.12305917 -0.0053712926
0.0050658258 -0.12289145 -0.0054417723
0.0062240227 -0.12332223 -0.0041454183
-0.0067429631 -0.12284058 -0.0031259789
0.0067292866 -0.12313409 -0.0031429143
-0.0073154056 -0.12294649 -0.0011659195
0.0073616644 -0.12313767 -0.00087657105
-0.0073751234 -0.1230819 0.00078751764
0.0073193349 -0.12319601 0.0011364021
-0.0067714765 -0.12310218 0.0030524244
0.006811975 -0.12297254 0.0029483545
-0.0061845109 -0.122716 0.0041939174
-0.0052752416 -0.12318596 0.0052306638
0.0053998339 -0.1230906 0.005111943
0.0061973124 -0.12277581 0.0041779168
-0.0042091557 -0.12290023 0.0061722309
-0.0030809939 -0.12299844 0.0067569581
-0.0013199457 -0.12298194 0.0072911433
0.0011425358 -0.12337748 0.0073191524
0.003019836 -0.12288708 0.0067830435
0.0042964746 -0.12318387 0.0061023743
-0.0041827955 -0.12509634 -0.0061942162
-0.0030338552 -0.12495039 -0.0067775333
-0.0011899101 -0.12478434 -0.0073122345
0.0010516278 -0.12519674 -0.0073338407
0.0031749422 -0.12512209 -0.0067267851
0.0042452198 -0.12503161 -0.0061442768
-0.0061526773 -0.1250589 -0.0042346064
-0.0053137527 -0.12492801 -0.0051925983
0.0050701303 -0.12523566 -0.0054436182
0.0061527351 -0.12494977 -0.0042345338
-0.0067656776 -0.12486622 -0.0030593954
0.0067573017 -0.1251096 -0.0030793953
-0.0073171342 -0.12497779 -0.0011487462
0.0073621594 -0.12508653 -0.00086899137
-0.0073291049 -0.12512726 0.0010728663
0.0073387744 -0.12482053 0.0010135134
-0.0066958638 -0.12474138 0.0032315741
0.006756661 -0.12513253 0.003082223
-0.0061581894 -0.12479798 0.0042268122
-0.0051820832 -0.12497629 0.0053220442
0.0051781768 -0.12481599 0.0053286552
0.0061952635 -0.12474041 0.0041804696
-0.0042989468 -0.12470027 0.0061003915
-0.0030080744 -0.1249278 0.0067872615
-0.0010963129 -0.1252194 0.0073251491
0.0010741618 -0.12484758 0.0073287361
0.0029289022 -0.12488366 0.0068157725
0.0041594049 -0.12480063 0.006212024
-0.0041882885 -0.12697366 -0.0061898292
-0.0030344387 -0.12704672 -0.0067818682
-0.00085152755 -0.12696521 -0.0073656193
0.0011214857 -0.12700307 -0.0073233536
0.0029807847 -0.12693028 -0.0067953528
0.0042568296 -0.12709357 -0.0061349962
-0.0062123281 -0.12701251 -0.0041600489
-0.0052691302 -0.12707852 -0.0052404678
0.0053711515 -0.12680879 -0.0051383916
0.0062052361 -0.12700711 -0.0041689146
-0.0067824102 -0.12690809 -0.002992115
0.0068061971 -0.12680906 -0.0029640079
-0.007340631 -0.12692657 -0.0010049618
0.0073463144 -0.12689465 -0.00096670963
-0.0073130513 -0.12701827 0.0011824955
0.0073288395 -0.12717432 0.0010806748
-0.0067675333 -0.12713076 0.0030580773
0.0069012563 -0.1268751 0.0027104157
-0.0060161571 -0.12669089 0.0044043446
-0.0051846295 -0.12699813 0.0053287754
0.0051955027 -0.1269699 0.0053214752
0.0061486885 -0.12729438 0.0042386781
-0.0042108116 -0.12752637 0.0061708894
-0.0029549464 -0.12699428 0.0068086912
-0.00098878657 -0.12719847 0.0073434156
0.0011057217 -0.12645346 0.007324954
0.0030060902 -0.12684745 0.0067790016
0.004128831 -0.12665138 0.0062364764
-0.0041829459 -0.12962012 -0.0061941128
-0.0031399964 -0.12898208 -0.0067359521
-0.0010831215 -0.12915333 -0.0073289708
0.00098886143 -0.12895888 -0.0073443311
0.0027800796 -0.12891364 -0.0068713618
0.0042748032 -0.12927951 -0.0061206259
-0.0061664847 -0.12887782 -0.0042173611
-0.0052910522 -0.12913989 -0.0052147214
0.0052345768 -0.12917762 -0.0052743526
0.0060816137 -0.12863348 -0.0043234485
-0.0066826399 -0.1289984 -0.0032852425
0.0067546051 -0.129039 -0.0030905458
-0.0073489686 -0.12904096 -0.00095540029
0.0073408065 -0.12920026 -0.0010033151
-0.0073497896 -0.12917989 0.00095086539
0.0073413453 -0.12877223 0.0010043447
-0.0067986632 -0.12917982 0.0029838819
0.0067243823 -0.12890732 0.0031468209
-0.0061736056 -0.12907138 0.0042075263
-0.0050318432 -0.12894313 0.0054657627
0.0053287954 -0.12913778 0.0051907077
0.006173098 -0.1290157 0.004208162
-0.0041832719 -0.12892604 0.0061929161
-0.0030480837 -0.129058 0.0067764395
-0.00084960542 -0.12909979 0.0073651457
0.00087739807 -0.12903439 0.00736068
0.0028463623 -0.12918672 0.0068508722
0.0041666734 -0.12905723 0.0062061944
-0.0042004772 -0.1310804 -0.0061800932
-0.0029990065 -0.13111092 -0.0067905416
-0.00074519019 -0.13094744 -0.0073828134
0.0010147264 -0.13110738 -0.0073402533
0.0027619335 -0.13072984 -0.0068772151
0.0042079631 -0.13181417 -0.0061741075
-0.0060854787 -0.13104229 -0.0043186261
-0.0052380753 -0.13093378 -0.0052430439
0.0052526547 -0.13085729 -0.0052460385
0.0062141507 -0.13131139 -0.0041577872
-0.0067895595 -0.13093352 -0.0030112856
0.0067745652 -0.13094679 -0.0030552254
-0.007349126 -0.1310218 -0.00095600879
0.0073349047 -0.13110843 -0.0010350612
-0.0073525859 -0.13062714 0.00093069259
0.0073266285 -0.13106108 0.0010819169
-0.00689094 -0.13123782 0.0027384011
0.0067577953 -0.13117754 0.0030719198
-0.0060707955 -0.13091297 0.0043360312
-0.0053827483 -0.13102955 0.005118601
0.0054662712 -0.13101318 0.0050535062
0.0061709108 -0.13092859 0.0042108875
-0.0042890282 -0.13091874 0.0061083031
-0.0032993332 -0.13105536 0.0066742613
-0.0011657793 -0.13096432 0.0073145796
0.0010348475 -0.13096078 0.0073352801
0.0030411961 -0.13085133 0.0067769368
0.0041786646 -0.13089897 0.0061965939
-0.0042042285 -0.13296413 -0.0061770994
-0.0029535431 -0.1331981 -0.0068018488
-0.001071231 -0.13307731 -0.0073305774
0.00067426939 -0.13308468 -0.0073940181
0.0030782986 -0.13278002 -0.0067616217
0.0041214391 -0.13264805 -0.006243329
-0.0061871051 -0.13293242 -0.0041916003
-0.0054508476 -0.13307403 -0.0050605829
0.0053857886 -0.13304937 -0.0051339366
0.0061690938 -0.13285056 -0.0042141145
-0.0067173806 -0.13313851 -0.0031734076
0.0067868829 -0.13293178 -0.0030218004
-0.0073569641 -0.13289447 -0.00090188574
0.0073256004 -0.13318416 -0.0011050123
-0.0073212325 -0.13316697 0.0011266583
0.0073297378 -0.13295119 0.0010778415
-0.0068199029 -0.13318443 0.0029283748
0.0068244315 -0.13289252 0.0029189202
-0.0061586238 -0.13329189 0.0042262375
-0.0051838043 -0.13299096 0.0053469935
0.0050650784 -0.13307263 0.0054358453
0.006078308 -0.13317272 0.0043266332
-0.0042302585 -0.1331871 0.0061553107
-0.0032404196 -0.13296661 0.0066931513
-0.00089856196 -0.13307087 0.0073570102
0.0010988445 -0.13296352 0.0073260167
0.0031341184 -0.13279831 0.0067428937
0.0042448598 -0.13261738 0.0061436319
-0.0042818021 -0.13477856 -0.0061150463
-0.0030088255 -0.13492252 -0.0067884093
-0.0010872196 -0.13486812 -0.0073264739
0.0010513319 -0.13501193 -0.0073332796
0.0028884623 -0.13503388 -0.006831869
0.0042399717 -0.13520844 -0.0061485125
-0.0061670258 -0.13511999 -0.0042167073
-0.0053602098 -0.13500692 -0.0051727914
0.0052287495 -0.13494007 -0.0052847131
0.0061115148 -0.1347544 -0.004286095
-0.0067984918 -0.13510945 -0.0029581939
0.0068194438 -0.13500424 -0.0029334282
-0.007327232 -0.13498393 -0.0010924176
0.0073245834 -0.13492477 -0.0010979648
-0.007327674 -0.13517743 0.0010909102
0.0073537529 -0.13510375 0.00092574162
-0.0068167504 -0.13525626 0.0029263515
0.0067575434 -0.13522126 0.0030892906
-0.0061263032 -0.1350183 0.0042666327
-0.0054100137 -0.1350434 0.0051076016
0.0053565702 -0.13485593 0.0051732399
0.0061357655 -0.13531426 0.0042548035
-0.0042740721 -0.13492925 0.0061202538
-0.0029295587 -0.13523716 0.0068142442
-0.0008393625 -0.13482425 0.0073667164
0.0012889825 -0.13508965 0.0072918506
0.0030532123 -0.13511102 0.0067670639
0.0043882201 -0.13594434 0.0060289316
-0.0042501437 -0.13655433 -0.0061403802
-0.0030968336 -0.13713105 -0.0067529529
-0.0011159932 -0.13712174 -0.0073235254
0.00099867384 -0.13728957 -0.0073428112
0.0030577448 -0.1371756 -0.0067729899
0.004213599 -0.13687666 -0.0061696172
-0.0061757732 -0.13715319 -0.0042057806
-0.0055792369 -0.13668612 -0.0049267933
0.0052965158 -0.13700111 -0.005217189
0.0062349578 -0.13722725 -0.0041318005
-0.0067759007 -0.13693781 -0.0030278799
0.0067393393 -0.13674921 -0.0031142365
-0.0073569901 -0.13693514 -0.00090622407
0.0073703416 -0.13719299 -0.0008182801
-0.0073299604 -0.13722867 0.00107642
0.0073125255 -0.13712861 0.0011785153
-0.0067778653 -0.13711013 0.0030338557
0.0066312724 -0.13714215 0.0034176642
-0.0062656207 -0.13694094 0.0040924787
-0.0053459057 -0.13720022 0.0051917429
0.0053560645 -0.13700143 0.0051472881
0.0060966327 -0.13736527 0.0043037129
-0.0041857017 -0.13688697 0.006190944
-0.0027689408 -0.13701645 0.0068749883
-0.00087161391 -0.13695502 0.0073609822
0.0012682207 -0.13688295 0.0072987205
0.0029913476 -0.13677397 0.0067952974
0.0041580852 -0.13645341 0.0062130382
-0.004235669 -0.13904409 -0.0061519681
-0.0030170095 -0.13903689 -0.0067885122
-0.0011739045 -0.1393932 -0.0073145642
0.00094936229 -0.13914275 -0.0073493258
0.002843607 -0.13896982 -0.0068440619
0.0042025461 -0.1389811 -0.0061784666
-0.0061720419 -0.13826953 -0.0042104488
-0.0052977116 -0.13874389 -0.0051847482
0.0053172028 -0.13895856 -0.0052017849
0.0061451979 -0.13891222 -0.0042440053
-0.0068360064 -0.13898566 -0.0028734321
0.0068006366 -0.13930789 -0.0029844893
-0.0073438147 -0.13913994 -0.00098824652
0.0073577827 -0.13922991 -0.00090121385
-0.0073065939 -0.13889557 0.0012177548
0.0073473924 -0.1389621 0.00096257299
-0.0068398849 -0.13913521 0.0028715983
0.0068001724 -0.13929887 0.0029701104
-0.00609932 -0.138523 0.0043003489
-0.0054392088 -0.1390751 0.0050711585
0.0051155756 -0.13912176 0.0053818887
0.0060199257 -0.13986063 0.0043995874
-0.0042802091 -0.13969518 0.0061153276
-0.0031714439 -0.13889621 0.0067269853
-0.0010882139 -0.13929464 0.0073271221
0.00090771075 -0.13874315 0.0073561743
0.0027929945 -0.13889125 0.0068666451
0.0041953307 -0.13834184 0.0061832345
-0.0042617735 -0.14108612 -0.0061310921
-0.0025832877 -0.14083746 -0.0069487728
-0.00091088616 -0.14092536 -0.0073566865
0.00091801223 -0.14092092 -0.0073551186
0.0032809635 -0.14107765 -0.0066790753
0.0042033046 -0.14118993 -0.0061778673
-0.0061022812 -0.1408543 -0.0042976583
-0.0053310366 -0.14130546 -0.0051762564
0.0052683591 -0.14087507 -0.0052344762
0.0062087965 -0.14096236 -0.0041645155
-0.0068103895 -0.1410775 -0.002958023
0.0067246477 -0.14094669 -0.0031734628
-0.007336589 -0.14093621 -0.0010305453
0.0073548248 -0.14084382 -0.00091995322
-0.0073179505 -0.14102288 0.0011524735
0.0073203053 -0.14102679 0.0011298289
-0.0067832 -0.14109398 0.0030168162
0.0067897881 -0.14118879 0.0030074054
-0.0062179775 -0.14114843 0.0041520176
-0.005374732 -0.14099194 0.0051268018
0.0053332988 -0.14097643 0.0051901587
0.0061903684 -0.14058852 0.004186532
-0.0041200668 -0.14089353 0.0062434371
-0.002763829 -0.14105284 0.0068789637
-0.0010866497 -0.14099468 0.0073279128
0.00091202254 -0.14101413 0.007355486
0.0030564675 -0.14079027 0.006766689
0.0044025211 -0.14089626 0.0060174731
-0.0042345915 -0.14253791 -0.0061528427
-0.0031932441 -0.14291313 -0.0067156348
-0.0012332344 -0.14278138 -0.0073046582
0.00089085213 -0.14295106 -0.0073595312
0.0031021761 -0.14320005 -0.0067549562
0.0041945837 -0.14310624 -0.0061848513
-0.0061266217 -0.14370801 -0.0042672432
-0.0053716097 -0.14287587 -0.0051363101
0.0054936088 -0.14290349 -0.0050191968
0.0061928909 -0.14274989 -0.0041844035
-0.0068129096 -0.1429372 -0.0029368899
0.0068358909 -0.14306594 -0.002877221
-0.0073472718 -0.14277396 -0.00096772087
0.0073395944 -0.14313075 -0.0010164173
-0.0073146778 -0.14303793 0.0011731876
0.0073445514 -0.14296493 0.00097811862
-0.0066826292 -0.14299433 0.0032806192
0.0067988522 -0.14299911 0.0029759109
-0.006103795 -0.14237037 0.0042947405
-0.0053192624 -0.14299589 0.0052017476
0.0052172621 -0.14303599 0.005302676
0.0061695217 -0.14315246 0.0042125802
-0.004280136 -0.14332201 0.0061153732
-0.002988741 -0.14320716 0.0067983675
-0.0010829187 -0.14300042 0.0073266048
0.000905903 -0.14320552 0.0073564439
0.002905387 -0.14291757 0.0068241018
0.0042061573 -0.14324448 0.006174556
-0.0041594482 -0.14456031 -0.0062129651
-0.0031372835 -0.14497173 -0.0067413803
-0.0011882486 -0.14501879 -0.0073125223
0.0011958475 -0.14485401 -0.0073108631
0.0033230286 -0.1448853 -0.0066630254
0.0042348006 -0.14482509 -0.0061526843
-0.0061295833 -0.14436617 -0.0042635435
-0.0052450472 -0.14501745 -0.0052538528
0.0052763158 -0.14518088 -0.0052357744
0.0061501591 -0.14493869 -0.0042378264
-0.0068093799 -0.14525649 -0.0029607816
0.0067954999 -0.14512327 -0.0029900318
-0.0073736217 -0.14501303 -0.00080047833
0.0073166848 -0.1450275 -0.0011557548
-0.0073481891 -0.1450032 0.00096094218
0.0073421267 -0.14498189 0.00099629641
-0.0067992928 -0.14492363 0.0029871098
0.006805358 -0.14511135 0.0029645616
-0.0061148037 -0.14504445 0.0042809704
-0.0049863216 -0.14489801 0.0055081197
0.0052105044 -0.14522637 0.0053128162
0.0062480667 -0.14484401 0.0041143927
-0.0041699912 -0.14511444 0.0062034815
-0.0030699798 -0.1447584 0.0067629358
-0.0010172268 -0.14507459 0.0073380996
0.0011027311 -0.14488155 0.0073244767
0.0029622577 -0.14497912 0.0068029114
0.0042844554 -0.14490244 0.0061119115
-0.004208284 -0.14673023 -0.0061739045
-0.0031772233 -0.14697042 -0.0067289886
-0.0011163364 -0.14728008 -0.0073229438
0.0010246731 -0.14708464 -0.0073387423
0.003210935 -0.14695232 -0.0067034918
0.0041914834 -0.14628761 -0.006187344
-0.0061599901 -0.14694585 -0.0042255432
-0.005089127 -0.14696839 -0.0054126596
0.0049649673 -0.14680322 -0.005526904
0.0061920169 -0.14737332 -0.0041855131
-0.0068098949 -0.14710052 -0.002947123
0.0067547425 -0.14680763 -0.0030763017
-0.0073123691 -0.14712691 -0.0011888568
0.0073614079 -0.14680749 -0.00087828655
-0.0073378179 -0.14716266 0.001026619
0.007373624 -0.14726746 0.0007998441
-0.0067185708 -0.14700881 0.0031697997
0.0067861485 -0.14698844 0.0030169366
-0.0061769974 -0.14669633 0.0042032232
-0.005424486 -0.14687745 0.0050869137
0.0052688606 -0.14690351 0.0052342345
0.0061555617 -0.14661874 0.0042300178
-0.0042895563 -0.14719515 0.006107823
-0.0029989921 -0.14728951 0.0067893434
-0.0011890231 -0.1470294 0.0073108487
0.0011764524 -0.14690265 0.0073136734
0.0028362225 -0.14685115 0.0068521248
0.0043000197 -0.14708887 0.0060994523
-0.0042943778 -0.14916423 -0.0061050383
-0.0031171401 -0.14906378 -0.0067431224
-0.0010324885 -0.14893 -0.0073367418
0.0010078298 -0.14895947 -0.0073407926
0.0031513073 -0.14916907 -0.006729729
0.0042148442 -0.14916556 -0.0061686649
-0.0061651431 -0.14931293 -0.0042191115
-0.0053598844 -0.14892575 -0.0051552793
0.0051217997 -0.14915803 -0.0053878459
0.0060621724 -0.14923099 -0.0043478245
-0.0067662015 -0.14913675 -0.0030609597
0.0067622173 -0.1491439 -0.003073713
-0.0073551 -0.14875671 -0.00091824436
0.0073128417 -0.14896145 -0.0011794228
-0.0073603187 -0.14910564 0.00087410171
0.0073462739 -0.14912434 0.00096760539
-0.0068580667 -0.14907783 0.0028275657
0.0068057622 -0.14889784 0.002959436
-0.0062625362 -0.14928316 0.0040962892
-0.005386218 -0.14891867 0.0051532923
0.0051638708 -0.14907193 0.0053575011
0.0061497763 -0.14926772 0.0042372392
-0.0041282154 -0.14930847 0.0062368871
-0.0028415367 -0.1490649 0.006851539
-0.001073658 -0.14894216 0.0073288628
0.00074524642 -0.14915472 0.0073817889
0.003161341 -0.14885756 0.0067280736
0.0042339424 -0.14930435 0.0061523062
-0.0042625219 -0.15083431 -0.0061305286
-0.0030916431 -0.1512374 -0.0067570247
-0.0010024748 -0.1508365 -0.0073416559
0.00096275221 -0.15115978 -0.0073485333
0.0029898849 -0.15100044 -0.0067974669
0.0041962429 -0.1510926 -0.006183553
-0.0061742915 -0.15093492 -0.0042076819
-0.0053930501 -0.15104224 -0.005120209
0.0051508415 -0.15081796 -0.0053635775
0.0060971077 -0.15133019 -0.0043041632
-0.0068559288 -0.15114658 -0.0028344542
0.0068155169 -0.15110828 -0.0029432708
-0.0073504616 -0.15092869 -0.00094412634
0.0073268032 -0.15100563 -0.0010933456
-0.0073323166 -0.15078188 0.0010588444
0.0072965748 -0.15088975 0.0012763534
-0.0066985311 -0.15099266 0.0032385662
0.0068532303 -0.15096264 0.0028313736
-0.0061264494 -0.15081239 0.0042663924
-0.0052956985 -0.15109509 0.0052074534
0.0051908237 -0.1510864 0.0053038797
0.0061954428 -0.15065454 0.004180152
-0.0041971705 -0.15133193 0.0061817165
-0.003020769 -0.15113522 0.0067850687
-0.0010139131 -0.15101273 0.0073388787
0.0010445921 -0.15105565 0.0073335054
0.002986022 -0.15093429 0.0067906296
0.0042397883 -0.15167676 0.0061476203
-0.0042104605 -0.15301156 -0.0061721848
-0.0028076076 -0.15288737 -0.0068661734
-0.0012362096 -0.15308274 -0.0073041786
0.0010721209 -0.15292673 -0.0073309233
0.0028959184 -0.15312323 -0.0068324963
0.0041871844 -0.15299216 -0.0061908066
-0.0061933091 -0.15285215 -0.0041839173
-0.0052927923 -0.15293686 -0.005237482
0.0052678627 -0.15292868 -0.005256257
0.0061868443 -0.15327182 -0.0041920003
-0.0067588859 -0.15335526 -0.0030537872
0.0067693526 -0.15300085 -0.0030650347
-0.0073166713 -0.15279339 -0.0011616281
0.0073560295 -0.15288018 -0.00090519787
-0.0073082056 -0.15281799 0.0012099321
0.0073650181 -0.15315646 0.0008543302
-0.006862442 -0.15293314 0.002803185
0.0067960764 -0.15313195 0.0029845398
-0.0061993795 -0.15278693 0.0041752234
-0.0052781589 -0.15300222 0.0052219066
0.005197301 -0.15291952 0.0052935164
0.0061625331 -0.15322538 0.0042212796
-0.0042395759 -0.15302816 0.0061477851
-0.002917076 -0.15295091 0.0068193479
-0.00099224178 -0.15285154 0.0073427772
0.001043494 -0.15309303 0.0073340232
0.0032687464 -0.15292032 0.0066865468
0.0041945041 -0.15344749 0.0061838408
-0.0041895634 -0.15476196 -0.00618891
-0.0028007056 -0.15504567 -0.0068687233
-0.0010586946 -0.15470541 -0.0073325024
0.00096658757 -0.15500483 -0.0073479419
0.0030995114 -0.15496801 -0.0067528621
0.0042396015 -0.15491955 -0.0061488794
-0.006103185 -0.15523092 -0.0042965803
-0.0053541595 -0.15485741 -0.0051649949
0.0053770952 -0.15493739 -0.0051274542
0.0061857803 -0.15506339 -0.0041933358
-0.0067278668 -0.15501565 -0.0031785134
0.0067274566 -0.15497933 -0.0031664988
-0.007340048 -0.15476735 -0.0010035578
0.0073512378 -0.15510528 -0.0009427222
-0.0073188981 -0.15506518 0.0011397424
0.0073376605 -0.15507069 0.0010218869
-0.0068139336 -0.15501642 0.0029302342
0.0066662282 -0.15511177 0.0033236805
-0.0062020374 -0.15447485 0.0041718944
-0.0052749561 -0.15484089 0.0052314918
0.0050787944 -0.15474674 0.005451554
0.0062909015 -0.15521443 0.0040608104
-0.0042062569 -0.15476421 0.0061744335
-0.0029658235 -0.15509391 0.0068028714
-0.0009508573 -0.15515891 0.0073475982
0.001230655 -0.15490668 0.0073033501
0.003097391 -0.15478015 0.0067543024
0.0041894433 -0.15467852 0.006187886
-0.0043209675 -0.15697448 -0.0060837949
-0.0031718204 -0.15705924 -0.0067229276
-0.0010209344 -0.15707305 -0.0073393681
0.0010486997 -0.15659502 -0.007334982
0.0030358389 -0.15685101 -0.0067809368
0.0042176149 -0.15670167 -0.0061664754
-0.0061600781 -0.15708859 -0.0042254725
-0.005349848 -0.1571248 -0.0051849307
0.0052672159 -0.15699521 -0.0052251876
0.0062063052 -0.15682274 -0.0041676867
-0.006732286 -0.15691626 -0.0031400146
0.0067345016 -0.15688112 -0.0031515127
-0.0073255501 -0.15705571 -0.0011018021
0.0073343106 -0.15710187 -0.001047003
-0.007354422 -0.15702944 0.00092142395
0.0073393895 -0.1569639 0.0010166295
-0.0067130681 -0.15683082 0.0032066896
0.0067868233 -0.1572434 0.003013764
-0.0061672847 -0.1573666 0.0042153248
-0.0053185443 -0.15686285 0.005188351
0.0052943984 -0.15707248 0.0052133426
0.0061645531 -0.15693435 0.0042187413
-0.0041949619 -0.1571468 0.0061834613
-0.0032516012 -0.1571117 0.0066946154
-0.0011197465 -0.15733141 0.0073213722
0.001042807 -0.15705372 0.0073346323
0.0030287816 -0.15697019 0.0067679053
0.0041717123 -0.15628608 0.006202064
-0.004217071 -0.15886585 -0.0061669187
-0.0030794141 -0.15902911 -0.0067600221
-0.00098455988 -0.15921918 -0.0073440722
0.0012828029 -0.15919735 -0.007298029
0.0029468264 -0.15903312 -0.0068122889
0.0041956091 -0.15884455 -0.0061840876
-0.0062280153 -0.15902904 -0.0041405568
-0.0052879206 -0.15900289 -0.005213799
0.0052002701 -0.15896705 -0.0053272098
0.006152912 -0.15901186 -0.004234436
-0.006822315 -0.15897967 -0.0029137612
0.0068913843 -0.15896198 -0.0027320595
-0.0073286081 -0.15893649 -0.0010860624
0.0073565887 -0.15886694 -0.00090515887
-0.0073221475 -0.15924653 0.0011118953
0.0073472983 -0.15908873 0.00096653256
-0.0068060309 -0.15884791 0.0029559822
0.0068793362 -0.15885858 0.0027620511
-0.0061650812 -0.15905115 0.0042180736
-0.0053128935 -0.15894899 0.0051879841
0.0053157778 -0.1591389 0.0052070399
0.0061377119 -0.15905 0.0042522843
-0.0042546662 -0.15899062 0.0061356919
-0.0030384415 -0.15901181 0.0067690853
-0.0007657095 -0.15891558 0.0073785228
0.0011562342 -0.15906276 0.0073166243
0.0029326181 -0.15884759 0.0068158642
0.0042764284 -0.15880555 0.0061182822
-0.0042873574 -0.16143583 -0.0061106985
-0.0028576294 -0.16105352 -0.0068411995
-0.00096127298 -0.16080181 -0.0073488019
0.001088284 -0.16083497 -0.0073287478
0.0030572605 -0.16095372 -0.0067701312
0.0041546859 -0.16125789 -0.0062168357
-0.0061985017 -0.16136795 -0.0041774572
-0.0053577134 -0.16110447 -0.0051420671
0.0052870549 -0.16110089 -0.0052477946
0.0062108948 -0.16132724 -0.004161966
-0.0068194456 -0.16098478 -0.0029257711
0.0067351586 -0.16114195 -0.0031391149
-0.0073438189 -0.1610343 -0.00098973012
0.0073664971 -0.16082852 -0.00084609922
-0.0073271478 -0.16114275 0.0010941415
0.0073275873 -0.16078559 0.001091362
-0.0068221288 -0.16098052 0.0029177153
0.0068301782 -0.1610496 0.0028646244
-0.0061628432 -0.16082214 0.0042208638
-0.0054272655 -0.16089968 0.0050559007
0.005283705 -0.16089636 0.0052459002
0.0062330584 -0.16099767 0.0041330946
-0.004127441 -0.16135791 0.0062374631
-0.0030098041 -0.16101424 0.0067803413
-0.00087776809 -0.16099906 0.0073605864
0.0011137491 -0.1609686 0.007322744
0.0030829376 -0.16094773 0.0067634708
0.0042650062 -0.16107674 0.0061274129
-0.004238422 -0.16284284 -0.0061498517
-0.0031237542 -0.16316089 -0.0067404583
-0.00084316294 -0.16301206 -0.0073674591
0.00098772533 -0.16310011 -0.0073446343
0.0030646268 -0.16286942 -0.0067632892
0.0042392542 -0.16310538 -0.0061491872
-0.0061744312 -0.16289683 -0.0042075505
-0.0052518696 -0.16323593 -0.0052529671
0.0052438234 -0.16301136 -0.0052761589
0.0061518094 -0.16292715 -0.0042358297
-0.0067248549 -0.16285993 -0.0031558077
0.0067303744 -0.1628859 -0.0031474342
-0.0073756501 -0.16300561 -0.00078813988
0.0073373104 -0.16317858 -0.0010309597
-0.0073460303 -0.16318795 0.00097455044
0.0073456652 -0.16302311 0.00097169954
-0.0067215874 -0.16264653 0.0031679336
0.0068283067 -0.1630934 0.0029032454
-0.0061613428 -0.1633582 0.0042227302
-0.0055601243 -0.16303298 0.0049445322
0.0053796018 -0.16307925 0.0051508048
0.0061624162 -0.16318677 0.0042213886
-0.0041132951 -0.16303802 0.0062487745
-0.0030491203 -0.1631227 0.0067719095
-0.0010095853 -0.16287515 0.0073400023
0.00094588526 -0.16280001 0.0073500606
0.0028343175 -0.16294257 0.0068434603
0.0043325792 -0.16324975 0.0060733459
-0.004229214 -0.16505285 -0.0061572264
-0.0030071384 -0.16497728 -0.0067882319
-0.0011543528 -0.16487718 -0.0073174606
0.00088253646 -0.16512503 -0.0073598619
0.0031567637 -0.16512617 -0.0067272368
0.0041685347 -0.16507563 -0.0062057702
-0.0061043687 -0.16495903 -0.0042951358
-0.005358981 -0.16480468 -0.0051658377
0.0051384703 -0.16498211 -0.005384766
0.0061282939 -0.1647837 -0.0042652297
-0.0068204249 -0.16509981 -0.0029115835
0.0068643275 -0.16487899 -0.002811709
-0.0073932242 -0.16504741 -0.00067684363
0.0073451116 -0.16497608 -0.0009789404
-0.0073565943 -0.16500872 0.00090548594
0.0073335818 -0.16499241 0.0010466677
-0.0067590848 -0.16499481 0.0030771319
0.0068306536 -0.16492121 0.0028803737
-0.006253914 -0.16511221 0.0041070101
-0.0053252359 -0.16505738 0.0051875585
0.0051732026 -0.16494578 0.0053306995
0.0062048743 -0.16517961 0.0041683102
-0.0041977763 -0.16468406 0.0061811833
-0.0030166055 -0.16493396 0.0067815725
-0.0011454724 -0.16489628 0.0073177116
0.0011093095 -0.16494447 0.0073237303
0.0028849861 -0.16511934 0.0068336944
0.0041709049 -0.16502947 0.0062026791
-0.0041398858 -0.16685843 -0.0062286961
-0.0030162714 -0.16677751 -0.0067735808
-0.00092767284 -0.16693018 -0.0073533617
0.0010201755 -0.16699201 -0.0073395241
0.0031388076 -0.16709414 -0.0067401309
0.004130532 -0.1672703 -0.0062361797
-0.0061904397 -0.16672857 -0.0041875546
-0.0051969946 -0.16700232 -0.0053327857
0.0051423502 -0.16701043 -0.0053799036
0.006133737 -0.16696945 -0.0042584334
-0.0068614869 -0.16699064 -0.0028108782
0.0068307547 -0.16697551 -0.0028803931
-0.0073434059 -0.16698469 -0.00098752696
0.0073346933 -0.16680895 -0.0010475431
-0.0073334333 -0.16708595 0.0010539298
0.0073576649 -0.16713409 0.00090085826
-0.0068034227 -0.16719541 0.0029758187
0.0067877569 -0.16694051 0.0030135298
-0.0062250681 -0.16765834 0.0041430579
-0.0051760762 -0.16732724 0.0053383298
0.0051528313 -0.16685444 0.0053559979
0.0062240143 -0.1673516 0.0041443766
-0.0042869514 -0.16717748 0.0061098342
-0.0031837786 -0.16699599 0.0067202309
-0.0009941624 -0.16692331 0.0073418617
0.0010413602 -0.16704814 0.0073349695
0.0028902893 -0.16691834 0.0068345522
0.0042432584 -0.16695172 0.006144789
-0.0042302599 -0.16874515 -0.0061564036
-0.0028863789 -0.16891848 -0.0068316986
-0.0010097247 -0.16897766 -0.0073411427
0.00090555404 -0.16904348 -0.0073568677
0.0029304686 -0.16914038 -0.0068209665
0.0040642149 -0.16849436 -0.0062892386
-0.0061649526 -0.16900405 -0.0042194212
-0.0053082118 -0.16900416 -0.00522506
0.0051769288 -0.16900514 -0.0053548259
0.0061031817 -0.16912928 -0.0042966353
-0.0067078257 -0.16914557 -0.0031915423
0.0067718672 -0.16915171 -0.003062686
-0.0073332763 -0.16891088 -0.0010565217
0.0073542092 -0.16917512 -0.00092395704
-0.0073204222 -0.16894403 0.0011332051
0.0073129525 -0.16900027 0.0011770095
-0.0068621328 -0.16900159 0.0028027496
0.006796076 -0.16916206 0.0029861785
-0.0061761579 -0.16847713 0.0042041931
-0.0054102745 -0.16926937 0.0050904388
0.0054069618 -0.16895844 0.0051146536
0.0061485535 -0.16919775 0.0042386963
-0.0042256229 -0.16891505 0.0061588907
-0.0030240251 -0.16909134 0.006783227
-0.0010389736 -0.16883378 0.0073349411
0.00093054923 -0.16897038 0.0073524592
0.0028526131 -0.16897078 0.0068445038
0.0042276317 -0.16917455 0.0061572832
-0.0042286878 -0.1708933 -0.0061576697
-0.0027117028 -0.1712092 -0.0068978169
-0.0011255953 -0.17085835 -0.0073228925
0.0011404433 -0.17096034 -0.0073188781
0.0029976547 -0.17110348 -0.0067884005
0.0040950994 -0.17113002 -0.0062645399
-0.0061568595 -0.17083836 -0.0042295447
-0.005338144 -0.1710532 -0.0051714829
0.0054237368 -0.17079824 -0.0050874669
0.0061994311 -0.17122017 -0.0041763312
-0.0067694802 -0.17097096 -0.0030592806
0.0067796619 -0.17099978 -0.0030255248
-0.0073534837 -0.17097358 -0.00092855777
0.0073709548 -0.17111838 -0.00081790995
-0.0073614712 -0.17129451 0.00087673555
0.0073427702 -0.17116798 0.00099516776
-0.0067645092 -0.17099079 0.0030668587
0.0067559672 -0.17105778 0.0030901658
-0.0061769141 -0.17078279 0.0042032395
-0.005255633 -0.17060295 0.0052640666
0.0053475266 -0.17094386 0.0051577901
0.0061086044 -0.17101368 0.0042886259
-0.0041928161 -0.17112751 0.0061851279
-0.0030663598 -0.17094475 0.0067592147
-0.00097433478 -0.17079511 0.0073445439
0.0010285183 -0.17107177 0.007336067
0.0030206344 -0.17086798 0.0067845518
0.0042615496 -0.17107047 0.0061301421
-0.0041833739 -0.17333719 -0.0061939294
-0.0028547074 -0.17302273 -0.0068426579
-0.001115081 -0.17304459 -0.0073236148
0.00093513977 -0.17281525 -0.0073529719
0.0030766393 -0.17317541 -0.0067626005
0.0042652055 -0.1731215 -0.0061284625
-0.0062710084 -0.17230012 -0.0040868637
-0.0052921693 -0.17301215 -0.005234187
0.0053802421 -0.17298645 -0.0051380349
0.006177837 -0.17273463 -0.0042033298
-0.006779328 -0.17298935 -0.0030389167
0.006726698 -0.17315876 -0.0031602886
-0.0073693329 -0.17296053 -0.00082818663
0.0073131179 -0.17295796 -0.0011798228
-0.0073195542 -0.17310335 0.0011370607
0.0073133176 -0.17314328 0.0011800325
-0.0067709349 -0.17293492 0.0030598382
0.006844501 -0.17317536 0.0028642991
-0.0062089632 -0.17317268 0.0041631688
-0.0052309241 -0.17298013 0.005309328
0.0053274105 -0.1730814 0.0051904609
0.0061597875 -0.17293368 0.0042246399
-0.0041775843 -0.17304261 0.0061973063
-0.0028610518 -0.17255054 0.0068453043
-0.0010508406 -0.17304875 0.0073318807
0.00090890646 -0.17297666 0.007355331
0.0031667631 -0.17301144 0.006720833
0.0042120917 -0.17268007 0.0061697029
-0.0041612992 -0.17522633 -0.0062115947
-0.0029889699 -0.17499538 -0.0067958287
-0.0009701252 -0.17503598 -0.0073474562
0.00093603425 -0.17507721 -0.0073519032
0.0029287848 -0.17501116 -0.0068216082
0.0041670054 -0.1748822 -0.0062070293
-0.0061745038 -0.17552154 -0.0042075063
-0.005256522 -0.17506392 -0.005266774
0.0052084909 -0.17509617 -0.0053127767
0.0060778847 -0.17568253 -0.0043282802
-0.006782833 -0.17492603 -0.003020097
0.006743616 -0.17491136 -0.0031252587
-0.0073455335 -0.17487247 -0.00097892573
0.007338325 -0.17504545 -0.0010245729
-0.0073541198 -0.17509814 0.00092327269
0.0073571927 -0.1748399 0.00090380677
-0.0067961337 -0.17503822 0.0029873177
0.006833504 -0.17493924 0.0028858245
-0.0062268996 -0.17492351 0.0041407426
-0.0051889317 -0.17480226 0.0053107757
0.0052149198 -0.17494079 0.0052985037
0.0060931854 -0.17483948 0.0043078861
-0.0041138241 -0.17523219 0.0062483065
-0.003073652 -0.17507195 0.0067632231
-0.00072713336 -0.17481239 0.0073845568
0.00086426776 -0.17493753 0.007361663
0.0031663962 -0.17501384 0.0067228843
0.0042794682 -0.17533344 0.0061157909
-0.0042298138 -0.17708139 -0.0061567905
-0.0029196017 -0.17702837 -0.0068189101
-0.0009631901 -0.17681386 -0.0073479959
0.00084344269 -0.17672761 -0.0073669297
0.0030118248 -0.17718975 -0.006788047
0.0041804179 -0.17721929 -0.0061963075
-0.0062665297 -0.17659479 -0.0040924777
-0.0052832495 -0.17672145 -0.0052509122
0.0051752427 -0.17699088 -0.0053596976
0.0060896706 -0.17707369 -0.0043135528
-0.0067789932 -0.17709097 -0.0030236081
0.0067626713 -0.1768647 -0.0030559243
-0.0073397816 -0.17683357 -0.001015347
0.0073242853 -0.17686801 -0.0011101639
-0.0073298411 -0.17690732 0.0010697094
0.0073602698 -0.17711623 0.00087301002
-0.006751244 -0.17714614 0.003111193
0.0068534501 -0.17679182 0.0028155467
-0.0061966693 -0.17709105 0.0041785231
-0.0052970801 -0.17701222 0.0052213594
0.0051967166 -0.17687079 0.005299516
0.0061292355 -0.17680545 0.0042628166
-0.0043109148 -0.17672865 0.0060906284
-0.0030380574 -0.1770824 0.0067770975
-0.0010522364 -0.17698324 0.0073331175
0.0010606566 -0.17703839 0.0073318877
0.0029818513 -0.1770626 0.0067980946
0.0041813175 -0.17678434 0.0061943056
-0.0042026732 -0.17895599 -0.0061785104
-0.0028725055 -0.17891003 -0.0068383338
-0.00091047172 -0.17877771 -0.0073568877
0.00081241474 -0.17887665 -0.0073715365
0.0034085743 -0.17919309 -0.0066391104
0.0041825818 -0.1792561 -0.0061945836
-0.0061605587 -0.17859139 -0.0042249477
-0.0051990105 -0.17899573 -0.0053158882
0.0053611067 -0.17877959 -0.0051672636
0.006256314 -0.17858599 -0.0041052545
-0.0067667151 -0.17887416 -0.0030346073
0.0067432239 -0.17896016 -0.0031184466
-0.007363867 -0.179092 -0.00086036359
0.0073252553 -0.17921399 -0.0011022614
-0.0073184716 -0.17900759 0.0011464356
0.0073606702 -0.1788571 0.00088177441
-0.0067560747 -0.17883612 0.0030754046
0.0068218457 -0.17897865 0.0029127551
-0.0062158899 -0.17927045 0.0041544889
-0.0049782381 -0.17915285 0.005526592
0.0052589378 -0.17910177 0.0052571315
0.0061847134 -0.17907125 0.0041934606
-0.0041615437 -0.17833962 0.0062101204
-0.0031813281 -0.17897888 0.0067154239
-0.0012049092 -0.17899272 0.0073091039
0.00094733469 -0.17889483 0.0073497733
0.0031383852 -0.17897311 0.0067420066
0.0042200712 -0.17932074 0.006163294
-0.0041456101 -0.18076116 -0.0062241661
-0.0028990223 -0.18098588 -0.0068313354
-0.0012309781 -0.18088628 -0.0073049245
0.00088721304 -0.18121505 -0.0073605701
0.0029025998 -0.18106624 -0.0068310522
0.0041917288 -0.18106455 -0.0061872727
-0.0061633158 -0.18067273 -0.0042215106
-0.0053137867 -0.18097834 -0.0051926877
0.0052393125 -0.18099698 -0.0052557006
0.0062478753 -0.18084918 -0.0041158115
-0.006803086 -0.18084428 -0.0029729474
0.006753027 -0.18112145 -0.0030982706
-0.0073451656 -0.18098418 -0.00097518723
0.0073316321 -0.18103297 -0.0010626006
-0.0073268777 -0.181124 0.0010913643
0.0073209163 -0.18090153 0.0011240449
-0.00670873 -0.18099362 0.0031975748
0.0067556263 -0.18098754 0.0031044397
-0.0061620935 -0.18083896 0.004221729
-0.0052187187 -0.18103142 0.0052906671
0.0052407859 -0.18094535 0.005276354
0.0061952602 -0.18065369 0.0041802712
-0.0042093135 -0.18109958 0.0061718933
-0.0031665736 -0.18095486 0.0067250235
-0.00098667783 -0.18085322 0.0073429826
0.0010870005 -0.18072921 0.0073270802
0.00305722 -0.18115471 0.0067678159
0.0041879127 -0.18097383 0.0061890148
-0.0042112358 -0.18334731 -0.0061716745
-0.0032210615 -0.18304472 -0.0067100278
-0.00095296249 -0.18307161 -0.0073501952
0.0011527266 -0.18301502 -0.0073179253
0.0029546875 -0.18301962 -0.0068065398
0.0041906135 -0.1826885 -0.006188171
-0.0061428584 -0.18311885 -0.0042470894
-0.005241591 -0.18284541 -0.0052736672
0.0053433552 -0.1829576 -0.0051860074
0.0061533907 -0.18337803 -0.0042339261
-0.0068336423 -0.18289907 -0.0028950609
0.0067248703 -0.18306503 -0.0031815313
-0.0073647085 -0.18294899 -0.00085074437
0.0073286565 -0.18298128 -0.0010769669
-0.0073381057 -0.18308255 0.001024663
0.0073428466 -0.18285972 0.00098535314
-0.0067525185 -0.1830163 0.003110345
0.0068137874 -0.1828523 0.0029476325
-0.0062131374 -0.18311647 0.0041579148
-0.0052740262 -0.18279706 0.0052390513
0.0053764819 -0.1829624 0.0051401169
0.0061381138 -0.1828066 0.0042516957
-0.0042303768 -0.18296465 0.0061550364
-0.0030513497 -0.1828897 0.0067734774
-0.00090424268 -0.18319674 0.0073565617
0.00093295053 -0.18285325 0.0073520294
0.0030922226 -0.18272464 0.0067550857
0.0042582816 -0.18308584 0.0061327121
-0.0042630737 -0.18517807 -0.0061302115
-0.0030320927 -0.18510041 -0.0067790947
-0.001062651 -0.18517421 -0.0073319916
0.0010926764 -0.18498755 -0.0073279715
0.0031400777 -0.1848653 -0.0067416788
0.0042857281 -0.18551779 -0.0061120894
-0.0061203386 -0.18477082 -0.0042752461
-0.0052185128 -0.18537158 -0.0052889963
0.0052694557 -0.1849836 -0.0052391775
0.0061404197 -0.18523371 -0.0042501464
-0.0068372306 -0.18493432 -0.0028770207
0.0067360182 -0.18500912 -0.003160049
-0.0073641408 -0.18510707 -0.00086110673
0.0073500019 -0.18485981 -0.00095065311
-0.0073336777 -0.18479639 0.001038635
0.0073735225 -0.1849519 0.00080035563
-0.0067745927 -0.18517584 0.0030368892
0.0067768195 -0.1851036 0.0030479634
-0.0061105289 -0.18536843 0.0042861677
-0.005375789 -0.18489024 0.0051404084
0.0050130263 -0.18532979 0.0055003781
0.0061428659 -0.184936 0.0042457469
-0.0040852521 -0.18510351 0.0062711281
-0.002924891 -0.18499169 0.0068176691
-0.00085756666 -0.18506713 0.0073634535
0.00097325107 -0.18510976 0.0073440317
0.0027612858 -0.18488839 0.0068778843
0.004147701 -0.18568099 0.0062211673
-0.0040464043 -0.18620774 -0.0063035511
-0.0027368614 -0.18707979 -0.0068923593
-0.00083028391 -0.18692902 -0.0073695788
0.0011872231 -0.18682849 -0.0073095099
0.0030934436 -0.18710694 -0.0067489515
0.0041810637 -0.18719903 -0.0061958269
-0.0061543197 -0.18705183 -0.0042327768
-0.0053390535 -0.18690258 -0.0051761335
0.0052242181 -0.18705803 -0.0052885236
0.0061507444 -0.18698126 -0.0042372476
-0.0067019747 -0.18713869 -0.003240868
0.0067871958 -0.18677221 -0.0030167755
-0.0073433369 -0.18680564 -0.00099287962
0.0073082927 -0.18664572 -0.0012092825
-0.0073197754 -0.18693772 0.0011320532
0.0073541794 -0.18679278 0.00091844593
-0.0066708056 -0.18704657 0.0032913401
0.0067663286 -0.18695575 0.0030615565
-0.0061467709 -0.18704666 0.0042408598
-0.0053116204 -0.1870365 0.0052047619
0.005285712 -0.18689249 0.0052290461
0.0061506904 -0.18631619 0.0042359633
-0.004103438 -0.18663098 0.0062565743
-0.0029186711 -0.18691818 0.0068221013
-0.00098994991 -0.18698239 0.0073430152
0.00091183669 -0.18709251 0.0073549184
0.0031208419 -0.18694535 0.0067416532
0.004220508 -0.18712266 0.0061629158
-0.0042059943 -0.1887276 -0.0061758882
-0.0031443068 -0.18907972 -0.0067293253
-0.0013952074 -0.18911351 -0.0072791521
0.0011266466 -0.18906112 -0.0073221996
0.0031769555 -0.18888974 -0.0067200046
0.0041840989 -0.18891904 -0.006193405
-0.0061580082 -0.18923879 -0.0042281756
-0.0051307292 -0.18901184 -0.0053631999
