# .PCD v0.7 - Point Cloud Data file format
VERSION 0.7
FIELDS x y z
SIZE 4 4 4
TYPE F F F
COUNT 1 1 1
WIDTH 1207
HEIGHT 1
VIEWPOINT 0 0 0 1 0 0 0
POINTS 1207
DATA ascii
-0.0043152235 -0.031806432 -0.006087936
-0.0030401142 -0.030990083 -0.0067781545
-0.00099081837 -0.030959776 -0.0073436671
0.00096366229 -0.031046165 -0.0073479544
0.0029585888 -0.030975185 -0.0068096835
0.0042990623 -0.031132793 -0.0061008632
-0.0061568478 -0.030988835 -0.0042290525
-0.005324591 -0.031037828 -0.005195586
0.0053818761 -0.031135313 -0.0051237135
0.0061251037 -0.031014759 -0.0042687338
-0.0068298727 -0.031004885 -0.0028831076
0.006804402 -0.031169809 -0.0029627893
-0.0073203295 -0.031012269 -0.0011369908
0.0073306505 -0.030922567 -0.0010726558
-0.0073607205 -0.031082502 0.00088198518
0.0073260441 -0.031281691 0.0010919913
-0.0067731258 -0.030927729 0.0030563422
0.0068190559 -0.030990118 0.0029279368
-0.0061051892 -0.031179506 0.0042934008
-0.0052378876 -0.031003796 0.0052759708
0.0054301214 -0.030798461 0.0050482294
0.0061670244 -0.031496897 0.0042161057
-0.0042566578 -0.03157372 0.0061345594
-0.0030750306 -0.030906579 0.006759976
-0.00082562177 -0.030849939 0.0073695276
0.00088742882 -0.030807696 0.0073597687
0.0029271045 -0.030883621 0.006821482
0.0041946047 -0.031289078 0.0061842031
-0.0042554024 -0.033039201 -0.0061357976
-0.0028785327 -0.033055641 -0.0068369685
-0.0010033855 -0.032819558 -0.0073413244
0.0010800899 -0.033037178 -0.0073290798
0.003211088 -0.033061501 -0.006711924
0.0042675156 -0.032892052 -0.0061261072
-0.0060121622 -0.032525744 -0.0044099153
-0.0053725014 -0.033264365 -0.0051413877
0.0051218197 -0.033036433 -0.0053719277
0.0061212247 -0.033128943 -0.0042735902
-0.0067742867 -0.033012062 -0.0030385773
0.0067743352 -0.032956347 -0.0030359153
-0.0073475409 -0.03305991 -0.00096569292
0.0073477011 -0.033036035 -0.00095702294
-0.0073641739 -0.03273727 0.0008548327
0.0073498203 -0.032921221 0.00095101935
-0.006762722 -0.032868676 0.0030883334
0.0067712772 -0.032990918 0.0030502388
-0.0062225228 -0.033082064 0.0041467268
-0.0052191527 -0.033013929 0.0052928906
0.0053415028 -0.033085078 0.0051836483
0.0061503928 -0.032956269 0.00423689
-0.004286645 -0.033109017 0.0061105643
-0.0028559961 -0.032932151 0.0068424987
-0.0011077892 -0.033230618 0.0073249666
0.0010773254 -0.032895837 0.0073297778
0.0031282513 -0.032999523 0.0067385673
0.0042906739 -0.032915242 0.0061073415
-0.0042246804 -0.035268854 -0.0061603831
-0.0032975655 -0.035131443 -0.0066766371
-0.00088264403 -0.035017215 -0.0073602828
0.001198428 -0.034893561 -0.0073105246
0.0034533099 -0.035019882 -0.0066026188
0.0041293902 -0.035389263 -0.006236617
-0.0061755832 -0.03565675 -0.0042056502
-0.0051844707 -0.035130166 -0.0053398618
0.0051420145 -0.034786105 -0.005377763
0.006188571 -0.035229128 -0.0041894144
-0.0067629139 -0.034924947 -0.003061702
0.0067754495 -0.034940649 -0.0030404271
-0.0073188371 -0.034931153 -0.001142781
0.0073337629 -0.034908082 -0.0010406045
-0.0073489901 -0.034921184 0.00095626881
0.0073268125 -0.035156958 0.0010967265
-0.0068431874 -0.035178054 0.0028611822
0.0067714276 -0.035024986 0.0030625209
-0.006108162 -0.035132065 0.0042896704
-0.0053587728 -0.035005283 0.005152578
0.005343704 -0.034570556 0.0051603992
0.00611775 -0.034759901 0.0042776871
-0.004093511 -0.03494525 0.0062650638
-0.0029866518 -0.034850299 0.0067923986
-0.0010357774 -0.034691464 0.0073360894
0.0008071785 -0.035142336 0.0073724235
0.0032563407 -0.035047326 0.0066891918
0.0040161405 -0.035069134 0.0063269609
-0.0041744239 -0.036895666 -0.0062005948
-0.0034332951 -0.037073471 -0.0066143246
-0.00094858371 -0.036878116 -0.0073503582
0.0012064221 -0.036979418 -0.0073092268
0.0029164695 -0.036781993 -0.0068256441
0.0043007853 -0.037725158 -0.0060995086
-0.006186964 -0.037041694 -0.0041914294
-0.0054364027 -0.036806203 -0.0050900467
0.0056282091 -0.036923975 -0.0048898719
0.0061844364 -0.03677262 -0.0041945875
-0.0068639694 -0.036837749 -0.0028102167
0.0067118453 -0.036750481 -0.0032150808
-0.0073468387 -0.037068527 -0.0009667328
0.0073315254 -0.036829405 -0.001067139
-0.0073535787 -0.036917776 0.00092720008
0.0073386785 -0.037067749 0.0010144257
-0.0068594036 -0.037050318 0.0028251817
0.006810192 -0.03717117 0.0029548684
-0.006188124 -0.036584061 0.0041897134
-0.0052736225 -0.036842234 0.0052447272
0.005055388 -0.037059095 0.0054548294
0.0062001036 -0.036492158 0.0041747382
-0.0042641154 -0.036601722 0.0061285752
-0.0027549616 -0.037006386 0.0068815099
-0.00087512773 -0.037268449 0.0073616868
0.00097303238 -0.037046295 0.0073462301
0.0029132708 -0.036997881 0.0068226578
0.0041624126 -0.03677199 0.0062099369
-0.0042351997 -0.039518796 -0.006151983
-0.0026443396 -0.039168276 -0.0069252807
-0.0010411507 -0.03870381 -0.0073351287
0.00082356291 -0.038838122 -0.0073689604
0.0031121045 -0.038795155 -0.0067458064
0.0043609152 -0.038626231 -0.0060514081
-0.0062700324 -0.039600316 -0.0040876027
-0.0052758944 -0.03916068 -0.0052390615
0.0054243817 -0.039175179 -0.0050784186
0.0062538846 -0.039059501 -0.0041077863
-0.0068488596 -0.038915571 -0.0028417537
0.0068131504 -0.03918324 -0.0029402848
-0.0073389257 -0.038999502 -0.0010185407
0.0073150662 -0.039184291 -0.0011643976
-0.0073483437 -0.039073784 0.00095814891
0.0073517002 -0.038997442 0.00093908695
-0.0068254196 -0.039070778 0.0029238532
0.0067052199 -0.038920194 0.0032104393
-0.0061986549 -0.039314751 0.0041765394
-0.0050513488 -0.038864486 0.0054623964
0.0053046048 -0.039050557 0.0051989248
0.0061363955 -0.038756199 0.0042543663
-0.0041234186 -0.039205216 0.0062411232
-0.0033199023 -0.038818836 0.0066657159
-0.0011094415 -0.038832709 0.0073241722
0.0010852583 -0.038968757 0.007327843
0.0030230568 -0.038675677 0.0067858309
0.0042382283 -0.039039269 0.0061492766
-0.0042767888 -0.040830329 -0.0061187162
-0.0029586034 -0.041006766 -0.0068009747
-0.00094590825 -0.041166451 -0.00735034
0.0012206738 -0.041066539 -0.0073067038
0.0027246734 -0.040866241 -0.0068929424
0.0041998699 -0.041231379 -0.0061802533
-0.0061547738 -0.040753044 -0.0042316802
-0.0051917513 -0.040924139 -0.0053229709
0.0052980226 -0.041110091 -0.0052408325
0.0060824146 -0.040452342 -0.0043221288
-0.0068798112 -0.041081116 -0.0027644462
0.006802923 -0.041098054 -0.0029703924
-0.0073738326 -0.04100718 -0.00079507369
0.0073179635 -0.041002329 -0.0011496913
-0.007338197 -0.041350979 0.0010167976
0.0073323697 -0.041033063 0.0010615116
-0.0068490426 -0.040983252 0.0028513148
0.0067308908 -0.041023456 0.0031302643
-0.0062374002 -0.040982362 0.0041281022
-0.0052574081 -0.040819094 0.0052690846
0.0052317814 -0.040846396 0.0052833883
0.0061419345 -0.040784486 0.004247434
-0.0041883257 -0.041347548 0.0061891899
-0.0029844323 -0.041176841 0.0068003233
-0.0010530769 -0.040955815 0.0073334249
0.00087755005 -0.040754095 0.0073608682
0.0030470763 -0.041060463 0.0067711738
0.0041451761 -0.041317925 0.0062237098
-0.0043610125 -0.042734712 -0.0060513448
-0.0028368232 -0.043245997 -0.0068550124
-0.0011436268 -0.043015398 -0.0073195826
0.00087259349 -0.043058481 -0.0073623792
0.0028620258 -0.043086927 -0.0068457262
0.0041616382 -0.043165289 -0.0062108464
-0.0061423131 -0.04290124 -0.004247264
-0.0052320748 -0.043115202 -0.0052625919
0.0052657854 -0.042762376 -0.0052700215
0.0061402628 -0.043701991 -0.0042498298
-0.0067928969 -0.042851325 -0.0029874772
0.0067551844 -0.042676635 -0.0030976231
-0.0073457602 -0.042924583 -0.00097518676
0.0073903217 -0.043220781 -0.00068443629
-0.0073771006 -0.043316051 0.00077820435
0.0073466678 -0.042970266 0.00097094529
-0.0067624515 -0.042843699 0.0030962396
0.006679811 -0.042988356 0.0032843419
-0.0062223906 -0.042864352 0.0041468567
-0.005180825 -0.043201875 0.0053269714
0.0052546943 -0.043077756 0.0052481112
0.0061813407 -0.043222785 0.0041981684
-0.0042167278 -0.043112073 0.0061664623
-0.0031136284 -0.042904153 0.0067456472
-0.00096188067 -0.043046713 0.0073472788
0.0011464487 -0.043157544 0.0073174909
0.0028995173 -0.043148741 0.0068308865
0.0042461529 -0.043038119 0.0061429217
-0.0041504819 -0.044936467 -0.0062197768
-0.0028835679 -0.044922717 -0.0068327119
-0.0011549213 -0.044863481 -0.0073178061
0.00089892128 -0.044592708 -0.0073582274
0.0031170677 -0.045143466 -0.0067480216
0.0041446853 -0.045106612 -0.0062244148
-0.0061709555 -0.045572609 -0.0042114719
-0.005418703 -0.045043506 -0.0050971
0.0053923312 -0.0451767 -0.0051431814
0.0062031173 -0.04453909 -0.0041712644
-0.0067492109 -0.044831295 -0.0031021056
0.0068572313 -0.044958957 -0.0028246038
-0.0073519051 -0.044875778 -0.00093809329
0.0073548853 -0.044877198 -0.00091921887
-0.0073454496 -0.044953961 0.00097792002
0.0073774345 -0.044973712 0.00077607896
-0.006886987 -0.045073569 0.0027492074
0.0067570321 -0.045077208 0.0030887171
-0.0060854368 -0.044533424 0.0043180431
-0.0053742677 -0.045063224 0.005130155
0.0050286218 -0.045058548 0.0054913936
0.0061384216 -0.045188528 0.0042518093
-0.0041557532 -0.045066714 0.0062152348
-0.003221862 -0.044933189 0.0067011635
-0.0010014946 -0.045028433 0.0073411977
0.00094295782 -0.045303419 0.0073503009
0.0032035743 -0.044967834 0.0067069521
0.0041765813 -0.045112554 0.006198572
-0.0041489275 -0.046883941 -0.006221028
-0.0029942868 -0.047037642 -0.0067948606
-0.0012202899 -0.047004148 -0.0073059485
0.000874858 -0.046871066 -0.0073614628
0.0029892949 -0.047037132 -0.0067962962
0.0042281076 -0.047071099 -0.0061576851
-0.0060950527 -0.04704456 -0.0043063546
-0.0052485387 -0.047043473 -0.0052804216
0.0051431139 -0.047315855 -0.0053644599
0.0062100878 -0.047016874 -0.0041625616
-0.0068141995 -0.046878994 -0.0029383753
0.0067928075 -0.046944275 -0.0029948587
-0.0073559666 -0.047121853 -0.00090775167
0.0072975066 -0.046711151 -0.0012805864
-0.0073468494 -0.04716365 0.000969783
0.0072977515 -0.046966374 0.0012647114
-0.0068051973 -0.047144402 0.0029670913
0.0067455196 -0.046977405 0.0031182966
-0.0061955107 -0.047003936 0.0041804411
-0.0049419426 -0.047088485 0.0055820746
0.0051956959 -0.047085214 0.0053394279
0.0062703937 -0.047594383 0.0040868362
-0.0042183097 -0.047046695 0.0061651822
-0.0031576958 -0.047126364 0.0067266449
-0.001427695 -0.047053393 0.0072725597
0.00083257555 -0.047038846 0.00736837
0.0031927689 -0.047016688 0.006713266
0.0043513579 -0.046972811 0.0060587437
-0.0041401773 -0.048614096 -0.0062280344
-0.0028903 -0.048841286 -0.0068318653
-0.00076110027 -0.049118008 -0.0073800036
0.0011628757 -0.048934866 -0.0073148781
0.0028690312 -0.049061205 -0.0068384828
0.0042931386 -0.049158193 -0.0061056674
-0.0060713082 -0.049100138 -0.0043360437
-0.0052378774 -0.048887182 -0.005259804
0.005137838 -0.048841253 -0.0053665987
0.0061069787 -0.049267646 -0.0042914553
-0.0066934028 -0.049084388 -0.0032510413
0.0068152361 -0.048865657 -0.002944536
-0.007371142 -0.049235404 -0.00081627775
0.0073379371 -0.048936777 -0.0010148712
-0.0073574148 -0.048777938 0.00090286398
0.0073126629 -0.049057707 0.0011724107
-0.006868571 -0.048799112 0.0027959154
0.0067343567 -0.048867043 0.0031589991
-0.0061537838 -0.048972629 0.0042325929
-0.0054300628 -0.048988942 0.0050664688
0.0053216526 -0.048966851 0.0051855906
0.006100514 -0.048767768 0.004299181
-0.004272514 -0.048905138 0.0061218119
-0.0030436099 -0.049052931 0.0067749834
-0.00098900229 -0.048827808 0.0073436648
0.0012307547 -0.049107715 0.0073040631
0.0029906302 -0.049230032 0.0067970124
0.0043848846 -0.04874317 0.006031916
-0.0042264722 -0.050578058 -0.0061590057
-0.0029974792 -0.050783925 -0.0067958497
-0.00089718477 -0.051003035 -0.007358199
0.0010113233 -0.050932866 -0.0073405015
0.0029670591 -0.050955243 -0.0067954068
0.0042143031 -0.050836049 -0.0061687422
-0.006200884 -0.051107235 -0.0041740807
-0.0052477745 -0.051097561 -0.0052846898
0.0051878388 -0.051163904 -0.0053356467
0.0061830645 -0.051310416 -0.0041963556
-0.0067408541 -0.051197264 -0.0031376791
0.0067970031 -0.05104769 -0.0029820402
-0.0073540169 -0.051074509 -0.00092323945
0.0073283962 -0.050923873 -0.0010833597
-0.0072998768 -0.05118262 0.0012598803
0.0073722205 -0.050767556 0.00080908416
-0.0068432847 -0.050902732 0.0028781616
0.006686761 -0.051080864 0.0032810662
-0.0062333765 -0.051042568 0.004133095
-0.0051587583 -0.050802387 0.0053368397
0.0053912285 -0.051270347 0.0051036687
0.0061854976 -0.051420581 0.0041929418
-0.0043568779 -0.051111046 0.0060543129
-0.0029663304 -0.050841041 0.0068049338
-0.0012041673 -0.051123947 0.0073084217
0.00088506029 -0.050862275 0.0073586879
0.0030615747 -0.051001966 0.0067642471
0.0040316219 -0.051777579 0.0063145147
-0.0043383283 -0.052875236 -0.0060695293
-0.003049474 -0.052924495 -0.0067739249
-0.00106693 -0.053055823 -0.0073305168
0.0012221459 -0.052858979 -0.0073062396
0.0028247843 -0.053017903 -0.0068575977
0.0042595034 -0.052706514 -0.0061325883
-0.0061456892 -0.052835587 -0.0042430805
-0.0052816747 -0.052991249 -0.0052254638
0.0055246656 -0.053121258 -0.0049745338
0.006120007 -0.053335451 -0.0042751846
-0.0066855932 -0.052909773 -0.0032411625
0.006766608 -0.053102955 -0.0030709219
-0.0073500476 -0.053091217 -0.00094901351
0.0073328898 -0.053004641 -0.0010585594
-0.0073715644 -0.052844025 0.00081323297
0.0073040226 -0.05305497 0.0012410015
-0.0068508871 -0.053080715 0.0028581992
0.0068006176 -0.053148851 0.0029760674
-0.0061407909 -0.052984472 0.0042488193
-0.005206285 -0.052888136 0.0052958168
0.0051342095 -0.052986864 0.0053571197
0.0062138471 -0.053033814 0.0041574989
-0.0042442977 -0.053006031 0.00614437
-0.0029214427 -0.053124245 0.0068171262
-0.00096503529 -0.052924726 0.0073474357
0.00092614221 -0.053185966 0.007353575
0.0029499589 -0.052919447 0.0068085915
0.0041336613 -0.052432012 0.0062328819
-0.0042184424 -0.05483491 -0.0061654449
-0.0028149742 -0.055020332 -0.0068585514
-0.0010162697 -0.054921046 -0.0073388866
0.0011228472 -0.0550263 -0.0073219785
0.0032004826 -0.055021457 -0.006712365
0.0040625324 -0.055674415 -0.0062901755
-0.00617202 -0.055469371 -0.0042101769
-0.0050507491 -0.054792747 -0.0054621808
0.0049897726 -0.055004779 -0.0055015236
0.0062892232 -0.055439688 -0.0040636719
-0.0067709722 -0.054910623 -0.0030495073
0.0067970287 -0.05519563 -0.0029901685
-0.0073429118 -0.054939698 -0.00098571007
0.0073690531 -0.055119321 -0.0008260156
-0.0073324158 -0.054883111 0.0010543693
0.0073719919 -0.05486216 0.00081051822
-0.0068554976 -0.055151418 0.0028462166
0.0067061828 -0.05483513 0.0032370943
-0.0061866902 -0.055155441 0.0041914382
-0.0051042973 -0.05520688 0.0054132487
0.0053446866 -0.05480345 0.0051732576
0.0062206346 -0.05510021 0.0041490076
-0.0042345873 -0.054493338 0.0061521325
-0.0031377957 -0.055009156 0.0067388569
-0.00098529039 -0.054963447 0.0073442296
0.0011330521 -0.054913081 0.007320303
0.0029134459 -0.054964535 0.006822851
0.0041988669 -0.054571919 0.0061807088
-0.0041392664 -0.056746714 -0.006228792
-0.0030132718 -0.057214789 -0.0067803417
-0.0012041267 -0.056759559 -0.0073100799
0.0010461013 -0.057210051 -0.0073350342
0.0030692806 -0.056982175 -0.006760532
0.0041982131 -0.056859393 -0.0061816359
-0.006130869 -0.057185885 -0.0042616213
-0.0053236233 -0.056901425 -0.0051902286
0.0052809012 -0.057116304 -0.0052218754
0.0060881712 -0.057229295 -0.004314993
-0.0067042895 -0.057021961 -0.0032404496
0.0068052448 -0.056882914 -0.0029611702
-0.0073225405 -0.057068553 -0.0011187231
0.0073273615 -0.057004686 -0.0010908429
-0.0073382561 -0.057250414 0.0010241736
0.0073263347 -0.05708205 0.0010942495
-0.0068393028 -0.057203103 0.0028723597
0.0068637012 -0.05695923 0.002806833
-0.0061225272 -0.056920078 0.0042716358
-0.0053145918 -0.056759518 0.0051919944
0.005081661 -0.057132874 0.0054159905
0.0061444147 -0.056987472 0.0042442754
-0.0040931921 -0.056527898 0.0062652417
-0.0031259523 -0.056951813 0.0067343307
-0.0010751019 -0.057048645 0.0073292041
0.0011140333 -0.056993678 0.0073236078
0.0030022832 -0.057187192 0.0067898519
0.0041131079 -0.056513194 0.0062493091
-0.0041356585 -0.059086833 -0.0062316875
-0.002935021 -0.059023343 -0.0068108859
-0.00088371214 -0.059114709 -0.0073600602
0.0010842159 -0.058940068 -0.0073281471
0.0030589877 -0.058963448 -0.0067715449
0.0042091752 -0.059005905 -0.006172874
-0.0062157493 -0.058619644 -0.0041555264
-0.0052630552 -0.05906469 -0.0052528
0.0050730444 -0.059147127 -0.0054172752
0.0062454385 -0.059586525 -0.0041184174
-0.0067973961 -0.058942411 -0.0029934703
0.0067453049 -0.058947075 -0.0031232131
-0.0073147127 -0.059020005 -0.0011642214
0.0073800609 -0.059003409 -0.00075732917
-0.0073583503 -0.058931228 0.00089447532
0.0073595378 -0.05890454 0.00088937639
-0.0068178 -0.059083093 0.0029365805
0.0067553683 -0.059238888 0.0030918673
-0.0062088035 -0.058581721 0.004163784
-0.0052994015 -0.058934264 0.0052057817
0.005145777 -0.059049778 0.0053600962
0.0060907891 -0.059409034 0.004311299
-0.004150562 -0.058693346 0.0062193377
-0.0030106842 -0.058908891 0.0067846463
-0.00094867841 -0.0589942 0.0073499964
0.00095245265 -0.058588047 0.0073489146
0.0030392502 -0.059034541 0.0067762765
0.0042293337 -0.058911406 0.0061563202
-0.0041761245 -0.061222844 -0.0061993217
-0.0030554214 -0.061123174 -0.006767618
-0.0011493491 -0.061152462 -0.0073178303
0.0010856072 -0.060916532 -0.0073273527
0.0030774348 -0.060755849 -0.0067604329
0.004161926 -0.06140919 -0.0062106815
-0.0060817972 -0.060872443 -0.0043229735
-0.0052809692 -0.060875956 -0.005237354
0.0052741827 -0.060970474 -0.0052372273
0.0061305366 -0.061196383 -0.0042620506
-0.0067735338 -0.061005663 -0.0030586526
0.0068497299 -0.060727 -0.0028402188
-0.0073415497 -0.061243899 -0.0010033061
0.0073527512 -0.060904685 -0.00093279459
-0.0072944192 -0.06106621 0.0012930087
0.0073633697 -0.061267879 0.00086510461
-0.0067783142 -0.060827479 0.0030418467
0.0067341798 -0.061123442 0.0031377238
-0.0060551874 -0.061952051 0.004355791
-0.0053734411 -0.06085534 0.005137796
0.0055589513 -0.060889635 0.0049503502
0.006180713 -0.061055712 0.0041988883
-0.0042465972 -0.060692351 0.0061425027
-0.0031121534 -0.061000697 0.0067450199
-0.0010324335 -0.061156202 0.0073360889
0.00094719778 -0.061051082 0.0073502203
0.0028201572 -0.061127029 0.0068607735
0.0042226566 -0.060462255 0.0061616553
-0.004164021 -0.063055396 -0.0062090121
-0.0029692771 -0.063163161 -0.0067993747
-0.001046842 -0.063046843 -0.0073349364
0.0012628003 -0.062990777 -0.0072985501
0.0028126836 -0.06294436 -0.0068589584
0.0043964242 -0.063219123 -0.0060230894
-0.0062463852 -0.062559888 -0.0041172458
-0.0051810476 -0.062926568 -0.00532215
0.0052401847 -0.062872313 -0.0052697854
0.0061510527 -0.062651359 -0.0042364122
-0.0068612001 -0.063042566 -0.0028137609
0.0068120677 -0.063001104 -0.002939828
-0.0073231477 -0.0632881 -0.0011146317
0.0073231524 -0.063070089 -0.0011186721
-0.0073614698 -0.062550887 0.00087713223
0.0073651033 -0.06269785 0.00085411605
-0.0067948685 -0.06307812 0.0030058969
0.006764737 -0.062959321 0.003042642
-0.0061769066 -0.062916353 0.0042036399
-0.0052591083 -0.062927909 0.0052401489
0.0052829487 -0.063000806 0.005218267
0.0062303077 -0.062849842 0.0041368874
-0.0043061837 -0.063115612 0.0060948245
-0.0032085909 -0.063194335 0.0067144646
-0.0010632457 -0.062925927 0.007331891
0.0010734427 -0.063142531 0.0073282337
0.0030403342 -0.063071787 0.0067710974
0.0041351416 -0.062949978 0.0062316586
-0.0043174103 -0.064945243 -0.0060863071
-0.0030009313 -0.064649418 -0.0067875329
-0.00087527826 -0.06484659 -0.0073619564
0.0011219085 -0.064925313 -0.0073227505
0.0028005298 -0.06534902 -0.0068646385
0.004231404 -0.065300375 -0.0061551142
-0.0061107622 -0.064879961 -0.0042867824
-0.0051800096 -0.065037966 -0.0053127594
0.0051229061 -0.06515751 -0.005413122
0.0061835456 -0.064428896 -0.0041958024
-0.0067999484 -0.064882249 -0.0029741384
0.0068006562 -0.06504374 -0.0029691884
-0.0073322267 -0.064758062 -0.0010628036
0.007325429 -0.064978227 -0.0011050953
-0.0073390631 -0.065029897 0.0010138722
0.0073350174 -0.064908899 0.0010446586
-0.0068541891 -0.064904802 0.0028356018
0.006721301 -0.064968154 0.0031841616
-0.0061684088 -0.065212697 0.0042142528
-0.0051143426 -0.064817473 0.0054045212
0.0051372051 -0.065112315 0.005376671
0.006140301 -0.064763024 0.0042493897
-0.0042098081 -0.065171972 0.0061719175
-0.0030088748 -0.065108128 0.0067837834
-0.0011111734 -0.06531813 0.0073243147
0.0010266725 -0.064891033 0.0073376591
0.002806863 -0.064966917 0.006860035
0.0042054327 -0.064787023 0.0061754193
-0.0041589607 -0.067148447 -0.0062130746
-0.0032068207 -0.066810265 -0.0067118877
-0.001069959 -0.067019947 -0.0073295948
0.001246229 -0.067094371 -0.0073031094
0.0030380257 -0.067063771 -0.0067735189
0.0042298078 -0.066631034 -0.0061563952
-0.0061350153 -0.067373224 -0.0042564753
-0.0052288952 -0.066973656 -0.005276117
0.0053278608 -0.067194276 -0.0051703057
0.0061563896 -0.066768438 -0.0042297542
-0.0068376414 -0.067022406 -0.0028853992
0.0067530675 -0.066796355 -0.0031068164
-0.0072731203 -0.067299105 -0.0014334013
0.0073337867 -0.067151152 -0.0010529256
-0.0073508611 -0.067096822 0.00094387558
0.0073178099 -0.066848785 0.0011504007
-0.0067500435 -0.066764049 0.0031135904
0.0067520207 -0.066819355 0.0031084022
-0.0062078014 -0.066800825 0.0041650068
-0.0053674285 -0.06700521 0.0051244237
0.0052278824 -0.067081705 0.0052899118
0.006115979 -0.066915445 0.0042797844
-0.0042886143 -0.066797122 0.0061088675
-0.0031184985 -0.067191266 0.0067407074
-0.00096575113 -0.067337319 0.0073461118
0.0011936517 -0.067006551 0.0073112859
0.0030852791 -0.066935301 0.006762438
0.0042161993 -0.067033879 0.0061667985
-0.0042689675 -0.068794832 -0.0061250757
-0.0033732094 -0.069041207 -0.0066429358
-0.00097793271 -0.068947613 -0.0073449668
0.0011107365 -0.069062747 -0.0073231659
0.0030459878 -0.068975694 -0.0067780432
0.0042146072 -0.069114469 -0.0061685648
-0.0062380051 -0.069173276 -0.0041277446
-0.0052245697 -0.068959035 -0.0052830791
0.0055877389 -0.069280751 -0.0049242405
0.0061698994 -0.069144264 -0.0042128768
-0.0068687289 -0.069241427 -0.0027933826
0.0068242662 -0.068848409 -0.0028883878
-0.0073056826 -0.068981044 -0.0012309238
0.0073270691 -0.068831742 -0.0010887037
-0.0073015275 -0.068818465 0.0012507318
0.0073531857 -0.069106884 0.00092339085
-0.0068648527 -0.069100767 0.0028225952
0.0067805615 -0.068947405 0.0030215525
-0.0061018933 -0.069082394 0.0042973831
-0.0051966258 -0.069008783 0.0053089731
0.0051909937 -0.069106199 0.0053041773
0.0062401546 -0.068867981 0.0041245576
-0.0041957507 -0.068830915 0.0061831498
-0.0031771911 -0.06894087 0.0067197024
-0.0014499772 -0.069030471 0.0072675734
0.00094940839 -0.06900274 0.0073487614
0.0030218819 -0.068976849 0.0067833764
0.0042431708 -0.069353409 0.0061452123
-0.0030549199 -0.07096123 -0.0067701451
-0.00098732125 -0.070959143 -0.0073433421
0.00097877847 -0.07106144 -0.0073457137
0.0030807981 -0.071175233 -0.0067544295
0.0042297328 -0.070824794 -0.0061564711
-0.0061791684 -0.071209811 -0.0042012976
-0.0053360504 -0.070970826 -0.0051808869
0.0052792742 -0.071012616 -0.005242689
0.0061597629 -0.07153026 -0.0042255563
-0.0068364441 -0.070948437 -0.0028662928
0.0067691132 -0.07133399 -0.0030632303
-0.0073471698 -0.071183391 -0.00096357695
0.0073556304 -0.071141571 -0.0009145955
-0.0073166252 -0.070948407 0.0011572292
0.0073487307 -0.070873931 0.00095778261
-0.00686388 -0.070911482 0.0028236439
0.006844426 -0.071171008 0.0028485958
-0.0061804275 -0.071165673 0.0041992087
-0.005088693 -0.071083248 0.0054169251
0.0050725914 -0.071031131 0.0054480117
0.0060225958 -0.071501896 0.0043964968
-0.004230781 -0.071070947 0.0061551183
-0.0031350099 -0.07095731 0.0067377412
-0.00097300735 -0.07109262 0.0073457751
0.00088335224 -0.071081683 0.0073602656
0.0029635532 -0.071049049 0.0068079084
0.0042474889 -0.070940815 0.0061417529
-0.0043600304 -0.072855391 -0.0060522389
-0.002893317 -0.073114038 -0.0068316488
-0.0013926491 -0.07262364 -0.0072775474
0.00086726475 -0.072876222 -0.0073633278
0.003020128 -0.072721183 -0.0067715771
0.0041453214 -0.072966665 -0.0062240073
-0.0062029301 -0.072774954 -0.0041716006
-0.005315226 -0.07299801 -0.005182297
0.0050811977 -0.073250875 -0.0054521323
0.0061110179 -0.072612293 -0.0042864899
-0.0067891683 -0.073105782 -0.002980157
0.0067513455 -0.072843142 -0.003097598
-0.0073634321 -0.072916418 -0.00086519239
0.0073564793 -0.073174916 -0.00090739701
-0.0073315017 -0.073030375 0.0010616503
0.0073441644 -0.073162906 0.00098593649
-0.0067403116 -0.072916329 0.0031524552
0.006719152 -0.072892383 0.0031985294
-0.0061355 -0.073361732 0.0042553595
-0.0052649034 -0.073113181 0.0052423766
0.0054924944 -0.072801024 0.0050128093
0.0061984574 -0.07290066 0.0041766646
-0.0041421046 -0.072764501 0.0062260525
-0.0029816788 -0.072896145 0.0067947172
-0.00093064568 -0.07326591 0.007351438
0.0010056469 -0.072725296 0.0073409514
0.0029533114 -0.072982252 0.006806687
0.0041461298 -0.072923265 0.0062228329
-0.0043048989 -0.074902795 -0.0060963519
-0.003044799 -0.075202979 -0.0067774053
-0.0010171859 -0.07496389 -0.0073387222
0.00086984551 -0.075022832 -0.007362762
0.0029825647 -0.075041622 -0.0067968317
0.0042473227 -0.074701712 -0.0061424128
-0.0062848981 -0.074895598 -0.0040691486
-0.0050577954 -0.075158387 -0.0054718428
0.00513598 -0.075004384 -0.005384271
0.0060553215 -0.075056456 -0.0043561202
-0.0068147546 -0.074912369 -0.0029474383
0.0067196046 -0.075135432 -0.0031673105
-0.0073053739 -0.075298123 -0.0012329052
0.0073176506 -0.075122386 -0.0011551514
-0.0073132841 -0.075002752 0.0011717646
0.0073652654 -0.074975468 0.00085129234
-0.0068495697 -0.0750359 0.0028647694
0.0068194983 -0.075097919 0.0029179081
-0.0062038735 -0.074608698 0.0041698879
-0.0050310255 -0.074929342 0.0054867901
0.005280165 -0.074957386 0.0052246167
0.0061525581 -0.075144537 0.0042340318
-0.004252078 -0.074706316 0.0061380672
-0.0031444889 -0.074886002 0.0067246491
-0.00076801528 -0.07504534 0.0073784296
0.00099510013 -0.075014286 0.0073426072
0.0032275203 -0.075108215 0.0067063635
0.0042084493 -0.075108238 0.006172969
-0.0041967551 -0.076930583 -0.0061828746
-0.0028172839 -0.077119678 -0.0068582441
-0.0010333844 -0.076905422 -0.0073371124
0.0011659535 -0.077098697 -0.007316181
0.0027763152 -0.077137463 -0.0068774261
0.004170015 -0.077049963 -0.0062042675
-0.0061741378 -0.076776326 -0.0042076064
-0.0052037556 -0.077065349 -0.0053224913
0.0052190931 -0.077062644 -0.0052943118
0.0061561889 -0.07723926 -0.0042300434
-0.0066448962 -0.076875895 -0.0033704045
0.0066707712 -0.077045694 -0.0032976472
-0.0073720007 -0.076964632 -0.00080879009
0.0073111458 -0.07719522 -0.0011825149
-0.0072800708 -0.077223964 0.0013926056
0.0073446156 -0.077289186 0.00098382356
-0.0068128658 -0.077210866 0.0029568097
0.0067771138 -0.07690993 0.0030402611
-0.0061713182 -0.076889649 0.0042105741
-0.0052218251 -0.076799594 0.0053041838
0.0053222054 -0.077210486 0.0051960866
0.0061132796 -0.077239394 0.0042831213
-0.0041769654 -0.077038482 0.0061981492
-0.0032054558 -0.077180453 0.0067113973
-0.00091743225 -0.07724636 0.0073548635
0.0010097406 -0.077114046 0.0073402887
0.0028991294 -0.077040561 0.0068287435
0.0042486051 -0.0772072 0.006140837
-0.0042455019 -0.078972757 -0.0061438843
-0.0028947655 -0.078783482 -0.0068337931
-0.0010615441 -0.078863539 -0.0073326733
0.0009692735 -0.079121538 -0.0073454576
0.0029373635 -0.079147093 -0.0068145376
0.004036678 -0.079205081 -0.0063109444
-0.006149081 -0.079178631 -0.0042389366
-0.0052226721 -0.07897263 -0.0053035086
0.0052540768 -0.078905903 -0.0052818651
0.0062018856 -0.078601696 -0.0041729272
-0.0067590531 -0.078964904 -0.0030729999
0.0067148698 -0.079182915 -0.0031982746
-0.0073322197 -0.079073645 -0.0010628933
0.0073313131 -0.078872643 -0.0010663923
-0.0073607746 -0.07887686 0.00088147388
0.0073300232 -0.078986116 0.0010762345
-0.0067143706 -0.079156071 0.0032039743
0.0067995829 -0.079217494 0.0029772101
-0.0061448645 -0.07900285 0.0042436337
-0.0051372377 -0.078913838 0.0053594992
0.0053029852 -0.078844011 0.0052149608
0.0062698126 -0.078805432 0.0040874495
-0.0043275831 -0.078940034 0.0060776477
-0.0029196772 -0.078847878 0.0068202452
-0.0010368584 -0.078822322 0.007336
0.00096453371 -0.078969337 0.0073471521
0.0031422453 -0.079052597 0.0067381053
0.0041929758 -0.07887733 0.0061853351
-0.0042306599 -0.080355972 -0.0061557633
-0.0031320872 -0.080735505 -0.0067379121
-0.00078429584 -0.081062965 -0.0073758643
0.00096038153 -0.081341662 -0.0073486553
0.0029354536 -0.080858126 -0.0068135723
0.0041553467 -0.080909126 -0.0062160152
-0.0061161965 -0.081202187 -0.0042800484
-0.0054006856 -0.081005141 -0.0051124692
0.005153771 -0.080937512 -0.0053300536
0.00614338 -0.080894113 -0.0042460687
-0.006748742 -0.080904968 -0.0031052097
0.0068349419 -0.08085341 -0.0028664428
-0.007341085 -0.081076778 -0.0010049493
0.0073371069 -0.081017666 -0.0010319487
-0.0072963024 -0.081281692 0.0012896031
0.0073431539 -0.08089485 0.00099306414
-0.00685855 -0.081008494 0.0028326323
0.0068831206 -0.08097285 0.0027598087
-0.0060692234 -0.081077494 0.0043381783
-0.0052271117 -0.081323087 0.0052825003
0.005094565 -0.081069782 0.0054128044
0.006157726 -0.080671437 0.0042275512
-0.0042580212 -0.081392743 0.0061332881
-0.0030568561 -0.08092048 0.006769829
-0.00087594683 -0.081249729 0.007361399
0.001131864 -0.080938153 0.0073209922
0.0031048767 -0.081254035 0.0067520523
0.0042734081 -0.081285805 0.0061209793
-0.0041176323 -0.082426988 -0.0062461938
-0.0031025601 -0.082889251 -0.0067520547
-0.001208692 -0.083074406 -0.0073078028
0.00096466677 -0.083247416 -0.0073473747
0.0031047848 -0.083200596 -0.0067531504
0.0041994806 -0.082583629 -0.0061807144
-0.0062039983 -0.082960427 -0.0041703028
-0.0053612636 -0.083116852 -0.0051485291
0.0053591351 -0.082968228 -0.0051539745
0.0060923086 -0.08302141 -0.004309915
-0.0067402553 -0.083066396 -0.0031444218
0.0066597112 -0.083208375 -0.0033272996
-0.0073170564 -0.083110541 -0.0011589401
0.0073939916 -0.083063498 -0.00067168486
-0.0073434245 -0.082800701 0.00099068333
0.007333735 -0.082963854 0.0010464852
-0.0067669638 -0.082888246 0.0030838808
0.0068098512 -0.082730509 0.0029405786
-0.0062346896 -0.083321393 0.0041313367
-0.0053758919 -0.082934499 0.0051352666
0.0052443179 -0.082870804 0.0052704578
0.0062074354 -0.083311684 0.004165404
-0.0042300168 -0.082867078 0.0061556865
-0.0030221955 -0.083054677 0.006784765
-0.00080325169 -0.082989246 0.0073728701
0.00090450473 -0.083183862 0.0073568826
0.0030978487 -0.082983755 0.0067546261
0.0042647929 -0.083054341 0.0061278651
-0.0042941556 -0.085080542 -0.0061049839
-0.003338129 -0.084926099 -0.0066616735
-0.0010331689 -0.084890082 -0.0073371753
0.00094068912 -0.085158475 -0.0073508294
0.0030285334 -0.085008532 -0.0067749619
0.0041521154 -0.085977621 -0.0062186182
-0.0061146049 -0.085511327 -0.0042820536
-0.005196217 -0.084960461 -0.0052971994
0.0054866839 -0.084994979 -0.0050229505
0.0061825057 -0.085058659 -0.0041971765
-0.0067897029 -0.085014716 -0.0030036515
0.0068602925 -0.084938541 -0.0028166191
-0.0073429318 -0.085138112 -0.00099227531
0.0073354775 -0.085021175 -0.0010422777
-0.0073621273 -0.085183218 0.00086972711
0.0073131798 -0.085303664 0.0011777382
-0.0067770155 -0.085062958 0.0030293232
0.0068138428 -0.084932476 0.0029441523
-0.0061001023 -0.085052535 0.0042995657
-0.0050815963 -0.08514528 0.0054223193
0.0051686428 -0.085069031 0.005334029
0.0061073778 -0.085101672 0.0042904685
-0.0042074472 -0.085051231 0.0061737341
-0.0028440957 -0.084802993 0.0068518682
-0.00096110924 -0.085248612 0.0073462971
0.001119437 -0.085112773 0.0073229391
0.0029685288 -0.084969223 0.0068020779
0.004165642 -0.085104808 0.0062071779
-0.0042952141 -0.08712142 -0.0061041447
-0.0029682335 -0.087149158 -0.0067949235
-0.0011229709 -0.086929753 -0.0073229056
0.00080906868 -0.087031372 -0.007372567
0.0030905134 -0.087030023 -0.0067562098
0.0042467564 -0.087354772 -0.006142911
-0.0063102348 -0.086711019 -0.0040375208
-0.0053057084 -0.086854562 -0.0051920083
0.0053189769 -0.087198526 -0.0051983343
0.0061629144 -0.087168142 -0.0042216731
-0.0068733236 -0.086960748 -0.0027815478
0.0068234261 -0.086949699 -0.002913414
-0.0073599406 -0.087217614 -0.00088735827
0.0073553822 -0.086810105 -0.0009162249
-0.0073632337 -0.087129369 0.00086586899
0.0073256153 -0.086944066 0.0011041231
-0.0067690327 -0.086829692 0.0030751978
0.0067703361 -0.087119125 0.003052772
-0.0061596534 -0.087202825 0.0042251176
-0.0053896229 -0.087178864 0.005102139
0.0052922643 -0.086996458 0.0052272454
0.0061748731 -0.087188169 0.0042060935
-0.0042500184 -0.087212324 0.0061396696
-0.0029471195 -0.086965628 0.006804355
-0.0011529197 -0.08717522 0.0073176147
0.00091899309 -0.087311886 0.0073542446
0.0030208933 -0.087161064 0.0067792227
0.0040787905 -0.086199783 0.0062766555
-0.0042003444 -0.089077942 -0.0061800471
-0.0028311659 -0.088948935 -0.0068572601
-0.00095062418 -0.088958949 -0.0073502241
0.0010433182 -0.088977404 -0.0073354673
0.0029705435 -0.089050218 -0.0067960643
0.0042716325 -0.088802941 -0.0061230161
-0.0061685005 -0.089454561 -0.0042146989
-0.0052506295 -0.089275204 -0.0052753291
0.0053484011 -0.089189097 -0.0051636584
0.006139243 -0.089400381 -0.0042512701
-0.0066557783 -0.088955283 -0.0033433188
0.0067519839 -0.089100786 -0.0031065224
-0.0073507275 -0.088820904 -0.00094551878
0.0073468923 -0.089140609 -0.0009637227
-0.007325734 -0.088835426 0.0010988599
0.0073222206 -0.089310132 0.0011176034
-0.006752952 -0.08930333 0.0031146079
0.0067696064 -0.088626571 0.0030471145
-0.0060477704 -0.089437798 0.0043649641
-0.0051287115 -0.088977471 0.0054121497
0.0052166614 -0.089014135 0.0053095641
0.0061495407 -0.088677719 0.0042377538
-0.0041587935 -0.089129604 0.0062126429
-0.0029645662 -0.089126363 0.0068034218
-0.0011971514 -0.088896953 0.0073106536
0.00099969818 -0.088819474 0.0073401704
0.0031120118 -0.088821039 0.0067446646
0.0042556999 -0.089391343 0.0061351168
-0.0041750534 -0.090870507 -0.0062002861
-0.0030193122 -0.091036633 -0.0067829345
-0.00099653308 -0.090815507 -0.0073409444
0.0011329202 -0.090889201 -0.007321279
0.0030621111 -0.091025315 -0.0067721163
0.0041698287 -0.090906158 -0.0062044663
-0.0061809323 -0.090973154 -0.0041991635
-0.0053290948 -0.090950206 -0.0052028969
0.0051049786 -0.0910962 -0.0053988695
0.0061323452 -0.090945885 -0.0042598983
-0.0066870889 -0.090999894 -0.0032648109
0.0068481504 -0.090697542 -0.0028517954
-0.0073366067 -0.090973139 -0.0010351478
0.0073092449 -0.09131372 -0.0012032845
-0.0072976584 -0.090985 0.001270239
0.0073634102 -0.090908334 0.0008647386
-0.0068101003 -0.090881735 0.0029698289
0.0068265647 -0.090994969 0.0029036936
-0.0060565118 -0.091579586 0.0043540285
-0.0052484283 -0.09098576 0.005274049
0.0052395407 -0.091093041 0.0052682683
0.0061567421 -0.091133364 0.0042287433
-0.0042005139 -0.091059975 0.0061792596
-0.003262731 -0.09096615 0.0066810888
-0.0013107222 -0.09080328 0.0072904103
0.0013613292 -0.090915374 0.0072832066
0.002947364 -0.090995759 0.0068114176
0.0042922627 -0.090958036 0.0061058612
-0.0041713356 -0.092974201 -0.0062032687
-0.0030286617 -0.093315534 -0.0067763049
-0.000784492 -0.093228608 -0.0073764701
0.00092209538 -0.092872947 -0.0073519722
0.0028610711 -0.092920668 -0.0068441522
0.0042192903 -0.092791013 -0.0061649033
-0.0062161321 -0.092584759 -0.0041551702
-0.0053163739 -0.093055218 -0.0052077821
0.0052170148 -0.093042277 -0.0052698306
0.0061470992 -0.092927076 -0.0042414628
-0.0067455461 -0.092694707 -0.0031348518
0.0067642857 -0.093029603 -0.003069581
-0.0073356936 -0.092913195 -0.001038708
0.0073802066 -0.093185969 -0.00075903389
-0.0073224092 -0.092874303 0.0011244077
0.0073151495 -0.092888981 0.001163391
-0.0067552552 -0.092824429 0.0031069475
0.0067869411 -0.092834495 0.0030078243
-0.0062074056 -0.092885315 0.0041654073
-0.0051125954 -0.093008071 0.0053771152
0.0052316473 -0.093095928 0.005284314
0.0061873673 -0.09334524 0.0041904524
-0.0041008685 -0.092745088 0.0062589697
-0.0032018402 -0.093045495 0.0067107109
-0.00083833735 -0.092933215 0.0073672943
0.0010964517 -0.092730209 0.0073254728
0.0030010284 -0.092951134 0.0067868279
0.0041839345 -0.092940599 0.0061925161
-0.0042548599 -0.095110856 -0.006136457
-0.0028804252 -0.095335864 -0.0068387133
-0.00082211121 -0.095096052 -0.0073705371
0.0010697049 -0.094920017 -0.0073313811
0.0030742509 -0.095181607 -0.0067629954
0.0041807806 -0.095101371 -0.0061957198
-0.0060506728 -0.095138468 -0.0043620039
-0.0053133718 -0.094903827 -0.005211276
0.0053777425 -0.095046833 -0.0051152911
0.0060754782 -0.094712675 -0.004330995
-0.0068561472 -0.09499044 -0.0028397047
0.006725546 -0.094900928 -0.0031767034
-0.0073260106 -0.094858207 -0.0010903851
0.0073504103 -0.095034488 -0.00094774616
-0.0073549971 -0.095152758 0.00091498962
0.0073027355 -0.094959937 0.0012400596
-0.0067631966 -0.094949037 0.0030616063
0.0067919083 -0.094993725 0.0030000964
-0.006181262 -0.094661027 0.0041980809
-0.0053804163 -0.094873153 0.0051477528
0.0052965311 -0.094959155 0.0052240123
0.0060216514 -0.095879078 0.0043975883
-0.004214583 -0.094788849 0.0061679906
-0.0029149165 -0.094693989 0.0068230918
-0.000853148 -0.09481594 0.0073649492
0.0010624984 -0.095040038 0.0073296935
0.0030493499 -0.095120043 0.0067697451
0.004191265 -0.094942011 0.0061866445
-0.0041921879 -0.096961185 -0.0061866008
-0.0028753658 -0.096899219 -0.0068401392
-0.00099373201 -0.096891597 -0.0073429393
0.00089293136 -0.096980453 -0.0073593622
0.0031698935 -0.09699709 -0.0067249532
0.0043576164 -0.096536122 -0.0060542561
-0.0061281617 -0.097164936 -0.0042651496
-0.0053108577 -0.096959695 -0.0051986384
0.0052795433 -0.097215116 -0.0052433093
0.0061918939 -0.096724555 -0.0041854829
-0.0066800937 -0.097061664 -0.0032709055
0.0067498274 -0.097009301 -0.0031033065
-0.0072991103 -0.097076587 -0.0012566693
0.0073411255 -0.096892335 -0.0010047384
-0.0073751062 -0.09668541 0.00078460952
0.0073363143 -0.096702054 0.0010309358
-0.0067233061 -0.096924774 0.0031937861
0.0067931209 -0.097071826 0.0030004033
-0.0061081434 -0.097255498 0.0042894692
-0.0051941709 -0.096632197 0.0053235423
0.0053035002 -0.096867353 0.0051831985
0.0062285541 -0.097103275 0.0041389572
-0.0027664157 -0.097297572 0.0068792896
-0.0010177385 -0.09671279 0.0073389546
0.0012699387 -0.097257115 0.0072967857
0.0031331249 -0.096685663 0.0067445384
0.0042619426 -0.09724725 0.0061300942
-0.0043020584 -0.099091478 -0.0060987119
-0.0029305813 -0.098826572 -0.0068203486
-0.00094014098 -0.098981686 -0.0073519149
0.0010976923 -0.099101707 -0.0073258164
0.0031094353 -0.099024728 -0.0067522847
0.0042369291 -0.098897964 -0.0061508152
-0.0061350646 -0.09866868 -0.0042565269
-0.0053735944 -0.098963544 -0.0051388484
0.0052220006 -0.099139541 -0.0052981363
0.0061900644 -0.098797776 -0.0041877776
-0.006877427 -0.099012032 -0.0027746323
0.0067519941 -0.099000782 -0.0030916121
-0.0073723751 -0.099079221 -0.00080865284
0.0073415255 -0.099047065 -0.0010040295
-0.0073574893 -0.098719478 0.00090221118
0.007337111 -0.099033676 0.0010312704
-0.0067843059 -0.098909117 0.0030297269
0.0068111387 -0.099085115 0.0029454848
-0.0061191684 -0.099347919 0.0042756805
-0.0052289502 -0.099012844 0.0052727358
0.0053877095 -0.098918296 0.0051220329
0.0061717746 -0.098847494 0.004209924
-0.0042765532 -0.098984204 0.0061183991
-0.0028399199 -0.098795637 0.0068510696
-0.0011754931 -0.098961458 0.0073122247
0.0010239597 -0.099164464 0.0073379637
0.0027132907 -0.099178694 0.0068939859
0.0042554261 -0.098621465 0.0061353017
-0.0041802833 -0.10125554 -0.0061961394
-0.0026861632 -0.10104351 -0.006910726
-0.00077284285 -0.10096449 -0.007378337
0.00092408259 -0.10112208 -0.007354442
0.0031019524 -0.10098844 -0.0067475815
0.0041755503 -0.10137974 -0.0061999266
-0.0062177358 -0.10111839 -0.0041531967
-0.0052894205 -0.10114612 -0.0052066157
0.0052481946 -0.10078077 -0.0052649975
0.0061290935 -0.10094093 -0.0042639994
-0.0067393812 -0.10084295 -0.003140698
0.0067874952 -0.10114315 -0.0029996638
-0.0073440713 -0.10119184 -0.00098791462
0.0073750759 -0.10076285 -0.00079154584
-0.0073842797 -0.10095923 0.00073253049
0.0072637703 -0.10122181 0.0014857883
-0.0067642559 -0.10125146 0.0030761815
0.0067882766 -0.10115754 0.0029963194
-0.006129425 -0.10036638 0.0042628553
-0.0053137676 -0.10076033 0.0052128588
0.0050187097 -0.10118698 0.0054820837
0.0062035262 -0.10130814 0.0041702264
-0.0042526685 -0.10103643 0.0061374996
-0.003046765 -0.10108605 0.0067737885
-0.001086219 -0.10095944 0.0073281261
0.00093693647 -0.10094936 0.0073516979
0.003008883 -0.10102008 0.0067822291
0.004198269 -0.10156113 0.0061810175
-0.0042254506 -0.10323802 -0.0061600143
-0.0027034828 -0.10288167 -0.0069016586
-0.00087857456 -0.10312368 -0.0073613268
0.00091254647 -0.10304201 -0.0073560216
0.0030194242 -0.10304984 -0.0067835017
0.0041385703 -0.10274193 -0.0062295157
-0.0061275708 -0.10350653 -0.0042659109
-0.005392462 -0.10293561 -0.0051251799
0.0051324945 -0.10285478 -0.0054057385
0.0061403355 -0.10283993 -0.0042499527
-0.0067290193 -0.1028301 -0.0031713799
0.0067790309 -0.10318135 -0.0030141759
-0.0072863931 -0.10305955 -0.0013489495
0.0073247286 -0.10303448 -0.0011061758
-0.0073293014 -0.10305589 0.0010750858
0.0073375055 -0.10284755 0.0010287559
-0.0067214975 -0.1028372 0.0031821935
0.006782386 -0.10315569 0.0030090744
-0.0061485451 -0.10275271 0.0042389473
-0.0052096331 -0.10276671 0.0053279735
0.0052758991 -0.10314205 0.0052321232
0.0063186912 -0.10273053 0.0040262644
-0.0042315042 -0.10337913 0.0061544222
-0.0029297792 -0.10310213 0.0068123182
-0.0009242472 -0.10286249 0.0073536932
0.00089751917 -0.10330148 0.0073579126
0.0030370329 -0.10294069 0.0067807217
0.0042082304 -0.10293631 0.0061730435
-0.0041976715 -0.10503978 -0.0061822436
-0.0028818497 -0.10521892 -0.0068386467
-0.0010245222 -0.1049571 -0.0073386137
0.00077605876 -0.10513198 -0.0073775151
0.00274106 -0.10468861 -0.0068904357
0.0043349797 -0.10461608 -0.006072395
-0.0061486359 -0.10482143 -0.0042395848
-0.0051822211 -0.10510857 -0.0053332127
0.0052360292 -0.10497621 -0.0052977051
0.0061014667 -0.10519019 -0.0042985473
-0.0068077305 -0.10502421 -0.0029574614
0.0067651384 -0.10533349 -0.0030673682
-0.007371285 -0.10481927 -0.00081557943
0.0073472937 -0.10462216 -0.00096752128
-0.0073251827 -0.10496144 0.0011068004
0.0073315194 -0.10504159 0.0010607976
-0.0068101767 -0.10504825 0.0029653721
0.0068216813 -0.10518794 0.0029173805
-0.0061968337 -0.10494813 0.004178578
-0.005326895 -0.10489665 0.0051804464
0.0052411589 -0.1047505 0.0052818209
0.006186462 -0.10486984 0.0041915425
-0.004241135 -0.10475034 0.0061467132
-0.0029620675 -0.10480218 0.0068038204
-0.00090746657 -0.10474075 0.0073563373
0.0011370579 -0.10506955 0.0073198043
0.0028648239 -0.10515971 0.0068440815
0.0042271893 -0.10536677 0.0061578671
-0.0041690753 -0.10691845 -0.0062051271
-0.0030247672 -0.10718565 -0.0067820684
-0.0010471162 -0.10701339 -0.0073343879
0.0011560908 -0.10713986 -0.0073174015
0.0028989653 -0.10694227 -0.0068261186
0.004250716 -0.10684069 -0.0061398144
-0.0061858385 -0.10710861 -0.0041930904
-0.0052038478 -0.10691004 -0.0053147539
0.0053088376 -0.10720374 -0.0052077295
0.0062104119 -0.10715642 -0.004162373
-0.0067931879 -0.10716938 -0.0030035612
0.0067162691 -0.10713325 -0.0031904837
-0.0073550162 -0.1069928 -0.00091267249
0.0073564295 -0.10704482 -0.00090420753
-0.0073774625 -0.10686452 0.00077568373
0.0073352973 -0.10694497 0.001036667
-0.0067893472 -0.10700036 0.0030208861
0.0068561831 -0.1070542 0.0028270877
-0.0061398782 -0.10698032 0.0042497651
-0.0051264199 -0.10701199 0.0053712693
0.0053148721 -0.10697563 0.0051998082
0.0061876462 -0.1066109 0.0041900571
-0.0042781779 -0.10732003 0.0061170696
-0.0030020855 -0.10713704 0.0067893858
-0.00092565105 -0.10696317 0.0073529705
0.0010250824 -0.106898 0.0073377583
0.0029590146 -0.10686673 0.0068078586
0.0041686427 -0.1070847 0.0062046982
-0.0040887515 -0.10949778 -0.0062693958
-0.0030685342 -0.10880079 -0.0067585032
-0.0011212117 -0.10894643 -0.0073233619
0.0011434815 -0.10900605 -0.0073193791
0.0029616253 -0.10895224 -0.0068078851
0.0043117804 -0.10867102 -0.0060909693
-0.0061357482 -0.10887294 -0.0042557092
-0.0052105254 -0.1091034 -0.0053029926
0.0054524867 -0.10896871 -0.0050577791
0.0061228625 -0.1091593 -0.0042718169
-0.006812613 -0.10895784 -0.0029557492
0.0067908927 -0.10937785 -0.0029964112
-0.0073723644 -0.10885777 -0.00080441899
0.0072941934 -0.10894744 -0.0013038341
-0.0073236739 -0.10905956 0.0011126706
0.0073357057 -0.10884327 0.0010401406
-0.0067863753 -0.1091144 0.0030332445
0.0067945709 -0.10890555 0.00298985
-0.0062130657 -0.10929745 0.0041582719
-0.0053941798 -0.10906482 0.0051230639
0.005263804 -0.1089825 0.0052355151
0.0061750612 -0.10903191 0.0042057787
-0.0042905966 -0.10847579 0.0061071306
-0.0028331273 -0.10903597 0.0068543539
-0.00087449094 -0.10931116 0.0073615261
0.0010488859 -0.10892723 0.0073334882
0.0028252823 -0.10909408 0.0068547847
0.004163391 -0.10946681 0.006208891
-0.0042614392 -0.11094882 -0.0061312509
-0.0031478917 -0.11102175 -0.0067309882
-0.0011906035 -0.11094883 -0.0073109316
0.00086644175 -0.11085048 -0.0073629594
0.0029406438 -0.11085419 -0.0068091103
0.0041235904 -0.11090386 -0.0062415292
-0.006149123 -0.11089306 -0.0042389976
-0.0053682076 -0.11094943 -0.0051594819
0.0054218299 -0.11092974 -0.0051023136
0.0061953533 -0.11069682 -0.0041812095
-0.0067865881 -0.11056697 -0.0030218915
0.0067771291 -0.11117318 -0.0030326887
-0.0073275971 -0.11099014 -0.0010903743
0.0073595857 -0.11082104 -0.00088969042
-0.0073104398 -0.11096632 0.0011938553
0.0073324642 -0.11110058 0.0010592564
-0.0068213274 -0.11082032 0.002931823
0.0068566934 -0.1110248 0.002823208
-0.0060798791 -0.11148735 0.0043247472
-0.0052226698 -0.11095902 0.0052811359
0.0052592647 -0.11097533 0.0052509806
0.0060605002 -0.11062503 0.0043489737
-0.0041669901 -0.11106716 0.0062060072
-0.0032442876 -0.11088344 0.0066926898
-0.00097377296 -0.11091227 0.0073458445
0.0010412385 -0.11085414 0.007334786
0.0029578067 -0.11113345 0.0068098791
0.0043945736 -0.11049682 0.0060239411
-0.0041118292 -0.11347635 -0.0062509468
-0.0030149673 -0.11307489 -0.0067896321
-0.0007084242 -0.11309442 -0.0073885531
0.0011533333 -0.11308801 -0.0073160962
0.0030630422 -0.11304339 -0.006770378
0.0041946876 -0.11286981 -0.006184658
-0.0062232367 -0.11313395 -0.0041463631
-0.0053927624 -0.11293314 -0.0051315092
0.0052125943 -0.11279494 -0.0053031854
0.0062419688 -0.11324578 -0.0041229483
-0.0068066637 -0.11304237 -0.0029507531
0.0068934737 -0.11307954 -0.0027324103
-0.0073295278 -0.11321625 -0.0010800691
0.007334006 -0.11324532 -0.0010517075
-0.0073541328 -0.11330601 0.00092341681
0.0073388699 -0.11293154 0.0010200827
-0.0067089684 -0.11255118 0.0032439115
0.0068096346 -0.11300457 0.0029591538
-0.0061828541 -0.11283348 0.004196024
-0.005294662 -0.11292862 0.0052129305
0.0054273559 -0.11305045 0.0050856108
0.0062030451 -0.11348464 0.0041707833
-0.0042766198 -0.11308583 0.0061182952
-0.0030804696 -0.11286902 0.0067547015
-0.0012514928 -0.11301973 0.0072997059
0.0011764205 -0.11294893 0.0073119863
0.0030234389 -0.11295608 0.0067824121
0.0041949549 -0.11334646 0.0061836261
-0.004260737 -0.11544088 -0.0061318283
-0.0030835613 -0.11495509 -0.0067567686
-0.00096588192 -0.11485225 -0.00734752
0.0011381099 -0.11482906 -0.0073196171
0.00313427 -0.11495643 -0.006740388
0.0042415801 -0.11491486 -0.0061471523
-0.0062668356 -0.11457682 -0.0040918714
-0.0052616508 -0.11517897 -0.0052542328
0.00530568 -0.11492579 -0.0051990491
0.0061428864 -0.11496974 -0.0042468091
-0.0068789688 -0.11485041 -0.0027588389
0.0067564375 -0.11489558 -0.0030917667
-0.0073070629 -0.11500264 -0.0012104603
0.0073140687 -0.11515154 -0.0011724615
-0.0073311394 -0.11481861 0.0010690361
0.0073382789 -0.11490742 0.0010141667
-0.006737662 -0.11455006 0.0031677641
0.006692837 -0.11507943 0.0032630165
-0.0061370558 -0.11482398 0.004253265
-0.0053190389 -0.11506423 0.0051947283
0.005405589 -0.11482642 0.0051026833
0.0061450964 -0.11476553 0.0042432146
-0.0042066225 -0.11470257 0.0061742868
-0.0029611487 -0.11498395 0.0068045352
-0.0010862348 -0.11475015 0.0073263589
0.0011061248 -0.11512402 0.007324494
0.003126099 -0.11513608 0.0067403996
0.0041752006 -0.11466324 0.0061994242
-0.0042846515 -0.11726306 -0.0061127036
-0.0029826085 -0.11717404 -0.0067991265
-0.0011562534 -0.11682456 -0.0073176539
0.00076791644 -0.11699156 -0.0073787817
0.0030010561 -0.11683911 -0.0067857443
