# .PCD v0.7 - Point Cloud Data file format
VERSION 0.7
FIELDS x y z
SIZE 4 4 4
TYPE F F F
COUNT 1 1 1
WIDTH 1249
HEIGHT 1
VIEWPOINT 0 0 0 1 0 0 0
POINTS 1249
DATA ascii
-0.0042184424 -0.0061652465 0.054834932
-0.0028149742 -0.0068583521 0.055020358
-0.0010162697 -0.0073386878 0.054921072
0.0011228472 -0.0073217792 0.055026326
0.0032004826 -0.0067121657 0.055021483
0.0040625324 -0.0062899739 0.055674437
-0.00617202 -0.0042099762 0.055469386
-0.0050507491 -0.0054619825 0.054792766
0.0049897726 -0.0055013243 0.055004798
0.0062892232 -0.0040634712 0.055439703
-0.0067709722 -0.0030493084 0.054910634
0.0067970287 -0.0029899688 0.055195641
-0.0073429118 -0.00098551123 0.054939702
0.0073690531 -0.00082581607 0.055119324
-0.0073324158 0.001054568 0.054883108
0.0073719919 0.00081071683 0.054862157
-0.0068554976 0.0028464161 0.055151407
0.0067061828 0.0032372929 0.054835118
-0.0061866902 0.004191638 0.055155426
-0.0051042973 0.0054134484 0.055206861
0.0053446866 0.0051734559 0.054803431
0.0062206346 0.0041492069 0.055100195
-0.0042345873 0.00615233 0.054493316
-0.0031377957 0.0067390562 0.05500913
-0.00098529039 0.0073444284 0.054963421
0.0011330521 0.0073205018 0.054913055
0.0029134459 0.0068230499 0.054964509
0.0041988669 0.0061809062 0.054571897
-0.0041392664 -0.0062285867 0.056746736
-0.0030132718 -0.0067801345 0.057214815
-0.0012041267 -0.0073098745 0.056759585
0.0010461013 -0.007334827 0.057210077
0.0030692806 -0.0067603257 0.056982201
0.0041982131 -0.0061814301 0.056859415
-0.006130869 -0.0042614141 0.057185899
-0.0053236233 -0.0051900228 0.056901444
0.0052809012 -0.0052216686 0.057116322
0.0060881712 -0.0043147858 0.05722931
-0.0067042895 -0.0032402431 0.057021972
0.0068052448 -0.0029609643 0.056882925
-0.0073225405 -0.0011185164 0.057068557
0.0073273615 -0.0010906365 0.05700469
-0.0073382561 0.0010243808 0.05725041
0.0073263347 0.0010944562 0.057082046
-0.0068393028 0.0028725667 0.057203092
0.0068637012 0.0028070393 0.056959219
-0.0061225272 0.0042718416 0.056920063
-0.0053145918 0.0051921997 0.056759499
0.005081661 0.0054161972 0.057132855
0.0061444147 0.0042444817 0.056987457
-0.0040931921 0.0062654461 0.056527875
-0.0031259523 0.006734537 0.056951787
-0.0010751019 0.0073294104 0.057048619
0.0011140333 0.0073238141 0.056993652
0.0030022832 0.0067900592 0.057187166
0.0041131079 0.0062495135 0.056513172
-0.0041356585 -0.0062314738 0.059086856
-0.002935021 -0.0068106721 0.059023369
-0.00088371214 -0.007359846 0.059114736
0.0010842159 -0.0073279338 0.058940094
0.0030589877 -0.0067713317 0.058963474
0.0042091752 -0.0061726603 0.059005927
-0.0062157493 -0.0041553141 0.058619659
-0.0052630552 -0.0052525862 0.059064709
0.0050730444 -0.005417061 0.059147146
0.0062454385 -0.0041182018 0.05958654
-0.0067973961 -0.002993257 0.058942422
0.0067453049 -0.0031229998 0.058947086
-0.0073147127 -0.0011640078 0.059020009
0.0073800609 -0.0007571156 0.059003413
-0.0073583503 0.00089468865 0.058931224
0.0073595378 0.0008895896 0.058904536
-0.0068178 0.0029367944 0.059083082
0.0067553683 0.0030920818 0.059238877
-0.0062088035 0.0041639959 0.058581706
-0.0052994015 0.0052059949 0.058934245
0.005145777 0.00536031 0.059049759
0.0060907891 0.0043115141 0.059409019
-0.004150562 0.00621955 0.058693323
-0.0030106842 0.0067848596 0.058908865
-0.00094867841 0.0073502101 0.058994174
0.00095245265 0.0073491265 0.058588021
0.0030392502 0.0067764902 0.059034515
0.0042293337 0.0061565335 0.058911383
-0.0041761245 -0.0061991001 0.061222866
-0.0030554214 -0.0067673968 0.0611232
-0.0011493491 -0.0073176092 0.061152488
0.0010856072 -0.0073271319 0.060916558
0.0030774348 -0.0067602131 0.060755875
0.004161926 -0.0062104594 0.061409213
-0.0060817972 -0.0043227533 0.060872458
-0.0052809692 -0.0052371337 0.060875975
0.0052741827 -0.0052370066 0.060970493
0.0061305366 -0.004261829 0.061196398
-0.0067735338 -0.0030584317 0.061005674
0.0068497299 -0.002839999 0.060727011
-0.0073415497 -0.0010030845 0.061243903
0.0073527512 -0.0009325741 0.060904689
-0.0072944192 0.0012932298 0.061066207
0.0073633697 0.00086532638 0.061267875
-0.0067783142 0.0030420669 0.060827468
0.0067341798 0.003137945 0.061123431
-0.0060551874 0.0043560155 0.061952036
-0.0053734411 0.0051380163 0.060855322
0.0055589513 0.0049505704 0.060889617
0.006180713 0.0041991095 0.061055698
-0.0042465972 0.0061427224 0.060692329
-0.0031121534 0.0067452407 0.061000671
-0.0010324335 0.0073363101 0.061156176
0.00094719778 0.0073504415 0.061051056
0.0028201572 0.0068609947 0.061127003
0.0042226566 0.0061618742 0.060462233
-0.004164021 -0.0062087839 0.063055418
-0.0029692771 -0.0067991461 0.063163184
-0.001046842 -0.0073347082 0.063046873
0.0012628003 -0.0072983219 0.062990807
0.0028126836 -0.0068587307 0.062944382
0.0043964242 -0.0060228608 0.063219145
-0.0062463852 -0.0041170195 0.062559903
-0.0051810476 -0.0053219222 0.06292659
0.0052401847 -0.0052695577 0.062872335
0.0061510527 -0.0042361855 0.062651373
-0.0068612001 -0.0028135327 0.063042574
0.0068120677 -0.0029395998 0.063001111
-0.0073231477 -0.0011144025 0.063288108
0.0073231524 -0.0011184438 0.063070096
-0.0073614698 0.00087735866 0.062550887
0.0073651033 0.000854343 0.06269785
-0.0067948685 0.0030061253 0.063078113
0.006764737 0.00304287 0.062959313
-0.0061769066 0.0042038676 0.062916338
-0.0052591083 0.0052403766 0.062927887
0.0052829487 0.0052184951 0.063000783
0.0062303077 0.0041371151 0.062849827
-0.0043061837 0.0060950532 0.063115589
-0.0032085909 0.0067146933 0.063194312
-0.0010632457 0.0073321187 0.062925898
0.0010734427 0.0073284623 0.063142501
0.0030403342 0.0067713256 0.063071765
0.0041351416 0.0062318863 0.062949955
-0.0043174103 -0.006086072 0.064945266
-0.0030009313 -0.0067872987 0.06464944
-0.00087527826 -0.0073617217 0.06484662
0.0011219085 -0.0073225154 0.064925343
0.0028005298 -0.006864402 0.065349042
0.004231404 -0.0061548776 0.065300398
-0.0061107622 -0.0042865477 0.064879976
-0.0051800096 -0.0053125238 0.065037988
0.0051229061 -0.0054128859 0.065157533
0.0061835456 -0.0041955691 0.064428911
-0.0067999484 -0.0029739034 0.064882256
0.0068006562 -0.002968953 0.065043747
-0.0073322267 -0.0010625691 0.06475807
0.007325429 -0.00110486 0.064978234
-0.0073390631 0.0010141076 0.065029897
0.0073350174 0.0010448935 0.064908892
-0.0068541891 0.0028358367 0.064904794
0.006721301 0.0031843968 0.064968139
-0.0061684088 0.0042144889 0.065212682
-0.0051143426 0.0054047559 0.064817451
0.0051372051 0.0053769066 0.065112293
0.006140301 0.004249624 0.06476301
-0.0042098081 0.0061721536 0.06517195
-0.0030088748 0.0067840191 0.065108106
-0.0011111734 0.0073245512 0.0653181
0.0010266725 0.0073378938 0.064891003
0.002806863 0.0068602702 0.064966895
0.0042054327 0.006175654 0.064787
-0.0041589607 -0.0062128315 0.067148469
-0.0032068207 -0.006711646 0.066810288
-0.001069959 -0.0073293522 0.067019977
0.001246229 -0.0073028663 0.067094401
0.0030380257 -0.0067732763 0.067063794
0.0042298078 -0.006156154 0.066631056
-0.0061350153 -0.0042562312 0.067373239
-0.0052288952 -0.0052758744 0.066973679
0.0053278608 -0.0051700626 0.067194298
0.0061563896 -0.0042295125 0.066768453
-0.0068376414 -0.0028851565 0.067022413
0.0067530675 -0.0031065745 0.06679637
-0.0072731203 -0.0014331576 0.067299113
0.0073337867 -0.0010526825 0.067151159
-0.0073508611 0.00094411848 0.067096822
0.0073178099 0.0011506428 0.066848777
-0.0067500435 0.0031138321 0.066764034
0.0067520207 0.0031086442 0.06681934
-0.0062078014 0.0041652485 0.06680081
-0.0053674285 0.0051246663 0.067005195
0.0052278824 0.0052901544 0.067081682
0.006115979 0.0042800265 0.06691543
-0.0042886143 0.0061091091 0.0667971
-0.0031184985 0.0067409505 0.067191243
-0.00096575113 0.0073463554 0.067337289
0.0011936517 0.0073115285 0.067006521
0.0030852791 0.0067626801 0.066935278
0.0042161993 0.0061670411 0.067033857
-0.0042689675 -0.0061248266 0.068794854
-0.0033732094 -0.0066426857 0.06904123
-0.00097793271 -0.0073447172 0.068947643
0.0011107365 -0.0073229158 0.069062777
0.0030459878 -0.0067777936 0.068975717
0.0042146072 -0.0061683147 0.069114491
-0.0062380051 -0.0041274941 0.069173291
-0.0052245697 -0.0052828295 0.068959057
0.0055877389 -0.0049239895 0.069280766
0.0061698994 -0.0042126263 0.069144279
-0.0068687289 -0.0027931319 0.069241434
0.0068242662 -0.0028881386 0.068848416
-0.0073056826 -0.0012306741 0.068981051
0.0073270691 -0.0010884546 0.068831749
-0.0073015275 0.0012509809 0.068818457
0.0073531857 0.00092364103 0.069106884
-0.0068648527 0.0028228452 0.06910076
0.0067805615 0.0030218021 0.068947397
-0.0061018933 0.0042976332 0.069082379
-0.0051966258 0.0053092227 0.06900876
0.0051909937 0.0053044274 0.069106176
0.0062401546 0.0041248067 0.068867967
-0.0041957507 0.0061833989 0.068830892
-0.0031771911 0.006719952 0.068940848
-0.0014499772 0.0072678234 0.069030441
0.00094940839 0.007349011 0.06900271
0.0030218819 0.006783626 0.068976827
0.0042431708 0.0061454633 0.069353387
-0.0030549199 -0.0067698881 0.070961252
-0.00098732125 -0.007343085 0.070959173
0.00097877847 -0.0073454566 0.07106147
0.0030807981 -0.006754172 0.071175255
0.0042297328 -0.0061562145 0.070824817
-0.0061791684 -0.0042010397 0.071209826
-0.0053360504 -0.0051806299 0.070970848
0.0052792742 -0.005242432 0.071012639
0.0061597629 -0.0042252974 0.071530275
-0.0068364441 -0.002866036 0.070948444
0.0067691132 -0.0030629721 0.071333997
-0.0073471698 -0.00096331927 0.071183391
0.0073556304 -0.00091433799 0.071141571
-0.0073166252 0.001157486 0.0709484
0.0073487307 0.00095803919 0.070873931
-0.00686388 0.0028239007 0.070911475
0.006844426 0.0028488536 0.071171001
-0.0061804275 0.0041994662 0.071165659
-0.005088693 0.0054171826 0.071083225
0.0050725914 0.0054482687 0.071031108
0.0060225958 0.0043967557 0.071501881
-0.004230781 0.0061553754 0.071070924
-0.0031350099 0.0067379982 0.070957288
-0.00097300735 0.0073460327 0.071092591
0.00088335224 0.0073605231 0.071081653
0.0029635532 0.0068081655 0.071049027
0.0042474889 0.0061420095 0.070940793
-0.0043600304 -0.0060519753 0.072855413
-0.002893317 -0.0068313843 0.07311406
-0.0013926491 -0.0072772843 0.07262367
0.00086726475 -0.0073630637 0.072876252
0.003020128 -0.006771314 0.072721206
0.0041453214 -0.0062237433 0.072966687
-0.0062029301 -0.004171337 0.072774969
-0.005315226 -0.0051820329 0.072998032
0.0050811977 -0.0054518674 0.073250897
0.0061110179 -0.0042862273 0.072612308
-0.0067891683 -0.0029798923 0.07310579
0.0067513455 -0.0030973342 0.072843157
-0.0073634321 -0.00086492841 0.072916418
0.0073564793 -0.00090713211 0.073174916
-0.0073315017 0.0010619147 0.073030367
0.0073441644 0.00098620134 0.073162906
-0.0067403116 0.0031527192 0.072916314
0.006719152 0.0031987932 0.072892368
-0.0061355 0.004255625 0.073361717
-0.0052649034 0.0052426411 0.073113158
0.0054924944 0.0050130729 0.072801009
0.0061984574 0.0041769287 0.072900645
-0.0041421046 0.0062263161 0.072764479
-0.0029816788 0.0067949812 0.072896123
-0.00093064568 0.0073517035 0.07326588
0.0010056469 0.0073412145 0.072725266
0.0029533114 0.006806951 0.072982229
0.0041461298 0.006223097 0.072923243
-0.0043048989 -0.0060960809 0.074902818
-0.003044799 -0.0067771329 0.075203001
-0.0010171859 -0.0073384508 0.07496392
0.00086984551 -0.0073624905 0.075022861
0.0029825647 -0.0067965603 0.075041644
0.0042473227 -0.0061421422 0.074701734
-0.0062848981 -0.0040688775 0.074895613
-0.0050577954 -0.0054715709 0.07515841
0.00513598 -0.0053839996 0.075004406
0.0060553215 -0.0043558488 0.075056471
-0.0068147546 -0.002947167 0.074912377
0.0067196046 -0.0031670386 0.075135447
-0.0073053739 -0.0012326327 0.075298131
0.0073176506 -0.0011548795 0.075122394
-0.0073132841 0.001172036 0.075002745
0.0073652654 0.00085156376 0.074975468
-0.0068495697 0.0028650411 0.075035892
0.0068194983 0.0029181801 0.075097911
-0.0062038735 0.0041701579 0.074608684
-0.0050310255 0.0054870611 0.074929319
0.005280165 0.0052248882 0.074957363
0.0061525581 0.0042343037 0.075144522
-0.004252078 0.0061383378 0.074706294
-0.0031444889 0.0067249201 0.074885979
-0.00076801528 0.0073787011 0.07504531
0.00099510013 0.0073428787 0.075014256
0.0032275203 0.0067066355 0.075108193
0.0042084493 0.006173241 0.075108215
-0.0041967551 -0.0061825961 0.076930605
-0.0028172839 -0.0068579647 0.077119701
-0.0010333844 -0.007336834 0.076905452
0.0011659535 -0.007315902 0.077098727
0.0027763152 -0.0068771467 0.077137485
0.004170015 -0.0062039886 0.077049986
-0.0061741378 -0.0042073284 0.076776341
-0.0052037556 -0.0053222124 0.077065371
0.0052190931 -0.0052940329 0.077062666
0.0061561889 -0.004229764 0.077239275
-0.0066448962 -0.0033701262 0.07687591
0.0066707712 -0.0032973683 0.077045709
-0.0073720007 -0.00080851145 0.076964632
0.0073111458 -0.0011822355 0.077195227
-0.0072800708 0.0013928851 0.077223957
0.0073446156 0.0009841033 0.077289186
-0.0068128658 0.0029570891 0.077210858
0.0067771138 0.0030405396 0.076909922
-0.0061713182 0.0042108526 0.076889634
-0.0052218251 0.0053044618 0.076799572
0.0053222054 0.005196366 0.077210464
0.0061132796 0.0042834007 0.077239379
-0.0041769654 0.0061984281 0.077038459
-0.0032054558 0.0067116767 0.07718043
-0.00091743225 0.0073551433 0.077246331
0.0010097406 0.0073405677 0.077114016
0.0028991294 0.0068290224 0.077040538
0.0042486051 0.0061411164 0.077207178
-0.0042455019 -0.0061435984 0.078972779
-0.0028947655 -0.0068335081 0.078783505
-0.0010615441 -0.0073323878 0.078863569
0.0009692735 -0.0073451712 0.079121567
0.0029373635 -0.0068142512 0.079147115
0.004036678 -0.0063106576 0.079205103
-0.006149081 -0.0042386497 0.079178646
-0.0052226721 -0.0053032227 0.078972653
0.0052540768 -0.0052815797 0.078905925
0.0062018856 -0.0041726427 0.07860171
-0.0067590531 -0.003072714 0.078964911
0.0067148698 -0.003197988 0.07918293
-0.0073322197 -0.001062607 0.079073653
0.0073313131 -0.0010661067 0.078872651
-0.0073607746 0.00088175939 0.07887686
0.0073300232 0.0010765204 0.078986108
-0.0067143706 0.003204261 0.079156056
0.0067995829 0.0029774969 0.079217486
-0.0061448645 0.0042439196 0.079002835
-0.0051372377 0.0053597847 0.078913815
0.0053029852 0.0052152462 0.078843988
0.0062698126 0.004087735 0.078805417
-0.0043275831 0.0060779336 0.078940012
-0.0029196772 0.0068205306 0.078847855
-0.0010368584 0.0073362854 0.078822292
0.00096453371 0.007347438 0.078969307
0.0031422453 0.0067383917 0.079052575
0.0041929758 0.0061856206 0.078877307
-0.0042306599 -0.0061554722 0.080355994
-0.0031320872 -0.0067376196 0.080735527
-0.00078429584 -0.0073755709 0.081062995
0.00096038153 -0.007348361 0.081341691
0.0029354536 -0.0068132794 0.080858149
0.0041553467 -0.0062157223 0.080909148
-0.0061161965 -0.0042797546 0.081202202
-0.0054006856 -0.0051121758 0.081005156
0.005153771 -0.0053297607 0.080937535
0.00614338 -0.0042457758 0.080894127
-0.006748742 -0.0031049168 0.080904983
0.0068349419 -0.0028661501 0.080853418
-0.007341085 -0.0010046558 0.081076778
0.0073371069 -0.0010316555 0.081017673
-0.0072963024 0.0012898972 0.081281684
0.0073431539 0.00099335692 0.08089485
-0.00685855 0.0028329254 0.081008486
0.0068831206 0.0027601018 0.080972843
-0.0060692234 0.0043384717 0.081077479
-0.0052271117 0.0052827946 0.081323065
0.005094565 0.0054130978 0.08106976
0.006157726 0.0042278431 0.080671422
-0.0042580212 0.0061335829 0.08139272
-0.0030568561 0.0067701219 0.080920458
-0.00087594683 0.0073616933 0.081249699
0.001131864 0.0073212851 0.080938123
0.0031048767 0.0067523466 0.081254013
0.0042734081 0.0061212736 0.081285782
-0.0041176323 -0.0062458953 0.08242701
-0.0031025601 -0.0067517548 0.082889274
-0.001208692 -0.007307502 0.083074436
0.00096466677 -0.0073470734 0.083247446
0.0031047848 -0.0067528491 0.083200619
0.0041994806 -0.0061804154 0.082583651
-0.0062039983 -0.0041700024 0.082960442
-0.0053612636 -0.0051482283 0.083116874
0.0053591351 -0.0051536742 0.08296825
0.0060923086 -0.0043096147 0.083021425
-0.0067402553 -0.0031441213 0.083066411
0.0066597112 -0.0033269983 0.08320839
-0.0073170564 -0.0011586393 0.083110549
0.0073939916 -0.00067138416 0.083063498
-0.0073434245 0.0009909831 0.082800701
0.007333735 0.0010467855 0.082963847
-0.0067669638 0.0030841809 0.082888238
0.0068098512 0.002940878 0.082730502
-0.0062346896 0.0041316384 0.083321378
-0.0053758919 0.0051355669 0.082934484
0.0052443179 0.0052707577 0.082870781
0.0062074354 0.0041657058 0.08331167
-0.0042300168 0.0061559863 0.082867056
-0.0030221955 0.0067850659 0.083054654
-0.00080325169 0.0073731705 0.082989216
0.00090450473 0.0073571838 0.083183832
0.0030978487 0.0067549264 0.082983732
0.0042647929 0.0061281659 0.083054319
-0.0042941556 -0.0061046761 0.085080564
-0.003338129 -0.0066613662 0.084926121
-0.0010331689 -0.007336868 0.084890112
0.00094068912 -0.0073505212 0.085158505
0.0030285334 -0.0067746541 0.085008554
0.0041521154 -0.0062183072 0.085977644
-0.0061146049 -0.0042817439 0.085511342
-0.005196217 -0.005296892 0.084960483
0.0054866839 -0.0050226427 0.084994994
0.0061825057 -0.0041968687 0.085058674
-0.0067897029 -0.0030033437 0.085014723
0.0068602925 -0.0028163115 0.084938549
-0.0073429318 -0.00099196716 0.085138112
0.0073354775 -0.0010419699 0.085021183
-0.0073621273 0.0008700355 0.085183218
0.0073131798 0.001178047 0.085303657
-0.0067770155 0.0030296312 0.085062951
0.0068138428 0.0029444599 0.084932469
-0.0061001023 0.0042998735 0.08505252
-0.0050815963 0.0054226276 0.085145257
0.0051686428 0.0053343368 0.085069008
0.0061073778 0.0042907768 0.085101657
-0.0042074472 0.0061740419 0.085051209
-0.0028440957 0.0068521751 0.08480297
-0.00096110924 0.0073466059 0.085248582
0.001119437 0.0073232474 0.085112743
0.0029685288 0.0068023857 0.0849692
0.004165642 0.0062074861 0.085104786
-0.0042952141 -0.0061038295 0.087121442
-0.0029682335 -0.0067946082 0.08714918
-0.0011229709 -0.0073225908 0.086929783
0.00080906868 -0.0073722517 0.087031402
0.0030905134 -0.0067558945 0.087030046
0.0042467564 -0.0061425949 0.087354794
-0.0063102348 -0.004037207 0.086711034
-0.0053057084 -0.005191694 0.086854585
0.0053189769 -0.0051980186 0.087198548
0.0061629144 -0.0042213574 0.087168157
-0.0068733236 -0.0027812331 0.086960755
0.0068234261 -0.0029130992 0.086949706
-0.0073599406 -0.00088704255 0.087217614
0.0073553822 -0.00091591064 0.086810105
-0.0073632337 0.00086618442 0.087129369
0.0073256153 0.0011044379 0.086944059
-0.0067690327 0.0030755121 0.086829685
0.0067703361 0.0030530875 0.087119117
-0.0061596534 0.0042254333 0.08720281
-0.0053896229 0.0051024547 0.087178849
0.0052922643 0.0052275602 0.086996436
0.0061748731 0.0042064092 0.087188154
-0.0042500184 0.0061399853 0.087212302
-0.0029471195 0.0068046697 0.086965606
-0.0011529197 0.0073179305 0.08717519
0.00091899309 0.0073545608 0.087311856
0.0030208933 0.0067795385 0.087161042
0.0040787905 0.0062769675 0.08619976
-0.0042003444 -0.0061797248 0.089077964
-0.0028311659 -0.0068569384 0.088948958
-0.00095062418 -0.0073499018 0.088958979
0.0010433182 -0.007335145 0.088977434
0.0029705435 -0.0067957421 0.089050241
0.0042716325 -0.0061226948 0.088802963
-0.0061685005 -0.0042143753 0.089454576
-0.0052506295 -0.0052750059 0.089275226
0.0053484011 -0.0051633357 0.08918912
0.006139243 -0.0042509465 0.089400396
-0.0066557783 -0.0033429968 0.088955298
0.0067519839 -0.0031061999 0.0891008
-0.0073507275 -0.00094519724 0.088820904
0.0073468923 -0.0009634 0.089140609
-0.007325734 0.0010991815 0.088835418
0.0073222206 0.0011179267 0.089310125
-0.006752952 0.0031149311 0.089303315
0.0067696064 0.0030474353 0.088626564
-0.0060477704 0.0043652877 0.089437783
-0.0051287115 0.0054124719 0.088977449
0.0052166614 0.0053098863 0.089014113
0.0061495407 0.0042380746 0.088677704
-0.0041587935 0.0062129656 0.089129582
-0.0029645662 0.0068037445 0.089126341
-0.0011971514 0.0073109753 0.088896923
0.00099969818 0.0073404917 0.088819444
0.0031120118 0.0067449859 0.088821016
0.0042556999 0.0061354404 0.089391321
-0.0041750534 -0.0061999573 0.090870529
-0.0030193122 -0.0067826048 0.091036655
-0.00099653308 -0.0073406156 0.090815537
0.0011329202 -0.0073209498 0.09088923
0.0030621111 -0.0067717866 0.091025338
0.0041698287 -0.0062041371 0.09090618
-0.0061809323 -0.0041988343 0.090973169
-0.0053290948 -0.0052025677 0.090950228
0.0051049786 -0.0053985398 0.091096222
0.0061323452 -0.0042595691 0.090945899
-0.0066870889 -0.0032644814 0.090999909
0.0068481504 -0.0028514671 0.090697549
-0.0073366067 -0.0010348185 0.090973146
0.0073092449 -0.001202954 0.091313727
-0.0072976584 0.0012705683 0.090984993
0.0073634102 0.0008650677 0.090908334
-0.0068101003 0.0029701579 0.090881728
0.0068265647 0.002904023 0.090994962
-0.0060565118 0.00435436 0.091579571
-0.0052484283 0.0052743782 0.090985738
0.0052395407 0.005268598 0.091093019
0.0061567421 0.0042290729 0.091133349
-0.0042005139 0.0061795893 0.091059953
-0.003262731 0.006681418 0.090966128
-0.0013107222 0.0072907391 0.090803251
0.0013613292 0.0072835358 0.090915345
0.002947364 0.0068117469 0.090995736
0.0042922627 0.0061061904 0.090958014
-0.0041713356 -0.006202932 0.092974223
-0.0030286617 -0.0067759673 0.093315557
-0.000784492 -0.0073761325 0.093228638
0.00092209538 -0.007351636 0.092872977
0.0028610711 -0.006843816 0.092920691
0.0042192903 -0.0061645675 0.092791036
-0.0062161321 -0.0041548349 0.092584774
-0.0053163739 -0.0052074455 0.093055241
0.0052170148 -0.0052694939 0.093042299
0.0061470992 -0.0042411266 0.092927091
-0.0067455461 -0.0031345163 0.092694722
0.0067642857 -0.0030692443 0.093029611
-0.0073356936 -0.0010383717 0.092913203
0.0073802066 -0.00075869658 0.093185969
-0.0073224092 0.001124744 0.092874296
0.0073151495 0.0011637273 0.092888974
-0.0067552552 0.0031072835 0.092824414
0.0067869411 0.0030081603 0.092834488
-0.0062074056 0.0041657435 0.092885301
-0.0051125954 0.0053774519 0.093008049
0.0052316473 0.0052846512 0.093095906
0.0061873673 0.0041907905 0.093345225
-0.0041008685 0.0062593054 0.092745066
-0.0032018402 0.0067110476 0.093045473
-0.00083833735 0.0073676305 0.092933185
0.0010964517 0.0073258085 0.092730179
0.0030010284 0.0067871646 0.092951111
0.0041839345 0.0061928527 0.092940576
-0.0042548599 -0.0061361128 0.095110878
-0.0028804252 -0.0068383683 0.095335886
-0.00082211121 -0.007370193 0.095096081
0.0010697049 -0.0073310374 0.094920047
0.0030742509 -0.0067626508 0.095181629
0.0041807806 -0.0061953757 0.095101394
-0.0060506728 -0.0043616593 0.095138483
-0.0053133718 -0.0052109323 0.094903849
0.0053777425 -0.005114947 0.095046848
0.0060754782 -0.0043306523 0.09471269
-0.0068561472 -0.0028393609 0.094990447
0.006725546 -0.0031763599 0.094900943
-0.0073260106 -0.0010900417 0.094858214
0.0073504103 -0.00094740215 0.095034488
-0.0073549971 0.00091533409 0.095152758
0.0073027355 0.0012404034 0.09495993
-0.0067631966 0.00306195 0.094949029
0.0067919083 0.0030004403 0.094993718
-0.006181262 0.0041984236 0.094661012
-0.0053804163 0.0051480965 0.09487313
0.0052965311 0.005224356 0.094959132
0.0060216514 0.0043979352 0.095879063
-0.004214583 0.0061683338 0.094788827
-0.0029149165 0.0068234345 0.094693966
-0.000853148 0.0073652924 0.09481591
0.0010624984 0.0073300377 0.095040008
0.0030493499 0.0067700893 0.09512002
0.004191265 0.0061869882 0.094941989
-0.0041921879 -0.0061862497 0.096961208
-0.0028753658 -0.0068397885 0.096899241
-0.00099373201 -0.0073425886 0.096891627
0.00089293136 -0.0073590111 0.096980482
0.0031698935 -0.0067246021 0.096997112
0.0043576164 -0.0060539069 0.096536145
-0.0061281617 -0.004264798 0.097164951
-0.0053108577 -0.0051982873 0.096959718
0.0052795433 -0.0052429573 0.097215138
0.0061918939 -0.0041851327 0.09672457
-0.0066800937 -0.0032705541 0.097061679
0.0067498274 -0.0031029554 0.097009316
-0.0072991103 -0.0012563178 0.097076595
0.0073411255 -0.0010043876 0.096892335
-0.0073751062 0.00078495953 0.09668541
0.0073363143 0.0010312859 0.096702047
-0.0067233061 0.003194137 0.096924759
0.0067931209 0.0030007546 0.097071819
-0.0061081434 0.0042898213 0.097255483
-0.0051941709 0.005323892 0.096632175
0.0053035002 0.0051835491 0.09686733
0.0062285541 0.0041393088 0.09710326
-0.0027664157 0.0068796417 0.097297549
-0.0010177385 0.0073393048 0.096712761
0.0012699387 0.0072971378 0.097257085
0.0031331249 0.0067448886 0.096685641
0.0042619426 0.0061304462 0.097247228
-0.0043020584 -0.0060983533 0.0990915
-0.0029305813 -0.0068199909 0.098826595
-0.00094014098 -0.0073515568 0.098981716
0.0010976923 -0.0073254579 0.099101737
0.0031094353 -0.0067519262 0.09902475
0.0042369291 -0.0061504571 0.098897986
-0.0061350646 -0.0042561698 0.098668694
-0.0053735944 -0.0051384903 0.098963559
0.0052220006 -0.0052977772 0.099139564
0.0061900644 -0.00418742 0.098797791
-0.006877427 -0.002774274 0.09901204
0.0067519941 -0.0030912538 0.099000797
-0.0073723751 -0.00080829416 0.099079221
0.0073415255 -0.001003671 0.099047065
-0.0073574893 0.00090256851 0.098719478
0.007337111 0.0010316288 0.099033669
-0.0067843059 0.003030085 0.09890911
0.0068111387 0.0029458436 0.099085107
-0.0061191684 0.00427604 0.099347904
-0.0052289502 0.0052730944 0.099012822
0.0053877095 0.005122391 0.098918281
0.0061717746 0.0042102817 0.098847479
-0.0042765532 0.0061187572 0.098984182
-0.0028399199 0.0068514273 0.098795615
-0.0011754931 0.0073125828 0.098961428
0.0010239597 0.0073383227 0.099164434
0.0027132907 0.0068943449 0.099178672
0.0042554261 0.0061356588 0.098621443
-0.0041802833 -0.0061957729 0.10125556
-0.0026861632 -0.0069103604 0.10104354
-0.00077284285 -0.0073779714 0.10096452
0.00092408259 -0.007354076 0.10112211
0.0031019524 -0.006747216 0.10098846
0.0041755503 -0.0061995597 0.10137977
-0.0062177358 -0.0041528307 0.10111841
-0.0052894205 -0.0052062497 0.10114614
0.0052481946 -0.0052646329 0.10078079
0.0061290935 -0.0042636339 0.10094094
-0.0067393812 -0.0031403329 0.10084297
0.0067874952 -0.0029992976 0.10114316
-0.0073440713 -0.00098754826 0.10119184
0.0073750759 -0.00079118105 0.10076285
-0.0073842797 0.00073289598 0.10095923
0.0072637703 0.0014861547 0.10122181
-0.0067642559 0.003076548 0.10125145
0.0067882766 0.0029966857 0.10115753
-0.006129425 0.0042632185 0.10036637
-0.0053137676 0.0052132234 0.1007603
0.0050187097 0.0054824501 0.10118695
0.0062035262 0.0041705933 0.10130812
-0.0042526685 0.0061378651 0.10103641
-0.003046765 0.0067741545 0.10108603
-0.001086219 0.0073284917 0.10095941
0.00093693647 0.0073520634 0.10094933
0.003008883 0.0067825946 0.10102005
0.004198269 0.0061813854 0.10156111
-0.0042254506 -0.0061596404 0.10323804
-0.0027034828 -0.0069012861 0.10288169
-0.00087857456 -0.0073609534 0.10312371
0.00091254647 -0.0073556486 0.10304204
0.0030194242 -0.0067831287 0.10304986
0.0041385703 -0.0062291436 0.10274196
-0.0061275708 -0.0042655361 0.10350654
-0.005392462 -0.0051248074 0.10293563
0.0051324945 -0.005405366 0.1028548
0.0061403355 -0.0042495807 0.10283995
-0.0067290193 -0.0031710076 0.10283012
0.0067790309 -0.0030138025 0.10318136
-0.0072863931 -0.0013485764 0.10305955
0.0073247286 -0.0011058028 0.10303449
-0.0073293014 0.0010754589 0.10305588
0.0073375055 0.0010291282 0.10284755
-0.0067214975 0.0031825658 0.10283719
0.006782386 0.0030094478 0.10315568
-0.0061485451 0.0042393194 0.10275269
-0.0052096331 0.0053283456 0.10276669
0.0052758991 0.0052324967 0.10314202
0.0063186912 0.0040266365 0.10273051
-0.0042315042 0.0061547966 0.10337911
-0.0029297792 0.0068126917 0.10310211
-0.0009242472 0.0073540658 0.10286246
0.00089751917 0.0073582865 0.10330145
0.0030370329 0.0067810942 0.10294067
0.0042082304 0.006173416 0.10293628
-0.0041976715 -0.0061818631 0.1050398
-0.0028818497 -0.0068382658 0.10521895
-0.0010245222 -0.0073382338 0.10495713
0.00077605876 -0.0073771346 0.10513201
0.00274106 -0.0068900567 0.10468863
0.0043349797 -0.0060720164 0.1046161
-0.0061486359 -0.0042392053 0.10482144
-0.0051822211 -0.0053328322 0.1051086
0.0052360292 -0.0052973251 0.10497624
0.0061014667 -0.0042981664 0.1051902
-0.0068077305 -0.0029570812 0.10502422
0.0067651384 -0.0030669868 0.1053335
-0.007371285 -0.00081519998 0.10481927
0.0073472937 -0.00096714252 0.10462216
-0.0073251827 0.0011071804 0.10496143
0.0073315194 0.0010611778 0.10504158
-0.0068101767 0.0029657523 0.10504825
0.0068216813 0.0029177612 0.10518793
-0.0061968337 0.004178958 0.10494811
-0.005326895 0.0051808259 0.10489663
0.0052411589 0.0052821999 0.10475048
0.006186462 0.004191922 0.10486983
-0.004241135 0.0061470922 0.10475031
-0.0029620675 0.0068041999 0.10480216
-0.00090746657 0.0073567163 0.10474072
0.0011370579 0.0073201847 0.10506952
0.0028648239 0.0068444619 0.10515969
0.0042271893 0.0061582485 0.10536675
-0.0041690753 -0.0062047401 0.10691847
-0.0030247672 -0.0067816805 0.10718568
-0.0010471162 -0.0073340004 0.10701342
0.0011560908 -0.0073170136 0.10713989
0.0028989653 -0.0068257316 0.10694229
0.004250716 -0.0061394274 0.10684071
-0.0061858385 -0.0041927025 0.10710862
-0.0052038478 -0.0053143669 0.10691006
0.0053088376 -0.0052073416 0.10720377
0.0062104119 -0.0041619851 0.10715643
-0.0067931879 -0.0030031733 0.10716939
0.0067162691 -0.0031900958 0.10713326
-0.0073550162 -0.00091228518 0.1069928
0.0073564295 -0.00090382004 0.10704482
-0.0073774625 0.00077607058 0.10686452
0.0073352973 0.0010370542 0.10694496
-0.0067893472 0.0030212735 0.10700035
0.0068561831 0.0028274751 0.10705419
-0.0061398782 0.0042501525 0.1069803
-0.0051264199 0.0053716567 0.10701197
0.0053148721 0.0052001956 0.10697561
0.0061876462 0.0041904431 0.10661089
-0.0042781779 0.006117458 0.10732
-0.0030020855 0.0067897737 0.10713702
-0.00092565105 0.007353358 0.10696314
0.0010250824 0.0073381453 0.10689797
0.0029590146 0.0068082456 0.10686671
0.0041686427 0.0062050857 0.10708468
-0.0040887515 -0.0062689995 0.1094978
-0.0030685342 -0.0067581092 0.10880081
-0.0011212117 -0.0073229675 0.10894646
0.0011434815 -0.0073189847 0.10900608
0.0029616253 -0.0068074907 0.10895226
0.0043117804 -0.0060905758 0.10867105
-0.0061357482 -0.0042553153 0.10887296
-0.0052105254 -0.0053025978 0.10910342
0.0054524867 -0.0050573847 0.10896873
0.0061228625 -0.0042714216 0.10915931
-0.006812613 -0.0029553548 0.10895785
0.0067908927 -0.0029960151 0.10937786
-0.0073723644 -0.00080402492 0.10885777
0.0072941934 -0.0013034397 0.10894745
-0.0073236739 0.0011130654 0.10905956
0.0073357057 0.0010405347 0.10884327
-0.0067863753 0.0030336394 0.10911439
0.0067945709 0.0029902442 0.10890555
-0.0062130657 0.0041586678 0.10929743
-0.0053941798 0.0051234588 0.1090648
0.005263804 0.0052359095 0.10898247
0.0061750612 0.0042061736 0.10903189
-0.0042905966 0.0061075231 0.10847577
-0.0028331273 0.0068547488 0.10903595
-0.00087449094 0.0073619219 0.10931113
0.0010488859 0.0073338826 0.1089272
0.0028252823 0.0068551796 0.10909405
0.004163391 0.0062092873 0.10946679
-0.0042614392 -0.006130849 0.11094884
-0.0031478917 -0.0067305863 0.11102177
-0.0011906035 -0.0073105297 0.11094886
0.00086644175 -0.007362558 0.11085051
0.0029406438 -0.0068087089 0.11085421
0.0041235904 -0.0062411278 0.11090388
-0.006149123 -0.0042385962 0.11089307
-0.0053682076 -0.00515908 0.11094946
0.0054218299 -0.0051019122 0.11092975
0.0061953533 -0.0041808086 0.11069684
-0.0067865881 -0.0030214912 0.11056697
0.0067771291 -0.0030322864 0.11117318
-0.0073275971 -0.0010899726 0.11099015
0.0073595857 -0.00088928925 0.11082104
-0.0073104398 0.0011942571 0.11096632
0.0073324642 0.0010596586 0.11110057
-0.0068213274 0.0029322242 0.11082031
0.0068566934 0.0028236099 0.1110248
-0.0060798791 0.004325151 0.11148734
-0.0052226698 0.0052815378 0.110959
0.0052592647 0.0052513825 0.1109753
0.0060605002 0.0043493742 0.11062501
-0.0041669901 0.0062064091 0.11106714
-0.0032442876 0.0066930912 0.11088342
-0.00097377296 0.0073462459 0.11091224
0.0010412385 0.0073351874 0.11085411
0.0029578067 0.0068102814 0.11113343
0.0043945736 0.0060243411 0.1104968
-0.0041118292 -0.0062505361 0.11347637
-0.0030149673 -0.0067892228 0.11307491
-0.0007084242 -0.0073881438 0.11309445
0.0011533333 -0.0073156869 0.11308804
0.0030630422 -0.0067699687 0.11304341
0.0041946876 -0.0061842497 0.11286984
-0.0062232367 -0.0041459538 0.11313397
-0.0053927624 -0.0051311003 0.11293316
0.0052125943 -0.005302777 0.11279496
0.0062419688 -0.0041225385 0.11324579
-0.0068066637 -0.0029503438 0.11304238
0.0068934737 -0.002732001 0.11307955
-0.0073295278 -0.0010796592 0.11321626
0.007334006 -0.0010512976 0.11324532
-0.0073541328 0.000923827 0.11330601
0.0073388699 0.0010204916 0.11293154
-0.0067089684 0.003244319 0.11255117
0.0068096346 0.0029595629 0.11300456
-0.0061828541 0.0041964324 0.11283346
-0.005294662 0.0052133393 0.1129286
0.0054273559 0.0050860201 0.11305043
0.0062030451 0.004171194 0.11348462
-0.0042766198 0.0061187046 0.11308581
-0.0030804696 0.0067551099 0.112869
-0.0012514928 0.0073001152 0.1130197
0.0011764205 0.0073123951 0.1129489
0.0030234389 0.0067828209 0.11295606
0.0041949549 0.0061840364 0.11334644
-0.004260737 -0.0061314106 0.1154409
-0.0030835613 -0.0067563523 0.11495511
-0.00096588192 -0.0073471041 0.11485228
0.0011381099 -0.0073192012 0.11482909
0.00313427 -0.0067399717 0.11495645
0.0042415801 -0.0061467364 0.11491489
-0.0062668356 -0.0040914565 0.11457684
-0.0052616508 -0.005253816 0.11517899
0.00530568 -0.0051986333 0.11492581
0.0061428864 -0.0042463928 0.11496975
-0.0068789688 -0.0027584231 0.11485042
0.0067564375 -0.0030913509 0.1148956
-0.0073070629 -0.001210044 0.11500265
0.0073140687 -0.0011720447 0.11515155
-0.0073311394 0.0010694517 0.1148186
0.0073382789 0.0010145827 0.11490742
-0.006737662 0.0031681787 0.11455005
0.006692837 0.003263433 0.11507942
-0.0061370558 0.0042536808 0.11482397
-0.0053190389 0.0051951446 0.11506421
0.005405589 0.0051030992 0.1148264
0.0061450964 0.00424363 0.11476552
-0.0042066225 0.0061747022 0.11470255
-0.0029611487 0.0068049515 0.11498393
-0.0010862348 0.0073267743 0.11475012
0.0011061248 0.0073249107 0.11512399
0.003126099 0.0067408164 0.11513606
0.0041752006 0.0061998391 0.11466321
-0.0042846515 -0.0061122789 0.11726308
-0.0029826085 -0.0067987023 0.11717407
-0.0011562534 -0.007317231 0.11682459
0.00076791644 -0.0073783584 0.11699159
0.0030010561 -0.0067853215 0.11683913
0.0042738314 -0.0061209355 0.11681431
-0.00612179 -0.0042727627 0.11715948
-0.0054550725 -0.0050487756 0.11724846
0.0051941578 -0.0053339954 0.11705142
0.0061351107 -0.004256112 0.11687309
-0.0068396344 -0.0028823644 0.11672886
0.0067224009 -0.0031837041 0.11711098
-0.007302938 -0.0012480628 0.11719903
0.0073495563 -0.00094826944 0.1172002
-0.0073440098 0.00098793616 0.11696837
0.0073473849 0.00096001371 0.11713813
-0.0067194696 0.0032053057 0.11701351
0.0068231891 0.0029227734 0.11717944
-0.0061069494 0.0042913137 0.11678834
-0.0053604497 0.0051594954 0.11705748
0.0053992886 0.005104091 0.11705443
0.006224541 0.0041443245 0.11707082
-0.004002579 0.006337937 0.11740338
-0.0031489301 0.0067265597 0.11696345
-0.00087329338 0.0073614945 0.11684805
0.0010006025 0.007338631 0.11697382
0.0030931544 0.0067567555 0.11714918
0.0041653193 0.0062077441 0.11684092
-0.0042257304 -0.0061594164 0.11883096
-0.0033958205 -0.006636573 0.11895744
-0.00082237489 -0.0073701511 0.1189146
0.001233747 -0.0073036249 0.11893882
0.002742405 -0.0068875374 0.1189632
0.0041350699 -0.0062319445 0.1188668
-0.0060494142 -0.0043632332 0.11932026
-0.0050326716 -0.0054908511 0.11916588
0.0052206004 -0.0052765487 0.11897976
0.0061490121 -0.004238735 0.11929413
-0.0068715285 -0.0027961873 0.11906653
0.0068218503 -0.0029185982 0.11911558
-0.0073791672 -0.00076113665 0.11892998
0.007336996 -0.0010323583 0.11899363
-0.0073604374 0.00088390021 0.11897365
0.0073166937 0.0011556993 0.11881583
-0.0068015698 0.0030047169 0.11905461
0.0067772842 0.0030122523 0.11903448
-0.00619605 0.0041799387 0.11878302
-0.0052528982 0.0052443496 0.11904439
0.0052503017 0.0052663358 0.11887415
0.0062105628 0.0041617965 0.11923584
-0.0041767429 0.0061986065 0.11927713
-0.0029815442 0.0067999116 0.11892419
-0.00095371937 0.0073494129 0.11903436
0.00099878106 0.0073411101 0.11883386
0.0031523686 0.0067277513 0.11886993
0.0041919346 0.0061864527 0.11887557
-0.004047486 -0.0063020112 0.12064342
-0.0032737227 -0.0066754413 0.12122982
-0.00090322091 -0.007356171 0.12077074
0.0010247288 -0.0073382002 0.12112126
0.002963715 -0.0068063354 0.12086584
0.0042421455 -0.0061462838 0.12109704
-0.0061787306 -0.0042015868 0.12101193
-0.0051347106 -0.0053586918 0.12086915
0.0050994372 -0.0054097236 0.12097683
0.0060811336 -0.0043235836 0.12043389
-0.0066927476 -0.0032545868 0.12100143
0.0067875739 -0.0030100211 0.12115286
-0.0073295357 -0.0010756691 0.1211333
0.0073380126 -0.0010259229 0.12105324
-0.0073874793 0.00071262853 0.12083311
0.0073495312 0.00095253059 0.12097337
-0.006776649 0.0030466456 0.12103061
0.0068505448 0.0028242688 0.120837
-0.0061553735 0.0042307833 0.12083992
-0.0052141128 0.0053047067 0.12096201
0.0055002444 0.0050115124 0.12105265
0.0063379249 0.0040025939 0.12192853
-0.0041989824 0.0061808145 0.12078241
-0.002860151 0.0068462607 0.12109952
-0.00093334867 0.0073526292 0.12086586
0.0010093333 0.0073389411 0.121108
0.0029429463 0.0068117953 0.12099485
0.0042256392 0.006159489 0.12062234
-0.0041890796 -0.0061887368 0.12286514
-0.0028107085 -0.0068629878 0.12307639
-0.0010488647 -0.0073343897 0.12315208
0.0011440089 -0.007319367 0.12298809
0.0031617298 -0.0067243776 0.12296742
0.0041852929 -0.0061917664 0.12288895
-0.006181262 -0.0041984222 0.12281043
-0.0052265329 -0.0052892701 0.12294933
0.0052561504 -0.0052627744 0.12327302
0.0061363382 -0.0042545777 0.12300865
-0.0067731165 -0.00305742 0.1231511
0.0067557008 -0.0031010911 0.12287558
-0.0073180781 -0.0011508678 0.12313008
0.007365515 -0.00085174124 0.12305675
-0.0072910869 0.0013149027 0.12308732
0.0073235463 0.0011175405 0.12310381
-0.0068077724 0.0029722569 0.12315038
0.0068441592 0.0028534769 0.12321475
-0.0062411241 0.0041235951 0.12299778
-0.0052665365 0.0052495315 0.12312052
0.0051721749 0.0053326562 0.1230031
0.0061398521 0.0042501851 0.12258842
-0.0043069073 0.0060944743 0.12274829
-0.0030602505 0.0067644357 0.12321576
-0.00075685448 0.0073804972 0.12300937
0.00091636268 0.0073544942 0.12323608
0.0030199087 0.0067812596 0.12280761
0.0042989166 0.0061008669 0.12254119
-0.0041541522 -0.0062166778 0.12516822
-0.0029877834 -0.0067930822 0.12487637
-0.0011079772 -0.0073250555 0.12478957
0.0011041042 -0.0073255966 0.12514329
0.0029434685 -0.0068066944 0.12484297
0.0041627185 -0.0062098252 0.12518565
-0.0062149842 -0.0041562696 0.12526856
-0.0053486587 -0.005154551 0.12523511
0.0053942399 -0.0051167808 0.12517786
0.0062154518 -0.0041556861 0.1250414
-0.0067796307 -0.0030266279 0.12505065
0.0068296189 -0.0028888648 0.12498531
-0.0073213992 -0.0011235437 0.12522827
0.0073369727 -0.0010298968 0.12489133
-0.0073652263 0.00084662973 0.12511602
0.0073509514 0.00094398268 0.12503974
-0.0068513802 0.0028668928 0.12502125
0.0068290448 0.0029009855 0.1250838
-0.0061661117 0.0042173597 0.12550667
-0.0052880896 0.0052266992 0.12512064
0.0051858984 0.0053139622 0.12465449
0.0061214054 0.0042732432 0.12483755
-0.0043044505 0.0060964399 0.12502065
-0.003033106 0.006781505 0.12506516
-0.0010274657 0.0073366859 0.12508069
0.00081479026 0.007371346 0.12478624
0.0029296172 0.0068176524 0.12515379
0.0041770209 0.0061983834 0.12529507
-0.004223018 -0.0061615855 0.12665388
-0.0029302135 -0.0068178629 0.12702204
-0.00079925684 -0.007373665 0.12698984
0.0010801679 -0.0073287706 0.12693679
0.0027678146 -0.0068762931 0.12713552
0.0042307051 -0.0061554364 0.12713055
-0.0062093767 -0.0041632797 0.12691183
-0.005351143 -0.0051644985 0.12714502
0.005040173 -0.0054753073 0.12665717
0.0061327927 -0.0042590094 0.12724026
-0.0068407813 -0.0028814089 0.12675469
0.0066646305 -0.0033183056 0.12710226
-0.0073220916 -0.0011267533 0.12714207
0.0073361313 -0.0010220602 0.12719741
-0.0073903501 0.00069444726 0.12707733
0.0073516672 0.00093483034 0.126862
-0.0067828046 0.0030485522 0.12720327
0.0068326415 0.0028925822 0.1270691
-0.0062688361 0.0040889545 0.12704983
-0.0054142619 0.0051217708 0.1268457
0.0052477592 0.0052630305 0.12727024
0.0060718348 0.004335206 0.1269338
-0.0042342204 0.0061526238 0.12720852
-0.0029750969 0.0068035964 0.12690887
-0.00088875322 0.00735967 0.12725163
0.00089078187 0.0073593501 0.12692192
0.0030183832 0.0067846011 0.12704854
0.0040063695 0.0063349046 0.12774244
-0.004139442 -0.006228447 0.1286341
-0.0031765003 -0.0067297118 0.12921725
-0.0011346709 -0.0073205051 0.12885168
0.00079671579 -0.0073741353 0.12919518
0.0030636792 -0.0067675188 0.12902363
0.0041865418 -0.006190767 0.12924001
-0.0061600818 -0.0042248983 0.12935846
-0.0054206303 -0.0050925547 0.12896264
0.0053301272 -0.0051926137 0.12895313
0.0062156012 -0.0041554989 0.12889327
-0.0068021892 -0.0029653627 0.12907577
0.0068418947 -0.0028579209 0.12908341
-0.0073441262 -0.00098396768 0.12889063
0.0073521049 -0.00093115657 0.12900418
-0.0073408782 0.0010013074 0.12893036
0.007321869 0.001128162 0.12930642
-0.0068165106 0.0029575983 0.12872231
0.0066899802 0.003251879 0.12914565
-0.006140254 0.0042496826 0.12850006
-0.0051948377 0.0053047892 0.12899525
0.0052638603 0.0052478276 0.12906872
0.006158438 0.0042269519 0.12941821
-0.0042020483 0.0061783614 0.12916572
-0.0029602125 0.0068061682 0.1292994
-0.0011186799 0.0073217014 0.12898731
0.0011213571 0.0073213172 0.12904884
0.0029958077 0.0067924182 0.12930004
0.0042014206 0.0061788638 0.12902524
-0.0041274251 -0.0062380605 0.13152014
-0.0030870535 -0.0067465766 0.13095552
-0.00097716704 -0.0073428378 0.13098487
0.0008312756 -0.0073683434 0.13114507
0.0028708477 -0.0068382313 0.13101488
0.0043252944 -0.006079765 0.13122149
-0.0060811499 -0.0043235626 0.13017148
-0.0050942698 -0.0054101548 0.13101517
0.0052495431 -0.0052623958 0.13106389
0.0061586904 -0.0042266375 0.13009995
-0.006817935 -0.0029231946 0.13119927
0.0067814221 -0.0030361412 0.1307539
-0.0074084532 -0.00057979615 0.13115951
0.0073578195 -0.0008942131 0.13102372
-0.0073309788 0.0010704633 0.13115278
0.0073170108 0.0011451577 0.13076144
-0.0067615276 0.0030766276 0.13085337
0.0067387344 0.0031479981 0.13094851
-0.0061174324 0.0042782091 0.13097775
-0.0051706992 0.0053169779 0.13083658
0.0053968667 0.005122825 0.13121764
0.0061544492 0.0042319391 0.13110408
-0.0041854531 0.0061916383 0.13145258
-0.0030851795 0.0067600766 0.13110542
-0.00074942491 0.0073816692 0.13083461
0.00098143483 0.0073450361 0.13102902
0.0032142687 0.0067094364 0.13114329
0.0042247064 0.006160235 0.13080803
-0.0041954773 -0.0061836187 0.13312565
-0.0029350796 -0.0068109483 0.13294569
-0.0011215128 -0.0073229191 0.13291758
0.00097560167 -0.0073459581 0.13329315
0.0029136005 -0.0068249283 0.13300389
0.0042218184 -0.0061625456 0.13308834
-0.0061400025 -0.004249997 0.13299869
-0.0053718686 -0.0051275287 0.13266082
0.0052860016 -0.005230505 0.13280225
0.0061530992 -0.0042336266 0.13288032
-0.0068196664 -0.0029370638 0.13284628
0.0067359866 -0.0031250932 0.13286167
-0.0073549892 -0.00091265206 0.13281545
0.0073182965 -0.0011461988 0.13297197
-0.0073406491 0.0010061412 0.13300283
0.0073365606 0.0010240505 0.13297139
-0.0067862133 0.0030396625 0.13281213
0.0068063615 0.002955907 0.13288413
-0.0062238658 0.0041451682 0.1333666
-0.0052876705 0.0052153813 0.13310857
0.0052780509 0.005223521 0.133044
0.0061599864 0.0042250166 0.13319799
-0.0042433497 0.0061453204 0.13324296
-0.0032581505 0.0066893268 0.13305122
-0.0012241482 0.0073067136 0.13291825
0.00071210839 0.0073875622 0.1330225
0.0028277447 0.0068561248 0.13300495
0.0041980012 0.0061815991 0.13338071
-0.0041360413 -0.0062311674 0.13524209
-0.0028476033 -0.006850129 0.13499318
-0.0011375484 -0.0073197731 0.13490802
0.00076185475 -0.0073797069 0.13485883
0.0029979574 -0.0067926259 0.13488524
0.0042591146 -0.0061327093 0.1351288
-0.0061877668 -0.0041902922 0.13517025
-0.0053433888 -0.0051835594 0.13502465
0.0051948698 -0.0053209672 0.13498314
0.0062507726 -0.004111534 0.13534814
-0.0067417985 -0.0031454926 0.1350432
0.0067203832 -0.0031794622 0.13524209
-0.0073582917 -0.00089686381 0.13487104
0.0073283976 -0.0010868169 0.13480765
-0.0073464466 0.00097067782 0.13523464
0.0073622516 0.00087240426 0.13544439
-0.0067707771 0.0030644296 0.1349314
0.0067097428 0.0032202925 0.13508475
-0.0062181815 0.0041522733 0.1353648
-0.0052968031 0.0052314568 0.13511893
0.0049689012 0.0055248267 0.13493122
0.0062184539 0.0041519334 0.13527523
-0.0041412613 0.0062269918 0.13476196
-0.0029353176 0.0068147276 0.13492642
-0.00093556353 0.007352279 0.13507023
0.00098060363 0.0073445989 0.13486221
0.0030899532 0.0067495862 0.13507873
0.0042269095 0.0061584725 0.13534459
-0.0041695945 -0.0062043252 0.13729112
-0.0031916108 -0.0067223217 0.13691704
-0.0011635934 -0.0073147807 0.13645899
0.0011577671 -0.007314513 0.13723229
0.0031107182 -0.0067477389 0.13708895
0.0041783098 -0.006197352 0.13687193
-0.006165354 -0.0042183073 0.13692826
-0.0049909917 -0.0055166897 0.1371654
0.0051990557 -0.0053194743 0.13690642
0.0062136017 -0.0041579986 0.13715887
-0.0067844326 -0.0030306643 0.13674971
0.0067727268 -0.0030382129 0.13695253
-0.0073411269 -0.0010048628 0.13683268
0.00735449 -0.00092122192 0.13674685
-0.0073171086 0.001156353 0.137187
0.0074008326 0.00062806223 0.13702995
-0.0068078246 0.0029675085 0.13706574
0.0068296823 0.0028904025 0.13705549
-0.0061756591 0.0042054257 0.13728277
-0.0051204064 0.0053971941 0.13689198
0.005139845 0.0053667761 0.13694257
0.0061496529 0.0042379349 0.13721997
-0.0043199691 0.0060840249 0.13722782
-0.0031016846 0.0067485091 0.13693747
-0.0011417832 0.0073197191 0.13728182
0.0010234807 0.0073383981 0.13685818
0.0031044837 0.0067477915 0.13706774
0.0042400411 0.0061479681 0.13701877
-0.0043504308 -0.0060596555 0.13905375
-0.003015337 -0.0067801117 0.13895974
-0.00094992138 -0.0073496834 0.13922945
0.00075107277 -0.0073796678 0.13934933
0.0029974238 -0.0067950999 0.13890179
0.0042054392 -0.0061756484 0.13883419
-0.0062469412 -0.0041163238 0.13898355
-0.0053375941 -0.0051655546 0.13909404
0.0053253262 -0.0051805107 0.13907389
0.0061409059 -0.0042488677 0.13916335
-0.0067814896 -0.0030297872 0.13908061
0.0066959318 -0.0032540248 0.13912494
-0.0073448597 -0.0009790248 0.13914865
0.0073650493 -0.00084886036 0.13893136
-0.0073061371 0.0012213702 0.13899396
0.0073394561 0.0010085242 0.13906915
-0.0067215418 0.0032053175 0.1390896
0.0068693426 0.0027974984 0.13903767
-0.0062777605 0.0040777996 0.13914953
-0.0054016444 0.0051370212 0.13905439
0.005503776 0.0050104246 0.13870862
0.0061710142 0.0042112325 0.13931087
-0.0042011412 0.0061790878 0.13901637
-0.0028302558 0.0068515544 0.13891397
-0.0010823295 0.0073291063 0.13920887
0.0011187148 0.0073220446 0.13903669
0.0029206905 0.0068177776 0.13911688
0.0042622294 0.0061302166 0.13898978
-0.0040975912 -0.0062619275 0.14159988
-0.0031762258 -0.0067181191 0.14099039
-0.0010226892 -0.0073385225 0.14136268
0.000828202 -0.007369231 0.14099091
0.0027688539 -0.0068798969 0.14077681
0.0042205122 -0.0061635911 0.14092879
-0.0061405133 -0.0042493585 0.14092387
-0.0053327116 -0.0051873992 0.14105441
0.005172113 -0.0053505925 0.14102501
0.0062062498 -0.0041671875 0.14123605
-0.006785206 -0.0030270787 0.14105771
0.0068859272 -0.0027486854 0.14137258
-0.007357785 -0.00090069737 0.14088564
0.0073267012 -0.0010840928 0.14100848
-0.0073564784 0.00090843404 0.14070784
0.0073305867 0.0010644225 0.14115152
-0.0067879828 0.0030325316 0.14096622
0.0068805986 0.0027669475 0.14093232
-0.0061863484 0.004192065 0.1411296
-0.0052448655 0.0052938946 0.14088422
0.0053650397 0.0051503247 0.14124461
0.0061454335 0.004243209 0.14093006
-0.0041585132 0.0062131896 0.14125329
-0.0029541915 0.00680531 0.14110346
-0.00098021771 0.0073439777 0.14122771
0.00096287119 0.0073474855 0.14112873
0.0029794932 0.0067966036 0.14100742
0.0042527551 0.0061377967 0.14114194
-0.0041868933 -0.0061904849 0.14288217
-0.0029017108 -0.0068269921 0.14308494
-0.0010559575 -0.0073327455 0.14296661
0.0010128651 -0.0073400736 0.14297186
0.0030231271 -0.0067821508 0.14319265
0.0041739466 -0.0062008426 0.14307743
-0.0061110156 -0.0042862305 0.14314315
-0.0052516088 -0.0052546985 0.14310324
0.0053884839 -0.0051350398 0.14273676
0.0061518578 -0.0042351792 0.14326075
-0.0067267632 -0.0031646814 0.14311638
0.0068244007 -0.0029075153 0.14301701
-0.007327491 -0.001090226 0.14285609
0.0073347613 -0.0010433535 0.14295927
-0.0073537347 0.00092357409 0.14278223
0.007290253 0.0013150293 0.14296284
-0.0067821275 0.0030291739 0.14309622
0.0068048397 0.0029656265 0.14304012
-0.0061313147 0.0042608576 0.14348733
