# .PCD v0.7 - Point Cloud Data file format
VERSION 0.7
FIELDS x y z
SIZE 4 4 4
TYPE F F F
COUNT 1 1 1
WIDTH 1261
HEIGHT 1
VIEWPOINT 0 0 0 1 0 0 0
POINTS 1261
DATA ascii
-0.0040000007 -0.27342108 -0.0023658506
-0.0040000007 -0.27212656 0.00075345475
-0.0037597166 -0.27383947 -0.004000992
-0.0034576585 -0.27300024 -0.0035204596
-0.0040000002 -0.27296096 -0.00084504491
-0.0040000002 -0.27302057 0.00091539131
-0.0040000007 -0.27299911 0.0031134742
-0.0031607528 -0.27327481 0.0039990116
-0.0012267507 -0.27301753 -0.0033520861
-0.00056207145 -0.27311113 -0.0020009889
-0.0008383125 -0.27307367 0.0025299427
-0.0015547965 -0.273047 0.0039990116
0.0011333009 -0.27308074 -0.0031820086
0.00052628154 -0.27322587 -0.0020009892
0.00081099285 -0.27301425 0.0026798749
0.0016331848 -0.27311581 0.0039990116
0.0028448422 -0.2724843 -0.0040009869
0.0030439245 -0.27300641 -0.0040009883
0.0039999997 -0.27282667 -0.00072237861
0.0039295545 -0.27247524 0.0039990135
0.0028725825 -0.27303258 0.0039990116
0.0040000002 -0.27295122 -0.0033345567
0.0040000007 -0.27313513 -0.00088842009
0.0040000007 -0.27296665 0.0010219495
0.0040000002 -0.27279839 0.0029594279
-0.0040000007 -0.27553266 -0.001464406
-0.0034218701 -0.27495679 -0.0035657731
-0.0040000007 -0.27500176 -0.00073688797
-0.0040000002 -0.27484173 0.00086296804
-0.0040000002 -0.27490091 0.0031212594
-0.0026422893 -0.27509394 0.0039990046
-0.0011633248 -0.27503502 -0.0034419051
-0.00060465554 -0.27487689 -0.0020009954
-0.00085392495 -0.27491117 0.002698234
-0.0014971554 -0.27496892 0.0039990046
0.0016173846 -0.27452442 -0.0040009944
0.0011833792 -0.27512625 -0.003307461
0.00070703134 -0.2749005 -0.0020009952
0.00020774468 -0.27505445 0.0019990043
0.00089115388 -0.27475306 0.0028341841
0.0016412053 -0.27459866 0.0039990065
0.0021567768 -0.27537504 -0.0040009976
0.0029790758 -0.27505049 -0.0040009958
0.0039999997 -0.27437845 -0.00013747983
0.0039999997 -0.27489534 0.0013718634
0.0030135177 -0.27523369 0.0039990032
0.0028936504 -0.27488664 0.0039990051
0.0040000002 -0.27499542 -0.0029222593
0.0040000002 -0.27495199 -0.00088394631
0.0040000007 -0.27527836 0.00069593638
0.0040000002 -0.27509883 0.0029130662
-0.0040000007 -0.27639329 -0.0030902734
-0.0040000007 -0.27731988 -0.0011685422
-0.0040000007 -0.27718547 0.00064143463
-0.0035193407 -0.27702689 -0.0035212692
-0.0040000007 -0.2770969 -0.0010099133
-0.0040000002 -0.27700558 0.00083885598
-0.0039266618 -0.27710661 0.0029210739
-0.0030548023 -0.27694201 0.0039989976
-0.0011431014 -0.27715826 -0.0033761961
-0.00060960453 -0.2771211 -0.0020010036
-0.00026790443 -0.27600235 0.0019990008
-0.00084532198 -0.27693978 0.0027290701
-0.001560633 -0.27682477 0.0039989986
0.0011411946 -0.27690655 -0.003192449
0.00045804618 -0.27705845 -0.0020010031
0.00012277406 -0.27704555 0.0019989971
0.00080272893 -0.2769548 0.0024302714
0.0012901447 -0.27772826 0.0039989948
0.0020720414 -0.27789506 -0.0040010065
0.0032107795 -0.27688262 -0.0040010023
0.0039999997 -0.27682585 -0.0014836463
0.0039999997 -0.27677947 0.00028382026
0.0020196105 -0.27754328 0.0039989948
0.0029165205 -0.2769635 0.0039989981
0.0040000007 -0.27693683 -0.0027459841
0.0040000002 -0.276784 -0.00091407739
0.0040000007 -0.27691498 0.00072259054
0.0040000007 -0.27699369 0.003149387
-0.003554442 -0.27895409 -0.0035144961
-0.0040000007 -0.27893198 -0.00093463855
-0.0040000002 -0.27896568 0.0010467514
-0.0040000007 -0.27903423 0.0029679558
-0.0032388624 -0.27894211 0.0039989911
-0.0011675721 -0.27850616 -0.0040010088
-0.0011740132 -0.27897507 -0.0033488171
-0.00046655687 -0.27873018 -0.0020010092
-0.00022090878 -0.27928641 0.0019989889
-0.00087174453 -0.27885365 0.0027912369
-0.0014642742 -0.27942768 0.0039989892
0.001396077 -0.27898347 -0.0040010107
0.0012610403 -0.27911741 -0.003391169
0.00055923266 -0.27923721 -0.0020010113
0.00080733118 -0.27915889 0.002534264
0.0015087979 -0.27947542 0.0039989883
0.003121862 -0.27891865 -0.0040010097
0.0039999997 -0.27919853 0.00068768172
0.0022909567 -0.2798897 0.0039989864
0.0030207715 -0.27904341 0.0039989906
0.0040000007 -0.27881601 -0.0027431902
0.0040000002 -0.27909037 -0.00086605467
0.0040000007 -0.27892849 0.0010717385
0.0040000002 -0.27904013 0.0030338366
-0.0040000007 -0.28066209 -0.0037162029
-0.0040000007 -0.28004834 0.0031090635
-0.0034294038 -0.28127328 -0.0040010191
-0.0035161579 -0.28107503 -0.0036715127
-0.0040000002 -0.28097498 -0.00097637187
-0.0040000002 -0.2807503 0.0011654975
-0.0039365841 -0.28108066 0.0031950176
-0.0030616589 -0.28119507 0.0039989827
-0.0011950668 -0.28069264 -0.0040010167
-0.0010086895 -0.28094992 -0.0030549567
-0.00067319808 -0.28084067 -0.0020010166
-0.00086074864 -0.2805745 0.0019989843
-0.00090998429 -0.28107521 0.0027349109
-0.0013624999 -0.28090292 0.0039989832
0.0011300081 -0.2810491 -0.0032490897
0.00057874992 -0.28088114 -0.0020010171
0.00087932713 -0.28095579 0.0028022495
0.0015574184 -0.28116918 0.0039989827
0.003070578 -0.28061235 -0.0040010163
0.003041642 -0.28104886 -0.0040010177
0.0028931708 -0.28100038 0.0039989832
0.0040000007 -0.28103232 -0.0030871402
0.0040000007 -0.28088173 -0.0010726482
0.0040000007 -0.28125805 0.0010895748
0.0040000002 -0.28097087 0.0030956252
-0.0040000007 -0.28275633 -0.003028146
-0.0040000007 -0.28354532 -0.0011552105
-0.003060662 -0.28264067 -0.0040010237
-0.003527991 -0.2830281 -0.0035694218
-0.0040000002 -0.28309113 -0.00095331372
-0.0040000002 -0.28307185 0.0011347879
-0.0040000002 -0.28296608 0.0030981221
-0.0029863489 -0.28318256 0.0039989757
-0.0011885175 -0.28306288 -0.0033032487
-0.00067764771 -0.2832709 -0.0020010257
-0.00088346645 -0.28321666 0.0026735144
-0.0015097746 -0.28327829 0.0039989748
0.001066878 -0.28311059 -0.0031927049
0.00046895086 -0.28315538 -0.002001025
0.00069848937 -0.28296298 0.0019989756
0.00091254862 -0.28282392 0.0029220993
0.0015194068 -0.28311417 0.0039989753
0.00218492 -0.28391704 -0.0040010284
0.0030376127 -0.28286844 -0.0040010246
0.0039999997 -0.28308037 -0.001061346
0.0039999997 -0.28301051 0.00076833804
0.0028191034 -0.28324968 0.0039989748
0.0040000002 -0.28326276 -0.0029463239
0.0040000007 -0.28292972 -0.00083858368
0.0040000007 -0.28305608 0.0012873801
0.0040000002 -0.28317019 0.00293857
-0.0040000007 -0.28407145 -0.0022086871
-0.0040000007 -0.28515321 0.00065835298
-0.0028598935 -0.28491092 -0.0040010321
-0.0035148335 -0.28497094 -0.0036479102
-0.0040000002 -0.28479472 -0.00090983656
-0.0040000002 -0.28500187 0.0011322267
-0.0040000007 -0.28505704 0.0029190723
-0.0029945883 -0.28501281 0.0039989683
-0.0010904837 -0.28524724 -0.0031002809
-0.00043134502 -0.28471068 -0.0020010308
-0.00084338122 -0.28503323 0.0026097712
-0.0014703561 -0.2848734 0.0039989692
0.0011476583 -0.28492311 -0.0033355444
0.00046261711 -0.28510985 -0.0020010322
0.00084746495 -0.28494945 0.0027316601
0.0015099794 -0.28500175 0.0039989683
0.0030064906 -0.28503895 -0.0039466098
0.0039999997 -0.28436089 -0.00052208611
0.0026593835 -0.28400689 0.0039989715
0.0030104048 -0.28497747 0.0039989688
0.0040000002 -0.28493717 -0.0032448862
0.0040000007 -0.28507838 -0.00077384349
0.0040000007 -0.28503644 0.0012008373
0.0040000007 -0.28489345 0.0031473865
-0.0040000007 -0.28729299 -0.0025590942
-0.0040000007 -0.28609103 -0.00027608519
-0.0040000007 -0.28664443 0.00058614078
-0.0032827579 -0.28700632 -0.0035593922
-0.0040000007 -0.28694469 -0.0010663874
-0.0040000007 -0.28721395 0.00078505412
-0.003820518 -0.2869826 0.0033256689
-0.0030901525 -0.28705031 0.0039989613
-0.0010326116 -0.28796646 -0.0040010433
-0.001129053 -0.28722793 -0.0032573619
-0.00040783788 -0.28706172 -0.0020010395
-0.00011924646 -0.28775141 0.0019989582
-0.00086197257 -0.28716633 0.0029016985
-0.0013926292 -0.2871272 0.0039989608
0.0011100738 -0.28708154 -0.003255398
0.00036114972 -0.28716066 -0.0020010399
0.00084259041 -0.28692874 0.0027580031
0.001558179 -0.28706801 0.0039989613
0.0022212067 -0.28719428 -0.0040010405
0.0030496526 -0.2869426 -0.0039847679
0.0039999997 -0.28729847 -0.0010982777
0.0039999997 -0.28723249 0.0012712063
0.0037971595 -0.28693318 0.0039989608
0.0028238266 -0.2870895 0.0039989613
0.0040000002 -0.28709161 -0.0031350416
0.0040000002 -0.28672865 -0.00099224143
0.0040000002 -0.28700897 0.001075626
0.0040000007 -0.28666484 0.0030545322
-0.0040000007 -0.28939056 -0.0032750734
-0.0040000007 -0.2893931 0.00058983412
-0.0023777471 -0.28926551 -0.0040010479
-0.0034548626 -0.28896171 -0.0034682897
-0.0040000002 -0.2890543 -0.0011358125
-0.0040000007 -0.2888397 0.0012832768
-0.0040000007 -0.28914595 0.0029100096
-0.0030084774 -0.28916594 0.0039989534
-0.0011476604 -0.28890914 -0.0033376582
-0.00037519005 -0.28909317 -0.0020010467
-0.0008554064 -0.2890462 0.0026393384
-0.0015741525 -0.28888524 0.0039989548
0.0012021604 -0.28917629 -0.0034565488
0.0003578063 -0.28896838 -0.0020010464
0.00084107398 -0.28921738 0.0028189376
0.0014486015 -0.28924197 0.0039989529
0.0024528196 -0.2888023 -0.0040010461
0.003027451 -0.28884906 -0.0040010461
0.0039999997 -0.28900567 0.00072062283
0.0037803978 -0.28929105 0.0039989525
0.0030412315 -0.28910428 0.0039989538
0.0040000002 -0.28905424 -0.0029723817
0.0040000007 -0.28907841 -0.00086970226
0.0040000002 -0.28895935 0.0011950003
0.0040000002 -0.28905553 0.0030898317
-0.0040000007 -0.29062098 -0.0039139832
-0.0026352494 -0.29066324 -0.0040010531
-0.0033723279 -0.2909463 -0.0035432708
-0.0040000002 -0.29104093 -0.00092315261
-0.0040000002 -0.29105958 0.0011027117
-0.0038188975 -0.29082906 0.0031562506
-0.0029909052 -0.29113993 0.0039989464
-0.0011555037 -0.29108125 -0.0033083961
-0.00032206925 -0.29074994 -0.002001053
-0.000863055 -0.29090393 0.0019989468
-0.00085799367 -0.29117647 0.0029421314
-0.0013820489 -0.29092002 0.0039989469
0.0011424904 -0.29108721 -0.0032142822
0.00053641846 -0.290656 -0.0020010525
0.00084295269 -0.2910898 0.0026928945
0.0015778204 -0.29070196 0.0039989483
0.0029465291 -0.29095632 -0.004001054
0.0039999997 -0.29140612 0.00077992532
0.0031141639 -0.29102534 0.0039989469
0.0040000007 -0.2910178 -0.0028849954
0.0040000007 -0.29107854 -0.00097757007
0.0040000002 -0.29107848 0.0010644903
0.0040000002 -0.29110172 0.002944831
-0.0040000007 -0.29218239 0.0036201843
-0.0035652157 -0.29323357 -0.0035063124
-0.0040000002 -0.29320624 -0.0013366668
-0.0040000002 -0.29301861 0.00095445401
-0.0038899134 -0.29299551 0.003012141
-0.0029662244 -0.29332328 0.0039989389
-0.0011468539 -0.29291573 -0.0032398393
-0.00043545134 -0.2932758 -0.002001062
-0.00090496719 -0.29310077 0.002744948
-0.0014570685 -0.29281899 0.0039989408
0.0011422904 -0.29300824 -0.0033023544
0.00061334943 -0.29285467 -0.0020010604
0.00086102216 -0.29288897 0.0026518742
0.0013310552 -0.29283628 0.0039989408
0.0030568633 -0.29290643 -0.0039375466
0.0039999997 -0.29292184 0.0016479335
0.0032501984 -0.29335326 0.0037145736
0.0028144245 -0.29317123 0.0039989389
0.0040000007 -0.29315582 -0.0030132092
0.0040000002 -0.29273826 -0.0011658292
0.0040000002 -0.29286823 0.00093980721
0.0040000002 -0.29329297 0.0030044934
-0.0040000007 -0.2958034 -0.0013528786
-0.0040000007 -0.29599547 0.0024661876
-0.0021403085 -0.29466367 -0.0040010675
-0.0034938904 -0.29497322 -0.0033986447
-0.0040000007 -0.29518268 -0.00084292004
-0.0040000002 -0.29513073 0.0011234758
-0.0039157299 -0.29511917 0.0031693238
-0.003235796 -0.29490042 0.0039989324
-0.0011413784 -0.2949594 -0.0031610469
-0.0005232144 -0.29480204 -0.0020010676
-0.00086888508 -0.29505444 0.0027971019
-0.0014987969 -0.29478154 0.0039989334
0.001191448 -0.29495183 -0.0032477113
0.00053163909 -0.29517156 -0.0020010688
0.00085917575 -0.29480818 0.0027310033
0.0014993333 -0.29513022 0.003998932
0.0029158529 -0.29475603 -0.0039108614
0.0039999997 -0.29456443 -0.001267822
0.0039999997 -0.29406604 0.00036847207
0.0039459229 -0.29472953 0.0034642965
0.003054454 -0.29482359 0.0039989334
0.0040000002 -0.29498991 -0.0029400291
0.0040000002 -0.2948643 -0.0010844148
0.0040000002 -0.29493657 0.0010692413
0.0040000002 -0.29483345 0.0029716922
-0.0040000007 -0.29743832 -0.00078402949
-0.0040000007 -0.29679853 0.0014910704
-0.0023682115 -0.29676348 -0.0040010749
-0.0036714007 -0.29702321 -0.0034509171
-0.0040000002 -0.29691759 -0.0010496351
-0.0040000002 -0.29701343 0.0008568574
-0.0040000002 -0.29704282 0.0028718065
-0.0030832735 -0.2967988 0.0039989259
-0.0011763886 -0.29706168 -0.0034520237
-0.000516759 -0.29705533 -0.0020010755
-0.00088877376 -0.29689974 0.0026258952
-0.0013446804 -0.29701784 0.003998925
0.0011338561 -0.29704061 -0.0040010759
0.0010948299 -0.29700986 -0.0032232893
0.00050905114 -0.29733026 -0.0020010765
0.00068920472 -0.29729837 0.0019989237
0.00090851111 -0.2970469 0.0028501137
0.0015065992 -0.29691228 0.0039989259
0.0030245248 -0.29702067 -0.0039347955
0.0039999997 -0.29688048 -0.0008444399
0.0039999997 -0.2963993 0.00079246465
0.0039999997 -0.29798931 0.0020869283
0.0032502485 -0.29676604 0.0039989264
0.0040000007 -0.29709253 -0.0028664831
0.0040000007 -0.29706252 -0.0010051593
0.0040000002 -0.29676786 0.0010366102
0.0040000002 -0.2969631 0.0029593366
-0.0040000007 -0.29947269 -0.0039397539
-0.0040000007 -0.29862908 0.0018172625
-0.0026131216 -0.29965484 -0.0040010852
-0.0034264931 -0.29906103 -0.0037321965
-0.0040000002 -0.29922482 -0.00089982955
-0.0040000002 -0.29898807 0.0013526962
-0.0039125397 -0.29895505 0.0030875262
-0.0030202277 -0.29908744 0.0039989175
-0.0012441697 -0.2989068 -0.0040010829
-0.0011082978 -0.29902148 -0.0033634901
-0.00053365377 -0.29901069 -0.0020010828
-8.9521578e-05 -0.29815742 0.0019989205
-0.00094159832 -0.29880592 0.0029301778
-0.0015754739 -0.29919091 0.0039989171
0.0011909659 -0.29906413 -0.0034716362
0.00043284029 -0.29891646 -0.0020010821
0.00081370649 -0.2988545 0.0027056551
0.0015681845 -0.29911262 0.0039989175
0.0020204675 -0.29896197 -0.0040010829
0.0032188483 -0.2993196 -0.0040010842
0.0039999997 -0.29800588 -0.0011418854
0.0034997375 -0.29826954 0.0036650144
0.0032318088 -0.29889736 0.0039989185
0.0040000007 -0.29896313 -0.003067753
0.0040000007 -0.29900065 -0.00097905728
0.0040000007 -0.29912183 0.0012809767
0.0040000002 -0.29872614 0.0029058189
-0.0040000007 -0.30085257 0.00079847453
-0.003448196 -0.30094057 -0.0035916229
-0.0040000002 -0.30090719 -0.00098205078
-0.0040000002 -0.30101982 0.00076009316
-0.003952248 -0.30085838 0.0030721708
-0.0030251425 -0.30097461 0.003998911
-0.0011859725 -0.301155 -0.0033926836
-0.00047705875 -0.30136514 -0.0020010914
-0.00078501698 -0.30051744 0.0019989121
-0.00082012883 -0.30086407 0.0027135951
-0.0015744752 -0.30095291 0.0039989105
0.0012082409 -0.30104715 -0.0034921195
0.00070305541 -0.30061638 -0.0020010886
0.00093864364 -0.30097145 0.0028893703
0.0014075324 -0.30115876 0.0039989101
0.0024203612 -0.30070311 -0.0040010894
0.003110863 -0.3009738 -0.0039863819
0.0039999997 -0.30025381 0.0014913506
0.002597356 -0.30104792 0.0039989101
0.0029132427 -0.30095899 0.0039989105
0.0040000007 -0.30108848 -0.0030000801
0.0040000007 -0.30094162 -0.0013087075
0.0040000002 -0.30080572 0.00087561266
0.0040000002 -0.30077454 0.0030973924
-0.0040000007 -0.30278638 -0.00071777904
-0.0034646036 -0.30290884 -0.0035573975
-0.0040000007 -0.30316052 -0.00077917567
-0.0040000002 -0.30292267 0.00082950696
-0.0038232692 -0.30282176 0.0030811669
-0.0030499084 -0.30304036 0.0039989036
-0.0011189277 -0.30313757 -0.0040010982
-0.0011534952 -0.3030434 -0.0033675514
-0.00053169241 -0.3028985 -0.0020010967
-0.00087354775 -0.30331212 0.0026830444
-0.0013413408 -0.30273432 0.003998905
0.0011761923 -0.30310717 -0.0034234833
0.00059776194 -0.30294794 -0.0020010967
0.00081147405 -0.30296203 0.0025622456
0.0015176586 -0.3028065 0.0039989045
0.0031322655 -0.30272993 -0.0040010964
0.0030629104 -0.30326742 -0.003878237
0.0039999997 -0.30339974 -0.00045326227
0.0030669151 -0.30301788 0.0039989036
0.0040000002 -0.30308139 -0.003113664
0.0040000002 -0.30323651 -0.0010461026
0.0040000002 -0.30318728 0.0010327677
0.0040000002 -0.30332151 0.0030409642
-0.0040000007 -0.30515274 0.001142443
-0.0040000007 -0.30435348 0.0028400766
-0.0034959621 -0.30486819 -0.0034386639
-0.0040000002 -0.30494651 -0.0010123987
-0.0040000007 -0.30477735 0.00087175611
-0.00390324 -0.30510765 0.0030075819
-0.003303438 -0.3050456 0.0039988966
-0.0011663152 -0.30481872 -0.0033679006
-0.00053332211 -0.30515227 -0.0020011049
-0.0009170507 -0.30507228 0.0025693134
-0.0014336021 -0.30505642 0.0039988966
0.0011458186 -0.30492336 -0.003299474
0.00050240848 -0.30464211 -0.002001103
0.00089063536 -0.30500183 0.0028994742
0.0015354617 -0.30508503 0.0039988956
0.0028904604 -0.30506736 -0.0040011047
0.0039999997 -0.30555484 -0.0014088383
0.0039999997 -0.30580592 0.0010702639
0.0023059731 -0.30534989 0.0039988942
0.0030204351 -0.30529737 0.0039988956
0.0040000007 -0.30497909 -0.0027738165
0.0040000002 -0.30528599 -0.00081066857
0.0040000007 -0.30514663 0.0012617873
0.0040000007 -0.30502066 0.0029447582
-0.0040000007 -0.30606511 -0.00069998385
-0.003512305 -0.30785123 -0.004001115
-0.0034578105 -0.30697456 -0.0034296564
-0.0040000002 -0.30669701 -0.001047658
-0.0040000002 -0.30691871 0.00098491914
-0.0039561749 -0.30708015 0.0029310768
-0.0029587646 -0.30696553 0.0039988896
-0.0017218986 -0.30765218 -0.0040011145
-0.0011720228 -0.30711219 -0.0034024869
-0.00049754622 -0.30723485 -0.0020011126
-2.295067e-05 -0.30712876 0.0019988881
-0.00085736345 -0.30685517 0.002680789
-0.001441479 -0.30708647 0.0039988887
0.0011863996 -0.30691662 -0.0033274621
0.00049239642 -0.30667427 -0.0020011102
0.00083367713 -0.30697942 0.0026972403
0.0014426723 -0.30751944 0.0039988873
0.0022676601 -0.30732515 -0.0040011131
0.0028039131 -0.30704296 -0.0040011117
0.0039999997 -0.30685258 -0.0011518497
0.0039999997 -0.30714512 0.001103251
0.0030096348 -0.30708215 0.0039988887
0.0040000007 -0.30699769 -0.0031478466
0.0040000002 -0.30694294 -0.00088205864
0.0040000007 -0.30716544 0.00096570945
0.0040000007 -0.30687821 0.0030110858
-0.0040000007 -0.30918556 0.00058173941
-0.0040000007 -0.30891213 0.0035330178
-0.0027736758 -0.30922109 -0.0040011201
-0.0035885326 -0.30912709 -0.003454769
-0.0040000002 -0.30900618 -0.0010337513
-0.0040000007 -0.30900076 0.0013251124
-0.0038929819 -0.30910853 0.0029233217
-0.0031471341 -0.30909202 0.0039988817
-0.0011953722 -0.30885774 -0.0032784061
-0.00048913836 -0.30892536 -0.0020011184
-0.0009152696 -0.30922979 0.0027939526
-0.0016226175 -0.30891454 0.0039988821
0.0011837176 -0.30899227 -0.0033097316
0.00038167075 -0.30885839 -0.0020011184
0.00082042854 -0.30900741 0.0026441114
0.0015669158 -0.30921927 0.0039988807
0.0032749742 -0.30881208 -0.0040011187
0.0029523829 -0.30895382 -0.0040011187
0.0039999997 -0.30850893 0.0011150158
0.0039999997 -0.3087489 0.0026852733
0.0031827828 -0.30901468 0.0039988821
0.0040000002 -0.30894554 -0.0030414767
0.0040000002 -0.30908641 -0.0012166016
0.0040000002 -0.3089726 0.0008964634
0.0040000002 -0.30917993 0.0030710595
-0.0040000007 -0.31106764 -0.00066163274
-0.0040000007 -0.31168562 0.0010508162
-0.0035108866 -0.31101489 -0.0034826363
-0.0040000002 -0.31124654 -0.00092486176
-0.0040000002 -0.31092268 0.0010070136
-0.0040000007 -0.31102186 0.0027209842
-0.0030248757 -0.31097144 0.0039988747
-0.001108211 -0.31105942 -0.0032433632
-0.00054869719 -0.31097513 -0.0020011258
-0.00081625761 -0.31094661 0.0025192327
-0.0015086783 -0.31105691 0.0039988747
0.001140956 -0.31108478 -0.0032351546
0.00055379292 -0.31103113 -0.0020011261
0.00081134803 -0.31106806 0.0026350738
0.0015470296 -0.31123626 0.0039988733
0.0032858702 -0.31062776 -0.0040011252
0.0030102406 -0.31104273 -0.0040011262
0.0039999997 -0.31195739 -0.00080871448
0.0039999997 -0.3109411 0.0014370951
0.0030596142 -0.31152603 0.0034843662
0.0027662709 -0.31108347 0.0039988747
0.0040000002 -0.31089753 -0.0028162671
0.0040000002 -0.31104937 -0.001302732
0.0040000002 -0.31098321 0.001203069
0.0040000002 -0.31110403 0.0032023287
-0.0040000007 -0.31304955 -0.0010163977
-0.0040000007 -0.31356272 5.6231065e-06
-0.0021424601 -0.3127563 -0.0040011327
-0.0033132269 -0.31283471 -0.0035302122
-0.0040000007 -0.31289992 -0.00088411436
-0.0040000002 -0.31289238 0.00077210262
-0.0040000002 -0.31313643 0.0029777314
-0.0030058902 -0.31312117 0.0039988672
-0.0011744797 -0.31300873 -0.0033234083
-0.00042795998 -0.31293461 -0.0020011328
-0.00087320135 -0.31299716 0.0027653994
-0.0013309915 -0.31287643 0.0039988682
0.0011625425 -0.31308874 -0.0035847628
0.00032569241 -0.31325004 -0.0020011342
0.00071610068 -0.31269699 0.0019988678
0.00085551961 -0.31289971 0.002555032
0.0014494451 -0.31324732 0.0039988668
0.0030574773 -0.31292152 -0.0040011336
0.0031536063 -0.31295657 0.0034093021
0.0029687958 -0.31304851 0.0039988668
0.0040000002 -0.31298062 -0.0030988422
0.0040000007 -0.31308022 -0.0007392721
0.0040000002 -0.31294084 0.0009989005
0.0040000007 -0.31280589 0.0029351711
-0.0040000007 -0.31508991 -0.0020037871
-0.0024202731 -0.3152777 -0.004001142
-0.0033494455 -0.31504524 -0.0036517533
-0.0040000002 -0.3149986 -0.0011299979
-0.0040000002 -0.31519943 0.0010215498
-0.0039251372 -0.31495011 0.0028633338
-0.0030376993 -0.31496724 0.0039988598
-0.0019468511 -0.31559664 -0.0040011429
-0.0011509983 -0.31488097 -0.003247953
-0.00037626128 -0.31491628 -0.00200114
-0.00071333494 -0.31542951 0.0019988581
-0.00085232605 -0.31492609 0.0028109199
-0.0014616407 -0.31480247 0.0039988612
0.0011788702 -0.3148638 -0.0033673651
0.00069348887 -0.3150292 -0.0020011407
0.00088239129 -0.31487706 0.002890629
0.0013800347 -0.31487224 0.0039988603
0.0030160323 -0.31483963 -0.0039613899
0.0039999997 -0.31501541 -0.0012017637
0.0034540752 -0.31494612 0.0031696057
0.003034686 -0.31493142 0.0039988607
0.0040000002 -0.31487018 -0.0029916787
0.0040000007 -0.31475994 -0.00098951382
0.0040000002 -0.31492373 0.0013467335
0.0040000002 -0.3149941 0.002990436
-0.0040000007 -0.31617808 -0.0022722136
-0.0040000007 -0.31658277 -0.0010465325
-0.0040000007 -0.31736416 0.001309679
-0.0026054024 -0.31620321 -0.0040011453
-0.0035037177 -0.31694141 -0.0035827856
-0.0040000002 -0.31689665 -0.0011066879
-0.0040000007 -0.3170383 0.0011257742
-0.0039746384 -0.31683749 0.0028446398
-0.0030461852 -0.31697431 0.0039988528
-0.0011998498 -0.31691578 -0.0034021335
-0.00052190782 -0.31689352 -0.0020011475
-0.00091450353 -0.31689364 0.0030579213
-0.0013712203 -0.31680709 0.0039988533
0.0013131456 -0.31717503 -0.0036347813
0.00052807637 -0.31703997 -0.002001148
0.00088720553 -0.31693307 0.0028362516
0.0015945612 -0.31704804 0.0039988523
0.0022809068 -0.31749904 -0.0040011499
0.0030729889 -0.31699395 -0.004001148
0.0039999997 -0.31761542 0.0009764139
0.0032384819 -0.31755352 0.0032233938
0.0029446767 -0.31714892 0.0039988528
0.0040000007 -0.31709471 -0.0031032998
0.0040000007 -0.31712422 -0.0010959475
0.0040000007 -0.31721112 0.001078174
0.0040000002 -0.31702858 0.002983341
-0.0040000007 -0.31971082 -0.0012606476
-0.0040000007 -0.31881046 0.0022550398
-0.003444622 -0.31899992 -0.003633799
-0.0040000007 -0.31881616 -0.0013299505
-0.0040000002 -0.3189804 0.00099845859
-0.0038750523 -0.31912532 0.0033427652
-0.0030639987 -0.31891945 0.0039988458
-0.0011054468 -0.3189992 -0.0032191935
-0.00052379572 -0.31897193 -0.0020011547
-0.00082410109 -0.31899977 0.0026116809
-0.0016432407 -0.31869522 0.0039988467
0.0010745677 -0.31892607 -0.0030645202
0.00039785373 -0.31898248 -0.0020011549
0.00079212984 -0.3189919 0.0026564493
0.001434373 -0.31913367 0.0039988449
0.0030864773 -0.31885102 -0.004001155
0.0030214509 -0.31914744 -0.0039584804
0.0039999997 -0.31814617 -0.0016912433
0.0028972013 -0.31891376 0.0039988463
0.0040000007 -0.31896991 -0.0032166722
0.0040000002 -0.31927022 -0.0010711815
0.0040000007 -0.3188903 0.0009597395
0.0040000002 -0.31912503 0.0030762958
-0.0040000007 -0.32032663 -0.0022744508
-0.0020672136 -0.32129255 -0.0040011639
-0.0036628663 -0.32082063 -0.0034472281
-0.0040000007 -0.32104975 -0.00086904108
-0.0040000002 -0.32080129 0.0012517796
-0.0040000007 -0.32059628 0.0030719864
-0.0029558605 -0.32082012 0.0039988388
-0.0011137336 -0.32089239 -0.0031592576
-0.00041427123 -0.32104915 -0.0020011624
-0.00088225363 -0.32078743 0.0027381892
-0.0014303388 -0.32118449 0.0039988379
0.0012108705 -0.32118437 -0.0034549618
0.00047519655 -0.32096687 -0.0020011622
0.00084712118 -0.32100302 0.0026767515
0.0015048311 -0.3210853 0.0039988384
0.0028183863 -0.32109022 -0.0040011625
0.0039999997 -0.32057729 -0.0004234628
0.0039999997 -0.32008111 0.0016569336
0.0032817302 -0.32130522 0.0032497847
0.0029237072 -0.32092574 0.0039988384
0.0040000002 -0.32090405 -0.0030715989
0.0040000002 -0.32104293 -0.0010266273
0.0040000007 -0.32103989 0.0011550577
0.0040000002 -0.32101166 0.0030414022
-0.0040000007 -0.32273784 0.00075449137
-0.0028623838 -0.32205385 -0.0040011667
-0.0034476225 -0.32295465 -0.0037195196
-0.0040000002 -0.32333276 -0.0011088755
-0.0040000002 -0.32288399 0.0013114064
-0.0039201975 -0.32305443 0.0031434156
-0.0032234725 -0.32306704 0.0039988314
-0.0011621906 -0.32296562 -0.0032942649
-0.00032776495 -0.32327381 -0.0020011703
-0.00060135836 -0.3237001 0.001998828
-0.0008491812 -0.3229681 0.0026179322
-0.001515526 -0.32318458 0.0039988309
0.0011601489 -0.32293719 -0.0032125446
0.0004304311 -0.32305387 -0.0020011696
0.00075217255 -0.32311314 0.0024822836
0.0014767377 -0.32287821 0.0039988314
0.0024576308 -0.32235584 -0.0040011676
0.0028612411 -0.32309642 -0.003921085
0.0039999997 -0.3233144 -0.001466336
0.0034679635 -0.32371053 0.0030069177
0.0031554149 -0.32308611 0.0039988309
0.0040000002 -0.32292458 -0.0030286124
0.0040000007 -0.32316026 -0.00098769227
0.0040000007 -0.32319686 0.00097144302
0.0040000007 -0.32308704 0.0029221068
-0.0040000007 -0.32419896 0.0016334922
-0.0040000007 -0.32566497 0.002318705
-0.0028972118 -0.32519671 -0.0040011778
-0.003506826 -0.32494906 -0.0035420491
-0.0040000007 -0.32503036 -0.0012575376
-0.0040000007 -0.32499179 0.0010472018
-0.0040000002 -0.32515445 0.0032234529
-0.002980141 -0.32482922 0.0039988244
-0.0011364609 -0.32501456 -0.0034040699
-0.00047336105 -0.3247152 -0.0020011759
-0.00023457724 -0.32536203 0.001998822
-0.00091573282 -0.3247577 0.0027285591
-0.0015160417 -0.3251628 0.003998823
0.0011205272 -0.32488769 -0.0032684759
0.00054233224 -0.3251552 -0.0020011773
0.00029716347 -0.3254253 0.0019988217
0.00089401891 -0.32490242 0.0025915985
0.0014768703 -0.32512721 0.0039988239
0.0028370274 -0.32502073 -0.0040011769
0.0039999997 -0.32515737 0.0013312866
0.0028763253 -0.32494819 0.0039988239
0.0040000002 -0.32491785 -0.0030989749
0.0040000002 -0.32516336 -0.0011806231
0.0040000002 -0.32475775 0.0011227704
0.0040000007 -0.32489192 0.0030621102
-0.0040000007 -0.32684416 -0.00025221449
-0.0035781332 -0.32683429 -0.0034457557
-0.0040000002 -0.32686034 -0.00094155653
-0.0040000007 -0.32685217 0.0010304787
-0.0038849553 -0.32683548 0.0030630378
-0.003030411 -0.32708311 0.0039988165
-0.0011784394 -0.32693532 -0.0033812162
-0.00052009983 -0.32744819 -0.0020011854
-0.0008558181 -0.32702231 0.0026082909
-0.0017314844 -0.32700935 0.0039988165
0.0011118352 -0.32704884 -0.003177155
0.00037153481 -0.32698902 -0.002001184
0.00083536736 -0.32694235 0.0026480344
0.0014673705 -0.32719287 0.0039988155
0.0031318436 -0.32714215 -0.003911823
0.0039999997 -0.32796228 -0.001656016
0.0030195573 -0.32709789 0.003998816
0.0040000002 -0.32687378 -0.0028752685
0.0040000007 -0.32684857 -0.0013119821
0.0040000002 -0.32699743 0.00095576793
0.0040000007 -0.32711133 0.0029631003
-0.0034096907 -0.32891414 -0.0035674695
-0.0040000007 -0.32912931 -0.00069251965
-0.0040000002 -0.32905886 0.0010558448
-0.0039501586 -0.32892591 0.0028954842
-0.0029010815 -0.32888743 0.00399881
-0.0011564994 -0.32903659 -0.0034273227
-0.00053464418 -0.32910571 -0.0020011917
-0.00020990804 -0.32986677 0.0019988057
-0.00095097604 -0.32897744 0.0027582434
-0.0015323053 -0.32911214 0.0039988095
0.0011646713 -0.32914937 -0.0033569233
0.00040644879 -0.32907569 -0.0020011913
0.0008424159 -0.32906136 0.0025624079
0.0013190119 -0.32899392 0.003998809
0.0030170521 -0.32955116 -0.0040011937
0.0030356327 -0.3289184 -0.0040011914
0.002807131 -0.32922971 0.0035143453
0.0029839901 -0.32907709 0.0039988095
0.0040000002 -0.32900354 -0.0029794907
0.0040000007 -0.32891747 -0.0010096401
0.0039999997 -0.32881096 0.00095247268
0.0040000002 -0.32900503 0.002908553
-0.0040000007 -0.33029613 3.1289917e-05
-0.0035216794 -0.33098873 -0.0034035416
-0.0040000002 -0.33093548 -0.00099361525
-0.0040000002 -0.33105525 0.00095231691
-0.0040000007 -0.33081347 0.0027628967
-0.0030517271 -0.33113557 0.0039988016
-0.0010756387 -0.33082294 -0.0031974129
-0.00041324995 -0.33090508 -0.002001198
-0.00079104776 -0.33085307 0.0024917
-0.0016270247 -0.33060461 0.0039988034
0.0011481507 -0.33100733 -0.0034022795
0.00041144362 -0.33124468 -0.0020011992
0.00084925193 -0.3310827 0.0026097947
0.001483278 -0.33095288 0.003998802
0.0031695797 -0.33103001 -0.0039968961
0.0039999997 -0.3319827 -0.0013541211
0.0039999997 -0.33132917 0.00053485495
0.0033667653 -0.33117351 0.0030848656
0.0028768643 -0.3310208 0.003998802
0.0040000002 -0.33116776 -0.0030375591
0.0040000002 -0.33093342 -0.00079405622
0.0040000007 -0.33098331 0.0010959688
0.0040000007 -0.33102325 0.0030691919
-0.0040000007 -0.33383763 -0.0048973733
-0.0040000007 -0.33260405 -0.002749298
-0.0040000007 -0.33285064 -0.0012503001
-0.0023538724 -0.3330172 -0.018047335
-0.0028970276 -0.33326864 -0.016803693
-0.0032525198 -0.33317041 -0.014959626
-0.0032771721 -0.33312279 -0.012974694
-0.0032411464 -0.33318865 -0.010921168
-0.0034435256 -0.33317092 -0.008828273
-0.0034573807 -0.33320606 -0.0069792904
-0.003374313 -0.33321035 -0.0049310876
-0.0038053303 -0.33287263 -0.0033346072
-0.0040000002 -0.33284384 -0.00090450316
-0.0040000007 -0.33297887 0.0012294402
-0.0040000007 -0.33301222 0.0028717371
-0.0032161805 -0.33299109 0.0047988896
-0.0034458945 -0.33321866 0.0070859846
-0.0032491505 -0.33313212 0.0090448465
-0.0033986145 -0.33322138 0.011083847
-0.0033679812 -0.33314469 0.013128454
-0.0031650085 -0.33312333 0.015087891
-0.0028731523 -0.33323669 0.016794482
-0.0021951175 -0.33344749 0.018022701
-0.00095749076 -0.33327249 -0.018596869
-0.00098243519 -0.33299994 -0.017135639
-0.0010728691 -0.33299997 -0.015078575
-0.0010430178 -0.33299994 -0.013007591
-0.0012497624 -0.33300003 -0.010958197
-0.0011639224 -0.33300006 -0.0089893313
-0.0010059207 -0.333 -0.0070798378
-0.0010218591 -0.33300003 -0.0049147769
-0.0008860188 -0.33285317 -0.0031799776
-0.00070524111 -0.3325164 -0.0020012038
-0.00015863741 -0.33259875 0.0019987959
-0.00071685773 -0.33271965 0.0026584291
-0.0010234028 -0.33287162 0.0049035358
-0.001106364 -0.33300012 0.0068271346
-0.0010086418 -0.33300012 0.0088992193
-0.00096018106 -0.33300003 0.01107883
-0.00099505705 -0.33300006 0.013170669
-0.00098176894 -0.33300006 0.015077447
-0.00083165051 -0.33300015 0.017056447
-0.00087775645 -0.33334264 0.018705679
0.0012106021 -0.33318442 -0.018748261
0.00098406698 -0.33300003 -0.017065739
0.00091011752 -0.333 -0.014916882
0.0010066464 -0.33299991 -0.012968737
0.0010688008 -0.333 -0.010908936
0.0010501352 -0.333 -0.0090180337
0.0008968098 -0.333 -0.0071713473
0.00097535289 -0.33283678 -0.0049288049
0.0008763019 -0.33269182 -0.0031022597
0.00054886594 -0.33244205 -0.0020012036
0.00079165952 -0.33279267 0.003013439
0.001274221 -0.33289567 0.0047925562
0.00099026819 -0.33300006 0.0068140216
0.00093779317 -0.33300009 0.0088849775
0.00090042962 -0.33300006 0.011099098
0.00086187117 -0.33300009 0.01306598
0.00099999097 -0.33300015 0.015064464
0.0011185195 -0.33300006 0.017184673
0.0012135964 -0.33321023 0.018901007
0.0030029754 -0.33325982 -0.019072747
0.0029742082 -0.333 -0.017175073
0.0030132046 -0.33299994 -0.015212437
0.002943632 -0.333 -0.013093132
0.002945117 -0.33300003 -0.01101609
0.0029197955 -0.33299997 -0.0090122754
0.0031623801 -0.33300003 -0.0072840606
0.0029221345 -0.33300003 -0.0049130064
0.0030886396 -0.3325035 -0.0039806757
0.0039999997 -0.33251783 0.0017157202
0.00315957 -0.33285117 0.0047291904
0.0030585041 -0.33300009 0.0069056894
0.0031016266 -0.33300003 0.0088111553
0.0030759592 -0.333 0.010977681
0.0029095127 -0.33300009 0.012817627
0.0031813944 -0.33300015 0.014839167
0.0029639329 -0.33300012 0.016981944
0.0028083825 -0.33321443 0.019121032
0.0049317726 -0.3331376 -0.019022964
0.0051718554 -0.333 -0.017077174
0.0052296058 -0.33299994 -0.014866504
0.0049738255 -0.333 -0.013001781
0.0050545726 -0.333 -0.010938771
0.0047593513 -0.333 -0.0089085363
0.0047804988 -0.33299997 -0.0072702854
0.0049661985 -0.33300003 -0.004968748
0.0047234297 -0.33285582 -0.0029634929
0.0045743361 -0.33284909 -0.0010793741
0.0046614665 -0.33287543 0.0010503069
0.0046873768 -0.33282968 0.0028151327
0.0049589463 -0.33300006 0.0051224637
0.0050866902 -0.33300006 0.0072633885
0.0050314944 -0.33300009 0.0089432821
0.0052421046 -0.33300009 0.011020282
0.0050873249 -0.33300009 0.012928409
0.0048245904 -0.33300015 0.014658073
0.0048759654 -0.33300009 0.016821001
0.0049981303 -0.33322799 0.019015731
0.0071005248 -0.33320513 -0.019079268
0.007207131 -0.33299994 -0.017079389
0.0070729307 -0.333 -0.015093661
0.0071266671 -0.33300003 -0.012928431
0.006913214 -0.333 -0.010927989
0.0068719625 -0.33300006 -0.0089024724
0.0067173233 -0.333 -0.0070498711
0.0070110168 -0.33300003 -0.0049449792
0.0070316349 -0.333 -0.0029594097
0.0070021069 -0.333 -0.0011346547
0.0068386495 -0.33300003 0.00093821943
0.0069586094 -0.33300006 0.0029140867
0.0069944463 -0.33300009 0.0051713246
0.0071568508 -0.33300009 0.0070753852
0.006960596 -0.33300006 0.0090823304
0.0070240451 -0.33300009 0.010763163
0.0071027349 -0.33300009 0.013347704
0.0071320981 -0.33300009 0.014903143
0.006908562 -0.33300006 0.017039383
0.0069117136 -0.33311707 0.019038616
0.0090083079 -0.33325905 -0.019328499
0.0089879502 -0.333 -0.016973924
0.0089542773 -0.333 -0.015051171
0.0089742169 -0.33300003 -0.013217401
0.0091596274 -0.33299997 -0.010904086
0.008877879 -0.333 -0.0089508072
0.0090451045 -0.33300006 -0.0072004744
0.008684081 -0.33300003 -0.0049562017
0.0089307148 -0.33300006 -0.0030008745
0.0087920735 -0.33300006 -0.001235669
0.0090207485 -0.333 0.00071163336
0.0088410722 -0.33300006 0.0031471667
0.0091170846 -0.33300006 0.0050231488
0.0089196749 -0.33300012 0.007166482
0.0089399731 -0.33300003 0.0086585879
0.0086834496 -0.33300006 0.010805664
0.0088549247 -0.33300012 0.012964283
0.0090837628 -0.33300012 0.01496618
0.0089092758 -0.33300012 0.017037295
0.0089912051 -0.33314705 0.019263908
0.01116262 -0.33314821 -0.019189896
0.011103631 -0.33299994 -0.017047295
0.010974345 -0.33299994 -0.015107043
0.010754778 -0.333 -0.012896794
0.010864479 -0.33299994 -0.010962457
0.010996777 -0.333 -0.0091127446
0.010716708 -0.33299997 -0.0070335479
0.011023515 -0.33300003 -0.0049756411
0.010931231 -0.33300003 -0.0031776971
0.011130963 -0.33299997 -0.0010930998
0.010911219 -0.33300006 0.00098919636
0.010739127 -0.33300006 0.0030562798
0.011118443 -0.33300012 0.0048274752
0.01092925 -0.33300009 0.0070035579
0.010830492 -0.33300009 0.0091659306
0.010969589 -0.33300003 0.01100279
0.011254459 -0.33300009 0.013071322
0.011059157 -0.33300015 0.014867887
0.011091502 -0.33300012 0.016812272
0.011091908 -0.3331598 0.0191382
0.01298071 -0.33313364 -0.019334087
0.01313424 -0.33299994 -0.017221553
0.012783566 -0.33300003 -0.01496084
0.012963186 -0.333 -0.012991209
0.012712141 -0.333 -0.011117299
0.012886288 -0.33300006 -0.0089104073
0.013074684 -0.33300006 -0.0068552126
0.012962758 -0.33300006 -0.0049098618
0.013052338 -0.33300006 -0.0030982862
0.013042626 -0.333 -0.00087211898
0.01310256 -0.33300003 0.00097475364
0.012993426 -0.33300003 0.002899084
0.012883455 -0.33300006 0.0050589116
0.013166053 -0.33300003 0.0067612957
0.013111378 -0.33300003 0.0088721365
0.012887349 -0.33300006 0.011053893
0.013176505 -0.33300009 0.012754614
0.012886872 -0.33300015 0.015168962
0.012998721 -0.33300012 0.017050413
0.012932534 -0.3331342 0.019223696
0.013905488 -0.33354279 0.020011447
0.015294515 -0.3333002 -0.020053437
0.014786426 -0.33310533 -0.019445594
0.014828989 -0.33300003 -0.016938537
0.015000494 -0.333 -0.015019435
0.01489996 -0.33299994 -0.013032988
0.015091644 -0.333 -0.011039814
0.015026257 -0.33300006 -0.0090081291
0.0151216 -0.33300006 -0.0068966369
0.015125285 -0.333 -0.0050307033
0.014986328 -0.333 -0.0031966281
0.014927722 -0.33300003 -0.0010500456
0.014949477 -0.33300009 0.00084756431
0.015120601 -0.33300009 0.0030017546
0.015109402 -0.33300009 0.004944975
0.015105066 -0.33300006 0.0070135146
0.014867339 -0.33300006 0.0090324571
0.014947099 -0.33300006 0.011049109
0.014764753 -0.33300012 0.012929831
0.014860245 -0.33300012 0.014926882
0.01494145 -0.33300012 0.016910972
0.014980063 -0.33300009 0.018994408
0.014899335 -0.33347362 0.020061675
0.017083094 -0.3335543 -0.020140378
0.016954975 -0.333 -0.019182157
0.016936025 -0.33299994 -0.01689573
0.017351205 -0.33299994 -0.015030048
0.016921537 -0.33299994 -0.013099588
0.017078737 -0.333 -0.01102977
0.017090132 -0.333 -0.0090108002
0.016743446 -0.333 -0.0069646109
0.016879085 -0.33300003 -0.0051644337
0.017006285 -0.33300006 -0.0031555174
0.016693858 -0.33300003 -0.0012446629
0.016823355 -0.33299997 0.0010019329
0.017030938 -0.33300006 0.0030385389
0.017082831 -0.33300006 0.004832237
0.017057545 -0.33300003 0.0069976049
0.016778508 -0.33300003 0.0090170456
0.016955411 -0.33300012 0.010875007
0.017189039 -0.33300012 0.012907762
0.016996309 -0.33300009 0.015112862
0.01697279 -0.33300009 0.016735066
0.017165367 -0.33300006 0.018878942
0.017048782 -0.33339295 0.020162094
0.019203825 -0.33349213 -0.020259332
0.019294992 -0.33299991 -0.019011019
0.018788893 -0.333 -0.01683466
0.018974436 -0.33299994 -0.0149648
0.018927151 -0.33299994 -0.013168283
0.018923689 -0.333 -0.010945293
0.018895874 -0.33300003 -0.0089446492
0.018907718 -0.33299997 -0.0069745621
0.018888971 -0.333 -0.0049032369
0.019048885 -0.33300006 -0.0029394268
0.019114438 -0.33300009 -0.0011946609
0.018956343 -0.33300003 0.00082534918
0.019006351 -0.33300009 0.0030020438
0.018888097 -0.33300003 0.0050184983
0.018994447 -0.33300012 0.0070229587
0.018731784 -0.33300009 0.0091093779
0.019088147 -0.33300003 0.010865607
0.019167194 -0.33300015 0.013002924
0.019075163 -0.33300006 0.015085883
0.018977731 -0.33300009 0.016759314
0.018916296 -0.33300012 0.018931923
0.018754875 -0.3334091 0.020233734
0.021256834 -0.33326837 -0.020338975
0.021095229 -0.333 -0.01883702
0.021130012 -0.33299994 -0.016974259
0.021148628 -0.33299997 -0.01478093
0.020951241 -0.333 -0.013035705
0.021107124 -0.33300006 -0.011032776
0.020954516 -0.333 -0.0090816906
0.021040715 -0.33299997 -0.0070515154
0.020779746 -0.333 -0.0049412157
0.021058887 -0.33300003 -0.0031871428
0.020913029 -0.33300006 -0.0010724177
0.021081239 -0.333 0.00095425826
0.020965556 -0.33300003 0.0028707874
0.020965572 -0.33300009 0.0050596893
0.020991661 -0.33300009 0.0070380331
0.021133499 -0.33300009 0.0090365969
0.021037601 -0.33300012 0.010960131
0.020940436 -0.33300009 0.013128128
0.020956602 -0.33300012 0.015071572
0.020982413 -0.33300012 0.016880499
0.021097217 -0.33300012 0.019144842
0.02092845 -0.33339214 0.02033505
0.023225714 -0.3333331 -0.020404907
0.023163313 -0.33299991 -0.018957756
0.022738848 -0.333 -0.017142726
0.022932893 -0.333 -0.014809632
0.023214776 -0.33300003 -0.013354556
0.023211306 -0.333 -0.010980794
0.023041923 -0.33300003 -0.0091625024
0.022953141 -0.33300003 -0.0071131289
0.023078224 -0.33300003 -0.004995672
0.023088709 -0.333 -0.0030377123
0.022955421 -0.33300006 -0.00098224543
0.022990536 -0.33299997 0.0010620548
0.023015108 -0.33300009 0.0029622454
0.022941701 -0.33300009 0.0049749743
0.022964463 -0.33300003 0.0070048021
0.022899766 -0.33300006 0.0088948272
0.023027748 -0.33300009 0.010989102
0.023096589 -0.33300015 0.013013023
0.022914862 -0.33300006 0.014939669
0.022985034 -0.33300012 0.017143706
0.022730526 -0.33300009 0.018999649
0.023339586 -0.33317894 0.020452371
0.025053507 -0.33321089 -0.020474974
0.025105847 -0.333 -0.018900383
0.024827082 -0.333 -0.01706698
0.024882762 -0.333 -0.014754866
0.024781665 -0.33299994 -0.012999239
0.024880448 -0.333 -0.010785049
0.024981972 -0.333 -0.0091226799
0.025040349 -0.33299997 -0.007195862
0.024967119 -0.33300003 -0.0050277584
0.024841154 -0.33299997 -0.0031497392
0.024891058 -0.33300006 -0.0011858887
0.025004018 -0.33300009 0.00096002908
0.025014933 -0.33300009 0.0030035144
0.024977975 -0.33300009 0.0052024224
0.025117973 -0.33300006 0.0068791611
0.025028177 -0.33300006 0.0087854099
0.025020383 -0.33300009 0.010957522
0.025164487 -0.33300006 0.012812758
0.024788251 -0.33300012 0.015045897
0.024754729 -0.33300009 0.017032983
0.025145952 -0.33300012 0.018976813
0.024972802 -0.3331897 0.020497352
0.02679834 -0.33323103 -0.020534834
0.027060237 -0.333 -0.019112378
0.027116964 -0.33300003 -0.017228464
0.026942436 -0.333 -0.015186012
0.026949804 -0.333 -0.01314227
0.027119303 -0.33300006 -0.010814724
0.027011752 -0.33300006 -0.008993159
0.027197583 -0.33299997 -0.0068460824
0.026882548 -0.333 -0.0052247094
0.026901815 -0.33300009 -0.0030569537
0.027035654 -0.33300003 -0.00090988714
0.026992979 -0.33300009 0.0009783085
0.027054103 -0.33299997 0.0031103136
0.026847057 -0.33300003 0.005238031
0.027153045 -0.33300012 0.0070226747
0.026927074 -0.33300012 0.0089048101
0.026900752 -0.33300009 0.010810896
0.027166074 -0.33300012 0.013119789
0.027075328 -0.33300009 0.014918523
0.027056497 -0.33300009 0.017124258
0.027069574 -0.33300012 0.01889752
0.027015893 -0.33319533 0.020489004
0.028839191 -0.33322418 -0.020666668
0.028955942 -0.333 -0.018982394
0.028975818 -0.33299997 -0.016884634
0.028901989 -0.33300003 -0.015029517
0.028971832 -0.33299997 -0.012899006
0.029006764 -0.33300003 -0.010936349
0.029056398 -0.33300006 -0.0086999591
0.028936902 -0.33300006 -0.0068007568
0.028990215 -0.333 -0.0051498283
0.028862478 -0.33300009 -0.003043225
0.02914156 -0.33300006 -0.001105084
0.028911548 -0.33300006 0.00082419923
0.028873252 -0.33300009 0.0029968626
0.029039536 -0.33300006 0.0050145825
0.028906623 -0.33300009 0.0072330846
0.029227052 -0.33300006 0.0091305887
0.029071305 -0.333 0.011060547
0.028972317 -0.33300006 0.012919475
0.029122699 -0.33300015 0.01498569
0.028818203 -0.33300006 0.017116467
0.028885281 -0.33300006 0.01889519
0.028972013 -0.33335942 0.020652298
0.030937249 -0.33337292 -0.020824211
0.03098388 -0.33299994 -0.019098137
0.031194402 -0.33299997 -0.017062347
0.031118495 -0.33300003 -0.015000037
0.031027583 -0.33299991 -0.013168033
0.031023955 -0.33300006 -0.010951159
0.030876258 -0.33299997 -0.0091036595
0.031066997 -0.33300003 -0.0070054843
0.030854991 -0.33300003 -0.0051581054
0.030976534 -0.33300006 -0.0028563093
0.031204771 -0.33300006 -0.00089635636
0.030957475 -0.33300009 0.0010688525
0.030937498 -0.33300009 0.0028205309
0.03108169 -0.33300009 0.0050140633
0.031285878 -0.33300003 0.0071423422
0.030877365 -0.33300012 0.0088998415
0.030977841 -0.333 0.011018039
0.031071512 -0.33300012 0.012970868
0.030926472 -0.33300012 0.014956072
0.03068085 -0.33300003 0.01701168
0.031201025 -0.33300012 0.019096017
0.030896928 -0.33325976 0.020686323
0.033058219 -0.33334532 -0.020814611
0.032986265 -0.33299997 -0.018959368
0.032874428 -0.333 -0.016845502
0.033020753 -0.33299997 -0.015107647
0.03309745 -0.333 -0.013018485
0.032960355 -0.33300006 -0.011001063
0.033073351 -0.333 -0.0089072566
0.033128746 -0.33300006 -0.0069911052
0.032969676 -0.333 -0.0048751165
0.03275796 -0.33300003 -0.0032786198
0.033001576 -0.33300006 -0.00099139242
0.033192884 -0.33300009 0.001047668
0.032940462 -0.33300009 0.0030758164
0.032919984 -0.33300009 0.0049249236
0.032938961 -0.33300009 0.0071936524
0.033042997 -0.33300006 0.0090603642
0.032952119 -0.33300003 0.011012933
0.033082414 -0.33300015 0.012962918
0.033019274 -0.33300009 0.015066421
0.032815974 -0.33300012 0.017035067
0.033028182 -0.33300009 0.01909411
0.032997508 -0.33313325 0.020640649
0.034910452 -0.33324733 -0.020870669
0.034905706 -0.33300003 -0.019038877
0.034874804 -0.333 -0.017084133
0.03488455 -0.33300003 -0.015073775
0.034997776 -0.333 -0.01303916
0.035025805 -0.33299997 -0.010985678
0.034996778 -0.33300003 -0.0088708308
0.034848653 -0.33299997 -0.0070765051
0.034966879 -0.333 -0.0048922836
0.034969285 -0.33300003 -0.0028742892
0.034983825 -0.333 -0.0010601595
0.035060439 -0.33300006 0.00088581274
0.034863688 -0.333 0.0030926799
0.035051532 -0.33300012 0.0049891523
0.034778465 -0.33300006 0.0071780346
0.034835979 -0.33300003 0.0092572141
0.035044856 -0.33300009 0.011192425
0.034877248 -0.33300006 0.013061935
0.034994949 -0.33300012 0.014788614
0.035068877 -0.33300015 0.016962884
0.034952365 -0.33300015 0.01904868
0.035079278 -0.33329111 0.020951452
0.036953665 -0.33320978 -0.020793587
0.037084512 -0.333 -0.019265296
0.037186652 -0.333 -0.016954569
0.037150163 -0.33299997 -0.015011892
0.036936469 -0.333 -0.013186866
0.037070803 -0.333 -0.011039486
0.036954988 -0.333 -0.0090490803
0.03716154 -0.333 -0.0069154087
0.036833916 -0.33300003 -0.0052218009
0.037070513 -0.33300009 -0.0030469883
0.036811195 -0.33300006 -0.000830665
0.037022103 -0.33300006 0.0011659594
0.036746159 -0.333 0.0028499146
0.037004557 -0.33300003 0.0050380616
0.037218492 -0.33300012 0.0069831372
0.037004352 -0.33300012 0.0091753947
0.036779393 -0.33300006 0.01109803
0.037008341 -0.33300012 0.012927553
0.037091687 -0.33300012 0.015031889
0.037060458 -0.33300012 0.016977554
0.037187383 -0.33300009 0.018878112
0.036971163 -0.33319429 0.020859793
0.039041158 -0.33333409 -0.021146527
0.0390203 -0.33300003 -0.01925475
0.038966291 -0.33300003 -0.017002944
0.039161209 -0.33299997 -0.015242374
0.039113082 -0.33299994 -0.012862556
0.039064225 -0.333 -0.01100817
0.038897231 -0.33300003 -0.008925247
0.038954992 -0.33299997 -0.0069419746
0.038936522 -0.333 -0.005133321
0.039101139 -0.33300006 -0.0030710723
0.039262541 -0.33300006 -0.0010002271
0.038798716 -0.33300003 0.00070195325
0.038964506 -0.333 0.0033696804
0.039122399 -0.33300009 0.0047653196
0.039279755 -0.33300006 0.0068496121
0.039049022 -0.33300009 0.0091404747
0.039199352 -0.33300006 0.011112641
0.039037015 -0.33300012 0.013096853
0.039409738 -0.33300003 0.014912162
0.038847577 -0.33300009 0.017011749
0.039085042 -0.33300009 0.019109499
0.039055023 -0.33336389 0.02098929
0.041012868 -0.33315927 -0.02108424
0.041134074 -0.33299997 -0.019071955
0.040903281 -0.33299997 -0.017017107
0.04094024 -0.33300003 -0.015166702
0.041177284 -0.333 -0.012929095
0.040990923 -0.33300006 -0.010977468
0.041087553 -0.33300003 -0.0087569663
0.041092325 -0.33299997 -0.0069309017
0.040771205 -0.33299997 -0.0052208751
0.041048467 -0.33300003 -0.0029124978
0.04098276 -0.333 -0.0011362232
0.041073125 -0.33300003 0.0013410551
0.041105222 -0.33300009 0.0029658866
0.040798739 -0.33300003 0.0050328919
0.040721752 -0.33300006 0.0067452774
0.04101757 -0.33300009 0.0089197084
0.041038111 -0.33300009 0.010752826
0.040967256 -0.33300012 0.013129867
0.041122224 -0.33300006 0.014886708
0.040942647 -0.33300006 0.017017141
0.041053083 -0.33300009 0.018884514
0.04101558 -0.33319387 0.021132872
0.043033753 -0.33320048 -0.021182057
0.042910196 -0.33299994 -0.018972207
0.042890482 -0.33299997 -0.017041288
0.043050837 -0.333 -0.014849429
0.043115299 -0.333 -0.013062083
0.043015365 -0.33300003 -0.011085964
0.042920828 -0.33300003 -0.008950267
0.043263387 -0.333 -0.007128574
0.043307953 -0.33299997 -0.0049519469
0.042966351 -0.333 -0.0028505728
0.043019447 -0.333 -0.0010534609
0.042948928 -0.33300003 0.0010485253
0.043132916 -0.33300009 0.0029527205
0.042863823 -0.33300009 0.0048650433
0.042848013 -0.33300006 0.0071473089
0.042942587 -0.33300012 0.0089249983
0.043009043 -0.33300012 0.011098936
0.043014437 -0.33300006 0.012920394
0.043009087 -0.33300015 0.015111258
0.042973328 -0.33300015 0.016950909
0.04290837 -0.33300012 0.01910066
0.043043159 -0.33314347 0.02114418
0.044989347 -0.33341503 -0.021375544
0.044894993 -0.3332237 -0.01881567
0.045022082 -0.33325547 -0.017002037
0.044968061 -0.33324197 -0.015069556
0.045099966 -0.33327493 -0.013033734
0.045009058 -0.33325225 -0.01103097
0.044829946 -0.33320746 -0.0090378448
0.04509031 -0.33327255 -0.00718026
0.044857331 -0.33321431 -0.0052052191
0.044937469 -0.33323434 -0.0030248307
