# .PCD v0.7 - Point Cloud Data file format
VERSION 0.7
FIELDS x y z
SIZE 4 4 4
TYPE F F F
COUNT 1 1 1
WIDTH 1234
HEIGHT 1
VIEWPOINT 0 0 0 1 0 0 0
POINTS 1234
DATA ascii
0.0061926674 0.004184166 0.019540185
-0.0043338696 0.0060729044 0.018611446
-0.0029012309 0.0068264129 0.018938284
-0.00083747011 0.0073669269 0.018927047
0.00098753674 0.0073439991 0.01903649
0.0030130146 0.0067844437 0.019104866
0.0042444048 0.0061444766 0.019026438
-0.0041886745 -0.0061890604 0.020768866
-0.0029026866 -0.0068283961 0.020931229
-0.0013604058 -0.0072843526 0.020751514
0.00077402865 -0.0073777852 0.020976301
0.0029949259 -0.0067900755 0.021135258
0.004293723 -0.006105022 0.02094052
-0.006197717 -0.0041778535 0.020815458
-0.0052452954 -0.0052657742 0.021136889
0.0053124768 -0.0052100131 0.021152792
0.0061452086 -0.0042434894 0.021100476
-0.0067435065 -0.0031189786 0.021019563
0.0068302285 -0.0028827805 0.02099213
-0.0073690657 -0.00082924898 0.020944294
0.0073545035 -0.00092147617 0.021021502
-0.0073520271 0.00093716272 0.020796435
0.0073024929 0.0012508788 0.020905176
-0.0067410646 0.0031355952 0.021041697
0.0068417033 0.0028725197 0.021020874
-0.0062167677 0.0041540409 0.020785302
-0.005110817 0.0054067886 0.021102265
0.0050122375 0.0054936917 0.020810043
0.0061885286 0.0041893399 0.020889405
-0.0042776577 0.0061178738 0.021254394
-0.0030800328 0.0067612766 0.02067277
-0.00086969102 0.0073626805 0.021134555
0.0010950693 0.0073261466 0.020821875
0.0030367135 0.006777016 0.020874754
0.0042043431 0.0061765257 0.021010907
-0.0042829034 -0.0061136778 0.023454644
-0.0031188922 -0.006740462 0.0229642
-0.00093100977 -0.0073529989 0.022971807
0.0010812022 -0.0073290411 0.022822166
0.0031862557 -0.006716066 0.022996629
0.0041789263 -0.0061968588 0.022561632
-0.0061632888 -0.0042208885 0.023028351
-0.0051726354 -0.0053358912 0.023185905
0.0053905952 -0.0051012966 0.023199394
0.0061105811 -0.0042867735 0.023154438
-0.0068014096 -0.0029818872 0.023121368
0.0067770109 -0.0030202509 0.022946686
-0.0073407008 -0.0010051916 0.02294237
0.0073178723 -0.0011506777 0.022810487
-0.0073324242 0.0010613124 0.023011249
0.0073122643 0.0011857665 0.023189964
-0.0067881756 0.0030068569 0.023099186
0.0068479013 0.0028366596 0.022943443
-0.0061020227 0.0042974707 0.022869756
-0.0053403978 0.0051607937 0.022922968
0.0051289173 0.005409182 0.023120271
0.006094778 0.0043065287 0.022569701
-0.0042121611 0.0061702719 0.022988578
-0.0031437469 0.0067271632 0.023157803
-0.0012031568 0.007309325 0.02292154
0.00088228611 0.0073599657 0.022988686
0.0030590973 0.0067680697 0.02275753
0.0042013708 0.0061789039 0.023106739
-0.0042691594 -0.0061246729 0.02503828
-0.002985162 -0.0067973132 0.02495718
-0.00096142816 -0.0073477551 0.0250178
0.00088971748 -0.0073582414 0.024975069
0.0028617848 -0.0068368539 0.024976511
0.0041169804 -0.0062464159 0.025370089
-0.0062557817 -0.0041052727 0.024739426
-0.0049439422 -0.0055711167 0.025110612
0.0052112876 -0.0053086984 0.024925776
0.0061286413 -0.0042641982 0.02495211
-0.0068722824 -0.0027895209 0.025001559
0.0067517972 -0.0031091394 0.025054289
-0.0073379879 -0.0010136304 0.024962051
0.0073685958 -0.00083222502 0.024833335
-0.0073244586 0.0011117634 0.024951724
0.0073498967 0.00094621547 0.024911771
-0.0067020743 0.0032214548 0.024916535
0.0067975572 0.0029812271 0.025167953
-0.0061542075 0.0042322408 0.025395339
-0.0051763412 0.0053312453 0.024827013
0.0050368826 0.0054737371 0.025094796
0.0062561217 0.0041048494 0.024548983
-0.0040896167 0.0062683071 0.025835752
-0.0030269644 0.0067810575 0.025054455
-0.00088470336 0.0073600374 0.025038199
0.00099317974 0.0073422529 0.025148153
0.0031956104 0.0067171943 0.02492086
0.0042102574 0.0061717941 0.025307
-0.0042011426 -0.0061790859 0.026752774
-0.0029137596 -0.006824865 0.026968412
-0.000902723 -0.0073574646 0.027136201
0.00097365177 -0.0073452368 0.02709044
0.0029982796 -0.0067895264 0.027103195
0.0042724828 -0.006122014 0.026461503
-0.0061623827 -0.0042220219 0.026935924
-0.0053019682 -0.0052110935 0.027115211
0.0053468226 -0.0051627881 0.027134456
0.0061716218 -0.004210473 0.026725356
-0.0067940569 -0.0029968699 0.026963368
0.0067167841 -0.0031728325 0.027162524
-0.0073757712 -0.00078677945 0.027079605
0.0073599149 -0.00088720571 0.027026314
-0.0073347115 0.0010348817 0.026949475
0.0073132622 0.0011787473 0.027066305
-0.006791682 0.0029980678 0.026934395
0.0067337658 0.0031511127 0.026849287
-0.0062479731 0.0041150339 0.027405638
-0.0051906598 0.005331757 0.026919793
0.0050882073 0.0054173125 0.027398527
0.0061750854 0.0042061438 0.027329884
-0.0042604771 0.0061316187 0.026636984
-0.0028950521 0.0068321791 0.027018029
-0.00080119818 0.0073732184 0.026869152
0.0011254989 0.00732229 0.026962254
0.0029878248 0.006794476 0.026891474
0.0042651906 0.0061278474 0.027139124
-0.0041212989 -0.0062429616 0.029152136
-0.0031289242 -0.0067390893 0.029019732
-0.0011929021 -0.0073105833 0.029069202
0.001113738 -0.0073229284 0.029041605
0.0030266636 -0.0067813634 0.029025683
0.0042626243 -0.0061299009 0.029124137
-0.0061144792 -0.0042819008 0.029039791
-0.0052515017 -0.0052651619 0.029080365
0.0052869236 -0.005218572 0.029027786
0.0061131306 -0.004283587 0.028568897
-0.0067929355 -0.0030011912 0.028986473
0.0067907507 -0.0030079349 0.028910069
-0.0073245992 -0.0010999953 0.028920602
0.0073351534 -0.0010370129 0.029030057
-0.0073679648 0.00083622721 0.029040715
0.0073283799 0.0010826117 0.028934227
-0.0068266378 0.0029111586 0.029048767
0.0067877048 0.0030011788 0.029001975
-0.0061723357 0.0042095808 0.029306725
-0.0053197755 0.0052017132 0.029092308
0.0051397937 0.0053814114 0.029126024
0.0062248455 0.0041439435 0.029430777
-0.0042219069 0.0061624739 0.02899782
-0.0027187979 0.0068947463 0.028964138
-0.0011432152 0.0073194923 0.029055113
0.0010783876 0.0073294882 0.029167669
0.0029802022 0.0067992769 0.029131191
0.0042431653 0.006145468 0.028994994
-0.0042468444 -0.0061425245 0.031181356
-0.0032043552 -0.0067046317 0.030949911
-0.0011176786 -0.0073225601 0.03121762
0.0012187964 -0.0073049748 0.030853871
0.0029589937 -0.0068026455 0.030791992
0.0043141134 -0.0060887095 0.031516396
-0.0061830608 -0.0041961744 0.030834317
-0.0054520457 -0.0050709601 0.030880729
0.0054069818 -0.0051001525 0.031222127
-0.0069363955 -0.0026154974 0.031165613
0.0067975037 -0.002991339 0.031136421
-0.0073338207 -0.0010497544 0.03107656
0.0072971927 -0.0012691766 0.03130582
-0.0073484872 0.00095957943 0.031150516
0.007314709 0.0011735078 0.03118814
-0.0067324652 0.0031350246 0.030940956
0.0068237116 0.0029043972 0.030948823
-0.0062185163 0.0041518551 0.030725185
-0.0052311937 0.0052894736 0.030814772
0.0052512465 0.0052748788 0.030912317
0.006247927 0.0041150912 0.031280275
-0.0042102882 0.0061717695 0.031104194
-0.0032241312 0.0067081214 0.03111366
-0.00095829769 0.0073474292 0.030986041
0.0011984695 0.0073102289 0.031125559
0.0030356476 0.0067777145 0.030913349
0.0042056069 0.0061755152 0.031349301
-0.0042818324 -0.0061145346 0.032726914
-0.003261256 -0.0066871368 0.033025052
-0.00086651358 -0.0073625939 0.032783985
0.0012655926 -0.0072987154 0.033042718
0.0029958172 -0.0067928531 0.032858342
0.0041871415 -0.006190286 0.032764398
-0.0062033283 -0.0041708392 0.033503398
-0.0050997804 -0.0054192049 0.032855228
0.0052451668 -0.0052549229 0.033251178
0.0062112459 -0.0041609434 0.032884814
-0.0067686336 -0.0030506146 0.033097122
0.0067926603 -0.0029948468 0.033088721
-0.0073662256 -0.0008472419 0.033233769
0.007329144 -0.0010748301 0.032948501
-0.0073069748 0.001218278 0.033199724
0.0073500797 0.00094657711 0.033069331
-0.0067765168 0.003049456 0.033111017
0.0068094172 0.0029580304 0.033020161
-0.0061525945 0.0042342576 0.03295783
-0.0053414386 0.0051824623 0.03297773
0.0052127349 0.0052933246 0.03298388
0.0061734226 0.004208222 0.033050135
-0.0042807539 0.006115397 0.033426721
-0.0029057844 0.006825699 0.032749135
-0.0011080357 0.0073250472 0.033076026
0.0010124372 0.007339024 0.032796104
0.0030965973 0.0067541511 0.033212878
0.0043152175 0.0060878266 0.032557398
-0.0040609976 -0.0062912013 0.034910064
-0.0029218888 -0.006812945 0.034994483
-0.0012614713 -0.0073008197 0.03492073
0.00096797606 -0.0073471605 0.034884356
0.0031098393 -0.0067449356 0.035118219
0.0042431499 -0.0061454806 0.034990508
-0.0061817956 -0.0041977558 0.034827132
-0.005295286 -0.0052343905 0.035041485
0.00530191 -0.0052133282 0.034985319
0.0060938294 -0.0043077134 0.034874469
-0.0067630191 -0.0030692613 0.035056364
0.0067341784 -0.0031225835 0.035069048
-0.0073759789 -0.00078546576 0.034948226
0.0073692235 -0.00081996276 0.035041437
-0.0073595415 0.00087658787 0.034856793
0.0073463195 0.00096605119 0.035117339
-0.006738001 0.0031406495 0.03498688
0.0067449296 0.0031106072 0.034827922
-0.0061598932 0.0042251339 0.034894701
-0.0051278207 0.0053810645 0.03505129
0.0051375702 0.005385852 0.035181273
0.0061932742 0.0041834074 0.035330545
-0.0041639917 0.0062088068 0.03564572
-0.0028773693 0.0068399161 0.034980979
-0.00091882632 0.0073549217 0.035087779
0.00095716416 0.0073481565 0.034923155
0.0028989981 0.0068307989 0.034777764
0.0042451802 0.0061438563 0.034580715
-0.0042475974 -0.006141922 0.037290581
-0.0028639156 -0.0068403608 0.036850732
-0.00071027852 -0.0073878514 0.03719487
0.00095209043 -0.0073495489 0.036910616
0.0027932585 -0.0068673082 0.037023254
0.0043045869 -0.0060963314 0.036838092
-0.0062485705 -0.0041142884 0.037084021
-0.0052982322 -0.0052208602 0.03709979
0.0051379129 -0.0053616222 0.037126299
0.0061265752 -0.0042667808 0.036317609
-0.006819196 -0.002931199 0.036998827
0.0067703584 -0.0030514682 0.03691683
-0.0073360149 -0.0010385681 0.037217043
0.0073294798 -0.0010799639 0.037133362
-0.007295514 0.0012829885 0.036987878
0.0073179645 0.0011426321 0.03688959
-0.0067849075 0.0030167596 0.036681805
0.0068264119 0.0029044137 0.036948632
-0.0061089862 0.0042887675 0.036998425
-0.0053886706 0.0051449859 0.037180647
0.0053453878 0.0051739374 0.036966171
0.0062304302 0.0041369628 0.036795553
-0.0041555585 0.0062155533 0.036762014
-0.0031795963 0.0067183273 0.036919799
-0.00090180384 0.0073576095 0.037412707
0.0010366718 0.0073360484 0.036994357
0.0030139051 0.0067880037 0.03696556
0.0041765864 0.0061987313 0.036835544
-0.0041970126 -0.0061823903 0.03894449
-0.0030735251 -0.0067643751 0.03898767
-0.0010845897 -0.0073268232 0.038881067
0.00084228779 -0.0073662386 0.038894325
0.0029026221 -0.0068293475 0.039008047
0.0042274594 -0.0061580329 0.039252382
-0.0061783716 -0.0042020353 0.039206125
-0.0053348346 -0.0051815328 0.039142776
0.0052454011 -0.0052721901 0.038872439
0.0062120371 -0.0041599534 0.039349146
-0.0068159457 -0.0029307287 0.039263681
0.006705632 -0.0032206257 0.03902005
-0.0073017417 -0.0012478686 0.03919293
0.0073291124 -0.0010822836 0.038934499
-0.0073547452 0.00091994513 0.039123468
0.0073231035 0.0011203412 0.038958713
-0.0067338436 0.0031432179 0.038788885
0.0067955242 0.0029799703 0.039017279
-0.0061417995 0.0042477506 0.038952507
-0.00545868 0.0050380989 0.038828261
0.0053137639 0.0052067102 0.039000887
0.0062008509 0.0041739363 0.039322942
-0.0042722505 0.0061221998 0.039316304
-0.0029667388 0.0068069911 0.039008263
-0.0010084749 0.0073395506 0.03885128
0.001094394 0.0073272018 0.039078236
0.0031670113 0.0067312592 0.038987916
0.0042781988 0.0061174417 0.03904872
-0.0042303605 -0.0061557116 0.040824212
-0.003283242 -0.006680022 0.040876493
-0.0012345164 -0.0073018139 0.040841285
0.0011485153 -0.007318655 0.040867478
0.0030541827 -0.0067680459 0.041007202
0.0042304047 -0.0061556762 0.041179072
-0.0061334744 -0.0042581577 0.041425478
-0.0052571041 -0.0052605034 0.041209076
0.0050819786 -0.0054260832 0.04065419
0.0061923354 -0.0041845809 0.040603574
-0.0067553474 -0.0030900084 0.041154526
0.0066938736 -0.0032534115 0.041140541
-0.0073466757 -0.00096803729 0.040980857
0.0073087881 -0.0012009864 0.041064125
-0.0072928425 0.0013060103 0.040807191
0.0073024612 0.0012410891 0.04071869
-0.0068290429 0.0029068822 0.040895693
0.0068314723 0.0028914029 0.041150372
-0.0060289134 0.0043888581 0.041430555
-0.0052843434 0.005238873 0.040836129
0.0051098256 0.0053991131 0.041104384
0.006097957 0.0043025548 0.040737979
-0.0041835038 0.0061931969 0.04139765
-0.003068794 0.0067583928 0.04070016
-0.0011352325 0.0073193382 0.041198887
0.00050394615 0.00742043 0.040992513
0.0032176382 0.0067129275 0.040665779
0.0042588869 0.0061328905 0.041081835
-0.0042072735 -0.0061741816 0.04336302
-0.0031641091 -0.0067310468 0.042903103
-0.00090739049 -0.0073558935 0.043191738
0.001364445 -0.0072824657 0.043036759
0.0030359395 -0.0067797946 0.043158296
0.0042192279 -0.0061646174 0.043425228
-0.0061641857 -0.0042197681 0.043074854
-0.0054556113 -0.0050595929 0.043129273
0.0050587263 -0.0054551689 0.043214642
0.0061619347 -0.0042225821 0.042398721
-0.0066814274 -0.003269969 0.042952817
0.0068534738 -0.0028296965 0.043071624
-0.00735394 -0.0009213842 0.043127757
0.0073456778 -0.00097738055 0.043284107
-0.0073339716 0.0010512492 0.043046042
0.0073543671 0.00091840909 0.042976342
-0.0067651197 0.0030648918 0.04294502
0.0068714707 0.0027830235 0.04301253
-0.0062414445 0.0041231937 0.043488681
-0.0051882965 0.0053275446 0.043104988
0.0052036964 0.0053111762 0.043138672
0.0062287925 0.0041390103 0.042727441
-0.0042594364 0.0061324514 0.042873319
-0.0029514376 0.0068112831 0.042985857
-0.0010193938 0.0073385909 0.04292028
0.00092895771 0.0073532248 0.04289972
0.0028285619 0.0068565281 0.042994119
0.0041750413 0.0061999667 0.043398462
-0.0042769886 -0.0061184093 0.044823367
-0.0032279866 -0.0067039793 0.045184415
-0.0010227778 -0.0073373578 0.044859506
0.0009391061 -0.0073515456 0.04509468
0.0030689819 -0.0067592375 0.044994012
0.0041311793 -0.0062350566 0.045183484
-0.0061383364 -0.0042520794 0.044776712
-0.0053822179 -0.0051420364 0.045064371
0.0052951481 -0.0052141938 0.044973884
0.006152695 -0.0042341314 0.045022722
-0.0067768511 -0.0030324238 0.044912428
0.0067996336 -0.0029839387 0.044983607
-0.0073432312 -0.00099287042 0.04514553
0.007374974 -0.00079183391 0.045182794
-0.0073183412 0.0011473967 0.045063954
0.0073513254 0.00094160868 0.045255944
-0.0067739636 0.0030393349 0.044999994
0.0067925914 0.0029983923 0.045053679
-0.0061882711 0.0041896612 0.044863522
-0.0052011777 0.0053134947 0.044882908
0.0053285314 0.0052001053 0.045021109
0.0061539994 0.0042325011 0.044998039
-0.0041672713 0.0062061832 0.045405939
-0.0028505477 0.0068460028 0.045164764
-0.00092704367 0.0073526269 0.044870179
0.0011417276 0.0073190983 0.04510574
0.0031184207 0.0067486977 0.044913411
0.0041903993 0.0061876811 0.044974606
-0.0043233391 -0.0060813287 0.047072083
-0.0029475749 -0.0068076677 0.047062088
-0.0010576966 -0.0073326486 0.047162533
0.0012705876 -0.0072980928 0.04675366
0.0029877247 -0.006794258 0.047016878
0.0042104656 -0.0061716279 0.047000445
-0.0062420554 -0.0041224305 0.046728622
-0.0053213006 -0.0051988601 0.047150679
0.0051302668 -0.005372379 0.046865929
0.0062235673 -0.0041455403 0.046632752
-0.0068659983 -0.0028027573 0.046784014
0.0067852656 -0.003024891 0.046940543
-0.0073038745 -0.0012290258 0.046850227
0.0073140697 -0.0011559777 0.047120895
-0.0073518166 0.00093849201 0.047111515
0.0073103788 0.0012009359 0.046943579
-0.0067935921 0.0029933092 0.046948712
0.0068131979 0.0029258861 0.047164891
-0.0061209165 0.0042738542 0.04671682
-0.0052194102 0.0052923872 0.047039997
0.005134515 0.0053779022 0.046891578
0.0061354283 0.0042557153 0.047393627
-0.0042184079 0.0061652744 0.046987575
-0.0029587238 0.0068090069 0.046961375
-0.00123698 0.0073034638 0.04691698
0.00099633145 0.0073426249 0.046934247
0.0029112673 0.0068227672 0.046873335
0.0042708106 0.0061233514 0.046777435
-0.0041199457 -0.0062440438 0.048855972
-0.0029577853 -0.0068037729 0.049019922
-0.0009581318 -0.007348259 0.048844252
0.00080711825 -0.0073722634 0.049005926
0.0029898707 -0.0067952648 0.048737653
0.0042459103 -0.0061432724 0.049340136
-0.006201419 -0.0041732257 0.048445404
-0.0051606093 -0.0053490875 0.048705753
0.0053484309 -0.0051631466 0.049113486
0.0062011662 -0.0041735424 0.049486302
-0.0067776302 -0.0030211068 0.048924241
0.0067705852 -0.0030613542 0.048936859
-0.0073685264 -0.00083266944 0.04901034
0.0073406613 -0.0010026995 0.04901303
-0.007345337 0.00097953028 0.048909433
0.0073700352 0.00082311209 0.049267631
-0.0068387166 0.0028806247 0.048986554
0.0067898827 0.0030049174 0.049010333
-0.0061712041 0.004210995 0.049205661
-0.0053648502 0.0051695006 0.04891948
0.0053068134 0.0052038068 0.048789818
0.0061062402 0.0042921994 0.049231432
-0.0042263381 0.0061589302 0.048720762
-0.0028457239 0.0068468759 0.048884425
-0.00090667879 0.0073565915 0.049081761
0.00088760105 0.0073593548 0.048909076
0.00313274 0.0067417212 0.049034238
0.0042138081 0.0061689531 0.048978068
-0.0041783168 -0.0061973468 0.050721109
-0.0030658627 -0.0067704716 0.051102523
-0.00090580666 -0.0073569785 0.050988063
0.001013013 -0.0073400494 0.050998956
0.0029612246 -0.0068090232 0.050838172
0.0042084092 -0.0061732735 0.051499385
-0.0062254663 -0.0041431678 0.051076796
-0.0052455161 -0.005267059 0.050916366
0.0053391648 -0.0051692938 0.051127452
0.0061191171 -0.0042761038 0.050801706
-0.0067182565 -0.0031832007 0.051058758
0.0068734675 -0.0027762351 0.051080775
-0.0073650628 -0.00085431192 0.051107902
0.0073391329 -0.0010104411 0.05074212
-0.0073556267 0.00091300916 0.051028263
0.0073390268 0.0010147955 0.051090524
-0.0067325132 0.0031501076 0.05082348
0.0067496393 0.0030923025 0.051253386
-0.0062565999 0.0041042506 0.051261734
-0.005191029 0.0053220047 0.050927117
0.0053025084 0.0052246801 0.051157646
0.0062283697 0.0041395389 0.050677147
-0.0041620838 0.0062103337 0.050552338
-0.0029078221 0.0068286969 0.051079046
-0.00096181361 0.0073476871 0.050809097
0.00097129028 0.0073462715 0.050979085
0.0026744346 0.0069146822 0.051030025
0.0042585651 0.006133148 0.050744582
-0.0042319065 -0.0061544753 0.05247416
-0.0028220664 -0.0068583661 0.053204462
-0.0009632968 -0.0073472098 0.053215459
0.00085157843 -0.0073655397 0.052980497
0.0030314431 -0.0067808013 0.05305063
0.0040600467 -0.0062919632 0.052922498
-0.0062555885 -0.0041055153 0.052716088
-0.0052875811 -0.005207547 0.05300153
0.005286199 -0.0052185548 0.052876573
0.0061790212 -0.0042012245 0.053191859
-0.0067321896 -0.003158231 0.052988626
0.0067749536 -0.0030456586 0.052756958
-0.0073209549 -0.0011288961 0.05286596
0.0073225582 -0.001115422 0.053145166
-0.0073384554 0.0010231152 0.05296091
0.0073728594 0.00080522685 0.053131234
-0.0067061121 0.0032267761 0.05302994
0.0068175551 0.0029249131 0.053216152
-0.0060098162 0.0044127298 0.05231449
-0.0051405029 0.0053898082 0.053097293
0.0053444458 0.005156131 0.052902039
0.0061472016 0.0042409981 0.052944489
-0.0043427357 0.006065811 0.053117402
-0.0030695202 0.0067627444 0.052990381
-0.0010221137 0.0073384787 0.052701626
0.00097319123 0.0073463386 0.052989569
0.002927287 0.0068215262 0.052830208
0.0042042634 0.0061765891 0.052765656
-0.0043428787 -0.0060656974 0.054545119
-0.0029372775 -0.0068113627 0.054998048
-0.00088186364 -0.0073607573 0.055289146
0.0010175408 -0.007339336 0.054878578
0.0029353397 -0.0068126484 0.055077903
0.0042096563 -0.0061722752 0.054984137
-0.0061970004 -0.0041787503 0.055230349
-0.0054287971 -0.0050741383 0.054961998
0.0054916823 -0.0050106118 0.054978468
0.0062285461 -0.0041393172 0.05506682
-0.006744443 -0.0031069696 0.055186782
0.0067905523 -0.002977998 0.054928396
-0.007340143 -0.0010099458 0.055017143
0.007337864 -0.001026856 0.055018973
-0.0073633683 0.00086170074 0.054985631
0.0073104524 0.001200469 0.055296842
-0.0067426497 0.0031235858 0.055011801
0.0068319603 0.0028932791 0.05469222
-0.0061397115 0.0042503607 0.055172551
-0.0052545457 0.0052696224 0.054981992
0.0051991995 0.0053317538 0.054828871
0.0061962754 0.004179656 0.055385835
-0.0041855397 0.0061915689 0.055143602
-0.0029964889 0.0067845215 0.054810271
-0.0010199258 0.0073383232 0.055056609
0.0011783418 0.0073139463 0.055088151
0.0029970158 0.0067941942 0.054938368
0.004273627 0.006121099 0.054850496
-0.0042385329 -0.0061491742 0.056905553
-0.0028486995 -0.0068485877 0.057183329
-0.00099322631 -0.0073431185 0.057234637
0.0010798851 -0.0073282565 0.057092465
0.003031584 -0.0067803147 0.057097163
0.0042445385 -0.006144369 0.056923993
-0.006155781 -0.0042302734 0.057375412
-0.0053040218 -0.0052152043 0.056901302
0.0052005411 -0.0053069666 0.057010971
0.0061490256 -0.0042387182 0.057107687
-0.0067609861 -0.0030720441 0.056962311
0.0067503997 -0.0031086446 0.05700003
-0.0073369942 -0.0010312672 0.057069674
0.0073737768 -0.00079941738 0.057093669
-0.00733366 0.0010514318 0.056687497
0.0073118522 0.0011916005 0.057021867
-0.0068041948 0.0029620503 0.056762855
0.0067963442 0.0029913145 0.057070792
-0.0061953883 0.0041807652 0.05674402
-0.0051890463 0.0053002075 0.05732825
0.0051800502 0.0053151962 0.057091657
0.0061629973 0.004221254 0.0575292
-0.0041437447 0.0062250043 0.056839589
-0.0031003798 0.006746124 0.056952644
-0.00077253277 0.0073768692 0.057272516
0.00086923729 0.0073627522 0.057050996
0.0029151246 0.0068245544 0.057194192
0.0042181476 0.0061654826 0.057068907
-0.0042351992 -0.006151841 0.059375823
-0.0029728108 -0.0068011852 0.059238523
-0.00099808408 -0.0073421705 0.059201803
0.0011143627 -0.007323239 0.059035551
0.0029257257 -0.0068166927 0.058849964
0.0042255856 -0.0061595314 0.059250627
-0.0061047776 -0.0042940285 0.059238654
-0.005147601 -0.0053668194 0.059172947
0.0052099014 -0.0052882717 0.059240427
0.006139745 -0.0042503187 0.05910451
-0.0067661102 -0.0030671989 0.059083045
0.0068733422 -0.0027729629 0.059114482
-0.0073909704 -0.00069051964 0.059050389
0.0073384298 -0.0010119345 0.059031669
-0.0073158373 0.0011663603 0.058921441
0.0073274118 0.0010930583 0.058824874
-0.0067780055 0.003045416 0.058973551
0.0068029473 0.0029613553 0.058836386
-0.0062126294 0.004159214 0.058642771
-0.0054662344 0.0050372626 0.058886282
0.0053401007 0.0051785512 0.059221148
0.0061759362 0.0042050802 0.059087317
-0.0041843993 0.0061924807 0.059106626
-0.0030471978 0.0067682806 0.059071817
-0.0009376423 0.0073519512 0.058821261
0.00049288233 0.0074221757 0.058952283
0.0031586294 0.0067319046 0.059124697
0.004145815 0.006223348 0.058653615
-0.0041433545 -0.0062253168 0.061433725
-0.0028976132 -0.0068293335 0.060985826
-0.0011049134 -0.0073255403 0.060922321
0.0010384815 -0.0073359725 0.060972631
0.0030255807 -0.0067843674 0.060899407
0.004158678 -0.0062130578 0.061564825
-0.0060989503 -0.0043013124 0.060684472
-0.0051836018 -0.0053254352 0.060996708
0.0053336695 -0.0051756459 0.060995121
0.0061292201 -0.0042634746 0.06089459
-0.0067290082 -0.003170721 0.060817648
0.0068423855 -0.0028701089 0.06115374
-0.0073634801 -0.00086462829 0.061257847
0.0073296865 -0.0010777105 0.061139408
-0.0073717567 0.00081220554 0.060737722
0.0073256101 0.001090926 0.061181039
-0.0067875376 0.0030086252 0.060997218
0.0068329559 0.0028814869 0.061016425
-0.0061623375 0.0042220778 0.060762044
-0.0051100063 0.0053803157 0.061256107
0.0053394949 0.0051780306 0.060915086
0.0060855332 0.0043180841 0.0615745
-0.0042904234 0.0061076614 0.061210368
-0.0031230319 0.0067429338 0.061034869
-0.0010915194 0.0073259082 0.060979079
0.00093429495 0.0073510627 0.060973778
0.0030095887 0.0067879534 0.060979325
0.0041505694 0.0062195449 0.061184682
-0.004152704 -0.0062178369 0.063085631
-0.0030240167 -0.0067763608 0.062857755
-0.00098287337 -0.0073448098 0.063173756
0.00083853112 -0.0073676012 0.062822901
0.0032608781 -0.0066906763 0.062762283
0.0041902661 -0.0061877868 0.06338159
-0.0061771595 -0.0042035505 0.062935039
-0.0053264918 -0.0051991013 0.063289143
0.0053022578 -0.0052371914 0.063098431
0.0061222366 -0.0042722048 0.062893108
-0.0067864009 -0.0029923683 0.062869303
0.0068292087 -0.0029020591 0.063124754
-0.0073434804 -0.00098475546 0.063106231
0.0073702568 -0.0008181954 0.062983856
-0.0073466483 0.00097027473 0.062703371
0.0073543773 0.00092227879 0.06301745
-0.0068301423 0.0029014784 0.06292101
0.0067976126 0.0029921937 0.062977269
-0.0061687487 0.0042140647 0.06283579
-0.0052450667 0.0052682911 0.062960535
0.005236085 0.0052804458 0.063162126
0.0061690956 0.0042136302 0.062949352
-0.0041702464 0.0062038032 0.062897384
-0.0030696881 0.0067612692 0.063112251
-0.0011617758 0.0073165614 0.062983707
0.00087465788 0.0073618959 0.062932879
0.0030017938 0.0067856708 0.06297145
0.0042243609 0.0061605116 0.062743537
-0.0043531451 -0.0060574841 0.065458089
-0.0031992497 -0.006705238 0.065080494
-0.00091888418 -0.0073549123 0.06498722
0.0011088303 -0.0073240241 0.065136142
0.0029207079 -0.006818878 0.064709954
0.0042096302 -0.0061722961 0.064388067
-0.0061584814 -0.0042268983 0.065064415
-0.0052900431 -0.0052244435 0.064996354
0.0051535401 -0.0053687794 0.064934812
0.0063056974 -0.0040428792 0.065371603
-0.0067591914 -0.0030885418 0.064946912
0.0067719789 -0.0030517455 0.06473393
-0.0073411362 -0.0010061334 0.064989612
0.0073208553 -0.0011345836 0.065090947
-0.0073653548 0.00084984046 0.065007649
0.0073696752 0.00082539365 0.064904563
-0.0068005617 0.0029475002 0.06477087
0.0068324106 0.0028871205 0.065133534
-0.0062238453 0.0041451938 0.064483345
-0.0053584822 0.0051489235 0.064813353
0.0050839088 0.0054335156 0.06483312
0.0061173262 0.0042783427 0.06517116
-0.0042136395 0.0061690891 0.065149188
-0.0030504814 0.0067655514 0.064882867
-0.00084721769 0.0073644682 0.065042987
0.0010040983 0.0073413602 0.064810976
0.0029494679 0.0068056593 0.064982936
0.0043286276 0.0060770982 0.065134741
-0.0041530663 -0.0062175472 0.067002609
-0.0029112485 -0.0068234233 0.067168936
-0.00078378367 -0.0073762443 0.066914782
0.0008393515 -0.0073665627 0.066963293
0.003155712 -0.0067291297 0.066936262
0.0041700788 -0.0062039373 0.067158774
-0.0061975047 -0.0041781194 0.067215897
-0.0051926728 -0.0053210366 0.066987082
0.0052691614 -0.0052524554 0.066887788
0.0061727292 -0.0042090891 0.066933803
-0.0066570807 -0.0033433973 0.067060091
0.0067405785 -0.0031269218 0.066951923
-0.0073385583 -0.0010188989 0.067013294
0.0073635541 -0.00086178683 0.066988192
-0.007339038 0.0010164402 0.066958509
0.0073439023 0.00098862068 0.067011379
-0.0067831124 0.0030162728 0.066952445
0.0067891302 0.0029971043 0.066969909
-0.0061590215 0.0042262236 0.067843333
-0.0053257085 0.0051599387 0.066885002
0.0052663228 0.0052534044 0.067001432
0.0061641755 0.0042197807 0.067173153
-0.0042151576 0.0061678737 0.067265153
-0.0030109393 0.0067871884 0.066941366
-0.00096313388 0.0073468951 0.06704662
0.00080072507 0.0073731476 0.067085437
0.0030043572 0.0067931311 0.067242943
0.0042631719 0.0061294632 0.066865586
-0.0041648438 -0.0062081264 0.069041707
-0.0029698506 -0.00680371 0.069178954
-0.0011004333 -0.0073251752 0.069103993
0.0011773503 -0.0073138946 0.068835363
0.0030425771 -0.0067735021 0.069104716
0.0042633405 -0.0061293277 0.068827204
-0.0061592455 -0.0042259432 0.068802506
-0.0052927099 -0.0052239043 0.069094308
0.0052609546 -0.005274537 0.069024839
0.0062151439 -0.0041560703 0.069049098
-0.0066671907 -0.0033237229 0.069119185
0.0067418283 -0.0031196808 0.069162354
-0.0073176613 -0.0011484638 0.069001622
0.0073286085 -0.0010820836 0.068915889
-0.0073714564 0.00080712524 0.069133662
0.007363217 0.0008662903 0.069158509
-0.0068132323 0.0029428145 0.069191858
0.0068111923 0.0029442785 0.06922552
-0.0061478978 0.0042401282 0.06914714
-0.0052999104 0.0051994082 0.068931669
0.0052513047 0.0052660131 0.068898007
0.0061554112 0.0042307363 0.068845294
-0.0042198645 0.0061641089 0.06829863
-0.0032795067 0.0066917618 0.068940282
-0.00092097028 0.0073545841 0.0690905
0.00093134074 0.0073529468 0.068689726
0.0029229231 0.0068231337 0.068845458
0.0041573229 0.0062141414 0.068654865
-0.0042094798 -0.0061724163 0.070939526
-0.0028694626 -0.0068354215 0.071050674
-0.00089168124 -0.007359074 0.071057439
0.0009907597 -0.0073435646 0.07107196
0.0029307469 -0.0068108472 0.071088254
0.00409145 -0.0062668398 0.070884347
-0.0062141633 -0.0041572964 0.071265638
-0.0052323896 -0.0052951896 0.070899129
0.0052949437 -0.0052317651 0.071066208
0.006170813 -0.0042114835 0.070808128
-0.0067693237 -0.0030542596 0.070984311
0.0067535043 -0.0031073259 0.071020782
-0.0073347827 -0.0010358546 0.07105498
0.0073628821 -0.00086841226 0.071130201
-0.0073353662 0.001032292 0.070989199
0.0073354021 0.0010401915 0.070973083
-0.0067980643 0.0029815238 0.070983656
0.0068468088 0.0028586637 0.071010716
-0.0061342344 0.0042572068 0.071117267
-0.0053303689 0.005191206 0.07115452
0.0051903012 0.0053201639 0.070985638
0.0061719688 0.004210039 0.070861243
-0.0040857922 0.0062713674 0.071287513
-0.0031179045 0.0067480938 0.070929058
-0.00092454662 0.0073540183 0.071229778
0.0010558149 0.0073332922 0.071081869
0.0029604074 0.0068021431 0.071260996
0.0042134738 0.0061692214 0.071116507
-0.0042038844 -0.0061768927 0.072337791
-0.0030252517 -0.0067837513 0.073036879
-0.0011493677 -0.007318194 0.072813496
0.0012207915 -0.0073072435 0.072582163
0.0031330283 -0.0067424052 0.073089659
0.004156197 -0.0062150424 0.073296115
-0.0062375981 -0.0041280026 0.073387921
-0.0053751012 -0.0051508965 0.073041834
0.0052019618 -0.0053043952 0.073081851
0.0060856231 -0.0043179723 0.072942637
-0.0067744306 -0.003033954 0.073063709
0.0068558217 -0.0028341981 0.073025137
-0.0073242821 -0.0011101187 0.072996706
0.0073659145 -0.00084920792 0.073081709
-0.0073266029 0.0010952645 0.073039941
0.0073174513 0.0011561401 0.0728404
-0.0068269544 0.0029088967 0.072937772
0.0067769736 0.0030348455 0.07328172
-0.0062092692 0.0041634133 0.072562933
-0.0052655907 0.0052520246 0.072904006
0.0052699028 0.005253694 0.073147424
0.0061544036 0.0042319968 0.073208608
-0.0031075485 0.0067492225 0.073067538
-0.0012506626 0.0073020719 0.072751999
0.0011666437 0.0073157935 0.073392995
0.0029887769 0.0067957086 0.072917446
0.0041556386 0.0062154885 0.073090166
-0.0041893078 -0.0061885538 0.075439453
-0.0027850119 -0.0068719313 0.075101741
-0.001178771 -0.0073130182 0.074999154
0.00090134551 -0.0073567885 0.075205266
0.0029292062 -0.006814803 0.074973211
0.0041427705 -0.0062257834 0.074932888
-0.0061878627 -0.0041901721 0.075255193
-0.005324326 -0.0051769586 0.075071104
0.0052388376 -0.0052779894 0.075133145
0.0062508434 -0.004111446 0.075192891
-0.0068494999 -0.0028510303 0.074989066
0.0067777499 -0.0030323849 0.074920036
-0.0073681949 -0.00083476154 0.075133815
0.0073492401 -0.00095481088 0.074772075
-0.0073347385 0.0010389636 0.075121358
0.0073173479 0.0011491147 0.074983165
-0.0068156091 0.0029271068 0.075213335
0.0068085152 0.0029522288 0.074991636
-0.0061493586 0.0042383028 0.074809693
-0.0050949329 0.0054335315 0.074996173
0.0051775915 0.0053319135 0.075154714
0.0061935177 0.0041831029 0.074968286
-0.0042922632 0.0061061899 0.074901395
-0.0030726448 0.0067634284 0.074939825
-0.00087604049 0.0073616779 0.074760012
0.001219538 0.007307441 0.074955344
0.0026332876 0.0069298418 0.074736066
0.0042605232 0.006131581 0.075458676
-0.0041615241 -0.0062107807 0.077171557
-0.0029799955 -0.0067978408 0.077058181
-0.0010687612 -0.0073302551 0.076805644
0.00092149118 -0.0073540024 0.077260919
0.002921978 -0.0068178633 0.077126287
0.0042397897 -0.0061481684 0.077260479
-0.0060759573 -0.0043300535 0.077507526
-0.0052072904 -0.0052972888 0.077005722
0.0052512945 -0.0052551292 0.076834634
0.0061622858 -0.004222142 0.076852217
-0.0068184026 -0.0029164429 0.076898135
0.0068591698 -0.0028192673 0.076900877
-0.0073426091 -0.00099621806 0.076805599
0.0073563615 -0.00089867983 0.077190869
-0.0073035485 0.0012282268 0.07681527
0.0073386533 0.0010184196 0.077133738
-0.0067143054 0.0031880939 0.077136263
0.0067539895 0.0031044767 0.076788083
-0.0061526881 0.0042341407 0.077059641
-0.0051544867 0.0053699738 0.077136621
0.0053849951 0.0051054191 0.077123538
0.006222975 0.0041462816 0.076777935
-0.0042614471 0.0061308425 0.07669498
-0.0032433132 0.0066948608 0.076880418
-0.001012132 0.0073401895 0.076854527
0.00072596548 0.007385374 0.077093594
0.0028841477 0.006836324 0.076680772
0.0042108065 0.006171355 0.076607026
-0.0041970252 -0.00618238 0.078452863
-0.0031803672 -0.0067164213 0.079112969
-0.0010956671 -0.0073256991 0.079077467
0.00098330923 -0.007343621 0.078906387
0.0030026289 -0.0067908629 0.079034977
0.0041775014 -0.0061979983 0.078845181
-0.0062027271 -0.0041715917 0.07905709
-0.0052427449 -0.0052640755 0.079213575
0.0052101971 -0.0053034918 0.079052016
0.0062078442 -0.004165194 0.079212837
-0.0067271385 -0.0031607703 0.078982949
0.0067569828 -0.0030925248 0.07878992
-0.0073772976 -0.00077711896 0.078839272
0.0073573766 -0.00090328499 0.078957841
-0.0073531056 0.00092336017 0.078989834
0.0073444922 0.00098028267 0.078809723
-0.0067806439 0.0030382515 0.078941964
0.0068035568 0.0029750511 0.078986019
-0.0061634593 0.0042206757 0.079426602
-0.0051704473 0.0053652739 0.07916382
0.0051035066 0.0053929929 0.07866212
0.0062312623 0.004135923 0.079059847
-0.0040187296 0.0063250167 0.078358464
-0.0029328498 0.0068137189 0.079086661
-0.0010815057 0.0073292358 0.078929886
0.0010110745 0.0073400754 0.078998238
0.0030267769 0.0067804959 0.078923896
0.0042246636 0.0061602695 0.078884199
-0.004145815 -0.0062233489 0.081173815
-0.0028865184 -0.0068316539 0.081050619
-0.0010459332 -0.007334677 0.081082799
0.0011414214 -0.0073191621 0.081002846
0.0031545917 -0.0067321351 0.080706492
0.0042585577 -0.006133154 0.080982506
-0.0061302725 -0.0042621596 0.080860004
-0.0053373124 -0.0051781102 0.080965333
0.0053041233 -0.0052148537 0.080961958
0.0061651478 -0.0042185653 0.08068832
-0.0067927162 -0.0030054844 0.080843061
0.0067126765 -0.0031811132 0.080921635
-0.0073233293 -0.001110774 0.080864623
0.0073169381 -0.0011592599 0.080909066
-0.0073559568 0.00091227767 0.081032105
0.0073487246 0.00095347018 0.080926746
-0.0067680739 0.0030609111 0.081014365
0.0069220741 0.0026430839 0.080879785
-0.0061710761 0.0042111552 0.081326097
-0.0049942853 0.0055069262 0.081141308
0.0051734513 0.0053459853 0.080963962
0.0061225849 0.0042717685 0.080561548
-0.0042133527 0.0061693173 0.081152998
-0.0032168622 0.0067061889 0.080734707
-0.00085792074 0.0073645394 0.080896832
0.0008629252 0.0073631639 0.080845229
0.0030437894 0.0067733424 0.081235819
0.0041896305 0.0061882958 0.081484824
-0.0042281398 -0.0061574886 0.083277144
-0.0029746648 -0.0067997463 0.083268113
-0.00082309102 -0.0073688482 0.082871675
0.0011896713 -0.0073112813 0.083239056
0.0030603171 -0.0067672646 0.083106242
0.0041766008 -0.0061987191 0.083313942
-0.0061049042 -0.0042938711 0.083486035
-0.0052668699 -0.0052483622 0.082884245
0.0051806285 -0.0053272005 0.083042301
0.0061974931 -0.0041781338 0.083445728
-0.0068119694 -0.002934264 0.082863301
0.006735106 -0.0031489881 0.083089754
-0.0073433882 -0.00098817784 0.083175138
0.007360436 -0.00088389567 0.082917005
-0.0073679653 0.00083621516 0.082837492
0.0073163877 0.0011572676 0.082887985
-0.0068400716 0.0028769504 0.082942739
0.0068185171 0.0029178981 0.083029382
-0.0061992514 0.0041759359 0.082900167
-0.005396707 0.0051335935 0.082628049
0.0052860836 0.0052266209 0.08322417
0.0061361706 0.0042547863 0.08267539
-0.0042501586 0.0061398735 0.082689971
-0.0030398059 0.006770235 0.083029069
-0.00069367437 0.0073899776 0.082991354
0.0011361863 0.0073176743 0.08286304
0.003011771 0.0067866957 0.082996845
0.0042443159 0.0061445478 0.082512639
-0.0042644106 -0.0061284713 0.085003436
-0.0029766476 -0.0067984597 0.084909059
-0.0011446355 -0.0073183007 0.085126564
0.00093524932 -0.0073507684 0.084926479
0.002934417 -0.006810708 0.085002139
0.0042654215 -0.006127663 0.08479704
-0.0061708097 -0.0042114882 0.085146502
-0.0050976672 -0.0054260539 0.085224375
0.0053949011 -0.0051164962 0.084956609
0.0061951838 -0.0041810209 0.084939957
-0.0067760828 -0.0030439252 0.085025489
0.0067034499 -0.0032252581 0.084917106
-0.0073317392 -0.0010600898 0.084868975
0.0073873117 -0.00071368931 0.085153885
-0.0073535587 0.00091788819 0.084964655
0.0073184478 0.00114946 0.084930032
-0.0067874799 0.0030180553 0.084911369
0.0068447138 0.0028528559 0.084872417
-0.0060933996 0.0043082512 0.08463908
-0.0051987395 0.005310961 0.085002862
0.0052863858 0.005206923 0.084977888
0.0061796871 0.0042003905 0.085238792
-0.00419953 0.0061803758 0.084977791
-0.0028698973 0.0068426696 0.084959082
-0.0010694891 0.0073302919 0.08506228
0.00083701406 0.0073678396 0.084952325
0.0029341807 0.0068143122 0.084801562
0.0041965023 0.0061827982 0.084575154
-0.0042900839 -0.0061079329 0.087145053
-0.0030393605 -0.0067769424 0.086949401
-0.00086628448 -0.0073632188 0.087254979
0.0010832821 -0.0073281517 0.087060317
0.003185292 -0.0067194817 0.086857237
0.0042461203 -0.0061431038 0.08691176
-0.0061511481 -0.0042360653 0.086487584
-0.0053435354 -0.0051745949 0.087021045
0.0052555534 -0.0052508698 0.086790957
0.0061519248 -0.0042350953 0.087227106
-0.0067859907 -0.0030137838 0.086913146
0.0067537497 -0.0030884868 0.086872868
-0.0073630791 -0.00086716184 0.086863309
0.0073261475 -0.0010968613 0.087154053
-0.0073399958 0.0010121624 0.086973071
0.0073314821 0.0010605544 0.087000646
-0.0067150421 0.003185583 0.086882405
0.0068105655 0.0029500867 0.087066308
-0.0062920274 0.0040599667 0.086936325
-0.0054668318 0.0050402195 0.086932771
0.0053097717 0.0052039437 0.086902395
0.0061635766 0.0042205295 0.087027714
-0.0042865383 0.0061107697 0.087197654
-0.0030762767 0.0067632571 0.087101102
-0.0010431705 0.0073346505 0.086729221
0.0011271237 0.0073211803 0.087200895
0.0028908711 0.0068314876 0.087142535
0.0043310258 0.0060751801 0.087376021
-0.0042870217 -0.0061103823 0.08901976
-0.0031866631 -0.0067183976 0.088919498
-0.00080038252 -0.0073736231 0.089066349
0.0012125942 -0.0073085376 0.089101128
0.0027068811 -0.0068988828 0.088932939
0.004255347 -0.0061357226 0.088477932
-0.006234284 -0.0041321456 0.088983551
-0.0051838122 -0.0053314269 0.089059889
0.005144272 -0.0053761252 0.089089058
0.0061899945 -0.0041875076 0.088836551
-0.0068097194 -0.0029453388 0.088947728
0.0066800164 -0.0032741174 0.089101329
-0.0073388987 -0.0010128312 0.089076735
0.0073222285 -0.0011214281 0.088826157
-0.0073077762 0.001200957 0.089097463
0.0073322584 0.0010586621 0.08880385
-0.0067939688 0.0029866395 0.088968031
0.0067567057 0.003086013 0.089150466
-0.0061957492 0.004180314 0.088906594
-0.0053299884 0.0051729931 0.088765934
0.0052784435 0.0052295122 0.089152753
0.0061596609 0.0042254245 0.088612072
-0.0042877444 0.0061098048 0.089272402
-0.0031879684 0.0067128008 0.088854216
-0.0010056512 0.0073405481 0.088894412
0.0011542353 0.0073172799 0.088661171
0.0030035465 0.0067930659 0.089142069
0.0042277863 0.0061577708 0.089609742
-0.0042555034 -0.0061355974 0.090827383
-0.0029061029 -0.0068269596 0.090996101
-0.0010682945 -0.0073310654 0.090849146
0.00090294424 -0.0073574292 0.090864375
0.0030687449 -0.0067620343 0.09090922
0.0042176414 -0.0061658868 0.090874106
-0.0061562085 -0.0042297402 0.091100127
-0.0052913078 -0.0052290005 0.091246225
0.005321044 -0.0051825112 0.090968326
0.0062280972 -0.0041398788 0.090613708
-0.0067496356 -0.0031145765 0.090814508
0.0067562326 -0.003095632 0.090925284
-0.0073145288 -0.0011668057 0.091100797
0.0073337629 -0.0010525074 0.090955272
-0.007378337 0.00077053293 0.091104858
0.0073428084 0.00097975519 0.091003068
-0.006763495 0.0030764169 0.090976223
0.006788258 0.003016361 0.09099672
-0.0060783606 0.0043270495 0.090901278
-0.0052433205 0.0052652839 0.090946622
0.0054328884 0.0050948025 0.091070257
0.0062276404 0.0041404502 0.090252474
-0.0041561215 0.006215103 0.091182239
-0.0029725137 0.0067995642 0.091071963
-0.00096658128 0.0073473826 0.091000803
0.0012013748 0.0073083458 0.090885751
0.0030748856 0.0067639449 0.091094114
0.0042539788 0.0061368174 0.091415122
-0.0042599235 -0.0061320621 0.093905643
-0.0029062009 -0.0068267998 0.092974119
-0.00087285711 -0.0073621799 0.092885204
0.0010399887 -0.0073350333 0.093004517
0.0032347545 -0.0067044287 0.093034722
0.004422802 -0.0060017584 0.093389735
-0.0061225886 -0.0042717643 0.09270151
-0.0052721864 -0.005237449 0.092914551
0.0052508432 -0.0052476344 0.092986993
0.0061676521 -0.0042154361 0.092938937
-0.0068187783 -0.0029337124 0.092772551
0.0067788484 -0.0030340205 0.092785381
-0.0072975643 -0.0012812295 0.093118399
0.0073963329 -0.00065655698 0.092926793
-0.0074068699 0.00058982411 0.092835106
0.0073133693 0.00117941 0.092904389
-0.006770019 0.0030479752 0.092884265
0.0066842386 0.003262501 0.093003698
-0.0061703608 0.0042120493 0.092807509
-0.0052856202 0.005215765 0.093174495
0.0051348456 0.0053841765 0.092728578
0.0061980807 0.0041773994 0.093599372
-0.0041093985 0.0062524816 0.093420453
-0.0031123895 0.0067473273 0.093228228
-0.0011424775 0.0073182285 0.092919633
0.00093419279 0.0073524956 0.093043797
0.0029247378 0.0068179914 0.093116708
0.0042001968 0.0061798422 0.093396559
-0.0041877306 -0.0061898157 0.094964132
-0.003267678 -0.0066868933 0.095142558
-0.0010753472 -0.0073292614 0.09525115
0.00092092389 -0.0073533901 0.094925828
0.0031521411 -0.0067291423 0.095046788
0.0041770409 -0.0061983671 0.09474925
-0.0061485623 -0.0042392979 0.095287837
-0.0052452921 -0.0052635036 0.095146909
0.0052543795 -0.0052490123 0.094917029
0.0062254881 -0.0041431403 0.094981603
-0.0067680543 -0.0030479643 0.095032133
0.0068584704 -0.0028257777 0.095211945
-0.0073269294 -0.0010961079 0.09495353
0.0073757651 -0.00078681775 0.09493617
-0.0073307767 0.0010685162 0.095058426
0.007331566 0.0010667496 0.094857916
-0.0067571593 0.003088793 0.095121667
0.0067633623 0.003069821 0.095230728
-0.0061222115 0.0042722356 0.095469132
-0.0053269649 0.005196447 0.094921201
0.005461955 0.0050599794 0.095003493
0.0061766123 0.0042042346 0.094684593
-0.0041585034 0.0062131975 0.094531842
-0.003124668 0.0067391172 0.094925739
-0.00092628499 0.0073532877 0.09490408
0.00098052819 0.0073447414 0.09494587
0.0027505108 0.0068866536 0.095370598
0.0041835578 0.0061931536 0.094377659
-0.0042085322 -0.0061731748 0.09733852
-0.0028659063 -0.0068411469 0.097050838
-0.00098467048 -0.0073443139 0.096905909
0.0010364883 -0.0073352577 0.097080253
0.0032032307 -0.0067144404 0.096971408
0.0043084994 -0.0060932003 0.097384118
-0.0061971257 -0.0041785929 0.097247072
-0.0052559287 -0.0052288356 0.096996158
0.0053340751 -0.0051765176 0.096931487
0.0061485171 -0.0042393534 0.097103521
-0.0068731997 -0.0027779462 0.096882142
0.0067650718 -0.0030577607 0.09718281
-0.0073433691 -0.00099044433 0.096799724
0.0073401467 -0.0010124067 0.096864678
-0.0073505705 0.00094639487 0.097094193
0.0073511465 0.00094273972 0.096758865
-0.0068129404 0.0029478774 0.097020514
0.0068423832 0.0028625925 0.096884206
-0.0062105744 0.0041617826 0.09636607
-0.0052205538 0.0052732956 0.096858062
0.0052706744 0.0052528768 0.09695486
0.0062190946 0.004151132 0.096960783
-0.0042534298 0.0061372565 0.097083263
-0.0030443363 0.0067751836 0.096975461
-0.0010316396 0.0073362603 0.096933864
0.00066889514 0.0073943846 0.097056612
0.0029830155 0.0067999065 0.096942216
0.0043123593 0.006090112 0.096948221
-0.0042665284 -0.0061267777 0.098935299
-0.0030002808 -0.0067848535 0.098933972
-0.0010575248 -0.0073330221 0.099383451
0.00097409618 -0.0073455609 0.098882228
0.0029610668 -0.006804321 0.099216484
0.0041773049 -0.0061981566 0.099553585
-0.0062116305 -0.0041604619 0.098938726
-0.005217867 -0.0052912077 0.098967239
0.0053136335 -0.0052185431 0.098888665
0.0062434366 -0.0041207043 0.099420689
-0.0068223029 -0.0029172597 0.098906673
0.0067626089 -0.0030657433 0.099014066
-0.0073601501 -0.00088571751 0.098938987
0.0073683294 -0.00083391037 0.098930188
-0.0072920201 0.0013128484 0.098810732
0.0073480285 0.00096248533 0.098895952
-0.0067676436 0.0030493934 0.099084556
0.0066506816 0.003344686 0.099029444
-0.0061669173 0.0042163543 0.098900437
-0.0050343811 0.0054966658 0.099168338
0.0050335792 0.0054676747 0.098893963
0.0061750473 0.0042061908 0.099205934
-0.0041011106 0.0062591117 0.098915704
-0.0031740186 0.0067182272 0.099015377
-0.00098933442 0.0073437891 0.098977253
0.0010550121 0.0073329308 0.098955967
0.0030307022 0.0067756632 0.09907914
0.0041860873 0.0061911307 0.099384509
-0.0042383336 -0.0061493339 0.10072626
-0.0029934093 -0.0067942208 0.10120548
-0.00098787411 -0.0073430617 0.10101127
0.0010554526 -0.007333084 0.1010288
0.003009903 -0.0067841229 0.10089794
0.0042069121 -0.0061744703 0.10080427
-0.0061546504 -0.0042316876 0.10095016
-0.0053429245 -0.005179273 0.10107917
0.0054216306 -0.0050885049 0.10105426
0.0061612576 -0.0042234282 0.10098623
-0.0068088085 -0.0029406692 0.1010095
0.0067889621 -0.0030091181 0.10090537
-0.0073523303 -0.00092628022 0.10097905
0.0073164585 -0.0011496855 0.10116035
-0.0073572602 0.00090401247 0.10111639
0.0073519321 0.00093776343 0.10103549
-0.0067379256 0.0031435862 0.10096703
0.0067295334 0.0031257067 0.10101216
-0.0060783913 0.0043270113 0.1013253
-0.0054203044 0.0050934632 0.10085388
0.0051912442 0.0053398418 0.10106383
0.0062540821 0.0041073975 0.10096743
-0.0041896058 0.0061883158 0.10128424
-0.003307387 0.0066710501 0.10091173
-0.0010241792 0.007337451 0.1006945
0.0010469584 0.0073339664 0.1011354
0.0028334174 0.0068526929 0.10093786
0.0041711726 0.0062030624 0.10120386
-0.004216739 -0.006166609 0.10305683
-0.0028401867 -0.0068487911 0.10299352
-0.000886505 -0.0073600244 0.10294916
0.0010436254 -0.0073350086 0.10314877
0.0031605973 -0.0067233513 0.10303675
0.0041813697 -0.0061949044 0.10277164
-0.0061493772 -0.0042382795 0.10304486
-0.0049975496 -0.0054984749 0.10282338
0.0051874816 -0.0053306837 0.10306048
-0.0067444495 -0.0031226035 0.10290384
0.0068029952 -0.0029734466 0.10300257
-0.0073002786 -0.0012641659 0.10290232
0.0072909645 -0.0013238868 0.10263057
-0.0073331827 0.0010557323 0.10297063
0.0073818346 0.00074838276 0.10280189
-0.0068627591 0.0028004244 0.10278159
0.006857608 0.0028293484 0.10298464
-0.0061492561 0.0042384299 0.103256
-0.0052546021 0.0052455016 0.1031252
0.0053319219 0.0051669083 0.10298577
0.0061361818 0.0042547733 0.10317323
-0.0041853418 0.0061917268 0.10269521
-0.0030995663 0.0067521753 0.10293388
-0.0010958035 0.0073269783 0.10303676
0.00088802213 0.0073597855 0.10311209
0.0030139354 0.006786379 0.10300621
0.00437422 0.0060406234 0.1024943
-0.0042784773 -0.0061172186 0.10473119
-0.0031386663 -0.0067370869 0.10485474
-0.0010410058 -0.0073346375 0.10525755
0.00082402333 -0.0073698908 0.10505535
0.0030493897 -0.0067725056 0.10508694
0.004194017 -0.0061847866 0.10496285
-0.0061933058 -0.0041833683 0.10526291
-0.0052119987 -0.0053016208 0.10499345
0.0052944357 -0.0052299928 0.10487456
0.0060883677 -0.0043145409 0.10475041
-0.0067788227 -0.0030317071 0.10480542
0.0067921397 -0.0029798192 0.10472418
-0.00736586 -0.00084955321 0.10495593
0.0073389197 -0.0010195728 0.10511803
-0.0073093604 0.0012073817 0.1050692
0.0073753395 0.00078950851 0.10496569
-0.0067733652 0.0030532067 0.10506691
0.0067569846 0.0030595686 0.10479604
-0.0061718365 0.0042102053 0.10537087
-0.0050863433 0.0054155295 0.105161
0.0053208428 0.0051677744 0.10488572
0.0061966851 0.0041791438 0.10528605
-0.0041864081 0.0061908737 0.10482528
-0.0031155723 0.0067521576 0.10517359
-0.0010123746 0.0073401523 0.10487995
0.00098754477 0.0073440713 0.1049419
0.0030312575 0.0067762951 0.10486069
0.0042749564 0.006120035 0.10485675
-0.0042219283 -0.0061624576 0.10699547
-0.0029683174 -0.0068032881 0.10697009
-0.00082913524 -0.0073690834 0.1067438
0.00079744152 -0.0073740878 0.10693283
0.00318434 -0.0067192884 0.10698928
0.0041967193 -0.006182625 0.10658376
-0.0062150089 -0.0041562398 0.10685264
-0.0053006192 -0.0052251429 0.10686018
0.0053776596 -0.0051308451 0.1070223
0.0061303331 -0.0042620832 0.10739245
-0.0068007791 -0.0029700296 0.10701868
0.0066562691 -0.0033244374 0.10704302
-0.0073419753 -0.00099462632 0.10695824
0.0073136669 -0.0011780889 0.10705627
-0.0073535396 0.00092757872 0.1070048
0.0073478743 0.00096330128 0.1069968
-0.0067304336 0.0031527514 0.10702255
0.0068046898 0.0029558768 0.10694221
-0.0061668046 0.0042164945 0.1075332
-0.0053655305 0.0051531936 0.10703128
0.0052713519 0.005244812 0.10691586
0.0063062916 0.0040421356 0.10670365
-0.0041369637 0.0062304297 0.10719493
-0.0028237998 0.0068573486 0.10694195
-0.0010318919 0.0073368433 0.10697179
0.00082601263 0.0073695774 0.10721572
