# .PCD v0.7 - Point Cloud Data file format
VERSION 0.7
FIELDS x y z
SIZE 4 4 4
TYPE F F F
COUNT 1 1 1
WIDTH 1283
HEIGHT 1
VIEWPOINT 0 0 0 1 0 0 0
POINTS 1283
DATA ascii
0.092824362 -0.18185104 -0.0042394665
0.09498176 -0.18180281 -0.0041792071
0.097119108 -0.18184601 -0.0042331838
0.0992845 -0.18184741 -0.0042349184
0.10083719 -0.18186173 -0.0042528361
0.10359323 -0.18182954 -0.0042125946
0.10470935 -0.18183179 -0.0042154007
0.10773909 -0.1818343 -0.0042185439
0.10898241 -0.18175377 -0.0041178977
0.11099888 -0.18183482 -0.0042191548
0.11320611 -0.18185176 -0.0042403946
0.11528657 -0.18184049 -0.0042262669
0.11714508 -0.18182929 -0.0042122854
0.11872306 -0.18186875 -0.0042615822
-0.0067947078 -0.18089561 -0.002983164
0.0067660222 -0.18106337 -0.0030652017
0.051309496 -0.18135132 -0.0029842772
0.052977394 -0.18114883 -0.0028393839
0.055097792 -0.18122947 -0.0030623267
0.057125449 -0.18129291 -0.0032197821
0.058884963 -0.18122587 -0.0030392753
0.060991716 -0.18121047 -0.0029981534
0.063099943 -0.18111907 -0.0027635433
0.065092988 -0.18127447 -0.0031745748
0.067073099 -0.18120353 -0.0029882046
0.068991102 -0.18121815 -0.0030357107
0.071082518 -0.18124096 -0.003085478
0.072769679 -0.18120232 -0.0029736182
0.074889958 -0.18110275 -0.0027224452
0.077137858 -0.18116905 -0.0028952912
0.079311341 -0.1813719 -0.0034143485
0.081349202 -0.1813204 -0.0032966724
0.083156303 -0.18126489 -0.0031331216
0.084901549 -0.18121479 -0.0030153315
0.086751223 -0.18120389 -0.0029871282
0.089025557 -0.18122 -0.0030194002
0.090959162 -0.18123321 -0.0030447117
0.092853785 -0.18119816 -0.0029814055
0.094904356 -0.18119489 -0.0029724939
0.097245157 -0.18126398 -0.0031523826
0.099076308 -0.18126005 -0.0031169956
0.10088522 -0.18120286 -0.0029721744
0.10287043 -0.18125576 -0.0031233048
0.10532989 -0.18114109 -0.0028230767
0.1068901 -0.1812257 -0.0030394997
0.10892382 -0.18118985 -0.0029562262
0.11112781 -0.18129843 -0.0032207326
0.11282629 -0.1812246 -0.003041706
0.11506373 -0.18117824 -0.0029079574
0.11697504 -0.18125322 -0.0031069315
0.11912286 -0.18115237 -0.0028571079
0.12107232 -0.18131138 -0.003009988
0.12207709 -0.18158342 -0.0022342855
-0.0074055404 -0.18093854 -0.00059889822
0.0073769419 -0.18130217 -0.0007800255
0.051149871 -0.1808726 -0.0010713021
0.053059664 -0.18064132 -0.00089562178
0.055054151 -0.18070224 -0.0012782924
0.056956358 -0.18068154 -0.0011477898
0.059128482 -0.18066978 -0.001071166
0.060889453 -0.18064153 -0.00089703739
0.063023016 -0.18064575 -0.00091367599
0.065042302 -0.18067878 -0.0011267023
0.066754527 -0.180655 -0.00098244275
0.069166042 -0.1806756 -0.0011127125
0.070988923 -0.18066972 -0.0010753808
0.073001996 -0.18065795 -0.0010009191
0.07503929 -0.18062937 -0.000820013
0.07702256 -0.18069722 -0.001249655
0.079175226 -0.18063429 -0.00084524445
0.081169769 -0.18064353 -0.00090967107
0.082849659 -0.18068261 -0.0011535854
0.085028201 -0.18066126 -0.0010164625
0.087038912 -0.18067855 -0.0011213167
0.088884279 -0.18064916 -0.00094029354
0.09121339 -0.18063791 -0.00087404129
0.092991158 -0.18063657 -0.00086561503
0.094922058 -0.18065137 -0.00095691963
0.096877024 -0.1806363 -0.00086015969
0.098962046 -0.18067525 -0.0011105179
0.10099677 -0.18062876 -0.00081166363
0.10286321 -0.18064551 -0.00092132913
0.10509483 -0.18064211 -0.00090072368
0.10712832 -0.18066128 -0.0010171669
0.10890402 -0.18060987 -0.00069658097
0.1109938 -0.18066566 -0.0010428105
0.11271973 -0.18067119 -0.0010682682
0.11485261 -0.18065707 -0.0009881563
0.11730181 -0.18069395 -0.0012193572
0.11885905 -0.18068859 -0.001194646
0.12095047 -0.18065479 -0.00097320089
0.12238679 -0.18113343 -0.00071760983
-0.0073307599 -0.18172924 0.0010638653
0.0073125865 -0.18078461 0.0011842863
0.05129049 -0.18106659 0.0013936079
0.053086933 -0.18064305 0.00090523961
0.055021368 -0.18065377 0.00097304676
0.056934047 -0.18068779 0.0011886146
0.058930781 -0.18063068 0.00082710147
0.061020035 -0.18064909 0.00094353018
0.063020796 -0.18066284 0.0010218794
0.065065496 -0.18064906 0.00093873037
0.066804186 -0.18066947 0.0010622885
0.068704404 -0.18066131 0.0010142294
0.071207196 -0.18066588 0.0010498789
0.072673686 -0.18070818 0.0013088796
0.074874915 -0.1806567 0.00099164329
0.077025227 -0.1806656 0.0010480351
0.078923732 -0.18065989 0.0010086364
0.081225246 -0.18061069 0.00070039794
0.083057001 -0.18065417 0.00097135879
0.085184321 -0.1806249 0.00078983826
0.08691404 -0.18067551 0.0011027846
0.089081742 -0.18063632 0.00086262112
0.090963341 -0.18063006 0.00082299032
0.092767164 -0.18068491 0.0011584017
0.094756089 -0.1806581 0.0010006184
0.09681993 -0.18070073 0.0012663908
0.098896593 -0.18064979 0.00093951804
0.1011916 -0.1806886 0.0011873813
0.10292908 -0.18065296 0.00095811149
0.10489202 -0.18066317 0.0010238824
0.10696878 -0.18067144 0.0010851478
0.10884705 -0.18063679 0.00086575252
0.11079433 -0.18066034 0.0010097629
0.11311111 -0.1806253 0.00079120731
0.11489465 -0.18060249 0.00064840575
0.1170218 -0.18066935 0.0010678929
0.11916058 -0.18065351 0.00097160053
0.12092903 -0.1806884 0.0011853004
0.12229338 -0.18120867 0.0011026094
-0.0068308068 -0.18115319 0.002901441
0.0067268177 -0.18089092 0.0031401631
0.051161282 -0.181557 0.0030772127
0.052835077 -0.18109606 0.0027029004
0.055061433 -0.18118501 0.0029128576
0.056860119 -0.18121281 0.003019752
0.058982871 -0.18116675 0.0028771819
0.060862549 -0.18128815 0.0032059306
0.062976837 -0.18129103 0.0031914848
0.065157615 -0.18121682 0.0030185352
0.066924602 -0.18129268 0.0031936222
0.06897524 -0.18113859 0.002818305
0.071157627 -0.18133688 0.003326416
0.073034905 -0.18119635 0.0029585552
0.07475505 -0.18116908 0.0028925166
0.076833792 -0.18111803 0.0027587679
0.07915289 -0.18129118 0.0032181903
0.080850497 -0.18108125 0.0026627216
0.082887232 -0.18119636 0.0029595764
0.08517918 -0.18125865 0.0031169748
0.087140344 -0.18121789 0.0030142458
0.089157805 -0.1811953 0.0029722711
0.09098047 -0.1812574 0.0031191639
0.092858374 -0.18133372 0.0033090278
0.095213629 -0.18118669 0.0029262942
0.097053342 -0.18120579 0.0029791258
0.098883703 -0.18117057 0.0028926083
0.10128803 -0.18116863 0.002888381
0.10318932 -0.18129732 0.0032279699
0.10498554 -0.18125731 0.0031216028
0.1070606 -0.18119872 0.0029815051
0.10923994 -0.1811737 0.0029044766
0.11088666 -0.18127191 0.0031601242
0.11324316 -0.18122554 0.0030281518
0.11489433 -0.18126969 0.0031571523
0.117031 -0.18122397 0.0030443426
0.11899894 -0.18124036 0.0030784758
0.12108123 -0.18125051 0.0028429008
0.12203588 -0.18160468 0.0023448439
-0.0062053455 -0.18133979 0.0041676625
-0.0052280347 -0.18094662 0.0053064004
0.0054425774 -0.18109296 0.0050545172
0.0061741411 -0.18109052 0.0042066677
0.051338919 -0.18186587 0.004256655
0.052692175 -0.18184066 0.0042251446
0.05548314 -0.18190476 0.0043052607
0.057731278 -0.18183696 0.0042205215
0.059119564 -0.1817615 0.004126186
0.060428787 -0.18179166 0.0041639148
0.062944822 -0.18180056 0.0041750143
0.065338835 -0.18177544 0.0041436073
0.067656979 -0.18181302 0.0041905842
0.069475263 -0.18183552 0.0042187115
0.071094111 -0.18182409 0.0042044227
0.073017731 -0.18181819 0.0041970564
0.074393868 -0.18187857 0.0042725359
0.077369392 -0.18186678 0.0042578094
0.078607358 -0.18182409 0.0042044311
0.08095634 -0.18190511 0.0043056956
0.082927719 -0.18191165 0.0043138829
0.084778368 -0.181848 0.0042343382
0.087003902 -0.18184292 0.0042279782
0.089184724 -0.18179594 0.004169229
0.091644675 -0.18185191 0.0042391997
0.092245676 -0.18166623 0.0040071011
0.095720917 -0.18166326 0.0040033935
0.096744165 -0.1818058 0.0041815774
0.099310093 -0.18177086 0.0041378872
0.10078772 -0.18182705 0.0042081201
0.10343641 -0.18182972 0.0042114835
0.10502495 -0.18185592 0.0042442256
0.10709143 -0.18182452 0.0042049685
0.10903393 -0.18186565 0.0042563947
0.11149783 -0.18187478 0.004267775
0.11344086 -0.18182802 0.0042093592
0.11537397 -0.18189844 0.0042973747
0.11699259 -0.18183653 0.0042199683
0.11889157 -0.18184076 0.0042252941
0.12051325 -0.18183202 0.0041460739
-0.0041713738 -0.18081059 0.0062022465
-0.0029624531 -0.18103206 0.0067999614
-0.00097067305 -0.18085212 0.0073460806
0.00096217886 -0.18092977 0.0073461719
0.0029117793 -0.18104197 0.0068237646
0.0042193756 -0.18092798 0.0061638448
-0.0042597898 -0.18257353 -0.0061328285
-0.0030312475 -0.18277021 -0.0067705
-0.00095304003 -0.18298411 -0.0073491321
0.0011096449 -0.18300787 -0.007325456
0.0030124509 -0.1829959 -0.0067837406
0.0041112374 -0.18284327 -0.0062516718
0.051222071 -0.18379499 -0.0060968734
0.052937921 -0.18386561 -0.0061748778
0.054958887 -0.18365951 -0.0060203075
0.057000615 -0.18378226 -0.0061123623
0.059155371 -0.18384369 -0.0061584269
0.062792718 -0.18389332 -0.006195676
0.064871378 -0.18382367 -0.0061434302
0.066806778 -0.18385777 -0.0061689913
0.069088951 -0.1839124 -0.006209977
0.070916869 -0.18382278 -0.0061427467
0.072866201 -0.18379685 -0.0061233193
0.075448796 -0.18374266 -0.0060826782
0.077278823 -0.18377522 -0.0061070789
0.07839106 -0.18398929 -0.0062676566
0.081283763 -0.18382572 -0.0061449641
0.083959132 -0.18395858 -0.0062446222
0.084943026 -0.18386047 -0.0061710118
0.089456528 -0.18382271 -0.0061427052
0.090467177 -0.18381566 -0.0061374051
0.093205474 -0.18386915 -0.006177552
0.095891155 -0.18386672 -0.0061757229
0.097121954 -0.18385224 -0.006164853
0.099027008 -0.18392538 -0.0062197205
0.10097511 -0.18387172 -0.0061794668
0.1033523 -0.1838384 -0.006154485
0.10512841 -0.1838844 -0.0061889677
0.10699233 -0.1838049 -0.0061293417
0.10894556 -0.18388499 -0.0061894343
0.11080205 -0.18381952 -0.006140308
0.11289798 -0.18388069 -0.0061861877
0.11478385 -0.18385215 -0.0061647813
0.11703813 -0.18381266 -0.0061351717
0.11897093 -0.18394205 -0.0062322188
-0.0061775385 -0.18254553 -0.0042037372
-0.0053317733 -0.18310437 -0.0051745959
0.0052388757 -0.18310857 -0.0052701361
0.0061048819 -0.18305779 -0.0042945603
0.051185727 -0.18311012 -0.0049922653
0.053029153 -0.18261059 -0.0051195021
0.054995991 -0.18287578 -0.0053650332
0.056935839 -0.18285169 -0.0053447643
0.059206888 -0.18267474 -0.0051789815
0.061052315 -0.18274415 -0.0052389139
0.063131757 -0.18257971 -0.0050960327
0.065136053 -0.18261138 -0.0051037772
0.067003682 -0.18298005 -0.0054501998
0.068820797 -0.18293916 -0.0054432591
0.070991695 -0.18275984 -0.0052913562
0.073152959 -0.18279245 -0.0052985027
0.075311691 -0.18260987 -0.0051112254
0.07711792 -0.18271258 -0.0052123484
0.079221502 -0.18280554 -0.0052982545
0.081107691 -0.18278398 -0.0052706799
0.082997695 -0.18266147 -0.0051634549
0.084994063 -0.18288265 -0.0053492291
0.087185957 -0.18254408 -0.0050644204
0.089119129 -0.18280174 -0.0053212345
0.090897687 -0.18245991 -0.0049630799
0.092848055 -0.18263614 -0.0051334007
0.095187575 -0.18266718 -0.0051877624
0.096831851 -0.18265539 -0.0051599192
0.098945297 -0.18266727 -0.0051516616
0.10127207 -0.18278661 -0.0052862721
0.10299278 -0.18291211 -0.005415428
0.10517055 -0.18270491 -0.0051908721
0.10699251 -0.18270133 -0.0052008959
0.10899516 -0.18271257 -0.0052318927
0.1109439 -0.18277155 -0.005266862
0.11318575 -0.1828135 -0.0053091724
0.11512902 -0.18279268 -0.0052749501
0.11706007 -0.18288295 -0.0053746249
0.11916065 -0.18288007 -0.0053004832
0.12076127 -0.18336196 -0.0046779038
-0.0068179765 -0.18290964 -0.0029295331
0.0068220473 -0.18285607 -0.0029175351
0.051000003 -0.18303826 -0.0030620163
0.12173066 -0.18299289 -0.003174609
0.12210593 -0.18349521 -0.0021560045
-0.0073425062 -0.18304949 -0.00099486101
0.0073456992 -0.18299045 -0.00097790523
0.051000003 -0.18299188 -0.0009200332
0.12237083 -0.18303177 -0.00081116526
-0.0073477221 -0.18291686 0.00096130453
0.0073466017 -0.18275025 0.00096603477
0.051000003 -0.18275779 0.0011059458
0.12237165 -0.18308482 0.00081224
-0.0066525866 -0.18296954 0.0033551187
0.0067244936 -0.18294169 0.0031748209
0.050999999 -0.18309498 0.0032149968
0.12176014 -0.18302371 0.0030912447
0.12207055 -0.18244496 0.0022506774
-0.0061352584 -0.1826763 0.0042552664
-0.0052936277 -0.18288551 0.0052031092
0.0051770005 -0.18286113 0.0053428621
0.0062276628 -0.18313468 0.0041397591
0.05124167 -0.18285292 0.0049332627
0.052703615 -0.18270993 0.0052116904
0.054952469 -0.18274757 0.0052363467
0.056943256 -0.18262914 0.0051365839
0.058923338 -0.18270592 0.005207927
0.060677506 -0.18277471 0.0052722311
0.062692568 -0.18275069 0.0052239606
0.064736634 -0.18273367 0.0052295309
0.067044497 -0.18266375 0.0051887785
0.069169573 -0.18270375 0.0052099051
0.071005553 -0.18271634 0.0052153971
0.073070131 -0.1827652 0.0052555976
0.074956916 -0.18280923 0.0053134733
0.076831222 -0.18279476 0.0053262957
0.078946382 -0.18267021 0.0051643103
0.081016436 -0.18274312 0.0052282908
0.082828037 -0.18274876 0.0052404045
0.085051015 -0.18268113 0.0051637911
0.087051928 -0.18281949 0.0053198393
0.088945322 -0.18282504 0.0053172917
0.09110982 -0.18281537 0.0052973321
0.093193285 -0.18255517 0.0050521889
0.094926588 -0.18272227 0.0052390466
0.097081415 -0.1826518 0.0051575257
0.09915825 -0.18263294 0.0051382375
0.10106082 -0.18296547 0.0054550739
0.10293161 -0.18286939 0.0053690178
0.10503861 -0.18265082 0.0051450403
0.1069957 -0.18280087 0.0053058942
0.10909937 -0.1827019 0.0052033737
0.11114947 -0.18260033 0.0051133162
0.11316722 -0.18280672 0.0052988743
0.11478614 -0.18281712 0.0053210473
0.11699119 -0.18273842 0.0052435976
0.11913804 -0.18271628 0.0052131708
0.12071887 -0.18268736 0.0046374956
-0.004197319 -0.18284896 0.0061814836
-0.0029928493 -0.18299349 0.0067871828
-0.0012486908 -0.18292132 0.0073021757
0.001096395 -0.18301441 0.0073248912
0.002930986 -0.18312994 0.0068166959
0.004236511 -0.18260846 0.0061501302
0.05165159 -0.18367903 0.0060336031
0.053020887 -0.18393627 0.0062265117
0.055393931 -0.18384816 0.0061604395
0.05703098 -0.1837083 0.006055546
0.0587455 -0.18385275 0.0061638891
0.060600307 -0.18388802 0.0061903284
0.063137352 -0.18383741 0.0061523798
0.067099996 -0.18380305 0.0061266064
0.068827167 -0.18391636 0.0062115872
0.070571311 -0.18382128 0.00614028
0.072839625 -0.18372755 0.0060699815
0.074780516 -0.18390541 0.0062033664
0.07638742 -0.18393447 0.0062251538
0.07958176 -0.18381703 0.0061370931
0.080957115 -0.18390451 0.006202695
0.083319828 -0.18391347 0.0062094089
0.085685633 -0.18371327 0.0060592783
0.086666696 -0.18391366 0.0062095658
0.08863043 -0.18381943 0.0061389012
0.091725707 -0.1838969 0.0061969887
0.095188498 -0.18381239 0.0061336197
0.096830986 -0.18389066 0.0061922995
0.098491877 -0.1838682 0.0061754719
0.1007823 -0.18379927 0.0061237742
0.10227605 -0.1837174 0.0060623726
0.10481842 -0.18377677 0.0061068875
0.10770831 -0.18392481 0.0062179207
0.1088785 -0.18383537 0.0061508371
0.11049232 -0.18373565 0.0060760742
0.11300229 -0.18383817 0.006152953
0.11509617 -0.18383648 0.0061516762
0.11654892 -0.18392536 0.0062183263
0.11846244 -0.18380116 0.0061251908
-0.0042710854 -0.18520634 -0.0061238026
-0.0028346332 -0.18493602 -0.0068526594
-0.00092732831 -0.18493152 -0.0073542492
0.00078789907 -0.18518554 -0.0073762648
0.0029522111 -0.1849654 -0.0068065906
0.0040841689 -0.18492807 -0.0062733339
0.051243626 -0.18492906 -0.0064980336
0.052846916 -0.18501265 -0.0067693032
0.055207051 -0.18505648 -0.006784902
0.056949556 -0.18498535 -0.0067506935
0.059149109 -0.18508756 -0.0067983605
0.061156444 -0.18498416 -0.0067447466
0.063143969 -0.18494236 -0.0067413193
0.064969912 -0.18498099 -0.0067636985
0.066991888 -0.18503967 -0.0067710089
0.068885662 -0.18497062 -0.0067504896
0.071084343 -0.18520309 -0.0068518762
0.072921142 -0.18492799 -0.0067448909
0.075193889 -0.1849373 -0.0067294119
0.076912224 -0.18493102 -0.0067460691
0.078883037 -0.1849788 -0.0067580724
0.080910474 -0.18478765 -0.00668028
0.083055295 -0.18496968 -0.0067498595
0.085008517 -0.18478727 -0.0066738445
0.087050527 -0.18497181 -0.0067424844
0.089039393 -0.18510021 -0.0068075913
0.091164209 -0.18500276 -0.0067562782
0.09273085 -0.185252 -0.0068674101
0.094887964 -0.18494742 -0.0067424159
0.096889637 -0.1852174 -0.0068548974
0.098817162 -0.1849314 -0.0067330785
0.10086557 -0.18525769 -0.0068665762
0.10301802 -0.18505938 -0.0067920061
0.10535809 -0.18477212 -0.0066743763
0.10699693 -0.18503298 -0.0067763864
0.10893977 -0.1850841 -0.0068001668
0.11121914 -0.18477452 -0.0066650859
0.11286105 -0.18483196 -0.0066910479
0.11507063 -0.1850353 -0.0067721526
0.11697597 -0.18493719 -0.0067345449
0.11851798 -0.18532054 -0.0065680402
-0.0062025669 -0.18487521 -0.0041724616
-0.0052734218 -0.18479808 -0.0052269185
0.0052926317 -0.18499997 -0.0052173282
0.0062269061 -0.18526196 -0.0041420381
0.050999999 -0.1849615 -0.0053116428
0.1197414 -0.18535806 -0.0057475432
0.12074234 -0.1850553 -0.0047441185
-0.0068676197 -0.18482935 -0.0028028439
0.0067690932 -0.18509465 -0.0030556521
0.051000003 -0.18517989 -0.0031942599
0.12176103 -0.18507378 -0.0030778509
-0.0073577259 -0.18516162 -0.00089400087
0.0074194157 -0.18495294 -0.00051104068
0.051000003 -0.18519953 -0.00090339198
0.12235813 -0.18507996 -0.00089772482
-0.0073512606 -0.18501906 0.00094134582
0.0073799682 -0.18515399 0.00075953454
0.050999999 -0.18497236 0.0010431216
0.12234581 -0.18505432 0.00097296131
-0.0067620059 -0.18470013 0.0030597756
0.0067714555 -0.18523233 0.0030557741
0.050999999 -0.18497026 0.0031699829
0.12167999 -0.18492442 0.0032984312
0.12210917 -0.18461414 0.0021458671
-0.0061524427 -0.1853506 0.0042337761
-0.0052777575 -0.18475994 0.0052430299
0.0052758567 -0.18487191 0.0052343933
0.0061225179 -0.18487518 0.0042711841
0.050999999 -0.1850287 0.0050787753
0.11970261 -0.18552856 0.0057772365
0.1208183 -0.18499835 0.0046474109
-0.0031302304 -0.18491036 0.0067430986
-0.0010819247 -0.18514958 0.0073285005
0.0010076846 -0.18481703 0.0073386496
0.0027745063 -0.18520631 0.0068771434
0.0041643512 -0.18487211 0.0062078498
0.051165175 -0.18521532 0.0066666217
0.052981842 -0.18498006 0.0067533059
0.055098325 -0.1852046 0.0068434067
0.057074469 -0.18520118 0.0068452861
0.058715928 -0.1851135 0.0068098884
0.060885217 -0.18485855 0.0067087533
0.062916301 -0.18499985 0.0067653609
0.065181509 -0.18481158 0.0066897352
0.067013703 -0.18508905 0.006805758
0.068955824 -0.18469639 0.0066089327
0.070913255 -0.18489392 0.0067196824
0.073144227 -0.18479767 0.0066751619
0.074926198 -0.18487391 0.0067097181
0.077096671 -0.18520233 0.0068429662
0.078953147 -0.18449146 0.0065561747
0.081220627 -0.18502879 0.0067729475
0.083133452 -0.18483576 0.0066986615
0.084909923 -0.18494698 0.0067447843
0.086923465 -0.1848079 0.0066851159
0.089026771 -0.18495603 0.006740001
0.091246575 -0.18496962 0.0067466022
0.092873484 -0.18505837 0.0067821713
0.095059328 -0.18510881 0.0068068225
0.09681084 -0.18472582 0.006645631
0.098703094 -0.18511418 0.0068122563
0.10134126 -0.18501747 0.006761835
0.10306154 -0.18505864 0.0067902082
0.10508474 -0.1850926 0.0067988299
0.10702168 -0.18481797 0.0066890419
0.10876279 -0.18487976 0.0067043034
0.11100119 -0.18511193 0.0068104188
0.1130842 -0.18499464 0.0067679905
0.11507391 -0.18509972 0.0068029235
0.11694327 -0.1852259 0.0068474216
0.11879347 -0.18527651 0.0064331875
-0.0042094523 -0.18726327 -0.0061731166
-0.0028860851 -0.18707317 -0.0068373824
-0.0011772345 -0.18708499 -0.007314798
0.00087764685 -0.1868781 -0.0073604905
0.003047982 -0.18711579 -0.0067629209
0.0042235991 -0.18690887 -0.0061617978
0.051269304 -0.18705212 -0.0070390343
0.053074215 -0.18704462 -0.0073498352
0.055171113 -0.18706302 -0.0073527382
0.057251886 -0.18695727 -0.007336041
0.058903527 -0.1870061 -0.0073431488
0.060991786 -0.18698379 -0.0073402291
0.062898852 -0.18696843 -0.0073378067
0.065010637 -0.18712504 -0.007362532
0.066893265 -0.18698043 -0.007338671
0.068803772 -0.18724857 -0.0073820385
0.071180053 -0.18708532 -0.0073556262
0.072962083 -0.18717651 -0.0073694088
0.074794807 -0.1868096 -0.007312479
0.076854274 -0.18698065 -0.0073395357
0.078937359 -0.18693742 -0.0073309899
0.081033885 -0.18704534 -0.0073499423
0.083151288 -0.18704067 -0.0073466776
0.084972739 -0.18700424 -0.0073434561
0.086954348 -0.18715523 -0.0073672952
0.089051515 -0.18693657 -0.0073322589
0.090897791 -0.18694481 -0.0073340731
0.092857897 -0.18709832 -0.0073583089
0.094983838 -0.18699373 -0.0073417961
0.097071745 -0.18728159 -0.0073872483
0.098979443 -0.18722272 -0.0073779561
0.10086064 -0.18687108 -0.0073219961
0.10305244 -0.18701668 -0.0073442915
0.10496298 -0.18710253 -0.0073589715
0.10707754 -0.18705012 -0.0073506972
0.10909996 -0.18686774 -0.0073188487
0.11101956 -0.18695532 -0.0073353969
0.11293691 -0.18683931 -0.0073158904
0.11512855 -0.18720318 -0.007362579
0.11702466 -0.18712547 -0.0071145105
0.11883434 -0.18708783 -0.0064124023
-0.0061479551 -0.18693984 -0.0042407331
-0.005259146 -0.18714447 -0.0052649109
0.0052939258 -0.18735665 -0.0052154236
0.0062274765 -0.18686682 -0.0041413307
0.050999999 -0.18705812 -0.0051053702
0.11979638 -0.18702687 -0.0057035815
0.12061301 -0.18715283 -0.0048801051
-0.0066520385 -0.18688999 -0.0033437256
0.0068466556 -0.18709481 -0.0028597561
0.050999999 -0.1869365 -0.0030890722
0.12182373 -0.18655691 -0.0029220118
0.12210803 -0.18705736 -0.0021502839
-0.0073551009 -0.18698983 -0.00091837539
0.007324805 -0.18711933 -0.0011062295
0.050999999 -0.18728265 -0.00094580383
0.12235858 -0.1869348 -0.00089638494
-0.0073220003 -0.1869259 0.0011195636
0.0073493868 -0.1869753 0.00094820408
0.050999999 -0.18711016 0.00095023133
0.12236026 -0.18708801 0.00087954378
-0.0067426097 -0.18711767 0.0031305461
0.0069045993 -0.18688987 0.0027011239
0.050999999 -0.18702011 0.0028414202
0.12162632 -0.18722083 0.0034216251
0.12207126 -0.18722677 0.0022487668
-0.0062271925 -0.18663117 0.0041403342
-0.0050928313 -0.18653013 0.0054141344
0.0052336822 -0.18703181 0.0052720192
0.0061559239 -0.18673851 0.0042294189
0.050999999 -0.18719734 0.0048234337
0.11968289 -0.18692718 0.0057930113
0.12068845 -0.1871759 0.0048020449
-0.00425357 -0.18741044 0.0061364663
-0.00319573 -0.18679455 0.0067193424
-0.0009343251 -0.18684246 0.0073517985
0.0009370785 -0.18694904 0.0073513635
0.0031385748 -0.18706429 0.0067399791
0.0041843685 -0.18706056 0.0061918278
0.051138043 -0.18715253 0.0068248287
0.053144339 -0.18716276 0.0073671243
0.055302639 -0.18691979 0.0073287589
0.056722142 -0.18705821 0.0073493603
0.059124403 -0.18689939 0.0073240977
0.061050043 -0.1866793 0.0072893095
0.063180193 -0.18700323 0.0073412908
0.065041594 -0.1870428 0.0073479246
0.066898815 -0.18684882 0.0073164706
0.069025815 -0.18711296 0.0073577166
0.071016729 -0.18672709 0.0072980467
0.073145069 -0.18698509 0.0073390719
0.074945129 -0.18683258 0.0073149884
0.076861456 -0.18701731 0.0073441579
0.078948088 -0.18731062 0.0073896893
0.081152558 -0.18701224 0.0073422687
0.083094455 -0.18723209 0.0073780683
0.084966771 -0.18678713 0.0073072962
0.086995162 -0.18705061 0.0073485649
0.088976987 -0.18683587 0.0073155109
0.090879738 -0.1873531 0.0073971758
0.093032807 -0.18705042 0.0073462264
0.095019095 -0.18715653 0.0073661283
0.097081318 -0.18701099 0.0073418245
0.099114619 -0.18671331 0.007293927
0.10108858 -0.18713526 0.0073627806
0.10292032 -0.18682899 0.0073134517
0.10523874 -0.18706524 0.007351723
0.10694209 -0.18724853 0.0073806634
0.10898643 -0.18688244 0.0073202201
0.11098813 -0.18713279 0.0073585976
0.11312667 -0.18682739 0.0073141651
0.11494644 -0.18729311 0.0073787579
0.11728728 -0.18663563 0.0070401141
0.1188492 -0.18715829 0.0063691665
-0.0041738814 -0.18939807 -0.0062015811
-0.0028107543 -0.18901515 -0.0068651433
-0.0012592763 -0.1892201 -0.0073011378
0.0010212762 -0.18905334 -0.0073383623
0.0029601359 -0.18904264 -0.0068095066
0.0042810454 -0.18906593 -0.0061158482
0.051333535 -0.18870182 -0.0070965453
0.052903447 -0.18915103 -0.0073189386
0.054868322 -0.18884277 -0.0073676119
0.056938805 -0.18895578 -0.0073497687
0.058968142 -0.18900311 -0.0073410338
0.060887195 -0.18913786 -0.0073194541
0.063062169 -0.18892741 -0.007354246
0.064937375 -0.18893184 -0.0073535466
0.066915199 -0.18900453 -0.0073417625
0.068934873 -0.18889405 -0.0073592165
0.071196198 -0.18882734 -0.0073700454
0.072982624 -0.18882716 -0.0073700761
0.074949183 -0.18896098 -0.0073472713
0.077090047 -0.18915766 -0.0073175579
0.078867063 -0.18921056 -0.0073089944
0.081130229 -0.18897508 -0.00734672
0.082906567 -0.18892179 -0.007354856
0.085071541 -0.18895911 -0.0073489533
0.087028213 -0.18900912 -0.0073393914
0.088774614 -0.18903421 -0.0073367264
0.090883955 -0.18883574 -0.007367061
0.093032457 -0.18890379 -0.0073576248
0.094897114 -0.18889527 -0.0073593208
0.097267173 -0.18902083 -0.0073374584
0.098722316 -0.18934605 -0.0072851256
0.10090895 -0.18883196 -0.0073686186
0.10317148 -0.18922427 -0.0073073767
0.10495782 -0.18892075 -0.007355297
0.10739158 -0.1889922 -0.0073429556
0.10921131 -0.18915582 -0.0073181861
0.1109625 -0.18910976 -0.0073241023
0.11277103 -0.18905951 -0.0073409355
0.11511634 -0.18897413 -0.0074408269
0.11718421 -0.18888816 -0.0070663886
0.11867563 -0.18866631 -0.0064816414
-0.0061255614 -0.1889756 -0.0042687324
-0.0052382252 -0.18925546 -0.0052624871
0.0053501404 -0.18902768 -0.0051551186
0.0062031168 -0.18939224 -0.0041717896
0.050999999 -0.1889621 -0.0050329939
0.11968261 -0.18932313 -0.0057945959
0.12065877 -0.18902577 -0.0048357374
-0.0068533905 -0.18883128 -0.0028250865
0.0066827717 -0.18910524 -0.0032841379
0.051000003 -0.18895347 -0.0029961294
0.12170631 -0.18876615 -0.0032407469
0.12208662 -0.18873362 -0.002208415
-0.0074037006 -0.18883559 -0.00061058206
0.0073413625 -0.18877135 -0.0010053854
0.050999999 -0.18888006 -0.0010674001
0.12236417 -0.18905988 -0.00086096337
-0.0073388633 -0.18895952 0.0010198514
0.0073500648 -0.18901628 0.00094890478
0.050999999 -0.18915929 0.0011305468
0.12234765 -0.18899989 0.0009641567
-0.0068738279 -0.18899813 0.0027752866
0.0067518656 -0.18901113 0.0031086139
0.051000003 -0.18911739 0.0029515333
0.12168714 -0.1891378 0.0032761965
0.12211316 -0.18904917 0.0021350326
-0.0061968318 -0.18913418 0.0041782768
-0.0051845284 -0.1890098 0.005322956
0.0053213388 -0.18892033 0.0052108141
0.0061709899 -0.18894735 0.0042105797
0.051000003 -0.18907996 0.0052267951
0.11972586 -0.189053 0.0057586301
0.12077057 -0.18871979 0.0047000642
-0.0043501975 -0.1893879 0.0060591558
-0.0029685644 -0.18898135 0.0068021356
-0.0008437864 -0.18894534 0.0073660864
0.00084106688 -0.18913782 0.0073665152
0.0030478437 -0.18900949 0.0067729466
0.0042383187 -0.18910111 0.0061486606
0.051256362 -0.18872303 0.006841199
0.052943271 -0.18911205 0.0073209647
0.055094354 -0.18877438 0.0073765162
0.057058528 -0.18898715 0.0073434557
0.058779974 -0.1891427 0.0073177754
0.061008517 -0.18890007 0.0073566115
0.063023403 -0.18899521 0.0073412517
0.064958535 -0.18898752 0.0073414599
0.066938341 -0.18911855 0.0073212832
0.068729483 -0.18898669 0.0073433635
0.07077992 -0.18908057 0.0073275655
0.072954655 -0.18908879 0.0073271329
0.075112008 -0.1892599 0.0072993077
0.077038348 -0.18886566 0.0073626377
0.079424359 -0.18886685 0.00736245
0.080932513 -0.18909836 0.0073258919
0.083057091 -0.18884088 0.0073665488
0.085220061 -0.18897414 0.0073455092
0.086943433 -0.18913694 0.0073183705
0.089071147 -0.18899553 0.0073395316
0.09098345 -0.18915229 0.0073154573
0.093154058 -0.18906188 0.0073316526
0.095066257 -0.18869922 0.0073886029
0.09689711 -0.18894863 0.0073495377
0.099228762 -0.18906061 0.007331057
0.1010107 -0.18900444 0.0073390603
0.10312025 -0.18925789 0.0072995243
0.10489105 -0.18873435 0.0073826592
0.10682921 -0.18936057 0.0072830343
0.10890424 -0.18910277 0.007324154
0.11116752 -0.1891205 0.0073207095
0.11277099 -0.188967 0.0073470394
0.11495668 -0.18909961 0.007447545
0.11699279 -0.18900773 0.0071260291
0.11897451 -0.18871965 0.0063190409
-0.0042177462 -0.19092412 -0.0061664935
-0.0028290306 -0.19112581 -0.0068549355
-0.0011529549 -0.19100451 -0.0073177139
0.0009492074 -0.19093238 -0.007349588
0.0032155833 -0.19098508 -0.0067083556
0.0042043058 -0.19112822 -0.0061772475
0.051270917 -0.1907268 -0.0065571913
0.052892476 -0.19106433 -0.0067662913
0.055182196 -0.19086716 -0.006840521
0.056776274 -0.1909887 -0.0067922832
0.059089832 -0.19104598 -0.0067782132
0.060840394 -0.19095275 -0.0068128165
0.062781058 -0.19108939 -0.0067537306
0.065252654 -0.19131432 -0.0066626156
0.066992417 -0.19095373 -0.0068079941
0.068983033 -0.19113937 -0.0067292084
0.071052983 -0.19116931 -0.0067330468
0.073040888 -0.19105411 -0.0067754812
0.075126998 -0.19111127 -0.0067503611
0.076977246 -0.19101611 -0.0067850426
0.07903444 -0.19104731 -0.0067728842
0.081038333 -0.1911228 -0.0067413133
0.082909115 -0.19107486 -0.0067603611
0.085043311 -0.19112106 -0.0067495811
0.086932965 -0.19109741 -0.0067577576
0.089096166 -0.19112931 -0.0067449571
0.091180697 -0.19089952 -0.0068267528
0.092951812 -0.19095296 -0.0068071927
0.094954193 -0.19081517 -0.0068608313
0.097150557 -0.19097021 -0.0068006488
0.099196516 -0.1909657 -0.0068051065
0.10120709 -0.19071473 -0.0068938001
0.10299052 -0.19136803 -0.006655822
0.10511222 -0.19105893 -0.0067663416
0.10703088 -0.19118372 -0.0067159613
0.10881522 -0.19111103 -0.0067532733
0.11112978 -0.1909287 -0.0068254694
0.11274022 -0.19108832 -0.007047717
0.1150978 -0.19144753 -0.0074153631
0.11715139 -0.1910174 -0.0070731938
0.11881032 -0.19080648 -0.0064264201
-0.006159381 -0.19105294 -0.0042264657
-0.0053342246 -0.19095053 -0.0051596109
0.0052532931 -0.19084875 -0.005243679
0.0060436483 -0.19184077 -0.0043711341
0.050999999 -0.1909764 -0.0046198755
0.11974799 -0.19079505 -0.0057423026
0.12074541 -0.1911578 -0.0047234097
-0.006834303 -0.19100657 -0.002886975
0.0067860195 -0.1911402 -0.0030044247
0.050999999 -0.19103689 -0.0031605882
0.12154281 -0.19107781 -0.0036200758
0.12205686 -0.19070676 -0.0022891716
-0.0073528611 -0.19090638 -0.00092086173
0.0073329001 -0.19113269 -0.0010589942
0.050999999 -0.19115038 -0.00091584987
0.12233387 -0.19081727 -0.001052832
-0.0073456648 -0.19112997 0.00097263447
0.0073392056 -0.1910498 0.0010176736
0.050999999 -0.1906824 0.0010030885
0.12234248 -0.19092517 0.00099326321
-0.0067067347 -0.19102226 0.0032311743
0.0066842958 -0.19101392 0.0032561603
0.051000003 -0.19089927 0.0029133311
0.12172274 -0.19088976 0.003176186
0.12209946 -0.19130343 0.0021721842
-0.0053693666 -0.19087255 0.0051418021
0.0052607926 -0.19121599 0.0052577485
0.0061119171 -0.19080038 0.0042844131
0.050999999 -0.19097084 0.0049424991
0.11962562 -0.19127983 0.0058388193
0.12071607 -0.19106533 0.0047747311
-0.0042445022 -0.19018383 0.0061437096
-0.002967539 -0.19084759 0.0068060057
-0.00085239892 -0.19102229 0.0073643317
0.00083907391 -0.19103348 0.007366823
0.0031956774 -0.19111907 0.0067008929
0.0042372332 -0.19116166 0.0061495216
0.051266726 -0.19100383 0.0066370047
0.053074043 -0.19108067 0.0067622378
0.055147026 -0.1910277 0.0067811869
0.057304949 -0.19090012 0.0068308562
0.059058394 -0.19104883 0.0067681726
0.061183691 -0.19070348 0.0068971557
0.063457593 -0.19137731 0.0066445088
0.065038472 -0.19090807 0.0068225823
0.066551886 -0.19128881 0.0066725491
0.068964832 -0.19090058 0.006829482
0.071277313 -0.1909696 0.0068017449
0.073242545 -0.19083543 0.0068502459
0.074936874 -0.19091292 0.0068210885
0.077323064 -0.19097683 0.006800184
0.078837849 -0.19079152 0.0068675997
0.080872379 -0.19113842 0.0067304303
0.082926914 -0.19121917 0.0067035039
0.084942468 -0.19110028 0.0067529222
0.087203361 -0.19118713 0.0067142854
0.088917732 -0.1911366 0.0067381244
0.091243044 -0.19115581 0.0067269527
0.092921905 -0.19101463 0.006774412
0.095090903 -0.19073154 0.0068929601
0.097146571 -0.19099608 0.0067879679
0.09913028 -0.19075096 0.0068835206
0.10102 -0.19086178 0.0068417811
0.10303311 -0.1909593 0.0068090456
0.10522047 -0.19119689 0.0067116157
0.10699886 -0.19128031 0.0066855983
0.10905311 -0.19117688 0.0067239595
0.11103882 -0.19110513 0.0067571653
0.11279093 -0.19104828 0.007058586
0.11499083 -0.19092441 0.0074426336
0.11689874 -0.19110322 0.007149267
0.11878055 -0.19098318 0.0064509762
-0.0043574162 -0.19320412 -0.0060547669
-0.0030550603 -0.19307901 -0.0067688287
-0.00084912457 -0.19314821 -0.0073666275
0.0011087973 -0.19290012 -0.0073240413
0.0029575629 -0.19316745 -0.0068110712
0.0042320169 -0.19390965 -0.0061550881
0.051542275 -0.19235776 -0.0060544605
0.053350527 -0.19230907 -0.0060934271
0.05484274 -0.19226098 -0.0061319019
0.057305302 -0.19214988 -0.0062207696
0.059306901 -0.19221549 -0.0061682877
0.060913995 -0.19216567 -0.0062081371
0.062990516 -0.1921531 -0.0062181978
0.064244419 -0.19221415 -0.0061693606
0.067210086 -0.19214764 -0.0062225652
0.069624253 -0.19210994 -0.006252713
0.071488544 -0.19220473 -0.0061768857
0.072831422 -0.19220546 -0.0061763031
0.075035706 -0.19215342 -0.0062179221
0.076995566 -0.19216007 -0.0062126121
0.079065703 -0.19228646 -0.0061115259
0.080886386 -0.19223949 -0.0061490964
0.082848012 -0.19223532 -0.0061524278
0.085054293 -0.19225095 -0.006139901
0.087060526 -0.19223037 -0.0061563794
0.09150897 -0.19223993 -0.0061487313
0.092964076 -0.19218121 -0.0061957021
0.094427608 -0.19230345 -0.0060979449
0.097082853 -0.19213477 -0.0062328642
0.099043697 -0.19220191 -0.0061791432
0.10120886 -0.19222543 -0.0061603468
0.10285609 -0.19226925 -0.0061252853
0.10531884 -0.19224297 -0.0061463285
0.10625341 -0.19218829 -0.0061900383
0.10915456 -0.19234653 -0.0060634566
0.1113032 -0.19274181 -0.0064749024
0.11289198 -0.19286212 -0.0070669171
0.11485834 -0.19284059 -0.007421928
0.1171253 -0.19331269 -0.0070924596
0.11865376 -0.1931355 -0.0065064211
-0.0062319394 -0.19263275 -0.0041357726
-0.0052836929 -0.19300129 -0.0052594049
0.0052748183 -0.19300504 -0.0052441349
0.0062116603 -0.19277127 -0.0041611227
0.05123277 -0.1931071 -0.0050992514
0.052958172 -0.19320314 -0.005308785
0.055075474 -0.19331925 -0.0052087745
0.056821629 -0.1932347 -0.0052771019
0.059135802 -0.19317292 -0.0053504836
0.060958572 -0.1930484 -0.0054550851
0.06265685 -0.19319345 -0.0052969209
0.064952791 -0.19320667 -0.0053005
0.066901162 -0.19339566 -0.0051149772
0.069068253 -0.19341069 -0.0051016272
0.070887409 -0.19343355 -0.0050647743
0.073055305 -0.19318253 -0.0053319344
0.074896187 -0.19325516 -0.0052417656
0.076942131 -0.19336197 -0.0051560113
0.07915134 -0.19333297 -0.005163745
0.080774643 -0.19345202 -0.0050631682
0.083088122 -0.19318384 -0.0053385654
0.085028447 -0.19312388 -0.0053722379
0.086811051 -0.19319485 -0.0053240517
0.08917962 -0.1934479 -0.0050583379
0.090959467 -0.19329345 -0.0052136006
0.093083464 -0.19327158 -0.0052599912
0.095119029 -0.19344717 -0.0050533912
0.097112857 -0.19321121 -0.005313925
0.098842524 -0.19336034 -0.0051358477
0.10077747 -0.19328539 -0.0052295155
0.10304985 -0.1931739 -0.0053502512
0.10530205 -0.19322392 -0.0052590244
0.10700864 -0.19331285 -0.0052154004
0.10886089 -0.19339511 -0.0051472518
0.11035713 -0.19353671 -0.0057935459
0.11966902 -0.19312388 -0.0058054854
0.12061374 -0.19309604 -0.0048977723
-0.0068381033 -0.19274476 -0.0028817141
0.0067903437 -0.19281773 -0.0030126229
0.050999999 -0.19286039 -0.0031010052
0.12163177 -0.19288066 -0.0034144802
0.122119 -0.19355306 -0.0021205645
-0.0073384452 -0.19308002 -0.0010238782
0.007355175 -0.19304033 -0.00091792131
0.051000003 -0.19283159 -0.0010614833
0.12231146 -0.19286536 -0.0011947858
-0.007332447 -0.19307391 0.0010404802
0.0073509682 -0.19329099 0.00094316615
0.051000003 -0.19301666 0.0010841674
0.12236711 -0.19284508 0.0008306104
-0.0068497374 -0.19311164 0.0028401029
0.0067080641 -0.19298486 0.0032092331
0.050999999 -0.19286564 0.0029658347
0.121669 -0.19311811 0.0033402387
0.12207992 -0.19342054 0.002225226
-0.0061988225 -0.19290921 0.0041757738
-0.0050506433 -0.19308266 0.0054566455
0.0053184903 -0.19292477 0.0052028131
0.0061568744 -0.19298202 0.0042282082
0.051341735 -0.1930735 0.0049689868
0.052746907 -0.19305098 0.0054480373
0.054475784 -0.19315273 0.0053489511
0.057037666 -0.19340213 0.0051048589
0.059190046 -0.19332895 0.0051856493
0.060935237 -0.19318475 0.0053315479
0.06302274 -0.19319068 0.0053446279
0.065053225 -0.19335434 0.0051471572
0.066899195 -0.19331971 0.005185259
0.069279231 -0.19327152 0.0052742162
0.071072578 -0.19318107 0.0053060455
0.073145866 -0.19327384 0.0052528465
0.075039081 -0.19317965 0.0053216829
0.077129908 -0.19323581 0.0052743745
0.078897282 -0.19336708 0.0051348405
0.081040882 -0.19321676 0.0052984171
0.082789637 -0.19343708 0.0050803944
0.08524283 -0.19315574 0.0053260513
0.087112203 -0.19337556 0.0051407018
0.089153871 -0.19331901 0.005187185
0.090952486 -0.19330029 0.0051934961
0.093323424 -0.19313793 0.0053732237
0.094651245 -0.19355674 0.00497066
0.097174115 -0.19333118 0.0051891822
0.098893344 -0.19332539 0.0051642684
0.10082777 -0.1932133 0.0052899416
0.10296523 -0.19317402 0.0053225802
0.10511386 -0.19332474 0.0051644798
0.10685427 -0.19299208 0.005505831
0.10882412 -0.1932262 0.0053317798
0.11028241 -0.1935591 0.0057361089
0.11970333 -0.19299941 0.0057766377
0.12077466 -0.19303928 0.0046944399
-0.0042010951 -0.19308849 0.0061784261
-0.0030861003 -0.19270195 0.0067623183
-0.0014748691 -0.19293094 0.0072628045
0.00095546478 -0.19300203 0.0073484387
0.0028555465 -0.19283812 0.0068422682
0.0042493166 -0.19279183 0.0061398479
0.051864173 -0.19222008 0.0061632539
0.053036042 -0.19217739 0.0061974186
0.055909164 -0.1920948 0.0062634866
0.056465954 -0.1922659 0.0061266073
0.059072778 -0.1922863 0.0061102863
0.060926348 -0.19216804 0.006204912
0.063033968 -0.1921894 0.006187825
0.065108925 -0.19220066 0.0061788047
0.067302756 -0.192213 0.0061689094
0.069049887 -0.19223692 0.0061497898
0.07124611 -0.19224936 0.0061398232
0.073356383 -0.19229102 0.0061065075
0.075003125 -0.19222598 0.0061585316
0.07639838 -0.19220616 0.0061744084
0.079146348 -0.19217227 0.0062015075
0.080909297 -0.19230658 0.0060940455
0.083027899 -0.19215047 0.006218941
0.085171983 -0.19222565 0.0061587892
0.087065779 -0.19216557 0.0062068878
0.088995539 -0.19215925 0.0062119258
0.090599112 -0.19211712 0.0062456331
0.092999049 -0.19225125 0.0061383126
0.094576001 -0.19224697 0.0061417469
0.096734777 -0.19218221 0.006193547
0.098851755 -0.19215865 0.0062123979
0.10097394 -0.19220304 0.0061769071
0.1028923 -0.19218136 0.0061942325
0.10508313 -0.1922224 0.0061613866
0.10711515 -0.19230512 0.0060952152
0.10933913 -0.19218621 0.0061903475
0.11112341 -0.1925921 0.0064055501
0.11294847 -0.19302247 0.0070927246
0.11506291 -0.19281657 0.0074170362
0.1170292 -0.19340971 0.0071285232
0.1186564 -0.19305673 0.006503725
-0.0042085713 -0.19470599 -0.0061738482
-0.0028814268 -0.19513237 -0.0068300948
-0.0007075977 -0.19477986 -0.0073889787
0.00070196041 -0.19501762 -0.0073898709
0.0031964646 -0.1950573 -0.0067176004
0.0040989826 -0.19483671 -0.0062615206
0.1114213 -0.19496477 -0.0064911558
0.11328985 -0.19532847 -0.0071977568
0.11514237 -0.19538051 -0.0074118003
0.11704617 -0.19521289 -0.0071025486
0.1187059 -0.19520773 -0.0064708185
-0.0061683129 -0.19524425 -0.0042153154
-0.0054251673 -0.19501533 -0.0050813397
0.0053818631 -0.19509301 -0.0051194234
0.0060031787 -0.19594522 -0.0044217361
0.051393844 -0.19420144 -0.0041738795
0.052521378 -0.19412689 -0.004267069
0.055128254 -0.19412656 -0.004267476
0.056860786 -0.19415674 -0.0042297663
0.058800325 -0.19427057 -0.0040874779
0.060566686 -0.19421835 -0.0041527627
0.064718992 -0.19410995 -0.0042882557
0.066521049 -0.19416717 -0.0042167157
0.06890104 -0.19415079 -0.0042371973
0.070967235 -0.19417125 -0.00421162
0.0736297 -0.19421877 -0.0041522277
0.074384257 -0.1942375 -0.0041288175
0.076474316 -0.19433792 -0.0040032826
0.079830512 -0.19421898 -0.0041519459
0.081017323 -0.19417273 -0.0042097657
0.082204469 -0.19416262 -0.0042224
0.085254714 -0.19413289 -0.0042595593
0.086952545 -0.1942123 -0.0041602999
0.088573039 -0.19415869 -0.0042273155
0.091590583 -0.19428203 -0.0040731579
0.092829272 -0.19402319 -0.0043966784
0.095343918 -0.19419788 -0.0041783196
0.096848272 -0.19407921 -0.0043266746
0.098525077 -0.19426155 -0.0040987423
0.10029994 -0.19419159 -0.0041861888
0.10348346 -0.19417964 -0.0042011491
0.10533115 -0.19408809 -0.0043155761
0.10716282 -0.19421928 -0.0041516041
0.109129 -0.19481565 -0.0046486352
0.11024359 -0.19464913 -0.0057083969
0.11968088 -0.19487952 -0.0057960013
0.12065612 -0.19495147 -0.0048434846
-0.0067148055 -0.19477768 -0.0031765371
0.0067217075 -0.19480997 -0.0031924706
0.051353306 -0.19467489 -0.003013161
0.052672096 -0.19472945 -0.003164056
0.055112422 -0.19476795 -0.0030519278
0.05714919 -0.19463576 -0.0033590749
0.058850247 -0.19472376 -0.0031691287
0.06108021 -0.19470812 -0.0032004789
0.062943988 -0.19479239 -0.0029946966
0.065029368 -0.194866 -0.00280727
0.066776946 -0.19468741 -0.0032520094
0.069154285 -0.19470978 -0.003198205
0.070694126 -0.19462264 -0.0034332676
0.073017523 -0.19485602 -0.0028316844
0.074957103 -0.19475707 -0.0030963633
0.07696116 -0.19479169 -0.0030089228
0.079074964 -0.19479026 -0.0030061039
0.080779999 -0.19485676 -0.0028178177
0.082930714 -0.19485947 -0.0027838568
0.085005105 -0.19482759 -0.0029114853
0.087027289 -0.19482063 -0.0029273331
0.089174286 -0.19470486 -0.0032188026
0.090709358 -0.19480495 -0.0029564216
0.093184061 -0.19484103 -0.0028692486
0.094969794 -0.19486137 -0.0028176205
0.097211987 -0.19477876 -0.0030437701
0.099027209 -0.19475573 -0.0030917136
0.10093251 -0.19471642 -0.0031940707
0.10314581 -0.19478545 -0.0030258896
0.10520957 -0.19471681 -0.0032121753
0.10704856 -0.19491449 -0.0029183056
0.10820694 -0.19514382 -0.0032399877
0.12161355 -0.19527604 -0.0034614438
0.12207959 -0.19476925 -0.0022275343
-0.0073157088 -0.19509083 -0.0011661132
0.0073362458 -0.19518656 -0.0010331231
0.05122314 -0.19493648 -0.00089478242
0.052989665 -0.19530976 -0.0012054419
0.054949511 -0.19531755 -0.0011516082
0.057258289 -0.19535267 -0.00093190395
0.059151914 -0.19533768 -0.001020462
0.061036278 -0.19534507 -0.00097315927
0.062806442 -0.19535172 -0.00093903695
0.064750038 -0.19540094 -0.00062830659
0.067177072 -0.1953851 -0.00072846783
0.06909918 -0.19530953 -0.0012008353
0.070926674 -0.19532365 -0.0011048861
0.073082134 -0.19531123 -0.001194856
0.074922927 -0.19534855 -0.00095877325
0.076984391 -0.19531147 -0.0011732789
0.079032704 -0.19535619 -0.0009028287
0.080991693 -0.19532256 -0.001124543
0.083030514 -0.19534661 -0.00097224751
0.08505778 -0.19536377 -0.00086360832
0.087113336 -0.19538623 -0.00072122493
0.08896967 -0.19535634 -0.000910556
0.090879321 -0.19536576 -0.00084592035
0.092989244 -0.1953291 -0.0010819925
0.095083803 -0.19532035 -0.0011319728
0.096999153 -0.1953471 -0.00096908858
0.099048808 -0.19537568 -0.0007881099
0.10123899 -0.19531903 -0.0011467857
0.10285189 -0.19535044 -0.00094803452
0.10482205 -0.19529252 -0.0012966037
0.10710633 -0.19544025 -0.00099455763
0.12229422 -0.19500859 -0.0012981817
-0.0073421476 -0.19497021 0.00099902961
0.0073697679 -0.19491537 0.00082409783
0.051078863 -0.19486518 0.00088801805
0.052971836 -0.19537108 0.00081578613
0.055244572 -0.19535172 0.00093841541
0.057128496 -0.19531415 0.0011761368
0.058758546 -0.19535041 0.00094672962
0.060945679 -0.19534586 0.00097273733
0.063171886 -0.19535613 0.00091040024
0.065124743 -0.19534932 0.00095360941
0.067146234 -0.19533405 0.0010504106
0.069451876 -0.19531398 0.0011773537
0.070931196 -0.19535685 0.00090600521
0.072906494 -0.19531828 0.0011464603
0.075211287 -0.19531994 0.0011367945
0.076850727 -0.19536266 0.00086912961
0.0786516 -0.19532846 0.0010856806
0.0812025 -0.19537127 0.00081459637
0.082764074 -0.19533685 0.0010305938
0.085008062 -0.19536422 0.00085923157
0.086835235 -0.19531783 0.0011531059
0.089280695 -0.19535653 0.0009078079
0.090892196 -0.1953464 0.00096836535
0.093036026 -0.1953578 0.00088977959
0.094834991 -0.19531852 0.0011488057
0.096951723 -0.19534445 0.00097866077
0.099036589 -0.19534606 0.00097007904
0.10120941 -0.19534466 0.00098314777
0.10294683 -0.19534603 0.00097080064
0.10502066 -0.19530182 0.0012437404
0.10732274 -0.19543891 0.0013668889
0.12231787 -0.1948798 0.0011527783
-0.0067123636 -0.19550639 0.0032140526
0.006790116 -0.19491763 0.0029977325
0.051251087 -0.19462244 0.002917771
0.052932654 -0.19475916 0.0030743242
0.054840192 -0.19477391 0.003030719
0.057217777 -0.19491351 0.0026689314
0.059314009 -0.19476566 0.0030686029
0.061127093 -0.19464581 0.0033489123
0.063092291 -0.19469124 0.003275367
0.06505397 -0.19486327 0.0027879581
0.066947833 -0.19471154 0.0032062954
0.069162078 -0.19475073 0.0031135303
0.070976019 -0.19476004 0.0030719596
0.072920159 -0.19487013 0.0027888815
0.074851908 -0.19456273 0.0035486182
0.077301264 -0.19477251 0.0030253564
0.078740127 -0.19477245 0.0030595206
0.081126995 -0.19467473 0.0032827312
0.082925238 -0.19478588 0.0030131473
0.084469967 -0.19481739 0.0029280139
0.086791486 -0.19482887 0.002906715
0.089108609 -0.19483225 0.0028711143
0.090865299 -0.19471189 0.0031897603
0.09300296 -0.19476375 0.0030763852
0.09494599 -0.19472735 0.0031822238
0.09682589 -0.19480608 0.0029576719
0.098984927 -0.19481498 0.002936546
0.1007854 -0.19481431 0.0029462348
0.1033151 -0.19477917 0.0030282373
0.10496958 -0.19484292 0.0028562639
0.10703681 -0.1949563 0.002774101
0.10822517 -0.19531144 0.0032283224
0.12170959 -0.19499359 0.0032221044
0.12204619 -0.19535021 0.0023167825
-0.0061445222 -0.19477844 0.0042436421
-0.0053598271 -0.19489582 0.0051402897
0.0053400407 -0.19503462 0.0051779631
0.0061218888 -0.19578709 0.0042719301
0.051310953 -0.19411241 0.0042838068
0.053395517 -0.19413431 0.0042564147
0.054922264 -0.19413683 0.0042532613
0.057409219 -0.19419615 0.004179135
0.05883811 -0.19412926 0.0042627421
0.061904155 -0.19409475 0.0043059015
0.062639102 -0.19416441 0.0042187865
0.064695112 -0.19408751 0.0043149618
0.066945173 -0.19415455 0.0042311461
0.069329284 -0.19417082 0.0042108023
0.070781961 -0.19420128 0.0041727209
0.072877288 -0.19413906 0.004250505
0.074925683 -0.194333 0.0040080845
0.077452615 -0.19415908 0.0042254911
0.078808799 -0.1941739 0.004206907
0.080958329 -0.19418579 0.0041920757
0.083178803 -0.19423877 0.0041258531
0.085352115 -0.19418661 0.0041910615
0.087505646 -0.19416912 0.0042129173
0.088596687 -0.19410048 0.0042987424
0.091695756 -0.19423582 0.0041295332
0.092659317 -0.19416375 0.0042196428
0.095794216 -0.19421029 0.0041614491
0.096990988 -0.19421634 0.0041539068
0.098996423 -0.19418629 0.0041914564
0.10149278 -0.19418357 0.0041948524
0.10340136 -0.19419841 0.0041763019
0.10506006 -0.19419681 0.004178301
0.10748521 -0.19410153 0.0042973976
0.10930301 -0.19505055 0.0048354361
0.11013727 -0.19483985 0.0056272377
0.11983676 -0.19495602 0.0056698802
0.1208017 -0.19501135 0.0046670586
-0.0042852103 -0.19551395 0.0061111236
-0.0030177846 -0.19490568 0.006782725
-0.0010566413 -0.1950874 0.0073320419
0.00097305694 -0.19507656 0.0073456541
0.0031042313 -0.19499497 0.0067465436
0.0040895622 -0.19479667 0.0062676454
0.11123564 -0.1948404 0.0063834977
0.11297167 -0.19487016 0.0070813536
0.11509666 -0.19509052 0.0074397377
0.11682208 -0.19497851 0.0071552838
0.11883911 -0.19491482 0.0064270915
-0.0042418502 -0.19763085 -0.0061472352
-0.0029458469 -0.19679315 -0.006809603
-0.00086379313 -0.19699459 -0.0073643248
0.00078399881 -0.19677837 -0.0073769228
0.0030983659 -0.19676498 -0.0067535168
0.0043274071 -0.1968257 -0.0060787871
0.11124951 -0.19700807 -0.0064106765
0.11315372 -0.19699568 -0.0071622715
0.11514467 -0.19725238 -0.0074374387
0.11712463 -0.19689667 -0.0070801913
0.11904067 -0.19705451 -0.0062691569
-0.0062093437 -0.19654441 -0.0041640322
-0.0052038194 -0.19697253 -0.0053075915
0.0052163843 -0.19729646 -0.0052778744
0.0061900164 -0.19722863 -0.0041881935
0.10929102 -0.1973484 -0.0047713341
0.11034009 -0.19688351 -0.0057807742
0.11976063 -0.19710919 -0.005732215
0.12057362 -0.1969509 -0.004939598
-0.0068551726 -0.19712222 -0.0028366742
0.0067553669 -0.19700785 -0.0031075743
0.10788417 -0.19787763 -0.0021291736
0.10818961 -0.1971329 -0.0029581988
0.12171526 -0.19712228 -0.0031997494
0.12204074 -0.19645627 -0.0023329742
-0.0073486725 -0.19712795 -0.00095807068
0.0073050829 -0.19700366 -0.0012228905
0.10763232 -0.19707318 -0.00083637255
0.12231036 -0.19716384 -0.0012016993
-0.0073219598 -0.19711538 0.0011268274
0.0073553612 -0.19692414 0.00091533875
0.10763323 -0.19720303 0.00084310368
0.12234794 -0.19753568 0.00096166763
-0.0067702313 -0.19697194 0.0030555092
0.0068475157 -0.19714254 0.0028560297
0.10794567 -0.19708575 0.0022946862
0.10823654 -0.19708969 0.0030673125
0.12169167 -0.19701968 0.0032537607
