# .PCD v0.7 - Point Cloud Data file format
VERSION 0.7
FIELDS x y z
SIZE 4 4 4
TYPE F F F
COUNT 1 1 1
WIDTH 1317
HEIGHT 1
VIEWPOINT 0 0 0 1 0 0 0
POINTS 1317
DATA ascii
-0.0062235007 -0.0041456246 0.20519724
-0.0052005374 -0.0053253062 0.20479622
0.0050861416 -0.005448123 0.20506406
0.0061271344 -0.0042660828 0.20513134
0.050918348 -0.005164932 0.20493431
0.05303986 -0.005285373 0.20480347
0.055104814 -0.0052553131 0.20476037
0.05713686 -0.0052241427 0.20471925
0.058927014 -0.0052367947 0.2047385
0.060614474 -0.0053056977 0.2048309
0.062888488 -0.005192732 0.20470624
0.065168537 -0.0053435373 0.20485552
0.067190208 -0.0051936125 0.2047009
0.069141909 -0.0054208394 0.20492634
0.071132116 -0.0053033233 0.20479992
0.072737008 -0.0051111551 0.20460317
0.075107083 -0.0053505274 0.20483486
0.077094205 -0.0053131636 0.20480213
0.079199992 -0.0053243572 0.20482358
0.08065211 -0.0052610668 0.20478798
0.08286272 -0.0054981969 0.20501214
0.085191503 -0.0053667938 0.20484754
0.087078333 -0.0052423063 0.20476142
0.088916525 -0.0054842532 0.20500965
0.091151699 -0.0051305438 0.20459267
0.093227223 -0.0053720204 0.20488529
0.095052019 -0.0053351829 0.20483707
0.096975476 -0.0050086617 0.20451048
0.099040918 -0.0051759048 0.2046849
0.10080267 -0.0053043105 0.20481814
0.10307785 -0.0053245476 0.20479885
0.10497554 -0.0054095066 0.20488568
0.10708977 -0.0053024692 0.20480679
0.10871194 -0.0052511836 0.20475817
0.11100899 -0.0052959956 0.20479693
0.11299847 -0.0053706989 0.20489964
0.11492604 -0.0052743847 0.20478562
0.11698616 -0.0051889778 0.20471001
0.11884482 -0.0052670343 0.20478196
0.12082522 -0.0045895409 0.20502391
-0.0068534929 -0.002840518 0.20509486
0.00669005 -0.0032812746 0.20517956
0.050199993 -0.0031920683 0.20494233
0.12167323 -0.0033298088 0.20491004
0.12208088 -0.0022233797 0.20479913
-0.0073841247 -0.00073387712 0.2049761
0.0073751891 -0.00079047045 0.20487973
0.050199993 -0.0011589471 0.20476082
0.12234519 -0.0009788936 0.20513968
-0.0073094885 0.0012026718 0.20481892
0.0073544085 0.00092207553 0.2050382
0.050199993 0.00098882976 0.20524956
0.12230475 0.001236594 0.20510915
-0.0067570554 0.0030380597 0.20511837
0.0066664345 0.0033199878 0.20498438
0.050199993 0.0031324995 0.20506743
0.12171055 0.0032285338 0.20477846
0.1220663 0.0022628848 0.20528215
-0.0061021103 0.0042973622 0.20593755
-0.0050737113 0.0054395958 0.20476714
0.0050155041 0.0054759611 0.2051219
0.050863724 0.0049844929 0.20480306
0.053467494 0.0050560883 0.20457302
0.054996226 0.0051828846 0.20470336
0.056963556 0.0051549235 0.20465578
0.058965717 0.0051821596 0.20466404
0.061109304 0.0051779738 0.20467536
0.063006386 0.00510961 0.20462304
0.065146141 0.0054405164 0.20495282
0.066923618 0.0051764012 0.20464841
0.068886496 0.0051176324 0.20463102
0.070997722 0.0051833065 0.20466077
0.07284385 0.0053959731 0.20490238
0.074935041 0.0052170595 0.20470114
0.077044785 0.0053204028 0.20482057
0.078908831 0.0052970015 0.2048053
0.081203289 0.0050747185 0.20457937
0.083098978 0.0051867072 0.20467708
0.08497151 0.0051429924 0.20465168
0.087023176 0.0053782286 0.20489123
0.088916712 0.0052760057 0.20478611
0.090851098 0.0053408816 0.20484939
0.09305837 0.0053078071 0.2048346
0.094987698 0.0050593978 0.20454024
0.097031347 0.0052096746 0.20471638
0.099028014 0.0052300119 0.20469306
0.10117849 0.0053970688 0.2048955
0.10274342 0.0053268983 0.20482022
0.10482099 0.0051206662 0.20462619
0.10689165 0.0053716092 0.20487127
0.10911624 0.0052167745 0.20471385
0.11097944 0.0051595797 0.20464243
0.11297878 0.0053518591 0.2048571
0.11472738 0.0052870018 0.20478658
0.11705517 0.0053318581 0.20482437
0.11920796 0.005200929 0.20472632
0.12055197 0.0048324093 0.20493317
-0.0041280948 0.0062375241 0.20484799
-0.0031493807 0.006734964 0.20489253
-0.0008596952 0.0073642591 0.2051501
0.0010781137 0.0073297718 0.20516156
0.0029058033 0.0068276334 0.2051222
0.0041734893 0.0062012086 0.20500325
0.051092766 0.0061682556 0.20585768
0.053189464 0.0061850124 0.20588002
0.055101633 0.0061258753 0.20580117
0.057263911 0.0060672928 0.20572305
0.059215497 0.0061896271 0.20588617
0.061229747 0.0061635189 0.20585136
0.062668376 0.0061156461 0.20578752
0.06715934 0.0061639594 0.20585194
0.068920441 0.0061086314 0.20577818
0.070742399 0.0061469986 0.20582935
0.072548024 0.0060610985 0.20571481
0.07485006 0.0061780629 0.20587075
0.076116338 0.0062669511 0.20598927
0.079402894 0.0061414093 0.20582187
0.081599094 0.0060961805 0.20576157
0.082936928 0.0062008812 0.20590119
0.084672138 0.0062212343 0.20592833
0.087098897 0.0061264522 0.20580195
0.088251755 0.0061218971 0.20579587
0.091566578 0.0061255214 0.20580068
0.092963181 0.0060930848 0.20575744
0.094914578 0.0061468785 0.20582917
0.097308442 0.0061151125 0.20578681
0.098849103 0.0061448701 0.20582649
0.10088333 0.0061550401 0.20584005
0.10277621 0.0060800547 0.20574008
0.10496233 0.006126686 0.20580225
0.10772943 0.0061704516 0.2058606
0.10860224 0.0061421562 0.20582289
0.11039032 0.0060767392 0.20573565
0.11318113 0.0061082356 0.20577765
0.1152549 0.0061369129 0.20581588
0.1166262 0.0062258053 0.20593441
0.11879168 0.0060613188 0.20571509
-0.0028977143 -0.0068293428 0.20692793
-0.0010998596 -0.0073228478 0.20687091
0.0010188358 -0.0073391316 0.2066883
0.0030732919 -0.0067608464 0.20686315
0.0041824682 -0.0061940253 0.20675719
0.050948221 -0.0066817822 0.20713332
0.052852768 -0.0067073074 0.20686209
0.054944392 -0.0067833248 0.20703498
0.057114441 -0.0067374357 0.20695044
0.059064712 -0.006794231 0.20707026
0.060995188 -0.006851851 0.20724253
0.063052662 -0.006723165 0.20688543
0.065213554 -0.0066331667 0.20668274
0.06707079 -0.0068426165 0.2071908
0.069046207 -0.0067085433 0.20688911
0.070810743 -0.0068041049 0.20708783
0.073352396 -0.0069339243 0.2074158
0.075244837 -0.0066948403 0.20680912
0.076867178 -0.0067951949 0.20705909
0.079310499 -0.0067295232 0.20690669
0.081087209 -0.0067304508 0.20692983
0.083045423 -0.0065569291 0.20654295
0.084940985 -0.0067342366 0.20691657
0.086835526 -0.0066712094 0.20678234
0.088872977 -0.0067838645 0.20706664
0.091067918 -0.0067733414 0.20700531
0.09303388 -0.006797499 0.2070743
0.094903074 -0.0068055931 0.20711873
0.096938193 -0.0068133296 0.20712347
0.099004321 -0.0067973179 0.20709828
0.1011277 -0.0068303305 0.20716943
0.10269436 -0.0067664352 0.20701428
0.10496081 -0.0067444672 0.20694639
0.1070524 -0.0067770267 0.20704918
0.10889873 -0.0067843241 0.20705932
0.11075021 -0.0066938763 0.20682836
0.11283307 -0.0067404616 0.20695144
0.11490146 -0.0067247874 0.20692296
0.11701132 -0.00675763 0.20699579
0.11863077 -0.0064614094 0.20699584
-0.0062305629 -0.0041367956 0.20735116
-0.0051201531 -0.0053834268 0.20722388
0.0052018785 -0.0053086113 0.20695667
0.0062179109 -0.0041526118 0.20668308
0.050199993 -0.0053017465 0.20706494
0.11977313 -0.0057214927 0.20673992
0.12066883 -0.0048336652 0.20700759
-0.0068209046 -0.0029273222 0.20694251
0.0068384772 -0.0028756522 0.20726189
0.050199989 -0.0031225816 0.20727028
0.1216962 -0.0032581766 0.20659401
0.12214563 -0.0020475714 0.20723188
-0.00728651 -0.0013392637 0.2068588
0.0073416852 -0.00099451002 0.20708504
0.050199993 -0.00082272367 0.20712854
0.12230297 -0.0012380889 0.20676355
-0.0073521072 0.00093665399 0.20710586
0.0073659495 0.00084898726 0.20677474
0.050199989 0.00084396347 0.20701636
0.1223547 0.00092021778 0.20675217
-0.0067483759 0.0030857578 0.20713942
0.0067801303 0.0030090422 0.20702031
0.050199989 0.0030248531 0.20708449
0.12181198 0.0029532132 0.20678453
0.12208857 0.0022024994 0.20674376
-0.0062692622 0.0040884223 0.20702511
-0.0051888176 0.005325269 0.20711593
0.0053627952 0.0051617534 0.20680907
0.0061213132 0.0042733597 0.20710886
0.050199993 0.0050793681 0.20706342
0.11966737 0.0058060982 0.2072223
0.12072081 0.0047556604 0.20703904
-0.0041372674 0.0062301867 0.20683417
-0.0030376767 0.0067741545 0.20718695
-0.0009065115 0.0073567354 0.20718439
0.00092069281 0.0073544532 0.20691568
0.0029483337 0.0068133185 0.20683792
0.0042149876 0.0061680102 0.20731185
0.050756227 0.0067295241 0.20709333
0.052986898 0.0068568373 0.20723142
0.055058952 0.0067071328 0.2068572
0.057304334 0.0068274033 0.20714886
0.058961187 0.0068130284 0.20711912
0.061107054 0.0066117048 0.20661344
0.063063644 0.0067312066 0.20690423
0.06507761 0.0067506083 0.20698296
0.066812404 0.0068063862 0.20711015
0.069344953 0.0065807682 0.20655872
0.071388774 0.0067435862 0.20694393
0.073105901 0.0066947085 0.20684072
0.074908949 0.0067423461 0.20695236
0.07709258 0.006766072 0.20701145
0.078976884 0.006622836 0.20665394
0.080944687 0.006807839 0.20711763
0.083129629 0.0066592181 0.2067427
0.085419506 0.0066826576 0.20680709
0.08686962 0.0067707417 0.2069962
0.089324385 0.006715076 0.20689203
0.091194801 0.006693996 0.20684233
0.092767812 0.0068243807 0.20714077
0.095295668 0.006786902 0.20706081
0.097076632 0.0066678836 0.20678397
0.098805659 0.0067972811 0.20706806
0.10113499 0.0067721452 0.20702131
0.10295445 0.0068414146 0.20719741
0.10497311 0.006748612 0.20696974
0.10719628 0.0067151552 0.20687999
0.10885805 0.0066856965 0.20681649
0.11119402 0.0068030967 0.20709437
0.11304068 0.0067008832 0.20682938
0.11482874 0.0067713195 0.20702712
0.11700033 0.0068538594 0.20723557
0.11884248 0.0063995011 0.20723215
-0.0043336367 -0.0060730902 0.20808764
-0.0027918939 -0.0068714079 0.20897746
-0.00099323224 -0.007343173 0.20928113
0.0010739987 -0.0073296367 0.20892707
0.0029562733 -0.0068052895 0.20906223
0.0042412411 -0.006147007 0.20913601
0.050438713 -0.0069875517 0.20897014
0.053172011 -0.0073625827 0.20913099
0.054844175 -0.0073343064 0.20895062
0.056930862 -0.0073716445 0.20918709
0.059084423 -0.0073666349 0.20915535
0.061000649 -0.0073358561 0.20896448
0.063010089 -0.0073220469 0.20887512
0.065155774 -0.0073371152 0.2089684
0.066993192 -0.0073314267 0.20893238
0.069016948 -0.0073225433 0.20887609
0.070885085 -0.0073002339 0.20873626
0.072900698 -0.0073595867 0.20911165
0.075030886 -0.0073258439 0.20890012
0.076709427 -0.0073343264 0.20895949
0.078993455 -0.007344082 0.20902124
0.081353746 -0.0072887875 0.20866612
0.083099462 -0.0073380494 0.20898621
0.084917627 -0.0073439269 0.20901155
0.087132022 -0.0073535088 0.20907222
0.088982046 -0.0073578982 0.20910004
0.09095525 -0.0073657865 0.20915
0.092835009 -0.0073383558 0.20897625
0.094946876 -0.0074036205 0.2093896
0.096990764 -0.0073117153 0.20881468
0.099001244 -0.0073907897 0.20930836
0.1010504 -0.0072938264 0.20870356
0.10321709 -0.0073461118 0.20902538
0.1050598 -0.007312886 0.20882745
0.10715901 -0.0073007047 0.20873779
0.10895283 -0.0073309587 0.20892939
0.11115856 -0.0073361588 0.20896742
0.1129017 -0.0072956351 0.2087153
0.11488837 -0.0073109637 0.20881739
0.11700785 -0.007114674 0.20910627
0.11867037 -0.006504599 0.20929903
-0.0062197512 -0.0041503115 0.20916969
-0.0052420027 -0.0052792239 0.20899849
0.0053139003 -0.0051868204 0.2089895
0.0061962488 -0.0041796891 0.20944181
0.050199989 -0.0051150802 0.20910653
0.11980809 -0.0056935297 0.20908022
0.12064816 -0.0048438916 0.20898615
-0.0067073549 -0.0032227328 0.20899436
0.0066833128 -0.0032718561 0.20888306
0.050199993 -0.0031402854 0.2088614
0.1216661 -0.0033008957 0.20922068
0.12204313 -0.0023257923 0.20899372
-0.0073401816 -0.0010002035 0.20906794
0.0073489868 -0.00095641887 0.2088279
0.050199989 -0.00090324547 0.20904864
0.12235004 -0.00094989594 0.20902392
-0.0073405481 0.0010076087 0.20907634
0.0073269331 0.0010919421 0.20926364
0.050199993 0.0010925435 0.20919743
0.12235627 0.00091021275 0.20870884
-0.0067628105 0.0030604934 0.20881051
0.006784495 0.0030203473 0.20897618
0.050199993 0.0027926438 0.20898268
0.12170072 0.0032217191 0.20909049
0.12206304 0.0022717419 0.20940219
-0.0061272262 0.0042659668 0.20851457
-0.0052735223 0.0052466858 0.20893942
0.0052309055 0.0052865907 0.20876554
0.050199989 0.0051313364 0.20896156
0.11984397 0.0056648236 0.2084271
0.12075827 0.0047189174 0.20905842
-0.0041993032 0.0061805579 0.2088903
-0.0027999363 0.0068681026 0.20901673
-0.0010733873 0.0073305173 0.20887618
0.00090358686 0.0073573287 0.20884567
0.0029674685 0.0068054236 0.20888343
0.0042177299 0.0061658164 0.20865527
0.05062633 0.0070397868 0.20911725
0.052984186 0.0073727239 0.20919392
0.055113949 0.0072938418 0.2087023
0.057054974 0.0073407064 0.20900694
0.058831304 0.0073458687 0.20902728
0.06116182 0.0073082806 0.20878926
0.063041195 0.0073165745 0.20883831
0.064715303 0.0073309182 0.20894042
0.066740774 0.0073178955 0.20884667
0.068915546 0.0073321178 0.20894232
0.071063951 0.0073174196 0.20884365
0.072956108 0.0073033846 0.20876279
0.075068355 0.0073174699 0.20884399
0.077037536 0.007371502 0.20918618
0.078993432 0.0073555782 0.20909005
0.080809884 0.0073453267 0.20902351
0.08281 0.0073498432 0.20904902
0.085114144 0.0073358538 0.20896842
0.087350212 0.0073607066 0.20911781
0.089232855 0.0073497146 0.20904991
0.090900652 0.0073400722 0.20899996
0.09308707 0.0073164385 0.20886153
0.095166743 0.0073783579 0.20923845
0.09685941 0.0073524863 0.2090753
0.099141404 0.0073298118 0.20892684
0.10114112 0.0073048156 0.20876816
0.1029186 0.0073533496 0.20907122
0.10480646 0.0073365471 0.20896478
0.106947 0.0073779081 0.20923355
0.10877775 0.0073183593 0.20886745
0.11085545 0.007321659 0.20888567
0.11290274 0.0073408624 0.20899215
0.11502244 0.0073554446 0.20911345
0.11685439 0.0071426015 0.20908777
0.11876997 0.0064237863 0.20901871
-0.0041496125 -0.0062203105 0.21098386
-0.0030420991 -0.0067752944 0.21098554
-0.00062622683 -0.0074011218 0.21107127
0.001090046 -0.0073257927 0.21113178
0.0028595775 -0.0068464712 0.21102051
0.0042902417 -0.0061078067 0.21105252
0.050609205 -0.0070620808 0.21086818
0.052766573 -0.0072675045 0.21145289
0.05487752 -0.0073029529 0.21123797
0.056923956 -0.0073869778 0.21071582
0.058753345 -0.0072898162 0.21131897
0.060877971 -0.0073195747 0.21112879
0.063061565 -0.0073702666 0.21082032
0.064829886 -0.007337607 0.21102849
0.067047521 -0.0073217717 0.21112365
0.069100522 -0.0073403013 0.21100044
0.070882164 -0.0073026828 0.21124966
0.072785668 -0.0073502222 0.21094304
0.07498537 -0.0073323688 0.21105953
0.076921195 -0.0073572765 0.21090393
0.079116166 -0.0073352545 0.2110402
0.081127055 -0.0073423376 0.21099851
0.082821883 -0.0073890015 0.210703
0.084921345 -0.0072993482 0.21125703
0.086959973 -0.0073585859 0.21089561
0.088939406 -0.0073022144 0.21125263
0.090839252 -0.0073315902 0.2110666
0.092892073 -0.0073429598 0.2109946
0.095026791 -0.0073603741 0.21087806
0.097324811 -0.0073653115 0.21085303
0.098896496 -0.007331437 0.211062
0.10112765 -0.0073584039 0.21089678
0.102873 -0.0073285708 0.21108571
0.10498378 -0.0073578246 0.21089883
0.1068096 -0.0073219156 0.21112788
0.10877585 -0.0073588067 0.2108942
0.11095347 -0.007325531 0.21108904
0.11302073 -0.0073774108 0.21083552
0.11503824 -0.0074450709 0.21090853
0.11705192 -0.0070981416 0.2108513
0.11830556 -0.006682164 0.21032822
-0.0061181486 -0.0042773145 0.21112652
-0.0052920165 -0.0052446113 0.21084845
0.0052927681 -0.005211581 0.21082145
0.0061464556 -0.0042419303 0.21134977
0.050199989 -0.0050537987 0.21094315
0.11956716 -0.005886279 0.21100885
0.12079675 -0.0046730391 0.211015
-0.0067574256 -0.0030759049 0.21116784
0.0068005621 -0.0029789393 0.21125399
0.050199989 -0.0028374393 0.21091262
0.12169775 -0.0032536956 0.21094052
0.12204985 -0.002307531 0.21101312
-0.0073684487 -0.00082976726 0.21092995
0.0073336856 -0.0010465237 0.21096602
0.050199993 -0.0012125231 0.21100509
0.12234937 -0.00094866316 0.21112619
-0.0073577557 0.00089068268 0.21069279
0.007346808 0.00097021717 0.21095417
0.050199989 0.0010714779 0.21124426
0.12237296 0.00080456486 0.21103631
-0.0068951673 0.0027274014 0.21092944
0.0067493683 0.003104476 0.21100318
0.050199993 0.0029720899 0.21075785
0.12161651 0.0034160046 0.21088549
0.12205423 0.0022956599 0.21052152
-0.0062188613 0.0041514239 0.21070877
-0.0053008292 0.0052028764 0.21108907
0.005409468 0.0051241959 0.21098399
0.0061701545 0.0042123063 0.21120627
0.050199993 0.005151975 0.21111135
0.11970892 0.0057728677 0.21082687
0.12062775 0.0048819636 0.2108783
-0.0041689835 0.0062048137 0.21083182
-0.0030365575 0.0067755543 0.2109846
-0.00095670874 0.0073486152 0.21112563
0.0011223893 0.0073205261 0.21106496
0.0028358239 0.0068525085 0.21091968
0.0042459699 0.0061432244 0.21101587
0.050825384 0.0071013644 0.21070392
0.052707288 0.0073064333 0.2112135
0.055041607 0.0073563051 0.21091005
0.056825273 0.0073717334 0.21081236
0.05886852 0.0073647387 0.21085665
0.060686119 0.0073184567 0.21114872
0.063128911 0.0073478562 0.21096358
0.064909197 0.0073044747 0.21123832
0.06740272 0.007327762 0.21109085
0.069157891 0.0073282975 0.21108744
0.070863172 0.0073536071 0.21092714
0.073023371 0.0073295753 0.21107668
0.07497824 0.0073408573 0.21100475
0.077144608 0.0073724361 0.21080792
0.078976974 0.0073543475 0.21091959
0.080837838 0.0073463325 0.21097322
0.083035924 0.007345458 0.21097626
0.085162781 0.0073430333 0.21099412
0.087079108 0.0073198816 0.211128
0.088898249 0.0072944886 0.21127787
0.09083569 0.0073214094 0.21113066
0.093123056 0.0073626372 0.21086784
0.09495274 0.0073294095 0.21107711
0.097142532 0.0073593301 0.21088462
0.099113286 0.0073410999 0.2110064
0.10097326 0.0073232651 0.21111214
0.10332047 0.0073439563 0.21098827
0.10507231 0.0073045855 0.21123764
0.10709815 0.0073504634 0.21094708
0.10922873 0.0073537957 0.21092597
0.11114904 0.007346258 0.21097368
0.11293995 0.0073289508 0.21115507
0.11479566 0.0074329949 0.21099275
0.11704137 0.0071056122 0.21115945
0.11869998 0.0065097921 0.21103635
-0.0043078884 -0.0060936897 0.21292439
-0.0031388013 -0.0067404462 0.2132187
-0.00092179846 -0.0073544532 0.21301913
0.0011213678 -0.007321408 0.21295235
0.0028497649 -0.0068458719 0.21304187
0.0042623361 -0.006130131 0.21256457
0.050763171 -0.0066187605 0.21282814
0.053043127 -0.0068296874 0.21289556
0.055038031 -0.0068070996 0.21295953
0.057117272 -0.0068129646 0.21295053
0.059285928 -0.0067762625 0.21303949
0.060954466 -0.0067432383 0.21312355
0.063152626 -0.0068112114 0.21292962
0.064724788 -0.0067441477 0.2131128
0.067297585 -0.0068181097 0.2129266
0.06923651 -0.0068115178 0.21293323
0.070874326 -0.0067601646 0.21308039
0.072898254 -0.0068195346 0.21293023
0.074908048 -0.0068160021 0.21294229
0.076986738 -0.006768608 0.21306194
0.079204477 -0.0067852139 0.21300508
0.081194215 -0.0068138861 0.21294521
0.083060279 -0.0067786137 0.21303688
0.085255831 -0.0068431022 0.21285376
0.086823545 -0.0067853732 0.21299656
0.08905407 -0.006753956 0.21309735
0.091147415 -0.0067546321 0.21310294
0.092908256 -0.0067707128 0.21306519
0.094918437 -0.0068821684 0.2127579
0.097046621 -0.006779775 0.21303044
0.099017918 -0.0068314951 0.21289091
0.10069783 -0.0068841064 0.21275742
0.10301641 -0.006834887 0.21289043
0.10481714 -0.0067937351 0.21298921
0.10699417 -0.0068141087 0.2129457
0.10912401 -0.0068026255 0.21296743
0.11106561 -0.0067744148 0.21304551
0.11328156 -0.0072141555 0.21274231
0.11506906 -0.007418952 0.21317261
0.11695309 -0.0071390155 0.21292703
0.1186576 -0.0065090246 0.21306248
-0.0061561065 -0.0042298674 0.21242131
-0.005287013 -0.0052401177 0.2132673
0.0053314152 -0.0051945653 0.21299812
0.0061606364 -0.0042242035 0.21315321
0.050199993 -0.0048395763 0.21287312
0.11965566 -0.0058154766 0.21307687
0.12062969 -0.0048627798 0.21286149
-0.0068047731 -0.0029644398 0.21330598
0.006776067 -0.0030505925 0.21307123
0.050199993 -0.0031258606 0.21297516
0.12167602 -0.0032988638 0.21303749
-0.0073821065 -0.00074665999 0.21300122
0.007385897 -0.00072265445 0.2129093
0.050199993 -0.0011040345 0.21298622
0.12235454 -0.00092106895 0.21311316
-0.0073743262 0.00079593027 0.21319497
0.0073615005 0.00087677588 0.21327452
0.050199993 0.00089014345 0.21277742
0.12229728 0.0012839241 0.21317768
-0.0067981514 0.0029796571 0.21275876
0.0068429764 0.0028690642 0.21304753
0.050199989 0.0031221947 0.21324806
0.12169134 0.0032638288 0.21303238
0.1220487 0.0023106602 0.21278313
-0.0062129768 0.0041587795 0.21336126
-0.0051842821 0.005327187 0.21309142
0.0053425124 0.0051704138 0.21295507
0.0061135697 0.0042830375 0.21335651
0.050199993 0.0050330134 0.21290329
0.11974359 0.0057451292 0.21299191
0.12074138 0.0047388608 0.21307813
-0.0041515236 0.0062187817 0.2133117
-0.0028464999 0.0068512899 0.21302722
-0.0013230147 0.0072895293 0.21304864
0.0013150466 0.0072911642 0.2127765
0.0031179932 0.0067381561 0.2132844
0.0042948332 0.006104134 0.21281944
0.050880421 0.0065579521 0.2131412
0.053036012 0.0068812068 0.21275827
0.055094648 0.006831781 0.21288554
0.056846894 0.0068049962 0.21295971
0.058932934 0.0068333619 0.21288614
0.061199889 0.0067976783 0.21299203
0.06289836 0.006687582 0.2132757
0.064974621 0.0068661515 0.21280617
0.06692975 0.0067653423 0.21305947
0.069195107 0.0066649597 0.21331909
0.070656858 0.0067978245 0.21299164
0.073134966 0.0067543481 0.21307665
0.074832469 0.0067101796 0.21320398
0.077305228 0.006883177 0.21275328
0.079029158 0.0068779034 0.21275127
0.081131421 0.0068236194 0.21289776
0.082994096 0.0067907516 0.21299189
0.084785037 0.0067944773 0.21299011
0.087003969 0.0068278378 0.21291016
0.088943392 0.0067312201 0.21316063
0.091010131 0.0068270154 0.21291238
0.092950098 0.0067455377 0.21312055
0.094947845 0.0068288106 0.21289466
0.096900187 0.0068921554 0.21273096
0.098583095 0.0068905074 0.21274005
0.10089601 0.0067138188 0.21320924
0.10319873 0.0068011801 0.21295837
0.10497866 0.0067539713 0.21306306
0.10688113 0.0067913574 0.21299735
0.10885482 0.0067468355 0.21309768
0.11088761 0.0067917113 0.2130014
0.11334438 0.0072200503 0.2129093
0.11495515 0.0074320743 0.2129886
0.1171366 0.0070804032 0.2131846
0.11862872 0.0065220329 0.2128906
-0.0042496296 -0.0061402959 0.21535049
-0.0029761887 -0.0067960918 0.21496233
-0.0010318253 -0.0073370812 0.21528573
0.00087076263 -0.0073625115 0.21513642
0.0031319677 -0.006739323 0.2151203
0.0044022789 -0.0060181771 0.21586457
0.051216096 -0.0061965939 0.21417926
0.053282663 -0.006073589 0.214333
0.055461153 -0.0061974358 0.2141782
0.056897156 -0.0061659436 0.21421757
0.05914123 -0.0062358044 0.21413025
0.060693402 -0.0062030451 0.2141712
0.065281861 -0.0061231242 0.2142711
0.067106664 -0.006019067 0.21440117
0.068722785 -0.0061225072 0.21427187
0.071039431 -0.0061603663 0.21422453
0.072692454 -0.0061451849 0.21424353
0.075094551 -0.0061353855 0.21425578
0.077260911 -0.0062353341 0.21413083
0.079276353 -0.0061392477 0.21425094
0.080806538 -0.0061062626 0.21429215
0.083208017 -0.0062024589 0.21417193
0.084293544 -0.0061869463 0.21419132
0.08683072 -0.0061659529 0.21421756
0.089185826 -0.0061472836 0.21424089
0.091074035 -0.0061434722 0.21424566
0.092836231 -0.0063248645 0.21401891
0.0948046 -0.0061675883 0.21421552
0.097346932 -0.0060719568 0.21433505
0.098370165 -0.0061268336 0.21426645
0.10056996 -0.006164927 0.21421884
0.10305541 -0.0061426391 0.21424671
0.10510571 -0.0061281738 0.21426477
0.10673218 -0.0061605698 0.21422431
0.10903456 -0.006169375 0.21421328
0.11128054 -0.00645279 0.21498984
0.112875 -0.0070794071 0.21500544
0.11527151 -0.0074304407 0.21520829
0.11686192 -0.0071485802 0.21492702
0.11867277 -0.0064905398 0.21500963
-0.0061070099 -0.0042912373 0.21503398
-0.0052771065 -0.0052565206 0.21500869
0.0052871546 -0.0052044163 0.21501815
0.0061573386 -0.004228327 0.21471372
0.050769426 -0.0050683231 0.21502054
0.053144924 -0.0052614068 0.21525304
0.05500374 -0.0051753754 0.21533056
0.057112407 -0.0052977116 0.21521486
0.059049886 -0.0052342131 0.21528684
0.061020356 -0.0053511332 0.21516459
0.062995128 -0.0051957783 0.21532126
0.064779542 -0.0053799907 0.21514228
0.066928461 -0.0050815763 0.21541108
0.06913919 -0.0053800163 0.21514308
0.071045838 -0.0051666494 0.21532665
0.072944678 -0.0050757686 0.21543987
0.074619651 -0.0051939944 0.21533577
0.077027924 -0.0054196254 0.21510856
0.079135574 -0.0051306952 0.21536519
0.081024207 -0.0053317654 0.21517135
0.083316155 -0.005092734 0.21542422
0.085129492 -0.0053290185 0.21519366
0.086917467 -0.0053025992 0.21521766
0.088953227 -0.0052094571 0.21529731
0.090855353 -0.0052597094 0.21523193
0.093085684 -0.0051782089 0.21533324
0.094910644 -0.0054368917 0.21506639
0.096988976 -0.0052604787 0.21522623
0.099091254 -0.0050737588 0.21544035
0.10102978 -0.0053336984 0.21519236
0.1028673 -0.0051100426 0.21539567
0.10509826 -0.00522306 0.21530204
0.10712517 -0.0054669119 0.21505487
0.10885426 -0.0053748023 0.21513647
0.11033022 -0.0057726614 0.21519282
0.11969189 -0.0057864874 0.21510796
0.12080894 -0.0046629063 0.21493918
-0.0068000979 -0.002985449 0.21484445
0.0067656254 -0.003061509 0.21511921
0.050199993 -0.003057987 0.21503642
0.12167915 -0.0032932744 0.21531299
-0.0073691797 -0.00081989513 0.21522099
0.0073392959 -0.0010106725 0.214985
0.050199993 -0.00097923318 0.21486658
0.12232308 -0.0011149595 0.21481328
-0.0073538395 0.00092568051 0.2152081
0.0073428289 0.00099541515 0.21500282
0.050199997 0.0010369433 0.21496332
0.12231768 0.0011547832 0.21516351
-0.0068305102 0.0029029022 0.21507992
0.0067774421 0.0030174446 0.21518934
0.050199993 0.0029801733 0.2149307
0.12169585 0.0032326102 0.21534868
0.1220783 0.0022303411 0.21528843
-0.0060867472 0.0043165665 0.21519105
-0.0052973661 0.0052187601 0.21501775
0.0051562246 0.0053581377 0.21509856
0.0061278655 0.0042651687 0.21492046
0.050852627 0.0050948309 0.21511585
0.053061437 0.005124832 0.21535909
0.055116031 0.0052947509 0.21521774
0.057043005 0.0054676775 0.21504509
0.058790755 0.0052495524 0.21524931
0.060940839 0.0051221922 0.2153787
0.062840328 0.0052322894 0.21528138
0.065126613 0.0053894348 0.21513453
0.06699077 0.0053791394 0.21511763
0.069068335 0.0054686684 0.21504267
0.070858523 0.0055003297 0.21502364
0.07303898 0.0051703956 0.21535344
0.074956588 0.005163087 0.2153392
0.077117607 0.0052952473 0.21520019
0.078641281 0.0053401692 0.21518679
0.081324086 0.0051206127 0.21539237
0.082872435 0.0051108869 0.2154105
0.08505486 0.0054361359 0.21507125
0.086973242 0.0052405144 0.21526109
0.088927127 0.0051395856 0.21536803
0.090997264 0.0053090681 0.21519817
0.093153752 0.0053273025 0.21519326
0.095015116 0.0052694003 0.21525209
0.097011484 0.0052315425 0.21528976
0.099076316 0.0052760751 0.21523274
0.101081 0.0052181361 0.21529077
0.10263782 0.0054115234 0.21508315
0.10516348 0.0052248975 0.21529379
0.10676517 0.0054455665 0.21506862
0.10897273 0.005260576 0.21542846
0.11029301 0.0057791057 0.21508749
0.11984114 0.0056670764 0.2151262
0.12061052 0.0049056574 0.2148812
-0.0041848109 0.0061921515 0.21466996
-0.0031132994 0.0067483527 0.21484526
-0.00086733332 0.007361888 0.21486872
0.0010674184 0.0073307948 0.21503899
0.0027121778 0.0068977298 0.21482337
0.0042060493 0.0061751613 0.21495692
0.050697859 0.0060349442 0.21435942
0.05283552 0.0061605633 0.21422431
0.055061668 0.0061482568 0.21423967
0.056163892 0.0062157065 0.21415536
0.059321556 0.0061791041 0.21420112
0.060733575 0.0062165479 0.21415432
0.062910378 0.0062189843 0.21415126
0.0651398 0.0061982321 0.21417722
0.067047372 0.0062053921 0.21416824
0.068984695 0.0061240215 0.21426997
0.070838787 0.0061280741 0.21426491
0.073019594 0.0062490851 0.21411364
0.074696682 0.0061626434 0.2142217
0.076811202 0.0061470969 0.21424113
0.08093752 0.0062218937 0.21414764
0.082223877 0.0061599072 0.21422511
0.084709406 0.0060955295 0.21430561
0.087172359 0.0063147787 0.21403152
0.088801891 0.0061254762 0.21426815
0.090829179 0.0061541111 0.21423236
0.093229294 0.0061756647 0.21420541
0.09544836 0.0061020954 0.21429738
0.096990272 0.0061162566 0.21427968
0.099579632 0.0061685648 0.21421431
0.10143195 0.0061410395 0.2142487
0.10363723 0.006165239 0.21421845
0.10520183 0.0061628143 0.21422148
0.10698067 0.0061624758 0.21422191
0.10914747 0.0061372016 0.2142535
0.11145807 0.006530188 0.21496023
0.11291248 0.0070808637 0.21499768
0.11483803 0.0074278084 0.21504436
0.11699967 0.0071106609 0.21480848
0.1188122 0.0064244745 0.21504341
-0.0043237815 -0.0060809748 0.21763313
-0.0029413172 -0.0068125608 0.21710236
-0.0011565405 -0.0073170266 0.21691445
0.0011026359 -0.0073243598 0.21713255
0.0030338578 -0.0067810393 0.21703129
0.0042189276 -0.0061648581 0.21699353
0.11134577 -0.0064600646 0.21684895
0.11306283 -0.0071414844 0.2167764
0.11484856 -0.0074103866 0.21694376
0.11706496 -0.0070922361 0.2169105
0.11890227 -0.0063528148 0.21688963
-0.0061722412 -0.0042096991 0.21703611
-0.0051927771 -0.0053338665 0.21733183
0.0053877919 -0.0051271687 0.21716392
0.006118977 -0.0042762784 0.21704561
0.0510008 -0.0041516805 0.21621865
0.053050403 -0.0041343444 0.21623251
0.055194795 -0.0041356049 0.21623151
0.057162091 -0.004214332 0.21616852
0.058661237 -0.0042464766 0.2161428
0.060893707 -0.0041700443 0.21620397
0.06240581 -0.0041949535 0.21618405
0.065494232 -0.0041128062 0.21624975
0.067203611 -0.0041972315 0.2161822
0.068685032 -0.0042993212 0.21610054
0.071492061 -0.0041120993 0.21625033
0.07291209 -0.0040672217 0.21628621
0.075040765 -0.0043190038 0.21608479
0.077051967 -0.0042079566 0.21617363
0.079121605 -0.004168449 0.21620524
0.08104407 -0.0042472552 0.21614221
0.082831137 -0.0041987645 0.216181
0.085503086 -0.0041826321 0.2161939
0.087321512 -0.0042703953 0.21612369
0.08892557 -0.0042848876 0.21611211
0.09093187 -0.0041230982 0.21624152
0.092912756 -0.0042434977 0.2161452
0.095114172 -0.004250614 0.21613953
0.097729728 -0.0041906964 0.21618745
0.099313162 -0.0042747487 0.2161202
0.10117442 -0.0042686816 0.21612506
0.10300212 -0.0041614361 0.21621084
0.10465737 -0.0041412348 0.21622701
0.10636251 -0.0041939574 0.21618485
0.10928046 -0.0047769584 0.216968
0.11034673 -0.0057850485 0.21744449
0.11971674 -0.0057666074 0.21730737
0.12070883 -0.004775241 0.21697243
-0.0068218866 -0.0029175901 0.21732478
0.0068108947 -0.0029561454 0.21690583
0.051142514 -0.0028627252 0.21680629
0.053277683 -0.002939651 0.21681702
0.055189218 -0.0031965466 0.21671526
0.057356119 -0.0030840391 0.21675438
0.058840923 -0.0029854665 0.21679404
0.060986474 -0.0031750677 0.21671748
0.06310486 -0.0029227731 0.21682036
0.064775869 -0.0029632987 0.21679869
0.067097262 -0.0030645165 0.21676624
0.069238655 -0.0029184443 0.21681924
0.070852287 -0.0031104928 0.21673891
0.072927758 -0.0030522482 0.2167711
0.074839994 -0.0029641117 0.21680796
0.077014215 -0.0030602005 0.21676858
0.078924514 -0.0030707142 0.21675947
0.080781296 -0.0031877856 0.21671642
0.082934514 -0.0026810102 0.21691011
0.085026473 -0.0030357435 0.21677282
0.087050043 -0.0027674388 0.21687959
0.088981926 -0.0029093488 0.21682729
0.090899833 -0.002906095 0.2168237
0.092924193 -0.0029543675 0.21680485
0.094894476 -0.0033848074 0.21665135
0.097212039 -0.0031442961 0.21673591
0.099082492 -0.0029809456 0.21680175
0.10079053 -0.0028263354 0.21685556
0.10288332 -0.0032702123 0.21668141
0.10472007 -0.0029921546 0.21679033
0.10726801 -0.0028979538 0.21682958
0.10828693 -0.003238145 0.21726026
0.1217383 -0.0031531667 0.21691127
0.12209278 -0.0021910188 0.21666364
-0.0073767742 -0.00078043074 0.21694066
0.0073297387 -0.0010750582 0.21702437
0.050728753 -0.00097741769 0.21709366
0.053011283 -0.00077760528 0.21737589
0.054751918 -0.00086802244 0.21736279
0.057174977 -0.0010309983 0.21733612
0.058816731 -0.0010069287 0.21734099
0.06110236 -0.00096164376 0.21734725
0.063064426 -0.00092717295 0.21735245
0.065104209 -0.0011234888 0.21732154
0.067217723 -0.0011649899 0.21731471
0.069062471 -0.0012751047 0.21729609
0.070902035 -0.0010517489 0.21733369
0.07266672 -0.00092753919 0.21735354
0.074917085 -0.00096020283 0.21734841
0.076923996 -0.0012001012 0.21730998
0.079217084 -0.0012457955 0.21730134
0.081121951 -0.0006928799 0.21739055
0.083023332 -0.00086786633 0.217363
0.084889151 -0.0011207054 0.21732208
0.087550953 -0.0010816134 0.21732913
0.089233376 -0.00095729786 0.21734846
0.090931982 -0.00062259129 0.21740171
0.092917345 -0.0010705548 0.21733093
0.094980918 -0.00124536 0.21730338
0.096799351 -0.0010582721 0.21733183
0.099090785 -0.00097122189 0.21734631
0.10099444 -0.00089800841 0.2173581
0.10306443 -0.0009935007 0.2173429
0.10515246 -0.0010854835 0.21732765
0.10717123 -0.0013630704 0.21736406
0.1223038 -0.0012382704 0.21695603
-0.0073395167 0.0010013795 0.21706206
0.0073143574 0.0011757367 0.21737845
0.05070826 0.001148468 0.21694268
0.052803684 0.0013117738 0.217292
0.054989118 0.001029166 0.21733625
0.056907788 0.00086435874 0.21736352
0.059249427 0.00091186271 0.21735601
0.060996819 0.001068318 0.21733086
0.062686704 0.001215576 0.21730809
0.064955972 0.0012260802 0.21730429
0.066910788 0.0010018226 0.21734099
0.069110572 0.0011424564 0.2173184
0.070977658 0.0010559941 0.21733138
0.073013484 0.0011034277 0.21732497
0.075111009 0.00077192183 0.21737812
0.076968141 0.00073647004 0.21738371
0.078556597 0.0010219507 0.21733864
0.081069417 0.00080813188 0.21737173
0.0831149 0.00080071168 0.21737285
0.08512868 0.0011020526 0.21732599
0.087016717 0.00098795048 0.217344
0.089009613 0.00098046707 0.21734427
0.090746284 0.00091955537 0.2173548
0.092911266 0.0010721805 0.21732935
0.094835572 0.00092712475 0.21735314
0.096871093 0.00093789201 0.21735016
0.098948136 0.00097221433 0.2173465
0.10099586 0.0013172684 0.21729073
0.10282945 0.0012525785 0.21730223
0.10485951 0.00080966868 0.21737213
0.10699111 0.0011217921 0.21737219
0.12236027 0.00088499236 0.21699524
-0.0067242007 0.0031708726 0.21697937
0.0066878097 0.0032629506 0.21691696
0.050911065 0.0029968065 0.21671471
0.05299484 0.003220723 0.21670753
0.054986455 0.0029556823 0.21680979
0.056983884 0.0030495988 0.21677645
0.05872491 0.0031926348 0.21671766
0.060769949 0.0031267689 0.2167331
0.063014731 0.003036459 0.21677031
0.064994819 0.0028910979 0.21683013
0.06676507 0.0031641924 0.21672636
0.068989463 0.0031479015 0.21673153
0.070910737 0.0028982025 0.21683112
0.072737947 0.0029521657 0.21680725
0.075179994 0.0030246698 0.21677762
0.077038608 0.0031509257 0.21672989
0.078730941 0.0033344291 0.21666385
0.081171811 0.0030021418 0.21679395
0.08297471 0.0029372547 0.21681228
0.084906995 0.0029634105 0.2168023
0.08693178 0.0030427447 0.21677887
0.089049846 0.0029594637 0.21680133
0.091146953 0.0031874783 0.21671949
0.09306477 0.002798436 0.21686898
0.09504801 0.0030986487 0.2167584
0.096984014 0.0029569373 0.21680576
0.098744765 0.0032891079 0.21666969
0.10107137 0.0027744516 0.21686788
0.10289332 0.002971445 0.21680525
0.10498405 0.0028027885 0.2168674
0.10705874 0.0029753658 0.21683995
0.10831997 0.0034532023 0.21730107
0.12174712 0.0031228887 0.21694356
0.12203612 0.0023448241 0.21673575
-0.0061903447 0.0041870689 0.21708465
-0.0052875644 0.0052320235 0.21692318
0.0054752561 0.0050462298 0.21701141
0.0061515719 0.0042355349 0.21713632
0.051343367 0.0042321472 0.21615429
0.052746851 0.0042310688 0.21615516
0.055275805 0.004176212 0.21619903
0.056913137 0.0042501646 0.21613987
0.058751967 0.004239493 0.21614842
0.060774427 0.0042626001 0.21612993
0.062910557 0.0042820326 0.21611439
0.065339588 0.004193048 0.21618555
0.06650655 0.0043570558 0.21605435
0.069262043 0.0042140028 0.21616881
0.070713438 0.0041811778 0.21619503
0.072597586 0.004296463 0.21610282
0.074931666 0.0042865463 0.21611075
0.077282235 0.0042402325 0.21614781
0.078725606 0.0041751871 0.21619985
0.08123707 0.0042717806 0.21612258
0.082945019 0.0043038726 0.21609691
0.085239053 0.0040563555 0.21629491
0.086813107 0.0042182016 0.21616545
0.088874303 0.0041895472 0.21618836
0.09041281 0.0043425942 0.21606593
0.092995621 0.00420648 0.21617483
0.095125943 0.0042148465 0.21616812
0.096672036 0.0041801184 0.2161959
0.098895639 0.0042080577 0.21617354
0.10053329 0.0042329677 0.21615362
0.10307365 0.0043010265 0.21609917
0.10527688 0.0042660222 0.21612719
0.1073056 0.0042029554 0.21617763
0.1093006 0.0048111761 0.21704993
0.11039978 0.0058248364 0.21671295
0.11977161 0.0057227272 0.2173045
0.12065703 0.0048331134 0.21710604
-0.0042358995 0.0061512808 0.21720405
-0.0031815229 0.006721627 0.21701024
-0.0010316806 0.0073365951 0.21740872
0.00094314874 0.0073510818 0.21671554
0.0030372411 0.0067757219 0.21712139
0.00428998 0.0061080167 0.21661334
0.1111786 0.0063717095 0.21701658
0.11324696 0.0071891644 0.21694419
0.1147891 0.0074340827 0.21699369
0.11697087 0.0071251169 0.21731496
0.11862714 0.0064850757 0.21633542
-0.0042747692 -0.0061201844 0.2191824
-0.0030877336 -0.0067520663 0.21867868
-0.0010968827 -0.0073264092 0.21893241
0.0010735232 -0.0073304963 0.21900259
0.0029314621 -0.0068183928 0.21906523
0.0042497697 -0.0061401841 0.21880376
0.11132072 -0.0064527644 0.2191108
0.1128847 -0.007083721 0.21910295
0.11488365 -0.0074329497 0.21909276
0.11700594 -0.0071062287 0.21934944
0.11878347 -0.0064262035 0.21902536
-0.0061788028 -0.0042014974 0.21921137
-0.0052555511 -0.005241618 0.2189903
0.0051749344 -0.0053386604 0.21897787
0.0062235454 -0.0041455692 0.21880929
0.10922217 -0.0046928362 0.21895652
0.11030781 -0.0057558534 0.21921067
0.11959257 -0.0058659501 0.21916872
0.12074886 -0.004721541 0.21900468
-0.0067697358 -0.0030261679 0.21902418
0.0067457142 -0.0031186652 0.2190876
0.10790958 -0.0021974423 0.21906169
0.10826374 -0.0031404276 0.21922955
0.12166966 -0.0033183445 0.21885601
0.12209587 -0.0021826455 0.21928367
-0.0073316758 -0.0010583057 0.21880931
0.0073451377 -0.00098079734 0.21916673
0.10769935 -0.001262489 0.2189043
0.12235832 -0.00089695613 0.21913913
-0.007364498 0.00085818273 0.21880597
0.0073380927 0.0010228378 0.21890007
0.10770549 0.0013013823 0.2191145
0.12235975 0.00088824355 0.21882398
-0.0067740702 0.0030504493 0.21894297
0.0066815806 0.0032873529 0.21913283
0.10791966 0.0022247999 0.2194244
0.10828944 0.0032135551 0.21893299
0.12158301 0.0035277992 0.21911399
0.12208867 0.0022021921 0.21905163
-0.006122069 0.0042724139 0.21904749
-0.0053535262 0.0051282877 0.21898136
0.0052970117 0.0052279616 0.21867089
0.0061041713 0.0042947857 0.21873704
0.10936005 0.0048533324 0.21894151
0.11032081 0.0057656062 0.21833463
0.11973925 0.0057485993 0.21898396
0.12079298 0.0046837744 0.21898736
-0.0041945702 0.0061843446 0.21871226
-0.0029707551 0.0068034502 0.21893486
-0.0010358838 0.007334691 0.21907642
0.00094535592 0.0073503531 0.21911006
0.0031341759 0.0067412639 0.21888216
0.0041808733 0.0061953021 0.21891397
0.11152187 0.0065656491 0.21880937
0.11304241 0.007128933 0.2187354
0.11510307 0.0074214335 0.21886748
0.11716268 0.0070750643 0.21924071
0.11896095 0.0063581807 0.21907771
-0.0042507402 -0.0061394083 0.22097592
-0.0031743057 -0.0067271283 0.22106913
-0.00087158941 -0.0073620752 0.22089757
0.0011841669 -0.0073100138 0.22079445
0.002777433 -0.0068767001 0.22067474
0.0041982187 -0.0061814254 0.22140098
0.11151288 -0.0065627121 0.22084855
0.11292416 -0.0071050697 0.22105961
0.11528752 -0.0074086785 0.22102559
0.11722196 -0.0070554246 0.22109224
0.11877264 -0.0064480756 0.22087051
-0.0060981633 -0.0043022963 0.22105622
-0.005155256 -0.0053755376 0.22089285
0.0052113808 -0.0053141527 0.22111925
0.0061891829 -0.0041885213 0.22027908
0.10945949 -0.0049554058 0.22099558
0.11028252 -0.0057368865 0.22129239
0.11997334 -0.0055613276 0.2212806
0.12069523 -0.0047933599 0.22121595
-0.0068226173 -0.0029069947 0.22095557
0.0068618464 -0.0028178429 0.22102062
0.10789199 -0.0021496911 0.22132125
0.10821819 -0.0030350704 0.22060663
0.12156247 -0.0036029015 0.22068538
0.12202879 -0.002364703 0.2213347
-0.0073571941 -0.00089044828 0.22082379
0.007333525 -0.0010524053 0.22106689
0.10763577 -0.00085244514 0.22118911
0.12235542 -0.00091560662 0.22101802
-0.0073698042 0.00082457229 0.22111484
0.0073198131 0.0011378989 0.22110748
0.10765642 0.00098549773 0.22089064
0.12236582 0.00084982213 0.22099459
-0.0068878666 0.0027472225 0.22097942
0.0067925947 0.0029856905 0.22088431
0.10793966 0.00227908 0.22002485
0.1083029 0.003248964 0.22110417
0.12169663 0.003247533 0.22083621
0.12209346 0.0021891564 0.22065201
-0.0061148773 0.004281403 0.22151184
-0.0054070987 0.0051178178 0.22097717
0.0053947098 0.0051172343 0.22086544
0.0062488355 0.0041139568 0.22121739
0.10933809 0.0048344759 0.22122858
0.11046201 0.0058715059 0.22152506
0.11968394 0.005792853 0.22079124
0.1208475 0.0046111546 0.22094317
-0.0041476437 0.0062218853 0.22132356
-0.0027730633 0.0068783448 0.22089422
-0.0011162434 0.0073237508 0.2210732
0.0011550708 0.0073176203 0.22111471
0.003033747 0.0067778616 0.22121048
0.0042295782 0.0061563379 0.22128159
0.11105947 0.0063159452 0.2210111
0.11315869 0.0071517173 0.22082983
0.11512801 0.0074165072 0.22102647
0.11712576 0.0070895636 0.22125208
0.11884122 0.0064007337 0.22104619
-0.0041323151 -0.0062341481 0.22320351
-0.0028075469 -0.0068621263 0.22302973
-0.0010184847 -0.0073391874 0.22292131
0.00095917843 -0.007346435 0.2230901
0.0033165684 -0.0066624256 0.22302434
0.0042403955 -0.0061476841 0.22335982
0.11131351 -0.0064675943 0.22297522
0.11303652 -0.0071521793 0.2229003
0.11527438 -0.0074255643 0.22303356
0.11689443 -0.0071506654 0.22302948
0.11868895 -0.0064734039 0.22299604
-0.0061496301 -0.0042379629 0.2227408
-0.0052612606 -0.0052320049 0.22279739
0.0053070034 -0.0052027246 0.22308922
0.0061305156 -0.0042618569 0.22315422
0.10937066 -0.0048739356 0.22299998
0.11030284 -0.0057521178 0.2225488
0.11971364 -0.0057690819 0.22295721
0.12072117 -0.00475907 0.22318469
-0.0067782467 -0.0030381626 0.22306775
0.0068744584 -0.0027836161 0.22277109
0.10797022 -0.0023620194 0.22371864
0.10826295 -0.003140877 0.22308856
0.12164599 -0.0033843135 0.22328332
0.12200402 -0.0024319666 0.22224562
-0.0073415893 -0.00099861016 0.2233067
0.0073717008 -0.00081256113 0.22303222
0.10768823 -0.0011904259 0.22310244
0.12233444 -0.0010485232 0.22301526
-0.0073293331 0.0010746118 0.22310381
0.007352774 0.00092421169 0.22282884
0.10761773 0.00074557145 0.22280931
0.12228727 0.001347239 0.22289413
-0.0069088507 0.0026902645 0.2230082
0.0067933593 0.0029987779 0.22315489
0.10789773 0.0021652621 0.22290447
0.10830035 0.0032580858 0.22280759
0.12171362 0.0032201624 0.22287199
0.12209425 0.0021870446 0.2227585
-0.0061749537 0.0042063082 0.22357166
-0.0054550241 0.0050648884 0.22308788
0.0051350989 0.0053723473 0.22297916
0.0061743753 0.0042070313 0.22318323
0.1092061 0.0046690069 0.22330408
0.11033379 0.0057753385 0.22235675
0.11981954 0.0056843623 0.22262828
0.12085769 0.0045890817 0.2232888
-0.0042561134 0.0061351098 0.22301908
-0.0029278796 0.0068159695 0.22300489
-0.0010018402 0.0073418152 0.22297822
0.00099252898 0.0073432857 0.22263648
0.0027829807 0.0068746912 0.22287247
0.0042429981 0.0061456016 0.22258346
0.11126024 0.0064119073 0.22299658
0.11315834 0.0071707 0.2228796
0.11505597 0.0074067852 0.22275941
0.11718518 0.0070658242 0.222865
0.11859339 0.006526609 0.22286859
-0.0042806324 -0.0061154948 0.22525623
-0.0027931703 -0.0068709366 0.22516869
-0.00083500298 -0.0073670479 0.22472766
0.0012625426 -0.0073006516 0.22509715
0.0028797186 -0.0068339547 0.22514737
0.0042227297 -0.006161816 0.22464611
0.11129064 -0.0064405566 0.22503908
0.11299628 -0.0071003158 0.22505443
0.11515815 -0.0074192737 0.22502346
0.11709528 -0.0070953337 0.22491471
0.11871295 -0.0064554187 0.22514696
-0.0062383432 -0.0041270712 0.22514318
-0.0051510315 -0.0053815837 0.22500367
0.0053653657 -0.005150388 0.22504304
0.0061600422 -0.0042249477 0.22528899
0.10918504 -0.0046390905 0.22527127
0.11010207 -0.0056015477 0.2246272
0.11965721 -0.0058142291 0.22579037
0.12070322 -0.0047743721 0.22491474
-0.0067176749 -0.0031757241 0.22492811
0.0068310136 -0.0029015362 0.2249599
0.10790344 -0.0021807228 0.22514871
0.10829143 -0.0032139553 0.22503614
0.12162989 -0.0034314636 0.2249902
0.12208473 -0.0022128643 0.2253087
-0.007324955 -0.0011086179 0.22509614
0.007337084 -0.0010317968 0.22496635
0.10764683 -0.00092716806 0.22472705
0.12235007 -0.00094947923 0.22475886
-0.0073472979 0.00096711109 0.22490261
0.0073684677 0.00083303958 0.22514141
0.10764967 0.0009479596 0.22489496
0.12235877 0.000888418 0.22487065
-0.0067585837 0.0030707612 0.22546384
0.0067391666 0.0031296299 0.2251056
0.10786392 0.0020734929 0.22420225
0.10836989 0.0034314133 0.22482595
0.12166727 0.0033245787 0.22549142
0.1221468 0.0020443909 0.22563116
-0.0062210704 0.0041486621 0.22521058
-0.0052840109 0.0052337903 0.22510913
0.0051417928 0.0053553749 0.22498457
0.006042297 0.0043721297 0.22522804
0.10949125 0.0050263247 0.22499952
0.1102495 0.0057121185 0.224906
0.11974438 0.0057445052 0.22501293
0.12075693 0.0047239545 0.22487739
-0.0042647375 0.0061282101 0.22505456
-0.0029149267 0.0068255165 0.22499526
-0.0011332233 0.0073210709 0.22512931
0.00087115285 0.0073624495 0.22517164
0.0029597648 0.0068037421 0.22495489
0.0042606397 0.0061314884 0.22463143
0.11107601 0.0063010277 0.22486857
0.11299236 0.0071026245 0.22490196
0.11507942 0.0074147037 0.22496203
0.11689912 0.0071489047 0.22491193
0.11876822 0.0064386078 0.2248494
-0.0041458276 -0.0062233382 0.22629803
-0.0028536692 -0.0068423022 0.22694393
-0.00083519157 -0.0073672011 0.22708838
0.0010851686 -0.0073271804 0.22723001
0.0029498977 -0.0068094027 0.22682978
0.0042065559 -0.0061747557 0.22740619
0.11126523 -0.0064126067 0.2269592
0.11302312 -0.007124397 0.22711815
0.11509369 -0.0074245217 0.22715433
0.11701244 -0.0071092127 0.227272
0.11877958 -0.0064279037 0.22725844
-0.0061644847 -0.0042193932 0.22645538
-0.0053177504 -0.0052160905 0.22690658
0.0052925958 -0.0052279308 0.22682272
0.0062020654 -0.0041724183 0.22636706
0.10927179 -0.0047536688 0.22701815
0.11037558 -0.005806684 0.22716264
0.11968935 -0.0057885237 0.22723529
0.12052703 -0.0049961694 0.22678971
-0.0067641195 -0.0030825695 0.22706935
0.0067295334 -0.0031690469 0.22698829
0.10790937 -0.0021968514 0.227193
0.10830791 -0.0032553538 0.22707447
0.12167145 -0.0033177519 0.22704595
0.12209152 -0.0021944358 0.22667766
-0.0073379064 -0.0010180265 0.2270693
0.0073487079 -0.00095818547 0.226787
0.10767779 -0.0011259998 0.22706302
0.12232708 -0.0010951634 0.22697234
-0.0073524253 0.00093011919 0.22698726
0.0073323646 0.0010565592 0.22686531
0.10764691 0.00092893111 0.22719091
0.12232095 0.0011287035 0.22707617
-0.0066986382 0.0032452547 0.2268641
0.0066845762 0.0032801027 0.22711658
0.1079877 0.0024094847 0.22709498
0.10821539 0.0030153217 0.22687037
0.12171374 0.0032074198 0.2271814
0.12203284 0.002353736 0.22663745
-0.0061801672 0.0041997912 0.22659835
-0.0050613065 0.0054318993 0.22685248
0.0053488328 0.0051572151 0.22700994
0.0061227982 0.0042715026 0.22713223
0.10936089 0.0048526097 0.22681668
0.11048883 0.0058916202 0.22710779
0.11958547 0.0058716265 0.22710831
0.1209168 0.0045290096 0.22708571
-0.0041832519 0.006193399 0.22720291
-0.0030375759 0.0067757382 0.22707985
-0.0011044021 0.0073242942 0.22707862
0.00088695914 0.0073581529 0.22701785
0.003031953 0.00678082 0.22686851
0.0040813214 0.0062749437 0.22714147
0.11154824 0.0065862704 0.22694494
0.1128582 0.0070820632 0.22691666
0.115031 0.0074060732 0.22695811
0.11665264 0.0072111059 0.22708578
0.11893473 0.0063505177 0.22688341
-0.0042072977 -0.006174162 0.22912854
-0.0030815629 -0.0067532649 0.22911981
-0.0010892982 -0.0073278481 0.22894518
0.00086474768 -0.0073619732 0.22865342
0.0030069468 -0.0067837937 0.22899386
0.0041879946 -0.0061896048 0.22847101
0.11124036 -0.0063919872 0.22911239
0.11293411 -0.0071044797 0.22899134
0.1149232 -0.0074106813 0.22885032
0.11711721 -0.0070825554 0.22923581
0.11852773 -0.0065627382 0.22897406
-0.0061051617 -0.0042935484 0.22858734
-0.0050710589 -0.0054403078 0.2290947
0.0053401021 -0.0051601315 0.22916684
0.0061772447 -0.0042034443 0.22932264
0.10948126 -0.0050115921 0.22892657
0.11039892 -0.0058241859 0.22894362
0.11963876 -0.0058289967 0.22855394
0.12072865 -0.0047482578 0.22905797
-0.0067704879 -0.0030430108 0.22909644
0.0068504396 -0.002835647 0.22874546
0.10789767 -0.0021651001 0.22965369
0.10825584 -0.0031287866 0.22911689
0.12180965 -0.0029480923 0.22882175
0.12207651 -0.0022351835 0.228616
-0.0073512602 -0.00094201998 0.22942165
0.007323314 -0.0011122392 0.22898847
0.10766429 -0.0010364749 0.22894935
0.12234277 -0.00099206483 0.22909755
-0.0073296069 0.0010714928 0.22892186
0.0072653526 0.0014750026 0.22877577
0.10766706 0.0010473488 0.22906251
0.12238134 0.00075143273 0.22859748
-0.0068137962 0.0029279201 0.22901879
0.0068064081 0.0029400527 0.22906646
0.10790431 0.0021831309 0.22900411
0.10828235 0.0031830471 0.22885987
0.1217246 0.0031722256 0.22918181
