# .PCD v0.7 - Point Cloud Data file format
VERSION 0.7
FIELDS x y z
SIZE 4 4 4
TYPE F F F
COUNT 1 1 1
WIDTH 1357
HEIGHT 1
VIEWPOINT 0 0 0 1 0 0 0
POINTS 1357
DATA ascii
0.01547588 0.01939618 0.28000003
0.017097753 0.01880559 0.28000003
0.019676695 0.019522028 0.28000003
0.023689443 0.019393407 0.28000003
0.024989311 0.0189691 0.28000003
0.033350833 0.019357387 0.28000003
0.037020873 0.018771423 0.28000003
0.039320871 0.019475788 0.28000003
0.043993253 0.01948273 0.28000003
0.0446404 0.018634852 0.28000003
0.047381211 0.018565044 0.28000003
0.050083362 0.019731857 0.28000003
0.053209011 0.019847825 0.28000003
0.056902729 0.019044392 0.28000003
0.07 0.019107729 0.28100902
0.070000008 0.018005211 0.28195864
-0.0099013066 0.02094749 0.28084093
-0.0050953021 0.021034218 0.28000003
-0.0031524608 0.020046523 0.28000003
-0.0014150355 0.021763813 0.28000003
0.0033954752 0.021555867 0.28000003
0.0042050844 0.020576201 0.28000003
0.0083982199 0.021574574 0.28000003
0.010533262 0.020973384 0.28000003
0.014434983 0.020306099 0.28000003
0.019803621 0.020917265 0.28000003
0.025022544 0.020078102 0.28000003
0.031023577 0.021440787 0.28000003
0.033304036 0.021118678 0.28000003
0.035089228 0.02109273 0.28000003
0.038032837 0.02121653 0.28000003
0.046630282 0.02184114 0.28000003
0.052151941 0.020119777 0.28000003
0.054648098 0.021899242 0.28000003
0.060607221 0.020724097 0.28000003
0.064539149 0.021103546 0.28000003
0.069999993 0.021149278 0.28104073
-0.010000001 0.023061035 0.28117839
-0.0068513388 0.022663996 0.28000003
-0.0027491418 0.023665797 0.28000003
-0.00076128216 0.023112914 0.28000003
0.0033641672 0.023305077 0.28000003
0.0055762748 0.023159493 0.28000003
0.0074349931 0.022111686 0.28000003
0.009027902 0.023317382 0.28000003
0.010630801 0.023228407 0.28000003
0.024176918 0.022747703 0.28000003
0.030610794 0.023091229 0.28000003
0.03338192 0.022443982 0.28000003
0.036992244 0.022665169 0.28000003
0.038965829 0.023369934 0.28000003
0.041453533 0.023420563 0.28000003
0.044350758 0.023877891 0.28000003
0.047548898 0.023240931 0.28000003
0.048798237 0.02345887 0.28000003
0.051683873 0.023972958 0.28000003
0.061334889 0.023175579 0.28000003
0.07 0.02290774 0.28116333
-0.010000001 0.025014648 0.28086227
-0.0013168745 0.024888081 0.28000003
0.0055828267 0.025451515 0.28000003
0.0076794797 0.02477935 0.28000003
0.011217551 0.025621105 0.28000003
0.014481168 0.025821127 0.28000003
0.031723756 0.025962617 0.28000003
0.03344737 0.025011495 0.28000003
0.03491345 0.024787113 0.28000003
0.037105303 0.025022781 0.28000003
0.040905371 0.02432104 0.28000003
0.044595376 0.024549745 0.28000003
0.047540139 0.025358651 0.28000003
0.051959243 0.024688583 0.28000003
0.053247042 0.024449911 0.28000003
0.064161412 0.025705792 0.28000003
0.07 0.024739865 0.28118843
-0.009970434 0.027138505 0.28085265
-0.0046949568 0.027201239 0.28000003
-0.0026227243 0.026923895 0.28000003
-0.00027087703 0.027333168 0.28000003
0.0061587445 0.026915222 0.28000003
0.033840876 0.026087459 0.28000003
0.035786189 0.027124047 0.28000003
0.039460756 0.027910598 0.28000003
0.04075763 0.027984601 0.28000003
0.043088056 0.026812058 0.28000003
0.045110762 0.027827755 0.28000003
0.047980558 0.027562678 0.28000003
0.054545794 0.027956158 0.28000003
0.061637837 0.027067846 0.28000003
0.064725287 0.027429508 0.28000003
0.06684088 0.026144758 0.28000003
0.070000015 0.026753476 0.28079054
0.070000008 0.026869817 0.28176844
-0.0092188697 0.029525118 0.28080148
-0.0071696467 0.029739138 0.28055054
-0.0051192828 0.030000001 0.28131443
-0.0029111819 0.030000001 0.28104192
-0.00073066453 0.029836722 0.28066838
0.0010908652 0.029999999 0.28107712
0.0027587349 0.029999999 0.28099421
0.0051532402 0.029999999 0.28097835
0.00688239 0.029888451 0.28108349
0.0090164645 0.029999999 0.28075153
0.010833812 0.029999999 0.2812317
0.013048647 0.029999997 0.28099543
0.014903546 0.030000001 0.28058815
0.016826887 0.029999999 0.28113741
0.019353166 0.029889176 0.2809343
0.020861981 0.029784191 0.28127655
0.023064781 0.029871313 0.28086263
0.024873326 0.0299128 0.28067702
0.027227869 0.0299323 0.28085834
0.029032022 0.030000001 0.28089446
0.030765926 0.029960843 0.28085455
0.032854274 0.029999999 0.28079188
0.034961786 0.029999999 0.28115329
0.037223943 0.029876947 0.28098404
0.038693987 0.030000001 0.2814998
0.041096281 0.029999999 0.2807892
0.042954285 0.029902786 0.28072879
0.044947304 0.029999999 0.281111
0.046895575 0.029999999 0.28116554
0.049101319 0.029879628 0.28078791
0.051275756 0.029999999 0.28099814
0.053078856 0.029999996 0.28095675
0.055176985 0.029999999 0.28097191
0.057028696 0.029920364 0.28072232
0.059040558 0.029999999 0.28119993
0.061028223 0.029999999 0.28059474
0.063013896 0.02988808 0.28100994
0.065201975 0.029924205 0.28109831
0.067041248 0.029923266 0.28086978
0.069443323 0.029402083 0.28086215
0.070000008 0.029897925 0.28114524
-0.0076850476 0.030000001 0.28049278
-0.0042546354 0.030000001 0.28019473
-0.002678799 0.030000001 0.2811847
0.00083226571 0.030000001 0.28061309
0.0027130842 0.030000001 0.28108153
0.0047443183 0.030000001 0.28053468
0.0067551746 0.030000001 0.28101903
0.0091889985 0.030000001 0.28096616
0.010778836 0.030000001 0.28117085
0.013426675 0.030000001 0.28084049
0.014250729 0.030000001 0.28139013
0.016982455 0.030000001 0.28030765
0.019061107 0.030000001 0.2807731
0.020373151 0.030000001 0.28114581
0.022634912 0.030000001 0.28143933
0.024913212 0.030000001 0.2813566
0.026896799 0.030000001 0.28128165
0.029085649 0.030000001 0.28074351
0.030894646 0.030000001 0.28085369
0.033451773 0.030000001 0.28046554
0.035094578 0.030000001 0.28091398
0.036687147 0.030000001 0.28119946
0.039047778 0.030000001 0.28148353
0.041524496 0.030000001 0.28075743
0.043482915 0.030000001 0.28133368
0.045007706 0.030000001 0.2806575
0.04632435 0.030000001 0.28132239
0.049091794 0.030000001 0.2810519
0.05014322 0.030000001 0.28152603
0.052616969 0.030000001 0.28135696
0.054984514 0.030000001 0.28078637
0.056810342 0.030000001 0.28184071
0.063300796 0.030000001 0.2814458
0.064152963 0.030000001 0.28195748
0.067347392 0.030000001 0.28163624
-0.0093999254 -0.029649006 0.28296486
-0.0068382965 -0.030000001 0.28298101
-0.0052840873 -0.030000003 0.2826694
-0.0033199813 -0.030000001 0.28285784
-0.0008868911 -0.030000001 0.28293186
0.00083435938 -0.030000003 0.28311932
0.0032198697 -0.029999999 0.2830312
0.0049285064 -0.029999996 0.28299537
0.0068912436 -0.029999997 0.28301311
0.0090365838 -0.029999999 0.28305078
0.010880788 -0.029999997 0.28305787
0.012903218 -0.030000001 0.28306618
0.015014646 -0.030000003 0.28308859
0.017167611 -0.030000001 0.28265232
0.019082271 -0.030000001 0.2828908
0.021117706 -0.02999999 0.2829237
0.022992188 -0.029999999 0.28335533
0.025162427 -0.029999992 0.28274009
0.026765859 -0.029999999 0.28299221
0.029275527 -0.030000001 0.28290239
0.0311021 -0.029999997 0.28299937
0.033169448 -0.030000001 0.28296027
0.034999683 -0.030000003 0.28310186
0.036890797 -0.029999997 0.28317717
0.038801759 -0.030000001 0.28330064
0.040973853 -0.030000001 0.28312093
0.042827427 -0.029999997 0.2832045
0.044932429 -0.030000001 0.28303298
0.04704576 -0.030000003 0.28276074
0.048993517 -0.030000003 0.28315926
0.050923202 -0.029999997 0.28313732
0.052999903 -0.029999997 0.28295729
0.054472007 -0.030000003 0.2832109
0.057019226 -0.029999999 0.28295749
0.058872495 -0.030000001 0.28330785
0.060875725 -0.029999999 0.28284201
0.06316781 -0.029999996 0.28292656
0.065223224 -0.030000003 0.28321081
0.066993773 -0.029999999 0.28296298
0.06940373 -0.029453427 0.28300196
-0.010000002 -0.026833083 0.28303933
0.07 -0.026568078 0.28315976
-0.010000001 -0.024954496 0.2828674
0.07 -0.024879478 0.2830185
-0.0099999998 -0.02288592 0.28301087
0.07 -0.023138456 0.28314024
0.070000008 -0.023017503 0.28283876
-0.0099999998 -0.021145549 0.28284246
0.070000008 -0.020901134 0.28284663
0.070000008 -0.020835517 0.28284967
-0.0099999988 -0.019119771 0.28312606
0.070000008 -0.01882921 0.28284049
0.070000008 -0.018921979 0.28296894
-0.0099999998 -0.017033599 0.28257579
0.07 -0.017040595 0.28304684
0.070000008 -0.017315142 0.28354347
-0.0099999988 -0.014971047 0.28289893
0.07 -0.014951229 0.28296974
0.070000008 -0.014856005 0.2830621
-0.0099999988 -0.012970864 0.28326726
0.070000015 -0.013182055 0.28292736
-0.0099999988 -0.011257303 0.28307787
0.07 -0.011213735 0.28311116
0.070000008 -0.01048529 0.2827968
-0.0099999988 -0.0088296169 0.28294012
0.070000008 -0.0091137569 0.28294748
0.070000008 -0.0082913125 0.2827459
-0.0090685096 -0.0075479904 0.28312576
-0.0070267846 -0.0075000008 0.2829774
-0.0049542431 -0.0073322989 0.2828396
-0.002938285 -0.007169893 0.28299627
-0.00094848499 -0.0074204504 0.28300595
0.070000015 -0.0068212599 0.28302103
0.070000008 -0.0066045807 0.28276849
-0.0061185141 -0.0042768572 0.2831125
-0.0052223494 -0.0052902661 0.28298491
0.07 -0.0048667779 0.28294048
-0.0068262699 -0.0029022521 0.28282446
0.07 -0.0029017674 0.28300536
0.070000008 -0.0023906846 0.28299987
-0.0073219514 -0.0011228626 0.28265506
0.07 -0.0013186273 0.28299206
-0.0073270155 0.0010917274 0.28283051
0.069999993 0.001075066 0.28311935
0.070000008 0.00060738716 0.28293675
-0.0067803431 0.0030226933 0.28282735
0.069999993 0.0027890306 0.28297219
-0.0061939275 0.0041825916 0.28332567
-0.0052698744 0.0052499245 0.28286842
0.07 0.0049981684 0.28285515
0.070000008 0.0052238638 0.28281814
-0.0093439892 0.0075350245 0.28292909
-0.007079232 0.0074999998 0.28306338
-0.0045952532 0.0068713329 0.28317538
-0.002971903 0.0071189003 0.28296387
-0.00093053246 0.0074344538 0.28312415
0.07 0.0070253499 0.28304368
0.070000008 0.0073288674 0.28305754
-0.010000001 0.0091905072 0.28298891
0.070000015 0.0089871632 0.28282782
0.070000008 0.0092369588 0.28300071
-0.0099999988 0.011100486 0.28282338
0.07 0.010963407 0.28304735
0.070000008 0.011493762 0.28352854
-0.0099999998 0.012856944 0.28297794
0.07 0.012902298 0.28309679
0.070000008 0.013834445 0.28220356
-0.0099999988 0.014895714 0.28335199
0.07 0.015132117 0.28276843
0.070000008 0.015293546 0.28205395
-0.0099999998 0.01711444 0.28307635
0.069999993 0.017029379 0.28291705
-0.010000001 0.019275561 0.28282019
0.069999993 0.018911209 0.28309917
0.070000008 0.018875081 0.28333145
-0.0099999988 0.020935521 0.28305578
0.070000015 0.021156698 0.28285921
-0.0099999988 0.022855615 0.28276715
0.070000023 0.022911336 0.28323123
0.070000008 0.023166744 0.28296742
-0.0099999998 0.024977338 0.28323579
0.07 0.024830176 0.28305215
0.070000008 0.024342962 0.2838285
-0.0099999988 0.026834715 0.28295577
0.07 0.02692212 0.28305611
0.070000008 0.026321527 0.28216827
-0.0095920293 0.029313123 0.28308436
-0.0069855065 0.030000001 0.2829003
-0.0047575068 0.029999999 0.28311655
-0.002938414 0.029999999 0.28287321
-0.00095345004 0.029999999 0.2832903
0.0011818164 0.029999999 0.28299132
0.0029146157 0.029999999 0.28281027
0.0051844055 0.029999999 0.28291619
0.0074900417 0.029999999 0.28282359
0.0091414107 0.029999997 0.28284419
0.011037881 0.029999999 0.28291065
0.012883055 0.029999999 0.28290018
0.014791771 0.029999999 0.28336477
0.016742079 0.029999997 0.28277367
0.018803589 0.029999997 0.28292385
0.021422861 0.029999999 0.28319669
0.023152128 0.029999999 0.28304029
0.02513117 0.029999999 0.2826308
0.026715133 0.030000001 0.28323969
0.028971992 0.029999999 0.28310221
0.031126147 0.029999999 0.28299776
0.033206463 0.029999997 0.28295913
0.035344161 0.029999999 0.282904
0.036624447 0.029999997 0.28295487
0.038838796 0.029999999 0.28281817
0.041112248 0.030000001 0.28271934
0.043010242 0.029999999 0.28293893
0.045464449 0.030000001 0.2830523
0.047366951 0.029999999 0.28288758
0.049367424 0.029999999 0.28296214
0.050922025 0.029999999 0.28328049
0.053018827 0.029999999 0.28322005
0.054687854 0.029999999 0.28308699
0.056963649 0.029999999 0.28345945
0.058782447 0.029999999 0.28284615
0.060894594 0.030000001 0.28307986
0.062777624 0.029999999 0.28284678
0.064903222 0.029999999 0.28255937
0.06658297 0.029999999 0.28296357
0.06953226 0.029662965 0.28305295
0.070000008 0.029398296 0.28326601
-0.0083736274 0.030000001 0.28266066
-0.0060127443 0.030000001 0.28333795
-0.0048643537 0.030000001 0.28288433
-0.0028096822 0.030000003 0.28286919
-0.00055500958 0.030000001 0.28315479
0.00099874928 0.030000001 0.28302249
0.0038376276 0.030000001 0.28263724
0.0047557759 0.030000001 0.28305274
0.0073583713 0.030000001 0.28379959
0.009631224 0.030000001 0.28347579
0.010728921 0.030000001 0.2831068
0.012741907 0.030000001 0.28278595
0.015096421 0.030000001 0.28263214
0.01699646 0.030000001 0.28285065
0.019011002 0.030000001 0.28296447
0.021337282 0.030000001 0.2831732
0.022796942 0.030000001 0.2831943
0.025137255 0.030000003 0.28305602
0.026654994 0.030000001 0.28271425
0.029093828 0.030000001 0.2831614
0.031172879 0.030000003 0.28255099
0.032928638 0.030000003 0.28276578
0.034887861 0.030000001 0.28303194
0.037029169 0.030000001 0.28269106
0.039030716 0.030000001 0.2832115
0.041435983 0.030000001 0.28301811
0.04285394 0.030000001 0.28262445
0.045458894 0.030000001 0.28297064
0.047109876 0.030000001 0.28301796
0.04878604 0.030000001 0.28298447
0.051234245 0.030000001 0.28317869
0.053378306 0.030000001 0.28250894
0.054942835 0.030000001 0.2835778
0.056925971 0.030000001 0.28318986
0.059399009 0.030000001 0.28301716
0.060774103 0.030000003 0.28291306
0.062912501 0.030000001 0.28298017
0.06497103 0.030000001 0.28275132
0.066419579 0.030000001 0.28314924
0.068928555 0.030000001 0.28296399
-0.0096742576 -0.029442834 0.2851702
-0.0072150128 -0.030000001 0.28503036
-0.0051630642 -0.029999997 0.2850709
-0.0031428796 -0.029999999 0.28512374
-0.001164286 -0.030000001 0.28489473
0.00098741951 -0.030000003 0.2850605
0.0028241386 -0.030000003 0.28493226
0.0051187188 -0.030000003 0.28468242
0.0069292416 -0.029999999 0.2852388
0.0086831087 -0.029999994 0.28486109
0.011202103 -0.029999997 0.28475288
0.013444955 -0.029999997 0.28511858
0.014854835 -0.030000001 0.2851207
0.016733218 -0.029999992 0.28503761
0.019022761 -0.030000003 0.28488252
0.020960175 -0.029999999 0.28535938
0.023315622 -0.029999999 0.28484386
0.02492399 -0.029999997 0.28515571
0.026917059 -0.030000001 0.28492048
0.028901685 -0.029999996 0.28489941
0.03091215 -0.029999999 0.28517088
0.032816127 -0.029999997 0.28504708
0.035401206 -0.029999999 0.28468609
0.036792532 -0.029999999 0.2851344
0.03904891 -0.030000003 0.28514332
0.04104311 -0.030000001 0.28536832
0.043006107 -0.030000001 0.28485149
0.044790585 -0.030000001 0.28502229
0.046966083 -0.029999994 0.28483659
0.049034979 -0.029999997 0.28511786
0.050981719 -0.030000001 0.2850855
0.053034373 -0.030000001 0.28479505
0.055073034 -0.030000001 0.28518122
0.056910574 -0.030000001 0.28550932
0.058982708 -0.029999999 0.28490156
0.060876116 -0.029999999 0.28488728
0.062649287 -0.030000001 0.28522655
0.065055519 -0.029999994 0.28494981
0.067147695 -0.030000001 0.28486097
0.069441371 -0.029461473 0.28482223
0.070000008 -0.029440977 0.28585291
-0.0099999988 -0.027131779 0.2852467
0.07 -0.0271552 0.28505048
0.070000008 -0.027958266 0.28494179
-0.0099999988 -0.024983278 0.28516465
0.07 -0.024904041 0.28484222
-0.0099999988 -0.023438662 0.28483239
0.069999993 -0.023251867 0.28476164
-0.0099999998 -0.021072574 0.28508627
0.07 -0.02091291 0.28501061
-0.0099999998 -0.018853324 0.28488657
0.07 -0.018851895 0.28471518
0.070000008 -0.018759694 0.28576255
-0.0099999998 -0.017008094 0.28508493
0.07 -0.01696815 0.28511584
-0.0099999998 -0.015243185 0.28490326
0.07 -0.014851975 0.28503123
-0.0099999988 -0.013303674 0.28500888
0.070000008 -0.01319525 0.2850908
0.070000008 -0.0130594 0.28474644
-0.0099999998 -0.011005482 0.28494182
0.069999993 -0.010981224 0.28517154
0.070000008 -0.01096145 0.28486347
-0.010000001 -0.0090697696 0.28506753
0.069999993 -0.0087817172 0.28476843
-0.0094206026 -0.0075703901 0.28495672
-0.0069693443 -0.0074999998 0.28508714
-0.0046497337 -0.0069750538 0.28492028
-0.0028604202 -0.0070447549 0.2850568
-0.0010186522 -0.0074260854 0.28496405
0.07 -0.0071497676 0.28509828
-0.0061548352 -0.0042314557 0.28514263
-0.005391113 -0.0051106452 0.28499946
0.070000015 -0.0050735474 0.28493029
0.070000008 -0.005463711 0.28551731
-0.0068485863 -0.0028476946 0.28497463
0.069999993 -0.0029024861 0.28453705
0.070000008 -0.0027859767 0.28562498
-0.0073161512 -0.0011455578 0.28508216
0.07 -0.0010799053 0.28509957
0.070000008 -0.0014844846 0.28551543
-0.0073655574 0.00085068069 0.28501576
0.07 0.0012302111 0.28513461
-0.0067882654 0.003001218 0.28494576
0.07 0.003118505 0.28525388
0.070000008 0.0035579263 0.28451398
-0.0060827411 0.0043215733 0.28498948
-0.0053915363 0.005130779 0.28493661
0.07 0.0049416106 0.28534377
-0.0090908743 0.0075486745 0.28478989
-0.0069549386 0.0075000008 0.28517094
-0.0047962624 0.007056958 0.28509495
-0.002931725 0.00710171 0.28509015
-0.0010484308 0.0073818895 0.28517976
0.07 0.0072701592 0.28494519
-0.010000001 0.0090096919 0.28502449
0.07 0.0087924562 0.28491688
0.070000008 0.0086752586 0.2850869
-0.0099999988 0.010838492 0.28525028
0.07 0.011227589 0.28502384
-0.010000001 0.013261255 0.28496784
0.07 0.012938501 0.2850194
-0.010000001 0.015024368 0.28459609
0.070000008 0.01507248 0.28504223
-0.010000001 0.017101027 0.28497443
0.070000008 0.016990136 0.28503588
-0.0099999998 0.019058064 0.28506875
0.070000008 0.019183757 0.28506169
-0.0099999988 0.021210397 0.2848607
0.07 0.021104328 0.28490371
-0.0099999988 0.022973051 0.28496277
0.07 0.022872996 0.28529683
-0.0099999998 0.025314232 0.28496543
0.07 0.025172615 0.28484401
-0.0099999998 0.027166964 0.28507063
0.07 0.027196012 0.28473622
-0.0095829871 0.029344121 0.28505412
-0.0070947157 0.029999999 0.28498191
-0.0048859911 0.029999999 0.28515944
-0.0028696114 0.029999999 0.2848939
-0.0012281474 0.029999999 0.28522825
0.00053570402 0.029999999 0.28475654
0.0026326505 0.029999999 0.28498909
0.0049520968 0.030000001 0.28502876
0.0071204631 0.030000001 0.28482389
0.008916025 0.029999999 0.28486219
0.010877902 0.029999999 0.2849139
0.013080555 0.029999999 0.28500119
0.014883826 0.030000001 0.28485262
0.016907506 0.029999999 0.28504157
0.018995652 0.029999999 0.28495088
0.020922152 0.029999999 0.28503129
0.022946741 0.030000001 0.28530061
0.024942189 0.029999999 0.28485644
0.027158776 0.029999999 0.28511846
0.028911946 0.030000001 0.28488666
0.03110134 0.030000001 0.28496176
0.032578658 0.029999999 0.28518641
0.034960214 0.029999999 0.28489146
0.03700871 0.029999999 0.28523073
0.038778253 0.029999997 0.28489283
0.04109164 0.029999999 0.28492084
0.042987566 0.029999999 0.28482631
0.045147251 0.029999999 0.28478256
0.046603095 0.029999999 0.28490144
0.049329158 0.030000001 0.28496855
0.051312625 0.029999997 0.28515187
0.052898947 0.029999997 0.28536245
0.055168185 0.029999999 0.28514159
0.05701137 0.029999999 0.28499609
0.059093948 0.029999999 0.28519619
0.061135665 0.029999997 0.28519934
0.062749125 0.029999999 0.28452134
0.065298103 0.029999999 0.2847676
0.06663432 0.030000001 0.28479019
0.069547951 0.029416922 0.2850033
0.070000008 0.02903882 0.28545877
-0.0088439258 0.030000001 0.2852644
-0.0071551627 0.030000001 0.28511566
-0.0051823296 0.030000001 0.2851969
-0.0031791355 0.030000001 0.28523979
-0.00074463681 0.030000001 0.2850852
0.0011521346 0.030000001 0.28460976
0.0031043664 0.030000001 0.28475615
0.0051652379 0.030000001 0.28518751
0.006104012 0.030000001 0.28569517
0.0093312077 0.030000001 0.28427386
0.010860619 0.030000001 0.28506467
0.013090064 0.030000003 0.28507024
0.014916102 0.030000001 0.28531161
0.017058682 0.030000001 0.28549382
0.018744804 0.030000001 0.28542164
0.021264326 0.030000001 0.28503126
0.023088966 0.030000001 0.28569615
0.025036497 0.030000001 0.28516239
0.027048355 0.030000001 0.28464314
0.029235691 0.030000001 0.28494626
0.030467654 0.030000001 0.28423893
0.033012934 0.030000001 0.28490373
0.035123602 0.030000001 0.28531206
0.037583362 0.030000001 0.28479153
0.038772441 0.030000001 0.28520396
0.041290991 0.030000001 0.28465486
0.043455489 0.030000001 0.28527737
0.045275707 0.030000001 0.28447145
0.046927284 0.030000001 0.28490895
0.049108185 0.030000001 0.28498074
0.050908983 0.030000001 0.28539622
0.053001236 0.030000001 0.28482595
0.055366259 0.030000001 0.28515044
0.057034858 0.030000001 0.28498089
0.059239455 0.030000001 0.28546548
0.061072946 0.030000001 0.28443712
0.062816843 0.030000003 0.2852903
0.064781204 0.030000001 0.28530276
0.066685081 0.030000001 0.28522933
0.068740524 0.030000001 0.28468356
-0.0095141744 -0.029173872 0.28698999
-0.0071085729 -0.030000003 0.28729433
-0.0046736239 -0.030000003 0.28680551
-0.0028797307 -0.030000003 0.28682628
-0.0013741055 -0.029999999 0.28698164
0.0012998738 -0.029999996 0.28683919
0.0028901144 -0.030000001 0.28712073
0.0052781417 -0.030000003 0.28673503
0.0069417767 -0.030000001 0.28701797
0.0090510221 -0.030000001 0.28700542
0.011078158 -0.029999999 0.28683016
0.012846386 -0.030000003 0.2869198
0.015092004 -0.030000003 0.28690901
0.0169756 -0.029999999 0.28690356
0.018953722 -0.029999999 0.28683466
0.020982726 -0.030000001 0.28703865
0.02287258 -0.029999999 0.28691193
0.024829755 -0.030000001 0.28703207
0.027401898 -0.029999999 0.28689566
0.02887639 -0.030000001 0.28710625
0.0311746 -0.029999999 0.28689307
0.032897308 -0.029999997 0.28702182
0.034839358 -0.029999994 0.28698042
0.037097074 -0.030000001 0.28700143
0.038941711 -0.030000001 0.28719881
0.040998727 -0.030000001 0.28707576
0.043139815 -0.029999997 0.2870906
0.045088362 -0.030000001 0.28692636
0.04663413 -0.029999997 0.28692612
0.048805218 -0.029999997 0.28706238
0.051384147 -0.030000001 0.28678134
0.052969214 -0.029999999 0.28709924
0.055212069 -0.029999997 0.28708929
0.056952346 -0.030000003 0.2869302
0.059134416 -0.030000003 0.28707135
0.060994234 -0.029999999 0.28699628
0.063071206 -0.029999994 0.28705141
0.065266624 -0.030000001 0.28707317
0.067208461 -0.029999996 0.28680864
0.069302514 -0.029629754 0.28707737
0.070000008 -0.028250378 0.28677687
-0.0099999998 -0.026872836 0.28722072
0.07 -0.026762882 0.28714305
-0.0099999998 -0.025289174 0.28691787
0.07 -0.02497145 0.28708345
-0.0099999998 -0.022931255 0.28683439
0.07 -0.02296811 0.28706464
-0.0099999988 -0.021024024 0.28730881
0.07 -0.020835537 0.28669906
-0.0099999998 -0.019259401 0.28703442
0.070000015 -0.019076273 0.28702861
-0.0099999988 -0.016694752 0.28719378
0.07 -0.017080421 0.28676391
-0.010000002 -0.014909253 0.28676936
0.07 -0.015315342 0.28690243
-0.0099999998 -0.012871351 0.28726345
0.07 -0.012816336 0.28695431
-0.0099999998 -0.010988015 0.2870824
0.07 -0.011078063 0.2870957
-0.010000001 -0.0087466901 0.2867372
0.07 -0.0088734766 0.2867704
-0.0093582096 -0.0075878464 0.28690925
-0.0068261009 -0.0075000008 0.28717393
-0.004856437 -0.0073567941 0.28714111
-0.003083234 -0.0071699177 0.28712124
-0.0007537831 -0.007448189 0.28687295
0.070000008 -0.0069706622 0.28682297
0.070000008 -0.006679215 0.28717697
-0.0062101888 -0.0041622645 0.28734148
-0.0054140911 -0.0050846152 0.2869485
0.070000008 -0.0052055805 0.28700072
0.070000008 -0.0055146362 0.28732979
-0.0067770989 -0.0030342357 0.28717977
0.070000015 -0.0029700405 0.28703555
0.070000008 -0.002528646 0.28624716
-0.0073526939 -0.00092396652 0.28733593
0.069999993 -0.00088999764 0.28754002
0.070000008 -0.0014165037 0.28753871
-0.0073287403 0.0010838084 0.28697488
0.07 0.0010530074 0.28718191
0.070000008 0.0012898594 0.28679809
-0.0068237497 0.0028987112 0.28698236
0.070000015 0.0029911613 0.28674552
0.070000008 0.0034714006 0.28618571
-0.0061991937 0.0041760094 0.28734332
-0.0053062518 0.0052078227 0.2868571
0.069999993 0.0052346871 0.28684175
0.070000008 0.0054816417 0.28651235
-0.0093065742 0.0075732814 0.28710148
-0.0068217036 0.0074999998 0.28674504
-0.004614138 0.0072459229 0.28708544
-0.0028815253 0.0072399261 0.28702068
-0.0011044035 0.0073936996 0.28691509
0.07 0.0071041929 0.28696853
-0.0099999988 0.0090118097 0.28728035
0.07 0.009070619 0.28722411
0.070000008 0.009550089 0.28666264
-0.010000001 0.010983166 0.28696585
0.069999993 0.011128606 0.28723881
0.070000008 0.010043813 0.28619027
-0.0099999988 0.01313071 0.28682515
0.070000015 0.012848196 0.28673786
-0.0099999998 0.015020918 0.28693458
0.07 0.014881438 0.28676352
0.070000008 0.015039131 0.28636935
-0.0099999988 0.016863637 0.2870684
0.07 0.016794425 0.28727025
0.070000008 0.017662741 0.28768843
-0.0099999988 0.019179324 0.28719664
0.069999993 0.019108038 0.28701258
-0.0099999998 0.021421904 0.28669196
0.07 0.020957001 0.28706366
0.070000008 0.021705221 0.28754196
-0.0099999988 0.023214146 0.28690633
0.07 0.022809457 0.28715354
0.070000008 0.023989767 0.28793335
-0.0099999998 0.024802567 0.2870394
0.070000023 0.025024232 0.28692698
-0.0099999998 0.026686143 0.2867302
0.069999993 0.026771855 0.28710008
0.070000008 0.026683237 0.28714639
-0.0094541004 0.029475963 0.2871938
-0.0070852512 0.029999999 0.28685784
-0.004826277 0.030000001 0.28684032
-0.0030726907 0.029999999 0.28705007
-0.00065546046 0.029999999 0.28737518
0.001352208 0.029999999 0.28652844
0.0030339076 0.030000001 0.2868267
0.0050944802 0.029999999 0.28705877
0.0070189233 0.029999999 0.28696677
0.0091384333 0.029999997 0.28721696
0.011150146 0.029999999 0.28710264
0.013062562 0.029999999 0.28678966
0.015075524 0.029999999 0.28705683
0.017024759 0.029999999 0.28677657
0.019087289 0.029999999 0.28693119
0.020611804 0.029999999 0.28701863
0.023039434 0.030000001 0.28655025
0.025010156 0.029999997 0.28709057
0.026917815 0.029999999 0.28719375
0.02914463 0.029999999 0.28694192
0.030859208 0.029999999 0.2869176
0.033245273 0.029999999 0.28712097
0.035197388 0.029999999 0.28677043
0.036942959 0.030000001 0.28720233
0.039309386 0.029999999 0.28714442
0.040925708 0.029999999 0.28692597
0.042828932 0.029999997 0.28660566
0.045212194 0.029999999 0.28706458
0.04737705 0.029999999 0.28707853
0.049020898 0.030000001 0.28702468
0.05067597 0.029999999 0.28734845
0.052960761 0.030000001 0.28706941
0.055282075 0.029999997 0.28691298
0.056962699 0.030000001 0.28681269
0.058783419 0.030000001 0.28709906
0.060857467 0.030000001 0.28667983
0.063120365 0.029999999 0.28707895
0.064442664 0.029999999 0.28657323
0.066945665 0.030000001 0.28714094
0.069664583 0.029441511 0.28705329
0.070000008 0.029587753 0.28710425
-0.0091731846 0.030000003 0.28712702
-0.0078498647 0.030000001 0.28720856
-0.0058212127 0.030000001 0.28727257
-0.003088457 0.030000001 0.28682956
-0.00099724357 0.030000001 0.28698272
0.00060607388 0.030000001 0.28686666
0.0033582461 0.030000003 0.28688592
0.0050944351 0.030000001 0.287377
0.0072016851 0.030000001 0.28660721
0.0091061126 0.030000001 0.28720808
0.010895632 0.030000001 0.28721282
0.013166256 0.030000001 0.28670254
0.014921233 0.030000001 0.28662533
0.01794916 0.030000001 0.28640229
0.019407699 0.030000001 0.28727332
0.02080711 0.030000001 0.2866213
0.023114067 0.030000001 0.28649235
0.025337031 0.030000001 0.28677839
0.02718891 0.030000001 0.28723601
0.0293651 0.030000001 0.28691834
0.031225838 0.030000001 0.28730929
0.033273995 0.030000001 0.28686875
0.035350591 0.030000001 0.28671688
0.036802944 0.030000001 0.28715307
0.039017141 0.030000001 0.28662929
0.04061874 0.030000001 0.28683096
0.042875528 0.030000001 0.28681123
0.044925917 0.030000001 0.28737909
0.047069989 0.030000001 0.2872225
0.049155913 0.030000001 0.28657126
0.051198445 0.030000001 0.28776532
0.0528467 0.030000001 0.28754303
0.055395722 0.030000001 0.28681287
0.056598026 0.030000001 0.28621978
0.05868236 0.030000001 0.28702447
0.061018106 0.030000001 0.28700858
0.062812939 0.030000001 0.28662321
0.065431193 0.030000001 0.28707677
0.067422435 0.030000001 0.28702289
0.068990082 0.030000001 0.28715879
-0.0094423909 -0.029428983 0.2890631
-0.0069067399 -0.030000001 0.28912401
-0.0051477067 -0.030000001 0.28912139
-0.0031548829 -0.030000003 0.28890303
-0.0011153069 -0.029999999 0.28879893
0.0010180781 -0.030000003 0.28889558
0.002920713 -0.030000001 0.28861034
0.0050672367 -0.030000001 0.28899968
0.0068950928 -0.029999996 0.28913617
0.0092356028 -0.029999999 0.28879237
0.011209726 -0.029999999 0.28914252
0.012901489 -0.029999999 0.28907913
0.014978811 -0.030000001 0.28916147
0.016937433 -0.030000001 0.28919876
0.019108454 -0.030000003 0.28876764
0.020940093 -0.029999999 0.28882074
0.022959011 -0.030000001 0.28909656
0.025083935 -0.029999999 0.2891416
0.026757838 -0.029999999 0.2888653
0.029079624 -0.030000003 0.28895125
0.031097654 -0.029999997 0.28915185
0.03332077 -0.029999994 0.28905922
0.03484736 -0.030000001 0.28885421
0.036997516 -0.029999999 0.2890248
0.039010249 -0.029999992 0.28910494
0.041262861 -0.030000003 0.28882033
0.043219242 -0.030000001 0.28905693
0.04509614 -0.030000001 0.28893977
0.046987236 -0.030000001 0.28900096
0.048886262 -0.029999999 0.28898072
0.051001862 -0.029999999 0.28888899
0.052856587 -0.030000001 0.28891313
0.055033315 -0.030000001 0.2889947
0.05716835 -0.030000001 0.28896284
0.058863606 -0.030000001 0.28901526
0.060782336 -0.030000003 0.28898206
0.063103847 -0.030000001 0.28889534
0.064880006 -0.030000003 0.28888097
0.067071393 -0.029999997 0.28925902
0.06920328 -0.029654214 0.28902268
0.070000008 -0.028458729 0.28805202
-0.0099999998 -0.027152568 0.28884307
0.069999993 -0.026995149 0.28915274
-0.0099999988 -0.02495179 0.28914016
0.07 -0.02485783 0.28902745
-0.0099999998 -0.022750203 0.28913665
0.070000008 -0.023051899 0.28884256
-0.0099999998 -0.020787006 0.28878152
0.07 -0.020816602 0.28849468
0.070000008 -0.020156031 0.28817579
-0.0099999988 -0.019241596 0.2888414
0.07 -0.019069111 0.28923598
0.070000008 -0.019069476 0.28977889
-0.0099999998 -0.017129179 0.28922167
0.07 -0.017170111 0.28905353
-0.0099999998 -0.015044091 0.28932029
0.07 -0.015223294 0.2889325
0.070000008 -0.015563847 0.28944692
-0.0099999988 -0.012700508 0.28917834
0.069999993 -0.013135052 0.28901237
0.070000008 -0.012684035 0.28950214
-0.010000002 -0.0109028 0.28905314
0.07 -0.0111408 0.28911027
-0.0099999998 -0.0087670237 0.2887587
0.070000008 -0.0089917183 0.2892454
-0.009572845 -0.0075337058 0.28887868
-0.0070410711 -0.0075000008 0.28888941
-0.0047007496 -0.007148732 0.28936383
-0.0029131784 -0.0070774276 0.28914246
-0.001060752 -0.0074211666 0.28910562
0.07 -0.0069391187 0.28905779
0.070000008 -0.0078834482 0.28840646
-0.006213875 -0.0041576568 0.28973645
-0.0051259976 -0.0053823572 0.28879002
0.07 -0.0049129413 0.28899205
0.070000008 -0.0046680281 0.2886841
-0.0068051843 -0.0029575902 0.28913033
0.07 -0.0032513505 0.28915095
0.070000008 -0.002592054 0.28998691
-0.0073555107 -0.00091509393 0.28904858
0.07 -0.0010191249 0.28889519
-0.0073624556 0.00087111141 0.28879339
0.07 0.00094344869 0.2889829
0.070000008 0.0008705752 0.28933978
-0.0068153697 0.0029123842 0.28926012
0.07 0.0030651549 0.28897506
-0.0061406153 0.0042492314 0.28906175
-0.0051297452 0.0053706304 0.28887355
0.07 0.0049128449 0.28892457
-0.0092902603 0.0075759292 0.28885752
-0.0072368421 0.0075000003 0.28923187
-0.0047692279 0.0071732998 0.28892216
-0.0030268808 0.0071176183 0.28901175
-0.0010402754 0.0074430108 0.28893656
0.07 0.0070405956 0.28885314
-0.010000001 0.0091677746 0.28908819
0.07 0.0091589829 0.28900966
0.070000008 0.0082420763 0.28929201
-0.010000001 0.010848601 0.28902507
0.07 0.011098453 0.28918108
-0.0099999988 0.012975508 0.28878084
0.07 0.01303103 0.28914604
0.070000008 0.012246764 0.28804961
-0.0099999988 0.014874424 0.28871852
0.07 0.015221658 0.28920585
-0.0099999998 0.016798783 0.28894937
0.070000008 0.016941234 0.28919706
-0.0099999998 0.019180367 0.28930682
0.07 0.018828234 0.28896105
0.070000008 0.019778313 0.28913558
-0.0099999998 0.021046268 0.28912181
0.070000015 0.020776629 0.28913045
-0.010000001 0.022899933 0.28906927
0.07 0.022889003 0.28915828
0.070000008 0.022579039 0.28983074
-0.010000001 0.024831465 0.28900871
0.07 0.024950026 0.28910601
-0.0099999988 0.026885543 0.28892282
0.07 0.026621347 0.28884974
-0.0095539112 0.029501442 0.28915247
-0.0070499806 0.029999999 0.28913376
-0.0051756068 0.029999999 0.28893822
-0.0030771913 0.029999999 0.28886434
-0.00070949539 0.029999999 0.28898573
0.0010290177 0.030000001 0.28892815
0.0032885484 0.029999999 0.28879952
0.0052726688 0.030000001 0.28891003
0.0071943449 0.029999999 0.28883776
0.0091133155 0.029999996 0.28908843
0.011238681 0.029999999 0.28892004
0.012905815 0.030000001 0.28914583
0.014750163 0.029999999 0.28934461
0.017090676 0.029999999 0.28911906
0.019219726 0.030000001 0.28917652
0.021259021 0.029999999 0.28916639
0.022803597 0.029999999 0.28879556
0.024965758 0.029999999 0.28895026
0.026997361 0.029999999 0.28914961
0.029255515 0.029999999 0.28899404
0.030943559 0.029999997 0.28870586
0.032875109 0.029999997 0.28902775
0.03504942 0.030000001 0.28898537
0.037204172 0.029999997 0.28898776
0.038716342 0.029999997 0.28929123
0.041198708 0.029999999 0.28899354
0.043117754 0.029999999 0.28875756
0.045085441 0.029999999 0.28903201
0.047109026 0.029999999 0.28896624
0.049166713 0.029999997 0.28888625
0.050887331 0.029999999 0.28883898
0.052953865 0.029999999 0.28862613
0.05465873 0.029999999 0.28890458
0.057154924 0.029999999 0.28874585
0.058802959 0.029999999 0.28894439
0.061103266 0.029999999 0.28910047
0.062983617 0.029999999 0.28890017
0.065051816 0.029999999 0.28872135
0.066852018 0.030000001 0.28907838
0.069596343 0.029425951 0.2891044
0.070000008 0.028589185 0.28998864
-0.0087266928 0.030000001 0.28931221
-0.0073021231 0.030000001 0.28880185
-0.0044332789 0.030000001 0.28930128
-0.00245276 0.030000001 0.28956035
-0.001105591 0.030000001 0.28921252
0.0012151513 0.030000001 0.28888309
0.0027357114 0.030000001 0.28899446
0.0046996153 0.030000001 0.28931776
0.0069291568 0.030000001 0.28883278
0.0088534122 0.030000001 0.28890857
0.010860236 0.030000001 0.28930569
0.013339661 0.030000001 0.28941473
0.014642682 0.030000001 0.28929266
0.016895179 0.030000001 0.28893572
0.019173922 0.030000001 0.2891784
0.021102063 0.030000001 0.28943425
0.022280529 0.030000001 0.28893068
0.025188584 0.030000001 0.28888318
0.02757068 0.030000001 0.28889152
0.029379915 0.030000001 0.2885831
0.031205695 0.030000001 0.28921777
0.032904081 0.030000001 0.28929436
0.035296373 0.030000001 0.28927177
0.037677724 0.030000001 0.28895926
0.039259106 0.030000001 0.28927863
0.041471638 0.030000001 0.28912812
0.043887861 0.030000001 0.28860229
0.04447598 0.030000001 0.28868717
0.046965174 0.030000001 0.28896323
0.049048699 0.030000001 0.28897375
0.050772443 0.030000001 0.28853124
0.053040784 0.030000001 0.28857511
0.055467814 0.030000001 0.28893411
0.056787621 0.030000001 0.28904754
0.059096761 0.030000001 0.28922704
0.061044551 0.030000001 0.28911799
0.063122414 0.030000001 0.28847462
0.064890556 0.030000001 0.2891888
0.066918373 0.030000001 0.28903121
0.069119871 0.030000001 0.28877825
-0.0092314063 -0.02939292 0.29144171
-0.0070293052 -0.029548731 0.29146305
-0.0049955812 -0.029752107 0.29132572
-0.0028757302 -0.029531058 0.29152197
-0.0010690925 -0.029578244 0.29149687
0.0012518625 -0.029641829 0.29135004
0.0030569888 -0.029574035 0.29157552
0.0050314316 -0.029517066 0.29143837
0.0069715478 -0.029600127 0.29134938
0.0090485914 -0.029541276 0.29151058
0.011115559 -0.029404931 0.29161033
0.012965166 -0.029386554 0.29158139
0.014832324 -0.02942819 0.29162389
0.01696022 -0.029476294 0.29149666
0.018909495 -0.029638924 0.29135388
0.021211261 -0.029273929 0.29151279
0.023048343 -0.029394368 0.29157457
0.02506135 -0.029386308 0.29144281
0.027063232 -0.029538615 0.29134482
0.028838057 -0.029416285 0.29160532
0.031048998 -0.029613439 0.291403
0.033073589 -0.029545199 0.29168785
0.03505031 -0.029546848 0.29140875
0.036947761 -0.029609405 0.29134247
0.03891525 -0.029603764 0.29136872
0.040933706 -0.029566031 0.29131404
0.042927932 -0.029537732 0.29139924
0.044887297 -0.029422093 0.29152995
0.046959169 -0.029413421 0.2914221
0.049085218 -0.029499806 0.29143044
0.050978091 -0.029593689 0.29130471
0.053127937 -0.029449275 0.29170614
0.055101797 -0.029502746 0.29145595
0.056979839 -0.029386647 0.29169777
0.058869675 -0.029526306 0.2913565
0.061045811 -0.029722232 0.29146507
0.062982969 -0.029532418 0.29129422
0.064884342 -0.029695176 0.29124725
0.066891804 -0.029522726 0.29150522
0.069439493 -0.029255323 0.29132155
-0.0093647363 -0.026968541 0.2914826
-0.0070880996 -0.026886871 0.292
-0.0050232168 -0.027322033 0.29200003
-0.003199528 -0.026866321 0.29199997
-0.00086474628 -0.026763495 0.292
0.00083135825 -0.027107116 0.29200006
0.0028195689 -0.026861256 0.292
0.0049777268 -0.027009925 0.29199994
0.0070824544 -0.02692887 0.29199997
0.0087304553 -0.026933854 0.29200003
0.01087005 -0.027034758 0.29199997
0.01324264 -0.026966138 0.29200003
0.014902404 -0.026834805 0.29199997
0.017135056 -0.027011676 0.29200006
0.019017071 -0.02697137 0.29199994
0.020949841 -0.027177658 0.29199997
0.023056848 -0.027395472 0.29199997
0.025082095 -0.02698816 0.292
0.026799731 -0.027164752 0.29200003
0.029056374 -0.027065309 0.292
0.030692747 -0.027218103 0.29200003
0.033075273 -0.026976634 0.29200003
0.034972537 -0.026947394 0.29200006
0.036984038 -0.027009867 0.29199997
0.038985524 -0.027165791 0.29199997
0.040700972 -0.02722981 0.29200003
0.043180197 -0.026817907 0.29200006
0.04525926 -0.027277309 0.292
0.047044128 -0.027075296 0.29199997
0.049200948 -0.027177667 0.29200006
0.050834894 -0.027034229 0.29199997
0.053102214 -0.026794208 0.292
0.055328701 -0.027064744 0.29200003
0.056936353 -0.027204249 0.29200006
0.058954962 -0.026893966 0.292
0.060950767 -0.026884561 0.29200003
0.063135445 -0.027092116 0.29199997
0.06493149 -0.027050661 0.29200003
0.066846058 -0.027102076 0.29200003
0.069437005 -0.027098527 0.29148164
-0.0096991844 -0.024963019 0.29128668
-0.0070503368 -0.02493793 0.29200003
-0.0051058093 -0.024859343 0.29199997
-0.0028133304 -0.02463956 0.29200003
-0.0010747024 -0.025366781 0.29200003
0.0010280937 -0.025006473 0.292
0.0029785249 -0.025086662 0.29199997
0.0049004056 -0.025126696 0.29200003
0.0070671001 -0.025005937 0.29200006
0.0090644779 -0.024943529 0.29200003
0.0106514 -0.024983149 0.292
0.013024816 -0.025213836 0.29199997
0.014945921 -0.02525075 0.29200006
0.017043537 -0.024980275 0.29199997
0.018955125 -0.024968097 0.29199997
0.021353889 -0.024890441 0.292
0.022867421 -0.024959546 0.29200003
0.025157703 -0.024864376 0.292
0.026669389 -0.0252089 0.292
0.029077755 -0.025095683 0.292
0.03088484 -0.024979698 0.29200006
0.033170041 -0.024778459 0.29200006
0.035035018 -0.025251361 0.292
0.03684435 -0.025235228 0.292
0.039068334 -0.025167407 0.29199997
0.041082807 -0.02506426 0.29200003
0.043076679 -0.024812285 0.29200003
0.045345921 -0.024896024 0.29200003
0.047028176 -0.024898527 0.29199997
0.049249656 -0.025025487 0.29200006
0.051044364 -0.024938378 0.29199997
0.053165652 -0.025054935 0.29200003
0.055158783 -0.025010487 0.292
0.056726456 -0.024821425 0.29199997
0.058906429 -0.024898436 0.29200006
0.060906734 -0.02492263 0.29200003
0.062953003 -0.025311297 0.292
0.065232828 -0.0250968 0.29200003
0.067092456 -0.024919577 0.29200003
0.069439732 -0.024985529 0.29141659
0.070000008 -0.025785515 0.29116923
-0.0094759092 -0.023109045 0.2915726
-0.0066813794 -0.023022816 0.29200003
-0.0052368641 -0.022968905 0.29200003
-0.0027420183 -0.022989126 0.29199997
-0.0011581741 -0.022841966 0.29199997
0.0013061545 -0.022903981 0.29200003
0.002879695 -0.022868572 0.29200006
0.0051741526 -0.023158455 0.29200006
0.0070497086 -0.022796854 0.29199997
0.0092306603 -0.023201639 0.29200003
0.011165727 -0.023066169 0.29200006
0.013113629 -0.022933213 0.29200006
0.014782612 -0.022908198 0.29200003
0.016889349 -0.022943655 0.292
0.019185269 -0.022999909 0.292
0.021023808 -0.023125339 0.29199997
0.023146229 -0.023007117 0.29199997
0.025246438 -0.02276301 0.29200003
0.027060768 -0.023227591 0.29199997
0.029090786 -0.022954721 0.29200003
0.031062316 -0.022989696 0.29200003
0.032910809 -0.02305554 0.29200003
0.034889285 -0.022930821 0.292
0.037263881 -0.023147503 0.29200006
0.038821142 -0.023049127 0.292
0.04095909 -0.02275818 0.29200006
0.04275227 -0.023064064 0.292
0.045073703 -0.022858988 0.29200003
0.046870813 -0.023078516 0.29200006
0.049112331 -0.023030512 0.29200006
0.051300202 -0.023196071 0.29199997
0.053132188 -0.022995085 0.29200006
0.055103578 -0.022926247 0.29199997
0.056876734 -0.023116067 0.292
0.058833532 -0.0231774 0.29200006
0.060785968 -0.022933843 0.29200003
0.062785581 -0.022836164 0.292
0.065229632 -0.022915917 0.29199997
0.066665821 -0.022867216 0.29200006
0.069661878 -0.02308956 0.29136139
-0.0094189299 -0.020863879 0.29164651
-0.0071348613 -0.02095503 0.29200006
-0.00502813 -0.02107976 0.29199997
-0.0033144711 -0.021220654 0.29200003
-0.0010827634 -0.021224719 0.292
0.00082179176 -0.020909319 0.29200003
0.0029713532 -0.021185864 0.29200003
0.0051687579 -0.021067098 0.29200003
0.0068016374 -0.020967003 0.29200003
0.0090937158 -0.021196477 0.29199997
0.010870475 -0.020988822 0.292
0.012909938 -0.02110121 0.29200003
0.014965642 -0.02095782 0.29199997
0.017179592 -0.020828808 0.292
0.018965295 -0.020903131 0.29199997
0.020912923 -0.020736802 0.29200003
0.023143277 -0.021195207 0.29200006
0.025162429 -0.021001153 0.292
0.027160659 -0.02071337 0.292
0.02906185 -0.021268189 0.29200006
0.031174354 -0.021180158 0.29200003
0.033217024 -0.020749604 0.292
0.035138991 -0.021066945 0.29200003
0.037206538 -0.021317568 0.29200006
0.038830347 -0.021002073 0.29200003
0.041042708 -0.020796333 0.292
0.043219268 -0.020971049 0.29199997
0.045022052 -0.021056205 0.29199997
0.047041714 -0.020985831 0.29199997
0.048667196 -0.021396391 0.29200003
0.051009502 -0.021127502 0.29200003
0.053202357 -0.021165596 0.292
0.055004548 -0.021087244 0.29200006
0.057035681 -0.021254156 0.29199997
0.059054296 -0.020928474 0.29199997
0.061367914 -0.020906288 0.29200006
0.062958844 -0.021151977 0.29200006
0.065260537 -0.020978035 0.29199997
0.066897549 -0.020794109 0.29200003
0.06963364 -0.0209141 0.29141137
-0.0094891097 -0.019104132 0.29140431
-0.0070204912 -0.018917711 0.292
-0.0050223959 -0.018866789 0.292
-0.0030922142 -0.019289436 0.29199997
-0.00098773057 -0.018966462 0.292
0.0008950521 -0.018931914 0.292
0.003026708 -0.018666344 0.29200003
0.0050021694 -0.019062907 0.29199997
0.0069087096 -0.019002611 0.292
0.0091324719 -0.018840646 0.29200006
0.0113331 -0.018930284 0.29200003
0.013094759 -0.019194491 0.29200003
0.014855745 -0.019178692 0.29200006
0.017373439 -0.019163655 0.29200006
0.018843483 -0.019148935 0.292
0.020743769 -0.019118845 0.29199997
0.022756066 -0.01910579 0.292
0.025197159 -0.018817484 0.29200003
0.026773883 -0.018849477 0.29200006
0.029066307 -0.018902404 0.29199994
0.031103261 -0.018838661 0.292
0.033056524 -0.018732388 0.29200006
0.035138559 -0.018885955 0.292
0.036991891 -0.018511774 0.29200006
0.039048325 -0.018984843 0.29200003
0.041146494 -0.018851288 0.292
0.043098483 -0.019252362 0.292
0.045046024 -0.018984901 0.29199994
0.04696146 -0.018976737 0.292
0.048756793 -0.019011043 0.29199997
0.051148865 -0.018929189 0.29200006
0.052815363 -0.018839652 0.29199997
0.055065136 -0.01895554 0.29200003
0.056998998 -0.018956492 0.29200003
0.059322052 -0.018795285 0.29200003
0.061168615 -0.019017207 0.292
0.063326009 -0.019138921 0.29200003
0.0648361 -0.018971371 0.29199997
0.067154378 -0.018978102 0.29199997
0.069387577 -0.018980738 0.29152146
-0.0095391944 -0.017005054 0.29148617
-0.0070828595 -0.017132618 0.29200006
-0.0047689467 -0.016972516 0.29199997
-0.0029595096 -0.01703877 0.292
-0.0012199365 -0.016943853 0.29200003
0.00086308131 -0.016867964 0.292
0.0031884534 -0.01689597 0.29200003
0.0048766807 -0.016983708 0.29199997
0.0071291118 -0.016797306 0.29199997
0.0087184124 -0.017004102 0.29200006
0.011306802 -0.01726724 0.29200003
0.0132685 -0.016887946 0.29200003
0.015179971 -0.017092772 0.292
0.016748294 -0.016973142 0.29200003
0.018790528 -0.016877186 0.29200006
0.02091375 -0.01701 0.29200006
0.023084594 -0.016928138 0.292
0.024770608 -0.016857993 0.29199997
0.027131071 -0.016751481 0.292
0.028710945 -0.016849874 0.292
0.031132791 -0.017239399 0.29200006
0.033079457 -0.017293314 0.29199997
0.034913585 -0.016841492 0.29200006
0.037120018 -0.017170424 0.29200006
0.038985454 -0.016885184 0.29199997
0.041147877 -0.017195193 0.29200003
0.042987108 -0.016861781 0.292
0.044860378 -0.016765196 0.29200003
0.046693973 -0.017000265 0.29200003
0.048964646 -0.016941471 0.29199997
0.050923157 -0.017041901 0.29199997
0.053079356 -0.017014654 0.29199997
0.055242307 -0.016887818 0.292
0.057115931 -0.017009061 0.29199997
0.058807909 -0.017085453 0.29200006
0.061084613 -0.017048309 0.29200006
0.06284117 -0.017073516 0.29199997
0.064770713 -0.017084479 0.29200006
0.067084819 -0.0172019 0.29200003
0.069692321 -0.016988719 0.29145473
-0.0095103532 -0.014892768 0.29162639
-0.0070144972 -0.01491058 0.29200003
-0.0048068156 -0.014903545 0.29200006
-0.0031524894 -0.015099281 0.29200006
-0.0013175219 -0.015058909 0.29200003
0.00092558085 -0.014914392 0.29199994
0.0029581203 -0.01483943 0.29199997
0.0054114573 -0.015121233 0.29200003
0.0067856326 -0.015038528 0.29200003
0.0091800094 -0.015101479 0.29200003
0.011133745 -0.015053971 0.29200006
0.012941547 -0.015316957 0.29200003
0.014818015 -0.015066917 0.29200006
0.017428329 -0.015038759 0.29200006
0.019000748 -0.014965195 0.29200006
0.020904098 -0.014932167 0.29199997
0.02322977 -0.015120035 0.29200006
0.02494999 -0.015111511 0.29199997
0.026589448 -0.014970568 0.29200003
0.028861212 -0.014777558 0.29200003
0.030787254 -0.015005449 0.292
0.033171859 -0.015029415 0.29200006
0.034885846 -0.015094212 0.29200003
0.036935158 -0.014944827 0.292
0.039120648 -0.014727486 0.29200006
0.041103031 -0.014837292 0.29200003
0.042709723 -0.014857152 0.29200003
0.044965476 -0.01514174 0.29200003
0.046921816 -0.014940954 0.29199997
0.048903991 -0.014944611 0.29200006
0.050995648 -0.014896333 0.292
0.05287813 -0.015301785 0.29199997
0.054933384 -0.01518272 0.29200006
0.057025529 -0.014897445 0.292
0.058926981 -0.01499994 0.29200003
0.060982186 -0.014753415 0.292
0.063011333 -0.015138485 0.29200006
0.064963154 -0.014796637 0.29200006
0.06706024 -0.014864166 0.29200003
0.069387175 -0.014975839 0.29161331
0.070000008 -0.015179644 0.2901167
-0.0096001094 -0.013063169 0.29153952
-0.0070749181 -0.012696791 0.29200006
-0.0050262711 -0.012963072 0.292
-0.0031509264 -0.013225176 0.29200006
-0.00082550821 -0.012723276 0.29200003
0.00098795746 -0.013110539 0.292
0.0029640046 -0.012780102 0.29200006
0.0053446274 -0.012763658 0.29200006
0.0068199723 -0.012719614 0.29200003
0.0087481495 -0.012983503 0.292
0.01106231 -0.013083776 0.29200003
0.013334201 -0.012901312 0.29200003
0.015108664 -0.013193749 0.292
0.017236127 -0.013220721 0.29200006
0.018839732 -0.012997961 0.29200003
0.020932978 -0.013098125 0.29199997
0.022661148 -0.013094361 0.29200003
0.024939207 -0.012772609 0.29200003
0.027112443 -0.013170718 0.29199997
0.029138725 -0.013413503 0.29200006
0.030752221 -0.013118792 0.29200003
0.032874972 -0.012971231 0.29199994
0.035233796 -0.012985635 0.29200003
0.037085555 -0.012888687 0.29199997
0.039201874 -0.012844758 0.292
0.041230682 -0.012870126 0.29199997
0.04311676 -0.012910896 0.29200006
0.044873789 -0.01306253 0.29199997
0.047268249 -0.01308182 0.292
0.04901889 -0.012801109 0.29199997
0.051094763 -0.012874063 0.29200003
0.052679811 -0.013072592 0.29200003
0.055014022 -0.013277238 0.292
0.057079997 -0.013036388 0.292
0.058798697 -0.012801899 0.29200006
0.061030071 -0.013368543 0.29200003
0.06316147 -0.012938169 0.29200003
0.064814165 -0.012972903 0.29200006
0.067098282 -0.013071316 0.29199997
0.069630489 -0.013090393 0.2914359
0.070000008 -0.013437219 0.2914941
-0.0095626544 -0.011057892 0.29149675
-0.0070433659 -0.011349443 0.292
-0.0047567505 -0.011084884 0.29200006
-0.0030435107 -0.010929382 0.29200003
-0.0010109094 -0.011043475 0.292
0.001071021 -0.010888415 0.292
0.00300432 -0.011184038 0.292
0.0048052277 -0.011002399 0.29200006
0.0072175716 -0.011058936 0.29200003
0.0090032732 -0.010788999 0.29199997
0.011181699 -0.010892468 0.29200003
0.013247401 -0.011036513 0.29200006
0.015004808 -0.011091595 0.29200003
0.017306427 -0.010625695 0.292
0.019261526 -0.010947406 0.29200006
0.020761814 -0.011127306 0.29200003
0.022765312 -0.011010612 0.29200006
0.025048623 -0.010856847 0.29200003
0.027003309 -0.011177475 0.292
