# .PCD v0.7 - Point Cloud Data file format
VERSION 0.7
FIELDS x y z
SIZE 4 4 4
TYPE F F F
COUNT 1 1 1
WIDTH 1434
HEIGHT 1
VIEWPOINT 0 0 0 1 0 0 0
POINTS 1434
DATA ascii
-0.0017999999 -0.26909381 0.01299523
0 -0.26911396 0.013106252
-0.0018000002 -0.26896203 0.015019239
0 -0.26931778 0.015000821
-0.0018 -0.26881397 0.016893903
0 -0.26918861 0.016976062
-0.0018 -0.26890048 0.019089988
0 -0.26896882 0.019445339
-0.0018000001 -0.26901564 0.020982387
0 -0.26918846 0.021092422
-0.0018000001 -0.26882991 0.022880362
0 -0.26906314 0.022940151
-0.0018000002 -0.26902834 0.024931785
0 -0.26915413 0.025078151
-0.0018000001 -0.26897734 0.026849007
0 -0.26901236 0.027085224
-0.0018000002 -0.26897994 0.029022835
0 -0.26860049 0.029057473
-0.0018000001 -0.26893666 0.031289496
0 -0.26889321 0.030721147
-0.0018 -0.26906762 0.032979541
0 -0.2688022 0.033166613
-0.0017999999 -0.26931193 0.035224926
0 -0.26904911 0.035151117
-0.0017999999 -0.26927832 0.036769517
0 -0.26896217 0.037011582
-0.0044298111 -0.26803875 0.039994836
-0.0026877334 -0.26856729 0.038961735
-0.0017373745 -0.26907843 0.038761817
0 -0.26882839 0.038638961
-0.0045995833 -0.26886564 0.041359991
-0.0029289075 -0.26909351 0.041003555
-0.00088325783 -0.26969621 0.041042868
0 -0.2696569 0.040575538
-0.0060367081 -0.26838765 0.043273143
-0.0047210036 -0.26900679 0.043133691
-0.0033722383 -0.26935327 0.042494558
-0.0063216244 -0.26883951 0.044695199
-0.0052552396 -0.26899081 0.044944242
-0.0068501248 -0.26880154 0.04687319
-0.0058481726 -0.2690497 0.047253203
-0.0069291252 -0.26877621 0.049111903
-0.0059055118 -0.26886833 0.049373288
-0.0067802551 -0.26915714 0.050715879
-0.0057026632 -0.26873106 0.050536264
-0.00624099 -0.26972249 0.053053703
-0.0050520557 -0.26870137 0.053130355
-0.0035105171 -0.26810041 0.053878915
-0.004700263 -0.26891035 0.054761447
-0.0033163808 -0.26905563 0.055047337
-0.00093454169 -0.26863244 0.055571083
-0.0042199274 -0.2698338 0.056064785
-0.00238119 -0.26932392 0.056928635
-0.00089893956 -0.26910937 0.056864008
0 -0.26920402 0.056761567
-0.0020569197 -0.27176115 -0.060361601
-0.00081896916 -0.27174279 -0.060598895
0 -0.27149299 -0.06015772
-0.0046254597 -0.2712824 -0.058124136
-0.0029958503 -0.27105781 -0.058977868
-0.00096795318 -0.27071616 -0.059091158
0 -0.27088168 -0.059341572
-0.006182895 -0.27161321 -0.056002125
-0.0047782245 -0.27097592 -0.05703935
-0.0035051829 -0.27074775 -0.057185579
-0.001980287 -0.27036601 -0.057949401
-0.0064747185 -0.27131283 -0.054920014
-0.0053731366 -0.27120212 -0.055190463
-0.0068428479 -0.27105579 -0.052941818
-0.0057733459 -0.27079332 -0.053067822
-0.0069540553 -0.27090749 -0.050990157
-0.0059129801 -0.27124703 -0.051003065
-0.00660777 -0.27124524 -0.048758976
-0.0056633176 -0.27083933 -0.049122754
-0.0061895498 -0.27086315 -0.047242858
-0.0052621821 -0.27110994 -0.047036167
-0.0037019174 -0.27164707 -0.04612438
-0.0047485977 -0.27081159 -0.045268692
-0.0031077042 -0.27110639 -0.044928603
-0.001166505 -0.27125993 -0.044307463
0 -0.27163741 -0.044380575
-0.0028102456 -0.27069163 -0.043065649
-0.0014166569 -0.27059463 -0.043242514
0 -0.27095759 -0.042873956
-0.0018 -0.27099299 -0.040967457
0 -0.27126509 -0.04078842
-0.0018000003 -0.27099854 -0.038923685
0 -0.27132937 -0.038883012
-0.0018000002 -0.27099338 -0.037116673
0 -0.27137589 -0.037286386
-0.0018 -0.27097031 -0.03528744
0 -0.27079457 -0.035252389
-0.0018000002 -0.27098197 -0.033235539
0 -0.27052978 -0.033212673
-0.0017999999 -0.27072653 -0.031088427
0 -0.27093795 -0.031010829
-0.0018 -0.2711674 -0.028864456
0 -0.27131307 -0.029061409
-0.0018000001 -0.27078938 -0.027063312
0 -0.27102655 -0.027003758
-0.0017999999 -0.27121004 -0.024867522
0 -0.27097467 -0.02519233
-0.0018000001 -0.27088282 -0.023139888
0 -0.27074018 -0.022933736
-0.0018 -0.27118096 -0.021085862
0 -0.27127549 -0.021189613
-0.0017999999 -0.27109593 -0.019007711
0 -0.27087146 -0.018833881
-0.0018000001 -0.27098846 -0.016826523
0 -0.27118805 -0.017218817
-0.0018000002 -0.2709637 -0.01483159
0 -0.27098751 -0.01490552
-0.0018 -0.27130178 -0.013044404
0 -0.27070644 -0.013018464
-0.0017999999 -0.27148172 -0.010928312
0 -0.27083251 -0.010980295
-0.0018 -0.2710911 -0.0086881183
0 -0.27133486 -0.0090456931
-0.0017999999 -0.27098593 -0.0070500853
0 -0.27106914 -0.0073141637
-0.0018000001 -0.27123216 -0.0049241334
0 -0.27064511 -0.0052878913
-0.0018 -0.27113435 -0.0028370356
0 -0.27129626 -0.0026451047
-0.0018000001 -0.27118355 -0.001161204
0 -0.27097559 -0.0011713005
-0.0017999999 -0.27092838 0.0010210236
0 -0.27123433 0.00058959838
-0.0018 -0.27067724 0.0029369835
0 -0.27092662 0.0030595791
-0.0018 -0.27090994 0.004933551
0 -0.27122968 0.0049744472
-0.0018000001 -0.27083758 0.0070296433
0 -0.27100393 0.0072086575
-0.0017999999 -0.27110267 0.0089523764
0 -0.27113003 0.0090914303
-0.0018 -0.27105415 0.011084263
0 -0.27083075 0.011188309
-0.0017999999 -0.27094111 0.013139851
0 -0.27104959 0.012930459
-0.0018000001 -0.27098706 0.014959164
0 -0.27138317 0.014951126
-0.0018 -0.27134722 0.016759308
0 -0.27087861 0.016850451
-0.0017999999 -0.27099118 0.018921467
0 -0.27081263 0.01878611
-0.0018000001 -0.27106529 0.021167213
0 -0.27112231 0.020822383
-0.0018 -0.27058002 0.023029711
0 -0.27091125 0.02304885
-0.0018 -0.27075154 0.025100252
0 -0.27104455 0.025007069
-0.0017999999 -0.27088103 0.026987514
0 -0.27109453 0.026849389
-0.0018000002 -0.27101958 0.028859718
0 -0.2707783 0.028998382
-0.0018000002 -0.27095222 0.031006312
0 -0.27116656 0.03098123
-0.0017999999 -0.2713415 0.033151794
0 -0.27067232 0.033155557
-0.0017999999 -0.27123344 0.035113506
0 -0.27106234 0.035017177
-0.0017999999 -0.27091828 0.037026994
0 -0.27094701 0.03716797
-0.0018 -0.27145454 0.038367581
0 -0.27095443 0.038768791
-0.0027028415 -0.27036953 0.041301977
-0.0012101696 -0.27097607 0.041087724
0 -0.27092263 0.041041151
-0.0045584152 -0.27054653 0.043271009
-0.0030718457 -0.27103558 0.042994272
-0.00078204658 -0.27125287 0.042949732
0 -0.27135438 0.042486973
-0.006064089 -0.27081227 0.045543119
-0.0047989963 -0.27111104 0.045032442
-0.0028448354 -0.27180466 0.044159681
-0.0064550554 -0.27097058 0.046777017
-0.005449424 -0.27110279 0.047033057
-0.0068629477 -0.2710267 0.048717313
-0.0058466792 -0.27115336 0.048929732
-0.0069117909 -0.27077165 0.050950166
-0.0059348927 -0.27117789 0.050814204
-0.0066932775 -0.27117115 0.052734114
-0.0053193853 -0.27069452 0.053151872
-0.0062159076 -0.27140024 0.054424636
-0.0049495026 -0.27106377 0.055055916
-0.0034846214 -0.27030227 0.055589609
-0.0046465588 -0.27127498 0.056736566
-0.0030839888 -0.27078187 0.057092343
-0.00071478158 -0.27074695 0.057336528
-0.0027060453 -0.27151433 0.058443509
-0.00089771819 -0.27092996 0.058640383
0 -0.27136701 0.058611572
-0.0041213902 -0.27328023 -0.060178004
-0.002891836 -0.27312532 -0.060768154
-0.0013817472 -0.27316666 -0.060672984
0 -0.27298716 -0.06122683
-0.0047986233 -0.27301848 -0.058858387
-0.0031033957 -0.27280843 -0.059446312
-0.00086211495 -0.27218327 -0.059666887
0 -0.2720556 -0.059734106
-0.0062356442 -0.27297616 -0.056894049
-0.0050278166 -0.27298331 -0.057337247
-0.0039092666 -0.27213123 -0.057877541
-0.0067835581 -0.27324438 -0.054960143
-0.0056606499 -0.27302787 -0.055188868
-0.0069465037 -0.27301511 -0.053299401
-0.0059359171 -0.27299857 -0.052889615
-0.0069245752 -0.27230886 -0.05156685
-0.0057230825 -0.27279076 -0.05083473
-0.0063683027 -0.27310598 -0.049457341
-0.005108776 -0.27289325 -0.048958804
-0.0049321493 -0.27267599 -0.047146156
-0.0034504449 -0.27315184 -0.046756905
-0.0013301972 -0.27383828 -0.046311259
-0.0041254261 -0.27201813 -0.045264754
-0.0030690362 -0.27254084 -0.045186099
-0.0013200359 -0.27295345 -0.045064732
0 -0.27308759 -0.04490253
-0.0018 -0.27328485 -0.043171443
0 -0.27293485 -0.042642985
-0.0017999999 -0.27295423 -0.040498801
0 -0.27297086 -0.040847003
-0.0018 -0.27275088 -0.039003972
0 -0.27322778 -0.038954496
-0.0018 -0.273413 -0.037066385
0 -0.27301827 -0.036737338
-0.0017999999 -0.27291274 -0.034905165
0 -0.27310133 -0.034642499
-0.0018000003 -0.27283245 -0.032975804
0 -0.27266863 -0.033323109
-0.0018000001 -0.27295789 -0.030687358
0 -0.27301371 -0.030828683
-0.0018000001 -0.27290541 -0.028961914
0 -0.27283692 -0.029278861
-0.0018 -0.27311781 -0.027467569
0 -0.27318233 -0.027126987
-0.0018 -0.27275696 -0.024578283
0 -0.27322349 -0.024874669
-0.0018 -0.27313387 -0.023005802
0 -0.27259377 -0.022719769
-0.0017999999 -0.27305064 -0.020561799
0 -0.27284056 -0.021089837
-0.0018 -0.27296972 -0.018743414
0 -0.27303928 -0.019030219
-0.0018 -0.27299249 -0.016753998
0 -0.27314347 -0.016765511
-0.0018000002 -0.2727356 -0.014963827
0 -0.27321443 -0.015055168
-0.0017999999 -0.27282697 -0.012827513
0 -0.27278084 -0.013085905
-0.0018000001 -0.27289703 -0.010763814
0 -0.27300951 -0.011049243
-0.0017999999 -0.27292272 -0.0091285184
0 -0.27321517 -0.0089374278
-0.0017999999 -0.27291268 -0.0069210269
0 -0.27274761 -0.0069371816
-0.0017999999 -0.27298597 -0.0051164245
0 -0.27300796 -0.0048408299
-0.0017999999 -0.27331531 -0.0031059324
0 -0.27323484 -0.0027983712
-0.0018 -0.27303791 -0.00098376477
0 -0.27290642 -0.00075501081
-0.0018000002 -0.27295333 0.00079656549
0 -0.27314982 0.00061332027
-0.0017999999 -0.27301329 0.0026243071
0 -0.2730673 0.0029233741
-0.0018000001 -0.27295607 0.0052238745
0 -0.27304614 0.0050531742
-0.0018 -0.27266705 0.0068385778
0 -0.27303189 0.007214258
-0.0018000001 -0.27305183 0.0090135531
0 -0.27280891 0.0090067722
-0.0018 -0.27317351 0.011008739
0 -0.27302882 0.011034444
-0.0017999999 -0.2731263 0.012949242
0 -0.27319923 0.012886015
-0.0018000001 -0.27296504 0.015291418
0 -0.27274626 0.014890451
-0.0018 -0.27272949 0.016910527
0 -0.27294993 0.017057296
-0.0017999999 -0.2732535 0.01857855
0 -0.27308476 0.018783523
-0.0018 -0.27298281 0.020752909
0 -0.27335265 0.021134773
-0.0018 -0.27321991 0.023409402
0 -0.27329728 0.022947429
-0.0017999999 -0.27312931 0.024759069
0 -0.27315411 0.025194483
-0.0018000002 -0.27314225 0.026880883
0 -0.27338198 0.027284153
-0.0018000002 -0.27307123 0.028997373
0 -0.27291703 0.028990593
-0.0017999999 -0.2730549 0.030660648
0 -0.2728197 0.031003039
-0.0018000001 -0.27310079 0.032271735
0 -0.27261722 0.033090826
-0.0017999999 -0.27316689 0.034838989
0 -0.27331156 0.035080679
-0.0017999999 -0.27337179 0.03722436
0 -0.27309448 0.036940925
-0.0018 -0.27288255 0.038958799
0 -0.27251422 0.038640346
-0.0018 -0.2730481 0.041062739
0 -0.2728352 0.041009314
-0.0026366138 -0.27301648 0.043640245
-0.0013873588 -0.27266675 0.042973939
0 -0.2731989 0.042808026
-0.0046452582 -0.27268633 0.045062542
-0.0030891791 -0.27299881 0.044976626
-0.0010871333 -0.27323076 0.044523276
0 -0.27354565 0.044374697
-0.006137236 -0.27262619 0.047134999
-0.0049115885 -0.27314195 0.046988152
-0.0037502113 -0.27370042 0.046449129
-0.0066558099 -0.27305803 0.049036063
-0.0054950747 -0.27331153 0.049037557
-0.0069436324 -0.27277067 0.05097701
-0.0059389924 -0.2731894 0.051284291
-0.0069197817 -0.27316695 0.05269647
-0.0058173053 -0.27302992 0.053131774
-0.0064318352 -0.27305612 0.055045076
-0.0053276136 -0.27307495 0.055124689
-0.0061396761 -0.27354071 0.056289539
-0.0050055827 -0.27304143 0.056726746
-0.0035822741 -0.27295727 0.057519548
-0.0044409903 -0.27341339 0.058594503
-0.0032186259 -0.27322069 0.058862623
-0.00101239 -0.27271563 0.059152015
0 -0.27226332 0.058897372
-0.0023655496 -0.2735109 0.060142204
-0.00033727824 -0.2726495 0.060068768
0 -0.27353507 0.060623527
-0.0029404459 -0.27554697 -0.06269794
-0.0011048252 -0.27512228 -0.062830687
0 -0.27595186 -0.063239403
-0.0045552193 -0.27525187 -0.060727037
-0.0031362036 -0.27499813 -0.061134409
-0.00079562963 -0.27474695 -0.061628889
0 -0.27416655 -0.061637193
-0.0062693134 -0.27524927 -0.058515009
-0.0047588134 -0.27473232 -0.059245799
-0.0037568125 -0.27456117 -0.05988295
-0.0066714105 -0.27501979 -0.057014361
-0.005532789 -0.27466556 -0.056917801
-0.0069500706 -0.27530441 -0.055271666
-0.0059247343 -0.27501595 -0.05492992
-0.0068450668 -0.27513713 -0.052954741
-0.0058286591 -0.27483383 -0.053023312
-0.0063626906 -0.27506196 -0.050937686
-0.0053435802 -0.2749922 -0.050793733
-0.0060306229 -0.27452433 -0.049657974
-0.0050766598 -0.2747221 -0.049232304
-0.0034484572 -0.27490053 -0.048348449
-0.004334914 -0.27492896 -0.047704745
-0.0031416726 -0.27462548 -0.046979424
-0.0012719721 -0.27492109 -0.046884313
0 -0.27530316 -0.046573754
-0.0022198218 -0.27433422 -0.045755345
-0.0018000002 -0.27495986 -0.044934869
0 -0.27494663 -0.044967715
-0.0018 -0.27497789 -0.043224435
0 -0.27513996 -0.043011259
-0.0018000003 -0.27504677 -0.040998712
0 -0.2748808 -0.040785167
-0.0018 -0.27522209 -0.038958386
0 -0.27517518 -0.039183151
-0.0018 -0.27480894 -0.037152153
0 -0.27479553 -0.036936123
-0.0018000001 -0.27492288 -0.034943867
0 -0.27522367 -0.035337467
-0.0017999999 -0.27502814 -0.033178732
0 -0.27497247 -0.033296052
-0.0018000001 -0.27490151 -0.031012651
0 -0.27491307 -0.030947777
-0.0017999999 -0.27487767 -0.028868606
0 -0.27512637 -0.028669182
-0.0017999999 -0.27506289 -0.027083069
0 -0.27502692 -0.027064847
-0.0017999999 -0.27506667 -0.025205908
0 -0.27456865 -0.025001481
-0.0018000001 -0.27483103 -0.023009645
0 -0.27462298 -0.023046309
-0.0018000001 -0.2749902 -0.02080754
0 -0.27504608 -0.021022374
-0.0018000003 -0.27522433 -0.018883098
0 -0.27513146 -0.019168319
-0.0017999999 -0.27488932 -0.017222518
0 -0.27468103 -0.016997028
-0.0018 -0.27484274 -0.014767851
0 -0.27490258 -0.014748048
-0.0018000002 -0.27487978 -0.013259729
0 -0.27532712 -0.012974747
-0.0018000001 -0.27492487 -0.011012241
0 -0.27489084 -0.011114395
-0.0018000002 -0.2750262 -0.0091229472
0 -0.27504626 -0.0090556629
-0.0017999999 -0.27515659 -0.0068154456
0 -0.27502316 -0.0072672893
-0.0018000002 -0.27488676 -0.0051488089
0 -0.27503359 -0.0049647135
-0.0018000002 -0.27492276 -0.0030622901
0 -0.27511135 -0.0029540788
-0.0018 -0.2752828 -0.00096579781
0 -0.27479419 -0.0014379197
-0.0018000001 -0.27502233 0.00042042643
0 -0.27478072 0.0012063854
-0.0018000001 -0.27497128 0.003141376
0 -0.27472121 0.0030501608
-0.0018 -0.27459517 0.0049722283
0 -0.27488062 0.0051678591
-0.0018 -0.27492633 0.0075848945
0 -0.27493864 0.0070410185
-0.0017999999 -0.27496171 0.0089523951
0 -0.27482212 0.0090879602
-0.0018000001 -0.27510795 0.010889533
0 -0.27498591 0.011174767
-0.0018 -0.27486211 0.012930402
0 -0.27513245 0.013325855
-0.0018 -0.27507222 0.015206325
0 -0.27510133 0.014883749
-0.0017999999 -0.27499211 0.016940966
0 -0.27463123 0.016619394
-0.0018000001 -0.27486533 0.019129086
0 -0.27527601 0.01880681
-0.0018000001 -0.27523515 0.020811742
0 -0.27484027 0.020867214
-0.0017999999 -0.27492261 0.023220086
0 -0.27492228 0.022807512
-0.0017999999 -0.27471107 0.02500285
0 -0.27487063 0.025171701
-0.0018000001 -0.2751101 0.026863737
0 -0.27530801 0.026824297
-0.0018000003 -0.27486435 0.028792731
0 -0.27509189 0.029295294
-0.0017999999 -0.27504915 0.030932456
0 -0.27510831 0.031141555
-0.0018000001 -0.2751773 0.032726102
0 -0.27544302 0.033114173
-0.0018 -0.27509329 0.034945268
0 -0.27515364 0.035071742
-0.0018000002 -0.2747578 0.037039593
0 -0.27506861 0.036549788
-0.0017999999 -0.27521321 0.03888832
0 -0.27499759 0.038921703
-0.0018000001 -0.27483279 0.040994614
0 -0.2744503 0.040826637
-0.0018000001 -0.27499267 0.042929988
0 -0.27483362 0.042872638
-0.0042012837 -0.27454311 0.045956809
-0.0026111321 -0.2746377 0.044965371
-0.0012055213 -0.27466568 0.045356713
0 -0.27487126 0.045039207
-0.0050195502 -0.27479693 0.047264881
-0.0032548197 -0.27484822 0.046749201
-0.0011744238 -0.27557659 0.046303548
-0.0062823496 -0.27524841 0.049547333
-0.0050100568 -0.2753723 0.049075089
-0.0067006256 -0.27506846 0.05079931
-0.0057255388 -0.27485245 0.051060822
-0.006942431 -0.27487767 0.052680068
-0.0059463149 -0.27521485 0.052988309
-0.0067138532 -0.27479151 0.055447742
-0.0057166065 -0.27520469 0.055417344
-0.0064398274 -0.27554634 0.056935322
-0.0049672429 -0.2747215 0.05728516
-0.0049074017 -0.27516249 0.059086125
-0.0029990021 -0.27477244 0.059361752
-0.00088195119 -0.2741662 0.05987886
-0.0028910246 -0.27532563 0.06101118
-0.0012485972 -0.2750178 0.060822558
0 -0.27503392 0.061352875
-0.0022872291 -0.27590683 0.062021017
-0.00053970388 -0.2754401 0.062169529
0 -0.27565372 0.06228938
-0.0026027458 -0.27745327 -0.064345248
-0.00092289317 -0.27706259 -0.064607218
0 -0.27739477 -0.064501874
-0.0045959633 -0.27711946 -0.062597185
-0.0032286553 -0.27697363 -0.062924132
-0.0010004999 -0.27698797 -0.063271493
0 -0.27678746 -0.063733138
-0.006194334 -0.27743176 -0.060427383
-0.0051059765 -0.27711639 -0.061213296
-0.0065848017 -0.27702016 -0.058911145
-0.0054172822 -0.27713218 -0.059170015
-0.0068817986 -0.27681768 -0.057121124
-0.0058704517 -0.27703467 -0.057209209
-0.0069212955 -0.27691427 -0.055042047
-0.005870441 -0.27700412 -0.054934636
-0.0064956821 -0.27695969 -0.052903648
-0.0053455005 -0.27695477 -0.052810349
-0.006216784 -0.27651924 -0.051634908
-0.0051669301 -0.27693501 -0.050897736
-0.0036000833 -0.27737498 -0.050408013
-0.004681848 -0.27685946 -0.049569711
-0.003046911 -0.27706861 -0.048951492
-0.0015949404 -0.27686042 -0.04870877
0 -0.27754962 -0.048438083
-0.0026499168 -0.27660415 -0.047724638
-0.0018000002 -0.27712849 -0.046917867
0 -0.27680311 -0.046875671
-0.0018000001 -0.27752435 -0.045091394
0 -0.27713215 -0.045071494
-0.0017999999 -0.2771 -0.04311661
0 -0.27698359 -0.043118257
-0.0017999999 -0.2772015 -0.041155901
0 -0.27693957 -0.041116238
-0.0018 -0.27723971 -0.038567346
0 -0.27680117 -0.038991734
-0.0018 -0.27741432 -0.037100274
0 -0.27685422 -0.036985178
-0.0017999999 -0.27693719 -0.034947205
0 -0.2768442 -0.035139281
-0.0018000001 -0.27713543 -0.033094455
0 -0.27665547 -0.03291335
-0.0018 -0.2769202 -0.031203464
0 -0.27700019 -0.03127921
-0.0018000001 -0.27696574 -0.029052177
0 -0.27700055 -0.029146226
-0.0017999999 -0.2769728 -0.026963823
0 -0.27729014 -0.026604179
-0.0018 -0.27702981 -0.025189096
0 -0.27707225 -0.024928017
-0.0018000001 -0.27697784 -0.023033815
0 -0.27681646 -0.023439288
-0.0018 -0.27703342 -0.020795532
0 -0.27682281 -0.020888472
-0.0017999999 -0.27689973 -0.019244289
0 -0.27706832 -0.019013243
-0.0017999999 -0.27716854 -0.017038085
0 -0.27728671 -0.017096365
-0.0018000002 -0.2768617 -0.015290608
0 -0.2768496 -0.014871803
-0.0018 -0.27675021 -0.012877661
0 -0.276912 -0.013304519
-0.0017999999 -0.27719021 -0.011033409
0 -0.27710474 -0.010785104
-0.0018 -0.27677137 -0.0086808857
0 -0.27665073 -0.0091120051
-0.0018000001 -0.27686039 -0.0067195622
0 -0.27709362 -0.0068494412
-0.0017999999 -0.27684304 -0.0048194905
0 -0.27723807 -0.0049062907
-0.0017999999 -0.27695146 -0.0030831874
0 -0.27662379 -0.0031154773
-0.0017999999 -0.27729481 -0.00083896477
0 -0.27675971 -0.00058017875
-0.0017999999 -0.27750647 0.0013403322
0 -0.27677137 0.00081502041
-0.0018000002 -0.27709571 0.0026990888
0 -0.27693477 0.0029462725
-0.0018000002 -0.27711871 0.0048684352
0 -0.27707741 0.0048896349
-0.0018 -0.27686182 0.0071159713
0 -0.27721739 0.0071180877
-0.0018 -0.27712056 0.0088652903
0 -0.27693713 0.0092816558
-0.0017999999 -0.27672055 0.011083007
0 -0.27736464 0.011135682
-0.0018 -0.27658874 0.01299287
0 -0.27721107 0.01316622
-0.0018000003 -0.27700993 0.014898752
0 -0.27704224 0.015268087
-0.0017999999 -0.27694005 0.017203758
0 -0.2767756 0.016971143
-0.0017999999 -0.2769351 0.018978458
0 -0.27694407 0.019254925
-0.0018 -0.2770426 0.021233769
0 -0.27691221 0.021157572
-0.0018000001 -0.27655005 0.02342155
0 -0.27689078 0.023113791
-0.0018000001 -0.27678671 0.024920218
0 -0.27693948 0.025059478
-0.0018 -0.27706969 0.0271095
0 -0.27684161 0.026662882
-0.0018000002 -0.2769241 0.028898902
0 -0.2770353 0.028573247
-0.0018 -0.27684411 0.031084185
0 -0.27682322 0.030784763
-0.0018 -0.27725267 0.033246957
0 -0.27681017 0.033300899
-0.0018 -0.27718493 0.034682889
0 -0.27677655 0.035231177
-0.0018000002 -0.27689123 0.037013702
0 -0.27679124 0.037082762
-0.0018000001 -0.27692232 0.039104976
0 -0.27693233 0.038770426
-0.0018 -0.27727953 0.040989045
0 -0.27713844 0.040893901
-0.0018 -0.27689335 0.042910963
0 -0.27624649 0.043037776
-0.0023950087 -0.27620858 0.045945808
-0.0018 -0.27682981 0.044759125
0 -0.27690473 0.04441493
-0.0043398472 -0.2765767 0.047651727
-0.0031226506 -0.27686143 0.047040559
-0.0011603913 -0.27710477 0.047087204
0 -0.27760512 0.047075376
-0.0046583172 -0.27680117 0.04896256
-0.0032885291 -0.27713561 0.048670262
-0.0014184392 -0.2777026 0.048064992
-0.0064598387 -0.27705088 0.051443625
-0.0052758493 -0.2767787 0.050697517
-0.0068811066 -0.27687487 0.053255089
-0.0057728877 -0.27703589 0.053120472
-0.0069353953 -0.27705929 0.055082586
-0.0059492621 -0.27720365 0.055044331
-0.0066982191 -0.2773641 0.057280146
-0.0057121445 -0.27725226 0.056986701
-0.0064272042 -0.277475 0.058455437
-0.0051237973 -0.27719486 0.059044555
-0.0039156657 -0.2762894 0.059743751
-0.0048422338 -0.27725926 0.060632888
-0.0029779379 -0.27669838 0.061289102
-0.00094951771 -0.27641588 0.061576556
0 -0.27642402 0.061740555
-0.0027168479 -0.27735189 0.062523462
-0.00078406866 -0.27705526 0.062663272
0 -0.2767083 0.062593773
-0.0042143506 -0.27953565 -0.064193889
-0.0031112931 -0.27910498 -0.064550303
-0.00078485411 -0.27915534 -0.06523528
0 -0.27874368 -0.065043852
-0.0047790143 -0.27904615 -0.062786333
-0.0033844453 -0.27888271 -0.063222744
-0.0011641042 -0.27820018 -0.063996136
-0.0064563118 -0.27895203 -0.060757156
-0.0053286506 -0.27918395 -0.06119715
-0.0067817816 -0.27881095 -0.059354831
-0.0057882848 -0.27886528 -0.059166458
-0.0069133909 -0.27889118 -0.056915849
-0.0059294789 -0.27891937 -0.057132181
-0.006745344 -0.27898553 -0.055314858
-0.0056762877 -0.2785705 -0.055043899
-0.0062094256 -0.27861762 -0.053235341
-0.0052686138 -0.27889553 -0.052786067
-0.0033848479 -0.27990937 -0.052114241
-0.0046606325 -0.27858883 -0.051370662
-0.0031727783 -0.27935341 -0.050907616
-0.00087231764 -0.27917016 -0.050395261
0 -0.27970287 -0.050549176
-0.0040721642 -0.27810317 -0.049880024
-0.0027674201 -0.27866936 -0.049539
-0.001559656 -0.27872533 -0.048974093
0 -0.2792452 -0.049033381
-0.0017999999 -0.27900216 -0.047322299
0 -0.2788921 -0.047272675
-0.0018 -0.27880993 -0.04484259
0 -0.2785508 -0.04519007
-0.0018000001 -0.27902481 -0.042979859
0 -0.27897337 -0.042824529
-0.0018000002 -0.27900714 -0.040949419
0 -0.27907991 -0.041001476
-0.0018000001 -0.27906945 -0.0390842
0 -0.27876511 -0.039237689
-0.0017999999 -0.27880839 -0.037007511
0 -0.27899036 -0.037470181
-0.0018000002 -0.27911884 -0.035138454
0 -0.27885181 -0.035004351
-0.0018000002 -0.27863154 -0.032841109
0 -0.27915815 -0.033077076
-0.0018 -0.27904367 -0.031099642
0 -0.27920142 -0.030407164
-0.0018000002 -0.27881157 -0.029272784
0 -0.27897564 -0.028921148
-0.0018000002 -0.27893779 -0.026942939
0 -0.2791464 -0.026862105
-0.0018 -0.27899289 -0.025404165
0 -0.27873918 -0.025069054
-0.0018000001 -0.27899024 -0.023021668
0 -0.27907979 -0.022918452
-0.0017999999 -0.27850032 -0.020704815
0 -0.2792989 -0.021038096
-0.0017999999 -0.27900919 -0.018741
0 -0.2791689 -0.018890066
-0.0018 -0.27945545 -0.017073594
0 -0.27893397 -0.016921826
-0.0018000002 -0.27883288 -0.015047518
0 -0.27903047 -0.015491435
-0.0018 -0.27887514 -0.012635094
0 -0.2790111 -0.012605998
-0.0017999999 -0.27894527 -0.010950734
0 -0.27905774 -0.011032281
-0.0017999999 -0.27920517 -0.0090219453
0 -0.27900356 -0.0088906614
-0.0018000002 -0.27859414 -0.0070237527
0 -0.27918884 -0.0072330628
-0.0018 -0.27886888 -0.0051787919
0 -0.27894858 -0.0051153582
-0.0018 -0.27916557 -0.0030176041
0 -0.27932137 -0.0028650512
-0.0017999999 -0.27897087 -0.00091992784
0 -0.27893054 -0.0012039928
-0.0018 -0.27933025 0.0010399898
0 -0.27917379 0.00080915639
-0.0018 -0.27894169 0.0027707813
0 -0.27901739 0.0031185907
-0.0018000002 -0.2790792 0.0049931873
0 -0.27896047 0.0050756754
-0.0018 -0.27924594 0.0070434222
0 -0.27876559 0.0071925018
-0.0018 -0.27902475 0.0089116823
0 -0.27899465 0.0089048613
-0.0017999999 -0.27923045 0.010820429
0 -0.27905387 0.011280634
-0.0017999999 -0.27927542 0.013192296
0 -0.27925315 0.013003334
-0.0017999999 -0.27922472 0.014976222
0 -0.27877766 0.015017597
-0.0017999999 -0.27906382 0.016899558
0 -0.27914217 0.017057516
-0.0018 -0.27911001 0.018836224
0 -0.27895844 0.018716117
-0.0018000002 -0.27907464 0.021222837
0 -0.27883673 0.021066902
-0.0018000001 -0.27879846 0.022795796
0 -0.27907771 0.023195205
-0.0018000001 -0.27886125 0.024857255
0 -0.27915123 0.025157783
-0.0018000001 -0.27915478 0.027213318
0 -0.27876577 0.026971109
-0.0018000002 -0.27908397 0.029051505
0 -0.27946058 0.029171145
-0.0018000001 -0.27901596 0.031135891
0 -0.27869198 0.030689279
-0.0017999999 -0.27896559 0.03282807
0 -0.27925253 0.03294415
-0.0018 -0.27918109 0.03505522
0 -0.2792463 0.035129454
-0.0018000002 -0.27890953 0.036758725
0 -0.27882734 0.036778796
-0.0017999999 -0.27909547 0.039111786
0 -0.27914262 0.038937703
-0.0017999999 -0.27899632 0.04087162
0 -0.27865157 0.040785566
-0.0018000001 -0.27909929 0.042871907
0 -0.27899647 0.043009847
-0.0018000001 -0.27900255 0.045194443
0 -0.27917686 0.044996861
-0.0022029362 -0.27821377 0.047367603
-0.0018164426 -0.27921161 0.04702064
0 -0.27878264 0.047084481
-0.0045433864 -0.27868375 0.049483716
-0.0031092775 -0.27899811 0.049023736
-0.0011106253 -0.2788403 0.048818011
0 -0.27918714 0.048423365
-0.006205773 -0.27815464 0.05156175
-0.004963465 -0.27919516 0.050809167
-0.0034165443 -0.27955979 0.050602689
-0.0064748609 -0.27882862 0.052859046
-0.0055076689 -0.27876556 0.053276859
-0.0068819639 -0.27919024 0.055026285
-0.0058888281 -0.27886489 0.05515663
-0.0069249254 -0.27904832 0.057071198
-0.0059029595 -0.27887991 0.057066377
-0.0065908674 -0.27882883 0.058865346
-0.005368229 -0.27898484 0.059326343
-0.0061513437 -0.27901727 0.060313169
-0.005184527 -0.27883577 0.060994934
-0.0034632639 -0.27854756 0.061719518
-0.0042872257 -0.27898833 0.06255316
-0.0027093394 -0.27912313 0.06313277
-0.0011938883 -0.27876219 0.063207738
0 -0.27856469 0.063457288
-0.00067418098 -0.27936509 0.064282134
0 -0.27911231 0.064066134
-0.0023163452 -0.28160888 -0.06616772
-0.00055995258 -0.28114942 -0.066375591
-0.0046351156 -0.28129801 -0.064534701
-0.002965661 -0.2809028 -0.064827561
-0.0010204539 -0.28063989 -0.065510958
0 -0.28124663 -0.06543982
-0.0062526655 -0.28137359 -0.062358741
-0.004880622 -0.28105098 -0.06294214
-0.0035534929 -0.28064579 -0.063817941
-0.006690179 -0.28127089 -0.061075177
-0.0054424983 -0.2810322 -0.061484322
-0.0069362866 -0.28117898 -0.058979336
-0.0059244479 -0.28072178 -0.058727585
-0.0068168328 -0.28080237 -0.057005577
-0.0056194626 -0.28112575 -0.05671801
-0.0062597203 -0.28070134 -0.055003773
-0.0051006977 -0.28113559 -0.054710172
-0.0048095481 -0.28082547 -0.053372648
-0.0031537977 -0.28077129 -0.05252184
-0.0016587664 -0.28140277 -0.052222643
-0.0043592779 -0.2801373 -0.051725287
-0.0028634882 -0.28104877 -0.051277056
-0.0012046592 -0.2807698 -0.051382195
0 -0.28101805 -0.05077773
-0.0017999999 -0.2806789 -0.049118027
0 -0.28077278 -0.049384367
-0.0017999999 -0.28102565 -0.046887934
0 -0.28096274 -0.047231197
-0.0018000002 -0.28098854 -0.045160294
0 -0.2809298 -0.044660486
-0.0018000001 -0.28098974 -0.042917173
0 -0.28122643 -0.043144327
-0.0018000002 -0.28121623 -0.04087941
0 -0.2806845 -0.040653173
-0.0018 -0.28107494 -0.038879815
0 -0.28123748 -0.038863081
-0.0018000002 -0.28101265 -0.036977749
0 -0.28085211 -0.036691539
-0.0018000001 -0.28102994 -0.035129387
0 -0.28084031 -0.035251305
-0.0018000002 -0.28111213 -0.033007897
0 -0.28115892 -0.033202592
-0.0018000001 -0.28097576 -0.031249369
0 -0.28095064 -0.030901913
-0.0018000001 -0.28123102 -0.029109942
0 -0.28094316 -0.029237432
-0.0018 -0.2813969 -0.026865181
0 -0.28109932 -0.027430015
-0.0017999999 -0.28073746 -0.024952397
0 -0.28119206 -0.024923274
-0.0018000001 -0.28079501 -0.023036772
0 -0.28111377 -0.022995867
-0.0017999999 -0.28105435 -0.020925704
0 -0.28120345 -0.021017956
-0.0018 -0.28097609 -0.019145669
0 -0.28085512 -0.018869219
-0.0018000001 -0.28036737 -0.017307164
0 -0.2811746 -0.01698586
-0.0018 -0.28107044 -0.014854071
0 -0.28106689 -0.014621194
-0.0018000002 -0.28090525 -0.013047908
0 -0.28090784 -0.012885361
-0.0017999999 -0.28080612 -0.01118674
0 -0.28098699 -0.01091579
-0.0018000002 -0.28112075 -0.0089202151
0 -0.28112191 -0.0089738304
-0.0018000002 -0.28091991 -0.0069811512
0 -0.28067064 -0.0071597723
-0.0018000001 -0.28100947 -0.0052844905
0 -0.28127724 -0.004521274
-0.0017999999 -0.28087464 -0.003291388
0 -0.28084946 -0.0031714088
-0.0018000001 -0.28108472 -0.0012170525
0 -0.28096062 -0.0011482961
-0.0018000001 -0.28080136 0.00085292611
0 -0.2808648 0.0010049692
-0.0018 -0.28093195 0.0026815094
0 -0.28111321 0.0029636959
-0.0017999999 -0.2810412 0.0047244364
0 -0.28115526 0.0051977807
-0.0018000001 -0.28108042 0.0072038476
0 -0.28114179 0.0070239119
-0.0018000002 -0.28089371 0.0088860253
0 -0.28128922 0.0091604991
-0.0018000001 -0.28095859 0.011227914
0 -0.28120321 0.011250237
-0.0018 -0.28160176 0.013091407
0 -0.28091601 0.012972868
-0.0018 -0.28118122 0.015177749
0 -0.28074276 0.014788518
-0.0018000001 -0.28075188 0.017284051
0 -0.28089347 0.016897148
-0.0017999999 -0.28084728 0.018878954
0 -0.28084558 0.019081306
-0.0018000001 -0.28070331 0.020704867
0 -0.28117776 0.021002678
-0.0018000002 -0.28105202 0.022977361
0 -0.28079304 0.023294266
-0.0017999999 -0.28117654 0.024844563
0 -0.2811071 0.025338881
-0.0018000001 -0.28119749 0.027159132
0 -0.28066602 0.027125342
-0.0018 -0.28079599 0.028821712
0 -0.28053313 0.029183058
-0.0018 -0.28129649 0.030899012
0 -0.28089386 0.031395823
-0.0018 -0.28081402 0.033098396
0 -0.28109393 0.032958433
-0.0017999999 -0.28080735 0.035146035
0 -0.28127661 0.034995161
-0.0018000002 -0.28096026 0.037087593
0 -0.28124309 0.037079763
-0.0018 -0.28085992 0.0391885
0 -0.28112385 0.038855165
-0.0018 -0.28088057 0.041145138
0 -0.28120515 0.041085802
-0.0018000002 -0.2809661 0.043334685
0 -0.28100783 0.043024566
-0.0017999999 -0.2812697 0.045217011
0 -0.28073615 0.045095213
-0.0018 -0.28091565 0.046894077
0 -0.28083846 0.047008898
-0.003165755 -0.28047705 0.049642358
-0.0015911264 -0.28067955 0.049155887
0 -0.28072366 0.049326271
-0.0048089661 -0.2803767 0.051130157
-0.0029781307 -0.28113315 0.050818317
-0.0012870573 -0.28130558 0.050781142
0 -0.28172132 0.050466515
-0.0061482368 -0.28065029 0.053353883
-0.0050784312 -0.28104025 0.052791066
-0.0065448559 -0.28109819 0.054815497
-0.0054468787 -0.28102931 0.054769531
-0.0069474392 -0.28080329 0.057102822
-0.0059106289 -0.28113621 0.057103265
-0.0068249009 -0.28118774 0.059087876
-0.005862595 -0.28127414 0.058712993
-0.006300319 -0.28125772 0.060899649
-0.0052591139 -0.28094995 0.061272275
-0.0046190838 -0.28098118 0.062586047
-0.0033095877 -0.28094259 0.063142687
-0.0010087718 -0.28035414 0.063536376
-0.0032075748 -0.28124923 0.064244941
-0.001080225 -0.2812109 0.064684436
0 -0.28046063 0.064275265
-0.0040221349 -0.28377017 -0.066127829
-0.0026846321 -0.28302193 -0.066576332
-0.0010379199 -0.28304783 -0.066735633
0 -0.28311643 -0.066758066
-0.004812656 -0.28288481 -0.064849652
-0.0031797823 -0.28301609 -0.065255061
-0.0011528231 -0.28259432 -0.065775841
0 -0.28243339 -0.06579835
-0.0065145483 -0.28305417 -0.062408466
-0.0053519113 -0.28298491 -0.063364469
-0.0068286392 -0.2826896 -0.061182756
-0.0058381883 -0.28340787 -0.061069451
-0.0069242599 -0.28297815 -0.058933012
-0.0058972719 -0.28310886 -0.058937658
-0.0065684514 -0.28285703 -0.057173509
-0.0054825102 -0.28275114 -0.057119101
-0.0050454983 -0.28298682 -0.055441927
-0.0030561395 -0.28319365 -0.054281708
-0.0044721789 -0.2823039 -0.053507395
-0.0026787804 -0.28292605 -0.053299338
-0.00098196534 -0.28305301 -0.053120613
0 -0.2832202 -0.05250312
-0.0022159801 -0.28231174 -0.051880185
-0.0018000001 -0.28279263 -0.050942391
0 -0.28343251 -0.050741456
-0.0017999999 -0.28270945 -0.048842151
0 -0.28298712 -0.048837982
-0.0018000003 -0.28297102 -0.046879366
0 -0.28348267 -0.046540692
-0.0018 -0.28266099 -0.04484931
0 -0.28287151 -0.044918247
-0.0018 -0.28305405 -0.043085694
0 -0.28301054 -0.043096446
-0.0018 -0.2826781 -0.041032117
0 -0.28319085 -0.040937893
-0.0018000002 -0.28303576 -0.039324012
0 -0.28263298 -0.039053969
-0.0018000001 -0.28286693 -0.037024021
0 -0.28319347 -0.037022993
-0.0018 -0.28303391 -0.034810089
0 -0.282731 -0.034944966
-0.0018000002 -0.28305605 -0.032951299
0 -0.28289023 -0.033128761
-0.0017999999 -0.28337818 -0.030757869
0 -0.28306681 -0.030849835
-0.0018 -0.28287885 -0.028926617
0 -0.28276137 -0.029105298
-0.0017999999 -0.28302801 -0.026664745
0 -0.28294805 -0.027091891
-0.0018000002 -0.2829487 -0.024990063
0 -0.28319687 -0.024839897
-0.0018000001 -0.28313851 -0.023105165
0 -0.28324077 -0.023078324
-0.0018000002 -0.28282857 -0.021262199
0 -0.28317526 -0.020934822
-0.0017999999 -0.28303027 -0.019140581
0 -0.28287429 -0.018905465
-0.0018000002 -0.28288534 -0.017075434
0 -0.283234 -0.016827689
-0.0018 -0.28291354 -0.01513203
0 -0.28288937 -0.014776829
-0.0017999999 -0.28308311 -0.01328382
0 -0.28272733 -0.013175872
-0.0018000003 -0.28313741 -0.011249359
0 -0.28279087 -0.011128783
-0.0017999999 -0.28324065 -0.0092551997
0 -0.28306919 -0.0093827695
-0.0018000002 -0.28321746 -0.0071878126
0 -0.28319871 -0.0070056426
-0.0018000002 -0.28300017 -0.0046201041
0 -0.28290156 -0.005037602
-0.0017999999 -0.28311267 -0.0028891924
0 -0.28282616 -0.0029703695
-0.0018 -0.28327641 -0.00096746627
0 -0.28341064 -0.0011583624
-0.0018000001 -0.28274673 0.00086598727
0 -0.28297028 0.00088346546
-0.0018 -0.28291422 0.0030381342
0 -0.28255683 0.0026673812
-0.0018 -0.28315634 0.0053502498
0 -0.28288853 0.0049200533
-0.0018000003 -0.28304517 0.0068008234
0 -0.28318512 0.0069935857
-0.0018 -0.2830795 0.0091204373
0 -0.28305039 0.0090530617
-0.0018000002 -0.28286949 0.010783399
0 -0.28320721 0.010594791
-0.0018 -0.28310734 0.013243433
0 -0.28296253 0.013359602
-0.0018000003 -0.28269976 0.014959839
0 -0.28279451 0.015073151
-0.0018000001 -0.28294164 0.01737991
0 -0.2833457 0.016886769
-0.0017999999 -0.28317973 0.018952807
0 -0.28260532 0.019142183
-0.0018 -0.28328976 0.021190755
0 -0.28281227 0.020859849
-0.0018000001 -0.28325796 0.022866465
0 -0.28300533 0.022960955
-0.0017999999 -0.28340355 0.024947258
0 -0.28311196 0.025180483
-0.0017999999 -0.28302234 0.027088283
0 -0.28286901 0.026732944
-0.0018000001 -0.28308198 0.028871141
0 -0.2833724 0.029187109
-0.0018 -0.28270635 0.030793201
0 -0.28313011 0.030947702
-0.0018 -0.28299445 0.032608505
0 -0.28319973 0.033165406
-0.0018000002 -0.28312975 0.035114583
0 -0.28297561 0.03502411
-0.0018000001 -0.28255063 0.03722908
0 -0.28300968 0.037159286
-0.0017999999 -0.28316632 0.039225914
0 -0.28326181 0.038855493
-0.0018000002 -0.28325322 0.041279711
0 -0.28270251 0.041091189
-0.0018 -0.28304482 0.042982083
0 -0.28331837 0.042931136
-0.0018 -0.28330269 0.045423988
0 -0.28301761 0.044837046
-0.0017999999 -0.28316948 0.047032628
0 -0.28289667 0.046930648
-0.0018 -0.28298619 0.048462633
0 -0.28328303 0.049377818
-0.0030130616 -0.28271437 0.051228736
-0.0014269622 -0.28286284 0.051062971
0 -0.28303441 0.051367331
-0.0049776109 -0.28287455 0.053265281
-0.0035421543 -0.2830852 0.052981913
-0.0012144104 -0.28355113 0.052343499
-0.006341618 -0.28310731 0.055313397
-0.0050842795 -0.2833347 0.054941349
-0.0068779173 -0.28280762 0.057165053
-0.0057899128 -0.28316438 0.056996863
-0.0069263764 -0.28308472 0.058944851
-0.0059113372 -0.28304443 0.058732878
-0.0065137045 -0.28297129 0.061066851
-0.0052957381 -0.28286898 0.061209749
-0.0061156 -0.2833128 0.062224139
-0.0047762184 -0.28300893 0.062741876
-0.0035447471 -0.28262818 0.063332051
-0.0040070121 -0.28239655 0.064196713
-0.0027920774 -0.28298482 0.064955942
-0.001063894 -0.28289351 0.065086
0 -0.28331363 0.065471396
-0.00066685898 -0.28559625 -0.068197884
0 -0.28552037 -0.068047166
-0.0044231103 -0.2849752 -0.066270456
-0.0029980892 -0.28523678 -0.067031406
-0.00097366318 -0.28494868 -0.067180052
0 -0.28497362 -0.067401633
-0.0062227855 -0.28560495 -0.064215221
-0.0051810686 -0.2849552 -0.06502717
-0.0035808941 -0.28466955 -0.065447241
-0.0065409164 -0.28492975 -0.063090786
-0.0055947881 -0.28505141 -0.062725104
-0.0069421628 -0.28522536 -0.060983013
-0.0059053334 -0.2849206 -0.0612868
-0.0068229549 -0.28496817 -0.058982875
-0.0057238825 -0.28492096 -0.058915894
-0.0063268724 -0.28447989 -0.057166778
-0.0052998587 -0.28522414 -0.056631375
-0.0044067111 -0.28452715 -0.055176459
-0.0031193951 -0.28496 -0.054921791
-0.0012187449 -0.28504047 -0.054302473
-0.0027967978 -0.28449658 -0.053537942
-0.0017896442 -0.28495625 -0.053055376
0 -0.28497526 -0.052932259
-0.0018 -0.28492677 -0.051177152
0 -0.28492522 -0.051291361
-0.0018 -0.28508621 -0.049586076
0 -0.28511456 -0.049119014
-0.0018000003 -0.2848016 -0.046782877
0 -0.28471613 -0.047071654
-0.0018000001 -0.2851918 -0.044921551
0 -0.28479305 -0.044934291
-0.0017999999 -0.28505433 -0.043045856
0 -0.28527021 -0.043295193
-0.0018 -0.28530091 -0.040828399
0 -0.28526568 -0.041061927
-0.0018000001 -0.28476998 -0.038715154
0 -0.28499347 -0.038944647
-0.0018000001 -0.2849977 -0.037156846
0 -0.28496125 -0.037099414
-0.0017999999 -0.28507647 -0.035179179
0 -0.28489536 -0.035133038
-0.0017999999 -0.2851392 -0.032738175
0 -0.28518376 -0.033225548
-0.0018 -0.28513658 -0.031113053
0 -0.28494832 -0.03114837
-0.0017999999 -0.28504318 -0.02907398
0 -0.28519827 -0.028965317
-0.0018 -0.28575218 -0.026772408
0 -0.28512198 -0.026835352
-0.0018000001 -0.28506422 -0.025133763
0 -0.28485149 -0.024872698
-0.0018000004 -0.2850422 -0.022714926
0 -0.28495601 -0.022981867
-0.0017999999 -0.28486556 -0.020881791
0 -0.28513396 -0.021048317
-0.0017999999 -0.28489637 -0.019223759
0 -0.28491619 -0.018808004
-0.0018000002 -0.28522328 -0.017184941
0 -0.2847279 -0.017176442
-0.0017999999 -0.28471601 -0.01482795
0 -0.28462994 -0.014237028
-0.0018000001 -0.28516325 -0.01292591
0 -0.28546789 -0.012969869
-0.0018 -0.28528446 -0.011227392
0 -0.28496709 -0.011111136
-0.0018000001 -0.28484097 -0.0089446679
0 -0.28497937 -0.0092054484
-0.0018 -0.28516811 -0.0072616232
0 -0.28480294 -0.00703303
-0.0018 -0.28531399 -0.0050338465
0 -0.28512517 -0.0051170392
-0.0018000001 -0.28499341 -0.0029381823
0 -0.28497094 -0.0028140908
-0.0018000001 -0.28459671 -0.0010588879
0 -0.28488329 -0.00080333336
-0.0018000002 -0.28494036 0.00093478383
0 -0.28498179 0.00094091409
-0.0018 -0.28523165 0.0029282905
0 -0.28505474 0.0030371731
-0.0018 -0.28479505 0.0048881643
0 -0.28486618 0.0049245968
-0.0017999999 -0.28512052 0.0071794633
0 -0.28488871 0.0066559813
-0.0018000002 -0.28506923 0.0088853985
0 -0.28505847 0.0090918969
-0.0017999999 -0.28498891 0.010918364
0 -0.2847431 0.010788638
-0.0018000001 -0.28478149 0.013089393
0 -0.28478429 0.012908696
-0.0018000003 -0.28488255 0.015084707
0 -0.28500554 0.014927831
-0.0018000001 -0.28477189 0.017074797
0 -0.2847141 0.016770488
-0.0018 -0.28474191 0.019281169
0 -0.28516316 0.018968605
-0.0018 -0.28481683 0.020835862
0 -0.28478757 0.020851063
-0.0018 -0.28480217 0.022688635
0 -0.28472608 0.023333749
-0.0018 -0.28502628 0.025314875
0 -0.28521669 0.025086923
-0.0017999999 -0.28457555 0.026833551
0 -0.28484538 0.026979871
-0.0017999999 -0.28473979 0.029211802
0 -0.28486028 0.028917735
-0.0018 -0.28547701 0.030937109
0 -0.28512424 0.031198233
-0.0018 -0.28509757 0.03317422
0 -0.28486547 0.032877039
-0.0017999999 -0.28495708 0.035182402
0 -0.28509864 0.035221875
-0.0018 -0.28507853 0.036927275
0 -0.28503236 0.03703985
-0.0017999999 -0.28487965 0.039089043
0 -0.28506643 0.039364725
-0.0018 -0.28474277 0.041061018
0 -0.28496549 0.040835567
-0.0018 -0.28490824 0.042966451
0 -0.28492528 0.042875431
-0.0018000002 -0.28506371 0.045074962
0 -0.28478977 0.045047145
-0.0017999999 -0.28518155 0.046848617
0 -0.28520989 0.046767235
-0.0018000002 -0.28498438 0.048810046
0 -0.28507185 0.048972122
-0.0023323197 -0.28435531 0.051868387
-0.0018 -0.28522983 0.050887633
0 -0.28488845 0.051093567
-0.0045738304 -0.28523263 0.053721685
-0.0029133421 -0.28522497 0.053097356
-0.001148249 -0.2847504 0.052778255
0 -0.2850827 0.052490097
-0.0061254399 -0.28466159 0.055439636
-0.0051590712 -0.28482285 0.054961678
-0.0035991501 -0.28505495 0.05415874
-0.0066897864 -0.2850942 0.057209816
-0.0055895695 -0.28519714 0.057102807
-0.0069397902 -0.28508118 0.059013929
-0.0059425379 -0.28477922 0.059069622
-0.0066993758 -0.28543949 0.061478239
-0.0057073147 -0.28485876 0.060841233
-0.0064024078 -0.2850371 0.06221842
-0.0051092491 -0.28525469 0.063171417
-0.0036835009 -0.28427443 0.063904434
-0.0046879905 -0.28532484 0.064792678
-0.0029721465 -0.2851218 0.065201029
-0.0012033567 -0.28513938 0.06548626
0 -0.28432232 0.065609269
-0.0026692136 -0.28548318 0.066254154
-0.001041764 -0.28491145 0.066498689
0 -0.28556952 0.066531315
-0.0028069539 -0.28739506 -0.068327151
-0.00094487227 -0.28710938 -0.068774447
0 -0.28781289 -0.06864772
-0.0047492073 -0.28739429 -0.066935129
-0.0031649962 -0.28676367 -0.066767029
-0.001386764 -0.28691223 -0.06751889
-0.0062855668 -0.2870104 -0.06462419
-0.005040972 -0.28688142 -0.065223366
-0.0068204906 -0.28722489 -0.062877297
-0.005762984 -0.28714731 -0.062911168
-0.006946296 -0.28701824 -0.061135195
-0.0058920155 -0.28688547 -0.060789313
-0.0066513736 -0.287146 -0.059152644
-0.0055737942 -0.28670141 -0.058993638
-0.0062472015 -0.2867201 -0.057874616
-0.0051238318 -0.28710479 -0.057090387
-0.0035608881 -0.28745115 -0.056424689
-0.0045368867 -0.28664345 -0.055608463
-0.0032756596 -0.28676248 -0.054978203
-0.0013133943 -0.28689292 -0.054959483
0 -0.28706661 -0.05464188
-0.0018088699 -0.28682283 -0.052930009
0 -0.2869612 -0.052924775
-0.0018 -0.28709507 -0.0509164
0 -0.28699034 -0.05096459
-0.0018 -0.28702167 -0.048869405
0 -0.28717768 -0.048747163
-0.0018000001 -0.2869094 -0.046964787
0 -0.2871086 -0.047224417
-0.0018000002 -0.28697652 -0.04475959
0 -0.2869052 -0.045063991
-0.0018 -0.2867592 -0.043044981
0 -0.28710639 -0.043217123
-0.0018 -0.28686291 -0.04096527
0 -0.286856 -0.041221429
-0.0018000001 -0.28723404 -0.038983647
0 -0.28684977 -0.039381083
-0.0018000002 -0.28683954 -0.037101083
0 -0.28708661 -0.037004665
-0.0017999999 -0.28706148 -0.035072062
0 -0.28675577 -0.034939982
-0.0018 -0.28689691 -0.032770686
0 -0.28685641 -0.032638147
-0.0018000001 -0.28688538 -0.031079652
0 -0.28705451 -0.031413443
-0.0017999999 -0.28709811 -0.028743485
0 -0.28699145 -0.029090961
-0.0018 -0.28694439 -0.026856627
0 -0.28710803 -0.026996091
-0.0018 -0.28703243 -0.025153063
0 -0.2871367 -0.024916189
-0.0017999999 -0.28723881 -0.023125414
0 -0.28690982 -0.02293323
-0.0018000002 -0.28705946 -0.021174228
0 -0.2867316 -0.020708686
-0.0017999999 -0.28684726 -0.018870998
0 -0.28728148 -0.018885195
-0.0018000001 -0.28672689 -0.017065788
0 -0.2869339 -0.017075337
-0.0018000002 -0.28692487 -0.014861919
0 -0.28675222 -0.014874937
-0.0018000001 -0.28681064 -0.012997101
0 -0.28690854 -0.012893379
-0.0017999999 -0.28713021 -0.010566033
0 -0.28653547 -0.010979962
-0.0018 -0.28665578 -0.0089973109
0 -0.28695163 -0.0089621618
-0.0018000001 -0.28703392 -0.00686908
0 -0.28685933 -0.0068634637
-0.0018 -0.28730908 -0.0051374058
0 -0.28692845 -0.0047335522
-0.0018 -0.28677747 -0.0026538444
0 -0.2872929 -0.0028927154
-0.0018000002 -0.28667966 -0.001132553
0 -0.28709552 -0.0010879731
-0.0018 -0.28689414 0.0010471008
0 -0.28692883 0.0010723518
-0.0018 -0.28705272 0.0028009345
0 -0.28723565 0.0032804389
-0.0017999999 -0.2868942 0.0050874068
0 -0.28701413 0.0048215454
-0.0017999999 -0.28715283 0.007033438
0 -0.28706029 0.006762696
-0.0018000002 -0.28700736 0.0090695675
0 -0.28677526 0.0089360029
-0.0017999999 -0.28710604 0.010491498
0 -0.28642675 0.01042342
-0.0018 -0.28747901 0.012878404
0 -0.28699234 0.01297526
-0.0018 -0.28703147 0.01518137
0 -0.28743461 0.015022193
-0.0018 -0.28711107 0.017231558
0 -0.28701827 0.01711325
-0.0018000003 -0.28691876 0.018812167
0 -0.28682461 0.018694278
-0.0018 -0.28692356 0.021051468
0 -0.28689793 0.020793814
-0.0018 -0.28696707 0.022785923
0 -0.28693905 0.022922011
-0.0018000002 -0.28711691 0.024981515
0 -0.28720236 0.02475762
-0.0017999999 -0.28681076 0.027119448
0 -0.28698283 0.026902914
-0.0018 -0.2868259 0.029290332
0 -0.28724369 0.028985031
-0.0018 -0.28667048 0.030574229
0 -0.28690115 0.031175988
-0.0018 -0.28692901 0.032707006
0 -0.28666866 0.033049397
-0.0018 -0.28714618 0.034794003
0 -0.28702089 0.034847829
-0.0018000001 -0.28676581 0.037207168
0 -0.28733903 0.036798183
-0.0018 -0.28682694 0.038697142
0 -0.28727683 0.03914883
-0.0018000003 -0.28703994 0.040772732
0 -0.28700671 0.04131737
-0.0018 -0.28715616 0.043297097
0 -0.28708911 0.043579672
-0.0017999999 -0.28744218 0.04510656
0 -0.28701088 0.044716273
-0.0018000003 -0.28722617 0.046947882
0 -0.28714168 0.047056627
-0.0018000002 -0.28674868 0.048880804
0 -0.28722906 0.048938747
-0.0018 -0.28706449 0.051310401
0 -0.28714848 0.051140733
-0.0042653829 -0.28634563 0.053898692
-0.0028231819 -0.28692707 0.053236403
-0.0010518755 -0.28700519 0.053311653
0 -0.28716427 0.053096436
-0.0048435302 -0.28686741 0.055142283
-0.0031247938 -0.28710043 0.054601971
-0.00099316577 -0.28764126 0.054055423
0 -0.28779382 0.05400667
-0.0063406336 -0.28740156 0.057086255
-0.0052549909 -0.28713763 0.056952436
-0.0068998369 -0.28747326 0.05925896
-0.0058429213 -0.28703925 0.05879277
-0.0068646255 -0.28698131 0.061306894
-0.0058470014 -0.28700328 0.061155155
-0.0064853374 -0.28693223 0.062753819
-0.005316129 -0.28694507 0.063108429
-0.0048808195 -0.28689429 0.06499286
-0.0031081573 -0.2871916 0.065554693
-0.0018490142 -0.28640521 0.065902419
-0.0041756714 -0.28791314 0.06634815
-0.0028977622 -0.28696677 0.066544361
-0.00059948146 -0.28698507 0.066917494
0 -0.28718561 0.067165598
-0.00069267454 -0.28998798 -0.070010789
-0.0042279246 -0.28945583 -0.068290226
-0.0028791723 -0.2892639 -0.068792574
-0.0010592693 -0.28891832 -0.068951681
0 -0.2889134 -0.068989754
-0.0050782398 -0.28893569 -0.066843897
-0.0029296495 -0.28870106 -0.067573935
-0.006455584 -0.28917015 -0.06506478
-0.0053074914 -0.28893715 -0.064990759
-0.0069017089 -0.28909451 -0.063139819
-0.0058476827 -0.28881019 -0.063228659
-0.0068391203 -0.28926963 -0.060786989
-0.005835948 -0.28906196 -0.061022468
-0.0064692148 -0.28874153 -0.059261959
-0.0050478927 -0.28944877 -0.058831949
-0.004864715 -0.2890484 -0.057296693
-0.0032178485 -0.2892364 -0.056767534
-0.001220379 -0.28947806 -0.056130931
-0.00272934 -0.2892814 -0.055602126
-0.0013446779 -0.28861672 -0.055289865
0 -0.2892926 -0.054591503
-0.0017999999 -0.2891112 -0.053044498
0 -0.2893832 -0.052890632
-0.0018 -0.28908157 -0.051262241
0 -0.28894794 -0.050880309
-0.0018 -0.2890729 -0.049043939
0 -0.28919518 -0.048855141
-0.0018 -0.28929162 -0.047035992
0 -0.28940827 -0.047092795
-0.0017999999 -0.28865868 -0.04476073
0 -0.28873494 -0.0453659
-0.0017999999 -0.28864247 -0.042861599
0 -0.28927714 -0.042689983
-0.0017999999 -0.28906545 -0.041301124
0 -0.28909126 -0.040739898
-0.0017999999 -0.28902799 -0.038901571
0 -0.2888824 -0.038879242
-0.0018000003 -0.28909782 -0.03679077
0 -0.28902242 -0.037033163
-0.0018 -0.28923985 -0.035231888
0 -0.28910872 -0.034509126
-0.0018000002 -0.28910753 -0.032857705
0 -0.28916833 -0.032993887
-0.0018 -0.28921133 -0.030960932
0 -0.28883296 -0.031122522
-0.0018000002 -0.28917858 -0.029023143
0 -0.28894156 -0.02917386
-0.0018 -0.28875858 -0.026954945
0 -0.28928044 -0.026613349
-0.0017999999 -0.28936785 -0.024835749
0 -0.28904006 -0.025033005
-0.0018 -0.28906184 -0.023104554
0 -0.28914729 -0.023106324
-0.0018 -0.28903019 -0.021000547
0 -0.28873974 -0.020854788
-0.0018 -0.28905484 -0.019226365
0 -0.28890783 -0.018997423
-0.0018000001 -0.28943115 -0.016659113
0 -0.28872785 -0.017215101
-0.0018 -0.28899887 -0.014762215
0 -0.28882274 -0.015020956
-0.0018 -0.28922477 -0.012854316
0 -0.28908011 -0.013112816
-0.0017999999 -0.28903231 -0.010665147
0 -0.28916094 -0.010642446
-0.0018000001 -0.28896606 -0.0094538406
0 -0.28919351 -0.0087697748
-0.0017999999 -0.28898343 -0.0068284078
0 -0.28911269 -0.0071382546
-0.0018000003 -0.28894305 -0.0049130921
0 -0.28902623 -0.004914267
-0.0018000003 -0.28899568 -0.0031157176
0 -0.28935936 -0.002745152
-0.0018 -0.28913796 -0.00096830534
0 -0.28904223 -0.0011687726
