# .PCD v0.7 - Point Cloud Data file format
VERSION 0.7
FIELDS x y z
SIZE 4 4 4
TYPE F F F
COUNT 1 1 1
WIDTH 1255
HEIGHT 1
VIEWPOINT 0 0 0 1 0 0 0
POINTS 1255
DATA ascii
-0.0059999996 -0.098980822 -0.0051782592
-0.0070000002 -0.099099219 -0.003168101
-0.0059999991 -0.098941289 -0.0029257801
-0.006431561 -0.098660484 -0.0020003573
-0.0048776083 -0.09884306 -0.0020003582
-0.0027726218 -0.099118136 -0.001636651
-0.0018880528 -0.099399678 -0.00069279043
-0.0051038461 -0.098619014 0.0019996429
-0.0027706164 -0.099051267 0.0016635917
-0.0018086722 -0.098508537 0.00043242957
-0.006860395 -0.099183269 0.0022446194
-0.0053757615 -0.098744467 0.0025650386
-0.0038769611 -0.099619716 0.0019996394
-0.0069975606 -0.098952621 0.0050504976
-0.0060000005 -0.099109299 0.0050549433
-0.0065624476 -0.09918122 0.0069180573
-0.0053741219 -0.098923527 0.0071031405
-0.0032649362 -0.098870255 0.0077655762
-0.0045494689 -0.09904401 0.0083988653
-0.0025739965 -0.099202178 0.0086148633
-0.0008512981 -0.098860808 0.0091551719
0 -0.099169582 0.0094770323
-0.0053758528 -0.10082275 -0.0080438256
-0.0025712708 -0.10109255 -0.0087544434
-0.0011317099 -0.10101765 -0.0090031447
0 -0.10057946 -0.0095400726
-0.0064978963 -0.101004 -0.0069912458
-0.005386068 -0.10087072 -0.0070907325
-0.0034893423 -0.1012698 -0.0076790969
-0.0070000002 -0.10103132 -0.0048394138
-0.0059999996 -0.10106134 -0.0050096083
-0.0070000002 -0.10080651 -0.0029838327
-0.0060000005 -0.10116328 -0.002930756
-0.0067641675 -0.10102148 -0.0020003661
-0.0049356478 -0.1010185 -0.0020003659
-0.0029051842 -0.10071572 -0.0016912188
-0.0018457467 -0.10096683 -0.00055476598
-0.0025715814 -0.10084612 0.0015244682
-0.0017628465 -0.10104519 0.00028842236
-0.0068262666 -0.10082227 0.0026171315
-0.0053966884 -0.10090069 0.0023376467
-0.003856099 -0.10090559 0.0019996348
-0.0069957501 -0.10081706 0.0049823872
-0.0059999996 -0.10108766 0.0051971506
-0.0066578714 -0.10108931 0.0067373994
-0.0054137288 -0.10099505 0.0071466262
-0.003202884 -0.10103405 0.0077897231
-0.0045696525 -0.101025 0.0083946418
-0.0028731485 -0.10091028 0.0087952139
-0.00086421031 -0.10123901 0.0093322089
0 -0.10124397 0.009448804
-0.0024302911 -0.10309631 -0.0086303717
-0.00087552087 -0.10289971 -0.0091662593
0 -0.10269127 -0.0096443417
-0.0065360693 -0.10294703 -0.006957504
-0.0052918671 -0.10298847 -0.0071390709
-0.0033122415 -0.10332715 -0.0077410908
-0.0069999998 -0.10325935 -0.0048957532
-0.0059999996 -0.10293964 -0.0050872909
-0.0069764741 -0.10292628 -0.0029064757
-0.0059657451 -0.10304814 -0.0031154032
-0.0064134696 -0.1030117 -0.0020003731
-0.0046969377 -0.10292571 -0.0020003729
-0.0029902156 -0.10310725 -0.0017387714
-0.0018211271 -0.10301167 -0.00048537002
-0.0052004652 -0.10349781 0.0019996252
-0.0026527424 -0.10304588 0.0015377183
-0.0018983743 -0.10333093 0.0007215325
-0.0067074043 -0.10298324 0.002534708
-0.0055843336 -0.10319129 0.0023446977
-0.0037982317 -0.10331808 0.0019996262
-0.0069977948 -0.10285929 0.0048194914
-0.0059999996 -0.10294642 0.0051795645
-0.006496157 -0.10277368 0.0070769652
-0.0052640038 -0.10296812 0.0070630088
-0.0036277419 -0.10287981 0.0076350942
-0.004690025 -0.10319151 0.0083516818
-0.0027460828 -0.10296811 0.0086136479
-0.00095624395 -0.10292383 0.0090785874
0 -0.10285824 0.0094215823
-0.0054106656 -0.10551284 -0.0080254553
-0.0027686823 -0.10513068 -0.0087803546
-0.0010680843 -0.10499728 -0.0090324413
0 -0.10461705 -0.0093978653
-0.0064785578 -0.10515933 -0.0070263385
-0.0054638353 -0.10489543 -0.0070699858
-0.0033966023 -0.10501625 -0.0077115698
-0.0069974018 -0.10489061 -0.0047606877
-0.0059999996 -0.10509901 -0.0050107273
-0.0069787637 -0.10506614 -0.0028452598
-0.0059999991 -0.10481501 -0.0028754778
-0.0063611264 -0.10497575 -0.0020003803
-0.0048005916 -0.1050622 -0.0020003805
-0.0028618921 -0.10496419 -0.0016663962
-0.0018672263 -0.10498117 -0.00063383201
-0.005401358 -0.10462449 0.001999621
-0.0027451026 -0.10511882 0.0016397884
-0.0018077166 -0.10497608 0.0004519182
-0.0067731305 -0.10481784 0.0026563662
-0.0051695956 -0.1050299 0.0021789623
-0.0069985748 -0.10514207 0.0051380061
-0.0060000001 -0.10496622 0.0050202827
-0.0066775093 -0.10488556 0.0067812135
-0.005506733 -0.10498207 0.0069511519
-0.0033972841 -0.10513935 0.0077209459
-0.0047061183 -0.10505793 0.0083429934
-0.0025744794 -0.10504213 0.0086275088
-0.001028538 -0.10496352 0.009030031
0 -0.10497399 0.0097383596
-0.0027370146 -0.1070994 -0.0087942863
-0.00082888087 -0.10702602 -0.0091239782
0 -0.1069236 -0.0094599351
-0.0065543763 -0.10690192 -0.0069138147
-0.0053289467 -0.10698701 -0.0071765194
-0.0032761577 -0.10689422 -0.0077537326
-0.0069999998 -0.10700028 -0.0050677764
-0.0060000001 -0.10695246 -0.0050872797
-0.0070000002 -0.10689161 -0.0030479867
-0.0060000001 -0.10687611 -0.0029218127
-0.0038172044 -0.10791481 -0.002000391
-0.0064454447 -0.1069046 -0.0020003873
-0.0047061904 -0.10702816 -0.0020003875
-0.0030002429 -0.10697271 -0.0017203225
-0.0017938104 -0.10701776 -0.00039305512
-0.0041115205 -0.10773164 0.0019996099
-0.0026296247 -0.1068087 0.0015386418
-0.0017952452 -0.10706311 0.00038126364
-0.0067258552 -0.10708189 0.0027869504
-0.0054296977 -0.10695462 0.0023640725
-0.0037033067 -0.10727787 0.0019996117
-0.0069928379 -0.10705207 0.004871232
-0.006000001 -0.10713699 0.0051164078
-0.0064677261 -0.10656686 0.0071267225
-0.0054217777 -0.10702915 0.0070558037
-0.0032296332 -0.10736517 0.0077838474
-0.004785365 -0.10702531 0.0083160605
-0.002834609 -0.10696816 0.0087178033
-0.00098191877 -0.10688679 0.0093100378
0 -0.10718094 0.0094112884
-0.0054433267 -0.10806002 -0.0080094896
-0.0027569851 -0.10924482 -0.0086795669
-0.0010133923 -0.10906374 -0.0090706656
0 -0.10914342 -0.0093374196
-0.0066100028 -0.10895916 -0.0068307039
-0.0053454125 -0.1090121 -0.0071540866
-0.0031461508 -0.10886615 -0.0077992408
-0.0069917282 -0.10914212 -0.0052720183
-0.0059999991 -0.10925897 -0.0049738921
-0.0070000002 -0.10910103 -0.0029092701
-0.0059479447 -0.10880071 -0.0024437371
-0.0065095439 -0.10905175 -0.0020003952
-0.0048194146 -0.10890387 -0.0020003945
-0.0027950422 -0.10913569 -0.0016415397
-0.0018392152 -0.10908663 -0.00054662087
-0.0027951656 -0.10916739 0.0016704916
-0.0018934173 -0.10897665 0.00069460814
-0.0068528634 -0.10909862 0.0028340525
-0.0054322993 -0.10899014 0.0023039833
-0.00385303 -0.1087261 0.0019996066
-0.0069999998 -0.1090081 0.0048129098
-0.0059999991 -0.10906403 0.0050564897
-0.006516994 -0.10905257 0.0070543769
-0.005301734 -0.10921184 0.0071377638
-0.0033079558 -0.10909142 0.0077562449
-0.004744526 -0.10919134 0.0083312262
-0.003057777 -0.10907128 0.0087304544
-0.0008426024 -0.10884956 0.0089887101
0 -0.1087448 0.0094347904
-0.0025818921 -0.11115739 -0.0087724058
-0.0010747645 -0.11093394 -0.0090829702
0 -0.11101387 -0.0093594054
-0.0066268095 -0.11099069 -0.0068150763
-0.0053843828 -0.1111615 -0.0070560193
-0.0033297371 -0.11108773 -0.0077349949
-0.0069944817 -0.11077478 -0.0050344043
-0.0060000001 -0.11102449 -0.0048527201
-0.0069821053 -0.11119465 -0.0030982788
-0.0059623253 -0.11085846 -0.0030704942
-0.0065740533 -0.11094303 -0.0020004017
-0.005111699 -0.1108615 -0.0020004015
-0.0028924535 -0.11122477 -0.0016857042
-0.0018201699 -0.11076199 -0.00047626163
-0.006175485 -0.11090977 0.0019995985
-0.002678345 -0.11119249 0.0015752011
-0.0018679331 -0.11110395 0.00065778079
-0.0068932786 -0.11092573 0.002846706
-0.0054646055 -0.11074952 0.0025177111
-0.0038596301 -0.11084348 0.0019995989
-0.0069975923 -0.11114936 0.0050877505
-0.0060000001 -0.11061916 0.0049377363
-0.0066617392 -0.11122252 0.0067650471
-0.0054564108 -0.11092831 0.0071950355
-0.0034266929 -0.11066704 0.0077137286
-0.0047013303 -0.11081201 0.0083401632
-0.0028965068 -0.11114425 0.0089117056
-0.0010568571 -0.11115497 0.009260199
0 -0.11070476 0.0094992835
-0.0053912573 -0.11253186 -0.0080298586
-0.0028966377 -0.11304659 -0.0088075604
-0.0010906082 -0.11305473 -0.0091962703
0 -0.1126392 -0.0093825022
-0.0065344851 -0.1130173 -0.0069661238
-0.0053924355 -0.11311631 -0.0069507668
-0.0032645515 -0.11314172 -0.007757816
-0.0069912039 -0.11282743 -0.00508453
-0.0059999996 -0.11304417 -0.0050974567
-0.0070000002 -0.11309033 -0.002985074
-0.0059999996 -0.11302909 -0.0030786966
-0.0065440778 -0.1131382 -0.0020004099
-0.0051397495 -0.11312462 -0.0020004096
-0.0028882232 -0.11307383 -0.0016891275
-0.0018525617 -0.11304297 -0.00058621477
-0.0049081566 -0.11345407 0.0019995891
-0.0026408001 -0.11303025 0.0015867573
-0.0018748005 -0.11325224 0.00067743339
-0.00693329 -0.11312835 0.002873942
-0.005554541 -0.11301124 0.0025705977
-0.0038425145 -0.11257071 0.0019995926
-0.0070000002 -0.11304598 0.0049809557
-0.0059999991 -0.11308619 0.0049947109
-0.0067014322 -0.11282489 0.0066841021
-0.0052873855 -0.11308669 0.0071070273
-0.0032189828 -0.11310689 0.0077914549
-0.0048164716 -0.11258295 0.008302222
-0.0027634245 -0.11311549 0.0087099811
-0.00104871 -0.11306949 0.0090975575
0 -0.11295326 0.0095430883
-0.002691638 -0.11499657 -0.0087267794
-0.0010443983 -0.11510406 -0.0091146482
0 -0.11490205 -0.0096301632
-0.0065779253 -0.11490597 -0.0068921796
-0.005595671 -0.11502059 -0.0069988645
-0.0032490967 -0.11497799 -0.0077632326
-0.0069965473 -0.1150563 -0.0050243898
-0.0059999996 -0.11496104 -0.00492555
-0.0070000002 -0.11508735 -0.0029079064
-0.0059028426 -0.11519749 -0.0029807922
-0.0066008605 -0.11481667 -0.0020004159
-0.0050251009 -0.11498696 -0.0020004166
-0.0028466871 -0.1151096 -0.0016322295
-0.0017771339 -0.11464806 -0.00036189979
-0.0050809029 -0.11519217 0.0019995829
-0.0028728535 -0.11496682 0.0017427534
-0.0017878442 -0.11481541 0.00038333272
-0.0067913998 -0.11481788 0.0023759683
-0.0056556133 -0.1149589 0.0026002154
-0.0038059447 -0.11449974 0.0019995857
-0.0069989343 -0.11504608 0.0049316068
-0.0059999987 -0.11521494 0.0050314316
-0.0064782547 -0.11493082 0.0070701144
-0.0053835521 -0.11496312 0.0071358331
-0.0032647296 -0.11505005 0.0077759358
-0.0046983063 -0.11502569 0.0083435038
-0.0031560154 -0.11510373 0.0088453218
-0.0010396681 -0.11494347 0.009250477
0 -0.11512273 0.0093579544
-0.0027040646 -0.11707535 -0.0086871209
-0.00097327546 -0.11695284 -0.0091422973
0 -0.11705511 -0.0094394404
-0.0067087049 -0.11679659 -0.0066387202
-0.0053823572 -0.11696619 -0.0070081363
-0.0034155315 -0.11692801 -0.0077049877
-0.0069929082 -0.11671907 -0.0051269536
-0.0060000005 -0.11717066 -0.0050226408
-0.0069999998 -0.11676864 -0.0030070879
-0.0060000005 -0.11728361 -0.0030712574
-0.0066879205 -0.11698041 -0.0020004238
-0.0049664243 -0.11702783 -0.0020004241
-0.0027437145 -0.1174322 -0.0015541806
-0.0018175517 -0.11694127 -0.00046345615
-0.0029858695 -0.11708293 0.001799006
-0.0018589618 -0.11700495 0.00061406771
-0.0067906617 -0.11696529 0.0026911094
-0.0054576085 -0.11689321 0.0024153762
-0.0038170696 -0.11681334 0.0019995773
-0.0069983862 -0.11693113 0.0050407918
-0.0059999991 -0.11691733 0.00501263
-0.0066527496 -0.1171036 0.0067401775
-0.005231143 -0.117018 0.0072387462
-0.0033247555 -0.11671162 0.0077550006
-0.0046843207 -0.11670504 0.0083542364
-0.0028313908 -0.11705299 0.0088551911
-0.00089278509 -0.11705606 0.0091937566
0 -0.11688837 0.0096622827
-0.0054297522 -0.11864901 -0.0080095362
-0.0029308486 -0.11889084 -0.008900634
-0.0010629811 -0.11896845 -0.0092558479
0 -0.11940742 -0.009508769
-0.0066894703 -0.11894142 -0.006660196
-0.0053963666 -0.11884879 -0.007040997
-0.003242281 -0.11881144 -0.0077656326
-0.0069979527 -0.11887859 -0.0050773001
-0.0059999996 -0.11871251 -0.0049969959
-0.0069999998 -0.11878812 -0.0028932253
-0.0059128478 -0.11883759 -0.0031058502
-0.0062623415 -0.11921963 -0.0020004318
-0.0052036429 -0.11910744 -0.0020004315
-0.0028853673 -0.118795 -0.0016710466
-0.0018781384 -0.11929169 -0.0006790958
-0.0041223746 -0.11906309 0.0019995689
-0.0028882683 -0.11910221 0.0017312299
-0.0018414026 -0.11893121 0.00054208667
-0.0067586945 -0.11894054 0.0024577451
-0.0056045251 -0.11907367 0.0025447777
-0.0038650054 -0.11893911 0.0019995696
-0.0069926875 -0.1190332 0.0053015118
-0.0060000001 -0.11904428 0.0052471515
-0.0066618659 -0.11891818 0.0067575364
-0.0053637438 -0.11892723 0.0071868249
-0.003285211 -0.11912102 0.007771052
-0.0048353751 -0.1189482 0.0083002858
-0.0028867936 -0.11914615 0.0087294169
-0.00097171718 -0.11891712 0.0089604314
0 -0.11879165 0.0094112149
-0.004075842 -0.12091543 -0.0085392874
-0.0028439262 -0.12110165 -0.0085336566
-0.00099692482 -0.12118663 -0.0091113746
0 -0.12083878 -0.0095806196
-0.0064184717 -0.12117757 -0.0071250382
-0.0052867392 -0.12108649 -0.007222001
-0.0034191785 -0.12101027 -0.0077037262
-0.0069961231 -0.12110299 -0.0050429325
-0.0059999991 -0.12110739 -0.0050736754
-0.0069933655 -0.12095983 -0.0029522949
-0.0059999996 -0.12085082 -0.0027845837
-0.0064501236 -0.1211613 -0.0020004387
-0.00502276 -0.12096278 -0.002000438
-0.002834318 -0.12105807 -0.0016897507
-0.0018498352 -0.1214824 -0.00060489256
-0.0061885831 -0.12199198 0.0019995582
-0.0028132934 -0.12118029 0.001729927
-0.0017952017 -0.1206422 0.00041063616
-0.0068453574 -0.12099998 0.0026521145
-0.0054124603 -0.12110757 0.0024952828
-0.0039077075 -0.12073759 0.0019995631
-0.0069942884 -0.12101328 0.0051177819
-0.0059999991 -0.12102429 0.0050678616
-0.0065337946 -0.12117044 0.0069531235
-0.0051530832 -0.1210478 0.0071076485
-0.0035600176 -0.12084154 0.0076714088
-0.0046172887 -0.12087589 0.0083748735
-0.0028900173 -0.12088466 0.0088021252
-0.0010429246 -0.12098878 0.0090692947
0 -0.12113918 0.0093913674
-0.0041209981 -0.12383788 -0.0085231094
-0.0030083274 -0.12298872 -0.0088062128
-0.00094878476 -0.12276655 -0.0091004157
0 -0.12304565 -0.0095015215
-0.0066242255 -0.12306744 -0.0067612189
-0.0054162336 -0.12331616 -0.0070244172
-0.0034017072 -0.12325038 -0.0077098496
-0.0069956393 -0.12297761 -0.0049651633
-0.0059999996 -0.12297303 -0.0051369816
-0.0069628786 -0.12300453 -0.0028634302
-0.0059458613 -0.12303399 -0.0030512521
-0.0067527117 -0.1232105 -0.0020004462
-0.0049807038 -0.12306907 -0.0020004455
-0.0029703996 -0.12321999 -0.0017058013
-0.0018448547 -0.12282637 -0.00057103817
-0.002758563 -0.12310202 0.0016542581
-0.0018435138 -0.1230797 0.00055516278
-0.0067501008 -0.12285116 0.0025729332
-0.0055252952 -0.12292529 0.0024625843
-0.0038284389 -0.12295747 0.0019995549
-0.0069973124 -0.12296791 0.0052518258
-0.0059999996 -0.12279612 0.0048891897
-0.0065633589 -0.12298894 0.0070076697
-0.0054392754 -0.12286995 0.0069891736
-0.0033453819 -0.12317094 0.0077516027
-0.0048187706 -0.12267169 0.0083013093
-0.0028263247 -0.12300516 0.0088413209
-0.00084902131 -0.1230488 0.0090196822
0 -0.12272755 0.0095166368
-0.0041841455 -0.12504482 -0.0085004764
-0.0029130757 -0.12496655 -0.0088362796
-0.0010852105 -0.12504156 -0.009120346
0 -0.12483018 -0.0092391521
-0.0066842334 -0.12515761 -0.006710032
-0.0053175786 -0.12492293 -0.007188444
-0.0030085219 -0.12519348 -0.0078474712
-0.0069967685 -0.12517856 -0.0049284319
-0.0059999996 -0.12497585 -0.0051739854
-0.0070000002 -0.12497485 -0.0032139488
-0.0059999991 -0.12500893 -0.0028332027
-0.006548611 -0.12542401 -0.0020004541
-0.0051609213 -0.12484412 -0.0020004523
-0.0031690779 -0.12499075 -0.0018250585
-0.0017879789 -0.12503114 -0.00038899481
-0.0028758778 -0.12493445 0.0017226952
-0.0018819215 -0.1250627 0.00067951943
-0.0068924963 -0.12496105 0.002634374
-0.0055310098 -0.12500468 0.0024377927
-0.0038253625 -0.12457926 0.0019995491
-0.0069993618 -0.12513509 0.004967079
-0.0059999991 -0.125037 0.0051286654
-0.0064741583 -0.12484393 0.0070954403
-0.0052863387 -0.1251526 0.0072986982
-0.0031815185 -0.1250584 0.0078128977
-0.0046769176 -0.12489712 0.0083547905
-0.0028071939 -0.12488008 0.0086696884
-0.0010513546 -0.1249114 0.0090534696
0 -0.12530823 0.009564382
-0.0041609309 -0.12704946 -0.0085088061
-0.0029637727 -0.12715124 -0.0087579591
-0.00097326474 -0.12687738 -0.0090197641
0 -0.12718254 -0.009325482
-0.0064892988 -0.12695129 -0.0069954209
-0.0052853143 -0.12686424 -0.0071001728
-0.0034415296 -0.12680267 -0.0076959231
-0.0069955117 -0.12722233 -0.0051212488
-0.0059999991 -0.12685578 -0.0049498491
-0.0069999998 -0.12692241 -0.002814499
-0.0059999991 -0.12705913 -0.0029631814
-0.0064054783 -0.12686375 -0.0020004595
-0.0049443659 -0.12701562 -0.0020004599
-0.002920347 -0.127058 -0.0016854148
-0.001823451 -0.12689747 -0.00049931585
-0.004436742 -0.12773237 0.0019995375
-0.0025464355 -0.12697616 0.0015517382
-0.001847264 -0.12682115 0.00058588944
-0.006837429 -0.12684509 0.0024993774
-0.005482336 -0.12696628 0.0024896564
-0.0038197124 -0.12650076 0.0019995421
-0.0069947699 -0.1272402 0.0049716434
-0.0059999996 -0.12700555 0.0050261552
-0.0066505386 -0.12715073 0.0067832959
-0.0055259028 -0.12688512 0.0071378876
-0.0033438255 -0.12704384 0.0077546709
-0.0051978999 -0.12700631 0.0081705842
-0.0027436051 -0.12690942 0.0088787545
-0.0010590982 -0.12720868 0.0089653796
0 -0.12705758 0.0094684567
-0.0043502189 -0.12869686 -0.0084341122
-0.0028853139 -0.12908573 -0.0087696612
-0.00081197813 -0.12908167 -0.0091795912
0 -0.1285487 -0.0094995573
-0.0065519703 -0.12914579 -0.0068534561
-0.0053196377 -0.12910749 -0.0071129394
-0.0034183981 -0.12893604 -0.0077040279
-0.0069969161 -0.12912099 -0.004703389
-0.0060000001 -0.12894529 -0.0047371057
-0.0069999998 -0.12913454 -0.0030143422
-0.0059474381 -0.12924585 -0.0031114561
-0.0064399242 -0.12882248 -0.0020004665
-0.0049827821 -0.12907623 -0.0020004676
-0.0029172122 -0.12907471 -0.0017080136
-0.0018303834 -0.12899032 -0.00051467202
-0.0028158261 -0.12889777 0.0017001565
-0.0017988745 -0.12917534 0.00043034684
-0.0069156024 -0.12888734 0.0029853559
-0.0054800259 -0.12887162 0.0024469087
-0.0038367342 -0.12931913 0.0019995321
-0.0069965078 -0.12880164 0.0051558143
-0.0060000001 -0.12892075 0.0048379051
-0.0065363292 -0.12907633 0.0070212479
-0.0053090774 -0.12909304 0.0071914191
-0.0034485746 -0.12907146 0.0077175745
-0.0048684226 -0.12894487 0.0082859742
-0.0029611895 -0.12904035 0.0087493546
-0.00082401745 -0.12886706 0.0092408163
0 -0.12947945 0.0095238145
-0.0043300842 -0.13079138 -0.0084421886
-0.002961545 -0.13096763 -0.0087843817
-0.0010512432 -0.13096908 -0.0090332888
0 -0.13105239 -0.0095201386
-0.0067047952 -0.13112691 -0.006632118
-0.0052519585 -0.13117698 -0.0070789894
-0.0033966294 -0.13146177 -0.0077116555
-0.0069972118 -0.13084692 -0.0052146702
-0.0060000001 -0.13107349 -0.0048687314
-0.0069340556 -0.13108093 -0.0029468606
-0.0059999996 -0.13113092 -0.0030492083
-0.0066171414 -0.13109708 -0.0020004746
-0.0052353949 -0.13108864 -0.0020004748
-0.0029667164 -0.13109964 -0.0017042629
-0.001825537 -0.13130637 -0.00050896622
-0.0029227841 -0.13074215 0.0017299014
-0.0018270704 -0.13101938 0.00050532923
-0.0068681519 -0.13104405 0.002749803
-0.0053606005 -0.13095076 0.0025337073
-0.0038362553 -0.13107795 0.0019995256
-0.006997982 -0.13113688 0.00504422
-0.0060000001 -0.13083078 0.0049644029
-0.0066095986 -0.1311225 0.0068841968
-0.0056705587 -0.13091926 0.0070839785
-0.003305763 -0.13117027 0.0077712862
-0.004817754 -0.13076931 0.0083022974
-0.0026063924 -0.13088052 0.0089467512
-0.00087619718 -0.13092935 0.009190483
0 -0.13097666 0.0094891712
-0.0047272118 -0.13284367 -0.0082853809
-0.0027264564 -0.13300678 -0.0088351043
-0.00099421979 -0.13299258 -0.0091255326
0 -0.13287556 -0.0095677273
-0.0066240896 -0.13306297 -0.006782773
-0.0053604064 -0.13302344 -0.007098692
-0.0032547896 -0.13281967 -0.0077613047
-0.0069952644 -0.13316366 -0.0050829025
-0.0059999996 -0.13303086 -0.0048489124
-0.0069999998 -0.13306107 -0.0030099745
-0.0060000001 -0.13307644 -0.0027259572
-0.0064018434 -0.13332073 -0.002000483
-0.0050524347 -0.13314274 -0.0020004821
-0.002836311 -0.13295233 -0.0016244731
-0.001823812 -0.13280486 -0.00053309987
-0.0059527606 -0.13231502 0.0019995209
-0.0027465818 -0.13324219 0.0016579406
-0.0018170986 -0.13324776 0.00043294104
-0.0067911758 -0.13295798 0.0025448368
-0.0053372667 -0.13302325 0.0023470868
-0.0069945292 -0.13279682 0.0050078547
-0.0060000001 -0.13301076 0.0050372034
-0.0065296958 -0.13314319 0.0070013166
-0.0053141434 -0.13299532 0.0070097353
-0.0032391103 -0.13296859 0.0077968845
-0.0047752513 -0.13325432 0.0083091995
-0.0025985001 -0.13293602 0.0086872932
-0.0008744357 -0.13298674 0.0091114501
0 -0.13296042 0.0094846198
-0.00436089 -0.13509059 -0.008437152
-0.0028677185 -0.13482344 -0.0086348169
-0.0010629097 -0.13494098 -0.0091464501
0 -0.13469826 -0.0092932275
-0.006719924 -0.13503379 -0.0066765416
-0.0053968914 -0.13510667 -0.0071349335
-0.003333705 -0.13494316 -0.0077336924
-0.0069948644 -0.13518541 -0.0050935834
-0.0060000001 -0.13499121 -0.0051527312
-0.0069999998 -0.13491753 -0.0030234205
-0.0059530842 -0.1348767 -0.0031415268
-0.0068752612 -0.13486609 -0.0020004883
-0.0049761841 -0.13490516 -0.0020004886
-0.0028041122 -0.13493991 -0.0016415699
-0.0018547169 -0.13533947 -0.00059912936
-0.0028746934 -0.13501827 0.001754578
-0.0018076415 -0.13521545 0.00040795663
-0.0069031036 -0.13485026 0.002645798
-0.0055047628 -0.13493495 0.0025242977
-0.003999372 -0.13599232 0.0019995079
-0.0069964468 -0.13496497 0.0051442189
-0.0060000001 -0.13497081 0.0049203876
-0.0064582392 -0.13487883 0.0071055712
-0.0051813554 -0.13498184 0.0072486852
-0.0032675422 -0.13473926 0.0077876025
-0.0047509414 -0.13494992 0.008329819
-0.0029385027 -0.13498524 0.0086473525
-0.00083865935 -0.13488443 0.0092197247
0 -0.13462056 0.0093366941
-0.0045613474 -0.13699676 -0.008354675
-0.0028339999 -0.13712563 -0.0087682819
-0.0009914434 -0.13697405 -0.0090835197
0 -0.13691853 -0.0095759854
-0.0065618441 -0.13693541 -0.0068661231
-0.005240961 -0.13707907 -0.007187949
-0.0033746541 -0.13706411 -0.0077193673
-0.0069935811 -0.1369445 -0.0051554968
-0.0060000001 -0.13699114 -0.0050324127
-0.0070000002 -0.13675043 -0.0030165361
-0.0059999991 -0.13699296 -0.0030704017
-0.0065505649 -0.13677227 -0.0020004953
-0.0049937055 -0.13706771 -0.0020004965
-0.0028280115 -0.13710089 -0.0016592889
-0.0017894723 -0.13746664 -0.00041749777
-0.0066330684 -0.13787284 0.0019995007
-0.0027219481 -0.13717601 0.0016083923
-0.0018649569 -0.13676149 0.00063910591
-0.0067009865 -0.13701884 0.0025405963
-0.005582511 -0.13707741 0.0026360252
-0.0038337023 -0.13703111 0.0019995039
-0.0070000002 -0.13695307 0.0049702935
-0.0059999991 -0.13688868 0.0049236235
-0.0066281795 -0.13716465 0.006844901
-0.0053396099 -0.13688327 0.0070970193
-0.0032392982 -0.13676983 0.0077992673
-0.0045836619 -0.1368798 0.0083875228
-0.0028286013 -0.13717692 0.0087219123
-0.0010852477 -0.13698179 0.0091799777
0 -0.13707665 0.0093407249
-0.0045598433 -0.13893922 -0.0083561316
-0.0028758969 -0.13895936 -0.0086851036
-0.00095408695 -0.13879365 -0.009267997
0 -0.13905098 -0.0094687426
-0.0065553873 -0.13880213 -0.0068739802
-0.0054785823 -0.13893867 -0.0071064136
-0.0030151517 -0.13914627 -0.0078452006
-0.0069990647 -0.13904059 -0.0048282375
-0.0060000001 -0.13891065 -0.0051077991
-0.0070000002 -0.13878402 -0.0030705652
-0.0059999996 -0.13913548 -0.0030789175
-0.0064309216 -0.13885409 -0.0020005028
-0.0049669608 -0.13872859 -0.0020005023
-0.0028186482 -0.13919312 -0.0016494972
-0.0017983927 -0.13909312 -0.00040361466
-0.0065810354 -0.1382816 0.0019994993
-0.0029328233 -0.13889062 0.0018324774
-0.0017653815 -0.13905285 0.00028887673
-0.0067465408 -0.13883479 0.0024336502
-0.0056502903 -0.13887309 0.0025642307
-0.0037696534 -0.13941397 0.0019994953
-0.0070000002 -0.13871993 0.0051952731
-0.0060000005 -0.13925768 0.0050143097
-0.0065248422 -0.13880679 0.0070118969
-0.0052556898 -0.13910329 0.0071879248
-0.0032978023 -0.13903135 0.0077792755
-0.0049151578 -0.13893014 0.0082684448
-0.0029679737 -0.13905968 0.0087419813
-0.00099348405 -0.13915539 0.0091507854
0 -0.13889591 0.0095066018
-0.0044396729 -0.14087817 -0.0084089302
-0.0031751632 -0.14119759 -0.0087640947
-0.00088206556 -0.14096722 -0.0090964064
0 -0.14095822 -0.0093649784
-0.0065576783 -0.14096546 -0.0068530478
-0.0053598224 -0.14089708 -0.006955334
-0.0033092867 -0.14103994 -0.0077422601
-0.0069953697 -0.14108248 -0.0052164313
-0.0059999991 -0.14088561 -0.0050612907
-0.0070000002 -0.14086473 -0.0032160811
-0.0058027906 -0.14094657 -0.0029605355
-0.0065477104 -0.14105251 -0.0020005109
-0.0050747856 -0.14115341 -0.0020005112
-0.0030043481 -0.14107755 -0.0017343195
-0.0018313653 -0.14057706 -0.00050777628
-0.0062334146 -0.1415505 0.0019994874
-0.0027116551 -0.14114505 0.0016524338
-0.0017735859 -0.14089884 0.00032056402
-0.0068346295 -0.14094064 0.0027593805
-0.0054899403 -0.14103326 0.0024957524
-0.0038703277 -0.14144313 0.0019994881
-0.0069999998 -0.14064467 0.0048871334
-0.0059999996 -0.14093819 0.0050458126
-0.0065833661 -0.14107449 0.006917296
-0.0052035828 -0.14087549 0.0071849362
-0.0034585588 -0.14127256 0.0077217813
-0.0047144592 -0.14085142 0.0083445134
-0.0029055804 -0.14092311 0.0087473774
-0.00099073153 -0.14089414 0.0093000056
0 -0.14123073 0.0094085215
-0.0041760756 -0.14340433 -0.0085034352
-0.0026618633 -0.14293763 -0.0088498378
-0.0010326257 -0.14293998 -0.0090265824
0 -0.14316273 -0.0096014896
-0.0064681582 -0.14310937 -0.0070288125
-0.0052580079 -0.14305928 -0.0073314155
-0.0032521554 -0.14268459 -0.0077622617
-0.006995732 -0.1430807 -0.0049169916
-0.0059999996 -0.14293218 -0.0050440547
-0.0070000002 -0.1429577 -0.0028825442
-0.0059999991 -0.14298201 -0.002943377
-0.0064696986 -0.14261414 -0.0020005163
-0.005143648 -0.14291263 -0.0020005174
-0.0030250496 -0.14294524 -0.0017610317
-0.0018021183 -0.14312595 -0.00044425949
-0.0043803668 -0.14376347 0.0019994795
-0.0026964566 -0.14287981 0.0016295593
-0.0017779926 -0.14305654 0.00033115796
-0.0068248552 -0.14298181 0.0025256986
-0.005560101 -0.14292531 0.0024953655
-0.0039787199 -0.1432178 0.0019994816
-0.0069919261 -0.1431783 0.005423557
-0.0059999991 -0.14322329 0.0050308695
-0.0064952034 -0.14298883 0.007109432
-0.0051748371 -0.14319558 0.007134981
-0.0034140914 -0.14283547 0.0077390932
-0.0048770281 -0.14318298 0.0082843136
-0.0025767048 -0.1429498 0.0086327447
-0.00097035622 -0.14306311 0.0090236235
0 -0.14308757 0.009329685
-0.0044954289 -0.14509852 -0.008388957
-0.002775715 -0.1448454 -0.0088391695
-0.00092475308 -0.14508784 -0.0090836743
0 -0.14512332 -0.0095300265
-0.0065106438 -0.14509158 -0.006936037
-0.0053648101 -0.14488071 -0.0070413593
-0.0033160667 -0.1448632 -0.007739902
-0.006996416 -0.14516261 -0.0051895371
-0.0060000005 -0.14521936 -0.0047961455
-0.0069682454 -0.1450654 -0.0030161703
-0.0059004216 -0.14500958 -0.0032027161
-0.0066073816 -0.14481448 -0.0020005247
-0.0049140789 -0.14494577 -0.0020005251
-0.0029190867 -0.14494464 -0.0016926347
-0.0017967409 -0.14501178 -0.00043316861
-0.0024843153 -0.14504217 0.0015449492
-0.0018371933 -0.14493932 0.00054564042
-0.0068956292 -0.1451685 0.0029240174
-0.0055843331 -0.14496101 0.0025399558
-0.0038536824 -0.14488801 0.0019994755
-0.0069965399 -0.1449299 0.0049717338
-0.0059999991 -0.14494942 0.0048359083
-0.0066327276 -0.1449734 0.0068168039
-0.0053382488 -0.14479338 0.0070763025
-0.0032381732 -0.14496599 0.0078049642
-0.0048799417 -0.14485979 0.0082831047
-0.0027212664 -0.14487836 0.0088111516
-0.0010018048 -0.14482369 0.009148377
0 -0.14509113 0.0095345983
-0.0043740855 -0.14720811 -0.0084324647
-0.0027853081 -0.1472255 -0.0088357804
-0.00091202388 -0.14678606 -0.0090832021
0 -0.14719459 -0.0094209509
-0.0065035019 -0.14702204 -0.0069881622
-0.005466423 -0.14708321 -0.007075144
-0.0035266122 -0.14715788 -0.0076662186
-0.0069963518 -0.14690068 -0.0049738041
-0.0060000001 -0.14693962 -0.0049429364
-0.0070000002 -0.14721653 -0.0030161871
-0.0059999996 -0.14725958 -0.0030250344
-0.0065979394 -0.14691909 -0.0020005319
-0.0049914164 -0.14704512 -0.0020005323
-0.0030798076 -0.14695263 -0.0017298354
-0.0018388985 -0.14690651 -0.00055331591
-0.0026337365 -0.14682069 0.0016504861
-0.00180122 -0.14693522 0.000434207
-0.0068385527 -0.14715081 0.0026865478
-0.0055436678 -0.14716405 0.0024794377
-0.0038795918 -0.14674369 0.0019994688
-0.0070000002 -0.14685056 0.0050845225
-0.0059999991 -0.14694087 0.0048639537
-0.0067431964 -0.14722279 0.0066140178
-0.0053980667 -0.14689283 0.0069650477
-0.0032718384 -0.14694692 0.0077938992
-0.0049126139 -0.14707652 0.0082717557
-0.0026820172 -0.14706828 0.0087021198
-0.000959136 -0.14689127 0.009010274
0 -0.14699496 0.0093523376
-0.0045594852 -0.14894745 -0.0083660064
-0.0029288856 -0.14907251 -0.0086663924
-0.0011808362 -0.14914699 -0.009017596
0 -0.14892811 -0.0093277786
-0.0065018716 -0.14901927 -0.0069724005
-0.0053201537 -0.14898233 -0.0073151612
-0.0032415288 -0.14890888 -0.0077660047
-0.0069968696 -0.14887927 -0.0051643611
-0.0059999991 -0.14911991 -0.0051801479
-0.0070000002 -0.14901951 -0.0030972459
-0.0060000005 -0.14890501 -0.0027221388
-0.0064175585 -0.14902285 -0.0020005398
-0.0049274433 -0.14898762 -0.0020005396
-0.0028679257 -0.14892465 -0.0016630226
-0.0018525742 -0.14876917 -0.00060272298
-0.0066775782 -0.14824153 0.0019994632
-0.0049509406 -0.1482181 0.0019994634
-0.0027126472 -0.14874868 0.0016608795
-0.0018191995 -0.14912415 0.00047243346
-0.0067113452 -0.1489484 0.0026638568
-0.0057033496 -0.14899372 0.0025384682
-0.0038313633 -0.14888261 0.0019994611
-0.0069963145 -0.14892888 0.0050398703
-0.0059999991 -0.14891951 0.0049955877
-0.006530229 -0.14891519 0.0070061539
-0.005431076 -0.14895548 0.0071040816
-0.0036811091 -0.14899196 0.0076451655
-0.0046498911 -0.14890459 0.0083680199
-0.0028112535 -0.14887054 0.0086195944
-0.00084821542 -0.14890568 0.0092068342
0 -0.14885385 0.0096952086
-0.0045723608 -0.15060604 -0.008354675
-0.0028197702 -0.15097094 -0.0087737367
-0.001007627 -0.1509961 -0.0093452651
0 -0.15086362 -0.0094754277
-0.0065787495 -0.15100022 -0.0068587041
-0.0052265651 -0.15094717 -0.0072146119
-0.0032323222 -0.15067294 -0.0077692326
-0.0069953632 -0.15107703 -0.0050803213
-0.0059999996 -0.15074024 -0.0051719518
-0.0069914642 -0.15098602 -0.0027983123
-0.0059999996 -0.15102886 -0.0029756208
-0.0067390632 -0.15113077 -0.0012463304
-0.0053370986 -0.15101075 -0.0013870349
-0.0029741742 -0.1507943 -0.0014210801
-0.0018924791 -0.15020204 -0.00073174178
-0.0067534619 -0.15113279 0.00082094106
-0.0054112095 -0.15127081 0.0010216343
-0.0026587108 -0.15070339 0.001155839
-0.0018491568 -0.15039878 0.00056087429
-0.0069510979 -0.15108983 0.0028027799
-0.0056172838 -0.15072857 0.0028089902
-0.0069999998 -0.15124314 0.0051099085
-0.0059999996 -0.15129174 0.0050806561
-0.0066323103 -0.15085268 0.0068389485
-0.0053901104 -0.15108971 0.0070190141
-0.003467368 -0.15114191 0.0077249166
-0.0050484794 -0.15113664 0.0082161808
-0.0027701834 -0.15098017 0.0086607793
-0.0009493829 -0.15086533 0.0093054175
0 -0.15091696 0.009550252
-0.0043406258 -0.15315449 -0.0084444806
-0.0028014139 -0.15309948 -0.008780133
-0.00083028455 -0.15301602 -0.0092286449
0 -0.15280476 -0.009536623
-0.0066375202 -0.15297472 -0.0067909397
-0.0053388532 -0.15286434 -0.0071405149
-0.0031893398 -0.15302718 -0.0077842856
-0.0069994102 -0.15303484 -0.0049909912
-0.0059999996 -0.15289499 -0.0050865598
-0.0070000002 -0.15296635 -0.0028260008
-0.0060000005 -0.15310946 -0.0031065287
-0.0070000002 -0.15325433 -0.0012412003
-0.0060000005 -0.15282395 -0.00067749008
-0.0069999998 -0.15294504 0.0010592551
-0.0059999996 -0.15305743 0.00087968621
-0.0070000002 -0.15302657 0.0027970874
-0.0060000001 -0.15289679 0.0030112474
-0.0069862371 -0.15302776 0.0051380596
-0.0059999991 -0.15308149 0.0050833677
-0.0065566753 -0.15295832 0.0069896281
-0.005247632 -0.15312378 0.0072562979
-0.0033948908 -0.15285231 0.0077525927
-0.0049220375 -0.15290932 0.0082663745
-0.0029391758 -0.15305564 0.0088108871
-0.00095258409 -0.15307488 0.0091388552
0 -0.15303092 0.0095139295
-0.0046993447 -0.15483184 -0.0083158901
-0.0028949087 -0.15503949 -0.0086925495
-0.0009954212 -0.1550629 -0.0090123843
0 -0.15502076 -0.0096303048
-0.0067292484 -0.15501802 -0.0065787854
-0.0051692054 -0.15516603 -0.0070693656
-0.0031342853 -0.15517522 -0.0071796258
-0.001234052 -0.15590499 -0.0067385565
-0.0068492866 -0.15519321 -0.0050165551
-0.0053892699 -0.15539664 -0.0049400218
-0.0029425344 -0.15564764 -0.0048652934
-0.0011175931 -0.15565017 -0.0048459726
0 -0.15585376 -0.0048181429
-0.0068588741 -0.15509744 -0.0030481452
-0.0054263086 -0.15512313 -0.0029651735
-0.0030787457 -0.15540631 -0.0030671782
-0.0011855562 -0.15540656 -0.0030407778
0 -0.15578634 -0.002724014
-0.0069021932 -0.15509202 -0.0010444125
-0.0052194977 -0.15496647 -0.00085169723
-0.0028855284 -0.15515187 -0.0011478834
-0.0010178653 -0.1551654 -0.0012402622
0 -0.15548772 -0.0011218085
-0.0067812423 -0.15501288 0.00094122038
-0.0053773504 -0.15497166 0.00098464347
-0.003130574 -0.15512127 0.00090884784
-0.00099607022 -0.15512556 0.00094094186
0 -0.1555479 0.00086291856
-0.0068264259 -0.15527724 0.0031615593
-0.0053587472 -0.15516809 0.0031215262
-0.0031098332 -0.15538697 0.0029017753
-0.00089009723 -0.1554198 0.003147861
0 -0.15558808 0.0029996384
-0.0069044912 -0.15507407 0.0048417877
-0.0055866456 -0.15519521 0.0050187707
-0.0029283392 -0.15567063 0.0050341883
-0.00092483382 -0.15567015 0.0050253156
0 -0.15585938 0.0044024345
-0.0065756221 -0.15537281 0.006972515
-0.0050198138 -0.15526155 0.0070803161
-0.0031897197 -0.155523 0.0073156897
-0.00089178164 -0.15589792 0.0067339111
-0.0047111474 -0.15498233 0.0083463313
-0.0029726715 -0.15525353 0.0086940471
-0.00099649129 -0.15495585 0.0091416519
0 -0.15494689 0.0094643608
-0.0061020805 -0.15786387 -0.014355769
-0.004530686 -0.15781724 -0.014242533
-0.0025719472 -0.15780713 -0.01421799
-0.0008410663 -0.15775181 -0.014083627
-0.0065635643 -0.15747598 -0.013069358
-0.0049942709 -0.15732887 -0.012958892
-0.0031510335 -0.15716723 -0.012663915
-0.0009504729 -0.15727128 -0.012916653
0 -0.15752757 -0.012973649
-0.0067368508 -0.15720369 -0.010963164
-0.0049944199 -0.15691844 -0.010919256
-0.0029940112 -0.15714754 -0.01100531
-0.00096378272 -0.15700141 -0.011040675
0 -0.15696684 -0.010894313
-0.006798353 -0.15679416 -0.0089815576
-0.00514617 -0.15667005 -0.0091448622
-0.0029294111 -0.15663119 -0.0089937244
-0.0011634199 -0.15666059 -0.0090899216
0 -0.15652497 -0.0090435585
-0.0068360572 -0.15707593 -0.0069341138
-0.005069457 -0.15673767 -0.0068828375
-0.0029895816 -0.15661108 -0.0072449269
-0.00065015745 -0.15663947 -0.007359019
0 -0.15631707 -0.007162706
-0.0068084113 -0.15692422 -0.0051033664
-0.0047769807 -0.15670235 -0.0051492443
-0.0030629318 -0.15668483 -0.005021703
-0.0010286998 -0.15666188 -0.0048899897
0 -0.15629408 -0.004971324
-0.0068301847 -0.15676741 -0.0029508087
-0.0051021529 -0.15637022 -0.0028844445
-0.0029703297 -0.1564199 -0.0030798952
-0.001232876 -0.15639117 -0.00287839
0 -0.15613149 -0.0027370516
-0.006829211 -0.15666464 -0.0011360918
-0.0050967429 -0.15611184 -0.0008791404
-0.0030854126 -0.15611267 -0.00088586402
-0.0010137932 -0.15611097 -0.00082592649
0 -0.15614274 -0.0012844681
-0.0068667955 -0.15655419 0.00086395745
-0.0050141974 -0.15613924 0.0010428993
-0.0028921117 -0.15614949 0.0011207378
-0.00078331638 -0.15615134 0.0011342106
0 -0.15619282 0.0018730172
-0.0069203982 -0.15694337 0.0028905275
-0.0050707641 -0.15642641 0.0031674684
-0.003000858 -0.1564201 0.0031500966
-0.001057376 -0.15638989 0.0029233424
0 -0.15624999 0.0033000873
-0.0068014096 -0.15677629 0.0049082041
-0.0049413051 -0.15669647 0.0051369937
-0.0028926854 -0.15666562 0.0049828338
-0.0007765725 -0.15666075 0.0049549569
0 -0.15625647 0.0052080052
-0.0067695393 -0.15694106 0.0071406909
-0.0050108945 -0.15685926 0.0071935398
-0.0029441146 -0.1567414 0.0073114978
-0.0010731185 -0.15666822 0.0070922864
0 -0.15644361 0.0069111893
-0.006554177 -0.15682349 0.0089957817
-0.004984519 -0.15665996 0.0090841837
-0.0028744629 -0.15672447 0.0089156544
-0.0010905497 -0.15671989 0.008893542
0 -0.156532 0.0089038238
-0.0066700159 -0.15722866 0.010954044
-0.0050776433 -0.15689836 0.010993788
-0.0029910293 -0.15705061 0.011065346
-0.00088655471 -0.15720057 0.010915514
0 -0.15702088 0.010990066
-0.006713524 -0.15749088 0.013012711
-0.0049742158 -0.15730268 0.013070117
-0.0030310012 -0.15727533 0.013004279
-0.0010287323 -0.15724801 0.012779843
0 -0.15755977 0.012818351
-0.0067606918 -0.15781154 0.014227354
-0.005053645 -0.15783402 0.01434778
-0.0025716191 -0.15785149 0.014389789
-0.0012039491 -0.15785576 0.014400054
-0.0066757086 -0.15964249 -0.018511092
-0.0049826996 -0.15969568 -0.018804565
-0.0029896519 -0.15974566 -0.018925929
-0.00080179336 -0.15965942 -0.018716458
0 -0.15992741 -0.018849714
-0.0066396836 -0.15915202 -0.016872475
-0.0048817382 -0.15929 -0.016546253
-0.0030069323 -0.15922867 -0.016755097
-0.0011380764 -0.15918975 -0.016765453
0 -0.15941769 -0.017068144
-0.0067527643 -0.15892096 -0.015154403
-0.0050592688 -0.15897952 -0.015074697
-0.0028028958 -0.15881775 -0.015080243
-0.00095819496 -0.15884897 -0.015072182
0 -0.15889327 -0.015288956
-0.0067932168 -0.15881801 -0.012922013
-0.0053269323 -0.1582925 -0.012755685
-0.0030017179 -0.15845616 -0.0131509
-0.0012222904 -0.15833683 -0.012862771
0 -0.15833254 -0.013395304
-0.0070000002 -0.15878418 -0.01103559
-0.0070000002 -0.15900083 -0.0090577994
-0.0069999998 -0.15895906 -0.0071130944
-0.0070000002 -0.1590873 -0.005031486
-0.0070000002 -0.15893206 -0.0030301488
-0.0070000002 -0.15907443 -0.0013091483
-0.0070000002 -0.15883785 0.00077636441
-0.0069999998 -0.15914927 0.0028446463
-0.0069999998 -0.15894642 0.0050831982
-0.0070000002 -0.15888415 0.0069679338
-0.0070000002 -0.158868 0.0090790782
-0.0069999998 -0.15878791 0.011003005
-0.0068613794 -0.15903504 0.012974026
-0.0049835704 -0.15847853 0.01320355
-0.0031055841 -0.15835015 0.012893558
-0.0010521086 -0.15850033 0.013256177
0 -0.15824261 0.013306251
-0.0068392693 -0.15915951 0.014999997
-0.0048875599 -0.15874794 0.015079488
-0.003267003 -0.15890585 0.015044451
-0.0010523639 -0.15887545 0.015260232
0 -0.15872945 0.014955076
-0.0065600481 -0.1591267 0.016641025
-0.0051018978 -0.15913524 0.016806707
-0.0029700156 -0.15931191 0.016829394
-0.0010312373 -0.15914021 0.016757524
0 -0.15945023 0.017688673
-0.0065596397 -0.15972978 0.018828943
-0.0050847586 -0.15971592 0.01887325
-0.003334421 -0.1596563 0.018729845
-0.00094071188 -0.15965594 0.018728996
0 -0.15991959 0.018239662
-0.0064680297 -0.16147773 -0.022140417
-0.0045637065 -0.1615814 -0.022275034
-0.0031279167 -0.16164669 -0.022359805
-0.00072619691 -0.16147803 -0.02214081
-0.0068122274 -0.16117957 -0.020885758
-0.0051103709 -0.16097608 -0.02084245
-0.0030474763 -0.16114211 -0.02082525
-0.0011154276 -0.16098286 -0.020957738
0 -0.16094419 -0.020461686
-0.0068000453 -0.16087005 -0.018834308
-0.0051076123 -0.16075331 -0.019124381
-0.0029058494 -0.16062367 -0.019233048
-0.0008684207 -0.16071355 -0.019135071
0 -0.1604073 -0.019111723
-0.0069317468 -0.16082731 -0.017097717
-0.0051770234 -0.16020364 -0.017370502
-0.0030448956 -0.1602235 -0.017418416
-0.0011291178 -0.16024162 -0.017462142
0 -0.16034573 -0.017814234
-0.0069999998 -0.16089182 -0.015061392
-0.0070000002 -0.16116375 -0.012942922
-0.0068935305 -0.16107193 -0.01101516
-0.005473813 -0.16178311 -0.010675847
-0.0066575124 -0.16112177 -0.0091215037
-0.0053143315 -0.16142152 -0.0092945937
-0.0067754555 -0.16093624 -0.0073038507
-0.0053499374 -0.16126662 -0.0069333059
-0.0067959526 -0.16049086 -0.004942318
-0.0052915257 -0.16097406 -0.0049472614
-0.0063580736 -0.16034906 -0.002943201
-0.0050613927 -0.16103233 -0.0030998539
-0.0066029578 -0.16015431 -0.0011086983
-0.0051312451 -0.16089782 -0.0010536691
-0.0065217982 -0.16013435 0.0010842201
-0.0051098103 -0.16081534 0.0011356949
-0.0065320125 -0.16042465 0.0031871356
-0.005205024 -0.16075905 0.0031702002
-0.0066788928 -0.16057073 0.0049672863
-0.0052434844 -0.16100267 0.0050046705
-0.0066944142 -0.16062991 0.0069824429
-0.0052619218 -0.16124882 0.0067903544
-0.006695875 -0.16091453 0.009031794
-0.0052661956 -0.16134387 0.0088686273
-0.006776596 -0.16093531 0.010829261
-0.0053930916 -0.16186157 0.010782259
-0.0070000002 -0.16131549 0.012902401
-0.0069999998 -0.16094081 0.014968433
-0.0069786347 -0.16101672 0.01677963
-0.0049822945 -0.16027659 0.017545177
-0.0029141251 -0.16021046 0.017385492
-0.00058778096 -0.16028042 0.017554445
0 -0.1600696 0.017772565
-0.0068352232 -0.16091037 0.018934222
-0.0050792871 -0.16088411 0.01916956
-0.0030723149 -0.16073744 0.019086491
-0.0011081439 -0.16065089 0.018984528
0 -0.16041413 0.019168742
-0.0066174804 -0.16090129 0.020664601
-0.0048156898 -0.1609887 0.020869983
-0.0029741733 -0.16101198 0.020962443
-0.00098176196 -0.16107 0.020972472
0 -0.1610292 0.020936785
-0.0066330545 -0.16166194 0.022346051
-0.005018305 -0.16165714 0.022372009
-0.0029538029 -0.16171695 0.022449693
-0.00086716277 -0.16168074 0.022402663
-0.0066140285 -0.16348028 -0.024625489
-0.0049688495 -0.16333134 -0.024547366
-0.0030397351 -0.16362499 -0.024928661
-0.00095187407 -0.16345885 -0.024712943
0 -0.1639128 -0.024154028
-0.0067463452 -0.16303055 -0.023099128
-0.005015295 -0.16298065 -0.023111254
-0.0031121965 -0.16317374 -0.023141971
-0.0008236728 -0.16298072 -0.023079889
0 -0.16284736 -0.023006799
-0.0068976763 -0.16281268 -0.020847185
-0.0051522283 -0.16240264 -0.02168105
-0.0032334216 -0.16232453 -0.02157891
-0.00095393514 -0.16222942 -0.021454528
0 -0.16224036 -0.021557834
-0.0069999998 -0.16290472 -0.019023646
-0.0070000002 -0.16294341 -0.01715144
-0.0066848537 -0.16305503 -0.014778021
-0.0054703923 -0.1636477 -0.015015615
-0.0067892363 -0.16253239 -0.012838511
-0.0052346471 -0.16310407 -0.013037995
-0.0064656041 -0.16209413 -0.011432344
-0.0051194807 -0.16304536 -0.011010109
-0.0049999999 -0.16291107 -0.0089104734
-0.0050000008 -0.16290012 -0.0070253559
-0.0050000004 -0.16285704 -0.0051168432
-0.0049999999 -0.162874 -0.0031256527
-0.0049999999 -0.16301914 -0.0010898475
-0.0049999999 -0.16303648 0.00098445464
-0.0049999999 -0.16338091 0.0029323983
-0.0049999994 -0.16264676 0.0048574866
-0.0049999994 -0.16298398 0.0067342627
-0.0049999999 -0.16266282 0.0088412557
-0.0066617839 -0.16214645 0.0116763
-0.0050396309 -0.16294706 0.01118468
-0.0066388049 -0.16268127 0.013083288
-0.0051806248 -0.16296425 0.01293425
-0.0067052841 -0.16324845 0.014982909
-0.0055674678 -0.16362655 0.015035626
-0.0070000002 -0.1630978 0.017000634
-0.0070000002 -0.16312724 0.018968526
-0.0067553576 -0.16274711 0.021036632
-0.0049287952 -0.16227622 0.021514352
-0.0035839733 -0.16228725 0.021528784
-0.00053102564 -0.16237272 0.021640558
-0.0067009139 -0.16310157 0.023008065
-0.0051986696 -0.16293831 0.0229763
-0.0029481719 -0.16298592 0.023013454
-0.00088843214 -0.16325028 0.023272399
0 -0.16297644 0.023135539
-0.0067705698 -0.16356173 0.024594631
-0.0049151443 -0.16328618 0.0244873
-0.0030510386 -0.16355062 0.024830684
-0.00089017395 -0.1634486 0.024698235
0 -0.16338302 0.024076153
-0.0067446991 -0.16540766 -0.026825042
-0.0048794071 -0.16528022 -0.026794799
-0.0031093745 -0.16532052 -0.026994638
-0.0010157289 -0.16536263 -0.026830977
0 -0.16562665 -0.026367391
-0.0066419858 -0.16474678 -0.025074048
-0.0051067397 -0.16476715 -0.025341997
-0.0032677676 -0.1648495 -0.025238035
-0.0010785963 -0.1648559 -0.025006564
0 -0.16467744 -0.025123088
-0.0069564721 -0.16502035 -0.023003429
-0.0044302065 -0.16409263 -0.023891071
-0.0020059263 -0.16415612 -0.023974109
-0.0013561875 -0.16406193 -0.02385092
-0.0070000002 -0.16519877 -0.020692578
-0.0068611437 -0.16508238 -0.019183207
-0.0053431611 -0.1654464 -0.018865705
-0.0067592543 -0.16441838 -0.017355546
-0.0051396857 -0.16488847 -0.017017853
-0.0049999999 -0.16520084 -0.014789763
-0.0049999999 -0.16512322 -0.013088251
-0.0049999999 -0.16501603 -0.011009616
-0.0049999999 -0.16512115 -0.0091916202
-0.0049999999 -0.16482569 -0.007040971
-0.0049999994 -0.16508067 -0.0046343729
-0.0050000004 -0.16513608 -0.0030323477
-0.0049999994 -0.16527113 -0.00094004901
-0.0049999994 -0.16499519 0.0011128223
-0.0050000004 -0.16510148 0.002867436
-0.0049999999 -0.16511096 0.0050749155
-0.0050000008 -0.16495156 0.0073208627
-0.0049999999 -0.16487999 0.0089613302
-0.0049999999 -0.16538022 0.01110491
-0.0049999999 -0.16487491 0.012955851
-0.0049999999 -0.16500355 0.015255812
-0.0064990716 -0.16438486 0.01707075
-0.0052161138 -0.16475868 0.016933648
-0.0068884213 -0.16504166 0.019135766
-0.0051229983 -0.16558382 0.018918632
-0.0070000002 -0.1649954 0.020918686
-0.006939467 -0.16480222 0.023272634
-0.0048219725 -0.16409689 0.023895197
-0.0024179914 -0.16412249 0.023928709
-0.00061541324 -0.16405746 0.023843668
-0.0068011316 -0.16484204 0.024932425
-0.0049661864 -0.16478403 0.025098234
-0.0029034032 -0.16475657 0.025014697
-0.00075852749 -0.16486111 0.025240537
0 -0.16431718 0.025395652
-0.006631983 -0.16517936 0.026685808
-0.0050580553 -0.16527304 0.026854806
-0.0029709546 -0.1652659 0.026941711
-0.00086267752 -0.16528988 0.026828552
0 -0.16542037 0.026492469
-0.0065944837 -0.16599701 0.028007314
-0.0060460707 -0.16796766 -0.030207185
-0.0045174593 -0.16789086 -0.030148927
-0.0027311179 -0.16777746 -0.030062903
-0.0011969325 -0.16776882 -0.030056344
-0.0066940198 -0.16715246 -0.028706564
-0.0048610093 -0.16703524 -0.028897215
-0.0030121522 -0.16703947 -0.028915623
-0.0010692221 -0.16701844 -0.028882675
0 -0.16713788 -0.028674863
-0.0068943291 -0.16693667 -0.026893044
-0.0050545381 -0.16661765 -0.02719304
-0.0030682751 -0.16655426 -0.027110133
-0.0013735893 -0.16644555 -0.026967976
0 -0.16627306 -0.027358392
-0.0069999998 -0.16691005 -0.024845155
-0.0067768502 -0.16735154 -0.022773838
-0.00535635 -0.16783707 -0.022147503
-0.006702363 -0.16689119 -0.021325104
-0.0053051803 -0.16706571 -0.020694157
-0.00630101 -0.16605459 -0.019859146
-0.0050933794 -0.16676316 -0.018927444
-0.0049999994 -0.16714066 -0.016906679
-0.0050000004 -0.16698444 -0.015226253
-0.0050000004 -0.16714853 -0.013044023
-0.0049999999 -0.16692248 -0.011016786
-0.0050000004 -0.16715398 -0.0090603586
-0.0050000004 -0.16697268 -0.0070038843
-0.0050000008 -0.16695955 -0.0049016657
-0.0049999999 -0.16693535 -0.0031665768
-0.0050000004 -0.16689387 -0.00093494315
-0.0049999994 -0.16691677 0.0011738163
-0.0050000004 -0.1670723 0.0031534724
-0.0050000004 -0.16687536 0.0048383726
-0.0049999999 -0.16711605 0.0070136981
-0.0050000004 -0.1670619 0.0087605361
-0.0050000004 -0.16692473 0.010885823
-0.0049999994 -0.16662256 0.012574819
-0.0049999999 -0.16709214 0.015095808
-0.0050000008 -0.16712113 0.017132992
-0.0070000002 -0.16602458 0.01984052
-0.0050000004 -0.16664009 0.019018032
-0.0067783259 -0.16665553 0.021038335
-0.0051380396 -0.16703933 0.020822441
-0.0069943173 -0.16714448 0.022807067
-0.0052708881 -0.16785921 0.022230804
-0.0070000002 -0.16665699 0.024982849
-0.0068516312 -0.16682185 0.027147183
-0.0050162738 -0.16660732 0.027178055
-0.002761875 -0.16682713 0.027465483
-0.001053261 -0.16644721 0.026968688
0 -0.16678821 0.027817506
-0.0066446755 -0.16720349 0.028948763
-0.0051328302 -0.16710836 0.028728515
-0.0028808357 -0.16715184 0.028799912
-0.0012054745 -0.1668442 0.028863568
0 -0.16754673 0.029150652
-0.0067894352 -0.16779362 0.030079452
-0.0047246786 -0.16787682 0.030143533
-0.0023732153 -0.16774645 0.030043144
-0.0009307866 -0.16787648 0.030143276
-0.0067772795 -0.16923657 -0.030820623
-0.0048886649 -0.16913655 -0.030814791
-0.0030079193 -0.16917989 -0.030801136
-0.00079387875 -0.16906692 -0.030765496
0 -0.16955365 -0.030959586
-0.0068289246 -0.16898277 -0.029377846
-0.0051311809 -0.16859908 -0.02945881
-0.003121997 -0.16860014 -0.029459614
-0.0010224861 -0.16853222 -0.029407674
0 -0.16857237 -0.029677795
-0.0070000002 -0.16917855 -0.02671027
-0.0068417671 -0.16902348 -0.024699021
-0.00526994 -0.16970226 -0.024490286
-0.0066429242 -0.16866522 -0.023310795
-0.0052225529 -0.16899128 -0.023020836
-0.0049999994 -0.16924405 -0.021099379
-0.0049999999 -0.16916133 -0.018955978
-0.0049999999 -0.16890305 -0.016932234
-0.0050000004 -0.16883121 -0.015090371
-0.0049999994 -0.16901214 -0.013193773
-0.0049999999 -0.16889618 -0.011253867
-0.0049999999 -0.16900213 -0.0090344362
-0.0050000004 -0.16896091 -0.0072838427
-0.0050000004 -0.16906744 -0.0050175735
-0.0049999999 -0.16914544 -0.0029818695
-0.0049999999 -0.16900353 -0.0011083295
-0.0049999994 -0.16892469 0.0013687289
-0.0049999999 -0.16930619 0.0031538184
-0.0049999999 -0.16891153 0.0049838386
-0.0050000004 -0.16892289 0.0068304627
