# .PCD v0.7 - Point Cloud Data file format
VERSION 0.7
FIELDS x y z
SIZE 4 4 4
TYPE F F F
COUNT 1 1 1
WIDTH 1321
HEIGHT 1
VIEWPOINT 0 0 0 1 0 0 0
POINTS 1321
DATA ascii
-0.00098151586 -0.014310498 0.19082959
0 -0.014154637 0.19092843
-0.012319076 -0.012273058 0.19102061
-0.01117602 -0.012821654 0.19125302
-0.0089463107 -0.013666439 0.1909233
-0.0070707351 -0.013122194 0.19081922
-0.0049169664 -0.012260619 0.19099592
-0.0029473566 -0.012336882 0.19124684
-0.0012887076 -0.012347891 0.19139215
0 -0.013351897 0.19085777
-0.014706108 -0.010468778 0.19118357
-0.013358342 -0.011476716 0.19093317
-0.010850427 -0.010750494 0.19084492
-0.0088504925 -0.01158398 0.19059615
-0.0076910853 -0.011922209 0.19053669
-0.016272174 -0.0085901991 0.19078964
-0.015475815 -0.0092504425 0.19094631
-0.012945147 -0.0093129799 0.19117925
-0.017205348 -0.0073480299 0.19090912
-0.014846792 -0.0072070356 0.19087885
-0.01834232 -0.0048337909 0.19084735
-0.016220104 -0.0047826064 0.19085018
-0.015916599 -0.0056213061 0.19132742
-0.018945873 -0.002790763 0.19095787
-0.016920347 -0.0029585757 0.19111826
-0.019208189 -0.00093908299 0.19107619
-0.01716874 -0.0012033927 0.19107714
-0.019109724 0.0011330487 0.1902523
-0.017151376 0.0011492812 0.19075561
-0.018921386 0.0030298412 0.19116068
-0.016741142 0.0036287487 0.19150135
-0.018312424 0.0048931856 0.19078296
-0.01623458 0.0048039989 0.19104576
-0.015926998 0.0055673672 0.1912885
-0.017253833 0.0073045129 0.19108826
-0.014877206 0.0071756798 0.19097421
-0.016671656 0.0080329292 0.19052605
-0.015237242 0.0091699585 0.19105609
-0.013137086 0.0091287056 0.19080536
-0.014572012 0.010526448 0.19069324
-0.013257703 0.011545795 0.19085762
-0.010960948 0.010691965 0.19138651
-0.0090785669 0.011537478 0.19121319
-0.0077024261 0.011947826 0.19091329
-0.012334405 0.012256734 0.19102708
-0.011260035 0.012792173 0.19131131
-0.0090348208 0.01368095 0.19127309
-0.0069802389 0.013223836 0.19083275
-0.0047920067 0.01229659 0.19114205
-0.0030556498 0.012326156 0.19110526
-0.00051398377 0.01229516 0.19069609
0 0.013242739 0.19122645
-0.006793227 0.014095686 0.19145238
-0.0051202304 0.014277317 0.19122191
-0.0030002121 0.014331979 0.1911153
-0.0009094266 0.014314519 0.19088313
-0.0080853682 -0.014071202 0.19336599
-0.0070495829 -0.014181472 0.1930805
-0.0048261359 -0.01445437 0.19306241
-0.003012029 -0.014481669 0.1931062
-0.0008407862 -0.01447975 0.19308065
0 -0.014248734 0.19301866
-0.012679066 -0.012255814 0.19367552
-0.011036664 -0.013021695 0.19294876
-0.0089387782 -0.013620321 0.19321647
-0.0066550239 -0.012225337 0.19296591
-0.0050433059 -0.012402075 0.19278528
-0.0027953391 -0.012450724 0.19274954
-0.0010289287 -0.012465782 0.19294834
0 -0.012950554 0.19342338
-0.014647203 -0.010694264 0.19311213
-0.013532059 -0.011567804 0.19325559
-0.011097944 -0.010764228 0.19314793
-0.0095002893 -0.011488918 0.19284163
-0.016532775 -0.0085278293 0.19304579
-0.015068912 -0.0089864321 0.1929227
-0.013425204 -0.0091249067 0.19312826
-0.017486 -0.007176314 0.19270495
-0.01526917 -0.0069006798 0.19305927
-0.018319018 -0.005290546 0.19280413
-0.016231725 -0.005184188 0.19309509
-0.015915086 -0.0059582489 0.19314942
-0.019097531 -0.0029115863 0.1932245
-0.016979113 -0.0031510978 0.19281159
-0.019352492 -0.0010534865 0.19318968
-0.017370578 -0.00091538898 0.19327459
-0.019308919 0.0010549008 0.19275725
-0.017343827 0.0010033705 0.19304746
-0.019031607 0.0032139451 0.19301274
-0.017068718 0.0027399622 0.19281523
-0.018521352 0.0048546055 0.1930726
-0.016297184 0.0050745839 0.19336739
-0.01592201 0.0059173219 0.19315548
-0.018014655 0.0062275184 0.19381343
-0.017583206 0.0069909818 0.1930376
-0.015206728 0.0069759749 0.19296342
-0.016356774 0.0087764747 0.19319879
-0.013496031 0.0090229353 0.19263291
-0.014738593 0.010571632 0.19276674
-0.012981211 0.011255777 0.19313926
-0.011167175 0.010728844 0.1929934
-0.0093200579 0.011572025 0.19294873
-0.012597698 0.012229341 0.19275856
-0.010745655 0.013143744 0.19295859
-0.0090040453 0.013470749 0.19297983
-0.0070182062 0.012374594 0.19288617
-0.0048592011 0.012412814 0.19274904
-0.0034528964 0.01248746 0.19323449
-0.0011447187 0.012480776 0.19314623
0 0.013490446 0.19216399
-0.0085654967 0.014037348 0.19358112
-0.0065961657 0.01424537 0.19311598
-0.0052153072 0.01442964 0.19297688
-0.0033954333 0.014468968 0.19293728
-0.0011633588 0.014505096 0.19341779
0 0.014371006 0.1929785
-0.0084798709 -0.01414292 0.19504103
-0.0070029669 -0.014321743 0.19486114
-0.004786158 -0.014605668 0.1950531
-0.0029355218 -0.014611185 0.19482875
-0.00067297841 -0.014636204 0.19516151
0 -0.014279002 0.19504172
-0.012647752 -0.01241921 0.19517665
-0.011513944 -0.013008652 0.19517356
-0.0091840066 -0.013187168 0.19512346
-0.0068643214 -0.012363769 0.19520301
-0.0053493506 -0.012548591 0.19499752
-0.0031785846 -0.012632086 0.19514354
-0.0012522246 -0.012644924 0.19531301
0 -0.012913371 0.19438066
-0.014628449 -0.010885743 0.195005
-0.013221126 -0.011274013 0.19493
-0.011040133 -0.010994581 0.19525197
-0.0093076834 -0.011747651 0.19515237
-0.016575379 -0.0087245023 0.19507493
-0.014746275 -0.0090834349 0.19502974
-0.013178222 -0.0095096296 0.19515507
-0.017570995 -0.0073632719 0.19489095
-0.015326452 -0.0070196688 0.19468942
-0.018579593 -0.0050785849 0.1948625
-0.016629016 -0.0046098181 0.19514485
-0.019215517 -0.0030065726 0.19478337
-0.017233949 -0.002677358 0.19484852
-0.01948077 -0.0011494113 0.19505416
-0.017535154 -0.00079505093 0.19522564
-0.019476434 0.0011838226 0.19519673
-0.017472928 0.0010087633 0.19480799
-0.019272424 0.0027453152 0.19518936
-0.01715466 0.0031315691 0.19508891
-0.018775105 0.0046512182 0.19508688
-0.016279936 0.0053604483 0.19473357
-0.018177979 0.0061280057 0.19527577
-0.017515281 0.0074380087 0.19497661
-0.015124166 0.0072715245 0.194601
-0.016668707 0.0086098146 0.19511949
-0.015329955 0.0092255604 0.19473052
-0.013175717 0.009479953 0.19485109
-0.014971944 0.010571131 0.19485605
-0.012653145 0.010708814 0.19490331
-0.010972267 0.011001904 0.19530433
-0.0090368744 0.01184495 0.1949538
-0.012737451 0.012321452 0.19481839
-0.01130922 0.013092279 0.19515345
-0.0090957005 0.013244341 0.19488147
-0.0070081935 0.012331685 0.19498923
-0.0048370627 0.012603704 0.19521643
-0.0030048748 0.012628954 0.19510217
-0.00083402509 0.012599716 0.19471624
0 0.013552696 0.19468969
-0.008585535 0.014107078 0.19483112
-0.0066844816 0.014352631 0.19471769
-0.0051142448 0.014580385 0.19492485
-0.0026623395 0.014644659 0.19527398
-0.0010172167 0.014618539 0.19492657
0 0.014477391 0.19538681
-0.0089637535 -0.01420067 0.19695909
-0.0067721866 -0.01448858 0.19666173
-0.004885911 -0.014741349 0.19669715
-0.0033203259 -0.014794004 0.19726026
-0.00059625687 -0.014765127 0.19687623
0 -0.014394511 0.19698828
-0.012915522 -0.012418589 0.1972426
-0.011090816 -0.013352249 0.19718106
-0.0087054726 -0.012863373 0.19725202
-0.0073020393 -0.012434864 0.19693509
-0.0047265422 -0.012764356 0.19713889
-0.0030463019 -0.012750069 0.19670089
-0.0011487188 -0.012792285 0.19725814
0 -0.013257346 0.19681977
-0.015023625 -0.010739217 0.19698887
-0.013007274 -0.010783411 0.19743699
-0.01085011 -0.011200368 0.19694994
-0.0093081873 -0.01184095 0.19636327
-0.016601346 -0.0089265592 0.19695972
-0.014506289 -0.0084021036 0.19691539
-0.013212148 -0.0096774865 0.19724569
-0.018220082 -0.0063533126 0.19690752
-0.016662007 -0.0067661209 0.19713737
-0.015475869 -0.0071482519 0.1973488
-0.018771825 -0.0049685193 0.19661079
-0.016600588 -0.0050433171 0.19696303
-0.019412821 -0.0029256847 0.19721007
-0.017304694 -0.0031976961 0.1974206
-0.019652536 -0.0010251626 0.19712676
-0.01763384 -0.0010722592 0.19710115
-0.019687673 0.00068498316 0.19708876
-0.017606927 0.0012870939 0.19715568
-0.019427933 0.0026131086 0.19696395
-0.017263662 0.0032543635 0.1967562
-0.018769151 0.0050144256 0.19680648
-0.016495757 0.0052065281 0.1966949
-0.01814683 0.0066065141 0.19729453
-0.017201949 0.006744762 0.19721241
-0.015490772 0.0070540956 0.19673412
-0.016772311 0.0086902333 0.19683574
-0.014482779 0.0088318167 0.19679493
-0.013390224 0.0095121106 0.19688314
-0.014896278 0.010842155 0.19702984
-0.013058005 0.010980524 0.19661166
-0.010876949 0.011182025 0.19655147
-0.0098002879 0.011681043 0.19697036
-0.012496648 0.012690168 0.19715965
-0.011057738 0.013329345 0.19674084
-0.0084888628 0.012207753 0.19672112
-0.0068320269 0.012481921 0.19677301
-0.004984126 0.012727896 0.19708861
-0.0029401868 0.012794326 0.1972851
-0.00095472659 0.012746694 0.19665638
0 0.013039634 0.19671631
-0.0083620092 0.014330691 0.19714175
-0.0069404626 0.014471608 0.19677679
-0.0048756367 0.014734087 0.19690563
-0.0030588249 0.014759383 0.19679983
-0.00065976172 0.014771747 0.19696426
0 0.014443595 0.19695288
-0.0068289153 -0.034319155 0.2
-0.0048054988 -0.034893632 0.20000002
-0.0033318112 -0.034494787 0.2
-0.0010939394 -0.034442395 0.20000002
-0.00656723 -0.033007991 0.20000002
-0.0050670425 -0.033123732 0.2
-0.0029854982 -0.03270977 0.20000002
-0.0010550362 -0.033309013 0.2
-0.0067164036 -0.030789074 0.19999999
-0.0051715076 -0.031290635 0.20000002
-0.0033845678 -0.031192362 0.19999999
-0.0010390112 -0.031381711 0.20000002
-0.0069249277 -0.028785203 0.2
-0.0043301717 -0.02912502 0.20000002
-0.0029647534 -0.028476622 0.19999999
-0.00083291827 -0.029108513 0.2
-0.0070202374 -0.027197385 0.20000002
-0.0049855574 -0.0271198 0.20000002
-0.0033645742 -0.027190369 0.19999999
-0.001243545 -0.02717289 0.20000002
-0.0083618769 -0.025189651 0.2
-0.0071605579 -0.025267167 0.20000002
-0.0047401353 -0.024962354 0.2
-0.003122713 -0.024815509 0.20000002
-0.00052678038 -0.025209701 0.19999999
-0.0086602001 -0.023221374 0.20000002
-0.0069325962 -0.023080582 0.20000002
-0.0056085363 -0.022105634 0.2
-0.0027754011 -0.022503091 0.20000002
-0.00060642627 -0.023200626 0.20000002
-0.0084580099 -0.020730125 0.2
-0.0070568416 -0.020983852 0.19999999
-0.0050176531 -0.021157468 0.20000002
-0.0027952259 -0.02119837 0.20000002
-0.0010737914 -0.020835666 0.20000002
-0.009061357 -0.018836662 0.20000002
-0.0069291587 -0.018702548 0.2
-0.0050412882 -0.019162685 0.19999999
-0.0030329744 -0.019009566 0.20000002
-0.0012078201 -0.018868333 0.19999999
-0.010937639 -0.016822927 0.20000002
-0.0090405867 -0.016650071 0.2
-0.0071317451 -0.016933547 0.19999999
-0.0048821308 -0.017192988 0.20000002
-0.003104243 -0.016877364 0.20000003
-0.0012262509 -0.016932741 0.19999999
-0.012347843 -0.014403147 0.2
-0.01110753 -0.014650956 0.2
-0.0087532829 -0.014729444 0.19944216
-0.0072063184 -0.014982251 0.19979216
-0.0048067896 -0.014968644 0.1993904
-0.0030688113 -0.014924129 0.19941019
-0.0011571185 -0.015101298 0.19955873
0 -0.014675204 0.19903281
-0.013043512 -0.012511509 0.19923168
-0.010961169 -0.013306504 0.19915742
-0.0089378227 -0.012680524 0.19962734
-0.0067777722 -0.012922241 0.19947536
-0.0051040901 -0.013046684 0.1994295
-0.0028359478 -0.013155917 0.19931437
-0.00062916847 -0.013198551 0.1995368
0 -0.013469283 0.19924395
-0.014719852 -0.010962942 0.19951387
-0.013041564 -0.010608375 0.19971757
-0.011012667 -0.011314947 0.19905789
-0.0097741736 -0.011833839 0.19882478
-0.016766042 -0.008943852 0.19946595
-0.014607462 -0.0088447994 0.19917743
-0.013668756 -0.0095806858 0.1989277
-0.018237833 -0.0066389875 0.19854894
-0.01723301 -0.0072744172 0.19944665
-0.015396623 -0.0074979407 0.1988833
-0.018959725 -0.0049619409 0.19882642
-0.01676275 -0.0051194686 0.19926667
-0.019586099 -0.002755471 0.19919357
-0.017530752 -0.002808531 0.19921386
-0.019822953 -0.00076134608 0.19894348
-0.017767772 -0.00094769656 0.19870171
-0.019791545 0.0010968649 0.19912998
-0.017760232 0.0011399942 0.19899167
-0.019523626 0.003078673 0.19895399
-0.017435109 0.0031233737 0.19899911
-0.018902078 0.0051315785 0.19898282
-0.016972233 0.0046037072 0.19948046
-0.018220717 0.0068582157 0.19943969
-0.01672243 0.0069630574 0.19961318
-0.015399003 0.0074912803 0.19926493
-0.016699987 0.0088247042 0.19952658
-0.014663817 0.0087402761 0.19928823
-0.013739873 0.0095083099 0.19937389
-0.015211544 0.010649016 0.19935907
-0.013287295 0.011150988 0.19929223
-0.011316409 0.011338798 0.19953005
-0.0096141621 0.011884563 0.19861065
-0.012727952 0.012738755 0.19930926
-0.01093704 0.013245374 0.19934238
-0.0090503618 0.012852501 0.19931313
-0.0068740067 0.012831956 0.19940023
-0.005270116 0.013270567 0.19929393
-0.0031534275 0.013027984 0.19934776
-0.00077184965 0.013242258 0.19948158
0 0.013427371 0.19862321
-0.012848428 0.0141543 0.20000002
-0.010466623 0.014348459 0.2
-0.0091728801 0.014669147 0.19956142
-0.007011882 0.014679506 0.19928236
-0.0046856301 0.015135277 0.19945689
-0.0030245227 0.014887945 0.19949938
-0.0010270317 0.015022997 0.19973686
0 0.014469686 0.19924629
-0.010659635 0.017181195 0.2
-0.008841902 0.016780924 0.20000002
-0.0066127842 0.016934006 0.20000002
-0.0049683233 0.016646577 0.2
-0.0027134053 0.016581649 0.2
-0.0010551353 0.01700104 0.20000002
-0.010387946 0.019032214 0.2
-0.0085996678 0.018808808 0.20000002
-0.007043547 0.019078022 0.2
-0.0047584656 0.019100774 0.20000002
-0.0026667526 0.019166928 0.19999999
-0.0012922295 0.019281087 0.20000002
-0.0089762853 0.020949792 0.20000003
-0.0071485937 0.020729508 0.19999999
-0.0047954354 0.021192562 0.2
-0.003163093 0.020832635 0.20000002
-0.00084975781 0.020719593 0.2
-0.0085479952 0.022752291 0.2
-0.0066371295 0.023604479 0.2
-0.0048030778 0.02276127 0.19999999
-0.0028346428 0.023746509 0.2
-0.00094755739 0.022977958 0.2
-0.0069790832 0.024903415 0.20000002
-0.0047753039 0.025355332 0.20000002
-0.0027194475 0.025477676 0.19999999
-0.00096843933 0.024920359 0.19999999
-0.0067081288 0.027212346 0.19999999
-0.0053867223 0.026781172 0.2
-0.003112036 0.026872231 0.2
-0.00095626374 0.026659586 0.2
-0.0069231791 0.02903429 0.20000002
-0.0051378491 0.02933828 0.2
-0.0029174869 0.028818447 0.2
-0.00094885938 0.028721143 0.2
-0.0068529239 0.030447416 0.20000002
-0.0048470637 0.031010263 0.2
-0.0032423679 0.031037113 0.2
-0.0012603457 0.031115726 0.19999999
-0.0065557188 0.032899 0.2
-0.0051022051 0.033159554 0.20000002
-0.0026266756 0.032559644 0.20000002
-0.0014352393 0.032635801 0.2
-0.0063429307 0.034752749 0.20000002
-0.0050038313 0.034571059 0.19999999
-0.0031763257 0.034354456 0.2
-0.0011469638 0.034419913 0.2
-0.0062581524 -0.044090156 0.20198639
-5.9616268e-05 -0.044116735 0.20199613
-0.0067306249 -0.043022819 0.20160674
-0.0047609932 -0.042767987 0.20150159
-0.0028409192 -0.04289848 0.20154944
-0.0011042602 -0.043022782 0.20159501
-0.0069760098 -0.040877242 0.20139849
-0.0050287819 -0.040790208 0.20087397
-0.0029483964 -0.040750366 0.20087543
-0.00081509165 -0.040858276 0.20089018
0 -0.04058665 0.20153204
-0.0071033849 -0.03893229 0.20136991
-0.004491243 -0.038945593 0.2004631
-0.0028284839 -0.039052453 0.20049159
-0.0013829791 -0.038893256 0.2004519
0 -0.039369736 0.20156881
-0.0070895823 -0.036941499 0.20075504
-0.0052829008 -0.036764223 0.20016539
-0.0029875503 -0.036957286 0.2001835
-0.00069003337 -0.03675117 0.20016418
0 -0.036808439 0.20109262
-0.0073892293 -0.034985822 0.20108975
-0.0042332411 -0.035433915 0.20004068
-0.0031581963 -0.035255838 0.20025663
-0.0013284273 -0.035279579 0.20037386
0 -0.035075437 0.20100641
-0.0075466549 -0.033211596 0.20099036
-0.0055723758 -0.033460081 0.20000002
-0.002853842 -0.03344845 0.20133333
-0.0014662427 -0.033161148 0.20199999
0 -0.033015277 0.20104417
-0.00817993 -0.030982111 0.2018131
-0.0076503162 -0.031025125 0.2006613
-0.0053990833 -0.030877929 0.20033336
-0.0029683686 -0.030905351 0.20199999
0 -0.031194914 0.20053671
-0.0084198182 -0.028727895 0.2012922
-0.0075793727 -0.02919952 0.20020729
-0.0051957658 -0.028940758 0.20000002
-0.0037208903 -0.029543288 0.20000002
-0.00052078225 -0.029676218 0.20133333
0 -0.028724439 0.20109254
-0.0087016672 -0.027159996 0.20121253
-0.0076613333 -0.027785702 0.20006457
-0.0052875499 -0.027254833 0.20066667
-0.0030133519 -0.027324161 0.20040002
-0.0010337221 -0.027028931 0.20133334
0 -0.027261982 0.20127206
-0.0092565659 -0.024702078 0.20094357
-0.0045829844 -0.024792181 0.20050003
-0.0030338289 -0.025518527 0.20100001
-0.00083010923 -0.024825633 0.2015
0 -0.02534038 0.2010664
-0.010309918 -0.022798672 0.2016363
-0.0095373923 -0.023254221 0.20074727
-0.0076550152 -0.022098202 0.20000002
-0.0051554316 -0.023026565 0.20044447
-0.0029436443 -0.023088258 0.20199999
-0.00098012818 -0.022532508 0.20000002
0 -0.022977417 0.20138925
-0.010699171 -0.020795653 0.20096223
-0.0092491563 -0.020996284 0.20006208
-0.0076096924 -0.021320067 0.20000002
-0.0057781115 -0.021324873 0.20000002
-0.0026029479 -0.020408034 0.20100001
-0.0010905468 -0.021047752 0.20100002
0 -0.020728016 0.20121248
-0.012276253 -0.018763341 0.20179869
-0.011253084 -0.018880708 0.20061836
-0.0086815394 -0.019066785 0.20000002
-0.0077211959 -0.018772885 0.20000002
-0.0048266766 -0.019248141 0.20000002
-0.0029039527 -0.019145822 0.20040002
-0.000667435 -0.019145228 0.20133333
0 -0.018398542 0.20123363
-0.012793844 -0.016984582 0.20123035
-0.010729361 -0.017215813 0.20006335
-0.0090760598 -0.016672974 0.20000002
-0.0070450651 -0.01734766 0.20000002
-0.0051622796 -0.016342051 0.20000002
-0.001166433 -0.016902467 0.20120001
0 -0.016549751 0.20115112
-0.014433381 -0.014691551 0.20159462
-0.013140792 -0.01515612 0.20053968
-0.0091940295 -0.015595755 0.20000002
-0.0069938712 -0.015570065 0.20000002
-0.0058717174 -0.015730333 0.20000002
-0.0035735762 -0.014698947 0.20199999
-0.0016055062 -0.014190467 0.20199999
0 -0.014954966 0.20065336
-0.014899715 -0.012775183 0.20084083
-0.013007449 -0.012876757 0.2010821
-0.01041471 -0.012376459 0.20131184
-0.0090492181 -0.012601078 0.20076612
-0.0067755398 -0.012789766 0.20091471
-0.0052801203 -0.013049752 0.201093
-0.002886591 -0.013086651 0.20142052
-0.00084356585 -0.013145112 0.20133613
0 -0.013546332 0.20103018
-0.016370062 -0.010622217 0.20126495
-0.014938303 -0.01094727 0.20111042
-0.013039931 -0.010910842 0.20052758
-0.011042877 -0.011541585 0.20056883
-0.018067351 -0.0083288401 0.20132257
-0.016982734 -0.0088337306 0.20125309
-0.01513146 -0.0090813925 0.200984
-0.013636127 -0.0098235151 0.20030212
-0.018763462 -0.0069317189 0.20119584
-0.016622048 -0.0070786783 0.20118664
-0.01580142 -0.0074846582 0.20043348
-0.019397706 -0.0049997652 0.20113859
-0.017358154 -0.0051602926 0.20120203
-0.019668851 -0.0029353406 0.20076334
-0.017676426 -0.003027657 0.20129654
-0.020008625 -0.00022137427 0.20081416
-0.019581452 -0.0011200429 0.20073922
-0.017888477 -0.00109223 0.20112072
-0.020024143 0.00049567054 0.20192924
-0.019619981 0.001068023 0.20095727
-0.017842053 0.0012623962 0.20065585
-0.019657318 0.003093699 0.2009427
-0.017669586 0.0028867126 0.20105003
-0.019363992 0.00515386 0.20109826
-0.017313607 0.0050133928 0.20081769
-0.018622562 0.0069646961 0.20091851
-0.016979001 0.0070693376 0.20111015
-0.015704492 0.0076105287 0.20039105
-0.018119283 0.0083040111 0.20138361
-0.017139591 0.0089418292 0.20096782
-0.015080002 0.008848032 0.20079921
-0.016285134 0.010978175 0.2014676
-0.014828558 0.010848035 0.20100299
-0.013143574 0.010854111 0.20061535
-0.010873551 0.011611275 0.20065904
-0.014734903 0.01290015 0.20076881
-0.013226264 0.012833711 0.20138352
-0.010753061 0.01262254 0.20181644
-0.0089332331 0.012343464 0.20093127
-0.0070915185 0.012647726 0.20060666
-0.0052764127 0.012967328 0.20152161
-0.0030824402 0.012999998 0.20121707
-0.00084413169 0.013052333 0.20083942
0 0.013168594 0.20118397
-0.014558346 0.014583339 0.20165701
-0.013220161 0.015195559 0.20069136
-0.011023249 0.014599697 0.20000002
-0.008671144 0.014617858 0.20000002
-0.0073048547 0.01442432 0.20000002
-0.0052611185 0.014927998 0.20000002
-0.0013470672 0.015264164 0.20133333
0 0.015281755 0.20144726
-0.01263779 0.016909463 0.20102862
-0.011642701 0.01767459 0.20036545
-0.0087267887 0.017376743 0.20000002
-0.0072815465 0.017029762 0.20000002
-0.0031620918 0.01707308 0.20050001
-0.0011168241 0.016956944 0.20133333
0 0.017164338 0.20079951
-0.012232488 0.018529711 0.20161623
-0.011376412 0.019246107 0.20097068
-0.0091476599 0.018442884 0.20000002
-0.0073613757 0.018367048 0.20000002
-0.0048714466 0.019429985 0.20050001
-0.0027193353 0.0192747 0.20100001
-0.00088523346 0.018355494 0.20000002
0 0.019270768 0.20123109
-0.010594396 0.0212052 0.20105185
-0.0097591095 0.021357179 0.20019558
-0.0069996454 0.020774432 0.20000002
-0.0047203684 0.020982355 0.20000002
-0.0025641953 0.021375142 0.20100001
-0.0012918331 0.021181609 0.2006667
0 0.021353193 0.20133254
-0.010272308 0.022893971 0.20161721
-0.0093194218 0.023227299 0.20056336
-0.0069991974 0.022531979 0.20000002
-0.0053630192 0.0222109 0.20000002
-0.0030731668 0.022603301 0.20120001
-0.0010305211 0.023268241 0.20114288
0 0.023571651 0.20120011
-0.0091087986 0.025015229 0.20087151
-0.0070371707 0.024781365 0.20000002
-0.0044622505 0.024607938 0.20000002
-0.0028575864 0.025232032 0.20133333
-0.001060575 0.02483942 0.20000002
0 0.025003482 0.20099626
-0.00852687 0.027058512 0.20087223
-0.0071896911 0.026907301 0.20000324
-0.004403471 0.026770322 0.20133333
-0.0028767912 0.027497057 0.20199999
-0.00036082286 0.026908997 0.20000002
0 0.026846223 0.20060167
-0.0083410284 0.029099589 0.20125659
-0.0071264142 0.029175043 0.20007145
-0.0046846396 0.029045522 0.2006667
-0.003428553 0.029288985 0.20100002
-0.00079516129 0.028886899 0.20133333
0 0.029001063 0.20075667
-0.0081904894 0.030596882 0.20163131
-0.0076456051 0.031032663 0.2007159
-0.0030385691 0.030782588 0.20066667
-0.0013375389 0.031222116 0.20100001
0 0.031158283 0.20096871
-0.008024985 0.032505855 0.20196402
-0.0076102461 0.032823976 0.20112155
-0.0041896678 0.03309381 0.20000002
-0.0022438657 0.033689924 0.20100001
-0.001036946 0.032998674 0.20100001
0 0.032868445 0.20105542
-0.007244058 0.035289887 0.20098181
-0.0044167321 0.034928944 0.20000002
-0.0029373711 0.035121441 0.20043567
-0.0014551817 0.034927994 0.20101589
0 0.034947876 0.20132294
-0.0072306846 0.036912091 0.20109996
-0.0053286003 0.036986522 0.20018622
-0.0027713191 0.037190635 0.20020539
-0.0012843363 0.036433693 0.20013443
0 0.036922928 0.2011282
-0.0070421314 0.03872009 0.20097534
-0.0048144292 0.03887412 0.20044836
-0.0033103349 0.038830467 0.2004379
-0.0014751719 0.038813576 0.20043421
0 0.039242018 0.20102328
-0.0068445471 0.04082777 0.20117719
-0.0047798557 0.041012909 0.20091942
-0.0032021122 0.040802609 0.20088223
-0.00070728466 0.040648978 0.20083573
0 0.041383363 0.20141606
-0.0070273653 0.04261037 0.2016941
-0.0049887965 0.042911597 0.20155425
-0.0031289444 0.043090336 0.20161982
-0.0010718047 0.042977333 0.20157838
0 0.042626277 0.20172453
-0.0065531209 0.044119585 0.20199719
-0.0065247794 -0.047236986 0.20362931
-0.0047866264 -0.046850946 0.20337456
-0.0029996501 -0.047355719 0.20365492
-0.0011089214 -0.047049597 0.20349179
-0.0071063577 -0.045022313 0.20322943
-0.005252813 -0.045093879 0.20246026
-0.0033072296 -0.045116749 0.20247497
-0.00084849232 -0.044927876 0.20237723
0 -0.04450335 0.20279463
-0.0073178434 -0.042900637 0.20281595
-0.0046770764 -0.042842232 0.20369521
-0.0029601611 -0.043058801 0.20371489
-0.0013196501 -0.042987533 0.20368388
0 -0.043304991 0.20286408
-0.007622574 -0.040958226 0.20307979
-0.0049885116 -0.040971596 0.20341586
-0.0031616264 -0.040901892 0.20295815
-0.0010103857 -0.040980715 0.20296453
0 -0.041278277 0.20248504
-0.0081082024 -0.03905328 0.20379435
-0.0077778157 -0.039217856 0.2028442
-0.0051256563 -0.038968731 0.20311627
-0.003183021 -0.039233811 0.20257598
-0.0010968486 -0.039338149 0.20259756
0 -0.039829664 0.20266387
-0.0081678294 -0.03675957 0.20355837
-0.0078294873 -0.037108075 0.2026035
-0.0054010674 -0.036790613 0.20311876
-0.0027964956 -0.037191086 0.20223007
-0.0012915055 -0.037082952 0.20221828
-0.0083076488 -0.034778375 0.20344476
-0.0078167217 -0.035366859 0.20238142
-0.005363361 -0.035170268 0.20287465
-0.0033196851 -0.035308957 0.20204702
-0.00080056168 -0.035177495 0.2020345
0 -0.03597137 0.20203647
-0.0084801102 -0.032735128 0.20296739
-0.0062037371 -0.03287914 0.20310622
-0.0054267421 -0.033122558 0.20227583
-0.0032066039 -0.033128776 0.20200002
-0.0011858824 -0.032893293 0.20200002
-0.0086795585 -0.031243311 0.20299886
-0.0068672025 -0.030919291 0.20304833
-0.0050684121 -0.030738043 0.20206742
-0.0034739329 -0.031380318 0.20200001
-0.0012040978 -0.030848762 0.20200002
-0.0093845231 -0.029010532 0.20309198
-0.0074867052 -0.029038532 0.20302659
-0.0048937164 -0.028999558 0.20205192
-0.0030000245 -0.028911311 0.20200002
-0.0016600739 -0.02911178 0.20200001
-0.010250606 -0.026712449 0.20368505
-0.0090592271 -0.027087523 0.20297204
-0.007006736 -0.027071163 0.20258091
-0.0052945404 -0.026847338 0.20210241
-0.0027766433 -0.027049828 0.20200002
-0.00093098229 -0.026780885 0.20200004
-0.010634959 -0.025137851 0.20321316
-0.0089977598 -0.024916081 0.20315693
-0.0067421184 -0.025040219 0.20250432
-0.0050727651 -0.024702301 0.20208459
-0.0030436781 -0.025302049 0.20200001
-0.0009629844 -0.025119172 0.20200001
-0.012223454 -0.022207294 0.20396467
-0.011219922 -0.022921192 0.20313984
-0.0091324542 -0.023267219 0.20321544
-0.0069587785 -0.022738859 0.20256703
-0.0052144234 -0.02311556 0.20211917
-0.0029171272 -0.022916539 0.20200004
-0.00088853482 -0.022689505 0.20200001
-0.012462432 -0.020890348 0.20333597
-0.011110279 -0.021060348 0.2030908
-0.0087842401 -0.021109989 0.20309544
-0.0071942806 -0.020902745 0.2026352
-0.0051438329 -0.02095945 0.2020932
-0.0030133282 -0.021667846 0.20200002
-0.0013822166 -0.021113466 0.20200001
-0.014120464 -0.018446889 0.2038523
-0.012917933 -0.019234918 0.20285577
-0.011128706 -0.018517395 0.20377411
-0.0088478858 -0.018620418 0.20311387
-0.0069470648 -0.018602218 0.20256361
-0.0049956082 -0.019365175 0.20205836
-0.003146657 -0.019271543 0.20200004
-0.00076794787 -0.018698782 0.20200002
-0.01458491 -0.016820442 0.20333876
-0.013382355 -0.017081736 0.2026521
-0.010911491 -0.016846092 0.20370415
-0.0090640234 -0.017206008 0.20317644
-0.006944133 -0.017433748 0.20256278
-0.0050917813 -0.017211219 0.20209211
-0.0026532491 -0.016657077 0.20200001
-0.001152245 -0.016838551 0.20200001
-0.01603928 -0.014024774 0.20357299
-0.015136837 -0.015042772 0.20282532
-0.013265449 -0.014758097 0.20338689
-0.010836393 -0.015023757 0.20300956
-0.0089929542 -0.015489311 0.20307192
-0.0071198465 -0.014700954 0.2025702
-0.0044582463 -0.015350566 0.20201376
-0.0025722445 -0.015042092 0.20200001
-0.00043697187 -0.014912479 0.20200001
-0.016394414 -0.012857265 0.20325175
-0.014791375 -0.012897328 0.20328303
-0.013490966 -0.013405626 0.20250447
-0.010738439 -0.013188288 0.20206597
-0.0088201975 -0.013627402 0.20227394
-0.006908671 -0.013943275 0.20244172
-0.0050477982 -0.01347808 0.20209776
-0.0028003582 -0.013524914 0.20200004
-0.0011486439 -0.013430675 0.20200001
-0.018044267 -0.010329468 0.20371519
-0.016942421 -0.010919467 0.20302457
-0.01521016 -0.011016167 0.20294575
-0.018609656 -0.0088851815 0.20309204
-0.016821919 -0.0089249518 0.20307133
-0.015760278 -0.009523307 0.20253764
-0.019349433 -0.0069387634 0.20284596
-0.017276326 -0.0072213793 0.20286304
-0.019626649 -0.0051783817 0.20310846
-0.01765273 -0.0050826725 0.20333022
-0.019839443 -0.0027140751 0.20295569
-0.017806195 -0.0032495814 0.20315486
-0.0200701 -0.00070251536 0.20335633
-0.018698979 -0.00085300102 0.20305012
-0.017913017 -0.0016414475 0.20266438
-0.020079365 0.00057319127 0.2033437
-0.01899316 0.0010746879 0.20282514
-0.017949529 0.0015774979 0.2030478
-0.019831369 0.0029168425 0.20308879
-0.017793709 0.0031899111 0.20292576
-0.019627955 0.004998981 0.20291609
-0.017616527 0.0052895388 0.20310862
-0.019338842 0.0071017444 0.20299679
-0.017368965 0.0069508748 0.20296098
-0.018585378 0.0089447973 0.20312637
-0.016832126 0.0089327069 0.20282562
-0.015712794 0.0095794015 0.20252109
-0.018399272 0.01002549 0.2039907
-0.017057113 0.01077482 0.20306155
-0.015187211 0.010981697 0.2028843
-0.016392769 0.012765743 0.2031742
-0.015172783 0.012989366 0.20283489
-0.013393055 0.013311001 0.20246416
-0.010768842 0.013747225 0.20237294
-0.0086757923 0.013176199 0.2021381
-0.0069256113 0.013444019 0.20221679
-0.005161996 0.013455483 0.2020523
-0.0030701896 0.013369125 0.20200001
-0.00056018471 0.013129216 0.20200001
-0.016082384 0.014440328 0.20398842
-0.015204522 0.014872611 0.20298167
-0.013074733 0.015018332 0.20331864
-0.010976853 0.014985813 0.20301312
-0.0088467672 0.015017386 0.20294873
-0.0067028296 0.015047987 0.20249134
-0.0047139777 0.015781136 0.2020247
-0.0034337647 0.015556104 0.20200002
-0.0010718786 0.015273747 0.20200002
-0.014478117 0.016880868 0.20322579
-0.013186837 0.017031634 0.20274813
-0.011011474 0.016848257 0.20372784
-0.0086116837 0.017452084 0.20304549
-0.0070881578 0.017178318 0.20260447
-0.0048322766 0.017461576 0.20208448
-0.0034967698 0.016909786 0.20200002
-0.001165339 0.01716435 0.20200001
-0.014200567 0.018304091 0.20384565
-0.013147907 0.019010797 0.20301646
-0.010842524 0.019327598 0.2037117
-0.0091322465 0.018732531 0.2031962
-0.0070725246 0.01907648 0.20259994
-0.0048031122 0.019211844 0.20203701
-0.0028669694 0.019188076 0.20200002
-0.0011914904 0.018727683 0.20200002
-0.012591866 0.020636557 0.20332605
-0.011257782 0.021190394 0.20316294
-0.0087558646 0.020977734 0.20308724
-0.0069921822 0.020537974 0.2025767
-0.0051778569 0.020921132 0.20208703
-0.0028439402 0.02095671 0.20200002
-0.00096797751 0.021199698 0.20200002
-0.011046597 0.022888316 0.20312871
-0.0092100808 0.022961698 0.20324534
-0.0068820906 0.023056692 0.20254482
-0.0048247357 0.022701053 0.20205151
-0.0024093394 0.023291785 0.20200001
-0.00051207718 0.022798358 0.20200001
-0.010696154 0.024961788 0.2031807
-0.0092618633 0.025225695 0.20307642
-0.0071453038 0.024833655 0.20262101
-0.0053245174 0.024710722 0.20213266
-0.0029262181 0.025293771 0.20200001
-0.00088880863 0.025030855 0.20200002
-0.010202752 0.027105799 0.20383054
-0.0091674216 0.027085261 0.20302092
-0.0075031403 0.027215457 0.20272461
-0.0051047578 0.027095566 0.20208764
-0.003484559 0.026917741 0.20200002
-0.0002392137 0.026302222 0.20200001
-0.010034437 0.028086891 0.20393458
-0.0093393615 0.028858509 0.20330337
-0.0075209504 0.029191015 0.20303679
-0.0054555237 0.028860219 0.20213307
-0.0030115019 0.029367659 0.20200002
-0.00088180654 0.029222811 0.20200004
-0.0088885622 0.030759029 0.20320839
-0.0069137341 0.030909903 0.20314214
-0.0052451505 0.030614577 0.20211416
-0.0028102843 0.030834347 0.20200001
-0.00078676065 0.030933399 0.20200002
-0.0084513342 0.032994602 0.20293085
-0.0063233143 0.032555293 0.20308825
-0.0052396534 0.03306333 0.20223483
-0.0031966574 0.03304502 0.20200002
-0.00041937188 0.03284698 0.20200001
-0.008220355 0.035068683 0.20329361
-0.0079113459 0.034989972 0.20235996
-0.0053962292 0.034981374 0.20302264
-0.0029862202 0.03472998 0.20200942
-0.001025834 0.035286147 0.20204751
-0.0081218677 0.037140168 0.20347808
-0.0077991933 0.03662663 0.20247053
-0.0050584241 0.037021864 0.20275329
-0.002836081 0.037215583 0.20223173
-0.00068078644 0.037279855 0.20223799
0 0.036670089 0.20208177
-0.0081153773 0.039124656 0.20383769
-0.0078126565 0.039256293 0.20295663
-0.0050941962 0.038956504 0.20308287
-0.0027988385 0.038827442 0.20249188
-0.00079933798 0.039180893 0.20256504
0 0.039627105 0.20225084
-0.0076304297 0.040801127 0.20297743
-0.0047028307 0.040664483 0.20306671
-0.0029726855 0.040545136 0.20285372
-0.00075166562 0.041458491 0.20313516
0 0.040776633 0.20215067
-0.0073166909 0.043074198 0.20287476
-0.0043697511 0.042556174 0.20354731
-0.0029973311 0.042989966 0.20368491
-0.00091884925 0.042743795 0.20359424
0 0.043016784 0.20270753
-0.0071364543 0.044953108 0.20316219
-0.0046642437 0.045000203 0.20241544
-0.0031880033 0.044704668 0.20226514
-0.00089353457 0.044964649 0.20239913
0 0.044929445 0.20295537
-0.0068737962 0.046788093 0.20360532
-0.0050399066 0.047062598 0.20348944
-0.0024145439 0.047076095 0.20348421
-0.0014595168 0.047088277 0.20350285
0 0.046826258 0.20351698
-0.0062564537 -0.050288893 0.20566483
-0.004751482 -0.050246518 0.20562598
-0.0024733907 -0.050225809 0.20560698
-0.00034154029 -0.050235517 0.20561591
-0.0068192268 -0.049170922 0.20522931
-0.0048800386 -0.049101882 0.20480126
-0.0030960229 -0.048885167 0.20465679
-0.0010519645 -0.04877599 0.20458399
0 -0.048547316 0.20497596
-0.0073413639 -0.04683385 0.2049704
-0.0047743423 -0.04611228 0.20531212
-0.0031249535 -0.046862524 0.20568255
-0.00099308346 -0.046771359 0.20544225
0 -0.047071889 0.20490529
-0.0076117404 -0.04490969 0.20492722
-0.0049509369 -0.044750974 0.20514786
-0.0032499204 -0.044787016 0.2045155
-0.0012450158 -0.044847526 0.20454685
0 -0.044930927 0.20429645
-0.0080899447 -0.042245019 0.20564944
-0.0078107854 -0.043086618 0.20487902
-0.0053237407 -0.043099638 0.20493266
-0.0081513701 -0.040681068 0.20507503
-0.0078609949 -0.04148392 0.20445633
-0.0056034345 -0.04110549 0.20504287
-0.0085170213 -0.039124463 0.20508069
-0.0061871163 -0.038732652 0.20550096
-0.0057720193 -0.03925338 0.20459113
-0.008656133 -0.037060805 0.20502287
-0.0062690899 -0.037005376 0.20518869
-0.0059461202 -0.037131507 0.20443955
-0.0087927645 -0.035034828 0.20492552
-0.0063742576 -0.034794435 0.20506737
-0.0093047079 -0.032974686 0.20484665
-0.0068562962 -0.033269174 0.20514396
-0.010060127 -0.03059544 0.20570534
-0.0094064167 -0.030734377 0.20495634
-0.0075136209 -0.031090628 0.20466569
-0.010406589 -0.02911279 0.20518607
-0.0086129652 -0.028966129 0.20517005
-0.0078912685 -0.029685995 0.20424895
-0.010906145 -0.027082436 0.205036
-0.0093024466 -0.027040709 0.20529498
-0.012276846 -0.024368409 0.20534323
-0.011166811 -0.025023496 0.20498528
-0.0097190468 -0.025465462 0.20481721
-0.012785958 -0.022759704 0.20509084
-0.010960896 -0.022823904 0.20507079
-0.014267065 -0.020229258 0.20555775
-0.013175261 -0.021002524 0.20468776
-0.011479003 -0.021089552 0.20496477
-0.014728042 -0.018929135 0.2053487
-0.012528945 -0.018945469 0.20521967
-0.011678619 -0.019733898 0.20419009
-0.016056623 -0.016814353 0.20589709
-0.015274541 -0.017230654 0.20503969
-0.013119061 -0.017052419 0.20491935
-0.016414171 -0.014725166 0.20481001
-0.01465736 -0.014903135 0.20492236
-0.013663354 -0.015561524 0.20440237
-0.018070593 -0.012258179 0.20568244
-0.016936615 -0.012839282 0.20523205
-0.015395214 -0.012936565 0.20491166
-0.018539311 -0.010931236 0.20513229
-0.01694433 -0.011100383 0.20492692
-0.015745416 -0.011731865 0.20433846
-0.019315151 -0.008958187 0.20498601
-0.017212562 -0.0094248625 0.20508663
-0.019555893 -0.0068826694 0.20463243
-0.017551204 -0.0068413825 0.20513199
-0.019738173 -0.0049620336 0.20506385
-0.017731927 -0.0049743704 0.20476277
-0.020013832 -0.0020012953 0.20439687
-0.019932097 -0.0028503805 0.20501691
-0.017896242 -0.0032652768 0.20505677
-0.020105403 -0.00098200503 0.20527768
-0.018098423 -0.0010711435 0.20491129
-0.02009486 0.0011113537 0.20508589
-0.018098483 0.0010757424 0.20504279
-0.020002991 0.0021178252 0.20469598
-0.019913692 0.0030500004 0.20504086
-0.017907437 0.0031450801 0.2051727
-0.01974526 0.0048884456 0.20496428
-0.01770686 0.0052585048 0.20493281
-0.019538756 0.0069959634 0.20486297
-0.017513543 0.0072093671 0.2049118
-0.019281056 0.0088233603 0.20489019
-0.017240614 0.0090501569 0.20470543
-0.018650444 0.010957597 0.20533018
-0.016962703 0.010995287 0.20493928
-0.015907034 0.011390602 0.20429683
-0.01820353 0.012256535 0.20589754
-0.017171914 0.01307415 0.20494746
-0.015230706 0.012990646 0.20466799
-0.016598769 0.014833461 0.20522623
-0.014772175 0.014998786 0.20520389
-0.013771569 0.015639668 0.20466802
-0.01608683 0.016389934 0.20558612
-0.015213535 0.017075203 0.20517473
-0.013265352 0.017045252 0.20515755
-0.014534591 0.019171249 0.20517501
-0.012636676 0.019038593 0.2049914
-0.011911864 0.019387582 0.20444524
-0.014202195 0.020294918 0.205484
-0.013347073 0.021129977 0.20474587
-0.011491226 0.020924758 0.20484129
-0.012594869 0.02311559 0.20502579
-0.010766995 0.023023846 0.20504592
-0.012218974 0.024715144 0.20552897
-0.011057046 0.024830744 0.2048292
-0.0095890574 0.025326548 0.20434305
-0.011048198 0.026780831 0.2051225
-0.0090997824 0.027022226 0.2047589
-0.010385919 0.029041043 0.20507225
-0.0086446907 0.029202469 0.20490818
-0.0079171341 0.029493976 0.2041283
-0.0091609051 0.030835323 0.20513937
-0.0075294278 0.031201823 0.20481707
-0.0093446821 0.032768894 0.20488246
-0.0069844569 0.032769423 0.20497654
-0.0088215722 0.035011835 0.205
-0.0063779815 0.034827441 0.20509581
-0.0086109433 0.037123416 0.20490578
-0.0062515927 0.037112039 0.2051641
-0.0058507267 0.036898024 0.20418343
-0.0084817037 0.038802657 0.20488527
-0.0061985133 0.038689334 0.20550017
-0.0058225468 0.038825959 0.20450233
-0.0081707919 0.040652301 0.20513031
-0.0078863036 0.041434828 0.20454156
-0.0057177986 0.040718701 0.20528424
-0.0080469195 0.042633288 0.20562501
-0.0077954335 0.042923018 0.20473991
-0.0053453734 0.042953834 0.20490956
-0.0016910356 0.043898709 0.20405488
-0.0075889854 0.045033734 0.20489602
-0.0051362868 0.045013085 0.20527665
-0.0027832526 0.045336515 0.20480041
-0.0008566535 0.044995725 0.2046237
0 0.045068447 0.20434602
-0.0072936988 0.047213912 0.20510371
-0.0050039659 0.046174385 0.20543182
-0.0030543748 0.046777468 0.20563126
-0.0005807546 0.046478413 0.20543294
0 0.047074564 0.20484541
-0.0068465485 0.048833303 0.20504262
-0.0055159903 0.048517186 0.20441146
-0.0026929248 0.048911717 0.20467448
-0.0010001066 0.049043588 0.20476238
0 0.048773333 0.20555019
-0.0062512681 0.050399143 0.20576589
-0.0046891901 0.050337978 0.20570982
-0.0034963852 0.050182633 0.20556743
-0.00078845455 0.050322734 0.20569585
-0.0067193881 -0.052390616 0.20766623
-0.0047594132 -0.052439824 0.20764345
-0.0032847514 -0.052118715 0.20734215
-0.00059215375 -0.052511156 0.20772958
-0.0070239902 -0.050905365 0.20710412
-0.00510102 -0.051408391 0.20669103
-0.0024384968 -0.051427163 0.20670824
-0.00087285915 -0.051178679 0.20648044
0 -0.050959021 0.20721661
-0.007470761 -0.048752613 0.20712699
-0.0047919587 -0.049085114 0.20752093
-0.0029655877 -0.04893294 0.20715483
-0.00098738272 -0.049026966 0.207251
0 -0.048936658 0.20656581
-0.0076685785 -0.046939943 0.20695221
-0.0051964144 -0.04711426 0.20707265
-0.0030798998 -0.047631178 0.20620517
-0.001253074 -0.04777278 0.2063015
-0.0081558544 -0.04493672 0.20755568
-0.0078903865 -0.045447454 0.20655704
-0.0055932361 -0.045073938 0.20700218
-0.0083271563 -0.042846873 0.20686479
-0.0061086039 -0.042823665 0.20751154
-0.0058018165 -0.043203101 0.20659746
-0.0086318571 -0.04107707 0.20731896
-0.0062404685 -0.041125815 0.20719802
-0.0058796667 -0.041474607 0.20610566
-0.0090635642 -0.038917206 0.20709692
-0.0066210078 -0.038918249 0.20709327
-0.0093649942 -0.036980838 0.20710193
-0.0069942195 -0.036922548 0.20693801
-0.0095231226 -0.03486472 0.20691814
-0.0072226715 -0.034952436 0.20712155
-0.01024374 -0.032951895 0.20717698
-0.0095444378 -0.033253297 0.20639291
-0.0074857017 -0.033379182 0.20686565
-0.010591981 -0.03082026 0.20694213
-0.0085784504 -0.030766189 0.20707938
-0.012076888 -0.028180238 0.20791177
-0.011371247 -0.028869634 0.20700301
-0.0092142047 -0.02892161 0.20689657
-0.012401382 -0.026955755 0.20762065
-0.010885432 -0.026941458 0.20675245
-0.0098201446 -0.0272911 0.20686276
-0.013025929 -0.024845902 0.20708075
-0.010700634 -0.025073642 0.20693889
-0.014251484 -0.022473127 0.20744719
-0.013599177 -0.022908052 0.20670995
-0.011456641 -0.023221802 0.20699382
-0.014674892 -0.02080865 0.20687056
-0.012444019 -0.020925801 0.20702194
-0.011894371 -0.021458089 0.20639579
-0.016019357 -0.018046603 0.20710327
-0.015488681 -0.018829998 0.20702487
-0.013205029 -0.019010758 0.20682216
-0.016644936 -0.016896907 0.20717168
-0.014644685 -0.016792383 0.20712849
-0.013527187 -0.017559664 0.20617899
-0.018458521 -0.014108766 0.20793898
-0.0174773 -0.01502253 0.20720671
-0.015450683 -0.014789534 0.20689045
-0.018441901 -0.01312687 0.2070739
-0.016842078 -0.013355814 0.20676616
-0.015722428 -0.013647423 0.20622794
-0.01918879 -0.01100257 0.20682165
-0.017090367 -0.011235224 0.20675981
-0.019379912 -0.0088304086 0.20692515
-0.017370274 -0.0089470381 0.20706265
-0.019486725 -0.0071324529 0.20706223
-0.017500967 -0.0068232846 0.20701577
-0.019674763 -0.0049901088 0.20702629
-0.017710447 -0.0048571369 0.2066388
-0.020008434 -0.0020592809 0.20712654
-0.019890027 -0.0031479211 0.20696926
-0.017890189 -0.0031741848 0.2070239
-0.020127071 -0.00078398187 0.20703802
-0.018130347 -0.00073985144 0.20727429
-0.020088676 0.0011967095 0.20703802
-0.018112771 0.00093773211 0.20678127
-0.017998945 0.0019816428 0.2079027
-0.020010984 0.0020319354 0.20695962
-0.019721005 0.0030649703 0.20707376
-0.017921381 0.0028521263 0.20699148
-0.019670229 0.0050391983 0.20708288
-0.017669167 0.0049618185 0.20717317
-0.019506365 0.0068028588 0.20685698
-0.017498575 0.0068759792 0.2069914
-0.019376371 0.0088885324 0.20693733
-0.017362257 0.0090771383 0.20708133
-0.019161709 0.011011409 0.2068413
-0.017172739 0.011062423 0.20701528
-0.01860508 0.012834171 0.20710923
-0.016780324 0.012989583 0.2070597
-0.015899532 0.013833459 0.20674032
-0.018222813 0.014413767 0.20778582
-0.017048815 0.014929906 0.20691971
-0.015359011 0.014910679 0.20684747
-0.0167145 0.017012173 0.20743313
-0.014688182 0.016858969 0.20724805
-0.013709995 0.017824035 0.20676184
-0.016176034 0.018291228 0.20767641
-0.015405221 0.019043339 0.20680645
-0.013365803 0.01906817 0.20717731
-0.014797787 0.020951774 0.20723923
-0.012667825 0.021099539 0.20711151
-0.011894123 0.021447962 0.20637083
-0.014161772 0.022621572 0.20739457
-0.013441783 0.023128854 0.20692034
-0.011531858 0.023223786 0.20717794
-0.012998295 0.025200754 0.20730713
-0.010840229 0.024834845 0.20705827
-0.012392906 0.026691312 0.20739597
-0.011097441 0.027003521 0.20674244
-0.0097815562 0.027221933 0.20669709
-0.012131136 0.028044447 0.20790888
-0.011315798 0.028976699 0.20697805
-0.0092188101 0.028877638 0.20686568
-0.010536232 0.030884909 0.2068489
-0.0085798958 0.03089815 0.20721464
-0.0078010056 0.031928763 0.20623939
-0.010292036 0.03294066 0.20734952
-0.0091450065 0.032898806 0.20691901
-0.007630541 0.032987617 0.2068499
-0.0095120799 0.034846876 0.20691295
-0.007212705 0.035096433 0.20712538
-0.0092809042 0.037034508 0.20685969
-0.0069442862 0.037061982 0.20682904
-0.0090355305 0.038951624 0.20705143
-0.0065695876 0.039069507 0.20708914
-0.0085763847 0.041240688 0.20719957
-0.0061842883 0.040882081 0.20692262
-0.00595921 0.041380737 0.20634022
-0.0083808983 0.042908788 0.2071247
-0.0061319498 0.042819031 0.20759366
-0.0058130063 0.043352418 0.2067154
-0.0081531964 0.044557434 0.20710087
-0.0074043823 0.045146298 0.20680331
-0.0056815497 0.04475138 0.2071216
-0.0076568848 0.046955023 0.20689102
-0.0051684268 0.047079839 0.20702116
-0.0025729148 0.047654592 0.20622112
-0.0009295051 0.047386356 0.20603873
-0.0074339556 0.048950087 0.20706302
-0.0048075905 0.048671059 0.20730884
-0.002925294 0.048845258 0.20707437
-0.0011675245 0.048948076 0.20717934
0 0.049428273 0.20612906
-0.0070795459 0.050972279 0.20716764
-0.0050423555 0.051313005 0.20660359
-0.0031457115 0.051561262 0.20683114
-0.0011080174 0.051535659 0.20680767
0 0.05069853 0.20689045
-0.0064697168 0.052316021 0.20770055
-0.0043154689 0.052325338 0.20754252
-0.0029354864 0.052684311 0.20791015
-0.0011922868 0.052413922 0.2076315
-0.0050869016 -0.054298699 0.20967129
-0.0039893123 -0.05411762 0.20947376
-0.00077230076 -0.054199971 0.20956358
-0.0069945995 -0.052947063 0.20884007
-0.0046146605 -0.053548772 0.20885319
-0.0031397808 -0.053206604 0.20847993
-0.00075377146 -0.053129207 0.20839548
0 -0.052465755 0.20860867
-0.0074432096 -0.05093896 0.20897757
-0.0048237517 -0.050960563 0.20918399
-0.003164975 -0.051083088 0.20913787
-0.00074387871 -0.051205672 0.20925698
0 -0.0513235 0.20870073
-0.0077715255 -0.049075995 0.20914446
-0.0053936597 -0.048795067 0.20904693
-0.0033429717 -0.049998555 0.20808959
-0.0081263529 -0.046779614 0.20932503
-0.0079183495 -0.047103215 0.20841947
-0.0057341186 -0.047035623 0.20926785
-0.0083990386 -0.045052364 0.20921426
-0.0061280341 -0.044578232 0.20922744
-0.0058740913 -0.045408562 0.20874211
-0.008834227 -0.042887166 0.20907345
-0.0063961083 -0.043036226 0.20879725
-0.0090372181 -0.041166358 0.20902987
-0.0067219278 -0.041032605 0.20882587
-0.009383115 -0.039065745 0.20871127
-0.0070932354 -0.038958568 0.20905446
-0.010153814 -0.036774714 0.20956965
-0.0092975376 -0.036772475 0.20881288
-0.0076646353 -0.036905564 0.20887773
-0.010351375 -0.034839209 0.20923871
-0.0087263649 -0.035160579 0.2091825
-0.007806005 -0.035259664 0.20854397
-0.010932527 -0.03305145 0.20921634
-0.0085124411 -0.032789774 0.20891376
-0.0078597898 -0.033937499 0.20837539
-0.012051569 -0.030431703 0.20983563
-0.011451196 -0.031197114 0.20906416
-0.0091582891 -0.031147642 0.20894612
-0.012515764 -0.028904706 0.20951189
-0.010948491 -0.028974548 0.20895426
-0.0097133862 -0.029239193 0.20848612
-0.013109896 -0.026907485 0.20903599
-0.010714443 -0.02718273 0.20902851
-0.014211796 -0.024902929 0.20947158
-0.013433645 -0.025311921 0.2092388
-0.011551667 -0.025160387 0.20904893
-0.014849599 -0.022894723 0.20900612
-0.012473375 -0.023161657 0.20900543
-0.016238946 -0.020303145 0.20957069
-0.015461294 -0.020898039 0.20876406
-0.013328394 -0.0209172 0.20869654
-0.016469985 -0.018929029 0.20884812
-0.01464476 -0.018922715 0.20913854
-0.013630332 -0.01987323 0.20837288
-0.017386585 -0.017023701 0.20913179
-0.015112916 -0.017259052 0.20884217
-0.018632304 -0.014830118 0.20909084
-0.016750863 -0.015013987 0.20907798
-0.015791466 -0.015713271 0.20849471
-0.019064121 -0.013045337 0.20891818
-0.017068217 -0.012947267 0.20897272
-0.019235006 -0.011022462 0.20885614
-0.017213639 -0.011012635 0.20917495
-0.019365445 -0.0089935018 0.20896298
-0.017364809 -0.008879615 0.20921823
-0.019484855 -0.0070252363 0.20879696
-0.017477881 -0.0070824302 0.20923899
-0.019627376 -0.0046706777 0.20917037
-0.017608263 -0.0049997391 0.20916627
-0.019779703 -0.0031792631 0.2088847
-0.017800622 -0.0029084058 0.20910178
-0.020059828 -0.00096507074 0.20900622
-0.018833756 -0.0010168613 0.20916466
-0.017955903 -0.0015676838 0.20928822
-0.020106198 0.00056034699 0.20903526
-0.018715236 0.00097264972 0.20905165
-0.017949747 0.0014428904 0.20960812
-0.019802313 0.0030578028 0.20880292
-0.017766565 0.0031684267 0.20910423
-0.019597566 0.0051515643 0.20906349
-0.017600646 0.0051273918 0.20902008
-0.019489512 0.0069440589 0.20890878
-0.017472593 0.0071778139 0.20905606
-0.01936119 0.0090548461 0.20920406
-0.017346926 0.0092348037 0.20899734
-0.019218637 0.011081666 0.20905164
-0.017206345 0.010958785 0.20932275
-0.01906541 0.012953206 0.20887811
-0.017090553 0.012905489 0.20904864
-0.018574808 0.014877524 0.20899668
-0.016558204 0.015035619 0.20924012
-0.015863413 0.015632698 0.20854436
-0.018379796 0.01614398 0.2099041
-0.017289443 0.017218029 0.20907851
-0.015308809 0.017161336 0.20910516
-0.016624926 0.018918902 0.20914748
-0.014715905 0.01887884 0.20906223
-0.013811946 0.019512562 0.20840809
-0.016224001 0.020307673 0.20954463
-0.015458817 0.020874746 0.20903969
-0.013504656 0.020746546 0.20888501
-0.014663662 0.023255818 0.20894277
-0.012579044 0.023104185 0.20917414
-0.011963263 0.023211287 0.20807332
-0.01430121 0.024502609 0.20931499
-0.013001298 0.025112618 0.20908259
-0.011596657 0.024831986 0.20881031
-0.012944416 0.027009366 0.20875865
-0.010742483 0.026854049 0.20879009
-0.012383272 0.028989377 0.20929739
-0.010748428 0.028913548 0.2089518
-0.0098251626 0.029510412 0.20903945
-0.012074215 0.030502543 0.2099465
-0.011470351 0.030902367 0.20894921
-0.0092032189 0.031015156 0.20893
-0.010886853 0.032817449 0.20885354
-0.0085131004 0.032928776 0.20905273
-0.0078684939 0.033741891 0.20820449
-0.010417868 0.034977969 0.20950785
-0.0085271038 0.03471534 0.20931157
-0.0078034587 0.035258409 0.20852658
-0.010110988 0.036746901 0.20935984
-0.0093767671 0.036709368 0.20876165
-0.0076359436 0.03704574 0.20892252
-0.0094075985 0.03895358 0.20867777
-0.0071016727 0.038850661 0.20900875
-0.0090683196 0.040947702 0.2090603
-0.0067679579 0.04103741 0.20898587
-0.0088529279 0.042725809 0.20902133
-0.0063779182 0.043151874 0.20885275
