# .PCD v0.7 - Point Cloud Data file format
VERSION 0.7
FIELDS x y z
SIZE 4 4 4
TYPE F F F
COUNT 1 1 1
WIDTH 1273
HEIGHT 1
VIEWPOINT 0 0 0 1 0 0 0
POINTS 1273
DATA ascii
-0.0091284588 -0.12726933 0.0071190125
-0.0074437717 -0.12645082 0.007903574
-0.010662485 -0.12674475 0.0085527254
-0.0091531342 -0.12688638 0.0093925763
-0.0068702199 -0.12749203 0.0085046692
-0.0049468172 -0.12709294 0.008315675
-0.0027578752 -0.12691212 0.0083528087
-0.0011853732 -0.12691259 0.0083528338
0 -0.12656064 0.0092218369
-0.0069576851 -0.12759864 0.010135251
-0.0049369172 -0.12681289 0.01031498
-0.0032878735 -0.1270037 0.010362891
-0.0012233048 -0.12720729 0.010373604
0 -0.12635937 0.010255613
-0.0070473249 -0.12841015 -0.010161403
-0.0049220901 -0.12867467 -0.010424051
-0.0033662287 -0.12924404 -0.010481736
-0.00062474533 -0.1290374 -0.010470859
0 -0.12989552 -0.010480465
-0.010939742 -0.12919216 -0.0084797591
-0.0091172392 -0.12910379 -0.0095142797
-0.0070096739 -0.12913439 -0.0081594475
-0.0049347519 -0.12910479 -0.0084179603
-0.0031780931 -0.12880418 -0.0084533198
-0.001397969 -0.12953591 -0.0084918337
0 -0.12869586 -0.0090494258
-0.012682927 -0.12887378 -0.0069304202
-0.010565955 -0.12890357 -0.0066348761
-0.0090771168 -0.12889935 -0.0072799823
-0.0077260137 -0.12861776 -0.0079059703
-0.014359805 -0.12909089 -0.0044719055
-0.013103263 -0.12884358 -0.0051674498
-0.011595175 -0.12893668 -0.0050917151
-0.01482344 -0.12922518 -0.0034224296
-0.01281112 -0.12917681 -0.0030204777
-0.01535799 -0.12873939 -0.00067746907
-0.01334459 -0.12907389 -0.00089395558
-0.015355015 -0.12924245 0.00088270917
-0.013299499 -0.12887129 0.0011210256
-0.014925161 -0.12881169 0.0030459708
-0.012656732 -0.12948366 0.0034108751
-0.014230793 -0.1291946 0.0047723707
-0.012809943 -0.12898122 0.0047474131
-0.011293209 -0.12909338 0.0054713939
-0.012759491 -0.12924969 0.0068685408
-0.01054128 -0.12904036 0.0068751336
-0.0086441673 -0.12886481 0.007512839
-0.0077420082 -0.12931862 0.0079380069
-0.010722405 -0.12904197 0.008637975
-0.0090935612 -0.12877859 0.0095091816
-0.0066322135 -0.12905127 0.008207567
-0.0049223732 -0.12907319 0.0084138522
-0.002742986 -0.12871596 0.0084477421
-0.0011469708 -0.12884724 0.0084546506
0 -0.12876844 0.0092310859
-0.0080406806 -0.12965006 0.010006579
-0.00667312 -0.12901384 0.010238553
-0.0051923678 -0.12882808 0.010393263
-0.003063834 -0.12898758 0.010467298
-0.00084123557 -0.12888917 0.010462119
0 -0.12913276 0.010253184
-0.0081356224 -0.13187194 -0.010080195
-0.0070389118 -0.13093562 -0.010282724
-0.0052363863 -0.13108429 -0.010517403
-0.002880909 -0.13102327 -0.010575387
-0.00080802798 -0.13096447 -0.010572291
-0.010810766 -0.13127761 -0.0086823571
-0.0094391834 -0.13121286 -0.0094753066
-0.0068695704 -0.1308912 -0.0082990332
-0.0047945199 -0.13087676 -0.0085171666
-0.0032687921 -0.13090225 -0.0085637532
-0.00070709386 -0.13107099 -0.0085726334
0 -0.13083144 -0.0095268302
-0.012751477 -0.13092723 -0.0069828969
-0.010419926 -0.1310609 -0.0064664087
-0.0093602678 -0.13087845 -0.0072020474
-0.014314617 -0.13087721 -0.0047598728
-0.013051373 -0.13090891 -0.004975514
-0.011141976 -0.13086835 -0.0058281124
-0.015092269 -0.13132088 -0.0029323399
-0.012904343 -0.13076249 -0.0030068315
-0.015384688 -0.13078794 -0.0012453207
-0.013459842 -0.13107589 -0.00082585344
-0.015380371 -0.13120836 0.0014294788
-0.013453276 -0.13130009 0.0009432059
-0.015115575 -0.13108777 0.0028651445
-0.012868061 -0.13114832 0.0031342329
-0.014383196 -0.1309527 0.004618871
-0.012855576 -0.13077015 0.0049084914
-0.011593434 -0.13172746 0.0053127939
-0.012851856 -0.13084854 0.0068499218
-0.010283702 -0.13122393 0.0065823039
-0.0089171594 -0.13139641 0.007508636
-0.0079440009 -0.13137408 0.0079642069
-0.010594307 -0.13096204 0.0088402517
-0.0091212997 -0.13091679 0.0095998216
-0.0070286333 -0.13092068 0.0082620177
-0.004543147 -0.13103899 0.0085534872
-0.0026016354 -0.13099973 0.0085679311
-0.00084643543 -0.13066579 0.0085503571
0 -0.13079083 0.0090463674
-0.0068328753 -0.13117522 0.010319631
-0.0052751708 -0.13080761 0.010480311
-0.0031550389 -0.13079622 0.010562484
-0.00094845961 -0.13147746 0.010598335
0 -0.13085648 0.010182052
-0.0082557881 -0.13281399 -0.01007209
-0.0067947148 -0.13326079 -0.010421508
-0.0052529718 -0.13307741 -0.010605095
-0.0028676419 -0.13316657 -0.010688201
-0.00072065723 -0.13233726 -0.010644549
0 -0.13287282 -0.010497828
-0.010742771 -0.13309027 -0.0088353055
-0.0091806026 -0.13303594 -0.0094603216
-0.0067460882 -0.1332837 -0.0084412517
-0.0049371473 -0.1331356 -0.0086360993
-0.0029436538 -0.13283095 -0.0086652692
-0.00071341393 -0.13284162 -0.0086658308
0 -0.13350552 -0.0094281016
-0.012908855 -0.13323295 -0.0069126752
-0.011157495 -0.13292325 -0.0070891981
-0.0089334529 -0.13302042 -0.0076038656
-0.014395786 -0.13297427 -0.0048117968
-0.012693148 -0.13312466 -0.0050912821
-0.011371762 -0.13294071 -0.0057067289
-0.015155169 -0.133386 -0.002920375
-0.01306139 -0.13284218 -0.0028860786
-0.015580895 -0.13316129 -0.00074823241
-0.01357249 -0.13299137 -0.00073924259
-0.01553451 -0.13305008 0.0010290346
-0.013543744 -0.13302775 0.00095950032
-0.01504433 -0.13269915 0.0032902828
-0.013076369 -0.13321473 0.0029052866
-0.014357626 -0.1331536 0.0048862896
-0.012665087 -0.1330311 0.0047648493
-0.011544092 -0.13333492 0.0055143549
-0.012927538 -0.13290271 0.0068888441
-0.010513237 -0.13279079 0.006508579
-0.0091324057 -0.13289553 0.0074872058
-0.010719805 -0.13307823 0.0088432841
-0.0088735837 -0.13289271 0.0098040029
-0.0067766868 -0.13290817 0.0083601316
-0.0050166533 -0.13298143 0.0086171804
-0.0033943099 -0.13273166 0.0086590797
-0.0012302846 -0.13309003 0.0086779399
0 -0.1329926 0.0094494382
-0.0083093587 -0.13277805 0.010046208
-0.0067659896 -0.13262458 0.010396533
-0.0049786861 -0.13276106 0.010618696
-0.0031139394 -0.13326271 0.01069229
-0.0010492146 -0.13273765 0.010664658
0 -0.13209364 0.010191008
-0.0083463229 -0.13507101 -0.010159113
-0.0065402146 -0.13527064 -0.010563316
-0.0049927747 -0.13513343 -0.010746911
-0.0027166726 -0.13510743 -0.010790356
-0.0010196203 -0.1349858 -0.010783955
0 -0.13448806 -0.010228669
-0.010982039 -0.13463378 -0.008751221
-0.009244089 -0.13511957 -0.0097673917
-0.0070483359 -0.13473648 -0.0084145889
-0.0051522949 -0.13589676 -0.0087629128
-0.0031506144 -0.1350521 -0.008782181
-0.00056927139 -0.13507937 -0.0087836152
0 -0.13502124 -0.0094162542
-0.013000954 -0.13493198 -0.0069538709
-0.010655401 -0.13475269 -0.0065275743
-0.0096249441 -0.13483784 -0.0073244013
-0.014496228 -0.13498929 -0.0048489529
-0.01253174 -0.13523479 -0.0047911191
-0.011503189 -0.1346117 -0.005680019
-0.015237502 -0.13505076 -0.0031342136
-0.013278412 -0.13485008 -0.0026433426
-0.015647531 -0.13498597 -0.0009758462
-0.013652231 -0.13493936 -0.00090634014
-0.015620446 -0.13461706 0.0010047836
-0.013647238 -0.13492268 0.00093554542
-0.015293358 -0.13551618 0.0029964456
-0.013368921 -0.13561164 0.002509549
-0.014423749 -0.13525465 0.0050193914
-0.01251722 -0.13496144 0.0043270118
-0.011595112 -0.1346169 0.0055613108
-0.012906473 -0.13497901 0.0070772339
-0.010705884 -0.13478842 0.0064925766
-0.0090840263 -0.13505895 0.0076472051
-0.011182725 -0.13495274 0.008632727
-0.0094849057 -0.13495021 0.0096499985
-0.0069991359 -0.13508144 0.0084218169
-0.0050096354 -0.13513035 0.0087258136
-0.0030821576 -0.13525631 0.0087919468
-0.00095539866 -0.13508953 0.00878317
0 -0.13483201 0.0095149744
-0.0083930092 -0.13479987 0.010121528
-0.0071916142 -0.13492748 0.010457392
-0.0047483519 -0.13475488 0.010736804
-0.0027899514 -0.13503757 0.010785697
-0.00087432825 -0.13513258 0.010790697
0 -0.13516748 0.01048452
-0.0084608048 -0.1368321 -0.010213088
-0.006989365 -0.13690041 -0.010593688
-0.0048590763 -0.13711692 -0.010856043
-0.0028612863 -0.13699214 -0.010889558
-0.001186888 -0.13712162 -0.010896374
0 -0.13734303 -0.010464353
-0.012104757 -0.13725884 -0.0081015788
-0.011116254 -0.13761881 -0.0088898474
-0.0093309116 -0.13735612 -0.0093249548
-0.0068038544 -0.13704781 -0.0086190905
-0.0049685473 -0.13690501 -0.00882651
-0.0028226862 -0.13693483 -0.0088812783
-0.00067582197 -0.13712679 -0.0088913813
0 -0.13643922 -0.0094712041
-0.013003386 -0.13667929 -0.0071194912
-0.01072435 -0.1370905 -0.0066239648
-0.0093953228 -0.13695736 -0.0076054758
-0.014656387 -0.1375418 -0.004866465
-0.012450034 -0.13677181 -0.0046529123
-0.011772635 -0.13669492 -0.0055166222
-0.015293396 -0.13685438 -0.0032242124
-0.013094424 -0.13658622 -0.0033323898
-0.015757615 -0.13674186 -0.0008624745
-0.013751825 -0.13708898 -0.0010081546
-0.015793895 -0.13726369 0.00076569541
-0.013739653 -0.1371485 0.0011226971
-0.015270784 -0.13709198 0.0033366724
-0.013325877 -0.13710728 0.0028691269
-0.014565483 -0.13711073 0.0049719252
-0.012733139 -0.13720064 0.0046871742
-0.011727451 -0.13721555 0.005619552
-0.012894524 -0.13698792 0.007291453
-0.010925437 -0.13707799 0.006466425
-0.0091556134 -0.137264 0.0077612349
-0.010964721 -0.13676891 0.0089274412
-0.0088142399 -0.13724759 0.0088491281
-0.0069849705 -0.1368117 0.0085495915
-0.0046297563 -0.13702989 0.0088657541
-0.0029566779 -0.13703482 0.0088855457
-0.0007990601 -0.13702381 0.0088849664
0 -0.13687308 0.0094799111
-0.0085747326 -0.13726734 0.010187751
-0.0068079866 -0.13687089 0.010614053
-0.0050862506 -0.13666575 0.010807962
-0.002502376 -0.13721745 0.010900421
-0.0012148643 -0.13708614 0.010893509
0 -0.13759826 0.010803291
-0.0086896643 -0.13925008 -0.01025566
-0.0067658722 -0.13937156 -0.010755857
-0.0049919281 -0.13893333 -0.010949082
-0.0030624876 -0.13879639 -0.010984525
-0.00075564964 -0.13921832 -0.011006733
0 -0.13958 -0.010768048
-0.012166839 -0.13915649 -0.0082048373
-0.010898588 -0.13899724 -0.009143942
-0.0088678636 -0.13921715 -0.0085014924
-0.0070719654 -0.13881733 -0.0086675286
-0.0051116212 -0.13913481 -0.0089335535
-0.0034997622 -0.13929492 -0.0090055009
-0.0012259391 -0.13876344 -0.0089775268
0 -0.13894749 -0.0091944151
-0.014096221 -0.13952474 -0.0060361787
-0.012948366 -0.13924022 -0.0074500968
-0.010672582 -0.13885228 -0.0067900573
-0.009459042 -0.13904051 -0.0077108536
-0.014606912 -0.13907509 -0.005166471
-0.012473931 -0.13895473 -0.0047882865
-0.011624573 -0.13900955 -0.0059055299
-0.015435791 -0.13867056 -0.0031585228
-0.013309206 -0.13856652 -0.0031015803
-0.015871311 -0.13947365 -0.0011058868
-0.013839069 -0.13897805 -0.001102983
-0.015849158 -0.13906045 0.0010436428
-0.013853262 -0.13897318 0.00099783263
-0.015579498 -0.13918565 0.00266156
-0.013273398 -0.13902332 0.0032545354
-0.014829502 -0.13920113 0.0047361688
-0.012516652 -0.13911895 0.0047542294
-0.011727873 -0.13873239 0.0057500573
-0.01327726 -0.13912572 0.0070709563
-0.010788552 -0.13907069 0.0067026289
-0.0094746752 -0.13912043 0.0077117719
-0.01230979 -0.13848534 0.0080436291
-0.011301839 -0.13917144 0.0088631585
-0.0089051854 -0.13910551 0.0089535415
-0.0071065985 -0.13901988 0.0086463336
-0.0055371965 -0.13914262 0.0088883359
-0.0031288716 -0.1387822 0.0089775063
-0.0013556661 -0.13889188 0.0089832786
0 -0.13899243 0.0093957428
-0.0085196001 -0.13878997 0.010302218
-0.0076236343 -0.13907824 0.010622017
-0.004322899 -0.13895495 0.010991862
-0.0028914311 -0.1391103 0.011000036
-0.0013717067 -0.1393172 0.011010926
0 -0.1394641 0.010540224
-0.0090115108 -0.14145608 -0.010252554
-0.0068877456 -0.14113493 -0.010836227
-0.0049943281 -0.14084378 -0.011039717
-0.0031002264 -0.14121701 -0.011111936
-0.0011828813 -0.14115335 -0.011108586
0 -0.14136434 -0.010079755
-0.012299431 -0.140838 -0.0082381489
-0.01088047 -0.14117903 -0.0093120215
-0.0091380682 -0.14100902 -0.0089970911
-0.0067578754 -0.14121157 -0.0088515924
-0.004798945 -0.1410905 -0.009065778
-0.0027285558 -0.14098777 -0.0090946052
-0.001105828 -0.14111805 -0.0091014626
0 -0.14070497 -0.00944144
-0.014123386 -0.14073361 -0.0061197216
-0.01338177 -0.14122936 -0.0071497057
-0.010776429 -0.14090568 -0.0068426454
-0.0094766039 -0.14153606 -0.0078769736
-0.014775124 -0.14090504 -0.0050762161
-0.012674558 -0.14108647 -0.0046952339
-0.01179078 -0.14148918 -0.0059063071
-0.015526278 -0.14107867 -0.0032494573
-0.013599375 -0.14087595 -0.0027122053
-0.016041074 -0.14115612 -0.00050409773
-0.01489942 -0.14122635 -0.00088506081
-0.013937881 -0.14056931 -0.0009978374
-0.016038835 -0.14123459 0.00051407225
-0.015507191 -0.14092584 0.0010124834
-0.01392515 -0.14093831 0.0012502817
-0.015522792 -0.14107196 0.0032720915
-0.013634564 -0.14108816 0.0026726865
-0.014870515 -0.14103614 0.0048891879
-0.012619391 -0.14090796 0.0047840718
-0.011824658 -0.14108571 0.0058279908
-0.014171992 -0.14091937 0.0060740369
-0.013389496 -0.14117846 0.0071259281
-0.010784048 -0.14113945 0.006862293
-0.0094965473 -0.14129864 0.0078449911
-0.012241687 -0.14082065 0.0082790647
-0.010245314 -0.14105412 0.0097160116
-0.0086885523 -0.14091136 0.0084676351
-0.0068790191 -0.14097278 0.0088269711
-0.0050186245 -0.14055331 0.0090090577
-0.0027057533 -0.14065214 0.0090759173
-0.0011411908 -0.14105727 0.0090972399
0 -0.14089079 0.0096017802
-0.0084514534 -0.14112321 0.010473479
-0.0072573312 -0.14113747 0.010788121
-0.0048696604 -0.14071605 0.011033188
-0.0031180077 -0.14082079 0.011090055
-0.0011357454 -0.14075595 0.011086644
0 -0.14107303 0.010458072
-0.0089180497 -0.14268605 -0.010369004
-0.0064906557 -0.14324947 -0.011001096
-0.0053405818 -0.14308119 -0.011137134
-0.0030140255 -0.14304519 -0.01120816
-0.001310943 -0.14307773 -0.011209876
0 -0.14337452 -0.010997242
-0.012390426 -0.14312394 -0.0083503807
-0.011320724 -0.14279373 -0.0091103353
-0.0089321509 -0.14298585 -0.0087606339
-0.0069961972 -0.14279246 -0.0088757919
-0.0048467191 -0.14317361 -0.0091686584
-0.0033637616 -0.14300868 -0.0092009753
-0.00096800597 -0.14334722 -0.0092187934
0 -0.14201584 -0.0092715584
-0.013518726 -0.1428196 -0.0071337544
-0.010902296 -0.1429531 -0.0068562641
-0.0097253034 -0.14308363 -0.007826251
-0.014761723 -0.14266047 -0.0053487518
-0.01269261 -0.14279439 -0.0048082802
-0.015722543 -0.14288951 -0.0030144462
-0.013577185 -0.14297391 -0.0030809301
-0.016103823 -0.14313832 -0.0008159398
-0.014774591 -0.14292617 -0.0011344957
-0.013981998 -0.14210609 -0.0012975627
-0.016099842 -0.143057 0.00077047845
-0.014640521 -0.1427668 0.00087651913
-0.013993287 -0.1431769 0.0016731864
-0.015715387 -0.14314026 0.0030190237
-0.013521679 -0.14288406 0.0031966497
-0.014941134 -0.14286663 0.0049796798
-0.012707108 -0.14281872 0.0047782515
-0.011845658 -0.14277627 0.0059454404
-0.014199982 -0.14366516 0.0063133789
-0.013438533 -0.14268076 0.0072250259
-0.010845684 -0.14317587 0.0069233426
-0.0099549918 -0.14203887 0.0075749978
-0.012345633 -0.14325203 0.0083930483
-0.011173238 -0.14294529 0.0092348261
-0.0087798405 -0.14283636 0.008605103
-0.0070145004 -0.14281994 0.0088698799
-0.0048985318 -0.14293016 0.0091510136
-0.0029803945 -0.14308119 0.0092037544
-0.0012716228 -0.14306436 0.0092028677
0 -0.14332376 0.0094748521
-0.0097181108 -0.1437763 0.010109805
-0.0070078308 -0.14305934 0.010923722
-0.0049698483 -0.14305404 0.011167369
-0.0026307472 -0.14313456 0.011211826
-0.00092283112 -0.14301221 0.011205386
0 -0.14287625 0.010445071
-0.010108873 -0.14527392 -0.010048828
-0.0088910591 -0.14522375 -0.010544213
-0.0069470829 -0.14495635 -0.011037094
-0.0056955139 -0.1449552 -0.011193648
-0.0032933843 -0.14517361 -0.011320192
-0.00067619688 -0.14467755 -0.011294083
0 -0.1449101 -0.01058243
-0.01241233 -0.14513192 -0.0084924866
-0.011301446 -0.14486793 -0.0093057947
-0.0086453371 -0.14495678 -0.0084518213
-0.0067102038 -0.14524095 -0.0090743247
-0.0046910541 -0.14513969 -0.0092830472
-0.0029489438 -0.14497626 -0.0093045402
-0.0011528896 -0.14511445 -0.0093118148
0 -0.14487314 -0.0096174879
-0.014246408 -0.14542156 -0.0064374143
-0.013344719 -0.14496896 -0.007245474
-0.011055251 -0.14498439 -0.0068634111
-0.00993382 -0.14486177 -0.007785541
-0.015046854 -0.14467147 -0.005032606
-0.012685431 -0.14499538 -0.005029479
-0.016051482 -0.14561684 -0.002186869
-0.015592622 -0.14530458 -0.0031088446
-0.013631254 -0.14501983 -0.0032363788
-0.016170301 -0.14468852 -0.000929259
-0.014179483 -0.14478603 -0.00088851963
-0.016194806 -0.14502949 0.00085750595
-0.014156314 -0.1450507 0.0011902627
-0.016028076 -0.14532685 0.0022262204
-0.015621565 -0.14489546 0.0031098572
-0.013562358 -0.14497666 0.0033917858
-0.01507875 -0.14487609 0.0049656262
-0.012788245 -0.14498907 0.0048998701
-0.011985543 -0.14402568 0.0058747143
-0.014252335 -0.14413673 0.0062932111
-0.013527823 -0.14512818 0.0073635904
-0.010984079 -0.14492284 0.0069341888
-0.0097636292 -0.14421041 0.007872588
-0.012528541 -0.14506063 0.0083986446
-0.011235558 -0.14502145 0.0093595218
-0.0089541394 -0.1448144 0.0083082225
-0.0070796628 -0.14509889 0.0090034781
-0.0049778996 -0.14529571 0.0092691705
-0.0032265231 -0.1453836 0.0093249241
-0.00066278811 -0.14554137 0.0093332278
0 -0.14507571 0.0094031366
-0.010007028 -0.14588919 0.010129185
-0.0090896795 -0.14492765 0.010441039
-0.0067376727 -0.14518283 0.011074562
-0.0048515247 -0.14552912 0.011302118
-0.0032428203 -0.14484718 0.011301957
-0.001138526 -0.14496621 0.011308223
0 -0.14522493 0.010737868
-0.01016521 -0.14714676 -0.010148038
-0.0093165087 -0.14701588 -0.010485381
-0.0072523165 -0.14706296 -0.011116346
-0.0048808516 -0.14704302 -0.011388768
-0.0032418503 -0.14716721 -0.011429001
-0.0010592917 -0.14653476 -0.011393324
0 -0.14692406 -0.010480467
-0.01275737 -0.14750284 -0.0084178736
-0.011240227 -0.14738062 -0.0095443875
-0.0093844198 -0.14681099 -0.0082383892
-0.0069962251 -0.14680277 -0.0090772938
-0.0048076599 -0.14720115 -0.0093876701
-0.0033327183 -0.14700282 -0.0094135879
-0.00094984873 -0.14689769 -0.0094076749
0 -0.14698042 -0.0096920673
-0.014579753 -0.14718977 -0.0061677955
-0.013277789 -0.14731334 -0.0072864289
-0.011103276 -0.14653252 -0.006938058
-0.0099182669 -0.14695431 -0.0079404106
-0.015341848 -0.14707464 -0.0046758899
-0.012930188 -0.14672484 -0.0048471051
-0.016086463 -0.14690481 -0.0024596965
-0.015195059 -0.14763604 -0.0029845086
-0.013667176 -0.14707212 -0.0034387927
-0.016208548 -0.14617845 -0.0012305574
-0.014253848 -0.14702418 -0.0012661039
-0.016282693 -0.14695328 0.00099890924
-0.014270242 -0.14689505 0.0010853154
-0.016054746 -0.14691262 0.0027037549
-0.015255246 -0.14674646 0.00300652
-0.013799572 -0.14754547 0.0032022693
-0.015085123 -0.14711198 0.0052463342
-0.012979458 -0.14686477 0.0047658966
-0.014151858 -0.14678487 0.006704506
-0.013498884 -0.14678679 0.0075754919
-0.01116576 -0.14723822 0.0069756215
-0.0099580158 -0.14604868 0.0078452295
-0.012610661 -0.14697513 0.0084869526
-0.011280054 -0.14708741 0.009490205
-0.009183716 -0.14710662 0.0083419941
-0.0071558645 -0.14713742 0.009133108
-0.0047323643 -0.14670002 0.0093663698
-0.0031584706 -0.14704098 0.0094144447
-0.0010304004 -0.14707123 0.0094164014
0 -0.1462131 0.0096221138
-0.010231218 -0.14696318 0.010108021
-0.0090331901 -0.14706868 0.010603144
-0.0069988114 -0.14702056 0.011144617
-0.0050506191 -0.14672132 0.011354483
-0.0031943624 -0.1466953 0.011400482
-0.0010715508 -0.1472332 0.01143227
0 -0.14694768 0.010267411
-0.010203394 -0.14940271 -0.010281397
-0.0091688316 -0.1490995 -0.010683385
-0.0071119401 -0.14882253 -0.011239948
-0.005078075 -0.14904432 -0.011491254
-0.0031386237 -0.14906916 -0.011543049
-0.0011008579 -0.14849795 -0.011508689
0 -0.14875765 -0.010701581
-0.01266156 -0.14899483 -0.0085867578
-0.011231372 -0.14895901 -0.0096718641
-0.0092817117 -0.14906016 -0.0084199114
-0.0072223763 -0.14919503 -0.0092196157
-0.0051082945 -0.14883003 -0.0094633093
-0.0027623079 -0.14915328 -0.0095410356
-0.0007695065 -0.14899625 -0.0095316609
0 -0.14838204 -0.0098396773
-0.014646528 -0.14892474 -0.0062361099
-0.013385168 -0.14871827 -0.0073242593
-0.010883949 -0.14853497 -0.0072942502
-0.01513376 -0.14878295 -0.0054456764
-0.012918875 -0.14925191 -0.0051618065
-0.016194094 -0.14907725 -0.0026169894
-0.014948159 -0.14916624 -0.0030192959
-0.013755676 -0.14892635 -0.0035114377
-0.016472673 -0.14929149 -0.00062459236
-0.014385014 -0.1491866 -0.0011722093
-0.016373737 -0.14878848 0.0011386224
-0.014370009 -0.14874986 0.0011706671
-0.01618002 -0.1494085 0.0027590003
-0.015025774 -0.14881998 0.003019172
-0.013794109 -0.14868702 0.003386063
-0.015354461 -0.14919655 0.0049679745
-0.013102925 -0.14894953 0.0047717537
-0.014368969 -0.14871457 0.0066094631
-0.012692988 -0.1489404 0.0067754919
-0.011152798 -0.1491406 0.0071080448
-0.012851606 -0.14891657 0.008443105
-0.011258227 -0.14902914 0.0092890253
-0.0087824482 -0.14923556 0.0086434763
-0.0069226921 -0.14890176 0.0092579182
-0.0052830195 -0.14965391 0.0094916625
-0.0031725354 -0.14895119 0.0095278881
-0.00093737384 -0.14872323 0.0095142797
0 -0.14998393 0.0096100746
-0.01038816 -0.14929131 0.010196459
-0.0089207022 -0.1488861 0.01076909
-0.0065932786 -0.1490417 0.011316153
-0.0050142249 -0.149518 0.011518926
-0.0031218079 -0.14902154 0.011539101
-0.00081283669 -0.14889665 0.011531587
0 -0.14855492 0.010871192
-0.01045103 -0.15121821 -0.010297096
-0.0089588976 -0.15141943 -0.010920921
-0.0071069212 -0.15061837 -0.011350297
-0.0051477803 -0.15121168 -0.011620678
-0.0026813149 -0.15102664 -0.011660798
-0.0010125722 -0.15092444 -0.011654652
0 -0.15073039 -0.010914201
-0.013058931 -0.15122278 -0.0084256865
-0.01135698 -0.15091249 -0.0092966063
-0.0084358221 -0.15104432 -0.0089002103
-0.0073962049 -0.150777 -0.0093022538
-0.0050717317 -0.15104404 -0.0095973099
-0.0028166187 -0.15105276 -0.0096544456
-0.001079003 -0.15127462 -0.0096676927
0 -0.15100037 -0.009696139
-0.014560724 -0.15106946 -0.0065471279
-0.013434409 -0.15056576 -0.0073131751
-0.010990201 -0.1507176 -0.0073742
-0.015334669 -0.15084 -0.0052763321
-0.013013099 -0.15110347 -0.0051912307
-0.016183924 -0.15115072 -0.0031595295
-0.014233144 -0.15122034 -0.0026354634
-0.013891085 -0.15161692 -0.0036035951
-0.016516361 -0.15097727 -0.0010579294
-0.014464751 -0.15076171 -0.0012155219
-0.016520046 -0.15119262 0.0011258735
-0.014568075 -0.15127139 0.00079044374
-0.016256614 -0.15138038 0.0029503584
-0.014672352 -0.15069987 0.0028749031
-0.013817057 -0.15153883 0.0037610435
-0.015371355 -0.15113239 0.0052509913
-0.013133756 -0.15062928 0.0049094707
-0.014425111 -0.15113817 0.0067775687
-0.013316886 -0.15082502 0.0072208275
-0.011053195 -0.15068546 0.0073209074
-0.012607477 -0.15066977 0.0087374179
-0.010972804 -0.15082642 0.0089753019
-0.0089169964 -0.15088759 0.0086860349
-0.0071340078 -0.15121618 0.0093366196
-0.00508179 -0.1515916 0.0096296985
-0.0029496241 -0.15118289 0.0096611166
-0.0010582698 -0.15100503 0.0096504977
-0.010794986 -0.1509729 0.01011831
-0.0089228498 -0.15101883 0.010909713
-0.0070294933 -0.15149309 0.011412309
-0.0049865427 -0.15100534 0.011614362
-0.0032124503 -0.15105888 0.011661639
-0.00057365635 -0.15079136 0.01164555
0 -0.15087292 0.01085561
-0.010486501 -0.15339524 -0.010421722
-0.0090125045 -0.15294547 -0.010999803
-0.0067163077 -0.15324044 -0.011557118
-0.0050108451 -0.15314738 -0.011747514
-0.0028655436 -0.15328291 -0.011796523
-0.0007116553 -0.15319125 -0.011791009
0 -0.15302238 -0.010697114
-0.012832697 -0.15285972 -0.0087072682
-0.011524035 -0.15292254 -0.0097503895
-0.009074905 -0.15289976 -0.0087479353
-0.0075542619 -0.15306833 -0.0093733529
-0.0049009211 -0.1531851 -0.0097413817
-0.0027140412 -0.15315422 -0.0097799124
-0.00097517122 -0.15287414 -0.0097631905
-0.01447096 -0.15294316 -0.0068353559
-0.012281689 -0.1530751 -0.0063739591
-0.011324972 -0.15283246 -0.0072832848
-0.015568499 -0.15286489 -0.0050420389
-0.013237872 -0.15304604 -0.0050624511
-0.016298903 -0.15324788 -0.0032387865
-0.014346262 -0.15307334 -0.002635011
-0.013811341 -0.15265553 -0.0039427979
-0.016661325 -0.15291989 -0.00084905612
-0.014644416 -0.15317257 -0.00090712955
-0.016623868 -0.15267693 0.0010180806
-0.014642964 -0.15294033 0.00097835169
-0.016357075 -0.15279281 0.0029068124
-0.014235869 -0.15329449 0.0029686296
-0.01380433 -0.15234523 0.0039112717
-0.015591479 -0.15276006 0.0049804985
-0.013425701 -0.15296684 0.0047074147
-0.014823932 -0.15316395 0.0064488822
-0.013600871 -0.15306458 0.0074583944
-0.011072951 -0.15314023 0.0075032623
-0.012632204 -0.1529395 0.0088950712
-0.011296465 -0.15286006 0.0094019035
-0.0089390343 -0.15276921 0.0087905498
-0.0070278337 -0.15282288 0.0094282208
-0.0050426675 -0.15284254 0.0097058769
-0.0030123589 -0.15301675 0.0097705927
-0.00093739753 -0.15338621 0.0097926501
-0.010814483 -0.15286139 0.010210409
-0.0095069753 -0.15293615 0.010797798
-0.0069427001 -0.15323019 0.011528563
-0.0046536941 -0.15323348 0.0117759
-0.0034302969 -0.15319121 0.011789894
-0.0011792874 -0.1528042 0.011766614
0 -0.15308623 0.010889141
-0.010680764 -0.15539271 -0.010454583
-0.0090122428 -0.15509523 -0.011143317
-0.0069257878 -0.155 -0.011640873
-0.0049003046 -0.15489505 -0.011858437
-0.0031028611 -0.15460582 -0.011876102
-0.0010385861 -0.15466455 -0.011879633
0 -0.15525331 -0.011017367
-0.012719679 -0.15483014 -0.0089507299
-0.011139166 -0.155044 -0.0090229074
-0.008816218 -0.15494397 -0.0089793643
-0.0069769449 -0.15495235 -0.0095716445
-0.0051770844 -0.15504226 -0.009831016
-0.0031920285 -0.15520498 -0.0099023534
-0.0012629478 -0.15474886 -0.0098751197
-0.014379482 -0.15503739 -0.0071504745
-0.013932798 -0.15532006 -0.0077463151
-0.011132059 -0.15433589 -0.0075549735
-0.016053654 -0.1552224 -0.0042379
-0.015731677 -0.15470861 -0.00493789
-0.013335993 -0.15527162 -0.0051486446
-0.016491154 -0.15516067 -0.0029690757
-0.014280076 -0.15541199 -0.0032036109
-0.016755879 -0.15499395 -0.001088541
-0.01468429 -0.15487997 -0.0013042821
-0.016763315 -0.15506014 0.0010544616
-0.014766019 -0.15495808 0.00092263211
-0.016365979 -0.15531066 0.0034310012
-0.014377872 -0.15479586 0.002803178
-0.01397277 -0.15415946 0.0037884791
-0.016005337 -0.15548529 0.0044098492
-0.015668176 -0.15495823 0.0051388154
-0.013360773 -0.15508802 0.0050365306
-0.014860341 -0.15483554 0.0065627745
-0.013082263 -0.15507111 0.0067720162
-0.011187893 -0.15529014 0.0075832191
-0.013015682 -0.15525198 0.008722228
-0.010784777 -0.15491624 0.0087346174
-0.0088815158 -0.15516923 0.0089660017
-0.0067793713 -0.15517443 0.0096378848
-0.0051933061 -0.15513247 0.009833781
-0.0028077581 -0.15486158 0.0098807262
-0.00067667192 -0.15488045 0.0098818522
0 -0.15455922 0.0099784099
-0.011183008 -0.15523592 0.010171834
-0.0090615116 -0.15512034 0.011123062
-0.0072181146 -0.15521091 0.011618412
-0.0052745254 -0.1549741 0.011822778
-0.003093591 -0.15522969 0.0119125
-0.0011743588 -0.15488386 0.011891699
0 -0.15480708 0.010622289
-0.0042818305 -0.15798475 -0.012079356
-0.0028309571 -0.15741882 -0.012045314
-0.00086540938 -0.15697663 -0.012018714
-0.010665484 -0.15702553 -0.010553971
-0.0090587894 -0.15689951 -0.011242453
-0.0075618154 -0.15687421 -0.011682104
-0.0051613441 -0.15686025 -0.011450216
-0.0032436843 -0.15681744 -0.011338845
-0.0012882698 -0.15656748 -0.011189826
0 -0.15719955 -0.011035952
-0.012853682 -0.15688378 -0.0089652939
-0.010889675 -0.15732448 -0.0091243377
-0.0089835254 -0.15712054 -0.0090495246
-0.0067686019 -0.15718772 -0.0097403508
-0.0050864667 -0.157019 -0.0099667087
-0.0031422626 -0.15640233 -0.0099738417
-0.014794732 -0.15705718 -0.0068250475
-0.012849267 -0.15694687 -0.0068471981
-0.011580521 -0.1574274 -0.0074538225
-0.016120812 -0.15723582 -0.0043985662
-0.015463109 -0.15660916 -0.0051265322
-0.01350556 -0.15669152 -0.0050821402
-0.016646059 -0.15736786 -0.0028629177
-0.014236268 -0.15704256 -0.0035504219
-0.016912278 -0.15688887 -0.00077411934
-0.014789957 -0.15663001 -0.001283491
-0.016886069 -0.15713008 0.0010888593
-0.014913158 -0.15714067 0.00076137169
-0.016550494 -0.15668954 0.0031064402
-0.014430995 -0.15710562 0.0030716388
-0.01617525 -0.15712187 0.0042566
-0.015694667 -0.15694949 0.0053909062
-0.013411562 -0.15687749 0.0051921862
-0.014728337 -0.15721856 0.0069496674
-0.012829143 -0.15701073 0.0068740877
-0.011427183 -0.15660623 0.0075047268
-0.013064845 -0.15729934 0.0088278651
-0.010790634 -0.15723082 0.008778166
-0.0088595394 -0.15689963 0.0090837991
-0.0071107494 -0.15722775 0.009689223
-0.005250141 -0.15717468 0.0099555776
-0.0033906105 -0.15655084 0.0099815717
-0.00047984635 -0.15663403 0.0099865375
-0.010635022 -0.15703845 0.010573895
-0.0089109782 -0.1572146 0.01132302
-0.0070912438 -0.15679947 0.011731697
-0.0050555607 -0.1570458 0.011055264
-0.0031070919 -0.15711714 0.010589767
-0.00094596716 -0.15738909 0.010031613
0 -0.15671816 0.010802765
-0.0045611775 -0.15722947 0.01203278
-0.0026761701 -0.15731211 0.012037749
-0.00068690209 -0.15713282 0.012026967
-0.0063763675 -0.15985946 -0.012006423
-0.0050821565 -0.15903574 -0.012105163
-0.0028102945 -0.15884595 -0.012131159
-0.0007455562 -0.15891814 -0.012135504
0 -0.15946279 -0.012057635
-0.010442646 -0.15888038 -0.010799726
-0.0090201497 -0.15953572 -0.011430079
-0.0068627922 -0.15877077 -0.011881783
-0.0054595466 -0.15873341 -0.010421873
-0.003261388 -0.1589942 -0.01012859
-0.0012286674 -0.15897956 -0.010127716
0 -0.15885605 -0.011387992
-0.012947151 -0.15870039 -0.0090211965
-0.010842672 -0.15885927 -0.0086409664
-0.0088635301 -0.15914793 -0.0092276456
-0.0072279964 -0.15898864 -0.009769924
-0.0058105327 -0.15898061 -0.0099811899
-0.014720581 -0.15926592 -0.0071294834
-0.012440453 -0.15915748 -0.0067730532
-0.011449206 -0.15906957 -0.0076834308
-0.016215844 -0.15895383 -0.0044444799
-0.015459715 -0.15889698 -0.005186372
-0.013555057 -0.15889369 -0.0052649849
-0.016717048 -0.1591386 -0.0029070994
-0.014491273 -0.15902705 -0.0031414838
-0.017009197 -0.15873046 -0.00089713279
-0.014953594 -0.15905885 -0.0011593826
-0.01700213 -0.1585172 0.00084719918
-0.01492479 -0.1590751 0.0013895382
-0.016772294 -0.15876521 0.0028083108
-0.014593541 -0.15894079 0.0029089516
-0.016275734 -0.15891707 0.0042960891
-0.015262553 -0.15922831 0.0052529578
-0.013670972 -0.15916708 0.0050627175
-0.014696429 -0.15887816 0.0071337465
-0.012450777 -0.15915437 0.0067474726
-0.011560598 -0.1589047 0.0075843977
-0.012919934 -0.15907668 0.0090554859
-0.01077792 -0.15891255 0.0086919768
-0.008933994 -0.15925737 0.0092053264
-0.0070268707 -0.15889458 0.0097998809
-0.010728941 -0.15881231 0.010647269
-0.0091047585 -0.15921126 0.011367083
-0.0077093304 -0.15857311 0.011768798
-0.004889477 -0.15887147 0.010305182
-0.0032125961 -0.15889956 0.010121785
-0.0011701214 -0.1591654 0.010137654
0 -0.15893668 0.010982236
-0.0062065404 -0.15960953 0.012009768
-0.004371074 -0.15920538 0.012151624
-0.003282147 -0.15930416 0.012157564
-0.0012488576 -0.15872216 0.01212256
0 -0.15900433 0.01206148
-0.0065937475 -0.16066965 -0.01203512
-0.0048096082 -0.16093691 -0.012243547
-0.0031873938 -0.1610236 -0.012269335
-0.00099588372 -0.1611151 -0.01227548
0 -0.16017599 -0.012070762
-0.011258348 -0.16088048 -0.010469496
-0.0088795563 -0.16134091 -0.011603868
-0.0063616312 -0.16126552 -0.010459693
-0.0051314943 -0.16116261 -0.010195323
-0.003358948 -0.16070931 -0.010235048
-0.00092725753 -0.16110979 -0.010262378
0 -0.16123061 -0.011112648
-0.014069083 -0.16074707 -0.0080853142
-0.013100422 -0.16112322 -0.0090588247
-0.01054394 -0.16100712 -0.0087793479
-0.0091858879 -0.16091137 -0.0092207836
-0.0075629824 -0.1607504 -0.0098140771
-0.014752782 -0.16110173 -0.0072644372
-0.012593817 -0.1610287 -0.0067694485
-0.011638043 -0.16138101 -0.0077268435
-0.016209489 -0.16088523 -0.0047658319
-0.01485236 -0.16094741 -0.004817815
-0.013505895 -0.16083938 -0.0055460138
-0.016895896 -0.16129988 -0.0028872411
-0.01463244 -0.16089049 -0.0031450996
-0.017147504 -0.16127148 -0.0010467928
-0.01506035 -0.16115767 -0.0013511349
-0.017140089 -0.16102736 0.0010307308
-0.015091996 -0.16076076 0.00096075004
-0.016926644 -0.16111489 0.0026912021
-0.014793989 -0.1609267 0.0026490747
-0.016234925 -0.16151765 0.0048066205
-0.013430491 -0.16103892 0.0056758574
-0.014999114 -0.16102774 0.0069536995
-0.012550935 -0.16092087 0.0068164724
-0.011749065 -0.16151652 0.0076523386
-0.014040785 -0.16138962 0.008188433
-0.012967328 -0.16103257 0.0091849817
-0.01078824 -0.16087332 0.0083309719
-0.0092405621 -0.16121808 0.009221267
-0.0072134975 -0.16108476 0.0099129975
-0.01112658 -0.16089927 0.01055399
-0.0090968385 -0.16071402 0.011473444
-0.0073119863 -0.16066198 0.011948931
-0.0048288004 -0.16079059 0.010199436
-0.0027830231 -0.16145489 0.010284331
-0.00096638023 -0.16057558 0.010224897
0 -0.16072525 0.011229428
-0.0069198739 -0.16168967 0.012064985
-0.0052727568 -0.16120079 0.012212521
-0.0031952199 -0.16079032 0.012252497
-0.0012016885 -0.16122778 0.012281875
-0.0067756907 -0.16265465 -0.012148786
-0.0051079937 -0.16288823 -0.012333236
-0.002833372 -0.16344281 -0.012431828
-0.00086969044 -0.16290082 -0.012395426
-0.010872962 -0.16283588 -0.010816684
-0.0088172173 -0.16281959 -0.01173094
-0.0070686745 -0.16279137 -0.010469358
-0.0046597868 -0.1633022 -0.010387509
-0.0028628644 -0.16310574 -0.010397222
-0.0010168616 -0.16286069 -0.010380641
0 -0.16288257 -0.01127077
-0.014103705 -0.16254568 -0.0082145901
-0.01315282 -0.1630179 -0.0091778478
-0.010821545 -0.1627728 -0.0084644556
-0.0091944346 -0.16257165 -0.009344006
-0.007499068 -0.16286135 -0.0099911457
-0.015081135 -0.16307147 -0.0070414222
-0.012779656 -0.16293433 -0.0067250482
-0.011645837 -0.16240536 -0.007805997
-0.016310789 -0.1633884 -0.0049119648
-0.014594685 -0.16292366 -0.004981102
-0.013607084 -0.16287504 -0.005635594
-0.016935574 -0.16335647 -0.0033453363
-0.0148346 -0.16304289 -0.0030020629
-0.017270029 -0.16302106 -0.00096142053
-0.015243443 -0.16301659 -0.0010116602
-0.017304284 -0.16306852 0.00081387925
-0.015241077 -0.16283028 0.00093121757
-0.016977938 -0.16320027 0.003056153
-0.014865214 -0.16323961 0.0029131277
-0.016377063 -0.162866 0.004677786
-0.014350125 -0.16290733 0.004842394
-0.013687585 -0.16327719 0.0055824369
-0.015151022 -0.16297136 0.0069563389
-0.012571237 -0.16287589 0.0069641406
-0.011825681 -0.16295181 0.0077113346
-0.014164502 -0.16306385 0.0082024522
-0.013066141 -0.16311122 0.0092523675
-0.0107191 -0.16318376 0.0085708955
-0.0091979913 -0.16287129 0.0093640005
-0.0076323766 -0.16245648 0.0099257967
-0.012093853 -0.16376364 0.010090808
-0.010925454 -0.16319445 0.010825804
-0.0089405058 -0.16293596 0.011677432
-0.0067479247 -0.16356657 0.0101475
-0.0049703671 -0.16296069 0.010336233
-0.0033876002 -0.16342774 0.010417825
-0.0010317564 -0.16311568 0.01039671
0 -0.16338706 0.011097743
-0.0069577792 -0.16289492 0.012140633
-0.0046838867 -0.16263707 0.012353513
-0.0028837237 -0.16295566 0.012397923
-0.0012611112 -0.16273472 0.012383083
0 -0.16232704 0.012206139
-0.0083805611 -0.16532142 -0.012076449
-0.0067517799 -0.16504362 -0.012309542
-0.0050248839 -0.16504453 -0.012505837
-0.0031555328 -0.16534023 -0.012559274
-0.0012069246 -0.16506493 -0.012540784
0 -0.1641362 -0.012272593
-0.012173492 -0.16532595 -0.010147217
-0.011055241 -0.16499527 -0.010871071
-0.0091898972 -0.16505578 -0.011724051
-0.006853072 -0.1650632 -0.010231174
-0.0057451371 -0.16470742 -0.010361456
-0.0027738099 -0.16524419 -0.010541938
-0.0010427041 -0.165071 -0.010530218
0 -0.16476378 -0.011171136
-0.014248583 -0.16498318 -0.0082767131
-0.013361412 -0.16481563 -0.0091567589
-0.010680362 -0.16507846 -0.0087539982
-0.0093343202 -0.16501559 -0.0094703566
-0.0079317736 -0.16412431 -0.0099688489
-0.015077274 -0.16460299 -0.0071914415
-0.012901627 -0.16504119 -0.0067847655
-0.011776187 -0.16447884 -0.0078760171
-0.016173616 -0.1648659 -0.0054739024
-0.014378918 -0.16481683 -0.0044864123
-0.013871808 -0.16506152 -0.0055287052
-0.017153591 -0.16475907 -0.0026764341
-0.015126775 -0.16482763 -0.0025242218
-0.01732897 -0.16593197 -0.0018905515
-0.015432136 -0.16492932 -0.00063264003
-0.017400159 -0.16486757 0.0010135444
-0.015373819 -0.16504072 0.0010797696
-0.017142899 -0.16537796 0.0029398829
-0.015028682 -0.16494395 0.0028475025
-0.016417922 -0.16515264 0.0049406877
-0.014612732 -0.16444924 0.0050622923
-0.013608734 -0.1641396 0.0057799453
-0.015015174 -0.16501151 0.0073317895
-0.012767168 -0.16526166 0.0069668242
-0.01188869 -0.16413411 0.0077594128
-0.014219965 -0.1651659 0.0083448887
-0.013091987 -0.16488749 0.0093749855
-0.011110935 -0.16506478 0.008427267
-0.0091371583 -0.16480997 0.0095346607
-0.012204437 -0.16516617 0.010109098
-0.011182602 -0.16473526 0.010787652
-0.0094937226 -0.16495486 0.011590479
-0.0071934876 -0.16523445 0.010200634
-0.0047322852 -0.16512634 0.010498181
-0.0026154059 -0.16483623 0.010513131
-0.00083393563 -0.16510011 0.010530987
0 -0.16494596 0.011576061
-0.0084223384 -0.16488071 0.012028927
-0.0071638459 -0.16531859 0.012275989
-0.0048770225 -0.16496918 0.012506317
-0.0030222211 -0.16486743 0.012526317
-0.00081237772 -0.16494337 0.012531416
0 -0.16564457 0.012401538
-0.0083383005 -0.16664724 -0.012160925
-0.006933888 -0.16694427 -0.012410249
-0.0047725104 -0.16692251 -0.012646701
-0.0031073079 -0.16652758 -0.012639026
-0.00063347118 -0.1666518 -0.01264737
0 -0.16674344 -0.012046582
-0.012315011 -0.16723359 -0.010179216
-0.010879728 -0.16671844 -0.011116239
-0.0087926555 -0.16702549 -0.010930431
-0.0069806152 -0.16681969 -0.010340195
-0.0051706946 -0.16659825 -0.010549419
-0.0026439528 -0.16683675 -0.01064971
-0.0011833446 -0.1672103 -0.01067499
0 -0.16754563 -0.011361825
-0.014420536 -0.16712835 -0.0082751866
-0.01316909 -0.16684668 -0.0094773555
-0.010912794 -0.1671382 -0.0087551866
-0.0095952526 -0.16772564 -0.0095625836
-0.016037 -0.16627492 -0.0060240007
-0.015278589 -0.16676648 -0.0071405214
-0.012807464 -0.16695835 -0.007046076
-0.016448431 -0.16712907 -0.0051660184
-0.014373367 -0.16652326 -0.0047601145
-0.013752684 -0.1663702 -0.0058208667
-0.017106473 -0.16700317 -0.0034384758
-0.015192567 -0.16713642 -0.0028166666
-0.017511426 -0.16675608 -0.00097078632
-0.015519391 -0.16695476 -0.00099890644
-0.017484728 -0.16659395 0.0012599307
-0.01547801 -0.16650259 0.001059531
-0.017270543 -0.1671277 0.0028517803
-0.015088325 -0.16717549 0.0031784622
-0.016487014 -0.16691829 0.0050505456
-0.01448183 -0.16721003 0.0046952604
-0.01383628 -0.16693719 0.0057862829
-0.015255494 -0.16704452 0.0072257142
-0.012753956 -0.16754816 0.0072060414
-0.011919611 -0.16736984 0.0079954127
-0.014271733 -0.16695879 0.0084607992
-0.013119024 -0.16676454 0.0095119392
-0.010706018 -0.16699223 0.00889144
-0.0090876278 -0.16690755 0.0097130286
-0.012305797 -0.16690174 0.010160543
-0.011080145 -0.1671596 0.010991862
-0.0086488742 -0.16694896 0.01098134
-0.0068393429 -0.16671363 0.010348687
-0.0051784324 -0.16701177 0.010579922
-0.0035066342 -0.16683301 0.010648244
-0.0011993073 -0.16708206 0.010665093
0 -0.1667041 0.011493599
-0.0085262274 -0.16725913 0.012142614
-0.0065773311 -0.16766609 0.012505076
-0.0043814019 -0.16723992 0.012685655
-0.002985911 -0.16675378 0.012653006
-0.00078692468 -0.16716106 0.012680357
0 -0.16720586 0.012192732
-0.0087087955 -0.16888626 -0.012166417
-0.006910976 -0.16889894 -0.012535015
-0.0049007339 -0.16889919 -0.012762692
-0.0029008044 -0.16917008 -0.012816518
-0.00074340112 -0.16910671 -0.012812258
-0.012338593 -0.16864905 -0.010270896
-0.010924561 -0.16905119 -0.011239489
-0.0089956997 -0.16887794 -0.010824342
-0.0073600598 -0.16891624 -0.010443008
-0.0049127336 -0.16904896 -0.010754944
-0.0031045885 -0.16883127 -0.010784686
-0.0011371332 -0.16914493 -0.010805912
0 -0.16850567 -0.011417274
-0.014407944 -0.16882652 -0.008465183
-0.013412721 -0.1689402 -0.0094579319
-0.010823957 -0.16924931 -0.0089766895
-0.0092623774 -0.16893631 -0.0097916471
-0.016131856 -0.16943797 -0.0062885159
-0.015048993 -0.16891806 -0.007650346
-0.013217315 -0.16879627 -0.0067525916
-0.016675334 -0.16837586 -0.0048153377
-0.01443261 -0.16863473 -0.004982159
-0.017394591 -0.16908637 -0.0028767802
-0.015207297 -0.16884793 -0.0031368865
-0.017657403 -0.16899873 -0.00100014
-0.01573018 -0.16933234 -0.00063714146
-0.017636418 -0.16889083 0.0012343498
-0.015670108 -0.16916868 0.00098874769
-0.017323028 -0.16935906 0.003188069
-0.015355375 -0.16909297 0.002809186
-0.016688127 -0.16931711 0.0049432856
-0.014536468 -0.16901579 0.0048691882
-0.013954441 -0.16915296 0.0058724582
-0.016262721 -0.16984668 0.0060395733
-0.015443269 -0.16926181 0.0071994299
-0.01295018 -0.16895702 0.0071038487
-0.014353627 -0.16912907 0.0085734604
-0.013391449 -0.16906607 0.0094832722
-0.010971131 -0.16913635 0.0088571673
-0.0095605897 -0.1693265 0.0096926857
-0.012347056 -0.16910408 0.010299332
-0.010819103 -0.16874133 0.011281448
-0.0093634902 -0.16881002 0.011467499
-0.0071459333 -0.16876452 0.010459847
-0.0043989159 -0.16895299 0.010786483
-0.0029360054 -0.16894358 0.010791056
-0.00082578481 -0.1692093 0.010809037
0 -0.16912957 0.011239427
-0.0085258717 -0.16907366 0.012251341
-0.0075291246 -0.16867031 0.012431342
-0.0049695834 -0.16910116 0.012775889
-0.0031023205 -0.16921896 0.012818568
-0.00091966882 -0.16877447 0.012788716
0 -0.16849999 0.012641783
-0.0087000104 -0.17138791 -0.01233408
-0.0074088243 -0.17090729 -0.012588086
-0.004873774 -0.17116001 -0.012924105
-0.0029559145 -0.17121378 -0.012953784
-0.0010425512 -0.1709978 -0.012939282
0 -0.17130937 -0.012519739
-0.012473896 -0.17091823 -0.010345593
-0.010841123 -0.17105286 -0.011383894
-0.0088795926 -0.17104457 -0.010719246
-0.0070866803 -0.17081986 -0.010613367
-0.0048683379 -0.1706429 -0.010863554
-0.002804484 -0.17098588 -0.010930493
-0.0011316325 -0.17064895 -0.010907692
0 -0.17144215 -0.011681315
-0.014507753 -0.17128889 -0.0085888784
-0.01290904 -0.17105655 -0.0091863489
-0.011137282 -0.17128803 -0.0089239972
-0.0092603704 -0.17029859 -0.0098917764
-0.01525043 -0.17051543 -0.0075548464
-0.013066439 -0.17085381 -0.0071750823
-0.016755668 -0.17135443 -0.0050922786
-0.014585889 -0.17132615 -0.0051073581
-0.017511349 -0.17099856 -0.002818475
-0.015338533 -0.17117608 -0.0032350179
-0.017780624 -0.17105457 -0.0011011695
-0.015826689 -0.17085965 -0.00068676687
-0.017785152 -0.1708962 0.0010735679
-0.015820915 -0.17127709 0.00093217805
-0.017501621 -0.17093937 0.0029081218
-0.015417747 -0.17146023 0.0030621947
-0.016808184 -0.17107019 0.0049277889
-0.014634021 -0.1711805 0.0049587986
-0.016122889 -0.17140639 0.0064914222
-0.015420828 -0.17089404 0.0073866295
-0.013306181 -0.17088862 0.0068704374
-0.014532834 -0.17069578 0.0085019013
-0.013265833 -0.17110491 0.0093272822
-0.010924841 -0.17110021 0.0090633286
-0.009499683 -0.17042199 0.0097982846
-0.012568855 -0.17119418 0.010292458
-0.011070035 -0.17066093 0.01127719
-0.0087728407 -0.17131947 0.010439154
-0.0065999636 -0.17095895 0.010682769
-0.0052319043 -0.17067087 0.010833308
-0.0028541021 -0.17130128 0.01095059
-0.0009745601 -0.17136844 0.010955137
0 -0.17112073 0.011374066
-0.0090482989 -0.17075428 0.012155979
-0.0069662123 -0.17100336 0.012656013
-0.0051767831 -0.1706966 0.012882872
-0.0032692053 -0.17114767 0.012948102
-0.0012092064 -0.17080924 0.012925371
0 -0.17105167 0.012428871
-0.0089779682 -0.17312606 -0.012340231
-0.0067307926 -0.17270271 -0.01279636
-0.0050014006 -0.17305481 -0.013037833
-0.0032518702 -0.1728871 -0.013066231
-0.00085114548 -0.17311092 -0.013081287
0 -0.1731597 -0.012548371
-0.012856808 -0.17299078 -0.010212759
-0.010850487 -0.17299455 -0.011546992
-0.0089105768 -0.17279105 -0.01064709
-0.0070556961 -0.17273974 -0.010752505
-0.0052493904 -0.17328721 -0.011014437
-0.0031009493 -0.17319921 -0.011080276
-0.0012078577 -0.17310153 -0.011073665
0 -0.17286275 -0.011436988
-0.014510317 -0.17304923 -0.0087583521
-0.013386442 -0.17315345 -0.0092604049
-0.011140595 -0.17312963 -0.0090590157
-0.0096317884 -0.17239188 -0.0098871924
-0.016375441 -0.17271294 -0.0062155053
-0.015035096 -0.17272222 -0.006777483
-0.013031426 -0.17305307 -0.0074069039
-0.016752556 -0.17294466 -0.00535199
-0.014774475 -0.17318143 -0.0049704611
-0.017683264 -0.17262527 -0.0024806128
-0.015636988 -0.17297128 -0.0027568385
-0.018049335 -0.17311653 -0.00021768046
-0.017579565 -0.17330563 -0.00076994061
-0.015862774 -0.17269883 -0.001327463
-0.01805185 -0.17302391 0.00016850064
-0.017328775 -0.17298444 0.00098911999
-0.01584379 -0.17275426 0.0014916019
-0.017612323 -0.17291392 0.0029393579
-0.015642371 -0.1727978 0.0027123538
-0.016812406 -0.17315862 0.0052423575
-0.014659871 -0.173169 0.0051961606
-0.016268201 -0.17277893 0.0064210766
-0.015426964 -0.17274164 0.0072680069
-0.013370362 -0.17263676 0.006981873
-0.014348147 -0.17269289 0.0089274226
-0.013021689 -0.17320451 0.009165966
-0.010988477 -0.17299537 0.0091460077
-0.0099409707 -0.17248453 0.0097618848
-0.0126108 -0.1726812 0.0103782
-0.010694356 -0.17293841 0.011607518
-0.0093774498 -0.17274083 0.011085362
-0.0069982037 -0.17267756 0.010754126
-0.0049448358 -0.17331234 0.011047394
-0.0028979068 -0.17293742 0.011061301
-0.0012546722 -0.17321534 0.01108011
0 -0.17306449 0.01175209
-0.0093124211 -0.17301311 0.012192955
-0.0067205457 -0.17296001 0.012812691
-0.0041949381 -0.17344837 0.013102642
-0.0028071001 -0.17271632 0.013053454
-0.0010332365 -0.17336486 0.013097056
0 -0.17294462 0.012439756
-0.010132271 -0.17556255 -0.012034178
-0.0090880729 -0.17546017 -0.012455255
-0.0071927099 -0.17469028 -0.012860418
-0.0048599392 -0.17488506 -0.013181513
-0.0027905086 -0.17514138 -0.013218475
-0.0012021438 -0.1751128 -0.01321654
0 -0.17490654 -0.012756211
-0.012575651 -0.17532824 -0.010636386
-0.010745018 -0.17492202 -0.011714972
-0.0092466716 -0.17513359 -0.010251827
-0.0070069083 -0.17532319 -0.010936306
-0.0049667298 -0.17499267 -0.01116003
-0.0027557018 -0.17514254 -0.011211786
-0.00098622241 -0.17521527 -0.011216708
0 -0.17489368 -0.01152348
-0.014810721 -0.17505822 -0.0086105419
-0.01338036 -0.17560098 -0.0094111254
-0.011082092 -0.17509572 -0.0092614628
-0.0099956598 -0.17442308 -0.0098823458
-0.016336953 -0.17510085 -0.0066041453
-0.015363587 -0.17526528 -0.007395382
-0.013388042 -0.1749393 -0.0072217956
-0.017095109 -0.17515312 -0.0049219686
-0.014822371 -0.17492124 -0.005226383
-0.017775498 -0.17474775 -0.0027290285
-0.015806053 -0.17459673 -0.0024356511
-0.018098278 -0.17487711 -0.00071337097
-0.01608805 -0.17515956 -0.0009240674
-0.015944837 -0.1743639 -0.0015623813
-0.018163446 -0.17498563 0.00031283958
-0.016742777 -0.17521176 0.0010121628
-0.015937023 -0.17476085 0.0018184705
-0.017702352 -0.17490603 0.0031203867
-0.015782692 -0.17486435 0.0027438388
-0.017216058 -0.17514175 0.0046221679
-0.015139142 -0.17503312 0.0044932957
-0.016229277 -0.17472549 0.0066971593
-0.01555633 -0.17471112 0.007606199
-0.013537144 -0.17504288 0.0070424234
-0.014704439 -0.17535833 0.0087793395
-0.0124948 -0.17437594 0.0086169224
-0.011013593 -0.17506275 0.009317412
-0.0099252285 -0.17526405 0.0099731311
-0.012726212 -0.1755356 0.010536542
-0.010992897 -0.17493871 0.011619006
-0.0088068303 -0.17510512 0.010434533
-0.0072195604 -0.17540249 0.010915408
-0.0048575979 -0.17500186 0.011171686
-0.0028379813 -0.1749346 0.011196441
-0.00095281436 -0.17512576 0.011209377
0 -0.17500493 0.011722673
-0.0091533186 -0.17530875 0.012400962
-0.0067195045 -0.17506741 0.012952268
-0.0050446177 -0.17520142 0.013176692
-0.0032546106 -0.17502062 0.013209027
-0.00065048318 -0.17491964 0.013202197
0 -0.17484805 0.012617315
-0.010151731 -0.17656063 -0.012099855
-0.0086525045 -0.17717458 -0.012756404
-0.0071191024 -0.17708123 -0.013033423
-0.0050622649 -0.17656374 -0.013272665
-0.0029726787 -0.17711245 -0.013351864
-0.0011037678 -0.17661269 -0.013318042
0 -0.17695999 -0.012790061
-0.012609442 -0.17689577 -0.010750233
-0.011050617 -0.17731145 -0.011242451
-0.0088324798 -0.17717481 -0.010578183
-0.0070951916 -0.17680992 -0.011029469
-0.0051071248 -0.17673399 -0.011257304
-0.0030008899 -0.17664056 -0.011313161
-0.00064728304 -0.17703445 -0.011339817
0 -0.17677687 -0.011564662
-0.014655365 -0.17703144 -0.0090274839
-0.012605063 -0.17689478 -0.0085741654
-0.01126942 -0.17714344 -0.0093110064
-0.016401587 -0.17704158 -0.0067285295
-0.015620969 -0.17709523 -0.0073597981
-0.013693037 -0.17720632 -0.0071038688
-0.0171983 -0.17689316 -0.0049898033
-0.015101614 -0.17722225 -0.0049368874
-0.018038064 -0.17747591 -0.0023586496
-0.017692612 -0.17699587 -0.0027885099
-0.015769392 -0.17679684 -0.0032803621
-0.018243024 -0.17730989 -0.00086292234
-0.016224211 -0.17707591 -0.00089536165
-0.018197341 -0.1772662 0.0011688115
-0.016242383 -0.17686477 0.00064555049
