# .PCD v0.7 - Point Cloud Data file format
VERSION 0.7
FIELDS x y z
SIZE 4 4 4
TYPE F F F
COUNT 1 1 1
WIDTH 1306
HEIGHT 1
VIEWPOINT 0 0 0 1 0 0 0
POINTS 1306
DATA ascii
-0.0050776433 0.010994356 0.15689832
-0.0029910293 0.011065914 0.15705056
-0.00088655471 0.010916083 0.15720053
0 0.010990634 0.15702084
-0.006713524 0.013013281 0.15749083
-0.0049742158 0.013070686 0.15730263
-0.0030310012 0.013004848 0.15727529
-0.0010287323 0.012780412 0.15724796
0 0.012818921 0.15755972
-0.0067606918 0.014227925 0.15781149
-0.005053645 0.01434835 0.15783398
-0.0025716191 0.014390361 0.15785144
-0.0012039491 0.014400626 0.15785572
-0.0066757086 -0.018510515 0.15964255
-0.0049826996 -0.018803988 0.15969576
-0.0029896519 -0.018925352 0.15974574
-0.00080179336 -0.018715881 0.15965949
0 -0.018849134 0.15992749
-0.0066396836 -0.016871899 0.15915208
-0.0048817382 -0.016545676 0.15929006
-0.0030069323 -0.016754521 0.15922873
-0.0011380764 -0.016764877 0.15918981
0 -0.017067567 0.15941775
-0.0067527643 -0.015153827 0.15892102
-0.0050592688 -0.015074122 0.15897958
-0.0028028958 -0.015079669 0.15881781
-0.00095819496 -0.015071607 0.15884903
0 -0.01528838 0.15889333
-0.0067932168 -0.012921439 0.15881805
-0.0053269323 -0.012755113 0.15829255
-0.0030017179 -0.013150326 0.15845621
-0.0012222904 -0.012862198 0.15833688
0 -0.013394731 0.15833259
-0.0070000002 -0.011035015 0.15878423
-0.0070000002 -0.0090572238 0.15900086
-0.0069999998 -0.0071125189 0.15895909
-0.0070000002 -0.00503091 0.15908732
-0.0070000002 -0.0030295735 0.15893207
-0.0070000002 -0.0013085725 0.15907443
-0.0070000002 0.00077693939 0.15883785
-0.0069999998 0.0028452224 0.15914926
-0.0069999998 0.0050837738 0.15894641
-0.0070000002 0.0069685089 0.15888412
-0.0070000002 0.0090796538 0.15886797
-0.0069999998 0.01100358 0.15878786
-0.0068613794 0.012974601 0.159035
-0.0049835704 0.013204124 0.15847848
-0.0031055841 0.012894131 0.15835011
-0.0010521086 0.013256751 0.15850028
0 0.013306824 0.15824257
-0.0068392693 0.015000573 0.15915945
-0.0048875599 0.015080063 0.15874788
-0.003267003 0.015045026 0.15890579
-0.0010523639 0.015260807 0.15887539
0 0.014955651 0.15872939
-0.0065600481 0.0166416 0.15912664
-0.0051018978 0.016807282 0.15913518
-0.0029700156 0.016829971 0.15931185
-0.0010312373 0.016758099 0.15914015
0 0.01768925 0.15945017
-0.0065596397 0.018829521 0.1597297
-0.0050847586 0.018873828 0.15971585
-0.003334421 0.018730422 0.15965623
-0.00094071188 0.018729573 0.15965587
0 0.018240241 0.15991953
-0.0064680297 -0.022139832 0.1614778
-0.0045637065 -0.022274449 0.16158147
-0.0031279167 -0.02235922 0.16164677
-0.00072619691 -0.022140225 0.1614781
-0.0068122274 -0.020885175 0.16117965
-0.0051103709 -0.020841867 0.16097616
-0.0030474763 -0.020824667 0.16114219
-0.0011154276 -0.020957155 0.16098294
0 -0.020461103 0.16094427
-0.0068000453 -0.018833725 0.16087012
-0.0051076123 -0.0191238 0.16075338
-0.0029058494 -0.019232467 0.16062374
-0.0008684207 -0.01913449 0.16071363
0 -0.019111142 0.16040738
-0.0069317468 -0.017097134 0.16082737
-0.0051770234 -0.017369922 0.1602037
-0.0030448956 -0.017417837 0.16022356
-0.0011291178 -0.017461563 0.16024168
0 -0.017813653 0.16034579
-0.0069999998 -0.015060809 0.16089188
-0.0070000002 -0.012942339 0.16116379
-0.0068935305 -0.011014577 0.16107197
-0.005473813 -0.010675261 0.16178316
-0.0066575124 -0.0091209207 0.1611218
-0.0053143315 -0.0092940098 0.16142155
-0.0067754555 -0.0073032682 0.16093627
-0.0053499374 -0.0069327219 0.16126665
-0.0067959526 -0.0049417368 0.16049087
-0.0052915257 -0.0049466789 0.16097407
-0.0063580736 -0.0029426205 0.16034907
-0.0050613927 -0.0030992709 0.16103235
-0.0066029578 -0.0011081186 0.16015431
-0.0051312451 -0.0010530867 0.16089782
-0.0065217982 0.0010847998 0.16013435
-0.0051098103 0.0011362771 0.16081534
-0.0065320125 0.0031877162 0.16042463
-0.005205024 0.003170782 0.16075903
-0.0066788928 0.0049678674 0.16057071
-0.0052434844 0.0050052535 0.16100265
-0.0066944142 0.0069830245 0.16062988
-0.0052619218 0.0067909383 0.16124879
-0.006695875 0.0090323761 0.1609145
-0.0052661956 0.0088692112 0.16134384
-0.006776596 0.010829844 0.16093527
-0.0053930916 0.010782844 0.16186152
-0.0070000002 0.012902985 0.16131544
-0.0069999998 0.014969016 0.16094075
-0.0069786347 0.016780213 0.16101666
-0.0049822945 0.017545756 0.16027653
-0.0029141251 0.017386071 0.1602104
-0.00058778096 0.017555024 0.16028036
0 0.017773144 0.16006954
-0.0068352232 0.018934805 0.16091029
-0.0050792871 0.019170143 0.16088404
-0.0030723149 0.019087072 0.16073737
-0.0011081439 0.018985109 0.16065082
0 0.019169323 0.16041405
-0.0066174804 0.020665184 0.16090122
-0.0048156898 0.020870566 0.16098863
-0.0029741733 0.020963026 0.1610119
-0.00098176196 0.020973055 0.16106993
0 0.020937368 0.16102913
-0.0066330545 0.022346636 0.16166186
-0.005018305 0.022372594 0.16165707
-0.0029538029 0.022450278 0.16171688
-0.00086716277 0.022403248 0.16168067
-0.0066140285 -0.024624897 0.16348037
-0.0049688495 -0.024546776 0.16333143
-0.0030397351 -0.024928069 0.16362508
-0.00095187407 -0.02471235 0.16345894
0 -0.024153434 0.16391289
-0.0067463452 -0.023098538 0.16303064
-0.005015295 -0.023110664 0.16298074
-0.0031121965 -0.02314138 0.16317382
-0.0008236728 -0.023079298 0.16298081
0 -0.02300621 0.16284744
-0.0068976763 -0.020846596 0.16281275
-0.0051522283 -0.021680461 0.16240272
-0.0032334216 -0.021578323 0.16232461
-0.00095393514 -0.021453941 0.16222949
0 -0.021557247 0.16224043
-0.0069999998 -0.019023055 0.1629048
-0.0070000002 -0.017150849 0.16294347
-0.0066848537 -0.01477743 0.16305509
-0.0054703923 -0.015015023 0.16364776
-0.0067892363 -0.012837922 0.16253243
-0.0052346471 -0.013037405 0.16310412
-0.0064656041 -0.011431757 0.16209418
-0.0051194807 -0.011009518 0.16304541
-0.0049999999 -0.0089098839 0.1629111
-0.0050000008 -0.0070247664 0.16290015
-0.0050000004 -0.0051162536 0.16285706
-0.0049999999 -0.0031250631 0.16287401
-0.0049999999 -0.0010892574 0.16301914
-0.0049999999 0.00098504487 0.16303648
-0.0049999999 0.0029329897 0.16338089
-0.0049999994 0.0048580752 0.16264674
-0.0049999994 0.0067348527 0.16298395
-0.0049999999 0.0088418443 0.16266279
-0.0066617839 0.011676887 0.1621464
-0.0050396309 0.01118527 0.16294701
-0.0066388049 0.013083876 0.16268122
-0.0051806248 0.012934839 0.16296421
-0.0067052841 0.0149835 0.16324839
-0.0055674678 0.015036218 0.16362649
-0.0070000002 0.017001225 0.16309774
-0.0070000002 0.018969117 0.16312717
-0.0067553576 0.021037221 0.16274704
-0.0049287952 0.021514939 0.16227615
-0.0035839733 0.021529371 0.16228718
-0.00053102564 0.021641146 0.16237265
-0.0067009139 0.023008656 0.16310148
-0.0051986696 0.02297689 0.16293822
-0.0029481719 0.023014044 0.16298583
-0.00088843214 0.023272989 0.16325019
0 0.02313613 0.16297635
-0.0067705698 0.024595223 0.16356164
-0.0049151443 0.02448789 0.16328609
-0.0030510386 0.024831276 0.16355053
-0.00089017395 0.024698827 0.16344851
0 0.024076745 0.16338293
-0.0067446991 -0.026824445 0.16540776
-0.0048794071 -0.026794201 0.16528033
-0.0031093745 -0.02699404 0.16532062
-0.0010157289 -0.026830379 0.16536273
0 -0.026366791 0.16562673
-0.0066419858 -0.025073452 0.16474687
-0.0051067397 -0.025341401 0.16476724
-0.0032677676 -0.025237439 0.16484959
-0.0010785963 -0.025005968 0.16485599
0 -0.025122492 0.16467753
-0.0069564721 -0.023002831 0.16502044
-0.0044302065 -0.023890477 0.16409272
-0.0020059263 -0.023973515 0.16415621
-0.0013561875 -0.023850325 0.16406202
-0.0070000002 -0.02069198 0.16519885
-0.0068611437 -0.019182609 0.16508245
-0.0053431611 -0.018865105 0.16544648
-0.0067592543 -0.01735495 0.16441844
-0.0051396857 -0.017017256 0.16488853
-0.0049999999 -0.014789165 0.1652009
-0.0049999999 -0.013087653 0.16512327
-0.0049999999 -0.011009019 0.16501607
-0.0049999999 -0.0091910223 0.16512118
-0.0049999999 -0.0070403744 0.16482572
-0.0049999994 -0.0046337754 0.16508068
-0.0050000004 -0.00303175 0.1651361
-0.0049999994 -0.00093945075 0.16527113
-0.0049999994 0.0011134197 0.16499519
-0.0050000004 0.0028680337 0.16510147
-0.0049999999 0.0050755134 0.16511095
-0.0050000008 0.0073214597 0.16495153
-0.0049999999 0.0089619271 0.16487996
-0.0049999999 0.011105509 0.16538018
-0.0049999999 0.012956448 0.16487487
-0.0049999999 0.015256409 0.16500349
-0.0064990716 0.017071344 0.1643848
-0.0052161138 0.016934244 0.16475862
-0.0068884213 0.019136364 0.16504158
-0.0051229983 0.018919231 0.16558374
-0.0070000002 0.020919284 0.16499533
-0.006939467 0.02327323 0.16480213
-0.0048219725 0.023895791 0.1640968
-0.0024179914 0.023929304 0.1641224
-0.00061541324 0.023844263 0.16405737
-0.0068011316 0.024933022 0.16484195
-0.0049661864 0.02509883 0.16478394
-0.0029034032 0.025015293 0.16475648
-0.00075852749 0.025241133 0.16486102
0 0.025396246 0.16431709
-0.006631983 0.026686406 0.16517927
-0.0050580553 0.026855404 0.16527294
-0.0029709546 0.026942309 0.1652658
-0.00086267752 0.02682915 0.16528977
0 0.026493067 0.16542028
-0.0065944837 0.028007915 0.16599691
-0.0060460707 -0.030206578 0.16796777
-0.0045174593 -0.03014832 0.16789097
-0.0027311179 -0.030062295 0.16777757
-0.0011969325 -0.030055737 0.16776893
-0.0066940198 -0.028705958 0.16715257
-0.0048610093 -0.028896609 0.16703534
-0.0030121522 -0.028915018 0.16703957
-0.0010692221 -0.02888207 0.16701855
0 -0.028674258 0.16713798
-0.0068943291 -0.02689244 0.16693677
-0.0050545381 -0.027192436 0.16661775
-0.0030682751 -0.02710953 0.16655436
-0.0013735893 -0.026967375 0.16644566
0 -0.027357791 0.16627316
-0.0069999998 -0.024844551 0.16691014
-0.0067768502 -0.022773232 0.16735163
-0.00535635 -0.022146896 0.16783714
-0.006702363 -0.0213245 0.16689126
-0.0053051803 -0.020693552 0.16706578
-0.00630101 -0.019858545 0.16605467
-0.0050933794 -0.01892684 0.16676323
-0.0049999994 -0.016906073 0.16714072
-0.0050000004 -0.015225649 0.1669845
-0.0050000004 -0.013043418 0.16714858
-0.0049999999 -0.011016182 0.16692252
-0.0050000004 -0.0090597533 0.16715401
-0.0050000004 -0.0070032799 0.16697271
-0.0050000008 -0.0049010613 0.16695957
-0.0049999999 -0.0031659727 0.16693537
-0.0050000004 -0.00093433901 0.16689387
-0.0049999994 0.0011744205 0.16691677
-0.0050000004 0.0031540773 0.16707228
-0.0050000004 0.0048389765 0.16687535
-0.0049999999 0.007014303 0.16711602
-0.0050000004 0.0087611405 0.16706187
-0.0050000004 0.010886427 0.16692469
-0.0049999994 0.012575422 0.16662252
-0.0049999999 0.015096412 0.16709208
-0.0050000008 0.017133597 0.16712107
-0.0070000002 0.019841122 0.16602451
-0.0050000004 0.019018635 0.16664001
-0.0067783259 0.021038938 0.16665545
-0.0051380396 0.020823047 0.16703926
-0.0069943173 0.022807673 0.16714439
-0.0052708881 0.022231411 0.16785914
-0.0070000002 0.024983453 0.1666569
-0.0068516312 0.027147787 0.16682175
-0.0050162738 0.027178658 0.16660722
-0.002761875 0.027466087 0.16682702
-0.001053261 0.026969289 0.1664471
0 0.02781811 0.1667881
-0.0066446755 0.028949369 0.16720338
-0.0051328302 0.02872912 0.16710825
-0.0028808357 0.028800517 0.16715173
-0.0012054745 0.028864171 0.1668441
0 0.029151259 0.16754663
-0.0067894352 0.03008006 0.16779351
-0.0047246786 0.03014414 0.16787672
-0.0023732153 0.030043751 0.16774635
-0.0009307866 0.030143883 0.16787638
-0.0067772795 -0.03082001 0.16923667
-0.0048886649 -0.030814178 0.16913666
-0.0030079193 -0.030800523 0.16917999
-0.00079387875 -0.030764883 0.16906703
0 -0.030958971 0.16955377
-0.0068289246 -0.029377235 0.16898288
-0.0051311809 -0.029458199 0.16859919
-0.003121997 -0.029459003 0.16860025
-0.0010224861 -0.029407063 0.16853233
0 -0.029677184 0.16857247
-0.0070000002 -0.026709657 0.16917863
-0.0068417671 -0.02469841 0.16902357
-0.00526994 -0.024489671 0.16970235
-0.0066429242 -0.023310184 0.1686653
-0.0052225529 -0.023020225 0.16899137
-0.0049999994 -0.021098766 0.16924413
-0.0049999999 -0.018955365 0.16916141
-0.0049999999 -0.016931623 0.16890311
-0.0050000004 -0.015089761 0.16883127
-0.0049999994 -0.013193161 0.16901219
-0.0049999999 -0.011253256 0.16889623
-0.0049999999 -0.0090338243 0.16900216
-0.0050000004 -0.0072832312 0.16896094
-0.0050000004 -0.0050169616 0.16906746
-0.0049999999 -0.0029812572 0.16914545
-0.0049999999 -0.0011077177 0.16900353
-0.0049999994 0.0013693405 0.16892469
-0.0049999999 0.0031544312 0.16930617
-0.0049999999 0.0049844501 0.16891152
-0.0050000004 0.0068310741 0.16892286
-0.0050000004 0.0089655938 0.16879523
-0.0050000004 0.010910721 0.16905816
-0.0049999999 0.01316643 0.16897732
-0.0049999994 0.014897573 0.16894436
-0.0050000004 0.016977793 0.16903444
-0.0049999994 0.018731054 0.1692514
-0.0049999994 0.021114407 0.16902737
-0.0066380091 0.023514919 0.16864181
-0.0051864516 0.023176225 0.16901942
-0.0067567001 0.024984766 0.16923428
-0.0053451834 0.024299994 0.16950093
-0.0070000002 0.026850507 0.16899902
-0.006935549 0.029025247 0.16907752
-0.004671935 0.02962321 0.16881499
-0.003172331 0.029523371 0.16868441
-0.0010928672 0.029592583 0.16877492
0 0.029824328 0.16865508
-0.0066425456 0.030650934 0.16931209
-0.0048677009 0.030762736 0.16901347
-0.0029070259 0.030818302 0.16919014
-0.0011092548 0.030738274 0.16917239
0 0.030617302 0.1692998
-0.0066814199 -0.032838687 0.17143966
-0.0049861474 -0.032668658 0.17121325
-0.002953812 -0.032655891 0.17119639
-0.00087960262 -0.032570671 0.17108408
0 -0.032446619 0.1713593
-0.0069806124 -0.030988237 0.17098014
-0.0049317544 -0.031341523 0.17093943
-0.0029924973 -0.031366531 0.17093547
-0.00095186819 -0.031568043 0.1709239
0 -0.031591363 0.17039266
-0.0070000002 -0.028942073 0.17099082
-0.0067680767 -0.027159132 0.17128432
-0.0053607593 -0.026545474 0.17149572
-0.0065262825 -0.025498422 0.170433
-0.0051740422 -0.025165385 0.170982
-0.0050000004 -0.02315101 0.17111094
-0.0050000004 -0.0208044 0.17112327
-0.0050000004 -0.018805284 0.17099984
-0.0050000004 -0.01721104 0.17096183
-0.0049999994 -0.015195854 0.17091531
-0.0049999999 -0.012947295 0.17085023
-0.0050000008 -0.010673057 0.17099909
-0.0049999999 -0.0088103591 0.17111212
-0.0049999994 -0.0069726189 0.17105573
-0.0050000004 -0.0049343971 0.17097302
-0.0050000008 -0.0029780229 0.17103904
-0.0049999999 -0.00093637046 0.17095092
-0.0049999994 0.0011567478 0.17091411
-0.0050000008 0.0031513444 0.17084752
-0.0050000004 0.0049713836 0.17109826
-0.0050000004 0.007014256 0.17091765
-0.0049999999 0.0087831439 0.17108911
-0.0049999999 0.011005946 0.17090006
-0.0050000008 0.013130595 0.17102693
-0.0049999999 0.014919873 0.17116371
-0.0049999999 0.016816756 0.17097414
-0.0050000004 0.018721579 0.17111833
-0.0049999999 0.021212557 0.171073
-0.0049999999 0.023080997 0.17082256
-0.006568925 0.025512321 0.17037308
-0.0050630965 0.025042055 0.1709196
-0.0069051841 0.026942786 0.17080489
-0.0053933566 0.026463572 0.17127863
-0.0069999998 0.029045222 0.17114939
-0.0067907702 0.031322621 0.17106526
-0.0048125288 0.03125846 0.17071971
-0.0028988949 0.031179439 0.17067483
-0.0010995803 0.031357557 0.17064258
0 0.031418391 0.17066275
-0.0067403084 0.032606773 0.17145649
-0.0052945297 0.032682814 0.17124762
-0.0028069557 0.03260117 0.17114903
-0.001015931 0.032541331 0.1709895
0 0.032460045 0.17158023
-0.0065879258 -0.034448761 0.17362192
-0.0050188224 -0.03429658 0.17335914
-0.0026505634 -0.034399401 0.17349467
-0.0012465222 -0.034391131 0.17348376
0 -0.034090668 0.17387725
-0.0068239807 -0.033091389 0.17301297
-0.0051625399 -0.033209149 0.17282988
-0.0030062939 -0.032968253 0.17279574
-0.0010203567 -0.03316661 0.17294069
0 -0.032682352 0.17236644
-0.0069999998 -0.030717019 0.17289206
-0.0068930718 -0.029003238 0.17320855
-0.0054308563 -0.028314745 0.17375289
-0.0065805637 -0.027661452 0.17286105
-0.005142442 -0.026915168 0.17285487
-0.0049999999 -0.025202883 0.17282824
-0.0050000004 -0.023020064 0.17296407
-0.0049999999 -0.020927493 0.17285855
-0.0049999994 -0.019157697 0.17300606
-0.0049999994 -0.017099654 0.1727522
-0.0050000004 -0.015067135 0.1731272
-0.0049999994 -0.012904504 0.17302269
-0.0049999999 -0.011240725 0.17311552
-0.0050000004 -0.0088029439 0.17295058
-0.0049999999 -0.0068501458 0.1729584
-0.0050000004 -0.0050570928 0.17303245
-0.0049999999 -0.0030648946 0.17289867
-0.0050000008 -0.0010625417 0.17300393
-0.0049999999 0.00083918922 0.1730081
-0.0049999999 0.0028291859 0.17303073
-0.0049999994 0.0048730285 0.17312039
-0.0049999994 0.0071055708 0.17280205
-0.0050000004 0.0090406304 0.17293186
-0.0050000008 0.010887933 0.17308123
-0.0049999999 0.013382046 0.17301422
-0.0049999994 0.014965719 0.1729165
-0.0049999999 0.017129082 0.17315714
-0.0049999999 0.018946573 0.17338243
-0.0049999999 0.02120756 0.17334238
-0.0049999999 0.022904607 0.17274062
-0.0049999999 0.024907991 0.17276613
-0.0066140029 0.02760819 0.17263943
-0.0051017459 0.026985856 0.17279424
-0.0069130622 0.028921103 0.17321734
-0.0052956715 0.028107705 0.17339975
-0.0070000002 0.031100119 0.1731573
-0.0067289933 0.032862138 0.17276093
-0.0049138605 0.033252258 0.17275976
-0.0029099407 0.033129945 0.17278159
-0.00086275692 0.033004355 0.17277206
0 0.033117957 0.17257836
-0.0066842795 0.034283981 0.17336562
-0.0051179291 0.034445066 0.17346151
-0.0031735611 0.034324601 0.17330508
-0.00090682623 0.034496132 0.17352781
0 0.034510277 0.17365091
-0.0067731515 -0.036060385 0.17568415
-0.005717732 -0.036077417 0.1757066
-0.0028196585 -0.036219086 0.17589334
-0.0014151036 -0.036139958 0.17578904
-0.0066114259 -0.034973297 0.17503305
-0.0049536028 -0.035028141 0.17515765
-0.0027779676 -0.034937397 0.17502052
-0.0010036759 -0.035057127 0.17516558
0 -0.034881882 0.17511061
-0.0069506895 -0.033249572 0.17480664
-0.0045425943 -0.033871438 0.17437035
-0.003085234 -0.033836104 0.17432413
-0.00082877133 -0.033810537 0.1742907
-0.0070000002 -0.031003648 0.17510383
-0.0054645939 -0.030045014 0.1759817
-0.0067530149 -0.029419759 0.17511953
-0.0051441328 -0.028995844 0.17527452
-0.0049999999 -0.026853638 0.17491584
-0.0050000004 -0.025133703 0.17496717
-0.0049999999 -0.02296412 0.17504686
-0.0049999994 -0.021114314 0.17501129
-0.0049999999 -0.018838573 0.17503271
-0.0049999999 -0.016825939 0.17480014
-0.0049999999 -0.015077877 0.17489445
-0.0050000004 -0.013022569 0.17473036
-0.0050000004 -0.01102324 0.17499992
-0.0050000004 -0.0089653255 0.17508525
-0.0049999994 -0.0069877091 0.1752253
-0.0049999994 -0.0049372534 0.17498574
-0.0049999994 -0.0031149839 0.17484669
-0.0050000004 -0.0011105451 0.17507619
-0.0049999999 0.00084467168 0.17475632
-0.0049999994 0.0030728434 0.17502268
-0.0049999999 0.0052471217 0.17511001
-0.0050000008 0.0068475958 0.17508508
-0.0050000004 0.0088571003 0.17495456
-0.0050000008 0.010850611 0.17483678
-0.0050000004 0.012840441 0.17513734
-0.0049999999 0.015036233 0.17504287
-0.0050000008 0.016830105 0.17501035
-0.0049999999 0.019058298 0.17488506
-0.0049999999 0.021151185 0.17525965
-0.0050000004 0.022961514 0.17518088
-0.0049999994 0.025124306 0.17470993
-0.0049999999 0.026938632 0.17497258
-0.0069105742 0.029454863 0.17476206
-0.0052997605 0.029099125 0.1751848
-0.0069608418 0.031040885 0.17470072
-0.0051931753 0.030046392 0.1759401
-0.0068466789 0.033090703 0.17476073
-0.0051475149 0.033844076 0.17433456
-0.002948177 0.033817433 0.1742997
-0.0012539572 0.033830963 0.1743174
0 0.033971984 0.17430869
-0.0068398933 0.034891918 0.17497753
-0.0046582338 0.035146914 0.17494568
-0.003019246 0.034854542 0.17482284
-0.00090570439 0.034931775 0.17486751
0 0.0348441 0.17489998
-0.0066179279 0.036022924 0.17551036
-0.0052624829 0.036221981 0.17576885
-0.0034224796 0.036223002 0.17577016
-0.0016659219 0.036201529 0.1757423
-0.0067258324 -0.036557663 0.17713927
-0.0048483503 -0.036684405 0.17715576
-0.002997515 -0.036629751 0.17692792
-0.00089068891 -0.036658715 0.17718653
0 -0.036489807 0.17744032
-0.0068699452 -0.035157714 0.17694966
-0.0052685072 -0.035593182 0.17680363
-0.0030484651 -0.035700075 0.17705126
-0.00098013529 -0.035651349 0.17693458
0 -0.035642009 0.17661248
-0.0070000002 -0.033252124 0.1771109
-0.0068328916 -0.031212226 0.17677692
-0.0051937937 -0.03059208 0.17682171
-0.0049999994 -0.029072477 0.17694423
-0.0050000008 -0.026757022 0.17699298
-0.0050000004 -0.024903698 0.17703874
-0.0049999999 -0.022864375 0.1769062
-0.0049999999 -0.021064904 0.17675938
-0.0049999999 -0.019008515 0.17696534
-0.0049999999 -0.017084474 0.17711748
-0.0049999999 -0.014677518 0.17709474
-0.0050000008 -0.013085658 0.17677863
-0.0050000008 -0.010999335 0.17701876
-0.0049999999 -0.0088908309 0.17697516
-0.0049999999 -0.0069319452 0.17692359
-0.0049999999 -0.0050911428 0.17711665
-0.0049999994 -0.0028387709 0.1767302
-0.0050000008 -0.0010513549 0.17712152
-0.0049999999 0.00089734379 0.17678353
-0.0049999999 0.0033893061 0.17702666
-0.0049999999 0.0047095562 0.17693558
-0.0050000004 0.0067901383 0.17700225
-0.0049999999 0.0087898253 0.17684768
-0.0049999994 0.010723773 0.17685089
-0.0050000008 0.012836494 0.17701702
-0.0049999994 0.015219459 0.17700094
-0.0050000004 0.017205313 0.17711784
-0.0050000008 0.018888842 0.17679064
-0.0049999999 0.020869358 0.17689437
-0.0049999994 0.022989344 0.17698912
-0.0050000008 0.025209112 0.17714171
-0.0050000008 0.026833618 0.17710735
-0.0049999994 0.029067567 0.17718959
-0.0067667379 0.031120738 0.17682898
-0.0053356271 0.030827174 0.17724447
-0.0070000002 0.032999214 0.17694314
-0.006908814 0.035181273 0.17708106
-0.0051303664 0.035654683 0.17693871
-0.0031834566 0.035641376 0.17688571
-0.0010287168 0.035494745 0.17658706
0 0.035794944 0.17703351
-0.0066666002 0.036535379 0.17717892
-0.0049402663 0.036803421 0.17726679
-0.0030188232 0.036829498 0.17721084
-0.00099401933 0.036646064 0.17698723
0 0.036539115 0.17727144
-0.006795851 -0.037104115 0.17908692
-0.0050560865 -0.037049718 0.17893875
-0.0030815054 -0.037181213 0.1790657
-0.0011927232 -0.037109144 0.17898931
0 -0.036963001 0.17901176
-0.0070000002 -0.034681186 0.17871785
-0.0068875304 -0.032799337 0.17915168
-0.0053127222 -0.032243989 0.17913474
-0.0064176158 -0.031757042 0.17818704
-0.0050998684 -0.031136824 0.17888045
-0.0049999999 -0.029123824 0.178968
-0.0049999994 -0.026818365 0.17922163
-0.0049999994 -0.02504313 0.17904587
-0.0050000004 -0.022912534 0.17910559
-0.0049999999 -0.021016477 0.17884156
-0.0049999994 -0.018946525 0.17910318
-0.0049999999 -0.016498931 0.17911109
-0.0050000004 -0.014917236 0.1792323
-0.0049999999 -0.012856522 0.17905186
-0.0050000008 -0.011169037 0.17879014
-0.0049999999 -0.0089592068 0.17888734
-0.0050000004 -0.0069175884 0.17911041
-0.0049999994 -0.0049757082 0.17879744
-0.0049999999 -0.0028839011 0.17912576
-0.0049999994 -0.00082620583 0.17911687
-0.0049999994 0.00092488521 0.17918
-0.0049999999 0.002797642 0.17915288
-0.0050000004 0.0047200811 0.178951
-0.0049999999 0.0071943337 0.17881346
-0.0050000008 0.008922047 0.17912519
-0.0049999999 0.011325303 0.17921206
-0.0050000004 0.012947169 0.17906451
-0.0050000008 0.014802407 0.17906408
-0.0050000004 0.016966872 0.17886274
-0.0049999999 0.019109439 0.17916219
-0.0049999999 0.021025933 0.17916484
-0.0050000004 0.022742046 0.17909804
-0.0050000004 0.024736239 0.17911349
-0.0049999999 0.026925519 0.17907204
-0.0050000004 0.028767003 0.1787862
-0.0065401453 0.03184361 0.17829508
-0.0050107283 0.031098532 0.1790899
-0.0068942723 0.033003878 0.17902458
-0.0054158168 0.032282654 0.17929459
-0.0070000002 0.035079248 0.17886546
-0.0067804977 0.037049018 0.17915779
-0.0049348189 0.037142266 0.17895931
-0.0031237225 0.037090626 0.17899828
-0.00093811896 0.037036587 0.17909093
0 0.036755901 0.17851444
-0.0064995531 0.038027238 0.17991312
-0.00019700559 0.038062707 0.17999841
-0.0066581462 -0.038414527 0.1812699
-0.0049223332 -0.038427539 0.18111622
-0.0029656868 -0.038332287 0.18088715
-0.00084734382 -0.038408056 0.18106937
0 -0.038038179 0.18104482
-0.0068376418 -0.037195068 0.18100287
-0.004892075 -0.037269827 0.1807735
-0.0027710961 -0.03731199 0.1808753
-0.00089421915 -0.037269149 0.18077187
0 -0.037609175 0.18062373
-0.0070000002 -0.035325971 0.18088916
-0.0067937113 -0.033215344 0.18069413
-0.0053660283 -0.032823171 0.18093912
-0.0049999999 -0.030993972 0.18115725
-0.0049999999 -0.029308805 0.18076523
-0.0049999999 -0.026943978 0.18099581
-0.0050000008 -0.025108354 0.18105821
-0.0049999994 -0.023326267 0.18093437
-0.0049999999 -0.021045374 0.1810794
-0.0049999994 -0.019291122 0.18097219
-0.0049999999 -0.017294278 0.18109345
-0.0049999999 -0.015001599 0.18093094
-0.0049999994 -0.013228262 0.18104424
-0.0050000004 -0.011230475 0.18084235
-0.0049999999 -0.0090493765 0.18086578
-0.0049999994 -0.0070029274 0.18113942
-0.0050000004 -0.0051506222 0.1809161
-0.0049999994 -0.0033143268 0.1812983
-0.0050000008 -0.0010160476 0.18105376
-0.0049999994 0.0010909034 0.18107092
-0.0049999999 0.0031692558 0.18105608
-0.0050000004 0.0050505428 0.18093713
-0.0049999999 0.0068480908 0.18109545
-0.0050000004 0.0090419371 0.18093377
-0.0049999994 0.010782374 0.18102932
-0.0049999999 0.012959269 0.18101832
-0.0049999994 0.014936255 0.18095213
-0.0049999999 0.016937524 0.18104991
-0.0050000004 0.019073283 0.18094684
-0.0050000008 0.020878993 0.18089359
-0.0050000004 0.022873119 0.18092005
-0.0049999999 0.024839098 0.18096261
-0.0049999994 0.027185056 0.18084791
-0.0049999999 0.029030437 0.18120459
-0.0050000004 0.031109907 0.18106516
-0.0068741632 0.033312883 0.1809976
-0.005109692 0.032574333 0.18086746
-0.0070000002 0.035036825 0.18100558
-0.00688772 0.037148032 0.18084995
-0.0048264978 0.037354693 0.18097839
-0.0029450345 0.037434153 0.18117024
-0.00098886876 0.037300516 0.1808476
0 0.037665837 0.18074405
-0.0066205957 0.038436592 0.18122174
-0.0051821987 0.038509954 0.18107392
-0.0030397677 0.038539153 0.18114415
-0.0010427447 0.038425937 0.1808719
0 0.038184516 0.18101715
-0.0067164181 -0.038679838 0.18317175
-0.0051606013 -0.038819801 0.18325394
-0.0032631406 -0.038923375 0.18306918
-0.00098254357 -0.038773779 0.18306302
0 -0.038538098 0.18304043
-0.0069692363 -0.036974579 0.18314324
-0.0048247543 -0.03787398 0.18223229
-0.0032855256 -0.037877224 0.18224011
-0.00067694904 -0.037920162 0.18234381
-0.0069140894 -0.035078757 0.18332095
-0.0054246332 -0.034161914 0.18371755
-0.0065191737 -0.033772867 0.18268901
-0.0050912919 -0.03279154 0.18289296
-0.0049999999 -0.031101787 0.18291597
-0.0049999999 -0.028915839 0.18338943
-0.0049999999 -0.026782934 0.18289006
-0.0049999999 -0.02497004 0.18294202
-0.0049999999 -0.023000056 0.18290924
-0.0050000004 -0.021324109 0.1831238
-0.0049999999 -0.018944388 0.18299052
-0.0049999999 -0.017011069 0.18298876
-0.0049999999 -0.01472564 0.18303564
-0.0049999999 -0.012941266 0.18291719
-0.0050000004 -0.011011505 0.18300274
-0.0049999999 -0.0085098855 0.18302473
-0.0049999999 -0.0072402284 0.182822
-0.0049999999 -0.0049829725 0.18299827
-0.0050000008 -0.0030052846 0.18287519
-0.0050000004 -0.001163382 0.18312939
-0.0049999994 0.001150144 0.18319717
-0.0049999999 0.0028718065 0.18302609
-0.0050000004 0.0047181533 0.1828818
-0.0050000004 0.0069675785 0.18297313
-0.0050000004 0.0090467324 0.18297787
-0.0049999999 0.011322454 0.18323135
-0.0049999999 0.012911415 0.18327183
-0.0050000008 0.015130957 0.18283156
-0.0049999994 0.016957255 0.18304056
-0.0050000004 0.0193232 0.18292882
-0.0049999994 0.021135028 0.18287462
-0.0049999999 0.022947332 0.18278383
-0.0049999994 0.025031811 0.18281595
-0.0049999999 0.02702916 0.18286689
-0.0050000004 0.029134026 0.18309852
-0.0050000008 0.031118786 0.18295544
-0.006759394 0.033757392 0.182717
-0.0052131861 0.033247761 0.18312116
-0.0069347434 0.035031997 0.18336217
-0.0056607812 0.03404028 0.1835084
-0.0069760433 0.037169155 0.18276598
-0.0049448181 0.037888721 0.1822679
-0.0029327883 0.037875693 0.18223643
-0.00079504825 0.037913006 0.18232651
0 0.037847318 0.18200405
-0.0066366149 0.038810216 0.1830467
-0.0049783294 0.03878171 0.18313174
-0.003069099 0.039013278 0.18318169
-0.0010956173 0.038891226 0.18308757
0 0.038698401 0.1827644
-0.0065139453 -0.040240273 0.18556426
-0.0051100701 -0.040245589 0.18548821
-0.003225025 -0.040225651 0.18544026
-0.00080991129 -0.040308986 0.18564066
-0.0068068984 -0.038943082 0.18489149
-0.0049523856 -0.039250962 0.1847351
-0.0031013505 -0.039293807 0.18498009
-0.001051126 -0.039324801 0.18458474
0 -0.039252833 0.18456993
-0.0070000002 -0.037120163 0.18515372
-0.0067677149 -0.035048034 0.18504333
-0.005335839 -0.034415662 0.18477361
-0.0050000008 -0.033078924 0.18501778
-0.0049999999 -0.03116045 0.18497044
-0.0049999999 -0.029080035 0.18514951
-0.0050000004 -0.026864134 0.18490455
-0.0049999994 -0.025087539 0.18484183
-0.0049999994 -0.02319311 0.18501039
-0.0050000004 -0.021213384 0.18511654
-0.0049999994 -0.018657772 0.18501382
-0.0050000004 -0.016915178 0.18488924
-0.0049999994 -0.015011891 0.18510602
-0.0049999999 -0.013000052 0.18461053
-0.0050000004 -0.010993583 0.18486212
-0.0050000004 -0.0089279423 0.18496943
-0.0049999999 -0.0070164045 0.1849647
-0.0049999999 -0.0049320105 0.184999
-0.0049999999 -0.0030779592 0.18505655
-0.0049999994 -0.0010043686 0.18515097
-0.0049999999 0.0010491284 0.18497905
-0.0049999999 0.003067242 0.18491893
-0.0049999994 0.0048052217 0.18493834
-0.0049999994 0.0070676454 0.18493183
-0.0050000008 0.0092316819 0.18490843
-0.0050000004 0.011008863 0.18505351
-0.0050000008 0.01294125 0.18502395
-0.0049999994 0.014874051 0.18470202
-0.0050000004 0.017034555 0.18508071
-0.0049999999 0.018851398 0.18508047
-0.0049999999 0.021070207 0.18499015
-0.0049999994 0.023055008 0.18497612
-0.0049999994 0.025157956 0.18499362
-0.0049999994 0.02707169 0.18491226
-0.0050000004 0.028953942 0.18495649
-0.0049999999 0.030902365 0.18479119
-0.0049999994 0.033021577 0.18472962
-0.0068383142 0.035070878 0.18477421
-0.0052278913 0.034580786 0.18509029
-0.0070000002 0.036843825 0.1849786
-0.0068512312 0.039062146 0.18514787
-0.0050637121 0.039430566 0.18483047
-0.003055088 0.039259613 0.18484914
-0.00082227349 0.039435301 0.18506061
0 0.039427467 0.18510301
-0.0066585559 0.040082935 0.18485658
-0.0049544661 0.040328443 0.18544693
-0.0031529246 0.0402846 0.18534154
-0.0010719228 0.040241487 0.18523787
0 0.040298879 0.18557899
-0.0066635753 -0.040534496 0.18700004
-0.0051401141 -0.040585604 0.1867034
-0.0030130271 -0.040629223 0.18698843
-0.001231542 -0.040606707 0.18683515
0 -0.040427461 0.18698516
-0.0068236631 -0.039276689 0.18718578
-0.0048658154 -0.03967914 0.18703742
-0.0029168772 -0.039666194 0.18699072
-0.0010530479 -0.039635729 0.18687363
0 -0.03988279 0.18712117
-0.0070000002 -0.037116345 0.1869112
-0.006456411 -0.035416018 0.18674573
-0.0051850602 -0.03515619 0.1869265
-0.0049999994 -0.033081517 0.18717967
-0.0050000008 -0.030871179 0.18699992
-0.0050000008 -0.029020069 0.18698861
-0.0050000004 -0.027082285 0.18689157
-0.0049999994 -0.025078429 0.18677217
-0.0049999994 -0.022999521 0.18735008
-0.0049999999 -0.021007782 0.18693256
-0.0050000004 -0.018818321 0.18692924
-0.0049999994 -0.017003534 0.18689175
-0.0049999999 -0.015239767 0.18677756
-0.0049999994 -0.013161681 0.18716672
-0.0049999994 -0.010820338 0.1868286
-0.0050000004 -0.0088199396 0.18714228
-0.0049999999 -0.0069832937 0.18698883
-0.0049999999 -0.005042885 0.18696998
-0.0049999999 -0.0029775158 0.18683542
-0.0050000004 -0.00085627177 0.18714058
-0.0050000004 0.00097346288 0.18699302
-0.0049999999 0.0028137469 0.18733844
-0.0050000004 0.0048604249 0.18704173
-0.0049999994 0.0070136865 0.18701464
-0.0049999994 0.008991845 0.1871846
-0.0049999994 0.01076756 0.18738306
-0.0050000004 0.012952014 0.18728805
-0.0049999999 0.01508433 0.18711711
-0.0050000004 0.017187715 0.18682948
-0.0049999994 0.019226283 0.18697326
-0.0049999994 0.021084547 0.18695875
-0.0049999994 0.022930792 0.18711375
-0.0050000008 0.024904011 0.18702655
-0.0049999994 0.026945267 0.18721901
-0.0049999999 0.029028522 0.18708457
-0.0050000004 0.031083645 0.18717368
-0.0049999999 0.033099003 0.18708271
-0.0066617453 0.035594262 0.18698095
-0.0052730166 0.035180572 0.18690884
-0.0070000002 0.036679547 0.18698706
-0.0069038868 0.038943969 0.18698978
-0.0049243639 0.039655987 0.1869237
-0.0029936356 0.039693024 0.18717566
-0.0010472827 0.039640464 0.18683316
0 0.039805725 0.18688652
-0.006790028 0.040529072 0.18643692
-0.0052786442 0.040704522 0.18692124
-0.0027716493 0.040700287 0.18688934
-0.0011303368 0.040723506 0.18708296
0 0.040405285 0.18737406
-0.0067879017 -0.040627275 0.1889905
-0.0051126392 -0.040800586 0.18919623
-0.0031098102 -0.04071914 0.18912603
-0.00088652084 -0.040737797 0.18929328
0 -0.040609051 0.18915591
-0.0068970006 -0.039331332 0.18898521
-0.0052032587 -0.039900374 0.18871713
-0.0028905116 -0.039865803 0.18845052
-0.00097379333 -0.039904486 0.18874888
-0.0070000002 -0.037233423 0.18896662
-0.0050535109 -0.036036313 0.18997842
-0.0064380406 -0.035875019 0.1887034
-0.0050831749 -0.035102326 0.1890035
-0.0049999999 -0.032932892 0.18927824
-0.0049999999 -0.03092891 0.18912509
-0.0049999999 -0.028999271 0.18882236
-0.0050000004 -0.026774144 0.18914132
-0.0049999999 -0.024795588 0.18914677
-0.0049999999 -0.023007862 0.18886891
-0.0049999999 -0.021035101 0.18901335
-0.0049999994 -0.019242791 0.18899201
-0.0050000004 -0.016852465 0.18913621
-0.0050000004 -0.014716192 0.18886618
-0.0050000004 -0.013062812 0.18906121
-0.0049999999 -0.011016125 0.18913375
-0.0049999994 -0.0087901764 0.18873465
-0.0049999999 -0.0069691963 0.18884335
-0.0049999999 -0.0050727078 0.18913732
-0.0049999994 -0.0030313176 0.18869787
-0.0049999994 -0.00073250069 0.18901268
-0.0049999994 0.0014708715 0.18845548
-0.0050000004 0.0029357199 0.1888956
-0.0049999994 0.0046676407 0.18937032
-0.0049999999 0.0069689867 0.18910116
-0.0050000004 0.0087974621 0.1888611
-0.0050000004 0.011018266 0.18891816
-0.0050000008 0.01317202 0.18917434
-0.0049999999 0.015012914 0.18894993
-0.0049999999 0.016898427 0.18886554
-0.0050000008 0.018817211 0.18894985
-0.0049999994 0.021137441 0.18874009
-0.0049999999 0.023035811 0.18894979
-0.0049999999 0.025200197 0.18888894
-0.0049999999 0.027105378 0.18919401
-0.0049999999 0.02924739 0.18919487
-0.0049999994 0.031147305 0.1889209
-0.0050000004 0.032773685 0.18902552
-0.0065180748 0.035872079 0.18848941
-0.0050737634 0.03521093 0.18888856
-0.0070000002 0.03682157 0.18905731
-0.0053968951 0.036011051 0.18978472
-0.0068594026 0.039198503 0.18874043
-0.0049123708 0.039891351 0.18864755
-0.0032013354 0.03990335 0.18874013
-0.00074387423 0.039887805 0.18862022
0 0.039880864 0.18834403
-0.0068103611 0.040732585 0.18926196
-0.005140306 0.040622305 0.18925792
-0.0031368837 0.040662687 0.18916857
-0.00086667435 0.04077822 0.18918687
0 0.04042431 0.18901232
-0.0067475606 -0.0406316 0.19074693
-0.0049775555 -0.040752348 0.19083443
-0.0030071808 -0.040824644 0.19090241
-0.0011081358 -0.040716242 0.19101906
0 -0.040667202 0.19104065
-0.0070000002 -0.038898636 0.19103703
-0.0069272965 -0.036797598 0.19094847
-0.0055148918 -0.03616574 0.19097072
-0.0050000004 -0.034830086 0.1910554
-0.0049999999 -0.032980531 0.19084577
-0.0050000004 -0.030868357 0.19104473
-0.0049999999 -0.029270113 0.19087297
-0.0049999994 -0.027156128 0.19089076
-0.0049999999 -0.024931004 0.19123055
-0.0050000008 -0.022953263 0.19098847
-0.0049999999 -0.020824015 0.19098939
-0.0049999994 -0.019099666 0.19090143
-0.0050000004 -0.017100578 0.19098721
-0.0049999999 -0.014856296 0.19100513
-0.0050000008 -0.013159531 0.19087401
-0.0049999994 -0.010940752 0.19072056
-0.0049999994 -0.0092485957 0.19075882
-0.0050000004 -0.0070598996 0.19108239
-0.0049999999 -0.0049625766 0.1910219
-0.0050000004 -0.0029279736 0.19090034
-0.0050000004 -0.00080500677 0.19103186
-0.0050000004 0.0011439959 0.19094722
-0.0049999999 0.0029572733 0.19127575
-0.0050000008 0.0049379086 0.19108333
-0.0049999999 0.0069509451 0.19080694
-0.0049999994 0.0089781461 0.19104968
-0.0049999999 0.010818641 0.19127852
-0.0050000004 0.013170985 0.19109823
-0.0050000004 0.015095006 0.19121994
-0.0050000004 0.017253526 0.19100785
-0.0049999999 0.01891898 0.19087118
-0.0049999999 0.020754298 0.1909813
-0.0049999999 0.022800075 0.19124693
-0.0049999994 0.025183881 0.19117813
-0.0050000004 0.026836099 0.19090615
-0.0050000004 0.029161723 0.19083013
-0.0050000004 0.031166384 0.19116358
-0.0049999994 0.033073243 0.19065629
-0.0050000004 0.03503022 0.19083118
-0.0069237486 0.036748488 0.19117638
-0.0054649469 0.03621722 0.19137895
-0.0070000002 0.039260156 0.19102393
-0.0067267399 0.040561847 0.19118372
-0.0049904282 0.040772617 0.19096532
-0.0027988704 0.040722977 0.19111639
-0.00096803188 0.040798638 0.19130737
0 0.040636659 0.19070593
-0.0068525462 -0.042194545 0.19362597
-0.0052198269 -0.042281114 0.1935612
-0.0027688832 -0.042275753 0.19356547
-0.00080764241 -0.042224571 0.19346912
0 -0.042349432 0.19397287
-0.0068010632 -0.041104928 0.19304307
-0.0048944182 -0.041012097 0.19267111
-0.0031817448 -0.041067772 0.19285198
-0.0010740525 -0.041257616 0.19286843
0 -0.041253377 0.19265868
-0.0070000002 -0.038988136 0.19305259
-0.0068774289 -0.036955088 0.19283485
-0.0051759123 -0.036229428 0.19313394
-0.0049999994 -0.03509666 0.19293346
-0.0049999994 -0.033202395 0.19289309
-0.0049999994 -0.03079379 0.1927523
-0.0049999994 -0.029045599 0.19276698
-0.0050000008 -0.027160645 0.19313058
-0.0049999999 -0.024998857 0.19305891
-0.0049999994 -0.023222012 0.19288217
-0.0049999999 -0.020969033 0.19300146
-0.0050000008 -0.018918982 0.19292893
-0.0050000004 -0.017027671 0.1930505
-0.0050000004 -0.01486181 0.19303899
-0.0049999999 -0.01317475 0.19294535
-0.0049999999 -0.011036545 0.19326934
-0.0049999999 -0.0090471255 0.19290899
-0.0050000004 -0.0068202303 0.19288749
-0.0050000004 -0.0049369088 0.19313419
-0.0049999994 -0.0026995665 0.19273539
-0.0049999999 -0.00085696235 0.19295721
-0.0049999999 0.00081013876 0.19272751
-0.0049999999 0.0029505284 0.19310896
-0.0049999999 0.0050270054 0.19294007
-0.0050000004 0.0069423849 0.19329932
-0.0050000004 0.0089419251 0.19307597
-0.0050000004 0.010939492 0.19292001
-0.0049999999 0.013285855 0.19287007
-0.0049999999 0.014754836 0.1930434
-0.0049999999 0.01698488 0.19292857
-0.0050000008 0.01928995 0.19298437
-0.0049999994 0.020899078 0.19303766
-0.0050000004 0.023150383 0.19299656
-0.0050000004 0.024867214 0.19291346
-0.0050000008 0.027105361 0.19313249
-0.0049999999 0.029082315 0.19270565
-0.0050000004 0.031055903 0.19285332
-0.0049999994 0.033146705 0.19297075
-0.0049999999 0.034803294 0.19296207
-0.0068288161 0.036964882 0.19348174
-0.0052144416 0.036216892 0.19310126
-0.0070000002 0.038913961 0.19332556
-0.0066807764 0.040973023 0.19284089
-0.0048228567 0.041238591 0.19301447
-0.003070113 0.041223973 0.19286241
-0.00092106196 0.041105162 0.19283956
0 0.041512102 0.19279031
-0.0066383556 0.042222727 0.19345044
-0.0053401622 0.042308826 0.19352689
-0.0031794878 0.042296913 0.19351275
-0.0012331011 0.042259693 0.19346064
0 0.042298418 0.19392332
-0.0066750571 -0.044334598 0.19563697
-0.0047765886 -0.044490781 0.19563629
-0.0031508929 -0.044538595 0.19567044
-0.0011026403 -0.044600781 0.19571485
0 -0.044252925 0.1957954
-0.0066743712 -0.042874511 0.19504112
-0.0051141479 -0.042841453 0.19503728
-0.0029164073 -0.043057691 0.19494867
-0.0010824244 -0.042897515 0.19500983
0 -0.043049056 0.19499087
-0.0068891714 -0.040995862 0.19493264
-0.0051655648 -0.041739576 0.19443387
-0.0026779824 -0.041661128 0.19433984
-0.0011687297 -0.041837804 0.19455524
-0.0070000002 -0.038863279 0.19525996
-0.0069127395 -0.03695289 0.19490993
-0.0056133331 -0.036235232 0.19425453
-0.006686124 -0.035428509 0.19555105
-0.0050952421 -0.035285905 0.19481282
-0.0064171897 -0.032859046 0.19599998
-0.0051914398 -0.032973677 0.19528165
-0.0065362616 -0.031079616 0.19599999
-0.0052388967 -0.03111566 0.19554244
-0.0066741616 -0.029155275 0.19599998
-0.0051085702 -0.028984847 0.19515191
-0.0065347268 -0.026718756 0.19599999
-0.0050298115 -0.026993271 0.19535214
-0.0062241759 -0.025606796 0.19599999
-0.0051368964 -0.024853345 0.19524518
-0.0065286593 -0.022978637 0.19599999
-0.005142496 -0.023127515 0.19533454
-0.0066705779 -0.021239392 0.19599999
-0.0051509906 -0.020942019 0.19534822
-0.0065794257 -0.01890843 0.19599998
-0.0051017948 -0.019016331 0.19515106
-0.0064599547 -0.016970593 0.19599998
-0.0052645975 -0.017087365 0.19515079
-0.0065721045 -0.015084116 0.19599998
-0.0051524425 -0.015032841 0.19515646
-0.006569603 -0.012845028 0.19599999
-0.0051231249 -0.012897807 0.19534408
-0.0067587881 -0.01084168 0.19599999
-0.0052890745 -0.010977156 0.19533926
-0.0064054886 -0.0089011909 0.19600001
-0.0051513249 -0.0089509562 0.19530748
-0.0065823803 -0.0071485429 0.19599999
-0.0050839172 -0.006982591 0.19530365
-0.0065699774 -0.0050100898 0.19599998
-0.0050963615 -0.0048551047 0.19495466
-0.0065409602 -0.0031808987 0.19599999
-0.0051705567 -0.0031099531 0.19533993
-0.00631685 -0.0019198465 0.19599999
-0.0050933999 -0.00094410556 0.19533217
-0.006344554 0.001332302 0.19599998
-0.0051521682 0.00101137 0.19528225
-0.0066279685 0.0028927573 0.19599999
-0.005092992 0.0032261233 0.19514804
-0.0065534175 0.0050188503 0.19600001
-0.0051261708 0.0050864816 0.19521211
-0.0065761646 0.0069165574 0.19599998
-0.0051170695 0.0068754293 0.19511236
-0.0065032677 0.0090064136 0.19599999
-0.00508192 0.0091297636 0.19509228
-0.0063989446 0.010751374 0.19599999
-0.0050924574 0.010942159 0.19523703
-0.006545464 0.012478158 0.19599998
-0.0051537976 0.012898855 0.19538906
-0.0063849716 0.014822271 0.19599998
-0.005293129 0.015157674 0.19545239
-0.0067962622 0.017839948 0.19599999
-0.0050477283 0.017228905 0.19520336
-0.0065228399 0.01898683 0.19599998
-0.0052528661 0.018913923 0.19538301
-0.0064785178 0.020796727 0.19599998
-0.005121964 0.021005273 0.19528589
-0.0063662594 0.022619525 0.19599999
-0.005192061 0.022955338 0.19526398
-0.0065318495 0.024984542 0.19599998
-0.0051192963 0.024951048 0.1954008
-0.0066930274 0.027259514 0.19599998
-0.0051434953 0.027120437 0.19531065
-0.006466168 0.028959682 0.19600001
-0.0053045638 0.028952332 0.19569935
-0.0065942341 0.030869316 0.19599998
-0.0051465281 0.031108623 0.19513313
-0.0064783534 0.033005379 0.19599998
-0.0052670003 0.032882176 0.19544868
-0.0066297352 0.035174306 0.19576256
-0.0052201091 0.035018437 0.19522393
-0.006999956 0.037085455 0.19486022
-0.0054577682 0.036153018 0.19469081
-0.0070000002 0.038907316 0.19501999
-0.0069131819 0.041035954 0.19499724
-0.0050193155 0.041746851 0.1944342
-0.0031075461 0.041605949 0.19424506
-0.0012619694 0.041784808 0.19448175
0 0.041739963 0.19430298
-0.0067816125 0.042854693 0.19512022
-0.0049198754 0.04291492 0.19513458
-0.0032389688 0.042954102 0.19494885
-0.0009449324 0.04302942 0.19491082
0 0.0433034 0.19538486
-0.0064678588 0.04449822 0.19563906
-0.0048175524 0.044587247 0.19566116
-0.0030319686 0.044520807 0.19561601
-0.00089264812 0.044536609 0.19561307
0 0.044669271 0.1958393
-0.0065950896 -0.054503825 0.19771348
-0.0049506756 -0.054370962 0.19758549
-0.0029864695 -0.054561306 0.19770707
-0.00055562524 -0.054002449 0.19740124
0 -0.05406788 0.19792196
-0.0068305517 -0.052838128 0.19740856
-0.0050344858 -0.052915163 0.19726595
-0.0028049268 -0.052998085 0.19724894
-0.0011206191 -0.05283168 0.19735307
0 -0.053230457 0.19775012
-0.006767442 -0.050992738 0.19745106
-0.0050693117 -0.051090479 0.19728126
-0.0028341287 -0.051018257 0.19719049
-0.00086509844 -0.051123552 0.19741666
0 -0.051098324 0.19756149
-0.0067544472 -0.049132854 0.19724339
-0.0050668851 -0.049159344 0.19754542
-0.002866195 -0.048968248 0.19733255
-0.0011035837 -0.049054813 0.19741932
0 -0.049176756 0.19757903
-0.0066968631 -0.047137056 0.19737312
-0.0050949496 -0.046840675 0.19746916
-0.0030126763 -0.047132704 0.19738863
-0.0010247936 -0.046933733 0.19739018
0 -0.047289155 0.19728981
-0.0068453359 -0.044938616 0.19678418
-0.0047701038 -0.045010392 0.19682603
-0.003023969 -0.04500496 0.19677912
-0.0010131942 -0.045264762 0.19697227
0 -0.045121651 0.19668451
-0.0068599149 -0.043234561 0.19689634
-0.0051065027 -0.043625496 0.19625345
-0.0025568199 -0.04326814 0.19603011
-0.0012039293 -0.04371969 0.19631232
0 -0.043725487 0.19627656
-0.0070000002 -0.040850013 0.19656534
-0.0070000002 -0.039022025 0.19700943
-0.0070000002 -0.03708107 0.19717489
-0.0070000002 -0.035170343 0.19693279
-0.0069837268 -0.033059996 0.19720864
-0.0069066915 -0.030887002 0.19684339
-0.0069097383 -0.028940074 0.19709711
-0.0054404605 -0.029552035 0.19600001
-0.0069798934 -0.02691387 0.19701418
-0.005922725 -0.026623178 0.19600001
-0.0069111232 -0.025073528 0.19676499
-0.0054705897 -0.025987796 0.19600001
-0.0069939825 -0.022869794 0.19693549
-0.0069763591 -0.02116558 0.19673634
-0.0054944158 -0.021295389 0.19600001
-0.0069912407 -0.019012766 0.19686235
-0.0051039178 -0.019099345 0.19600001
-0.0070000002 -0.016987046 0.19709118
-0.0053998362 -0.017213458 0.19600001
-0.0070000002 -0.014882426 0.19704701
-0.0069913636 -0.012933954 0.19671723
-0.0055113579 -0.012994118 0.19600001
-0.0069629592 -0.011216053 0.19675891
-0.0055052494 -0.010290682 0.19600001
-0.0069828993 -0.0091435984 0.1970005
-0.0055350349 -0.0090937847 0.19600001
-0.0070000002 -0.0070454441 0.19694622
-0.0069292109 -0.0047195628 0.19675688
-0.0070000002 -0.0030821783 0.19738489
-0.0069409776 -0.00088375434 0.19699247
-0.0055914661 -0.00068700471 0.19600002
-0.0069928728 0.00096530828 0.19668272
-0.0053709294 0.0003542765 0.19600001
-0.00695014 0.0029351411 0.19672669
-0.0068832082 0.0048878537 0.19702184
-0.0054194424 0.0042857369 0.19600001
-0.0069955476 0.0069669173 0.19706635
-0.0052341698 0.0078560859 0.19600001
-0.0068627149 0.008659306 0.19711775
-0.0056628152 0.0091666114 0.19600002
-0.0069332761 0.011059799 0.1968127
-0.0053536375 0.011124054 0.19600001
-0.0069806352 0.013100068 0.19697171
-0.0054181982 0.012563791 0.19600001
-0.0069976128 0.014972722 0.19685957
-0.005357503 0.014628079 0.19600002
-0.0069732084 0.017028792 0.19668967
-0.0058745667 0.017690694 0.19600001
-0.0070000002 0.018773425 0.19700722
-0.005830205 0.018500131 0.19600001
-0.0069667865 0.020856068 0.19674015
-0.0069263517 0.023282394 0.19696566
-0.0069396403 0.025174098 0.19684549
-0.0054153739 0.024936173 0.19600002
-0.0070000002 0.026963128 0.19694477
-0.0069101579 0.028999472 0.19701056
-0.0070000002 0.031103238 0.19699931
-0.0056392103 0.030945893 0.19600001
-0.0069821109 0.033221517 0.19682381
-0.0070000002 0.035014469 0.19694218
-0.0070000002 0.037229713 0.19684835
-0.0070000002 0.038863886 0.1966729
-0.0069999998 0.041097406 0.19670494
-0.0069301566 0.043122247 0.19679146
-0.0047461586 0.0435725 0.19618513
-0.0029596873 0.0435417 0.19616286
-0.0010450596 0.043713734 0.19629113
0 0.043931685 0.19608021
-0.0068065166 0.045114782 0.19698301
-0.0050811726 0.045256499 0.19672713
-0.0027714912 0.044917893 0.19677788
-0.00075837161 0.045175429 0.19683905
0 0.045208879 0.19655657
-0.0066495975 0.047002036 0.19728722
-0.0050311005 0.04695157 0.19727863
-0.0031225239 0.046974789 0.19718198
-0.00083711388 0.047092844 0.19729102
0 0.046944011 0.19705555
-0.0066946195 0.049085524 0.19745633
-0.0050108614 0.048834536 0.19736049
-0.0029843894 0.048798129 0.19756429
-0.0009254216 0.048947327 0.19756338
0 0.049374357 0.19763957
-0.006560639 0.051058382 0.19746345
-0.0050817109 0.051229745 0.19730304
-0.0029785798 0.051045969 0.19736364
-0.0012277287 0.050994966 0.19749999
0 0.051008631 0.19763951
-0.0066955439 0.052887294 0.19746359
-0.0048557948 0.052756011 0.19746278
-0.0032003489 0.052476086 0.19731635
-0.0010615417 0.052733433 0.19722857
0 0.052750375 0.19767852
-0.0065114456 0.054441527 0.19764461
-0.0053759804 0.054549117 0.19765905
-0.0030787175 0.054499384 0.19763677
-0.0010982064 0.054509796 0.19762413
0 0.054566663 0.19785309
-0.0067040655 -0.054852184 0.19900045
-0.0050823092 -0.055157788 0.19915865
-0.0029038303 -0.055245314 0.19907741
-0.0010844588 -0.054972481 0.19914581
0 -0.054611266 0.19855849
-0.006852888 -0.05314951 0.19866161
-0.0049984432 -0.053262465 0.19821836
-0.0032661508 -0.053411957 0.19822364
-0.00092360564 -0.053510819 0.19826004
-0.0069723791 -0.050957616 0.19909768
-0.0049966322 -0.050416894 0.19800001
-0.0032176361 -0.050696634 0.19800001
-0.0017912303 -0.050915759 0.19800001
-0.0070000002 -0.048800915 0.19912294
-0.0044309013 -0.049540631 0.19800001
-0.0031867789 -0.04898661 0.19800001
-0.0010807761 -0.048729997 0.19800001
-0.0069999998 -0.046768486 0.19890372
-0.0070000002 -0.045119595 0.19916385
-0.0069999998 -0.042653672 0.19896518
-0.0070000002 -0.041091595 0.19905272
