# .PCD v0.7 - Point Cloud Data file format
VERSION 0.7
FIELDS x y z
SIZE 4 4 4
TYPE F F F
COUNT 1 1 1
WIDTH 1302
HEIGHT 1
VIEWPOINT 0 0 0 1 0 0 0
POINTS 1302
DATA ascii
-0.0049855234 0.0049827211 0.31717369
-0.0036032607 0.0043453812 0.31610271
-0.004975785 0.0071883816 0.31693545
-0.0036906684 0.0068411427 0.31617558
-0.006247961 0.0092518646 0.31766397
-0.0048538237 0.0090936664 0.31690148
-0.0037183019 0.0090575758 0.31619859
-0.0061773723 0.01094946 0.31748793
-0.0050272718 0.010958632 0.31682435
-0.0036845494 0.010584194 0.31617045
-0.0063098194 0.012916554 0.31780958
-0.0050707092 0.012997439 0.31679732
-0.0037453845 0.01320827 0.31622118
-0.0061838678 0.014912841 0.31750736
-0.0049380581 0.014999646 0.31702408
-0.0038368604 0.015065915 0.31629738
-0.0062306086 0.017269937 0.31762573
-0.005201804 0.01689174 0.31702444
-0.0036256616 0.016494267 0.31612137
-0.0062513291 0.019207126 0.31767958
-0.0049720765 0.019069761 0.31704131
-0.006226352 0.020812051 0.31760684
-0.0050696586 0.020747963 0.31663623
-0.0035267747 0.020349033 0.316039
-0.0062126089 0.023161883 0.31757346
-0.0050226185 0.022953238 0.3168475
-0.006208275 0.025158174 0.31756893
-0.0049940073 0.024816787 0.31697378
-0.0037110592 0.024842035 0.31619257
-0.0062041148 0.027104609 0.31757766
-0.0051433309 0.026949769 0.31694975
-0.0035392453 0.027943015 0.31604937
-0.0062176618 0.028907716 0.31758577
-0.0049174777 0.029000951 0.31698358
-0.0036670035 0.028828928 0.31615585
-0.0062530637 0.031394742 0.31767172
-0.00514933 0.031153237 0.31697321
-0.0061390642 0.032677338 0.3174462
-0.004914097 0.033058628 0.31693727
-0.0036011785 0.032837488 0.31610098
-0.0061737839 0.035091046 0.31750134
-0.0050955499 0.035312109 0.31709734
-0.0038089093 0.034797408 0.31627408
-0.0061994749 0.037022073 0.31754667
-0.0048256288 0.03689608 0.31689894
-0.0036194294 0.036887698 0.31611618
-0.006232237 0.038982201 0.31763449
-0.0048922328 0.038923409 0.31691578
-0.0038035267 0.039334878 0.31626961
-0.0062495321 0.040782865 0.31768289
-0.0049526072 0.040992465 0.31701285
-0.0036060272 0.040276352 0.31610504
-0.0062581706 0.042936176 0.31768414
-0.0050217966 0.042928375 0.31714547
-0.0039375904 0.042104654 0.31638131
-0.0062043327 0.044936564 0.31756872
-0.0051037171 0.044930492 0.31686282
-0.0038999924 0.045041688 0.31634998
-0.0061482331 0.047492009 0.31741711
-0.0049134716 0.04692971 0.31687644
-0.0038701852 0.047233876 0.31632516
-0.0061667422 0.049294505 0.31747434
-0.0048981989 0.048977893 0.31688598
-0.0038590988 0.049027257 0.31631592
-0.0061319312 0.051130753 0.31739879
-0.0047169905 0.051180165 0.31676549
-0.0038295474 0.051133178 0.3162913
-0.0061882045 0.053033315 0.31752282
-0.0048033958 0.052948914 0.31699482
-0.0037105537 0.052462906 0.31619215
-0.0062388536 0.055631295 0.31763721
-0.0049604732 0.055292346 0.31693727
-0.0037786458 0.055081487 0.31624886
-0.0062874276 0.057148643 0.31775516
-0.0051553249 0.056925848 0.31720728
-0.0038288133 0.056899443 0.31629068
-0.0062010149 0.059130587 0.31755516
-0.0047875158 0.058807023 0.31675962
-0.0036083746 0.059475131 0.31610698
-0.0061750389 0.0613584 0.317487
-0.0047465651 0.061177254 0.31680426
-0.0035819216 0.060564205 0.31608492
-0.0065261154 0.063730359 0.31701785
-0.0051296549 0.062960736 0.31685346
-0.006893476 0.065360747 0.31701916
-0.0057479138 0.064727895 0.3170386
-0.0069057508 0.067067698 0.31680223
-0.0059053814 0.066981941 0.31694734
-0.0065156408 0.068784416 0.31678888
-0.0051708422 0.069212064 0.31693226
-0.0049037719 0.0705861 0.31694132
-0.0030025956 0.071322992 0.31709895
-0.0019626454 0.071844578 0.31795937
-0.0026868742 0.072634816 0.3168588
-0.001014085 0.072596952 0.3170146
0.00037053521 0.072696559 0.31723461
-0.0030096215 -0.072301924 0.31859419
-0.00090556138 -0.072895475 0.31893182
0.00086498272 -0.072638683 0.31915346
-0.0047061406 -0.070848241 0.31900913
-0.0033690312 -0.071038507 0.31911394
-0.00083899376 -0.071872137 0.31899005
0.00048058521 -0.07191433 0.31893048
-0.0063517513 -0.068988599 0.31908154
-0.0053036376 -0.069110595 0.31893584
-0.0069125211 -0.066887319 0.31875166
-0.005876157 -0.066987902 0.31877276
-0.0069049159 -0.065187201 0.31899148
-0.0058821253 -0.065252647 0.31870028
-0.0066889687 -0.063215233 0.31888238
-0.0056209862 -0.06272389 0.31885535
-0.0067075281 -0.060978908 0.3189728
-0.005709555 -0.060847189 0.31917092
-0.0067721489 -0.058734387 0.31909886
-0.0056289136 -0.059022058 0.3189621
-0.0067812013 -0.056574263 0.31920275
-0.0056358189 -0.057414711 0.31893221
-0.0067090234 -0.055163272 0.31889367
-0.0056436383 -0.055121224 0.31905636
-0.0066814688 -0.052714083 0.31882069
-0.0057724011 -0.053275157 0.31933492
-0.0067090117 -0.050873853 0.31888279
-0.0056123184 -0.051306531 0.31885415
-0.006717816 -0.048966836 0.31893069
-0.005608561 -0.049363855 0.31893277
-0.0067650168 -0.046922475 0.31913665
-0.0056312392 -0.047179621 0.31899104
-0.0068006772 -0.045104474 0.31926149
-0.0056879381 -0.044956345 0.31906942
-0.006762974 -0.04305657 0.31915522
-0.005652145 -0.042850062 0.31901953
-0.0067109503 -0.040836751 0.31904662
-0.0057271891 -0.040990829 0.31917578
-0.0066891951 -0.038748983 0.31886989
-0.0056345672 -0.038963623 0.31894189
-0.0066788513 -0.037279736 0.31883827
-0.0055446429 -0.036840461 0.31866303
-0.0067853457 -0.035285104 0.31911796
-0.0056504845 -0.034936186 0.31900904
-0.0067037703 -0.032600537 0.3189989
-0.0055954084 -0.032996267 0.31887889
-0.0067989458 -0.031027621 0.31924349
-0.0055896207 -0.030704329 0.31885955
-0.0067632832 -0.028581474 0.3191779
-0.0055500939 -0.028923003 0.31873485
-0.0067812861 -0.026479084 0.31933275
-0.0056733689 -0.027211428 0.31911269
-0.006682761 -0.025112495 0.3188768
-0.0056260657 -0.024821667 0.3188909
-0.0066888123 -0.023149442 0.31892598
-0.0056310273 -0.023161791 0.31893602
-0.0067920387 -0.020982023 0.31922758
-0.0057110689 -0.020776456 0.31914872
-0.0067048012 -0.019379174 0.31893495
-0.0057146209 -0.019030122 0.31920385
-0.0067276699 -0.016867803 0.31893104
-0.0057518478 -0.017085051 0.31936306
-0.0067247092 -0.015187523 0.31898057
-0.0055442182 -0.014751154 0.31869584
-0.0067516612 -0.012879678 0.31905159
-0.0055585741 -0.012812807 0.31877169
-0.0066991225 -0.011391859 0.31889132
-0.0056838454 -0.010842025 0.31913549
-0.006716955 -0.0092664659 0.31897688
-0.0056315903 -0.0090918383 0.31897306
-0.0066635818 -0.0072629121 0.31885219
-0.005559606 -0.0076000141 0.318699
-0.0067553953 -0.0048246053 0.31912184
-0.0056793531 -0.0053703496 0.31900316
-0.0067714578 -0.003310394 0.31913862
-0.0056007132 -0.0027890909 0.31884271
-0.0067578205 -0.00084661087 0.31904727
-0.0057522333 -0.0014950729 0.31924948
-0.0067335805 0.0011613228 0.31895167
-0.005654179 0.00083604694 0.31901458
-0.0066989465 0.0030998811 0.31892291
-0.0056927996 0.0030555082 0.3191095
-0.0067379051 0.0053285062 0.31894624
-0.0056020622 0.0050378204 0.31891116
-0.0067101512 0.0068897577 0.31891048
-0.0057077622 0.0068457946 0.31913853
-0.006689922 0.0087505449 0.31882507
-0.0057114046 0.0091650113 0.31918246
-0.0067554335 0.01075709 0.31916443
-0.0056724972 0.011415416 0.3191179
-0.0067405463 0.012892421 0.3190597
-0.0056891302 0.013001643 0.31909078
-0.0066682277 0.014848471 0.31875625
-0.0055623231 0.015116108 0.31877786
-0.00670856 0.01684426 0.31887984
-0.0055921553 0.016856603 0.318793
-0.0066394447 0.018914396 0.31866345
-0.0058017508 0.019160781 0.31945536
-0.0067610987 0.020661229 0.31913307
-0.0057682861 0.021330584 0.31942421
-0.0068040197 0.022949763 0.3193168
-0.0057205092 0.022911083 0.31918424
-0.0066757328 0.025065253 0.31883812
-0.0056203394 0.025183141 0.31887278
-0.0067488127 0.027162252 0.31910306
-0.0056702374 0.026874017 0.31905547
-0.0066837016 0.029085897 0.3188386
-0.0056197112 0.028976765 0.31890693
-0.006739527 0.031085128 0.31910944
-0.0056262654 0.031101421 0.31889066
-0.0068310532 0.032769486 0.31944707
-0.0056167315 0.033174403 0.31886667
-0.0067396425 0.034975074 0.31907794
-0.0055648717 0.035208445 0.3187319
-0.0067880396 0.036785912 0.31920817
-0.0057220361 0.036929153 0.31924468
-0.0066962088 0.038856536 0.31893787
-0.0056140544 0.038801037 0.31888425
-0.0067255287 0.04115307 0.31905156
-0.0057382057 0.040760484 0.31940523
-0.00663001 0.042829409 0.31871137
-0.0055780797 0.043003626 0.31875837
-0.0066479673 0.044603668 0.31879774
-0.0056455489 0.045006867 0.31894001
-0.0067472877 0.047217567 0.3190721
-0.0057018539 0.04662928 0.31905776
-0.0068035698 0.049528152 0.31941655
-0.0056990488 0.048880968 0.31913343
-0.0066646826 0.050776023 0.31876543
-0.0056126835 0.050806813 0.31890801
-0.0067395135 0.053181484 0.31894693
-0.005650701 0.052959755 0.31908634
-0.0066825342 0.055095881 0.31884456
-0.0054943636 0.054951128 0.31855372
-0.0067292377 0.056833804 0.31893134
-0.0055773635 0.057069845 0.31880173
-0.0067679845 0.059093468 0.31917334
-0.0056516002 0.058874633 0.3190079
-0.0067818994 0.060615055 0.31928387
-0.0056631798 0.061105601 0.31896624
-0.0066771344 0.063046083 0.31892192
-0.0056812712 0.063013963 0.31909385
-0.0068691145 0.064931065 0.31922439
-0.0058528013 0.065011457 0.31888071
-0.0069122277 0.067038342 0.31911531
-0.0058565871 0.067321777 0.31907645
-0.0064595817 0.068913676 0.3189078
-0.0053383554 0.068925135 0.31907889
-0.0048630862 0.070850283 0.31881982
-0.0030693731 0.071282059 0.31916416
-0.0017998843 0.07191433 0.31908274
-0.0029322826 0.072516121 0.31912574
-0.00092646852 0.072599627 0.31920332
0.00095382315 0.07292439 0.3191022
-0.0031359026 -0.072244242 0.32071474
-0.00076681556 -0.072912008 0.32129896
0.0011442528 -0.072785631 0.3208029
0.0023410325 -0.072908156 0.32143697
-0.004905914 -0.070630096 0.32113963
-0.0030721512 -0.071364187 0.32107931
-0.0010901422 -0.071834244 0.32085726
0.0008707883 -0.07190001 0.32097784
-0.0064144377 -0.068828739 0.32100323
-0.0051892386 -0.069312252 0.32106191
-0.0069328528 -0.066598922 0.32084081
-0.0058232187 -0.06740538 0.321255
-0.0069311396 -0.064783514 0.32122365
-0.0059359572 -0.065628409 0.32084215
-0.0069669276 -0.063224033 0.32072517
-0.0059467461 -0.062763616 0.32095605
-0.0069428142 -0.060957085 0.32086942
-0.0059341844 -0.061082885 0.32092535
-0.0069324705 -0.058863103 0.32098266
-0.0059309867 -0.058759034 0.32112145
-0.0069319676 -0.057036087 0.3210527
-0.0059471279 -0.056827329 0.3211334
-0.0069286712 -0.054849196 0.32104912
-0.0059423316 -0.055117842 0.3206369
-0.0069497544 -0.053040512 0.32105967
-0.0059294598 -0.052839942 0.32102484
-0.0069408314 -0.050835881 0.32112643
-0.0059490823 -0.050818596 0.3206408
-0.006943821 -0.049128372 0.32085562
-0.0059152008 -0.048963454 0.32120121
-0.0069450689 -0.047055192 0.32110173
-0.0059487112 -0.046891343 0.32080275
-0.0069521833 -0.044910535 0.32090601
-0.0059183068 -0.044822626 0.32088625
-0.0069351005 -0.042940225 0.32126895
-0.0059490264 -0.043273378 0.32074618
-0.0069444715 -0.040843513 0.32099149
-0.0059384131 -0.040938631 0.32097858
-0.0069395714 -0.038859878 0.32087299
-0.0059273141 -0.039083213 0.32077396
-0.0069519514 -0.03713879 0.32094666
-0.0059360373 -0.036899574 0.32099152
-0.0069336528 -0.035116818 0.32118532
-0.0059205052 -0.035026591 0.32122311
-0.0069347266 -0.033062026 0.32132688
-0.0059255031 -0.032728679 0.32116577
-0.0069427113 -0.03083434 0.32082415
-0.0059004813 -0.0307786 0.32118747
-0.0069292178 -0.029096028 0.32067937
-0.0059171743 -0.028918598 0.32115406
-0.0069490108 -0.026630903 0.32082692
-0.0059287995 -0.027146559 0.32094276
-0.0069434699 -0.024903668 0.32096779
-0.0059424364 -0.025316948 0.32093623
-0.0069408976 -0.022894274 0.32079321
-0.0059635872 -0.022736942 0.32064706
-0.0069594579 -0.021005906 0.32094404
-0.0059300754 -0.021008031 0.32111275
-0.0069301249 -0.018939504 0.32098877
-0.0059227771 -0.018867364 0.32116908
-0.0069490592 -0.016981253 0.32061306
-0.0059521762 -0.016693553 0.32076162
-0.0069440273 -0.014798239 0.32087153
-0.0059375912 -0.015046149 0.32100868
-0.0069375774 -0.012845639 0.32100236
-0.0059432429 -0.013069146 0.32094741
-0.0069408263 -0.010843485 0.32084212
-0.0059582116 -0.010725627 0.32091692
-0.0069306684 -0.0087762401 0.3212164
-0.0059260647 -0.0091063976 0.32081792
-0.0069537126 -0.0068882671 0.32099888
-0.0059242905 -0.0072527444 0.32109305
-0.0069402801 -0.0049747201 0.32129693
-0.0059318151 -0.0046917628 0.32115698
-0.0069408389 -0.0031494356 0.32099923
-0.0059501068 -0.0035015438 0.32115477
-0.006936701 -0.0012038775 0.32117531
-0.0059613483 -0.00066896959 0.3209199
-0.0069432403 0.00068582344 0.32124072
-0.0059314906 0.001238114 0.32111362
-0.0069427933 0.0031471543 0.32111832
-0.0059252414 0.0029807093 0.32124603
-0.00693923 0.0051356517 0.32106307
-0.005941119 0.0050149788 0.32087433
-0.0069350251 0.0070578372 0.32119265
-0.0059254919 0.0070777205 0.32124969
-0.0069653695 0.0089769503 0.32083464
-0.0059038764 0.0088448077 0.32127625
-0.0069383495 0.011187466 0.32068905
-0.005942299 0.010973414 0.32079151
-0.0069373711 0.012826646 0.32117581
-0.0059354422 0.013016567 0.32110947
-0.0069321264 0.015005182 0.32119489
-0.0059405845 0.015168171 0.32112291
-0.006948173 0.017321639 0.32063109
-0.0059235943 0.016818522 0.32114613
-0.0069124219 0.019096265 0.32116482
-0.0059100422 0.019200861 0.32119906
-0.0069528688 0.020652719 0.32091194
-0.0059331846 0.02076868 0.32120019
-0.0069521349 0.022744959 0.32094628
-0.0059337658 0.022974288 0.32093576
-0.006918407 0.025083093 0.32116222
-0.0059384466 0.024674963 0.32074201
-0.0069370633 0.027240552 0.32094756
-0.0059139631 0.026754236 0.32128477
-0.00695393 0.028672807 0.32071608
-0.0059435358 0.028879629 0.3209148
-0.0069633834 0.030584946 0.32081586
-0.0059495294 0.030607015 0.32112771
-0.0069367448 0.032941371 0.32109067
-0.0059550218 0.032931466 0.3208808
-0.0069440301 0.035062153 0.3207179
-0.0059263618 0.035174679 0.32081002
-0.0069348859 0.037284102 0.32078671
-0.0059415959 0.037146427 0.32079104
-0.0069536418 0.038958333 0.32083088
-0.0059186677 0.039109636 0.32114363
-0.0069456589 0.041003719 0.32105604
-0.0059415363 0.041191928 0.320871
-0.0069361269 0.043067899 0.32094508
-0.0059195943 0.042538755 0.32143992
-0.0069410698 0.044932485 0.32117936
-0.0059128874 0.04507935 0.32125399
-0.0069440398 0.046964239 0.32097811
-0.0059126522 0.046718623 0.32109874
-0.0069498317 0.048799172 0.32079554
-0.0059289769 0.048724707 0.32087705
-0.0069489097 0.050682209 0.32097498
-0.0059383893 0.05113858 0.32082969
-0.0069346474 0.053412449 0.32081071
-0.0059509748 0.052703757 0.32095316
-0.0069238991 0.055146258 0.32121253
-0.0059372932 0.054923788 0.32124782
-0.0069463388 0.057180464 0.32089543
-0.0059171147 0.056829866 0.32089502
-0.0069320155 0.059464321 0.32051036
-0.0059517557 0.058743607 0.32105854
-0.0069255894 0.061043952 0.32125342
-0.0059254635 0.061086852 0.32076731
-0.0069704554 0.063005663 0.32084754
-0.0059503694 0.06305521 0.32115978
-0.006948235 0.065162502 0.32097876
-0.0059482348 0.065010026 0.32041177
-0.0068901787 0.067082152 0.32070541
-0.0058653154 0.06713789 0.3211301
-0.0064570354 0.068932772 0.32083756
-0.0053762384 0.068924755 0.32111832
-0.0047272546 0.071092583 0.32126051
-0.0030894086 0.071373209 0.32095385
-0.0018568868 0.071889907 0.32112086
-0.0026472835 0.072645359 0.32073742
-0.00084220024 0.072493427 0.32107681
0.00099057681 0.072714105 0.32090536
0.0023319798 0.07246884 0.32131207
-0.002885689 -0.072350457 0.32299894
-0.0010395441 -0.072879761 0.32328624
0.0012191127 -0.073000006 0.32282093
0.0032862672 -0.072889186 0.32315212
0.0041815834 -0.072880365 0.32349238
-0.0047865272 -0.070780128 0.32285726
-0.0032291741 -0.071117677 0.32330599
-0.00096139422 -0.07184568 0.32290265
0.00085837627 -0.07190001 0.32292113
0.0023428325 -0.071900003 0.32329643
-0.0063249464 -0.068867825 0.32327861
-0.0053127804 -0.068863012 0.3231312
-0.0065957578 -0.066828825 0.3230589
-0.0055799182 -0.067098089 0.32288051
-0.0066538751 -0.064898096 0.32288116
-0.005539421 -0.064834818 0.32299563
-0.0066106562 -0.062722586 0.3230499
-0.0054168743 -0.063026577 0.32329398
-0.0066188402 -0.061057582 0.32301009
-0.0055341222 -0.061240919 0.32297105
-0.006680287 -0.059140526 0.32280728
-0.0055330377 -0.058921497 0.32300341
-0.0065987259 -0.056866076 0.32304379
-0.0055222018 -0.056868285 0.32299116
-0.0065043503 -0.054914635 0.32331359
-0.0055380631 -0.055035423 0.3229495
-0.006574248 -0.052951466 0.32309508
-0.0054849437 -0.052785713 0.32309899
-0.0065473807 -0.051035795 0.32315248
-0.0055439454 -0.05117704 0.32296553
-0.0065012672 -0.048929092 0.32331464
-0.0055148695 -0.04909059 0.3230215
-0.0066417973 -0.047166515 0.32284719
-0.0055678352 -0.046735149 0.32290137
-0.0066277157 -0.04505232 0.32292101
-0.0055287369 -0.044924043 0.323026
-0.0065759025 -0.042899083 0.32303911
-0.0056086099 -0.042909335 0.32276869
-0.006644778 -0.040802047 0.32293257
-0.0053039687 -0.041515004 0.3234899
-0.0066072373 -0.039048426 0.32302088
-0.0054663778 -0.039178785 0.32313585
-0.0066616316 -0.036947459 0.32282549
-0.0055153137 -0.036765814 0.32299113
-0.0066432408 -0.035093755 0.32293868
-0.005623864 -0.035038672 0.32271165
-0.0066056228 -0.032894611 0.323008
-0.0055445 -0.033201318 0.3229858
-0.0066765673 -0.030969657 0.32285252
-0.0056503746 -0.030959344 0.32267433
-0.0065530594 -0.028721601 0.32314986
-0.005429395 -0.029221375 0.32322973
-0.0066295411 -0.027019899 0.32298416
-0.0055865259 -0.026885439 0.32287899
-0.0066381935 -0.024999455 0.32293433
-0.0055732573 -0.025223546 0.32288823
-0.0065890597 -0.023362648 0.3230767
-0.0054466547 -0.022742357 0.32317206
-0.0065821777 -0.021224713 0.32308865
-0.0055170502 -0.020953288 0.32302663
-0.006629284 -0.018825831 0.32296371
-0.0055307816 -0.019084647 0.32298431
-0.0064954162 -0.016939707 0.32330307
-0.0054212678 -0.016932597 0.32325071
-0.0066498374 -0.014802976 0.32290444
-0.0055011557 -0.014993346 0.32306734
-0.00663443 -0.013145436 0.32297087
-0.0055746012 -0.013386166 0.32287392
-0.0066793626 -0.010699049 0.32278433
-0.0055303248 -0.011152029 0.32299706
-0.0066121635 -0.0092788525 0.32295656
-0.0056286175 -0.0089702401 0.322712
-0.006636933 -0.0070113703 0.32286349
-0.0055805435 -0.0069832751 0.32285351
-0.0065261577 -0.005124466 0.32322678
-0.0055237566 -0.0051715653 0.32300925
-0.0064503821 -0.0029084347 0.32344478
-0.0053925915 -0.0032387215 0.32331112
-0.0065972642 -0.00096511835 0.3230029
-0.005640646 -0.00093311223 0.32273406
-0.0065715997 0.0010271095 0.3231225
-0.0054784631 0.0012045386 0.32314587
-0.0065302476 0.0031310096 0.32321337
-0.0056329845 0.0026684063 0.322725
-0.0066810362 0.0049568778 0.32281816
-0.0055042091 0.0051402696 0.32307401
-0.0067623472 0.0073797721 0.32253933
-0.0054567186 0.0069300276 0.32316694
-0.0066182939 0.0087204063 0.32298645
-0.0055309227 0.009046006 0.32300985
-0.0066188569 0.011179991 0.32297167
-0.0054477225 0.010919075 0.32318279
-0.0065071993 0.012830044 0.32328638
-0.0054332954 0.012869832 0.32324654
-0.0066397269 0.015016404 0.32286131
-0.0054217326 0.015158331 0.3232426
-0.0066563464 0.017072221 0.32292956
-0.0055750059 0.016810356 0.32289425
-0.0066202451 0.018813729 0.32296091
-0.005548642 0.019212935 0.32292852
-0.0066182939 0.020838073 0.3229509
-0.0056889849 0.020783499 0.32260317
-0.0066505577 0.023139358 0.32287914
-0.0055082249 0.023298178 0.32301673
-0.0065865638 0.024982611 0.32303813
-0.0055653835 0.024819223 0.32292926
-0.0066544055 0.027308397 0.32285061
-0.0054897936 0.026866503 0.3230691
-0.0067262528 0.029080696 0.32265076
-0.0055730585 0.029321229 0.32288718
-0.0066108489 0.031094041 0.3229782
-0.0054138512 0.031109264 0.32325509
-0.0066793333 0.033288643 0.32282057
-0.0055310102 0.033113513 0.32302767
-0.0065679988 0.035081454 0.32309914
-0.0053670509 0.034758579 0.32336375
-0.0065838778 0.036839373 0.32306185
-0.0055520302 0.037050005 0.32293379
-0.0065122964 0.039112229 0.32329869
-0.0054976447 0.038998313 0.323071
-0.006447006 0.041066855 0.32344484
-0.0055692918 0.04099977 0.32291701
-0.0065845079 0.043023471 0.32306919
-0.0055957204 0.04300214 0.32287377
-0.0066963597 0.044883311 0.32276589
-0.0054960879 0.045048825 0.32302722
-0.0066127651 0.047178462 0.3229731
-0.0054535498 0.046843868 0.32316747
-0.0066796523 0.049064633 0.32281634
-0.0054823989 0.048923783 0.32307574
-0.0065986468 0.051094711 0.32301039
-0.0055243499 0.051111963 0.32297102
-0.006547018 0.053087853 0.32313371
-0.0054200059 0.053176593 0.32322177
-0.0067116381 0.054636348 0.32270145
-0.0053516198 0.055084363 0.32344395
-0.0066794823 0.056741595 0.32278559
-0.0055519687 0.056641139 0.32291517
-0.0065204063 0.058891293 0.3232567
-0.0054778969 0.058875788 0.32311624
-0.0065851375 0.06098479 0.32309511
-0.0055655707 0.060689088 0.32294032
-0.0066762278 0.06288071 0.32272643
-0.0054722396 0.063006938 0.32315078
-0.0065092021 0.065028131 0.32326671
-0.005363469 0.065061301 0.32339492
-0.0065208459 0.06717968 0.32322145
-0.0054784887 0.067071758 0.32309395
-0.0062879818 0.069095053 0.32313108
-0.0053032297 0.069095708 0.32282877
-0.0048455289 0.070970476 0.32304201
-0.0030345921 0.071304485 0.32267919
-0.0016854361 0.071963377 0.32232597
-0.0033280943 0.072341599 0.32306808
-0.0011068063 0.072693981 0.322952
0.0008131286 0.072760001 0.32306617
0.0030629763 0.072472908 0.32304913
0.0044057164 0.072920106 0.3237057
-0.0029350549 -0.072330587 0.32520673
-0.00069350115 -0.072922945 0.32506046
0.00086903281 -0.072999999 0.32548437
0.002846814 -0.073000006 0.32476088
0.0050606886 -0.072963141 0.32464659
0.007048713 -0.072510511 0.3255285
-0.0048226849 -0.070992365 0.32485572
-0.0030014699 -0.071191609 0.32514265
-0.0012573651 -0.071805194 0.32492748
0.0014307844 -0.071900003 0.32494295
0.0029762378 -0.07190001 0.32510591
0.0046333713 -0.071903497 0.32501134
0.006528452 -0.071900003 0.32533902
-0.0060907742 -0.068848014 0.32430273
-0.0050676977 -0.068927541 0.3250944
-0.0036036663 -0.068604328 0.32554728
-0.006126781 -0.06737861 0.32421857
-0.0051095602 -0.066908449 0.32485667
-0.0036249657 -0.066825315 0.32553127
-0.0061467597 -0.06481839 0.32418644
-0.0049496475 -0.06521441 0.32505199
-0.003662229 -0.065110266 0.32550335
-0.0060150586 -0.062326912 0.32440618
-0.0050647138 -0.06267745 0.32520914
-0.0036583461 -0.062968403 0.32550624
-0.0060936715 -0.060574085 0.32429689
-0.0049647125 -0.061070912 0.32515389
-0.0033842863 -0.060848989 0.32571179
-0.0060586468 -0.058364067 0.3243517
-0.0051976955 -0.059200972 0.32499328
-0.003439287 -0.05938971 0.32567057
-0.0061214245 -0.056833029 0.32422775
-0.0050249612 -0.057151392 0.32513046
-0.0036451819 -0.056873709 0.32551613
-0.0060834917 -0.055061053 0.32430583
-0.0050193858 -0.054966487 0.32499602
-0.0036422824 -0.055635422 0.32551831
-0.0061206669 -0.052646991 0.32424003
-0.0050606509 -0.052989598 0.32489625
-0.0032768415 -0.053107001 0.32579237
-0.0061675683 -0.051532697 0.3241252
-0.0048904382 -0.051141568 0.3249549
-0.0036251564 -0.051067248 0.32553115
-0.0061823013 -0.049243711 0.32410014
-0.005249429 -0.04884585 0.3247807
-0.0032995741 -0.048648931 0.32577536
-0.0062032817 -0.047144145 0.32404914
-0.0050041107 -0.047001805 0.3249478
-0.0034385424 -0.047198605 0.32567111
-0.0061971145 -0.044178613 0.32406414
-0.0050574457 -0.045149483 0.32497448
-0.0034499436 -0.044749424 0.32566258
-0.006191792 -0.042833868 0.32407707
-0.0050769905 -0.042958803 0.32508549
-0.0034771701 -0.042849258 0.32564214
-0.0062049273 -0.04044763 0.32404518
-0.0049494877 -0.041230459 0.32513469
-0.0033813366 -0.040900193 0.32571399
-0.0061596204 -0.038864415 0.32415149
-0.0049346527 -0.039060466 0.32504696
-0.003495554 -0.039342947 0.32562837
-0.0061486103 -0.037169095 0.32417455
-0.0050326232 -0.037051801 0.32514662
-0.0033325483 -0.037483308 0.32575059
-0.006133656 -0.034541562 0.32419699
-0.0048484602 -0.034949873 0.3249571
-0.0038391224 -0.035278197 0.32537067
-0.0061379932 -0.033205654 0.32420772
-0.0051258169 -0.033051554 0.32514533
-0.0034767929 -0.032957211 0.32564241
-0.0061139474 -0.030980045 0.32423201
-0.0051287543 -0.030979898 0.32518071
-0.0035265335 -0.031122452 0.32560512
-0.0061661266 -0.029445564 0.32413942
-0.0050215847 -0.028897185 0.32504916
-0.0034448951 -0.029018981 0.32566634
-0.0061436812 -0.026413418 0.32419392
-0.0048406906 -0.026955489 0.32502374
-0.0036533007 -0.027254665 0.32551003
-0.0061522643 -0.025115071 0.32417303
-0.0050414256 -0.024959631 0.32500485
-0.0037300135 -0.025331369 0.32545251
-0.0051122978 -0.023293694 0.3250784
-0.0033716138 -0.022849988 0.32572129
-0.006086709 -0.020760577 0.32430667
-0.0052897139 -0.020978771 0.32502943
-0.0034581043 -0.021439131 0.32565641
-0.006172718 -0.019015636 0.32412338
-0.0048228488 -0.019043425 0.3248575
-0.0036301636 -0.018518798 0.32552737
-0.0061411145 -0.01726535 0.32418644
-0.0049227593 -0.016607739 0.32490212
-0.0034970774 -0.017082909 0.32562718
-0.0061115013 -0.014422585 0.32424897
-0.0051784567 -0.014889663 0.3248935
-0.0037545143 -0.014901385 0.32543409
-0.0051252889 -0.013026159 0.32514897
-0.0036256709 -0.012972158 0.32553077
-0.0061182361 -0.010650239 0.32422897
-0.0048231953 -0.010851901 0.32509035
-0.0031850615 -0.010180665 0.32586122
-0.0061324779 -0.0092456033 0.32418668
-0.005044444 -0.0092076119 0.32501861
-0.0033980028 -0.0091324765 0.3257015
-0.0049193823 -0.0066858488 0.32513762
-0.0033165552 -0.0071191848 0.3257626
-0.0061169271 -0.0051273336 0.32423094
-0.0049285586 -0.005066657 0.32496777
-0.0036648412 -0.0048305346 0.32550138
-0.0049736723 -0.0029410429 0.32528532
-0.0034362799 -0.0029621765 0.32567281
-0.0060693426 -0.0010054791 0.32433626
-0.0050360472 -0.0010056475 0.32497171
-0.0033428739 -0.00058894139 0.32574284
-0.0048013935 0.00083911646 0.32505724
-0.0038160183 0.0011441612 0.32538798
-0.0061659589 0.0025084033 0.3241398
-0.0048487051 0.0029465503 0.32495454
-0.003490052 0.0033313113 0.32563248
-0.006203209 0.0044907765 0.32404935
-0.0050905622 0.0048678163 0.32500306
-0.0037792488 0.0052655591 0.32541555
-0.0061674914 0.0069440156 0.32413611
-0.004918626 0.00697655 0.32479793
-0.0032188958 0.0069330167 0.32583582
-0.0061272122 0.0083066644 0.32423389
-0.0051422613 0.0088322666 0.32521164
-0.0034487441 0.0087529933 0.32566342
-0.0050923815 0.011173876 0.32489762
-0.0035542527 0.011046964 0.32558432
-0.006065838 0.012732321 0.32433271
-0.0051239356 0.013236354 0.32464856
-0.003489862 0.012935145 0.3256326
-0.0061152419 0.01481859 0.3242622
-0.0051099891 0.015124754 0.3250452
-0.0036719053 0.015099923 0.32549608
-0.0061166529 0.017179236 0.32423738
-0.0050815144 0.016983522 0.32502973
-0.0034951582 0.016970737 0.32562867
-0.0060126157 0.019312348 0.32440922
-0.0048135207 0.018880416 0.3250306
-0.0034930578 0.01913275 0.32563019
-0.0061448179 0.021751279 0.32419115
-0.0050522978 0.021010313 0.32498139
-0.0036630312 0.02109158 0.32550272
-0.0060893605 0.023289537 0.32427856
-0.0046886927 0.023038523 0.32480377
-0.0034299828 0.022866804 0.32567748
-0.00607331 0.0259127 0.32433337
-0.0050302409 0.025041856 0.32509735
-0.0034444095 0.024834318 0.32566673
-0.0061672376 0.026782505 0.3241367
-0.0050918865 0.026903629 0.32488456
-0.0037134415 0.026821066 0.3254649
-0.0049413354 0.028908057 0.32497171
-0.0033941199 0.028800216 0.32570443
-0.0061530173 0.03051349 0.32417125
-0.0049068942 0.030908143 0.32506576
-0.0034539688 0.030954383 0.32565957
-0.0061605698 0.03312932 0.32415292
-0.0048584649 0.032915745 0.32508165
-0.0035055128 0.033002052 0.32562086
-0.0061278995 0.034444056 0.32420582
-0.0051493454 0.034739856 0.32498682
-0.003322683 0.035356481 0.32575804
-0.0060972166 0.037418067 0.32425669
-0.0050549773 0.037100323 0.32487899
-0.0034763031 0.037017055 0.32564279
-0.0062217754 0.038025655 0.32400426
-0.0048088958 0.038854089 0.3248693
-0.0035935137 0.039342433 0.32555488
-0.0060854647 0.041126069 0.32429287
-0.004786653 0.040952943 0.3248978
-0.0036957096 0.040843617 0.32547823
-0.0061498913 0.042479765 0.32416958
-0.0052792709 0.042975627 0.3249431
-0.0035292655 0.043025576 0.32560307
-0.0061399783 0.044564202 0.3242029
-0.0048576109 0.044882193 0.32491705
-0.0034070476 0.045152687 0.32569474
-0.0060568345 0.047033176 0.32435393
-0.0051795077 0.046821326 0.3248778
-0.00358989 0.047130637 0.32555759
-0.0061371378 0.048727419 0.32419822
-0.0047600972 0.048924066 0.32524064
-0.0036141668 0.04866204 0.32553938
-0.0052259853 0.050963752 0.32471773
-0.0034305733 0.051493462 0.32567707
-0.0060922541 0.053705763 0.32428607
-0.0050003491 0.052974425 0.32498592
-0.0034634613 0.053077888 0.32565242
-0.0061136466 0.054560319 0.32423288
-0.0051270481 0.055130005 0.32497817
-0.0033273264 0.054978691 0.32575452
-0.0060932343 0.056840099 0.3242768
-0.0048549571 0.057053629 0.32510975
-0.0035019151 0.056966502 0.32562357
-0.0060906587 0.058487721 0.32431167
-0.0049653072 0.058927234 0.32505208
-0.0036772853 0.059211381 0.32549202
-0.0060355845 0.060112402 0.32438052
-0.005167726 0.061059304 0.32484376
-0.0034158847 0.061149798 0.32568809
-0.0061362674 0.063865051 0.32418248
-0.0050684121 0.062896639 0.32485518
-0.0035226918 0.063214257 0.32560802
-0.0061147008 0.064245872 0.32426429
-0.0050208941 0.064871296 0.32505351
-0.0036245645 0.064995714 0.32553157
-0.0061589284 0.066917166 0.32415026
-0.0051036295 0.066945337 0.32492426
-0.0035847249 0.067152552 0.32556146
-0.0061066072 0.068423107 0.32424968
-0.005238337 0.068937369 0.32479846
-0.0036440096 0.069267526 0.325517
-0.0045634564 0.070992984 0.32510602
-0.0029840309 0.071214773 0.32504269
-0.0018495962 0.071893029 0.32502753
-0.0028470454 0.072561927 0.32490948
-0.00060342508 0.072821766 0.32483897
0.0011760235 0.072899997 0.32485351
0.0029491442 0.072805882 0.32478571
0.0052148639 0.072630756 0.32519421
0.0068354583 0.07273937 0.32559451
0.0080656707 0.072742581 0.32599449
-0.0027317312 -0.072371639 0.32672927
-0.0011603426 -0.072727926 0.32699162
0.0012139136 -0.072760977 0.32745552
0.0031427843 -0.07281781 0.3270722
0.0048644086 -0.072857819 0.3272413
0.0071318685 -0.072797723 0.32716534
0.0092097251 -0.07269311 0.32729828
0.010961493 -0.072649777 0.32722044
0.013244594 -0.072791234 0.32738724
0.014912683 -0.07273443 0.32729682
0.016759034 -0.072581202 0.32735437
0.018987143 -0.072772749 0.32726461
-0.0043588709 -0.070475191 0.32622516
-0.0028568301 -0.070796169 0.3268297
-0.0010414369 -0.071182288 0.32692954
0.00085348263 -0.071245484 0.32711717
0.0029493363 -0.07115069 0.32715663
0.0050901384 -0.071203277 0.32729134
0.0071609761 -0.071155012 0.32706374
0.0089630168 -0.071116112 0.32717976
0.011000591 -0.070951775 0.32732865
0.012906481 -0.070991106 0.32695886
0.015280746 -0.070953161 0.32733682
0.017040277 -0.070872784 0.32749441
0.01913273 -0.070851825 0.32732502
0.020000001 -0.071971193 0.32760754
-0.0043657697 -0.068915099 0.32621974
-0.00265005 -0.068897232 0.32677662
-0.0012271241 -0.069233984 0.32719934
0.0012601574 -0.068879709 0.32734168
0.0030373191 -0.069297574 0.32714
0.0051952465 -0.069096029 0.32740006
0.007069211 -0.069339149 0.32725
0.0092956563 -0.068892866 0.32708263
0.011088305 -0.068957485 0.32730001
0.013065375 -0.06899368 0.32721767
0.015112865 -0.069204107 0.32740712
0.01709811 -0.069141425 0.32728666
0.019137464 -0.069041938 0.32720006
-0.0044280216 -0.06675151 0.32617086
-0.0028531363 -0.066995494 0.3266682
-0.00091053796 -0.066941224 0.32703409
0.00077891455 -0.067161478 0.32722047
0.002717206 -0.067283511 0.32727811
0.0051861797 -0.067326412 0.32716671
0.0069180904 -0.067355402 0.32710218
0.0084949145 -0.067346446 0.32726526
0.010979014 -0.067350902 0.32735369
0.012832308 -0.067319326 0.3273873
0.014856527 -0.067301407 0.32735559
0.0170143 -0.067272246 0.32705849
0.018981909 -0.067296267 0.32726693
-0.004275254 -0.064730488 0.32629085
-0.002529317 -0.065153964 0.32691297
-0.00093133841 -0.065058328 0.32713288
0 -0.065172762 0.327223
-0.0045293984 -0.062476669 0.3260912
-0.0028868977 -0.063141972 0.32695049
-0.00097221066 -0.06278678 0.32676876
0 -0.062741458 0.32717738
-0.0042632082 -0.061210692 0.32630035
-0.0027085149 -0.060944863 0.32679707
-0.0010096102 -0.061100997 0.32729554
0 -0.061648276 0.32744387
-0.0043616444 -0.058947038 0.32622299
-0.0029150797 -0.059263974 0.3267929
-0.0010376055 -0.059338123 0.32690006
0 -0.058923539 0.32694346
-0.004154521 -0.057246879 0.32638574
-0.0030471748 -0.05711202 0.32659119
-0.0010171101 -0.057193309 0.32735494
0.00091264769 -0.056950927 0.32716805
0.0031282459 -0.056914393 0.32720193
0.0047196681 -0.056931902 0.32726371
0.0070013218 -0.056893136 0.32725143
0.0091853561 -0.056892797 0.32738826
0.010956688 -0.056836307 0.32723051
0.012891053 -0.057024844 0.32713076
0.015006414 -0.056807134 0.32734656
0.016978849 -0.056740001 0.32736087
0.019155642 -0.05704226 0.3273682
-0.0043033138 -0.054993585 0.32626885
-0.0027930012 -0.05505285 0.32678795
-0.0007892705 -0.054943986 0.32723942
0.0010050993 -0.054862529 0.3272762
0.0029372915 -0.054999396 0.32748574
0.0051647988 -0.05511966 0.32741177
0.0071161413 -0.055173416 0.32730505
0.0090338737 -0.054985665 0.32730323
0.01095673 -0.055025868 0.32727036
0.01300081 -0.054950904 0.32706672
0.014982875 -0.055094589 0.3271305
0.016913611 -0.054867785 0.32737222
0.019041032 -0.055060837 0.32736737
-0.004241352 -0.052955829 0.32631749
-0.0026854367 -0.053226836 0.32668379
-0.0011143163 -0.053099781 0.32732466
0.00087708671 -0.052915048 0.32700562
0.0030220633 -0.052900195 0.32743332
0.0049820989 -0.053025603 0.32734483
0.0071093207 -0.052862689 0.3272042
0.0090397624 -0.052945066 0.32719505
0.011016293 -0.053030316 0.32727036
0.013010998 -0.053089693 0.3274118
0.014794022 -0.053003289 0.3274464
0.016821923 -0.05313478 0.32756838
0.019264214 -0.05309489 0.32714188
-0.0042312974 -0.051145505 0.32632542
-0.0027942429 -0.050855026 0.32676631
-0.0008982594 -0.050865293 0.3271808
0.00043024684 -0.051239703 0.32737485
0.0028618616 -0.051647753 0.32739973
0.0050278017 -0.051560488 0.3270317
0.006885651 -0.051672537 0.32714614
0.0086821364 -0.051618356 0.32713696
0.010917169 -0.051538154 0.32734501
0.013198726 -0.051647253 0.32733449
0.015126697 -0.051615596 0.32709861
0.016983958 -0.0515 0.32729369
0.019063499 -0.051585328 0.32740501
-0.0042618234 -0.048750825 0.32630146
-0.002917883 -0.048785597 0.32688698
-0.00094864547 -0.049055375 0.32718915
0 -0.049060032 0.32707423
-0.0043860395 -0.047289833 0.32620382
-0.0031430547 -0.046850562 0.32657221
-0.0010317924 -0.047027934 0.32709524
0 -0.047300648 0.32723546
-0.0043498529 -0.04481044 0.32623225
-0.0027900252 -0.044810623 0.32689577
-0.00082036259 -0.045093775 0.32722637
0 -0.045225754 0.3272402
-0.0042680297 -0.04334899 0.32629654
-0.0029183354 -0.042907726 0.32696238
-0.0010041479 -0.043122839 0.32714203
0 -0.043375403 0.32733464
-0.0042557651 -0.041064247 0.32630619
-0.0027898052 -0.040721234 0.3268019
-0.00090985955 -0.040868584 0.32720959
0.0010924871 -0.04115646 0.32729691
0.0030589991 -0.041212942 0.32705364
0.0047825905 -0.041329257 0.32726428
0.0069234748 -0.041395087 0.32714114
0.0090143001 -0.041245803 0.32712311
0.011079025 -0.041219626 0.32742968
0.012967682 -0.041217919 0.327133
0.014822976 -0.041198447 0.32724306
0.016896203 -0.041156076 0.32711905
0.019178081 -0.040983051 0.32733563
-0.0042810859 -0.038687594 0.32628632
-0.0028486217 -0.038867217 0.3269113
-0.00096637115 -0.039033424 0.32705662
0.0011051617 -0.039179403 0.32725
0.0029220046 -0.039169438 0.32717144
0.0051191892 -0.039062932 0.32740003
0.0068097701 -0.039009959 0.3270236
0.0088988263 -0.039124012 0.32738751
0.011005041 -0.039122272 0.32724997
0.013040703 -0.038918395 0.32725
0.015116237 -0.038763203 0.32727891
0.017109619 -0.038904458 0.32703483
0.019288432 -0.03881738 0.32716367
-0.0043438091 -0.036854342 0.32623702
-0.0028910537 -0.036903914 0.32687253
-0.00099879282 -0.037031468 0.32716089
0.00098580087 -0.036947254 0.3271305
0.0029525587 -0.036831602 0.3272762
0.0049374141 -0.03715542 0.32727042
0.0072513614 -0.036898863 0.32728234
0.0091091543 -0.037037663 0.32701433
0.011142055 -0.037030499 0.32709035
0.013086619 -0.036979444 0.32714
0.014954868 -0.037178077 0.32732865
0.016993567 -0.036693413 0.32733685
0.01912529 -0.037010338 0.32737935
-0.0045246109 -0.034917995 0.32609493
-0.0027730847 -0.034974094 0.32676291
-0.00086207764 -0.034893055 0.32735777
0.00034022864 -0.035518896 0.32721591
0.0020843302 -0.035999998 0.3277891
0.0047839563 -0.035999998 0.32752347
0.0069807032 -0.035999998 0.32744035
0.0090457853 -0.035999998 0.32727179
0.011222749 -0.035999998 0.32722956
0.0131458 -0.035999998 0.32699832
0.014433582 -0.035999998 0.32771957
0.017054299 -0.035999998 0.32746947
0.018504288 -0.035999998 0.32728451
-0.00442919 -0.033980284 0.32616991
-0.0032092566 -0.032905754 0.326956
-0.0010837707 -0.033105217 0.32718247
0 -0.033012066 0.32720041
-0.0044074832 -0.030611295 0.32618698
-0.0026594733 -0.030975964 0.32660204
-0.0011183185 -0.03084131 0.32688597
0 -0.031456213 0.32716581
-0.0044018161 -0.028133161 0.32619146
-0.0028196827 -0.029049965 0.32687753
-0.0011023016 -0.02912426 0.32709253
0 -0.028936764 0.3271642
-0.0041467468 -0.026691839 0.32639182
-0.0025814984 -0.026989639 0.32680547
-0.00075489888 -0.027248431 0.32719409
0.00080008968 -0.026610814 0.32707787
0.0030371123 -0.026364408 0.32711145
0.0050919829 -0.026375223 0.32744178
0.00691356 -0.026379813 0.32734016
0.0090223923 -0.026455894 0.32733473
0.01103603 -0.026398536 0.32758528
0.012800881 -0.026344612 0.32732752
0.015098391 -0.026451653 0.32730502
0.016773578 -0.026324648 0.32736659
0.019065268 -0.026348433 0.32724145
-0.0043059518 -0.025252989 0.32626677
-0.0027971324 -0.02506257 0.32686967
-0.00089682575 -0.025099253 0.32724985
0.00071021158 -0.024947938 0.32722804
0.0030876165 -0.024905147 0.32733688
0.0049092458 -0.025054816 0.32728666
0.0070135035 -0.025036098 0.3271125
0.0089475391 -0.024901148 0.32724997
0.010938982 -0.025032729 0.32725003
0.012987939 -0.025003662 0.32731602
0.014872723 -0.025120599 0.32739475
0.016992664 -0.025102526 0.32736
0.019153697 -0.025143502 0.32732475
0.020000001 -0.025978414 0.32676661
-0.0041693328 -0.022572711 0.32637408
-0.0030237075 -0.022999736 0.32674366
-0.0010764244 -0.022991449 0.32733411
0.00090551813 -0.02317754 0.32722801
0.002970743 -0.023208326 0.32725006
0.005020421 -0.023109244 0.32718128
0.0068442794 -0.023059454 0.32733461
0.008996577 -0.022839257 0.32710528
0.011121486 -0.023036819 0.32704744
0.012982973 -0.023127809 0.32725
0.015303679 -0.02259635 0.32710001
0.017100768 -0.02306422 0.32736
0.019170877 -0.023056218 0.32723126
-0.0043729874 -0.021209484 0.3262141
-0.0028847321 -0.021178678 0.3268604
-0.00083728519 -0.020831443 0.32708353
0.0010331492 -0.021120189 0.32729501
0.0032652789 -0.021177446 0.32722452
0.0049717035 -0.020901592 0.32721621
0.0069682533 -0.021215361 0.32739064
0.00891071 -0.0213301 0.32724476
0.011053084 -0.020997401 0.32726452
0.013331595 -0.021155156 0.32722569
0.01507601 -0.020978551 0.32726803
0.017197426 -0.021116503 0.32745346
0.018906647 -0.02088136 0.32743338
-0.0042980183 -0.019026423 0.32627302
-0.0028757006 -0.019205313 0.32681522
-0.0011298998 -0.018765161 0.32719672
0 -0.018972689 0.3271392
-0.0041832668 -0.016820114 0.32636315
-0.0027474707 -0.016866708 0.32661694
-0.00093445485 -0.016950153 0.32740048
0 -0.016501309 0.32741997
-0.0045769154 -0.014949596 0.32605386
-0.0029988517 -0.014819705 0.32674605
-0.00095836393 -0.014832869 0.32711616
0 -0.014861451 0.3273066
-0.0043945233 -0.013547213 0.32619715
-0.0025655332 -0.013006507 0.32673153
-0.00093778479 -0.012861589 0.32712021
0 -0.01294533 0.3272621
-0.0042262594 -0.011107338 0.32632938
-0.0027714449 -0.011074244 0.32663244
-0.00092936383 -0.01075316 0.32739902
0.00059410708 -0.011015158 0.32724446
0.002860313 -0.010610792 0.32719293
0.004943857 -0.010633281 0.32733908
0.0069392966 -0.01058694 0.32734212
0.0089764241 -0.010649875 0.32710424
0.011322279 -0.010848441 0.32712778
0.012848351 -0.010585487 0.32729056
0.014813224 -0.0106045 0.32730803
0.016841972 -0.010750819 0.32725468
0.019224565 -0.010614214 0.32735854
-0.00418917 -0.0087734573 0.32635853
-0.0026977577 -0.0092023239 0.32673708
-0.00085341366 -0.0088229449 0.32708308
0.0010034082 -0.0085214777 0.32748571
0.0031371831 -0.0088386713 0.32733682
0.0048349053 -0.009136877 0.32725
0.006879122 -0.0089123314 0.32706669
0.0090489434 -0.0089935791 0.32741174
0.01121491 -0.0089487582 0.32727897
0.013205936 -0.0088334894 0.32740718
0.015131061 -0.0089725396 0.32727036
0.017238604 -0.0089176651 0.32718128
0.019168794 -0.0088978251 0.32721579
-0.0043829028 -0.0072140493 0.3262063
-0.0029820388 -0.0067608226 0.32689664
-0.001005567 -0.0069407006 0.32714278
0.00092336384 -0.0069744452 0.32746151
0.0030624126 -0.0068240268 0.32706672
0.0048613767 -0.0069019161 0.32752502
0.0070552104 -0.007123658 0.32739475
0.00911952 -0.0070368769 0.32701433
0.010865726 -0.006839464 0.32744998
0.01295336 -0.006937406 0.32709289
0.015060821 -0.007122389 0.32717147
0.017099325 -0.0069997176 0.32723105
0.019408569 -0.0070607644 0.32720366
-0.0042056898 -0.0053229574 0.3263455
-0.0027151566 -0.0051583285 0.3270036
-0.0010432879 -0.0051614796 0.32719913
0.00095591205 -0.0052764607 0.32726645
0.002998068 -0.0054301256 0.32735828
0.0050628972 -0.0054184962 0.32728228
0.0070581492 -0.0053075268 0.32713979
0.00878991 -0.0053736004 0.32721809
0.010909104 -0.0054253181 0.32720816
0.012724433 -0.0055932458 0.32736373
0.014860809 -0.005322319 0.32719541
0.017083893 -0.005517703 0.32739267
0.019128865 -0.0055245473 0.3270632
-0.004213077 -0.0027059398 0.32633972
-0.0031804598 -0.0031357566 0.32691923
-0.001183145 -0.0031105932 0.32728544
0 -0.0031064753 0.32725257
-0.0042886529 -0.0011480261 0.32628036
-0.0029364883 -0.00084806076 0.32670555
-0.0011909675 -0.00094993704 0.32718933
0 -0.0011667114 0.3273645
-0.004261869 0.0009041467 0.3263014
-0.0030968487 0.00074738916 0.32694799
-0.0011268527 0.0010296677 0.32710299
0 0.0010269221 0.32727215
-0.0043912092 0.0033406143 0.32619977
-0.002960721 0.0032155099 0.32673484
-0.001069291 0.0031864904 0.32716107
0 0.0029398105 0.32729465
-0.0043282192 0.0050922246 0.32624927
-0.0028536769 0.0051999469 0.3270213
-0.00097309868 0.004929963 0.32716855
0.00052539801 0.0051514967 0.32732955
0.0029701472 0.0053906306 0.32699952
0.005064338 0.005397792 0.32710865
0.0070621804 0.0055577522 0.32709008
0.0088043287 0.0054814136 0.32745942
0.010921504 0.0054962868 0.32704118
0.013190138 0.0053804554 0.32702428
0.015016067 0.005525311 0.32732701
0.016872287 0.005523866 0.32746598
0.019028403 0.0054316437 0.32730591
-0.0042560305 0.0076207593 0.32630599
-0.0030527806 0.0070638703 0.32685995
-0.0012286096 0.0069456375 0.32716361
0.0010492619 0.0068936576 0.32700557
0.003112372 0.0069602616 0.32715297
0.0047978889 0.0067716488 0.32725
0.0070729968 0.0068241931 0.32710528
0.00928766 0.00702326 0.32720003
0.010792079 0.0070734685 0.32714006
0.0132814 0.0070048366 0.32733682
0.014940361 0.006769985 0.32715833
0.016928827 0.0067410939 0.32734999
0.019205458 0.0070675029 0.32726139
-0.0040625199 0.009423105 0.32645804
-0.0028693855 0.0089338059 0.32688808
-0.00091433857 0.0088697644 0.32710347
0.001065271 0.0088047208 0.32715294
0.0029995863 0.0092373835 0.32738748
0.0049546105 0.008948544 0.32714
0.0070156711 0.0091634858 0.32736957
0.0092173284 0.008835691 0.32712778
0.010900376 0.00889064 0.32719502
0.012938416 0.0089689558 0.32720003
0.014940163 0.0091024814 0.32722107
0.016861698 0.0089386133 0.32740712
0.019461798 0.0088965418 0.32719842
-0.0044221296 0.010806158 0.32617545
-0.0029874227 0.011118692 0.32687792
-0.0010347685 0.010999446 0.32704911
0.0008471703 0.010732323 0.32745308
0.0028105394 0.010860751 0.32737267
0.0051125796 0.010862543 0.32715517
0.0069009867 0.01086714 0.32719845
0.0089537008 0.010860341 0.32705918
0.01093235 0.010846709 0.3272365
0.013243305 0.01087823 0.32714504
0.015006172 0.010955995 0.32722411
0.016803475 0.010849717 0.32724547
0.019054106 0.010915148 0.32719684
-0.0044162744 0.013003308 0.32618007
-0.0029145968 0.013089984 0.32679191
-0.0010163607 0.012848111 0.32717893
0 0.01324823 0.32693446
-0.0044586426 0.01532064 0.32614678
-0.003001373 0.014801362 0.32655951
-0.0009633993 0.014796608 0.32725856
0 0.01483822 0.32713902
-0.0043952214 0.017654261 0.32619664
-0.0029854772 0.017179951 0.32677922
-0.001188828 0.016981009 0.32713768
0 0.016820755 0.32746679
-0.0041996702 0.018801047 0.3263503
-0.0028746587 0.018848268 0.32678714
-0.0011684028 0.019081358 0.32713887
0 0.018967982 0.32710069
-0.0040596547 0.021770671 0.32646027
-0.0027640618 0.021094566 0.32676622
-0.00095101312 0.020821538 0.32722938
0.00070889544 0.021190763 0.32733381
0.0030203245 0.021195926 0.32741654
0.0049732588 0.021206243 0.32729173
0.0072230352 0.021077247 0.32724443
0.0089755785 0.021101547 0.32731879
0.010766295 0.021235084 0.32737458
0.013287169 0.021302773 0.32713243
0.014914396 0.0211873 0.32704237
0.017144375 0.021093696 0.32734001
0.019330906 0.021493927 0.32742766
-0.004469031 0.02358233 0.32613862
-0.0029212323 0.022600371 0.32678649
-0.0013509188 0.023211582 0.32695022
0.00099474925 0.023051076 0.32732856
0.0030309826 0.022915624 0.32710531
0.0049400646 0.022906829 0.32725
0.0071889884 0.02271964 0.32714
0.0089109391 0.023139339 0.32731873
0.011043182 0.023022462 0.32706669
0.013186372 0.023226207 0.3274765
0.014890321 0.022832621 0.32725006
0.016883807 0.022969026 0.32712778
0.019237202 0.022955365 0.32737023
-0.0044096555 0.024960009 0.32618529
-0.0025317536 0.024726795 0.32668018
-0.0011168292 0.024841134 0.32713166
0.000815698 0.024967892 0.32741174
0.0029187647 0.025016123 0.32738099
0.005051008 0.024931071 0.32706669
0.0069838497 0.025176214 0.32721335
0.0090400865 0.024848873 0.32720003
0.011022697 0.024790244 0.32708499
0.013230685 0.024838664 0.32721338
0.015077358 0.025004152 0.32722801
0.016852921 0.024917781 0.32729587
0.019133966 0.02493421 0.32716143
-0.0042431168 0.026727926 0.32631612
-0.0027266829 0.026978603 0.32682368
-0.0011398516 0.026971353 0.32729572
0.00072221999 0.026856894 0.32711923
0.002887751 0.026645919 0.32702631
0.0048308573 0.026536047 0.32722175
0.0067796502 0.026593534 0.32723507
0.009038494 0.026580164 0.32702836
0.010964648 0.026532328 0.32731435
0.012943638 0.026635787 0.32730997
0.014744819 0.026581449 0.3272258
0.01703817 0.02644008 0.32706848
0.019402005 0.026605012 0.32721964
-0.0042996397 0.029202109 0.32627171
-0.0029808218 0.028798664 0.32700422
-0.0010983518 0.028878672 0.32708579
0 0.028562184 0.32716024
-0.0042272815 0.030865053 0.32632858
-0.0031230839 0.03098944 0.32661185
-0.001001676 0.031039298 0.32699504
0 0.0314859 0.32710063
-0.004219566 0.032887682 0.32633463
-0.0029786001 0.032875985 0.32669324
-0.0009574577 0.033073656 0.3272979
0 0.033016279 0.32729498
-0.004326392 0.034831166 0.3262507
-0.0028974994 0.034973536 0.32685944
-0.00096845935 0.034929954 0.3271639
0 0.034916203 0.32709241
-0.0043616216 0.037299946 0.32622302
-0.0028294134 0.036843713 0.32692856
-0.001109711 0.037187666 0.32727599
0.0010467807 0.036823895 0.32727173
0.0032514257 0.037229963 0.32738158
0.0051403632 0.037009094 0.32727435
0.0069478611 0.03691202 0.32737178
0.0092033595 0.037019756 0.3271125
0.010964282 0.036929976 0.32715473
0.01294015 0.037224848 0.32748854
0.015183209 0.036904104 0.32734141
0.017138967 0.036824398 0.3271853
0.019220879 0.03694918 0.32705027
-0.0042886459 0.038905255 0.32628036
-0.0025649362 0.038985696 0.32672942
-0.00076876604 0.039074283 0.32726699
0.00090266863 0.039118443 0.3270385
0.0027113033 0.039010677 0.32706672
0.0051589115 0.038842242 0.32704735
0.0067394087 0.039125044 0.32710001
0.0090834163 0.039035138 0.32734707
0.010727479 0.039035037 0.32715833
0.012866824 0.038821515 0.32731879
0.014714854 0.038614344 0.32731873
0.016991595 0.039125256 0.3271305
0.019159975 0.038943648 0.32717642
-0.0043416936 0.040947206 0.32623869
-0.0026188018 0.041079558 0.32636285
-0.0010213359 0.040685277 0.32717881
0.00094488991 0.04077974 0.32737222
0.0030834835 0.041001122 0.32731876
0.0049185092 0.041035507 0.32712778
0.0071333079 0.041093171 0.3272261
0.0089882519 0.041089747 0.32732856
0.011077051 0.041272465 0.32715297
0.013063256 0.041091051 0.32733867
0.01479568 0.040960521 0.32717827
0.017082561 0.041031823 0.32710004
0.019468984 0.041104633 0.3272143
-0.0042997468 0.043716449 0.32627162
-0.0028459213 0.043095026 0.32682437
-0.0010775822 0.0428029 0.32718351
