# .PCD v0.7 - Point Cloud Data file format
VERSION 0.7
FIELDS x y z
SIZE 4 4 4
TYPE F F F
COUNT 1 1 1
WIDTH 1264
HEIGHT 1
VIEWPOINT 0 0 0 1 0 0 0
POINTS 1264
DATA ascii
-0.0042092623 -0.0061061322 0.1946505
-0.0032012006 -0.0067188516 0.19492793
-0.00097797334 -0.0073852176 0.19496892
0.0010731856 -0.0073816944 0.19491786
0.003096927 -0.0067963935 0.19509624
0.0042915656 -0.0061775031 0.19493872
-0.0062096515 -0.0042306306 0.19493531
-0.0051969341 -0.0052856514 0.19519047
0.0053312024 -0.0051458459 0.19519179
0.006097117 -0.0042223763 0.19495073
-0.0068384581 -0.0029705712 0.19505951
0.0067323064 -0.0031618821 0.19487359
-0.0074105123 -0.00086125813 0.19479404
0.0074047875 -0.00078201236 0.19506204
-0.0073711425 0.001027036 0.19513838
0.0073948987 0.0010217467 0.19498149
-0.0067601288 0.003096665 0.19496658
0.0067629102 0.003135927 0.19504519
-0.00614839 0.004147796 0.19485295
-0.0052531785 0.005220789 0.19490451
0.0053350013 0.0051561571 0.19510405
0.006187642 0.0042856457 0.19496745
-0.0043311529 0.0061528091 0.19465117
-0.0031050432 0.0067844815 0.19504976
-0.00084396551 0.0074314326 0.19486776
0.00086732901 0.0073987907 0.19496837
0.0031054139 0.0067569739 0.19509763
0.0041858563 0.0061222245 0.19488382
-0.0041598058 -0.0061401343 0.19777876
-0.0029978065 -0.0068056481 0.19707136
-0.0010112241 -0.0073879999 0.19713049
0.0012107786 -0.0073592039 0.19685659
0.0032634789 -0.0067059412 0.19702177
0.0043071466 -0.0061745029 0.19696783
-0.0061676442 -0.0043019257 0.1967824
-0.0052536693 -0.0052318955 0.19691846
0.0053058434 -0.0051783817 0.19700766
0.0061495574 -0.0041460986 0.19714199
-0.0067840833 -0.0031184552 0.19718589
0.0067958962 -0.0029940526 0.19709331
-0.0073949564 -0.00096467353 0.19703722
0.0073742559 -0.0010522787 0.19703254
-0.0074169827 0.00082493864 0.19712399
0.0074279066 0.00069745118 0.19692326
-0.0067683952 0.0030710865 0.19696812
0.0067939665 0.0030778912 0.19701928
-0.0061289808 0.0041760281 0.19724759
-0.0052715726 0.005218565 0.19690469
0.0050296113 0.0054427423 0.19678743
0.0062047704 0.0042559505 0.19713464
-0.0043112533 0.0061584162 0.19719568
-0.0031556529 0.0067660669 0.19693165
-0.0010806719 0.0073713823 0.19712745
0.00093042379 0.007389186 0.19700292
0.0027980471 0.0068925153 0.19686982
0.0041324869 0.0061589158 0.19702236
-0.0041347747 -0.0061573423 0.19896574
-0.0033248526 -0.0066616326 0.19897957
-0.0011402911 -0.0073555768 0.1990487
0.0010258481 -0.007391294 0.19889462
0.0028276197 -0.0069045303 0.19901183
0.004239846 -0.0062054554 0.19893292
-0.0061284355 -0.0043609538 0.19918574
-0.0052152416 -0.0052677905 0.19917788
0.0052691856 -0.005220077 0.19885549
0.0060911509 -0.0042310543 0.19889198
-0.0068071531 -0.0030668296 0.19909199
0.0068371226 -0.0029107076 0.19901021
-0.0074134124 -0.00087016309 0.19909643
0.0073897042 -0.00095895509 0.19895294
-0.0073757032 0.0011105051 0.1989323
0.0073763267 0.0010409129 0.19882461
-0.0068106814 0.002991776 0.19902928
0.0068210014 0.0030311216 0.19892292
-0.0061156517 0.0041954163 0.19941065
-0.0051908894 0.0052980706 0.19897427
0.005161779 0.0053126118 0.19893627
0.0062430934 0.0041906359 0.19893885
-0.0042209392 0.0062241801 0.19897486
-0.0029641001 0.0068625649 0.19904044
-0.0011718392 0.0073595219 0.19902758
0.0011186609 0.0073712235 0.19879656
0.0031118828 0.0067398618 0.19901459
0.0041298205 0.0061607487 0.19909553
-0.0042140665 -0.0061028297 0.20115757
-0.0030962329 -0.0067456639 0.20100272
-0.0010144052 -0.0073774224 0.20097309
0.00099077984 -0.0073907413 0.20097406
0.0028784147 -0.0068870555 0.20109002
0.0042873607 -0.006180475 0.20116495
-0.0062019387 -0.0042457064 0.20092092
-0.00534205 -0.005149472 0.20123741
0.0052328696 -0.0052460399 0.20105772
0.0060821576 -0.0042441357 0.20069003
-0.0067983726 -0.0030581011 0.20111333
0.0067500346 -0.0030951537 0.20094907
-0.0074025509 -0.00097165024 0.20121932
0.0073932107 -0.00090757594 0.20099945
-0.0073634684 0.0011152095 0.20105036
0.0073898588 0.00099506439 0.2008554
-0.0067142518 0.0031995219 0.20106038
0.0067957328 0.0030816284 0.20113811
-0.0061247558 0.0041821739 0.20095833
-0.005246114 0.0052373162 0.20093751
0.0052423431 0.0052429507 0.20118
0.0061463243 0.0043323869 0.20101416
-0.004315204 0.0061614169 0.2009449
-0.0028976118 0.0068794382 0.20089339
-0.00090531289 0.007409249 0.2010563
0.0011809643 0.0073539042 0.20111707
0.0031172412 0.0067477706 0.20096414
0.0041529029 0.0061448794 0.2007519
-0.004145945 -0.0061496636 0.20287991
-0.0029596996 -0.0068193418 0.20299678
-0.0011179511 -0.0073759449 0.20302211
0.0011033907 -0.007383578 0.20281814
0.0032328065 -0.0067179301 0.20308508
0.0042829672 -0.0061827097 0.20329016
-0.0062740697 -0.0041518607 0.20313185
-0.0051741828 -0.0053109843 0.20292446
0.0053670667 -0.0051134522 0.20296779
0.0061429031 -0.0041557774 0.20315254
-0.0067851627 -0.0031026253 0.20309606
0.0068159592 -0.0029375884 0.20298934
-0.0073826015 -0.0010488866 0.20303291
0.007374296 -0.0010501893 0.20303065
-0.0073737768 0.0010439209 0.20292294
0.0073832534 0.0010468396 0.20288011
-0.0068593025 0.0028877268 0.20289776
0.0068399319 0.002987976 0.20292602
-0.0061476375 0.0041488917 0.20306566
-0.0052020946 0.0052820058 0.20307599
0.0051364689 0.0053563621 0.20301671
0.0061733141 0.0043032076 0.20308167
-0.00440495 0.0060950508 0.20254748
-0.0028984612 0.0068739038 0.20303304
-0.00099819945 0.0073855612 0.20294523
0.00099314761 0.0073817722 0.20300218
0.0031304173 0.0067473492 0.20316896
0.0041617765 0.0061387792 0.20256718
-0.0041429442 -0.006151726 0.20504677
-0.0030530789 -0.0067889434 0.20501335
-0.00092696032 -0.0073924377 0.20495237
0.0009366874 -0.0074011395 0.20517567
0.0029778748 -0.006852421 0.20482175
0.0043553351 -0.0061250716 0.20505857
-0.0061691939 -0.0042946781 0.20510976
-0.0051987544 -0.0052812141 0.20498048
0.0052004387 -0.0052905097 0.20481595
0.0061489707 -0.0041469513 0.20519929
-0.0068758349 -0.0028985785 0.20505944
0.0067680487 -0.0030711435 0.20496342
-0.0073849834 -0.0010404582 0.20481177
0.0074026422 -0.00084252958 0.2051346
-0.0073770685 0.0010954696 0.20497516
0.0073897708 0.0010363 0.20498334
-0.006730604 0.0031385808 0.20479465
0.0067911553 0.0030846747 0.20500462
-0.0061255819 0.0041809725 0.20496184
-0.0054742582 0.0050012083 0.20497914
0.0052246661 0.0052644536 0.20506278
0.0062132888 0.0042280485 0.20513329
-0.0042402535 0.0062064058 0.20489153
-0.0031784053 0.0067562354 0.20515846
-0.0010320476 0.0073830592 0.20499782
0.001147415 0.0073649925 0.20485696
0.0028028928 0.0068892916 0.20512453
0.0041694203 0.0061335233 0.20511134
-0.0041550556 -0.0061433995 0.20674847
-0.0031324856 -0.0067460751 0.20705794
-0.00098638143 -0.0073819309 0.20695658
0.0011113808 -0.0073718908 0.20687553
0.0029810567 -0.0068371082 0.20709421
0.0042578764 -0.0061951545 0.20741887
-0.0062090582 -0.0042419122 0.20678031
-0.0052516744 -0.0052340734 0.2071638
0.0053283754 -0.0051603117 0.2069259
0.0061218776 -0.0041863592 0.20699109
-0.0068494389 -0.0029579066 0.20704576
0.0068069529 -0.0030114297 0.20703824
-0.0074042347 -0.00090669747 0.20702024
0.0073624747 -0.001168587 0.20721105
-0.0073819123 0.001003222 0.20703442
0.0074100052 0.00091502065 0.20694809
-0.0067800824 0.0030467135 0.20699875
0.0068917694 0.002856442 0.20676473
-0.006079854 0.0042474857 0.20677751
-0.0052462979 0.0052417768 0.20696768
0.005140054 0.0053354171 0.2068947
0.0062164254 0.0042304788 0.20701782
-0.0042836601 0.0061847549 0.2070252
-0.0030739554 0.0068083196 0.20703389
-0.0010513404 0.0073838695 0.20695427
0.0011059608 0.0073640863 0.20707735
0.0031049431 0.0067486279 0.20687737
-0.004139802 -0.0061538862 0.20857622
-0.0032209319 -0.0066976305 0.20894831
-0.00095928967 -0.0073759863 0.20904763
0.0011120191 -0.0073736231 0.20899081
0.0032446317 -0.0067211618 0.20900434
0.0042675994 -0.0061941338 0.2091279
-0.0061601955 -0.0043074507 0.20894037
-0.005237483 -0.0052496335 0.20898791
0.0053303139 -0.0051579331 0.20906281
0.0061378428 -0.0041631381 0.20887977
-0.0068920893 -0.0028737243 0.20905524
0.0067538908 -0.0031298548 0.20898886
-0.0073724636 -0.0011287562 0.20919289
0.0073990417 -0.00095021277 0.20903054
-0.0073789787 0.0011868312 0.20882514
0.0073889219 0.0010232407 0.20912753
-0.006712588 0.0032170776 0.20912281
0.0068535446 0.0029666265 0.20884208
-0.0060530342 0.0042864964 0.20863432
-0.0053190007 0.0051635941 0.20892325
0.0051835841 0.0053025866 0.20899558
0.0061963322 0.00424719 0.20902948
-0.0042626206 0.0061966809 0.20900381
-0.0029601816 0.0068597491 0.20898873
-0.0010310611 0.0073942882 0.20898069
0.0012091266 0.0073725749 0.20898156
0.002858262 0.0068649976 0.20906295
0.0041925455 0.0061176252 0.20909753
-0.0041412432 -0.0061528962 0.21141785
-0.0031648891 -0.0067377924 0.21092162
-0.0010072726 -0.0073721162 0.21110664
0.00094044261 -0.0073995693 0.21079235
0.0028499425 -0.0069080363 0.21086086
0.004259475 -0.0061906138 0.21095912
-0.0061702919 -0.0042962837 0.21116298
-0.0051968051 -0.0052782944 0.21101253
0.005222898 -0.0052633942 0.2110779
0.0061120107 -0.0042007128 0.21130271
-0.0068470784 -0.0029447349 0.21082157
0.0067404793 -0.0031406698 0.21114051
-0.0073883832 -0.00099757488 0.21114251
0.0073741116 -0.0011205486 0.21110314
-0.0073580877 0.0012063456 0.21097067
0.0074024312 0.00090665329 0.21088983
-0.0068289596 0.0029450224 0.21098205
0.0067664022 0.0031505353 0.211062
-0.0060807844 0.004246132 0.21138343
-0.0052345041 0.0052604242 0.21098599
0.0052779922 0.0052096448 0.21101908
0.0062297122 0.0042178286 0.21103808
-0.0042327605 0.00620782 0.21120593
-0.0030853436 0.0067782286 0.21112435
-0.0010420245 0.0073857568 0.2109129
0.0010555177 0.0073797014 0.21114278
0.0031326485 0.0067430777 0.21116714
0.0041859578 0.0061221542 0.21095042
-0.0041951416 -0.0061158403 0.2130039
-0.0030444888 -0.0067652455 0.21294191
-0.00089189498 -0.0074014431 0.21288925
0.00098557165 -0.0073927888 0.21307836
0.0029628172 -0.0068531334 0.21306677
0.0042217388 -0.0062232623 0.21312656
-0.0061985692 -0.0042568292 0.21329655
-0.0053091021 -0.0051785726 0.21293132
0.0052963942 -0.0051883203 0.21272981
0.0061518745 -0.0041427282 0.21301803
-0.006761678 -0.0031420155 0.21301816
0.0067219283 -0.0031769385 0.21299928
-0.0074054715 -0.00088204333 0.21305712
0.0073851612 -0.00096537441 0.21296315
-0.0073973676 0.00096482586 0.21279863
0.0073822881 0.0010094208 0.21290277
-0.0067666182 0.003077795 0.2129803
0.0067729247 0.0031254378 0.21301517
-0.0060842945 0.0042410274 0.2129198
-0.0052885334 0.0051980643 0.21283419
0.005195816 0.0052963132 0.21302707
0.0061854394 0.0042726374 0.21325618
-0.004328534 0.0061493935 0.21310237
-0.0030747259 0.0068000248 0.21295999
-0.00095669331 0.0074001318 0.21293598
0.0010223503 0.0073890137 0.21299435
0.0029835787 0.0067966399 0.21313505
0.0041680736 0.0061344495 0.21337245
-0.0041193459 -0.0061679496 0.21538873
-0.0031615947 -0.0067377863 0.21510068
-0.00091953936 -0.0073894979 0.2151729
0.00090282451 -0.0074128723 0.21507476
0.0029106766 -0.006862395 0.21489719
0.0042144591 -0.0062326957 0.21532317
-0.006157761 -0.0043256595 0.21475215
-0.0051920665 -0.0052978322 0.21509004
0.0053329691 -0.0051475959 0.21508449
0.0061211246 -0.0041874563 0.21459655
-0.0068351831 -0.0029876258 0.21488588
0.0067484439 -0.0031146174 0.21481453
-0.0073917457 -0.00098688365 0.2149969
0.0073633743 -0.0011905432 0.21501821
-0.0074069477 0.00082139135 0.21501404
0.0073796278 0.0010459619 0.21504252
-0.0067558344 0.0031188349 0.21493214
0.0068698619 0.0029190555 0.21508233
-0.0061450675 0.0041526291 0.21529591
-0.0051011508 0.0053941314 0.21486402
0.0052620159 0.0052251266 0.214949
0.0062479763 0.0041664368 0.21505907
-0.0043115094 0.0061605135 0.21457592
-0.0029337388 0.0068624243 0.21501639
-0.0010138801 0.007392107 0.21508616
0.00091317273 0.0074039465 0.21480919
0.0030977915 0.0067623444 0.21502344
0.0042036846 0.0061099669 0.21484633
-0.0040601082 -0.0062086759 0.21635614
-0.0029493705 -0.0068261372 0.21690358
-0.00082495122 -0.0073932232 0.21695191
0.00094399787 -0.00739484 0.21698503
0.0030390541 -0.0068096034 0.21707588
0.0042243684 -0.0062270463 0.2170254
-0.0062251124 -0.0042270636 0.21663386
-0.005207689 -0.0052786204 0.21697965
0.0052340291 -0.0052482756 0.21686275
0.0060913824 -0.0042307167 0.21698759
-0.0067337751 -0.0032061783 0.21693617
0.0067644231 -0.0030650191 0.21705833
-0.0074191829 -0.00084946147 0.21689907
0.0073798066 -0.001114042 0.21696034
-0.0073609301 0.0011758109 0.21724632
0.0073918998 0.00095540489 0.21704309
-0.0069183651 0.0027236461 0.21701059
0.0067310398 0.0032094929 0.21716803
-0.006084254 0.0042410847 0.21708494
-0.0052256784 0.0052597001 0.21691072
0.0052467831 0.0052353521 0.21704648
0.006204952 0.0042679352 0.2169289
-0.0043072621 0.0061682956 0.21751857
-0.0030050531 0.0068267677 0.21696724
-0.00099958293 0.0073934318 0.21697795
0.0010184506 0.0073878299 0.21699087
0.0030496372 0.006793364 0.2169835
0.004218942 0.0060994783 0.21691932
-0.0041987654 -0.0061133485 0.21954194
-0.0030176882 -0.0067955176 0.21903649
-0.0010380853 -0.0073793773 0.21909516
0.00080498535 -0.007422938 0.21907936
0.0031217795 -0.0067745647 0.21894899
0.0042329887 -0.0062140813 0.21902847
-0.0062292526 -0.0042201742 0.21880431
-0.005337547 -0.00514914 0.21904533
0.0053729853 -0.0051035518 0.21890776
0.0061141183 -0.0041976464 0.21915507
-0.0068564448 -0.0029387868 0.21891531
0.0067586047 -0.0031127073 0.21900338
-0.0073984913 -0.00096873665 0.21893886
0.0073841065 -0.0010328752 0.21906632
-0.0074075302 0.00087364565 0.21895048
0.0074203457 0.00089526054 0.21890867
-0.0067572324 0.0031078237 0.2190284
0.0068847383 0.0029001518 0.21896146
-0.0061759744 0.0041076741 0.21854526
-0.0052938526 0.0051911324 0.21893901
0.0049294615 0.0055409167 0.21898641
0.0062221279 0.0042233388 0.21918668
-0.0042648311 0.0061951103 0.21931346
-0.0030244354 0.0068233595 0.2189993
-0.0010223539 0.0074021616 0.21909815
0.0010259229 0.0073852842 0.21897344
0.0030270955 0.0068042949 0.21893446
0.0041790539 0.0061269007 0.21891282
-0.0042201327 -0.0060986592 0.22102289
-0.0030605888 -0.006779342 0.22103752
-0.0010700851 -0.0073701516 0.22095667
0.0010504869 -0.0073865498 0.22087912
0.0028607333 -0.0069049196 0.22097871
0.0042864736 -0.0061831046 0.22089396
-0.0061589959 -0.0043126661 0.22108322
-0.0051995046 -0.0052893269 0.22106081
0.0053503602 -0.0051235561 0.22115155
0.0061843786 -0.00409545 0.22091889
-0.0068505369 -0.002948283 0.22101246
0.006801188 -0.0029850765 0.22121164
-0.0074105076 -0.00088641007 0.22094715
0.0073772105 -0.0010331506 0.22106031
-0.0074068597 0.00087204162 0.2209581
0.0073658088 0.0011631601 0.22094186
-0.0067420332 0.003153278 0.22108147
0.0068709585 0.0029157095 0.22107844
-0.0061062383 0.0042091091 0.22117518
-0.005282925 0.0051956195 0.22120608
0.0052848626 0.0051991576 0.22088709
0.0061902055 0.0042636744 0.22115809
-0.0042543574 0.00619664 0.221067
-0.0030547662 0.0068140039 0.2208164
-0.0011079339 0.0073688021 0.22107112
0.0010496253 0.0073874812 0.22103119
0.0030206342 0.0068092602 0.22077705
0.0041895369 0.0061196936 0.22101621
-0.004160163 -0.006139888 0.22301044
-0.0029358303 -0.0068242145 0.22307488
-0.0012015671 -0.0073702312 0.22317307
0.00094112271 -0.0074123004 0.22289132
0.0028440389 -0.0069119371 0.22301088
0.0042555616 -0.0062005036 0.22307849
-0.0061067599 -0.0043630991 0.22307372
-0.0052874102 -0.0051929015 0.2227799
0.005348254 -0.0051310537 0.22299749
0.0061720582 -0.004113371 0.22289097
-0.0068687466 -0.0029355693 0.22301695
0.0068320534 -0.0029540218 0.22295789
-0.0073856795 -0.0010630148 0.22305985
0.0073889671 -0.00099055434 0.22315615
-0.0073641744 0.0010901856 0.22296704
0.0073917895 0.00096987613 0.22287236
-0.0067545907 0.0030637672 0.22308071
0.0068970011 0.0028561796 0.22293164
-0.0061317799 0.0041719563 0.22262631
-0.0052387919 0.0052423351 0.22301865
0.0050716158 0.0053938157 0.22289997
0.0062237354 0.0042258394 0.22306144
-0.0042185429 0.0062273354 0.22306146
-0.003163873 0.0067524239 0.22311802
-0.00099707616 0.0073970496 0.22292852
0.0011439307 0.0073622675 0.22297916
0.0028330344 0.0068640481 0.22295101
0.0042457054 0.0060810782 0.22301333
-0.0041920664 -0.0061179539 0.22440124
-0.0029592244 -0.0068278522 0.22513676
-0.00097996753 -0.0073845922 0.22487675
0.00090844824 -0.0074083209 0.22508587
0.0029332456 -0.0068630339 0.22500139
0.0043187165 -0.0061533535 0.2250984
-0.0061775385 -0.0042892131 0.22486472
-0.0052641015 -0.0052228216 0.22500147
0.0053119627 -0.0051615601 0.2249999
0.006047097 -0.0042951312 0.2249985
-0.0068294327 -0.0030156819 0.22513378
0.0068340907 -0.0028795949 0.22497609
-0.0073888903 -0.0010649692 0.22498538
0.0074000615 -0.00086636568 0.2249046
-0.0073453221 0.0012353521 0.2251374
0.0073937341 0.00095557864 0.22502927
-0.0067545213 0.0030835781 0.22511333
0.0067899567 0.0031057103 0.22496939
-0.0061085504 0.0042057456 0.22474055
-0.0052900873 0.005197193 0.22489756
0.0052291988 0.0052573192 0.22507359
0.0061700302 0.0042919745 0.22471516
-0.0042580795 0.0061890506 0.22464561
-0.0029981383 0.0068327859 0.22498932
-0.00088435569 0.007415738 0.22501928
0.0010740249 0.0073870951 0.22492953
0.0030997617 0.006766662 0.22491515
0.004158929 0.0061407369 0.22434381
-0.0042079096 -0.0061070621 0.22682564
-0.0032612691 -0.0066789999 0.22677618
-0.0010799278 -0.0073861815 0.22688505
0.00096169231 -0.0073984112 0.22713795
0.0030967835 -0.0067821001 0.22691573
0.0042626499 -0.0062088501 0.22700535
-0.0062022517 -0.00425755 0.22698653
-0.0051885052 -0.0052933269 0.22710752
0.0052704215 -0.0052167396 0.22702719
0.0061334367 -0.0041695465 0.22701985
-0.0068438128 -0.0029901497 0.22705227
0.0067742057 -0.0030405216 0.22706819
-0.007365006 -0.0011234561 0.22710559
0.0073928917 -0.00093674386 0.22707157
-0.0073797521 0.00094867038 0.2269358
0.007401627 0.00092173909 0.22695474
-0.006712988 0.0031986125 0.22700727
0.0067205215 0.0032416922 0.2269733
-0.0061290418 0.0041759396 0.22720601
-0.0052426541 0.0052467701 0.22695544
0.0051152674 0.0053664804 0.22699417
0.0062598381 0.0041647106 0.22724536
-0.0042619449 0.0061974283 0.22667381
-0.0030973975 0.006786848 0.22681849
-0.0010348002 0.0073848744 0.22689816
0.00098403613 0.0073845913 0.22696646
0.0029282563 0.0068242704 0.22698493
0.0041313339 0.0061597084 0.22720185
-0.0041414262 -0.0061527696 0.22940426
-0.0030178004 -0.0067855753 0.22902718
-0.00087979552 -0.0073996922 0.22909847
0.00089624472 -0.0074044648 0.22896592
0.002939767 -0.0068641864 0.22894165
0.0042877272 -0.0061759241 0.22919689
-0.006176386 -0.0042921994 0.22929727
-0.0053083212 -0.0051829899 0.22894457
0.0051781377 -0.0053147068 0.22885083
0.0061551495 -0.0041379645 0.22890632
-0.0068193548 -0.0030405277 0.22900267
0.0067624431 -0.0030960673 0.22905388
-0.0073602018 -0.0011300202 0.22890884
0.00739126 -0.0009786404 0.22898677
-0.0073825838 0.0010177962 0.2288578
0.0074026394 0.00085186021 0.22887819
-0.0067215874 0.0031946937 0.22895128
0.0068353857 0.0029994587 0.22911111
-0.0061520073 0.0041425349 0.22881848
-0.0051490134 0.0053404057 0.22902712
0.0051809177 0.0053021344 0.22902465
0.0061599002 0.0043033869 0.22874804
-0.0043183938 0.0061589754 0.22881272
-0.0030309807 0.0068140384 0.22911698
-0.00086786615 0.0074108425 0.22893742
0.00085376686 0.0073921583 0.2288985
0.0030968303 0.0067641814 0.22897543
0.0042179092 0.006100188 0.22910546
-0.0042918725 -0.0060493378 0.23106439
-0.0029742692 -0.006811236 0.23099528
-0.00075945019 -0.0074100792 0.23094517
0.0009727861 -0.0074015199 0.23106979
0.0029973278 -0.0068359938 0.23085104
0.0042961747 -0.0061753276 0.23114233
-0.0062153232 -0.0042426735 0.23123764
-0.0052320249 -0.0052479501 0.23095034
0.00532598 -0.0051496667 0.23092319
0.0061237579 -0.0041836253 0.23101437
-0.0068103918 -0.0030540787 0.23087792
0.0067649726 -0.0031138775 0.23118658
-0.0073971022 -0.00094221573 0.23125355
0.0073714308 -0.0011004349 0.23103341
-0.0073918318 0.00098219723 0.23090835
0.0073646004 0.0011563769 0.2310942
-0.006767889 0.0031033503 0.23097606
0.0068955626 0.0028534685 0.23114093
-0.0061462782 0.0041508684 0.23076734
-0.0053583877 0.0051208101 0.23083714
0.005307788 0.0051755873 0.23127297
0.006212513 0.0042265845 0.23123598
-0.0042305128 0.0062126662 0.23100334
-0.0031916816 0.0067489999 0.23094474
-0.0010471606 0.0073912176 0.23105712
0.00094590767 0.0073888204 0.23086306
0.0030306473 0.0067897108 0.2310297
0.0041064052 0.006176847 0.23077786
-0.0041714422 -0.0061321333 0.23291442
-0.0029882432 -0.0068180086 0.23313181
-0.0011930792 -0.0073660696 0.23303528
0.0010401539 -0.0073874695 0.23307943
0.0031357131 -0.0067703053 0.23298579
0.0042217467 -0.0062146797 0.23274533
-0.0062170788 -0.0042395876 0.23307221
-0.0052601341 -0.0052301064 0.233136
0.0050980556 -0.0053876024 0.2331104
0.0061405632 -0.0041591814 0.233421
-0.0068659252 -0.0029237606 0.23306783
0.0068286089 -0.0029620437 0.23308097
-0.0073902956 -0.00097369391 0.23280089
0.0073806862 -0.0010119436 0.23310302
-0.0073686945 0.0010844762 0.23317154
0.0073994212 0.00093812094 0.23302552
-0.0068000788 0.0030181764 0.23282081
0.0067882366 0.0030995188 0.23306744
-0.0061112107 0.004201876 0.2331481
-0.0053451075 0.0051301108 0.23311238
0.0051946342 0.0052947933 0.23315312
0.0061604017 0.0043022214 0.23319338
-0.0042602522 0.0062096426 0.23315299
-0.00295866 0.0068540485 0.23296452
-0.0010503355 0.0073772655 0.23303236
0.00095340074 0.0073897876 0.23305762
0.0028284898 0.0068853279 0.23294117
0.0041860477 0.0061220927 0.23315966
-0.0041441098 -0.0061509251 0.23500392
-0.0030806463 -0.0067619574 0.23513326
-0.00075304625 -0.0074094362 0.23507895
0.0011418009 -0.0073704277 0.23509483
0.0030060932 -0.0068347473 0.23511833
0.0042740437 -0.0061885286 0.23474379
-0.0061556399 -0.0043222425 0.23498362
-0.005119897 -0.0053705308 0.23501447
0.0052762153 -0.0052189673 0.23503286
0.0061266674 -0.0041793934 0.23472998
-0.0067941942 -0.0030976292 0.2350803
0.0067804595 -0.003009594 0.23485509
-0.0073896614 -0.0010580563 0.23499928
0.0073889592 -0.00099027692 0.23466448
-0.0074188909 0.00068484736 0.23491275
0.0074150991 0.00093051465 0.23501
-0.0067389221 0.0031200161 0.23497553
0.0068048318 0.0030458232 0.23500399
-0.0061105266 0.0042028707 0.23558602
-0.0053220605 0.0051635844 0.23517439
0.0053125005 0.0051790653 0.23483065
0.0062810481 0.0041379044 0.23512611
-0.004246288 0.0062103667 0.23509553
-0.0031182049 0.0067732967 0.23498681
-0.0011427965 0.0073627392 0.23508658
0.00098997937 0.0073896507 0.23509228
0.0029901997 0.0068037142 0.23500361
0.0042419625 0.0060836514 0.23481554
-0.0042151352 -0.006102094 0.23695043
-0.0030255341 -0.0067819804 0.23699476
-0.0010626934 -0.0073758778 0.23672147
0.00092167314 -0.0074011353 0.23699552
0.0030734609 -0.0067978972 0.23706637
0.0042735366 -0.006188863 0.2375385
-0.0061930697 -0.004273185 0.23696254
-0.0050805602 -0.0053998013 0.23710376
0.0052683032 -0.0052142181 0.23708403
0.0061214529 -0.0041869786 0.23707764
-0.0068124328 -0.0030383845 0.23689558
0.0068910858 -0.0027921044 0.23698038
-0.0074016303 -0.00092836202 0.23702915
0.0074091791 -0.00080705062 0.23697689
-0.007406835 0.00090453611 0.23687738
0.007398712 0.0010032674 0.23692578
-0.0067857336 0.0030877986 0.23700993
0.0068019317 0.003072365 0.23688175
-0.0060980082 0.0042210789 0.23656683
-0.0053354208 0.005146822 0.2369355
0.0052378615 0.0052479054 0.23661838
0.0061746403 0.0042806277 0.23711619
-0.0041748704 0.006251507 0.23688489
-0.0030837425 0.0067931497 0.23689666
-0.0011829276 0.0073542651 0.23692288
0.00096341834 0.0073724878 0.23717546
0.0029544663 0.0068187322 0.23698221
0.0041851792 0.0061226892 0.23677678
-0.0042235572 -0.0060963053 0.23899217
-0.0030819396 -0.0067743207 0.23873159
-0.00091962813 -0.0073879398 0.2388823
0.00092274247 -0.0074017779 0.23895358
0.0029620593 -0.0068537304 0.23879008
0.0042799269 -0.0061731697 0.23919079
-0.0062060463 -0.0042479783 0.23921338
-0.0052302061 -0.0052595544 0.23900178
0.0051650722 -0.0053203232 0.23917167
0.0061476538 -0.0041488674 0.2390368
-0.0068545346 -0.002936326 0.23902975
0.0068614874 -0.0028863105 0.23900774
-0.0073768338 -0.0010598135 0.23901385
0.007395552 -0.00095749961 0.23886074
-0.0074090264 0.00087602006 0.23907685
0.0074150683 0.00087174115 0.23909619
-0.0068223281 0.0029731686 0.238921
0.00678183 0.0031133746 0.23909521
-0.00612971 0.0041749673 0.23924308
-0.0053668302 0.0051116464 0.23908438
0.0052525266 0.005231428 0.23889419
0.0062073041 0.0042559137 0.23884585
-0.0041893711 0.0062440522 0.23912628
-0.0030737927 0.0067943796 0.23914956
-0.00086877518 0.0074125337 0.23908541
0.0009605349 0.0073895315 0.23907572
0.0029915217 0.0068007191 0.23898594
0.0042207581 0.006098229 0.23909795
-0.0041898028 -0.0061195111 0.24076921
-0.0030205967 -0.0067834575 0.24115194
-0.00096647185 -0.0073813442 0.24106237
0.0010607572 -0.0073841088 0.24109176
0.002972238 -0.006838331 0.24094714
0.0042182608 -0.0062280064 0.24054888
-0.0062470986 -0.0042058039 0.24165516
-0.0052427775 -0.0052343188 0.241023
0.0052205385 -0.0052646538 0.24100733
0.0061366186 -0.0041649193 0.2414327
-0.0068146586 -0.003047049 0.24094208
0.0067804074 -0.0030444504 0.24122547
-0.0074063726 -0.00094623398 0.24091826
0.0073743551 -0.0010199614 0.24101976
-0.0074004955 0.00098149758 0.24076809
0.0073907892 0.0010417987 0.24087811
-0.0067544831 0.0031009009 0.24104163
0.0068456349 0.0029849885 0.24109319
-0.006151014 0.0041439803 0.24091195
-0.0052644596 0.0052249343 0.24112539
0.0052052336 0.0052790651 0.24097161
0.0062279887 0.0042151441 0.24065122
-0.0041615129 0.0062556695 0.24107763
-0.0032683222 0.0067109801 0.24102977
-0.0010321932 0.0073808027 0.24088585
0.00099105272 0.0073887445 0.24102527
0.0029498746 0.0068106102 0.24122086
0.0041988762 0.0061132731 0.2409139
-0.004177263 -0.0061281323 0.24271122
-0.0030873355 -0.0067546 0.24300982
-0.00094499998 -0.0073791379 0.24296549
0.00097338029 -0.0073916647 0.24281669
0.0030052587 -0.0068409913 0.2430338
0.0043537947 -0.0061345114 0.24332628
-0.0062196404 -0.0042254766 0.24284033
-0.005208727 -0.0052799778 0.24295622
0.0051364 -0.0053558494 0.24300218
0.0061205979 -0.0041882209 0.24292226
-0.006825435 -0.0030155831 0.24291286
0.0068427497 -0.0029150879 0.24327753
-0.0074175214 -0.00090485538 0.24312463
0.0074012848 -0.00089887413 0.24281386
-0.007355147 0.0012064518 0.24296729
0.0073895091 0.00096732948 0.24301119
-0.0067744567 0.0030563732 0.24297497
0.00686234 0.0029407989 0.24303104
-0.0060501876 0.0042906366 0.2430872
-0.0052214018 0.0052654189 0.24286343
0.005293801 0.0051954533 0.24301037
0.0061462214 0.0043434603 0.24276501
-0.0042517432 0.0062072971 0.24278612
-0.0031142686 0.0067811157 0.24284974
-0.00093851553 0.0074018929 0.24300165
0.0010220627 0.0073740967 0.24287219
0.0029367104 0.0068400032 0.24292891
0.0041469713 0.0061489576 0.24312273
-0.0041905376 -0.0061190058 0.24485604
-0.0028969115 -0.0068450794 0.24489626
-0.0012417871 -0.0073520639 0.24503157
0.00096904364 -0.0073867147 0.24482624
0.0030513236 -0.0068110721 0.2450974
0.0042351154 -0.0062209177 0.24497172
-0.006143989 -0.0043411455 0.24487476
-0.0051911604 -0.0052839364 0.24499698
0.0051480276 -0.005336355 0.2450842
0.006122849 -0.0041849473 0.24510437
-0.0068809213 -0.0028900956 0.24508904
0.0068222191 -0.0029413197 0.24493203
-0.0073978105 -0.00096784224 0.24503611
0.0074052163 -0.0008604927 0.24512433
-0.007392874 0.00091880152 0.24490835
0.0073959241 0.001031503 0.24490139
-0.0068171406 0.0029331015 0.24507704
0.0068313885 0.0030074425 0.24505672
-0.0061293724 0.004175459 0.24507947
-0.0052648899 0.0052156649 0.24508813
0.0052831201 0.0052055535 0.24503385
0.0062262504 0.0042327126 0.24517903
-0.0041957269 0.0062456699 0.24476194
-0.0031831004 0.0067481836 0.24495822
-0.0011440559 0.0073695173 0.24506858
0.00093234022 0.0073906044 0.24493507
0.0031594979 0.0067396294 0.24490853
0.0041821962 0.0061247405 0.2451883
-0.0040926328 -0.0061863153 0.24689309
-0.0031028346 -0.0067520873 0.24700211
-0.0010162685 -0.007372112 0.24700406
0.0010450159 -0.0073868334 0.24694215
0.0028021364 -0.0069238301 0.24703458
0.0043051406 -0.0061596665 0.24671698
-0.0062288684 -0.0042135431 0.24649437
-0.0051755891 -0.0053043938 0.24687028
0.0052884147 -0.0051945909 0.24706843
0.0061547542 -0.0041385391 0.24700099
-0.0067101819 -0.0032518411 0.24687541
0.0066863722 -0.0032451376 0.24677958
-0.0073845922 -0.0011056819 0.24692258
0.0073675555 -0.0011009611 0.24705513
-0.0073884283 0.0010005076 0.24704398
0.007400529 0.00096201623 0.24714664
-0.0067578359 0.0031018956 0.24696903
0.0067362324 0.0032224469 0.24718969
-0.0061396156 0.0041605588 0.24698693
-0.0053433115 0.0051296833 0.24680415
0.0051431204 0.0053333901 0.24694058
0.0062047844 0.0042608902 0.24699946
-0.004262866 0.0061985524 0.246985
-0.0031471038 0.0067590368 0.24678397
-0.0011747403 0.0073570041 0.24711479
0.0010905657 0.0073795123 0.24689478
0.0031636581 0.0067194384 0.24729347
0.0041861995 0.0061219879 0.24705377
-0.0042298692 -0.0060919649 0.24900654
-0.0030427426 -0.0067902943 0.24910913
-0.00089505798 -0.0073918146 0.24900895
0.0010093988 -0.0073878891 0.24909414
0.0029516241 -0.0068459064 0.24894209
0.0043344214 -0.0061509567 0.24901891
-0.0061833751 -0.0042724404 0.24901319
-0.0050795292 -0.0053978101 0.24890007
0.005322847 -0.0051581129 0.24905698
0.0060538282 -0.0042853411 0.24886724
-0.0068327477 -0.0030067607 0.2489827
0.0067798458 -0.0030768141 0.24887975
-0.0074111731 -0.00090517831 0.2489865
0.0074116257 -0.00090791273 0.24892858
-0.0074025486 0.00087145605 0.24895427
0.0073973699 0.00097948371 0.24904655
-0.0067715752 0.0030749275 0.24897595
0.0069135106 0.0028092475 0.24911626
-0.0061603202 0.0041304436 0.24893622
-0.0051697004 0.005319444 0.24905328
0.0053019291 0.0051839221 0.24883226
0.0061880681 0.0042748079 0.24926406
-0.0042393315 0.0061985902 0.24944882
-0.0029677826 0.0068450365 0.24903105
-0.0010100594 0.0073942584 0.24894163
0.00094874919 0.0073924526 0.24879697
0.0032427197 0.0066722934 0.24897388
0.0041229404 0.0061654793 0.24875169
-0.0041402546 -0.0061535751 0.25106105
-0.0031230096 -0.0067406096 0.25104427
-0.0010550425 -0.0073789898 0.25115293
0.00099563471 -0.0073890784 0.2507951
0.0028818706 -0.0068863318 0.25103825
0.0042243637 -0.0062244185 0.25129521
-0.0061554885 -0.0043221847 0.2511121
-0.005323593 -0.0051684794 0.25107473
0.0053166943 -0.0051684617 0.25103799
0.0061485292 -0.0041475943 0.25127372
-0.0067837024 -0.0031128095 0.25118002
0.0067751971 -0.0030454639 0.25100002
-0.0073851962 -0.0010429167 0.25097075
0.0074051046 -0.00082752592 0.25081539
-0.0073830853 0.00095873355 0.25075033
0.0073598488 0.0011689198 0.25102523
-0.006760838 0.0031064081 0.25092188
0.0068505956 0.0029673537 0.25090826
-0.0061190003 0.0041905451 0.25091287
-0.0051668826 0.005330069 0.25092503
0.0052364464 0.0052505373 0.25088963
0.0062307841 0.0042072376 0.2507323
-0.0043342151 0.0061431932 0.25148639
-0.0030507087 0.0068140156 0.25079331
-0.00093406771 0.0073991246 0.25107771
0.00096724578 0.0073793782 0.25095236
0.0031448826 0.0067432472 0.25101763
0.0041666394 0.0061354353 0.25095269
-0.004187075 -0.0061213858 0.25360024
-0.0031419888 -0.0067372429 0.25292617
-0.0010735403 -0.0073803673 0.25292912
0.00099281943 -0.0073850751 0.2530075
0.0030602829 -0.0068047559 0.25280702
0.0042332984 -0.0062280321 0.2530748
-0.0062144706 -0.004237345 0.25286001
-0.0052497708 -0.0052430867 0.25313431
0.0051723276 -0.0053161075 0.25306782
0.0060864072 -0.0042379536 0.25307602
-0.0068892888 -0.0028704621 0.2530835
0.0068083666 -0.0030073796 0.25315383
-0.0073785288 -0.0010334317 0.25294024
0.0073680673 -0.0011202523 0.25314215
-0.0074072001 0.00085724378 0.25302875
0.0073691458 0.001173584 0.25291961
-0.0067200121 0.0032334954 0.25298545
0.0067413282 0.0032007801 0.25297686
-0.0061605759 0.004130072 0.25285435
-0.0052840956 0.0052091936 0.25296694
0.0052565685 0.0052300743 0.25288966
0.0061405478 0.0043432149 0.2531485
-0.0042502224 0.0062000034 0.25283185
-0.0029520185 0.0068482207 0.25294557
-0.00094478688 0.0074026347 0.25315344
0.00091002753 0.0073872278 0.25296459
0.0030106797 0.0068123136 0.25292525
0.0041455971 0.006149902 0.25326014
-0.0041806721 -0.0061257882 0.25512859
-0.003125746 -0.0067493701 0.25502697
-0.0010411422 -0.0073771179 0.25496107
0.0011059195 -0.0073711197 0.25492242
0.0030550589 -0.0068107834 0.25495228
0.0043128049 -0.0061439662 0.25477618
-0.0061664479 -0.0043090675 0.25495511
-0.0051802862 -0.0052987426 0.25479883
0.0053483411 -0.0051281797 0.25502163
0.0061345971 -0.0041678594 0.25489542
-0.0068023456 -0.003066937 0.25500619
0.0067315977 -0.0031473616 0.25504333
-0.0074052936 -0.00098333496 0.25499582
0.0073558204 -0.0011186415 0.25507164
-0.0073653692 0.0010366919 0.25487089
0.0073791053 0.0010606009 0.25489619
-0.006821332 0.002963806 0.25510132
0.0068432014 0.0029627818 0.25507706
-0.0060752174 0.0042542298 0.25443712
-0.0052352319 0.0052525857 0.25491485
0.0053238473 0.0051710904 0.25503516
0.0061867512 0.0042766496 0.25467741
-0.0042565404 0.0062127602 0.25486305
-0.0031726579 0.0067571476 0.25503623
-0.00092389481 0.0073949415 0.25498044
0.0011162194 0.00736904 0.25511172
0.003140281 0.0067391125 0.25501165
0.0042157071 0.0061017023 0.25449657
-0.0043351073 -0.0060196137 0.25678283
-0.0030778348 -0.0067782486 0.25697866
-0.00094015134 -0.0073918286 0.25703666
0.0012828781 -0.0073460303 0.25686368
0.0029717681 -0.0068546287 0.25685099
0.0042113978 -0.0062277503 0.25685713
-0.0062331758 -0.0042082369 0.25688654
-0.0053454065 -0.005149181 0.25701648
0.0053226342 -0.0051545617 0.25708219
0.0061362651 -0.0041654329 0.25679567
-0.0068283719 -0.002987348 0.25692105
0.0067368252 -0.0031549695 0.25686446
-0.0073719034 -0.0010832465 0.25704831
0.0074013909 -0.00079350657 0.25701374
-0.0073922863 0.00097249076 0.25702119
0.0073883464 0.0010361793 0.25685057
-0.00680485 0.0030209471 0.25694612
0.0068408856 0.0029902717 0.2569088
-0.0060902606 0.0042323484 0.25685173
-0.0052811927 0.0051921303 0.2568838
0.005181815 0.0053071855 0.25710058
0.0061611948 0.0043113618 0.25667515
-0.004259815 0.0061962763 0.25689751
-0.0028627971 0.0068876357 0.25682712
-0.0011010106 0.0073705963 0.25703275
0.00093778368 0.0073898658 0.25688702
0.0032108526 0.0066910726 0.25689125
0.0041812304 0.0061254045 0.25695154
-0.0042532873 -0.0060758647 0.25899914
-0.0028844688 -0.0068787425 0.25898176
-0.00091684621 -0.0073926966 0.25897038
0.0011612149 -0.0073716356 0.25892243
0.0031627582 -0.0067563779 0.25890365
0.0042208885 -0.0062271426 0.25884193
-0.0062117623 -0.0042321589 0.25925556
-0.0050837053 -0.0053904164 0.25899023
0.0052336091 -0.0052618491 0.25894675
0.0061719399 -0.0041135419 0.25946796
-0.0068297563 -0.0030008231 0.25880355
0.006757617 -0.0031105124 0.25895268
-0.0073917885 -0.0010214937 0.25913495
0.0073459358 -0.0012509369 0.25900015
-0.0074065905 0.00087605399 0.25906035
0.0073747966 0.0011523955 0.25871277
-0.0068001151 0.0029640521 0.25897631
0.0068253097 0.0030212272 0.25893492
-0.0060604708 0.0042756801 0.25923821
-0.0052592321 0.0052208807 0.25897494
0.0052046208 0.0052798367 0.25890768
0.0061932737 0.0042685759 0.25912353
-0.0043204674 0.0061548855 0.25903907
-0.0030053922 0.0068266075 0.25882566
-0.00091372803 0.0073959273 0.2589958
0.0011574951 0.0073752403 0.25907224
0.0028804431 0.0068480978 0.25909096
0.0041509354 0.0061462321 0.258782
-0.0042121881 -0.0061041205 0.26095647
-0.0030292058 -0.006799506 0.2609891
-0.00099137274 -0.007381042 0.26092273
0.00089121686 -0.0074053686 0.26097047
0.0032066777 -0.0067338184 0.2608763
0.0042541823 -0.0062020677 0.26063937
-0.0062306314 -0.004205463 0.2611514
-0.0053000608 -0.0051933103 0.26092309
0.0053453366 -0.0051295487 0.26096123
0.0061359238 -0.0041659302 0.26090696
-0.0068799751 -0.0028667587 0.26082107
0.0068236217 -0.00297651 0.26094764
-0.0073888395 -0.0010589518 0.2610862
0.007383863 -0.00095811981 0.2610617
-0.0074017635 0.00090658746 0.26099849
0.0074243057 0.00082634221 0.2609081
-0.0067528076 0.0030954869 0.26081496
0.0068228221 0.0030231774 0.26101524
-0.0061565964 0.0041358601 0.26097625
-0.0053252978 0.0051511526 0.26087493
0.0052200728 0.0052573793 0.26094282
0.0061578443 0.0043207663 0.26056013
-0.0042561572 0.0062000323 0.26104933
-0.0030085545 0.0068307817 0.26087838
-0.0011648606 0.0073628114 0.26109734
0.0010791445 0.007369108 0.26087549
0.0027940101 0.0068933484 0.26107338
0.0041805878 0.0061258455 0.26079035
-0.0041231783 -0.0061653154 0.26231325
-0.0030570501 -0.006763624 0.26290351
-0.0010441085 -0.0073718764 0.26318789
0.00075463526 -0.0074301427 0.26295835
0.0029451074 -0.0068568643 0.26300091
0.0043181824 -0.0061478461 0.26286796
-0.0061976961 -0.0042615375 0.26310253
-0.0052021197 -0.0052841743 0.26294756
0.0052502812 -0.005235076 0.26294795
0.0061245831 -0.0041824258 0.26290765
-0.0068457825 -0.0029918808 0.2629438
0.006712907 -0.0032067616 0.26292977
-0.007382988 -0.0010346838 0.26298124
0.0073883431 -0.0010006287 0.26297432
-0.0073607876 0.0012509394 0.26295575
0.0074038794 0.00096202863 0.26308915
-0.0068087792 0.0029742843 0.26285076
0.0068862797 0.002889161 0.2629787
-0.0061470526 0.0041497415 0.26293755
-0.0053007933 0.0051846476 0.26307827
0.0051709577 0.0053073997 0.26287761
0.0062253322 0.0042266394 0.26275906
-0.0042930073 0.0061674207 0.26279086
-0.003039497 0.0068118335 0.26319745
-0.0010454662 0.0073881657 0.26319495
0.00099359103 0.0073876516 0.26300326
0.003052471 0.0067700497 0.2630716
0.0042169672 0.0061008353 0.26272678
-0.004102224 -0.0061797211 0.264952
-0.003004052 -0.0067990795 0.26504418
-0.0010084732 -0.0073821857 0.26494855
0.00083747454 -0.0074178805 0.26491407
0.0029520399 -0.0068563595 0.26532018
0.0042378493 -0.0062155304 0.26503387
-0.006161992 -0.0042995857 0.26513952
-0.0052244314 -0.0052586254 0.2650069
0.0053649521 -0.0051109949 0.26498279
0.0061279885 -0.0041774721 0.26490328
-0.0067212824 -0.0032446005 0.2649613
0.006789119 -0.0030405819 0.26492834
-0.0073882118 -0.00099648663 0.26495919
0.0074013984 -0.00082980643 0.26508731
-0.007362253 0.0011260419 0.26496068
0.0074294186 0.0007700022 0.26483625
-0.0067954035 0.0030113466 0.26505134
0.0067986283 0.0030746481 0.26503205
-0.0061288979 0.0041761482 0.26492909
-0.0052432427 0.00524267 0.26496327
0.0053359 0.0051571233 0.26513249
0.0061822287 0.0042796098 0.2649821
-0.0042403266 0.0062107197 0.26530552
-0.0030050103 0.0068325144 0.26495644
-0.0011181984 0.0073768664 0.26511642
0.00097854307 0.0073889834 0.26494479
0.0031476726 0.006737031 0.26500517
0.0042544096 0.006075094 0.26512262
-0.004196275 -0.0061150612 0.26736596
-0.003219025 -0.0067018797 0.26685113
-0.00098718458 -0.0073920474 0.26696441
0.00093404943 -0.0074020457 0.26700523
0.0031468626 -0.0067625833 0.26704848
0.0043317848 -0.0061532171 0.26678556
-0.0061829677 -0.0042812019 0.26705283
-0.0050725699 -0.0054018921 0.2670114
0.005373477 -0.0051113996 0.26701072
0.0061270013 -0.0041789077 0.2668426
-0.0068845153 -0.0028907796 0.26696497
0.00676096 -0.0030469315 0.26698816
-0.0073748357 -0.0010753489 0.26683027
0.007392711 -0.00097493012 0.2669239
-0.0073753363 0.00096312677 0.26699141
0.0073885121 0.0010661073 0.26695362
-0.0068875151 0.0028237854 0.26691779
0.0067987642 0.003068967 0.26716512
-0.0061649764 0.0041236714 0.26747221
-0.0052010338 0.0052859979 0.26701921
0.0053257183 0.0051679374 0.26715383
0.0062628789 0.0041638701 0.26680729
-0.0041909278 0.0062419581 0.26702344
-0.002988195 0.0068400851 0.26703611
-0.00084697379 0.00740575 0.2668016
0.0010765867 0.0073683108 0.26693153
0.0029212476 0.0068409434 0.26696172
0.0041347621 0.0061573507 0.26697445
-0.0041683991 -0.006134226 0.26881599
-0.0029182965 -0.0068432763 0.26898453
-0.0010642668 -0.0073848343 0.26887244
0.0009969474 -0.0073919361 0.26895386
0.0028512315 -0.0068957112 0.26884967
0.0043078945 -0.0061599086 0.26882806
-0.0062204949 -0.0042323503 0.26907176
-0.0052449782 -0.0052476674 0.26903406
0.0053261374 -0.00515885 0.26910111
0.0061606592 -0.0041299509 0.26908657
-0.0067908578 -0.003096516 0.26900089
0.0067445394 -0.0031221099 0.26898304
-0.0073818821 -0.001075128 0.26905435
0.0073533822 -0.0011789673 0.26888093
-0.0073694303 0.001095134 0.26894405
0.0073761493 0.0011369925 0.26906955
-0.0068744025 0.0028495651 0.26895222
0.0068455599 0.0029470476 0.26887286
-0.0061761644 0.004107397 0.26917407
-0.005357598 0.0051201261 0.26909333
0.0052303723 0.0052484022 0.26899809
0.0061646942 0.0043139122 0.26917005
-0.0042457394 0.0062075621 0.26882336
-0.0030200654 0.0068198633 0.26911089
-0.00093884463 0.0074123284 0.26902694
0.0010488603 0.0073731882 0.26887241
0.002824011 0.0068869856 0.26887006
0.004184471 0.0061231763 0.26916856
-0.0041410252 -0.0061530452 0.27058825
-0.0030107577 -0.0068069329 0.27095157
-0.00096648291 -0.0073944065 0.2709288
0.00098563347 -0.0073981849 0.27104214
0.003042802 -0.0068083936 0.27085152
0.004281573 -0.0061685694 0.27089512
-0.006236251 -0.0042047943 0.27111501
-0.0052116127 -0.0052743065 0.27118236
0.0052966871 -0.0051788753 0.27106401
0.0061086654 -0.0042055794 0.27117774
-0.0068446989 -0.002985155 0.2710602
0.0067332801 -0.0031742062 0.2710135
-0.0073684636 -0.0011449866 0.27099675
0.0073928596 -0.00097552675 0.27111235
-0.0073636305 0.001152222 0.27099597
0.0073782611 0.0010678155 0.27100307
-0.0068198112 0.0029877829 0.27134871
0.006840358 0.0029934437 0.27111393
-0.0061243968 0.0041826954 0.27121913
-0.005279053 0.0052060476 0.27117023
0.005162274 0.0053197951 0.27107432
0.0062233764 0.0042296187 0.27128926
-0.0042816536 0.0061846985 0.27091542
-0.0030229129 0.0068207518 0.27097967
-0.0010164108 0.0073922887 0.27102828
0.000865001 0.0073941764 0.27108255
0.0031128596 0.0067548133 0.27095658
0.0041909236 0.00611874 0.27125672
-0.0041641612 -0.0061371401 0.27298689
-0.0030938443 -0.006768465 0.27292454
-0.0010176193 -0.0073915394 0.27316782
0.0010349497 -0.0073787929 0.27279076
0.0031441378 -0.0067566042 0.27300397
0.0042100418 -0.0062306169 0.27303743
-0.0062193028 -0.0042408467 0.27341312
-0.0053125285 -0.0051746648 0.27286786
0.0052268072 -0.0052679982 0.27283841
0.0061468366 -0.0041500572 0.27281952
-0.0068181879 -0.0030207932 0.27305844
0.0068023494 -0.0030054252 0.27308333
-0.007373374 -0.0011414866 0.27296674
0.0074162027 -0.00074791606 0.27315447
-0.0073797586 0.00099612086 0.27295533
0.0074009555 0.00093534793 0.27321386
-0.0067606722 0.0030505247 0.27293107
0.0068913335 0.0028789162 0.27298698
-0.0061371969 0.0041640773 0.27288765
-0.0052493992 0.0052378653 0.27301136
0.0051318971 0.005351935 0.27298638
0.0062322072 0.0042051151 0.27308747
-0.0042918446 0.0061732638 0.27254587
-0.0032008581 0.0067386399 0.27292913
-0.0010411184 0.007382167 0.27286974
0.00094911346 0.0073979683 0.27295369
0.0033568661 0.0066272644 0.27306166
0.0041421475 0.0061522736 0.27292112
-0.0041329646 -0.0061585866 0.27546012
-0.0029913101 -0.0068073999 0.27505216
-0.0012415916 -0.0073485388 0.27512982
0.00094370142 -0.0073921643 0.27501687
0.0031534275 -0.0067648664 0.27519053
0.0042511132 -0.0062098745 0.27542013
-0.0061300066 -0.0043530092 0.27497602
-0.0052357502 -0.0052541615 0.27501732
0.0052174572 -0.0052690352 0.27515909
0.0061409757 -0.0041585816 0.275204
-0.0069163982 -0.0028176259 0.27498749
0.0068458272 -0.0028773947 0.27468279
-0.0073945015 -0.0010225887 0.27495867
0.0073473845 -0.0012067338 0.27482486
-0.0073888437 0.00095896324 0.27517024
0.0073917964 0.0010161643 0.27509198
-0.0067730993 0.0030608384 0.27515131
0.0068466305 0.0029733346 0.27486461
-0.0061503607 0.0041449303 0.27503645
-0.005273764 0.0052168374 0.27499038
0.0050443253 0.005440319 0.27483967
0.0061630677 0.0043064095 0.27542701
-0.004373827 0.0061261738 0.27510124
-0.0029303096 0.0068620872 0.27519426
-0.00074985012 0.0074369591 0.27502534
0.00078586623 0.0074064457 0.27505398
0.0027677596 0.0069250637 0.27522555
0.0042750738 0.0060608867 0.27522838
-0.0042231837 -0.0060965619 0.27714041
-0.0030676438 -0.0067755678 0.27702269
-0.00092609291 -0.0073982221 0.27712697
0.0010320911 -0.0073976535 0.27689651
0.002980818 -0.0068397634 0.27694327
0.0042550303 -0.0062037106 0.27708468
-0.0062420662 -0.0041985968 0.27739057
-0.0052044666 -0.0052884878 0.27687782
0.0053185136 -0.0051590991 0.27701363
0.0061180457 -0.0041919341 0.27664417
-0.0068465173 -0.0029747225 0.27713016
0.0067660296 -0.0030576049 0.27721542
-0.0073847333 -0.0010304959 0.27699971
0.0073941662 -0.00095861958 0.2770175
-0.0073766652 0.00095072691 0.27698615
0.0074067796 0.00093936833 0.27692083
-0.0068067573 0.0030169636 0.27697247
0.0068211472 0.0030157922 0.27697733
-0.0061528469 0.0041413149 0.27705047
-0.0052094716 0.0052767661 0.27702704
0.0052508125 0.0052435496 0.27692488
0.0062536132 0.0041780113 0.27698192
-0.0042123208 0.0062329313 0.27715573
-0.0030088555 0.0068301838 0.2770355
-0.00095973496 0.007395281 0.27691942
0.00084678677 0.0074084513 0.2769933
0.0031238284 0.0067605241 0.27699971
0.0040865475 0.0061904993 0.27698871
-0.0042637233 -0.0060686907 0.27887106
-0.0029978575 -0.006793451 0.27912116
-0.0010197073 -0.0073816925 0.27898189
0.001024082 -0.0073896553 0.2789501
0.0027736637 -0.0069397893 0.27915573
0.0042172098 -0.0062280232 0.27944893
-0.0061903368 -0.0042755608 0.2790345
-0.0051839179 -0.0052958857 0.27891865
0.0052872044 -0.0051923138 0.27905098
0.0061280141 -0.0041774353 0.27865157
-0.006826967 -0.0029960936 0.2788839
0.0067966743 -0.0030020468 0.27903211
-0.0074245525 -0.00088967703 0.27905273
0.0074036755 -0.00087565021 0.27895844
-0.0073863636 0.0010228037 0.27891502
0.0073920349 0.00095306174 0.27905461
-0.0068374462 0.0028949319 0.27914008
0.0068138926 0.0030333148 0.27892187
-0.0061368886 0.0041645262 0.27913961
-0.0053265193 0.0051670531 0.27895063
0.0050893151 0.005387004 0.27892417
0.0061865314 0.0042761168 0.27876371
-0.0043273023 0.0061435695 0.27902803
-0.0027980991 0.0069398899 0.27923277
-0.00089154666 0.0074054282 0.27894449
0.00087606185 0.0073996172 0.2788713
0.0029845668 0.0068126437 0.27901265
0.0041019232 0.0061799283 0.27900958
-0.0041769068 -0.0061283768 0.28048438
-0.0029787915 -0.006809304 0.28084859
-0.0012222285 -0.0073495666 0.28115821
0.00099957641 -0.0073852926 0.28083652
0.0030432683 -0.0067989938 0.28108817
0.0042730235 -0.0061872755 0.28096429
-0.006199196 -0.0042497595 0.28096256
-0.0050899773 -0.005387241 0.28085369
0.0052480306 -0.0052390276 0.28107151
0.0061291712 -0.0041757501 0.28099552
-0.0067470376 -0.0031866147 0.28094906
0.0068019116 -0.0029960098 0.2808623
-0.0074080266 -0.000803067 0.28095299
0.0073798862 -0.0010229057 0.280913
-0.0073880008 0.0010438281 0.28103337
0.0073750443 0.0010821781 0.28083351
-0.0067559402 0.0031059801 0.28136882
0.0067999545 0.0030748672 0.28098688
-0.0061146915 0.0041968129 0.28138629
-0.0054228064 0.0050545982 0.28115743
0.0050727092 0.0054016234 0.28089944
0.0062560639 0.0041838437 0.28110385
-0.0042886697 0.0061849467 0.28123367
-0.002797313 0.006932911 0.28090319
-0.0010643473 0.0073794699 0.28107685
0.0010963427 0.0073689753 0.28090417
0.0028014216 0.0068842717 0.28097919
0.0042151953 0.006102053 0.28149888
-0.0041818242 -0.0061249961 0.28288573
-0.0029067681 -0.0068460368 0.28282002
-0.0012024541 -0.0073630065 0.28309286
0.001186771 -0.0073651364 0.28317899
0.0030523348 -0.0068040201 0.28325802
0.0042834408 -0.0061803171 0.28309655
-0.006159842 -0.0043161176 0.28263053
-0.005246453 -0.0052464488 0.28305748
0.0051553641 -0.0053317179 0.28323364
0.0061067208 -0.0042084074 0.28321344
-0.0067951386 -0.0030795024 0.28298184
0.0066884616 -0.0032258162 0.28298911
-0.007380737 -0.0010157018 0.28294009
0.0073887855 -0.0010505683 0.28299147
-0.0073795728 0.0010537915 0.28293976
0.0074150218 0.00089189998 0.28298274
-0.0067079528 0.0031685659 0.28294617
0.0068462999 0.0029770536 0.28309363
-0.0061471672 0.0041495753 0.2831226
-0.0052424893 0.0052456926 0.28301528
0.0051320861 0.0053517041 0.28285107
0.0060691126 0.0044308878 0.28298151
-0.0042762803 0.00618636 0.28310147
-0.0029225901 0.0068676635 0.28316873
-0.00091565197 0.0074107666 0.28297997
0.0011097123 0.0073747337 0.28300199
0.0030216954 0.0068004308 0.28307688
0.004213647 0.0061031184 0.2833741
-0.004180837 -0.0061256746 0.28520679
-0.0031265644 -0.0067424616 0.28510648
-0.00092093181 -0.0073915515 0.28498146
0.0011305235 -0.0073758527 0.2849206
0.0029363802 -0.0068568806 0.28508547
