# .PCD v0.7 - Point Cloud Data file format
VERSION 0.7
FIELDS x y z
SIZE 4 4 4
TYPE F F F
COUNT 1 1 1
WIDTH 1283
HEIGHT 1
VIEWPOINT 0 0 0 1 0 0 0
POINTS 1283
DATA ascii
-0.004796396 0.0050452347 0.12307703
-0.003934463 0.0058811679 0.12303678
0.0094999988 0.0049558831 0.12297001
-0.0028409089 0.0065991506 0.12278049
-0.0013839222 0.0076683541 0.12300799
0.0094999988 0.0069550588 0.12332077
-0.00042559972 0.0084068775 0.12301036
0.00057812588 0.0091803903 0.12296698
0.0094999988 0.009188476 0.12314403
0.0018325171 0.010147078 0.12286939
0.00305381 0.011088258 0.1230798
0.0040786229 0.011878021 0.12334634
0.0094999988 0.011183381 0.12302252
0.0051018014 0.012666526 0.12280522
0.0064841793 0.013731845 0.12301536
0.0094999988 0.012959976 0.12302577
0.007485427 0.014503449 0.12303291
0.0090146894 0.014755125 0.1229348
0.0071872259 -0.014483413 0.12505616
0.0090925097 -0.014903317 0.12485233
0.0047450289 -0.012630713 0.12491918
0.006284765 -0.013798789 0.12484504
0.0094999997 -0.013053739 0.12492576
0.0016767968 -0.010303087 0.12511073
0.0030675821 -0.011358167 0.12502538
0.0094999988 -0.01117112 0.12500568
-0.00069300248 -0.0085053081 0.12509812
0.00068211317 -0.0095485011 0.12495285
0.0094999988 -0.0087913917 0.1248702
-0.0031971608 -0.0066082058 0.12508528
-0.0015902983 -0.0078246016 0.12502767
0.0094999988 -0.0068423883 0.12492282
-0.0049500484 -0.0050875717 0.12474974
0.0094999997 -0.0050714733 0.12475819
-0.0064467145 -0.0026109531 0.12491021
-0.0059029362 -0.0037941269 0.12488151
0.0094999969 -0.0031646779 0.12481046
-0.0068135397 -0.00090609555 0.1249125
0.0094999988 -0.0010098491 0.12521061
-0.0067902291 0.00096700713 0.12491312
0.0094999988 0.0011095846 0.12514348
-0.0062941895 0.0027569875 0.1250086
-0.0058093923 0.003724973 0.12469199
0.0094999988 0.0030291523 0.12504129
-0.0048921248 0.0049214857 0.1248845
-0.0039003515 0.0059130052 0.12514256
0.0094999988 0.0048153219 0.12489861
-0.002895639 0.0065629454 0.12508619
-0.0015746771 0.0075213495 0.12468572
0.0094999988 0.0070212074 0.12468134
-0.00066984235 0.0082186544 0.1251224
0.00099311362 0.0095001981 0.12501554
0.0094999988 0.0090583982 0.12486815
0.0017661025 0.010095895 0.12517513
0.0030229213 0.011064454 0.12522656
0.0094999988 0.011010639 0.12485848
0.0053372369 0.012847965 0.124887
0.0064694779 0.013720514 0.12507053
0.0094999997 0.013060167 0.12481528
0.007517823 0.014528414 0.12491068
0.0090506496 0.014695833 0.12497377
0.007083545 -0.014404758 0.12692173
0.008951162 -0.014917734 0.12689385
0.0039760736 -0.012047366 0.12635723
0.0049829399 -0.012811194 0.12697016
0.0064011747 -0.013887099 0.12670349
0.0094999978 -0.013080182 0.12688582
0.0016192239 -0.010259411 0.12727226
0.0030521487 -0.011346458 0.12715933
0.0094999988 -0.010938428 0.12697044
-0.00067707483 -0.008517392 0.1268241
0.00059352984 -0.0094812987 0.12700114
0.0094999988 -0.0088694924 0.12695442
-0.0028936176 -0.006837178 0.12693541
-0.0017496586 -0.0077037071 0.12689906
0.0094999988 -0.0069091702 0.1269682
-0.0050141285 -0.0050082589 0.12707715
0.0094999997 -0.0051510218 0.12694086
-0.0064236964 -0.0026806449 0.12694469
-0.0059279334 -0.0037441328 0.12716632
0.0094999988 -0.0030179103 0.12707703
-0.0068035019 -0.0009205183 0.12709786
0.0094999997 -0.0011798525 0.12686524
-0.0067684115 0.001063914 0.12687711
0.0094999978 0.00093907991 0.12723802
-0.0063576805 0.0025925233 0.12707919
-0.0058000344 0.0037399454 0.12658979
0.0094999978 0.0031903512 0.1270031
-0.0048297611 0.0050177197 0.12687387
-0.0039289175 0.0058863433 0.12790734
0.0094999988 0.005072366 0.12702993
-0.0028758291 0.0065649962 0.12695117
-0.0014667461 0.0076045259 0.12674236
0.0094999988 0.0067830216 0.127084
-0.00062063639 0.0082565732 0.1271749
0.00093769247 0.0094574876 0.12707503
0.0094999988 0.0089618769 0.12689787
0.0019383057 0.010228602 0.12696686
0.0033465349 0.011313844 0.1268203
0.0041144504 0.011905631 0.12712741
0.0094999988 0.010818596 0.12670967
0.0050045429 0.012591573 0.12714343
0.00638264 0.013653595 0.1270906
0.0094999997 0.013160732 0.12687869
0.0074827434 0.01450138 0.12695745
0.0090483911 0.014635708 0.12684952
0.0075479047 -0.014757031 0.12901789
0.0090061137 -0.015008903 0.12894143
0.0039653499 -0.01203923 0.12975648
0.0050443853 -0.012857809 0.12891215
0.0061981156 -0.013733054 0.1285053
0.0094999988 -0.013275811 0.12885597
0.0016191814 -0.01025938 0.12926687
0.0028509016 -0.011193787 0.12904663
0.0094999997 -0.011218254 0.12931627
-0.00064172433 -0.0085442103 0.12928334
0.00072431949 -0.0095805191 0.12890974
0.0094999988 -0.008693465 0.12919068
-0.0029526278 -0.0067923334 0.12901229
-0.001462766 -0.0079213502 0.12915999
0.0094999988 -0.0070224302 0.12900795
-0.0050182296 -0.0050088023 0.12899417
0.0094999988 -0.0050283293 0.12891451
-0.0063466099 -0.0028444051 0.12902474
-0.005954145 -0.0036917101 0.12892129
0.0094999988 -0.0030779068 0.12895457
-0.00680689 -0.00098126417 0.12871256
0.0094999978 -0.00089524541 0.12894072
-0.0068052299 0.00080066139 0.12915005
0.0094999988 0.0010008175 0.1287989
-0.0063126273 0.0026993616 0.12908122
-0.0058122007 0.0037204791 0.12897986
0.0094999988 0.0030894328 0.12890244
-0.0049077775 0.004923916 0.12897515
-0.0038270941 0.0059813792 0.12876959
0.0094999988 0.0047856304 0.12877442
-0.0026838093 0.0067164809 0.1290293
-0.0013841316 0.007668193 0.12880294
0.0094999988 0.0069237985 0.12896228
-0.00055538828 0.0083068563 0.12892763
0.00063345116 0.0092230262 0.12900677
0.0094999978 0.0089074364 0.12905842
0.0018148415 0.010133456 0.12877613
0.0032282961 0.011222724 0.12896571
0.0041768607 0.011953727 0.1291019
0.0094999978 0.01102429 0.12888545
0.0052181194 0.012756166 0.12905172
0.0063073365 0.013595561 0.12906486
0.0094999997 0.013007793 0.12898265
0.0073861196 0.014426917 0.12893209
0.0090949526 0.014667093 0.12890244
0.0071611567 -0.014463636 0.13121319
0.009037721 -0.014906625 0.13108039
0.0039324956 -0.012014307 0.13077408
0.0053146896 -0.013062867 0.13105981
0.0063283313 -0.013831837 0.13085507
0.0094999978 -0.013049141 0.13082866
0.0016808076 -0.01030613 0.13091704
0.0029604526 -0.011276895 0.13104728
0.0094999997 -0.011078843 0.13094966
-0.00090320304 -0.0083458461 0.13106646
0.00053482881 -0.0094367666 0.13085338
0.0094999988 -0.0091930553 0.1308904
-0.004001881 -0.0060129417 0.13025261
-0.0030428462 -0.0067259115 0.13109569
-0.0017959699 -0.0076685748 0.13138922
0.0094999988 -0.0068653198 0.13085882
-0.004769715 -0.0052717505 0.13107665
0.0094999997 -0.0048815655 0.13110209
-0.0063233976 -0.0029228416 0.1311671
-0.0058956286 -0.0038087431 0.13114585
0.0094999988 -0.0028479279 0.1310968
-0.0068037729 -0.00095083803 0.13109969
0.0094999988 -0.00087142625 0.13098225
-0.0067511545 0.0010450619 0.13107432
0.0094999988 0.00082778168 0.13090591
-0.0063886745 0.0024829558 0.13112529
-0.005886843 0.0036010523 0.13124919
0.0094999988 0.0028632453 0.1310095
-0.0049286261 0.0049042911 0.13099089
-0.0039332788 0.005882273 0.13094459
0.0094999988 0.0048874076 0.13127095
-0.0029278798 0.0065378388 0.13093174
-0.0016449755 0.0074671744 0.13108324
0.0094999988 0.0070848577 0.13098142
-0.00063776685 0.0082433736 0.13085176
0.00077855209 0.0093348464 0.13123463
0.0094999988 0.0091934847 0.13110764
0.0018304545 0.010145487 0.13117367
0.0033003225 0.011278231 0.13106662
0.004094495 0.011890253 0.13110778
0.0094999988 0.010960368 0.13125637
0.0050548632 0.012630352 0.13106883
0.0065130931 0.013754127 0.13078794
0.0094999997 0.013242247 0.13121521
0.0073496467 0.01439881 0.13099778
0.0091695609 0.01470706 0.13109273
0.0072928565 -0.014563546 0.13317731
0.0090576326 -0.014864791 0.13298626
0.0039666346 -0.012040206 0.13249567
0.0050338353 -0.012849806 0.13303789
0.0061489549 -0.01369576 0.13289124
0.0094999978 -0.012896918 0.13290864
0.0016384333 -0.010273984 0.13283828
0.0030455247 -0.011341433 0.13310307
0.0094999988 -0.011154925 0.13317296
-0.00076415949 -0.0084513277 0.1328288
0.00061561959 -0.009498057 0.13312228
0.0094999978 -0.00921873 0.13302848
-0.0030375049 -0.0067281453 0.13292912
-0.0016618777 -0.0077702999 0.13305555
0.0094999997 -0.0069897114 0.13304722
-0.005150171 -0.0048727635 0.13284442
0.0094999988 -0.0051041995 0.13314901
-0.0063967356 -0.0026897255 0.13327383
-0.0059332307 -0.0037335388 0.13337797
0.0094999988 -0.0031213234 0.13284402
-0.0068244296 -0.00081271742 0.13329355
0.0094999988 -0.0011827011 0.13294461
-0.0067691193 0.00097674434 0.13298044
0.0094999988 0.00098134787 0.1331899
-0.0062964368 0.0027787709 0.13303676
-0.0058269138 0.003696938 0.1328294
0.0094999997 0.0029442906 0.13308676
-0.0049810638 0.0048446045 0.13300121
-0.0039041473 0.0059094625 0.13297972
0.0094999988 0.0049891057 0.13314252
-0.0030126139 0.0064928071 0.13309903
-0.0015055188 0.0075746463 0.13295753
0.0094999988 0.0071693407 0.13311794
-0.00042768265 0.0084052728 0.13344376
0.00067330245 0.0092537375 0.13307284
0.0094999988 0.0089215953 0.13303682
0.0018428492 0.01015504 0.13278532
0.0030244484 0.011065631 0.13327354
0.0041091414 0.011901541 0.13338177
0.0094999978 0.011182384 0.13302773
0.0052403202 0.012773274 0.1330163
0.0065603624 0.013790553 0.13318865
0.0094999997 0.013040524 0.13305628
0.0074055642 0.014441903 0.1327568
0.0090616243 0.014671108 0.13291952
0.0072508054 -0.014531645 0.13481413
0.0088981781 -0.01490629 0.13495833
0.0052166712 -0.012988508 0.13525771
0.0062061879 -0.013739178 0.13526955
0.0094999988 -0.01288791 0.13493307
0.001678066 -0.01030405 0.13515134
0.0027980125 -0.011153664 0.13491784
0.0094999988 -0.010821526 0.13529983
-0.00062252907 -0.0085587716 0.13495398
0.00055637781 -0.0094531151 0.13515793
0.0094999988 -0.0088174669 0.13501441
-0.0040008007 -0.0060137138 0.13453664
-0.0030304133 -0.0067330017 0.13494572
-0.0017860895 -0.0076760701 0.13506204
0.0094999978 -0.0070912712 0.13482852
-0.0048544491 -0.0051911022 0.1350586
0.0094999988 -0.0048188353 0.13517222
-0.0063824728 -0.0027724935 0.13497511
-0.0059201657 -0.0037596691 0.13507752
0.0094999997 -0.0030824593 0.13502607
-0.0068029426 -0.0011128872 0.13487262
0.0094999978 -0.00092494767 0.13514502
-0.0067421198 0.0011572012 0.13490558
0.0094999988 0.0011348706 0.13515538
-0.0063373605 0.0025906533 0.1351556
-0.0057653314 0.0037954701 0.13507162
0.0094999988 0.003039679 0.13485797
-0.0047231056 0.0051318719 0.13491009
-0.0038524345 0.0059577278 0.13511166
0.0094999978 0.005071532 0.13466057
-0.0025079472 0.0068152016 0.13510266
-0.0014550816 0.007613515 0.13516918
0.0094999988 0.0070812386 0.13513973
-0.000473803 0.0083697289 0.134994
0.00077302835 0.0093305903 0.13521585
0.0094999988 0.0093826177 0.13519397
0.0018165059 0.010134738 0.13500658
0.0030654194 0.011097205 0.13515085
0.0041514034 0.011934109 0.13419302
0.0094999988 0.010766248 0.13535354
0.0050386973 0.012617895 0.13481884
0.0063969675 0.013664636 0.13517109
0.0094999997 0.013022311 0.13505009
0.0074735652 0.014494307 0.13514543
0.0090623219 0.01473658 0.13505819
0.0072767483 -0.014551327 0.13717896
0.0089570405 -0.014895676 0.1369314
0.0039708177 -0.012043379 0.13709795
0.0051831556 -0.012963084 0.13694692
0.0061623515 -0.013705921 0.13670246
0.0094999988 -0.013030428 0.13719366
0.0016206913 -0.010260524 0.13701695
0.0028630293 -0.011202988 0.13691667
0.0094999997 -0.010984855 0.13707307
-0.00044048845 -0.0086968709 0.13668503
0.00064553006 -0.0095207468 0.13701698
0.0094999997 -0.0090931933 0.13723516
-0.0030488567 -0.0067202905 0.13736653
-0.0016109695 -0.00780892 0.13694063
0.0094999988 -0.0070126206 0.13721998
-0.0050866995 -0.0049239839 0.13688132
0.0094999978 -0.0047448347 0.1370931
-0.006410162 -0.0027038644 0.1371029
-0.0058949566 -0.0038100865 0.13673465
0.0094999988 -0.0029598852 0.13688725
-0.0068127406 -0.00098617165 0.1369525
0.0094999988 -0.0010023024 0.13698313
-0.0067655537 0.00099634891 0.13731948
0.0094999988 0.001366803 0.13702668
-0.0062670996 0.0028327813 0.13695106
-0.0058314721 0.0036896449 0.13684206
0.0094999988 0.0029350293 0.13677935
-0.0048022615 0.0050227256 0.13709408
-0.0039121015 0.0059020389 0.13713679
0.0094999988 0.0050285873 0.13701065
-0.0030153298 0.006494489 0.13702556
-0.0013993342 0.0076564769 0.13713035
0.0094999978 0.0067904843 0.13705012
-0.00031294077 0.0084936963 0.13701597
0.00077367458 0.0093310894 0.13699241
0.0094999997 0.0088510411 0.13667759
0.0017637592 0.01009409 0.1367176
0.0030795343 0.011108082 0.13707659
0.0094999988 0.010654995 0.13692187
0.0051085399 0.012671717 0.13712652
0.0063443622 0.013624096 0.13694149
0.0094999997 0.013041826 0.13708343
0.0074681714 0.014490149 0.13712493
0.00895679 0.014695167 0.13712955
0.0071947766 -0.014489141 0.13866861
0.0091097653 -0.014888258 0.13894193
0.0039596227 -0.012034887 0.1391314
0.0051559242 -0.012942427 0.13877475
0.0063704192 -0.013863767 0.13893816
0.0094999988 -0.013037313 0.13882303
0.0016778626 -0.010303896 0.13904095
0.0028427311 -0.011187588 0.13869888
0.0094999988 -0.011109348 0.13902938
-0.00071004475 -0.0084923804 0.13916907
0.00092112547 -0.0097298184 0.13876195
0.0094999988 -0.0088871978 0.139098
-0.0029846586 -0.0067687384 0.1390311
-0.0016485781 -0.0077803894 0.13888679
0.0094999988 -0.0070115607 0.13889976
-0.0050092358 -0.0050127693 0.13889116
0.0094999978 -0.0050382931 0.13899566
-0.0063694101 -0.0027917058 0.13896285
-0.0058995346 -0.0038009312 0.13907574
0.0094999978 -0.0031600702 0.13891669
-0.0067990664 -0.0010695304 0.1389492
0.0094999997 -0.00098255347 0.13904516
-0.006827062 0.00055818219 0.13904499
0.0094999997 0.0012740634 0.13888849
-0.0063070045 0.0027309398 0.13929604
-0.0058060745 0.0037302817 0.13935328
0.0094999988 0.0028945527 0.13913234
-0.0046853726 0.0051519326 0.13888119
-0.0038748984 0.0059367614 0.13874751
0.0094999997 0.0048338426 0.1393242
-0.0029072443 0.0065518385 0.13903213
-0.0014829993 0.0075920015 0.13886662
0.0094999988 0.0070143705 0.13889869
-0.0004973273 0.0083516007 0.13916662
0.00080144202 0.0093524875 0.13891663
0.0094999988 0.0088775279 0.13873374
0.0017805297 0.010107013 0.13918842
0.0028447283 0.01092713 0.13896385
0.0041725682 0.01195042 0.1391374
0.0094999988 0.011101761 0.13898702
0.0050547137 0.01263024 0.13900986
0.0062506376 0.013551867 0.13891317
0.0094999997 0.012747144 0.1392616
0.0073486827 0.014398069 0.13890712
0.0088940011 0.014846029 0.13910472
0.007117664 -0.014430642 0.14119081
0.009023862 -0.014796353 0.14087807
0.0039528464 -0.012029746 0.14084499
0.0049031517 -0.012750668 0.14088283
0.0063363332 -0.013837907 0.14035118
0.0094999997 -0.012741972 0.14088809
0.0016822646 -0.010307235 0.1410944
0.0030405694 -0.011337675 0.1411715
0.0094999978 -0.010968841 0.14107178
-0.00076902204 -0.0084476387 0.14085555
0.00058626023 -0.0094757834 0.14092499
0.0094999988 -0.0091271866 0.1410408
-0.0030384264 -0.0067298724 0.14084767
-0.0017276572 -0.0077203978 0.14074521
0.0094999988 -0.0069502261 0.14087693
-0.0050397418 -0.0049809325 0.14115575
0.0094999988 -0.0047113858 0.14094912
-0.0063248784 -0.0029125204 0.14094681
-0.0059025092 -0.0037949816 0.14089638
0.0094999997 -0.0031828352 0.14103644
-0.0068027861 -0.00097264128 0.14103526
0.0094999988 -0.00091201591 0.14104602
-0.0067844158 0.00085515704 0.14112364
0.0094999988 0.0010830892 0.14111264
-0.0062686312 0.0028455541 0.14078335
-0.0058572278 0.0036484357 0.14092869
0.0094999988 0.0031077792 0.1410623
-0.0049688383 0.0048686517 0.14103428
-0.0038944825 0.0059184828 0.1410751
0.0094999988 0.0051625916 0.14100817
-0.0030707531 0.0064446502 0.14112714
-0.0014041485 0.0076527665 0.14092535
0.0094999997 0.0068547563 0.14077049
-0.00038447577 0.0084385695 0.14107671
0.00078954513 0.0093433205 0.1409561
0.0094999988 0.0089025795 0.14102231
0.0018230682 0.010139796 0.14087316
0.0029152911 0.010981509 0.14081259
0.0041222945 0.011911677 0.14107846
0.0094999988 0.010993085 0.14078601
0.0052485978 0.012779653 0.14090319
0.0063645896 0.013639683 0.14126746
0.0094999988 0.01311878 0.14111453
0.0073632714 0.014409311 0.14111133
0.0091694333 0.014687506 0.14102097
0.0071950611 -0.014489355 0.14293209
0.0090564238 -0.014842827 0.14305037
0.0039642621 -0.012038406 0.14277363
0.004881653 -0.01273436 0.14302766
0.0062532215 -0.013774857 0.14298096
0.0095000006 -0.012693291 0.14294426
0.0017051825 -0.010324622 0.14295399
0.0030140546 -0.011317559 0.14277829
0.0094999988 -0.011172279 0.14299187
-0.00052017474 -0.0086364197 0.14269961
0.00051797094 -0.0094239786 0.14312671
0.0094999988 -0.0091455672 0.14277263
-0.004017862 -0.006001527 0.14267148
-0.0029049763 -0.0068287333 0.14290218
-0.0016766954 -0.0077590588 0.14288531
0.0094999997 -0.0068931966 0.14294727
-0.0051214215 -0.0048962599 0.14303264
0.0094999988 -0.0050038747 0.14301819
-0.0062966952 -0.0029846863 0.1431713
-0.0058909412 -0.003818118 0.14278638
0.0094999997 -0.0032843952 0.14295837
-0.0068260785 -0.00093219773 0.14304483
0.0094999997 -0.00099598547 0.14294153
-0.006801256 0.00069982198 0.14302871
0.0094999988 0.0010333507 0.14319013
-0.0063798064 0.0025306139 0.14300379
-0.0058510536 0.0036583152 0.14269219
0.0094999988 0.0027528261 0.14309838
-0.0047961129 0.0050538941 0.14320749
-0.0039139176 0.0059003434 0.1433154
0.0094999988 0.0052744332 0.1431611
-0.003100421 0.0064473236 0.14267935
-0.0014180172 0.0076420791 0.14285953
0.0094999988 0.0069617941 0.14301582
-0.00061886787 0.0082579367 0.14274403
0.0008004203 0.0093517005 0.14322543
0.0094999988 0.009105878 0.14313173
0.0018130745 0.010132094 0.1430407
0.003099293 0.011123309 0.1430148
0.0041867252 0.01196133 0.14236142
0.0094999997 0.010928554 0.14309907
0.0050674458 0.012640051 0.14288235
0.0063797045 0.013651333 0.1433325
0.0094999988 0.013281534 0.14272623
0.0075008092 0.014515303 0.14324579
0.0089749908 0.014772823 0.14294583
0.0076127793 -0.014806247 0.14544392
0.0091115469 -0.014905207 0.14509018
0.0039827167 -0.012052407 0.14570646
0.0047990498 -0.012671692 0.14495504
0.0062471456 -0.013770248 0.14499663
0.0094999988 -0.013007226 0.14505413
0.0017219025 -0.010337306 0.14510961
0.0029334535 -0.011256414 0.14511386
0.0094999978 -0.010933368 0.14500113
-0.00062944944 -0.0085535217 0.14526826
0.00061326876 -0.0094962744 0.14496505
0.0094999988 -0.0089975474 0.14492615
-0.0040005669 -0.0060138809 0.14455689
-0.0029097279 -0.006824492 0.14497803
-0.0015457844 -0.0078583714 0.1447628
0.0094999988 -0.007055359 0.14511898
-0.0048444606 -0.0051738885 0.14495552
0.0094999988 -0.0049863067 0.14517681
-0.0064121871 -0.0027092749 0.14494932
-0.0058413111 -0.003917377 0.14435294
0.0094999978 -0.0030397242 0.14504293
-0.0068058129 -0.00099973055 0.14488566
0.0094999988 -0.00095927343 0.14510778
-0.0067482358 0.0011780092 0.14487804
0.0094999988 0.0013519845 0.14519051
-0.0062847901 0.0027855234 0.14519224
0.0094999997 0.0032602525 0.1449105
-0.0049354448 0.0048844446 0.14520618
-0.0039091068 0.0059048329 0.14483848
0.0094999988 0.0047606849 0.14466044
-0.0030574789 0.0064607821 0.14486621
-0.0013734059 0.0076764575 0.14494078
0.0094999988 0.0069766357 0.1448607
-0.00044448287 0.0083923256 0.1449551
0.00074380008 0.0093080662 0.14509921
0.0094999988 0.008787456 0.14484221
0.0017834262 0.010109246 0.14536606
0.0032813284 0.011263594 0.14486989
0.0041168611 0.011907489 0.14481832
0.0094999988 0.010681385 0.14499402
0.005441796 0.01292854 0.14517981
0.0064485683 0.013704401 0.14524995
0.0094999988 0.013088197 0.14507966
0.0073955911 0.014434217 0.14509292
0.0089518148 0.014721728 0.14503366
0.0072258227 -0.014512693 0.14717291
0.0092637343 -0.014821535 0.14689206
0.0039350688 -0.012016259 0.14686291
0.0049098888 -0.012755779 0.14712921
0.0063096345 -0.013817655 0.14731568
0.0094999988 -0.012878241 0.14698604
0.0015714478 -0.010223167 0.146676
0.0025485237 -0.010964398 0.14706509
0.0094999988 -0.01102328 0.14689159
-0.00059576298 -0.0085790763 0.14736804
0.00062098645 -0.0095021268 0.14689232
0.0094999988 -0.009056868 0.14679922
-0.0029778145 -0.0067723314 0.14692569
-0.0016809348 -0.007755843 0.1471592
0.0094999988 -0.0068160263 0.14717764
-0.0048538186 -0.0051842136 0.14692445
0.0094999988 -0.0049056937 0.14694172
-0.0062770764 -0.0030059358 0.14698401
-0.0058852606 -0.0038294799 0.14718364
0.0094999988 -0.0029631946 0.14712691
-0.0068127094 -0.0009573056 0.14703712
0.0094999997 -0.0010642936 0.14689521
-0.0067791739 0.00095876807 0.1470114
0.0094999988 0.00095825421 0.14701879
-0.0063574808 0.0025646084 0.14684545
-0.0059092874 0.0035651408 0.14713018
0.0094999997 0.0029580917 0.14693727
-0.0048946994 0.004931353 0.14694913
-0.0039058849 0.005907841 0.1467983
0.0094999988 0.0048516695 0.14706673
-0.0027516489 0.0066669816 0.14705493
-0.0013436251 0.0076994086 0.14710523
0.0094999997 0.0068204431 0.14703101
-0.00063098577 0.0082485992 0.14702883
0.00061005418 0.0092049958 0.14699095
0.0094999997 0.0092347357 0.14719327
0.001897604 0.010197236 0.14674082
0.0027241104 0.010834176 0.14716145
0.0041383351 0.011924038 0.14688729
0.0094999997 0.01082604 0.1472567
0.0052230698 0.01275998 0.14716247
0.0063054236 0.013594088 0.14683519
0.0094999997 0.012752659 0.14681141
0.0071789357 0.014267253 0.14697659
0.0091239335 0.014714639 0.14666981
0.0072598639 -0.014538518 0.14897291
0.0091486583 -0.014903797 0.1489681
0.0049080621 -0.012754394 0.14895576
0.0063810376 -0.013871822 0.1490982
0.0094999997 -0.0128976 0.14904752
0.0016724773 -0.010299811 0.14876613
0.0030815876 -0.011368791 0.1489931
0.0094999988 -0.010973094 0.14890312
-0.00066500087 -0.0085265515 0.14905208
0.00067819061 -0.0095455237 0.14902779
0.0094999988 -0.0090747299 0.14903636
-0.0031722896 -0.0066256295 0.14890218
-0.0016818091 -0.0077551794 0.14874218
0.0094999997 -0.0069363778 0.14878902
-0.0050742049 -0.0049425964 0.14897469
0.0094999997 -0.0052060699 0.14881869
-0.0063470313 -0.0028375043 0.14886662
-0.005932387 -0.0037352256 0.14913918
0.0094999997 -0.0030197641 0.14900593
-0.0068114805 -0.00097528473 0.14890209
0.0094999978 -0.00097241323 0.14891924
-0.006760187 0.0010928648 0.14888127
0.0094999988 0.00087302498 0.14906283
-0.0062821177 0.0027908045 0.14927536
-0.0058231279 0.0037029961 0.14833564
0.0094999978 0.0030701279 0.14924161
-0.0049087261 0.0049171913 0.14908238
0.0094999988 0.0049897116 0.14905363
-0.0028058314 0.006618706 0.14899002
-0.0015135478 0.0075684595 0.14858885
0.0094999988 0.0071805669 0.14917664
-0.00036774788 0.0084514599 0.14898095
0.00087358482 0.0094080837 0.14920588
0.0094999997 0.0087408572 0.14912724
0.0018145228 0.010133211 0.14954589
0.0030062404 0.011051598 0.14914738
0.0094999988 0.011037244 0.1490628
0.0051409178 0.012696671 0.14906925
0.006346547 0.013625778 0.14893463
0.0094999988 0.013231454 0.14911106
0.007505076 0.014518589 0.1488588
0.0090336166 0.014689232 0.14904606
0.0072294399 -0.014515439 0.15080367
0.0089088744 -0.014967154 0.15100589
0.0039171278 -0.012002649 0.15116309
0.0050890101 -0.012891663 0.1509717
0.0061929962 -0.01372917 0.15099719
0.0094999988 -0.012805806 0.15089533
0.0016042454 -0.010248047 0.15105839
0.0029402138 -0.011261542 0.1511267
0.0094999997 -0.011026377 0.15127441
-0.00060971337 -0.0085684936 0.15104313
0.00065671618 -0.009529233 0.15115626
0.0094999997 -0.008944246 0.15093078
-0.0029486234 -0.0067946645 0.15095869
-0.0016512041 -0.0077783973 0.1505599
0.0094999988 -0.0069390642 0.15110971
-0.0050083967 -0.0050286083 0.15118617
0.0094999988 -0.0049918727 0.15090968
-0.0063744672 -0.0028057296 0.15089677
-0.0059059607 -0.0037880787 0.15095061
0.0094999978 -0.0030016317 0.15095945
-0.006807853 -0.00099916931 0.15108918
0.0094999997 -0.00092358189 0.15095878
-0.0067783613 0.0010803631 0.15089603
0.0094999997 0.0011697932 0.15100238
-0.006319812 0.0026903071 0.15122786
-0.0058525945 0.00365585 0.15107313
0.0094999988 0.0028702479 0.15115504
-0.004874005 0.0049436996 0.15097176
-0.0039101802 0.0059038317 0.15089415
0.0094999988 0.0050138719 0.15089768
-0.0027429168 0.0066580577 0.15112205
-0.0012326617 0.0077849217 0.15078926
0.0094999997 0.0069429129 0.15062213
-0.00057757972 0.0082897553 0.15077129
0.000642595 0.0092300735 0.1510182
0.0094999988 0.0087398775 0.15108699
0.0017748075 0.010102604 0.15148082
0.0031240527 0.011142391 0.15109703
0.0042097624 0.011979083 0.1503531
0.0094999997 0.010905028 0.15127899
0.0051631602 0.01271381 0.15119824
0.0063967854 0.013664494 0.15094917
0.0094999978 0.013141649 0.15107575
0.007575307 0.014572713 0.15106097
0.0091554858 0.014723641 0.15096982
0.0071111815 -0.014425724 0.15304708
0.0089655425 -0.014834832 0.15287016
0.0053619095 -0.01309869 0.15316643
0.0063442485 -0.013843913 0.15232715
0.0094999978 -0.012932254 0.15298477
0.0015178494 -0.010182506 0.15271786
0.0030539741 -0.011347844 0.15323274
0.0094999988 -0.010749329 0.15296324
-0.0008835764 -0.0083607361 0.15308659
0.00047633919 -0.0093923956 0.15282008
0.0094999997 -0.0090794833 0.15312175
-0.0040146359 -0.0060038315 0.1522506
-0.0031026183 -0.0066782353 0.15291068
-0.0017323601 -0.0077168304 0.15300435
0.0094999988 -0.0070067318 0.15293153
-0.004996758 -0.0050395816 0.15309271
0.0094999997 -0.0048544379 0.15300788
-0.0063603381 -0.0027922515 0.15293926
-0.0059649837 -0.0036700317 0.15287159
0.0094999988 -0.0033567769 0.15307418
-0.0067911581 -0.0010640139 0.15293933
0.0094999988 -0.00071006507 0.15326737
-0.006795987 0.00087289285 0.15287003
0.0094999997 0.0010058631 0.15324596
-0.0062795724 0.0028298204 0.15275723
-0.0057651624 0.0037957411 0.15309267
0.0094999988 0.002918679 0.15284882
-0.0046641887 0.0051782546 0.15288928
0.0094999988 0.0050132591 0.15307321
-0.0029093833 0.0065598027 0.15274571
-0.0015380525 0.0075495746 0.15285698
0.0094999988 0.0073915641 0.15292652
-0.00049348746 0.0083545605 0.1530592
0.00071356434 0.0092847645 0.15308674
0.0094999988 0.0090173827 0.15307795
0.001858047 0.010166752 0.15299964
0.0028063285 0.010897539 0.15298709
0.0041478681 0.011931384 0.15306704
0.0094999978 0.010837596 0.15287386
0.0051110187 0.012673629 0.15301798
0.0065231984 0.013761914 0.15299888
0.0094999988 0.013244102 0.15294978
0.0074341018 0.014463895 0.15303747
0.0091309845 0.01463043 0.15287578
0.007161241 -0.014463701 0.15517664
0.0091870856 -0.014776609 0.15496154
0.003991792 -0.012059291 0.15501195
0.0048303558 -0.012695441 0.15483828
0.0062357667 -0.013761616 0.1551746
0.0094999997 -0.012919689 0.15499097
0.0016932687 -0.010315583 0.15516502
0.0030283215 -0.011328381 0.15494879
0.0094999988 -0.010741185 0.15497661
-0.00051204022 -0.0086425915 0.15525451
0.00073483313 -0.009588494 0.15506203
0.0094999988 -0.0087106032 0.155175
-0.0030506961 -0.0067177028 0.15499571
-0.0016943926 -0.0077456343 0.15502308
0.0094999988 -0.0068052085 0.15499873
-0.0050994325 -0.0049079941 0.15483417
0.0094999978 -0.0051000314 0.15488958
-0.0063081444 -0.0028958558 0.15491199
-0.0059795314 -0.0036409367 0.15454464
0.0094999988 -0.0030131217 0.15503439
-0.0067853634 -0.0011239463 0.15484436
0.0094999988 -0.0010860246 0.15504965
-0.0067409081 0.0011275897 0.15501226
0.0094999978 0.0012421614 0.15489726
-0.0062929126 0.002742863 0.15517859
-0.0059131454 0.003558968 0.1555509
0.0094999988 0.0029302184 0.15501018
-0.0047324016 0.0051071467 0.15509598
0.0094999988 0.0050010816 0.15502131
-0.0028784415 0.0065748277 0.15491982
-0.001469516 0.0076023913 0.15496223
0.0094999988 0.0069109187 0.15501608
-0.00061042001 0.0082644476 0.15496626
0.0005203085 0.0091358339 0.15529315
0.0094999988 0.0085000731 0.15501389
0.0018000985 0.010122094 0.15491907
0.0029697868 0.011023505 0.15504315
0.0041007968 0.011895109 0.15408793
0.0094999997 0.011183151 0.15511127
0.0052171019 0.012755382 0.1551989
0.0065275403 0.013765261 0.15511142
0.0094999988 0.012740185 0.15507624
0.0075383577 0.014544237 0.1550575
0.0089655882 0.014736581 0.15497677
0.0072232732 -0.014510761 0.1572669
0.0090114642 -0.01493504 0.15690687
0.0039299359 -0.012012365 0.15612839
0.005201587 -0.012977066 0.15687871
0.0063293073 -0.013832578 0.15694174
0.0094999997 -0.012931969 0.15684907
0.0016717279 -0.010299243 0.15693963
0.0029934864 -0.011301955 0.15714909
0.0094999988 -0.010782608 0.15686877
-0.00063363794 -0.008550344 0.15688418
0.00070959708 -0.0095693497 0.15700032
0.0094999988 -0.0090177525 0.1570144
-0.0029667018 -0.006782908 0.15714984
-0.001757983 -0.0076973923 0.15651031
0.0094999988 -0.0071746763 0.1569616
-0.0049230712 -0.0051188348 0.1569823
0.0094999997 -0.0049687 0.15710512
-0.0063398378 -0.002850733 0.1570261
-0.0058795093 -0.0038409806 0.15717757
0.0094999988 -0.0029294614 0.15696208
-0.0067955223 -0.0011264801 0.15700187
0.0094999988 -0.0011295611 0.1569086
-0.006750985 0.001079787 0.15685982
0.0094999997 0.00090182788 0.15680982
-0.0062657846 0.0028355673 0.15665105
-0.0057866178 0.0037614121 0.15695328
0.0094999988 0.0031467972 0.15717223
-0.0049088914 0.0049150288 0.15711901
-0.0039060065 0.0059077269 0.15635635
0.0094999988 0.0050041652 0.15716106
-0.0028371077 0.0066041877 0.15686151
-0.0014608594 0.0076090628 0.15680584
0.0094999988 0.0071221362 0.15692671
-0.00051667576 0.0083366912 0.1569947
0.00065369799 0.0092386296 0.15683804
0.0094999988 0.0090105142 0.15706213
0.0018869408 0.010189018 0.15685923
0.0030681491 0.011099309 0.1570978
0.0042360802 0.011999364 0.15720779
0.0094999988 0.011125699 0.15712157
0.0051584351 0.012710171 0.15687878
0.0063109812 0.013598371 0.15675376
0.0094999988 0.012973278 0.15728509
0.0074026398 0.014439651 0.15697967
0.0092262151 0.014753106 0.1571454
0.0074516246 -0.014683992 0.15915394
0.0088557573 -0.014837964 0.15900874
0.003931033 -0.012013197 0.15828112
0.0052213273 -0.012992042 0.15883286
0.0062768226 -0.013792762 0.1591372
0.0094999997 -0.012843804 0.15903769
0.0017316004 -0.010344663 0.15904765
0.0028229011 -0.011172546 0.15892915
0.0094999988 -0.01088327 0.15884502
-0.00077866 -0.0084403278 0.15897293
0.00050682091 -0.0094155204 0.15879475
0.0094999988 -0.0093593271 0.15896332
-0.0030846805 -0.0066931522 0.15891065
-0.0016301333 -0.0077943816 0.15919156
0.0094999978 -0.0069906581 0.15917964
-0.0049254368 -0.0051016021 0.15878063
0.0094999988 -0.0048504476 0.15887323
-0.0062181563 -0.0031520452 0.15897942
-0.0058794916 -0.0038410164 0.15960614
0.0094999988 -0.0033754646 0.15910944
-0.0068524624 -0.00084337831 0.15900283
0.0094999988 -0.0008500659 0.15887144
-0.0068141026 0.00081986183 0.15897323
0.0094999988 0.0011690774 0.15889007
-0.0062676757 0.0028357937 0.15894799
-0.0058076521 0.0037277571 0.1594305
0.0094999988 0.0031596655 0.15899538
-0.0050026486 0.0048158006 0.1591008
-0.0039412929 0.0058747935 0.15893117
0.0094999997 0.0050820331 0.15913545
-0.0028291582 0.0066096969 0.15880866
-0.0015134265 0.0075685517 0.15899156
0.0094999988 0.0069722468 0.15891054
-0.00051436067 0.0083384747 0.15887332
0.000704634 0.009277883 0.15896615
0.0094999978 0.0091131823 0.15904424
0.0017951148 0.010118253 0.15935497
0.0029035306 0.010972445 0.1588556
0.0042010215 0.011972346 0.15839669
0.0094999988 0.01096148 0.15900134
0.0052624578 0.012790333 0.15889503
0.0064265076 0.0136874 0.15900271
0.0094999988 0.013356355 0.1592896
0.0074958974 0.014511516 0.15915442
0.0090434439 0.014775179 0.15918674
0.0070778173 -0.014400413 0.16100442
0.0091287829 -0.014814081 0.16100053
0.0039730491 -0.012045071 0.16189659
0.0052542626 -0.013017028 0.16105561
0.0062589957 -0.013779239 0.16117768
0.0094999978 -0.013167948 0.16092342
0.0015870908 -0.010235034 0.160593
0.0032247796 -0.011477418 0.16096507
0.0095000006 -0.010510958 0.16102123
-0.00060172717 -0.0085745528 0.16088586
0.00075660873 -0.0096050138 0.16088402
0.0094999988 -0.0090235742 0.16115494
-0.0040019173 -0.0060129166 0.16113277
-0.0029679306 -0.0067810128 0.1609626
-0.0017060272 -0.0077368068 0.16042782
0.0094999997 -0.0072786496 0.16110788
-0.005157914 -0.0048472802 0.16125612
0.0094999997 -0.0050714631 0.16078956
-0.0063905185 -0.0027589793 0.16109337
-0.0058831805 -0.0038336385 0.16089354
0.0094999988 -0.0028476489 0.1610765
-0.006836358 -0.00084525597 0.16090164
0.0094999988 -0.00089342258 0.16125661
-0.0067827185 0.00083814235 0.16102861
0.0094999988 0.0010003825 0.16105607
-0.006246109 0.0029060058 0.16080682
-0.0059298151 0.0035322963 0.16168158
0.0094999988 0.0030539453 0.16079348
-0.0049036876 0.0049519041 0.16097896
-0.0039064549 0.0059073092 0.16089953
0.0094999997 0.0051776567 0.16106156
-0.0028354111 0.0066021532 0.16101773
-0.0014652925 0.0076056458 0.16095522
0.0094999988 0.0069669336 0.16098961
-0.00056810165 0.0082970597 0.16105719
0.0010129616 0.0095154941 0.16125377
0.0094999988 0.0091420887 0.16104442
0.001774139 0.010102089 0.16129985
0.0027482335 0.010852768 0.16118778
0.0041323621 0.011919434 0.16087282
0.0094999988 0.010995337 0.16119222
0.0051086452 0.012671798 0.16111884
0.0063154064 0.01360178 0.16114733
0.0094999988 0.012925121 0.1608593
0.0076810806 0.014654228 0.16101199
0.0091154268 0.014716632 0.1610048
0.0071753114 -0.014474374 0.16271579
0.0088326409 -0.01500215 0.16287075
0.0050206347 -0.012839792 0.16286962
0.0062579927 -0.013778476 0.16294563
0.0094999988 -0.01318516 0.16294062
0.0015765677 -0.010227052 0.16321121
0.0031162931 -0.011395118 0.16305272
0.0094999997 -0.011033732 0.16286026
-0.00068017939 -0.0085150357 0.16280615
0.00068195985 -0.0095483838 0.16316138
0.0094999978 -0.0091294264 0.16307232
-0.0029718354 -0.0067778709 0.16309033
-0.0017533343 -0.0077009192 0.16328463
0.0094999997 -0.0070719761 0.16270323
-0.0049274461 -0.0051027006 0.16276278
0.0094999988 -0.0048240595 0.16314204
-0.0063477834 -0.0028503814 0.16268377
-0.0058995052 -0.0038009898 0.16276017
0.0094999997 -0.002994037 0.16329293
-0.0067810677 -0.0010959071 0.16294479
0.0094999988 -0.00094284653 0.16293532
-0.0067604715 0.0010817199 0.16316819
0.0094999988 0.00081819034 0.1630002
-0.0062283636 0.0029395625 0.1628032
-0.0057897838 0.0037563462 0.16305381
0.0094999988 0.0030815394 0.16316478
-0.0048150602 0.0050232434 0.16282535
-0.0039023582 0.0059111323 0.16366962
0.0094999988 0.0049104099 0.16307588
-0.0028751302 0.0065626395 0.1629743
-0.0014906611 0.0075860969 0.16285619
0.0094999988 0.007027565 0.16290683
-0.00038358275 0.0084392577 0.16277626
0.00075287157 0.0093150567 0.1626783
0.0094999997 0.0089476807 0.16325058
0.001977857 0.010259083 0.16300283
0.00298209 0.011032987 0.16287491
0.0040989011 0.011893648 0.16289385
0.0094999988 0.011000647 0.16302256
0.0051356931 0.012692644 0.16296549
0.0064177867 0.01368068 0.16300043
0.0094999997 0.013096907 0.16312596
0.0073895031 0.014429525 0.16295952
0.0090261362 0.014660184 0.16322222
0.0071405526 -0.014448008 0.16483524
0.0092324642 -0.014662889 0.16489884
0.0039804149 -0.01205066 0.16431442
0.0051058815 -0.012904462 0.16506009
0.0062047634 -0.013738098 0.16504017
0.0094999988 -0.012952276 0.16491097
0.0017023199 -0.010322451 0.16500737
0.002884391 -0.011219193 0.16518155
0.0094999988 -0.011022389 0.16512209
-0.00071620248 -0.0084877089 0.16513488
0.00055977877 -0.0094556948 0.16504583
0.0094999988 -0.0089487135 0.16493985
-0.0031108488 -0.0066744322 0.16504575
-0.001763143 -0.0076934779 0.16502018
0.0094999997 -0.0069210269 0.16512305
-0.0048682047 -0.0051666675 0.16516709
0.0094999988 -0.0049265437 0.16473152
-0.006405754 -0.0027272415 0.16498958
-0.0059068757 -0.0037862491 0.16501004
0.0094999988 -0.0032101942 0.16479424
-0.0067800106 -0.0011751583 0.16478989
0.0094999988 -0.0010718978 0.16492483
-0.0067456351 0.0010837979 0.16493864
0.0094999997 0.001239616 0.1649424
-0.0063364878 0.002644819 0.16503164
-0.0058470978 0.0036646449 0.16513111
0.0094999988 0.0031211048 0.16522323
-0.0046710931 0.0051675285 0.16507259
-0.0038880529 0.0059244838 0.16496202
0.0094999997 0.004808025 0.1650856
-0.0028885202 0.0065683294 0.16507389
-0.001508687 0.0075722048 0.16486475
0.0094999988 0.0069353939 0.16515672
-0.00048373561 0.0083620753 0.16488913
0.00082028325 0.0093670078 0.16508071
0.0094999988 0.0089123556 0.1650428
0.0017465617 0.010080837 0.16441686
0.0030405554 0.011078041 0.16524361
0.0041477736 0.011931311 0.16486353
0.0094999988 0.01114092 0.16495505
0.0052084839 0.012748741 0.1649586
0.0065320996 0.013768774 0.16482104
0.0094999997 0.01307792 0.16499427
0.0073325187 0.014385611 0.16508654
0.0089063831 0.01475885 0.16512084
0.0073660747 -0.014619091 0.16705461
0.0092961984 -0.014894795 0.16702786
0.0039545069 -0.012031007 0.16713274
0.0050217095 -0.012840608 0.16698821
0.006247153 -0.013770254 0.16696918
0.0094999997 -0.013154247 0.16736226
0.0016956433 -0.010317384 0.16699439
0.0030645919 -0.011355896 0.16701154
0.0094999978 -0.010841732 0.16677229
-0.00095485407 -0.0083066616 0.16728179
0.00066134933 -0.0095327478 0.16709675
0.0094999988 -0.0089381011 0.16698568
-0.0029295096 -0.0068111089 0.16707145
-0.0016473973 -0.0077812849 0.16710594
0.0094999988 -0.006940376 0.16667815
-0.0052190362 -0.0047900099 0.1670381
0.0094999978 -0.0049269865 0.16719496
-0.0063242726 -0.0028838185 0.16741019
-0.0058190455 -0.0039619096 0.16658843
0.0094999988 -0.0030644913 0.16705789
-0.0068472084 -0.00070804072 0.16715084
0.0094999978 -0.0012264519 0.16712128
-0.0067290012 0.0011963682 0.16702895
0.0094999978 0.0013015486 0.16713999
-0.0062936819 0.0028005166 0.16727753
-0.0058179004 0.0037113596 0.16687194
0.0094999978 0.0031191048 0.16700378
-0.0050278925 0.0047745341 0.16716304
-0.0039778566 0.0058406671 0.16642007
0.0094999988 0.0050037005 0.16690509
-0.002735998 0.0066712569 0.16714667
-0.0014976289 0.0075807264 0.16746466
0.0094999988 0.0070857373 0.16685346
-0.00046786739 0.0083743026 0.16700046
0.00081603118 0.0093637304 0.16716193
0.0094999997 0.0087908255 0.16685799
0.001793201 0.010116778 0.16679819
0.0031884878 0.011192046 0.16712458
0.0041593183 0.011940208 0.16713034
0.0094999988 0.010811619 0.1669867
0.0052646729 0.012792041 0.16716449
0.0064154328 0.013678864 0.16684665
0.0094999988 0.013059898 0.16704029
0.0073696985 0.014414264 0.16695201
0.0088574868 0.014807944 0.16688363
0.0072131613 -0.014503089 0.16910149
0.009096521 -0.014853718 0.16900754
0.0039499695 -0.012027564 0.16885325
0.0050849011 -0.012888547 0.16883792
0.0063590351 -0.01385513 0.16889097
0.0094999978 -0.012950948 0.16909939
0.0016228482 -0.010262161 0.16895525
0.0030135543 -0.011317178 0.16908512
0.0094999988 -0.010961915 0.16901913
-0.00066902849 -0.0085234949 0.16909079
0.00073579076 -0.0095892204 0.16889471
0.0094999997 -0.0089582186 0.16901442
-0.0040180688 -0.0060013798 0.1694705
-0.0028932532 -0.0068384497 0.16906437
-0.0016347722 -0.0077908621 0.16926745
0.0094999978 -0.0068484 0.16897285
-0.0050249011 -0.0050075669 0.16897339
0.0094999988 -0.0048955875 0.16885731
-0.006336892 -0.0028956542 0.1689961
-0.005830544 -0.0039389124 0.1687855
0.0094999988 -0.0031698372 0.16878814
-0.0067912601 -0.0011800597 0.16891833
0.0094999978 -0.00093419402 0.16911018
-0.0067711128 0.00097029447 0.16903602
0.0094999988 0.0013831306 0.16901261
-0.0063193776 0.0027024085 0.16926385
-0.0059133442 0.0035586501 0.16919965
0.0094999988 0.003089716 0.16902913
-0.0048948168 0.0049451478 0.16885036
-0.0038826442 0.0059295325 0.16894898
0.0094999988 0.0050534802 0.16888742
-0.0028318125 0.0066035879 0.16873214
-0.0014972324 0.0075810323 0.16907439
0.0094999988 0.0069865091 0.16895126
-0.000575146 0.008291631 0.1690353
0.00084111223 0.00938306 0.1690685
0.0094999988 0.0090550771 0.16904828
0.0018908652 0.010192042 0.16881731
0.0031107534 0.011132141 0.16892074
0.0041705598 0.011948871 0.1689975
0.0094999988 0.010997431 0.16876855
0.0052834614 0.012806521 0.16905108
0.0063743121 0.013647175 0.16886422
0.0094999988 0.012963589 0.16876224
0.007558594 0.014559834 0.16878517
0.009125906 0.014681654 0.1689965
0.0073575019 -0.014612588 0.17102873
0.009005296 -0.014993648 0.17108291
0.0050407648 -0.012855063 0.17104578
0.0061981669 -0.013733093 0.17094032
0.0094999988 -0.01301462 0.17100944
0.0014996832 -0.010168726 0.17086196
0.0029627841 -0.011278663 0.17098513
0.0094999988 -0.010849218 0.17107017
-0.00060037913 -0.0085755754 0.1709599
0.00058474013 -0.0094746314 0.17130199
0.0094999988 -0.0089929244 0.171092
-0.0030668413 -0.0067045297 0.17092526
-0.0015797984 -0.0078325663 0.17116825
0.0094999978 -0.0071750269 0.17103919
-0.0050076125 -0.0050206329 0.17104301
0.0094999988 -0.0050251209 0.17085895
-0.0063263867 -0.0028822119 0.17105587
-0.0058958232 -0.0038083536 0.17084467
0.0094999988 -0.0027676171 0.17093264
-0.0068141413 -0.00094563194 0.17119323
0.0094999978 -0.0010108938 0.17086242
-0.0068035857 0.0009030783 0.17087647
0.0094999988 0.00092959194 0.17114832
-0.006350819 0.0026224074 0.17077638
-0.0058910009 0.0035943987 0.17169286
0.0094999997 0.0031147606 0.17082794
-0.004797983 0.0050391457 0.17114513
-0.0038788763 0.0059330491 0.17059569
0.0094999988 0.0050926823 0.17104729
-0.002642839 0.0067385444 0.17111556
-0.0014315944 0.0076316148 0.17105404
0.0094999997 0.0068332306 0.1714154
-0.00054661289 0.0083136205 0.17061347
0.00097731093 0.0094880201 0.17093487
0.0094999988 0.0088544218 0.17085576
0.0017383483 0.010074507 0.17138205
0.0029940149 0.011042176 0.17099918
0.0040420541 0.011849839 0.17091957
0.0094999988 0.010962944 0.17065586
0.0050005377 0.012588488 0.17113246
0.0064250263 0.013686259 0.17108093
0.0094999988 0.013232751 0.17080866
0.0074313725 0.014461792 0.17104773
0.0091094803 0.014734513 0.1708771
0.0071446928 -0.014451148 0.1729984
0.0091459779 -0.014804047 0.17299657
0.0050901673 -0.012892541 0.17302744
0.0062907846 -0.013803354 0.17396763
0.0094999988 -0.013175366 0.17302489
0.0016553102 -0.010286788 0.17302766
0.0031483998 -0.011419476 0.17279127
0.0094999997 -0.011201082 0.17291124
-0.00080049719 -0.0084237605 0.17299645
0.00059604272 -0.0094832052 0.17315447
0.0094999988 -0.008861714 0.17312294
-0.003030394 -0.0067341165 0.17284755
-0.0016043835 -0.0078139147 0.17270775
0.0094999997 -0.006876633 0.17325878
-0.0050006611 -0.0050198389 0.17295478
0.0094999988 -0.0050060847 0.17271642
-0.0063596056 -0.0028330074 0.17287073
-0.0059479638 -0.0037040727 0.17395329
0.0094999988 -0.0030779298 0.17299755
-0.0068174195 -0.00092014641 0.17292231
0.0094999988 -0.0012951456 0.17310049
-0.0067439224 0.0012125114 0.1728885
0.0094999988 0.00084798469 0.17294627
-0.0062615294 0.0028534024 0.17282212
-0.0057847239 0.0037644419 0.1728584
0.0094999997 0.0027978204 0.17328182
-0.0049293367 0.0049040709 0.1729904
0.0094999988 0.0050964197 0.17266366
-0.0029077891 0.0065528923 0.17280932
-0.001417454 0.0076425131 0.17272572
0.0094999988 0.0069219763 0.17343794
-0.00055819593 0.0083046937 0.17310193
0.00076724618 0.0093261348 0.17304303
0.0094999997 0.0087515935 0.17306395
0.0017787487 0.010105642 0.17215814
0.0029846074 0.011034928 0.17303625
0.004036976 0.011845927 0.17352781
0.0094999978 0.010932622 0.17304587
0.0052203033 0.012757849 0.17301899
0.0064799837 0.01372861 0.17296581
0.0094999988 0.012849854 0.17297325
0.0074678357 0.014489892 0.17307585
0.0091660321 0.014651276 0.17307368
0.007422647 -0.014662006 0.17494947
0.0089787384 -0.01488606 0.17490216
0.0049725506 -0.012803314 0.17479436
0.0062876977 -0.013801012 0.17499976
0.0094999997 -0.012892863 0.17496899
0.0016579297 -0.010288774 0.17506079
0.0029659367 -0.011281055 0.17507072
0.0094999988 -0.010997912 0.1752301
-0.00051736715 -0.0086385487 0.17509669
0.00082690897 -0.009658346 0.17503066
0.0094999997 -0.0089788269 0.17487542
-0.0030300145 -0.0067339367 0.17516796
-0.0017676724 -0.0076900413 0.17472419
0.0094999997 -0.0069952174 0.17492615
-0.0049233646 -0.0051134638 0.17479596
0.0094999988 -0.0048697153 0.17480807
-0.0063325558 -0.0028873344 0.17501186
-0.0058958163 -0.0038083671 0.17484361
0.0094999997 -0.0033220337 0.17535271
-0.0068045091 -0.00096314552 0.17524044
0.0094999988 -0.0011277031 0.17501277
-0.00677031 0.0010898116 0.17511269
0.0094999988 0.0011298175 0.17474164
-0.0062902966 0.0027681519 0.17517523
-0.005814408 0.003716948 0.17474145
0.0094999988 0.003080155 0.17472926
-0.0048937835 0.004948034 0.17491165
-0.0038690111 0.0059422557 0.17473476
0.0094999988 0.0049070609 0.17509992
-0.0029534383 0.0065237121 0.17517753
-0.0014889652 0.007587404 0.17484628
0.0094999988 0.0071318187 0.17507641
-0.00050250534 0.0083476109 0.1749869
0.00088382751 0.0094159767 0.1750648
0.0094999988 0.0090470295 0.17496841
0.0018416389 0.010154108 0.17518696
0.0030281746 0.011068502 0.17490448
0.0041088681 0.011901328 0.17516933
0.0094999988 0.010997517 0.17504266
0.0051788385 0.012725893 0.17487101
0.0063507818 0.013629043 0.17497253
0.0094999997 0.012810037 0.17490768
0.0073463949 0.014396304 0.17450932
0.0090752607 0.014702299 0.17504148
0.0071853758 -0.01448201 0.17690051
0.0090034315 -0.014932982 0.17710544
0.0039585838 -0.012034098 0.17782876
0.0048232102 -0.012690021 0.17709146
0.0064341128 -0.013912086 0.17730384
0.0094999997 -0.012918007 0.17684433
0.0016860332 -0.010310095 0.17702645
0.0027178195 -0.011092828 0.17701501
0.0094999978 -0.010897567 0.17695747
-0.00064293767 -0.0085432893 0.17679913
0.00081837666 -0.0096518733 0.17705093
0.0094999988 -0.0088396436 0.17704529
-0.0032266185 -0.0065883989 0.17699388
-0.001668214 -0.0077654934 0.17735292
0.0094999997 -0.0072561251 0.1771992
-0.0048980117 -0.0051202271 0.1769934
0.0094999988 -0.0049691731 0.1768755
-0.0064063757 -0.0026986396 0.17717539
-0.005887269 -0.003825462 0.17697464
0.0094999988 -0.0028692968 0.17725773
-0.0067738015 -0.0012049214 0.1767195
0.0094999988 -0.00091259368 0.17717926
-0.0067572542 0.0010894838 0.17681539
0.0094999978 0.0012164365 0.17687346
-0.0063283169 0.0026814577 0.1770058
-0.0057916921 0.0037532933 0.17671901
0.0094999988 0.0029779857 0.17700711
-0.0046330295 0.0052085086 0.17706397
-0.0039058402 0.0059078829 0.17721069
0.0094999978 0.0050665396 0.1770726
-0.0028723844 0.0065714847 0.17685413
-0.0014312671 0.0076318681 0.17693247
0.0094999988 0.0068989922 0.17693226
-0.00044548701 0.0083915517 0.17693518
0.00081325619 0.0093615921 0.17713311
0.0094999988 0.009114176 0.17696363
0.0018055618 0.010126305 0.17691851
0.0031191653 0.011138624 0.17700839
0.0041555264 0.011937287 0.1768513
0.0094999978 0.010828807 0.17699985
0.0051663667 0.012716284 0.17724571
0.0064320588 0.013691678 0.17719299
0.0094999988 0.013139083 0.17703824
0.0074200621 0.014453075 0.17685464
0.0089869602 0.014722909 0.17711803
0.0073784282 -0.014628463 0.17898059
0.0090731196 -0.014845307 0.17902303
0.0050418712 -0.0128559 0.17922339
0.0062702387 -0.013787768 0.17907818
0.0094999997 -0.013117184 0.17889415
0.0016627245 -0.010292412 0.17918023
0.0030972462 -0.01138067 0.17896718
0.0094999997 -0.010878811 0.17893669
-0.00076314696 -0.0084520951 0.17889689
0.0006369187 -0.0095142145 0.17912669
0.0094999988 -0.0088417325 0.17905778
-0.0040136739 -0.0060045188 0.17929307
-0.0032232013 -0.0065904669 0.17927858
-0.0017034226 -0.0077387826 0.17890769
0.0094999978 -0.0067832652 0.17915268
-0.0050658477 -0.0049664923 0.17918628
0.0094999997 -0.005078237 0.17910925
-0.00631904 -0.0029174497 0.17889601
-0.0058586574 -0.003882685 0.1797632
0.0094999997 -0.0028805917 0.17894733
-0.0067815091 -0.0011385264 0.17885256
0.0094999988 -0.0010060439 0.17905436
-0.0067845634 0.00093016768 0.1791182
0.0094999988 0.0010129801 0.17906319
-0.0063730297 0.0025249338 0.17919403
-0.0058431658 0.0036709351 0.1790475
0.0094999988 0.0028754855 0.17920274
-0.0048931772 0.0049523935 0.17908816
0.0094999997 0.0049104141 0.17884788
-0.0028676118 0.0065923412 0.17912987
-0.001350497 0.0076941121 0.1790833
0.0094999988 0.0068763732 0.17888878
-0.00066926342 0.0082191005 0.17880195
0.00087875326 0.009412067 0.17868151
0.0094999988 0.0090232752 0.1789667
0.0018806614 0.01018418 0.17927915
0.0028677976 0.010944908 0.17888649
0.0094999988 0.01093063 0.17899336
0.0050818846 0.012651175 0.17894985
0.0064479765 0.013703947 0.17948747
0.0094999988 0.012704168 0.17907752
0.0073704123 0.014414812 0.17864792
0.0090457415 0.01478806 0.17900361
0.0072843251 -0.014557078 0.18093929
0.0089744898 -0.014952007 0.18104394
0.0052178372 -0.012989395 0.18100747
0.0063366578 -0.013838154 0.18140648
0.0094999988 -0.013002107 0.18094479
0.0015736212 -0.010224816 0.18078896
0.0028088663 -0.0111619 0.18101315
0.0094999988 -0.011019752 0.18085864
-0.00070987624 -0.008492508 0.18102473
0.00062592095 -0.0095058717 0.18120372
0.0094999988 -0.0088950424 0.18105863
-0.0033228418 -0.0065123006 0.18123783
-0.0017001594 -0.0077412589 0.18103944
0.0094999988 -0.0068226038 0.18096231
-0.0048522302 -0.0052013453 0.18096513
0.0094999988 -0.0049580312 0.18109332
