# .PCD v0.7 - Point Cloud Data file format
VERSION 0.7
FIELDS x y z
SIZE 4 4 4
TYPE F F F
COUNT 1 1 1
WIDTH 1232
HEIGHT 1
VIEWPOINT 0 0 0 1 0 0 0
POINTS 1232
DATA ascii
-0.0077780792 -0.10907861 -0.003344239
0.007721052 -0.10895917 -0.003460614
0.0081021339 -0.10879274 -0.0023939922
-0.0084163286 -0.10902283 -0.00079847412
0.0084207207 -0.10887942 -0.00088838604
-0.0083875125 -0.10909852 0.0011931922
0.0084044691 -0.10904642 0.00089341338
-0.0081798872 -0.10885537 0.0021599459
-0.0077325064 -0.10892618 0.0034203515
0.0076983594 -0.10903019 0.0035028863
0.0080986544 -0.10902021 0.0024655301
-0.006719667 -0.10900208 0.0051058461
-0.0059959898 -0.10871359 0.0059721163
0.0066532684 -0.10901427 0.005223813
-0.0049614962 -0.10907082 0.0068477388
-0.0035465113 -0.1089367 0.0076763509
0.0032506834 -0.10900512 0.0078079649
0.0050600348 -0.10899799 0.0067467103
-0.0023703752 -0.10901365 0.0081199743
-0.00098016125 -0.10909385 0.008400551
0.0010003357 -0.10906814 0.0084055243
0.0022789778 -0.10899139 0.0081399456
-0.0023466591 -0.11104925 -0.0081181834
-0.0010588556 -0.11113298 -0.0083922958
0.0010170606 -0.11091944 -0.0084005063
0.002546347 -0.11084171 -0.0080807777
-0.0049319654 -0.11114202 -0.0068386411
-0.0033407642 -0.11099321 -0.0077653942
0.0033798742 -0.11104365 -0.0077604647
0.0050996626 -0.11099363 -0.0067524961
-0.0067706406 -0.11099812 -0.0050648325
-0.005981558 -0.11110992 -0.0059867413
0.0067251232 -0.11101498 -0.0050841216
-0.0080806473 -0.11115477 -0.0025455561
-0.007719636 -0.11087395 -0.0034611302
0.0077732741 -0.11101632 -0.0033374524
0.0081028938 -0.11114489 -0.0023917211
-0.0083997734 -0.1111194 -0.0009599824
0.0084093753 -0.11098322 -0.0010086016
-0.008393364 -0.11084783 0.001116254
0.0083923582 -0.11085347 0.0010395901
-0.0081663858 -0.11108391 0.0022004375
-0.0077183954 -0.11074036 0.0034683114
0.0077281268 -0.1111033 0.0034433466
0.008105644 -0.1111931 0.0024347657
-0.0068353801 -0.11109977 0.0049243793
0.0059919413 -0.11071963 0.0059748623
0.006830065 -0.11097155 0.0049742437
-0.005082048 -0.11101281 0.0067549683
-0.0033426574 -0.11123061 0.0077782692
0.0032311357 -0.11092227 0.0078029027
0.0050339885 -0.11104541 0.0067767398
-0.0025401423 -0.11084226 0.0080813859
-0.0011443 -0.11103393 0.0083724968
0.00092854584 -0.11092029 0.0084054284
0.0023502673 -0.11079665 0.0081161764
-0.0023190649 -0.11286158 -0.0081273867
-0.0010300557 -0.11297186 -0.0084063038
0.0010347432 -0.11302368 -0.0084029734
0.0024372241 -0.11311667 -0.0081055863
-0.0050491132 -0.11309627 -0.0067517878
-0.0033450075 -0.11293763 -0.0077636009
0.0033944389 -0.1130641 -0.0077531906
0.004942141 -0.11303595 -0.0068535772
-0.0068137529 -0.11298397 -0.0050068302
0.0059809834 -0.11207981 -0.0059869844
0.0067432025 -0.11291099 -0.005086625
-0.008114201 -0.11303131 -0.0023979291
-0.0078026196 -0.11297802 -0.0032951694
0.0078035677 -0.11332341 -0.0032511691
0.0080962116 -0.11312585 -0.0024117744
-0.0083818296 -0.11300369 -0.0010708853
0.008404349 -0.11304208 -0.00099346321
-0.0084015559 -0.11291733 0.0010563013
0.0083825644 -0.11298042 0.0010533864
-0.0081063425 -0.11242601 0.0023805634
-0.0077586765 -0.11290625 0.0033454732
0.0077186236 -0.11295257 0.0034623453
0.008109659 -0.11313054 0.0024170945
-0.0068100551 -0.11285286 0.0049688122
0.0059894929 -0.11315086 0.0059774648
0.0067865606 -0.11294807 0.0050664269
-0.0051684887 -0.11283977 0.0066959816
-0.0035172964 -0.11315132 0.0076909414
0.0032281214 -0.11282425 0.0078126173
0.0050899298 -0.11297391 0.0067201233
-0.0024176762 -0.1125643 0.0081092119
-0.0010640309 -0.11306652 0.0083840182
0.0010557987 -0.11294641 0.0084005361
0.0024573414 -0.11316972 0.0080804769
-0.0023664725 -0.11490311 -0.0081115933
-0.00094998395 -0.11509743 -0.0084000034
0.00086783525 -0.11480097 -0.0084163612
0.0024180438 -0.11503069 -0.0081099523
-0.0050420966 -0.11495005 -0.0067555225
-0.0035964034 -0.11495616 -0.0076655378
0.0035227991 -0.11504654 -0.0076890169
0.0050613317 -0.11499841 -0.0067938557
-0.0068002813 -0.11486162 -0.0050409134
0.0067752418 -0.11499211 -0.0050248452
-0.0081007443 -0.11486673 -0.0024571461
-0.0077116112 -0.11495311 -0.0034771939
0.0077776294 -0.1149914 -0.003328095
0.0081286253 -0.11485022 -0.0023145427
-0.008400199 -0.11490788 -0.0010267649
0.0084166303 -0.11480021 -0.00090421108
-0.0083976472 -0.11508311 0.0010235265
0.0084169963 -0.11494967 0.00090341672
-0.0081060557 -0.11508355 0.0023814181
-0.0077466983 -0.11496013 0.0033919441
0.0077423104 -0.11522278 0.0034149615
0.0081002256 -0.11496172 0.0024585938
-0.0068258797 -0.11508615 0.0049392004
0.0067326091 -0.11512019 0.0051068934
-0.0050035943 -0.1150358 0.0068117939
-0.0034613307 -0.1149286 0.0077189188
0.0033326847 -0.11511776 0.0077722468
0.0051511587 -0.11494587 0.0066693439
-0.0022523208 -0.11488019 0.0081467833
-0.0010321393 -0.11502001 0.0083767055
0.0010949377 -0.11509213 0.0083960006
0.0022797636 -0.11477482 0.0081396643
-0.0022516777 -0.11684697 -0.0081498642
-0.0011863925 -0.11688022 -0.0083844652
0.0010101252 -0.11704557 -0.0084045026
0.0024932246 -0.11708879 -0.0080928747
-0.0051909615 -0.11695915 -0.006661898
-0.0034284408 -0.11701164 -0.0077354307
0.0034383305 -0.11692447 -0.0077312584
0.0049588955 -0.11692071 -0.0068262671
-0.0067921928 -0.11694012 -0.0050106961
0.0068274071 -0.11692076 -0.0049356469
-0.0081258044 -0.11687284 -0.0023468824
-0.0077234413 -0.11709231 -0.0034535418
0.0077957306 -0.11674122 -0.0032636684
0.0080933655 -0.11666248 -0.0024203253
-0.0083974227 -0.11709747 -0.0010080677
0.0084043667 -0.11687076 -0.0010018485
-0.0084011909 -0.11709458 0.0010457871
0.0084069567 -0.11703263 0.00093895575
-0.0081046158 -0.11669379 0.0023857311
-0.0077567119 -0.11720212 0.0033720122
0.0077360054 -0.11704897 0.0034275672
0.0080910893 -0.11675667 0.0024987878
-0.0067848037 -0.11706291 0.005026604
0.0059805876 -0.11788109 0.0059869466
0.0068561914 -0.1170731 0.0049585924
-0.004995917 -0.11687993 0.0068125282
-0.0035163588 -0.11689215 0.0076913987
0.0033800809 -0.11695025 0.0077532562
0.0050321571 -0.11707598 0.0067694108
-0.0024962758 -0.11712807 0.0080913315
-0.00092833448 -0.11695426 0.0084171724
0.0011933226 -0.11691237 0.0083876522
0.002311025 -0.11717748 0.0081292344
-0.0023828971 -0.11895676 -0.0081061311
-0.0010326125 -0.1192091 -0.0084037976
0.001154601 -0.11879776 -0.0083744498
0.0024756622 -0.11910135 -0.0080968719
-0.0048101633 -0.11919771 -0.0069284653
-0.0034096439 -0.11864945 -0.0077407574
0.0034336702 -0.11907195 -0.007733597
0.0047689406 -0.11899329 -0.0069968682
-0.0068093091 -0.11910342 -0.0049915523
0.0059828609 -0.11986391 -0.0059852521
0.0067589032 -0.11899412 -0.0050415555
-0.0080743888 -0.11884663 -0.0025731241
-0.0077090771 -0.11888106 -0.0034822784
0.0077507547 -0.11905927 -0.0033933772
0.0081085758 -0.11895673 -0.0023747038
-0.0083765611 -0.11916182 -0.0011232762
0.0084070377 -0.11901119 -0.00082764
-0.0083799893 -0.1187801 0.0012436182
0.0083775865 -0.11908663 0.0011638622
-0.0080821402 -0.11887658 0.0024531479
-0.0077413255 -0.11905362 0.0033988422
0.007753538 -0.11902378 0.0033924938
0.0081157852 -0.11893959 0.0023901176
-0.0068068667 -0.11910115 0.0049717259
0.0067804595 -0.11907691 0.0050517269
-0.0049063587 -0.11884115 0.0068832864
-0.00347702 -0.11911132 0.0077110589
0.003362068 -0.11900007 0.0077627739
0.004922722 -0.11906492 0.0068421476
-0.002324177 -0.11927521 0.0081304368
-0.0010426266 -0.11916248 0.0083958264
0.00094406231 -0.11896481 0.0084016006
0.0023307339 -0.11886763 0.0081226584
-0.0022562456 -0.12110041 -0.0081483563
-0.0011249452 -0.12113816 -0.0083841849
0.0011904825 -0.12085062 -0.0083672917
0.0023832289 -0.12102249 -0.0081178863
-0.004967846 -0.12103721 -0.0068154475
-0.0033581257 -0.12103446 -0.0077621546
0.0035553745 -0.12098242 -0.0076727518
0.0050351084 -0.12119536 -0.0067902179
-0.0068785916 -0.1210039 -0.0049549337
-0.00598465 -0.12139679 -0.0059834803
0.0067765675 -0.12100062 -0.0050256108
-0.0081008337 -0.12098196 -0.0024567763
-0.0077439789 -0.12084711 -0.0034124793
0.0077631976 -0.12092339 -0.003358694
0.0081045404 -0.12094779 -0.0023868151
-0.0083944304 -0.12097629 -0.0010064396
0.008417042 -0.12109142 -0.00087903131
-0.0084199328 -0.1210738 0.00084053952
0.0083976723 -0.12103444 0.00098195742
-0.0081449356 -0.12090756 0.0022647558
-0.0077590491 -0.12093896 0.003370842
0.0077224313 -0.12077972 0.0034546987
0.0081140343 -0.12101113 0.0023978134
-0.0068482272 -0.12108891 0.0049133417
0.0059772832 -0.12075919 0.0059904605
0.0069077178 -0.12086721 0.0048884056
-0.0050342088 -0.12114435 0.0067824735
-0.0035022981 -0.121093 0.0076984135
0.0033572682 -0.12082031 0.0077651455
0.0048802663 -0.12084235 0.006877691
-0.0024137259 -0.1209281 0.008110079
-0.00088089105 -0.12104299 0.0084178904
0.0010378578 -0.12095032 0.0084041664
0.002360051 -0.12100288 0.0081128795
-0.0024096384 -0.12319828 -0.0080972323
-0.00093592517 -0.12279598 -0.008415781
0.00091146049 -0.12303475 -0.0083993766
0.0023989433 -0.12314975 -0.008114323
-0.0049733543 -0.12313941 -0.006798733
-0.0033262211 -0.12289758 -0.0077688424
0.0035160377 -0.12327854 -0.0076924274
0.0050474107 -0.12294298 -0.0067933011
-0.0067464788 -0.12299886 -0.0051161894
0.0059707658 -0.12278203 -0.0059966012
0.0068927105 -0.12307128 -0.0048645623
-0.0080980975 -0.12280133 -0.0024688181
-0.0077474811 -0.12282816 -0.0034054844
0.0078130113 -0.12294445 -0.0032278888
0.0081129018 -0.12299567 -0.0023617372
-0.008399047 -0.12306324 -0.00098099664
0.0084016072 -0.12300182 -0.001062102
-0.0084232716 -0.12295841 0.00077548821
0.0084024817 -0.12305908 0.00098522822
-0.0081336014 -0.12290442 0.0022987495
-0.0077647776 -0.12309899 0.0033445053
0.007756249 -0.12293327 0.0033870589
0.0081305066 -0.1230495 0.0023253253
-0.0067561306 -0.12302887 0.0050500878
0.0068316893 -0.12297618 0.0049894499
-0.0050934753 -0.12307877 0.0067422078
-0.0033398813 -0.12312792 0.0077796145
0.0034170393 -0.12315148 0.007742818
0.0052303458 -0.12294041 0.006628077
-0.0024124947 -0.12286252 0.0081103519
-0.0011548148 -0.12315302 0.0083814999
0.00094817142 -0.1230476 0.0084093828
0.0023287132 -0.12281962 0.0081233187
-0.0024428226 -0.12509511 -0.0080861794
-0.00093682797 -0.12495006 -0.0084116813
0.001006946 -0.12511151 -0.008397527
0.0025033152 -0.12458531 -0.0080906078
-0.0050379294 -0.12488486 -0.0067611993
-0.0034682383 -0.12492366 -0.0077239815
0.0034194293 -0.1253608 -0.0077407397
0.0050380379 -0.12497479 -0.0067994827
-0.0066431924 -0.12523186 -0.0052467571
-0.0059782374 -0.12463992 -0.0059903315
0.0067568631 -0.12496732 -0.0050536543
-0.008103516 -0.12523432 -0.0024449863
-0.0077263135 -0.12484913 -0.0034478258
0.0077432073 -0.12501892 -0.0034136439
0.0081221182 -0.12505125 -0.0023341007
-0.0084009226 -0.12498539 -0.0010518732
0.0084009105 -0.12488903 -0.0010662897
-0.0084354626 -0.1248634 0.00066716346
0.0083675534 -0.12492448 0.0011639051
-0.0080938647 -0.1250972 0.0024179542
-0.0077781524 -0.12510718 0.0033263641
0.0077307504 -0.12489401 0.0034380471
0.008094592 -0.12485252 0.0024833432
-0.006803365 -0.12495746 0.0049860836
0.0068169488 -0.12496021 0.0050186738
-0.0051062121 -0.12498455 0.0067438567
-0.0033706755 -0.12503538 0.0077642105
0.0033650997 -0.12521625 0.007754988
0.0050759162 -0.12498843 0.0067324508
-0.002283128 -0.12517665 0.0081397453
-0.0010096637 -0.12499905 0.0084007019
0.00095640548 -0.12507451 0.0084040388
0.0023744237 -0.12516674 0.008108072
-0.0023770113 -0.12708504 -0.0081081223
-0.00097464072 -0.127206 -0.0084086023
0.00095199508 -0.12710311 -0.0084152687
0.0024678428 -0.12688187 -0.0080986768
-0.005002779 -0.12694839 -0.0067781061
-0.0034279523 -0.12679099 -0.0077291029
0.0034170663 -0.12691246 -0.0077419272
0.0050431592 -0.12705234 -0.0067848
-0.0067696082 -0.12694994 -0.0050922325
0.0059822211 -0.12706263 -0.0059858779
0.0069040619 -0.12698589 -0.0048463987
-0.0080994908 -0.12686755 -0.002462703
-0.0077645238 -0.12696289 -0.0033714124
0.0077423472 -0.12732185 -0.0033991057
0.0081476541 -0.12683611 -0.0022574959
-0.0083937328 -0.12701829 -0.0010113218
0.0084146466 -0.12698059 -0.00088775397
-0.0083923712 -0.12689129 0.0010984488
0.008371369 -0.12678549 0.0011454218
-0.0081016086 -0.12692051 0.0023947163
-0.007757775 -0.12698288 0.003359566
0.0078069451 -0.12707596 0.0032856495
0.0080928449 -0.1270262 0.0024910234
-0.0067854016 -0.12686585 0.0050109709
-0.005994834 -0.12649453 0.0059731347
0.0068427147 -0.127076 0.0049627451
-0.0048120497 -0.12692697 0.0069656237
-0.0035024674 -0.12701233 0.0076983082
0.0033671088 -0.12706257 0.0077497647
0.004976131 -0.12708275 0.0067984392
-0.0024604811 -0.12702049 0.0080994312
-0.0012589516 -0.12690866 0.0083491439
0.00094256428 -0.1270676 0.0084097479
0.0022714669 -0.12733187 0.0081423838
-0.0022986552 -0.12894268 -0.0081342477
-0.0010169371 -0.12908545 -0.0084010428
0.00096943276 -0.12892455 -0.0084034894
0.0024698311 -0.12900715 -0.0080982335
-0.0048311288 -0.128921 -0.0069051902
-0.0033717433 -0.12886903 -0.0077562705
0.0034369386 -0.12894326 -0.0077319974
0.0049645212 -0.12888877 -0.0068608266
-0.0067184716 -0.12912397 -0.0051437584
0.0059768017 -0.12940425 -0.0059909667
0.0066247107 -0.12894 -0.0052393144
-0.0081125312 -0.12918994 -0.0024053357
-0.0076805111 -0.12875314 -0.0035394439
0.0077193524 -0.12913284 -0.0034743696
0.0081119034 -0.12923864 -0.0023647563
-0.0083871856 -0.12893571 -0.0010213434
0.0084022628 -0.12884246 -0.0011068445
-0.0084208986 -0.12897246 0.00084737584
0.0083952798 -0.12900479 0.0010520349
-0.0081027923 -0.12914225 0.0023911546
-0.0077460418 -0.12902492 0.0033922573
0.0077304989 -0.12880729 0.0034385377
0.0081054419 -0.12902007 0.0024355904
-0.0067430055 -0.12888905 0.0050492063
-0.005984203 -0.12968059 0.005983091
0.0059967209 -0.1297247 0.0059696948
0.0068028048 -0.12904386 0.0050341529
-0.0050842608 -0.12902987 0.0067370529
-0.0035048113 -0.1291007 0.0076971268
0.0032185712 -0.12907253 0.007820772
0.0049560238 -0.12904581 0.0068228953
-0.0024916392 -0.12893581 0.0080923429
-0.00090848072 -0.12903607 0.0084177563
0.0010102281 -0.12900268 0.0084006777
0.0023879944 -0.12909122 0.0081035336
-0.0022404362 -0.13075656 -0.0081536612
-0.0011786985 -0.13096787 -0.0083874827
0.00099487999 -0.13106962 -0.0084097292
0.0024287719 -0.13105871 -0.0081075719
-0.0049619027 -0.13096432 -0.0068145953
-0.0033734862 -0.13101797 -0.0077588311
0.0034703959 -0.13134181 -0.0077152783
0.0050303005 -0.13093987 -0.006801906
-0.0068375715 -0.13108429 -0.0049546254
-0.0059904754 -0.13145308 -0.0059773023
0.0067485352 -0.13116153 -0.005056961
-0.0081020864 -0.13099462 -0.0024512976
-0.0077148704 -0.13093288 -0.0034707359
0.0077754962 -0.13091153 -0.0033227594
0.0081236055 -0.13110331 -0.0023296571
-0.0083846962 -0.13093573 -0.0010858841
0.0083998935 -0.13103752 -0.0010009321
-0.0084065488 -0.13103105 0.0009472635
0.0084073311 -0.13108559 0.00089367456
-0.008152537 -0.13073312 0.0022419149
-0.0077296542 -0.13078098 0.0034310087
0.0077313608 -0.1310825 0.0034368045
0.0081012854 -0.13103369 0.0024538736
-0.0068877637 -0.13102208 0.0048527089
-0.0059882165 -0.13007228 0.0059793261
0.0059828735 -0.13057677 0.0059844623
0.0067847199 -0.13105242 0.0050579426
-0.0049029342 -0.13103171 0.0068893498
-0.0036685292 -0.13104583 0.0076152617
0.0032723434 -0.13099341 0.0077930503
0.0048566777 -0.13094783 0.006878546
-0.002549262 -0.13067292 0.008079242
-0.00095443055 -0.13102117 0.0084114587
0.00098057091 -0.1309296 0.0084074978
0.0023802293 -0.13115868 0.0081061153
-0.0022868174 -0.13265273 -0.008135288
-0.0010598667 -0.13258846 -0.0083725601
0.0011861445 -0.132633 -0.0083062015
0.0023316266 -0.13225627 -0.0081296554
-0.0048540733 -0.13261986 -0.0067028226
-0.0031994707 -0.13298909 -0.00724262
-0.00095302938 -0.1331674 -0.0075326939
0.00095447898 -0.13328405 -0.0074596629
0.0031736707 -0.13311557 -0.0071989577
0.004754262 -0.13274403 -0.0067180051
-0.0065842946 -0.13282607 -0.0048692804
-0.0054172077 -0.1333309 -0.0051666191
0.0054201283 -0.13333626 -0.0052480497
0.0064750132 -0.13286056 -0.0048781252
-0.0080933869 -0.13248493 -0.0024449725
-0.0072022802 -0.13308331 -0.0031590676
0.0072215861 -0.1331152 -0.0030323758
0.0082055666 -0.13250019 -0.00208378
-0.0082932748 -0.13265675 -0.0010999438
-0.0074584931 -0.13343574 -0.0011760219
0.0074669039 -0.13331623 -0.00094080187
0.0083439481 -0.13266157 -0.00097143545
-0.0083153676 -0.13265929 0.00086974533
-0.0074413354 -0.13332359 0.0012031926
0.0075383908 -0.13326104 0.0010838811
0.0083578639 -0.13274176 0.0009150937
-0.0081065474 -0.13279311 0.0023798766
-0.0072487677 -0.13298994 0.0031628008
0.0072446042 -0.13312411 0.002956653
0.0081411749 -0.13267435 0.0022783538
-0.0066569322 -0.13271908 0.0048892736
-0.0053772586 -0.13329577 0.0053279973
0.0053015961 -0.13335915 0.0053427615
0.0067773676 -0.13280435 0.0047542895
-0.0048068082 -0.13296489 0.0065761949
-0.0030866379 -0.13314305 0.0071319686
-0.00092598627 -0.1333216 0.0074993246
0.001209986 -0.13332245 0.0075189099
0.0032598637 -0.13312304 0.0070810616
0.0047761276 -0.13278385 0.0066294982
-0.0023800156 -0.13246888 0.0081176991
-0.00087865454 -0.13256344 0.0083794799
0.0010383801 -0.13275959 0.0082958071
0.0024159923 -0.13262846 0.0080941888
-0.0041647553 -0.13494124 -0.0061372193
-0.0029827228 -0.13508901 -0.0068189269
-0.0010049909 -0.13496675 -0.0073800883
0.0010530829 -0.1351531 -0.0073818169
0.0028042714 -0.13470565 -0.0069308737
0.0044375896 -0.13478975 -0.0060628988
-0.0062382994 -0.13456425 -0.0042079571
-0.0051539699 -0.13478209 -0.0053361109
0.005214015 -0.13496603 -0.005269289
0.006119675 -0.13504823 -0.0041900529
-0.0067770234 -0.13494264 -0.0031213078
0.0067674704 -0.13483807 -0.0030430551
-0.0073837056 -0.13508278 -0.0010377932
0.0073720389 -0.13499418 -0.0010490309
-0.0073716608 -0.1350394 0.0010964689
0.0073998142 -0.13505459 0.00092042988
-0.0068350025 -0.13511583 0.0029049951
0.0068144533 -0.1349476 0.00302282
-0.0061204792 -0.13477266 0.0041879071
-0.0052487953 -0.13506033 0.0052363174
0.0051975739 -0.13501468 0.0052887346
0.0061430219 -0.13489075 0.0043399795
-0.0043061799 -0.13528125 0.0061612176
-0.0030069817 -0.13498461 0.0068365317
-0.0011500003 -0.13508773 0.007365834
0.0011362931 -0.13507029 0.0073594302
0.0030502737 -0.13525869 0.0067701931
0.0042254408 -0.13500406 0.0060945204
-0.0042010634 -0.13697337 -0.0061122654
-0.0029537086 -0.13697526 -0.0068234303
-0.00081169337 -0.13696899 -0.0074030482
0.00096527487 -0.13719086 -0.0073982803
0.0030120208 -0.13719761 -0.0068256832
0.004373576 -0.13733901 -0.0061215344
-0.0061440724 -0.13693075 -0.0043369387
-0.0051910006 -0.1369675 -0.0052969088
0.0054110815 -0.13705453 -0.0050642826
0.0061473278 -0.13690594 -0.004149837
-0.0068063168 -0.13698679 -0.0030661847
0.0068225469 -0.13704358 -0.0029841545
-0.0074078324 -0.13688613 -0.00095617713
0.0073788934 -0.13709128 -0.00097222213
-0.0073869196 -0.13701719 0.00093492109
0.00738726 -0.1371558 0.0010500212
-0.0068443608 -0.13704804 0.0029245361
0.006792089 -0.13705198 0.0030910999
-0.0061228806 -0.13703561 0.0041844053
-0.0053127366 -0.13693371 0.0051676328
0.005161365 -0.13733041 0.0053267633
0.0062104021 -0.13699771 0.0042473786
-0.0042218938 -0.13692945 0.0062259235
-0.0028377401 -0.13697512 0.0068869879
-0.00096242025 -0.13687474 0.0074019264
0.0011106422 -0.13704617 0.0073746969
0.003018003 -0.13707343 0.006790678
0.0041646995 -0.13692169 0.0061362744
-0.0042380546 -0.1388381 -0.0060868408
-0.0031388106 -0.13915217 -0.0067535094
-0.00095386384 -0.13904697 -0.0073860995
0.00088673393 -0.13880876 -0.0074139372
0.00277045 -0.13889647 -0.0069296351
0.0042784354 -0.13900439 -0.0061833123
-0.0061635748 -0.13906609 -0.0043038991
-0.0052165873 -0.13881311 -0.0052665034
0.0052767573 -0.13891254 -0.0052042743
0.0061389147 -0.13894607 -0.004162082
-0.0068058865 -0.1390162 -0.0030487913
0.0067276852 -0.13885687 -0.0031397287
-0.0073840166 -0.13874802 -0.0010605094
0.0074062934 -0.13901308 -0.00077991019
-0.0073771626 -0.1391086 0.0010608892
0.0073979241 -0.13896549 0.0010081357
-0.0067469045 -0.13908757 0.003092092
0.0068165185 -0.13913144 0.0030261884
-0.0061289128 -0.13881461 0.0041756243
-0.0052804421 -0.13898125 0.0052030049
0.0051077958 -0.13887107 0.0053699142
0.0061993585 -0.13894145 0.0042575677
-0.0043015671 -0.13907094 0.0061656507
-0.0030684462 -0.13905723 0.0068016229
-0.0010244955 -0.13917787 0.0073854784
0.00086138438 -0.13903867 0.007395579
0.0031621933 -0.13889311 0.0067231804
0.0041729761 -0.13873209 0.0061305771
-0.0042052651 -0.14092574 -0.0061093913
-0.0028903503 -0.14102779 -0.0068489378
-0.0011760007 -0.14094812 -0.0073636491
0.0012755968 -0.14099814 -0.007354157
0.0026979716 -0.14105786 -0.0069666002
0.0043184645 -0.1406918 -0.0061608991
-0.006180502 -0.14104718 -0.0042832214
-0.0052212342 -0.14105721 -0.0052583404
0.0051734885 -0.14100413 -0.005316352
0.0060802614 -0.1409622 -0.0042474037
-0.006877596 -0.14099933 -0.0028978309
0.0067859879 -0.14093824 -0.0030185431
-0.0073909271 -0.14093454 -0.0010072682
0.0073863766 -0.1410559 -0.00095987768
-0.0073454082 -0.14101887 0.001260916
0.0073920125 -0.14100839 0.0010651189
-0.0068711322 -0.14100808 0.0028538862
0.0067773918 -0.14096801 0.003114959
-0.0061072749 -0.14130132 0.0042070895
-0.005318989 -0.14100556 0.0051638875
0.0051763621 -0.14105873 0.0053011253
0.0061865351 -0.14108798 0.0042725792
-0.0043695793 -0.14091019 0.0061290851
-0.0030758469 -0.14095883 0.0068061622
-0.00098261668 -0.14091912 0.007389762
0.00097310869 -0.140865 0.0073811682
0.0030927041 -0.1409238 0.0067575127
0.0042124167 -0.14110854 0.0061034528
-0.0041779988 -0.14326605 -0.0061281454
-0.0030054592 -0.14298058 -0.0067927609
-0.0011013965 -0.14300482 -0.0073729218
0.00084269937 -0.14306854 -0.0074182418
0.0029596905 -0.14289017 -0.0068569039
0.0042736903 -0.14290899 -0.0061805774
-0.0062217438 -0.14299102 -0.004243311
-0.0052137007 -0.14323907 -0.005273418
0.005304405 -0.14308183 -0.0051779463
0.0061381822 -0.14319633 -0.0041631619
-0.0067469808 -0.14305915 -0.003164209
0.0067304038 -0.1428425 -0.0031564599
-0.0073893168 -0.14321801 -0.0010094536
0.0073908274 -0.14279123 -0.00089735165
-0.0073931748 -0.1428736 0.00093166379
0.0074071884 -0.14316042 0.00091419829
-0.0067913015 -0.14300419 0.003022033
0.0068031503 -0.14300244 0.0030371004
-0.0061655445 -0.14311805 0.0041223266
-0.0052942229 -0.14280872 0.005197288
0.0052345032 -0.1428638 0.0052465145
0.0062393532 -0.14264087 0.0041973419
-0.0043106778 -0.14268729 0.0061684581
-0.0029870863 -0.14316259 0.0068318271
-0.0009247603 -0.14300701 0.0074047199
0.0012059979 -0.14296734 0.0073482208
0.0030557418 -0.14298494 0.0067825792
0.0041607781 -0.14311847 0.0061389473
-0.00421328 -0.14464381 -0.0061038942
-0.0030656729 -0.14507411 -0.006773293
-0.00076039188 -0.14506719 -0.0074067432
0.0010054022 -0.14506641 -0.0073952205
0.0030848924 -0.14497349 -0.0067875241
0.0042569037 -0.1447423 -0.0062057935
-0.0062256167 -0.14500697 -0.004213958
-0.0052608387 -0.14514405 -0.0052282168
0.0052064639 -0.14499229 -0.0052895984
0.0061832354 -0.14462568 -0.0040976363
-0.0068552392 -0.14488892 -0.0029598738
0.0068002213 -0.14502075 -0.0029874274
-0.0073994156 -0.14510626 -0.0010085831
0.0073695672 -0.14513165 -0.0011103101
-0.0073747952 -0.1448631 0.0010661322
0.0073695802 -0.14499073 0.0011654521
-0.0067778309 -0.14511579 0.0030398895
0.0068022995 -0.14487609 0.003048111
-0.0060791676 -0.1448395 0.0042479602
-0.005374969 -0.14493258 0.0051099244
0.0052201054 -0.14489178 0.0052703288
0.0062260767 -0.14481799 0.0042288303
-0.0041862591 -0.14512324 0.0062361825
-0.0030684471 -0.14507413 0.0067935484
-0.0011525262 -0.14511324 0.0073751598
0.00078261498 -0.14493163 0.0074061602
0.0030336487 -0.14508623 0.0067858165
0.0041731829 -0.14483149 0.0061304122
-0.0041454807 -0.14728275 -0.0061505153
-0.0029224826 -0.14710157 -0.0068455441
-0.0010363328 -0.14702949 -0.0073690149
0.0010630876 -0.14698701 -0.0073809987
0.002903976 -0.14692393 -0.0068747462
0.0042182594 -0.14712997 -0.0062330281
-0.0062718936 -0.14692156 -0.0041423929
-0.0050636465 -0.14680295 -0.0054115546
0.0052245287 -0.14717121 -0.0052601192
0.0061307424 -0.14749202 -0.004174001
-0.0068209786 -0.14709163 -0.0030067712
0.0067893667 -0.14715256 -0.003008103
-0.0074040811 -0.14701901 -0.0009624887
0.0073926724 -0.14679693 -0.0008676303
-0.0073639425 -0.14690103 0.0011050017
0.0073714266 -0.14685355 0.0011523872
-0.006804171 -0.14694822 0.0029848253
0.0068006716 -0.14699094 0.0030718707
-0.0060982504 -0.1469088 0.0042201951
-0.0051511056 -0.14695983 0.0053368383
0.0052825059 -0.14697176 0.005209221
0.0062285908 -0.1466625 0.0042022737
-0.0042259796 -0.14698327 0.0062139947
-0.0029213775 -0.14685167 0.0068614227
-0.0011762689 -0.14707573 0.0073675131
0.00092911668 -0.14708504 0.0073889876
0.0030566412 -0.14693692 0.0067704455
0.0041366732 -0.14713162 0.0061555048
-0.0041845073 -0.14910296 -0.0061236918
-0.0027752544 -0.14893386 -0.0069036731
-0.0010703986 -0.14912257 -0.0073796385
0.0011539084 -0.14890911 -0.007373109
0.0030626033 -0.14881085 -0.0067980965
0.0042625275 -0.14932953 -0.0061896746
-0.0061797518 -0.14913397 -0.0042754863
-0.0050957836 -0.14895962 -0.0053734332
0.0052907094 -0.14905609 -0.0051906165
0.0061075552 -0.14902431 -0.0042077322
-0.0067637553 -0.14908144 -0.0031335629
0.0067840084 -0.14893569 -0.0030434052
-0.007403655 -0.14907756 -0.00089689903
0.0073701497 -0.14890705 -0.0010291821
-0.0073940018 -0.14886333 0.00091952924
0.0073825568 -0.14901511 0.0010985974
-0.0067691216 -0.14916219 0.0030510148
0.0068070455 -0.14910749 0.0030439759
-0.0061206082 -0.1490099 0.0041876668
-0.005140705 -0.14908943 0.005350431
0.0051660729 -0.14894059 0.0053207614
0.0061728577 -0.14898391 0.0042903447
-0.0042352527 -0.14877582 0.006212465
-0.0029810553 -0.14904466 0.0068413401
-0.0010923401 -0.14897531 0.007371787
0.001136073 -0.14907183 0.0073539317
0.0030425007 -0.14912769 0.0067912959
0.0041666809 -0.14901222 0.0061348677
-0.0041765445 -0.15068723 -0.0061291712
-0.0031009128 -0.15091537 -0.0067530577
-0.00083146559 -0.15088984 -0.0074070506
0.00090509013 -0.15095587 -0.0074008731
0.002962356 -0.15097024 -0.0068448605
0.0042248638 -0.15080099 -0.0062208045
-0.0062366445 -0.1511409 -0.0041901832
-0.0052355812 -0.15101276 -0.0052481215
0.0053393203 -0.15079711 -0.0051420764
0.0061455462 -0.15091494 -0.0041524791
-0.0068622767 -0.15086605 -0.0029173095
0.006766981 -0.15093148 -0.0030374739
-0.007352348 -0.15120466 -0.0011464757
0.0074149054 -0.15099107 -0.00077326654
-0.0073875342 -0.15110844 0.00096370617
0.007392229 -0.15107939 0.00096355908
-0.0068170759 -0.15089473 0.002976056
0.0068815267 -0.15082569 0.0028629103
-0.00609136 -0.15090172 0.0042302036
-0.0053740698 -0.15095186 0.0051016356
0.0051490474 -0.15099491 0.00532855
0.0061700745 -0.15097547 0.0042925864
-0.0042310893 -0.15101345 0.0062116128
-0.0028338362 -0.15101235 0.0068973866
-0.00098008558 -0.15101977 0.0074050687
0.0011468579 -0.15096962 0.0073624975
0.0032942165 -0.15109895 0.0066521345
0.0042035878 -0.15134755 0.0061094859
-0.0041680699 -0.15269624 -0.006135006
-0.0028797309 -0.15303046 -0.0068600085
-0.00091146742 -0.15296413 -0.0073925536
0.00095439435 -0.15295844 -0.0074026012
0.0029924198 -0.15322854 -0.0068420116
0.0042822845 -0.15271468 -0.0061861342
-0.0061335051 -0.15287447 -0.0043432405
-0.0052944338 -0.15306668 -0.0052005085
0.0053722705 -0.15296745 -0.0051040915
0.0061577335 -0.15307148 -0.0041347602
-0.0067171566 -0.15288875 -0.003234626
0.0067852894 -0.15300404 -0.0030301155
-0.0073835719 -0.15293929 -0.0010861672
0.0073733674 -0.15321925 -0.0009585548
-0.0073960014 -0.15321839 0.00093039841
0.007410707 -0.15301929 0.00091001648
-0.0066794348 -0.15303323 0.0032424708
0.0068453657 -0.1530332 0.0029600707
-0.0061482992 -0.15282845 0.004147375
-0.0052050855 -0.1530937 0.0052808491
0.0052816924 -0.15303816 0.0052057425
0.0061500855 -0.15301181 0.0043232688
-0.00423451 -0.15324831 0.006203704
-0.0030339211 -0.15308565 0.0067981817
-0.0011511553 -0.15295447 0.0073711094
0.0010891634 -0.15310059 0.0073631778
0.0031104812 -0.15295829 0.0067333574
0.0041955211 -0.15287882 0.0061150263
-0.0041098786 -0.15497476 -0.0061750198
-0.0031345331 -0.15480085 -0.0067360126
-0.0011484163 -0.15489745 -0.007365413
0.0011801836 -0.15498525 -0.0073637003
0.0030188253 -0.15500411 -0.0068237917
0.0042671002 -0.15498956 -0.0061970488
-0.0062318472 -0.15460354 -0.0042085908
-0.0052512703 -0.15483564 -0.005234526
0.0053022709 -0.15491995 -0.0051819803
0.006113762 -0.15504545 -0.0041987258
-0.0068509527 -0.15506858 -0.0029309096
0.0067432541 -0.1549463 -0.0030882882
-0.0073651704 -0.1549553 -0.001083498
0.0073949406 -0.15487644 -0.00085021416
-0.0073788813 -0.15501708 0.00098008255
0.0074122087 -0.15515184 0.00081660057
-0.0068203919 -0.15503274 0.0029359162
0.006798767 -0.1549502 0.0030411503
-0.006136965 -0.15519167 0.0041638529
-0.0052802362 -0.15509385 0.0051974216
0.0050948304 -0.15495104 0.0053790137
0.0062198695 -0.15477769 0.0042171534
-0.0042096195 -0.1552494 0.0062259859
-0.0030435049 -0.155104 0.0068053678
-0.00090954133 -0.15499018 0.0074041113
0.000911674 -0.15497546 0.007387985
0.0030657281 -0.1549041 0.0067656399
0.0041125966 -0.15408801 0.0061720321
-0.0041984534 -0.15720977 -0.0061141332
-0.0030159112 -0.15695669 -0.0068029347
-0.0010014987 -0.1569833 -0.0073752184
0.00096338533 -0.15702243 -0.0073971869
0.0031022693 -0.15686084 -0.0067850826
0.0042619272 -0.15696964 -0.0061906399
-0.0061745397 -0.15685385 -0.0042900811
-0.0051463563 -0.15697333 -0.0053391047
0.0053798445 -0.15709268 -0.0050958409
0.0060740192 -0.15686472 -0.0042565404
-0.0067859949 -0.15703619 -0.0030671633
0.0067464132 -0.15698275 -0.0030864342
-0.0074030692 -0.15702002 -0.00091895967
0.0073871212 -0.15709944 -0.00091951631
-0.0074039251 -0.15696275 0.0008273829
0.0073950072 -0.15704128 0.0010145284
-0.0068935244 -0.1570202 0.0027935326
0.006770107 -0.15693553 0.0031300008
-0.0061050523 -0.1566368 0.0042102663
-0.0053254287 -0.15689614 0.0051584621
0.0052120537 -0.15718642 0.0052758395
0.0062160608 -0.15725669 0.0042167483
-0.0043142289 -0.15722968 0.0061610593
-0.0030939053 -0.15693419 0.0067710262
-0.0011130302 -0.15694867 0.0073735504
0.00097005867 -0.1569898 0.0073777149
0.0032379602 -0.15694046 0.0066729351
0.0041907202 -0.15733881 0.0061183101
-0.0040949434 -0.15872118 -0.0061853011
-0.0030552743 -0.1590443 -0.0067531089
-0.00072421011 -0.15897563 -0.0074089505
0.00094158592 -0.15891536 -0.007406577
0.0030381479 -0.15898785 -0.0068152365
0.0042287628 -0.15908094 -0.0062228427
-0.0061794035 -0.15914263 -0.0042806109
-0.0051041832 -0.15892757 -0.00537223
0.0052516209 -0.15901706 -0.0052288235
0.006111871 -0.15892194 -0.0042014904
-0.006817766 -0.15893933 -0.0030073531
0.0067827837 -0.15902014 -0.0030364718
-0.0073816045 -0.15886448 -0.0010575147
0.0073846877 -0.15888457 -0.0009853075
-0.0073953774 -0.15915313 0.0008705855
0.0073940991 -0.15896077 0.00098240562
-0.0068295863 -0.15879655 0.0029477531
0.0068136975 -0.15895353 0.0030355365
-0.0061265575 -0.15884942 0.004178978
-0.0051708701 -0.1590049 0.0053153657
0.0052644014 -0.15902248 0.0052177636
0.0061883926 -0.15924861 0.0042792941
-0.0042481162 -0.15864344 0.0062028081
-0.0028791919 -0.15893079 0.0068849912
-0.0008877808 -0.15911761 0.0074091363
0.0010458766 -0.15882896 0.0073624547
0.003276773 -0.15902844 0.0066572786
0.0041629537 -0.15895855 0.0061373934
-0.0042887973 -0.16114646 -0.0060520358
-0.0031190191 -0.16096964 -0.0067543047
-0.00091821316 -0.16083843 -0.0073855356
0.0010227823 -0.1610191 -0.0073879873
0.0031158586 -0.16093887 -0.0067789662
0.004272426 -0.16122548 -0.0061874432
-0.0061951391 -0.16090229 -0.0042466633
-0.0053082234 -0.16095538 -0.0051766583
0.0053377477 -0.16092587 -0.0051315124
0.0061624022 -0.16116422 -0.0041279993
-0.006796883 -0.16104764 -0.0030403975
0.0067489902 -0.16098787 -0.0030916389
-0.0073992168 -0.16114223 -0.00095943711
0.007342271 -0.16104782 -0.0012635713
-0.0073885201 -0.16076522 0.00094601617
0.0074050603 -0.16116904 0.00089256361
-0.0067412443 -0.16100414 0.0031174002
0.0067712353 -0.16083582 0.0031115271
-0.0061076386 -0.16095057 0.0042064893
-0.0054612984 -0.16085158 0.0050118794
0.0052865874 -0.16103572 0.0052012871
0.0061792703 -0.16103709 0.0042689056
-0.0043271594 -0.16118035 0.006152337
-0.0030418029 -0.16099024 0.0068062344
-0.0009962956 -0.16120769 0.0073864739
0.00099944242 -0.16092317 0.0073739663
0.0029845175 -0.16094506 0.0068048374
0.0042003384 -0.16081867 0.0061116857
-0.0041813701 -0.16329336 -0.0061258995
-0.0029974706 -0.16288695 -0.0067937239
-0.0010093891 -0.16309159 -0.0073868879
0.00089728431 -0.16295488 -0.0074085318
0.0030923758 -0.16294046 -0.0067989407
0.0042669578 -0.16322009 -0.0061911824
-0.0062108259 -0.16318563 -0.0042523686
-0.0051945695 -0.16325232 -0.005297421
0.0052548 -0.16315407 -0.0052251182
0.0061193341 -0.16325906 -0.0041906508
-0.0068126135 -0.16303986 -0.0030201173
0.0067388741 -0.16303158 -0.0031451725
-0.0073815221 -0.16305166 -0.001089853
0.0073726736 -0.16287056 -0.0010539065
-0.0073810359 -0.16305752 0.00098535686
0.0074047102 -0.16305271 0.00094522163
-0.0067721466 -0.16299348 0.0030485387
0.0067205154 -0.16300091 0.0032238858
-0.0061109895 -0.16298419 0.0042016078
-0.0051945806 -0.16310045 0.0052975961
0.0052635362 -0.16307443 0.0052212612
0.0061685983 -0.16359197 0.0043109949
-0.0041654645 -0.16275221 0.0062507628
-0.0030926345 -0.16303834 0.0067811771
-0.0010433239 -0.16308331 0.007384243
0.00094450143 -0.16322097 0.0073796734
0.0030135915 -0.16301632 0.0067813043
0.0041631944 -0.16296123 0.0061372141
-0.0041362192 -0.16509433 -0.0061569475
-0.0030748921 -0.16517006 -0.0067732888
-0.0010624869 -0.16504613 -0.0073698154
0.00095122214 -0.16490901 -0.0073930165
0.0030653048 -0.16495882 -0.0068036048
0.0041706059 -0.16479248 -0.0062474911
-0.0061505758 -0.16501126 -0.0043004849
-0.0051147025 -0.16506782 -0.0053638192
0.0052359202 -0.16483222 -0.0052505354
0.0060645612 -0.16497119 -0.0042703263
-0.0068197562 -0.16492681 -0.0030089431
0.0067266165 -0.16519642 -0.0031391291
-0.0073549501 -0.16499177 -0.0012099275
0.0073922025 -0.1649522 -0.00088296301
-0.0073837205 -0.16486923 0.0010060212
0.0073949583 -0.16515182 0.0010119688
-0.0067342604 -0.16479412 0.0031308187
0.0068683713 -0.16479969 0.0028885659
-0.0061096465 -0.16526961 0.0042035528
-0.0052123829 -0.16509844 0.0052723549
0.0051963585 -0.16501835 0.0052829734
0.0062219212 -0.1646055 0.0041941036
-0.0043050568 -0.16468662 0.0061604711
-0.0029229168 -0.16502826 0.006856868
-0.0010228396 -0.16493374 0.0073896321
0.0010512468 -0.16488338 0.0073602083
0.003041367 -0.16494977 0.0067847376
0.0041964245 -0.16472597 0.0061143623
-0.0042293696 -0.16739652 -0.0060929148
-0.0030534028 -0.16692676 -0.0067744004
-0.0011841448 -0.16698605 -0.0073680966
0.0010792835 -0.16699407 -0.0073790555
0.0029098182 -0.16703764 -0.0068779192
0.0042691282 -0.16719066 -0.0061817877
-0.0061352961 -0.16703679 -0.0043423912
-0.005236702 -0.16700754 -0.005247307
0.0050438037 -0.16715369 -0.0054564457
0.0060822233 -0.16684863 -0.0042446437
-0.0068749534 -0.16692792 -0.0028757474
0.0067206575 -0.16693981 -0.0031862212
-0.0074102641 -0.1670772 -0.00090731919
0.0073560337 -0.16698128 -0.0011423188
-0.0073656337 -0.16692564 0.0011205475
0.0074147405 -0.16713975 0.00083147729
-0.0068053389 -0.16685918 0.0029993141
0.0067160213 -0.16693483 0.0032138084
-0.0061431043 -0.16689613 0.0041548805
-0.0053531546 -0.16703561 0.0051133125
0.0052280333 -0.16693597 0.0052650203
0.006193812 -0.16707376 0.0042500068
-0.0041835629 -0.16711292 0.006242089
-0.0030387572 -0.16686858 0.0068016318
-0.0009542809 -0.16681501 0.0073975543
0.0010558019 -0.16719401 0.0073580714
0.0029892263 -0.16711777 0.0067844014
0.0041863145 -0.1672294 0.0061213039
-0.0041904724 -0.16881949 -0.0061196615
-0.0028619221 -0.16887094 -0.00685872
-0.00089688867 -0.16887437 -0.0073997793
0.0011142837 -0.16920976 -0.0073767146
0.0031735445 -0.16911472 -0.0067571537
0.0043385848 -0.16901985 -0.0061442363
-0.0062288302 -0.16857451 -0.0042057135
-0.0050570047 -0.16910079 -0.0054202387
0.0053830082 -0.16888845 -0.0050882804
0.0061109848 -0.16914862 -0.0042028162
-0.0068370719 -0.16921318 -0.0029810586
0.0068210154 -0.16925469 -0.0029618042
-0.0073861941 -0.16914934 -0.0010832055
0.0074095544 -0.16905759 -0.00082589022
-0.0073503572 -0.16903161 0.0011868631
0.0074037211 -0.16903991 0.00093957916
-0.0067816661 -0.16905564 0.0029820465
0.0067759743 -0.16902803 0.0030949488
-0.0061258217 -0.16903424 0.0041800109
-0.005232011 -0.1689475 0.0052608699
0.0051738499 -0.16896382 0.0053031705
0.0061969273 -0.16888663 0.0042632478
-0.004277796 -0.1688377 0.006173715
-0.003114966 -0.16900322 0.0067661866
-0.0010961558 -0.1689509 0.0073700049
0.00084308302 -0.168933 0.0073916973
0.0030175149 -0.16878566 0.0067878044
0.0042178216 -0.16936344 0.0060996348
-0.0041666813 -0.17086804 -0.0061360253
-0.0028766734 -0.17097764 -0.0068556061
-0.0010616683 -0.17104015 -0.0073698363
0.0010532123 -0.17103428 -0.0073849014
0.0030710087 -0.17109731 -0.0067985919
0.0041896645 -0.17129394 -0.0062344335
-0.0061849882 -0.17090213 -0.0042721485
-0.0053990996 -0.17106549 -0.0050925673
0.0052917143 -0.17095366 -0.005189776
0.0061739949 -0.17127033 -0.0041111736
-0.0068905032 -0.17112607 -0.0028424368
0.006803846 -0.17106807 -0.0029865645
-0.0073705912 -0.17099066 -0.0011477718
0.0073973238 -0.17131339 -0.00088551745
-0.0073758857 -0.17100345 0.0010392959
0.0073991707 -0.17090577 0.00096193171
-0.0067729978 -0.17112383 0.0030868275
0.0067737629 -0.17107812 0.0031029789
-0.0061376486 -0.17118244 0.0041628005
-0.0054270276 -0.1710033 0.0050491136
0.0050273114 -0.17105255 0.0054463083
0.0061734212 -0.17088439 0.0042840242
-0.0042607519 -0.17093767 0.00619906
-0.003035546 -0.17089112 0.0068083531
-0.0010070807 -0.17119993 0.0073933662
0.00096162519 -0.17080826 0.0073717479
0.0029917986 -0.1710152 0.0067853224
0.0041858638 -0.17103727 0.0061215996
-0.0041562775 -0.17235205 -0.0061431834
-0.0033106201 -0.17291535 -0.0066641485
-0.0009183677 -0.17303291 -0.0074003628
0.0010657656 -0.17308743 -0.0073874122
0.0030744977 -0.17288393 -0.0067978702
0.0041795918 -0.17268366 -0.0062377066
-0.0061671366 -0.17280206 -0.0043109637
-0.0052889795 -0.17302263 -0.0052001807
0.0053199921 -0.17288512 -0.0051603052
0.0061236392 -0.17263892 -0.0041844225
-0.0068581821 -0.17290983 -0.0029364023
0.0067372234 -0.17300402 -0.003120299
-0.0073700245 -0.17319159 -0.0011002017
0.0073505836 -0.17291334 -0.0011633363
-0.0073897815 -0.17292386 0.00096871064
0.0073866728 -0.17293462 0.00097411411
-0.00677804 -0.17318995 0.0030547571
0.0068380558 -0.17291631 0.0029471447
-0.0062296423 -0.17303766 0.0040289848
-0.0053452188 -0.17292032 0.0051373322
0.005130738 -0.17299342 0.0053468458
0.0061585871 -0.17260931 0.00431005
-0.004294829 -0.1727833 0.0061665853
-0.003132435 -0.17290005 0.0067594689
-0.00094268925 -0.17293602 0.007388493
0.00091280171 -0.17284743 0.007390664
0.00306988 -0.17304538 0.0067658755
0.0042706132 -0.17279314 0.0060633286
-0.0041995263 -0.17521262 -0.0061134603
-0.0031558594 -0.17484824 -0.0067466409
-0.0010528489 -0.17493087 -0.0073795025
0.00066608679 -0.1749219 -0.0074378126
0.0030643134 -0.17481126 -0.0067936555
0.004268181 -0.17488405 -0.006186883
-0.0062192557 -0.17499962 -0.0042071352
-0.005176052 -0.17490788 -0.005310087
0.0052988939 -0.17491047 -0.005186059
0.0061346362 -0.17499013 -0.0041684355
-0.0067498414 -0.17510569 -0.0031509772
0.0067547439 -0.17495339 -0.003079036
-0.0073655094 -0.17510454 -0.00112505
0.0073851496 -0.17513524 -0.0010043343
-0.0073562548 -0.17506145 0.0010970281
0.0074075772 -0.17504323 0.00096127798
-0.006766065 -0.17503047 0.0030551492
0.0068034176 -0.17514554 0.0030342448
-0.0061202571 -0.1753545 0.0041880831
-0.0052888007 -0.17500763 0.0051890155
0.0051850313 -0.17487998 0.0052904454
0.0061871074 -0.17493154 0.0042663752
-0.0043899519 -0.17507659 0.0060976809
-0.0028687334 -0.17504619 0.0068762228
-0.0010064362 -0.17496006 0.007385151
0.00089842122 -0.17491475 0.0073857009
0.0030981938 -0.17500815 0.0067739333
0.0041187042 -0.17481472 0.0061677587
-0.0042187558 -0.17700437 -0.0061002462
-0.003156041 -0.17702752 -0.0067317388
-0.00084919605 -0.17702419 -0.0073997625
0.0011396772 -0.17698932 -0.0073678275
0.0029978489 -0.17725949 -0.0068402844
0.0042704027 -0.17680636 -0.0061867544
-0.0061934479 -0.17691949 -0.0042632264
-0.0051686354 -0.17690268 -0.005315321
0.0053142076 -0.17682968 -0.0051699537
0.0061264574 -0.17656025 -0.0041803387
-0.0068533788 -0.17690043 -0.0029196439
0.0067798267 -0.17707491 -0.0030608794
-0.007399268 -0.17687394 -0.00088232907
0.0074106837 -0.17688428 -0.0007709011
-0.0073628705 -0.176879 0.0011949402
0.0073915082 -0.1770464 0.0009369402
-0.0068888515 -0.17701906 0.0028018362
0.0067661423 -0.17687248 0.0031053221
-0.006116156 -0.17700607 0.0041940426
-0.0054148105 -0.17718311 0.0050581829
0.0051181167 -0.17711072 0.0053621382
0.0061845919 -0.17677693 0.0042681154
-0.0042786207 -0.17680088 0.0061802566
-0.0029037332 -0.17690554 0.0068730717
-0.0008426868 -0.17700911 0.0074204081
0.0010254884 -0.17699119 0.0073683807
0.0030338161 -0.17710473 0.0067777322
0.0041912482 -0.17679375 0.0061178771
-0.0041749002 -0.17867348 -0.0061304029
-0.0030518232 -0.17900562 -0.0067613279
-0.00096384564 -0.17905822 -0.007375652
0.00095850928 -0.17889795 -0.0074029658
0.0030081228 -0.17890304 -0.0068212627
0.0043470492 -0.17918453 -0.0061323033
-0.006155102 -0.17879333 -0.0043307249
-0.0050474512 -0.17898268 -0.0054263826
0.0052952203 -0.1791029 -0.0051799603
0.0061000288 -0.1790849 -0.0042187874
-0.0068428083 -0.17883092 -0.0029791929
0.0067629516 -0.17895578 -0.00308624
-0.0073614605 -0.17907183 -0.0011912453
0.0073861801 -0.17898677 -0.0009071058
-0.0073836977 -0.17915611 0.00096744619
0.0074136392 -0.17914136 0.00090976415
-0.0068823895 -0.17902593 0.0028009014
0.0068181199 -0.17887025 0.0030107901
-0.0061074486 -0.17892757 0.0042066993
-0.0053174091 -0.17887659 0.0051658046
0.0051660151 -0.17898759 0.0053154961
0.0061395373 -0.178817 0.0043510781
-0.0042244201 -0.17892113 0.0062146094
-0.0030070341 -0.17906527 0.0068148347
-0.00093714299 -0.17888753 0.0073988796
0.0009608437 -0.17907433 0.0073732417
0.0031033687 -0.17895946 0.0067487783
0.0041712672 -0.17898028 0.0061316066
-0.0041491827 -0.18106882 -0.0061480924
-0.0029327439 -0.18097313 -0.0068384279
-0.0010201491 -0.1809877 -0.0073695825
0.00071119028 -0.18122849 -0.0074231918
0.0030530945 -0.18097834 -0.0068071173
0.0043235198 -0.18074687 -0.0061465204
-0.0062125963 -0.18115348 -0.0042320448
-0.005208259 -0.18092375 -0.0052832505
0.0053070388 -0.1808148 -0.0051785456
0.0061415923 -0.18129238 -0.0041583413
-0.0068410668 -0.18100826 -0.0029542951
0.0067548165 -0.18110231 -0.0030713156
-0.0073863757 -0.18105812 -0.0010706024
0.0073700501 -0.18101987 -0.001017418
-0.0073824469 -0.18101974 0.00087345589
0.0073701222 -0.18098377 0.0010917042
-0.0068465564 -0.18086606 0.0028886311
0.0068229255 -0.18101002 0.0029961918
-0.0061407047 -0.18126017 0.0041583199
-0.0051688855 -0.18098816 0.0053200303
0.0051020249 -0.18093184 0.0053786091
0.0062080417 -0.1813429 0.0042235763
-0.0042097941 -0.18098667 0.0062156138
-0.003032807 -0.18101883 0.0068004844
-0.0010540114 -0.18104993 0.0073791994
0.0010150356 -0.18097347 0.0073610763
0.0030320941 -0.18097402 0.0067858952
0.0042118425 -0.18090133 0.0061037042
-0.0041941088 -0.18289891 -0.0061172121
-0.0030521448 -0.18313535 -0.0067737726
-0.001004672 -0.1831048 -0.0073741879
0.00099101104 -0.18288346 -0.0073993602
0.0030071831 -0.18311071 -0.0068277176
0.0043801996 -0.18317741 -0.006116305
-0.0062373788 -0.18299465 -0.0041856258
-0.0053377477 -0.18304433 -0.0051484015
0.0052790805 -0.1830366 -0.0052062511
0.006139386 -0.18278304 -0.0041615549
-0.0068023764 -0.18297808 -0.0030314752
0.0068018222 -0.18309477 -0.0029853757
-0.0073675788 -0.18307433 -0.0011872415
0.0073687579 -0.18289836 -0.0010414191
-0.0073704384 -0.18259583 0.0010964815
0.0073503661 -0.18300058 0.0012794646
-0.0067972466 -0.18306069 0.0030003632
0.0068693608 -0.18303342 0.0028822904
-0.0061431527 -0.18340208 0.0041547497
-0.0053407559 -0.18297194 0.0051421952
0.0050787712 -0.18313184 0.0053949277
0.0061942884 -0.18343505 0.0042444454
-0.0042756521 -0.18286349 0.0061782626
-0.0029806376 -0.18289167 0.0068287868
-0.00083060574 -0.18286097 0.0074283816
0.0010639364 -0.1827935 0.0073579489
0.0031672202 -0.18291309 0.006729607
0.0042253071 -0.18319343 0.0060944385
-0.0042210948 -0.18527862 -0.0060986686
-0.0031162309 -0.18513639 -0.0067601446
-0.00078613154 -0.18505773 -0.0074081123
0.00098677434 -0.18496266 -0.007394257
0.0029838167 -0.18494615 -0.0068422095
0.0042302869 -0.18520108 -0.006209583
-0.0061501474 -0.18490121 -0.0043199058
-0.0051283897 -0.18507087 -0.0053371475
0.0051414929 -0.18508281 -0.0053467355
0.0061416477 -0.18574427 -0.0041582761
-0.0067980886 -0.1849522 -0.0030417135
0.0067898859 -0.18495077 -0.0030779145
-0.0073964926 -0.1848793 -0.00096338027
0.0073730503 -0.18494363 -0.0010707004
-0.0073868171 -0.18509221 0.00096607942
0.0073906952 -0.18520844 0.0010422011
-0.0067463359 -0.18515815 0.0031080262
0.0069188671 -0.18505929 0.0027779615
-0.0061040646 -0.18499856 0.0042115999
-0.0053759231 -0.18491784 0.0051150848
0.0050914637 -0.18515697 0.0053882729
0.00616071 -0.18487021 0.0042998185
-0.0043430906 -0.18491949 0.0061261733
-0.0030044483 -0.1850564 0.0068149506
-0.00090567296 -0.18498424 0.00739427
0.0010630293 -0.18495134 0.0073587876
0.0030900338 -0.18510026 0.0067643872
0.0042004162 -0.18477541 0.0061115464
-0.0041690301 -0.18671814 -0.0061344686
-0.00294256 -0.18679149 -0.0068227537
-0.00099980307 -0.18708287 -0.0073826117
0.0010887439 -0.18693003 -0.0073740212
0.0029468765 -0.18688901 -0.0068603009
0.0041175727 -0.18720412 -0.0062668319
-0.0061538341 -0.18667264 -0.0043227044
-0.0051841605 -0.18696325 -0.0053041372
0.0053253854 -0.18700075 -0.005159216
0.0061386335 -0.18700118 -0.0041626655
-0.0067722746 -0.18687978 -0.0030840281
0.006785539 -0.18691869 -0.0030266962
-0.0074047823 -0.18695195 -0.00089176698
0.0073805759 -0.18689579 -0.00095334259
-0.0073478273 -0.18683121 0.001092419
0.0074074632 -0.18700798 0.00088860543
-0.0066891205 -0.1870549 0.0032316505
0.0067507606 -0.187014 0.0031410709
-0.0061465078 -0.18738239 0.0041498556
-0.0051948689 -0.18705587 0.0052934075
0.0052517476 -0.18699473 0.0052240239
0.0062000379 -0.18686312 0.0042465236
-0.0042316457 -0.18697803 0.0062019145
-0.0030015283 -0.18703185 0.0068246229
-0.0009623706 -0.18697527 0.007390467
0.001008779 -0.18693501 0.0073611331
0.0030783515 -0.18700096 0.0067645297
0.0040900065 -0.1872744 0.0061874427
-0.004294829 -0.18895218 -0.0060479897
-0.0031602825 -0.18900673 -0.0067392495
-0.00095892878 -0.18905056 -0.007383985
0.00082350551 -0.18904737 -0.0074210013
0.0029846758 -0.18913107 -0.0068290234
0.0043452429 -0.18896405 -0.0061329445
-0.0062120496 -0.18923634 -0.0042453175
-0.0052712085 -0.189034 -0.00521908
0.0053393906 -0.18895967 -0.0051420396
0.0061233565 -0.18915866 -0.0041848938
-0.0068399175 -0.18899648 -0.0029620975
0.0067316093 -0.1888268 -0.0031814538
-0.0073717576 -0.18909201 -0.0011190106
0.0073749297 -0.1888196 -0.0009272637
-0.0073510115 -0.18915533 0.0011874478
0.0073919087 -0.1890503 0.0010003598
-0.0067373896 -0.18930666 0.003138212
0.0068794442 -0.18906677 0.0028719057
-0.0061060581 -0.18882559 0.0042086877
-0.0053064167 -0.18893462 0.0051880437
0.0051052514 -0.18902822 0.0053616054
0.0061948812 -0.18870237 0.0042475965
-0.004245549 -0.18902262 0.0062033832
-0.0029154273 -0.18915372 0.0068704016
-0.00089860335 -0.18898346 0.0073957099
0.00087986537 -0.18888217 0.0073811612
0.0031596757 -0.18908007 0.0067109372
0.0041847937 -0.18895875 0.0061222701
-0.0042276597 -0.19097067 -0.0060941763
-0.0031999971 -0.1910754 -0.0067062485
-0.00097536179 -0.19104965 -0.0073821894
0.00099358987 -0.19099373 -0.0073998678
0.0030773401 -0.19109339 -0.0067909579
0.0042707068 -0.19054033 -0.0061977427
-0.0061181658 -0.1909683 -0.0043626595
-0.005294905 -0.19116156 -0.0051918714
0.0052645039 -0.19111188 -0.0052230353
0.0061215977 -0.19075568 -0.0041874582
-0.0067880969 -0.1910679 -0.0030660166
0.0068447283 -0.19090298 -0.0029219422
