# .PCD v0.7 - Point Cloud Data file format
VERSION 0.7
FIELDS x y z
SIZE 4 4 4
TYPE F F F
COUNT 1 1 1
WIDTH 1232
HEIGHT 1
VIEWPOINT 0 0 0 1 0 0 0
POINTS 1232
DATA ascii
-0.0068218815 -0.11504098 -0.0030193056
0.0068017119 -0.11485572 -0.0029793773
-0.0073990123 -0.11512283 -0.00094868278
0.0073872954 -0.11505054 -0.00094131386
-0.0073796543 -0.1150273 0.001038083
0.007366138 -0.11513115 0.0011984572
-0.0068390095 -0.11494331 0.0029346433
0.0068659764 -0.11496961 0.0029389404
-0.0061154896 -0.11513413 0.0041952352
-0.0052345158 -0.11493088 0.0052621947
0.0051506436 -0.11510445 0.0053328807
0.006190592 -0.1147332 0.0042542312
-0.0042176531 -0.11487208 0.00623307
-0.0030992392 -0.1148426 0.0067965272
-0.00095141178 -0.11494988 0.0074016801
0.0010919063 -0.11502285 0.0073734322
0.0031857104 -0.1150622 0.0067204195
0.0041429875 -0.11526261 0.0061512794
-0.0042686258 -0.11676067 -0.006065743
-0.0029050456 -0.11696007 -0.006852732
-0.00092066784 -0.11698731 -0.0073989034
0.0010012924 -0.11693285 -0.007392779
0.0030747941 -0.11720569 -0.0068018055
0.0041741203 -0.11716238 -0.0062593478
-0.0062388349 -0.1171452 -0.0042060162
-0.0052024424 -0.11701299 -0.0052823615
0.0052400162 -0.11710992 -0.0052451678
0.0061408649 -0.1170449 -0.004159166
-0.0068388325 -0.11695106 -0.0029812052
0.0068208147 -0.11679906 -0.0029622922
-0.007381802 -0.11684342 -0.0010969294
0.0073894025 -0.11719056 -0.001015455
-0.0073983399 -0.11689385 0.00089212798
0.0074008722 -0.11692339 0.0009092465
-0.0067910873 -0.11691128 0.0029977744
0.0068437913 -0.1169822 0.0029640065
-0.0061267903 -0.11709432 0.0041787908
-0.0052211699 -0.11700051 0.0052675344
0.0051812995 -0.11698968 0.0053032669
0.0061836625 -0.11692955 0.0042869393
-0.0043281089 -0.11725546 0.0061570755
-0.0030966911 -0.11702437 0.006792434
-0.0011132164 -0.11703937 0.007368918
0.0011477382 -0.11713824 0.0073557207
0.00306691 -0.11698584 0.0067710835
0.004191184 -0.11735373 0.0061181365
-0.0041632215 -0.11920702 -0.0061382176
-0.0028261812 -0.11912991 -0.0068808715
-0.00098005263 -0.1190442 -0.0073900297
0.00098806969 -0.11899006 -0.0073960903
0.0031165881 -0.11904868 -0.0067759962
0.004321198 -0.11918703 -0.0061585763
-0.006230881 -0.11913849 -0.0042099962
-0.0051119411 -0.11891302 -0.0053694546
0.0052390331 -0.11881515 -0.0052435105
0.0061239512 -0.11905591 -0.0041837753
-0.0069055008 -0.11899471 -0.0028245952
0.0068384688 -0.11912125 -0.0029296924
-0.0073785218 -0.11894735 -0.0010953465
0.0074032997 -0.11905997 -0.00085396803
-0.0073844148 -0.11900467 0.0010125574
0.0074255858 -0.1190732 0.00078543177
-0.0067684464 -0.11898321 0.0030691368
0.0068749501 -0.11907893 0.0029186949
-0.0061137015 -0.11899126 0.0041978224
-0.0054298486 -0.11888085 0.0050379746
0.0053439043 -0.11925908 0.0051484848
0.0061829551 -0.11900944 0.004282624
-0.0042994674 -0.11883108 0.006162914
-0.0029579273 -0.11879893 0.006842257
-0.00085008593 -0.11898635 0.0074023954
0.0010813341 -0.11867649 0.0073734173
0.0030131699 -0.11906231 0.0068034562
0.0042482782 -0.11914985 0.0060788775
-0.0042887237 -0.12096542 -0.0060519404
-0.0031881512 -0.12085745 -0.0067177042
-0.00083774538 -0.12121213 -0.0074017481
0.0010239284 -0.12098699 -0.0073875873
0.0030840784 -0.12096136 -0.0068003144
0.0042546466 -0.12107348 -0.0062031043
-0.0062241415 -0.12117106 -0.0042396798
-0.0053502331 -0.12119719 -0.0051404852
0.0051442422 -0.12107527 -0.0053423168
0.0060916571 -0.12110654 -0.0042307558
-0.0069205463 -0.12092241 -0.002806182
0.0068435953 -0.12107474 -0.0029080417
-0.0074137021 -0.1210165 -0.00086001988
0.0073759393 -0.12086933 -0.00095724163
-0.0073966756 -0.12100542 0.0008762487
0.0073846523 -0.12115172 0.0010496428
-0.0067127077 -0.12091581 0.0031964788
0.0066972896 -0.12104124 0.0032945552
-0.0062201987 -0.12154161 0.0040429076
-0.0053111082 -0.12117563 0.005169786
0.0051267915 -0.12092555 0.0053505064
0.0062775631 -0.1206222 0.0041296221
-0.0043066801 -0.12115126 0.0061717415
-0.0029882914 -0.12101463 0.0068297363
-0.001064817 -0.12102746 0.0073722522
0.00096942938 -0.12090733 0.007389518
0.0029456525 -0.12093917 0.0068196827
0.0042245341 -0.12099884 0.0060951947
-0.0042341026 -0.12261653 -0.0060894978
-0.0029107756 -0.12286641 -0.0068427254
-0.00097559689 -0.12307272 -0.0073965639
0.0011096053 -0.12294468 -0.0073727081
0.0028830483 -0.12308868 -0.0068825912
0.004199557 -0.12281635 -0.0062386957
-0.0061581279 -0.12308898 -0.0043337294
-0.0051914495 -0.12322519 -0.0053012269
0.0051877522 -0.12308642 -0.0053004022
0.0060971994 -0.12330525 -0.0042227022
-0.006839328 -0.12297346 -0.0029707821
0.0067825755 -0.12302436 -0.0030435515
-0.0073944679 -0.12293552 -0.00099106587
0.0074112904 -0.12309955 -0.00081416272
-0.0073885205 -0.12300898 0.0009814963
0.0073866299 -0.1229209 0.00099598558
-0.00681799 -0.12285902 0.0029421232
0.0067781713 -0.12296178 0.0031237353
-0.0061004795 -0.12271695 0.0042170398
-0.0052561807 -0.12304851 0.005219006
0.0053634644 -0.12299728 0.0051254714
0.006174278 -0.12251942 0.0042849681
-0.0042061894 -0.12315332 0.0062359315
-0.0028902115 -0.12310079 0.0068838899
-0.00094720977 -0.12312994 0.0074042953
0.00093083229 -0.12310138 0.0073842923
0.0030976115 -0.12309067 0.0067636906
0.0042296201 -0.12320602 0.0060916902
-0.0041580303 -0.12477483 -0.0061418056
-0.0029187032 -0.1249981 -0.0068616266
-0.0010837317 -0.12498268 -0.0073683215
0.0010076002 -0.12491878 -0.0073957862
0.0028861878 -0.12511025 -0.0068874136
0.0042883446 -0.12507556 -0.0061810203
-0.0062163519 -0.12530106 -0.0042370958
-0.0052284058 -0.12495483 -0.0052585052
0.005346376 -0.12506767 -0.0051395181
0.0061208834 -0.12466311 -0.0041882577
-0.0067976965 -0.12499226 -0.003084539
0.0067868186 -0.12503852 -0.0030531797
-0.007408727 -0.12488519 -0.00093068334
0.0073806443 -0.12528367 -0.0010741247
-0.0073680631 -0.12509176 0.001148999
0.0074276659 -0.12497272 0.00073807914
-0.0068929442 -0.12512943 0.0028033752
0.0068503078 -0.12500905 0.0029659274
-0.0061281743 -0.12490255 0.0041767508
-0.0053334851 -0.12502137 0.0051455493
0.0051136939 -0.12493237 0.0053629098
0.0062445221 -0.12480585 0.00418405
-0.0042229136 -0.12497214 0.0062277853
-0.0029879753 -0.12504405 0.0068385834
-0.0011538784 -0.12509896 0.0073661311
0.001033672 -0.1250674 0.0073810932
0.0030850035 -0.12508316 0.0067462209
0.0042384677 -0.12506323 0.0060856021
-0.0042570326 -0.12695424 -0.0060737501
-0.0029119917 -0.12713519 -0.0068246913
-0.00085954822 -0.12680981 -0.0073985476
0.00087361393 -0.12707904 -0.0074122846
0.0028690451 -0.12692618 -0.006886947
0.0042247972 -0.12688929 -0.0062225237
-0.0061636264 -0.12725356 -0.0043030158
-0.0051838327 -0.1271071 -0.0052977349
0.0052741994 -0.12713356 -0.0052014422
0.0061424738 -0.12729038 -0.0041568633
-0.0067609414 -0.1268595 -0.0031446496
0.0067787459 -0.12695226 -0.0030417675
-0.0073910011 -0.12697941 -0.0010002333
0.0073825098 -0.12692204 -0.0010660483
-0.0073857354 -0.12684797 0.00091445266
0.0073942202 -0.12703331 0.0010278131
-0.006878932 -0.12727606 0.0028057424
0.006892086 -0.12699611 0.0028603922
-0.0060997345 -0.12675698 0.0042181099
-0.0053967 -0.12705636 0.0050796713
0.0052726576 -0.12704267 0.0052247364
0.0061849821 -0.1267665 0.0042769117
-0.0043054 -0.12695016 0.0061641764
-0.0029697372 -0.12700303 0.0068487208
-0.0011014623 -0.12701556 0.0073828404
0.00092427473 -0.12693498 0.0073899953
0.003042822 -0.12703064 0.0067778612
0.0042104726 -0.12693322 0.0061048409
-0.0042138584 -0.12911758 -0.0061034397
-0.0030002221 -0.12903172 -0.006799852
-0.00088051159 -0.12895364 -0.007395735
0.0010270232 -0.12887624 -0.0073958081
0.0030997619 -0.1291565 -0.0067938161
0.0043201572 -0.12888724 -0.0061601135
-0.0062085236 -0.12867096 -0.0042585516
-0.0051669409 -0.12890519 -0.0053132991
0.0052502076 -0.12903708 -0.0052407687
0.0061472147 -0.12917188 -0.0041499748
-0.0068535544 -0.12885451 -0.002946832
0.0068092789 -0.12899992 -0.0030065707
-0.0073863668 -0.12899846 -0.0010307158
0.007392576 -0.12891005 -0.00089966471
-0.0074022375 -0.12886612 0.00094565289
0.0073523107 -0.12902233 0.0012670227
-0.0068253544 -0.12901172 0.0029599459
0.0067625698 -0.12893112 0.003140833
-0.0060976017 -0.12841874 0.0042212065
-0.0051384582 -0.12889332 0.0053514778
0.0052623791 -0.12899111 0.0052266656
0.0062272004 -0.12898158 0.0042317524
-0.0042045126 -0.12890214 0.0062321941
-0.0031145553 -0.12898636 0.0067827883
-0.00085479085 -0.12895824 0.0074188956
0.0010432109 -0.12898824 0.0073708184
0.0029727195 -0.12900461 0.0068120486
0.0042489711 -0.12911688 0.0060783653
-0.0041983132 -0.13109948 -0.0061141341
-0.003072646 -0.13092403 -0.0067801257
-0.0011051169 -0.13108207 -0.0073715062
0.0012044222 -0.13098945 -0.0073559661
0.0030419477 -0.130922 -0.0068115396
0.0043117614 -0.13112715 -0.0061668926
-0.0062092785 -0.13101526 -0.0042466391
-0.005176533 -0.13097431 -0.0053102854
0.0053318236 -0.13108774 -0.0051473998
0.0061270641 -0.13068095 -0.0041792905
-0.0067692194 -0.13112731 -0.0031358534
0.0068006134 -0.13094074 -0.0029983814
-0.007392216 -0.13100344 -0.0010424032
0.007396257 -0.131092 -0.00093766302
-0.0073908744 -0.13105473 0.0010536541
0.0073744366 -0.13093813 0.0010602965
-0.0067536496 -0.1310102 0.0031485455
0.0068465429 -0.13095802 0.0029851825
-0.0060997093 -0.13067396 0.0042181313
-0.0053122421 -0.13108735 0.0051646372
0.0053165876 -0.13096786 0.0051763114
0.0061664595 -0.13114627 0.0043081669
-0.0042789909 -0.13132463 0.0061887191
-0.0029426271 -0.1307728 0.0068584406
-0.0010032299 -0.13123006 0.0073951227
0.001078024 -0.13094509 0.0073807691
0.0031480566 -0.13082962 0.0067349141
0.0041640997 -0.13103788 0.0061367075
-0.0041607753 -0.13299541 -0.0061399485
-0.0029257683 -0.1330473 -0.0068375631
-0.001029073 -0.13297231 -0.0073846909
0.00099371548 -0.13299786 -0.0074017122
0.0028325703 -0.13297147 -0.0069136089
0.0042369575 -0.13295451 -0.006215516
-0.00616867 -0.13328502 -0.0042923097
-0.0052658846 -0.13309586 -0.0052229501
0.0051799933 -0.13297679 -0.0053078667
0.0061026765 -0.13318035 -0.0042147716
-0.0069074873 -0.13298325 -0.0028364207
0.0067016883 -0.13309833 -0.0032481558
-0.0074088257 -0.13299271 -0.00091921637
0.0073777265 -0.13292532 -0.0011337161
-0.007397328 -0.1329944 0.0009163238
0.0074057532 -0.13299046 0.00094358338
-0.0066863978 -0.13306363 0.003238407
0.0067542051 -0.13313159 0.00317385
-0.0061476976 -0.1327271 0.0041483226
-0.00512707 -0.13287599 0.0053624543
0.0051981686 -0.13302666 0.0052863001
0.0061928742 -0.1334129 0.0042479336
-0.0042378996 -0.13312614 0.0062078983
-0.003090807 -0.13308622 0.0067896564
-0.00088209793 -0.13285546 0.0074179107
0.0010314527 -0.13294199 0.0073804124
0.0030043547 -0.13301846 0.0067965179
0.0041183298 -0.13251804 0.006168169
-0.0041862489 -0.13478781 -0.006122442
-0.0031347333 -0.13495594 -0.0067441929
-0.00088081654 -0.13507943 -0.0073998747
0.00095070835 -0.13487954 -0.0073994743
0.0031501332 -0.13517278 -0.0067691244
0.0042486261 -0.13537058 -0.0062104696
-0.006202152 -0.13492624 -0.0042537861
-0.005168403 -0.13508454 -0.0053076632
0.0052348226 -0.13500392 -0.0052507399
0.0061623296 -0.13527547 -0.0041280109
-0.0068326923 -0.13490798 -0.0029835061
0.0067673479 -0.13509193 -0.0030892999
-0.0073920917 -0.13501143 -0.00098913338
0.0073680831 -0.1349417 -0.0010736684
-0.0073907417 -0.13486807 0.0010093461
0.007375062 -0.13501742 0.0011279259
-0.0068596224 -0.13517144 0.0028790704
0.0068014911 -0.13504973 0.0030713666
-0.0060981391 -0.13516951 0.0042204005
-0.0052435906 -0.13507798 0.0052301008
0.0050440887 -0.13509972 0.0054354537
0.0062484378 -0.13503754 0.0041800351
-0.0043934402 -0.13516776 0.0061058714
-0.0031619929 -0.13501032 0.0067489468
-0.00098827912 -0.13514371 0.0073938817
0.001007258 -0.13493697 0.0073801167
0.0029630035 -0.13502701 0.0068072984
0.0041641714 -0.13531546 0.0061366428
-0.0041901344 -0.13669918 -0.0061197779
-0.0030726283 -0.13687101 -0.0067711873
-0.0011496159 -0.13683872 -0.0073759542
0.00082012854 -0.13699698 -0.0074151549
0.0029496294 -0.13708316 -0.0068602725
0.0042440169 -0.13728394 -0.0062126266
-0.0061813658 -0.13710052 -0.0042855758
-0.0052172621 -0.13698703 -0.0052675521
0.005224139 -0.13697301 -0.0052698501
0.0061828764 -0.13760087 -0.0040981323
-0.0068448042 -0.13700195 -0.0029904696
0.0067168945 -0.13680618 -0.0031784577
-0.0073917503 -0.13674171 -0.0010198302
0.00737298 -0.13690861 -0.0010154209
-0.0073780832 -0.1370955 0.00095535518
0.0074100173 -0.1368802 0.00093358383
-0.0067590224 -0.13711151 0.0031002678
0.0068879314 -0.13702981 0.002888059
-0.0061177146 -0.13696791 0.0041919197
-0.0053258203 -0.13694295 0.0051548653
0.0050431974 -0.13701168 0.0054303929
0.0062612053 -0.13685755 0.0041542565
-0.0042336783 -0.13710821 0.0062149749
-0.0029734708 -0.13695921 0.006842792
-0.00098472857 -0.13708629 0.0073865727
0.00092476158 -0.13679843 0.0073992177
0.0029933969 -0.13695428 0.0068062516
0.0041288864 -0.13665526 0.0061608963
-0.0041718832 -0.13915093 -0.0061323345
-0.0030587337 -0.13901587 -0.0067819967
-0.00098194217 -0.13914885 -0.0073810397
0.0010557215 -0.13888744 -0.0073938728
0.0029134068 -0.13903329 -0.0068712202
0.004188899 -0.1391194 -0.0062515102
-0.0061146608 -0.13913229 -0.0043802666
-0.0052452683 -0.13904451 -0.0052441857
0.0053023165 -0.139057 -0.0051799426
0.0060842894 -0.13941327 -0.0042415387
-0.0068113054 -0.13893382 -0.0030605872
0.0067770085 -0.13900672 -0.0030714204
-0.0074026403 -0.13897477 -0.00096535351
0.0073823445 -0.13883948 -0.00098961534
-0.0073729493 -0.13898772 0.0010940309
0.0073744706 -0.13893647 0.0010261759
-0.0067957188 -0.13882166 0.0030142074
0.0067922487 -0.13920334 0.0030982415
-0.0060756709 -0.13874283 0.0042530671
-0.0052229017 -0.13908039 0.0052647763
0.0050529465 -0.13897806 0.0054260357
0.0061947634 -0.13905792 0.0042691058
-0.0042415108 -0.13903143 0.0062080673
-0.0031217493 -0.13889934 0.0067700213
-0.0010570877 -0.13918608 0.0073735453
0.0010352359 -0.13891347 0.007375902
0.0031697869 -0.13876665 0.0067319903
0.0042130272 -0.13888101 0.0061030416
-0.0042342106 -0.14152922 -0.0060894932
-0.0030841159 -0.14101018 -0.0067721228
-0.0010430918 -0.14086136 -0.0073801037
0.0011387613 -0.14090443 -0.0073749418
0.0030144386 -0.14104567 -0.0068330136
0.0042062569 -0.14085437 -0.006229368
-0.0061935061 -0.14088382 -0.0042729136
-0.0050530797 -0.14100516 -0.0054228608
0.0052820505 -0.14073014 -0.0052057905
0.006120244 -0.14103909 -0.0041892463
-0.0068113278 -0.14095378 -0.0030476525
0.0067896987 -0.14107722 -0.0029906079
-0.0073898565 -0.14087974 -0.00098575128
0.0073875217 -0.14089608 -0.00096158736
-0.0073939012 -0.14086124 0.0009619628
0.0073642964 -0.14096846 0.001149798
-0.0066863867 -0.14099823 0.0032652179
0.0068199094 -0.14092682 0.003038205
-0.0061679007 -0.14105484 0.0041189063
-0.00514632 -0.14089078 0.0053385105
0.0050899889 -0.14109482 0.0053906911
0.0062022624 -0.14099737 0.0042568822
-0.0043135518 -0.14123391 0.0061701564
-0.0028302362 -0.14086725 0.0069058579
-0.0011638207 -0.14109553 0.0073670647
0.00098351261 -0.14097103 0.0073839165
0.003133575 -0.14089906 0.0067530759
0.0041260007 -0.14125264 0.0061628632
-0.0041154264 -0.14319268 -0.0061711627
-0.0029654272 -0.14272071 -0.0068271598
-0.00077557546 -0.14297988 -0.007413445
0.00097557425 -0.14317502 -0.0073983022
0.0027613507 -0.14286424 -0.0069368342
0.0042917705 -0.14309713 -0.0061866827
-0.006180705 -0.14298409 -0.0042740847
-0.0053385589 -0.14298505 -0.0051531573
0.0055099539 -0.14300697 -0.0049519129
0.0061539621 -0.14293782 -0.0041402089
-0.006832175 -0.14273891 -0.0029951446
0.0068617389 -0.14309143 -0.0028908409
-0.0074369181 -0.14311703 -0.00074097334
0.0073986244 -0.14301565 -0.00092966831
-0.0073651993 -0.14319201 0.001066025
0.0074116406 -0.14309701 0.00086081709
-0.0068366639 -0.14303319 0.0029260882
0.00677271 -0.14292565 0.00313291
-0.0060989182 -0.14325984 0.0042192368
-0.0051658987 -0.14310643 0.0053260867
0.0051938645 -0.14311174 0.0052872314
0.0061488068 -0.14295971 0.0043237619
-0.0042585344 -0.14345963 0.0061964705
-0.0029378927 -0.14300252 0.0068615433
-0.0008884517 -0.14307767 0.0073982957
0.00094315957 -0.14294714 0.0073943669
0.0030052303 -0.14301534 0.0067984904
0.0042694043 -0.14313053 0.0060642664
-0.0042158421 -0.14513801 -0.0061021345
-0.0030824908 -0.14505972 -0.0067863679
-0.00095149368 -0.14497964 -0.0074006147
0.0010659 -0.14490561 -0.0073817177
0.0031436414 -0.14501488 -0.0067688087
0.0043694885 -0.14474329 -0.0061243498
-0.0061305217 -0.14495924 -0.0043544159
-0.0052077151 -0.14493011 -0.005283521
0.005357753 -0.14513576 -0.0051187235
0.0060829236 -0.14493047 -0.0042435457
-0.0068369289 -0.14490271 -0.0029904912
0.0067982213 -0.14490561 -0.002990576
-0.0073759696 -0.14499889 -0.0011054209
0.0073761703 -0.14508113 -0.0010757366
-0.0073723872 -0.14487232 0.0010714475
0.00739421 -0.1450136 0.0010067545
-0.0068425876 -0.14505577 0.0029504246
0.0068795718 -0.14513072 0.0029213696
-0.0061269025 -0.14488167 0.0041785273
-0.0053210091 -0.14501125 0.0051507778
0.0051632496 -0.14505327 0.0053203912
0.0061876709 -0.14516298 0.00425776
-0.0042531551 -0.1452904 0.0062017459
-0.0029451186 -0.14504607 0.0068573179
-0.0010742865 -0.14514636 0.0073763798
0.00083775684 -0.14506739 0.0073998631
0.0028523158 -0.14498471 0.0068731233
0.0041570873 -0.14502968 0.0061414773
-0.0042032427 -0.14709432 -0.0061108037
-0.0029158122 -0.14703356 -0.0068517481
-0.0011530096 -0.14704175 -0.0073794769
0.00094392523 -0.14703062 -0.0073976964
0.0031249216 -0.1471661 -0.0067722704
0.0042353175 -0.14686017 -0.0062194034
-0.0061987601 -0.14660057 -0.0042573633
-0.0052661342 -0.14695816 -0.0052285064
0.0052974117 -0.14700405 -0.0051829936
0.0061395303 -0.14708804 -0.0041612163
-0.0068582972 -0.14699842 -0.0029487002
0.0066726259 -0.1469049 -0.0032456201
-0.0073891296 -0.14715815 -0.0010255214
0.0073884749 -0.1471955 -0.0010115164
-0.00736864 -0.14705718 0.001082822
0.0073736091 -0.14677446 0.0011207012
-0.0067623998 -0.14686924 0.0030703126
0.0068107583 -0.14708334 0.0030529979
-0.0061067506 -0.1470895 0.0042078309
-0.0052243355 -0.14707576 0.0052616405
0.0052639614 -0.14700772 0.0052188844
0.0062194769 -0.1469578 0.0042272583
-0.0042551933 -0.14687701 0.0062049623
-0.0029905273 -0.1469803 0.0068310206
-0.0010507869 -0.14706743 0.0073820641
0.0010427521 -0.1471484 0.0073705567
0.0029093204 -0.14724073 0.0068429452
0.0040732943 -0.14691815 0.0061990786
-0.0042378013 -0.1489504 -0.0060870512
-0.0030454255 -0.14908485 -0.0067797308
-0.00090832444 -0.14894497 -0.0073898174
0.0010269663 -0.14897075 -0.007385924
0.003130042 -0.14904824 -0.0067792367
0.0042463923 -0.14886774 -0.006205217
-0.0061954432 -0.14923696 -0.0042534471
-0.0053160745 -0.14888951 -0.0051800762
0.0050907992 -0.14888655 -0.0053980732
0.0061081909 -0.14878275 -0.0042068074
-0.0068580089 -0.14902072 -0.0029381867
0.0067635253 -0.14902069 -0.0030857865
-0.0074040326 -0.14887518 -0.0010050663
0.0073833009 -0.14887704 -0.0010324355
-0.0073760324 -0.14905947 0.0010739872
0.0073723588 -0.14907444 0.0011022536
-0.0068889167 -0.14899033 0.0028379431
0.0068251975 -0.1490595 0.0030206766
-0.0061288597 -0.14906526 0.0041756653
-0.0053535821 -0.1490218 0.0051301676
0.0052487925 -0.14895368 0.0052409335
0.006153123 -0.14904378 0.0043345615
-0.0042119529 -0.1490283 0.0062233913
-0.0029205929 -0.14892012 0.0068686991
-0.00098062679 -0.14906485 0.007391721
0.00098313682 -0.1490888 0.0073781349
0.0033143349 -0.14892159 0.0066552004
0.0041478812 -0.14918058 0.0061477921
-0.0041379239 -0.15056647 -0.0061557223
-0.0031303759 -0.15103298 -0.0067484626
-0.00099146331 -0.15085858 -0.0073863645
0.00095281273 -0.15084846 -0.007401655
0.0028336775 -0.15092419 -0.0069068461
0.0042706635 -0.15039015 -0.0061955121
-0.0062578367 -0.15086354 -0.0041777948
-0.0052926168 -0.15084358 -0.0051898793
0.0052877949 -0.15100671 -0.0051994305
0.0061640791 -0.15071525 -0.0041255224
-0.0068071052 -0.15115681 -0.0030662681
0.0067848465 -0.15083702 -0.0030151731
-0.0073785181 -0.15100355 -0.0010686641
0.0073766373 -0.15105735 -0.0010544328
-0.0073922491 -0.15112734 0.0008844118
0.0074085891 -0.15087849 0.00092555466
-0.0068423501 -0.15101279 0.0029259361
0.0068091913 -0.15099302 0.0030382155
-0.0060035018 -0.15020269 0.0043579992
-0.0054659941 -0.15105635 0.0049960171
0.0051666833 -0.15100537 0.0053154775
0.0062646098 -0.15066743 0.0041610748
-0.0043162922 -0.15127669 0.006160011
-0.0030147268 -0.15098833 0.0068165599
-0.00094774034 -0.15098181 0.0073993891
0.0010422246 -0.15098718 0.0073850094
0.0028150571 -0.15102448 0.006883956
0.0041730935 -0.15083773 0.0061304523
-0.0042314529 -0.15266608 -0.0060914294
-0.0030281944 -0.15288794 -0.0067889877
-0.00097013917 -0.15286629 -0.0073803808
0.00098519411 -0.15294635 -0.0074115773
0.0029063644 -0.15287673 -0.0068723341
0.0042873081 -0.1532525 -0.0061709238
-0.0061854585 -0.15316764 -0.0042835111
-0.0050271833 -0.15298842 -0.0054466715
0.0052397749 -0.15300377 -0.0052345269
0.0061274795 -0.15295039 -0.0041787662
-0.0067097889 -0.15297572 -0.0032699155
0.0068256026 -0.15303117 -0.0029596367
-0.0073971329 -0.15305708 -0.00094790908
0.0073861028 -0.15315202 -0.0009962169
-0.0073630661 -0.15297139 0.0011963646
0.0074015954 -0.15287273 0.00095828943
-0.0067774123 -0.1529578 0.0030395717
0.0068283975 -0.15314017 0.003010727
-0.0061385683 -0.15272121 0.0041615302
-0.0052292962 -0.15299259 0.0052629877
0.0052086394 -0.15294127 0.0052767838
0.0061285831 -0.15306474 0.0043624812
-0.0042493567 -0.15289409 0.0062008328
-0.0029889531 -0.15301543 0.0068396917
-0.00097033667 -0.1530188 0.0074038934
0.00093433022 -0.15296371 0.0073897615
0.0031767569 -0.15322903 0.0067230444
0.0041404413 -0.15315852 0.006152893
-0.0041786325 -0.15517078 -0.0061277524
-0.0030212551 -0.1549114 -0.0067925183
-0.0010198933 -0.15517585 -0.0073782583
0.00084670534 -0.15506195 -0.0074102455
0.0031466675 -0.15485398 -0.0067637297
0.0042638318 -0.15516728 -0.006194531
-0.0061606239 -0.15514806 -0.0043023732
-0.0053066057 -0.15510842 -0.0051869107
0.0052958201 -0.15509941 -0.0051925248
0.0061603002 -0.15493062 -0.0041310331
-0.0067723095 -0.15493226 -0.0031310595
0.0068245274 -0.15485163 -0.0029563205
-0.0073964917 -0.15508372 -0.00098380877
0.0073970361 -0.15499355 -0.0008736687
-0.0073760417 -0.15504897 0.0011228853
0.0074262097 -0.15504608 0.00078454235
-0.0068419399 -0.15525371 0.002897064
0.0067848875 -0.1549883 0.0031178293
-0.0060653146 -0.15530361 0.0042680716
-0.0052856444 -0.15491839 0.0051994822
0.0051645101 -0.15493108 0.0053201606
0.0061891894 -0.15551789 0.0042708209
-0.0042805015 -0.15520588 0.0061829193
-0.0030019176 -0.15508612 0.0068382155
-0.0010659802 -0.15514979 0.0073775495
0.0010397875 -0.15506043 0.0073773428
0.0030748434 -0.15476248 0.0067859367
0.0041488167 -0.15522084 0.0061471267
-0.0040744999 -0.15697421 -0.0061993496
-0.0031126039 -0.15705292 -0.0067449729
-0.00098991825 -0.1570967 -0.007393722
0.0010278162 -0.15687089 -0.0073859505
0.0029857522 -0.15717363 -0.0068445043
0.0043147188 -0.1574067 -0.0061797858
-0.0062174671 -0.15705693 -0.0042243456
-0.0053838659 -0.15713498 -0.0051116897
0.005358567 -0.15693361 -0.0051257629
0.0061711362 -0.15691857 -0.0041152802
-0.006803616 -0.157197 -0.0030546321
0.0067726471 -0.15700759 -0.0030941188
-0.0073951674 -0.15709183 -0.00095706858
0.007404062 -0.15722817 -0.00086628326
-0.0074051269 -0.15699756 0.00083103223
0.0073551647 -0.15684408 0.001223322
-0.0067994958 -0.15706769 0.0029991516
0.0068569505 -0.15709728 0.0029499014
-0.0061307466 -0.15684077 0.0041728928
-0.0052687102 -0.1571103 0.0052158595
0.0051745847 -0.15691058 0.0053063636
0.00617861 -0.15696256 0.0042928592
-0.0042619966 -0.15685359 0.0061963103
-0.0030237988 -0.15697441 0.0068181572
-0.0010709906 -0.15692291 0.0073734173
0.00096003205 -0.15680979 0.0073951688
0.0030306331 -0.1570185 0.0068099792
0.0041486975 -0.15714075 0.0061472012
-0.0041252766 -0.15858757 -0.0061644465
-0.0031245456 -0.15899831 -0.0067524789
-0.00074447406 -0.15907325 -0.0074165482
0.00099520152 -0.15899192 -0.0074019427
0.0030252333 -0.1591046 -0.0068274173
0.0042612674 -0.15915696 -0.0062076347
-0.006147943 -0.15890613 -0.0043263892
-0.0053409501 -0.15896213 -0.0051489393
0.0051059118 -0.15917833 -0.0053875386
0.006089251 -0.15915103 -0.0042343936
-0.0068002935 -0.15893793 -0.0030590934
0.00684745 -0.1591353 -0.0029248097
-0.0074000554 -0.15905342 -0.0010050507
0.0073857903 -0.15880214 -0.0010916052
-0.0073665972 -0.15889211 0.0010582003
0.0073937103 -0.15913925 0.00099255156
-0.0067925705 -0.15907721 0.003060342
0.0067352923 -0.15894577 0.0032199267
-0.0060885157 -0.15939189 0.0042343093
-0.0053908024 -0.15878724 0.0050871628
0.0052515357 -0.1590043 0.0052323649
0.0061202901 -0.15904722 0.0043660365
-0.0042159939 -0.15937319 0.0062248609
-0.002861232 -0.15875785 0.0068974267
-0.0011598637 -0.15932024 0.0073696021
0.0011468743 -0.15892747 0.0073721875
0.0028820913 -0.15903017 0.0068529826
0.0041863848 -0.15902194 0.0061212848
-0.0042527644 -0.16104805 -0.0060768081
-0.0031050625 -0.16109289 -0.006749989
-0.00097929675 -0.16097863 -0.0073723882
0.0010069527 -0.1609372 -0.0073952246
0.0029797563 -0.16108645 -0.0068436577
0.0042287679 -0.16084947 -0.0062221698
-0.0061921566 -0.16101705 -0.0042611365
-0.0051150946 -0.16116717 -0.0053622704
0.0054146084 -0.16104847 -0.0050668539
0.0061605722 -0.16131695 -0.0041306606
-0.0068315063 -0.16110371 -0.0030083223
0.0067318808 -0.16101854 -0.0031584578
-0.0074069784 -0.16095611 -0.00085090159
0.0073957555 -0.16113365 -0.00090925058
-0.0073796543 -0.16114832 0.0010043032
0.0073739146 -0.16107965 0.0010637321
-0.0067877555 -0.16126217 0.0030117151
0.0068117217 -0.16096681 0.0030246954
-0.0061278706 -0.16087539 0.0041770609
-0.0052470355 -0.16115251 0.005236608
0.0050499812 -0.16081592 0.0054258942
0.0062344116 -0.16128345 0.0042114314
-0.0042307386 -0.16076517 0.0062177866
-0.0030998124 -0.16105548 0.0067923311
-0.0011045723 -0.1609036 0.0073779351
0.0010264055 -0.16100331 0.0073702042
0.0030190537 -0.16108869 0.0067861588
0.0042198426 -0.16093966 0.0060982769
-0.0041731582 -0.16263837 -0.0061315428
-0.0030960771 -0.16305405 -0.0067564161
-0.001100464 -0.16316237 -0.0073635974
0.0011613156 -0.16287881 -0.0073610395
0.0029623387 -0.16310768 -0.0068442663
0.0042399908 -0.16319251 -0.0062113726
-0.0062092845 -0.16313447 -0.0042478773
-0.0052649393 -0.16281307 -0.0052241287
0.0052963025 -0.16298188 -0.0051856698
0.0061141229 -0.16273794 -0.0041982289
-0.0067836777 -0.16297944 -0.0031073138
0.0067789159 -0.16299739 -0.0030503077
-0.007404468 -0.16298981 -0.00087505113
0.0073436624 -0.16291532 -0.0012392852
-0.0073836981 -0.16303773 0.00097869989
0.0073877191 -0.16287498 0.0010153847
-0.0067916056 -0.16296567 0.0030390141
0.0068101217 -0.16306037 0.0030601888
-0.0061198003 -0.16323997 0.0041887914
-0.0053124619 -0.16303144 0.005164389
0.0052732835 -0.16317065 0.0052170781
0.0061748391 -0.16272305 0.0042813583
-0.0042973398 -0.16296393 0.0061676931
-0.0031286413 -0.16304865 0.0067823338
-0.0010129901 -0.16307276 0.0073905559
0.00087439572 -0.16312709 0.0073881689
0.0031635175 -0.16298744 0.0067303181
0.0041635861 -0.16294187 0.006136945
-0.0041591716 -0.16514052 -0.0061411681
-0.0031982695 -0.16492884 -0.0067151617
-0.00077138178 -0.16491285 -0.0074098576
0.0011990942 -0.16513205 -0.0073623918
0.0031437611 -0.16506523 -0.0067658946
0.0043441113 -0.16499469 -0.0061392947
-0.0062018111 -0.1653872 -0.0042488417
-0.0053900466 -0.16511492 -0.0050985296
0.0052690245 -0.16487363 -0.0052177459
0.0061157378 -0.1649882 -0.0041958881
-0.0067920168 -0.1648474 -0.0030725435
0.0067467717 -0.16492257 -0.0031128943
-0.00739126 -0.16488063 -0.0010367164
0.0073630828 -0.16494887 -0.0011811649
-0.0074225483 -0.16506687 0.00064815494
0.0073995111 -0.16503885 0.00084902078
-0.0069106398 -0.16519405 0.0027627021
0.0068327673 -0.16511796 0.0030112292
-0.0060863164 -0.16473819 0.0042374893
-0.0052229669 -0.16517079 0.0052655833
0.0051766802 -0.16491264 0.0052955584
0.0061198305 -0.1648179 0.0043708463
-0.00429514 -0.16499208 0.0061668195
-0.0030069032 -0.16490932 0.0068288641
-0.0010002189 -0.16506132 0.0073974296
0.00096399582 -0.16498481 0.0073894463
0.0031228347 -0.16492714 0.0067497906
0.0042590974 -0.16507162 0.0060712732
-0.0041959826 -0.16728522 -0.0061158673
-0.002949931 -0.16704749 -0.0068286327
-0.0010703875 -0.16698006 -0.0073764548
0.0011022792 -0.16698855 -0.0073765246
0.0030374476 -0.16695397 -0.0068252962
0.0042652013 -0.16710263 -0.00620521
-0.0061947401 -0.16728698 -0.0042707371
-0.0053040087 -0.16704468 -0.0051877401
0.0053816317 -0.16713122 -0.00509424
0.006124502 -0.16692902 -0.0041831476
-0.0068140058 -0.16681357 -0.0030436842
0.0068451543 -0.16707143 -0.0029496721
-0.0073952153 -0.16705503 -0.00097022677
0.0074080583 -0.16699098 -0.00076608412
-0.0073871999 -0.16707367 0.00098194659
0.0073845815 -0.16710769 0.0010349299
-0.0066455123 -0.16702147 0.0033289499
0.0068205865 -0.16688514 0.0030299146
-0.0061129169 -0.16709284 0.0041987901
-0.0053693275 -0.16711789 0.0051127276
0.0051044268 -0.16691138 0.0053785061
0.0061898967 -0.16743943 0.0042696642
-0.0042945063 -0.16680782 0.0061772964
-0.0030999214 -0.16689222 0.0067847976
-0.0010400398 -0.16698909 0.0073951529
0.00085193588 -0.16697824 0.007408611
0.0029764839 -0.16714981 0.0068249628
0.0042393152 -0.16767053 0.006084865
-0.0041636555 -0.16891885 -0.0061380989
-0.0033922454 -0.16898389 -0.0066243289
-0.00081497873 -0.16883093 -0.0074038585
0.0010491664 -0.1688834 -0.0073873545
0.0029098482 -0.16890433 -0.0068691401
0.0042312653 -0.1687959 -0.0062198769
-0.0062211114 -0.16877979 -0.0042165392
-0.005220741 -0.16906896 -0.0052606487
0.0051195789 -0.16885298 -0.0053716148
0.0061024139 -0.16908208 -0.0042152838
-0.006790183 -0.16918282 -0.0030729354
0.0068698148 -0.16908452 -0.0028453846
-0.0073782057 -0.16892919 -0.0010500482
0.0073874993 -0.16898613 -0.00088186329
-0.0074019036 -0.16907515 0.00093898177
0.0073710359 -0.16911325 0.0011203293
-0.0067972089 -0.16885112 0.0030205902
0.0068059196 -0.1689491 0.0030477031
-0.0061061289 -0.16880187 0.0042086574
-0.0053196512 -0.16913696 0.0051579471
0.0052680098 -0.1689609 0.0052201068
0.0061995145 -0.16914916 0.0042555216
-0.0043344577 -0.16950266 0.0061451243
-0.0027632229 -0.16905697 0.0069331229
-0.0011617857 -0.16892864 0.0073734783
0.0012517102 -0.16908649 0.0073549836
0.0030284652 -0.16898397 0.0068064192
0.0041556675 -0.16874802 0.0061423681
-0.0041569285 -0.17103253 -0.0061427308
-0.0030910298 -0.17097074 -0.0067617455
-0.00082134205 -0.17079942 -0.0074048485
0.001017366 -0.17110433 -0.0073911641
0.0028690216 -0.17127539 -0.0068871025
0.0042108991 -0.17093578 -0.0062411949
-0.0061520864 -0.17080359 -0.0043344195
-0.0051482324 -0.17114507 -0.0053376975
0.0053384076 -0.17110902 -0.0051371115
0.0061321026 -0.17150596 -0.0041721086
-0.0068239905 -0.171074 -0.0030234293
0.0067842202 -0.17099591 -0.0030352257
-0.0073568276 -0.17110002 -0.0012019046
0.0073677646 -0.17086649 -0.0010055768
-0.0073696985 -0.17094129 0.0010361148
0.0073995828 -0.17114733 0.00098111772
-0.0068092244 -0.17123088 0.0030188961
0.006793296 -0.17087644 0.0031002488
-0.00614403 -0.17090349 0.0041535194
-0.0053752377 -0.17087498 0.0051013283
0.0050813565 -0.17103739 0.005390917
0.0062135137 -0.17088081 0.0042545157
-0.0042230752 -0.17087555 0.0062321927
-0.002815664 -0.17099304 0.0069121015
-0.0010729549 -0.17098835 0.0073877322
0.00090672891 -0.17103598 0.0073898891
0.0029774841 -0.17116095 0.0068112491
0.0041693631 -0.17082034 0.0061329445
-0.0042206263 -0.17286375 -0.0060989456
-0.0029902894 -0.17307864 -0.0068229507
-0.0011257464 -0.17303212 -0.0073635145
0.00094849354 -0.17299646 -0.0074003194
0.003130222 -0.17292704 -0.0067673461
0.0042515276 -0.17316008 -0.0062067294
-0.0061980058 -0.17269242 -0.0042630681
-0.0053222692 -0.1728694 -0.0051721917
0.0053384993 -0.17315739 -0.0051319511
0.0060840505 -0.17302467 -0.0042420072
-0.0068716398 -0.17300241 -0.0029229417
0.0067671086 -0.17299435 -0.0031005635
-0.0073854714 -0.17289154 -0.001035666
0.0073942021 -0.17283317 -0.00094061572
-0.0073989951 -0.17304045 0.0008672924
0.0074203191 -0.17295665 0.00084553985
-0.0067761107 -0.17303295 0.0030559595
0.0068714842 -0.17319398 0.002910238
-0.0061140209 -0.17289265 0.0041971621
-0.005226308 -0.17295599 0.005262957
0.0051624463 -0.17296034 0.0053129517
0.0062189419 -0.17312711 0.0042418819
-0.004253909 -0.17276624 0.0062037911
-0.002874475 -0.17307499 0.0068915151
-0.0010156331 -0.17300886 0.0073831277
0.00104272 -0.17302229 0.0073808604
0.003175434 -0.17304848 0.0067212516
0.0042478004 -0.17302494 0.0060790111
-0.0041100634 -0.1751729 -0.0061749658
-0.0030342981 -0.17503767 -0.0067974953
-0.0010550014 -0.17509188 -0.0073769358
0.00080938882 -0.1751485 -0.0074230172
0.0031518096 -0.17496088 -0.0067661982
0.0042873565 -0.17504194 -0.0061754859
-0.0061013242 -0.17544124 -0.0043922844
-0.0050384374 -0.17515597 -0.0054261885
0.0053541362 -0.17520083 -0.0051346561
0.0060973531 -0.17535092 -0.0042226668
-0.0068065817 -0.174945 -0.0030606405
0.0068050665 -0.17491758 -0.0030488216
-0.0073993737 -0.17496502 -0.0010107408
0.0073644929 -0.17497577 -0.001148267
-0.0073665222 -0.17480136 0.0010323358
0.0074009597 -0.1749817 0.00092784857
-0.0068318341 -0.17510876 0.0029375774
0.006835646 -0.1750474 0.0029974196
-0.0061126538 -0.17439672 0.0041991454
-0.005340999 -0.17504071 0.0051460788
0.0051272614 -0.17502074 0.0053577777
0.0062338365 -0.17490515 0.0042155874
-0.0043460289 -0.17487539 0.0061331894
-0.0030211266 -0.17499153 0.0068212566
-0.0011035174 -0.17509107 0.0073751551
0.001096525 -0.17519559 0.0073714694
0.0029561983 -0.17495647 0.0068325675
0.0042196759 -0.17554383 0.0060983375
-0.0041490342 -0.17735803 -0.0061481819
-0.0028698726 -0.17713717 -0.0068693603
-0.0010174472 -0.17691669 -0.0073926914
0.0009548979 -0.17697757 -0.007398739
0.002948425 -0.17704183 -0.0068683289
0.0043318509 -0.17734914 -0.0061593158
-0.0061704461 -0.17692199 -0.0043077003
-0.0052252878 -0.17693081 -0.0052613234
0.0053244242 -0.17702751 -0.0051585073
0.0061226808 -0.17697513 -0.0041858321
-0.0068047801 -0.17680022 -0.003071734
0.0068842755 -0.17707406 -0.0027980362
-0.0074120401 -0.17712419 -0.00083592971
0.007389978 -0.17685397 -0.0008960244
-0.0073908577 -0.17714532 0.00096250733
0.0074081151 -0.17680958 0.00083057547
-0.0066889157 -0.17685673 0.0032412931
0.0068084225 -0.17713891 0.0030544342
-0.0061595994 -0.17695929 0.0041308515
-0.0052256901 -0.17708419 0.0052598142
0.0051335734 -0.17710453 0.005345535
0.0061758696 -0.17708583 0.0042928723
-0.0043266388 -0.17673254 0.0061500128
-0.0031402651 -0.17710556 0.0067593441
-0.0013144875 -0.17716047 0.0073345578
0.00092981523 -0.17709254 0.007392149
0.0031347552 -0.17695832 0.0067374008
0.0041494993 -0.17714655 0.0061465786
-0.0042304457 -0.17910953 -0.0060922168
-0.0030560878 -0.17887878 -0.0067698313
-0.00094247056 -0.17888352 -0.0074003912
0.00082093896 -0.17904201 -0.0074166995
0.0029303469 -0.17908621 -0.0068587572
0.0042119077 -0.17855215 -0.0062335059
-0.0062048412 -0.17880188 -0.0042426875
-0.0053214165 -0.17890251 -0.00517433
0.005182764 -0.17920038 -0.005304948
0.0061682072 -0.17866537 -0.0041196183
-0.0068419073 -0.17897373 -0.0029743973
0.0068496955 -0.17892183 -0.002926006
-0.0074149426 -0.17903253 -0.00087133772
0.0073732603 -0.17898746 -0.0010974496
-0.0073857848 -0.17923091 0.0010611861
0.0074136318 -0.17890669 0.0008999735
-0.0067123366 -0.17905587 0.0031965263
0.006772148 -0.17898871 0.0031221332
-0.0061875959 -0.17875578 0.0040901229
-0.0052999035 -0.17898333 0.0051769777
0.0053274161 -0.17900817 0.0051595424
0.0061712996 -0.17914182 0.0043119653
-0.0043093888 -0.17884235 0.0061623985
-0.0031862198 -0.17888956 0.0067512966
-0.00097474927 -0.17898563 0.0073982114
0.00097927556 -0.17910609 0.0073933555
0.0029996347 -0.1789733 0.0068105985
0.0041406327 -0.17873801 0.0061526685
-0.004218407 -0.181279 -0.0061005009
-0.002874959 -0.1810194 -0.0068597062
-0.00096032175 -0.18092354 -0.0073863263
0.001141625 -0.18105254 -0.0073656389
0.0028122421 -0.18093921 -0.0069335415
0.0043321061 -0.18098994 -0.0061488454
-0.0062106461 -0.18114927 -0.0042472626
-0.0051430557 -0.18106242 -0.0053361994
0.0053343787 -0.18094258 -0.0051443828
0.0060753999 -0.18123771 -0.004254621
-0.0067985179 -0.18116358 -0.003068411
0.0067474311 -0.18113799 -0.0031016504
-0.0074033276 -0.18106289 -0.00093664444
0.0073645888 -0.18093452 -0.0011800474
-0.0073713181 -0.18104821 0.0010821947
0.0074082026 -0.18092614 0.00087326491
-0.0068352302 -0.18107437 0.0029598591
0.0067546731 -0.18099712 0.0031736698
-0.0061143963 -0.18076165 0.0041965879
-0.0052424497 -0.18090558 0.0052417712
0.0053263069 -0.18100236 0.0051616807
0.0061476817 -0.18114102 0.0043276302
-0.0041968198 -0.18109809 0.0062509347
-0.0029195833 -0.18095861 0.0068730419
-0.00092958345 -0.18076162 0.0073982887
0.0009847075 -0.18112595 0.0073879729
0.0029583727 -0.18104927 0.0068252701
0.0041812551 -0.18086642 0.0061247326
-0.004186979 -0.18282881 -0.0061221137
-0.0031188291 -0.18303464 -0.006737493
-0.0010991842 -0.18312095 -0.0073800087
0.001059473 -0.18314329 -0.0073851333
0.0029902204 -0.18301138 -0.0068364362
0.0043436764 -0.18337837 -0.0061247759
-0.0062131444 -0.18291976 -0.004242321
-0.0051902705 -0.18304798 -0.0052988576
0.0052196058 -0.18274294 -0.0052628927
0.0061197113 -0.18346649 -0.0041901763
-0.0067725647 -0.18307613 -0.0031443411
0.0068238787 -0.18305151 -0.0029868898
-0.007392541 -0.18306589 -0.00091790635
0.0073738904 -0.18305607 -0.0010162895
-0.0073755584 -0.18300121 0.0010111276
0.0074072573 -0.18270002 0.00088826253
-0.0067431028 -0.18321893 0.0031396735
0.0068910425 -0.18299557 0.0028946372
-0.0062159253 -0.18303677 0.0040489002
-0.0052881027 -0.18280296 0.0051983022
0.0051173144 -0.18304887 0.0053736041
0.0061820014 -0.18273585 0.0042774552
-0.0041977884 -0.1827509 0.0062426757
-0.0030413712 -0.18286949 0.0068146712
-0.0011065317 -0.18309411 0.0073743481
0.00099533447 -0.18294704 0.0073953345
0.0029539785 -0.18296227 0.0068285647
0.004199469 -0.18324584 0.0061122021
-0.0042683361 -0.1850794 -0.0060661891
-0.0030804651 -0.18490274 -0.0067608766
-0.00090884173 -0.18502176 -0.0074055386
0.00093419495 -0.1850118 -0.0074081817
0.0029080305 -0.18515661 -0.0068757571
0.0042435317 -0.18482701 -0.0062084282
-0.0061905407 -0.18475996 -0.0042768097
-0.005147256 -0.18504506 -0.0053344457
0.0051509212 -0.18526295 -0.005343304
0.0061595016 -0.18504061 -0.0041323043
-0.006666536 -0.18510599 -0.0033640165
0.0067444639 -0.18492 -0.0031230163
-0.0073845503 -0.18510912 -0.0010544285
0.007397125 -0.18502012 -0.00098086556
-0.0073737702 -0.18488637 0.0010304183
0.0073699374 -0.18496409 0.0011633945
-0.0068114414 -0.18506266 0.0029759989
0.0069086403 -0.18498573 0.0028184247
-0.0060828137 -0.18496647 0.0042425105
-0.0052897753 -0.1850255 0.005184928
0.0052121906 -0.18497077 0.0052718031
0.0061702267 -0.1851071 0.0043017976
-0.0042178072 -0.1847783 0.0062343921
-0.0028383872 -0.18492424 0.0068996949
-0.00090824399 -0.18497671 0.0074022813
0.00091802253 -0.18510267 0.0073842546
0.0030210051 -0.18485223 0.0067970296
0.0041793212 -0.18527794 0.0061260462
-0.0041785557 -0.18691741 -0.00612792
-0.003159574 -0.18687212 -0.0067368411
-0.0011201149 -0.18686081 -0.0073566786
0.0010631311 -0.18685108 -0.0073776017
0.0028797602 -0.18713793 -0.0068911025
0.0042818584 -0.1869946 -0.0061804401
-0.0061866259 -0.18685192 -0.0042844624
-0.0051228972 -0.18698835 -0.0053450586
0.0052940622 -0.18704045 -0.0051932591
0.0061330153 -0.18684247 -0.0041708359
-0.0068115168 -0.18702233 -0.0030436257
0.0068508051 -0.18680513 -0.0029172385
-0.0073677092 -0.18697175 -0.0011629411
0.0073757693 -0.18706521 -0.0011618251
-0.007383029 -0.18714221 0.00097768009
0.0073735099 -0.18688478 0.0011752099
-0.0067540566 -0.18701528 0.0030892552
0.006817387 -0.18692866 0.0030355002
-0.0061118859 -0.18693918 0.0042002173
-0.0053574666 -0.18695767 0.0051195994
0.0052919337 -0.18704326 0.0051928936
0.0061660865 -0.18686879 0.0043119835
-0.0042194775 -0.18713339 0.0062289881
-0.0029107837 -0.18693745 0.006869148
-0.0013212332 -0.18690847 0.0073330267
0.0010126883 -0.18695022 0.0073818392
0.0030639875 -0.18705727 0.0067782872
0.0042042248 -0.1870234 0.0061089182
-0.0041995985 -0.18901671 -0.0061134603
-0.003018125 -0.18928467 -0.0067915097
-0.0011105243 -0.18896246 -0.0073683895
0.00089902367 -0.18911925 -0.0074088853
0.0030823594 -0.18911342 -0.0067965416
0.0042253612 -0.18932715 -0.0062237857
-0.0062331045 -0.1888909 -0.0042136274
-0.0051274048 -0.18903989 -0.0053519919
0.0052038515 -0.18918374 -0.0052856817
0.0061415629 -0.18896522 -0.0041584107
-0.0068089115 -0.18899877 -0.0030546198
0.0067975526 -0.18900338 -0.0029957343
-0.0073591531 -0.18903865 -0.001174637
0.0073608439 -0.18907645 -0.0011718037
-0.0074030738 -0.18896185 0.00079158781
0.0073764706 -0.1889046 0.0010973953
-0.0068271267 -0.18888028 0.0029643201
0.0068357079 -0.18875436 0.0029946805
-0.006087149 -0.18865776 0.004236191
-0.0053374427 -0.18907841 0.0051438222
0.0052158888 -0.18903205 0.0052721379
0.0061925603 -0.18889871 0.0042567179
-0.0041632932 -0.18860324 0.0062577133
-0.0029366934 -0.18900286 0.0068568466
-0.0010073703 -0.18876487 0.0073978333
0.00085913896 -0.18893933 0.0073975762
0.0029962519 -0.18901208 0.006794353
0.0041589197 -0.18894467 0.0061400593
-0.0042614876 -0.19112888 -0.0060709198
-0.0031486889 -0.1909066 -0.006728461
-0.0011535855 -0.1910283 -0.0073608211
0.0010184853 -0.19094414 -0.00739484
0.0029479091 -0.19114842 -0.0068547488
0.0043149544 -0.19095975 -0.006150913
-0.0062097292 -0.19108061 -0.0042488948
-0.0051923059 -0.1909842 -0.0052964739
0.0052488865 -0.1909807 -0.0052344189
0.0060905609 -0.19108829 -0.0042326031
-0.0068306625 -0.191211 -0.002999723
0.0067109363 -0.19096155 -0.0031876268
-0.0073906551 -0.19103242 -0.0010393257
0.0073938821 -0.19121875 -0.00086896232
-0.0073792161 -0.19103327 0.0010353562
0.0074063856 -0.1910509 0.00091130409
-0.0068259113 -0.19078313 0.0029714564
0.0068840487 -0.19103053 0.0029056042
-0.0061673834 -0.19106387 0.0041194786
-0.0052161207 -0.19091219 0.0052617718
0.0051878993 -0.19089612 0.0052971323
0.0060849478 -0.19078138 0.0044143619
-0.0042320513 -0.19096778 0.006216221
-0.0028232755 -0.19101551 0.0069166888
-0.00093457534 -0.19106223 0.0073959888
0.00090927532 -0.191121 0.0073960316
0.003042832 -0.19095506 0.0067652515
0.0041495394 -0.19124359 0.0061464999
-0.0042482442 -0.1931742 -0.0060800314
-0.0030845481 -0.19314243 -0.0067635714
-0.0010746573 -0.1930631 -0.0073629976
0.00099906791 -0.19309185 -0.0073936973
0.0030987668 -0.19301564 -0.006790753
0.0043102619 -0.19322737 -0.0061530997
-0.0062034894 -0.19317506 -0.0042771758
-0.0052693067 -0.19302683 -0.0052199764
0.0052845879 -0.1930439 -0.0051931674
0.0061085094 -0.19300421 -0.0042065037
-0.0069292346 -0.19307965 -0.0028015475
0.0068132542 -0.19321017 -0.0030048415
-0.0073675606 -0.19302636 -0.0011677711
0.0074007786 -0.19299461 -0.0008580077
-0.0073975376 -0.19289538 0.00095612585
0.0074213226 -0.19299346 0.00079851819
-0.006788014 -0.19293308 0.0030168125
0.0068363473 -0.19281988 0.0029951809
-0.0061280895 -0.19305049 0.0041766264
-0.0053204373 -0.19307075 0.0051611504
0.0052354764 -0.19307986 0.0052376017
0.0062117223 -0.1929739 0.004228516
-0.0043035545 -0.19323178 0.0061682574
-0.0028294453 -0.19290875 0.0069109849
-0.00091693789 -0.19299495 0.0074072224
0.00097243366 -0.19289663 0.0073811617
0.002973157 -0.1931452 0.0067997593
0.004187847 -0.19296747 0.006120157
-0.0042092623 -0.19465049 -0.0061068367
-0.0032012006 -0.1949279 -0.0067195571
-0.00097797334 -0.19496889 -0.0073859235
0.0010731856 -0.19491783 -0.0073823999
0.003096927 -0.19509621 -0.0067971
0.0042915656 -0.19493869 -0.0061782086
-0.0062096515 -0.19493529 -0.0042313361
-0.0051969341 -0.19519046 -0.0052863578
0.0053312024 -0.19519177 -0.0051465523
0.006097117 -0.19495071 -0.0042230822
-0.0068384581 -0.19505949 -0.0029712773
0.0067323064 -0.19487357 -0.0031625875
-0.0074105123 -0.19479404 -0.00086196326
0.0074047875 -0.19506204 -0.00078271847
-0.0073711425 -0.19513838 0.0010263296
0.0073948987 -0.19498149 0.0010210408
-0.0067601288 -0.1949666 0.0030959593
0.0067629102 -0.1950452 0.0031352208
-0.00614839 -0.19485296 0.0041470905
-0.0052531785 -0.19490452 0.0052200835
0.0053350013 -0.19510406 0.0051554507
0.006187642 -0.19496746 0.0042849397
-0.0043311529 -0.19465119 0.0061521046
-0.0031050432 -0.19504979 0.0067837755
-0.00084396551 -0.19486779 0.0074307271
0.00086732901 -0.1949684 0.0073980847
0.0031054139 -0.19509766 0.0067562675
0.0041858563 -0.19488384 0.006121519
-0.0041598058 -0.19777875 -0.0061408505
-0.0029978065 -0.19707133 -0.0068063615
-0.0010112241 -0.19713046 -0.0073887133
0.0012107786 -0.19685656 -0.0073599163
0.0032634789 -0.19702174 -0.0067066546
0.0043071466 -0.19696781 -0.0061752158
-0.0061676442 -0.19678238 -0.0043026381
-0.0052536693 -0.19691844 -0.0052326084
0.0053058434 -0.19700764 -0.0051790951
0.0061495574 -0.19714198 -0.0041468125
-0.0067840833 -0.19718587 -0.003119169
0.0067958962 -0.19709329 -0.002994766
-0.0073949564 -0.19703722 -0.0009653868
0.0073742559 -0.19703254 -0.001052992
-0.0074169827 -0.19712399 0.00082422508
0.0074279066 -0.19692326 0.00069673831
-0.0067683952 -0.19696814 0.0030703736
0.0067939665 -0.19701929 0.003077178
-0.0061289808 -0.19724761 0.0041753142
-0.0052715726 -0.1969047 0.0052178521
0.0050296113 -0.19678745 0.0054420298
0.0062047704 -0.19713466 0.0042552371
-0.0043112533 -0.19719569 0.0061577023
-0.0031556529 -0.19693168 0.006765354
-0.0010806719 -0.19712748 0.0073706689
0.00093042379 -0.19700295 0.007388473
0.0027980471 -0.19686985 0.0068918029
0.0041324869 -0.19702238 0.0061582024
-0.0041347747 -0.19896573 -0.0061580627
-0.0033248526 -0.19897954 -0.0066623529
-0.0011402911 -0.19904867 -0.0073562972
0.0010258481 -0.19889459 -0.0073920139
0.0028276197 -0.1990118 -0.0069052507
0.004239846 -0.19893289 -0.0062061753
-0.0061284355 -0.19918573 -0.0043616747
-0.0052152416 -0.19917786 -0.0052685114
0.0052691856 -0.19885547 -0.0052207969
0.0060911509 -0.19889197 -0.0042317742
-0.0068071531 -0.19909197 -0.0030675502
0.0068371226 -0.19901019 -0.002911428
-0.0074134124 -0.19909643 -0.00087088381
0.0073897042 -0.19895294 -0.00095967529
-0.0073757032 -0.1989323 0.0011097849
0.0073763267 -0.19882461 0.0010401931
-0.0068106814 -0.1990293 0.0029910556
0.0068210014 -0.19892293 0.0030304014
-0.0061156517 -0.19941066 0.0041946946
-0.0051908894 -0.19897428 0.0052973502
0.005161779 -0.19893628 0.0053118914
0.0062430934 -0.19893886 0.0041899155
-0.0042209392 -0.19897489 0.0062234597
-0.0029641001 -0.19904047 0.0068618446
-0.0011718392 -0.19902761 0.0073588016
0.0011186609 -0.19879659 0.0073705041
0.0031118828 -0.19901462 0.0067391414
0.0041298205 -0.19909555 0.0061600278
-0.0042140665 -0.20115755 -0.006103558
-0.0030962329 -0.20100269 -0.0067463918
-0.0010144052 -0.20097306 -0.0073781498
0.00099077984 -0.20097403 -0.0073914686
0.0028784147 -0.20108999 -0.0068877833
0.0042873607 -0.20116492 -0.0061812033
-0.0062019387 -0.20092091 -0.0042464337
-0.00534205 -0.2012374 -0.0051502003
0.0052328696 -0.2010577 -0.0052467678
0.0060821576 -0.20069002 -0.0042448621
-0.0067983726 -0.20111331 -0.0030588291
0.0067500346 -0.20094906 -0.0030958811
-0.0074025509 -0.20121932 -0.00097237865
0.0073932107 -0.20099945 -0.00090830354
-0.0073634684 -0.20105036 0.0011144817
0.0073898588 -0.2008554 0.00099433726
-0.0067142518 -0.2010604 0.0031987941
0.0067957328 -0.20113812 0.0030809003
-0.0061247558 -0.20095834 0.0041814465
-0.005246114 -0.20093752 0.0052365889
0.0052423431 -0.20118001 0.0052422225
0.0061463243 -0.20101418 0.0043316591
-0.004315204 -0.20094492 0.0061606895
-0.0028976118 -0.20089342 0.0068787108
-0.00090531289 -0.20105633 0.0074085211
0.0011809643 -0.2011171 0.0073531764
0.0031172412 -0.20096417 0.0067470432
0.0041529029 -0.20075192 0.0061441525
-0.004145945 -0.20287989 -0.0061503979
-0.0029596996 -0.20299675 -0.0068200766
-0.0011179511 -0.20302208 -0.0073766797
0.0011033907 -0.20281811 -0.0073843123
0.0032328065 -0.20308505 -0.0067186654
0.0042829672 -0.20329013 -0.0061834455
-0.0062740697 -0.20313184 -0.004152596
-0.0051741828 -0.20292445 -0.0053117191
0.0053670667 -0.20296778 -0.005114187
0.0061429031 -0.20315252 -0.0041565127
