# .PCD v0.7 - Point Cloud Data file format
VERSION 0.7
FIELDS x y z
SIZE 4 4 4
TYPE F F F
COUNT 1 1 1
WIDTH 1264
HEIGHT 1
VIEWPOINT 0 0 0 1 0 0 0
POINTS 1264
DATA ascii
0.0054201283 -0.0052475668 0.13333628
0.0064750132 -0.0048776441 0.13286057
-0.0080933869 -0.0024444929 0.13248494
-0.0072022802 -0.0031585859 0.13308333
0.0072215861 -0.0030318939 0.13311522
0.0082055666 -0.0020833004 0.1325002
-0.0082932748 -0.0010994636 0.13265675
-0.0074584931 -0.0011755389 0.13343574
0.0074669039 -0.00094031927 0.13331623
0.0083439481 -0.00097095524 0.13266157
-0.0083153676 0.00087022554 0.13265929
-0.0074413354 0.0012036753 0.13332359
0.0075383908 0.0010843636 0.13326104
0.0083578639 0.0009155742 0.13274176
-0.0081065474 0.0023803574 0.1327931
-0.0072487677 0.0031632823 0.13298993
0.0072446042 0.002957135 0.1331241
0.0081411749 0.0022788341 0.13267434
-0.0066569322 0.0048897541 0.13271907
-0.0053772586 0.0053284797 0.13329576
0.0053015961 0.0053432444 0.13335913
0.0067773676 0.0047547701 0.13280433
-0.0048068082 0.0065766764 0.13296486
-0.0030866379 0.0071324506 0.13314302
-0.00092598627 0.007499807 0.13332157
0.001209986 0.0075193923 0.13332242
0.0032598637 0.0070815436 0.13312301
0.0047761276 0.0066299788 0.13278382
-0.0023800156 0.0081181787 0.13246885
-0.00087865454 0.0083799595 0.13256341
0.0010383801 0.0082962876 0.13275956
0.0024159923 0.0080946693 0.13262843
-0.0041647553 -0.0061367308 0.13494125
-0.0029827228 -0.0068184379 0.13508904
-0.0010049909 -0.0073795998 0.13496678
0.0010530829 -0.0073813275 0.13515313
0.0028042714 -0.0069303862 0.13470568
0.0044375896 -0.0060624108 0.13478976
-0.0062382994 -0.00420747 0.13456427
-0.0051539699 -0.0053356229 0.13478211
0.005214015 -0.0052688005 0.13496605
0.006119675 -0.0041895639 0.13504824
-0.0067770234 -0.0031208193 0.13494265
0.0067674704 -0.0030425671 0.13483809
-0.0073837056 -0.0010373043 0.13508278
0.0073720389 -0.0010485422 0.13499418
-0.0073716608 0.0010969577 0.1350394
0.0073998142 0.00092091877 0.13505459
-0.0068350025 0.0029054843 0.13511582
0.0068144533 0.0030233085 0.13494758
-0.0061204792 0.0041883951 0.13477264
-0.0052487953 0.0052368063 0.13506031
0.0051975739 0.0052892235 0.13501467
0.0061430219 0.004340468 0.13489074
-0.0043061799 0.0061617075 0.13528123
-0.0030069817 0.0068370202 0.13498458
-0.0011500003 0.0073663229 0.1350877
0.0011362931 0.0073599191 0.13507026
0.0030502737 0.0067706825 0.13525866
0.0042254408 0.0060950094 0.13500404
-0.0042010634 -0.0061117695 0.13697338
-0.0029537086 -0.0068229344 0.13697529
-0.00081169337 -0.0074025523 0.13696902
0.00096527487 -0.0073977835 0.13719089
0.0030120208 -0.0068251863 0.13719764
0.004373576 -0.0061210371 0.13733903
-0.0061440724 -0.0043364433 0.13693076
-0.0051910006 -0.0052964129 0.13696751
0.0054110815 -0.0050637866 0.13705455
0.0061473278 -0.0041493415 0.13690595
-0.0068063168 -0.0030656888 0.13698681
0.0068225469 -0.0029836583 0.1370436
-0.0074078324 -0.00095568161 0.13688613
0.0073788934 -0.00097172585 0.13709128
-0.0073869196 0.00093541708 0.13701719
0.00738726 0.0010505177 0.1371558
-0.0068443608 0.0029250323 0.13704802
0.006792089 0.0030915961 0.13705197
-0.0061228806 0.0041849012 0.13703559
-0.0053127366 0.0051681288 0.1369337
0.005161365 0.0053272606 0.1373304
0.0062104021 0.0042478745 0.1369977
-0.0042218938 0.006226419 0.13692942
-0.0028377401 0.0068874839 0.13697509
-0.00096242025 0.0074024219 0.13687471
0.0011106422 0.0073751928 0.13704614
0.003018003 0.0067911744 0.1370734
0.0041646995 0.0061367699 0.13692167
-0.0042380546 -0.0060863383 0.13883811
-0.0031388106 -0.0067530056 0.1391522
-0.00095386384 -0.0073855962 0.139047
0.00088673393 -0.0074134348 0.13880879
0.00277045 -0.0069291322 0.1388965
0.0042784354 -0.0061828089 0.13900442
-0.0061635748 -0.0043033957 0.1390661
-0.0052165873 -0.005266001 0.13881312
0.0052767573 -0.0052037714 0.13891256
0.0061389147 -0.0041615791 0.13894609
-0.0068058865 -0.0030482882 0.13901621
0.0067276852 -0.003139226 0.13885689
-0.0073840166 -0.0010600071 0.13874802
0.0074062934 -0.00077940698 0.13901308
-0.0073771626 0.0010613928 0.1391086
0.0073979241 0.0010086388 0.13896549
-0.0067469045 0.0030925954 0.13908756
0.0068165185 0.003026692 0.13913143
-0.0061289128 0.0041761268 0.1388146
-0.0052804421 0.0052035078 0.13898124
0.0051077958 0.0053704171 0.13887106
0.0061993585 0.0042580706 0.13894144
-0.0043015671 0.0061661541 0.13907093
-0.0030684462 0.0068021263 0.1390572
-0.0010244955 0.0073859822 0.13917784
0.00086138438 0.0073960824 0.13903864
0.0031621933 0.0067236833 0.13889308
0.0041729761 0.006131079 0.13873208
-0.0042052651 -0.006108881 0.14092575
-0.0028903503 -0.0068484275 0.14102782
-0.0011760007 -0.0073631387 0.14094815
0.0012755968 -0.0073536467 0.14099817
0.0026979716 -0.0069660894 0.14105789
0.0043184645 -0.0061603896 0.14069182
-0.006180502 -0.0042827111 0.14104719
-0.0052212342 -0.0052578296 0.14105722
0.0051734885 -0.0053158416 0.14100415
0.0060802614 -0.0042468933 0.14096221
-0.006877596 -0.0028973205 0.14099935
0.0067859879 -0.003018033 0.14093825
-0.0073909271 -0.0010067581 0.14093454
0.0073863766 -0.00095936708 0.1410559
-0.0073454082 0.0012614265 0.14101887
0.0073920125 0.0010656294 0.14100839
-0.0068711322 0.0028543966 0.14100806
0.0067773918 0.0031154694 0.14096799
-0.0061072749 0.0042076008 0.1413013
-0.005318989 0.0051643979 0.14100555
0.0051763621 0.0053016362 0.14105871
0.0061865351 0.00427309 0.14108796
-0.0043695793 0.006129595 0.14091018
-0.0030758469 0.0068066726 0.1409588
-0.00098261668 0.0073902719 0.14091909
0.00097310869 0.0073816781 0.14086497
0.0030927041 0.0067580231 0.14092377
0.0042124167 0.0061039636 0.14110853
-0.0041779988 -0.0061276266 0.14326607
-0.0030054592 -0.0067922431 0.14298061
-0.0011013965 -0.007372404 0.14300485
0.00084269937 -0.007417724 0.14306857
0.0029596905 -0.0068563865 0.1428902
0.0042736903 -0.0061800601 0.14290902
-0.0062217438 -0.0042427932 0.14299104
-0.0052137007 -0.0052728993 0.14323908
0.005304405 -0.0051774285 0.14308184
0.0061381822 -0.0041626436 0.14319634
-0.0067469808 -0.0031636911 0.14305916
0.0067304038 -0.0031559428 0.14284252
-0.0073893168 -0.0010089352 0.14321801
0.0073908274 -0.00089683477 0.14279123
-0.0073931748 0.00093218096 0.1428736
0.0074071884 0.00091471651 0.14316042
-0.0067913015 0.0030225506 0.14300418
0.0068031503 0.003037618 0.14300242
-0.0061655445 0.0041228449 0.14311804
-0.0052942229 0.0051978049 0.14280871
0.0052345032 0.0052470318 0.14286378
0.0062393532 0.0041978583 0.14264086
-0.0043106778 0.0061689746 0.14268728
-0.0029870863 0.0068323454 0.14316256
-0.0009247603 0.0074052378 0.14300698
0.0012059979 0.0073487381 0.14296731
0.0030557418 0.0067830971 0.14298491
0.0041607781 0.0061394656 0.14311846
-0.00421328 -0.0061033708 0.14464383
-0.0030656729 -0.0067727678 0.14507414
-0.00076039188 -0.007406218 0.14506721
0.0010054022 -0.0073946952 0.14506644
0.0030848924 -0.0067869993 0.14497352
0.0042569037 -0.0062052696 0.14474232
-0.0062256167 -0.0042134332 0.14500698
-0.0052608387 -0.0052276915 0.14514406
0.0052064639 -0.0052890736 0.14499231
0.0061832354 -0.0040971129 0.14462569
-0.0068552392 -0.0029593492 0.14488894
0.0068002213 -0.0029869024 0.14502077
-0.0073994156 -0.0010080579 0.14510626
0.0073695672 -0.0011097847 0.14513165
-0.0073747952 0.0010666567 0.1448631
0.0073695802 0.001165977 0.14499073
-0.0067778309 0.0030404148 0.14511578
0.0068022995 0.0030486353 0.14487608
-0.0060791676 0.0042484845 0.14483948
-0.005374969 0.0051104492 0.14493257
0.0052201054 0.0052708532 0.14489177
0.0062260767 0.0042293547 0.14481798
-0.0041862591 0.0062367078 0.14512321
-0.0030684471 0.0067940736 0.1450741
-0.0011525262 0.007375685 0.14511321
0.00078261498 0.007406685 0.1449316
0.0030336487 0.0067863418 0.1450862
0.0041731829 0.0061309366 0.14483148
-0.0041454807 -0.0061499821 0.14728276
-0.0029224826 -0.0068450114 0.1471016
-0.0010363328 -0.0073684826 0.14702952
0.0010630876 -0.0073804664 0.14698704
0.002903976 -0.0068742144 0.14692396
0.0042182594 -0.0062324954 0.14713
-0.0062718936 -0.0041418611 0.14692158
-0.0050636465 -0.0054110233 0.14680296
0.0052245287 -0.0052595865 0.14717123
0.0061307424 -0.0041734669 0.14749204
-0.0068209786 -0.0030062387 0.14709164
0.0067893667 -0.0030075703 0.14715257
-0.0074040811 -0.00096195651 0.14701901
0.0073926724 -0.00086709892 0.14679693
-0.0073639425 0.0011055334 0.14690103
0.0073714266 0.0011529188 0.14685355
-0.006804171 0.0029853573 0.1469482
0.0068006716 0.0030724027 0.14699093
-0.0060982504 0.0042207269 0.14690879
-0.0051511056 0.0053373701 0.14695981
0.0052825059 0.0052097533 0.14697175
0.0062285908 0.0042028045 0.14666249
-0.0042259796 0.0062145269 0.14698324
-0.0029213775 0.0068619545 0.14685164
-0.0011762689 0.0073680454 0.1470757
0.00092911668 0.0073895198 0.14708501
0.0030566412 0.0067709773 0.14693689
0.0041366732 0.0061560376 0.14713161
-0.0041845073 -0.0061231521 0.14910297
-0.0027752544 -0.0069031338 0.14893389
-0.0010703986 -0.0073790988 0.1491226
0.0011539084 -0.0073725698 0.14890914
0.0030626033 -0.0067975577 0.14881088
0.0042625275 -0.006189134 0.14932956
-0.0061797518 -0.0042749466 0.14913398
-0.0050957836 -0.005372894 0.14895964
0.0052907094 -0.0051900768 0.14905611
0.0061075552 -0.0042071929 0.14902432
-0.0067637553 -0.0031330232 0.14908145
0.0067840084 -0.003042866 0.14893571
-0.007403655 -0.00089635939 0.14907756
0.0073701497 -0.0010286431 0.14890705
-0.0073940018 0.00092006812 0.14886333
0.0073825568 0.0010991369 0.14901511
-0.0067691216 0.0030515548 0.14916217
0.0068070455 0.0030445156 0.14910747
-0.0061206082 0.004188206 0.14900988
-0.005140705 0.0053509707 0.14908941
0.0051660729 0.0053213006 0.14894058
0.0061728577 0.0042908839 0.1489839
-0.0042352527 0.0062130038 0.14877579
-0.0029810553 0.0068418798 0.14904463
-0.0010923401 0.0073723262 0.14897528
0.001136073 0.0073544714 0.1490718
0.0030425007 0.0067918357 0.14912766
0.0041666809 0.0061354069 0.14901221
-0.0041765445 -0.0061286259 0.15068725
-0.0031009128 -0.0067525115 0.1509154
-0.00083146559 -0.0074065044 0.15088987
0.00090509013 -0.0074003264 0.1509559
0.002962356 -0.0068443138 0.15097027
0.0042248638 -0.0062202588 0.15080102
-0.0062366445 -0.0041896361 0.15114091
-0.0052355812 -0.0052475748 0.15101278
0.0053393203 -0.0051415307 0.15079713
0.0061455462 -0.0041519329 0.15091495
-0.0068622767 -0.0029167633 0.15086606
0.006766981 -0.0030369274 0.15093149
-0.007352348 -0.0011459283 0.15120466
0.0074149054 -0.00077271997 0.15099107
-0.0073875342 0.00096425321 0.15110844
0.007392229 0.000964106 0.15107939
-0.0068170759 0.0029766022 0.15089472
0.0068815267 0.0028634563 0.15082568
-0.00609136 0.0042307498 0.15090171
-0.0053740698 0.0051021818 0.15095185
0.0051490474 0.0053290967 0.1509949
0.0061700745 0.004293133 0.15097545
-0.0042310893 0.0062121595 0.15101342
-0.0028338362 0.0068979333 0.15101232
-0.00098008558 0.0074056154 0.15101974
0.0011468579 0.0073630442 0.15096959
0.0032942165 0.0066526816 0.15109892
0.0042035878 0.006110034 0.15134753
-0.0041680699 -0.0061344532 0.15269625
-0.0028797309 -0.0068594543 0.15303048
-0.00091146742 -0.0073919999 0.15296416
0.00095439435 -0.0074020475 0.15295847
0.0029924198 -0.006841457 0.15322857
0.0042822845 -0.0061855814 0.15271471
-0.0061335051 -0.0043426873 0.15287448
-0.0052944338 -0.0051999544 0.15306669
0.0053722705 -0.0051035378 0.15296747
0.0061577335 -0.0041342061 0.15307149
-0.0067171566 -0.0032340726 0.15288876
0.0067852894 -0.0030295616 0.15300405
-0.0073835719 -0.0010856135 0.15293929
0.0073733674 -0.00095800014 0.15321925
-0.0073960014 0.00093095307 0.15321839
0.007410707 0.00091057038 0.15301929
-0.0066794348 0.0032430247 0.15303321
0.0068453657 0.0029606246 0.15303318
-0.0061482992 0.0041479282 0.15282844
-0.0052050855 0.0052814032 0.15309368
0.0052816924 0.0052062967 0.15303814
0.0061500855 0.0043238224 0.1530118
-0.00423451 0.0062042587 0.15324828
-0.0030339211 0.0067987358 0.15308562
-0.0011511553 0.0073716631 0.15295444
0.0010891634 0.007363732 0.15310057
0.0031104812 0.0067339111 0.15295826
0.0041955211 0.0061155795 0.15287881
-0.0041098786 -0.0061744587 0.15497477
-0.0031345331 -0.0067354525 0.15480088
-0.0011484163 -0.0073648524 0.15489748
0.0011801836 -0.0073631392 0.15498528
0.0030188253 -0.0068232305 0.15500414
0.0042671002 -0.0061964877 0.15498959
-0.0062318472 -0.0042080311 0.15460356
-0.0052512703 -0.0052339653 0.15483566
0.0053022709 -0.0051814197 0.15491997
0.006113762 -0.0041981647 0.15504546
-0.0068509527 -0.0029303483 0.15506859
0.0067432541 -0.0030877274 0.15494631
-0.0073651704 -0.0010829371 0.1549553
0.0073949406 -0.0008496535 0.15487644
-0.0073788813 0.00098064367 0.15501708
0.0074122087 0.00081716222 0.15515184
-0.0068203919 0.0029364773 0.15503272
0.006798767 0.0030417112 0.15495019
-0.006136965 0.0041644145 0.15519166
-0.0052802362 0.0051979832 0.15509383
0.0050948304 0.0053795748 0.15495102
0.0062198695 0.0042177136 0.15477768
-0.0042096195 0.006226548 0.15524937
-0.0030435049 0.0068059294 0.15510397
-0.00090954133 0.0074046724 0.15499015
0.000911674 0.0073885461 0.15497543
0.0030657281 0.0067662005 0.15490407
0.0041125966 0.00617259 0.15408799
-0.0041984534 -0.0061135641 0.15720978
-0.0030159112 -0.0068023666 0.15695672
-0.0010014987 -0.0073746503 0.15698333
0.00096338533 -0.0073966184 0.15702246
0.0031022693 -0.006784515 0.15686087
0.0042619272 -0.0061900718 0.15696967
-0.0061745397 -0.0042895135 0.15685387
-0.0051463563 -0.0053385366 0.15697335
0.0053798445 -0.0050952723 0.15709269
0.0060740192 -0.0042559728 0.15686473
-0.0067859949 -0.0030665947 0.1570362
0.0067464132 -0.0030858659 0.15698276
-0.0074030692 -0.00091839128 0.15702002
0.0073871212 -0.00091894763 0.15709944
-0.0074039251 0.00082795112 0.15696275
0.0073950072 0.0010150969 0.15704128
-0.0068935244 0.0027941009 0.15702018
0.006770107 0.0031305689 0.15693551
-0.0061050523 0.0042108335 0.15663679
-0.0053254287 0.0051590302 0.15689613
0.0052120537 0.0052764085 0.1571864
0.0062160608 0.0042173173 0.15725668
-0.0043142289 0.0061616283 0.15722966
-0.0030939053 0.0067715943 0.15693416
-0.0011130302 0.0073741185 0.15694864
0.00097005867 0.007378283 0.15698977
0.0032379602 0.0066735032 0.15694043
0.0041907202 0.0061188797 0.1573388
-0.0040949434 -0.0061847265 0.15872121
-0.0030552743 -0.0067525334 0.15904433
-0.00072421011 -0.0074083749 0.15897566
0.00094158592 -0.0074060019 0.15891539
0.0030381479 -0.006814661 0.15898788
0.0042287628 -0.0062222667 0.15908097
-0.0061794035 -0.0042800349 0.15914264
-0.0051041832 -0.0053716549 0.15892759
0.0052516209 -0.005228248 0.15901707
0.006111871 -0.0042009153 0.15892196
-0.006817766 -0.0030067777 0.15893935
0.0067827837 -0.0030358962 0.15902016
-0.0073816045 -0.0010569396 0.15886448
0.0073846877 -0.00098473229 0.15888457
-0.0073953774 0.00087116164 0.15915313
0.0073940991 0.00098298106 0.15896077
-0.0068295863 0.0029483279 0.15879653
0.0068136975 0.0030361118 0.15895352
-0.0061265575 0.0041795531 0.1588494
-0.0051708701 0.0053159413 0.15900488
0.0052644014 0.0052183392 0.15902247
0.0061883926 0.0042798705 0.15924859
-0.0042481162 0.0062033823 0.15864341
-0.0028791919 0.0068855667 0.15893076
-0.0008877808 0.0074097123 0.15911758
0.0010458766 0.0073630298 0.15882893
0.003276773 0.0066578542 0.15902841
0.0041629537 0.006137969 0.15895854
-0.0042887973 -0.0060514524 0.16114648
-0.0031190191 -0.0067537222 0.16096967
-0.00091821316 -0.0073849536 0.16083845
0.0010227823 -0.0073874043 0.16101913
0.0031158586 -0.0067783836 0.1609389
0.004272426 -0.0061868597 0.16122551
-0.0061951391 -0.0042460808 0.16090231
-0.0053082234 -0.0051760757 0.1609554
0.0053377477 -0.0051309299 0.16092588
0.0061624022 -0.0041274158 0.16116424
-0.006796883 -0.0030398145 0.16104765
0.0067489902 -0.0030910561 0.16098788
-0.0073992168 -0.00095885375 0.16114223
0.007342271 -0.0012629883 0.16104782
-0.0073885201 0.00094659813 0.16076522
0.0074050603 0.00089314702 0.16116904
-0.0067412443 0.003117983 0.16100413
0.0067712353 0.0031121094 0.1608358
-0.0061076386 0.0042070718 0.16095056
-0.0054612984 0.0050124614 0.16085157
0.0052865874 0.0052018701 0.1610357
0.0061792703 0.0042694886 0.16103707
-0.0043271594 0.0061529204 0.16118033
-0.0030418029 0.0068068174 0.16099021
-0.0009962956 0.0073870574 0.16120766
0.00099944242 0.0073745488 0.16092314
0.0029845175 0.0068054199 0.16094503
0.0042003384 0.0061122677 0.16081865
-0.0041813701 -0.0061253086 0.16329338
-0.0029974706 -0.0067931344 0.16288698
-0.0010093891 -0.0073862975 0.16309161
0.00089728431 -0.0074079419 0.16295491
0.0030923758 -0.0067983507 0.16294049
0.0042669578 -0.0061905915 0.16322012
-0.0062108259 -0.0042517777 0.16318564
-0.0051945695 -0.0052968301 0.16325234
0.0052548 -0.0052245278 0.16315408
0.0061193341 -0.0041900598 0.16325907
-0.0068126135 -0.0030195271 0.16303988
0.0067388741 -0.0031445823 0.16303159
-0.0073815221 -0.0010892628 0.16305166
0.0073726736 -0.0010533169 0.16287056
-0.0073810359 0.00098594709 0.16305752
0.0074047102 0.00094581186 0.16305271
-0.0067721466 0.0030491287 0.16299346
0.0067205154 0.0032244758 0.1630009
-0.0061109895 0.0042021978 0.16298418
-0.0051945806 0.0052981866 0.16310044
0.0052635362 0.0052218516 0.16307442
0.0061685983 0.0043115872 0.16359195
-0.0041654645 0.0062513519 0.16275218
-0.0030926345 0.0067817671 0.16303831
-0.0010433239 0.0073848334 0.16308329
0.00094450143 0.0073802643 0.16322094
0.0030135915 0.0067818942 0.16301629
0.0041631944 0.0061378041 0.16296121
-0.0041362192 -0.00615635 0.16509435
-0.0030748921 -0.0067726909 0.16517009
-0.0010624869 -0.0073692179 0.16504616
0.00095122214 -0.0073924195 0.16490903
0.0030653048 -0.0068030078 0.16495885
0.0041706059 -0.0062468946 0.16479251
-0.0061505758 -0.0042998875 0.16501127
-0.0051147025 -0.0053632217 0.16506784
0.0052359202 -0.0052499389 0.16483223
0.0060645612 -0.0042697294 0.1649712
-0.0068197562 -0.0030083461 0.16492683
0.0067266165 -0.0031385312 0.16519643
-0.0073549501 -0.0012093303 0.16499177
0.0073922025 -0.00088236586 0.1649522
-0.0073837205 0.001006618 0.16486923
0.0073949583 0.0010125666 0.16515182
-0.0067342604 0.0031314152 0.1647941
0.0068683713 0.0028891624 0.16479968
-0.0061096465 0.0042041512 0.1652696
-0.0052123829 0.0052729524 0.16509843
0.0051963585 0.0052835708 0.16501833
0.0062219212 0.0041946997 0.16460548
-0.0043050568 0.0061610672 0.16468661
-0.0029229168 0.0068574655 0.16502823
-0.0010228396 0.007390229 0.16493371
0.0010512468 0.0073608053 0.16488335
0.003041367 0.0067853346 0.16494974
0.0041964245 0.0061149588 0.16472596
-0.0042293696 -0.006092309 0.16739653
-0.0030534028 -0.0067737959 0.16692679
-0.0011841448 -0.0073674922 0.16698608
0.0010792835 -0.0073784511 0.16699409
0.0029098182 -0.0068773143 0.16703767
0.0042691282 -0.0061811823 0.16719069
-0.0061352961 -0.0043417863 0.1670368
-0.005236702 -0.0052467026 0.16700755
0.0050438037 -0.0054558408 0.1671537
0.0060822233 -0.0042440398 0.16684864
-0.0068749534 -0.0028751432 0.16692793
0.0067206575 -0.0031856168 0.16693982
-0.0074102641 -0.00090671435 0.1670772
0.0073560337 -0.0011417144 0.16698128
-0.0073656337 0.0011211518 0.16692564
0.0074147405 0.00083208235 0.16713975
-0.0068053389 0.0029999181 0.16685916
0.0067160213 0.0032144126 0.16693482
-0.0061431043 0.0041554845 0.16689612
-0.0053531546 0.0051139174 0.16703559
0.0052280333 0.0052656247 0.16693595
0.006193812 0.0042506116 0.16707374
-0.0041835629 0.0062426939 0.16711289
-0.0030387572 0.0068022357 0.16686855
-0.0009542809 0.0073981583 0.16681498
0.0010558019 0.0073586768 0.16719398
0.0029892263 0.0067850063 0.16711774
0.0041863145 0.0061219092 0.16722938
-0.0041904724 -0.0061190506 0.1688195
-0.0028619221 -0.0068581086 0.16887097
-0.00089688867 -0.0073991679 0.1688744
0.0011142837 -0.0073761023 0.16920979
0.0031735445 -0.0067565413 0.16911475
0.0043385848 -0.0061436244 0.16901986
-0.0062288302 -0.0042051035 0.16857453
-0.0050570047 -0.0054196264 0.16910081
0.0053830082 -0.005087669 0.16888846
0.0061109848 -0.0042022038 0.16914864
-0.0068370719 -0.002980446 0.16921319
0.0068210154 -0.0029611913 0.16925471
-0.0073861941 -0.0010825931 0.16914934
0.0074095544 -0.00082527823 0.16905759
-0.0073503572 0.0011874749 0.16903161
0.0074037211 0.00094019109 0.16903991
-0.0067816661 0.0029826583 0.16905563
0.0067759743 0.0030955607 0.16902801
-0.0061258217 0.0041806228 0.16903423
-0.005232011 0.0052614813 0.16894749
0.0051738499 0.0053037824 0.1689638
0.0061969273 0.0042638592 0.16888662
-0.004277796 0.0061743264 0.16883768
-0.003114966 0.0067667984 0.16900319
-0.0010961558 0.0073706163 0.16895087
0.00084308302 0.0073923087 0.16893297
0.0030175149 0.0067884154 0.16878563
0.0042178216 0.0061002481 0.16936342
-0.0041666813 -0.0061354069 0.17086805
-0.0028766734 -0.0068549872 0.17097767
-0.0010616683 -0.007369217 0.17104018
0.0010532123 -0.0073842821 0.17103431
0.0030710087 -0.0067979726 0.17109734
0.0041896645 -0.0062338132 0.17129397
-0.0061849882 -0.0042715296 0.17090215
-0.0053990996 -0.005091948 0.17106551
0.0052917143 -0.0051891571 0.17095368
0.0061739949 -0.0041105538 0.17127034
-0.0068905032 -0.0028418172 0.17112608
0.006803846 -0.0029859452 0.17106809
-0.0073705912 -0.0011471529 0.17099066
0.0073973238 -0.00088489731 0.17131339
-0.0073758857 0.0010399149 0.17100345
0.0073991707 0.0009625504 0.17090577
-0.0067729978 0.003087447 0.17112382
0.0067737629 0.0031035983 0.1710781
-0.0061376486 0.0041634203 0.17118242
-0.0054270276 0.0050497325 0.17100328
0.0050273114 0.0054469276 0.17105253
0.0061734212 0.0042846426 0.17088437
-0.0042607519 0.0061996789 0.17093764
-0.003035546 0.0068089715 0.17089109
-0.0010070807 0.007393986 0.1711999
0.00096162519 0.0073723663 0.17080823
0.0029917986 0.0067859413 0.17101517
0.0041858638 0.0061222189 0.17103726
-0.0041562775 -0.0061425595 0.17235206
-0.0033106201 -0.0066635227 0.17291538
-0.0009183677 -0.0073997364 0.17303294
0.0010657656 -0.0073867855 0.17308746
0.0030744977 -0.0067972443 0.17288396
0.0041795918 -0.0062370817 0.17268369
-0.0061671366 -0.0043103383 0.17280208
-0.0052889795 -0.0051995544 0.17302264
0.0053199921 -0.0051596793 0.17288513
0.0061236392 -0.0041837976 0.17263894
-0.0068581821 -0.0029357765 0.17290984
0.0067372234 -0.0031196726 0.17300403
-0.0073700245 -0.0010995748 0.17319159
0.0073505836 -0.0011627104 0.17291334
-0.0073897815 0.0009693366 0.17292386
0.0073866728 0.00097474013 0.17293462
-0.00677804 0.0030553841 0.17318994
0.0068380558 0.0029477705 0.17291629
-0.0062296423 0.0040296111 0.17303765
-0.0053452188 0.0051379581 0.1729203
0.005130738 0.0053474721 0.17299341
0.0061585871 0.004310675 0.1726093
-0.004294829 0.0061672106 0.17278329
-0.003132435 0.0067600948 0.17290002
-0.00094268925 0.0073891189 0.17293599
0.00091280171 0.0073912898 0.17284741
0.00306988 0.0067665018 0.17304535
0.0042706132 0.006063954 0.17279312
-0.0041995263 -0.0061128261 0.17521264
-0.0031558594 -0.0067460081 0.17484827
-0.0010528489 -0.0073788692 0.1749309
0.00066608679 -0.0074371793 0.17492193
0.0030643134 -0.0067930226 0.17481129
0.004268181 -0.0061862497 0.17488408
-0.0062192557 -0.0042065019 0.17499964
-0.005176052 -0.0053094537 0.17490789
0.0052988939 -0.0051854257 0.17491049
0.0061346362 -0.0041678022 0.17499015
-0.0067498414 -0.0031503434 0.17510571
0.0067547439 -0.0030784027 0.1749534
-0.0073655094 -0.0011244161 0.17510454
0.0073851496 -0.0010037003 0.17513524
-0.0073562548 0.0010976619 0.17506145
0.0074075772 0.00096191163 0.17504323
-0.006766065 0.0030557828 0.17503045
0.0068034176 0.0030348788 0.17514552
-0.0061202571 0.0041887178 0.17535448
-0.0052888007 0.0051896488 0.17500761
0.0051850313 0.0052910782 0.17487997
0.0061871074 0.0042670085 0.17493153
-0.0043899519 0.0060983147 0.17507657
-0.0028687334 0.0068768566 0.17504616
-0.0010064362 0.0073857843 0.17496003
0.00089842122 0.0073863342 0.17491472
0.0030981938 0.0067745666 0.17500812
0.0041187042 0.0061683916 0.1748147
-0.0042187558 -0.0060996055 0.17700438
-0.003156041 -0.0067310981 0.17702755
-0.00084919605 -0.0073991218 0.17702422
0.0011396772 -0.0073671867 0.17698935
0.0029978489 -0.0068396428 0.17725952
0.0042704027 -0.0061861146 0.17680639
-0.0061934479 -0.0042625861 0.17691951
-0.0051686354 -0.0053146807 0.1769027
0.0053142076 -0.0051693134 0.1768297
0.0061264574 -0.0041796993 0.17656027
-0.0068533788 -0.0029190036 0.17690045
0.0067798267 -0.0030602384 0.17707492
-0.007399268 -0.00088168879 0.17687394
0.0074106837 -0.00077026075 0.17688428
-0.0073628705 0.0011955805 0.176879
0.0073915082 0.00093758112 0.1770464
-0.0068888515 0.002802477 0.17701904
0.0067661423 0.0031059624 0.17687246
-0.006116156 0.0041946834 0.17700605
-0.0054148105 0.0050588241 0.17718309
0.0051181167 0.0053627794 0.1771107
0.0061845919 0.0042687552 0.17677692
-0.0042786207 0.0061808964 0.17680085
-0.0029037332 0.0068737119 0.17690551
-0.0008426868 0.0074210488 0.17700908
0.0010254884 0.0073690214 0.17699116
0.0030338161 0.0067783734 0.1771047
0.0041912482 0.0061185169 0.17679374
-0.0041749002 -0.0061297561 0.17867349
-0.0030518232 -0.0067606797 0.17900565
-0.00096384564 -0.0073750038 0.17905825
0.00095850928 -0.0074023181 0.17889798
0.0030081228 -0.0068206149 0.17890307
0.0043470492 -0.0061316546 0.17918454
-0.006155102 -0.0043300777 0.17879334
-0.0050474512 -0.0054257349 0.17898269
0.0052952203 -0.0051793121 0.17910291
0.0061000288 -0.0042181392 0.17908491
-0.0068428083 -0.0029785456 0.17883094
0.0067629516 -0.0030855923 0.17895579
-0.0073614605 -0.0011905971 0.17907183
0.0073861801 -0.00090645789 0.17898677
-0.0073836977 0.00096809474 0.17915611
0.0074136392 0.00091041264 0.17914136
-0.0068823895 0.0028015494 0.17902592
0.0068181199 0.0030114376 0.17887023
-0.0061074486 0.0042073471 0.17892756
-0.0053174091 0.0051664524 0.17887658
0.0051660151 0.0053161439 0.17898758
0.0061395373 0.0043517253 0.17881699
-0.0042244201 0.0062152571 0.1789211
-0.0030070341 0.0068154829 0.17906524
-0.00093714299 0.0073995274 0.1788875
0.0009608437 0.0073738899 0.1790743
0.0031033687 0.006749426 0.17895943
0.0041712672 0.0061322544 0.17898026
-0.0041491827 -0.0061474368 0.18106884
-0.0029327439 -0.0068377727 0.18097316
-0.0010201491 -0.0073689274 0.18098773
0.00071119028 -0.0074225357 0.18122852
0.0030530945 -0.0068064621 0.18097837
0.0043235198 -0.0061458661 0.18074688
-0.0062125963 -0.0042313891 0.18115349
-0.005208259 -0.0052825958 0.18092376
0.0053070388 -0.0051778909 0.18081482
0.0061415923 -0.0041576852 0.1812924
-0.0068410668 -0.00295364 0.18100828
0.0067548165 -0.0030706599 0.18110232
-0.0073863757 -0.001069947 0.18105812
0.0073700501 -0.0010167627 0.18101987
-0.0073824469 0.0008741112 0.18101974
0.0073701222 0.0010923594 0.18098377
-0.0068465564 0.0028892858 0.18086605
0.0068229255 0.002996847 0.18101001
-0.0061407047 0.004158976 0.18126015
-0.0051688855 0.0053206854 0.18098815
0.0051020249 0.0053792642 0.18093182
0.0062080417 0.0042242329 0.18134288
-0.0042097941 0.006216269 0.18098664
-0.003032807 0.0068011396 0.1810188
-0.0010540114 0.0073798546 0.1810499
0.0010150356 0.0073617315 0.18097344
0.0030320941 0.0067865504 0.18097399
0.0042118425 0.0061043589 0.18090132
-0.0041941088 -0.00611655 0.18289892
-0.0030521448 -0.0067731095 0.18313538
-0.001004672 -0.0073735253 0.18310483
0.00099101104 -0.007398698 0.18288349
0.0030071831 -0.006827055 0.18311074
0.0043801996 -0.0061156419 0.18317743
-0.0062373788 -0.0041849632 0.18299466
-0.0053377477 -0.0051477388 0.18304434
0.0052790805 -0.0052055884 0.18303661
0.006139386 -0.0041608931 0.18278305
-0.0068023764 -0.0030308128 0.18297809
0.0068018222 -0.0029847128 0.18309478
-0.0073675788 -0.0011865788 0.18307433
0.0073687579 -0.0010407571 0.18289836
-0.0073704384 0.0010971425 0.18259583
0.0073503661 0.001280127 0.18300058
-0.0067972466 0.0030010259 0.18306068
0.0068693608 0.002882953 0.18303341
-0.0061431527 0.0041554137 0.18340206
-0.0053407559 0.0051428573 0.18297192
0.0050787712 0.0053955908 0.18313183
0.0061942884 0.0042451094 0.18343504
-0.0042756521 0.0061789248 0.18286346
-0.0029806376 0.006829449 0.18289164
-0.00083060574 0.0074290438 0.18286094
0.0010639364 0.0073586106 0.18279347
0.0031672202 0.0067302692 0.18291306
0.0042253071 0.0060951016 0.18319342
-0.0042210948 -0.006097998 0.18527864
-0.0031162309 -0.0067594745 0.18513642
-0.00078613154 -0.0074074422 0.18505776
0.00098677434 -0.0073935874 0.18496269
0.0029838167 -0.0068415399 0.18494618
0.0042302869 -0.0062089125 0.18520111
-0.0061501474 -0.0043192366 0.18490122
-0.0051283897 -0.0053364774 0.18507089
0.0051414929 -0.0053460654 0.18508282
0.0061416477 -0.0041576037 0.18574429
-0.0067980886 -0.0030410439 0.18495221
0.0067898859 -0.0030772449 0.18495078
-0.0073964926 -0.000962711 0.1848793
0.0073730503 -0.0010700308 0.18494363
-0.0073868171 0.00096674945 0.18509221
0.0073906952 0.0010428715 0.18520844
-0.0067463359 0.0031086965 0.18515813
0.0069188671 0.0027786314 0.18505928
-0.0061040646 0.0042122696 0.18499854
-0.0053759231 0.0051157544 0.18491782
0.0050914637 0.005388943 0.18515696
0.00616071 0.0043004877 0.1848702
-0.0043430906 0.0061268429 0.18491948
-0.0030044483 0.0068156207 0.18505637
-0.00090567296 0.0073949397 0.18498421
0.0010630293 0.0073594572 0.18495131
0.0030900338 0.0067650573 0.18510023
0.0042004162 0.0061122151 0.1847754
-0.0041690301 -0.0061337925 0.18671815
-0.00294256 -0.0068220776 0.18679152
-0.00099980307 -0.0073819347 0.1870829
0.0010887439 -0.0073733446 0.18693006
0.0029468765 -0.0068596243 0.18688904
0.0041175727 -0.0062661543 0.18720415
-0.0061538341 -0.0043220287 0.18667266
-0.0051841605 -0.0053034606 0.18696326
0.0053253854 -0.0051585389 0.18700077
0.0061386335 -0.0041619884 0.1870012
-0.0067722746 -0.0030833515 0.1868798
0.006785539 -0.0030260195 0.18691871
-0.0074047823 -0.0008910902 0.18695195
0.0073805759 -0.00095266604 0.18689579
-0.0073478273 0.0010930954 0.18683121
0.0074074632 0.00088928238 0.18700798
-0.0066891205 0.0032323275 0.18705489
0.0067507606 0.003141748 0.18701398
-0.0061465078 0.004150534 0.18738237
-0.0051948689 0.0052940845 0.18705586
0.0052517476 0.005224701 0.18699472
0.0062000379 0.0042472002 0.18686311
-0.0042316457 0.0062025916 0.186978
-0.0030015283 0.0068252999 0.18703182
-0.0009623706 0.0073911441 0.18697524
0.001008779 0.0073618097 0.18693498
0.0030783515 0.0067652068 0.18700093
0.0040900065 0.0061881207 0.18727437
-0.004294829 -0.0060473057 0.18895219
-0.0031602825 -0.0067385654 0.18900676
-0.00095892878 -0.0073833005 0.18905059
0.00082350551 -0.0074203168 0.1890474
0.0029846758 -0.0068283388 0.1891311
0.0043452429 -0.0061322604 0.18896407
-0.0062120496 -0.0042446326 0.18923636
-0.0052712085 -0.0052183955 0.18903401
0.0053393906 -0.0051413556 0.18895969
0.0061233565 -0.0041842093 0.18915868
-0.0068399175 -0.0029614135 0.18899649
0.0067316093 -0.0031807702 0.18882681
-0.0073717576 -0.0011183261 0.18909201
0.0073749297 -0.00092658016 0.1888196
-0.0073510115 0.0011881326 0.18915533
0.0073919087 0.0010010442 0.1890503
-0.0067373896 0.0031388972 0.18930665
0.0068794442 0.0028725902 0.18906675
-0.0061060581 0.0042093713 0.18882558
-0.0053064167 0.0051887278 0.18893461
0.0051052514 0.0053622895 0.1890282
0.0061948812 0.0042482796 0.18870236
-0.004245549 0.0062040673 0.18902259
-0.0029154273 0.0068710861 0.18915369
-0.00089860335 0.0073963939 0.18898343
0.00087986537 0.0073818448 0.18888214
0.0031596757 0.0067116218 0.18908004
0.0041847937 0.0061229542 0.18895873
-0.0042276597 -0.0060934848 0.19097069
-0.0031999971 -0.006705557 0.19107543
-0.00097536179 -0.0073814979 0.19104968
0.00099358987 -0.0073991762 0.19099376
0.0030773401 -0.0067902659 0.19109342
0.0042707068 -0.006197053 0.19054036
-0.0061181658 -0.004361968 0.19096832
-0.005294905 -0.0051911795 0.19116157
0.0052645039 -0.0052223434 0.19111189
0.0061215977 -0.0041867676 0.1907557
-0.0067880969 -0.0030653249 0.19106792
0.0068447283 -0.0029212511 0.19090299
-0.0073957732 -0.0010112136 0.19091621
0.0073841172 -0.00089567207 0.19102946
-0.0073441141 0.0011776658 0.19104691
0.0073901885 0.0010030172 0.19104092
-0.0067603281 0.0030469876 0.19119851
0.0068525393 0.0029289273 0.19110715
-0.0060987407 0.004220014 0.19082078
-0.0053283717 0.0051569012 0.19109812
0.0053186561 0.0051703006 0.19110829
0.0062017003 0.0042272974 0.19051449
-0.0042436644 0.0062077688 0.19057754
-0.0029917506 0.0068229749 0.19105427
-0.00084986014 0.0074102907 0.19120543
0.0010946642 0.0073634568 0.19102415
0.0031728426 0.006705598 0.19103177
0.0041553192 0.0061432188 0.19108871
-0.004153057 -0.0061447732 0.19318467
-0.0031717229 -0.0067195534 0.19297239
-0.00099786068 -0.0073630088 0.19298576
0.0010234693 -0.00738096 0.19298284
0.0032308407 -0.0067100045 0.19294278
0.0043332153 -0.0061490368 0.19307393
-0.0062172697 -0.0042208941 0.19310573
-0.0052262191 -0.0052570999 0.1930079
0.0052086771 -0.0052765044 0.19298525
0.0061178184 -0.0041922652 0.19315748
-0.0067983139 -0.0030345942 0.19299658
0.0067965304 -0.0030396034 0.19296305
-0.0073885866 -0.001016345 0.19299352
0.0073553566 -0.0011226879 0.19316149
-0.0073372475 0.0011524421 0.19293311
0.0073981136 0.00094006228 0.1929688
-0.0068328357 0.0029160588 0.19297695
0.0067343144 0.0031791977 0.19301181
-0.0061489753 0.0041469452 0.19335338
-0.0053287721 0.0051504103 0.19300653
0.0053115729 0.0051773349 0.19310643
0.0061724186 0.0043027159 0.19297734
-0.0042414591 0.0062017622 0.19296649
-0.0032462173 0.0066998084 0.19288607
-0.0010235984 0.0073883221 0.19305465
0.0011593607 0.0073340642 0.19300692
0.0032030279 0.0066968966 0.19297501
0.0041802311 0.0061260918 0.19288456
-0.004235181 -0.0060883136 0.19454795
-0.0030062755 -0.00680725 0.19486517
-0.00098894676 -0.0073769484 0.19511929
0.001092992 -0.0073797232 0.19484226
0.0031472521 -0.0067510102 0.19492884
0.0042549246 -0.0061954404 0.19531009
-0.0061492473 -0.0043264576 0.19512439
-0.005193091 -0.0052955449 0.19491614
0.0052521927 -0.0052293409 0.19487727
0.0061364071 -0.0041652275 0.19463216
-0.0068314639 -0.0029808753 0.1950109
0.0067623756 -0.0031025931 0.19515103
-0.0074042268 -0.00095167075 0.19494593
0.0073727709 -0.00095171278 0.19521494
-0.0073598623 0.0010286856 0.19502363
0.0073821708 0.0010476984 0.19498928
-0.0067679379 0.0030795827 0.19496511
0.0067641889 0.0030939665 0.19503935
-0.0061128968 0.0041994234 0.19505693
-0.0054654689 0.0050071566 0.19491941
0.0051763668 0.0053053517 0.19492929
0.006168236 0.0043005617 0.19495389
-0.0042314515 0.006198728 0.19507149
-0.0031240056 0.0067539872 0.19493975
-0.00098681811 0.0073997951 0.19490372
0.0011101895 0.0073497784 0.19511953
0.003070842 0.0067586442 0.19509503
0.0041840784 0.0061234459 0.19509436
-0.0041782074 -0.0061274832 0.197007
-0.0030894345 -0.0067517054 0.19688539
-0.0012548578 -0.0073282253 0.19698203
0.0011122859 -0.0073726987 0.19719571
0.0029900842 -0.0068184184 0.19693553
0.0042727422 -0.0061855973 0.19694665
-0.0061861039 -0.0042706206 0.19696501
-0.0052872244 -0.0052009472 0.19702813
0.0052997451 -0.0051854951 0.19684665
0.006096384 -0.0042234417 0.19726291
-0.0068241036 -0.0029756739 0.19686559
0.0068028979 -0.002975655 0.19701733
-0.0073773665 -0.0010985425 0.197069
0.0073568877 -0.0010723105 0.19697161
-0.0073788352 0.00094737805 0.19685067
0.0074025597 0.00092814572 0.19705249
-0.006756742 0.0030799438 0.19709478
0.0067920568 0.0030500563 0.19714022
-0.0061019175 0.0042153941 0.19667768
-0.005178018 0.0053165345 0.19702324
0.0051873103 0.0052890293 0.19697908
0.0061211823 0.0043586008 0.19743738
-0.0042275707 0.006216336 0.19692256
-0.0031673482 0.0067382702 0.1968587
-0.0010674718 0.0073851049 0.19677104
0.0010703458 0.0073573743 0.19706962
0.0030918615 0.0067684483 0.19709799
0.0042560427 0.0060739708 0.19763184
-0.0041821715 -0.0061247572 0.1990345
-0.0030666564 -0.0067734062 0.1988584
-0.0010279691 -0.0073508136 0.19882709
0.00086291839 -0.0074103842 0.19904447
0.0030937654 -0.0067828819 0.19899708
0.0042837556 -0.0061726756 0.19893001
-0.0062234304 -0.0042200913 0.19896302
-0.005227657 -0.0052609262 0.19914903
0.0052200556 -0.0052680336 0.19915581
0.0060799439 -0.0042473548 0.19911668
-0.0068518217 -0.0029305557 0.19912013
0.0066869641 -0.0032161493 0.1988101
-0.0073768953 -0.0010393705 0.19892462
0.0073724883 -0.0010094699 0.19875491
-0.0073713586 0.00097362295 0.19887476
0.0074159782 0.00084843772 0.19911511
-0.0067588929 0.0031146472 0.19888119
0.0067946049 0.0030503857 0.19904646
-0.0061282902 0.004177033 0.19874677
-0.0052372501 0.0052549513 0.19903572
0.0051637092 0.0053142575 0.19890898
0.0061729015 0.0042938925 0.19912386
-0.0041745133 0.0062501947 0.19900674
-0.003160096 0.0067403959 0.19891396
-0.00099166355 0.0073994314 0.19907001
0.00092822127 0.0073764133 0.19904204
0.0031678162 0.0067157736 0.19909251
0.0042190999 0.0060993703 0.19901082
-0.0042166323 -0.0061010648 0.20110688
-0.0029966773 -0.0068013198 0.20113349
-0.0009444548 -0.0073717386 0.2009543
0.0010838986 -0.0073785866 0.20093386
0.0029527519 -0.006848996 0.20095091
0.0042860149 -0.0061743236 0.20078151
-0.0062212306 -0.0042105326 0.20114505
-0.0052313618 -0.0052537322 0.20094812
0.0052784057 -0.0052038468 0.20088765
0.0061162999 -0.0041944734 0.20097344
-0.0067786295 -0.0030723859 0.20092438
0.0067319116 -0.0031153599 0.20099087
-0.0074071158 -0.00085589231 0.20091341
0.0074036913 -0.00080981362 0.20111993
-0.0073905406 0.00086155214 0.2008903
0.0073674354 0.0011295103 0.20120692
-0.0068181646 0.002921799 0.20093268
0.0066988524 0.0032383988 0.20102121
-0.0061422982 0.004156657 0.2010299
-0.0052704136 0.0052110553 0.20097676
0.0050988221 0.0053828005 0.20103949
0.006230107 0.0042018346 0.20127366
-0.0042444305 0.0062004472 0.20120578
-0.0030008864 0.0068196082 0.20084712
-0.0010359468 0.007388528 0.20098075
0.0009849465 0.0073660868 0.20099242
0.0031693617 0.0067178071 0.20104179
0.0042789681 0.0060582096 0.20112829
-0.0041407417 -0.0061532403 0.20349507
-0.0032241526 -0.0067041777 0.20284778
-0.00096920022 -0.0073869396 0.20299463
0.0011240111 -0.007366599 0.20295462
0.0031928422 -0.006724766 0.20314696
0.0042920075 -0.0061699133 0.20279114
-0.0061285123 -0.0043468331 0.20317043
-0.0051986626 -0.0052835881 0.20293678
0.0052672378 -0.0052205324 0.20280465
0.0061313417 -0.0041725952 0.20279279
-0.0067936894 -0.0030549348 0.20308617
0.0067208628 -0.0031671375 0.20288406
-0.0073921005 -0.00096052949 0.20308447
0.0073811873 -0.00095254957 0.20309879
-0.0073713893 0.0010450664 0.20315214
0.0073772282 0.0011095072 0.20301111
-0.0067536016 0.0030882428 0.20320302
0.0068175276 0.0029975341 0.20305224
-0.0061226552 0.0041852281 0.20267048
-0.0051305494 0.0053623952 0.20301966
0.0050928625 0.0053959801 0.20285398
0.006176325 0.0042647473 0.20309424
-0.0041842144 0.0062301601 0.20308423
-0.0029251408 0.0068491655 0.20303307
-0.0010988053 0.0073736068 0.20303908
0.00099879235 0.0073767449 0.20299819
0.0029635073 0.0067989863 0.2029482
0.0041534547 0.0061445003 0.20341377
-0.0041708918 -0.0061325124 0.2052151
-0.0030676592 -0.0067721712 0.20506471
-0.0010956094 -0.0073591275 0.20494664
0.0010149489 -0.0073903748 0.20509146
0.0030798479 -0.0067880601 0.20489608
0.0042950357 -0.0061634076 0.20480016
-0.0062610465 -0.0041409782 0.20487693
-0.0051747109 -0.0053046853 0.20476714
0.0051854071 -0.0052911565 0.20503679
0.0061232201 -0.0041844076 0.20493649
-0.0067471555 -0.0031478608 0.20480892
0.0067999023 -0.0030121556 0.20491795
-0.0073797684 -0.0010952518 0.20488413
0.0073977713 -0.00083260878 0.20506859
-0.0073803132 0.00095370266 0.20493641
0.0073672151 0.0011226255 0.20497805
-0.0068010809 0.0029650445 0.20500192
0.0068273451 0.0029554709 0.20507209
-0.0061647366 0.0041240193 0.20547514
-0.0052094082 0.0052742381 0.20500141
0.0050755083 0.005404612 0.20502691
0.0061857179 0.0042659556 0.2045868
-0.0043070205 0.006170339 0.2044992
-0.0030303195 0.0068064569 0.20503955
-0.0010641805 0.0073803645 0.2050593
0.00098314031 0.0073707658 0.20504461
0.0030023304 0.006813494 0.20497988
0.0041870917 0.0061213747 0.20465741
-0.004214786 -0.0061023347 0.2069667
-0.0031020849 -0.0067479163 0.20720185
-0.00093439902 -0.0073840255 0.20688936
0.00089154916 -0.0074073076 0.20700738
0.0031003023 -0.0067810449 0.20698917
0.0042058122 -0.006217645 0.20679758
-0.006222019 -0.0041971072 0.20736839
-0.0052565201 -0.005230695 0.20691547
0.0052545844 -0.005230411 0.20687582
0.0061546601 -0.0041386755 0.20689535
-0.0068693445 -0.0028902788 0.20690133
0.0067872456 -0.0030329968 0.20698042
-0.0073703271 -0.001135648 0.20698099
0.0073651709 -0.001031941 0.20705731
-0.00735049 0.0011269493 0.2069325
0.0073960582 0.00097981188 0.20696218
-0.0067316173 0.0031409054 0.20692791
0.0068062153 0.0030172996 0.20692618
-0.0061024502 0.0042146188 0.2069523
-0.0052693952 0.0052192034 0.20710795
0.0052885399 0.0052006114 0.20713183
0.006171898 0.0042750905 0.20697437
-0.0042719943 0.0061847051 0.20679773
-0.0029276041 0.0068445369 0.20703898
-0.0010732883 0.0073811095 0.20715985
0.00095031946 0.0073624495 0.20690168
0.003089566 0.0067610177 0.2070521
0.0041282955 0.0061617973 0.20662598
-0.0041778246 -0.0061277458 0.20926267
-0.0028457802 -0.0068437937 0.20882104
-0.0010533201 -0.0073735546 0.20908464
0.0010487726 -0.0073880111 0.20908649
0.0028881028 -0.0068754004 0.20894587
0.0042672842 -0.0061926143 0.20907351
-0.0061929277 -0.0042537134 0.20891738
-0.0051465835 -0.0053332094 0.20891421
0.0052680122 -0.0052195583 0.20906793
0.0061487504 -0.0041472726 0.20920783
-0.0069069951 -0.0028037617 0.20895647
0.0067728381 -0.0030510654 0.20894255
-0.0073853489 -0.0010621723 0.20889303
0.0073964559 -0.00081516604 0.20891628
-0.00737355 0.0009647496 0.2090231
0.0073977327 0.00091568538 0.20902033
-0.006792896 0.003017291 0.20901902
0.0068271053 0.002963027 0.20893201
-0.00610231 0.0042148228 0.20947057
-0.0051560812 0.0053337393 0.20911342
0.0052769021 0.0052098045 0.20921059
0.0062018447 0.0042381505 0.2085795
-0.0042926115 0.0061687231 0.20900248
-0.0031231767 0.006759366 0.20893639
-0.00094613357 0.0074036671 0.2088767
0.0010881029 0.0073471013 0.20902421
0.0031657221 0.0067267539 0.20895109
0.0041863862 0.0061218599 0.2093627
-0.0042643142 -0.0060682846 0.21058679
-0.0030492079 -0.0067660157 0.21087275
-0.00089424162 -0.0073828618 0.21107872
0.001011451 -0.0073921159 0.21103083
0.0031213127 -0.0067711738 0.21099107
0.0042462572 -0.0062088398 0.21085064
-0.0061665531 -0.0043083909 0.21068746
-0.0052293837 -0.0052490216 0.21116979
0.0052057183 -0.0052793822 0.21105352
0.0061951759 -0.0040797452 0.21120015
-0.006801201 -0.0030215892 0.21095888
0.006774358 -0.0030549581 0.21099952
-0.0074001425 -0.00093786721 0.21099971
0.0073877205 -0.00092227355 0.21098834
-0.0073533664 0.0011694535 0.21097028
0.0073913378 0.00099311897 0.21092258
-0.0068319971 0.0029156099 0.21100442
0.0068273474 0.0029670533 0.21097879
-0.00612872 0.0041764071 0.21125647
-0.0052841501 0.0052055423 0.21099591
0.0052089137 0.0052741356 0.21091954
0.0061940323 0.0042403843 0.21088527
-0.0042635156 0.0061907927 0.21088602
-0.0030348347 0.0067863544 0.21103476
-0.0010021683 0.0074009337 0.2109791
0.00092326012 0.007377733 0.21097046
0.0031205711 0.0067491331 0.21109654
0.0042024013 0.0061108489 0.21116868
-0.0042319307 -0.0060905479 0.21301168
-0.0030977142 -0.0067520519 0.21303712
-0.0010137263 -0.0073752454 0.21309747
0.0010599397 -0.0073829512 0.21308009
0.0030414755 -0.0067920815 0.21314745
0.0043219337 -0.006141684 0.21316001
-0.0062046964 -0.0042142766 0.21271439
-0.0052928501 -0.0052012946 0.21307984
0.0053399387 -0.005141329 0.21293199
0.0060970346 -0.0042224959 0.21242489
-0.006831015 -0.0029730131 0.21289438
0.0067277704 -0.0031656234 0.21298081
-0.0073939236 -0.00099586265 0.21290259
0.0073514893 -0.0011561075 0.21299157
-0.0073887063 0.0010258595 0.21313207
0.0073899021 0.0010798516 0.2128254
-0.006762424 0.003074181 0.21304883
0.0068280702 0.0029615865 0.21287154
-0.0061493451 0.0041464078 0.21329916
-0.0054144165 0.0050603277 0.212973
0.0051485905 0.005329153 0.2129748
0.0061635287 0.0043118121 0.21279378
-0.0042594443 0.0061949776 0.21276739
-0.0030131901 0.0068040076 0.21312927
-0.0011684684 0.0073611578 0.21295339
0.0010797104 0.0073477277 0.21290867
0.0032369334 0.0066765309 0.21303137
0.0042161727 0.006101382 0.21300946
-0.0041551352 -0.0061433446 0.21565628
-0.0030182023 -0.0067839632 0.2148952
-0.00091136259 -0.0073826686 0.21500179
0.00095905521 -0.0073895431 0.21500801
0.0030304652 -0.0068087438 0.21481711
0.0042596404 -0.0061889971 0.21491133
-0.0061727674 -0.004298605 0.21525334
-0.0050631324 -0.005404118 0.21507993
0.0051403972 -0.0053517134 0.21498139
0.0061379066 -0.0041630454 0.214729
-0.0066900859 -0.0032622423 0.21499194
0.0067449026 -0.0031168701 0.21511056
-0.007396108 -0.0010023611 0.21509007
0.0073484494 -0.0011574803 0.21493839
-0.0073508355 0.0011108397 0.21514808
0.0074042547 0.00087604282 0.21486339
-0.0067593982 0.003069048 0.21504942
0.0068816766 0.0028596439 0.21515553
-0.0060904091 0.0042321319 0.21465886
-0.0054960414 0.0049679191 0.21508603
0.0050807535 0.0054042642 0.21504086
0.0061903992 0.0042690202 0.21483006
-0.0043193549 0.0061415462 0.21500048
-0.0030077996 0.0068095895 0.21497317
-0.0012350449 0.0073525347 0.21486966
0.00098795164 0.0073639117 0.2150901
0.0030113233 0.0067845043 0.21500695
0.0041772411 0.0061281468 0.21490544
-0.0040824339 -0.0061933268 0.21601088
-0.0030732024 -0.0067777494 0.21682578
-0.0009205236 -0.0073851254 0.21700527
0.0011023802 -0.0073780725 0.21695819
0.0028049245 -0.0069154659 0.21686387
0.004299588 -0.0061611827 0.21710527
-0.0062144045 -0.0042172228 0.217153
-0.0053132512 -0.0051786616 0.21700695
0.0053841276 -0.0050890888 0.2170359
0.0061371233 -0.004164184 0.21632645
-0.006797831 -0.0030346264 0.21696538
0.0067424476 -0.0031113608 0.21690266
-0.0073718014 -0.0011166987 0.21710002
0.0073541524 -0.0010833243 0.21696813
-0.0073812925 0.0009281211 0.21686351
0.0074158194 0.00087364507 0.21705487
-0.0067704367 0.0030401207 0.21696733
0.0067976955 0.003031122 0.21733497
-0.0061316923 0.0041720853 0.21713789
-0.005352065 0.0051293611 0.21711141
0.0050621415 0.0054108985 0.21696047
0.0061326372 0.0043371683 0.21680462
-0.0043027652 0.0061636236 0.21703202
-0.0030815096 0.0067723873 0.21714401
-0.00095327251 0.0073956116 0.21703605
0.00093447772 0.0073776864 0.21701792
0.0032138694 0.0066948542 0.21685167
0.004171812 0.0061318805 0.21684071
-0.0041944436 -0.0061163204 0.21853845
-0.0031347855 -0.0067472579 0.21905065
-0.00097691198 -0.0073675388 0.21910585
0.0009690678 -0.0073938635 0.21908562
0.0030771587 -0.0067806086 0.21896972
0.0042422372 -0.0061955908 0.21882558
-0.0061510783 -0.0043179351 0.21887016
-0.0053176396 -0.0051730964 0.21886538
0.0053901765 -0.0050877654 0.21880567
0.0061028814 -0.0042139916 0.21910827
-0.0067418711 -0.0031433785 0.21909
0.0067206123 -0.003159415 0.21894483
-0.0073776413 -0.0010736568 0.21903552
0.007345493 -0.0011153141 0.21899724
-0.0073488159 0.0011194855 0.21894425
0.0073783398 0.0011353707 0.21905339
-0.0067016855 0.0032186569 0.2188704
0.0067777359 0.0030681684 0.21896386
-0.0060631773 0.0042717429 0.21848968
-0.0052038524 0.0052778888 0.2190866
0.0052285269 0.0052551492 0.21879241
0.0062532611 0.0041261124 0.21901327
-0.0041844007 0.0062310779 0.21918908
-0.0030113065 0.0068039107 0.2190894
-0.00099598966 0.0073934332 0.21900365
0.00093544752 0.0073769432 0.21898827
0.0027445282 0.0068972539 0.21918742
0.0042420053 0.0060836221 0.21904974
-0.0041799154 -0.0061263083 0.22110514
-0.0031652425 -0.0067070746 0.22095482
-0.00095198228 -0.0073784241 0.22092405
0.00093612389 -0.0073931394 0.22093526
0.0030589637 -0.0067838323 0.22103402
0.0043151854 -0.0061490918 0.22113034
-0.0062273587 -0.0042102383 0.22085889
-0.005114885 -0.0053713247 0.22102201
0.0051875408 -0.0052946322 0.22090907
0.0060427291 -0.0043014856 0.22031362
-0.006737913 -0.0031595407 0.22099335
0.0067259129 -0.0031426384 0.2211176
-0.0073991059 -0.00096745807 0.22101501
0.0073499745 -0.0011055121 0.22107762
-0.0073771449 0.00097811583 0.22095245
0.0073844711 0.00105069 0.22098422
-0.0068096835 0.0029601066 0.22106311
0.0068189567 0.0030037938 0.22098164
-0.0061132312 0.0041989367 0.22099683
-0.0053276317 0.0051531373 0.2209549
0.0052191773 0.0052648075 0.2210086
0.0062129665 0.0042294748 0.22080016
-0.0042795134 0.0061832499 0.2210122
-0.0029814378 0.0068131522 0.22109173
-0.00098212727 0.0074013839 0.22085498
0.0010069578 0.0073621641 0.22093511
0.0030258959 0.0067830347 0.22084814
0.0041916338 0.0061182519 0.22103688
