# .PCD v0.7 - Point Cloud Data file format
VERSION 0.7
FIELDS x y z
SIZE 4 4 4
TYPE F F F
COUNT 1 1 1
WIDTH 1360
HEIGHT 1
VIEWPOINT 0 0 0 1 0 0 0
POINTS 1360
DATA ascii
0.088920519 -0.240477 0.00069046021
0.088861831 -0.241299 0.0023664609
0.089664236 -0.241142 0.0048606545
0.091728151 -0.239545 0.0085354485
0.092503756 -0.239399 0.010960449
0.092440262 -0.240205 0.012582548
0.091959871 -0.241486 0.013811447
0.091897376 -0.242287 0.015426047
0.091834977 -0.243085 0.017035346
0.091772884 -0.243881 0.018639248
0.091710992 -0.244674 0.02023785
0.091649204 -0.245465 0.021831149
0.093983717 -0.244174 0.027171442
0.094323322 -0.244481 0.02908404
0.094258331 -0.245258 0.030634241
0.094193533 -0.246032 0.03217924
0.09372624 -0.247278 0.033374444
0.093662344 -0.24804699 0.034912542
0.093598753 -0.248815 0.036445644
0.093132958 -0.250056 0.037637044
0.09226276 -0.25177899 0.038492549
0.091796264 -0.253023 0.03968605
0.068637654 -0.223943 -0.09979108
0.068610966 -0.224933 -0.097634077
0.068038568 -0.226459 -0.096170068
0.067466177 -0.22798499 -0.094706059
0.076949514 -0.23027501 -0.056308094
0.076411523 -0.231709 -0.054931093
0.076867633 -0.232106 -0.0524331
0.076331533 -0.23353501 -0.051062096
0.074797235 -0.236013 -0.050802086
0.081532672 -0.230627 -0.039466608
0.081010282 -0.23201901 -0.038130607
0.080962792 -0.232907 -0.036279712
0.080915496 -0.23379099 -0.034435514
0.08134 -0.23416799 -0.032093707
0.083621018 -0.232547 -0.027793821
0.084029526 -0.232923 -0.025509428
0.084435135 -0.23329601 -0.023241427
0.084837839 -0.233667 -0.020989623
0.084330246 -0.23502 -0.019691225
0.084731854 -0.235383 -0.017459925
0.085130662 -0.235744 -0.015244324
0.085526474 -0.236102 -0.013044324
0.087250985 -0.23499601 -0.009522032
0.087634593 -0.23535299 -0.007368736
0.087577701 -0.23619001 -0.0056642368
0.087958112 -0.236541 -0.0035355389
0.087464407 -0.237857 -0.0022727326
0.086970717 -0.239173 -0.0010100342
0.087351918 -0.23951299 0.0010953657
0.087730438 -0.23985 0.0031863637
0.088537246 -0.239701 0.0056720637
0.090608954 -0.238121 0.0093326569
0.090969354 -0.238456 0.011356954
0.090908468 -0.239264 0.012978453
0.090427876 -0.240545 0.014207557
0.090367876 -0.241347 0.015821654
0.090308085 -0.242147 0.017430354
0.089829087 -0.243424 0.018655255
0.090188995 -0.24374001 0.020631656
0.090546399 -0.24405301 0.022594953
0.092484221 -0.24325299 0.027559847
0.092828631 -0.24356399 0.029471247
0.092766032 -0.244342 0.031020846
0.09270364 -0.24511801 0.032565348
0.09223634 -0.246364 0.033760648
0.09217485 -0.247135 0.035298247
0.091708258 -0.24837901 0.036491651
0.091241658 -0.249623 0.037685152
0.090774961 -0.25086701 0.038878653
0.089899465 -0.25259301 0.039737657
0.089020967 -0.254325 0.04059967
0.06625776 -0.22334801 -0.10001807
0.066235766 -0.22434101 -0.097857058
0.066213876 -0.22533 -0.095704064
0.065641381 -0.22685599 -0.094240069
0.065068886 -0.22838201 -0.092775062
0.074696124 -0.23065101 -0.054491092
0.074158028 -0.232085 -0.053115088
0.073619828 -0.23352 -0.05173808
0.079344884 -0.230992 -0.037702505
0.078822389 -0.23238499 -0.036366303
0.078299895 -0.233778 -0.035030004
0.0782573 -0.234662 -0.033184607
0.077735707 -0.236053 -0.031850595
0.077694111 -0.236931 -0.030014198
0.078130215 -0.237297 -0.027688202
0.079507932 -0.23664699 -0.024403904
0.081792049 -0.235011 -0.020217214
0.082204059 -0.235376 -0.017975915
0.082155563 -0.236233 -0.016213115
0.082107261 -0.237087 -0.014456522
0.082058974 -0.237938 -0.01270612
0.083372384 -0.23730101 -0.0096140169
0.084667295 -0.236674 -0.0065652244
0.085059807 -0.23702499 -0.0044221245
0.085449606 -0.23737299 -0.0022938251
0.085396513 -0.238205 -0.00060372427
0.084902719 -0.239521 0.00065917522
0.085290931 -0.23986 0.0027589723
0.085676536 -0.240196 0.0048444718
0.086493745 -0.240045 0.0073217712
0.088586256 -0.238461 0.010965664
0.088953368 -0.238796 0.01298466
0.088895679 -0.239603 0.01460366
0.088415079 -0.24088401 0.015832763
0.087934479 -0.242165 0.017061964
0.087878585 -0.242966 0.018671464
0.087822795 -0.243763 0.020275664
0.088189401 -0.244077 0.022246763
0.088553309 -0.24439 0.024204761
0.089746818 -0.24374799 0.026872657
0.090514027 -0.243586 0.029151354
0.091273531 -0.243426 0.03140755
0.090805337 -0.244674 0.032604851
0.090746045 -0.24544901 0.034146953
0.090278648 -0.246695 0.035342354
0.089811251 -0.247941 0.036537856
0.089343756 -0.24918699 0.037733357
0.088464461 -0.25091401 0.038592063
0.087996162 -0.25216201 0.039789662
0.087527871 -0.25341001 0.040987283
0.06386786 -0.22274899 -0.10024604
0.063850567 -0.223746 -0.098080054
0.064388774 -0.22420201 -0.095237046
0.063816279 -0.22572801 -0.093773052
0.063243583 -0.227254 -0.092308044
0.062670991 -0.22878 -0.09084405
0.062098294 -0.230307 -0.089379042
0.061525602 -0.231833 -0.087915048
0.072442226 -0.23102599 -0.052674081
0.071903937 -0.23246101 -0.051298078
0.077156588 -0.23135801 -0.035938095
0.076633997 -0.232751 -0.034601595
0.076111399 -0.234144 -0.033265095
0.075588807 -0.23553699 -0.031928588
0.075066209 -0.23693 -0.030591991
0.074543513 -0.238323 -0.02925529
0.074507624 -0.239199 -0.027420092
0.073985822 -0.24059001 -0.02608579
0.079657853 -0.235369 -0.018495601
0.080077365 -0.235733 -0.01626021
0.079569563 -0.237086 -0.014961507
0.079525672 -0.23794 -0.013203803
0.079481877 -0.238791 -0.011452306
0.080358088 -0.23864301 -0.0088097118
0.081225097 -0.238497 -0.0061950125
0.082532607 -0.23786201 -0.0031753182
0.08248432 -0.23869701 -0.0014746189
0.082882926 -0.23904 0.00064358115
0.082834229 -0.239869 0.0023287833
0.083229542 -0.240206 0.0044229813
0.083622143 -0.24054199 0.0065028779
0.08444985 -0.240389 0.0089718774
0.085701868 -0.239758 0.011811469
0.08607997 -0.24009 0.01383457
0.086455375 -0.240419 0.015844069
0.08640188 -0.24122401 0.017458372
0.085921191 -0.242505 0.01868787
0.085440397 -0.24378701 0.019917272
0.0858161 -0.244102 0.021896271
0.08618921 -0.244415 0.02386217
0.08655981 -0.244727 0.025814969
0.087766424 -0.244083 0.028472265
0.088957131 -0.243448 0.03109476
0.088900641 -0.24422801 0.032644458
0.08884424 -0.245006 0.034189161
0.088376045 -0.246254 0.035386663
0.087907754 -0.247502 0.036584266
0.087439552 -0.24875 0.037781764
0.086971164 -0.249998 0.038979467
0.086086363 -0.25172901 0.039841771
0.085617267 -0.25297999 0.041041471
0.084307872 -0.255209 0.041575089
0.061468057 -0.222149 -0.10047504
0.06089066 -0.22368699 -0.098999053
0.062004276 -0.223608 -0.095454052
0.061990783 -0.224599 -0.09330605
0.061417989 -0.226125 -0.091841042
0.060845293 -0.227652 -0.090377048
0.0602725 -0.229178 -0.08891204
0.059699763 -0.23070499 -0.087447032
0.059126936 -0.23223101 -0.08598204
0.065108068 -0.23106299 -0.068581045
0.064552978 -0.23254199 -0.067162052
0.06399788 -0.23402201 -0.065743044
0.063442789 -0.23550101 -0.064323053
0.062887691 -0.236981 -0.062903047
0.064479806 -0.236288 -0.059117053
0.069164433 -0.23244099 -0.051977064
0.068624035 -0.233881 -0.050595064
0.073992394 -0.232733 -0.035198789
0.073957399 -0.233623 -0.033345889
0.073922507 -0.23451 -0.031499792
0.073399708 -0.23590299 -0.030163083
0.07287702 -0.237296 -0.028826278
0.07235422 -0.23868901 -0.02748948
0.071831428 -0.240082 -0.026152585
0.071800433 -0.24095599 -0.024322782
0.077053256 -0.23622499 -0.017241295
0.077482671 -0.236587 -0.015006196
0.07744237 -0.237443 -0.013245199
0.076934375 -0.23879699 -0.011946198
0.077361986 -0.23914699 -0.009741798
0.07778649 -0.23949499 -0.0075528994
0.078207999 -0.239841 -0.005379498
0.079541206 -0.239195 -0.0023547076
0.079952121 -0.239538 -0.00022210553
0.080810532 -0.239389 0.0023162887
0.080765337 -0.240217 0.0039987899
0.081167638 -0.240554 0.0060873888
0.081567243 -0.240887 0.0081616864
0.081521057 -0.241706 0.0098196864
0.082797267 -0.241064 0.01266348
0.083186477 -0.241393 0.014690682
0.083572984 -0.24171899 0.016704276
0.08395689 -0.242043 0.018704277
0.083907396 -0.242845 0.020313978
0.083426595 -0.24412601 0.021543579
0.083808899 -0.244441 0.023517378
0.084188715 -0.244753 0.025477977
0.08413922 -0.245544 0.027062979
0.086625233 -0.24347 0.030779969
0.086572237 -0.24425299 0.032335371
0.086519539 -0.245033 0.033885866
0.086466849 -0.245811 0.035431169
0.085997753 -0.247061 0.036630772
0.08510986 -0.24879 0.037490774
0.084639959 -0.250043 0.038692474
0.083748266 -0.25178 0.039557278
0.083277568 -0.253034 0.040761039
0.081955969 -0.25527099 0.041295554
0.059057944 -0.221545 -0.10070503
0.05847941 -0.223087 -0.099226028
0.059609875 -0.223011 -0.095672026
0.05960099 -0.224006 -0.093519032
0.05959218 -0.224996 -0.09137404
0.059019323 -0.226523 -0.089909032
0.0584465 -0.228049 -0.088445038
0.057873614 -0.22957601 -0.08698003
0.057300732 -0.231103 -0.085515037
0.056727815 -0.232629 -0.08405003
0.062813461 -0.229551 -0.070776045
0.063338473 -0.22996999 -0.068128049
0.062783375 -0.23145001 -0.066708043
0.062228184 -0.23292901 -0.06528905
0.061672989 -0.234409 -0.063869044
0.061117794 -0.235888 -0.062449034
0.0611059 -0.23682401 -0.060435038
0.062708512 -0.23613299 -0.056675043
0.066382036 -0.23334201 -0.050713059
0.06531854 -0.235312 -0.04988705
0.065240167 -0.23895399 -0.042154055
0.068294786 -0.236697 -0.037053768
0.071270302 -0.23449799 -0.032085273
0.071733013 -0.23487601 -0.029734183
0.07121022 -0.236269 -0.028397273
0.070687421 -0.237662 -0.027060274
0.070164531 -0.23905601 -0.025723275
0.069641635 -0.240449 -0.024386171
0.06961444 -0.241322 -0.022559475
0.074438766 -0.237084 -0.015982088
0.074878268 -0.237444 -0.01374739
0.074842378 -0.2383 -0.011985287
0.074806586 -0.239154 -0.01022939
0.074770987 -0.240005 -0.0084797889
0.074735396 -0.240852 -0.0067362897
0.075169101 -0.24119499 -0.004557889
0.075133011 -0.242036 -0.0028304905
0.076951124 -0.240877 0.00060930476
0.078283735 -0.240228 0.0035715997
0.078695938 -0.240566 0.0056690946
0.079105347 -0.24090099 0.0077520981
0.079063252 -0.241722 0.0094167963
0.07902126 -0.242541 0.011075698
0.079426669 -0.24286801 0.013125893
0.080272779 -0.242705 0.015552994
0.081110388 -0.242543 0.017955389
0.081503093 -0.242865 0.019954687
0.0814576 -0.24366701 0.021565188
0.0814123 -0.24446701 0.023170287
0.08180131 -0.24478 0.025138685
0.081755616 -0.245574 0.026729885
0.083427325 -0.244444 0.029752079
0.083804429 -0.244753 0.031672679
0.084179044 -0.245061 0.033580579
0.084130153 -0.245841 0.035131678
0.083659351 -0.247096 0.036335379
0.083188653 -0.24834999 0.03753918
0.082292959 -0.25008699 0.038403481
0.081821464 -0.251344 0.039609388
0.080922067 -0.25308901 0.040478729
0.078285165 -0.25682399 0.039996997
0.057213556 -0.220404 -0.10023403
0.056634903 -0.221946 -0.098754033
0.05663199 -0.222949 -0.096581027
0.0572013 -0.22341 -0.093733028
0.056626055 -0.224943 -0.09226203
0.056623083 -0.225933 -0.090115026
0.05662011 -0.22691999 -0.087977037
0.056047156 -0.22844701 -0.086512014
0.055474192 -0.229974 -0.085047022
0.054901157 -0.231501 -0.083582014
0.054328144 -0.23302799 -0.082116023
0.054901931 -0.233445 -0.079348013
0.060489964 -0.228985 -0.070938036
0.060479373 -0.229939 -0.068895042
0.061013378 -0.23035701 -0.066254035
0.060458086 -0.231837 -0.064834043
0.05990281 -0.233316 -0.063415036
0.059347536 -0.234796 -0.061995033
0.059339054 -0.235734 -0.059982035
0.060955215 -0.235052 -0.056225035
0.064131238 -0.23279899 -0.050830055
0.063588537 -0.234245 -0.049442653
0.063572146 -0.235163 -0.047499154
0.064078957 -0.23555 -0.045013953
0.064061567 -0.23646 -0.043089751
0.063522972 -0.237895 -0.041712452
0.063506678 -0.23879901 -0.039798055
0.066068187 -0.237069 -0.035258461
0.068071507 -0.23589 -0.031327967
0.068547614 -0.23626401 -0.028970864
0.068522424 -0.237148 -0.027129065
0.068497226 -0.238029 -0.025293965
0.067974329 -0.23942199 -0.023956764
0.067950144 -0.240297 -0.022130664
0.067428045 -0.241689 -0.020795856
0.069872364 -0.239978 -0.01659457
0.072264075 -0.238304 -0.012483682
0.072710484 -0.238658 -0.01026528
0.072678387 -0.239511 -0.0085122809
0.072170198 -0.24086501 -0.007212881
0.072139099 -0.241713 -0.0054683797
0.072108105 -0.242558 -0.0037299767
0.072551012 -0.24289399 -0.0015619807
0.073928528 -0.24222501 0.0014470145
0.075747639 -0.24107 0.0048316084
0.076626144 -0.240914 0.0073397048
0.076131955 -0.242231 0.0086034089
0.076094761 -0.243053 0.010272507
0.076057561 -0.243873 0.011935908
0.076474473 -0.244196 0.013990503
0.077338681 -0.24402501 0.016421601
0.078193985 -0.243857 0.018827898
0.078597993 -0.244176 0.020831196
0.078999102 -0.24449199 0.022820996
0.079397507 -0.244807 0.024797294
0.079355612 -0.245603 0.026394594
0.080186322 -0.24542999 0.02871049
0.080576733 -0.245738 0.03064749
0.080533236 -0.246525 0.03221909
0.080489844 -0.24731 0.033785492
0.080446549 -0.248091 0.035346791
0.07997255 -0.249354 0.036558691
0.079065554 -0.25110501 0.037427295
0.078155562 -0.25286099 0.038298897
0.07724236 -0.254623 0.039173402
0.075442165 -0.25739399 0.039366107
0.055947505 -0.217721 -0.10124202
0.055368777 -0.219263 -0.099762022
0.055368409 -0.22027101 -0.097587019
0.054790851 -0.22181 -0.096110016
0.054791499 -0.222811 -0.093947023
0.054792188 -0.223809 -0.091793016
0.054216862 -0.22534201 -0.090322018
0.054218631 -0.22633199 -0.088179022
0.054220378 -0.227318 -0.086044014
0.053647313 -0.228845 -0.084579021
0.053074218 -0.230372 -0.083114013
0.053652979 -0.2308 -0.080341011
0.055362884 -0.23013701 -0.076311022
0.055362191 -0.231102 -0.074230015
0.058150869 -0.22937299 -0.069053024
0.058144696 -0.230327 -0.067014024
0.058687706 -0.230744 -0.064380035
0.058132362 -0.232223 -0.062960029
0.057576988 -0.233703 -0.061540026
0.057571854 -0.234643 -0.059528027
0.058113813 -0.23504101 -0.056938026
0.059193417 -0.2349 -0.053793032
0.06132764 -0.233704 -0.049557943
0.061844949 -0.234098 -0.047055345
0.06235826 -0.23448899 -0.044571746
0.062344067 -0.235401 -0.042648245
0.061805371 -0.236836 -0.041270744
0.061792176 -0.23774201 -0.039357048
0.062822491 -0.237591 -0.036393244
0.063841201 -0.237441 -0.033462655
0.065865114 -0.236259 -0.029548656
0.065844618 -0.237147 -0.027698856
0.065824226 -0.238031 -0.025855761
0.065803833 -0.238911 -0.024019357
0.065783642 -0.23978899 -0.022189762
0.065763347 -0.24066401 -0.020366762
0.066243351 -0.241017 -0.018070858
0.067215368 -0.240853 -0.015319657
0.069639876 -0.239167 -0.011215068
0.069613084 -0.240024 -0.0094507709
0.070068896 -0.240372 -0.0072429739
0.070041403 -0.24122301 -0.0054951683
0.06953311 -0.242577 -0.0041955709
0.069506615 -0.243422 -0.0024561696
0.069959417 -0.243756 -0.00028866902
0.071357533 -0.24307901 0.0027168207
0.072736144 -0.242412 0.0056803189
0.07363335 -0.242248 0.0081928149
0.073600255 -0.243074 0.0098686144
0.073567264 -0.24389599 0.011538517
0.073534369 -0.244716 0.013202816
0.073960677 -0.245037 0.015256714
0.073927179 -0.24585 0.016906116
0.074349791 -0.24616601 0.018936813
0.075221792 -0.245986 0.02133441
0.076531805 -0.24532001 0.024081403
0.076494411 -0.24612001 0.025688006
0.077784821 -0.24545901 0.028382599
0.077745631 -0.246251 0.029968601
0.077706531 -0.247041 0.031549301
0.077667542 -0.24782901 0.033124801
0.077628747 -0.248614 0.0346951
0.077152349 -0.249883 0.035913203
0.07623595 -0.25164399 0.036785208
0.075316459 -0.25341001 0.037660211
0.074393861 -0.255182 0.03853821
0.073019862 -0.25746399 0.039074618
0.055836044 -0.21399599 -0.10084602
0.0552596 -0.21553101 -0.099373013
0.054683164 -0.217067 -0.09789902
0.054106671 -0.218603 -0.096425012
0.052949324 -0.220671 -0.095640019
0.052953631 -0.22167499 -0.093477011
0.052377086 -0.22321101 -0.092003018
0.052382555 -0.224208 -0.08985202
0.052387912 -0.2252 -0.087710023
0.052393291 -0.226189 -0.085576013
0.051820107 -0.227716 -0.084111005
0.051826563 -0.228698 -0.081989005
0.052409034 -0.229131 -0.079227015
0.053557266 -0.229021 -0.075848013
0.053560123 -0.22998901 -0.07376802
0.054692395 -0.229875 -0.070448011
0.055811279 -0.229762 -0.067168027
0.055809543 -0.23071501 -0.06513302
0.056361593 -0.23113 -0.06250602
0.055806119 -0.23261 -0.061086025
0.055804335 -0.23355199 -0.059074018
0.056353107 -0.233954 -0.056486022
0.056897573 -0.23435301 -0.053918023
0.056893684 -0.235283 -0.051939022
0.059049837 -0.234084 -0.047721926
0.060107458 -0.233951 -0.04467674
0.060097463 -0.23486599 -0.042749237
0.060087472 -0.23577701 -0.040829036
0.060077477 -0.23668601 -0.038915936
0.060067587 -0.23759 -0.037010137
0.060582593 -0.237965 -0.034587238
0.062131807 -0.23729201 -0.031152647
0.063146621 -0.23714501 -0.028272744
0.063131124 -0.238032 -0.026421648
0.06311553 -0.23891599 -0.024577346
0.063608736 -0.239279 -0.022249054
0.063592449 -0.24015599 -0.020422455
0.063576154 -0.24102999 -0.018602449
0.064063959 -0.241382 -0.016312849
0.065545574 -0.240703 -0.013104063
0.067495584 -0.239526 -0.0094850622
0.067472488 -0.240383 -0.0077237636
0.067449495 -0.241236 -0.0059687644
0.067426607 -0.24208701 -0.0042198636
0.067403711 -0.242935 -0.0024772622
0.06738092 -0.243779 -0.0007407628
0.067841128 -0.244112 0.0014208369
0.068777032 -0.243937 0.0039915331
0.069702946 -0.243764 0.0065351315
0.070619151 -0.24359199 0.0090522245
0.071059257 -0.24392 0.011138525
0.071496367 -0.24424499 0.013210323
0.071466878 -0.24506401 0.014871821
0.071437582 -0.24588101 0.016527623
0.071408287 -0.246695 0.018177822
0.071379095 -0.24750599 0.019822422
0.072269298 -0.247319 0.022223921
0.074055709 -0.246151 0.025346413
0.074472018 -0.246461 0.027321311
0.075331427 -0.24628299 0.02964451
0.075296238 -0.247076 0.03123131
0.075261138 -0.247866 0.032812707
0.075226143 -0.24865399 0.03438881
0.074748047 -0.249927 0.035611212
0.07382445 -0.25169399 0.036485713
0.072897755 -0.25346601 0.037363317
0.071967959 -0.25524399 0.038243823
0.07103496 -0.25702801 0.039127424
0.069642462 -0.25932801 0.039668731
0.056297049 -0.209792 -0.099760026
0.05515112 -0.21183001 -0.098986015
0.054576937 -0.213359 -0.097519025
0.05342517 -0.215408 -0.096738011
0.052849766 -0.216941 -0.095267013
0.05227432 -0.218474 -0.093796015
0.051698897 -0.220007 -0.092325002
0.051123392 -0.22154 -0.090854004
0.050547916 -0.22307301 -0.089383006
0.050556909 -0.224068 -0.087241009
0.050565902 -0.225059 -0.08510901
0.050574776 -0.22604699 -0.082984
0.050002649 -0.227571 -0.081522003
0.050592359 -0.228009 -0.078760996
0.051751357 -0.227906 -0.075385004
0.051757686 -0.22887599 -0.073306009
0.052900545 -0.22876801 -0.069989011
0.053468306 -0.229195 -0.067322016
0.054031614 -0.229618 -0.064677015
0.054033302 -0.23056901 -0.06265001
0.054034941 -0.231517 -0.060631011
0.053479355 -0.232997 -0.059211012
0.054038126 -0.233402 -0.056617018
0.054592542 -0.233804 -0.054044012
0.05459303 -0.23473699 -0.052061018
0.054593459 -0.23566701 -0.050085012
0.057310686 -0.233936 -0.045332726
0.057842053 -0.234329 -0.042850528
0.05783622 -0.23524299 -0.040926326
0.057830419 -0.236154 -0.039009426
0.057824574 -0.23706201 -0.037099626
0.058348883 -0.23743901 -0.034671631
0.058869254 -0.23781399 -0.03226183
0.059907973 -0.237663 -0.029359434
0.060935125 -0.237514 -0.026489336
0.060923532 -0.238401 -0.024641436
0.060911939 -0.23928501 -0.022800233
0.061413147 -0.239646 -0.020478245
0.061400753 -0.240523 -0.018654641
0.06189736 -0.240878 -0.016360547
0.061884068 -0.24174701 -0.014554445
0.063381478 -0.24106599 -0.011358246
0.06535089 -0.239886 -0.0077547543
0.065331496 -0.240742 -0.0059963539
0.064820305 -0.24210399 -0.0046895519
0.064801909 -0.242955 -0.0029397532
0.064783618 -0.243802 -0.0011960529
0.064765319 -0.244647 0.00054144859
0.065235727 -0.244977 0.0027025454
0.06570264 -0.245306 0.0048482455
0.065682843 -0.246141 0.0065598451
0.068059355 -0.244444 0.010327633
0.068980865 -0.24427 0.012816332
0.06895557 -0.245092 0.014484435
0.068930477 -0.245911 0.016146734
0.068435885 -0.24722899 0.017411135
0.06888029 -0.24754199 0.019454433
0.069321699 -0.247853 0.02148363
0.070222303 -0.247664 0.023876827
0.07157062 -0.246985 0.026616123
0.073350728 -0.245828 0.029680617
0.072869331 -0.24710999 0.03091112
0.072838239 -0.247903 0.032498516
0.072807044 -0.248693 0.034080721
0.072327249 -0.249971 0.035307221
0.071396448 -0.251744 0.036184322
0.07046245 -0.25352201 0.037064426
0.069980957 -0.254805 0.038295329
0.069042966 -0.25659099 0.039180532
0.067641266 -0.258894 0.039723039
0.055615257 -0.206634 -0.10006502
0.055043343 -0.208157 -0.098603025
0.054471407 -0.209681 -0.097141013
0.05332401 -0.211714 -0.096364021
0.052750856 -0.213241 -0.094898015
0.052177701 -0.21476801 -0.093433022
0.051023234 -0.21681599 -0.092646003
0.050448861 -0.218346 -0.091178
0.04987447 -0.21987601 -0.089709997
0.049300022 -0.221406 -0.088240996
0.049311459 -0.222403 -0.086106002
0.049322821 -0.223395 -0.083980009
0.048750643 -0.22491901 -0.082516998
0.049345292 -0.22536799 -0.079752997
0.049935196 -0.225814 -0.077010006
0.050520416 -0.226256 -0.074288994
0.051670544 -0.226164 -0.070966005
0.051108439 -0.227662 -0.069529012
0.051683139 -0.228092 -0.066865012
0.051689405 -0.22905099 -0.064826012
0.052258454 -0.22947399 -0.062195007
0.052263472 -0.230424 -0.06017701
0.051707797 -0.231904 -0.058756005
0.052273367 -0.23231401 -0.056164008
0.052834567 -0.23272 -0.053592008
0.05228316 -0.234189 -0.052182008
0.052842051 -0.234586 -0.049635503
0.054492142 -0.23392101 -0.045993615
0.055577684 -0.233789 -0.042952221
0.055576071 -0.234706 -0.041024018
0.056111861 -0.23509499 -0.038567323
0.055572826 -0.236531 -0.03718942
0.056106534 -0.236911 -0.034756418
0.056636214 -0.237288 -0.032341618
0.056632541 -0.238187 -0.030458424
0.057683662 -0.23803499 -0.02756593
0.05872304 -0.237884 -0.024705525
0.058715485 -0.23877101 -0.022860732
0.059225615 -0.239134 -0.020534132
0.059732042 -0.23949599 -0.018224534
0.059208658 -0.24089 -0.016886529
0.059713218 -0.241244 -0.014598738
0.060722377 -0.241078 -0.011860937
0.062722892 -0.239895 -0.0082399435
0.0632056 -0.240246 -0.0060241483
0.062693402 -0.24161001 -0.0047147423
0.062678806 -0.24246299 -0.002961643
0.062664114 -0.243313 -0.0012146458
0.062649518 -0.24416099 0.00052605569
0.06263493 -0.245005 0.0022606552
0.063112736 -0.245334 0.0044157505
0.063097343 -0.246172 0.006134253
0.063570946 -0.24649601 0.0082643516
0.065969564 -0.24479499 0.012014441
0.066426471 -0.24511901 0.014094241
0.066405579 -0.245942 0.015763242
0.066384688 -0.24676099 0.017426442
0.066363789 -0.247578 0.019083941
0.066343099 -0.248392 0.020735741
0.066793904 -0.24869999 0.022764239
0.067709014 -0.24850699 0.025155138
0.069995925 -0.24683601 0.028624829
0.069969229 -0.24763501 0.030226927
0.070398539 -0.24794 0.032182328
0.070371345 -0.248733 0.033770427
0.069889843 -0.250016 0.035001229
0.06940835 -0.25129801 0.036232129
0.068469353 -0.253079 0.037113935
0.067987055 -0.25436401 0.038346935
0.066581659 -0.256659 0.03888664
0.066097662 -0.25794801 0.040123962
0.054936245 -0.204514 -0.098224014
0.054366551 -0.20603099 -0.096767023
0.053796764 -0.20754901 -0.095311016
0.053227019 -0.209066 -0.093855023
0.052081652 -0.211091 -0.09307301
0.051510699 -0.212611 -0.091614008
0.049776893 -0.21516401 -0.091500998
0.04920359 -0.216691 -0.090035006
0.048630238 -0.218218 -0.088569999
0.048056886 -0.219745 -0.087104008
0.048655573 -0.22021601 -0.084315002
0.04808446 -0.221737 -0.082855999
0.048680492 -0.22219799 -0.080095008
0.048692897 -0.223184 -0.077996999
0.04928299 -0.223636 -0.075273007
0.049868379 -0.224085 -0.072568998
0.049878206 -0.22505701 -0.070507005
0.049887974 -0.226025 -0.068452999
0.049897652 -0.22699 -0.066406995
0.04990736 -0.22795101 -0.064367995
0.050483257 -0.228378 -0.061739001
0.050491668 -0.22933 -0.059722003
0.049935918 -0.230811 -0.058300998
0.049945343 -0.231757 -0.056294996
0.051076248 -0.231635 -0.053140003
0.05052476 -0.23310401 -0.051731002
0.051090401 -0.23350599 -0.04918531
0.052753784 -0.232849 -0.045546804
0.053304385 -0.233247 -0.043054115
0.053850785 -0.233643 -0.040580314
0.054393001 -0.234035 -0.038125318
0.053853896 -0.235471 -0.036747117
0.053855423 -0.23638099 -0.034841318
0.054394472 -0.236761 -0.032421511
0.054929473 -0.237138 -0.030019816
0.054395337 -0.238561 -0.028654512
0.055458866 -0.238407 -0.02577192
0.056510545 -0.238254 -0.022921424
0.057029694 -0.238621 -0.020590123
0.057545073 -0.238985 -0.018276032
0.057539549 -0.23986299 -0.016456228
0.057534046 -0.240738 -0.014643032
0.058556978 -0.240575 -0.01190003
0.059568748 -0.24041399 -0.0091867335
0.060569495 -0.240256 -0.0065028369
0.060558602 -0.24111401 -0.004740037
0.060547709 -0.24197 -0.0029835366
0.060536716 -0.242823 -0.0012333356
0.06052582 -0.243672 0.00051066279
0.060514927 -0.244519 0.0022484623
0.060504135 -0.245363 0.0039801635
0.060989343 -0.245691 0.006129358
0.060977649 -0.246528 0.007845059
0.061949559 -0.246341 0.010382257
0.063879371 -0.245147 0.013701551
0.063862778 -0.24597199 0.015377153
0.064326085 -0.246292 0.01744185
0.063829586 -0.247614 0.018710952
0.064291395 -0.247927 0.020757148
0.064274102 -0.248741 0.022406148
0.064731911 -0.24904799 0.024429146
0.066127017 -0.248355 0.027183643
0.067039229 -0.248165 0.029535839
0.067480534 -0.24846999 0.031503737
0.067918941 -0.24877299 0.033458233
0.067435741 -0.25005999 0.034693338
0.066952549 -0.25134701 0.035928439
0.06600605 -0.25313401 0.036812842
0.065521955 -0.25442299 0.038050145
0.065037966 -0.255712 0.039287545
0.063147165 -0.25853199 0.039484452
0.054829855 -0.200899 -0.097847015
0.054262362 -0.20241 -0.096396014
0.053694826 -0.203922 -0.094946012
0.053127293 -0.20543399 -0.093495011
0.052559707 -0.206945 -0.092044011
0.051417448 -0.208957 -0.091261998
0.050848678 -0.210472 -0.089809
0.050279923 -0.211987 -0.088355005
0.048548032 -0.214527 -0.088229001
0.047976937 -0.216048 -0.086769
0.047990743 -0.21705 -0.08465001
0.048004553 -0.21804699 -0.082539007
0.048018217 -0.219041 -0.080436006
0.047450434 -0.220553 -0.078984991
0.047465183 -0.22153901 -0.076893985
0.048635602 -0.22147501 -0.073548988
0.04864781 -0.222453 -0.071484998
0.048659969 -0.223426 -0.069427997
0.048098736 -0.224921 -0.067993999
0.048111901 -0.225887 -0.065948993
0.04812498 -0.22685 -0.063910991
0.048707809 -0.227282 -0.061283994
0.048719574 -0.228237 -0.059266988
0.048163772 -0.229717 -0.057845991
0.048176527 -0.230665 -0.055839989
0.048754547 -0.231079 -0.053263988
0.048766036 -0.23201901 -0.05127899
0.049338371 -0.232426 -0.048735101
0.051015157 -0.231777 -0.045099903
0.051572304 -0.232179 -0.042608809
0.052125186 -0.23257899 -0.040136609
0.052673873 -0.232976 -0.037683103
0.052134678 -0.234412 -0.036304805
0.052139346 -0.235323 -0.034399707
0.052684784 -0.235707 -0.031981509
0.052688342 -0.23661099 -0.030095104
0.052691888 -0.23751201 -0.028215807
0.052695405 -0.238409 -0.026343409
0.054297097 -0.237735 -0.022982311
0.054825377 -0.238105 -0.020646315
0.055349704 -0.238471 -0.018327523
0.05587016 -0.23883501 -0.016025718
0.055346597 -0.24022999 -0.01468752
0.056383267 -0.24007 -0.011939023
0.057408668 -0.239912 -0.0092205256
0.057403311 -0.240777 -0.0074399263
0.057907771 -0.241127 -0.0052147284
0.058408588 -0.241475 -0.0030055307
0.057895254 -0.242842 -0.0016934276
0.058394253 -0.243182 0.00049537048
0.058387086 -0.244031 0.0022364706
0.058379915 -0.24487799 0.0039713718
0.058372751 -0.245721 0.005700171
0.058865547 -0.246048 0.0078433678
0.059354786 -0.246373 0.0099714659
0.060333464 -0.246187 0.012493163
0.061788775 -0.245499 0.015388958
0.061775681 -0.246324 0.017061759
0.061762586 -0.247146 0.01872896
0.061749592 -0.24796499 0.020390159
0.062218502 -0.24827699 0.022430656
0.062204707 -0.24909 0.024076955
0.063621916 -0.248394 0.026843652
0.063605823 -0.2492 0.028468352
0.064061828 -0.249503 0.030453451
0.065449536 -0.248813 0.033143945
0.064964548 -0.25010401 0.034383245
0.064479649 -0.251396 0.035622749
0.063525654 -0.253189 0.036509752
0.063039958 -0.25448301 0.037751451
0.062081859 -0.256284 0.038643658
0.059686407 -0.25963801 0.038486265
0.054724175 -0.197313 -0.097473025
0.054158863 -0.198818 -0.096029013
0.05416045 -0.199843 -0.09391202
0.053596213 -0.201346 -0.09247002
0.053031959 -0.202849 -0.09102802
0.051897403 -0.204841 -0.090249002
0.05133196 -0.206347 -0.088803008
0.050191708 -0.20835 -0.088018
0.04962511 -0.209859 -0.08657001
0.047313374 -0.21289 -0.087098986
0.046743318 -0.214408 -0.085641995
0.04734347 -0.21489701 -0.082875982
0.046775647 -0.216409 -0.081423983
0.046207789 -0.217922 -0.079972982
0.046224937 -0.218914 -0.077878982
0.046241965 -0.21990199 -0.075793982
0.047417287 -0.21984801 -0.072461993
0.047431745 -0.220826 -0.070403993
0.047446184 -0.221801 -0.068353996
0.046886008 -0.22329301 -0.066921979
0.046901423 -0.224261 -0.064882979
0.046916772 -0.225225 -0.062851995
0.047503091 -0.22566301 -0.060232993
0.046947207 -0.227143 -0.058811989
0.046962295 -0.22809599 -0.05680399
0.046407379 -0.22957399 -0.055385981
0.046992198 -0.229992 -0.052811991
0.047572426 -0.230407 -0.050256994
0.048148207 -0.230819 -0.04772209
0.049830783 -0.23018301 -0.044101503
0.049839891 -0.231111 -0.042163398
0.050399277 -0.23151501 -0.0396928
0.050407212 -0.232435 -0.037774
0.050415147 -0.23335201 -0.035862502
0.049875818 -0.234788 -0.034484003
0.05043076 -0.235176 -0.032060798
0.050438501 -0.236082 -0.030170601
0.050446182 -0.236986 -0.028287496
0.050453804 -0.237885 -0.026411299
0.051001314 -0.238258 -0.024040703
0.052612524 -0.237587 -0.020702604
0.053145904 -0.237956 -0.018379215
0.053675402 -0.238323 -0.016072918
0.053676806 -0.23920199 -0.014256913
0.054201365 -0.239562 -0.011978213
0.055240445 -0.239407 -0.0092543177
0.055238985 -0.240275 -0.0074704178
0.054720927 -0.24165501 -0.0061464161
0.055235907 -0.242002 -0.0039216168
0.055747133 -0.242347 -0.001712922
0.055744659 -0.243203 4.1678548e-05
0.05625128 -0.243542 0.0022243783
0.056247845 -0.24439 0.0039625801
0.056244422 -0.24523599 0.0056945793
0.056240968 -0.246079 0.0074204803
0.057243116 -0.245893 0.0099737756
0.057737201 -0.246218 0.012090672
0.05822771 -0.24654099 0.014192771
0.059207041 -0.246355 0.016679168
0.059688099 -0.246675 0.018746968
0.059678584 -0.24749599 0.020411165
0.059669107 -0.24831501 0.022069765
0.060145106 -0.24862599 0.024104564
0.060617916 -0.248935 0.026125362
0.060606822 -0.249744 0.027759861
0.061075427 -0.250047 0.02975776
0.061540835 -0.25034899 0.031742059
0.061051741 -0.25165099 0.032992162
0.060562544 -0.25295401 0.034242362
0.059593596 -0.254765 0.035134766
0.059103593 -0.25606999 0.036387268
0.058613524 -0.257375 0.037639771
0.05763945 -0.25919801 0.038539574
0.05617388 -0.261549 0.039089877
0.056300446 -0.19236401 -0.095090032
0.055181339 -0.19431899 -0.094325021
0.054620374 -0.195813 -0.092891023
0.054620959 -0.19683599 -0.09079802
0.054061055 -0.198327 -0.089367017
0.05350117 -0.199818 -0.087936014
0.052376386 -0.20178799 -0.087156013
0.05181535 -0.203282 -0.085721999
0.051254235 -0.204776 -0.084288001
0.050693151 -0.20626999 -0.082854003
0.046668682 -0.21075401 -0.085314989
0.046100818 -0.212266 -0.083863989
0.046118185 -0.213269 -0.081761986
0.045551367 -0.21477801 -0.080313995
0.044984564 -0.216287 -0.078864992
0.045004003 -0.217281 -0.076777995
0.045606133 -0.217755 -0.07406798
0.045624159 -0.21874 -0.072002977
0.046220168 -0.21920601 -0.06932798
0.045659952 -0.220698 -0.067895979
0.045677733 -0.221671 -0.065854982
0.045695387 -0.22264101 -0.063820988
0.046286438 -0.223088 -0.061198983
0.045730464 -0.22456799 -0.059777986
0.045174479 -0.22604901 -0.058356982
0.045192946 -0.227005 -0.056349982
0.045211293 -0.227956 -0.054350983
0.045799512 -0.22837999 -0.051784981
0.045816518 -0.229324 -0.049805988
0.04639896 -0.22973999 -0.047272582
0.048650615 -0.228596 -0.043106791
0.048661869 -0.229525 -0.041174192
0.048119456 -0.23097 -0.039787989
0.048684195 -0.231373 -0.037330795
0.048143808 -0.232812 -0.035949688
0.048155926 -0.233729 -0.034041394
0.048167914 -0.234642 -0.032140289
0.048179839 -0.235551 -0.030246291
0.048191708 -0.23645701 -0.02835929
0.048749726 -0.236836 -0.025972392
0.049303506 -0.237212 -0.023603197
0.050391164 -0.237066 -0.020759102
0.050933726 -0.23743799 -0.018430997
0.052002322 -0.237293 -0.015641507
0.052006759 -0.23817401 -0.013826106
0.052011117 -0.239053 -0.012017407
0.053064045 -0.23890001 -0.0092882104
0.053066421 -0.23977099 -0.0075008087
0.052547336 -0.241153 -0.0061743073
0.052550644 -0.242018 -0.0043956079
0.05255387 -0.24288 -0.0026235059
0.053592309 -0.242709 2.5589019e-05
0.05410751 -0.24304999 0.0022123866
0.054107875 -0.243901 0.0039537847
0.05410818 -0.24474999 0.0056890845
0.054617759 -0.24508201 0.0078401864
0.055123724 -0.24541099 0.0099761821
0.055626042 -0.245739 0.012096882
0.055623621 -0.246574 0.013796482
0.055621125 -0.24740499 0.015490182
0.057111807 -0.24670801 0.018370375
0.057106733 -0.247532 0.020041274
0.057594121 -0.24784701 0.022093873
0.057588186 -0.248666 0.023749672
0.058071334 -0.24897499 0.025778871
0.058064539 -0.249788 0.02741977
0.058543548 -0.250092 0.029425869
0.058535911 -0.250898 0.031052168
0.058528289 -0.251701 0.03267277
0.057552442 -0.253517 0.033565573
0.057060666 -0.25482601 0.034822475
0.056568891 -0.256136 0.036079276
0.056077044 -0.25744599 0.037336279
0.055095159 -0.25927401 0.038238883
0.05410986 -0.26111001 0.039144687
0.056187604 -0.18989 -0.092648029
0.055074729 -0.191829 -0.09188202
0.053957459 -0.193776 -0.091114014
0.053398624 -0.195264 -0.089686021
0.052839778 -0.196752 -0.088257015
0.052280895 -0.19824 -0.086829022
0.051155817 -0.200204 -0.086049005
0.050595779 -0.201695 -0.084618002
0.050604057 -0.202705 -0.082543999
0.050045062 -0.20419399 -0.081115007
0.047767706 -0.207149 -0.081604987
0.047205318 -0.208647 -0.080166996
0.047220245 -0.209647 -0.078093991
0.046080589 -0.211641 -0.077292994
0.044936363 -0.213644 -0.076488987
0.044372808 -0.21514399 -0.075047985
0.044393227 -0.216134 -0.07298097
0.044994056 -0.216611 -0.07030198
0.044433739 -0.21810199 -0.068869978
0.044453859 -0.219081 -0.066826984
0.044473846 -0.220056 -0.064790979
0.045069616 -0.220513 -0.062164981
0.044513598 -0.221994 -0.060743976
0.044533286 -0.222957 -0.058731977
0.043978304 -0.224435 -0.057313975
0.043998949 -0.225392 -0.05531298
0.044019505 -0.226345 -0.053318974
0.044039983 -0.227295 -0.051332977
0.044630323 -0.22771899 -0.048788879
0.044649441 -0.228661 -0.046823073
0.046917684 -0.22752801 -0.042661395
0.046932161 -0.228459 -0.040729489
0.046946578 -0.229387 -0.038804892
0.046405103 -0.230829 -0.037421081
0.046420433 -0.23175 -0.035506386
0.046435699 -0.232669 -0.033598784
0.045896165 -0.23410501 -0.032219987
0.045912381 -0.235018 -0.030322086
0.046480969 -0.235403 -0.027918685
0.047045298 -0.23578601 -0.025533292
0.047605366 -0.236167 -0.023165692
0.048702415 -0.236027 -0.020323794
0.049251147 -0.236403 -0.017997298
0.049260631 -0.23729099 -0.016167503
0.050336402 -0.237147 -0.013395298
0.049812555 -0.23854101 -0.012056701
0.050351076 -0.238904 -0.0097857006
0.050885648 -0.239264 -0.0075313039
0.050891884 -0.240135 -0.0057469048
0.050372746 -0.24151701 -0.0044201985
0.050379876 -0.242382 -0.0026445985
0.050386947 -0.24324401 -0.00087539852
0.051955737 -0.242557 0.0022003949
0.051959854 -0.24341001 0.0039450936
0.05196397 -0.244261 0.0056835935
0.052482046 -0.244596 0.0078387931
0.052485175 -0.24544001 0.0095610917
0.052998602 -0.245768 0.01169109
0.05350836 -0.246095 0.013805889
0.053509556 -0.246929 0.015502691
0.053510722 -0.24776 0.017193489
0.055016112 -0.24706 0.020061983
0.055014599 -0.24788401 0.021730082
0.055509187 -0.248199 0.02377698
0.056000382 -0.24851 0.025809778
0.055997051 -0.24932501 0.027453579
0.055993773 -0.250137 0.029091679
0.055990461 -0.25094599 0.030724179
0.055987176 -0.25175199 0.032351181
0.055494491 -0.25306299 0.033610281
0.055001795 -0.25437501 0.034869384
0.05450907 -0.255687 0.036128584
0.054016337 -0.25699899 0.037387785
0.053029109 -0.25883099 0.038292188
0.052038442 -0.26066801 0.039199695
0.057178091 -0.18552899 -0.090997025
0.056075733 -0.187445 -0.090234011
0.054413702 -0.18982001 -0.090119019
0.053858109 -0.19129901 -0.088699013
0.052742742 -0.19323801 -0.087927014
0.052185968 -0.19472 -0.086505011
0.050498784 -0.197138 -0.086374
0.04993977 -0.198626 -0.084945008
0.049380727 -0.200114 -0.083517
0.048821673 -0.201603 -0.082088009
0.048262618 -0.203091 -0.08066
0.047703505 -0.20457999 -0.079230994
0.047144357 -0.20606799 -0.077801988
0.046585232 -0.20755699 -0.076372981
0.045448717 -0.209539 -0.075571984
0.043724649 -0.21203101 -0.075395972
0.04316213 -0.21352801 -0.073958978
0.042599548 -0.21502601 -0.072520971
0.043207388 -0.215507 -0.069843978
0.043229844 -0.21649 -0.067798972
0.042670518 -0.217979 -0.066369966
0.042693928 -0.21895599 -0.064334974
0.043296527 -0.219418 -0.06171098
0.043318532 -0.220387 -0.059696976
0.042763498 -0.221865 -0.058277968
0.042786457 -0.222827 -0.056274969
0.042809334 -0.223785 -0.054278973
0.04283208 -0.22474 -0.052291978
0.04342702 -0.22517399 -0.049743574
0.043448377 -0.22612099 -0.047775675
0.044603158 -0.226034 -0.044705879
0.04574471 -0.22594801 -0.041671086
0.045202155 -0.227392 -0.040284682
0.04521979 -0.228322 -0.038360883
0.044678207 -0.229764 -0.036976878
0.044696745 -0.23068801 -0.035062876
0.044156127 -0.232127 -0.033681478
0.044175595 -0.233045 -0.031777177
0.044194933 -0.23396 -0.029879976
0.04476995 -0.23435 -0.02747808
0.045340598 -0.23473699 -0.025094185
0.045906968 -0.235121 -0.022728082
0.04755573 -0.234474 -0.019399393
0.047568325 -0.235367 -0.017563488
0.047580793 -0.236257 -0.015734289
0.048130482 -0.23662999 -0.01343729
0.048141837 -0.23751301 -0.011625692
0.048153095 -0.23839299 -0.0098206922
0.048696641 -0.238756 -0.007561896
0.048706807 -0.239629 -0.0057739951
0.048716906 -0.240499 -0.0039926954
0.048726983 -0.241366 -0.0022176951
0.048736937 -0.242229 -0.00044909492
0.050317593 -0.24155 0.0026236996
0.050324559 -0.242406 0.0043678023
0.050331511 -0.243258 0.0061056018
0.050855383 -0.243596 0.008259397
0.050861273 -0.244442 0.0099810958
0.050352074 -0.24579801 0.011282399
0.050873045 -0.246126 0.013406396
0.051390227 -0.24645101 0.015515398
0.051395062 -0.24728499 0.017209295
0.05190767 -0.247604 0.019293793
0.053421549 -0.246907 0.022142688
0.053921647 -0.247224 0.024188286
0.054418284 -0.24754 0.026219783
0.054417633 -0.248356 0.027862985
0.053922366 -0.24967501 0.029128585
0.053922582 -0.25048599 0.030763986
0.053922735 -0.25129399 0.032393783
0.05342916 -0.252608 0.033655189
0.052439153 -0.254435 0.034554593
0.051944681 -0.255752 0.035818193
0.051450144 -0.25706801 0.037081994
0.050955582 -0.258385 0.038345698
0.049959518 -0.260225 0.039255101
0.057605002 -0.182695 -0.087971032
0.057056855 -0.184154 -0.086571038
0.055414565 -0.18649299 -0.086442024
0.054313019 -0.18840399 -0.085673019
0.052091606 -0.191227 -0.086183012
0.050974876 -0.193161 -0.085407004
0.049853701 -0.195104 -0.084628001
0.048157252 -0.197523 -0.084490001
0.04759812 -0.199011 -0.083060995
0.047038972 -0.2005 -0.081631988
0.047053982 -0.20151 -0.079567984
0.045920633 -0.203477 -0.078774989
0.045361418 -0.20496599 -0.077345982
0.044802215 -0.20645501 -0.075916991
0.04424293 -0.20794301 -0.074487984
0.041930869 -0.210922 -0.074936971
0.041368242 -0.21242 -0.073499963
0.040805578 -0.213918 -0.072061971
0.040832818 -0.214908 -0.070003971
0.041446265 -0.215389 -0.067341968
0.040886879 -0.216878 -0.065911964
0.04149764 -0.21734899 -0.063276976
0.042103659 -0.217816 -0.060660969
0.042704921 -0.21828 -0.058065969
0.042151954 -0.219752 -0.056652967
0.042750653 -0.22020701 -0.054082971
0.04277337 -0.221165 -0.052102972
0.042795978 -0.222119 -0.050130967
0.042818427 -0.22307 -0.048165973
0.043408796 -0.223508 -0.045653176
0.043994565 -0.223943 -0.043159377
0.044014499 -0.22488099 -0.041226376
0.044034306 -0.225816 -0.039300676
0.044053994 -0.22674701 -0.037382279
0.043513387 -0.228186 -0.036000777
0.042972755 -0.229626 -0.034619275
0.042432047 -0.23106501 -0.033237766
0.042454675 -0.231985 -0.031334173
0.042477213 -0.23290201 -0.029437672
0.042499591 -0.233815 -0.027548272
0.04307979 -0.23420499 -0.025159474
0.046398304 -0.23202799 -0.020315986
0.046412952 -0.232926 -0.018478286
0.046427548 -0.23382001 -0.016647387
0.046981398 -0.234203 -0.014346894
0.046994835 -0.23509 -0.01253349
0.046470821 -0.236485 -0.011194587
0.046485085 -0.237367 -0.0093901865
0.046499301 -0.23824599 -0.0075923875
0.046513427 -0.239121 -0.0058011897
0.047060777 -0.239481 -0.0035649873
0.047073774 -0.24034899 -0.0017906874
0.047086649 -0.24121501 -2.2787601e-05
0.049201813 -0.240035 0.003480006
0.049210746 -0.24089199 0.0052196048
0.048698794 -0.242255 0.0065278038
0.0492284 -0.242597 0.0086802058
0.04923714 -0.24344499 0.010401204
0.048727851 -0.2448 0.011702605
0.049254525 -0.245132 0.013825305
0.049263071 -0.24597099 0.015528105
0.049271584 -0.24680699 0.017225206
0.050303187 -0.246619 0.019709298
0.05182822 -0.245929 0.022555493
0.052833781 -0.245748 0.02498159
0.052835885 -0.24656899 0.026629889
0.05233968 -0.24789 0.027897691
0.052342575 -0.248706 0.029538091
0.051847212 -0.25002399 0.030803893
0.051351834 -0.25134301 0.032069694
0.050856411 -0.252662 0.033335596
0.050360996 -0.25398099 0.034601502
0.049865551 -0.25529999 0.0358674
0.049370091 -0.25661901 0.037133403
0.048874639 -0.257938 0.038399503
0.048379134 -0.25925699 0.039665606
0.058025092 -0.179904 -0.084992036
0.057481028 -0.181352 -0.083601028
0.056936923 -0.18279999 -0.082211033
0.055850826 -0.184682 -0.081443012
0.053663954 -0.187451 -0.081922024
0.052008424 -0.189803 -0.08177501
0.050340012 -0.192173 -0.081626996
0.048090871 -0.195024 -0.082113996
0.046390682 -0.197438 -0.081965983
0.045832537 -0.19892401 -0.080539986
0.045274414 -0.20040999 -0.079112992
0.044137456 -0.202374 -0.078318983
0.043578133 -0.20386299 -0.076889977
0.043599799 -0.204868 -0.074834973
0.043041542 -0.20635401 -0.073407978
0.039544348 -0.210311 -0.075107962
0.03778635 -0.21282101 -0.074929953
0.037220255 -0.21432699 -0.07348296
0.038448565 -0.214307 -0.070164949
0.038480371 -0.215297 -0.068109959
0.039102882 -0.215776 -0.06545496
0.038543388 -0.21726599 -0.064025953
0.040333442 -0.216723 -0.060206961
0.041519742 -0.21669 -0.057028968
0.042692315 -0.216657 -0.053888973
0.043284312 -0.21712001 -0.051348981
0.04330571 -0.21807601 -0.049389277
0.042759985 -0.219529 -0.047994968
0.042782333 -0.220479 -0.046045367
0.042804539 -0.221426 -0.044103075
0.042260844 -0.222873 -0.042713869
0.042283934 -0.223814 -0.040781569
0.042306997 -0.224751 -0.03885657
0.042329848 -0.225684 -0.036938872
0.041789159 -0.22712401 -0.035557266
0.041248437 -0.228563 -0.034175668
0.040707693 -0.230003 -0.032793965
0.040166914 -0.231442 -0.031412262
0.040193733 -0.232362 -0.029511962
0.03965392 -0.233798 -0.028132658
0.039681625 -0.234712 -0.026242059
0.044711906 -0.23098899 -0.019881476
0.045274135 -0.23138399 -0.017560486
0.045832194 -0.231775 -0.015256587
0.045847651 -0.232667 -0.013441484
0.045323607 -0.234062 -0.012102481
0.04479951 -0.235457 -0.010763381
0.044275396 -0.23685201 -0.0094242766
0.044833966 -0.237222 -0.0071625821
0.044311728 -0.238612 -0.0058282763
0.044868056 -0.23897301 -0.0035878792
0.044884942 -0.23984499 -0.0018100813
0.045436129 -0.2402 0.00040371716
0.047566034 -0.23903 0.0039028078
0.047577798 -0.239888 0.00564171
0.047589518 -0.24074399 0.007374309
0.047601152 -0.241597 0.0091009066
0.047612738 -0.242447 0.01082141
0.047103353 -0.24380299 0.01212291
0.047115758 -0.244647 0.013835013
0.047128096 -0.245489 0.01554111
0.047658384 -0.24581601 0.017642807
0.050227985 -0.244121 0.021302002
0.051243614 -0.24394999 0.023738997
0.051749442 -0.244277 0.025772095
0.051753279 -0.24509899 0.027416294
0.051257893 -0.246418 0.028681997
0.050762478 -0.24773601 0.029947899
0.050267033 -0.249055 0.031213699
0.049771603 -0.25037399 0.032479599
0.049276099 -0.25169301 0.033745602
0.048780635 -0.253012 0.035011604
0.048285119 -0.25433099 0.036277708
0.047789555 -0.25565001 0.037543908
0.047293998 -0.256969 0.038810011
0.046798404 -0.25828901 0.040076282
0.058438513 -0.177155 -0.082057029
0.057898477 -0.178592 -0.080677032
0.056822382 -0.18045101 -0.079912037
0.056281295 -0.18189099 -0.07852903
0.054657817 -0.184191 -0.078372017
0.05411461 -0.185637 -0.076984018
0.052476563 -0.18796 -0.076820016
0.049151864 -0.19164699 -0.078512996
0.046334393 -0.19494499 -0.079607993
0.045779448 -0.196422 -0.078190982
0.044650059 -0.198367 -0.077398986
0.044094004 -0.199847 -0.075977981
0.041794576 -0.20276 -0.076432973
0.04181961 -0.203767 -0.074378967
0.041261315 -0.20525301 -0.072952971
0.03533854 -0.21120401 -0.077189937
0.034161042 -0.21322601 -0.076376945
0.031746041 -0.216291 -0.076844946
0.037975501 -0.216133 -0.060345951
0.041490991 -0.21411499 -0.054841969
0.044352099 -0.212635 -0.050042976
0.043809474 -0.21407899 -0.048656378
0.04326681 -0.215524 -0.047269974
0.043287985 -0.21647599 -0.045332674
0.04274632 -0.21791799 -0.043948766
0.042204596 -0.21935999 -0.042564768
0.041662902 -0.22080199 -0.041180667
0.039982971 -0.223252 -0.040878858
0.038442209 -0.23038 -0.030968357
0.038472116 -0.23130099 -0.029068757
0.037932221 -0.232738 -0.027689356
0.043573901 -0.22944801 -0.018959377
0.044139199 -0.229847 -0.016645979
0.044700328 -0.230243 -0.014349576
0.044176232 -0.231638 -0.013010476
0.043652087 -0.233033 -0.011671375
0.043127932 -0.234429 -0.010332175
0.042603739 -0.235824 -0.0089929737
0.042079512 -0.23721901 -0.0076536685
0.042645998 -0.237587 -0.0053982735
0.04320832 -0.23795301 -0.0031592734
0.043228187 -0.23882601 -0.0013821721
0.043785274 -0.23918501 0.00083012134
0.046981528 -0.237021 0.0051837116
0.046470363 -0.238382 0.0064898133
0.046483919 -0.23923901 0.0082180128
0.045973614 -0.24059699 0.0095218159
0.045988031 -0.241449 0.011241715
0.045478534 -0.242805 0.012543216
0.044969101 -0.24416099 0.013844918
0.044985216 -0.245005 0.015554119
0.046563976 -0.24431901 0.018460114
0.049647767 -0.242145 0.022491902
0.05066286 -0.24198399 0.024914298
0.050668556 -0.24281099 0.026559999
0.050674226 -0.243634 0.028199999
0.050679851 -0.244454 0.0298345
0.049182121 -0.246767 0.030357605
0.048686616 -0.24808601 0.031623606
0.048191078 -0.249405 0.032889709
0.047695532 -0.25072399 0.034155708
0.047199938 -0.25204301 0.035421912
0.046704382 -0.253362 0.036688112
0.046208736 -0.25468099 0.037954316
0.045713101 -0.256001 0.039220616
0.044705987 -0.25784001 0.04013348
0.057251796 -0.175675 -0.081002027
0.056712709 -0.17711 -0.079624027
0.056173608 -0.178545 -0.078247011
0.055634461 -0.17997999 -0.076870024
0.055095326 -0.18141501 -0.075492024
0.054015771 -0.183276 -0.074718013
0.052386619 -0.18557701 -0.074546009
0.050745007 -0.187895 -0.074371994
0.047409885 -0.19157501 -0.076038986
0.046860211 -0.193038 -0.074634984
0.045174818 -0.195417 -0.074458987
0.04347628 -0.197815 -0.074281976
0.041764431 -0.200231 -0.074102968
0.041208237 -0.201711 -0.072682977
0.040651981 -0.203192 -0.071260959
0.031064833 -0.212111 -0.079304934
0.045403644 -0.208217 -0.048756387
0.044865079 -0.20965099 -0.047380384
0.044326425 -0.21108399 -0.046004374
0.043228056 -0.213 -0.045174476
0.04268837 -0.21443599 -0.043795671
0.041584753 -0.216361 -0.042959969
0.041043989 -0.217801 -0.041578468
0.040503204 -0.21923999 -0.040196862
0.044077009 -0.22642399 -0.01659688
0.043552876 -0.227819 -0.01525778
0.04302869 -0.229214 -0.013918679
0.042504504 -0.230609 -0.012579467
0.041980278 -0.232005 -0.01124027
0.041456033 -0.2334 -0.0099008679
0.040931769 -0.234795 -0.0085615665
0.040407464 -0.236191 -0.0072220676
0.039883196 -0.23758601 -0.0058825612
0.040457577 -0.23795301 -0.0036334656
0.041027796 -0.238318 -0.001400765
0.041051511 -0.23919 0.00037323311
0.042155739 -0.239039 0.0030163303
0.044839766 -0.23738 0.0069113187
0.044856161 -0.23823901 0.0086388178
0.044345777 -0.23959699 0.0099428184
0.043835372 -0.24095599 0.011246722
0.043853495 -0.241807 0.012963723
0.04334392 -0.243163 0.014265522
0.042834364 -0.244519 0.015567325
0.044953037 -0.24333 0.018877219
0.049071353 -0.240182 0.023673505
0.049583662 -0.240522 0.025703603
0.050092436 -0.240859 0.0277196
0.050099015 -0.24168301 0.029352101
0.050105534 -0.242504 0.030979101
0.048610903 -0.244802 0.031504504
0.048117038 -0.246117 0.032766208
0.047117621 -0.247932 0.03366451
0.046114676 -0.249755 0.034565914
0.045619018 -0.25107399 0.035832219
0.045123354 -0.25239301 0.03709852
0.04462764 -0.253712 0.038364921
0.043618593 -0.255548 0.039276324
0.043121986 -0.25687 0.040545024
0.055532787 -0.174611 -0.080563024
0.054993644 -0.176046 -0.079186022
0.054992951 -0.177066 -0.077200025
