# .PCD v0.7 - Point Cloud Data file format
VERSION 0.7
FIELDS x y z
SIZE 4 4 4
TYPE F F F
COUNT 1 1 1
WIDTH 1217
HEIGHT 1
VIEWPOINT 0 0 0 1 0 0 0
POINTS 1217
DATA ascii
-0.0010011866 -0.043060251 -0.0073966463
0.00098658586 -0.04296317 -0.0075456682
0.0031345445 -0.043023832 -0.0071037128
0.0044990978 -0.043014579 -0.0064403457
-0.0050472138 -0.042851966 -0.0049741985
0.0055277674 -0.042885505 -0.0056209066
0.0064548636 -0.0427991 -0.004613359
-0.0064215288 -0.043017622 -0.0026875187
-0.0058761314 -0.042735886 -0.0038478919
0.0072608637 -0.043065157 -0.0032413653
-0.0068128132 -0.042935789 -0.00089316652
0.0078979013 -0.043288562 -0.00091341248
-0.0068283463 -0.042925414 0.00066126045
0.0078752218 -0.042970683 0.00095881918
-0.0063297879 -0.043059077 0.0026546896
-0.005797667 -0.043003488 0.0037435773
0.007178464 -0.043052349 0.0032282635
-0.0048621311 -0.04283534 0.004958088
-0.0039269943 -0.04239738 0.0058879843
0.0054688677 -0.042837359 0.0054793055
0.0063475277 -0.042979803 0.0045794295
-0.0027349743 -0.042908318 0.0065600486
-0.0013170289 -0.043143604 0.0070795724
0.0011602732 -0.04310577 0.0073359855
0.0030560519 -0.042889901 0.006896948
0.0044400785 -0.043234084 0.0062209694
-0.0040178727 -0.04577044 -0.0060016853
-0.0029010884 -0.044973109 -0.0066760583
-0.001061826 -0.045137957 -0.0073900828
0.00132193 -0.044881612 -0.0075209797
0.0029034317 -0.045137838 -0.0071862605
0.0045404625 -0.044998668 -0.006414881
-0.0049041221 -0.045061778 -0.0051180129
0.0055139894 -0.044931792 -0.0056337728
0.0063305171 -0.044981904 -0.0048124646
-0.0063547767 -0.044832591 -0.002820896
-0.0059002368 -0.044576123 -0.0037996878
0.0074367295 -0.045059215 -0.0028040612
-0.0067835972 -0.045091882 -0.0010733043
0.0079209153 -0.044723734 -0.00075620983
-0.006795451 -0.044957411 0.00086033443
0.0078783873 -0.044972986 0.00096581504
-0.0063358955 -0.045235537 0.0026518721
-0.0058490834 -0.045121945 0.0036613033
0.007295765 -0.044795338 0.0029763347
-0.0049677258 -0.044997152 0.0048782779
-0.0038606506 -0.044461545 0.0059498982
0.0053398712 -0.044724062 0.0055759363
0.0064032655 -0.045342565 0.0045068255
-0.0030025328 -0.045113504 0.0064310776
-0.0010137489 -0.044850513 0.0071584894
0.00089758373 -0.045067351 0.0073495507
0.0030064415 -0.04503249 0.0069265193
0.0044192001 -0.045168228 0.0062344717
-0.0040086387 -0.04666315 -0.0060082604
-0.003019334 -0.046988305 -0.0066102883
-0.0011517325 -0.046858598 -0.007344807
0.00099099788 -0.046975229 -0.0075477459
0.0030713426 -0.046920326 -0.007145741
0.0044857683 -0.046806987 -0.0064493734
-0.0049810251 -0.047042262 -0.0050383778
0.0054709017 -0.046944894 -0.0056739957
0.0064483504 -0.047088552 -0.0046443334
-0.0063794157 -0.04690215 -0.0027944825
-0.0058857678 -0.04646194 -0.0038286329
0.0073055024 -0.046940699 -0.0031272746
-0.0068209139 -0.047143947 -0.00089147576
0.0078750104 -0.047216538 -0.0011177897
-0.0067761387 -0.046912502 0.0009814559
0.0079189949 -0.046999048 0.00081338204
-0.0063135778 -0.046937704 0.0027107866
-0.0058079246 -0.047253508 0.0037271501
0.0071451846 -0.046923958 0.0033037937
-0.0049266363 -0.047035068 0.004888827
-0.0038871793 -0.046936169 0.0059251292
0.005201973 -0.047109969 0.0056992825
0.0065272953 -0.047036573 0.0043769414
-0.0028789209 -0.047146499 0.0064897132
-0.0011245627 -0.047002014 0.007128519
0.0010336273 -0.046900116 0.0073420578
0.003087074 -0.04716574 0.0068971361
0.0044505307 -0.047065765 0.0062141917
-0.0040051583 -0.049234807 -0.0060107801
-0.0030829329 -0.049043778 -0.0065876353
-0.0010777632 -0.04910484 -0.0073813214
0.00101185 -0.04908685 -0.007538178
0.0029800369 -0.048729584 -0.0071731089
0.004607968 -0.048853636 -0.0063765626
-0.0050987834 -0.049093563 -0.0049014017
0.0054882085 -0.049053065 -0.0056578489
0.006425302 -0.049171403 -0.0046596043
-0.0064166924 -0.048533555 -0.0026842023
-0.0059209177 -0.049482737 -0.0037583439
0.0073520653 -0.048830535 -0.0030251916
-0.0068178279 -0.049100917 -0.00098282401
0.0079064043 -0.048797652 -0.00087409839
-0.0067579914 -0.049088702 0.0010935083
0.0078659523 -0.048680365 0.0010370959
-0.0063688061 -0.048849333 0.0025415942
-0.0057901922 -0.048797753 0.0037555166
0.0072880876 -0.049103837 0.0030131885
-0.0049821297 -0.048915494 0.004847826
-0.0039342176 -0.049907912 0.0058812159
0.0053811842 -0.048786219 0.0055612302
0.0063949805 -0.049376335 0.0045283041
-0.0028598818 -0.048658233 0.0065038805
-0.0010396974 -0.049176317 0.0071522887
0.00086685928 -0.049142499 0.0073514795
0.0031312187 -0.04907129 0.0068820012
0.0043839929 -0.048783965 0.0062572397
-0.0040011294 -0.051954426 -0.0060136672
-0.0029140501 -0.051006556 -0.0066648237
-0.00083115342 -0.050924763 -0.0074456353
0.00106839 -0.050865065 -0.0075471024
0.0029783084 -0.050797805 -0.0071603367
0.0044623553 -0.051049378 -0.0064745923
-0.0048536663 -0.050807618 -0.0051880372
0.005472776 -0.05107804 -0.0056722611
0.0064158095 -0.05103606 -0.0046905656
-0.0063803443 -0.05086327 -0.0027704637
-0.0058908043 -0.051103573 -0.003818576
0.0074749971 -0.050916195 -0.0027071021
-0.0068201073 -0.051190443 -0.00076452247
0.0079068607 -0.051176637 -0.0009438697
-0.0067783543 -0.051032662 0.00098630588
0.0078773275 -0.05118667 0.00099404796
-0.006303906 -0.051011004 0.002713487
-0.0058585797 -0.05055631 0.0036460904
0.0073054754 -0.051072881 0.0029576838
-0.0049897828 -0.050719291 0.0048331684
-0.0039309934 -0.050507382 0.0058842232
0.0053330176 -0.051047735 0.0055829487
0.0063472944 -0.050776891 0.0045729307
-0.0029757591 -0.050876301 0.0064460179
-0.0013997975 -0.051106092 0.0070577627
0.0010452216 -0.050844207 0.0073416741
0.0029719307 -0.051121913 0.0069382032
0.0044205361 -0.051228076 0.0062335855
-0.0028538676 -0.053069178 -0.0066961958
-0.0010418887 -0.052902255 -0.0073772497
0.00098025193 -0.053145673 -0.0075544403
0.003014477 -0.052950639 -0.0071461941
0.0048411847 -0.053106632 -0.006238997
-0.0049673938 -0.052930944 -0.0050600856
0.0056866226 -0.052910186 -0.0054726768
0.0063959416 -0.052807935 -0.0047164853
-0.0062798969 -0.053041078 -0.0030292964
-0.0058756964 -0.053449348 -0.0038488002
0.0074271946 -0.053126942 -0.0027965121
-0.0067606857 -0.052922558 -0.0012501269
0.0078813909 -0.052967198 -0.0010666569
-0.0067801117 -0.053080786 0.00094202376
0.0078896042 -0.052839532 0.00090733776
-0.0062737311 -0.052763019 0.0028196068
-0.0058353124 -0.053436272 0.003683307
0.0072601535 -0.053157151 0.0030582186
-0.0047387122 -0.053006623 0.0051112575
-0.003874385 -0.052917898 0.0059370496
0.0055841682 -0.052993629 0.0053776996
0.0063868025 -0.053106796 0.0045287758
-0.0028895936 -0.052918747 0.006485783
-0.00088461547 -0.053215567 0.0071916417
0.0011827416 -0.052943759 0.0073345616
0.0028603803 -0.053022716 0.0069760666
0.0044865771 -0.05284597 0.0061908467
-0.0032292835 -0.054938518 -0.0064910818
-0.00077869516 -0.054983102 -0.0074225268
0.001051591 -0.055098984 -0.0075553851
0.0032507402 -0.055393778 -0.0070602959
0.004427949 -0.055017024 -0.0064904243
-0.005028225 -0.05487572 -0.0049850568
0.0054093911 -0.054697767 -0.0057314341
0.0063745137 -0.05507227 -0.0047271196
-0.0063613476 -0.055017363 -0.0028261226
-0.0058867605 -0.055309869 -0.0038266787
0.0073351115 -0.054921091 -0.0030483571
-0.0067810281 -0.055232454 -0.0011586291
0.0079016676 -0.054810613 -0.00099361874
-0.0067668841 -0.055052198 0.00099662098
0.0078885034 -0.054809041 0.00092402246
-0.0063236966 -0.055130351 0.0026772127
-0.0057736798 -0.054897364 0.0037819133
0.0072787977 -0.054699536 0.0030095885
-0.0048486781 -0.055094659 0.0049912697
-0.0038701498 -0.055958074 0.0059409905
0.0055816364 -0.055007532 0.0053563043
0.0063631171 -0.054666258 0.0045594205
-0.0027099322 -0.054935418 0.0065685888
-0.0011436484 -0.054725472 0.0071251579
0.00090422033 -0.054757167 0.0073495908
0.0029931117 -0.054733761 0.006932925
0.0042852736 -0.055037398 0.0063210945
-0.003114922 -0.057024334 -0.0065461006
-0.0010078376 -0.057030872 -0.0073899571
0.00088709092 -0.057072289 -0.0075584454
0.0027952774 -0.056904919 -0.0072098719
0.0046705203 -0.057080939 -0.0063343085
-0.0050440221 -0.057109866 -0.0049663349
0.0054436228 -0.056701578 -0.0056994911
0.0064465031 -0.05728111 -0.0046339403
-0.0063909641 -0.056884464 -0.0027381806
-0.0059164781 -0.057222746 -0.0037672506
0.0072967578 -0.056831181 -0.0031633514
-0.0067781517 -0.057174332 -0.0010897379
0.0078820782 -0.056933913 -0.001104532
-0.0067671319 -0.05698337 0.0010463803
0.0079057431 -0.056783751 0.0008063225
-0.0062800138 -0.056797992 0.0028117597
-0.0058768294 -0.057349339 0.0036168662
0.0073569715 -0.05705642 0.002861117
-0.0049173753 -0.057018213 0.0049148155
-0.003864645 -0.056883976 0.0059461254
0.0053662499 -0.056950346 0.0055664773
0.0065119853 -0.057274982 0.0043827058
-0.0027890927 -0.056901716 0.0065360661
-0.0010059059 -0.057115417 0.0071604447
0.0010282107 -0.056868047 0.0073433835
0.0030567811 -0.057068989 0.006902792
0.0044473782 -0.057273582 0.0062161949
-0.0030049924 -0.059266821 -0.0066182222
-0.0010220725 -0.05908221 -0.007389145
0.00098070502 -0.059092548 -0.0075538647
0.0029173526 -0.058790002 -0.0071979249
0.0044947816 -0.058940209 -0.0064552538
-0.0051701441 -0.059275553 -0.0048510362
0.0056058345 -0.059152525 -0.0055481032
0.0064407075 -0.059023224 -0.0046377918
-0.0064175725 -0.059131291 -0.0026790763
-0.005991945 -0.058889486 -0.0036163228
0.0073593659 -0.05900364 -0.0030109261
-0.0068428614 -0.058974136 -0.00077477546
0.0078716949 -0.059057761 -0.0012044813
-0.0067652231 -0.058947545 0.0009660995
0.0078326277 -0.059266198 0.0012286644
-0.0063167405 -0.059097532 0.0027060481
-0.0058328174 -0.058998469 0.0036872793
0.0071513667 -0.059199978 0.0032970535
-0.0051466809 -0.059145588 0.0046591787
-0.003912678 -0.059629131 0.0059012841
0.0054688067 -0.05886488 0.0054689194
0.006480929 -0.059102464 0.0044287127
-0.0030686522 -0.059025723 0.0064061335
-0.0010817663 -0.05909317 0.0071411286
0.00095986674 -0.059177544 0.0073449346
0.0031553726 -0.059104867 0.0068727131
0.0043138745 -0.059301179 0.0063025728
-0.0027471159 -0.061215375 -0.0067631435
-0.00087908976 -0.060898628 -0.0074181459
0.00089358253 -0.061006591 -0.0075456612
0.0031280641 -0.061194897 -0.0071113319
0.0044523641 -0.061190315 -0.006484265
-0.0049856487 -0.061352994 -0.0050334823
0.0055557806 -0.060917508 -0.0055948263
0.0064164074 -0.061062485 -0.0046837316
-0.0063670403 -0.060655721 -0.0027949684
-0.0058905417 -0.061150804 -0.003819138
0.0072743753 -0.061170381 -0.0031893293
-0.0068033617 -0.061144922 -0.00093648041
0.0079011042 -0.060942426 -0.0010147223
-0.0067865942 -0.061118104 0.00087271282
0.0078472495 -0.06103573 0.0012253484
-0.00627201 -0.060722038 0.0028209509
-0.0057765404 -0.060751822 0.0037773161
0.0072906027 -0.060972635 0.0030072459
-0.0049977847 -0.061093897 0.0048180153
-0.0039679431 -0.060879763 0.005849699
0.0054339631 -0.06065565 0.0055092522
0.0064548021 -0.061016582 0.0044632498
-0.002832914 -0.060761236 0.0065159504
-0.0011142386 -0.061045092 0.0071328743
0.0010217921 -0.061143115 0.0073430277
0.0028797535 -0.061057225 0.0069677695
0.0044018673 -0.060903028 0.0062456303
-0.003137178 -0.062773891 -0.0065511549
-0.00090247852 -0.063109584 -0.0074127885
0.0010678864 -0.062892362 -0.0075568166
0.003044761 -0.063142218 -0.0071632206
0.0044922084 -0.06299372 -0.0064479136
-0.005108004 -0.063311003 -0.0049118144
0.0054238467 -0.063151561 -0.0057179714
0.006395652 -0.063112348 -0.0047082407
-0.006393529 -0.063051529 -0.0027520198
-0.0059082671 -0.06340073 -0.0037836947
0.0073436736 -0.062638 -0.003012181
-0.0067866221 -0.062889755 -0.0010765261
0.0078605041 -0.062810287 -0.0012922116
-0.0068065608 -0.062900789 0.00071078492
0.0078653051 -0.062950477 0.0010485576
-0.0063692229 -0.063210092 0.0025572872
-0.005822897 -0.062759385 0.0037031372
0.0073086582 -0.062969074 0.0029619173
-0.0046615461 -0.063136697 0.0052023283
-0.0038875486 -0.063140675 0.0059247264
0.0053122006 -0.062920511 0.0056171194
0.0064589097 -0.062681057 0.0044559469
-0.0030281369 -0.063198261 0.0064167292
-0.00099728606 -0.063054562 0.0071636438
0.0011048147 -0.062895469 0.0073391465
0.0031285132 -0.063136272 0.0068800189
0.004308206 -0.06295865 0.0063062273
-0.0028189013 -0.065158136 -0.0067227399
-0.001014833 -0.065040775 -0.007381063
0.00053101592 -0.065069348 -0.007549508
0.0030401482 -0.06501364 -0.0071375915
0.0045891479 -0.065041311 -0.0063908636
-0.0050431811 -0.064962134 -0.0049988539
0.0056178169 -0.064746127 -0.0055369386
0.0065143309 -0.064967386 -0.0045367707
-0.0064262394 -0.064822219 -0.002656369
-0.0058191754 -0.065614715 -0.0039618863
0.0073183519 -0.065106593 -0.0031152973
-0.0068126097 -0.06496048 -0.0010494593
0.0078971814 -0.064967237 -0.001139879
-0.006741046 -0.065176234 0.0010655593
0.00790135 -0.064970993 0.00094773679
-0.0063263862 -0.064972281 0.0026797119
-0.0058666798 -0.065041512 0.0036330768
0.007286523 -0.064800523 0.0030095181
-0.0048361816 -0.065079093 0.0050061522
0.0054814299 -0.064822726 0.0054918407
0.0063744523 -0.064896829 0.0045447065
-0.0030181387 -0.064821377 0.0064317645
-0.0010564581 -0.064839274 0.0071474072
0.0012113294 -0.064679921 0.0073337625
0.0030578258 -0.065133184 0.006902894
0.0045214002 -0.064855628 0.0061682709
-0.0029821431 -0.067149572 -0.0066439868
-0.0011451722 -0.067210682 -0.0073467339
0.0009088954 -0.066931911 -0.0075402167
0.003042446 -0.067044713 -0.0071434653
0.0046808412 -0.066880971 -0.0063323653
-0.0047886805 -0.067134194 -0.0052397912
0.0056442562 -0.067153051 -0.0055122711
0.0064745094 -0.066918448 -0.004590576
-0.006372638 -0.066776127 -0.0028311298
-0.0059287152 -0.066705026 -0.0037428113
0.007387199 -0.066960499 -0.0029526826
-0.0067705754 -0.06701605 -0.0012067828
0.0078893341 -0.067088611 -0.0011449979
-0.0067595094 -0.066971295 0.0010145748
0.0078715766 -0.066917062 0.0010571303
-0.0063289744 -0.066888168 0.0026532505
-0.0056820214 -0.066328049 0.0039285254
0.0072770272 -0.067167327 0.0030171655
-0.0048428723 -0.067153409 0.0050062505
-0.0039113015 -0.066442527 0.0059025446
0.0052647344 -0.067111626 0.0056410208
0.0063986978 -0.066907145 0.0045182304
-0.0030358925 -0.067082286 0.0064134263
-0.0010580934 -0.067003153 0.0071476274
0.00091239449 -0.067066237 0.0073483065
0.0029452848 -0.066955462 0.0069422731
0.0043009515 -0.06671074 0.0063109081
-0.0030770523 -0.069167271 -0.0065969881
-0.00080065662 -0.068751335 -0.0074293236
0.0011399171 -0.068856291 -0.0075500626
0.0030052874 -0.068886995 -0.0071657998
0.0044648433 -0.069277927 -0.0064678974
-0.0049615037 -0.068993695 -0.005066365
0.0055644079 -0.06881208 -0.0055868016
0.0064471499 -0.069285765 -0.0046203956
-0.006318463 -0.06908866 -0.0029288279
-0.0058802953 -0.069840245 -0.0038396623
0.007261504 -0.069046699 -0.0032556439
-0.0068106446 -0.069015764 -0.00093814306
0.0078985048 -0.068992794 -0.00099272095
-0.0067869863 -0.068901613 0.00083945337
0.0078578684 -0.068765827 0.0011326435
-0.0062947189 -0.069021262 0.0027910764
-0.0058886926 -0.068777256 0.0035978437
0.0073048798 -0.069003932 0.0029593969
-0.0050277635 -0.06906683 0.004799874
-0.0038826857 -0.068981633 0.0059292438
0.005346301 -0.069144413 0.00558742
0.0063492451 -0.069100022 0.0045727557
-0.0028294623 -0.068999164 0.006520106
-0.00086063845 -0.068952292 0.0071995831
0.0010932659 -0.068776973 0.0073400871
0.0028990321 -0.068780892 0.0069621033
0.0045275805 -0.068935215 0.0061642565
-0.0028841076 -0.071018614 -0.0066939872
-0.00096650003 -0.070802875 -0.007408875
0.00089835224 -0.071234986 -0.0075631072
0.0029446236 -0.071127176 -0.0071752686
0.0047301915 -0.070953295 -0.0062994319
-0.0052013332 -0.070937447 -0.0048081223
0.0055801123 -0.071117409 -0.0055721528
0.0064773993 -0.070997484 -0.0045889826
-0.0063312268 -0.071031407 -0.0029050298
-0.0059002545 -0.071157344 -0.0037997481
0.0073233834 -0.070994273 -0.0031020637
-0.0068043345 -0.071237475 -0.0010192647
0.0078967549 -0.070951097 -0.0010035688
-0.0067695701 -0.07090129 0.0010684768
0.0078620408 -0.071017742 0.0010935694
-0.0062647876 -0.0709491 0.0028091781
-0.005871309 -0.070939593 0.0036256493
0.0072550424 -0.07098572 0.003066933
-0.0047522709 -0.071050406 0.0051012184
-0.0039425027 -0.070968345 0.0058734072
0.0053514889 -0.070978999 0.0055758655
0.0064545153 -0.070724815 0.0044470537
-0.0029655679 -0.071130507 0.0064528259
-0.0010201137 -0.070823073 0.0071563581
0.00096850184 -0.070899338 0.0073448722
0.0029470252 -0.071232721 0.0069440575
0.0042348877 -0.070878826 0.0063536395
-0.0030262093 -0.07264962 -0.0066205291
-0.001043583 -0.073027752 -0.007372546
0.00085548719 -0.072959669 -0.0075510284
0.0029270987 -0.073033944 -0.0071837567
0.004589662 -0.072870806 -0.0063858642
-0.0050066528 -0.072601236 -0.0050166077
0.0057257484 -0.073139288 -0.0054362337
0.0065458822 -0.073227607 -0.0044886824
-0.0063336873 -0.0729331 -0.002900813
-0.0059030876 -0.073109038 -0.0037940892
0.0073958812 -0.072921328 -0.0028950849
-0.0067756739 -0.07307975 -0.0012585872
0.0078972261 -0.072987981 -0.00090244628
-0.0067589502 -0.0728871 0.00098421378
0.0078788558 -0.073098615 0.0010100129
-0.006325861 -0.072689243 0.0026749244
-0.0057480866 -0.072649278 0.0038227986
0.0073227468 -0.073018387 0.0029240104
-0.0050352947 -0.07289318 0.0047934954
-0.0039180694 -0.072942577 0.0058962051
0.0052806609 -0.072881773 0.0056327581
0.0063872617 -0.073175199 0.0045336648
-0.0031679992 -0.073088571 0.0063610179
-0.001134935 -0.072944149 0.0071246545
0.00095721858 -0.072906904 0.0073468755
0.0029562085 -0.072913267 0.0069439588
0.0042239763 -0.07285843 0.0063606934
-0.0029144094 -0.075218596 -0.0066734543
-0.0010083531 -0.074964948 -0.0073869159
0.0010375211 -0.07499174 -0.0075317319
0.0029238467 -0.075052068 -0.0071729533
0.0046916083 -0.075223193 -0.0063265092
-0.004895688 -0.074941784 -0.0051461407
0.0056652185 -0.074895941 -0.0054927347
0.0063887308 -0.07489679 -0.0047269985
-0.006360753 -0.075063527 -0.0028131118
-0.005895122 -0.074901611 -0.0038100274
0.0073265838 -0.075257748 -0.0030648536
-0.0067892047 -0.075048193 -0.0011657239
0.0079104574 -0.074950196 -0.00094320794
-0.0067378064 -0.074919112 0.0011760092
0.0078931535 -0.074828327 0.00097338908
-0.0063171224 -0.075198852 0.0026900279
-0.0058325115 -0.075175092 0.00368771
0.007297629 -0.075106658 0.002980367
-0.0048953569 -0.075132564 0.0049370672
-0.0038564261 -0.074639075 0.0059537319
0.0053235427 -0.075522393 0.005594966
0.0064287572 -0.074784689 0.0044702245
-0.0027773683 -0.075022593 0.0065422524
-0.0011223626 -0.075048767 0.0071306853
0.00099745463 -0.074824214 0.0073447376
0.0028712796 -0.074967921 0.0069686687
0.0043000099 -0.075334541 0.0063114851
-0.0040000072 -0.077252336 -0.0060145603
-0.0029541033 -0.076998398 -0.0066576046
-0.0010292322 -0.077007793 -0.0073758299
0.00085813162 -0.077195831 -0.0075433771
0.0030620694 -0.077028126 -0.0071396432
0.0045747804 -0.07697583 -0.0063890629
-0.0049646702 -0.077046178 -0.0050586746
0.0056784637 -0.076868147 -0.0054803803
0.0064458167 -0.076943479 -0.0046469984
-0.0063904831 -0.077025242 -0.002714694
-0.0058880812 -0.077053659 -0.0038241171
0.0073079076 -0.076977015 -0.0031039894
-0.0067971586 -0.077102117 -0.0010359213
0.0079016294 -0.076994956 -0.0010209312
-0.0067186062 -0.077025391 0.0011783914
0.0078689745 -0.076783806 0.0011082697
-0.0062417304 -0.077028468 0.0029076838
-0.005870787 -0.076728426 0.0036264635
0.007283947 -0.077034384 0.0029924919
-0.0046958048 -0.077146128 0.0051615429
0.0053703221 -0.076781273 0.0055542681
0.0064464007 -0.076800905 0.0044677854
-0.0030927549 -0.077189781 0.0063951924
-0.00086246285 -0.077028714 0.0071978229
0.00078189833 -0.077185892 0.0073537268
0.003086607 -0.077022925 0.0068889949
0.0045670969 -0.077212952 0.0061386577
-0.0029402575 -0.079090498 -0.0066708461
-0.0010364063 -0.07907255 -0.0073780688
0.0012068648 -0.07864818 -0.0075297379
0.0028662255 -0.079019107 -0.0072032204
0.0048014796 -0.079208337 -0.0062509077
-0.0048247674 -0.078910261 -0.0052281767
0.0054600425 -0.078861907 -0.0056842472
0.0063729458 -0.078877568 -0.0047309939
-0.006319663 -0.079236761 -0.0029132904
-0.0059035062 -0.078817606 -0.0037932731
0.007338908 -0.079240926 -0.0030460069
-0.0068386691 -0.078907155 -0.00083233061
0.0079187145 -0.079116717 -0.00086387183
-0.0067354687 -0.078979447 0.001184202
0.0078911679 -0.079167001 0.00094423239
-0.0062952414 -0.078743637 0.0027570648
-0.0058285277 -0.078853324 0.00369407
0.007223309 -0.079054788 0.0031317389
-0.0049224151 -0.078900121 0.0049376958
-0.0039368086 -0.079593666 0.0058786906
0.0054914579 -0.078805134 0.0054855258
0.0064655105 -0.079114728 0.0044344403
-0.0029355043 -0.079142615 0.0064673009
-0.0010647214 -0.078872897 0.0071453317
0.0011111968 -0.079142198 0.007338841
0.0030667982 -0.079003982 0.0069051781
0.0042769257 -0.079167001 0.0063264086
-0.0040166993 -0.081547372 -0.0060026525
-0.0030203976 -0.081072241 -0.0066349246
-0.00094810763 -0.080962554 -0.0074106883
0.00087555312 -0.081026748 -0.0075389426
0.0030621567 -0.080940731 -0.0071263439
0.0044389721 -0.080998428 -0.0064883549
-0.0047844178 -0.080988578 -0.0052625076
0.0055521298 -0.08083535 -0.0055983057
0.0063617071 -0.081280604 -0.0047394671
-0.0063611357 -0.081083387 -0.0028034651
-0.00587535 -0.080808923 -0.0038495923
0.0073154378 -0.080954127 -0.0031105087
-0.0067665246 -0.080729306 -0.0012306568
0.0079111895 -0.081123389 -0.00089322182
-0.0067383358 -0.081125222 0.0011723201
0.0079302173 -0.081153117 0.00071500969
-0.0063202912 -0.080869704 0.0026890014
-0.0057817255 -0.080794074 0.0037689463
0.0073168566 -0.080863602 0.0029379486
-0.004668951 -0.081056274 0.005159393
-0.0039195544 -0.080881879 0.0058947899
0.0054884432 -0.080773473 0.0054657715
0.0062654894 -0.081062198 0.0046676407
-0.0030523338 -0.080574155 0.0064144344
-0.0009404695 -0.081059732 0.0071785306
0.00088504452 -0.080869623 0.0073490269
0.0028804401 -0.081013888 0.0069695474
0.004379272 -0.080914803 0.0062601785
-0.0029682857 -0.082999155 -0.0066495766
-0.0008432882 -0.082782075 -0.0074059386
0.0010120883 -0.082902066 -0.0075406935
0.003046304 -0.083138108 -0.0071308701
0.0046511143 -0.082897238 -0.0063488702
-0.0049625868 -0.083207361 -0.0050741336
0.0054515768 -0.083078623 -0.005692163
0.0064601749 -0.083000757 -0.0046236594
-0.006400153 -0.083140843 -0.0027448095
-0.0058923136 -0.082820214 -0.0038156733
0.0073343841 -0.083293289 -0.0030544009
-0.0067871553 -0.082685657 -0.0011003455
0.0079059508 -0.082935303 -0.0009028549
-0.0067915232 -0.083042666 0.00082587596
0.0079065859 -0.082970701 0.00087942561
-0.0062767891 -0.083202489 0.0028032518
-0.0057634101 -0.083015718 0.0037982431
0.0072660265 -0.083054334 0.0030637297
-0.0046568722 -0.083038218 0.0051841298
-0.0039222967 -0.083224103 0.0058922218
0.0053860289 -0.082922928 0.0055386121
0.0064713955 -0.083095707 0.0044228663
-0.0029028768 -0.082973145 0.0064815809
-0.001119345 -0.082932234 0.007130458
0.001102778 -0.082731165 0.0073379362
0.0031549947 -0.082715638 0.0068758591
0.0043534506 -0.083080307 0.0062768781
-0.0031325265 -0.084914491 -0.0065512806
-0.00091878395 -0.085088491 -0.0073918374
0.00098227267 -0.085135914 -0.0075553902
0.002876692 -0.084965825 -0.0072135115
0.0045061009 -0.084908724 -0.0064456491
-0.0049072513 -0.085169889 -0.0051420918
0.0055005061 -0.084996395 -0.0056465021
0.006415973 -0.084577985 -0.0046903803
-0.0063649104 -0.084953628 -0.0028280071
-0.0058841002 -0.084882297 -0.0038321058
0.0073202485 -0.084971771 -0.0031070192
-0.006812423 -0.084964059 -0.00089632359
0.0078796456 -0.085185423 -0.0011186301
-0.0067478875 -0.085003525 0.0011981312
0.0078973193 -0.084914446 0.0009121194
-0.006304774 -0.085054129 0.0027437916
-0.0058165747 -0.08506342 0.0037131719
0.0072189043 -0.08502613 0.0031563214
-0.0051293462 -0.084773295 0.0046748566
-0.0038796635 -0.085149698 0.0059320056
0.0055559268 -0.08517357 0.0054001296
0.0063118148 -0.084995002 0.0046152398
-0.0029427367 -0.085205406 0.0064645982
-0.00084421784 -0.084940046 0.0072015226
0.00099800574 -0.085003212 0.0073444252
0.0028263286 -0.085027277 0.0069892979
0.0042015589 -0.08522246 0.0063751535
-0.0040195193 -0.086600795 -0.0060006566
-0.0029889545 -0.086935997 -0.0066468082
-0.00096688617 -0.086925305 -0.0073964107
0.00097525079 -0.086833037 -0.0075517599
0.0030948955 -0.08688435 -0.0071267979
0.0046441169 -0.087266602 -0.0063521015
-0.0048537534 -0.086946458 -0.0051942542
0.0055195796 -0.08710891 -0.0056287078
0.0063815098 -0.087162085 -0.0047199558
-0.0063655307 -0.08684025 -0.0028286078
-0.0059440653 -0.086979426 -0.0037121838
0.0073474864 -0.087001383 -0.0030362809
-0.006778847 -0.086802527 -0.0012080333
0.0078934757 -0.08710622 -0.00098610367
-0.0067958911 -0.086976193 0.00094115018
0.0078900298 -0.086692162 0.0010115427
-0.0063531511 -0.086823285 0.0025994771
-0.0057911938 -0.087624483 0.0037537734
0.0072580101 -0.087110914 0.0030656282
-0.0048472881 -0.087117255 0.0049851495
-0.0039274171 -0.087288298 0.0058874278
0.0054603284 -0.087078705 0.0055042198
0.0063903034 -0.087082036 0.0045269751
-0.0030263006 -0.08699999 0.0064260145
-0.0011725957 -0.087017618 0.0071160663
0.0010873089 -0.087039791 0.0073393537
0.0033222432 -0.086897433 0.0068094027
0.0044496669 -0.087199517 0.0062146056
-0.0033024324 -0.089089684 -0.0064596501
-0.00073394802 -0.089031138 -0.007450609
0.0010597049 -0.089174777 -0.0075467755
0.0030230633 -0.08892893 -0.0071368203
0.0046194363 -0.08922486 -0.0063658711
-0.0050679189 -0.088755138 -0.0049389717
0.0056857173 -0.088989653 -0.0054736538
0.0064692162 -0.08876431 -0.0045998502
-0.0063972939 -0.088952601 -0.0027456153
-0.0058558667 -0.089602455 -0.0038885919
0.007345798 -0.088997744 -0.0030226314
-0.0068147471 -0.088893473 -0.00083397841
0.0078978576 -0.088732675 -0.00098745641
-0.0067403279 -0.089160435 0.0011818263
0.0078923171 -0.089181669 0.00093428843
-0.0062909382 -0.08911752 0.0027443732
-0.0056679454 -0.088082477 0.0039509689
0.0072191092 -0.089268528 0.0031521984
-0.0048715309 -0.088741779 0.0049596457
-0.0038511895 -0.089760616 0.0059585646
0.0052856524 -0.088796534 0.0056189732
0.0063335439 -0.08912275 0.0045943223
-0.0030340566 -0.088873275 0.0064231507
-0.00081560202 -0.08896251 0.007209688
0.00098354323 -0.088843197 0.0073455018
0.0031257842 -0.089045092 0.0068857553
0.0044472823 -0.088856108 0.0062161428
-0.0031656912 -0.091072388 -0.0065315221
-0.00087263552 -0.091122113 -0.0074227969
0.0011096778 -0.090901092 -0.0075300918
0.0033167044 -0.091088377 -0.0070435582
0.0046835956 -0.090648904 -0.0063459752
-0.0052028568 -0.09095446 -0.0048001455
0.0055076862 -0.090821944 -0.0056398232
0.0065637333 -0.090956189 -0.0044772611
-0.0063558659 -0.090964906 -0.0028281214
-0.0058923429 -0.09181802 -0.0038156479
0.0073234411 -0.090924233 -0.0030892165
-0.0068032988 -0.09111128 -0.00095732487
0.0078608915 -0.091307841 -0.0012417582
-0.006786807 -0.090967998 0.00085201359
0.0078901751 -0.091225125 0.00093616504
-0.0063062743 -0.090843119 0.0027185651
-0.0058543896 -0.090984359 0.003652649
0.0072616688 -0.091028273 0.0030372743
-0.0048591937 -0.091057912 0.0049687363
-0.0038758025 -0.090940826 0.0059355884
0.0055016582 -0.091099173 0.0054366272
0.00645361 -0.090798169 0.0044570607
-0.0030925598 -0.09124168 0.0063934983
-0.0008843611 -0.091090955 0.0071929712
0.0010823404 -0.090965867 0.0073405546
0.0028912893 -0.09128774 0.0069686798
0.0044090636 -0.091105551 0.0062408643
-0.0031409708 -0.092954293 -0.0065607149
-0.0010311129 -0.092983685 -0.0073691937
0.0010710931 -0.093046993 -0.0075427303
0.00296226 -0.093205817 -0.0071732877
0.0045578359 -0.092991143 -0.0064050606
-0.0048646526 -0.092935339 -0.0051609497
0.0055821291 -0.093461625 -0.0055703511
0.0064441697 -0.092855237 -0.0046500266
-0.0063961903 -0.092933714 -0.0027081328
-0.0058526774 -0.09315066 -0.0038949815
0.007405146 -0.093302757 -0.0028954665
-0.0068096211 -0.093125038 -0.00099798851
0.0078658378 -0.093009241 -0.0013691324
-0.00678804 -0.092939973 0.001065651
0.0078926962 -0.092822447 0.000947161
-0.0063073421 -0.092765272 0.0027185159
-0.0058577918 -0.092889339 0.0036471966
0.0072601438 -0.093022265 0.0030684811
-0.0047059115 -0.09301839 0.005122358
-0.0039847782 -0.092058726 0.0058338731
0.0054101082 -0.09319362 0.0055187792
0.0064688623 -0.093113929 0.0044313888
-0.0031509292 -0.092916451 0.006368476
-0.00068444316 -0.092942595 0.0072444952
0.00095931877 -0.092554517 0.0073457821
0.0030433855 -0.092798114 0.0069149397
0.0043361387 -0.092865877 0.0062880446
-0.0029136688 -0.095044076 -0.0066946796
-0.00077203399 -0.095095932 -0.0074283346
0.00093742879 -0.094918586 -0.0075618057
0.0030061258 -0.095021449 -0.0071534007
0.0047162524 -0.09485954 -0.0063196435
-0.0049420842 -0.095152579 -0.0050790715
0.0056212684 -0.094968148 -0.0055338265
0.0064394115 -0.094936475 -0.0046678255
-0.0064009824 -0.094892457 -0.0027251667
-0.0059364466 -0.095011055 -0.0037274498
0.0073972214 -0.094836771 -0.0028793062
-0.006794143 -0.094908535 -0.0011059277
0.0079185013 -0.095032722 -0.0008787805
-0.0067698173 -0.095187224 0.001030222
0.0079145655 -0.094864123 0.0008072115
-0.0062824171 -0.094970994 0.0027761597
-0.0058420943 -0.095008925 0.0036723055
0.007356002 -0.095124848 0.0028700999
-0.0050851889 -0.09516374 0.0047327597
-0.0039188103 -0.094774425 0.0058954335
0.0052342326 -0.094913356 0.0056662583
0.0063888654 -0.094876185 0.0045292578
-0.0029388724 -0.095172808 0.0064650099
-0.0010157269 -0.094976686 0.0071581141
0.001204494 -0.094966814 0.007331152
0.0031166866 -0.09487804 0.0068902564
0.0045210882 -0.095128998 0.0061683632
-0.0040056407 -0.097657956 -0.0060106097
-0.0030364327 -0.097062379 -0.0066160709
-0.0012771469 -0.096895471 -0.0073299394
0.0009772121 -0.097138695 -0.0075439056
0.0033603804 -0.096920893 -0.0070251753
0.0046353526 -0.097057305 -0.0063740048
-0.0049277782 -0.096818246 -0.0051197568
0.0055976622 -0.09719608 -0.0055558686
0.0064490954 -0.097425088 -0.0046445793
-0.0062690009 -0.097216606 -0.0030516488
-0.0058776047 -0.097000033 -0.0038451406
0.007323374 -0.096870787 -0.0031073056
-0.0068040467 -0.097088352 -0.0010334359
0.0078976471 -0.096875153 -0.0010779914
-0.0067807478 -0.097106285 0.00085018133
0.0078554023 -0.097375415 0.0011864922
-0.0063144765 -0.097153962 0.0027010024
-0.0058784191 -0.097182602 0.0036141777
0.0071978131 -0.09702456 0.0031763422
-0.0048642955 -0.096957073 0.0049731024
-0.0039052034 -0.097796701 0.0059081228
0.0055844174 -0.09689267 0.0053806901
0.0064388248 -0.097034901 0.0044809147
-0.0026566903 -0.096753746 0.0066001811
-0.0010206784 -0.097001508 0.0071561201
0.00095331186 -0.096826434 0.0073456522
0.0031047137 -0.097162224 0.0068896706
0.0044790646 -0.096895613 0.0061955485
-0.0028127446 -0.099088699 -0.0067360951
-0.0010702546 -0.099080667 -0.0073772427
0.001148823 -0.099131957 -0.0075459634
0.0031893302 -0.098846324 -0.0070999381
0.0045756437 -0.098997295 -0.0064024124
-0.0051715788 -0.09890122 -0.0048275464
0.0054222927 -0.09865468 -0.0057195514
0.006390247 -0.098916821 -0.00470598
-0.0064419927 -0.098924562 -0.0026318321
-0.0058874199 -0.098616511 -0.0038255169
0.0073777586 -0.098860815 -0.0029765931
-0.0068221167 -0.098906741 -0.0007951528
0.0079061417 -0.099178039 -0.00091318303
-0.0067412672 -0.098945931 0.0011605774
0.007862295 -0.099088766 0.0010782586
-0.0062660193 -0.099177197 0.0028003957
-0.005837258 -0.099078313 0.0036800294
0.0072198454 -0.098779477 0.0031477287
-0.0047947168 -0.098899908 0.0050576781
-0.0039067389 -0.099220522 0.0059066848
0.0055681681 -0.09912923 0.0053865565
0.0064590177 -0.098666176 0.0044442983
-0.0029083788 -0.099002413 0.0064818948
-0.00097091938 -0.099056415 0.0071691121
0.0010484159 -0.099191211 0.0073422212
0.0031932374 -0.099044718 0.0068572685
0.0044353167 -0.09911631 0.0062238486
-0.0030933747 -0.10121967 -0.0065688877
-0.00097256096 -0.10111497 -0.0073957741
0.00088829285 -0.10102617 -0.0075627998
0.0029944247 -0.10097471 -0.0071649179
0.0045575276 -0.10116136 -0.0064097508
-0.0049565565 -0.10091755 -0.0050694011
0.0055334475 -0.10087119 -0.0056158151
0.0064899158 -0.10096853 -0.0045592724
-0.0063201068 -0.10118146 -0.0029081693
-0.0058350428 -0.10105783 -0.00393028
0.0074109617 -0.10100304 -0.0028288586
-0.0067817601 -0.10101152 -0.0010574273
0.0078771757 -0.10089252 -0.0012022302
-0.006753074 -0.10090359 0.0011447397
0.0078700455 -0.10104874 0.00099696312
-0.0062527959 -0.10100367 0.0028387075
-0.0058188299 -0.10103706 0.0037095067
0.0071959877 -0.10088635 0.0031943237
-0.0049115345 -0.10106336 0.0048971972
-0.0039636591 -0.10157573 0.0058535505
0.0053864555 -0.10106272 0.0055562262
0.0064122481 -0.10100597 0.0045033004
-0.002996319 -0.10083275 0.0064390488
-0.00085463811 -0.10108034 0.0072010458
0.0010189359 -0.10116242 0.0073430873
0.00276511 -0.10100028 0.0070112655
0.0043499968 -0.10105659 0.0062790476
-0.0030924464 -0.10300071 -0.0065726545
-0.0010604663 -0.10307854 -0.0073751938
0.00086659502 -0.10301401 -0.0075518712
0.0031914979 -0.10323837 -0.0070648999
0.0045922366 -0.10317151 -0.0063896407
-0.0051412336 -0.10300417 -0.0048692971
0.0054716691 -0.10283919 -0.0056734812
0.0064513958 -0.10318263 -0.0046375194
-0.006420013 -0.10317281 -0.0026660576
-0.0059177843 -0.10292888 -0.003764804
0.0073230471 -0.10335463 -0.0030852717
-0.0068108309 -0.10300227 -0.0010364859
0.0079024592 -0.10285547 -0.00089994457
-0.0067811143 -0.10321527 0.00089256407
0.0078811375 -0.10310937 0.00099508429
-0.0062590577 -0.10340573 0.0028687569
-0.0058293301 -0.10296795 0.0036926994
0.0072985231 -0.10305925 0.0029724687
-0.0047478667 -0.1032178 0.0051115588
-0.0039622667 -0.10252009 0.0058548464
0.0053151981 -0.10308346 0.0056296038
0.0063487282 -0.10290822 0.00457787
-0.0028520713 -0.10308132 0.0065101432
-0.00090112834 -0.10275363 0.0071878787
0.0010178958 -0.10296801 0.0073431181
0.003075049 -0.10267584 0.0069036693
0.0043522217 -0.10316911 0.0062776017
-0.0029988359 -0.10518564 -0.0066239326
-0.00089026778 -0.10514312 -0.0074139182
0.00088000915 -0.10502539 -0.0075497432
0.0028247631 -0.10505637 -0.0072102994
0.0045318669 -0.10472578 -0.0064277188
-0.0049586198 -0.10496934 -0.0050724261
0.0056237532 -0.10504624 -0.0055315448
0.0064678513 -0.10535786 -0.0046080253
-0.0063932585 -0.10511927 -0.0027244375
-0.0059147882 -0.10503142 -0.0037708045
0.0073454203 -0.10506449 -0.0030189408
-0.006806253 -0.10496729 -0.0010078388
0.0078800851 -0.10484093 -0.0010286819
-0.0067872759 -0.10502536 0.00083933963
0.0079090465 -0.10466965 0.00082459656
-0.0063078934 -0.10482576 0.0026862838
-0.0058280625 -0.10519966 0.0036947192
0.0072261612 -0.10505244 0.0031292888
-0.0048710918 -0.10486715 0.0049574892
-0.0038223078 -0.10536012 0.0059854644
0.005515208 -0.10508996 0.0054386077
0.0063998392 -0.10529073 0.004520034
-0.0030354678 -0.10534817 0.006419519
-0.00095800863 -0.10491706 0.0071733999
0.0010065074 -0.10484883 0.0073442538
0.0030380995 -0.10527305 0.0069117937
0.0043656314 -0.10508246 0.0062689171
-0.0033508088 -0.10679328 -0.0064331363
-0.00065837364 -0.10668136 -0.0074608801
0.0011440791 -0.10685331 -0.0075483075
0.0031791041 -0.1069805 -0.0070919232
0.004786124 -0.10703832 -0.0062646982
-0.0048738057 -0.10675251 -0.0051605795
0.0056350878 -0.10687821 -0.0055209715
0.0065297699 -0.10714425 -0.0045221578
-0.0063739847 -0.1067142 -0.0027701738
-0.0059128627 -0.10680035 -0.0037746616
0.007270419 -0.10715982 -0.0032087725
-0.0068097669 -0.10705945 -0.0010456516
0.0079095196 -0.10694788 -0.00084088842
-0.0067265006 -0.10713216 0.0012503645
0.0078545511 -0.10680142 0.0011057613
-0.0063751726 -0.10704885 0.0025448997
-0.005762259 -0.10753784 0.0037999961
0.0073363278 -0.10708664 0.0028865915
-0.0048736483 -0.10685483 0.0049353121
-0.0039190017 -0.10712344 0.0058952109
0.0054749716 -0.10723891 0.0054614139
0.0064020748 -0.10658822 0.004514263
-0.002918262 -0.10695706 0.0064758244
-0.00097685959 -0.10718771 0.007168327
0.0011707308 -0.10710859 0.0073360759
0.0029492599 -0.10693742 0.0069451742
0.0043573142 -0.10708563 0.0062742913
0.0076967366 -0.10999995 -0.014537666
0.0094928052 -0.10999995 -0.014703222
0.0054831216 -0.10999996 -0.012652212
0.0070380112 -0.10999996 -0.012866702
0.0088986065 -0.10999996 -0.013080768
0.003032208 -0.10999997 -0.010808018
0.0052235154 -0.10999997 -0.010890103
0.0070499489 -0.10999997 -0.011180067
0.0088814376 -0.10999997 -0.011086566
-0.00039653291 -0.10999997 -0.0081724804
0.0012774097 -0.10999998 -0.0088624135
0.0029842814 -0.10999998 -0.008910181
0.0050212424 -0.10999998 -0.0089582624
0.0070130574 -0.10999998 -0.0089633912
0.0087331086 -0.10999998 -0.0089846328
-0.0029569946 -0.10911535 -0.0066666519
-0.00082245242 -0.10898745 -0.0074188621
0.00092921261 -0.10935556 -0.0076128501
0.003232653 -0.10902335 -0.0072311051
0.0046731234 -0.10953414 -0.0067507816
0.0070575941 -0.10999997 -0.0068885908
0.0086374283 -0.10999998 -0.0069921459
-0.0049989736 -0.10891122 -0.0050310614
0.0056340145 -0.10919703 -0.0056271143
0.0067786174 -0.10951205 -0.0049452963
0.0087593338 -0.10999999 -0.0048885192
-0.0064140814 -0.10901282 -0.0026572691
-0.0059072422 -0.10925659 -0.0037859103
0.0074704033 -0.10933714 -0.003198321
0.0089103384 -0.11 -0.0029061709
-0.0068044518 -0.1090484 -0.00097153633
0.0078861369 -0.10908657 -0.0011064215
0.0085925069 -0.11 -0.00105979
-0.0067593008 -0.10871485 0.0010657542
0.0078585166 -0.10913265 0.0011457409
0.0088553969 -0.11000001 0.00085690169
-0.0063265073 -0.10892873 0.002678215
-0.0058420072 -0.10930777 0.0036723937
0.0073778317 -0.10913751 0.0031824296
0.0087464591 -0.11000001 0.0023928941
-0.0048621991 -0.10886469 0.0049790624
-0.0038613426 -0.10910872 0.0059490185
0.0054549682 -0.10915418 0.0055434462
0.0070755887 -0.10979121 0.0049134232
0.008626001 -0.11000003 0.0051901988
-0.0029211286 -0.10907247 0.0064762197
-0.00079486187 -0.10933469 0.0073322174
0.0010227913 -0.10927284 0.0074052224
0.0030496246 -0.1092671 0.007029064
0.0049221078 -0.10962079 0.0068049212
0.0071062357 -0.11 0.0070804702
0.0087967562 -0.11000003 0.0068833535
-0.00042534724 -0.11000003 0.0083489306
0.00082793197 -0.11000004 0.0085991854
0.0029539752 -0.11000004 0.0090699587
0.0050099068 -0.11000004 0.009143143
0.007185563 -0.11000004 0.0088454355
0.0085352575 -0.11000004 0.0091862464
0.0032946204 -0.11000004 0.01071782
0.0049919309 -0.11000004 0.011052764
0.0072145769 -0.11000004 0.010925542
0.0086733885 -0.11000004 0.010952537
0.0052889972 -0.11000005 0.012327186
0.0071101226 -0.11000005 0.013294737
0.0085928142 -0.11000005 0.013252852
0.0090126703 -0.11000006 0.014523366
0.0070818518 -0.11092403 -0.014403877
0.0090958616 -0.11094126 -0.014809625
0.0039368207 -0.11121325 -0.01201799
0.0049778968 -0.1110052 -0.012807772
0.006470657 -0.1105672 -0.013940209
0.0094999988 -0.11102006 -0.012918819
0.0016482336 -0.11084611 -0.01028182
0.0029663353 -0.11074855 -0.011281759
0.0094999988 -0.11104953 -0.010908653
-0.00060578407 -0.11093743 -0.0085718753
0.0005845378 -0.11080524 -0.0094748791
0.0021984582 -0.10999998 -0.0082697067
0.0094999978 -0.11102925 -0.0089977728
-0.0030591278 -0.11084884 -0.0067121796
-0.0015161145 -0.11139844 -0.0078812819
0.005324624 -0.10999998 -0.0067997728
0.0094999978 -0.11088866 -0.0071386215
-0.0050327736 -0.11099085 -0.0049808924
0.0094999997 -0.11110693 -0.005001267
-0.006358617 -0.11092062 -0.0027826405
-0.0059193387 -0.11156073 -0.0037617264
0.0093852719 -0.11074919 -0.0031278078
-0.0067843446 -0.11106113 -0.001147652
0.0094999988 -0.11127299 -0.0011989517
-0.0067531955 -0.11127852 0.0011812804
0.0094650965 -0.11114332 0.0009814084
-0.0063094962 -0.1112152 0.0027084136
-0.0058105318 -0.11112542 0.0037227476
0.0094500389 -0.11099069 0.0028655375
-0.0049286974 -0.11121217 0.0048962706
-0.0039196443 -0.11136969 0.0058945962
0.0072963638 -0.11000003 0.0051468895
0.0094999988 -0.11105099 0.0050093518
-0.0029107938 -0.11102486 0.0065554725
-0.0014590127 -0.11105628 0.007610084
0.0057888301 -0.11000003 0.0065300767
0.0094999988 -0.11090386 0.0067676841
-0.00043957101 -0.11107887 0.0083957072
0.00091332186 -0.11105527 0.0094383033
0.0094999988 -0.11093503 0.0090112546
0.00181928 -0.11082676 0.010136476
0.0028883754 -0.11120649 0.010960364
0.0041024704 -0.11035211 0.011895999
0.0094999988 -0.11068883 0.010927219
0.0049556918 -0.11088908 0.012553525
0.0065489956 -0.1112242 0.013781393
0.0094769169 -0.11094475 0.012937147
0.0072914422 -0.11098656 0.014345574
0.0088851303 -0.11105078 0.014829377
0.0075991778 -0.11285993 -0.014796337
0.0091007473 -0.1129774 -0.014893728
0.0051471195 -0.11310086 -0.012936156
0.0061294287 -0.11304715 -0.013681354
0.0094999997 -0.11311348 -0.012908484
0.0016159902 -0.11308398 -0.010257367
0.0028034493 -0.11280996 -0.011158197
0.0094999988 -0.11313913 -0.011114595
-0.00067785004 -0.11336336 -0.008517215
0.00057309348 -0.11278971 -0.0094662039
0.0094999988 -0.11283656 -0.0088838004
-0.0031242275 -0.11289833 -0.0066631995
-0.0016549939 -0.11267561 -0.0077759298
0.0094999997 -0.11286799 -0.0070452769
-0.0049292604 -0.11294247 -0.0051158159
0.0094999988 -0.11284337 -0.0049325777
-0.0063408054 -0.11295965 -0.0028629145
-0.0059282887 -0.11245564 -0.0037438297
0.0094999988 -0.11316153 -0.0029507368
-0.0067959288 -0.11307687 -0.0010174719
0.0094999978 -0.11287345 -0.0011367098
-0.0067653134 -0.11306867 0.0010699036
0.0094999988 -0.11306595 0.0010853328
-0.0063073831 -0.11293061 0.0027198037
-0.0057887789 -0.11261912 0.0037575464
0.0094999988 -0.11277304 0.003115722
-0.0048172846 -0.11301047 0.0050116833
-0.0039636753 -0.11353395 0.0058534914
0.0094999988 -0.11319275 0.0050232154
-0.0029489966 -0.11292987 0.0065337238
-0.0015941052 -0.11308079 0.0075059687
0.0094999978 -0.11301804 0.0069382419
-0.0005256327 -0.11334651 0.0083293775
0.0007551529 -0.11308835 0.0093164044
0.0094999988 -0.1130275 0.0088285664
0.0018105276 -0.11290763 0.010129723
0.0033804872 -0.11304454 0.011339599
0.0040585301 -0.11253033 0.01186213
0.0094999997 -0.11295674 0.011100139
0.0050800424 -0.11316509 0.012649348
0.0063995617 -0.11297539 0.013666226
0.0094999978 -0.11306327 0.012922885
0.0074274754 -0.11282409 0.014458379
0.0091172894 -0.1131669 0.014710472
0.0075192098 -0.11514017 -0.014735679
0.0091033755 -0.11497644 -0.014796006
0.0048881243 -0.11481453 -0.012739681
0.0063584549 -0.11517579 -0.013855108
0.0094999997 -0.11510032 -0.013067867
0.0016450805 -0.11501081 -0.010279443
0.0029808551 -0.11511503 -0.011292788
0.0094999988 -0.11492879 -0.010905184
-0.00081589317 -0.11483613 -0.0084124962
0.00076884998 -0.11518759 -0.0096147172
0.0094999997 -0.11502837 -0.0089542996
-0.0040032226 -0.11482435 -0.0060123997
-0.0027587868 -0.11511247 -0.006938606
-0.0017275823 -0.11512182 -0.0077208714
0.0094999988 -0.11485362 -0.0067806207
-0.0050507719 -0.1149182 -0.0049784551
0.0094999988 -0.11509976 -0.0050637801
-0.0063526351 -0.11486711 -0.0028267123
-0.0059101661 -0.1150291 -0.003780084
0.0094999988 -0.11507671 -0.0029782059
-0.0067897253 -0.11537667 -0.0010676715
0.0094999988 -0.11515131 -0.00074074854
-0.0067775156 -0.11503472 0.00090230419
0.0094999997 -0.11496769 0.001228553
-0.0063064536 -0.11517179 0.0027283139
-0.00582508 -0.11540122 0.0036994542
0.0094999988 -0.11490848 0.0028937645
-0.0050752112 -0.1149556 0.004738376
-0.0039352095 -0.11470472 0.0058800559
0.0094999997 -0.11503313 0.0049412847
-0.0029626421 -0.115082 0.0065188361
-0.0013922325 -0.11470241 0.0076615335
0.0094999997 -0.11496744 0.0068562101
-0.00051268877 -0.11473586 0.0083393482
0.00074634852 -0.11508016 0.0093096131
0.0094999988 -0.11499339 0.0090242047
0.0016815532 -0.1148425 0.010030322
0.002960775 -0.1151134 0.011016145
0.0040478185 -0.11484604 0.011853866
0.0094999988 -0.11502421 0.010854112
0.0051528877 -0.11510857 0.012705476
0.0064998851 -0.11515398 0.01374353
0.0094999988 -0.1150855 0.013128038
0.0074446937 -0.11501008 0.014471641
0.009066835 -0.11498792 0.014710183
0.007235812 -0.11690244 -0.014520695
0.0090410281 -0.11695338 -0.01491865
0.003939745 -0.11775468 -0.012020233
0.0050157462 -0.11693071 -0.012836508
0.0062702261 -0.11705015 -0.013788181
0.0094999978 -0.11708459 -0.012862535
0.0016698475 -0.1168885 -0.010298239
0.0028596395 -0.11683375 -0.01120084
0.0094999988 -0.11699037 -0.010936665
-0.00072154886 -0.11698929 -0.0084840767
0.0005736996 -0.11710756 -0.0094666788
0.0094999997 -0.11712391 -0.0089393156
-0.004007719 -0.11663673 -0.0060091945
-0.0028673899 -0.1169182 -0.0068577086
-0.00174211 -0.1173124 -0.0077098589
0.0094999988 -0.11716314 -0.0071152342
-0.0050243479 -0.11721534 -0.0050020488
0.0094999988 -0.11709902 -0.0052773557
-0.0064103059 -0.11724355 -0.0026832053
-0.0058887657 -0.1172784 -0.0038228922
0.0094999997 -0.1172323 -0.0030731934
-0.0068024439 -0.11700229 -0.0011034877
0.0095000006 -0.11715999 -0.00078303553
-0.0067856638 -0.11691796 0.00088927412
0.0094999988 -0.11715319 0.0008708603
-0.006302854 -0.11699481 0.0027054287
-0.0057446826 -0.11691651 0.0038280855
0.0094999978 -0.11702265 0.0030216915
-0.0048970217 -0.11701752 0.0049344599
-0.003898222 -0.1171109 0.0059145689
0.0094999988 -0.11694662 0.0049869893
-0.0027811914 -0.11722385 0.0066359998
-0.0015167344 -0.11699101 0.0075655784
0.0094999988 -0.11709742 0.0069959448
-0.00048498646 -0.11702067 0.0083606876
0.00079457619 -0.1168757 0.0093467729
0.0094999997 -0.11669326 0.0090002157
0.0016968928 -0.11689062 0.010042137
0.0031634516 -0.11670557 0.011172328
0.0041772942 -0.11704662 0.011953638
0.0094999997 -0.11702736 0.010899004
0.005145127 -0.11712822 0.012699491
0.0063673444 -0.11703108 0.013641383
0.0094999988 -0.1167933 0.012868106
0.0075160256 -0.11693822 0.014526605
0.0089380154 -0.11681733 0.014754878
0.0071733915 -0.11895123 -0.014473349
0.0089652697 -0.11900524 -0.014965306
0.0052679786 -0.11917946 -0.013027866
0.0063510421 -0.11954765 -0.0138495
0.0094999988 -0.11904283 -0.013132072
0.0015839095 -0.11917311 -0.010233053
0.0028817155 -0.11893221 -0.011217592
0.0094999988 -0.11902975 -0.010970653
-0.00062872702 -0.11893676 -0.0085544996
0.0008244476 -0.11884049 -0.009656908
0.0094999978 -0.11898082 -0.0089840684
-0.0029079206 -0.11922346 -0.0068255211
-0.0017266895 -0.11887839 -0.0077215624
0.0094999988 -0.11875369 -0.0073113958
-0.004945084 -0.11887254 -0.0050729034
0.0094999997 -0.11897594 -0.005221785
-0.0062822034 -0.11876699 -0.0030055589
-0.005859795 -0.11877806 -0.0038808393
0.0094999988 -0.11910405 -0.002674496
-0.0067998902 -0.11895565 -0.00093806622
0.0094999988 -0.11918871 -0.0010629639
-0.0067328908 -0.11875339 0.0011780073
0.0094999988 -0.1193627 0.0011708927
-0.0062928111 -0.11890722 0.0027499662
-0.0057362812 -0.11834511 0.0038415215
0.0094999988 -0.11922932 0.002921456
-0.0049500824 -0.1188375 0.004856573
-0.0039153318 -0.11986199 0.0058985897
0.0094999978 -0.11912969 0.0051068435
-0.0029863762 -0.1190309 0.0065094377
-0.0013955022 -0.11942171 0.007658998
0.0094999988 -0.11883333 0.0069839233
-0.00051766617 -0.11900762 0.0083354954
0.00088310783 -0.11906974 0.0094149923
0.0094999997 -0.11911542 0.0089283837
0.0018185563 -0.11930892 0.010135886
0.0029012705 -0.11895911 0.010970273
0.0041750558 -0.11914243 0.011951906
0.0094999978 -0.11897921 0.011135225
0.0050321985 -0.1189947 0.012612455
0.0064143483 -0.11883949 0.013677601
0.0094999988 -0.11894753 0.012894588
0.0073755048 -0.1187845 0.014418306
0.0088307289 -0.11900941 0.014773762
0.0071485005 -0.12101334 -0.014454473
0.0089244591 -0.12100572 -0.014916518
0.0039901491 -0.12062436 -0.012058481
0.0052006925 -0.12082165 -0.012976826
0.0063230298 -0.12101053 -0.013828253
0.0094999988 -0.1210421 -0.01301333
0.0016221375 -0.12121844 -0.010262061
0.0029080543 -0.12096457 -0.011237581
0.0094999997 -0.12068223 -0.010743859
-0.00043492118 -0.12119842 -0.008701534
0.00059440004 -0.12107449 -0.0094823986
0.0094999988 -0.12130339 -0.0090785539
-0.0033380142 -0.12080127 -0.0065023759
-0.0017018667 -0.12109491 -0.0077404017
0.0094999978 -0.12099171 -0.0068975277
-0.0049497476 -0.12109701 -0.0050941007
0.0094999988 -0.12095583 -0.0047327303
-0.0063930876 -0.1208538 -0.0027328064
-0.0058923736 -0.12059051 -0.0038156896
0.0094999988 -0.12112957 -0.0030837443
-0.0067981253 -0.12141876 -0.0009738339
0.0094999997 -0.12099189 -0.0012470952
-0.0067443196 -0.12078255 0.0011858993
0.0094999978 -0.12098982 0.00097472005
-0.006344601 -0.1211262 0.0026015465
-0.0058546294 -0.12128778 0.0036521538
0.0094999988 -0.12115702 0.0028757879
