ply
format ascii 1.0
element vertex 1186
property float x
property float y
property float z
property uchar diffuse_red
property uchar diffuse_green
property uchar diffuse_blue
end_header
0.080553 -0.187296 -0.0282934 18 74 72
0.0800215 -0.186476 -0.0290426 14 70 71
0.0799495 -0.185364 -0.0295233 9 72 71
0.0796477 -0.184398 -0.0301383 10 72 75
0.0800352 -0.182983 -0.0303548 18 79 79
0.0804251 -0.181558 -0.0305728 23 91 89
0.0808177 -0.180124 -0.0307922 36 108 107
0.0812128 -0.178681 -0.0310132 47 122 126
0.0818461 -0.177069 -0.0311015 50 128 130
0.0820109 -0.175765 -0.0314597 39 116 124
0.0821764 -0.174455 -0.0318195 32 108 119
0.0825808 -0.172974 -0.0320468 38 117 123
0.0827484 -0.17165 -0.0324101 49 127 132
0.0829168 -0.17032 -0.0327751 53 121 118
0.0838104 -0.168472 -0.0327382 52 85 89
0.0842257 -0.166951 -0.0329719 44 49 61
0.0843993 -0.165595 -0.0333424 41 35 33
0.0845736 -0.164233 -0.0337147 40 42 32
0.0836035 -0.198455 -0.0199641 34 92 89
0.0830689 -0.197624 -0.0207218 32 105 111
0.0820725 -0.197062 -0.0217617 38 116 124
0.0817722 -0.1961 -0.0223735 51 129 133
0.0817025 -0.195003 -0.022845 47 102 112
0.0816326 -0.193903 -0.0233175 39 103 110
0.0827247 -0.192103 -0.0230881 30 99 103
0.0824217 -0.191133 -0.0237055 25 91 95
0.082352 -0.190021 -0.0241827 20 84 87
0.0820487 -0.18905 -0.0248008 26 80 83
0.0815126 -0.188223 -0.0255578 29 78 76
0.0807465 -0.187544 -0.0264507 17 76 72
0.080444 -0.186575 -0.0270669 12 71 71
0.0801416 -0.185607 -0.0276832 11 71 71
0.0800694 -0.18449 -0.028164 11 73 72
0.080228 -0.183221 -0.0285105 10 73 75
0.0801556 -0.182098 -0.0289938 13 78 77
0.0800831 -0.180973 -0.0294783 14 80 78
0.0802424 -0.17969 -0.0298293 21 89 87
0.0806355 -0.178245 -0.0300471 34 103 107
0.0810313 -0.17679 -0.0302664 46 121 127
0.0809589 -0.175647 -0.0307572 49 131 135
0.0811217 -0.174339 -0.0311148 43 126 131
0.0812851 -0.173026 -0.0314739 37 117 119
0.0814492 -0.171707 -0.0318348 34 113 122
0.0816141 -0.170381 -0.0321972 44 124 128
0.0820183 -0.16888 -0.032427 54 124 128
0.0829068 -0.167023 -0.0323882 52 99 107
0.083319 -0.165497 -0.0326208 48 71 64
0.0834904 -0.164138 -0.0329906 37 46 51
0.0836626 -0.162772 -0.0333621 39 35 27
0.0830346 -0.198027 -0.0190101 32 98 99
0.0818062 -0.197596 -0.0202001 32 107 113
0.0812758 -0.196769 -0.0209543 45 118 126
0.0809758 -0.195808 -0.0215655 50 122 133
0.0809053 -0.194712 -0.0220356 48 102 111
0.0810647 -0.193475 -0.0223657 37 102 107
0.082153 -0.191672 -0.0221301 23 91 95
0.082083 -0.19056 -0.0226056 23 84 86
0.0820128 -0.189446 -0.0230821 24 79 80
0.081709 -0.188473 -0.0237009 31 72 72
0.0811727 -0.187646 -0.02446 33 55 55
0.0808693 -0.186675 -0.0250781 22 59 58
0.0805658 -0.185704 -0.0256964 15 67 69
0.0802623 -0.184732 -0.0263147 13 73 70
0.0804217 -0.183461 -0.0266578 13 74 71
0.0801175 -0.182487 -0.0272776 12 75 75
0.0798133 -0.181513 -0.0278974 11 79 75
0.0799719 -0.180231 -0.0282449 13 78 76
0.0803642 -0.178788 -0.0284574 16 81 79
0.0802913 -0.177651 -0.0289446 20 86 87
0.080452 -0.176352 -0.0292969 28 97 103
0.0803789 -0.175209 -0.0297868 39 115 120
0.0803056 -0.174063 -0.0302777 48 130 134
0.0802322 -0.172914 -0.0307698 49 135 138
0.0803936 -0.171597 -0.0311283 44 123 129
0.0805556 -0.170274 -0.0314884 34 112 119
0.0807185 -0.168945 -0.0318501 36 116 123
0.0811196 -0.167439 -0.0320788 47 123 129
0.0820029 -0.165574 -0.0320381 52 117 115
0.082412 -0.164043 -0.0322696 48 84 89
0.0828238 -0.162501 -0.0325026 36 48 56
0.0827513 -0.161311 -0.0330094 42 36 30
0.0829221 -0.159936 -0.0333819 47 41 28
0.0824656 -0.197598 -0.0180559 32 102 105
0.0810098 -0.197303 -0.0193942 35 109 113
0.0804808 -0.196476 -0.0201485 56 119 123
0.0801811 -0.195517 -0.020759 47 113 124
0.0801097 -0.194421 -0.0212277 38 100 104
0.0802672 -0.193185 -0.0215558 28 95 97
0.081349 -0.191382 -0.0213151 21 86 88
0.0817434 -0.189986 -0.021503 27 79 81
0.0814396 -0.189013 -0.0221218 30 70 69
0.0813686 -0.187896 -0.0225984 34 51 49
0.0810644 -0.186922 -0.0232179 36 34 35
0.0807603 -0.185949 -0.0238375 30 40 38
0.0804561 -0.184975 -0.0244572 23 50 49
0.0803838 -0.183851 -0.0249371 20 64 62
0.080777 -0.182422 -0.0251383 21 72 68
0.0804714 -0.181443 -0.0257608 18 76 74
0.0801658 -0.180465 -0.0263833 14 78 75
0.0800928 -0.179331 -0.0268676 15 78 76
0.0800195 -0.178195 -0.0273531 17 80 78
0.0801797 -0.176897 -0.0277018 19 80 79
0.0801062 -0.175754 -0.0281898 20 82 85
0.0800326 -0.174609 -0.028679 24 91 95
0.0797249 -0.173624 -0.0293059 35 106 110
0.0796507 -0.172474 -0.029797 44 123 128
0.0795764 -0.171322 -0.0302892 52 136 140
0.0795019 -0.170168 -0.0307825 47 131 134
0.0796619 -0.168841 -0.0311419 40 118 122
0.0798226 -0.167509 -0.0315029 34 108 122
0.0802207 -0.165998 -0.0317305 43 120 125
0.0810989 -0.164125 -0.0316879 51 119 123
0.0815048 -0.162588 -0.0319183 45 95 103
0.0819135 -0.161041 -0.0321502 47 68 62
0.0820822 -0.159667 -0.0325203 42 42 51
0.0820085 -0.158471 -0.0330284 42 39 33
0.080215 -0.19701 -0.0185898 36 105 106
0.0796874 -0.196185 -0.0193442 54 111 112
0.0793879 -0.195226 -0.0199541 40 107 114
0.0793157 -0.194131 -0.0204215 29 99 99
0.0792433 -0.193034 -0.0208899 23 89 90
0.0807777 -0.190951 -0.0203578 27 82 85
0.0811702 -0.189553 -0.0205425 33 70 71
0.0810989 -0.188436 -0.0210174 36 52 48
0.0807947 -0.187463 -0.0216369 35 39 33
0.0805784 -0.184093 -0.0230702 33 41 38
0.0805059 -0.182965 -0.0235502 28 46 44
0.081606 -0.181065 -0.0233194 28 56 51
0.0812983 -0.18008 -0.0239461 18 74 68
0.0809906 -0.179095 -0.0245728 13 78 73
0.0806828 -0.17811 -0.0251996 15 79 77
0.0803751 -0.177125 -0.0258264 17 79 79
0.0800674 -0.17614 -0.0264532 19 80 81
0.0797596 -0.175155 -0.0270801 17 80 82
0.0794518 -0.17417 -0.027707 18 82 82
0.0793773 -0.173021 -0.0281963 22 87 89
0.0790691 -0.172035 -0.028824 28 97 102
0.0789941 -0.170882 -0.0293151 40 116 120
0.0789189 -0.169727 -0.0298074 48 131 136
0.0786099 -0.168738 -0.0304366 51 134 136
0.0787679 -0.167408 -0.0307953 42 118 128
0.0789266 -0.166073 -0.0311557 32 110 117
0.0790859 -0.164731 -0.0315177 36 113 123
0.0799566 -0.162853 -0.0314741 46 119 125
0.0805974 -0.161133 -0.0315669 53 113 111
0.0810029 -0.159581 -0.0317977 46 78 91
0.0811695 -0.158203 -0.0321671 41 55 56
0.0808533 -0.157191 -0.032811 39 39 36
0.0810198 -0.155804 -0.0331837 41 38 31
0.0794218 -0.196717 -0.0177871 31 91 88
0.0786692 -0.196028 -0.0186858 44 101 100
0.0785964 -0.194936 -0.0191508 39 110 112
0.0785233 -0.193842 -0.0196168 29 98 101
0.0784501 -0.192745 -0.0200839 28 88 89
0.0802064 -0.190521 -0.0194002 35 76 77
0.0805969 -0.189121 -0.0195818 34 53 53
0.0805248 -0.188003 -0.0200557 37 37 31
0.0815688 -0.181457 -0.0215755 35 34 30
0.0819703 -0.180004 -0.0217677 32 39 33
0.0818984 -0.178857 -0.0222522 26 54 47
0.0813521 -0.178025 -0.0230267 20 68 59
0.081043 -0.177036 -0.0236563 18 74 72
0.0804981 -0.176207 -0.0244285 17 79 78
0.0801893 -0.175218 -0.0250574 19 81 81
0.0798804 -0.17423 -0.0256864 16 81 81
0.0793375 -0.173405 -0.0264556 17 79 80
0.0790289 -0.172417 -0.027084 19 82 82
0.0787203 -0.171429 -0.0277124 20 85 87
0.0784117 -0.170442 -0.0283409 24 93 94
0.0783358 -0.169286 -0.0288321 32 105 110
0.0780268 -0.168297 -0.0294614 46 122 125
0.0781834 -0.166966 -0.0298179 48 131 136
0.0781069 -0.165802 -0.0303125 43 128 131
0.0780303 -0.164636 -0.0308083 36 114 121
0.0781875 -0.163291 -0.0311696 36 108 119
0.0790531 -0.161404 -0.0311241 44 117 122
0.0796897 -0.159678 -0.0312154 50 114 121
0.0800921 -0.158121 -0.0314451 48 97 99
0.0800163 -0.156925 -0.0319508 46 68 64
0.0799402 -0.155727 -0.0324578 36 40 49
0.0801046 -0.154337 -0.0328297 40 40 33
0.0784042 -0.196559 -0.0171319 27 65 63
0.0781053 -0.195603 -0.0177404 39 93 89
0.0778065 -0.194646 -0.0183491 49 114 114
0.0777325 -0.193553 -0.0188137 42 103 106
0.0776585 -0.192457 -0.0192794 37 87 87
0.0798652 -0.189947 -0.0182961 34 58 64
0.080255 -0.188544 -0.0184743 34 36 33
0.0818613 -0.179249 -0.0204971 36 32 28
0.0815515 -0.178257 -0.021128 36 37 33
0.0812416 -0.177265 -0.021759 35 51 40
0.0809318 -0.176274 -0.02239 27 56 54
0.0803858 -0.175444 -0.0231653 19 70 69
0.0800762 -0.174453 -0.0237957 17 79 76
0.0797666 -0.173462 -0.0244261 17 82 81
0.0792225 -0.172636 -0.0251984 18 80 82
0.0789132 -0.171646 -0.0258282 19 81 82
0.0786039 -0.170656 -0.0264581 17 81 86
0.0780616 -0.169834 -0.0272274 16 82 84
0.0777526 -0.168845 -0.0278567 21 85 87
0.0776758 -0.167686 -0.0283479 28 95 99
0.0773664 -0.166695 -0.028978 38 113 117
0.077289 -0.165533 -0.0294711 47 130 133
0.0772115 -0.164367 -0.0299655 47 131 134
0.0771338 -0.163199 -0.0304609 39 116 125
0.0775226 -0.161673 -0.0306851 34 110 116
0.0783853 -0.159774 -0.0306369 36 112 122
0.0787819 -0.158223 -0.0308639 46 117 121
0.0789426 -0.156846 -0.03123 51 108 107
0.0791042 -0.155463 -0.0315978 41 74 88
0.0787882 -0.154452 -0.0322412 43 55 53
0.0791892 -0.152869 -0.0324756 44 40 36
0.0775413 -0.195178 -0.0167949 40 73 69
0.0772424 -0.194221 -0.0174035 58 102 100
0.0771679 -0.193127 -0.0178672 54 95 99
0.0795963 -0.190486 -0.0167197 41 71 75
0.0799852 -0.189085 -0.0168927 34 38 42
0.0808935 -0.176663 -0.0206328 43 42 30
0.0803469 -0.175832 -0.0214109 41 39 34
0.0800369 -0.17484 -0.022042 32 51 46
0.079727 -0.173848 -0.0226731 20 63 60
0.079417 -0.172856 -0.0233043 17 75 76
0.079107 -0.171864 -0.0239354 19 80 79
0.0787969 -0.170872 -0.0245667 19 81 81
0.0782532 -0.170047 -0.0253398 13 81 84
0.0777107 -0.169225 -0.0261113 13 81 83
0.0774013 -0.168234 -0.0267412 19 81 81
0.0770918 -0.167244 -0.0273712 17 84 85
0.0767824 -0.166254 -0.0280013 23 92 92
0.0767043 -0.16509 -0.0284934 33 103 109
0.0766261 -0.163924 -0.0289866 44 120 127
0.0763158 -0.162931 -0.0296182 45 128 133
0.076469 -0.161584 -0.0299765 41 125 129
0.0766228 -0.16023 -0.0303365 34 110 120
0.0774804 -0.158324 -0.0302864 36 108 117
0.0778738 -0.156767 -0.0305122 43 115 120
0.0777955 -0.155573 -0.0310153 47 110 116
0.0781918 -0.154 -0.0312447 48 95 95
0.0778757 -0.152989 -0.0318881 48 66 68
0.0782735 -0.151401 -0.0321214 42 36 45
0.078195 -0.150192 -0.0326305 42 34 34
0.0796872 -0.174235 -0.020916 42 38 30
0.0793769 -0.173242 -0.0215479 31 42 38
0.0790665 -0.172248 -0.0221797 24 54 53
0.0787561 -0.171255 -0.0228116 22 69 67
0.0782117 -0.170429 -0.0235876 20 76 75
0.0779017 -0.169437 -0.0242189 13 81 79
0.0775915 -0.168444 -0.0248502 13 81 81
0.077049 -0.167622 -0.0256231 19 81 80
0.0767392 -0.166631 -0.0262539 16 83 81
0.0764293 -0.165639 -0.0268847 16 84 84
0.0761195 -0.164648 -0.0275155 21 85 89
0.0760405 -0.163481 -0.0280077 29 95 101
0.0757303 -0.162488 -0.0286393 36 110 117
0.0756507 -0.161317 -0.0291333 44 125 130
0.0758025 -0.159965 -0.029491 45 124 130
0.0759549 -0.158606 -0.0298504 38 113 122
0.0765752 -0.156872 -0.0299358 35 108 113
0.0769655 -0.15531 -0.0301605 35 110 117
0.0768861 -0.154115 -0.0306632 42 114 118
0.0772791 -0.152537 -0.0308915 48 104 105
0.0771998 -0.151333 -0.0313974 43 71 83
0.0775957 -0.149737 -0.0316294 42 54 53
0.0777549 -0.148328 -0.0320009 43 45 43
0.0774366 -0.147309 -0.032649 42 39 37
0.0787151 -0.171639 -0.0210525 34 39 29
0.0784042 -0.170645 -0.0216851 31 49 47
0.0780934 -0.16965 -0.0223178 30 58 57
0.0775492 -0.168825 -0.0230952 21 73 70
0.0772386 -0.167831 -0.0237273 16 78 76
0.0766959 -0.167009 -0.0245024 19 78 77
0.0763856 -0.166016 -0.0251339 18 80 79
0.0760754 -0.165024 -0.0257654 15 82 82
0.0757652 -0.164031 -0.0263969 15 82 83
0.0754549 -0.163038 -0.0270285 22 85 87
0.075375 -0.161868 -0.0275207 25 89 94
0.0750643 -0.160874 -0.0281531 33 102 108
0.0752147 -0.15952 -0.0285086 41 117 124
0.0751342 -0.158342 -0.0290043 44 125 130
0.0752852 -0.156977 -0.029363 42 120 124
0.0759032 -0.155234 -0.0294464 35 107 117
0.0762915 -0.153665 -0.0296698 33 105 112
0.0764466 -0.152276 -0.0300338 38 111 115
0.0763663 -0.151073 -0.0305382 46 107 110
0.0765221 -0.149673 -0.0309055 46 93 90
0.077154 -0.147873 -0.0309974 46 68 71
0.0768357 -0.146854 -0.0316454 41 52 53
0.0767551 -0.145635 -0.0321559 45 38 37
0.0778176 -0.170201 -0.0207035 40 36 31
0.0775067 -0.169207 -0.0213362 45 38 34
0.0771958 -0.168212 -0.0219689 32 52 52
0.0768849 -0.167217 -0.0226018 21 65 64
0.0765739 -0.166222 -0.0232346 20 72 72
0.076263 -0.165227 -0.0238675 18 76 75
0.075952 -0.164232 -0.0245004 16 80 79
0.075641 -0.163237 -0.0251334 16 82 81
0.0750993 -0.162418 -0.025908 23 84 83
0.0747886 -0.161424 -0.0265404 21 83 83
0.0747078 -0.160251 -0.0270326 23 86 89
0.0746269 -0.159075 -0.0275261 27 93 98
0.0745457 -0.157896 -0.0280207 35 107 112
0.0744644 -0.156715 -0.0285164 44 120 125
0.0748456 -0.155159 -0.0287354 46 119 127
0.0752294 -0.153592 -0.0289559 38 111 115
0.0753817 -0.152206 -0.0293175 31 104 109
0.0757695 -0.150621 -0.0295413 36 106 113
0.0754533 -0.149609 -0.0301848 42 111 115
0.0756069 -0.148206 -0.0305514 47 102 104
0.0762345 -0.146398 -0.0306417 42 80 83
0.0761532 -0.145179 -0.031151 40 54 52
0.0758344 -0.144158 -0.0317999 41 37 38
0.0757525 -0.142935 -0.0323113 44 41 35
0.0769199 -0.168763 -0.0203544 46 36 29
0.0768415 -0.167597 -0.0208399 41 33 36
0.076298 -0.166773 -0.0216199 30 46 45
0.075987 -0.165778 -0.0222528 26 55 56
0.075676 -0.164783 -0.0228858 20 68 66
0.0755962 -0.163612 -0.0233743 17 75 73
0.0752847 -0.162616 -0.0240081 19 80 76
0.0749733 -0.161619 -0.0246418 19 81 79
0.0746618 -0.160623 -0.0252756 19 82 81
0.0743504 -0.159626 -0.0259095 26 84 86
0.0742689 -0.158448 -0.0264022 17 84 84
0.0741872 -0.157267 -0.0268961 19 86 91
0.0741052 -0.156084 -0.0273912 29 97 103
0.0742542 -0.154711 -0.0277472 38 113 118
0.0744037 -0.153332 -0.0281048 45 121 124
0.0745539 -0.151946 -0.0284641 44 116 119
0.0747047 -0.150555 -0.0288251 34 104 113
0.0748563 -0.149157 -0.0291877 31 104 110
0.07454 -0.148145 -0.0298314 36 109 114
0.0749261 -0.14654 -0.0300578 44 106 109
0.0753148 -0.144923 -0.0302859 43 92 88
0.0752324 -0.143702 -0.0307949 42 59 65
0.0753866 -0.142273 -0.0311661 43 44 46
0.0753039 -0.141044 -0.031678 38 37 32
0.0759425 -0.166157 -0.0204904 39 36 31
0.0756312 -0.16516 -0.021124 41 35 32
0.0753197 -0.164164 -0.0217577 28 49 47
0.0752394 -0.162991 -0.0222456 21 63 59
0.0749276 -0.161994 -0.02288 20 72 70
0.0748467 -0.160817 -0.0233698 17 77 73
0.0745345 -0.159818 -0.0240051 17 80 78
0.0742223 -0.158819 -0.0246404 30 83 86
0.07391 -0.15782 -0.0252757 18 82 84
0.0738277 -0.156637 -0.0257689 15 80 84
0.073976 -0.155266 -0.0261212 17 83 86
0.0738935 -0.154076 -0.0266171 23 90 93
0.0738108 -0.152883 -0.0271142 34 105 109
0.0737279 -0.151687 -0.0276125 43 118 121
0.0738766 -0.150296 -0.0279712 46 117 121
0.0737935 -0.149094 -0.0284722 38 109 113
0.0739428 -0.147692 -0.0288341 30 102 108
0.0738595 -0.146482 -0.0293379 34 104 111
0.0740094 -0.14507 -0.0297032 42 110 113
0.0743949 -0.143448 -0.0299301 48 98 101
0.0747831 -0.141816 -0.0301586 45 75 78
0.0749365 -0.140379 -0.0305292 38 52 50
0.0748531 -0.139145 -0.0310416 39 42 35
0.0749626 -0.163544 -0.0206269 34 40 31
0.0748818 -0.162369 -0.0211141 33 49 38
0.0748007 -0.161191 -0.0216024 26 54 54
0.0744881 -0.160191 -0.0222384 20 66 63
0.0746379 -0.158828 -0.0225825 15 74 72
0.0743245 -0.157825 -0.02322 18 76 76
0.0742425 -0.156638 -0.0237125 18 78 80
0.0739287 -0.155635 -0.0243508 15 81 81
0.073615 -0.154631 -0.0249891 15 81 81
0.073532 -0.153439 -0.0254844 16 81 83
0.0734487 -0.152244 -0.0259808 18 85 90
0.0733652 -0.151046 -0.0264784 26 95 98
0.0732815 -0.149846 -0.0269771 38 109 113
0.0729662 -0.148837 -0.0276185 45 118 120
0.0731135 -0.147436 -0.0279781 43 114 117
0.0730292 -0.146227 -0.0284804 33 103 109
0.0729447 -0.145015 -0.0289839 30 100 106
0.0733256 -0.143397 -0.0292079 37 105 111
0.0737092 -0.141768 -0.0294334 45 105 107
0.0740953 -0.140128 -0.0296606 46 91 86
0.0742473 -0.138686 -0.0300305 44 61 63
0.0741628 -0.137448 -0.030543 41 43 41
0.0745232 -0.161745 -0.0199799 44 41 31
0.0746731 -0.160385 -0.0203189 37 33 31
0.0745914 -0.159201 -0.0208081 38 38 42
0.0745095 -0.158014 -0.0212984 25 58 57
0.0744274 -0.156825 -0.0217898 19 71 68
0.074113 -0.155819 -0.0224295 17 77 77
0.0737985 -0.154813 -0.0230693 14 80 80
0.073484 -0.153806 -0.023709 15 80 82
0.0734005 -0.152611 -0.024204 15 81 81
0.0730856 -0.151603 -0.0248446 13 81 83
0.0727707 -0.150596 -0.0254852 16 81 85
0.0726863 -0.149395 -0.0259829 23 87 92
0.0726017 -0.148191 -0.0264817 34 100 104
0.0725168 -0.146984 -0.0269817 42 114 117
0.0724318 -0.145774 -0.0274829 46 116 118
0.0723465 -0.144562 -0.0279852 41 107 109
0.0722611 -0.143347 -0.0284888 29 98 104
0.0724074 -0.141925 -0.0288526 31 100 107
0.0732559 -0.139877 -0.0287938 41 105 109
0.0736414 -0.138226 -0.0290193 47 98 102
0.0735562 -0.136988 -0.0295306 40 79 76
0.0737073 -0.135533 -0.0299017 31 50 46
0.0733852 -0.134502 -0.030557 32 34 29
0.0732994 -0.133255 -0.031072 36 34 27
0.0742307 -0.15857 -0.0196683 37 28 30
0.0741483 -0.157381 -0.0201578 32 35 31
0.074298 -0.156004 -0.0204994 25 54 49
0.0739828 -0.154995 -0.0211405 20 67 65
0.0736675 -0.153987 -0.0217817 17 75 74
0.0733522 -0.152978 -0.022423 20 78 75
0.0732684 -0.151779 -0.0229176 16 80 79
0.0729528 -0.150769 -0.0235597 13 81 80
0.0726371 -0.149759 -0.0242018 15 80 81
0.0723214 -0.148749 -0.0248439 16 80 81
0.0720056 -0.147739 -0.0254861 16 83 86
0.0719201 -0.146532 -0.025985 24 92 97
0.0718343 -0.145321 -0.0264851 37 104 109
0.0715178 -0.144309 -0.0271289 47 115 116
0.0714314 -0.143095 -0.0276309 45 110 114
0.0713448 -0.141878 -0.0281342 33 99 106
0.0719526 -0.14004 -0.0282136 24 95 103
0.0728004 -0.137976 -0.028151 33 100 108
0.0729494 -0.136527 -0.028518 42 103 107
0.0730991 -0.135071 -0.0288868 43 90 88
0.0730129 -0.133825 -0.0293998 38 58 62
0.0729265 -0.132576 -0.0299141 36 35 41
0.0728399 -0.131323 -0.0304297 40 32 26
0.0740181 -0.156562 -0.0188635 32 35 28
0.0739351 -0.155366 -0.0193539 36 39 28
0.0736195 -0.154357 -0.0199958 31 39 38
0.0733039 -0.153347 -0.0206378 21 57 58
0.0732199 -0.152146 -0.0211309 21 72 68
0.0731356 -0.150943 -0.0216252 19 77 74
0.0728192 -0.149931 -0.0222687 14 79 78
0.0725027 -0.148918 -0.0229123 14 80 82
0.0719555 -0.148102 -0.0237022 13 81 79
0.0716393 -0.147091 -0.0243452 12 81 78
0.0713232 -0.146079 -0.0249882 16 81 81
0.0712367 -0.144868 -0.0254872 20 86 89
0.0709201 -0.143856 -0.026131 30 96 101
0.070833 -0.142641 -0.0266319 41 108 114
0.0707457 -0.141423 -0.027134 44 112 118
0.0711193 -0.139791 -0.027352 38 105 109
0.0712635 -0.138356 -0.0277147 29 97 103
0.0718743 -0.136491 -0.0277928 27 98 104
0.0722556 -0.134824 -0.0280155 36 102 105
0.0724038 -0.133363 -0.0283836 44 94 97
0.0723167 -0.132113 -0.0288967 40 77 77
0.0727022 -0.130419 -0.029125 34 51 53
0.0726149 -0.129159 -0.0296415 38 28 39
0.0731711 -0.152515 -0.01934 35 41 29
0.0728547 -0.151503 -0.0199834 25 53 48
0.0725382 -0.15049 -0.020627 17 67 65
0.0724531 -0.149283 -0.0211213 14 76 76
0.0721362 -0.14827 -0.0217656 13 78 80
0.0715887 -0.147453 -0.0225578 14 79 79
0.0712722 -0.146441 -0.0232015 16 80 79
0.0709555 -0.145428 -0.0238453 19 79 78
0.070639 -0.144415 -0.0244891 17 79 81
0.0705515 -0.143201 -0.0249881 15 82 88
0.0702345 -0.142187 -0.0256327 24 90 97
0.0701465 -0.140969 -0.0261337 36 101 107
0.0702878 -0.139541 -0.0264923 43 109 114
0.0701995 -0.138316 -0.026996 42 107 113
0.0703414 -0.136877 -0.0273579 34 99 107
0.0711807 -0.134792 -0.0272904 25 96 102
0.071326 -0.133334 -0.027656 30 97 102
0.071472 -0.131868 -0.0280233 39 98 99
0.0720901 -0.129954 -0.0281039 44 87 85
0.0720021 -0.128694 -0.0286192 42 59 62
0.0719138 -0.127431 -0.0291358 35 41 42
0.0722572 -0.15105 -0.018985 30 39 32
0.0721717 -0.149844 -0.0194775 31 43 37
0.072086 -0.148635 -0.0199711 23 60 59
0.0717687 -0.14762 -0.0206162 18 72 71
0.0714514 -0.146605 -0.0212613 12 78 78
0.0711341 -0.14559 -0.0219065 12 81 80
0.070587 -0.144775 -0.0226995 14 80 80
0.0704994 -0.14356 -0.0231971 16 78 81
0.070182 -0.142545 -0.0238424 17 78 83
0.0698646 -0.14153 -0.0244878 20 79 83
0.0695471 -0.140514 -0.0251332 23 84 88
0.0694581 -0.139293 -0.0256342 28 95 97
0.0693688 -0.138068 -0.0261365 38 105 108
0.0695087 -0.13663 -0.026496 42 108 113
0.0698796 -0.134973 -0.026713 38 103 108
0.0702531 -0.133305 -0.0269316 31 95 101
0.0708626 -0.131406 -0.0270067 26 93 99
0.0707736 -0.130153 -0.0275184 35 98 99
0.0711536 -0.128452 -0.0277419 43 90 91
0.0710644 -0.12719 -0.0282569 41 74 74
0.0709749 -0.125925 -0.0287731 38 55 48
0.0706498 -0.124885 -0.0294341 35 35 38
0.0710315 -0.123155 -0.0296659 37 37 29
0.0718043 -0.149196 -0.0183252 33 36 32
0.071487 -0.148181 -0.0189703 34 39 35
0.0714003 -0.146969 -0.0194639 34 46 44
0.0713134 -0.145753 -0.0199588 25 62 62
0.0709953 -0.144736 -0.0206055 18 74 75
0.0706772 -0.143718 -0.0212522 14 78 79
0.070359 -0.142701 -0.021899 16 79 79
0.0700409 -0.141683 -0.0225458 15 79 81
0.0694937 -0.140871 -0.0233401 17 79 80
0.0691758 -0.139854 -0.0239862 18 80 80
0.0690862 -0.13863 -0.0244866 18 83 84
0.0689964 -0.137403 -0.0249881 24 90 92
0.0686778 -0.136384 -0.0256359 32 99 101
0.068816 -0.134941 -0.0259947 40 105 109
0.069185 -0.133276 -0.0262104 40 103 109
0.0695564 -0.131599 -0.0264275 34 96 102
0.0699304 -0.129911 -0.0266462 30 94 98
0.0698402 -0.128656 -0.0271575 31 94 99
0.0702168 -0.12695 -0.0273799 36 95 95
0.070361 -0.125459 -0.0277494 41 83 81
0.0702706 -0.12419 -0.0282657 42 57 63
0.0704154 -0.122687 -0.0286386 37 48 43
0.0705608 -0.121177 -0.0290133 38 34 32
0.0710309 -0.146316 -0.0183088 35 35 30
0.0709434 -0.145098 -0.018803 33 39 39
0.0706249 -0.144079 -0.0194504 26 54 58
0.0705369 -0.142858 -0.0199465 19 68 70
0.0702179 -0.141838 -0.0205948 17 76 75
0.069899 -0.140818 -0.0212431 16 78 78
0.0693507 -0.140004 -0.0220407 15 79 80
0.069032 -0.138985 -0.0226884 16 80 80
0.0687133 -0.137966 -0.0233361 17 80 80
0.0683947 -0.136947 -0.0239839 17 82 81
0.0683039 -0.135716 -0.0244855 19 87 87
0.0686706 -0.134056 -0.0246956 27 94 96
0.0685797 -0.132816 -0.0252004 36 102 106
0.0682591 -0.131791 -0.0258521 42 103 108
0.0688579 -0.129889 -0.0259222 39 99 104
0.0689979 -0.128415 -0.0262856 29 92 99
0.0691386 -0.126935 -0.0266508 23 94 100
0.0695132 -0.12522 -0.0268717 32 95 97
0.0696558 -0.123723 -0.0272405 42 86 89
0.0697991 -0.122219 -0.0276111 40 72 72
0.069943 -0.120708 -0.0279834 36 51 52
0.0698514 -0.119426 -0.0285031 32 34 42
0.0702536 -0.143421 -0.0182926 37 35 33
0.070165 -0.142197 -0.0187879 30 47 44
0.0703071 -0.140764 -0.0191316 22 62 60
0.069987 -0.139741 -0.0197822 19 71 71
0.0696669 -0.138717 -0.0204328 16 77 77
0.0691169 -0.137903 -0.0212341 16 79 79
0.0687971 -0.13688 -0.0218841 17 79 78
0.0687064 -0.135645 -0.022385 17 80 79
0.0683862 -0.134621 -0.0230358 16 81 81
0.0680659 -0.133597 -0.0236866 17 83 84
0.0679742 -0.132357 -0.0241903 24 88 91
0.0678824 -0.131114 -0.0246952 33 97 100
0.0677902 -0.129868 -0.0252013 40 103 106
0.0681575 -0.128175 -0.0254156 38 100 105
0.0680652 -0.12692 -0.0259249 28 95 101
0.0684352 -0.125209 -0.0261428 23 92 96
0.0685749 -0.123715 -0.0265091 28 93 99
0.0691827 -0.121751 -0.0265834 37 91 93
0.0693251 -0.120238 -0.0269533 39 80 79
0.0689979 -0.119192 -0.0276184 36 50 64
0.0689051 -0.117908 -0.0281378 36 41 41
0.0700228 -0.14133 -0.0174717 37 35 27
0.0701648 -0.139891 -0.0178132 31 41 37
0.0698439 -0.138865 -0.0184653 25 51 50
0.069523 -0.137839 -0.0191174 19 66 65
0.0689719 -0.137024 -0.0199221 17 75 74
0.0686513 -0.135999 -0.0205736 16 77 77
0.0683307 -0.134973 -0.0212251 16 79 79
0.0680101 -0.133948 -0.0218767 17 80 80
0.0679182 -0.132707 -0.0223788 14 79 80
0.0675972 -0.13168 -0.0230313 15 80 80
0.0672761 -0.130654 -0.0236838 19 85 85
0.0671832 -0.129407 -0.0241887 27 93 94
0.0670901 -0.128157 -0.0246949 35 100 104
0.0674553 -0.126457 -0.0249077 40 101 104
0.067362 -0.125198 -0.0254171 31 95 98
0.0674989 -0.123707 -0.0257809 23 90 97
0.067868 -0.121979 -0.0259991 23 91 95
0.0682397 -0.120238 -0.026219 34 92 96
0.0683798 -0.118722 -0.0265882 42 84 86
0.0682864 -0.117438 -0.0271064 38 70 63
0.0681925 -0.11615 -0.0276259 35 44 44
0.0680985 -0.114859 -0.0281466 36 36 33
0.0697901 -0.139223 -0.0166451 35 32 26
0.0694688 -0.138196 -0.017298 32 34 32
0.0691475 -0.137169 -0.0179509 28 44 43
0.0688262 -0.136141 -0.0186039 22 58 60
0.0685048 -0.135113 -0.0192569 18 69 72
0.0681834 -0.134086 -0.0199099 17 76 77
0.0678619 -0.133058 -0.020563 16 78 79
0.0675405 -0.13203 -0.0212162 13 80 80
0.0672191 -0.131002 -0.0218694 14 80 79
0.0668976 -0.129974 -0.0225226 13 80 80
0.0668041 -0.128725 -0.0230268 16 82 84
0.0664822 -0.127696 -0.023681 23 87 91
0.0666164 -0.126218 -0.0240389 34 95 97
0.0665222 -0.12496 -0.0245468 38 100 104
0.0664278 -0.123699 -0.0250558 39 98 101
0.0667922 -0.121975 -0.0252711 24 91 95
0.0669281 -0.120472 -0.0256359 23 88 93
0.0672965 -0.118726 -0.0258545 30 91 95
0.0674343 -0.117206 -0.0262229 38 94 94
0.0673397 -0.115919 -0.0267408 39 81 79
0.0672447 -0.114629 -0.0272599 36 62 60
0.067383 -0.113093 -0.0276335 37 42 36
0.0672877 -0.111795 -0.0281556 39 31 24
0.0686796 -0.135254 -0.0172794 29 40 39
0.0683575 -0.134224 -0.0179339 24 50 53
0.0678056 -0.13341 -0.0187429 20 64 64
0.0674838 -0.132381 -0.0193967 16 74 75
0.0671619 -0.131352 -0.0200507 15 80 79
0.06684 -0.130322 -0.0207047 15 80 81
0.0665181 -0.129293 -0.0213587 15 80 80
0.0661962 -0.128264 -0.0220127 15 79 82
0.0658742 -0.127234 -0.0226669 17 79 82
0.0657793 -0.12598 -0.0231719 20 81 85
0.065912 -0.124497 -0.0235292 27 89 94
0.0658168 -0.123235 -0.0240371 35 99 102
0.0657213 -0.121971 -0.0245463 37 99 101
0.0658544 -0.120471 -0.0249085 37 93 93
0.0659881 -0.118964 -0.0252725 24 85 92
0.0663531 -0.117212 -0.02549 20 89 94
0.0664886 -0.115689 -0.0258576 35 94 96
0.0666248 -0.114158 -0.0262269 40 86 89
0.0665288 -0.112865 -0.0267461 34 73 65
0.0666655 -0.111322 -0.027119 35 48 44
0.0663361 -0.110268 -0.0277884 38 33 28
0.067979 -0.133547 -0.0167617 32 35 31
0.0674268 -0.132732 -0.0175729 27 40 40
0.0671045 -0.131702 -0.0182276 21 56 58
0.0667823 -0.130671 -0.0188823 17 72 71
0.0664599 -0.129641 -0.019537 14 78 78
0.0661376 -0.12861 -0.0201918 15 80 80
0.0658153 -0.12758 -0.0208467 15 80 82
0.0654929 -0.126549 -0.0215016 16 77 80
0.0653975 -0.125293 -0.0220059 18 76 79
0.0653017 -0.124033 -0.0225115 18 77 83
0.0649785 -0.123 -0.023168 20 85 89
0.0648821 -0.121737 -0.0236756 26 94 95
0.0650131 -0.120238 -0.0240354 40 99 98
0.0651446 -0.118732 -0.024397 39 94 96
0.0650478 -0.117456 -0.0249091 26 89 91
0.0658702 -0.115219 -0.0248268 15 85 91
0.0660048 -0.113687 -0.0251938 23 88 94
0.065908 -0.112393 -0.0257118 33 90 93
0.0660433 -0.110848 -0.0260823 39 80 79
0.0659461 -0.109546 -0.0266033 40 56 55
0.0658488 -0.108241 -0.0271255 38 36 38
0.0655184 -0.107184 -0.0277966 36 28 30
0.0670471 -0.132053 -0.0164001 34 28 25
0.0667244 -0.131021 -0.0170555 29 32 34
0.0664017 -0.129989 -0.017711 20 47 49
0.0663072 -0.128736 -0.0182114 16 65 67
0.065984 -0.127703 -0.0188677 14 76 76
0.0656609 -0.12667 -0.0195241 14 79 79
0.0653377 -0.125637 -0.0201805 14 79 79
0.0650145 -0.124603 -0.020837 16 77 80
0.0646913 -0.12357 -0.0214936 16 78 79
0.0643681 -0.122536 -0.0221501 16 78 79
0.0640448 -0.121503 -0.0228067 16 81 83
0.0641735 -0.120005 -0.0231642 21 88 90
0.0643029 -0.1185 -0.0235233 34 96 96
0.0642052 -0.117226 -0.0240338 41 100 99
0.0647922 -0.11523 -0.0240968 35 94 96
0.0649241 -0.113701 -0.0244613 24 86 91
0.0650564 -0.112166 -0.0248274 19 84 91
0.0651894 -0.110623 -0.0251954 25 87 90
0.0650913 -0.109321 -0.0257147 36 83 84
0.0652248 -0.107766 -0.0260862 40 69 68
0.0651264 -0.106457 -0.0266085 37 47 48
0.0650277 -0.105144 -0.0271322 34 29 34
0.0660201 -0.129306 -0.0165369 29 31 27
0.0656969 -0.128273 -0.0171932 28 38 37
0.0653737 -0.12724 -0.0178495 24 57 58
0.0650505 -0.126206 -0.0185059 17 71 69
0.0649543 -0.124947 -0.019008 17 76 78
0.0646307 -0.123912 -0.0196652 12 78 78
0.064307 -0.122877 -0.0203225 16 79 80
0.0639834 -0.121843 -0.0209799 17 78 81
0.0636596 -0.120808 -0.0216373 16 77 80
0.0635615 -0.11954 -0.0221438 15 79 82
0.0634631 -0.118269 -0.0226515 19 83 88
0.0633645 -0.116996 -0.0231604 27 90 94
0.0637193 -0.115241 -0.0233701 35 97 99
0.0640765 -0.113474 -0.0235812 35 95 99
0.0642066 -0.111939 -0.0239449 28 89 95
0.0643374 -0.110397 -0.0243104 20 86 91
0.0644688 -0.108848 -0.0246776 22 87 91
0.0643697 -0.107543 -0.025197 31 86 88
0.0645016 -0.105981 -0.0255678 36 75 77
0.0644021 -0.104668 -0.0260902 35 54 59
0.0643024 -0.103352 -0.0266139 33 40 39
0.0639707 -0.102291 -0.0272875 37 31 27
0.0650865 -0.12781 -0.0161748 31 36 22
0.0649903 -0.126552 -0.0166741 34 39 26
0.0646667 -0.125517 -0.0173312 29 43 41
0.0645698 -0.124255 -0.0178325 24 59 65
0.0642457 -0.123219 -0.0184906 20 78 75
0.0639217 -0.122183 -0.0191486 16 77 78
0.0635976 -0.121147 -0.0198068 15 77 80
0.0632735 -0.120111 -0.020465 16 79 79
0.0629493 -0.119075 -0.0211232 15 78 77
0.0628502 -0.117804 -0.0216297 17 77 78
0.0627508 -0.116529 -0.0221375 20 81 82
0.0628769 -0.115012 -0.0224952 24 87 90
0.0632308 -0.113246 -0.0227031 30 93 96
0.0633588 -0.111713 -0.0230643 34 95 98
0.0634874 -0.110172 -0.0234273 30 91 95
0.0638461 -0.108374 -0.0236404 23 86 90
0.0635164 -0.10732 -0.0243098 21 85 89
0.0636461 -0.10576 -0.0246781 26 84 89
0.0637763 -0.104192 -0.0250481 31 79 82
0.0636758 -0.102875 -0.0255706 31 66 67
0.0633441 -0.101815 -0.0262442 36 45 46
0.0630123 -0.100754 -0.0269179 39 35 39
0.0645088 -0.124599 -0.0159954 34 27 24
0.0644114 -0.123333 -0.0164962 34 29 34
0.0640866 -0.122295 -0.0171558 25 50 53
0.0637617 -0.121256 -0.0178155 18 66 70
0.0636633 -0.119984 -0.0183192 16 74 76
0.063338 -0.118945 -0.0189797 17 78 78
0.0630127 -0.117905 -0.0196403 15 78 78
0.0622371 -0.117338 -0.0206078 16 77 77
0.062362 -0.115825 -0.0209615 17 78 78
0.0622617 -0.114545 -0.0214698 17 80 82
0.0626133 -0.112777 -0.0216741 21 84 86
0.0625127 -0.111487 -0.0221856 27 90 92
0.0626392 -0.109948 -0.0225461 32 92 97
0.0627661 -0.108401 -0.0229084 31 91 94
0.0628937 -0.106847 -0.0232724 25 87 90
0.0625639 -0.105793 -0.023942 20 83 88
0.0626912 -0.104228 -0.0243094 21 85 89
0.0628191 -0.102657 -0.0246786 27 85 87
0.0627174 -0.101337 -0.0252007 32 75 73
0.0626154 -0.100015 -0.0257241 36 49 56
0.0625131 -0.0986898 -0.0262488 37 42 42
0.0644802 -0.122176 -0.0149934 37 28 27
0.0641542 -0.121133 -0.0156553 32 33 30
0.0640559 -0.119857 -0.0161583 24 43 42
0.0639572 -0.118578 -0.0166624 20 57 63
0.0636304 -0.117533 -0.017326 18 72 72
0.0633035 -0.116488 -0.0179897 17 76 78
0.0620728 -0.116398 -0.0192764 17 78 79
0.0617473 -0.115357 -0.0199371 16 78 78
0.0620967 -0.113595 -0.0201357 16 78 79
0.0622217 -0.112064 -0.0204906 17 78 80
0.0621207 -0.110772 -0.0210013 20 81 83
0.0620193 -0.109476 -0.0215133 24 86 89
0.061691 -0.108427 -0.0221796 29 90 93
0.0618157 -0.106877 -0.0225411 33 93 94
0.0619409 -0.105319 -0.0229044 28 88 91
0.0616111 -0.104264 -0.023574 18 84 88
0.0619643 -0.102438 -0.0237885 16 83 88
0.0623201 -0.1006 -0.0240047 25 86 90
0.0622174 -0.0992748 -0.0245273 30 81 82
0.0625756 -0.0974156 -0.0247472 33 71 63
0.0622417 -0.0963484 -0.0254251 31 42 46
0.0638947 -0.118918 -0.0148084 27 29 27
0.0635675 -0.117872 -0.0154727 25 39 39
0.0634681 -0.116587 -0.0159774 22 52 52
0.0631404 -0.115539 -0.0166426 18 64 68
0.0628126 -0.114492 -0.0173079 17 73 75
0.0622582 -0.113686 -0.0181307 15 77 77
0.0621571 -0.112396 -0.0186386 17 78 78
0.0618292 -0.111349 -0.0193041 18 77 78
0.0615014 -0.110301 -0.0199695 17 78 78
0.0613993 -0.109005 -0.0204803 18 80 80
0.061071 -0.107956 -0.0211467 20 82 84
0.0609682 -0.106655 -0.0216596 27 87 89
0.0613179 -0.104844 -0.0218666 34 91 95
0.0614421 -0.103278 -0.0222291 32 91 92
0.061567 -0.101704 -0.0225935 25 84 87
0.0614636 -0.100383 -0.0231132 17 79 86
0.0615889 -0.0987963 -0.023481 18 84 87
0.0619449 -0.0969354 -0.0236972 28 85 88
0.061611 -0.095868 -0.0243751 35 76 74
0.061277 -0.0948005 -0.025053 34 53 51
0.060943 -0.093733 -0.025731 35 37 36
0.060609 -0.0926654 -0.026409 37 30 31
0.0631768 -0.117164 -0.0142801 28 32 26
0.0630767 -0.115877 -0.0147839 27 35 31
0.0627486 -0.114828 -0.0154499 23 41 44
0.0624204 -0.113779 -0.016116 19 56 58
0.0620922 -0.11273 -0.0167822 17 70 70
0.0617639 -0.111681 -0.0174484 19 76 76
0.0614357 -0.110632 -0.0181146 20 78 77
0.0611075 -0.109583 -0.0187809 17 78 78
0.0607792 -0.108533 -0.0194472 17 77 78
0.0604509 -0.107484 -0.0201136 17 76 79
0.0603473 -0.106183 -0.0206253 19 79 80
0.0606947 -0.10437 -0.0208286 23 83 86
0.0605908 -0.103059 -0.0213437 29 91 91
0.0607134 -0.101486 -0.0217055 39 96 94
0.0606092 -0.100167 -0.0222236 34 87 90
0.0607322 -0.0985817 -0.0225888 16 82 83
0.0610846 -0.0967221 -0.0228016 12 81 82
0.06098 -0.0953875 -0.0233248 23 84 84
0.060646 -0.09432 -0.0240028 32 80 80
0.0603119 -0.0932523 -0.0246808 35 68 65
0.0599779 -0.0921846 -0.0253589 34 47 48
0.0601001 -0.0905681 -0.0257346 34 31 37
0.0625834 -0.113872 -0.0140917 28 26 24
0.0622544 -0.11282 -0.0147594 25 35 35
0.0616985 -0.112014 -0.0155881 22 52 52
0.0613698 -0.110964 -0.0162551 23 68 66
0.0608156 -0.11016 -0.0170812 22 75 73
0.0604873 -0.109111 -0.0177475 18 76 76
0.060159 -0.108062 -0.0184139 17 76 78
0.060055 -0.106761 -0.0189236 16 76 80
0.0597262 -0.105711 -0.0195908 14 79 79
0.0598462 -0.104151 -0.0199467 14 78 80
0.0597414 -0.102841 -0.0204602 19 81 80
0.0598618 -0.10127 -0.0208195 25 86 87
0.0597566 -0.0999518 -0.0213359 30 92 92
0.0596512 -0.0986306 -0.0218536 30 92 93
0.0599988 -0.0967755 -0.0220632 23 85 86
0.0601208 -0.0951759 -0.0224296 16 80 83
0.0600149 -0.0938393 -0.0229524 17 81 83
0.0596808 -0.0927716 -0.0236304 27 81 81
0.0593467 -0.0917037 -0.0243085 33 72 73
0.0592397 -0.0903612 -0.0248343 32 55 56
0.0591324 -0.0890154 -0.0253615 30 45 38
0.0616328 -0.112348 -0.0137234 29 30 25
0.0613038 -0.111296 -0.0143911 28 35 30
0.0609747 -0.110245 -0.0150589 27 44 44
0.0606456 -0.109193 -0.0157267 25 61 62
0.0600914 -0.10839 -0.0165545 21 73 70
0.0597627 -0.10734 -0.0172217 20 76 76
0.0594339 -0.106289 -0.0178889 18 76 79
0.0593288 -0.104985 -0.0183986 17 78 80
0.0592235 -0.103678 -0.0189096 20 79 78
0.0591179 -0.102367 -0.0194219 20 79 77
0.0590121 -0.101054 -0.0199354 22 80 78
0.058906 -0.0997367 -0.0204501 24 83 84
0.0587995 -0.0984168 -0.0209662 27 87 91
0.058918 -0.0968286 -0.0213282 31 89 92
0.0590371 -0.0952328 -0.0216919 26 87 89
0.0591566 -0.0936293 -0.0220574 18 83 84
0.0588229 -0.0925627 -0.0227347 17 81 82
0.0587154 -0.0912228 -0.023258 22 81 83
0.0586076 -0.0898795 -0.0237826 28 78 78
0.0584995 -0.088533 -0.0243085 28 68 62
0.0583911 -0.0871832 -0.0248358 36 49 45
0.0582825 -0.0858301 -0.0253643 33 43 33
0.0605784 -0.109524 -0.0138597 32 26 21
0.0602489 -0.108471 -0.0145284 34 30 25
0.0596945 -0.107668 -0.0153585 32 47 44
0.0593654 -0.106616 -0.0160265 25 68 67
0.0590361 -0.105564 -0.0166945 22 76 75
0.0589304 -0.104257 -0.0172035 17 76 80
0.0588244 -0.102947 -0.0177137 21 76 76
0.0584944 -0.101893 -0.0183834 21 76 76
0.0581643 -0.100838 -0.0190532 22 76 75
0.0580572 -0.0995221 -0.0195663 23 77 77
0.0579499 -0.0982033 -0.0200807 23 79 82
0.0580662 -0.0966164 -0.0204402 26 84 87
0.0579584 -0.0952893 -0.0209576 28 88 91
0.0580751 -0.0936897 -0.0213205 26 88 89
0.0579669 -0.0923543 -0.0218408 21 84 84
0.0578584 -0.0910155 -0.0223625 18 80 82
0.0579753 -0.0893978 -0.0227306 19 82 84
0.0578665 -0.0880506 -0.0232553 25 83 83
0.0579838 -0.0864198 -0.0236271 34 76 71
0.0578744 -0.085064 -0.0241548 31 53 53
0.0577648 -0.0837049 -0.0246839 35 41 36
0.0592966 -0.106944 -0.0141595 31 30 24
0.058967 -0.10589 -0.0148283 27 36 33
0.0586373 -0.104837 -0.0154971 22 55 51
0.058531 -0.103528 -0.0160052 20 70 70
0.0582008 -0.102473 -0.016675 24 76 74
0.0578707 -0.101418 -0.0173447 22 77 76
0.0575405 -0.100363 -0.0180145 22 76 76
0.0574327 -0.0990467 -0.0185264 22 75 76
0.0573246 -0.0977273 -0.0190396 20 77 76
0.0572162 -0.0964047 -0.0195541 21 78 78
0.0571075 -0.0950788 -0.0200698 24 81 83
0.0569985 -0.0937497 -0.0205868 27 86 88
0.0566663 -0.092688 -0.0212609 29 87 89
0.0570034 -0.0908088 -0.021469 27 83 85
0.057343 -0.088916 -0.0216785 16 79 82
0.0572333 -0.0875681 -0.022202 15 81 82
0.0573491 -0.085936 -0.0225712 22 86 88
0.0572389 -0.0845795 -0.0230977 32 82 85
0.0571285 -0.0832198 -0.0236256 37 71 67
0.0570178 -0.0818566 -0.0241547 41 42 48
0.0582374 -0.104108 -0.0142967 27 39 32
0.0579073 -0.103053 -0.0149664 26 43 46
0.0575771 -0.101998 -0.0156361 25 60 62
0.0572469 -0.100943 -0.0163059 22 72 72
0.0571387 -0.0996277 -0.0168158 22 76 75
0.0568081 -0.0985713 -0.0174864 21 75 77
0.0566992 -0.0972512 -0.0179984 20 76 76
0.0565899 -0.0959279 -0.0185117 21 76 75
0.0562585 -0.0948687 -0.0191841 23 75 75
0.0559269 -0.0938094 -0.0198565 23 78 79
0.0558167 -0.0924802 -0.0203727 24 84 86
0.0557061 -0.0911478 -0.0208902 29 87 91
0.0564864 -0.088711 -0.0207835 25 86 90
0.0566 -0.0870855 -0.0211484 19 82 81
0.0567142 -0.0854521 -0.0215152 11 78 81
0.0566033 -0.084095 -0.0220404 15 82 86
0.056492 -0.0827345 -0.022567 30 86 88
0.0563805 -0.0813706 -0.0230949 40 76 78
0.0562687 -0.0800034 -0.0236241 38 57 56
0.0559309 -0.0789242 -0.0243092 33 41 36
0.0558184 -0.0775522 -0.0248406 33 32 28
0.0572835 -0.102579 -0.0139273 30 30 29
0.0569533 -0.101524 -0.014597 28 40 42
0.0568447 -0.100209 -0.0151049 22 53 53
0.056514 -0.0991524 -0.0157755 22 67 68
0.0564047 -0.0978329 -0.0162855 22 74 74
0.0562952 -0.0965102 -0.0167967 22 76 77
0.0559636 -0.095451 -0.017469 23 76 77
0.0556321 -0.0943917 -0.0181414 24 76 75
0.0553005 -0.0933323 -0.0188139 23 75 75
0.054969 -0.0922728 -0.0194864 20 77 76
0.0548575 -0.0909417 -0.0200023 24 81 82
0.0556317 -0.0885064 -0.0198905 27 86 90
0.0557432 -0.0868823 -0.0202528 30 91 93
0.0558551 -0.0852503 -0.020617 24 85 86
0.0559675 -0.0836104 -0.020983 15 81 81
0.0558555 -0.0822492 -0.0215083 14 80 83
0.0557431 -0.0808846 -0.0220349 22 84 86
0.0556305 -0.0795167 -0.0225629 33 82 82
0.0555175 -0.0781454 -0.0230921 39 70 66
0.0551793 -0.0770647 -0.0237781 38 51 48
0.054841 -0.0759839 -0.0244642 33 35 36
0.0565507 -0.10079 -0.0133938 31 30 26
0.0564414 -0.0994725 -0.0139009 27 31 31
0.0563318 -0.0981519 -0.0144092 25 46 49
0.0562221 -0.096828 -0.0149187 26 62 64
0.0558901 -0.0957674 -0.0155919 26 71 72
0.0555582 -0.0947068 -0.016265 24 74 77
0.0552261 -0.0936462 -0.0169383 21 76 77
0.054674 -0.0928551 -0.0177711 20 76 76
0.0545622 -0.0915246 -0.0182849 20 75 75
0.0544499 -0.0901908 -0.0187999 23 75 75
0.0550006 -0.0880255 -0.0188403 25 77 79
0.0548882 -0.0866794 -0.0193592 24 82 83
0.0552208 -0.0847668 -0.0195618 23 86 87
0.0551081 -0.0834103 -0.0200841 24 88 88
0.0552188 -0.0817638 -0.0204494 21 83 84
0.0548818 -0.0806871 -0.0211328 17 81 84
0.0547682 -0.0793205 -0.021659 20 84 87
0.0546543 -0.0779504 -0.0221866 30 85 86
0.0545401 -0.0765771 -0.0227155 37 78 75
0.0542018 -0.0754962 -0.0234015 37 54 59
0.0538634 -0.0744152 -0.0240876 35 43 37
0.0535251 -0.0733342 -0.0247738 35 37 36
0.0561487 -0.0971465 -0.0130362 33 26 29
0.0560384 -0.0958182 -0.0135453 31 34 40
0.0557056 -0.094755 -0.0142201 26 51 58
0.0553728 -0.0936918 -0.0148949 25 68 71
0.05504 -0.0926285 -0.0155697 25 76 74
0.0544867 -0.0918367 -0.0164062 20 77 75
0.0541542 -0.0907745 -0.0170804 19 77 76
0.0540414 -0.0894381 -0.0175946 21 75 76
0.0543693 -0.0875445 -0.0177899 21 75 76
0.0542561 -0.0861978 -0.0183076 22 77 77
0.0543642 -0.0845659 -0.0186667 21 79 82
0.0542506 -0.0832106 -0.0191873 23 83 87
0.054359 -0.0815654 -0.01955 25 85 87
0.0542449 -0.0802015 -0.0200737 23 83 85
0.0539078 -0.0791246 -0.0207571 19 81 85
0.0540158 -0.0774634 -0.0211249 16 83 87
0.0536779 -0.0763838 -0.0218102 23 88 91
0.0535624 -0.0750084 -0.0223387 38 83 86
0.053224 -0.0739273 -0.0230248 37 74 65
0.0528856 -0.0728461 -0.023711 35 49 53
0.0525472 -0.0717649 -0.0243973 35 39 40
0.0550768 -0.0942763 -0.0131732 36 32 29
0.0551865 -0.0926719 -0.013518 32 46 40
0.0548528 -0.0916059 -0.0141945 26 61 58
0.0540781 -0.0910861 -0.0151978 24 72 70
0.0537452 -0.0900225 -0.0158728 23 77 74
0.0534123 -0.0889588 -0.0165478 22 76 77
0.0539585 -0.0867849 -0.0165775 19 75 77
0.0536239 -0.085716 -0.0172558 20 75 76
0.0535096 -0.0843653 -0.0177735 20 75 78
0.0533951 -0.0830113 -0.0182925 20 77 81
0.0535013 -0.0813675 -0.0186525 22 81 84
0.053608 -0.0797158 -0.0190144 25 85 87
0.0532708 -0.0786388 -0.0196979 26 85 88
0.0531552 -0.0772694 -0.0202225 19 84 86
0.0530392 -0.0758966 -0.0207484 11 82 87
0.0527012 -0.0748168 -0.0214337 19 87 92
0.0525845 -0.0734393 -0.0219618 35 94 95
0.052246 -0.072358 -0.022648 46 85 86
0.0521286 -0.0709757 -0.0231784 45 68 70
0.0547772 -0.0919197 -0.0123016 32 32 26
0.0544431 -0.0908524 -0.0129789 32 39 34
0.054109 -0.089785 -0.0136563 29 49 48
0.0533352 -0.0892687 -0.0146621 22 65 68
0.0534407 -0.0876499 -0.0150112 23 75 74
0.0533263 -0.0863031 -0.0155255 21 76 75
0.0532116 -0.0849531 -0.0160411 20 76 77
0.0528765 -0.0838827 -0.0167203 20 75 78
0.0527611 -0.082528 -0.0172381 21 74 77
0.0526454 -0.0811699 -0.0177571 21 76 78
0.0527499 -0.0795196 -0.0181164 20 80 81
0.0526337 -0.0781529 -0.0186384 24 83 85
0.0525172 -0.0767828 -0.0191618 27 90 91
0.0524004 -0.0754093 -0.0196865 32 87 90
0.0520624 -0.0743294 -0.0203718 18 83 85
0.0519449 -0.0729512 -0.0208986 16 84 88
0.051827 -0.0715695 -0.0214268 37 92 94
0.0523745 -0.0692731 -0.0214813 46 92 94
0.0536031 -0.0660233 -0.0210557 53 88 86
0.0577969 -0.0438715 -0.0227858 13 11 9
0.0542536 -0.0898217 -0.0115922 35 30 26
0.0536978 -0.0890282 -0.0124384 32 34 31
0.0531433 -0.0882365 -0.0132827 25 44 48
0.0530286 -0.0868904 -0.013795 25 62 57
0.0526939 -0.0858213 -0.0144733 24 70 69
0.0525784 -0.0844706 -0.0149877 23 75 75
0.0524626 -0.0831165 -0.0155033 21 76 77
0.0521271 -0.0820447 -0.0161835 22 75 76
0.0520106 -0.080686 -0.0167012 23 74 76
0.0518938 -0.0793239 -0.0172203 23 75 77
0.0517767 -0.0779584 -0.0177407 22 77 77
0.0516592 -0.0765896 -0.0182624 21 82 81
0.0515415 -0.0752175 -0.0187854 28 88 89
0.0514235 -0.0738419 -0.0193097 29 88 92
0.0513051 -0.072463 -0.0198353 26 85 90
0.0511864 -0.0710806 -0.0203622 27 88 92
0.0517308 -0.0687818 -0.0204116 35 95 98
0.0522804 -0.0664604 -0.0204614 43 98 99
0.0526102 -0.06443 -0.0206733 55 94 90
0.0527308 -0.0874776 -0.0120643 30 29 27
0.0523961 -0.0864085 -0.0127426 28 39 34
0.0522803 -0.0850585 -0.0132549 27 52 52
0.0521641 -0.0837051 -0.0137684 26 66 65
0.0518285 -0.0826332 -0.0144485 23 74 72
0.0517116 -0.0812751 -0.0149642 22 75 76
0.0513756 -0.0802019 -0.0156452 22 75 76
0.051258 -0.0788391 -0.016163 22 75 75
0.0511401 -0.0774729 -0.0166822 24 74 74
0.0510218 -0.0761035 -0.0172026 23 76 74
0.0506845 -0.075026 -0.0178863 25 77 80
0.0505655 -0.0736518 -0.0184088 26 81 85
0.0504462 -0.0722741 -0.0189328 29 88 91
0.0503266 -0.0708931 -0.019458 30 90 93
0.0510869 -0.0682903 -0.0193416 33 93 96
0.0514107 -0.0662764 -0.0195483 40 99 100
0.0515136 -0.0645606 -0.0199186 45 98 99
0.0513936 -0.0631513 -0.0204523 48 88 90
0.0512733 -0.0617384 -0.0209874 35 70 59
0.0511526 -0.060322 -0.0215238 17 32 41
0.0517046 -0.0579355 -0.0215799 10 13 20
0.0519821 -0.0856464 -0.0115219 28 29 26
0.0516469 -0.0845759 -0.0122011 30 32 28
0.05153 -0.0832218 -0.0127134 31 44 39
0.0511944 -0.0821498 -0.0133935 29 59 57
0.0510767 -0.0807911 -0.013908 28 70 70
0.0509586 -0.079429 -0.0144237 26 74 73
0.0508403 -0.0780635 -0.0149407 20 74 75
0.0505034 -0.0769874 -0.0156235 20 75 75
0.0501665 -0.0759112 -0.0163062 20 74 75
0.0500469 -0.0745396 -0.0168263 23 74 76
0.0497095 -0.073462 -0.01751 24 75 78
0.049807 -0.0717864 -0.0178703 25 83 84
0.0496866 -0.0704046 -0.0183943 28 89 90
0.0504429 -0.0677988 -0.0182714 33 93 95
0.0507644 -0.065783 -0.0184743 40 98 99
0.0508656 -0.0640658 -0.018842 42 99 102
0.0507448 -0.0626558 -0.0193744 42 97 101
0.0506236 -0.0612422 -0.0199081 44 97 96
0.0505021 -0.059825 -0.0204432 33 79 84
0.0503803 -0.0584043 -0.0209797 17 46 54
0.0511538 -0.0556788 -0.0208711 9 18 24
0.053081 -0.0512469 -0.0199381 9 6 10
0.0507776 -0.0813804 -0.0121705 37 37 32
0.0506592 -0.0800189 -0.0126842 35 46 47
0.0505405 -0.0786542 -0.0131991 31 63 62
0.0502035 -0.077578 -0.0138818 24 72 71
0.0498666 -0.0765017 -0.0145646 20 76 74
0.0497467 -0.0751309 -0.0150825 19 74 74
0.0494093 -0.0740532 -0.0157662 21 73 75
0.0490718 -0.0729754 -0.0164499 22 73 75
0.0491677 -0.0712985 -0.0168077 21 75 76
0.049264 -0.0696135 -0.0171672 19 80 80
0.0502391 -0.0666911 -0.0168721 20 87 89
0.0505604 -0.0646663 -0.0170703 29 94 98
0.0504391 -0.0632569 -0.0176005 35 95 101
0.0505399 -0.061527 -0.0179675 43 95 102
0.0501957 -0.0604276 -0.018665 44 97 102
0.0500735 -0.0590075 -0.0191992 43 94 98
0.0501736 -0.0572606 -0.0195716 34 84 87
0.0504982 -0.0551778 -0.0197824 20 64 66
0.0512772 -0.0524151 -0.0196657 12 35 39
0.0520659 -0.0496178 -0.0195476 6 12 21
0.0502407 -0.0792448 -0.0114572 35 31 32
0.0501212 -0.0778774 -0.0119713 34 41 42
0.0497839 -0.0767998 -0.0126549 32 55 53
0.0494464 -0.0757222 -0.0133385 24 69 67
0.049109 -0.0746444 -0.0140221 21 73 71
0.0487715 -0.0735666 -0.0147059 19 74 72
0.0484339 -0.0724888 -0.0153896 18 74 73
0.0485283 -0.0708106 -0.0157448 17 74 74
0.048623 -0.0691242 -0.0161018 16 75 75
0.0495933 -0.0661982 -0.0157989 12 79 81
0.0499123 -0.0641714 -0.0159932 14 87 88
0.0500116 -0.0624459 -0.0163558 20 89 93
0.0498893 -0.0610301 -0.0168865 30 93 97
0.0497667 -0.0596108 -0.0174185 38 96 101
0.0498661 -0.0578653 -0.0177866 43 97 103
0.0499659 -0.0561112 -0.0181564 40 97 100
0.0505152 -0.0536887 -0.0181963 31 91 91
0.05107 -0.0512419 -0.0182366 21 74 75
0.0514019 -0.0491103 -0.0184451 12 41 51
0.0517362 -0.0469625 -0.0186552 10 20 22
0.0510552 -0.0294556 -0.0242663 35 29 26
0.0494836 -0.0773912 -0.0109107 35 28 28
0.0491461 -0.0763135 -0.0115943 38 34 31
0.0488086 -0.0752358 -0.0122779 29 51 50
0.0484711 -0.0741579 -0.0129616 25 64 61
0.0481336 -0.07308 -0.0136454 20 71 69
0.0480113 -0.071703 -0.0141629 15 74 70
0.0476733 -0.0706236 -0.0148476 12 74 71
0.0477658 -0.0689387 -0.015202 12 74 73
0.0485103 -0.0663236 -0.0150598 10 76 77
0.049044 -0.0639897 -0.0150837 13 82 82
0.0493616 -0.0619496 -0.0152759 13 85 89
0.0494598 -0.0602142 -0.0156377 17 89 92
0.0493364 -0.0587921 -0.0161689 25 92 96
0.0494348 -0.0570423 -0.0165343 34 95 101
0.0495336 -0.0552838 -0.0169016 38 97 102
0.0503066 -0.0525216 -0.016767 36 98 100
0.0508617 -0.0500628 -0.0168003 28 95 97
0.0509654 -0.0482623 -0.0171734 25 83 83
0.0515279 -0.0457634 -0.0172091 14 45 48
0.052328 -0.0428882 -0.0170741 14 22 24
0.0481707 -0.0747493 -0.0112172 37 30 25
0.0478331 -0.0736713 -0.0119009 33 35 35
0.0474956 -0.0725933 -0.0125846 25 50 55
0.0473725 -0.0712156 -0.013101 17 65 66
0.0470344 -0.0701361 -0.0137857 13 73 68
0.0469106 -0.0687536 -0.0143042 10 73 71
0.0472167 -0.0667555 -0.0144912 9 74 75
0.047742 -0.0644321 -0.0145122 15 78 77
0.0480537 -0.062401 -0.0147017 15 82 82
0.0485876 -0.0600361 -0.014724 14 84 85
0.0486838 -0.0582937 -0.0150849 16 87 89
0.0487806 -0.0565425 -0.0154477 22 90 94
0.0488778 -0.0547827 -0.0158123 30 94 99
0.0498714 -0.0516833 -0.0155008 35 96 101
0.0504249 -0.0492171 -0.0155279 26 95 102
0.0507556 -0.0470696 -0.015727 33 95 98
0.0520112 -0.0435104 -0.0152365 19 71 83
0.0525854 -0.0409584 -0.0152629 17 38 46
0.0526953 -0.0391 -0.0156394 20 17 17
0.047195 -0.0731847 -0.01084 38 33 22
0.0468574 -0.0721065 -0.0115238 35 40 30
0.0465198 -0.0710283 -0.0122076 28 47 41
0.0463954 -0.0696485 -0.0127235 22 55 52
0.0460573 -0.0685688 -0.0134083 17 65 62
0.0461458 -0.0668787 -0.0137593 16 72 68
0.0462347 -0.0651803 -0.0141121 19 74 72
0.0467551 -0.062849 -0.0141314 20 76 75
0.0479366 -0.059539 -0.0136425 18 78 78
0.0478114 -0.0581175 -0.0141706 15 81 82
0.0481263 -0.0560427 -0.0143609 14 85 87
0.0482218 -0.0542815 -0.0147228 16 88 90
0.049435 -0.0508429 -0.0142314 22 90 94
0.049987 -0.0483693 -0.0142521 21 92 98
0.0512326 -0.0448305 -0.0137498 25 94 95
0.0522669 -0.0415839 -0.0134156 21 80 83
0.0528453 -0.0390089 -0.0134328 21 51 54
0.0531927 -0.0367721 -0.0136287 26 23 21
0.0462192 -0.0716196 -0.0104627 32 35 23
0.0458815 -0.0705413 -0.0111466 32 35 26
0.0455437 -0.0694629 -0.0118304 29 37 32
0.0454181 -0.068081 -0.012346 20 42 42
0.045505 -0.0663896 -0.0126945 19 58 53
0.045166 -0.065307 -0.013381 22 67 63
0.04568 -0.0629819 -0.0133967 23 71 68
0.0470671 -0.0593617 -0.012732 20 73 73
0.0471594 -0.0576195 -0.0130876 16 75 77
0.0474719 -0.0555428 -0.0132739 13 79 80
0.0477865 -0.0534506 -0.0134616 11 82 84
0.0496737 -0.0489847 -0.0124348 14 87 88
0.0509165 -0.0454513 -0.0119164 15 90 91
0.0526497 -0.0411431 -0.0110285 21 90 90
0.0534692 -0.0381936 -0.0108517 20 74 77
0.0538209 -0.035942 -0.0110386 21 50 52
0.0534579 -0.034783 -0.0117735 29 28 22
