ply
format ascii 1.0
element vertex 1174
property float x
property float y
property float z
property uchar diffuse_red
property uchar diffuse_green
property uchar diffuse_blue
end_header
0.0518945 -0.21282 -0.0529012 56 126 57
0.050388 -0.213012 -0.0534676 57 122 50
0.0492972 -0.213313 -0.0544046 57 120 47
0.049023 -0.213835 -0.0560915 57 119 47
0.048748 -0.214358 -0.0577832 59 119 47
0.0484722 -0.214883 -0.0594796 61 120 45
0.0477879 -0.215296 -0.060795 73 126 47
0.046698 -0.215595 -0.0617238 94 135 59
0.0472324 -0.216351 -0.0642059 89 126 61
0.0481822 -0.217231 -0.0671067 75 117 61
0.021423 -0.214131 -0.0559632 69 69 62
0.0207859 -0.214515 -0.0571879 70 69 58
0.0204918 -0.215005 -0.0587688 69 68 57
0.0229749 -0.216355 -0.06326 67 68 60
0.0230315 -0.216963 -0.0652407 65 69 63
0.0234419 -0.217686 -0.0676074 68 68 67
0.022792 -0.218078 -0.0688567 68 67 65
0.0221422 -0.218469 -0.0701059 70 73 64
0.0211414 -0.218749 -0.0709748 76 81 64
0.0204925 -0.21914 -0.0722221 86 85 64
0.0201928 -0.219645 -0.0738531 89 83 59
0.0198923 -0.220151 -0.0754883 83 74 55
0.019591 -0.220659 -0.0771279 72 64 51
0.0203427 -0.221518 -0.0799543 64 62 48
0.0681711 -0.197087 -0.00729443 107 165 79
0.0674966 -0.197494 -0.00859106 105 162 78
0.0676789 -0.198075 -0.0105033 104 159 77
0.0674318 -0.198571 -0.0121143 99 153 73
0.0671841 -0.199069 -0.0137299 89 141 66
0.0669357 -0.199568 -0.01535 82 131 59
0.0662566 -0.199977 -0.0166553 78 128 60
0.0655776 -0.200387 -0.0179606 75 127 58
0.0653268 -0.200888 -0.0195888 73 121 54
0.0650752 -0.201391 -0.0212214 68 119 51
0.0652528 -0.201989 -0.023188 62 118 51
0.0650002 -0.202495 -0.0248326 62 118 50
0.0651785 -0.203099 -0.0268179 63 120 53
0.0644929 -0.203512 -0.0281358 64 122 55
0.0642382 -0.204023 -0.0297943 67 121 55
0.0644152 -0.204634 -0.0318022 68 117 53
0.0637268 -0.205049 -0.0331255 67 115 52
0.0634701 -0.205564 -0.034798 69 114 51
0.0632127 -0.206081 -0.0364755 67 114 52
0.0629545 -0.206599 -0.0381576 64 112 50
0.0631293 -0.207221 -0.0402038 63 112 48
0.0628701 -0.207743 -0.0418985 63 112 46
0.0630455 -0.208371 -0.0439645 61 111 43
0.0623495 -0.208791 -0.0453025 54 108 40
0.0616534 -0.209211 -0.0466404 49 104 37
0.0613911 -0.209738 -0.0483516 52 103 32
0.0606941 -0.210158 -0.0496913 50 104 39
0.0595657 -0.21047 -0.0506536 42 101 34
0.0584405 -0.210781 -0.0516131 39 102 33
0.0573187 -0.211091 -0.0525697 39 108 34
0.0557766 -0.211291 -0.0531448 41 112 34
0.0546636 -0.211599 -0.0540949 46 112 35
0.0527193 -0.211687 -0.0542848 52 113 37
0.0512039 -0.211884 -0.0548497 57 114 37
0.0505183 -0.212297 -0.0561675 57 118 40
0.0506568 -0.212931 -0.0582495 58 120 44
0.050796 -0.213569 -0.0603435 59 123 47
0.0505208 -0.214097 -0.0620585 63 129 51
0.0498305 -0.214513 -0.0633854 80 143 65
0.0491403 -0.21493 -0.0647122 109 168 87
0.0484501 -0.215346 -0.066039 109 158 85
0.0477599 -0.215762 -0.0673656 117 149 77
0.0483044 -0.216527 -0.0698976 125 135 71
0.0484384 -0.21718 -0.0720431 118 109 70
0.0283108 -0.216726 -0.0695144 91 128 80
0.0261979 -0.216678 -0.0692485 97 137 82
0.0241082 -0.216631 -0.0689854 106 150 85
0.0234555 -0.217025 -0.0702399 111 158 83
0.0224488 -0.217307 -0.0711124 115 159 80
0.0214449 -0.217589 -0.0719823 128 160 80
0.0207942 -0.217981 -0.0732332 142 152 83
0.0201435 -0.218374 -0.0744839 131 130 77
0.0198425 -0.218879 -0.0761224 110 105 69
0.0195407 -0.219386 -0.0777653 90 84 60
0.0199405 -0.220124 -0.0802025 73 67 53
0.0196372 -0.220635 -0.0818598 66 62 48
0.0670867 -0.196059 -0.00883942 103 160 80
0.0664122 -0.196465 -0.0101361 99 156 77
0.0665915 -0.197044 -0.0120526 92 150 74
0.0663428 -0.197539 -0.0136659 86 143 68
0.0656655 -0.197947 -0.0149678 86 137 62
0.0654154 -0.198444 -0.0165873 83 135 62
0.0651645 -0.198942 -0.0182113 79 136 59
0.064913 -0.199441 -0.0198399 83 134 60
0.0646609 -0.199942 -0.0214731 79 133 59
0.0648373 -0.200536 -0.0234405 73 125 54
0.0654467 -0.201226 -0.0257537 69 121 52
0.0656267 -0.201828 -0.0277474 63 117 51
0.0653729 -0.202338 -0.0294104 60 117 52
0.0646844 -0.202753 -0.0307339 61 118 52
0.0648631 -0.203362 -0.0327504 63 118 53
0.0646071 -0.203876 -0.0344275 64 119 54
0.0643506 -0.204392 -0.0361094 67 120 54
0.0640932 -0.204909 -0.0377961 66 118 55
0.0638352 -0.205428 -0.0394876 67 119 52
0.063141 -0.205847 -0.0408221 73 124 52
0.0633171 -0.206469 -0.0428851 77 126 54
0.063057 -0.206993 -0.0445912 75 124 53
0.0627961 -0.207517 -0.0463021 69 118 49
0.062098 -0.207938 -0.0476441 64 111 44
0.0618355 -0.208465 -0.0493618 61 107 41
0.0611365 -0.208886 -0.0507055 47 100 36
0.060004 -0.209201 -0.0516693 35 94 27
0.0593061 -0.209622 -0.0530109 38 96 28
0.0577492 -0.209828 -0.0535883 40 104 34
0.0566267 -0.21014 -0.0545434 39 110 40
0.0555076 -0.210451 -0.0554957 41 112 43
0.0539709 -0.210653 -0.0560622 44 114 46
0.052443 -0.210853 -0.0566254 46 116 46
0.0517535 -0.211269 -0.0579508 46 117 48
0.0523142 -0.212014 -0.0604389 48 119 48
0.0520399 -0.212542 -0.0621617 50 123 49
0.0513465 -0.212961 -0.0634946 54 134 57
0.0506531 -0.213379 -0.0648274 63 152 73
0.0499598 -0.213797 -0.0661602 85 175 89
0.0496819 -0.214329 -0.0678934 100 168 85
0.0489877 -0.214747 -0.0692279 117 167 81
0.0482935 -0.215166 -0.0705623 121 162 85
0.0480129 -0.2157 -0.0723042 112 159 91
0.0481464 -0.216353 -0.0744631 106 168 97
0.0495371 -0.217367 -0.077891 103 175 101
0.0393501 -0.218751 -0.0817938 108 169 83
0.0276114 -0.215829 -0.0714187 110 167 82
0.0254994 -0.215786 -0.0711419 113 169 81
0.0244828 -0.216072 -0.0720193 114 168 79
0.0224026 -0.216029 -0.071741 116 169 80
0.0213973 -0.216312 -0.0726114 119 174 87
0.0207456 -0.216705 -0.0738641 123 181 96
0.020094 -0.217098 -0.0751166 128 185 101
0.0197925 -0.217603 -0.0767583 131 159 85
0.0201932 -0.218334 -0.0791916 110 116 71
0.0195382 -0.218729 -0.0804507 84 80 59
0.0192343 -0.219238 -0.0821085 67 62 48
0.0189297 -0.219749 -0.0837708 66 60 50
0.0666767 -0.194623 -0.00908781 103 160 77
0.0655767 -0.194947 -0.0100774 97 152 74
0.0653276 -0.195437 -0.0116812 92 145 69
0.0655038 -0.196012 -0.0136022 89 139 64
0.0648275 -0.19642 -0.0149023 86 134 60
0.0641512 -0.196828 -0.0162024 83 134 59
0.0643247 -0.197409 -0.0181413 79 135 59
0.0640723 -0.197906 -0.0197675 85 137 63
0.0642464 -0.198493 -0.0217247 88 145 67
0.0648515 -0.199172 -0.0240241 88 141 62
0.0658957 -0.19995 -0.02668 83 133 58
0.0656421 -0.200457 -0.0283416 73 123 54
0.0653878 -0.200966 -0.030008 64 117 51
0.0651329 -0.201476 -0.031679 61 114 51
0.0653135 -0.202083 -0.0337042 59 113 51
0.0650574 -0.202597 -0.0353877 59 114 52
0.0648007 -0.203112 -0.037076 60 116 52
0.0641063 -0.203531 -0.0384108 65 120 54
0.0638479 -0.204048 -0.0401057 68 120 54
0.0635888 -0.204567 -0.0418055 72 125 56
0.063329 -0.205088 -0.0435102 79 133 62
0.0630684 -0.20561 -0.0452198 86 138 64
0.0628071 -0.206133 -0.0469343 86 134 59
0.062108 -0.206555 -0.0482783 77 122 53
0.0618451 -0.20708 -0.0499996 65 111 48
0.0611449 -0.207503 -0.0513454 55 104 39
0.060445 -0.207925 -0.0526911 45 100 36
0.059745 -0.208347 -0.0540367 52 101 38
0.0586129 -0.208663 -0.0549969 49 106 39
0.0574842 -0.208978 -0.0559543 42 108 39
0.0563589 -0.209293 -0.0569088 36 109 38
0.0543901 -0.209392 -0.0570883 34 108 36
0.0536965 -0.209811 -0.0584217 36 108 33
0.0534237 -0.210337 -0.0601444 36 109 33
0.0531501 -0.210865 -0.061872 36 112 35
0.0524546 -0.211284 -0.063209 36 116 37
0.0517591 -0.211704 -0.0645459 35 121 41
0.0510637 -0.212123 -0.0658827 39 124 45
0.0507865 -0.212654 -0.0676209 53 127 48
0.0500901 -0.213074 -0.0689594 63 137 55
0.0493939 -0.213494 -0.0702979 78 152 71
0.0486976 -0.213914 -0.0716363 85 159 78
0.0484167 -0.214448 -0.0733849 87 162 79
0.0485518 -0.2151 -0.0755535 92 163 78
0.049107 -0.215872 -0.078155 94 161 75
0.0492452 -0.216532 -0.0803535 97 156 71
0.0489621 -0.217076 -0.0821354 98 153 69
0.0468466 -0.218352 -0.086202 99 149 61
0.0448946 -0.218413 -0.0862526 99 153 67
0.0441927 -0.218836 -0.0876019 99 155 70
0.0394335 -0.218054 -0.084645 100 156 73
0.0269099 -0.21493 -0.0733285 100 156 74
0.024439 -0.214783 -0.0726535 99 156 74
0.0234239 -0.215071 -0.0735289 97 156 72
0.0220566 -0.215249 -0.0740141 92 156 70
0.0210491 -0.215535 -0.0748839 88 156 69
0.0203957 -0.215929 -0.07614 90 156 68
0.020446 -0.216543 -0.0781804 103 159 77
0.0197909 -0.216939 -0.0794397 95 135 77
0.0191357 -0.217334 -0.0806991 80 97 66
0.019183 -0.217954 -0.0827574 66 62 51
0.0185262 -0.21835 -0.08402 66 62 52
0.0654163 -0.193027 -0.00872565 102 156 74
0.0643211 -0.193352 -0.009713 97 150 73
0.0644936 -0.19392 -0.0116204 93 144 70
0.06382 -0.194326 -0.0129153 89 139 66
0.0635685 -0.194815 -0.0145231 86 133 62
0.0633163 -0.195305 -0.0161353 83 130 62
0.0630636 -0.195797 -0.0177521 81 130 64
0.0636591 -0.19646 -0.0200185 84 136 62
0.063832 -0.197043 -0.0219765 91 147 66
0.0644352 -0.197717 -0.024277 98 155 71
0.0659115 -0.198575 -0.0272727 97 153 68
0.0656575 -0.199081 -0.0289376 89 142 62
0.0658391 -0.199681 -0.0309522 78 129 57
0.0655841 -0.200191 -0.0326296 69 118 53
0.0653283 -0.200702 -0.0343117 63 112 51
0.0650719 -0.201215 -0.0359986 60 109 50
0.0643774 -0.201634 -0.0373337 59 110 48
0.0641193 -0.202149 -0.0390273 59 114 50
0.0638605 -0.202665 -0.0407257 61 116 53
0.063601 -0.203183 -0.042429 67 121 54
0.0633408 -0.203702 -0.0441372 74 129 59
0.0635184 -0.204322 -0.0462221 82 138 64
0.0628182 -0.204745 -0.0475683 87 141 64
0.0625558 -0.205269 -0.0492913 86 136 61
0.0627321 -0.205896 -0.0514003 74 122 56
0.0620288 -0.206321 -0.0527521 61 109 50
0.0613257 -0.206745 -0.0541039 58 104 45
0.0606225 -0.207169 -0.0554556 59 105 47
0.0594842 -0.207488 -0.0564181 55 105 40
0.0583493 -0.207807 -0.0573777 46 106 36
0.0576483 -0.208229 -0.0587251 38 106 34
0.0565178 -0.208546 -0.0596797 33 104 30
0.0558181 -0.208968 -0.061025 30 103 27
0.0568362 -0.209822 -0.0639636 28 102 27
0.0561323 -0.210247 -0.0653166 28 103 27
0.0549993 -0.210562 -0.0662654 27 105 29
0.0542966 -0.210986 -0.0676162 26 108 34
0.0535939 -0.21141 -0.0689669 28 112 37
0.0528914 -0.211834 -0.0703175 35 112 37
0.0521888 -0.212257 -0.071668 42 114 40
0.0514863 -0.212681 -0.0730184 51 118 47
0.0507839 -0.213105 -0.0743687 61 126 51
0.0505036 -0.213643 -0.0761371 73 134 55
0.0498002 -0.214067 -0.0774892 83 138 59
0.0495181 -0.214607 -0.0792645 90 142 60
0.0488138 -0.215032 -0.0806184 96 143 63
0.04853 -0.215574 -0.0824009 100 148 65
0.0486671 -0.216237 -0.0846215 103 152 67
0.047539 -0.216544 -0.0855461 103 155 68
0.0459971 -0.216732 -0.0860332 103 158 69
0.0440517 -0.216799 -0.0860846 100 159 72
0.0433508 -0.217222 -0.087432 95 155 74
0.0426499 -0.217645 -0.0887793 88 151 73
0.0251803 -0.214319 -0.0761229 73 138 57
0.0237967 -0.2145 -0.0766051 68 136 53
0.0220643 -0.214573 -0.0766918 67 135 52
0.0214072 -0.214969 -0.0779549 74 136 54
0.0200436 -0.215148 -0.0784286 94 141 65
0.0193885 -0.215543 -0.079688 82 105 63
0.0194363 -0.216158 -0.0817438 71 76 56
0.0187793 -0.216555 -0.0830065 67 64 50
0.0184736 -0.217063 -0.0846725 67 64 51
0.063323 -0.191285 -0.00776107 102 153 73
0.0622368 -0.191611 -0.00874437 97 148 71
0.0632409 -0.192327 -0.0112519 92 143 69
0.0625691 -0.192733 -0.0125433 88 137 65
0.0627368 -0.193298 -0.0144586 86 131 62
0.0624838 -0.193786 -0.0160686 86 129 62
0.0622301 -0.194275 -0.017683 86 131 63
0.0632458 -0.195015 -0.0202694 88 137 62
0.0634175 -0.195593 -0.0222283 91 146 67
0.0640189 -0.196261 -0.02453 98 160 77
0.0654921 -0.197109 -0.0275275 105 168 79
0.0661095 -0.197791 -0.0298787 108 165 76
0.0654178 -0.198208 -0.0312084 97 150 68
0.0655993 -0.198807 -0.0332355 84 134 61
0.0653431 -0.199317 -0.0349211 73 120 55
0.0646486 -0.199736 -0.0362563 66 111 51
0.0643908 -0.200248 -0.0379485 62 108 48
0.0641323 -0.200762 -0.0396456 59 108 47
0.0634359 -0.201182 -0.0409844 59 111 48
0.0631757 -0.201698 -0.0426882 61 115 49
0.0637915 -0.202408 -0.0451363 65 123 53
0.0630912 -0.202831 -0.0464826 71 129 57
0.0637095 -0.20355 -0.0489581 77 133 61
0.0630061 -0.203974 -0.0503103 80 133 63
0.0631842 -0.2046 -0.0524286 76 128 60
0.0624789 -0.205026 -0.0537846 67 117 54
0.0617736 -0.205451 -0.0551404 60 109 47
0.0610683 -0.205877 -0.0564962 58 106 46
0.0603631 -0.206303 -0.0578519 56 107 44
0.059658 -0.206728 -0.0592074 53 108 42
0.0593893 -0.207259 -0.0609598 46 107 38
0.0586832 -0.207685 -0.0623172 40 105 32
0.0588497 -0.208324 -0.0644798 35 103 28
0.0590172 -0.208967 -0.0666553 30 100 27
0.0583071 -0.209396 -0.0680204 26 98 24
0.0580346 -0.209934 -0.0697985 24 99 26
0.0573235 -0.210363 -0.0711655 26 104 31
0.0566124 -0.210792 -0.0725325 32 108 35
0.055467 -0.21111 -0.0734802 41 109 35
0.0543249 -0.211426 -0.074425 48 111 41
0.0531863 -0.211741 -0.0753669 54 119 49
0.0524786 -0.212168 -0.0767273 66 134 57
0.0513446 -0.212482 -0.0776642 76 142 63
0.050638 -0.212909 -0.0790225 81 145 67
0.0499316 -0.213335 -0.0803806 83 146 68
0.0496483 -0.213876 -0.0821682 84 145 68
0.0489409 -0.214303 -0.0835281 84 145 66
0.0482336 -0.21473 -0.084888 81 142 65
0.0475262 -0.215157 -0.0862478 79 139 63
0.0463998 -0.215466 -0.0871699 75 136 59
0.0448613 -0.215657 -0.0876522 70 132 57
0.0433318 -0.215846 -0.0881316 66 129 54
0.0426299 -0.21627 -0.089481 63 126 50
0.0241123 -0.213308 -0.0776453 61 123 50
0.0227317 -0.213493 -0.0781234 64 120 52
0.0210037 -0.21357 -0.0782037 72 116 55
0.0203466 -0.213966 -0.0794669 82 102 60
0.0196896 -0.214363 -0.0807299 73 77 53
0.019385 -0.214868 -0.082393 70 65 48
0.0190795 -0.215374 -0.0840607 68 63 46
0.0187733 -0.215882 -0.0857329 65 63 45
0.0629163 -0.18986 -0.00800749 100 151 72
0.0618306 -0.190189 -0.00899056 97 147 68
0.0611625 -0.190592 -0.0102748 92 142 66
0.0621606 -0.191303 -0.012791 87 135 65
0.0614889 -0.191708 -0.0140823 86 131 63
0.0616534 -0.192271 -0.016002 86 132 62
0.061399 -0.192757 -0.0176142 87 133 63
0.0624084 -0.193487 -0.0201967 90 139 65
0.0634295 -0.194226 -0.0228085 93 148 69
0.0640317 -0.194888 -0.0251161 97 156 73
0.0650726 -0.195642 -0.0277825 103 164 77
0.0656882 -0.196318 -0.0301349 110 173 82
0.0649964 -0.196735 -0.0314647 109 170 81
0.0651767 -0.19733 -0.0334926 100 155 72
0.0649199 -0.197838 -0.0351787 87 136 62
0.0642252 -0.198257 -0.036514 75 123 55
0.0639668 -0.198767 -0.0382067 67 114 52
0.0637076 -0.199279 -0.0399042 66 109 49
0.0634477 -0.199792 -0.0416066 62 110 47
0.0631871 -0.200306 -0.0433139 59 110 46
0.0633642 -0.200917 -0.0453967 58 115 49
0.0639836 -0.201628 -0.0478676 62 120 53
0.0637217 -0.202149 -0.049599 67 126 56
0.0634591 -0.202672 -0.0513353 71 128 58
0.0631957 -0.203197 -0.0530767 71 126 57
0.0624892 -0.203623 -0.0544348 67 119 53
0.0617828 -0.20405 -0.0557928 63 110 48
0.0615166 -0.204577 -0.057543 60 109 45
0.0608093 -0.205004 -0.0589028 57 108 44
0.0605415 -0.205534 -0.0606601 56 108 43
0.0607138 -0.206169 -0.0628246 53 107 41
0.0600035 -0.206597 -0.0641902 50 106 38
0.0601748 -0.207237 -0.0663715 46 105 34
0.0603473 -0.207881 -0.0685657 38 101 30
0.0596329 -0.208312 -0.0699391 31 97 26
0.0598043 -0.208961 -0.0721505 28 99 27
0.0590878 -0.209394 -0.0735279 34 104 34
0.0583714 -0.209826 -0.0749052 45 109 41
0.0563378 -0.209927 -0.0750087 56 115 45
0.0547553 -0.210136 -0.0755328 61 121 50
0.0536127 -0.210454 -0.076476 64 131 59
0.0529028 -0.210883 -0.0778406 68 139 65
0.0513376 -0.211088 -0.0783536 69 144 68
0.05063 -0.211515 -0.079714 66 142 67
0.0503473 -0.212055 -0.0815034 63 139 67
0.0500639 -0.212596 -0.083298 62 136 62
0.0493543 -0.213024 -0.0846621 61 130 57
0.0486448 -0.213453 -0.0860262 60 127 55
0.0479353 -0.213881 -0.0873901 62 126 54
0.0468049 -0.214193 -0.0883134 65 125 55
0.0456779 -0.214504 -0.0892338 71 123 59
0.0437254 -0.214582 -0.0892714 67 123 54
0.0426097 -0.214891 -0.0901848 67 122 51
0.0427291 -0.215549 -0.0924216 69 120 51
0.0223265 -0.212087 -0.0783731 74 103 59
0.0209546 -0.212275 -0.0788478 74 91 61
0.0202966 -0.212672 -0.0801128 73 74 60
0.0196387 -0.213069 -0.0813777 70 68 56
0.0193335 -0.213573 -0.0830441 69 66 56
0.0190275 -0.214078 -0.0847151 68 65 56
0.0190746 -0.214694 -0.0867991 66 65 55
0.0617651 -0.187271 -0.00419906 110 157 79
0.0619283 -0.187815 -0.0060705 102 155 77
0.0616767 -0.18829 -0.00765148 99 150 72
0.0610094 -0.188693 -0.00893417 96 147 69
0.0607562 -0.189169 -0.0105212 91 141 66
0.0600882 -0.189572 -0.0118055 87 135 65
0.0610802 -0.190278 -0.0143303 87 132 63
0.0608255 -0.19076 -0.0159357 88 134 62
0.0609884 -0.191321 -0.0178634 90 138 64
0.0619955 -0.192043 -0.0204474 93 142 67
0.0630142 -0.192773 -0.0230607 95 148 72
0.0636147 -0.19343 -0.0253696 98 155 74
0.064653 -0.194176 -0.0280375 104 162 75
0.0648313 -0.19476 -0.030047 105 168 77
0.064575 -0.195262 -0.031721 105 165 78
0.064318 -0.195766 -0.0333998 103 163 78
0.0644965 -0.196359 -0.0354363 97 153 73
0.0638018 -0.196778 -0.0367717 86 139 64
0.0635427 -0.197286 -0.0384649 76 125 56
0.0632828 -0.197795 -0.0401629 73 119 54
0.0630223 -0.198306 -0.0418658 69 117 52
0.062761 -0.198819 -0.0435736 64 112 49
0.0642579 -0.199705 -0.0467768 60 113 49
0.0639963 -0.200223 -0.0485068 59 115 50
0.0641775 -0.200839 -0.0506234 60 118 51
0.0639146 -0.201362 -0.0523665 63 121 52
0.063651 -0.201887 -0.0541147 65 122 53
0.0629424 -0.202314 -0.0554769 66 118 52
0.0622339 -0.202742 -0.056839 66 113 50
0.0619676 -0.203269 -0.0585962 64 112 47
0.0617006 -0.203798 -0.0603585 62 112 48
0.0609901 -0.204227 -0.0617244 59 110 50
0.0616085 -0.204962 -0.0643046 57 108 50
0.0617853 -0.205601 -0.0664962 57 108 47
0.0624122 -0.206348 -0.0691173 56 108 43
0.0621425 -0.206888 -0.0709189 50 105 40
0.0614226 -0.207323 -0.0723028 43 102 33
0.0611511 -0.207866 -0.0741117 41 102 34
0.0604302 -0.208301 -0.0754975 43 104 38
0.0592633 -0.208626 -0.076454 43 104 38
0.0572165 -0.208733 -0.0765511 43 105 36
0.0556242 -0.208947 -0.077073 43 109 35
0.054475 -0.209268 -0.0780182 46 112 37
0.0528981 -0.20948 -0.0785332 51 113 40
0.0517583 -0.209799 -0.0794718 54 113 39
0.0510485 -0.210228 -0.0808364 55 113 39
0.0503387 -0.210656 -0.0822008 54 113 39
0.0504818 -0.211308 -0.0844347 54 116 42
0.0497701 -0.211737 -0.085803 56 119 44
0.0490584 -0.212167 -0.0871712 57 124 48
0.0479229 -0.212483 -0.0880977 64 133 56
0.0467908 -0.212797 -0.0890214 77 145 69
0.0460814 -0.213226 -0.0903853 95 158 81
0.0449538 -0.213539 -0.091304 112 157 72
0.0430016 -0.213621 -0.0913325 121 140 68
0.0439533 -0.21451 -0.0944763 117 119 64
0.0226379 -0.210888 -0.0794183 85 86 68
0.0216182 -0.211183 -0.0802905 82 92 70
0.0206014 -0.211478 -0.0811602 82 97 71
0.0199416 -0.211876 -0.0824286 83 106 75
0.0196359 -0.21238 -0.0841013 88 113 75
0.0193295 -0.212885 -0.0857784 94 121 73
0.0193775 -0.213499 -0.0878714 99 126 72
0.0212226 -0.214664 -0.0920694 108 133 74
0.0238428 -0.21608 -0.0972173 116 140 73
0.0449675 -0.183119 0.00725137 108 159 80
0.0606965 -0.186257 -0.00572131 101 156 78
0.0608568 -0.186798 -0.00759698 97 151 73
0.0606036 -0.187272 -0.0091801 94 147 71
0.0603499 -0.187747 -0.0107675 90 140 67
0.0596818 -0.18815 -0.012052 88 134 64
0.0606714 -0.188847 -0.0145782 88 133 62
0.0604161 -0.189327 -0.0161842 90 136 63
0.0605779 -0.189884 -0.0181126 93 141 66
0.061161 -0.190521 -0.0203745 96 145 69
0.0625988 -0.191321 -0.023313 98 149 73
0.0631975 -0.191971 -0.025623 102 155 75
0.0642335 -0.192708 -0.0282925 107 163 76
0.0639769 -0.193206 -0.0299593 106 165 77
0.0637196 -0.193706 -0.0316309 105 160 74
0.0638958 -0.194291 -0.0336566 102 155 72
0.0636374 -0.194794 -0.0353407 96 152 72
0.0633783 -0.195298 -0.0370295 88 145 69
0.0631185 -0.195804 -0.0387232 82 138 63
0.062858 -0.196312 -0.0404217 79 132 58
0.0625968 -0.196821 -0.042125 76 129 57
0.0627718 -0.19742 -0.0442016 77 126 55
0.0642709 -0.198297 -0.0474143 72 123 54
0.0644528 -0.198908 -0.0495279 66 118 51
0.0641902 -0.199428 -0.0512696 61 116 49
0.063927 -0.199949 -0.0530164 61 116 49
0.063663 -0.200473 -0.0547683 61 116 49
0.0633983 -0.200997 -0.0565253 62 115 51
0.0626876 -0.201426 -0.0578915 62 115 51
0.061977 -0.201855 -0.0592577 62 114 50
0.0617095 -0.202383 -0.0610237 63 115 51
0.061886 -0.203012 -0.0631993 63 114 51
0.0620636 -0.203644 -0.0653878 65 117 52
0.0626916 -0.204383 -0.0680041 68 120 53
0.0624222 -0.20492 -0.0698042 69 119 52
0.0630557 -0.205669 -0.0724561 66 116 50
0.0623325 -0.206106 -0.0738465 60 110 44
0.0616093 -0.206542 -0.0752367 59 108 44
0.0608862 -0.206979 -0.0766268 47 102 37
0.059715 -0.207308 -0.0775846 36 97 29
0.0581031 -0.207528 -0.0781075 34 97 27
0.0565008 -0.207746 -0.0786272 40 103 30
0.0549082 -0.207964 -0.0791437 42 107 33
0.0533252 -0.20818 -0.079657 42 109 39
0.0521813 -0.208502 -0.0805968 44 113 44
0.0510408 -0.208823 -0.0815338 44 117 48
0.0507575 -0.209362 -0.0833341 45 122 48
0.051764 -0.210233 -0.086459 49 125 49
0.0510479 -0.210666 -0.0878356 51 123 49
0.0499025 -0.210986 -0.088767 55 133 52
0.0487606 -0.211305 -0.0896954 66 149 64
0.0480468 -0.211735 -0.0910676 84 167 79
0.0469095 -0.212053 -0.091991 102 177 86
0.0457756 -0.212369 -0.0929116 122 172 80
0.0446451 -0.212684 -0.0938293 121 161 84
0.0439347 -0.213113 -0.095195 115 155 87
0.0470214 -0.214594 -0.100698 108 159 90
0.0213185 -0.210988 -0.084704 110 180 90
0.0206542 -0.211389 -0.0859814 110 169 81
0.0221505 -0.212428 -0.0897481 112 165 77
0.0281701 -0.214823 -0.0987964 113 162 74
0.024104 -0.214224 -0.0961708 112 158 73
0.0241669 -0.214858 -0.0983471 113 156 72
0.045695 -0.181962 0.00622685 107 166 84
0.046554 -0.182587 0.00394074 98 156 76
0.0596279 -0.185243 -0.00724368 95 152 71
0.0601978 -0.185851 -0.00942607 91 144 68
0.0599434 -0.186324 -0.011014 90 137 65
0.0609345 -0.187011 -0.0135346 88 134 64
0.0606794 -0.187488 -0.0151393 88 134 64
0.0600066 -0.187895 -0.0164326 91 138 66
0.0601672 -0.188448 -0.0183619 94 143 69
0.0607486 -0.189079 -0.0206249 98 148 71
0.061335 -0.189715 -0.0229073 101 152 72
0.0623527 -0.190434 -0.0255423 106 158 74
0.0638137 -0.191241 -0.0285476 108 163 77
0.0631248 -0.191657 -0.029872 108 163 78
0.0628666 -0.192154 -0.0315412 106 159 75
0.06304 -0.192733 -0.0335637 101 154 72
0.0632145 -0.193316 -0.035598 94 148 68
0.0629547 -0.193819 -0.0372873 87 140 64
0.06226 -0.194238 -0.0386228 83 135 60
0.0619986 -0.194743 -0.0403188 80 132 58
0.0621713 -0.195335 -0.0423843 79 130 58
0.062345 -0.19593 -0.0444617 82 138 62
0.0642838 -0.196886 -0.0480538 82 139 63
0.064466 -0.197493 -0.0501725 81 132 57
0.064203 -0.198012 -0.0519178 73 124 54
0.0639394 -0.198532 -0.0536683 67 117 51
0.063675 -0.199054 -0.0554238 63 113 49
0.0629642 -0.199483 -0.0567903 60 112 49
0.0622535 -0.199912 -0.0581567 58 112 49
0.0619862 -0.200437 -0.0599213 58 113 50
0.0617184 -0.200963 -0.061691 61 116 50
0.0618951 -0.201589 -0.063872 62 116 50
0.0625213 -0.202317 -0.0664776 67 120 51
0.0627019 -0.202952 -0.0686892 72 127 55
0.0633366 -0.203692 -0.0713364 78 132 60
0.0630665 -0.204231 -0.0731525 81 132 61
0.0623422 -0.204669 -0.074545 75 123 56
0.0620703 -0.205211 -0.0763686 65 111 51
0.061345 -0.205649 -0.0777631 57 104 34
0.0601695 -0.205981 -0.0787221 45 100 31
0.0589976 -0.206311 -0.0796781 45 101 33
0.0569428 -0.206429 -0.0797612 47 105 35
0.0562231 -0.206863 -0.0811448 42 107 34
0.0546266 -0.207084 -0.0816552 35 108 36
0.0534737 -0.20741 -0.0825978 33 110 40
0.0527574 -0.207843 -0.0839749 34 112 40
0.053782 -0.20871 -0.0871227 37 115 39
0.0539378 -0.209367 -0.0894056 39 116 38
0.0532151 -0.209803 -0.0907948 36 118 37
0.0516207 -0.210015 -0.0912779 35 123 40
0.050036 -0.210227 -0.0917579 46 127 44
0.0493179 -0.21066 -0.0931386 55 133 50
0.0481717 -0.210981 -0.0940644 63 140 57
0.0474548 -0.211414 -0.0954428 75 149 67
0.0467379 -0.211847 -0.096821 82 159 77
0.0464459 -0.212394 -0.0986599 85 160 79
0.0465793 -0.213059 -0.10097 87 160 78
0.0303571 -0.2135 -0.0999558 93 145 61
0.0288945 -0.213693 -0.100391 94 146 64
0.0270601 -0.213773 -0.100379 93 147 67
0.0456829 -0.180677 0.00572861 108 171 89
0.0461686 -0.181237 0.00370731 101 156 75
0.0592237 -0.183827 -0.00748856 96 147 70
0.0602051 -0.184497 -0.00997575 93 144 68
0.0595369 -0.1849 -0.0112604 90 138 65
0.0605256 -0.18558 -0.0137826 89 135 65
0.0606873 -0.186126 -0.0157019 88 138 68
0.0608499 -0.186675 -0.017632 91 141 70
0.0610135 -0.187227 -0.019573 95 145 71
0.0603361 -0.187636 -0.0208754 99 150 72
0.0604988 -0.188192 -0.0228309 103 155 73
0.0615103 -0.188902 -0.0254618 107 161 75
0.0625334 -0.189619 -0.028123 107 163 78
0.062705 -0.190189 -0.0301272 108 163 79
0.0620161 -0.190606 -0.0314517 107 157 76
0.0621867 -0.19118 -0.0334712 99 151 72
0.0619265 -0.191677 -0.0351503 92 144 66
0.0620977 -0.192257 -0.0371892 88 137 62
0.0618363 -0.192758 -0.0388808 84 132 60
0.0615743 -0.193261 -0.0405773 79 129 59
0.0617456 -0.193849 -0.0426436 78 131 59
0.0619181 -0.19444 -0.0447219 80 136 61
0.0638531 -0.195382 -0.0483164 85 145 64
0.0640339 -0.195985 -0.0504359 90 151 68
0.0642158 -0.196591 -0.052568 89 144 64
0.0639517 -0.19711 -0.0543221 82 132 59
0.0632409 -0.19754 -0.0556888 72 120 53
0.06253 -0.197969 -0.0570554 64 112 49
0.0622631 -0.198491 -0.0588185 59 108 46
0.0619956 -0.199014 -0.0605868 58 109 44
0.0617273 -0.199539 -0.0623603 58 112 44
0.0619042 -0.200162 -0.0645467 59 114 45
0.0625314 -0.200885 -0.0671594 62 118 50
0.0627122 -0.201516 -0.0693766 68 125 55
0.0633479 -0.20225 -0.072031 76 133 60
0.0626234 -0.202688 -0.0734237 82 138 63
0.0623519 -0.203227 -0.0752457 83 134 62
0.0620795 -0.203768 -0.0770732 75 123 53
0.061353 -0.204207 -0.07847 66 113 43
0.0606266 -0.204645 -0.0798665 58 107 43
0.0594504 -0.204979 -0.0808238 53 105 42
0.0582778 -0.205312 -0.0817781 49 104 37
0.0575538 -0.205749 -0.0831701 43 105 32
0.0568298 -0.206187 -0.0845621 36 106 32
0.0561058 -0.206624 -0.085954 33 106 34
0.0558248 -0.207169 -0.0877942 33 106 33
0.0564333 -0.207933 -0.090548 33 105 31
0.0557051 -0.208373 -0.091948 31 107 30
0.0549769 -0.208813 -0.093348 26 109 30
0.053365 -0.20903 -0.093827 28 112 29
0.0522003 -0.209357 -0.0947621 33 114 31
0.0510393 -0.209683 -0.0956943 36 115 36
0.0503157 -0.21012 -0.0970853 41 117 40
0.0491594 -0.210444 -0.0980124 49 120 43
0.048437 -0.210881 -0.0994011 56 126 47
0.0460052 -0.210864 -0.0989312 65 127 50
0.0469925 -0.211753 -0.102178 72 130 53
0.0471284 -0.21242 -0.104513 79 133 55
0.046834 -0.212974 -0.106383 85 135 56
0.0299314 -0.212025 -0.100219 91 146 67
0.02847 -0.212222 -0.100653 86 143 66
0.0266373 -0.212308 -0.10064 83 141 66
0.0460434 -0.179447 0.0049611 115 174 93
0.0461569 -0.179945 0.00320294 103 155 75
0.0588195 -0.182412 -0.0077335 96 148 72
0.0597986 -0.183073 -0.0102222 92 144 70
0.0591303 -0.183477 -0.0115069 90 140 69
0.0605333 -0.184216 -0.0143425 90 136 66
0.0602772 -0.18469 -0.0159507 90 140 67
0.060858 -0.185305 -0.0182008 93 142 68
0.060601 -0.185783 -0.0198234 98 145 70
0.0607644 -0.186335 -0.0217761 102 152 72
0.0609288 -0.186889 -0.0237399 105 157 75
0.0602475 -0.1873 -0.0250496 107 162 78
0.0608351 -0.187933 -0.027364 107 163 78
0.0614278 -0.188571 -0.0296982 109 161 78
0.0611679 -0.189062 -0.0313626 105 155 77
0.0609072 -0.189554 -0.0330316 96 149 72
0.0610747 -0.190125 -0.0350556 91 142 66
0.0612431 -0.1907 -0.0370914 87 135 63
0.0614126 -0.191278 -0.0391388 81 130 61
0.0611499 -0.191778 -0.0408358 77 128 58
0.0613199 -0.192362 -0.042903 77 129 57
0.061491 -0.192949 -0.0449822 81 134 60
0.0634223 -0.193878 -0.048579 87 143 64
0.0636017 -0.194477 -0.0506994 96 157 72
0.0637823 -0.195079 -0.0528324 104 164 75
0.0635175 -0.195596 -0.054587 102 156 72
0.0628066 -0.196025 -0.0559538 88 137 62
0.0620957 -0.196454 -0.0573205 75 122 54
0.0618282 -0.196974 -0.0590842 67 112 47
0.0615599 -0.197495 -0.060853 62 106 42
0.0612909 -0.198018 -0.062627 57 107 43
0.0614665 -0.198636 -0.0648142 56 109 44
0.0625413 -0.199448 -0.0678433 56 113 46
0.0627224 -0.200075 -0.070066 59 118 50
0.0629047 -0.200707 -0.0723021 65 125 54
0.0626335 -0.201243 -0.0741226 72 131 58
0.0623615 -0.201781 -0.0759486 77 132 60
0.0620887 -0.20232 -0.0777801 75 127 57
0.061361 -0.20276 -0.079179 68 118 51
0.0606335 -0.203199 -0.0805779 61 107 43
0.0594554 -0.203536 -0.0815356 57 105 41
0.058729 -0.203975 -0.0829321 54 104 39
0.058451 -0.204517 -0.0847737 51 104 35
0.0577236 -0.204957 -0.0861722 47 106 34
0.0578925 -0.205607 -0.0884736 39 106 34
0.0585142 -0.20637 -0.0912476 36 104 32
0.0586869 -0.20703 -0.0935822 31 102 29
0.0579519 -0.207474 -0.0949953 26 101 28
0.0572169 -0.207918 -0.0964083 23 103 28
0.0555833 -0.20814 -0.0968826 27 109 30
0.0539596 -0.208361 -0.0973537 33 110 35
0.0527869 -0.208691 -0.0982892 38 111 40
0.0520578 -0.209131 -0.099691 45 113 45
0.0508899 -0.20946 -0.100621 54 118 49
0.0479936 -0.209341 -0.099674 60 126 53
0.0472712 -0.209777 -0.101063 67 131 55
0.0474079 -0.210439 -0.103394 72 133 58
0.0471138 -0.21099 -0.105263 75 134 59
0.0463883 -0.211428 -0.106658 76 134 60
0.0448079 -0.211636 -0.107094 78 134 61
0.0436602 -0.211958 -0.108005 74 132 60
0.0392956 -0.212026 -0.107439 67 125 56
0.0313642 -0.210454 -0.100494 64 121 55
0.0295056 -0.210549 -0.100482 61 118 52
0.0284287 -0.210858 -0.101364 59 115 49
0.0265936 -0.21095 -0.101347 58 112 44
0.0464056 -0.178209 0.00418951 119 174 91
0.0461452 -0.178649 0.00269715 106 155 76
0.0575994 -0.180872 -0.00738093 98 151 74
0.0589799 -0.181586 -0.0101643 93 145 74
0.0587236 -0.182053 -0.0117535 90 140 70
0.0601237 -0.182782 -0.0145909 92 140 67
0.0602844 -0.183321 -0.0165154 94 142 69
0.0604461 -0.183863 -0.0184508 96 143 68
0.0601884 -0.18434 -0.0200738 99 147 70
0.0599301 -0.184818 -0.0217015 103 154 74
0.0596712 -0.185298 -0.0233336 107 158 76
0.0606778 -0.185991 -0.0259677 109 160 77
0.060843 -0.186547 -0.0279545 109 162 77
0.0601578 -0.186961 -0.0292718 109 159 77
0.060322 -0.187522 -0.0312737 104 155 75
0.0600605 -0.188011 -0.0329403 97 148 71
0.0602252 -0.188578 -0.0349613 92 140 65
0.0603909 -0.189147 -0.0369939 86 134 62
0.0609888 -0.189798 -0.0393969 81 129 60
0.060294 -0.190217 -0.0407327 77 127 57
0.0608942 -0.190875 -0.0431624 78 129 56
0.0610639 -0.191458 -0.0452424 82 135 58
0.0629914 -0.192374 -0.0488417 87 142 65
0.0631695 -0.192968 -0.050963 93 154 72
0.0633487 -0.193566 -0.0530969 104 165 76
0.0626388 -0.193995 -0.0544618 109 172 80
0.0623724 -0.19451 -0.0562189 106 163 74
0.0616614 -0.19494 -0.0575857 94 145 64
0.0613931 -0.195457 -0.0593498 80 127 56
0.0611242 -0.195976 -0.0611191 67 113 51
0.0608545 -0.196497 -0.0628937 60 109 48
0.0614749 -0.197202 -0.0654915 58 108 46
0.0621009 -0.197913 -0.0681126 54 109 44
0.0622806 -0.198536 -0.0703362 54 111 45
0.0629152 -0.199258 -0.0729992 57 116 47
0.0626435 -0.199793 -0.0748237 62 122 51
0.062371 -0.20033 -0.0766537 67 125 55
0.0616433 -0.200769 -0.0780529 69 124 56
0.0609156 -0.201209 -0.0794519 67 118 53
0.060188 -0.201649 -0.0808508 61 109 49
0.0599116 -0.202189 -0.0826924 57 106 47
0.0596344 -0.20273 -0.0845395 57 105 41
0.0593564 -0.203274 -0.0863922 57 106 35
0.0599857 -0.204027 -0.0891612 53 108 36
0.0610802 -0.204893 -0.0924197 44 109 40
0.0612621 -0.205554 -0.0947762 41 107 37
0.0605213 -0.206001 -0.0962005 36 104 33
0.0602406 -0.206558 -0.0980997 30 100 30
0.0594987 -0.207006 -0.099526 29 102 31
0.0582991 -0.207343 -0.100473 36 109 37
0.0571032 -0.20768 -0.101417 40 111 42
0.0554599 -0.207904 -0.101878 45 114 46
0.0547228 -0.208349 -0.103295 50 116 49
0.0504431 -0.207908 -0.100896 53 121 53
0.0492795 -0.208238 -0.101823 54 127 59
0.0485527 -0.208677 -0.10322 57 131 62
0.0478259 -0.209116 -0.104618 56 129 61
0.0470992 -0.209555 -0.106015 55 126 58
0.0459426 -0.209881 -0.106932 53 122 53
0.0439386 -0.209983 -0.10689 51 119 51
0.0432164 -0.210419 -0.108279 47 117 45
0.0416527 -0.21063 -0.108708 46 116 44
0.0376254 -0.210171 -0.106297 45 114 43
0.032111 -0.209291 -0.102115 42 113 41
0.0298527 -0.209285 -0.101644 42 114 41
0.0283872 -0.209491 -0.102076 45 112 38
0.0265496 -0.209589 -0.102056 46 111 36
0.0463942 -0.176911 0.00368506 122 173 87
0.0461333 -0.177349 0.00218999 108 155 76
0.0466246 -0.1779 0.000138164 99 152 75
0.0569391 -0.17992 -0.00920015 95 149 76
0.0579063 -0.180567 -0.0116936 93 144 73
0.0597141 -0.181348 -0.0148393 94 142 69
0.0598736 -0.181883 -0.0167646 94 146 71
0.060034 -0.182421 -0.0187008 97 146 70
0.0597757 -0.182896 -0.0203244 101 150 72
0.0595168 -0.183372 -0.0219524 105 156 74
0.0592572 -0.18385 -0.023585 108 159 75
0.0598387 -0.184466 -0.0258868 109 160 75
0.0595782 -0.184948 -0.0275342 109 160 75
0.0597402 -0.185501 -0.0295257 108 158 76
0.0599031 -0.186058 -0.0315284 105 155 75
0.0592162 -0.186473 -0.0328493 99 148 71
0.0593781 -0.187034 -0.0348672 93 140 64
0.0595411 -0.187598 -0.0368967 86 132 60
0.0601344 -0.188241 -0.0392959 81 129 59
0.05987 -0.188737 -0.0409909 79 128 56
0.0600361 -0.189311 -0.0430557 81 131 56
0.060203 -0.189888 -0.0451325 85 137 59
0.0625604 -0.19087 -0.0491044 88 143 65
0.0627372 -0.19146 -0.0512266 93 149 70
0.0624715 -0.19197 -0.052974 101 159 74
0.0622051 -0.192482 -0.0547264 105 165 75
0.0614952 -0.192911 -0.0560914 104 163 75
0.061227 -0.193424 -0.0578509 100 159 74
0.0609581 -0.19394 -0.0596155 92 145 68
0.0606884 -0.194457 -0.0613854 79 129 58
0.0608618 -0.195063 -0.0635659 69 120 52
0.0610363 -0.195673 -0.0657595 66 116 51
0.0616604 -0.196378 -0.068382 62 112 48
0.06229 -0.197088 -0.0710283 59 111 45
0.0624712 -0.197712 -0.0732708 58 112 44
0.0626534 -0.198339 -0.075527 57 115 47
0.0619256 -0.198779 -0.0769264 59 118 50
0.0616516 -0.199315 -0.0787624 61 118 51
0.0609228 -0.199755 -0.0801637 61 117 50
0.060647 -0.200293 -0.0820072 59 111 50
0.0603704 -0.200833 -0.0838563 58 109 49
0.060093 -0.201374 -0.085711 60 109 47
0.0611846 -0.202221 -0.0889384 60 109 44
0.0613662 -0.202872 -0.0912773 56 107 41
0.0620117 -0.203631 -0.0940992 52 109 39
0.0617328 -0.204185 -0.0959982 53 111 44
0.0609896 -0.204634 -0.0974272 50 108 40
0.0607087 -0.205191 -0.0993342 44 105 36
0.0599644 -0.20564 -0.100765 40 104 37
0.0592203 -0.20609 -0.102196 39 105 38
0.0580174 -0.20643 -0.103142 37 105 36
0.0568182 -0.206769 -0.104084 38 107 36
0.0547198 -0.206887 -0.104055 38 108 33
0.0517539 -0.206787 -0.103069 38 109 32
0.0501421 -0.207012 -0.103521 38 110 33
0.0489754 -0.207344 -0.104447 38 108 32
0.0478123 -0.207675 -0.10537 36 109 32
0.0466528 -0.208005 -0.10629 34 108 28
0.0459261 -0.208444 -0.107687 34 109 28
0.0443445 -0.208663 -0.108121 34 109 29
0.0427726 -0.208879 -0.108553 34 110 29
0.0416297 -0.209205 -0.10946 37 111 34
0.0371881 -0.208654 -0.106567 37 111 36
0.0336588 -0.20833 -0.104671 37 111 35
0.0305917 -0.208118 -0.103268 41 111 36
0.0279612 -0.208014 -0.102339 46 109 35
0.0268865 -0.208328 -0.103218 46 109 35
0.0460076 -0.175556 0.00345096 121 173 84
0.0457461 -0.175993 0.00195546 107 159 77
0.0462358 -0.176538 -9.74163e-05 100 154 76
0.0553227 -0.178331 -0.00854503 96 152 76
0.0595616 -0.179447 -0.0134826 95 146 72
0.0593044 -0.179914 -0.0150878 96 147 72
0.0594626 -0.180445 -0.0170139 97 148 73
0.0596219 -0.180979 -0.0189509 100 148 73
0.059363 -0.181452 -0.0205749 103 153 74
0.0591035 -0.181926 -0.0222034 105 158 75
0.0588433 -0.182402 -0.0238365 107 160 75
0.0594229 -0.183012 -0.0261395 107 161 75
0.0591618 -0.183492 -0.0277873 106 160 76
0.0588999 -0.183973 -0.0294398 107 157 77
0.0590602 -0.184524 -0.0314395 107 153 75
0.0596469 -0.18515 -0.0337983 99 148 72
0.0593836 -0.185637 -0.0354734 92 139 66
0.0586936 -0.186054 -0.0367999 86 131 60
0.0592823 -0.186689 -0.0391953 81 130 58
0.059446 -0.187256 -0.0412491 81 130 56
0.0591803 -0.187751 -0.0429494 83 133 58
0.0593446 -0.188323 -0.045023 87 139 62
0.0621293 -0.189365 -0.0493672 90 145 66
0.0618635 -0.189871 -0.0511068 95 150 71
0.0620385 -0.190459 -0.0532381 100 159 73
0.0617713 -0.190968 -0.0549911 102 161 73
0.0610614 -0.191397 -0.0563562 103 159 73
0.0607925 -0.191909 -0.0581162 98 155 71
0.0605229 -0.192422 -0.0598813 90 147 68
0.0602525 -0.192937 -0.0616516 83 139 63
0.0604246 -0.193539 -0.0638331 79 133 59
0.0605977 -0.194145 -0.0660276 75 129 57
0.0612197 -0.194842 -0.0686514 72 123 53
0.0622995 -0.195636 -0.0717224 70 120 52
0.0629359 -0.196347 -0.0744001 66 117 48
0.062208 -0.196787 -0.0757997 60 115 48
0.0619344 -0.19732 -0.0776341 57 114 47
0.06166 -0.197855 -0.0794741 56 114 45
0.06093 -0.198296 -0.0808777 54 114 46
0.0606537 -0.198833 -0.0827252 55 112 48
0.0603766 -0.199371 -0.0845784 56 112 49
0.0605544 -0.200009 -0.0868897 59 113 50
0.0616522 -0.200851 -0.0901346 62 113 50
0.062299 -0.201601 -0.0929514 63 114 49
0.0624854 -0.202255 -0.0953209 65 119 50
0.0622064 -0.202808 -0.097228 68 122 51
0.0614608 -0.203259 -0.0986614 67 118 50
0.0607153 -0.203709 -0.100095 60 112 47
0.0599698 -0.20416 -0.101528 46 104 40
0.0592244 -0.20461 -0.102961 32 99 32
0.0580195 -0.204953 -0.103907 28 97 27
0.0568185 -0.205295 -0.10485 27 101 26
0.0542667 -0.205313 -0.104334 27 103 25
0.0530808 -0.205652 -0.105269 30 104 26
0.0505716 -0.205668 -0.104754 33 105 25
0.0489634 -0.205896 -0.105201 33 106 26
0.0477986 -0.20623 -0.106124 31 107 28
0.0470695 -0.206671 -0.107526 33 109 30
0.0459094 -0.207003 -0.108444 36 110 30
0.0447528 -0.207334 -0.109359 36 111 31
0.0431748 -0.207556 -0.109788 39 109 34
0.0411864 -0.207668 -0.109734 43 107 38
0.0379778 -0.207456 -0.108252 45 106 39
0.0344245 -0.207144 -0.106329 48 106 40
0.0321259 -0.20715 -0.105828 51 104 41
0.0286896 -0.206845 -0.103961 56 102 42
0.0268425 -0.206956 -0.103933 55 100 45
0.0459954 -0.174252 0.00294483 115 172 83
0.0453589 -0.174637 0.00172089 108 166 82
0.0454711 -0.175125 -5.56111e-05 101 157 77
0.0513476 -0.176422 -0.00613029 97 154 76
0.0591525 -0.178014 -0.0137306 97 151 72
0.0588946 -0.17848 -0.0153363 97 151 73
0.0590517 -0.179007 -0.0172632 99 152 74
0.0592097 -0.179537 -0.019201 102 152 74
0.0589502 -0.180008 -0.0208255 104 155 74
0.05869 -0.18048 -0.0224545 105 157 74
0.0584292 -0.180954 -0.024088 106 159 75
0.0590071 -0.181558 -0.0263921 106 159 76
0.0587453 -0.182035 -0.0280404 107 161 78
0.0584828 -0.182514 -0.0296934 105 162 80
0.0586418 -0.183062 -0.031694 99 150 75
0.0592266 -0.183681 -0.0340539 96 146 71
0.0589627 -0.184166 -0.0357295 90 138 66
0.0586981 -0.184653 -0.0374099 85 132 61
0.0588595 -0.185212 -0.0394528 83 131 58
0.0581666 -0.185631 -0.040785 83 133 59
0.058327 -0.186195 -0.0428434 86 136 62
0.0589185 -0.186835 -0.0452826 89 141 65
0.061259 -0.187784 -0.0492504 92 147 69
0.0614317 -0.188364 -0.0513702 96 153 73
0.0611643 -0.188869 -0.0531153 101 159 74
0.0608963 -0.189376 -0.0548656 105 161 76
0.0606275 -0.189884 -0.0566209 102 158 73
0.060358 -0.190394 -0.0583815 96 152 70
0.0600876 -0.190905 -0.0601471 89 144 65
0.0598165 -0.191417 -0.061918 84 135 60
0.0599873 -0.192015 -0.0641003 79 130 58
0.0601591 -0.192616 -0.0662957 76 130 57
0.060779 -0.193306 -0.0689209 74 132 56
0.0623088 -0.194179 -0.0724187 78 138 63
0.0624904 -0.194796 -0.0746726 80 134 57
0.0622172 -0.195326 -0.0765056 72 126 53
0.0619431 -0.195857 -0.0783441 65 118 46
0.061213 -0.196298 -0.0797478 58 113 43
0.060937 -0.196832 -0.0815939 54 110 44
0.0606604 -0.197368 -0.0834455 51 111 45
0.0608389 -0.198 -0.0857536 49 112 46
0.0619384 -0.198829 -0.0889916 54 114 48
0.0621226 -0.199471 -0.0913381 58 117 51
0.0627736 -0.200217 -0.0941695 62 122 54
0.0624948 -0.200768 -0.096075 67 129 57
0.0617492 -0.201219 -0.0975086 75 136 62
0.0610036 -0.201669 -0.0989421 80 138 63
0.060258 -0.20212 -0.100376 63 118 54
0.0595126 -0.20257 -0.101809 44 103 41
0.0587671 -0.203021 -0.103242 30 98 31
0.0580217 -0.203471 -0.104675 25 100 29
0.0563625 -0.203711 -0.105131 26 104 29
0.0551659 -0.204054 -0.10607 28 104 30
0.0530751 -0.204185 -0.106033 32 106 29
0.0505621 -0.20421 -0.105512 34 108 28
0.048515 -0.204339 -0.105477 34 108 29
0.0473507 -0.204676 -0.1064 35 109 32
0.0466216 -0.205116 -0.107802 42 108 33
0.0458925 -0.205557 -0.109204 52 108 39
0.0447343 -0.205891 -0.110119 61 108 46
0.0435795 -0.206224 -0.111032 61 105 48
0.0387745 -0.206248 -0.109952 62 97 50
0.0347934 -0.205842 -0.107533 63 93 48
0.0328835 -0.20596 -0.10749 62 87 46
0.0290356 -0.205564 -0.105139 62 81 46
0.0456081 -0.172895 0.00271031 108 168 83
0.0449715 -0.17328 0.00148627 111 172 87
0.0450827 -0.173764 -0.000290968 105 159 77
0.0451944 -0.174252 -0.00207756 100 155 75
0.0587432 -0.176582 -0.0139787 100 154 74
0.0593156 -0.17716 -0.0162148 101 154 73
0.0586407 -0.177568 -0.0175126 102 155 74
0.0587975 -0.178094 -0.0194512 104 156 74
0.0585373 -0.178563 -0.0210761 105 159 74
0.0582765 -0.179034 -0.0227055 107 158 74
0.058015 -0.179505 -0.0243395 107 158 75
0.0590121 -0.180166 -0.0269797 106 158 76
0.0587499 -0.180642 -0.0286313 105 159 77
0.0584869 -0.18112 -0.0302876 104 157 76
0.0586461 -0.181665 -0.0322928 100 151 73
0.0588063 -0.182212 -0.0343096 96 142 70
0.0585417 -0.182696 -0.0359857 93 137 66
0.0582764 -0.18318 -0.0376665 87 132 61
0.0584366 -0.183735 -0.0397102 87 133 61
0.0585978 -0.184294 -0.0417657 88 138 64
0.0591903 -0.184926 -0.0442004 90 139 64
0.0584924 -0.185348 -0.0455423 92 144 66
0.0608285 -0.186281 -0.0495129 94 149 71
0.0609998 -0.186857 -0.0516335 98 155 74
0.0607318 -0.18736 -0.0533792 103 160 74
0.060463 -0.187864 -0.0551299 106 159 74
0.0601935 -0.18837 -0.0568858 99 153 70
0.0599233 -0.188878 -0.0586468 94 148 69
0.0596523 -0.189387 -0.060413 88 141 65
0.0593806 -0.189897 -0.0621843 83 134 61
0.0599931 -0.190571 -0.0647755 78 129 57
0.0601652 -0.191169 -0.0669764 75 128 55
0.0603383 -0.19177 -0.0691904 75 131 57
0.0618646 -0.192631 -0.0726904 80 139 60
0.0620449 -0.193243 -0.0749453 85 146 64
0.0622262 -0.193859 -0.0772138 86 146 64
0.061496 -0.1943 -0.0786177 78 134 57
0.0612204 -0.194831 -0.0804623 69 119 51
0.0609441 -0.195364 -0.0823124 61 111 47
0.0606669 -0.195898 -0.0841681 54 110 46
0.0613039 -0.19662 -0.086936 49 108 44
0.0624096 -0.197443 -0.0901916 51 111 43
0.0621314 -0.197987 -0.0920823 54 114 47
0.0627834 -0.198727 -0.0949216 57 120 51
0.0620377 -0.199178 -0.0963555 62 128 56
0.061292 -0.199629 -0.0977893 72 137 61
0.0605463 -0.200079 -0.0992229 75 138 63
0.0598007 -0.20053 -0.100657 57 114 47
0.0590551 -0.200981 -0.10209 39 102 33
0.0583096 -0.201431 -0.103523 31 101 27
0.0575642 -0.201882 -0.104957 30 104 29
0.0559065 -0.202126 -0.105411 32 106 32
0.0547105 -0.202472 -0.10635 33 106 34
0.0530693 -0.202714 -0.106798 36 109 33
0.0501114 -0.202646 -0.10579 39 110 33
0.0480663 -0.202782 -0.105753 40 111 35
0.047336 -0.203223 -0.107158 42 111 38
0.0466059 -0.203665 -0.108562 55 110 43
0.0454445 -0.204002 -0.10948 64 95 50
0.0447156 -0.204443 -0.110881 65 78 50
0.0431327 -0.204674 -0.111307 63 72 45
0.0355698 -0.204635 -0.109218 63 59 40
0.0289944 -0.204176 -0.105863 60 51 37
0.0445841 -0.171923 0.0012516 115 173 86
0.0443204 -0.172356 -0.000249036 108 161 77
0.0444299 -0.172839 -0.00203323 103 158 77
0.058748 -0.175203 -0.0145391 104 158 76
0.0589046 -0.175722 -0.0164641 106 158 76
0.0582295 -0.17613 -0.017762 106 158 76
0.0583852 -0.176652 -0.0197014 108 161 76
0.0581244 -0.177119 -0.0213268 107 161 76
0.057863 -0.177587 -0.0229567 108 159 75
0.0576009 -0.178057 -0.0245911 107 158 77
0.059017 -0.17877 -0.027569 105 158 77
0.0587544 -0.179245 -0.0292239 105 159 77
0.058491 -0.179722 -0.0308835 104 157 77
0.0586504 -0.180263 -0.0328935 101 150 73
0.0583859 -0.180743 -0.0345653 95 144 71
0.0581206 -0.181224 -0.0362419 92 138 64
0.0578547 -0.181707 -0.0379232 87 138 64
0.0580136 -0.182258 -0.0399678 85 138 66
0.0581735 -0.182812 -0.0420241 87 140 67
0.0587642 -0.183438 -0.0444601 90 141 65
0.0611029 -0.184352 -0.0484196 93 146 68
0.061275 -0.184922 -0.0505373 97 153 72
0.0605678 -0.185349 -0.0518969 102 157 73
0.0602991 -0.18585 -0.0536431 103 159 72
0.0600297 -0.186353 -0.0553943 103 156 71
0.0597596 -0.186856 -0.0571507 98 150 68
0.0594886 -0.187362 -0.0589123 94 146 67
0.0592169 -0.187868 -0.0606789 89 139 63
0.0593854 -0.188454 -0.0628546 82 133 59
0.059555 -0.189044 -0.0650433 76 128 56
0.0601712 -0.189718 -0.0676592 73 126 55
0.0603445 -0.190316 -0.0698786 75 130 58
0.0614204 -0.191083 -0.0729621 81 139 62
0.0620537 -0.191776 -0.0756499 87 151 70
0.0617792 -0.192302 -0.0774874 97 160 73
0.061049 -0.192743 -0.0788914 95 152 68
0.0607726 -0.193272 -0.0807365 83 135 59
0.0604955 -0.193802 -0.0825872 69 120 52
0.0606735 -0.194424 -0.0848929 60 114 49
0.0613115 -0.19514 -0.0876686 58 108 45
0.0619553 -0.195862 -0.0904701 53 108 41
0.0616764 -0.196404 -0.0923613 53 110 42
0.0613967 -0.196947 -0.0942584 53 114 46
0.0615804 -0.197588 -0.0966361 57 122 51
0.0608346 -0.198039 -0.09807 64 127 53
0.060089 -0.198489 -0.0995037 61 121 55
0.0593433 -0.19894 -0.100937 49 109 37
0.0585977 -0.199391 -0.102371 39 105 30
0.0578521 -0.199841 -0.103804 35 105 29
0.0571067 -0.200292 -0.105238 35 106 33
0.0554503 -0.200542 -0.105692 35 107 38
0.0538042 -0.20079 -0.106142 35 110 40
0.0526152 -0.201137 -0.107078 45 112 39
0.0496608 -0.201081 -0.106067 51 113 39
0.0476177 -0.201224 -0.10603 53 115 42
0.0468874 -0.201666 -0.107434 55 115 46
0.0461571 -0.202107 -0.108838 70 112 54
0.0454268 -0.202548 -0.110242 70 82 52
0.0442674 -0.202888 -0.111158 66 63 47
0.0441966 -0.170566 0.00101693 119 171 83
0.0439323 -0.170997 -0.000484124 110 164 80
0.0436674 -0.171429 -0.00198907 106 163 80
0.0583381 -0.173768 -0.0147876 108 163 78
0.0589095 -0.174336 -0.0170304 108 163 80
0.0582335 -0.174745 -0.0183303 110 163 78
0.0579728 -0.175209 -0.0199516 111 166 78
0.0577114 -0.175674 -0.0215775 109 164 78
0.0574493 -0.17614 -0.0232078 109 161 77
0.0571865 -0.176608 -0.0248428 108 160 78
0.0590219 -0.177369 -0.02816 106 159 78
0.0583364 -0.177784 -0.0294779 106 157 77
0.0584951 -0.178319 -0.0314812 105 154 75
0.0582307 -0.178796 -0.0331488 103 150 73
0.0579654 -0.179274 -0.0348211 98 145 69
0.0581241 -0.179816 -0.0368511 91 140 65
0.0578577 -0.180297 -0.0385358 90 138 64
0.0580168 -0.180845 -0.0405853 91 142 66
0.0581769 -0.181396 -0.0426465 90 140 65
0.0583379 -0.18195 -0.0447197 90 142 66
0.0611106 -0.182917 -0.0490609 95 148 70
0.060843 -0.183414 -0.0508006 101 155 73
0.0605746 -0.183912 -0.0525454 103 158 73
0.0603055 -0.184412 -0.0542952 101 157 72
0.0595963 -0.18484 -0.0556588 100 155 70
0.0593254 -0.185342 -0.0574157 97 149 69
0.0590538 -0.185845 -0.0591777 93 144 68
0.0592215 -0.186425 -0.0613459 88 137 62
0.0593902 -0.187007 -0.063527 81 131 57
0.0595601 -0.187594 -0.065721 75 126 55
0.0601771 -0.188262 -0.068344 73 126 55
0.0603507 -0.188856 -0.0705691 76 131 57
0.0614282 -0.189617 -0.0736615 81 139 60
0.0616073 -0.190221 -0.075923 87 148 66
0.0613321 -0.190745 -0.077761 96 159 71
0.0606018 -0.191186 -0.0791652 100 160 73
0.0603247 -0.191713 -0.0810108 91 144 65
0.0605018 -0.192327 -0.0833084 78 128 55
0.0602234 -0.192857 -0.0851687 66 120 51
0.060401 -0.193477 -0.0874895 61 114 49
0.0601213 -0.194012 -0.0893646 58 111 46
0.0607597 -0.19473 -0.092174 58 112 42
0.0604789 -0.195269 -0.0940679 55 114 45
0.0601973 -0.195811 -0.0959677 56 117 48
0.0589942 -0.196167 -0.0969226 59 118 49
0.0582519 -0.196616 -0.0983498 58 115 49
0.0575097 -0.197064 -0.0997769 53 112 42
0.0581402 -0.197801 -0.102652 51 109 40
0.0573946 -0.198251 -0.104086 50 110 42
0.0557372 -0.198507 -0.104543 50 112 44
0.0540901 -0.198762 -0.104998 52 114 45
0.0529006 -0.199112 -0.105935 53 116 47
0.05127 -0.199363 -0.106383 62 120 48
0.0487718 -0.199418 -0.105862 69 126 51
0.0476034 -0.199764 -0.106788 75 129 55
0.0464385 -0.200108 -0.10771 80 127 60
0.0457082 -0.200549 -0.109115 78 102 60
0.0449779 -0.200991 -0.110519 70 71 48
0.0438191 -0.201333 -0.111434 63 60 45
0.0438091 -0.169208 0.000782192 116 173 83
0.0431724 -0.169593 -0.00044205 108 170 84
0.0432787 -0.170068 -0.00222462 107 166 82
0.0579281 -0.172333 -0.0150362 109 166 81
0.0584977 -0.172895 -0.0172802 109 167 82
0.0578216 -0.173303 -0.0185801 112 167 81
0.0575603 -0.173765 -0.0202019 114 169 80
0.0572983 -0.174228 -0.0218282 111 166 79
0.0570356 -0.174693 -0.023459 111 163 79
0.0567722 -0.175158 -0.0250944 109 162 78
0.0586039 -0.175908 -0.0284139 107 160 76
0.0579185 -0.176322 -0.029732 105 156 75
0.0580758 -0.176853 -0.031736 104 154 74
0.0578107 -0.177328 -0.0334041 102 152 73
0.0579686 -0.177864 -0.0354273 98 146 70
0.0581274 -0.178403 -0.0374621 92 142 68
0.0582872 -0.178945 -0.0395086 92 142 68
0.0580198 -0.179428 -0.0412045 93 145 69
0.0577519 -0.179912 -0.0429054 95 143 66
0.0583414 -0.180526 -0.0453489 93 145 69
0.0606793 -0.181411 -0.0493238 97 152 73
0.0608501 -0.181974 -0.0514474 100 156 74
0.0605813 -0.18247 -0.0531958 99 156 73
0.0603118 -0.182969 -0.0549493 99 155 72
0.0600415 -0.183468 -0.056708 98 152 72
0.0593302 -0.183898 -0.0580756 96 147 70
0.058619 -0.184328 -0.0594432 90 142 69
