ply
format ascii 1.0
element vertex 1180
property float x
property float y
property float z
property uchar diffuse_red
property uchar diffuse_green
property uchar diffuse_blue
end_header
0.102477 -0.252931 -0.0224364 67 74 82
0.104055 -0.254527 -0.0256554 68 74 79
0.104397 -0.248863 -0.0206259 44 104 110
0.103384 -0.249768 -0.0213532 48 113 115
0.102803 -0.250782 -0.0224903 56 122 121
0.102222 -0.251795 -0.0236276 64 127 122
0.104672 -0.253618 -0.0277077 71 124 111
0.104961 -0.25488 -0.0297128 74 111 94
0.104812 -0.256029 -0.0312974 86 104 91
0.104661 -0.257181 -0.0328869 78 85 94
0.104071 -0.258212 -0.0340435 78 76 78
0.10348 -0.259243 -0.0352003 78 73 67
0.106474 -0.247126 -0.0223316 14 58 65
0.103711 -0.247611 -0.0214055 18 58 66
0.103129 -0.248626 -0.0225444 20 60 71
0.102548 -0.249641 -0.0236834 21 63 76
0.103695 -0.251104 -0.0264993 23 72 85
0.104417 -0.25247 -0.0289215 27 86 95
0.104267 -0.253613 -0.0305025 38 104 108
0.104555 -0.254879 -0.0325225 54 124 124
0.103965 -0.255909 -0.0336792 74 137 136
0.103813 -0.257063 -0.035275 90 128 111
0.103221 -0.258096 -0.0364336 89 96 86
0.10263 -0.259129 -0.0375923 83 71 71
0.150753 -0.249976 -0.0561571 11 49 51
0.105197 -0.246887 -0.0242646 12 46 47
0.104175 -0.247801 -0.024992 13 48 50
0.10359 -0.248823 -0.026138 12 49 54
0.10475 -0.25029 -0.0289861 12 50 56
0.104161 -0.251317 -0.0301392 13 51 56
0.10401 -0.25246 -0.0317245 16 57 62
0.103858 -0.253607 -0.0333148 18 76 80
0.103707 -0.254757 -0.0349101 40 105 114
0.103115 -0.25579 -0.0360688 61 132 129
0.102523 -0.256823 -0.0372275 75 125 115
0.101931 -0.257855 -0.0383864 79 98 90
0.101339 -0.258888 -0.0395453 76 72 68
0.151705 -0.248908 -0.0586701 14 48 52
0.151032 -0.250083 -0.0599886 13 46 54
0.108042 -0.246471 -0.028453 11 44 49
0.106115 -0.247182 -0.0283237 11 45 51
0.105084 -0.248103 -0.0290508 11 44 51
0.104494 -0.249132 -0.0302057 11 44 49
0.103904 -0.250161 -0.0313606 12 43 48
0.104192 -0.251419 -0.0333865 12 44 48
0.1036 -0.252451 -0.0345452 13 46 50
0.103447 -0.253601 -0.0361448 13 52 66
0.102855 -0.254636 -0.0373054 20 83 89
0.102262 -0.25567 -0.0384661 44 111 108
0.101233 -0.256582 -0.0391806 67 113 105
0.100641 -0.257615 -0.0403396 77 90 84
0.100049 -0.258648 -0.0414988 79 70 66
0.0994571 -0.259681 -0.042658 81 78 70
0.0988651 -0.260714 -0.0438173 84 79 70
0.098273 -0.261747 -0.0449767 83 73 65
0.106748 -0.246228 -0.0304103 10 46 50
0.105269 -0.247048 -0.0307044 11 46 49
0.104677 -0.24808 -0.0318629 12 43 49
0.104085 -0.249112 -0.0330215 12 41 47
0.103494 -0.250145 -0.0341802 12 42 45
0.103341 -0.251292 -0.0357794 11 43 45
0.103187 -0.252442 -0.0373835 7 44 46
0.102594 -0.253478 -0.038546 8 50 63
0.102 -0.254514 -0.0397086 17 74 82
0.10097 -0.255429 -0.0404224 37 92 99
0.100377 -0.256463 -0.0415834 65 95 103
0.099784 -0.257498 -0.0427445 99 96 93
0.0987585 -0.258407 -0.0434527 151 154 112
0.0981664 -0.25944 -0.0446122 136 137 117
0.0975742 -0.260474 -0.0457717 106 94 89
0.096982 -0.261507 -0.0469313 83 67 64
0.107388 -0.245266 -0.0325163 10 45 46
0.105899 -0.246092 -0.0328054 11 45 46
0.104861 -0.247021 -0.0335304 11 43 49
0.104268 -0.248057 -0.0346927 12 42 48
0.103674 -0.249092 -0.035855 12 42 44
0.103521 -0.250241 -0.0374618 10 42 42
0.102927 -0.251278 -0.0386261 8 40 40
0.102332 -0.252316 -0.0397905 9 41 46
0.101737 -0.253353 -0.040955 9 53 64
0.100706 -0.254272 -0.0416681 24 77 88
0.100112 -0.255308 -0.042831 49 106 114
0.0995179 -0.256344 -0.0439939 69 128 137
0.0984912 -0.257257 -0.0447016 98 155 166
0.0974675 -0.258167 -0.0454071 97 168 180
0.0968753 -0.2592 -0.0465668 89 122 123
0.096283 -0.260233 -0.0477266 79 81 76
0.0956907 -0.261267 -0.0488864 71 65 59
0.113553 -0.245576 -0.0400714 10 45 45
0.106088 -0.245022 -0.0344835 9 46 47
0.105047 -0.245956 -0.0352083 10 44 49
0.104451 -0.246994 -0.0363742 11 44 47
0.103856 -0.248033 -0.0375403 11 44 44
0.10326 -0.249072 -0.0387065 11 41 41
0.102665 -0.250111 -0.0398727 9 38 39
0.102069 -0.25115 -0.041039 10 37 41
0.101473 -0.25219 -0.0422054 8 40 50
0.100878 -0.253229 -0.0433719 10 54 68
0.0998457 -0.254149 -0.0440826 24 83 93
0.0992509 -0.255187 -0.0452475 50 119 119
0.0982229 -0.256103 -0.0459544 67 137 136
0.0976288 -0.257139 -0.0471176 79 147 140
0.0966048 -0.258051 -0.0478208 83 120 116
0.0960116 -0.259085 -0.0489824 80 91 84
0.0958464 -0.260248 -0.0506079 73 70 61
0.125001 -0.247037 -0.0529199 8 47 49
0.114574 -0.245872 -0.0444244 8 48 52
0.110684 -0.246171 -0.0423514 9 44 51
0.105977 -0.246248 -0.0394165 10 45 50
0.105377 -0.247295 -0.0405917 10 45 47
0.10433 -0.248231 -0.0413119 10 42 43
0.10373 -0.249276 -0.0424854 9 41 42
0.103131 -0.250322 -0.0436591 11 36 41
0.102532 -0.251367 -0.0448328 10 36 41
0.101932 -0.252413 -0.0460067 7 39 48
0.100892 -0.25334 -0.0467178 9 51 60
0.0998554 -0.254264 -0.0474269 20 69 75
0.0988216 -0.255186 -0.0481338 36 85 87
0.097791 -0.256105 -0.0488388 51 93 101
0.0967636 -0.257021 -0.0495416 66 111 109
0.0961684 -0.258059 -0.0507069 71 104 95
0.0955732 -0.259097 -0.0518723 70 83 73
0.0954068 -0.260264 -0.0535074 69 64 59
0.14551 -0.247774 -0.0709055 8 50 52
0.135786 -0.248256 -0.0652349 9 50 53
0.120619 -0.246093 -0.0520199 8 48 53
0.113233 -0.24562 -0.0464547 8 45 52
0.110281 -0.246141 -0.0452951 9 45 53
0.107832 -0.246763 -0.0446182 10 45 50
0.106316 -0.247599 -0.0448753 10 44 45
0.104809 -0.24843 -0.0451308 9 46 45
0.104206 -0.249482 -0.0463118 12 39 42
0.103603 -0.250535 -0.047493 10 35 37
0.102109 -0.251354 -0.0477399 9 31 35
0.101066 -0.252286 -0.0484507 8 32 39
0.0995869 -0.253096 -0.0486937 9 41 50
0.098552 -0.254021 -0.0494 13 59 68
0.0979541 -0.255064 -0.0505706 25 76 82
0.0969231 -0.255984 -0.0512731 42 98 100
0.0963261 -0.257026 -0.0524421 59 107 108
0.095729 -0.258067 -0.0536112 70 95 93
0.0955622 -0.259236 -0.0552541 72 68 62
0.135008 -0.246835 -0.066119 11 52 51
0.119877 -0.244737 -0.0528641 10 48 52
0.11488 -0.244836 -0.0496796 10 47 50
0.111891 -0.245368 -0.0484854 10 47 52
0.10895 -0.245891 -0.0473101 10 46 52
0.107421 -0.246735 -0.0475605 10 46 50
0.106356 -0.247685 -0.0482803 9 48 49
0.105295 -0.248632 -0.0489979 10 43 45
0.104688 -0.249691 -0.0501866 7 36 38
0.10363 -0.250634 -0.0509003 7 29 32
0.102129 -0.251457 -0.051138 8 27 30
0.100638 -0.252275 -0.0513742 7 34 37
0.0995949 -0.253207 -0.0520808 5 48 54
0.0989932 -0.254257 -0.0532589 14 67 72
0.0979542 -0.255184 -0.0539617 25 82 89
0.0969183 -0.256109 -0.0546623 47 104 104
0.0967525 -0.25728 -0.0563146 66 108 102
0.0965862 -0.258455 -0.0579719 74 90 84
0.0959843 -0.259504 -0.0591504 69 64 62
0.119627 -0.24349 -0.0542065 11 48 53
0.115105 -0.243715 -0.0514851 12 47 50
0.113527 -0.244582 -0.0517269 11 48 53
0.110082 -0.245007 -0.0500363 10 48 55
0.10854 -0.245859 -0.0502798 9 48 55
0.107467 -0.246817 -0.0509999 9 48 55
0.10594 -0.24766 -0.0512394 11 45 49
0.104875 -0.24861 -0.0519549 7 34 39
0.103364 -0.249443 -0.0521904 6 28 33
0.102308 -0.250387 -0.0529012 6 31 32
0.100812 -0.251211 -0.0531329 7 40 38
0.0997649 -0.252147 -0.0538391 7 47 50
0.0987214 -0.253081 -0.0545431 9 57 65
0.0976811 -0.254011 -0.0552452 14 72 78
0.0970793 -0.255061 -0.0564235 29 91 95
0.0964774 -0.256111 -0.0576019 52 107 109
0.0963103 -0.257285 -0.059264 69 106 106
0.0957074 -0.258337 -0.0604444 67 74 71
0.120504 -0.241242 -0.0548175 14 48 48
0.115956 -0.241497 -0.0520796 9 45 51
0.11437 -0.242374 -0.0523203 9 46 51
0.112795 -0.243246 -0.0525595 10 47 52
0.110759 -0.244004 -0.052311 9 48 54
0.109207 -0.244863 -0.0525484 8 51 57
0.108127 -0.245827 -0.0532686 10 54 59
0.106591 -0.246677 -0.0535022 14 48 56
0.10552 -0.247634 -0.0542176 9 31 39
0.104 -0.248474 -0.0544473 8 33 43
0.102488 -0.249309 -0.0546756 11 47 49
0.101432 -0.250254 -0.0553839 15 57 54
0.10038 -0.251197 -0.05609 14 56 58
0.0988888 -0.252018 -0.056312 9 49 60
0.0978449 -0.252954 -0.0570136 9 61 70
0.0972411 -0.254007 -0.0581957 17 76 84
0.0966373 -0.25506 -0.0593779 37 98 101
0.0964699 -0.256236 -0.0610481 60 111 110
0.095865 -0.257291 -0.0622323 71 96 94
0.095696 -0.258474 -0.0639097 71 68 62
0.1296 -0.24066 -0.0637157 15 47 48
0.119758 -0.239879 -0.0556661 13 48 48
0.115702 -0.240254 -0.0534102 8 46 50
0.114114 -0.241137 -0.0536471 9 46 50
0.113013 -0.242119 -0.0543747 11 47 51
0.111441 -0.242991 -0.0546076 10 50 56
0.109412 -0.243751 -0.0543495 10 59 62
0.108328 -0.24472 -0.0550692 14 66 65
0.107248 -0.245685 -0.0557867 12 50 61
0.105254 -0.246426 -0.0555253 12 44 49
0.104186 -0.247383 -0.0562377 22 63 69
0.102669 -0.248225 -0.0564613 31 77 78
0.101162 -0.249061 -0.0566835 31 77 75
0.100108 -0.250006 -0.0573889 24 65 67
0.0995002 -0.251066 -0.0585783 13 50 61
0.0984505 -0.252007 -0.0592797 9 53 64
0.0978437 -0.253065 -0.0604675 13 66 73
0.097237 -0.254123 -0.0616555 24 85 88
0.0970696 -0.255304 -0.0633372 42 103 104
0.0964619 -0.256363 -0.064527 64 113 109
0.0958541 -0.257423 -0.065717 70 88 81
0.0952463 -0.258483 -0.0669071 68 68 63
0.122646 -0.238015 -0.0583194 14 49 46
0.118025 -0.238314 -0.0555095 12 49 49
0.114963 -0.238907 -0.0542495 9 48 49
0.113378 -0.239793 -0.0544839 11 49 49
0.112278 -0.240777 -0.0552102 11 48 52
0.111181 -0.241759 -0.0559343 12 56 61
0.109618 -0.242631 -0.0561621 15 67 68
0.108065 -0.243498 -0.0563884 16 67 67
0.106983 -0.244467 -0.0571052 10 50 59
0.105905 -0.245433 -0.0578196 23 80 80
0.103917 -0.246175 -0.0575489 44 102 99
0.102399 -0.247022 -0.0577688 49 101 101
0.101338 -0.247975 -0.0584758 44 90 90
0.100281 -0.248926 -0.0591807 33 74 75
0.0992263 -0.249873 -0.0598834 20 59 65
0.0981752 -0.250818 -0.060584 11 50 60
0.0975675 -0.251877 -0.0617738 10 57 64
0.0974003 -0.253057 -0.0634584 15 71 76
0.0972326 -0.25424 -0.0651482 28 90 93
0.0966228 -0.255303 -0.0663421 48 109 110
0.0960131 -0.256366 -0.0675359 66 109 107
0.0958428 -0.257556 -0.0692351 68 78 74
0.095232 -0.258621 -0.070431 68 64 60
0.128714 -0.236714 -0.0641881 11 46 55
0.119392 -0.236146 -0.0566292 11 44 53
0.115818 -0.236662 -0.0548557 9 49 51
0.114225 -0.237558 -0.055089 8 47 53
0.112642 -0.23845 -0.0553208 12 49 55
0.111543 -0.239436 -0.0560459 12 57 63
0.110447 -0.240419 -0.0567688 22 72 73
0.108886 -0.241296 -0.056994 23 75 76
0.1078 -0.242272 -0.0577121 14 69 74
0.106717 -0.243244 -0.058428 23 80 83
0.105638 -0.244214 -0.0591416 48 112 113
0.103648 -0.244964 -0.0588643 48 111 114
0.10258 -0.245925 -0.0595729 46 103 108
0.101066 -0.246772 -0.0597867 44 94 97
0.100454 -0.247838 -0.0609838 39 83 83
0.0998429 -0.248904 -0.0621811 25 67 68
0.0987858 -0.249855 -0.0628816 13 50 59
0.0981752 -0.250919 -0.0640771 8 51 60
0.0980081 -0.252103 -0.0657733 12 61 67
0.0978404 -0.25329 -0.067475 19 75 81
0.0972278 -0.254358 -0.0686745 31 93 99
0.096615 -0.255426 -0.0698742 65 120 115
0.0960022 -0.256495 -0.0710739 70 90 86
0.0949493 -0.257435 -0.071762 69 70 66
0.119278 -0.233675 -0.0562385 9 48 57
0.115705 -0.234214 -0.0544688 7 48 57
0.114594 -0.235214 -0.0551999 7 50 56
0.113007 -0.236114 -0.0554317 7 50 56
0.111906 -0.237106 -0.0561579 6 56 66
0.110808 -0.238094 -0.0568818 20 75 77
0.109713 -0.23908 -0.0576034 25 83 87
0.108154 -0.23996 -0.0578261 24 80 87
0.107069 -0.240938 -0.058543 30 85 89
0.105988 -0.241913 -0.0592577 50 111 110
0.105369 -0.242991 -0.060468 50 119 122
0.104292 -0.243961 -0.0611786 47 107 111
0.102309 -0.244712 -0.0608919 46 103 107
0.101243 -0.245674 -0.0615975 47 100 101
0.100629 -0.246743 -0.0627986 41 87 86
0.100465 -0.247925 -0.0645007 20 63 64
0.100301 -0.249111 -0.0662083 13 49 55
0.0996851 -0.250184 -0.0674135 9 50 58
0.09997 -0.251495 -0.0696401 10 55 63
0.0998037 -0.252693 -0.0713642 18 65 72
0.0991851 -0.253771 -0.0725753 36 82 85
0.0985665 -0.25485 -0.0737865 73 116 104
0.0974994 -0.255802 -0.074477 71 97 95
0.0964355 -0.256751 -0.0751654 69 73 72
0.116706 -0.230761 -0.0533479 54 61 58
0.115592 -0.231767 -0.0540819 53 60 59
0.114481 -0.23277 -0.0548136 54 60 58
0.112894 -0.233678 -0.0550468 55 58 57
0.111793 -0.234674 -0.0557735 43 63 60
0.110695 -0.235666 -0.0564981 31 77 79
0.109601 -0.236656 -0.0572204 40 97 96
0.10851 -0.237642 -0.0579405 31 93 97
0.107422 -0.238625 -0.0586584 32 94 98
0.106338 -0.239605 -0.0593741 47 112 112
0.105258 -0.240582 -0.0600876 56 126 126
0.104639 -0.24166 -0.061298 47 107 113
0.104021 -0.242738 -0.0625085 46 104 108
0.102946 -0.243708 -0.0632162 47 102 106
0.102328 -0.244785 -0.0644249 48 97 97
0.101711 -0.245861 -0.0656337 39 79 76
0.101547 -0.247049 -0.0673513 18 52 52
0.100929 -0.248127 -0.0685622 10 49 51
0.10031 -0.249205 -0.0697732 9 49 55
0.100599 -0.250519 -0.0720181 12 54 62
0.0999779 -0.251601 -0.0732331 28 65 73
0.0993572 -0.252683 -0.0744483 55 79 83
0.0987365 -0.253765 -0.0756635 78 91 86
0.0976656 -0.254722 -0.0763533 73 85 84
0.0965981 -0.255676 -0.077041 70 71 65
0.109489 -0.234231 -0.0568374 52 102 102
0.108398 -0.235221 -0.0575581 36 96 103
0.107311 -0.236208 -0.0582767 34 96 103
0.106227 -0.237192 -0.058993 46 112 115
0.105607 -0.238272 -0.0602053 56 124 125
0.104528 -0.239251 -0.0609176 50 112 117
0.103909 -0.240328 -0.0621282 48 102 107
0.103291 -0.241406 -0.0633388 47 104 106
0.102673 -0.242484 -0.0645495 53 102 101
0.102511 -0.243669 -0.066268 45 80 81
0.101891 -0.244749 -0.0674808 33 56 59
0.101272 -0.245828 -0.0686937 25 45 47
0.101107 -0.247021 -0.0704219 22 50 51
0.100942 -0.248217 -0.0721557 16 50 52
0.100776 -0.249417 -0.0738951 14 54 60
0.100609 -0.250621 -0.0756402 32 68 74
0.0999855 -0.251708 -0.0768613 59 77 80
0.0993618 -0.252795 -0.0780825 70 65 63
0.0978328 -0.253635 -0.0782417 72 65 57
0.097211 -0.254719 -0.0794592 72 65 54
0.108907 -0.231718 -0.0559598 53 95 98
0.107819 -0.232711 -0.0566808 43 102 109
0.106734 -0.2337 -0.0573997 34 96 105
0.105653 -0.234686 -0.0581163 44 112 117
0.105034 -0.235764 -0.0593267 50 122 126
0.104416 -0.236841 -0.0605372 48 117 122
0.103798 -0.237919 -0.0617478 46 107 110
0.103637 -0.239097 -0.0634617 46 105 110
0.103018 -0.240176 -0.0646744 48 107 106
0.102856 -0.241359 -0.066396 57 86 91
0.102236 -0.242441 -0.0676108 63 69 66
0.101615 -0.243522 -0.0688257 65 59 47
0.101451 -0.244713 -0.0705569 62 55 46
0.101744 -0.246018 -0.0728152 55 52 54
0.10112 -0.247105 -0.0740362 37 53 54
0.100496 -0.248192 -0.0752573 31 54 56
0.100329 -0.249396 -0.0770074 44 60 61
0.0997043 -0.250485 -0.0782306 61 66 60
0.0990794 -0.251574 -0.0794539 66 63 51
0.108327 -0.229213 -0.0550849 54 93 91
0.107241 -0.230208 -0.0558062 46 110 112
0.106159 -0.2312 -0.0565254 34 98 106
0.105081 -0.232188 -0.0572424 41 108 113
0.104463 -0.233264 -0.0584509 51 123 127
0.104304 -0.234432 -0.0601568 51 119 124
0.103686 -0.23551 -0.0613674 46 108 113
0.103526 -0.236683 -0.0630808 45 104 108
0.102906 -0.237763 -0.0642935 45 103 109
0.102744 -0.238942 -0.0660146 54 97 95
0.102123 -0.240023 -0.0672294 64 74 69
0.10196 -0.241208 -0.068958 66 62 55
0.101338 -0.242291 -0.070175 64 60 51
0.101631 -0.243589 -0.0724321 65 60 50
0.101007 -0.244676 -0.0736531 68 62 55
0.100841 -0.245874 -0.0754007 64 63 53
0.100216 -0.246963 -0.0766238 63 61 50
0.100048 -0.248167 -0.0783792 66 62 50
0.108215 -0.226796 -0.054703 58 91 93
0.10713 -0.227794 -0.055425 51 111 111
0.106048 -0.22879 -0.0561448 39 103 109
0.104969 -0.229782 -0.0568624 39 104 109
0.103894 -0.230772 -0.0575778 53 125 126
0.103734 -0.231934 -0.0592796 52 121 125
0.103117 -0.23301 -0.0604884 48 109 115
0.102956 -0.234177 -0.0621977 46 103 108
0.102794 -0.235349 -0.0639126 47 103 106
0.102175 -0.236428 -0.0651255 54 99 101
0.102011 -0.237605 -0.0668479 60 74 76
0.101847 -0.238786 -0.068576 63 65 56
0.101226 -0.23987 -0.069793 68 64 51
0.107637 -0.224302 -0.0538314 61 88 90
0.106554 -0.225303 -0.0545537 54 106 111
0.105475 -0.226301 -0.0552738 44 106 115
0.104399 -0.227295 -0.0559917 42 102 110
0.103783 -0.228369 -0.0571984 50 118 123
0.103166 -0.229443 -0.0584052 52 123 127
0.10255 -0.230518 -0.0596121 49 112 116
0.102388 -0.231679 -0.0613174 46 104 108
0.102225 -0.232845 -0.0630282 46 103 106
0.102062 -0.234014 -0.0647445 50 96 102
0.101443 -0.235094 -0.0659575 57 76 87
0.101278 -0.236269 -0.0676814 65 65 61
0.100658 -0.23735 -0.0688966 69 62 54
0.107525 -0.221888 -0.05345 61 83 82
0.106443 -0.222892 -0.054173 55 105 107
0.105364 -0.223894 -0.0548937 47 109 115
0.104288 -0.224893 -0.0556122 40 101 112
0.103215 -0.225888 -0.0563286 46 112 120
0.1026 -0.226961 -0.0575335 53 126 132
0.101984 -0.228033 -0.0587386 48 113 120
0.102276 -0.229273 -0.0609375 47 106 111
0.102114 -0.230435 -0.0626478 47 104 107
0.101495 -0.231512 -0.0638588 50 100 101
0.101331 -0.23268 -0.0655766 57 88 87
0.100711 -0.233759 -0.0667897 61 68 67
0.100545 -0.234932 -0.0685151 68 64 58
0.107414 -0.219473 -0.0530686 62 80 78
0.106331 -0.220482 -0.0537922 57 106 105
0.105252 -0.221488 -0.0545136 48 111 115
0.104176 -0.22249 -0.0552328 41 106 113
0.10265 -0.223415 -0.0554615 42 111 116
0.101583 -0.22441 -0.056176 52 123 126
0.10142 -0.225556 -0.0578678 50 117 125
0.101257 -0.226706 -0.059565 47 106 115
0.101547 -0.227942 -0.0617667 46 103 110
0.101383 -0.229102 -0.0634784 50 101 103
0.101219 -0.230265 -0.0651956 57 90 87
0.100599 -0.231345 -0.0664088 62 73 67
0.0999791 -0.232424 -0.0676221 65 64 55
0.107302 -0.217059 -0.0526871 62 73 75
0.10622 -0.218071 -0.0534114 56 101 103
0.105141 -0.219081 -0.0541334 50 113 118
0.103608 -0.220018 -0.0543659 44 109 116
0.102086 -0.220949 -0.0545971 43 111 116
0.101472 -0.222018 -0.0557983 47 121 124
0.100858 -0.223087 -0.0569997 51 122 125
0.100245 -0.224156 -0.0582011 48 109 115
0.10008 -0.225302 -0.0598962 50 107 112
0.100818 -0.226611 -0.062596 51 102 107
0.100652 -0.227769 -0.0643092 57 90 94
0.100487 -0.22893 -0.0660279 62 76 74
0.0994148 -0.229924 -0.0667319 65 67 58
0.106264 -0.214523 -0.051336 65 75 74
0.105647 -0.215598 -0.0525445 56 94 99
0.10457 -0.21661 -0.0532668 52 114 121
0.103042 -0.217553 -0.0535018 45 109 119
0.101524 -0.218491 -0.0537353 45 109 117
0.100462 -0.21949 -0.0544503 49 119 123
0.0998503 -0.220556 -0.0556479 50 123 127
0.0996854 -0.221692 -0.0573338 47 112 118
0.0995199 -0.222833 -0.059025 46 105 110
0.0993538 -0.223977 -0.0607217 53 107 108
0.0996369 -0.225202 -0.0629238 57 96 100
0.0994701 -0.226356 -0.0646349 62 77 79
0.0993028 -0.227513 -0.0663515 65 66 63
0.105692 -0.212059 -0.0504737 67 71 68
0.105076 -0.213133 -0.0516804 60 86 89
0.103546 -0.214087 -0.0519203 55 118 120
0.102478 -0.215096 -0.0526404 44 112 121
0.100963 -0.21604 -0.0528763 44 108 118
0.0999043 -0.217041 -0.0535916 51 117 124
0.0992934 -0.218105 -0.0547874 53 122 126
0.0986825 -0.219169 -0.0559832 50 116 121
0.0985159 -0.220302 -0.057667 46 105 113
0.0983487 -0.221439 -0.0593562 45 103 110
0.098181 -0.222579 -0.0610509 53 102 101
0.0980127 -0.223723 -0.0627509 60 81 82
0.0982914 -0.224947 -0.0649598 65 66 64
0.104049 -0.21062 -0.0503388 62 83 81
0.102981 -0.211635 -0.0510613 56 110 110
0.101915 -0.212646 -0.0517816 48 119 125
0.100853 -0.213655 -0.0524997 42 109 116
0.0997939 -0.21466 -0.0532157 45 116 123
0.0987383 -0.215662 -0.0539294 52 123 128
0.0981283 -0.216725 -0.0551234 52 118 122
0.097961 -0.217852 -0.0568033 47 106 113
0.09735 -0.218916 -0.0579994 45 102 109
0.0971812 -0.220049 -0.0596866 47 101 106
0.0970118 -0.221185 -0.0613792 55 87 88
0.0972864 -0.222397 -0.0635768 62 67 65
0.103483 -0.208174 -0.0494822 62 77 76
0.10287 -0.209242 -0.0506834 57 101 105
0.101804 -0.210258 -0.0514043 52 120 127
0.100742 -0.21127 -0.052123 42 106 117
0.0996836 -0.212279 -0.0528396 42 114 118
0.0986281 -0.213284 -0.053554 50 125 127
0.098018 -0.214347 -0.0547482 50 119 124
0.0974079 -0.215409 -0.0559423 46 109 116
0.0967978 -0.216471 -0.0571365 45 104 109
0.0966283 -0.217598 -0.0588198 47 99 104
0.0964583 -0.218729 -0.0605084 52 92 93
0.0958461 -0.219795 -0.0617066 57 68 69
0.102919 -0.205735 -0.0486282 62 75 74
0.102307 -0.206801 -0.0498275 58 96 98
0.101244 -0.207819 -0.0505487 53 120 123
0.100184 -0.208833 -0.0512678 42 109 122
0.0995731 -0.209897 -0.0524636 42 108 118
0.0985178 -0.210907 -0.0531786 47 122 128
0.0974657 -0.211913 -0.0538916 50 124 128
0.0972976 -0.213031 -0.055567 47 113 118
0.0966874 -0.214093 -0.0567612 45 105 110
0.0960772 -0.215156 -0.0579556 47 103 106
0.0959066 -0.216281 -0.0596403 52 98 97
0.0952953 -0.217345 -0.0608367 55 77 77
0.102357 -0.203303 -0.0477769 64 72 69
0.101296 -0.204324 -0.0485002 61 92 91
0.100238 -0.205342 -0.0492212 54 115 115
0.0996276 -0.206404 -0.0504151 46 115 122
0.0985738 -0.207418 -0.0511322 41 105 115
0.0979647 -0.208478 -0.0523244 45 117 124
0.0973555 -0.209538 -0.0535167 52 126 131
0.0967463 -0.210599 -0.0547091 48 114 120
0.0961371 -0.21166 -0.0559016 46 105 112
0.0959668 -0.212777 -0.0575804 47 103 106
0.0953565 -0.21384 -0.0587749 51 99 98
0.0951847 -0.214963 -0.060461 58 86 80
0.0945733 -0.216027 -0.0616575 62 63 54
0.101347 -0.20084 -0.046458 66 70 67
0.100737 -0.201902 -0.0476517 60 86 85
0.0996819 -0.202922 -0.048373 55 110 111
0.0990728 -0.203982 -0.0495651 50 116 121
0.0980215 -0.204998 -0.0502825 42 107 115
0.0974133 -0.206057 -0.0514728 45 114 120
0.096805 -0.207116 -0.0526633 55 127 129
0.0966362 -0.208224 -0.0543343 48 115 123
0.0960268 -0.209285 -0.0555268 44 108 113
0.0954176 -0.210346 -0.0567194 45 104 108
0.095246 -0.211461 -0.0583996 51 101 102
0.0946357 -0.212524 -0.0595943 57 87 84
0.0940253 -0.213586 -0.060789 62 67 60
0.100181 -0.199487 -0.0468059 62 80 83
0.0995719 -0.200547 -0.0479979 56 106 111
0.0985198 -0.201568 -0.0487177 49 116 124
0.0979116 -0.202627 -0.049908 41 107 117
0.0973033 -0.203685 -0.0510985 43 112 118
0.0966951 -0.204744 -0.052289 52 125 128
0.0960867 -0.205803 -0.0534796 47 119 124
0.0954784 -0.206862 -0.0546703 44 108 115
0.0953073 -0.20797 -0.0563447 44 105 110
0.0946978 -0.209031 -0.0575374 48 104 106
0.0945252 -0.210145 -0.059219 55 89 93
0.0939147 -0.211207 -0.0604138 63 70 68
0.0996262 -0.19708 -0.0459627 63 76 72
0.099018 -0.198138 -0.0471529 59 105 104
0.0984099 -0.199197 -0.0483432 48 117 123
0.0978017 -0.200255 -0.0495336 41 110 121
0.0971934 -0.201314 -0.0507241 43 110 118
0.0965851 -0.202373 -0.0519147 47 123 127
0.0959767 -0.203431 -0.0531053 52 123 129
0.0953683 -0.20449 -0.0542961 46 108 114
0.0947599 -0.205549 -0.0554869 44 105 111
0.0945875 -0.206656 -0.0571626 46 103 107
0.0939781 -0.207716 -0.0583555 53 97 96
0.0933686 -0.208777 -0.0595485 62 78 70
0.0990732 -0.194679 -0.045122 73 68 67
0.0989082 -0.195766 -0.0467783 62 96 91
0.0983 -0.196825 -0.0479687 51 115 116
0.0976917 -0.197883 -0.0491591 43 111 118
0.0970834 -0.198942 -0.0503497 42 108 116
0.0964751 -0.200001 -0.0515403 48 121 125
0.0958667 -0.20106 -0.052731 54 126 129
0.0952582 -0.202118 -0.0539218 48 110 116
0.0946498 -0.203177 -0.0551127 45 106 111
0.0940412 -0.204236 -0.0563036 44 105 109
0.0938677 -0.205341 -0.0579808 53 103 101
0.0932581 -0.206402 -0.0591738 58 79 78
0.0926485 -0.207463 -0.0603669 62 65 59
0.0985219 -0.192286 -0.044284 62 67 62
0.0983563 -0.193368 -0.0459364 56 86 86
0.0977489 -0.194425 -0.047125 54 116 119
0.0975817 -0.195511 -0.0487846 45 111 119
0.0969734 -0.19657 -0.0499752 42 106 116
0.0959268 -0.197596 -0.0506911 47 116 123
0.0957566 -0.198687 -0.0523566 52 124 129
0.0951481 -0.199746 -0.0535475 49 115 122
0.0945396 -0.200805 -0.0547384 48 106 109
0.0939311 -0.201864 -0.0559294 46 105 112
0.0933225 -0.202923 -0.0571205 50 104 107
0.0927138 -0.203982 -0.0583116 58 80 87
0.0925381 -0.205087 -0.0599922 62 65 65
0.0919284 -0.206147 -0.0611854 64 60 58
0.097806 -0.190977 -0.0450971 60 74 82
0.0971996 -0.192032 -0.0462839 59 113 113
0.0970318 -0.193113 -0.0479396 47 113 121
0.0964244 -0.19417 -0.0491284 41 106 116
0.0958169 -0.195227 -0.0503172 45 113 121
0.0952094 -0.196284 -0.0515062 49 123 130
0.0946018 -0.197341 -0.0526952 48 120 127
0.0944296 -0.198433 -0.0543641 45 108 114
0.0938209 -0.199492 -0.0555551 45 103 110
0.0932123 -0.200551 -0.0567463 47 106 107
0.0926036 -0.20161 -0.0579375 53 93 94
0.0919949 -0.202669 -0.0591288 60 72 64
0.0913861 -0.203728 -0.0603202 63 61 53
0.0972575 -0.188593 -0.0442604 62 71 70
0.096652 -0.189646 -0.0454454 57 109 106
0.0964836 -0.190722 -0.0470973 49 116 119
0.0958771 -0.191777 -0.0482843 41 108 115
0.0952705 -0.192832 -0.0494713 42 112 120
0.0950995 -0.193915 -0.0511323 49 122 128
0.0944919 -0.194972 -0.0523214 51 120 126
0.0938843 -0.196029 -0.0535106 45 109 115
0.0937107 -0.197119 -0.0551808 45 106 110
0.0931021 -0.198178 -0.056372 48 106 106
0.0924933 -0.199237 -0.0575633 55 102 97
0.0918846 -0.200296 -0.0587546 62 77 70
0.0912758 -0.201356 -0.0599461 65 66 58
0.0967107 -0.186216 -0.0434262 61 70 67
0.0961061 -0.187268 -0.0446094 52 95 95
0.095937 -0.188338 -0.0462575 52 123 125
0.0953314 -0.189391 -0.0474427 42 107 114
0.0947258 -0.190445 -0.0486279 41 110 115
0.0945542 -0.191522 -0.0502851 49 123 127
0.0939475 -0.192578 -0.0514724 50 123 127
0.0937743 -0.19366 -0.0531367 46 113 118
0.0931666 -0.194718 -0.0543261 46 107 111
0.0929918 -0.195805 -0.0559977 47 107 109
0.0923831 -0.196864 -0.057189 54 102 101
0.0917743 -0.197923 -0.0583805 60 73 78
0.0911655 -0.198983 -0.0595719 63 63 59
0.0961655 -0.183846 -0.0425946 62 68 68
0.0955619 -0.184896 -0.043776 55 86 92
0.0953922 -0.185961 -0.0454203 52 119 122
0.0952219 -0.18703 -0.0470698 39 110 118
0.0946162 -0.188083 -0.0482551 39 108 114
0.0940105 -0.189137 -0.0494405 46 119 124
0.0934047 -0.190191 -0.050626 50 121 128
0.093231 -0.191268 -0.0522865 47 114 121
0.0926241 -0.192323 -0.053474 44 107 111
0.0924487 -0.193405 -0.0551417 46 106 108
0.0922728 -0.194491 -0.0568148 49 102 105
0.091664 -0.19555 -0.0580062 58 83 87
0.0910551 -0.196609 -0.0591977 68 62 56
0.0960565 -0.181491 -0.0422227 60 64 65
0.0954528 -0.182541 -0.0434041 60 78 84
0.094849 -0.183591 -0.0445856 57 114 116
0.0942452 -0.184642 -0.0457672 44 114 120
0.0940733 -0.185706 -0.0474148 38 106 114
0.0934685 -0.186759 -0.0485984 44 118 123
0.0928636 -0.187811 -0.0497821 48 124 130
0.0926892 -0.188882 -0.0514388 48 116 122
0.0920834 -0.189936 -0.0526245 45 107 113
0.0919074 -0.191013 -0.0542883 44 105 109
0.0917308 -0.192093 -0.0559574 49 104 104
0.0915537 -0.193177 -0.0576319 57 94 90
0.0909447 -0.194236 -0.0588235 62 68 63
0.0959474 -0.179136 -0.0418507 63 64 61
0.0949104 -0.18018 -0.0425738 58 80 77
0.0943075 -0.181229 -0.0437535 54 106 104
0.0937046 -0.182278 -0.0449333 48 119 122
0.0931017 -0.183326 -0.0461132 39 104 110
0.0929282 -0.184387 -0.0477589 39 114 119
0.0923243 -0.185438 -0.0489408 49 126 130
0.0921492 -0.186504 -0.0505937 47 119 125
0.0915442 -0.187556 -0.0517776 45 109 115
0.0913677 -0.188627 -0.0534376 44 106 111
0.0907617 -0.189682 -0.0546235 48 104 107
0.0905835 -0.190758 -0.0562907 57 93 92
0.0904047 -0.191838 -0.0579631 65 69 68
0.0958382 -0.176781 -0.0414788 66 67 59
0.0948014 -0.177829 -0.0422024 59 75 71
0.0937676 -0.178873 -0.0429239 53 99 101
0.0931656 -0.17992 -0.044102 51 119 122
0.0925636 -0.180967 -0.0452801 40 106 115
0.0919615 -0.182014 -0.0464583 40 107 114
0.0913594 -0.183062 -0.0476365 48 125 127
0.0916108 -0.184133 -0.0497512 49 120 125
0.0910068 -0.185183 -0.0509332 45 111 116
0.0908296 -0.186249 -0.0525894 43 106 111
0.0906519 -0.187319 -0.0542508 46 104 109
0.0900458 -0.188373 -0.0554369 51 94 100
0.0894396 -0.189427 -0.056623 59 76 80
0.0892593 -0.190503 -0.0582935 65 62 58
0.0946924 -0.175477 -0.041831 63 69 68
0.0936588 -0.176525 -0.0425532 54 92 94
0.0922013 -0.177568 -0.0428164 49 115 121
0.0911762 -0.178609 -0.0435339 42 110 120
0.0905768 -0.179651 -0.0447067 40 106 115
0.0899774 -0.180693 -0.0458796 46 119 125
0.089378 -0.181736 -0.0470526 50 124 127
0.090471 -0.182818 -0.0500916 47 112 118
0.0902932 -0.183878 -0.0517439 45 108 112
0.089689 -0.184929 -0.0529262 45 105 109
0.0895097 -0.185995 -0.0545856 51 99 102
0.0893297 -0.187064 -0.0562504 59 85 84
0.0887235 -0.188118 -0.0574367 62 66 64
0.0945834 -0.173125 -0.0414596 64 65 62
0.0935499 -0.174177 -0.0421823 59 85 86
0.0916671 -0.175229 -0.0419921 50 111 114
0.0906443 -0.176271 -0.0427097 41 113 120
0.0896247 -0.17731 -0.0434253 40 106 114
0.0890271 -0.17835 -0.0445946 46 117 120
0.0884295 -0.179389 -0.0457641 53 128 131
0.0878319 -0.180428 -0.0469336 48 114 120
0.0889118 -0.181499 -0.0499626 44 107 114
0.0887321 -0.182554 -0.0516097 44 107 111
0.0889753 -0.183624 -0.0537371 49 103 103
0.0883709 -0.184674 -0.0549196 59 88 85
0.0877666 -0.185725 -0.0561023 65 72 67
0.0936131 -0.17079 -0.0401801 63 66 62
0.0925843 -0.171842 -0.0409026 60 82 79
0.0915587 -0.172891 -0.041623 54 106 106
0.0901141 -0.173941 -0.0418881 46 115 120
0.0890968 -0.174982 -0.0426038 39 107 114
0.0880826 -0.17602 -0.0433175 43 113 119
0.0874868 -0.177056 -0.0444834 54 127 128
0.0873066 -0.178094 -0.0461069 51 119 123
0.0867098 -0.179132 -0.0472747 46 108 112
0.0869444 -0.180181 -0.0493692 44 105 111
0.0867626 -0.18123 -0.0510079 48 105 108
0.0869983 -0.182291 -0.0531237 54 92 92
0.0868155 -0.183347 -0.0547761 64 75 68
0.0922231 -0.168481 -0.0384598 65 63 59
0.0916247 -0.169521 -0.0396307 57 77 76
0.0910263 -0.170562 -0.0408017 51 103 103
0.090006 -0.17161 -0.0415202 47 116 118
0.0889889 -0.172654 -0.0422365 41 109 116
0.0879748 -0.173696 -0.0429507 42 111 116
0.0873789 -0.174732 -0.0441167 48 123 128
0.086783 -0.175768 -0.0452827 51 124 127
0.0861871 -0.176804 -0.0464488 47 109 114
0.0855911 -0.17784 -0.047615 44 106 110
0.0854078 -0.17888 -0.0492436 46 104 110
0.0856384 -0.179929 -0.0513443 51 94 100
0.0854543 -0.180977 -0.0529864 58 77 75
0.0910931 -0.167201 -0.0388136 62 71 72
0.0904955 -0.168239 -0.0399829 55 95 99
0.0894776 -0.169289 -0.0407015 46 113 119
0.0884628 -0.170336 -0.0414181 40 110 118
0.087451 -0.171379 -0.0421325 40 109 116
0.086856 -0.172414 -0.0432968 47 119 123
0.086261 -0.173448 -0.044461 49 124 127
0.0856659 -0.174482 -0.0456254 46 112 118
0.0854831 -0.175516 -0.0472485 44 107 110
0.084887 -0.176552 -0.0484148 44 106 108
0.0842909 -0.177588 -0.0495812 49 102 101
0.0845176 -0.178631 -0.0516798 56 80 81
0.0839196 -0.179671 -0.05285 64 67 61
0.090563 -0.164887 -0.037999 64 67 64
0.0895466 -0.16594 -0.0387196 59 90 92
0.0889508 -0.166976 -0.0398853 50 110 116
0.0879382 -0.168024 -0.0406021 42 110 119
0.0873433 -0.169058 -0.0417663 40 107 115
0.0863347 -0.170102 -0.0424793 44 117 121
0.0857405 -0.171135 -0.0436418 50 123 127
0.0851463 -0.172168 -0.0448044 48 114 120
0.0849629 -0.173196 -0.0464238 44 105 111
0.0843677 -0.174231 -0.0475884 45 107 108
0.0837725 -0.175265 -0.0487531 49 105 103
0.0835866 -0.1763 -0.0503812 55 87 82
0.0834001 -0.177338 -0.0520144 59 67 63
0.0828029 -0.178376 -0.0531829 64 62 53
0.0894388 -0.163615 -0.0383526 58 84 81
0.0884256 -0.164669 -0.0390717 52 108 109
0.0874153 -0.165719 -0.0397886 44 112 119
0.0868212 -0.166752 -0.0409511 40 107 116
0.0862271 -0.167785 -0.0421136 44 114 121
0.0856329 -0.168817 -0.0432762 50 123 127
0.0850386 -0.16985 -0.0444389 49 116 122
0.0844444 -0.170883 -0.0456016 47 106 111
0.0838501 -0.171916 -0.0467645 45 104 109
0.0836646 -0.172944 -0.0483871 48 104 107
0.0830693 -0.173979 -0.0495519 55 89 92
0.0824739 -0.175013 -0.0507168 60 71 65
0.0822859 -0.176048 -0.0523481 61 60 54
0.089331 -0.161291 -0.0379856 56 78 77
0.0883179 -0.162348 -0.0387052 54 106 105
0.0873078 -0.163402 -0.0394228 47 113 117
0.0867137 -0.164434 -0.0405853 42 108 116
0.0861195 -0.165467 -0.0417478 45 113 119
0.0855252 -0.166499 -0.0429105 50 122 126
0.084931 -0.167532 -0.0440733 51 119 124
0.0843366 -0.168565 -0.0452361 47 108 114
0.0837423 -0.169598 -0.046399 47 105 109
0.0831479 -0.170631 -0.047562 48 104 109
0.0825534 -0.171664 -0.0487251 53 94 99
0.0823659 -0.172692 -0.0503508 61 70 72
0.0817704 -0.173727 -0.0515159 63 63 57
0.0892232 -0.158965 -0.0376185 59 70 73
0.0882102 -0.160026 -0.0383388 53 99 102
0.0872003 -0.161083 -0.039057 48 112 118
0.0866061 -0.162116 -0.0402195 42 108 117
0.0860119 -0.163149 -0.0413821 43 110 117
0.0854176 -0.164181 -0.0425448 52 120 124
0.0848233 -0.165214 -0.0437076 56 121 126
0.0842289 -0.166247 -0.0448705 50 110 117
0.0836346 -0.16728 -0.0460334 47 105 110
0.0830401 -0.168313 -0.0471965 46 103 108
0.0824457 -0.169346 -0.0483596 52 102 103
0.0818511 -0.170379 -0.0495228 59 78 78
0.0812566 -0.171412 -0.0506861 65 62 57
0.0886976 -0.15667 -0.0368081 61 66 66
0.0881025 -0.157704 -0.0379723 55 93 94
0.0870927 -0.158765 -0.0386911 48 111 116
0.0864985 -0.159798 -0.0398536 42 108 118
0.0859042 -0.16083 -0.0410163 40 109 117
0.0848992 -0.161885 -0.0417296 46 119 124
0.0843058 -0.162916 -0.0428906 53 122 127
0.0841212 -0.163929 -0.0445048 53 113 119
0.0835268 -0.164961 -0.0456678 48 106 112
0.0829324 -0.165994 -0.0468309 47 104 109
0.0823378 -0.167027 -0.0479941 50 102 104
0.0817433 -0.16806 -0.0491573 58 85 85
0.0811487 -0.169094 -0.0503207 66 66 57
0.0875793 -0.155414 -0.0371625 56 88 85
0.0869851 -0.156447 -0.0383251 50 113 112
0.0863909 -0.157479 -0.0394878 41 111 117
0.0857966 -0.158512 -0.0406505 40 107 116
0.0847917 -0.15957 -0.0413643 45 116 122
0.0841982 -0.160601 -0.0425255 49 122 127
0.0836047 -0.161632 -0.0436867 49 116 121
0.083419 -0.162643 -0.0453022 46 107 112
0.0828245 -0.163676 -0.0464653 45 105 110
0.08223 -0.164709 -0.0476285 48 101 106
0.0816354 -0.165742 -0.0487918 55 89 92
0.0806365 -0.166789 -0.0494939 62 68 64
0.0874718 -0.153095 -0.0367966 57 77 78
0.0868776 -0.154128 -0.0379592 52 108 107
0.0862833 -0.15516 -0.0391218 45 112 117
0.0852776 -0.156224 -0.039838 40 107 115
0.0846842 -0.157255 -0.0409991 44 113 119
0.0840907 -0.158286 -0.0421603 49 121 126
0.0834971 -0.159317 -0.0433215 49 118 123
0.0829035 -0.160348 -0.0444828 46 107 113
0.0823099 -0.161379 -0.0456442 45 104 109
0.0821221 -0.16239 -0.047263 47 102 106
0.0815275 -0.163423 -0.0484263 52 93 96
0.0805288 -0.164474 -0.049129 60 67 71
0.0799349 -0.165506 -0.0502907 67 65 55
0.0873642 -0.150777 -0.0364305 59 70 74
0.086357 -0.151846 -0.0371507 53 103 103
0.0857636 -0.152877 -0.0383116 46 112 118
0.0851701 -0.153908 -0.0394727 40 106 116
0.0841676 -0.154972 -0.0401874 42 111 118
0.083575 -0.156001 -0.0413468 48 121 125
0.0829823 -0.157031 -0.0425063 49 120 124
0.0823896 -0.15806 -0.0436659 46 111 117
0.0817968 -0.15909 -0.0448256 45 105 111
0.0816085 -0.160095 -0.0464407 46 104 107
0.0810148 -0.161127 -0.0476023 52 98 97
0.0800183 -0.16218 -0.0483052 57 78 73
0.0794254 -0.16321 -0.0494652 66 62 55
0.0788324 -0.16424 -0.0506253 69 65 57
0.086843 -0.1485 -0.0356243 63 67 69
0.0862496 -0.149531 -0.0367852 56 94 97
0.0852455 -0.150601 -0.0375039 48 112 118
0.0846529 -0.15163 -0.0386632 41 107 117
0.0840603 -0.152659 -0.0398226 40 109 118
0.0834676 -0.153689 -0.0409821 45 119 125
0.0828748 -0.154718 -0.0421417 49 120 126
0.0822821 -0.155748 -0.0433013 47 112 118
0.0816893 -0.156778 -0.044461 44 106 112
0.0810964 -0.157807 -0.0456209 46 105 110
0.0805036 -0.158837 -0.0467808 50 100 101
0.0795093 -0.159892 -0.0474839 57 83 80
0.0789173 -0.160921 -0.0486423 62 65 51
0.0779269 -0.161971 -0.0493417 66 63 52
0.0867355 -0.146184 -0.0352587 59 65 62
0.0857307 -0.147259 -0.0359797 55 90 90
0.0851381 -0.148288 -0.0371389 51 114 115
0.0841372 -0.149359 -0.0378561 42 108 116
0.0835454 -0.150386 -0.0390138 41 107 115
0.0829536 -0.151414 -0.0401716 45 118 123
0.0823618 -0.152442 -0.0413295 48 122 126
0.0821746 -0.153435 -0.0429366 48 114 119
0.0815818 -0.154465 -0.0440964 46 106 112
0.080586 -0.155527 -0.0448035 44 105 110
0.0799939 -0.156555 -0.0459617 49 102 105
0.0794019 -0.157583 -0.04712 56 86 88
0.0784107 -0.158638 -0.0478217 59 63 61
0.0778195 -0.159665 -0.0489784 64 58 45
0.0866281 -0.143868 -0.0348931 64 67 65
0.0856234 -0.144946 -0.0356147 55 83 81
0.0850308 -0.145975 -0.036774 51 113 111
0.08403 -0.147049 -0.0374918 44 111 117
0.0830321 -0.14812 -0.0382074 40 106 113
0.0824412 -0.149146 -0.0393635 45 114 119
0.0822544 -0.150133 -0.0409652 49 122 125
0.0816625 -0.151161 -0.0421232 49 117 120
0.0810706 -0.152189 -0.0432813 47 109 113
0.0804785 -0.153217 -0.0444394 45 105 110
0.0798865 -0.154245 -0.0455977 47 103 106
0.0792944 -0.155274 -0.046756 53 91 92
0.0787023 -0.156302 -0.0479144 59 68 70
0.0777121 -0.157359 -0.048615 65 59 50
0.0861087 -0.141604 -0.0340903 61 65 62
0.0855161 -0.142633 -0.0352496 59 77 80
0.0845146 -0.143712 -0.0359697 53 108 106
0.0839228 -0.14474 -0.0371274 43 115 120
0.0829251 -0.145814 -0.0378436 39 105 114
0.082334 -0.14684 -0.0389998 42 111 117
0.081743 -0.147867 -0.040156 48 121 124
0.0811519 -0.148893 -0.0413122 48 117 121
0.0809632 -0.149879 -0.0429171 47 110 114
0.0803711 -0.150907 -0.0440753 46 106 111
0.079779 -0.151936 -0.0452336 47 105 108
0.0791869 -0.152964 -0.046392 52 97 96
0.0785947 -0.153992 -0.0475505 59 78 73
0.0780025 -0.155021 -0.048709 66 64 53
0.0855909 -0.139347 -0.03329 62 61 62
0.0849992 -0.140375 -0.0344476 55 68 73
0.0844073 -0.141403 -0.0356052 52 100 105
0.0834089 -0.142482 -0.0363238 48 115 119
0.0824134 -0.143558 -0.0370402 37 106 114
0.0818233 -0.144582 -0.0381946 40 109 116
0.0812331 -0.145607 -0.0393491 46 120 124
0.0810448 -0.146587 -0.0409485 48 120 123
0.0804536 -0.147613 -0.0421049 47 111 115
0.0802637 -0.148598 -0.0437112 46 106 110
0.0796716 -0.149626 -0.0448695 48 105 107
0.0790794 -0.150654 -0.046028 54 100 98
0.0784872 -0.151682 -0.0471864 60 81 77
0.077895 -0.152711 -0.048345 62 61 54
0.0840767 -0.138181 -0.033214 58 64 66
0.0834867 -0.139205 -0.0343682 52 90 95
0.0828966 -0.14023 -0.0355225 47 117 120
0.0819034 -0.141308 -0.0362391 40 106 113
0.0813141 -0.142331 -0.0373918 39 106 112
0.0811262 -0.143304 -0.0389859 45 118 122
0.0805359 -0.144329 -0.0401405 48 121 127
0.0803464 -0.145307 -0.0417413 46 111 118
0.0797552 -0.146333 -0.0428978 46 104 110
0.0795641 -0.147316 -0.0445054 45 104 108
0.0789719 -0.148344 -0.0456639 50 100 102
0.0783797 -0.149372 -0.0468224 60 82 83
0.0777874 -0.1504 -0.047981 66 62 58
0.0835642 -0.135939 -0.0324185 61 65 61
0.082975 -0.136962 -0.033571 54 86 83
0.0823858 -0.137985 -0.0347236 51 116 115
0.0817966 -0.139008 -0.0358763 39 110 115
0.0812073 -0.140031 -0.0370291 38 105 111
0.0806179 -0.141054 -0.0381819 46 115 120
0.0800285 -0.142077 -0.0393348 49 122 126
0.0798385 -0.14305 -0.040932 46 113 120
0.0792482 -0.144075 -0.0420868 45 105 113
0.0790566 -0.145053 -0.0436908 45 103 109
0.0788644 -0.146033 -0.0452997 47 102 106
0.0782721 -0.147062 -0.0464583 52 87 91
0.0776798 -0.14809 -0.047617 59 66 65
0.0770874 -0.149118 -0.0487757 65 60 46
0.0822484 -0.133832 -0.030769 61 63 59
0.0816619 -0.13485 -0.0319164 57 79 77
0.0810753 -0.135869 -0.0330638 51 111 108
0.0804887 -0.136887 -0.0342113 43 114 120
0.079902 -0.137905 -0.035359 36 103 111
0.0793152 -0.138924 -0.0365066 43 113 118
0.0791251 -0.139888 -0.0380923 49 121 126
0.0789342 -0.140854 -0.0396829 47 115 120
0.0787427 -0.141824 -0.0412783 44 107 112
0.0785506 -0.142797 -0.0428787 43 104 108
0.0783579 -0.143772 -0.044484 46 104 106
0.0777664 -0.144799 -0.0456408 52 94 95
0.0775722 -0.145779 -0.0472529 59 75 72
0.0769798 -0.146808 -0.0484117 64 61 48
0.0813425 -0.131677 -0.0295575 64 59 54
0.0803605 -0.132758 -0.0302766 56 73 75
0.0797765 -0.133771 -0.0314189 52 102 102
0.0791925 -0.134785 -0.0325613 44 115 123
0.0786084 -0.135799 -0.0337038 36 103 115
0.0780243 -0.136813 -0.0348464 41 109 117
0.0778329 -0.137769 -0.0364225 49 122 125
0.0780352 -0.138671 -0.0384412 48 119 123
0.077843 -0.139635 -0.04003 46 108 113
0.0780461 -0.140547 -0.0420689 45 104 108
0.0778529 -0.141518 -0.0436706 46 105 106
0.077659 -0.142491 -0.0452772 52 99 97
0.0770675 -0.143518 -0.0464342 60 79 76
0.076476 -0.144545 -0.0475913 63 61 56
0.0802547 -0.130478 -0.0299168 57 62 71
0.0792757 -0.131559 -0.0306344 50 92 100
0.0786925 -0.132571 -0.0317752 47 116 120
0.0777172 -0.133647 -0.0324891 35 103 117
0.0771348 -0.134658 -0.0336283 38 106 116
0.0765524 -0.135669 -0.0347676 47 120 126
0.07675 -0.136561 -0.0367723 49 120 126
0.0765566 -0.137517 -0.0383515 46 110 116
0.0767549 -0.138418 -0.0403763 44 104 110
0.0769545 -0.139326 -0.0424133 45 103 107
0.0771551 -0.140239 -0.0444627 50 99 101
0.0769601 -0.14121 -0.0460706 57 81 80
0.0763685 -0.142237 -0.0472278 61 64 60
0.0801489 -0.128198 -0.0295571 58 65 66
0.07917 -0.129282 -0.0302752 53 84 91
0.0781941 -0.130363 -0.0309913 46 115 119
0.0772209 -0.131441 -0.0317054 35 108 117
0.0766393 -0.13245 -0.032843 34 105 115
0.0760577 -0.13346 -0.0339806 42 117 123
0.0758642 -0.134406 -0.0355485 49 123 128
0.0752816 -0.135417 -0.036688 45 112 119
0.0754753 -0.136309 -0.0386988 44 106 112
0.07567 -0.137206 -0.0407216 44 105 109
0.0762587 -0.13805 -0.043203 48 102 104
0.0764572 -0.138959 -0.0452549 53 82 88
0.076261 -0.139929 -0.0468642 59 65 64
0.080043 -0.125918 -0.0291972 60 64 60
0.0790643 -0.127005 -0.029916 53 79 80
0.0780885 -0.12809 -0.0306327 48 110 111
0.0771155 -0.129171 -0.0313473 40 112 119
0.0761454 -0.130249 -0.0320599 32 103 111
0.0755646 -0.131257 -0.0331959 40 113 121
0.0749837 -0.132265 -0.034332 48 123 127
0.0747888 -0.133208 -0.0358982 45 114 119
0.0745933 -0.134155 -0.0374693 43 106 110
0.0747847 -0.135043 -0.0394824 42 104 108
0.0745882 -0.135996 -0.041066 46 103 106
0.0755628 -0.136775 -0.0439929 51 90 92
0.0757591 -0.13768 -0.0460473 58 71 63
0.0799372 -0.123637 -0.0288374 59 61 61
0.0789586 -0.124728 -0.0295567 55 75 77
0.0779829 -0.125816 -0.030274 49 104 103
0.07701 -0.1269 -0.0309892 42 114 121
0.07604 -0.127982 -0.0317024 36 103 111
0.0754592 -0.12899 -0.0328385 39 109 116
0.0748783 -0.129998 -0.0339746 48 122 124
0.0742975 -0.131005 -0.0351108 45 116 121
0.0737165 -0.132014 -0.0362471 44 107 113
0.0739048 -0.132892 -0.0382506 43 105 108
0.0737075 -0.13384 -0.0398277 45 105 105
0.0738965 -0.134728 -0.0418511 53 96 93
0.0744761 -0.13556 -0.0443342 59 73 66
0.0742778 -0.136521 -0.0459349 60 62 51
0.0798313 -0.121357 -0.0284775 60 63 58
0.0788529 -0.122451 -0.0291974 56 68 74
0.0778773 -0.123542 -0.0299152 50 96 101
0.0769045 -0.12463 -0.030631 44 114 119
0.0759347 -0.125715 -0.0313449 36 103 112
0.0753538 -0.126722 -0.0324809 39 106 114
0.0747729 -0.12773 -0.0336171 45 120 124
0.074192 -0.128738 -0.0347534 46 119 123
0.0736111 -0.129746 -0.0358897 44 107 113
0.0730301 -0.130754 -0.0370261 45 104 111
0.072832 -0.131696 -0.0385967 45 104 106
0.0730177 -0.132575 -0.0406105 53 102 98
0.0728188 -0.133524 -0.0421936 64 77 74
0.0726191 -0.134475 -0.0437816 68 62 57
0.0793305 -0.119161 -0.0276972 56 61 56
0.0787471 -0.120173 -0.028838 56 70 69
0.0777717 -0.121268 -0.0295565 52 89 98
0.0767991 -0.122359 -0.0302729 49 115 120
0.0758293 -0.123447 -0.0309872 37 105 115
0.0752485 -0.124455 -0.0321234 35 105 112
0.0746675 -0.125463 -0.0332596 44 117 123
0.0740866 -0.126471 -0.0343959 47 122 126
0.0735055 -0.127479 -0.0355323 44 108 115
0.0729245 -0.128487 -0.0366687 44 104 112
0.0723434 -0.129495 -0.0378053 44 103 111
0.0721443 -0.130435 -0.0393771 48 100 104
0.0719445 -0.131377 -0.0409538 53 81 85
0.0717441 -0.132323 -0.0425353 63 64 62
0.078831 -0.116972 -0.0269191 60 61 58
0.0778569 -0.11807 -0.0276393 53 65 68
0.0772753 -0.119079 -0.0287769 51 89 91
0.0766935 -0.120088 -0.0299147 47 113 118
0.0757239 -0.121179 -0.0306296 40 108 118
0.0751431 -0.122187 -0.0317658 37 104 114
0.0745621 -0.123195 -0.032902 41 114 124
0.0739811 -0.124203 -0.0340384 46 123 127
0.0734001 -0.125211 -0.0351748 45 111 119
0.072819 -0.126219 -0.0363113 43 105 111
0.0722379 -0.127227 -0.0374479 44 105 111
0.0716567 -0.128235 -0.0385846 48 103 107
0.0714564 -0.129173 -0.0401577 50 85 92
0.0708743 -0.130183 -0.0412962 53 67 65
0.0773611 -0.115889 -0.0268637 56 61 62
0.0767803 -0.116896 -0.0279997 52 85 84
0.0761995 -0.117904 -0.0291358 54 119 118
0.0756186 -0.118912 -0.0302719 45 121 130
0.0750376 -0.119919 -0.0314081 38 106 116
0.0744566 -0.120927 -0.0325444 39 114 121
0.0738756 -0.121935 -0.0336808 48 125 128
0.0732945 -0.122943 -0.0348173 42 114 121
0.0727134 -0.123951 -0.0359539 42 105 111
0.0721323 -0.124959 -0.0370905 43 103 107
0.071551 -0.125967 -0.0382272 46 104 106
0.0709698 -0.126975 -0.039364 53 95 93
0.0707685 -0.127911 -0.0409385 61 70 63
0.0772559 -0.113621 -0.0265059 61 62 61
0.076675 -0.114628 -0.0276419 52 77 82
0.0757068 -0.115726 -0.0283591 54 118 117
0.0751267 -0.116732 -0.0294936 66 149 148
0.0741622 -0.117825 -0.0302072 53 132 140
0.0735829 -0.11883 -0.0313402 44 120 122
0.0730035 -0.119835 -0.0324733 46 123 126
0.072806 -0.120757 -0.0340325 44 118 123
0.0722257 -0.121764 -0.0351673 43 106 112
0.0720266 -0.122691 -0.0367331 42 103 109
0.0714454 -0.123699 -0.0378698 44 104 106
0.0708642 -0.124707 -0.0390067 52 103 99
0.0702829 -0.125715 -0.0401436 60 76 70
0.0771505 -0.111353 -0.026148 63 60 53
0.0761817 -0.112455 -0.0268674 55 68 73
0.0756016 -0.113461 -0.0280019 50 94 105
0.0746363 -0.114559 -0.0287176 56 136 140
0.0736739 -0.115654 -0.0294314 58 143 148
0.0727144 -0.116746 -0.0301431 53 139 142
0.0721366 -0.117747 -0.0312728 51 127 132
0.0719384 -0.118664 -0.0328256 48 123 128
0.0717395 -0.119583 -0.0343831 46 109 117
0.0715399 -0.120505 -0.0359454 44 106 111
0.0709595 -0.121512 -0.0370805 43 104 108
0.0707585 -0.122438 -0.0386493 51 101 101
0.0701771 -0.123446 -0.0397862 56 74 77
0.0770452 -0.109084 -0.02579 66 55 46
0.0760765 -0.11019 -0.0265101 60 67 62
0.0751105 -0.111293 -0.027228 48 84 91
0.0741474 -0.112392 -0.0279439 41 113 121
0.0735689 -0.113395 -0.0290752 45 128 136
0.0722296 -0.114582 -0.0293696 51 135 141
0.0716527 -0.115582 -0.0304977 51 130 137
0.0710759 -0.116582 -0.0316259 51 123 133
0.0708763 -0.117496 -0.0331771 48 124 128
0.070676 -0.118412 -0.034733 45 112 120
0.0704751 -0.119331 -0.0362935 44 107 114
0.0702736 -0.120253 -0.0378588 49 103 107
0.0700715 -0.121178 -0.0394289 53 79 88
0.06949 -0.122186 -0.0405659 59 62 54
0.0759712 -0.107925 -0.0261526 53 59 58
0.0750054 -0.109031 -0.0268712 46 80 82
0.0740425 -0.110133 -0.0275877 42 105 109
0.0730823 -0.111233 -0.0283021 40 118 123
0.0721249 -0.11233 -0.0290145 41 121 128
0.0711703 -0.113423 -0.0297248 47 121 130
0.0702184 -0.114513 -0.0304333 46 123 131
0.0700181 -0.115421 -0.0319781 48 122 131
0.0698171 -0.116331 -0.0335277 52 129 133
0.0696156 -0.117244 -0.0350819 54 123 126
0.0694133 -0.11816 -0.0366408 50 109 114
0.0692104 -0.119079 -0.0382044 52 87 94
0.0690069 -0.120001 -0.0397727 58 66 65
0.0688027 -0.120925 -0.0413458 61 60 52
0.0749004 -0.106768 -0.0265143 47 76 76
0.0739375 -0.107874 -0.0272314 43 103 104
0.0729775 -0.108977 -0.0279464 40 115 122
0.0723998 -0.109979 -0.0290762 42 120 126
0.0710657 -0.111174 -0.0293703 42 123 130
0.070114 -0.112267 -0.0300792 43 122 128
0.069165 -0.113358 -0.0307862 45 120 126
0.0689633 -0.114262 -0.0323294 46 122 128
0.068761 -0.11517 -0.0338774 61 135 135
0.0685581 -0.11608 -0.0354299 61 130 131
0.0683545 -0.116993 -0.0369872 57 105 106
0.0681503 -0.117908 -0.0385491 62 71 66
0.0679455 -0.118827 -0.0401157 63 62 53
0.0738325 -0.105615 -0.0268751 40 95 96
0.0728726 -0.106721 -0.0275907 40 113 119
0.0722949 -0.107723 -0.0287205 39 117 124
0.0713385 -0.108825 -0.0294325 43 120 128
0.0700094 -0.110021 -0.0297252 46 120 129
0.0690606 -0.111115 -0.0304327 45 120 127
0.0684861 -0.112111 -0.0315563 45 119 125
0.0679115 -0.113107 -0.0326799 44 117 124
0.0677079 -0.114011 -0.0342261 57 125 127
0.0675036 -0.114918 -0.035777 61 119 117
0.0672987 -0.115828 -0.0373326 61 81 78
0.0670932 -0.116741 -0.0388929 64 60 51
0.0718107 -0.105572 -0.027949 40 120 123
0.0712337 -0.106572 -0.0290773 42 122 126
0.0706567 -0.107572 -0.0302057 43 120 129
0.0693296 -0.108772 -0.0304963 45 117 128
0.0687542 -0.10977 -0.0316216 44 116 123
0.0678071 -0.110864 -0.0323265 43 113 119
0.0676033 -0.111765 -0.0338722 54 111 115
0.0670277 -0.112763 -0.0349977 65 110 108
0.0668224 -0.113668 -0.0365499 63 85 86
0.066246 -0.114667 -0.0376772 61 64 62
0.0701756 -0.105424 -0.0294332 44 122 126
0.0695994 -0.106423 -0.0305601 45 122 128
0.0686496 -0.107523 -0.0312675 44 118 125
0.0680741 -0.108521 -0.0323929 43 114 121
0.0674986 -0.109518 -0.0335183 45 107 113
0.0669231 -0.110516 -0.0346439 58 104 105
0.0663475 -0.111514 -0.0357694 62 85 91
0.0661411 -0.112417 -0.0373229 62 66 64
0.0655645 -0.113417 -0.0384503 62 61 53
0.0679695 -0.106274 -0.0320389 42 115 122
0.067394 -0.107271 -0.0331644 43 107 116
0.0668184 -0.108269 -0.0342899 50 105 109
0.0662428 -0.109267 -0.0354156 57 90 93
0.0656671 -0.110265 -0.0365413 60 70 67
0.0654596 -0.111166 -0.038096 58 59 50
0.066138 -0.10702 -0.0350617 55 101 98
0.0655623 -0.108017 -0.0361874 61 75 66
0.0649866 -0.109015 -0.0373133 63 62 50
