ply
format ascii 1.0
element vertex 1208
property float x
property float y
property float z
property uchar diffuse_red
property uchar diffuse_green
property uchar diffuse_blue
end_header
0.146553 -0.272092 -0.0235742 62 80 78
0.144153 -0.272511 -0.0227773 60 98 99
0.142347 -0.273336 -0.0225063 61 108 111
0.137211 -0.271715 -0.019173 76 106 93
0.134915 -0.272127 -0.0184172 75 94 83
0.134263 -0.273741 -0.0191696 70 79 79
0.118257 -0.269867 -0.00954305 65 62 58
0.112319 -0.267277 -0.0052266 65 60 57
0.107506 -0.265498 -0.00193534 64 59 54
0.105532 -0.265909 -0.00132189 64 62 56
0.104931 -0.267397 -0.00201571 65 61 53
0.146422 -0.269443 -0.0242692 67 64 58
0.145752 -0.271102 -0.025043 48 64 64
0.143357 -0.271527 -0.0242384 32 69 77
0.14212 -0.272766 -0.0244843 34 83 95
0.137532 -0.271552 -0.0216281 54 102 104
0.134136 -0.271165 -0.0198456 57 113 116
0.132943 -0.272377 -0.0200938 62 113 115
0.131218 -0.273184 -0.019839 72 108 103
0.127399 -0.272392 -0.0176032 85 101 86
0.118136 -0.267402 -0.01019 71 83 81
0.112675 -0.265222 -0.00631348 64 68 75
0.107849 -0.263471 -0.00300123 61 59 67
0.105415 -0.263535 -0.00194525 63 59 59
0.104814 -0.265023 -0.00263916 67 62 53
0.102862 -0.265434 -0.00202537 68 60 53
0.101817 -0.266556 -0.00228188 69 61 55
0.147368 -0.269678 -0.0273331 70 64 55
0.144951 -0.270112 -0.026512 46 50 48
0.14428 -0.271772 -0.027286 23 41 49
0.141325 -0.271783 -0.0259431 16 47 60
0.137854 -0.271389 -0.0241008 23 64 71
0.134444 -0.271002 -0.0222906 28 76 84
0.131092 -0.270621 -0.0205117 35 85 92
0.127798 -0.270247 -0.0187633 47 97 102
0.122009 -0.267953 -0.014625 61 110 115
0.11739 -0.266482 -0.0115574 58 114 120
0.111941 -0.264318 -0.00765868 67 110 108
0.108049 -0.263295 -0.0052147 74 101 94
0.105151 -0.263004 -0.00370124 75 88 84
0.103194 -0.263425 -0.00308148 66 66 76
0.1017 -0.264197 -0.00290154 63 63 66
0.0988974 -0.263904 -0.00143031 63 63 60
0.0983044 -0.265372 -0.00211464 65 63 57
0.0972763 -0.266483 -0.00236875 69 64 53
0.0958201 -0.267236 -0.00219353 69 64 55
0.0935214 -0.267276 -0.00116933 66 63 55
0.0900023 -0.266268 0.00109468 62 60 51
0.087778 -0.266313 0.00208129 60 61 57
0.0859841 -0.266703 0.0026476 61 58 54
0.148914 -0.270329 -0.0309746 71 65 56
0.145888 -0.270351 -0.0295884 48 48 48
0.143479 -0.270782 -0.0287553 26 37 43
0.142236 -0.272029 -0.0289948 13 37 43
0.138179 -0.271224 -0.0265911 11 42 42
0.134754 -0.270837 -0.0247529 13 42 44
0.131926 -0.270855 -0.023456 15 49 53
0.127554 -0.26969 -0.0206713 19 60 69
0.122266 -0.267784 -0.0169786 25 70 84
0.117136 -0.265936 -0.0133965 29 82 94
0.112157 -0.264142 -0.00992018 41 96 101
0.107324 -0.2624 -0.00654501 51 108 111
0.104885 -0.262472 -0.00546308 59 116 121
0.102926 -0.262896 -0.00483406 65 109 113
0.100986 -0.263317 -0.00421103 73 105 97
0.0981888 -0.263031 -0.00272957 73 93 85
0.097161 -0.264146 -0.0029828 66 76 77
0.0952752 -0.264556 -0.00237744 64 63 69
0.0934071 -0.264961 -0.00177774 66 61 62
0.0898891 -0.263978 0.000492807 65 61 58
0.0876656 -0.264037 0.00148303 61 61 57
0.0858721 -0.264437 0.00205205 63 58 52
0.0848956 -0.265515 0.00179939 63 59 50
0.083922 -0.26659 0.00154744 63 60 47
0.0833493 -0.268007 0.00088657 67 59 43
0.0827767 -0.269424 0.000225688 70 58 44
0.082204 -0.270841 -0.000435268 68 59 49
0.149288 -0.270155 -0.0335619 71 64 55
0.147424 -0.271007 -0.0332465 48 51 48
0.144989 -0.271438 -0.0323879 25 40 44
0.142581 -0.271864 -0.0315384 12 36 43
0.139632 -0.271875 -0.0301634 9 40 41
0.136725 -0.271886 -0.0288076 9 41 41
0.132226 -0.27069 -0.0259142 10 41 41
0.130494 -0.271507 -0.0256383 10 40 43
0.123035 -0.267999 -0.0198404 9 39 48
0.118365 -0.266515 -0.0166774 11 44 57
0.112854 -0.264332 -0.0126625 16 58 67
0.10706 -0.261862 -0.00832586 21 70 78
0.104619 -0.261937 -0.00723085 27 79 89
0.102209 -0.262011 -0.00614992 37 91 98
0.100272 -0.262436 -0.00552075 50 104 109
0.0974802 -0.262158 -0.00402906 56 112 117
0.096021 -0.262925 -0.00384844 60 115 117
0.0945709 -0.263688 -0.00366895 73 112 101
0.0922835 -0.26375 -0.00263739 78 99 89
0.0891955 -0.263124 -0.000779008 70 80 81
0.0869761 -0.263189 0.000218908 58 62 76
0.0851857 -0.263592 0.000793631 59 60 64
0.0838102 -0.264331 0.000953521 62 59 54
0.0832376 -0.265748 0.000292639 64 59 47
0.0822679 -0.266822 4.31938e-05 64 59 44
0.0813012 -0.267892 -0.000205551 68 58 45
0.0807301 -0.269305 -0.0008646 67 56 46
0.080159 -0.270718 -0.00152369 65 53 46
0.0799801 -0.272482 -0.00259708 68 50 43
0.147702 -0.272943 -0.0371877 27 42 48
0.144086 -0.272528 -0.0351979 12 34 44
0.141106 -0.272535 -0.0337869 8 41 42
0.138167 -0.272541 -0.0323961 7 41 42
0.13527 -0.272548 -0.0310248 9 40 42
0.130789 -0.271344 -0.0281044 10 39 42
0.126941 -0.270565 -0.0257642 8 36 44
0.120114 -0.267483 -0.0204935 6 35 46
0.114042 -0.264894 -0.0159062 7 40 45
0.108656 -0.262759 -0.0119433 8 41 45
0.104807 -0.261756 -0.00945527 10 43 49
0.101939 -0.261479 -0.00791063 12 52 62
0.100001 -0.261907 -0.00727211 19 66 78
0.0967714 -0.261284 -0.00532881 25 76 90
0.0953144 -0.262055 -0.00514414 33 86 99
0.0934401 -0.262473 -0.00452978 44 102 104
0.0915833 -0.262888 -0.00392123 54 111 114
0.0889145 -0.262612 -0.00247221 58 111 117
0.0866932 -0.26268 -0.00146243 62 106 111
0.0844992 -0.262747 -0.000465055 74 101 93
0.0831258 -0.263489 -0.00030141 71 86 81
0.0821562 -0.264566 -0.000549977 66 72 72
0.0811896 -0.265639 -0.000797887 62 60 63
0.0806185 -0.267052 -0.00145698 64 59 51
0.0800474 -0.268465 -0.00211612 64 59 47
0.0794762 -0.269878 -0.00277533 62 57 47
0.0792962 -0.271642 -0.00385073 62 50 45
0.0795084 -0.273764 -0.00534924 61 54 45
0.0793276 -0.275542 -0.00643363 61 56 44
0.148074 -0.272777 -0.0398127 32 42 46
0.146795 -0.274048 -0.0400377 16 35 41
0.14318 -0.273623 -0.0380187 11 40 38
0.1402 -0.273622 -0.0365852 8 39 40
0.137826 -0.274036 -0.0357167 8 38 41
0.134367 -0.273621 -0.0337789 7 37 43
0.128816 -0.271597 -0.0297722 6 37 45
0.122405 -0.268856 -0.0248778 5 37 44
0.11872 -0.268118 -0.0226179 7 41 41
0.110279 -0.263672 -0.0156203 8 41 39
0.104997 -0.261574 -0.0116942 8 39 39
0.101669 -0.260944 -0.00967722 8 37 42
0.0992849 -0.261025 -0.00858437 7 38 46
0.0960626 -0.260411 -0.00662873 8 40 53
0.0946076 -0.261184 -0.00644011 11 48 61
0.0927366 -0.261606 -0.00581977 15 62 71
0.090883 -0.262025 -0.00520529 22 74 87
0.0886324 -0.262098 -0.00417082 29 85 96
0.0864095 -0.262169 -0.00314922 39 96 103
0.0842137 -0.26224 -0.00214002 54 109 111
0.082839 -0.262985 -0.00197116 57 113 115
0.0818684 -0.264064 -0.00221766 63 112 111
0.0809006 -0.26514 -0.00246352 74 105 97
0.0799358 -0.266213 -0.00270863 76 91 82
0.0793645 -0.267626 -0.00336788 70 75 74
0.0787933 -0.269039 -0.00402718 62 61 67
0.0790035 -0.271151 -0.00552397 61 55 55
0.0788222 -0.272921 -0.006607 61 56 49
0.0790335 -0.275055 -0.00811866 63 57 44
0.0796419 -0.277564 -0.0100698 66 58 42
0.148448 -0.27261 -0.0424572 40 49 46
0.147164 -0.273886 -0.0426783 17 38 41
0.145292 -0.274732 -0.0423279 9 38 43
0.142851 -0.275146 -0.0414142 7 38 45
0.140437 -0.275556 -0.0405104 6 37 45
0.136355 -0.274705 -0.0379585 5 37 44
0.13236 -0.273873 -0.0354606 5 39 44
0.12685 -0.271849 -0.0314347 7 38 40
0.120997 -0.269497 -0.0270244 10 39 37
0.117826 -0.269139 -0.0252424 9 40 37
0.108922 -0.26429 -0.0176896 7 39 39
0.102298 -0.261115 -0.0123575 8 38 41
0.0990112 -0.260492 -0.0103439 7 35 44
0.0953535 -0.259537 -0.00792888 6 37 45
0.0943298 -0.260658 -0.00817432 6 39 44
0.0924571 -0.261084 -0.007545 6 38 42
0.0901826 -0.261163 -0.00648956 7 39 49
0.0883494 -0.261582 -0.00587494 9 46 56
0.0857176 -0.261317 -0.00441786 15 59 68
0.0839272 -0.261731 -0.00382039 21 72 83
0.0821532 -0.262141 -0.00322842 27 82 93
0.0815794 -0.26356 -0.00389067 37 95 102
0.0806106 -0.264639 -0.00413442 48 107 107
0.0796447 -0.265714 -0.00437747 57 112 114
0.0790725 -0.267129 -0.00503785 62 110 112
0.0788915 -0.268891 -0.0061185 68 102 101
0.0787099 -0.270658 -0.00720251 80 97 86
0.079315 -0.27314 -0.00914346 73 79 75
0.0795287 -0.275284 -0.01067 67 65 62
0.080943 -0.278539 -0.0135185 65 59 49
0.0807614 -0.280352 -0.0146326 65 57 46
0.148225 -0.272017 -0.0445424 44 45 45
0.147535 -0.273723 -0.0453385 19 35 39
0.146249 -0.275 -0.0455549 5 38 40
0.144968 -0.276272 -0.0457705 7 41 44
0.14252 -0.27668 -0.0448349 7 40 42
0.13895 -0.276232 -0.0427767 7 38 42
0.134884 -0.275375 -0.0402007 8 37 43
0.129276 -0.273306 -0.0360578 8 36 43
0.125417 -0.272502 -0.033619 11 35 39
0.124238 -0.273713 -0.0338444 9 35 39
0.100969 -0.26172 -0.0143841 8 35 45
0.0950759 -0.259007 -0.00967107 8 36 45
0.0936217 -0.259786 -0.00947278 7 36 43
0.0921765 -0.26056 -0.00927581 7 35 41
0.0903196 -0.260985 -0.00864341 6 37 43
0.0880653 -0.261064 -0.00758459 6 36 43
0.0858389 -0.261143 -0.0065389 6 36 43
0.0836397 -0.26122 -0.0055061 6 38 45
0.0818643 -0.261633 -0.00490568 9 43 53
0.0808935 -0.262716 -0.00514827 12 53 64
0.0803196 -0.264136 -0.00581064 15 67 77
0.0797457 -0.265555 -0.00647308 24 82 92
0.0791717 -0.266975 -0.00713554 34 94 100
0.0789902 -0.268742 -0.00822284 48 108 108
0.0792022 -0.270866 -0.00974183 72 124 118
0.0798124 -0.27336 -0.0117036 75 115 113
0.080829 -0.276241 -0.0141234 74 99 96
0.0810496 -0.278418 -0.0156821 68 76 67
0.0808674 -0.280236 -0.0168032 67 64 56
0.0806846 -0.28206 -0.0179278 66 56 47
0.148 -0.271421 -0.0466356 46 49 47
0.147309 -0.273131 -0.0474333 21 35 39
0.146618 -0.27484 -0.048231 7 35 40
0.145926 -0.27655 -0.0490287 8 34 40
0.144641 -0.277824 -0.049239 7 37 40
0.141601 -0.277793 -0.0477006 6 36 41
0.137463 -0.276909 -0.0450436 6 34 44
0.133413 -0.276044 -0.0424436 4 35 47
0.127828 -0.273966 -0.0382654 8 37 41
0.127168 -0.275598 -0.0390271 7 35 40
0.0933416 -0.259257 -0.011215 8 35 40
0.0918949 -0.260034 -0.0110123 9 35 38
0.0900363 -0.260463 -0.0103709 7 37 41
0.0877803 -0.260545 -0.00929977 6 36 41
0.0855521 -0.260627 -0.00824199 6 35 40
0.0833512 -0.260708 -0.00719722 6 37 41
0.0819726 -0.261461 -0.00701239 6 39 40
0.0806025 -0.262209 -0.00682873 6 38 41
0.0796334 -0.263292 -0.00706858 6 37 44
0.0790594 -0.264712 -0.00773108 7 39 48
0.0788778 -0.266475 -0.00881938 10 51 61
0.0790894 -0.268592 -0.0103402 19 71 80
0.079699 -0.271076 -0.0123048 33 97 109
0.0811167 -0.274303 -0.0151705 56 118 121
0.080935 -0.276112 -0.016289 68 120 117
0.0807526 -0.277927 -0.0174111 73 105 100
0.0809739 -0.28012 -0.0189875 69 76 71
0.0803861 -0.281574 -0.019666 67 61 53
0.0802019 -0.283406 -0.0207988 64 55 43
0.147174 -0.270401 -0.04815 46 51 49
0.146483 -0.27211 -0.0489478 22 39 41
0.146389 -0.274249 -0.0503353 11 36 39
0.145696 -0.275962 -0.0511346 9 38 40
0.144409 -0.277239 -0.0513415 7 36 39
0.143718 -0.278949 -0.0521395 6 36 40
0.140679 -0.27891 -0.0505774 6 38 43
0.13541 -0.27716 -0.0467397 4 37 46
0.131389 -0.276295 -0.0441263 4 36 43
0.129623 -0.27711 -0.0437809 5 34 40
0.128956 -0.27876 -0.0445509 5 34 40
0.0916124 -0.259506 -0.0127545 6 36 40
0.0901733 -0.260282 -0.0125475 6 35 38
0.0879093 -0.260366 -0.0114596 6 35 38
0.0856733 -0.260449 -0.0103852 7 34 39
0.0838691 -0.26087 -0.00975582 8 34 40
0.0820816 -0.261287 -0.00913229 7 37 39
0.0807067 -0.262039 -0.00894168 6 37 40
0.0797346 -0.263125 -0.00917912 7 36 41
0.0791587 -0.264549 -0.0098438 8 37 40
0.0789765 -0.266318 -0.0109387 7 37 42
0.0795856 -0.268791 -0.0129061 6 40 50
0.0810024 -0.272001 -0.0157765 4 48 66
0.0816285 -0.274531 -0.0177911 24 84 90
0.0814465 -0.276349 -0.0189191 46 107 107
0.0808588 -0.277803 -0.0195975 67 115 113
0.0806753 -0.279629 -0.0207302 66 85 82
0.0800866 -0.281085 -0.0214098 64 67 60
0.0794978 -0.282541 -0.0220894 63 55 46
0.0789089 -0.283998 -0.0227691 63 52 43
0.07832 -0.285454 -0.0234488 64 53 40
0.147547 -0.270223 -0.0508458 49 52 49
0.146853 -0.271939 -0.0516467 24 42 42
0.14676 -0.274085 -0.0530444 11 40 38
0.146064 -0.275804 -0.0538469 7 40 39
0.144772 -0.277087 -0.0540496 7 37 42
0.143484 -0.278366 -0.0542517 7 36 41
0.1422 -0.27964 -0.0544531 7 36 40
0.139172 -0.279596 -0.0528742 8 36 40
0.133925 -0.277836 -0.0490036 8 39 39
0.131021 -0.277806 -0.0474977 8 36 38
0.128158 -0.277777 -0.0460131 8 35 38
0.0909038 -0.258633 -0.0140538 6 38 38
0.0898882 -0.259755 -0.0142897 4 36 37
0.088039 -0.260185 -0.0136332 6 35 38
0.0862068 -0.260611 -0.0129828 8 34 39
0.0839847 -0.260693 -0.0119008 9 34 40
0.0825934 -0.261452 -0.0117002 7 35 40
0.0812106 -0.262207 -0.0115009 6 35 40
0.0798362 -0.262957 -0.0113029 6 35 40
0.0792585 -0.264385 -0.0119697 7 38 38
0.0794722 -0.266506 -0.0135075 6 39 40
0.0808881 -0.269698 -0.0163825 5 39 41
0.0819192 -0.272579 -0.0188506 4 39 42
0.0817375 -0.274396 -0.0199821 2 53 61
0.0811488 -0.275852 -0.0206617 17 74 79
0.08056 -0.277308 -0.0213413 43 99 96
0.0799712 -0.278764 -0.0220209 53 89 88
0.0793823 -0.280221 -0.0227006 59 72 70
0.0787934 -0.281677 -0.0233803 62 56 51
0.0782045 -0.283133 -0.0240601 60 54 47
0.0780164 -0.284971 -0.0252019 61 54 43
0.0782301 -0.287201 -0.0268131 62 53 40
0.148529 -0.270469 -0.054163 50 54 51
0.148437 -0.272624 -0.0555732 29 44 44
0.147738 -0.274353 -0.0563802 13 38 38
0.146435 -0.275646 -0.0565795 6 37 39
0.145137 -0.276934 -0.056778 7 39 42
0.143843 -0.278217 -0.0569759 6 38 42
0.141963 -0.279057 -0.0565698 6 37 40
0.140682 -0.28033 -0.0567672 8 38 38
0.135944 -0.278978 -0.0533989 7 40 39
0.132439 -0.278512 -0.0512681 7 38 40
0.126819 -0.276376 -0.0469129 7 36 42
0.121376 -0.274307 -0.0426942 7 35 43
0.1202 -0.27552 -0.0429053 5 35 40
0.119028 -0.276729 -0.0431157 5 36 39
0.118374 -0.278345 -0.0438701 6 35 40
0.090875 -0.260263 -0.0173974 6 38 38
0.0885886 -0.260348 -0.0162706 5 38 39
0.0867452 -0.260775 -0.0156049 4 38 39
0.0845093 -0.260856 -0.0145017 4 38 39
0.0823011 -0.260937 -0.0134121 6 36 39
0.0813172 -0.262035 -0.013645 7 35 38
0.0803365 -0.263129 -0.0138773 7 34 38
0.0801547 -0.26491 -0.014987 6 35 41
0.0811764 -0.267747 -0.0174349 6 37 43
0.0822109 -0.27062 -0.0199135 5 38 43
0.0824377 -0.2728 -0.0215053 3 37 40
0.0822558 -0.274626 -0.0226464 2 39 51
0.0816643 -0.276089 -0.0233293 7 56 64
0.0810727 -0.277552 -0.0240121 18 80 79
0.080481 -0.279015 -0.0246951 41 85 91
0.0798893 -0.280479 -0.0253781 55 75 79
0.0788935 -0.281564 -0.0255965 63 63 62
0.0783026 -0.283025 -0.0262785 63 65 60
0.0781139 -0.284869 -0.0274274 61 61 53
0.0779246 -0.286718 -0.02858 59 54 46
0.0777347 -0.288573 -0.0297362 60 51 45
0.150749 -0.271577 -0.0587457 51 57 54
0.150045 -0.273319 -0.0595588 32 47 49
0.149341 -0.275061 -0.060372 14 36 41
0.148025 -0.276362 -0.0605654 6 37 39
0.146108 -0.277218 -0.0601414 7 38 41
0.144805 -0.278508 -0.0603343 7 37 42
0.142316 -0.278911 -0.0593031 7 35 41
0.140442 -0.279749 -0.0588886 6 36 39
0.135698 -0.278402 -0.0554873 5 36 42
0.127774 -0.274574 -0.0487338 6 35 41
0.121771 -0.272122 -0.0439222 7 35 41
0.120592 -0.273341 -0.0441316 7 36 42
0.119936 -0.274963 -0.0448886 6 36 40
0.118246 -0.275767 -0.0445483 6 35 40
0.117593 -0.277383 -0.0453028 7 35 41
0.116939 -0.278999 -0.0460574 8 34 41
0.0832232 -0.261443 -0.0164618 7 37 36
0.0810228 -0.26152 -0.0153603 8 38 35
0.0804406 -0.26296 -0.0160324 8 38 36
0.0822768 -0.26649 -0.0193921 5 35 40
0.0829127 -0.269011 -0.0214365 7 37 41
0.0835544 -0.271555 -0.0235003 6 37 41
0.0837872 -0.273756 -0.0251161 3 36 40
0.0831918 -0.275228 -0.0258034 3 37 44
0.0821845 -0.276328 -0.0260223 3 48 54
0.0815901 -0.277798 -0.0267085 5 65 70
0.0805868 -0.278893 -0.0269259 28 78 86
0.0799932 -0.280361 -0.0276111 52 81 91
0.0789939 -0.281451 -0.0278268 71 82 91
0.0784011 -0.282916 -0.0285111 74 88 92
0.078212 -0.284766 -0.0296672 71 76 77
0.078834 -0.287398 -0.0317804 67 62 59
0.0790525 -0.28966 -0.0334307 64 58 50
0.151143 -0.2714 -0.0615328 54 57 56
0.150435 -0.273148 -0.0623491 37 46 49
0.149728 -0.274897 -0.0631655 17 34 39
0.148406 -0.276203 -0.0633545 9 37 38
0.146481 -0.277063 -0.0629186 8 37 40
0.14457 -0.277917 -0.0624861 9 37 42
0.14327 -0.279206 -0.0626748 9 37 42
0.1402 -0.279165 -0.0610181 7 37 41
0.13488 -0.277393 -0.0569873 5 34 41
0.126975 -0.273588 -0.0501992 6 35 40
0.120986 -0.271154 -0.0453622 7 36 41
0.119808 -0.272374 -0.0455692 7 36 42
0.119152 -0.273996 -0.0463264 5 37 44
0.118496 -0.275618 -0.0470836 5 37 42
0.116811 -0.27642 -0.0467358 7 36 40
0.116158 -0.278036 -0.0474905 9 34 37
0.0898677 -0.268759 -0.0272172 8 36 37
0.0854564 -0.266993 -0.0236725 7 35 37
0.0848611 -0.268465 -0.0243596 6 36 40
0.0855173 -0.271027 -0.0264538 7 37 40
0.0853379 -0.272874 -0.0276174 7 36 40
0.0847388 -0.274355 -0.028309 6 34 41
0.0841396 -0.275837 -0.0290007 5 37 45
0.0831243 -0.276943 -0.0292161 4 47 56
0.082526 -0.278423 -0.0299068 9 64 74
0.0819275 -0.279902 -0.0305976 47 92 100
0.0813291 -0.281382 -0.0312884 73 122 126
0.0803198 -0.282479 -0.0315 87 143 143
0.0793135 -0.283572 -0.031711 88 141 143
0.0787169 -0.285047 -0.0323998 84 114 110
0.078935 -0.287302 -0.0340521 77 84 76
0.0791543 -0.289571 -0.035715 66 57 59
0.151538 -0.271221 -0.0643413 59 59 54
0.150829 -0.272976 -0.0651607 42 47 47
0.150119 -0.274731 -0.0659803 19 35 38
0.148791 -0.276043 -0.0661649 10 38 38
0.146857 -0.276907 -0.065717 9 36 41
0.144937 -0.277765 -0.0652725 10 36 43
0.142434 -0.278174 -0.0642083 10 37 43
0.139958 -0.278579 -0.0631558 8 36 40
0.134631 -0.276813 -0.0590866 8 36 40
0.127262 -0.273428 -0.0528131 7 36 42
0.120723 -0.270586 -0.047357 6 36 44
0.119544 -0.27181 -0.047561 6 35 45
0.118886 -0.273435 -0.0483196 5 36 46
0.118229 -0.275059 -0.0490782 5 37 42
0.117056 -0.276274 -0.049279 6 37 39
0.115376 -0.277074 -0.0489238 7 37 37
0.114722 -0.27869 -0.0496787 7 36 38
0.0942241 -0.274223 -0.0356136 5 34 40
0.0875115 -0.270489 -0.0294546 4 35 42
0.0869085 -0.27198 -0.0301507 5 36 44
0.0863055 -0.273471 -0.0308468 5 37 45
0.0852803 -0.274589 -0.0310606 5 36 46
0.0842584 -0.275702 -0.0312739 3 38 47
0.0832396 -0.276813 -0.0314864 2 43 57
0.0822241 -0.27792 -0.0316983 4 54 73
0.0816247 -0.279402 -0.0323903 20 75 92
0.0810252 -0.280884 -0.0330823 41 103 109
0.0800146 -0.281983 -0.0332915 64 128 123
0.0790073 -0.283079 -0.0335001 91 142 129
0.0792265 -0.285331 -0.0351587 96 126 112
0.0790364 -0.287205 -0.0363385 90 99 88
0.0792567 -0.289481 -0.0380142 74 68 63
0.151312 -0.270606 -0.0665331 59 59 50
0.150601 -0.272364 -0.0673543 40 48 45
0.14989 -0.274123 -0.0681755 18 36 40
0.14856 -0.275439 -0.0683564 11 36 39
0.146623 -0.276307 -0.0678996 11 36 41
0.145307 -0.277611 -0.06808 10 35 43
0.143393 -0.278466 -0.0676269 9 35 43
0.139715 -0.277991 -0.0653017 8 36 41
0.134382 -0.27623 -0.0611939 8 38 41
0.12865 -0.274101 -0.0566161 6 38 42
0.120459 -0.270016 -0.049359 6 37 43
0.119278 -0.271243 -0.04956 5 36 44
0.118101 -0.272466 -0.0497603 3 36 45
0.117444 -0.274091 -0.0505191 3 38 43
0.116786 -0.275716 -0.0512779 4 39 41
0.115615 -0.27693 -0.051475 5 38 41
0.11394 -0.277727 -0.0511123 6 36 40
0.113286 -0.279344 -0.0518674 6 37 39
0.101743 -0.280367 -0.046296 5 37 42
0.0928697 -0.27484 -0.0376779 4 36 43
0.0909297 -0.275215 -0.0368812 6 36 42
0.0877141 -0.274452 -0.0346093 7 37 41
0.0858269 -0.274824 -0.033839 5 38 43
0.0847991 -0.275943 -0.0340489 2 39 45
0.0829379 -0.276306 -0.0332863 2 40 48
0.0819211 -0.277415 -0.0334958 3 44 51
0.0813207 -0.2789 -0.0341889 7 53 62
0.0807202 -0.280384 -0.0348822 14 69 74
0.0801196 -0.281869 -0.0355754 29 85 85
0.079519 -0.283354 -0.0362688 62 96 92
0.0789183 -0.284839 -0.0369621 73 88 85
0.0791383 -0.287107 -0.0386398 75 75 72
0.0793597 -0.289391 -0.0403283 69 63 55
0.151086 -0.269988 -0.0687335 58 58 48
0.150373 -0.27175 -0.0695563 42 48 45
0.14966 -0.273512 -0.0703793 19 36 42
0.148328 -0.274832 -0.0705565 11 35 40
0.146388 -0.275704 -0.0700906 10 37 40
0.14507 -0.277012 -0.0702675 9 37 42
0.143153 -0.277871 -0.0698054 8 36 44
0.13947 -0.2774 -0.0674558 7 37 44
0.134131 -0.275645 -0.0633091 6 37 43
0.128393 -0.273521 -0.0586889 5 38 41
0.122837 -0.271465 -0.054216 5 38 41
0.119533 -0.271077 -0.0521311 5 37 42
0.118351 -0.272305 -0.0523278 3 37 42
0.117174 -0.273528 -0.0525238 3 39 42
0.116515 -0.275156 -0.053284 4 39 43
0.115857 -0.276785 -0.0540444 5 37 43
0.113158 -0.276764 -0.0525463 7 35 41
0.112504 -0.278381 -0.0533015 7 36 39
0.11185 -0.279998 -0.0540567 6 37 39
0.111196 -0.281616 -0.0548119 6 36 40
0.107561 -0.280736 -0.0522066 6 37 41
0.104482 -0.280281 -0.0501998 6 38 42
0.102404 -0.280644 -0.049307 6 39 44
0.0961784 -0.277415 -0.0436567 5 40 46
0.0915149 -0.275458 -0.0397427 6 39 45
0.0895815 -0.275831 -0.0389361 6 39 45
0.0863787 -0.275062 -0.0366444 6 40 45
0.0844979 -0.275431 -0.0358645 4 37 39
0.0834721 -0.276549 -0.0360713 3 37 36
0.0820327 -0.277285 -0.0357876 3 38 37
0.0810156 -0.278396 -0.0359936 2 41 46
0.080414 -0.279883 -0.036688 3 52 59
0.0798125 -0.28137 -0.0373825 11 64 70
0.0792108 -0.282857 -0.038077 34 76 76
0.0790199 -0.284733 -0.0392655 51 72 72
0.0792409 -0.287009 -0.0409561 62 65 63
0.0786362 -0.288504 -0.0416541 64 59 49
0.150234 -0.268936 -0.070296 64 61 49
0.149521 -0.270698 -0.071119 47 50 46
0.148808 -0.27246 -0.0719421 21 38 43
0.147478 -0.273781 -0.0721164 8 37 43
0.145541 -0.274657 -0.0716448 6 37 43
0.144224 -0.275968 -0.0718189 7 38 43
0.14231 -0.276831 -0.0713511 7 38 43
0.138635 -0.27637 -0.0689873 7 37 44
0.134452 -0.275487 -0.0660485 6 35 43
0.127583 -0.272522 -0.0601738 6 35 41
0.122573 -0.270889 -0.0562556 6 36 41
0.118743 -0.270103 -0.0535799 6 36 41
0.117563 -0.271333 -0.053774 7 35 41
0.116903 -0.272964 -0.0545357 6 37 42
0.116243 -0.274595 -0.0552974 6 38 43
0.116099 -0.276638 -0.056632 6 37 43
0.11441 -0.277443 -0.056249 9 35 42
0.113751 -0.279071 -0.0570095 9 35 40
0.111571 -0.279449 -0.0560579 8 36 39
0.109912 -0.280237 -0.0556803 6 38 41
0.106297 -0.279374 -0.0530707 6 35 41
0.103714 -0.279337 -0.0516077 5 38 45
0.10164 -0.279704 -0.0507079 4 44 51
0.0981873 -0.278865 -0.0482054 5 52 59
0.0934477 -0.276867 -0.044185 10 56 62
0.0901598 -0.276076 -0.0418081 11 56 62
0.0865062 -0.274922 -0.0389759 8 51 57
0.0846186 -0.275293 -0.0381824 5 37 41
0.0831685 -0.276037 -0.0378905 3 34 36
0.0821447 -0.277155 -0.0380943 2 36 37
0.0815403 -0.278649 -0.0387921 2 37 43
0.0809358 -0.280143 -0.03949 2 46 57
0.0803312 -0.281638 -0.0401879 8 59 70
0.0797266 -0.283132 -0.0408859 25 76 75
0.079122 -0.284627 -0.0415839 44 73 71
0.0793438 -0.28691 -0.0432875 58 65 61
0.0787371 -0.288409 -0.0439879 64 58 46
0.149382 -0.267883 -0.0718588 65 59 43
0.148669 -0.269645 -0.0726819 48 53 40
0.147339 -0.270972 -0.072855 23 42 41
0.146014 -0.272294 -0.0730274 8 34 42
0.144693 -0.273611 -0.0731992 6 35 43
0.142774 -0.274484 -0.0727255 7 36 42
0.140869 -0.275351 -0.0722554 8 37 42
0.1378 -0.275339 -0.0705191 6 38 44
0.133626 -0.274468 -0.0675635 6 35 43
0.126773 -0.271524 -0.061659 7 36 40
0.121243 -0.2695 -0.0571391 7 35 40
0.117953 -0.269129 -0.0550288 7 34 41
0.116774 -0.27036 -0.0552205 7 32 44
0.116114 -0.271991 -0.0559823 7 35 43
0.11597 -0.27403 -0.0573182 8 36 43
0.115309 -0.275665 -0.0580814 8 36 42
0.115163 -0.277714 -0.0594234 8 35 44
0.113474 -0.278516 -0.05903 9 35 42
0.112305 -0.27973 -0.0592148 8 37 43
0.110132 -0.280105 -0.0582518 6 40 45
0.107486 -0.280062 -0.0567329 4 41 48
0.104877 -0.28002 -0.0552349 5 49 57
0.101826 -0.279573 -0.053206 10 62 70
0.0992952 -0.279535 -0.0517547 17 80 85
0.0958772 -0.278701 -0.0492502 23 84 85
0.0911873 -0.276712 -0.0452277 20 79 81
0.0874982 -0.275543 -0.0423383 11 67 72
0.0843154 -0.274777 -0.040014 10 52 59
0.0832848 -0.275902 -0.0402153 11 48 55
0.0822574 -0.277023 -0.040416 10 45 51
0.0812333 -0.278141 -0.0406162 6 38 45
0.0806277 -0.279638 -0.0413153 5 43 55
0.0800222 -0.281135 -0.0420144 10 55 68
0.0798312 -0.28302 -0.0432171 28 79 76
0.0796396 -0.284912 -0.0444236 45 75 71
0.0794473 -0.28681 -0.0456341 58 66 60
0.0788386 -0.288314 -0.0463369 65 56 44
0.147912 -0.266403 -0.0727719 64 60 48
0.1472 -0.268162 -0.0735936 51 57 45
0.145875 -0.269489 -0.0737647 28 50 43
0.144555 -0.270811 -0.0739352 9 34 42
0.142636 -0.271695 -0.0734588 6 34 43
0.141329 -0.273006 -0.0736291 6 34 43
0.138251 -0.273012 -0.0718794 7 35 42
0.135218 -0.273017 -0.0701555 6 36 42
0.131096 -0.272176 -0.0672203 8 36 44
0.123788 -0.268885 -0.0607619 8 36 44
0.117824 -0.266521 -0.0557148 7 36 44
0.116129 -0.26736 -0.055335 6 35 43
0.11547 -0.268989 -0.0560955 7 35 40
0.115325 -0.271019 -0.0574292 7 38 40
0.114665 -0.27265 -0.0581912 6 38 42
0.114518 -0.274691 -0.0595311 6 35 45
0.113857 -0.276325 -0.0602945 7 37 47
0.113196 -0.277959 -0.0610579 7 38 46
0.111517 -0.27876 -0.0606598 5 40 48
0.109348 -0.27914 -0.0596894 4 43 54
0.107696 -0.279929 -0.0592996 8 57 69
0.105077 -0.279888 -0.0577788 18 76 85
0.102014 -0.27944 -0.0557214 31 94 99
0.0994725 -0.279404 -0.0542482 44 107 109
0.0978963 -0.280173 -0.0538868 32 97 103
0.0940364 -0.278934 -0.0508239 25 90 98
0.0889414 -0.276558 -0.0462641 23 88 95
0.086149 -0.276158 -0.0443946 30 89 91
0.0829792 -0.275387 -0.0420505 30 82 82
0.0823707 -0.276891 -0.042753 24 68 70
0.0817622 -0.278395 -0.0434555 11 45 51
0.0811537 -0.279899 -0.0441581 7 44 55
0.080545 -0.281403 -0.0448608 11 54 66
0.0803539 -0.283298 -0.046074 26 79 75
0.0801621 -0.285199 -0.0472911 43 76 71
0.0799697 -0.287107 -0.0485123 57 67 61
0.079358 -0.288619 -0.0492186 64 55 44
0.145125 -0.266259 -0.0738525 56 57 52
0.144416 -0.268012 -0.0746713 32 49 50
0.142498 -0.268906 -0.0741921 11 35 45
0.141191 -0.270222 -0.0743612 9 35 44
0.138114 -0.270248 -0.072606 8 36 44
0.135662 -0.270698 -0.0715078 8 37 43
0.132095 -0.2703 -0.0691732 7 37 42
0.126379 -0.268259 -0.0644501 7 39 43
0.120846 -0.266284 -0.0598778 9 35 45
0.116 -0.264761 -0.0560188 8 35 46
0.115341 -0.266389 -0.0567794 5 38 45
0.114171 -0.267621 -0.0569677 5 41 41
0.114023 -0.269646 -0.0583007 6 40 42
0.113364 -0.271274 -0.0590615 6 40 43
0.112705 -0.272903 -0.0598223 4 40 44
0.112047 -0.274532 -0.0605831 5 37 43
0.111895 -0.276572 -0.0619251 5 39 51
0.110728 -0.277789 -0.062105 6 51 64
0.109064 -0.278588 -0.0617048 10 71 83
0.10741 -0.279381 -0.0613074 41 98 102
0.105278 -0.279755 -0.0603405 52 115 116
0.103652 -0.280537 -0.0599514 50 117 120
0.100125 -0.279677 -0.0573164 37 100 110
0.0976007 -0.279639 -0.055835 40 100 110
0.0960333 -0.280406 -0.055469 49 109 115
0.0908545 -0.277982 -0.050787 63 122 123
0.0871448 -0.276791 -0.0478151 63 122 122
0.0856601 -0.277544 -0.0474869 46 102 106
0.0846136 -0.27868 -0.0476789 25 73 82
0.0835705 -0.279811 -0.0478704 10 48 60
0.0829559 -0.28133 -0.0485799 5 45 60
0.0823413 -0.282849 -0.0492896 7 55 66
0.0817266 -0.284369 -0.0499992 21 79 74
0.0815354 -0.286287 -0.0512328 40 77 73
0.0809197 -0.287809 -0.0519438 55 69 66
0.0803038 -0.289331 -0.0526548 60 59 50
0.141054 -0.267438 -0.0750933 23 38 42
0.137977 -0.267485 -0.0733328 11 34 40
0.135526 -0.26795 -0.0722306 8 34 41
0.13196 -0.267577 -0.0698894 8 36 42
0.127349 -0.266392 -0.0663684 9 37 42
0.122852 -0.265238 -0.0629354 8 38 40
0.116904 -0.262938 -0.0578504 7 36 39
0.115212 -0.26379 -0.0574633 6 35 40
0.113532 -0.264636 -0.0570789 5 36 42
0.112875 -0.266259 -0.057837 5 40 40
0.112219 -0.267882 -0.0585952 4 41 42
0.111562 -0.269505 -0.0593534 6 41 42
0.110905 -0.271128 -0.0601117 7 41 42
0.110249 -0.272751 -0.06087 4 43 53
0.110599 -0.27519 -0.0627894 5 63 73
0.108935 -0.275997 -0.0623869 29 93 98
0.108278 -0.277621 -0.0631453 68 124 122
0.106627 -0.278417 -0.0627431 67 136 139
0.104988 -0.279208 -0.0623436 55 120 129
0.10336 -0.279994 -0.0619469 44 107 117
0.101263 -0.280363 -0.0609837 44 117 119
0.0982421 -0.279913 -0.0589064 68 136 134
0.0957347 -0.279874 -0.057417 73 139 140
0.0932611 -0.279835 -0.0559477 62 127 135
0.0885943 -0.277823 -0.0518127 51 107 112
0.0862202 -0.277799 -0.0504116 38 88 92
0.084736 -0.27855 -0.0500746 23 70 75
0.0836892 -0.279686 -0.0502628 11 46 60
0.0830725 -0.28121 -0.0509749 4 43 58
0.0824558 -0.282734 -0.0516869 5 53 63
0.081839 -0.284258 -0.052399 16 79 74
0.0816473 -0.286183 -0.0536407 38 79 74
0.0810295 -0.28771 -0.054354 54 70 68
0.0804116 -0.289237 -0.0550675 55 58 51
0.127215 -0.263703 -0.0670757 12 38 44
0.122721 -0.262583 -0.063634 7 38 44
0.118337 -0.261489 -0.0602773 8 40 42
0.115083 -0.26119 -0.0581473 7 37 44
0.113404 -0.262046 -0.0577606 6 36 45
0.11224 -0.263281 -0.0579467 5 37 45
0.111585 -0.264901 -0.0587036 7 38 44
0.110929 -0.266521 -0.0594606 5 40 43
0.109772 -0.267747 -0.0596436 3 44 47
0.109118 -0.269364 -0.0603994 5 52 58
0.108463 -0.270982 -0.0611552 16 75 86
0.108806 -0.273407 -0.0630689 52 114 115
0.108149 -0.27503 -0.0638275 69 135 136
0.106499 -0.275835 -0.063423 62 133 144
0.105351 -0.277044 -0.0635991 53 119 130
0.104208 -0.278248 -0.0637747 54 122 128
0.102582 -0.279037 -0.0633732 63 135 134
0.101449 -0.280232 -0.0635484 82 153 147
0.0984165 -0.279781 -0.0614422 71 135 140
0.0954351 -0.279339 -0.0593717 59 118 127
0.0929592 -0.279304 -0.0578869 47 103 108
0.0905163 -0.279269 -0.0564219 41 94 97
0.0872243 -0.278448 -0.0539008 33 84 86
0.0852923 -0.27881 -0.0530172 24 70 73
0.0842394 -0.279951 -0.0532017 13 46 56
0.0831898 -0.281089 -0.0533857 7 43 52
0.082571 -0.282618 -0.0541002 7 52 56
0.0819521 -0.284147 -0.0548147 17 75 70
0.0813332 -0.285677 -0.0555294 37 77 76
0.0807142 -0.287206 -0.056244 54 72 72
0.0800952 -0.288736 -0.0569588 58 61 54
0.113275 -0.259455 -0.0584424 14 39 44
0.111607 -0.260313 -0.0580561 9 38 45
0.110953 -0.26193 -0.0588118 8 37 47
0.110299 -0.263548 -0.0595675 7 36 49
0.109145 -0.264776 -0.0597501 3 46 59
0.108491 -0.266391 -0.0605046 11 64 75
0.107838 -0.268006 -0.0612591 33 93 98
0.107184 -0.269621 -0.0620137 70 135 129
0.10653 -0.271236 -0.0627684 70 135 139
0.106371 -0.273253 -0.0641029 62 128 140
0.105223 -0.274466 -0.064278 55 123 137
0.104569 -0.276081 -0.0650327 61 136 142
0.103427 -0.277287 -0.065206 69 146 146
0.102288 -0.278489 -0.0653786 74 146 145
0.101154 -0.279687 -0.0655508 69 128 135
0.0995443 -0.280469 -0.0651449 57 111 118
0.0965329 -0.280018 -0.0630288 47 100 107
0.0935723 -0.279574 -0.0609486 40 94 100
0.0911129 -0.279538 -0.0594558 40 91 94
0.0891324 -0.2799 -0.0585313 30 81 82
0.0862917 -0.279467 -0.0565298 16 66 68
0.08523 -0.280614 -0.0567098 11 42 51
0.0833077 -0.280966 -0.0558126 7 40 49
0.0826868 -0.282501 -0.0565296 7 50 56
0.0820658 -0.284035 -0.0572466 15 73 71
0.0814448 -0.28557 -0.0579637 37 77 78
0.0808237 -0.287104 -0.0586808 55 72 74
0.0802026 -0.288639 -0.059398 60 57 53
0.112134 -0.256114 -0.05798 55 57 50
0.110977 -0.257355 -0.0581652 52 55 47
0.109824 -0.258593 -0.0583498 45 51 47
0.108674 -0.259826 -0.0585338 32 48 53
0.108023 -0.261435 -0.0592857 17 56 65
0.107372 -0.263044 -0.0600377 28 78 87
0.106721 -0.264653 -0.0607897 49 111 113
0.106069 -0.266262 -0.0615418 68 140 135
0.105418 -0.267872 -0.0622939 67 135 139
0.104767 -0.269481 -0.0630461 63 127 138
0.105095 -0.271888 -0.0649569 63 129 141
0.104441 -0.273504 -0.0657117 67 141 149
0.103299 -0.274714 -0.0658839 73 150 152
0.102646 -0.276327 -0.0666376 69 140 142
0.101509 -0.27753 -0.0668078 61 123 127
0.100857 -0.279141 -0.0675603 53 104 111
0.0992459 -0.279926 -0.0671469 48 97 103
0.0981201 -0.281117 -0.0673157 45 93 99
0.0951207 -0.280661 -0.0651814 40 91 96
0.0903552 -0.278607 -0.0608449 29 82 84
0.0888247 -0.279372 -0.0604658 19 66 69
0.086862 -0.279734 -0.0595395 11 48 53
0.0844833 -0.279697 -0.0580785 8 35 44
0.0834263 -0.280843 -0.0582558 6 36 45
0.0823727 -0.281985 -0.0584326 7 47 55
0.0817506 -0.283522 -0.059151 10 71 72
0.0811285 -0.285059 -0.0598694 33 79 82
0.0805063 -0.286596 -0.0605878 53 76 79
0.0803105 -0.288541 -0.0618536 59 57 55
0.111502 -0.253163 -0.0580892 59 59 49
0.109849 -0.254039 -0.0577062 63 59 51
0.108702 -0.255278 -0.0578911 64 58 50
0.108052 -0.256884 -0.0586417 58 60 59
0.107402 -0.25849 -0.0593924 50 69 77
0.106261 -0.259719 -0.0595742 51 97 101
0.105612 -0.261323 -0.0603237 63 127 128
0.104962 -0.262927 -0.0610732 67 140 140
0.104313 -0.26453 -0.0618228 63 136 139
0.103664 -0.266134 -0.0625725 60 127 137
0.103015 -0.267738 -0.0633222 71 134 144
0.103336 -0.270131 -0.0652273 76 142 150
0.102684 -0.271741 -0.0659798 73 148 153
0.102033 -0.273351 -0.0667322 66 132 139
0.101865 -0.275366 -0.0680694 56 116 121
0.101212 -0.276979 -0.0688232 48 103 106
0.0995969 -0.277773 -0.0684048 46 97 99
0.0984687 -0.27897 -0.0685717 47 94 96
0.0973442 -0.280164 -0.0687381 41 88 91
0.0934247 -0.278905 -0.0654475 29 79 84
0.0914089 -0.279275 -0.0644818 18 61 65
0.0903171 -0.280446 -0.0646521 11 48 52
0.0887789 -0.281209 -0.0642586 7 38 44
0.0863635 -0.281162 -0.0627516 6 37 43
0.0839801 -0.281116 -0.0612646 6 39 48
0.0829203 -0.282263 -0.0614374 7 49 57
0.0818639 -0.283407 -0.0616097 8 70 72
0.0812396 -0.284949 -0.0623305 36 85 85
0.0806153 -0.286492 -0.0630514 57 84 84
0.0808484 -0.288854 -0.0648808 60 59 58
0.110525 -0.247895 -0.0563144 64 61 52
0.109875 -0.249501 -0.0570649 59 60 51
0.108729 -0.250745 -0.0572505 57 58 49
0.107588 -0.251985 -0.0574356 58 58 57
0.10694 -0.253586 -0.0581837 58 66 69
0.105804 -0.254819 -0.0583669 63 86 91
0.105157 -0.256417 -0.0591139 72 114 117
0.10451 -0.258015 -0.0598609 73 136 139
0.10338 -0.259239 -0.0600411 67 140 144
0.102734 -0.260835 -0.0607869 60 136 142
0.102569 -0.26281 -0.0621022 59 132 138
0.101922 -0.264409 -0.0628494 72 140 146
0.101756 -0.266394 -0.0641705 78 142 149
0.101589 -0.268386 -0.0654963 74 138 145
0.101905 -0.270782 -0.0674091 63 127 134
0.101253 -0.272392 -0.0681617 52 107 117
0.100601 -0.274002 -0.0689143 46 99 104
0.0999492 -0.275612 -0.069667 45 96 96
0.0988183 -0.276815 -0.0698321 46 95 93
0.0976914 -0.278015 -0.0699967 40 83 85
0.0965681 -0.27921 -0.0701608 29 70 74
0.094512 -0.279583 -0.0691595 16 57 61
0.0920168 -0.279546 -0.0675935 11 44 48
0.0909183 -0.280723 -0.0677596 8 38 44
0.0898235 -0.281895 -0.0679252 6 38 46
0.0882815 -0.282656 -0.0675194 8 47 52
0.0863049 -0.283005 -0.0665501 14 53 58
0.0847876 -0.283756 -0.0661524 18 60 65
0.0828448 -0.284097 -0.0651981 17 73 75
0.0822162 -0.28565 -0.0659239 43 88 87
0.0824562 -0.288025 -0.0677751 63 88 87
0.107108 -0.240967 -0.0517945 65 57 50
0.106467 -0.24255 -0.0525348 66 58 53
0.10631 -0.24448 -0.0538266 63 60 55
0.106153 -0.246417 -0.0551229 59 60 57
0.105509 -0.248006 -0.0558659 53 61 60
0.104866 -0.249596 -0.056609 54 75 81
0.104222 -0.251186 -0.0573521 66 104 108
0.103579 -0.252775 -0.0580953 74 126 129
0.102455 -0.254002 -0.0582776 75 138 144
0.101813 -0.255589 -0.0590196 64 138 147
0.100695 -0.256809 -0.0592001 57 134 142
0.100053 -0.258394 -0.059941 61 138 142
0.10036 -0.260726 -0.0618119 72 147 147
0.101148 -0.263455 -0.0642688 78 144 150
0.10098 -0.265439 -0.0655925 69 132 138
0.100812 -0.26743 -0.0669209 59 116 124
0.100643 -0.269428 -0.0682538 50 102 108
0.100473 -0.271432 -0.0695914 46 96 103
0.0998212 -0.273043 -0.0703442 46 94 96
0.0986904 -0.27425 -0.0705082 46 90 88
0.0964406 -0.276653 -0.0708346 31 61 65
0.0953214 -0.277849 -0.0709971 20 46 51
0.0946738 -0.279449 -0.071745 12 38 41
0.0930943 -0.280228 -0.0713206 9 37 41
0.0924488 -0.281823 -0.072066 7 36 44
0.0904239 -0.28218 -0.0710602 7 40 50
0.0884197 -0.282535 -0.0700649 13 59 60
0.0873307 -0.283703 -0.0702265 25 66 65
0.0857997 -0.284457 -0.0698139 36 70 69
0.0838386 -0.284797 -0.0688348 34 72 70
0.105533 -0.237434 -0.0508213 66 59 46
0.104895 -0.23901 -0.0515579 64 57 48
0.104257 -0.240586 -0.0522946 64 56 53
0.104097 -0.242502 -0.0535796 62 61 61
0.103937 -0.244426 -0.0548689 59 70 73
0.103297 -0.246007 -0.0556082 56 86 91
0.102656 -0.247589 -0.0563476 66 119 122
0.102016 -0.249171 -0.0570871 76 140 142
0.101376 -0.250752 -0.0578266 74 142 148
0.100735 -0.252334 -0.0585661 62 132 145
0.0996226 -0.253556 -0.0587469 57 131 142
0.0989832 -0.255135 -0.0594853 65 145 147
0.0988138 -0.257081 -0.0607851 74 150 149
0.099116 -0.259405 -0.0626558 78 144 146
0.0989458 -0.261368 -0.0639678 65 123 132
0.100204 -0.264484 -0.0670148 55 110 117
0.100035 -0.266473 -0.0683457 49 101 105
0.0998642 -0.268469 -0.0696812 48 95 99
0.0992134 -0.270077 -0.0704327 48 92 94
0.0985625 -0.271684 -0.0711843 50 87 84
0.104928 -0.234589 -0.05094 65 62 49
0.104292 -0.236162 -0.0516754 63 61 50
0.103655 -0.237735 -0.0524109 63 57 51
0.103018 -0.239308 -0.0531465 60 63 63
0.102381 -0.240881 -0.053882 61 77 80
0.102218 -0.242796 -0.0551677 64 102 105
0.10158 -0.244372 -0.0559046 69 134 136
0.100942 -0.245948 -0.0566417 78 153 153
0.100303 -0.247525 -0.0573787 69 141 151
0.0996651 -0.249101 -0.0581158 64 131 146
0.0990268 -0.250678 -0.058853 64 133 144
0.0983884 -0.252255 -0.0595902 70 148 151
0.09775 -0.253832 -0.0603275 76 152 151
0.0975787 -0.255772 -0.0616266 73 141 142
0.0974068 -0.257719 -0.0629302 61 115 124
0.097704 -0.260045 -0.0648085 54 103 110
0.0984767 -0.262767 -0.0672768 50 99 102
0.0987801 -0.265131 -0.0691862 49 96 97
0.0990855 -0.267511 -0.0711088 52 90 92
0.0984346 -0.269119 -0.0718605 54 81 82
0.104962 -0.230182 -0.0503241 64 61 55
0.104326 -0.231753 -0.0510583 64 60 54
0.10369 -0.233323 -0.0517925 62 60 54
0.10258 -0.234567 -0.0519832 60 63 60
0.101474 -0.235807 -0.0521733 58 68 71
0.10084 -0.237372 -0.0529052 62 88 94
0.100676 -0.239271 -0.0541828 69 116 120
0.100041 -0.240839 -0.0549161 74 143 143
0.0994057 -0.242408 -0.0556494 73 158 158
0.0987707 -0.243976 -0.0563828 62 136 146
0.0986021 -0.24589 -0.0576686 66 133 144
0.098433 -0.24781 -0.0589588 73 140 149
0.0977956 -0.249384 -0.0596948 78 150 155
0.0971582 -0.250958 -0.0604309 74 150 151
0.0965208 -0.252532 -0.061167 64 128 132
0.0958833 -0.254107 -0.0619032 54 109 115
0.095709 -0.256045 -0.063203 49 100 104
0.0955341 -0.257989 -0.0645073 49 97 101
0.0962917 -0.260686 -0.0669616 51 93 95
0.097057 -0.263411 -0.0694411 54 84 86
0.0968822 -0.265392 -0.070772 59 72 74
0.102468 -0.226112 -0.0482971 60 57 50
0.102307 -0.227981 -0.0495603 61 62 55
0.102146 -0.229858 -0.0508278 61 62 60
0.101513 -0.23142 -0.0515585 60 65 67
0.100412 -0.232661 -0.0517487 61 75 80
0.0997806 -0.234221 -0.0524782 63 99 107
0.0991489 -0.235782 -0.0532078 78 133 135
0.0985171 -0.237342 -0.0539375 78 147 150
0.098349 -0.239234 -0.0552127 67 145 153
0.097716 -0.240798 -0.0559437 58 132 141
0.097083 -0.242361 -0.0566747 70 141 143
0.0969121 -0.244265 -0.0579568 82 149 153
0.0972048 -0.246522 -0.0597991 83 151 156
0.0965684 -0.248094 -0.060534 73 143 146
0.095932 -0.249666 -0.061269 57 117 123
0.0952955 -0.251237 -0.062004 50 103 109
0.0946591 -0.252809 -0.0627391 47 98 101
0.094483 -0.254742 -0.0640382 47 96 97
0.0943062 -0.256681 -0.0653418 53 93 92
0.0941288 -0.258627 -0.0666498 56 79 81
0.100943 -0.222711 -0.0473577 62 60 56
0.101246 -0.224872 -0.0491457 62 57 52
0.101084 -0.226737 -0.0504083 61 62 56
0.100453 -0.228294 -0.0511366 62 68 68
0.0998224 -0.229851 -0.051865 64 88 93
0.0991917 -0.231409 -0.0525934 70 117 122
0.0980983 -0.232646 -0.0527814 92 155 149
0.0974686 -0.234201 -0.0535087 76 146 154
0.0968388 -0.235757 -0.054236 63 135 147
0.0966685 -0.23764 -0.0555076 61 136 141
0.0960376 -0.239198 -0.0562362 74 153 147
0.0954066 -0.240756 -0.0569649 92 161 156
0.0952333 -0.242652 -0.0582432 83 147 152
0.0955193 -0.244896 -0.0600805 66 126 137
0.0953453 -0.246808 -0.0613707 53 107 115
0.0947099 -0.248377 -0.0621045 49 100 105
0.0940744 -0.249947 -0.0628385 47 97 101
0.0934389 -0.251516 -0.0635724 49 96 96
0.0932609 -0.253443 -0.0648708 53 92 89
0.0930823 -0.255377 -0.0661737 54 71 76
0.0991372 -0.217219 -0.0446634 64 59 51
0.0994325 -0.219344 -0.0464277 62 59 54
0.0992681 -0.221184 -0.0476754 59 59 58
0.0995651 -0.223333 -0.0494586 57 63 65
0.099864 -0.225496 -0.0512538 59 76 78
0.0992344 -0.227051 -0.051981 65 104 106
0.0986047 -0.228606 -0.0527082 76 136 135
0.0975141 -0.229846 -0.0528958 88 161 158
0.0964271 -0.231081 -0.0530827 69 136 148
0.0953438 -0.232313 -0.0532692 60 129 145
0.0947171 -0.233861 -0.0539931 64 141 150
0.094999 -0.236056 -0.0558007 77 160 157
0.0943701 -0.237609 -0.056527 90 167 159
0.0937411 -0.239162 -0.0572534 74 137 145
0.0940206 -0.241384 -0.0590782 59 116 125
0.0938449 -0.24328 -0.0603603 49 103 111
0.0941261 -0.245527 -0.0622048 45 98 105
0.0934917 -0.247093 -0.0629375 48 97 103
0.0928572 -0.24866 -0.0636703 51 93 96
0.0981026 -0.214191 -0.0442712 65 64 49
0.0979372 -0.21601 -0.045507 63 61 48
0.0973159 -0.217544 -0.0462246 58 59 54
0.0971487 -0.219372 -0.0474658 52 64 70
0.096981 -0.221206 -0.0487112 51 81 93
0.0968127 -0.223046 -0.0499608 68 121 124
0.0966438 -0.224892 -0.0512146 79 151 150
0.0960182 -0.226437 -0.0519371 77 155 158
0.0953926 -0.227982 -0.0526598 64 129 142
0.0947669 -0.229527 -0.0533824 66 127 143
0.0941412 -0.231072 -0.0541051 74 146 158
0.0935155 -0.232617 -0.0548278 79 158 162
0.0928896 -0.234162 -0.0555507 78 153 154
0.0927136 -0.236031 -0.0568162 67 125 134
0.0920866 -0.237579 -0.0575403 56 108 117
0.0919088 -0.239457 -0.0588113 50 102 107
0.0926343 -0.242011 -0.061192 46 99 101
0.0924562 -0.243909 -0.0624777 46 96 98
0.0918238 -0.24547 -0.0632081 51 90 92
0.0975272 -0.211461 -0.0443975 61 62 59
0.096908 -0.21299 -0.0451127 63 63 60
0.0967408 -0.214804 -0.0463481 57 65 64
0.0961205 -0.216336 -0.0470645 52 72 77
0.0955001 -0.217867 -0.047781 59 97 107
0.0953302 -0.219693 -0.049023 86 142 140
0.0951596 -0.221525 -0.050269 79 153 156
0.0945371 -0.223062 -0.050988 65 142 151
0.0939144 -0.224599 -0.0517071 61 134 143
0.0937411 -0.226442 -0.0529599 75 142 144
0.0931175 -0.227982 -0.0536803 86 152 160
0.0924937 -0.229522 -0.0544007 83 156 161
0.09187 -0.231062 -0.0551211 72 142 147
0.0916927 -0.23292 -0.0563818 59 119 126
0.0910679 -0.234463 -0.0571036 51 104 108
0.090889 -0.236329 -0.0583698 47 101 105
0.0902629 -0.237875 -0.0590928 47 100 101
0.0905292 -0.240081 -0.0609149 48 95 95
0.0912477 -0.242638 -0.0633063 50 84 85
0.09712 -0.206942 -0.0432953 66 62 58
0.0965028 -0.208466 -0.0440081 62 57 56
0.0963354 -0.210267 -0.0452376 62 62 62
0.0957173 -0.211793 -0.0459517 63 68 71
0.0955482 -0.213603 -0.0471866 62 87 91
0.0949289 -0.215132 -0.0479019 72 121 121
0.0943094 -0.216661 -0.0486174 92 156 151
0.0941377 -0.218482 -0.0498588 72 142 154
0.0935172 -0.220014 -0.0505755 60 132 144
0.0928967 -0.221546 -0.0512923 64 140 143
0.0922761 -0.223078 -0.0520091 78 153 150
0.0921006 -0.224913 -0.0532583 89 157 158
0.0914788 -0.226448 -0.0539764 77 146 154
0.090857 -0.227983 -0.0546946 64 127 135
0.0902352 -0.229518 -0.0554128 54 113 120
0.0900558 -0.231367 -0.0566699 48 104 109
0.0898758 -0.233222 -0.0579312 47 100 103
0.0892518 -0.234762 -0.0586519 49 97 99
0.0890701 -0.236626 -0.0599187 51 88 90
0.0888878 -0.238497 -0.0611898 52 78 78
0.0965491 -0.204238 -0.0434228 66 59 48
0.0959329 -0.205759 -0.0441345 67 61 54
0.0957648 -0.207552 -0.0453622 60 59 61
0.0951475 -0.209076 -0.0460752 54 73 78
0.0945302 -0.2106 -0.0467883 64 103 105
0.0939129 -0.212124 -0.0475014 81 139 136
0.0932955 -0.213649 -0.0482145 86 157 156
0.092678 -0.215173 -0.0489277 69 137 152
0.092504 -0.216985 -0.0501657 63 128 146
0.0918855 -0.218512 -0.0508801 68 145 152
0.0917099 -0.220333 -0.0521234 78 158 156
0.0910902 -0.221863 -0.0528392 82 155 154
0.090913 -0.223693 -0.0540878 72 136 146
0.0902922 -0.225226 -0.0548049 59 119 126
0.0896714 -0.226758 -0.055522 51 108 113
0.0890505 -0.228291 -0.0562391 46 102 106
0.0888694 -0.230135 -0.0574956 45 99 103
0.0882474 -0.23167 -0.058214 50 96 98
0.0876254 -0.233206 -0.0589325 53 83 87
0.0874414 -0.235061 -0.0601957 57 70 70
0.0961471 -0.199764 -0.0423291 65 60 51
0.0955328 -0.20128 -0.0430385 62 61 50
0.0953647 -0.20306 -0.0442605 59 61 54
0.095196 -0.204846 -0.0454865 57 64 68
0.0945797 -0.206368 -0.0461984 55 78 93
0.0939634 -0.207889 -0.0469103 72 124 124
0.093347 -0.209411 -0.0476223 76 151 149
0.0927306 -0.210933 -0.0483344 70 148 153
0.092114 -0.212454 -0.0490465 65 136 147
0.0914975 -0.213976 -0.0497586 67 133 145
0.0908809 -0.215498 -0.0504708 77 146 157
0.0907042 -0.217309 -0.0517094 82 159 159
0.0900865 -0.218833 -0.0524229 78 150 150
0.0899081 -0.220652 -0.0536668 67 128 134
0.0897292 -0.222477 -0.0549149 56 111 117
0.0891093 -0.224007 -0.0556309 49 104 109
0.0884894 -0.225538 -0.0563469 46 101 104
0.0878695 -0.227068 -0.057063 47 99 101
0.0876867 -0.228907 -0.0583189 50 94 95
0.0870656 -0.23044 -0.0590362 55 79 80
0.0955805 -0.197084 -0.0424576 65 61 49
0.0949673 -0.198598 -0.0431659 63 61 48
0.094354 -0.200111 -0.0438743 60 63 56
0.0941842 -0.201887 -0.0450957 57 75 76
0.0940137 -0.203668 -0.0463212 61 103 108
0.0933983 -0.205187 -0.047032 90 146 143
0.0927829 -0.206706 -0.0477429 76 145 153
0.0921674 -0.208225 -0.0484539 63 138 150
0.0915519 -0.209745 -0.0491649 62 136 146
0.0909364 -0.211264 -0.0498759 73 142 148
0.0903207 -0.212784 -0.050587 84 151 157
0.0897051 -0.214303 -0.0512982 81 153 157
0.0895267 -0.216109 -0.0525362 73 139 143
0.0889099 -0.217631 -0.0532487 63 122 127
0.0887298 -0.219445 -0.054492 53 107 113
0.088112 -0.22097 -0.0552057 49 100 103
0.0879301 -0.222793 -0.0564544 48 99 101
0.0873112 -0.224321 -0.0571693 49 95 97
0.0871277 -0.226152 -0.0584234 51 88 89
0.0975848 -0.192126 -0.0426962 68 61 46
0.0965209 -0.193396 -0.0428957 62 59 51
0.0954605 -0.194662 -0.0430946 63 63 51
0.0948473 -0.196175 -0.043803 56 63 53
0.0937912 -0.197435 -0.0440002 55 67 67
0.0931789 -0.198946 -0.0447075 59 89 92
0.0925665 -0.200457 -0.0454149 72 123 122
0.0923939 -0.202231 -0.0466371 88 155 151
0.0917804 -0.203745 -0.0473457 75 142 155
0.0911669 -0.205259 -0.0480544 63 133 147
0.0905534 -0.206774 -0.0487631 66 141 148
0.090377 -0.208561 -0.0499929 77 151 152
0.0897624 -0.210078 -0.0507029 88 155 156
0.0891477 -0.211595 -0.0514129 80 147 154
0.088533 -0.213112 -0.052123 68 130 135
0.0879182 -0.21463 -0.0528332 57 114 120
0.087737 -0.216433 -0.0540719 50 105 109
0.0871212 -0.217953 -0.0547833 47 100 102
0.0869383 -0.219765 -0.0560273 49 97 99
0.0863214 -0.221287 -0.05674 50 91 92
0.0861368 -0.223108 -0.0579893 52 82 80
0.0961204 -0.188972 -0.0418073 64 61 54
0.0955082 -0.190482 -0.0425145 64 60 50
0.0944528 -0.191749 -0.0427134 60 60 54
0.0929615 -0.192766 -0.0424055 60 60 59
0.0919152 -0.194022 -0.0426038 54 74 80
0.0913068 -0.195524 -0.0433066 63 105 107
0.0906984 -0.197026 -0.0440095 75 140 140
0.0900899 -0.198528 -0.0447125 79 154 157
0.0894813 -0.200029 -0.0454154 74 142 153
0.0888727 -0.201532 -0.0461185 66 130 149
0.0882641 -0.203034 -0.0468216 68 145 155
0.0880854 -0.2048 -0.0480383 78 157 158
0.0874757 -0.206305 -0.0487426 83 155 156
0.0872954 -0.20808 -0.0499646 77 139 146
0.0866846 -0.209587 -0.0506702 62 121 129
0.0860738 -0.211095 -0.0513758 53 108 114
0.0854629 -0.212602 -0.0520814 49 102 106
0.0852789 -0.214391 -0.053311 48 100 101
0.0846669 -0.215901 -0.0540179 48 96 96
0.0849088 -0.217985 -0.0557823 49 86 89
0.0842948 -0.219501 -0.0564916 54 76 75
0.0946702 -0.185847 -0.0409271 61 59 51
0.0940609 -0.187351 -0.0416309 61 59 56
0.0934516 -0.188855 -0.0423347 61 57 60
0.0924046 -0.190118 -0.0425331 57 66 67
0.0913609 -0.191377 -0.0427309 59 85 92
0.0903205 -0.192632 -0.0429281 81 125 126
0.0897139 -0.194128 -0.0436288 80 146 148
0.0886777 -0.195377 -0.0438242 71 148 155
0.0880721 -0.196872 -0.0445239 66 141 151
0.0874664 -0.198367 -0.0452236 69 137 149
0.0868607 -0.199862 -0.0459234 76 144 158
0.0866806 -0.201615 -0.0471329 81 159 162
0.0860737 -0.203112 -0.0478339 78 151 154
0.085892 -0.204873 -0.0490486 68 131 139
0.0857097 -0.20664 -0.0502672 56 113 123
0.0855266 -0.208413 -0.0514897 48 102 110
0.0849167 -0.209918 -0.0521943 47 101 104
0.0843068 -0.211423 -0.052899 48 99 100
0.0841211 -0.213207 -0.054128 51 93 93
0.08351 -0.214715 -0.0548339 53 83 82
0.0932339 -0.182753 -0.0400554 68 60 47
0.0930642 -0.18448 -0.0412569 65 62 52
0.0924569 -0.185979 -0.0419586 60 64 62
0.0914147 -0.187242 -0.042157 58 74 80
0.090376 -0.188502 -0.0423548 64 105 106
0.0893404 -0.189757 -0.042552 91 146 141
0.0887358 -0.19125 -0.0432505 83 146 153
0.0881311 -0.192742 -0.043949 70 142 152
0.0875264 -0.194234 -0.0446477 67 142 149
0.0869216 -0.195726 -0.0453463 75 145 149
0.0863168 -0.197219 -0.046045 86 151 158
0.085712 -0.198712 -0.0467438 84 154 161
0.0851071 -0.200204 -0.0474426 76 144 148
0.0849243 -0.201955 -0.0486527 64 125 131
0.0847409 -0.203712 -0.0498668 54 108 117
0.084557 -0.205474 -0.0510849 47 101 107
0.0843723 -0.207242 -0.0523069 45 100 104
0.0837633 -0.208745 -0.0530105 48 97 98
0.0835769 -0.210521 -0.0542377 52 89 88
0.0915507 -0.177761 -0.0375096 61 58 45
0.0913797 -0.179467 -0.0386975 63 60 48
0.0916403 -0.181402 -0.0403866 65 61 56
0.0910358 -0.182894 -0.041085 60 69 71
0.0904313 -0.184385 -0.0417834 59 89 93
0.0898267 -0.185877 -0.0424818 71 123 123
0.0887936 -0.187135 -0.0426786 82 156 152
0.0877639 -0.188389 -0.0428747 80 148 153
0.0871611 -0.189876 -0.0435711 70 136 150
