ply
format ascii 1.0
element vertex 1150
property float x
property float y
property float z
property uchar diffuse_red
property uchar diffuse_green
property uchar diffuse_blue
end_header
0.0832614 -0.207663 -0.0539865 52 134 140
0.082656 -0.207344 -0.05491 53 127 132
0.0820505 -0.207026 -0.0558337 51 127 128
0.0816796 -0.206556 -0.0568203 59 134 141
0.0813079 -0.206084 -0.0578091 77 147 148
0.080701 -0.205765 -0.0587349 79 166 160
0.0841218 -0.207352 -0.0515804 58 140 148
0.0835164 -0.207033 -0.0525039 58 141 148
0.082911 -0.206715 -0.0534274 58 140 146
0.0823055 -0.206397 -0.054351 63 141 147
0.0817 -0.206079 -0.0552748 85 147 152
0.0810944 -0.20576 -0.0561985 117 164 166
0.0807223 -0.205288 -0.0571856 100 171 171
0.0803495 -0.204815 -0.058175 67 144 148
0.0797425 -0.204496 -0.0591009 61 126 128
0.082438 -0.201973 -0.0609717 57 100 109
0.0841397 -0.206874 -0.0500418 59 145 152
0.0835349 -0.206556 -0.0509643 60 145 152
0.0826946 -0.206391 -0.0518293 62 147 155
0.0823252 -0.205921 -0.0528096 69 151 158
0.0817202 -0.205603 -0.0537323 91 164 171
0.0813493 -0.205131 -0.0547157 147 204 203
0.0807437 -0.204813 -0.0556395 167 238 231
0.080138 -0.204494 -0.0565634 118 202 210
0.0797649 -0.204021 -0.057551 71 138 156
0.0793909 -0.203546 -0.0585409 65 76 81
0.0792488 -0.202914 -0.059599 68 67 64
0.0814647 -0.200684 -0.0613434 71 66 58
0.0843945 -0.206246 -0.0485605 61 150 158
0.0835533 -0.20608 -0.0494279 64 151 160
0.0829491 -0.205763 -0.0503495 67 157 162
0.0823449 -0.205445 -0.0512712 71 160 167
0.081975 -0.204974 -0.0522509 73 162 168
0.08137 -0.204656 -0.0531736 99 180 181
0.0809986 -0.204183 -0.0541565 172 230 215
0.0803929 -0.203865 -0.0550804 161 236 227
0.0797872 -0.203546 -0.0560043 111 179 182
0.0794136 -0.203072 -0.0569915 86 130 134
0.0790391 -0.202596 -0.0579808 69 69 62
0.0786638 -0.20212 -0.0589723 64 64 57
0.0854925 -0.205782 -0.0462082 62 147 158
0.0846493 -0.205617 -0.047079 66 155 163
0.0838078 -0.205452 -0.047948 78 160 168
0.0832036 -0.205135 -0.0488695 93 166 172
0.0825994 -0.204817 -0.0497912 92 173 172
0.0822297 -0.204345 -0.0507693 75 163 167
0.0816247 -0.204027 -0.0516921 60 143 153
0.0812536 -0.203553 -0.0526734 76 150 153
0.0806479 -0.203235 -0.0535973 126 191 180
0.0800421 -0.202917 -0.0545212 113 192 195
0.0794363 -0.202598 -0.0554452 88 154 161
0.0790623 -0.202123 -0.0564318 69 102 117
0.0784557 -0.201804 -0.0573569 71 64 60
0.0852708 -0.20546 -0.0446249 72 157 163
0.0846666 -0.205142 -0.0455463 85 166 168
0.0840624 -0.204824 -0.0464679 92 174 173
0.0834582 -0.204507 -0.0473894 85 169 173
0.0828539 -0.204189 -0.0483111 78 155 163
0.0824845 -0.203716 -0.0492876 69 141 146
0.0818795 -0.203398 -0.0502104 55 126 132
0.0815086 -0.202924 -0.0511901 46 112 117
0.0809029 -0.202605 -0.052114 52 107 109
0.0802971 -0.202287 -0.0530379 77 121 119
0.0796912 -0.201968 -0.0539619 91 134 136
0.0793174 -0.201492 -0.054947 71 103 114
0.0787109 -0.201173 -0.0558721 64 72 68
0.0781043 -0.200854 -0.0567973 65 60 57
0.085653 -0.205455 -0.0421287 80 160 166
0.0850501 -0.205138 -0.0430481 89 168 171
0.0844472 -0.204821 -0.0439676 87 171 173
0.0840804 -0.20435 -0.0449373 80 161 167
0.0837127 -0.203878 -0.0459092 73 147 155
0.0831084 -0.203561 -0.0468308 62 135 143
0.0827393 -0.203087 -0.0478058 50 120 128
0.0821343 -0.202769 -0.0487286 45 108 113
0.0817636 -0.202294 -0.0497067 39 97 100
0.0811578 -0.201976 -0.0506306 41 85 87
0.0807857 -0.201499 -0.0516119 54 75 79
0.0801792 -0.201181 -0.0525369 65 79 79
0.0795727 -0.200862 -0.053462 79 87 81
0.0789661 -0.200543 -0.0543871 70 71 68
0.0783594 -0.200224 -0.0553122 68 62 56
0.0842191 -0.210728 -0.0332712 54 137 143
0.0834026 -0.210563 -0.0341288 55 140 144
0.0830448 -0.210111 -0.035062 65 143 147
0.083375 -0.209222 -0.0361166 62 148 150
0.0844048 -0.207883 -0.0373042 64 150 154
0.0840435 -0.207422 -0.0382525 73 156 162
0.0860336 -0.205451 -0.0396429 89 163 167
0.085432 -0.205135 -0.0405604 91 171 172
0.0848304 -0.204819 -0.0414779 82 164 170
0.0844648 -0.204348 -0.0424428 77 154 161
0.0840984 -0.203877 -0.0434099 67 143 148
0.0839673 -0.20325 -0.0444288 55 129 135
0.0835992 -0.202776 -0.0454011 45 115 121
0.0829941 -0.202458 -0.0463238 38 104 111
0.0826244 -0.201983 -0.0472994 39 92 97
0.0820187 -0.201664 -0.0482232 49 80 82
0.0816474 -0.201188 -0.0492019 58 72 72
0.081041 -0.200869 -0.0501268 60 68 64
0.0804345 -0.20055 -0.0510517 62 63 60
0.0798279 -0.200231 -0.0519768 66 64 56
0.0794538 -0.199752 -0.0529608 70 69 60
0.0788465 -0.199433 -0.0538869 68 64 56
0.0858583 -0.209248 -0.0320455 56 136 144
0.0838798 -0.209809 -0.0327271 61 140 147
0.0830635 -0.209645 -0.0335854 64 146 154
0.0827054 -0.209192 -0.034518 78 156 163
0.0825752 -0.208591 -0.0354919 84 164 166
0.082904 -0.207694 -0.0365506 94 173 172
0.0836996 -0.206491 -0.0377019 87 171 175
0.0845052 -0.205273 -0.0388678 85 159 166
0.085084 -0.204193 -0.0400035 77 148 155
0.0844823 -0.203876 -0.0409211 62 135 144
0.0841163 -0.203405 -0.0418855 52 121 130
0.0839854 -0.202778 -0.0429001 46 110 117
0.0840909 -0.20199 -0.0439683 36 100 105
0.0839593 -0.201356 -0.0449928 28 92 95
0.0833523 -0.201037 -0.0459184 30 86 88
0.0832186 -0.200399 -0.0469494 43 76 78
0.0837995 -0.199276 -0.0481471 59 66 66
0.0831878 -0.198954 -0.0490799 65 63 59
0.0872817 -0.207897 -0.0307695 58 139 145
0.0855168 -0.208323 -0.0314979 60 140 146
0.0837701 -0.208744 -0.0322188 81 152 157
0.0831823 -0.208435 -0.0331151 106 184 179
0.0828234 -0.207979 -0.0340493 100 173 188
0.0826931 -0.207375 -0.0350243 91 173 176
0.0830231 -0.206471 -0.0360833 89 162 165
0.0833557 -0.20556 -0.0371513 72 147 153
0.084159 -0.204336 -0.0383137 58 128 136
0.0844999 -0.203405 -0.0394024 51 115 122
0.0843702 -0.202779 -0.0404095 41 103 110
0.0842398 -0.20215 -0.0414209 34 94 100
0.0843461 -0.20136 -0.0424844 31 86 92
0.084215 -0.200725 -0.0435058 29 81 86
0.0857628 -0.19896 -0.0448851 29 81 83
0.085633 -0.198311 -0.0459238 34 83 84
0.0862325 -0.197166 -0.0471277 47 80 85
0.0863474 -0.196342 -0.0482342 59 69 72
0.0869385 -0.206967 -0.0302189 63 134 143
0.0858754 -0.206953 -0.0310546 74 138 138
0.0845845 -0.207087 -0.0318512 99 166 161
0.0835316 -0.207072 -0.0326793 121 195 197
0.0829419 -0.206762 -0.0335786 96 168 182
0.0828115 -0.206154 -0.0345546 70 151 158
0.0829113 -0.205394 -0.0355744 58 129 136
0.0834763 -0.204325 -0.0366823 44 110 117
0.0838128 -0.203398 -0.0377596 36 98 103
0.0843879 -0.202309 -0.0388896 29 90 92
0.0847313 -0.201365 -0.0399866 25 84 85
0.0846013 -0.200731 -0.0410004 26 81 81
0.084709 -0.199934 -0.042066 27 79 80
0.0860209 -0.198322 -0.0433836 31 79 81
0.0863775 -0.197344 -0.0445203 34 82 84
0.0864926 -0.196523 -0.0456148 38 86 89
0.0873465 -0.195193 -0.0468773 48 91 94
0.0874658 -0.194358 -0.0479903 59 80 80
0.0870894 -0.193859 -0.0489978 66 64 59
0.0870668 -0.205737 -0.0297355 70 131 131
0.0860012 -0.205725 -0.0305739 77 131 128
0.08494 -0.205713 -0.031409 89 147 143
0.0838831 -0.205701 -0.0322406 92 167 173
0.0830608 -0.20554 -0.0331058 69 150 154
0.0829303 -0.204928 -0.034083 50 119 127
0.0834948 -0.203857 -0.035182 47 97 103
0.0840652 -0.202776 -0.0362925 47 81 86
0.0853524 -0.201212 -0.0375416 39 77 75
0.084986 -0.200736 -0.0385056 23 71 70
0.0850947 -0.199941 -0.0395609 18 76 73
0.084965 -0.199302 -0.0405771 25 81 79
0.0855546 -0.198174 -0.0417394 29 83 82
0.0866368 -0.196704 -0.0430122 33 85 86
0.0867527 -0.195881 -0.0441018 38 88 91
0.0876083 -0.194547 -0.0453543 41 94 98
0.0877284 -0.193709 -0.0464624 51 105 105
0.0873522 -0.19321 -0.0474682 59 97 96
0.0872233 -0.192537 -0.0485322 62 71 72
0.0861275 -0.204491 -0.0300912 63 111 110
0.0848302 -0.204633 -0.0308942 65 110 109
0.0840043 -0.204472 -0.0317634 70 135 129
0.0831801 -0.204312 -0.032631 52 124 128
0.0830496 -0.203696 -0.0336092 47 87 94
0.0838492 -0.202463 -0.0347471 55 72 71
0.0848952 -0.201057 -0.0359399 63 62 62
0.0859566 -0.19963 -0.0371505 55 67 61
0.0853502 -0.199311 -0.038075 31 64 62
0.0857002 -0.198347 -0.0391768 24 73 71
0.0858119 -0.197539 -0.0402424 28 86 85
0.0859243 -0.196725 -0.0413148 32 93 93
0.086524 -0.195573 -0.0424912 34 96 97
0.0868846 -0.194577 -0.0436303 38 98 100
0.0877429 -0.193232 -0.0448826 42 102 107
0.0876151 -0.19256 -0.0459385 48 111 114
0.0874867 -0.191886 -0.0469991 56 108 112
0.087109 -0.191382 -0.048009 62 83 88
0.0857833 -0.203559 -0.0295392 55 79 80
0.0849538 -0.203398 -0.0304126 55 86 80
0.0838935 -0.203391 -0.031249 58 92 92
0.0832999 -0.203079 -0.0321541 53 86 86
0.0829374 -0.202613 -0.0330963 58 61 60
0.0842058 -0.201059 -0.0343094 65 61 49
0.0859728 -0.199159 -0.0356239 66 59 50
0.0868072 -0.197872 -0.0367979 65 62 55
0.0861975 -0.197551 -0.0377274 45 64 60
0.086553 -0.196575 -0.0388337 32 74 72
0.0861825 -0.196087 -0.0398128 33 89 91
0.0862964 -0.195266 -0.0408873 36 100 103
0.0864109 -0.19444 -0.0419689 37 104 107
0.0867714 -0.193438 -0.043107 40 105 109
0.0873821 -0.192256 -0.0443062 42 106 111
0.0872534 -0.191582 -0.045361 45 110 116
0.0871242 -0.190905 -0.0464204 52 113 118
0.086746 -0.190401 -0.0474297 63 93 94
0.0863668 -0.189895 -0.0484413 67 64 61
0.0848436 -0.202313 -0.0298949 58 70 61
0.084015 -0.202154 -0.0307681 58 65 65
0.083188 -0.201995 -0.0316395 62 58 49
0.0830569 -0.201373 -0.0326188 65 56 44
0.0874233 -0.19626 -0.0363996 67 58 49
0.086811 -0.195938 -0.0373332 54 62 54
0.0866835 -0.195283 -0.0383545 35 71 69
0.0865554 -0.194626 -0.0393803 35 91 94
0.0864268 -0.193966 -0.0404106 39 104 108
0.0862975 -0.193304 -0.0414454 40 107 112
0.0864124 -0.192467 -0.0425337 41 107 113
0.0872685 -0.191106 -0.0437803 42 107 113
0.0871394 -0.190429 -0.0448351 43 109 114
0.0867615 -0.189925 -0.0458415 50 115 117
0.0863829 -0.189419 -0.0468502 59 102 104
0.0860033 -0.188912 -0.0478612 63 73 72
0.086942 -0.194645 -0.0368506 60 55 47
0.0868145 -0.193987 -0.0378732 38 66 64
0.0864426 -0.193494 -0.0388555 34 87 88
0.0860699 -0.193001 -0.0398401 39 104 105
0.0859398 -0.192336 -0.0408737 41 109 112
0.0860535 -0.191496 -0.0419601 41 109 113
0.0869071 -0.190129 -0.0432031 42 108 111
0.0867771 -0.189449 -0.0442567 42 110 112
0.0863988 -0.188944 -0.0452626 47 114 116
0.0860197 -0.188437 -0.0462707 54 109 114
0.0856396 -0.187929 -0.0472812 61 85 84
0.0852587 -0.18742 -0.0482939 69 61 49
0.0873178 -0.193178 -0.0364078 64 51 45
0.086702 -0.192854 -0.0373466 45 60 57
0.0863295 -0.192359 -0.0383295 33 80 79
0.0859561 -0.191864 -0.0393146 38 100 98
0.085582 -0.191368 -0.0403019 41 107 109
0.0856945 -0.190525 -0.0413865 41 108 111
0.0862992 -0.189327 -0.0425765 42 109 110
0.0864149 -0.188469 -0.0436782 43 109 111
0.0862834 -0.187785 -0.0447353 44 111 116
0.0859036 -0.187276 -0.045744 51 116 119
0.085523 -0.186767 -0.0467551 59 96 95
0.0851414 -0.186256 -0.0477684 65 64 58
0.0872057 -0.192043 -0.035879 62 53 44
0.0865891 -0.191718 -0.0368188 51 60 51
0.0862161 -0.191222 -0.0378023 34 74 69
0.0858421 -0.190725 -0.0387879 34 93 90
0.0854674 -0.190227 -0.0397758 39 105 106
0.0853354 -0.189554 -0.0408129 42 107 111
0.085938 -0.18835 -0.0419998 42 108 112
0.0860525 -0.18749 -0.0430996 43 107 113
0.0859202 -0.186803 -0.0441555 43 108 115
0.08554 -0.186293 -0.0451637 50 117 118
0.0851588 -0.185782 -0.0461741 56 107 107
0.0847768 -0.18527 -0.0471868 60 76 72
0.086476 -0.19058 -0.0362898 60 60 46
0.0861024 -0.190082 -0.0372738 37 68 62
0.0857278 -0.189583 -0.03826 29 87 86
0.0853525 -0.189083 -0.0392484 37 103 105
0.0849762 -0.188582 -0.040239 42 107 110
0.0855769 -0.187373 -0.0414229 42 106 112
0.0856901 -0.186509 -0.0425209 42 107 113
0.0855569 -0.18582 -0.0435756 42 108 115
0.0851762 -0.18531 -0.0445832 47 114 118
0.0850414 -0.184616 -0.045646 52 116 118
0.0846588 -0.184102 -0.0466593 59 89 87
0.0842753 -0.183587 -0.047675 65 62 52
0.0863626 -0.189439 -0.0357595 65 58 43
0.0859883 -0.188939 -0.0367441 43 63 59
0.0856132 -0.188439 -0.0377308 29 79 79
0.0852373 -0.187937 -0.0387198 35 98 99
0.0848605 -0.187434 -0.039711 41 105 109
0.085461 -0.186217 -0.0408933 41 106 111
0.0853276 -0.185529 -0.0419421 41 107 113
0.0854403 -0.184657 -0.0430456 42 108 114
0.0848124 -0.184326 -0.0440026 43 111 118
0.0846767 -0.18363 -0.0450643 51 119 122
0.0845404 -0.182931 -0.0461306 62 100 98
0.0841563 -0.182414 -0.0471469 67 68 62
0.0835248 -0.182081 -0.0481094 68 60 48
0.0858739 -0.187794 -0.0362131 53 60 56
0.0854983 -0.187292 -0.0372004 34 72 71
0.0851217 -0.186788 -0.0381899 32 92 92
0.0847443 -0.186283 -0.0391817 37 102 106
0.0850993 -0.185239 -0.0403156 40 106 111
0.0849651 -0.184549 -0.0413632 41 107 112
0.0850764 -0.183673 -0.0424649 42 108 112
0.0846947 -0.183159 -0.0434725 42 110 115
0.0845585 -0.182459 -0.0445342 50 120 121
0.0844217 -0.181757 -0.0456006 60 113 113
0.0840369 -0.181238 -0.0466174 65 80 77
0.0834047 -0.180905 -0.0475811 69 60 47
0.0860039 -0.186469 -0.0357224 63 57 56
0.0856275 -0.185964 -0.0367114 41 65 64
0.0850058 -0.185636 -0.0376588 29 85 85
0.0851168 -0.18477 -0.038741 34 99 102
0.0847376 -0.18426 -0.0397378 39 106 110
0.0848479 -0.183386 -0.0408317 41 107 112
0.0847126 -0.182689 -0.041884 41 108 112
0.0843304 -0.182174 -0.0428911 41 110 113
0.0841933 -0.181472 -0.0439515 46 117 118
0.0843027 -0.18058 -0.0450693 54 120 122
0.0839173 -0.180059 -0.0460867 63 93 90
0.0837783 -0.179348 -0.0471615 66 62 55
0.0863802 -0.184958 -0.0352706 66 54 55
0.0860029 -0.184449 -0.0362624 51 59 59
0.0853792 -0.184121 -0.037213 35 77 76
0.0850002 -0.183611 -0.0382081 36 96 98
0.0846205 -0.183099 -0.0392055 39 104 108
0.0844849 -0.182404 -0.040252 40 106 111
0.0843487 -0.181705 -0.0413031 40 108 112
0.0842118 -0.181003 -0.0423589 41 109 113
0.083828 -0.180485 -0.0433688 43 113 116
0.0841833 -0.179401 -0.0445368 52 123 121
0.0840449 -0.178688 -0.0456081 62 103 101
0.0836579 -0.178163 -0.0466296 64 69 67
0.0862654 -0.1838 -0.0347342 67 57 46
0.0858874 -0.18329 -0.0357266 62 58 50
0.085263 -0.182961 -0.0366783 41 69 67
0.0846384 -0.182632 -0.0376301 34 90 90
0.084503 -0.181936 -0.038672 38 103 105
0.0841217 -0.181422 -0.0396722 39 107 111
0.0839847 -0.18072 -0.0407221 39 109 113
0.0838469 -0.180016 -0.0417767 41 109 114
0.0837085 -0.179309 -0.042836 42 110 115
0.0840636 -0.178218 -0.0440029 51 122 121
0.0839248 -0.177502 -0.0450743 60 115 115
0.0835371 -0.176976 -0.0460965 65 83 82
0.0855257 -0.182311 -0.0351483 59 58 45
0.0849012 -0.181982 -0.0361001 43 63 60
0.0845212 -0.181469 -0.0370952 32 82 83
0.0843853 -0.180769 -0.0381371 35 99 102
0.0840034 -0.180253 -0.0391379 38 106 111
0.0836206 -0.179736 -0.0401409 39 107 113
0.083482 -0.17903 -0.0411943 41 109 114
0.0833427 -0.17832 -0.0422524 42 109 115
0.0839437 -0.177033 -0.0434678 46 117 121
0.0838043 -0.176314 -0.0445393 54 122 126
0.0834159 -0.175785 -0.045562 66 96 96
0.0830267 -0.175255 -0.0465871 71 63 56
0.0854095 -0.181147 -0.0346105 64 64 44
0.0847842 -0.180818 -0.0355634 50 60 54
0.0844036 -0.180303 -0.0365591 34 75 73
0.0840221 -0.179787 -0.0375571 33 95 97
0.0836398 -0.17927 -0.0385572 38 105 108
0.0832565 -0.178751 -0.0395597 40 106 111
0.083117 -0.178043 -0.0406118 41 108 114
0.0832225 -0.17714 -0.0417175 42 109 115
0.0835757 -0.176039 -0.0428809 41 113 120
0.0834354 -0.175317 -0.0439512 51 123 125
0.0832945 -0.174592 -0.0450263 64 103 103
0.0829047 -0.17406 -0.046052 68 66 66
0.0825138 -0.173527 -0.0470801 69 55 48
0.0846669 -0.179652 -0.0350254 62 61 50
0.0842856 -0.179135 -0.0360217 40 68 66
0.0836588 -0.178805 -0.0369768 33 91 88
0.083276 -0.178286 -0.0379765 37 102 104
0.0828923 -0.177767 -0.0389784 39 106 111
0.0827519 -0.177056 -0.0400293 40 107 114
0.0828562 -0.17615 -0.0411331 40 108 115
0.0834549 -0.17485 -0.0423438 41 111 117
0.0833141 -0.174124 -0.0434141 50 121 124
0.0831727 -0.173396 -0.0444892 58 116 120
0.0827821 -0.172862 -0.0455155 62 80 81
0.0823907 -0.172327 -0.0465442 65 56 45
0.0845493 -0.178482 -0.0344862 64 57 46
0.0839224 -0.178152 -0.0354413 48 64 58
0.0835399 -0.177633 -0.0364393 33 82 81
0.0831564 -0.177113 -0.0374395 34 97 99
0.0825281 -0.176782 -0.0383969 38 105 110
0.0823869 -0.176068 -0.0394466 40 107 113
0.0824898 -0.175159 -0.0405486 40 109 115
0.0830864 -0.173854 -0.0417561 41 112 117
0.0831925 -0.172929 -0.0428757 44 119 123
0.0828024 -0.172395 -0.043899 53 125 128
0.0826594 -0.171661 -0.0449778 61 95 93
0.0820195 -0.171324 -0.0459528 61 61 51
0.0844313 -0.17731 -0.0339456 64 51 44
0.0838038 -0.17698 -0.0349019 54 57 51
0.0834206 -0.176459 -0.0359004 37 72 70
0.0827922 -0.176128 -0.0368578 31 92 94
0.0821637 -0.175796 -0.0378154 37 104 108
0.0820217 -0.175081 -0.0388639 39 107 113
0.0818789 -0.174363 -0.0399171 42 110 116
0.0827179 -0.172857 -0.0411683 43 113 119
0.0828227 -0.171929 -0.042286 44 116 122
0.0824321 -0.171394 -0.0433087 54 127 127
0.0822882 -0.170658 -0.0443863 60 106 107
0.0816482 -0.17032 -0.0453614 61 69 67
0.0836847 -0.175804 -0.0343612 59 54 51
0.0830563 -0.175473 -0.0353186 43 65 66
0.0824279 -0.175142 -0.0362761 32 84 86
0.0820426 -0.174619 -0.0372774 37 100 102
0.0816564 -0.174094 -0.038281 39 107 111
0.0815128 -0.173373 -0.039333 50 114 116
0.0823493 -0.171861 -0.0405803 51 117 120
0.0824527 -0.170929 -0.0416962 46 115 121
0.0820616 -0.170393 -0.0427184 53 123 126
0.0819168 -0.169654 -0.0437946 58 115 124
0.0812768 -0.169317 -0.0447697 63 79 86
0.080883 -0.168777 -0.045799 70 55 47
0.0841945 -0.174958 -0.0328607 67 45 39
0.0833205 -0.174819 -0.0337792 57 50 43
0.082692 -0.174488 -0.0347368 42 63 58
0.0820635 -0.174157 -0.0356943 34 77 78
0.0816777 -0.173632 -0.0366951 37 94 98
0.0810485 -0.1733 -0.0376538 41 104 108
0.0809036 -0.172579 -0.0387033 43 106 113
0.0817349 -0.171063 -0.0399452 45 107 114
0.0818362 -0.17013 -0.0410577 44 111 118
0.0816912 -0.169392 -0.0421279 45 118 124
0.0815455 -0.168651 -0.0432029 53 122 127
0.0809053 -0.168314 -0.0441781 64 90 95
0.0805111 -0.167773 -0.0452067 68 60 55
0.0832007 -0.17364 -0.0332365 56 51 35
0.0825715 -0.173308 -0.0341951 49 56 47
0.0819422 -0.172977 -0.0351538 35 68 70
0.0813129 -0.172645 -0.0361126 34 88 92
0.0806835 -0.172314 -0.0370714 39 101 107
0.0805378 -0.17159 -0.0381197 40 103 111
0.0813666 -0.170067 -0.0393577 52 104 112
0.0814666 -0.169131 -0.0404683 52 108 115
0.0813207 -0.168391 -0.0415372 45 113 119
0.0811741 -0.167647 -0.042611 55 125 125
0.0805339 -0.16731 -0.0435863 60 106 110
0.0801391 -0.166768 -0.0446144 60 72 72
0.0830805 -0.172458 -0.0326925 60 58 41
0.0822066 -0.172322 -0.0336124 61 60 47
0.0815773 -0.17199 -0.0345712 44 67 62
0.0809479 -0.171658 -0.03553 33 82 83
0.0805603 -0.17113 -0.0365318 33 99 100
0.0801718 -0.1706 -0.0375359 38 104 109
0.080754 -0.169272 -0.0387244 52 113 116
0.0810969 -0.168131 -0.0398789 48 112 116
0.0809501 -0.167389 -0.0409465 42 110 116
0.0808026 -0.166643 -0.042019 48 120 123
0.0801623 -0.166306 -0.0429944 54 118 126
0.0797671 -0.165763 -0.0440219 64 86 85
0.079126 -0.165425 -0.0449984 68 60 50
0.0820852 -0.171138 -0.0330688 64 60 50
0.0814552 -0.170806 -0.0340286 53 61 54
0.080825 -0.170474 -0.0349886 35 75 74
0.0804368 -0.169943 -0.035991 30 93 96
0.0800477 -0.169412 -0.0369956 34 103 106
0.0803859 -0.168277 -0.0381374 35 105 109
0.0804824 -0.167335 -0.0392428 34 107 111
0.0803343 -0.166592 -0.040308 37 108 113
0.0801855 -0.165845 -0.0413779 40 114 118
0.0797907 -0.165302 -0.0424024 51 121 124
0.079395 -0.164757 -0.0434293 67 93 94
0.0789983 -0.164211 -0.0444585 71 66 63
0.0786006 -0.163664 -0.0454901 67 65 58
0.0824526 -0.169554 -0.0326013 65 59 45
0.0813327 -0.169619 -0.0334848 61 58 52
0.0807018 -0.169287 -0.0344458 37 69 68
0.080313 -0.168754 -0.0354488 28 89 90
0.0801657 -0.16802 -0.0364972 29 101 101
0.0800178 -0.167282 -0.0375503 31 106 108
0.0801129 -0.166337 -0.0386538 36 106 113
0.079964 -0.165591 -0.0397177 37 105 114
0.0798143 -0.164842 -0.0407864 37 110 118
0.079419 -0.164298 -0.0418103 50 122 124
0.0787786 -0.16396 -0.0427859 60 109 114
0.0786256 -0.163205 -0.0438652 64 74 77
0.0782275 -0.162657 -0.0448962 68 59 52
0.0814536 -0.168229 -0.0329788 64 59 53
0.0808212 -0.167896 -0.0339421 41 63 62
0.0801888 -0.167562 -0.0349054 26 82 83
0.080041 -0.166824 -0.0359537 30 98 100
0.0798926 -0.166083 -0.0370069 36 104 109
0.0797435 -0.165338 -0.0380647 38 106 113
0.0795936 -0.16459 -0.0391273 37 107 114
0.0794431 -0.163839 -0.0401948 36 109 116
0.0790472 -0.163293 -0.0412181 42 117 123
0.0784067 -0.162956 -0.0421937 54 121 128
0.0782529 -0.162198 -0.0432718 64 87 94
0.0780983 -0.161437 -0.0443548 65 59 62
0.0813306 -0.167035 -0.0324318 64 61 51
0.0806974 -0.166701 -0.0333962 50 60 54
0.0803072 -0.166164 -0.0344015 29 76 74
0.0801593 -0.165421 -0.0354511 29 95 96
0.0797671 -0.164881 -0.0364621 37 103 109
0.0796174 -0.164133 -0.03752 38 106 115
0.0792232 -0.163589 -0.0385369 36 107 115
0.0790717 -0.162836 -0.039603 36 106 115
0.0786754 -0.162289 -0.0406258 38 111 121
0.0782782 -0.161741 -0.0416508 52 125 126
0.0781238 -0.160979 -0.042729 61 96 102
0.0779687 -0.160215 -0.0438121 59 60 69
0.0819422 -0.165225 -0.0319982 64 61 50
0.0808171 -0.1653 -0.0328882 59 57 49
0.080426 -0.16476 -0.0338952 37 70 66
0.0800341 -0.164219 -0.0349045 29 87 89
0.079398 -0.163883 -0.0358734 36 101 107
0.0792474 -0.163133 -0.0369301 38 107 114
0.0788527 -0.162588 -0.0379463 38 108 114
0.0787003 -0.161832 -0.0390113 38 106 115
0.0783035 -0.161284 -0.0400334 38 108 119
0.0779059 -0.160735 -0.0410578 49 120 124
0.0779944 -0.159758 -0.0421849 55 111 119
0.0778387 -0.158989 -0.043268 60 75 77
0.0809373 -0.163891 -0.0323779 66 54 44
0.0803012 -0.163556 -0.0333467 48 63 61
0.079665 -0.163221 -0.0343156 32 79 82
0.079515 -0.162469 -0.0353688 34 97 102
0.0791205 -0.161923 -0.0363833 34 105 110
0.0787252 -0.161376 -0.0374002 37 107 112
0.0785723 -0.160617 -0.0384651 37 107 114
0.0779316 -0.160279 -0.0394409 38 108 116
0.0775334 -0.159728 -0.0404647 42 115 121
0.0776207 -0.158748 -0.0415898 53 121 124
0.0777085 -0.157761 -0.0427226 62 82 87
0.0777968 -0.156767 -0.0438631 65 54 55
0.0808127 -0.162685 -0.031827 70 52 41
0.0801758 -0.16235 -0.0327969 53 58 56
0.0795389 -0.162014 -0.033767 36 72 73
0.0791449 -0.161468 -0.0347786 32 92 95
0.07875 -0.160922 -0.0357925 35 103 107
0.0785973 -0.160162 -0.0368527 37 106 111
0.0782003 -0.159612 -0.0378724 38 108 112
0.0778024 -0.15906 -0.0388945 38 107 113
0.0774036 -0.158508 -0.039919 40 110 118
0.0774904 -0.157522 -0.0410436 52 123 124
0.0778228 -0.156311 -0.0422264 58 99 105
0.0776657 -0.155531 -0.0433159 61 63 71
0.0772621 -0.154968 -0.0443572 66 55 54
0.0804432 -0.161686 -0.0312371 65 48 40
0.0798063 -0.16135 -0.0322071 58 56 50
0.0794125 -0.160804 -0.033217 44 67 64
0.0790179 -0.160257 -0.0342291 30 85 86
0.0786223 -0.159708 -0.0352437 35 102 105
0.0782257 -0.159158 -0.0362605 36 105 111
0.0778283 -0.158607 -0.0372797 38 107 111
0.0774299 -0.158054 -0.0383012 38 106 113
0.0772734 -0.157284 -0.039372 39 107 116
0.0773598 -0.156293 -0.0404961 48 119 122
0.077692 -0.155076 -0.0416778 54 112 120
0.0775343 -0.154291 -0.0427673 62 75 78
0.0773759 -0.153503 -0.0438619 67 53 48
0.0794366 -0.160351 -0.0316172 62 54 43
0.0790423 -0.159803 -0.0326265 56 62 54
0.0786472 -0.159255 -0.033638 30 77 78
0.0782512 -0.158705 -0.034652 34 99 102
0.0778541 -0.158154 -0.0356682 34 105 110
0.0774562 -0.157601 -0.0366868 37 107 112
0.0770574 -0.157047 -0.0377077 37 106 114
0.0771428 -0.156058 -0.0388236 37 106 115
0.076985 -0.155281 -0.0398994 42 113 121
0.0773154 -0.154059 -0.0410784 54 121 125
0.0774025 -0.153049 -0.0422174 63 88 87
0.0769975 -0.152482 -0.04326 66 59 51
0.07931 -0.159139 -0.0310646 60 51 40
0.0786721 -0.158803 -0.0320358 62 53 48
0.0785194 -0.158039 -0.0330865 37 69 70
0.0781226 -0.157487 -0.034101 31 94 96
0.077725 -0.156934 -0.0351178 33 104 108
0.0770841 -0.156596 -0.0360938 36 107 112
0.0769268 -0.155823 -0.0371585 37 107 114
0.077012 -0.154829 -0.0382739 37 106 114
0.0768536 -0.154048 -0.0393497 39 108 116
0.0769388 -0.153041 -0.040479 53 121 122
0.0770245 -0.152028 -0.041616 58 103 105
0.0768646 -0.151234 -0.0427094 62 71 65
0.0764579 -0.150663 -0.043755 68 58 40
0.0785445 -0.157587 -0.031483 60 51 46
0.0781482 -0.157035 -0.0324946 44 64 63
0.077751 -0.156482 -0.0335085 28 86 86
0.0773528 -0.155928 -0.0345247 32 102 104
0.0767119 -0.15559 -0.0355007 36 106 111
0.0765537 -0.154815 -0.0365642 38 106 112
0.0766375 -0.153817 -0.0376776 38 107 113
0.0767218 -0.152812 -0.0387987 39 108 114
0.0765621 -0.152024 -0.0398795 48 117 120
0.0766465 -0.151007 -0.0410145 53 115 120
0.0764857 -0.150211 -0.0421066 61 81 77
0.0760785 -0.149639 -0.0431516 69 59 46
0.0784165 -0.156369 -0.0309289 56 54 41
0.0780195 -0.155815 -0.031941 53 61 55
0.0776216 -0.15526 -0.0329554 33 78 76
0.0769806 -0.154922 -0.0339314 32 98 99
0.0765811 -0.154365 -0.0349494 36 105 110
0.0761806 -0.153807 -0.0359697 37 106 114
0.076263 -0.152805 -0.0370812 39 108 114
0.0765896 -0.151573 -0.0382464 39 108 114
0.0764294 -0.150781 -0.0393272 42 112 118
0.0762684 -0.149986 -0.0404129 53 122 123
0.0761066 -0.149187 -0.0415037 61 93 91
0.0756989 -0.148614 -0.0425481 65 64 59
0.0778904 -0.154592 -0.031386 63 56 44
0.0772494 -0.154254 -0.032362 40 68 66
0.0766083 -0.153916 -0.033338 33 92 92
0.0764499 -0.153138 -0.0343968 36 101 108
0.0758073 -0.152799 -0.0353751 35 105 115
0.0758884 -0.151793 -0.0364847 39 107 114
0.0762133 -0.150556 -0.0376472 39 107 114
0.0762963 -0.149536 -0.0387735 39 109 117
0.0761347 -0.148737 -0.0398593 52 123 122
0.0759724 -0.147934 -0.0409501 58 107 108
0.0753193 -0.147589 -0.0419444 60 72 69
0.0775182 -0.153586 -0.0307924 60 53 46
0.0768772 -0.153248 -0.0317685 42 64 60
0.0764774 -0.152689 -0.0327841 27 84 83
0.0760767 -0.152129 -0.033802 32 100 104
0.0756751 -0.151568 -0.0348223 37 106 112
0.0755138 -0.150781 -0.0358881 39 106 112
0.0758369 -0.14954 -0.037048 39 107 114
0.0759185 -0.148515 -0.0381723 37 108 117
0.0757561 -0.147714 -0.0392568 45 117 123
0.0755928 -0.146909 -0.0403463 55 117 123
0.0749397 -0.146564 -0.0413407 63 79 78
0.07453 -0.145987 -0.0423863 62 53 44
0.077146 -0.15258 -0.0301987 58 58 48
0.0767465 -0.15202 -0.0312126 50 56 53
0.0761046 -0.151682 -0.0321898 25 76 73
0.0759447 -0.150897 -0.0332473 28 97 97
0.0753013 -0.150558 -0.0342269 37 106 109
0.0751392 -0.149769 -0.0352914 38 107 112
0.0754604 -0.148523 -0.0364487 40 108 114
0.0757846 -0.147265 -0.0376165 38 108 116
0.0756215 -0.14646 -0.038701 38 112 120
0.0752132 -0.145884 -0.0397424 54 120 122
0.0748038 -0.145306 -0.0407862 63 89 89
0.0743934 -0.144727 -0.0418324 68 62 54
0.0766155 -0.15079 -0.0306553 55 58 45
0.0762144 -0.150227 -0.0316721 36 67 65
0.0755709 -0.149887 -0.0326517 29 90 89
0.0751681 -0.149323 -0.033672 38 104 109
0.0750054 -0.14853 -0.0347365 36 105 115
0.0753264 -0.147277 -0.0358926 38 107 114
0.0754063 -0.146244 -0.0370144 38 107 114
0.0752424 -0.145436 -0.0380976 38 109 115
0.0748334 -0.144858 -0.0391383 53 122 121
0.0744235 -0.144279 -0.0401815 58 107 111
0.0740127 -0.143699 -0.0412271 64 68 67
0.0767265 -0.149331 -0.0301334 59 43 40
0.0763246 -0.148765 -0.0311519 50 57 53
0.0754381 -0.148651 -0.0320948 31 81 80
0.0752759 -0.147857 -0.0331558 32 100 106
0.0746302 -0.147516 -0.0341389 37 106 114
0.0749494 -0.146259 -0.0352924 39 109 114
0.0750279 -0.145222 -0.0364122 39 108 113
0.074863 -0.144412 -0.0374941 38 107 114
0.0744537 -0.143833 -0.0385342 43 115 121
0.0742868 -0.143017 -0.0396248 53 119 123
0.0738752 -0.142435 -0.0406711 62 75 76
0.0734627 -0.141851 -0.0417198 59 49 38
0.076838 -0.147866 -0.029609 63 42 36
0.0766787 -0.147068 -0.0306667 59 56 46
0.0760315 -0.146727 -0.0316519 37 71 71
0.0749007 -0.146843 -0.0325581 32 95 97
0.0749788 -0.145813 -0.0336635 36 104 110
0.0745724 -0.14524 -0.0346921 37 106 113
0.0746495 -0.1442 -0.0358099 39 106 112
0.0744837 -0.143387 -0.0368905 36 107 114
0.0740738 -0.142807 -0.03793 36 111 118
0.073906 -0.141989 -0.0390193 55 125 122
0.0734939 -0.141405 -0.0400649 58 92 95
0.0733242 -0.140581 -0.041163 54 57 56
0.0765464 -0.145822 -0.0301042 63 59 43
0.0758983 -0.14548 -0.0310906 43 66 64
0.0752503 -0.145138 -0.0320771 30 87 87
0.0746021 -0.144796 -0.0330637 34 103 107
0.0741952 -0.144221 -0.0340916 37 107 114
0.0740289 -0.143412 -0.0351647 39 107 115
0.0741043 -0.142363 -0.0362868 34 109 114
0.0736939 -0.141781 -0.0373257 36 110 114
0.0735251 -0.140961 -0.0384137 48 121 120
0.0731126 -0.140376 -0.0394586 50 108 117
0.0731852 -0.139308 -0.0406047 54 68 70
0.073014 -0.138475 -0.0417079 55 52 39
0.0757647 -0.14423 -0.0305279 46 64 61
0.0751158 -0.143887 -0.0315156 30 79 78
0.074467 -0.143545 -0.0325033 32 100 102
0.0740594 -0.142968 -0.0335319 35 106 112
0.0736508 -0.14239 -0.0345629 37 107 114
0.0737248 -0.141338 -0.035683 35 109 115
0.0733139 -0.140755 -0.0367212 35 108 113
0.0731442 -0.139932 -0.0378079 40 114 119
0.0729737 -0.139105 -0.0388996 50 118 124
0.0730459 -0.138031 -0.0400452 59 75 83
0.0728741 -0.137195 -0.0411484 59 49 45
0.0756308 -0.142977 -0.0299638 47 56 55
0.0749811 -0.142634 -0.0309527 34 71 70
0.0745736 -0.142056 -0.0319806 30 92 95
0.0739231 -0.141712 -0.0329708 35 105 110
0.0732726 -0.141369 -0.0339609 35 106 114
0.0733452 -0.140313 -0.035079 37 108 114
0.0729338 -0.139729 -0.0361167 37 107 113
0.0730055 -0.138662 -0.0372474 37 109 116
0.0725918 -0.138074 -0.0382924 53 121 122
0.0729062 -0.136752 -0.0394842 58 92 98
0.0727338 -0.135912 -0.0405874 58 57 53
0.0754965 -0.141721 -0.0293984 53 49 46
0.074846 -0.141378 -0.0303884 45 65 61
0.0741955 -0.141034 -0.0313785 29 85 87
0.0737865 -0.140453 -0.0324083 34 103 107
0.0731351 -0.14011 -0.0333996 35 106 113
0.0729656 -0.139288 -0.034475 38 108 114
0.0725537 -0.138703 -0.035512 37 107 112
0.0726241 -0.137632 -0.0366408 37 108 114
0.0722098 -0.137043 -0.0376851 48 120 120
0.0725224 -0.135716 -0.0388742 53 109 115
0.0723491 -0.134874 -0.0399761 56 65 64
0.0721749 -0.134027 -0.0410832 61 46 38
0.0751185 -0.1407 -0.028796 59 48 39
0.0744679 -0.140356 -0.029786 57 61 53
0.0740591 -0.139774 -0.030814 32 76 76
0.0734078 -0.139431 -0.0318054 33 98 101
0.0727563 -0.139087 -0.0327968 36 106 111
0.0725859 -0.138262 -0.0338709 38 108 113
0.0721735 -0.137676 -0.0349073 38 108 113
0.0722425 -0.136602 -0.036034 37 106 114
0.0718277 -0.136011 -0.0370777 41 114 119
0.0721385 -0.13468 -0.0382641 54 119 123
0.0719642 -0.133835 -0.0393647 59 76 79
0.0717891 -0.132986 -0.0404704 60 50 45
0.0743319 -0.139095 -0.0292196 62 54 45
0.0736805 -0.138751 -0.0302109 38 67 67
0.0730291 -0.138407 -0.0312023 31 92 94
0.0726181 -0.137823 -0.0322333 36 105 109
0.0722062 -0.137237 -0.0332666 36 108 113
0.0717932 -0.136649 -0.0343024 38 109 115
0.0718609 -0.135572 -0.0354271 38 105 114
0.0714456 -0.13498 -0.0364703 38 109 117
0.0715122 -0.133892 -0.0376077 55 121 122
0.0718225 -0.132546 -0.0388007 58 94 100
0.0716468 -0.131693 -0.0399065 58 60 56
0.0712263 -0.131089 -0.0409671 57 52 40
0.0739532 -0.138072 -0.0286164 61 48 40
0.0733017 -0.137728 -0.0296078 42 60 58
0.0728911 -0.137143 -0.0306369 28 84 85
0.0724794 -0.136556 -0.0316684 34 103 105
0.0718263 -0.136211 -0.0326623 35 107 113
0.0714129 -0.135622 -0.0336975 37 109 116
0.0712386 -0.134787 -0.0347776 38 106 114
0.0710634 -0.133948 -0.0358627 37 107 115
0.0711287 -0.132856 -0.0369981 48 117 121
0.0714371 -0.131506 -0.0381884 54 110 118
0.0712604 -0.13065 -0.0392928 59 71 69
0.0708394 -0.130045 -0.0403528 58 49 42
0.0738164 -0.136807 -0.0280477 55 51 42
0.0731641 -0.136463 -0.0290403 45 52 48
0.0727527 -0.135875 -0.03007 32 75 73
0.0720996 -0.13553 -0.0310639 34 99 99
0.0716865 -0.134941 -0.0320973 36 106 113
0.0710325 -0.134595 -0.0330924 35 107 116
0.0708573 -0.133758 -0.0341711 38 107 114
0.0706811 -0.132916 -0.0352549 37 107 113
0.070745 -0.131821 -0.0363884 41 112 119
0.0710516 -0.130465 -0.0375759 54 119 121
0.070874 -0.129607 -0.038679 60 79 81
0.0704524 -0.129001 -0.0397383 60 51 46
0.073026 -0.135194 -0.0284715 51 52 45
0.0723729 -0.134849 -0.0294654 41 67 64
0.07196 -0.134259 -0.0304969 32 90 91
0.0713061 -0.133913 -0.031492 37 102 111
0.0706521 -0.133568 -0.0324872 38 107 116
0.0704759 -0.132728 -0.0335647 39 108 114
0.0702988 -0.131884 -0.0346471 35 106 113
0.0706023 -0.130533 -0.0358226 37 107 118
0.0706661 -0.129425 -0.0369633 54 123 121
0.0704874 -0.128564 -0.0380651 57 99 102
0.0700653 -0.127957 -0.0391238 58 62 59
0.0726462 -0.134168 -0.0278666 56 54 41
0.0722337 -0.133577 -0.0288963 51 58 53
0.0715797 -0.133231 -0.0298915 33 81 81
0.0709257 -0.132886 -0.0308867 33 101 106
0.0702715 -0.13254 -0.0318819 39 107 113
0.0698556 -0.131947 -0.0329176 37 107 114
0.0699164 -0.130852 -0.0340392 32 108 115
0.070218 -0.129496 -0.0352119 33 107 116
0.0702804 -0.128384 -0.0363506 44 118 122
0.0701009 -0.127521 -0.037451 52 115 122
0.0696782 -0.126913 -0.0385091 61 69 69
0.0694966 -0.126043 -0.0396185 61 49 39
0.0718533 -0.132549 -0.0282907 55 55 53
0.0711992 -0.132204 -0.0292859 37 73 73
0.0705451 -0.131858 -0.0302812 30 95 97
0.0701295 -0.131264 -0.0313151 38 107 111
0.0694745 -0.130918 -0.0323116 36 108 114
0.0692952 -0.130071 -0.0333901 36 107 114
0.0698338 -0.128459 -0.0346012 35 107 114
0.0698947 -0.127343 -0.0357378 38 113 119
0.0697141 -0.126478 -0.0368369 56 123 122
0.069291 -0.125868 -0.0378943 60 81 85
0.0691084 -0.124996 -0.0390023 56 52 47
0.0684417 -0.124644 -0.0400167 60 50 42
0.0714729 -0.131522 -0.027685 51 51 52
0.0708187 -0.131176 -0.0286803 41 64 67
0.0704034 -0.130581 -0.0297124 29 87 88
0.0697484 -0.130235 -0.0307089 34 103 110
0.0693313 -0.129638 -0.0317446 36 107 114
0.0689131 -0.129039 -0.0327827 36 107 115
0.0692097 -0.127677 -0.0339484 32 107 115
0.069509 -0.126302 -0.0351249 36 108 118
0.0693275 -0.125434 -0.0362227 51 120 123
0.0689038 -0.124823 -0.0372794 54 100 109
0.0687202 -0.123949 -0.0383861 60 65 61
0.0680534 -0.123596 -0.0394005 64 52 41
0.0706773 -0.129898 -0.0281094 46 60 58
0.0702613 -0.1293 -0.0291421 30 78 79
0.0696055 -0.128954 -0.0301398 34 98 105
0.0691876 -0.128354 -0.0311761 37 106 114
0.068531 -0.128007 -0.0321751 37 108 115
0.0688257 -0.12664 -0.0333381 35 108 114
0.0693638 -0.125001 -0.0345547 35 107 116
0.0689407 -0.12439 -0.0356083 42 115 121
0.0687573 -0.123516 -0.0367098 51 114 121
0.0683319 -0.122901 -0.0377697 63 71 70
0.0676651 -0.122549 -0.0387842 64 48 41
0.0707753 -0.128364 -0.0275716 47 55 50
0.0701187 -0.128017 -0.0285705 33 70 71
0.0694621 -0.12767 -0.0295694 33 92 95
0.0688055 -0.127323 -0.0305684 37 106 111
0.0683861 -0.126721 -0.0316065 37 109 114
0.0684417 -0.125604 -0.0327278 39 107 114
0.0689775 -0.123958 -0.0339409 37 106 114
0.0685538 -0.123346 -0.0349939 38 110 118
0.0683695 -0.12247 -0.036094 52 121 123
0.0679436 -0.121853 -0.0371533 61 86 86
0.0675166 -0.121236 -0.0382151 61 50 47
0.0706332 -0.127077 -0.0269973 45 45 46
0.0699758 -0.12673 -0.0279974 41 62 61
0.0693184 -0.126382 -0.0289975 29 84 84
0.0686609 -0.126035 -0.0299978 33 104 106
0.0682408 -0.125431 -0.0310365 35 108 113
0.0682959 -0.124308 -0.0321571 40 107 113
0.0685911 -0.122916 -0.033327 37 106 113
0.068407 -0.122039 -0.034422 37 107 115
0.0679816 -0.121423 -0.0354781 50 120 122
0.0675552 -0.120806 -0.0365367 54 102 106
0.0671277 -0.120187 -0.0375978 60 60 60
0.0664599 -0.119834 -0.0386137 57 43 37
0.0704907 -0.125788 -0.0264217 51 47 37
0.0700723 -0.125183 -0.0274573 51 57 52
0.0691742 -0.125092 -0.0284243 30 76 76
0.0687542 -0.124486 -0.0294624 29 101 101
0.0685719 -0.123619 -0.0305408 31 106 111
0.0681497 -0.123009 -0.0315851 37 107 114
0.0682046 -0.121873 -0.0327129 35 106 113
0.0680196 -0.120993 -0.0338066 37 106 114
0.0678336 -0.12011 -0.0349054 43 115 121
0.0674065 -0.11949 -0.0359647 50 113 122
0.0669783 -0.118869 -0.0370265 60 70 74
0.0663096 -0.118516 -0.0380436 57 49 44
0.0703478 -0.124495 -0.0258445 50 49 40
0.0696888 -0.124147 -0.026847 49 58 50
0.0692689 -0.123539 -0.0278845 37 69 70
0.068848 -0.12293 -0.0289244 28 93 94
0.068426 -0.122319 -0.0299667 38 103 110
0.0684819 -0.12118 -0.031089 37 106 114
0.0682975 -0.120299 -0.0321789 38 106 113
0.0681121 -0.119414 -0.033274 38 105 114
0.0674452 -0.119062 -0.0342886 39 108 118
0.0670175 -0.118441 -0.0353472 53 120 120
0.0665887 -0.117818 -0.0364083 57 83 90
0.0661589 -0.117194 -0.037472 53 53 53
0.0702665 -0.122066 -0.0263693 57 53 47
0.0696043 -0.121716 -0.0273765 45 61 60
0.0691823 -0.121103 -0.0284195 30 82 83
0.0687592 -0.120488 -0.0294649 41 100 106
0.068335 -0.119871 -0.0305129 39 106 114
0.0679099 -0.119254 -0.0315633 40 105 114
0.0677237 -0.118366 -0.0326569 33 106 115
0.0670566 -0.118013 -0.0336716 35 106 115
0.0666284 -0.117391 -0.0347296 48 118 119
0.0661991 -0.116767 -0.03579 50 105 111
0.0657688 -0.116142 -0.0368531 50 68 64
0.0653375 -0.115516 -0.0379186 47 45 37
0.0701223 -0.120762 -0.0257886 50 48 43
0.0697004 -0.120146 -0.026831 38 57 57
0.0690365 -0.119795 -0.0278407 30 75 75
0.0686127 -0.119178 -0.0288867 42 99 102
0.067948 -0.118827 -0.0298977 39 106 114
0.0675224 -0.118207 -0.0309475 38 105 115
0.0673351 -0.117318 -0.0320398 37 106 114
0.0669072 -0.116694 -0.0330959 34 105 112
0.0664782 -0.11607 -0.0341545 39 112 118
0.0660482 -0.115444 -0.0352156 49 115 121
0.0658563 -0.114542 -0.0363245 57 74 76
0.0651851 -0.114187 -0.0373454 54 42 44
0.0695551 -0.118836 -0.0262495 40 52 50
0.0688904 -0.118485 -0.0272604 34 68 69
0.0682257 -0.118133 -0.0282714 44 94 95
0.0678003 -0.117513 -0.0293193 39 105 112
0.0671347 -0.117161 -0.0303316 36 107 115
0.0669466 -0.116269 -0.0314226 38 107 114
0.0665181 -0.115644 -0.032478 33 105 111
0.0660886 -0.115019 -0.0335359 36 107 116
0.065658 -0.114391 -0.0345964 53 121 121
0.0657043 -0.113211 -0.0357486 58 88 90
0.0657509 -0.112022 -0.0369089 61 53 52
0.0645983 -0.112223 -0.0378402 56 42 36
0.0694094 -0.117523 -0.0256665 47 47 43
0.0687438 -0.117171 -0.0266787 39 60 59
0.0680783 -0.116819 -0.0276909 37 85 85
0.0674127 -0.116467 -0.0287032 36 102 107
0.0669858 -0.115844 -0.029753 35 106 114
0.0665578 -0.11522 -0.0308052 38 106 113
0.0661289 -0.114594 -0.03186 32 106 113
0.0656988 -0.113967 -0.0329173 34 105 114
0.0655062 -0.113063 -0.0340196 49 119 120
0.0660323 -0.111319 -0.0352596 53 104 110
0.0655979 -0.110682 -0.0363309 62 63 61
0.0654031 -0.109761 -0.0374519 63 44 35
0.0692633 -0.116206 -0.0250822 50 43 39
0.0685969 -0.115854 -0.0260955 46 52 48
0.0679305 -0.115501 -0.027109 33 74 73
0.0672641 -0.115149 -0.0281226 33 97 99
0.0665976 -0.114796 -0.0291362 37 104 112
0.0661691 -0.114171 -0.0301878 37 106 113
0.0655018 -0.113818 -0.0312027 34 105 114
0.0653091 -0.112916 -0.0322985 33 105 112
0.0651155 -0.112009 -0.0333995 42 114 119
0.0658797 -0.109977 -0.0346795 51 115 122
0.0656855 -0.109055 -0.0357966 56 76 77
0.0654904 -0.108129 -0.0369189 58 48 41
0.0682088 -0.114806 -0.0254784 55 45 40
0.0675424 -0.114453 -0.026492 41 65 63
0.0668758 -0.114101 -0.0275056 32 89 90
0.0662093 -0.113748 -0.0285193 38 103 109
0.0657803 -0.113122 -0.0295702 38 105 113
0.0651128 -0.112769 -0.0305852 38 105 113
0.065157 -0.111587 -0.0317195 34 105 112
0.0649627 -0.110676 -0.0328204 37 109 117
0.065486 -0.108916 -0.0340549 51 120 123
0.0652908 -0.107991 -0.0351706 50 92 98
0.0650947 -0.107062 -0.0362916 51 57 54
0.0646564 -0.106416 -0.0373708 57 47 36
0.0678207 -0.113758 -0.0248612 49 45 35
0.0671541 -0.113405 -0.0258748 42 58 52
0.0664875 -0.113053 -0.0268885 31 80 80
0.0658209 -0.1127 -0.0279023 36 100 106
0.0653914 -0.112072 -0.0289526 38 107 113
0.0649609 -0.111443 -0.0300054 39 106 114
0.0647666 -0.110534 -0.0310998 36 104 112
0.0645714 -0.10962 -0.0321994 37 107 114
0.0650923 -0.107854 -0.0334304 48 118 122
0.0648961 -0.106926 -0.0345446 47 109 118
0.0646989 -0.105995 -0.0356641 51 70 70
0.0645008 -0.105059 -0.036789 56 50 38
0.0674325 -0.11271 -0.0242439 52 41 34
0.0667659 -0.112357 -0.0252575 56 56 46
0.0660992 -0.112005 -0.0262713 36 71 71
0.0654325 -0.111652 -0.0272851 34 94 97
0.0650025 -0.111023 -0.0283348 36 107 112
0.0645714 -0.110392 -0.029387 36 106 116
0.0643761 -0.10948 -0.03048 37 104 113
0.0641799 -0.108564 -0.0315782 36 103 112
0.0646985 -0.106791 -0.0328055 39 112 118
0.0645013 -0.105862 -0.0339184 47 117 122
0.0643031 -0.104927 -0.0350366 49 77 78
0.064104 -0.103989 -0.0361601 54 47 39
0.0663775 -0.111309 -0.0246402 51 49 40
0.0657108 -0.110956 -0.025654 38 64 59
0.065281 -0.110326 -0.0267017 29 86 86
0.0646134 -0.109973 -0.0277169 37 105 109
0.0641819 -0.109341 -0.0287684 36 105 114
0.0639856 -0.108427 -0.0298601 38 106 114
0.0637884 -0.107508 -0.0309569 34 103 112
0.0643046 -0.105729 -0.0321807 35 107 116
0.0641064 -0.104797 -0.0332922 52 122 120
0.0639073 -0.10386 -0.0344089 52 93 93
0.0637071 -0.102919 -0.035531 50 58 52
0.0630265 -0.102559 -0.0365659 52 46 35
0.0659891 -0.11026 -0.0240227 49 44 36
0.0655597 -0.109629 -0.0250686 43 55 51
0.064892 -0.109276 -0.0260837 28 79 77
0.0642243 -0.108923 -0.0270989 35 100 103
0.0637922 -0.10829 -0.0281497 38 105 113
0.063595 -0.107373 -0.0292401 37 107 113
0.0633968 -0.106452 -0.0303355 35 104 113
0.0639107 -0.104667 -0.0315558 35 105 114
0.0637115 -0.103732 -0.0326658 47 117 119
0.0635113 -0.102792 -0.0337812 52 105 112
0.0633102 -0.101848 -0.0349019 53 67 68
0.0626295 -0.101488 -0.0359368 53 46 37
0.0651707 -0.108579 -0.0244503 46 49 48
0.064503 -0.108226 -0.0254655 32 69 71
0.0638352 -0.107873 -0.0264808 32 92 95
0.0634026 -0.107238 -0.027531 38 106 112
0.0629689 -0.106602 -0.0285837 37 106 113
0.0630052 -0.105395 -0.029714 36 104 112
0.0635167 -0.103604 -0.0309307 34 104 112
0.0633165 -0.102666 -0.0320393 41 111 117
0.0631153 -0.101724 -0.0331533 53 114 120
0.0629131 -0.100778 -0.0342726 58 77 80
0.0624709 -0.100123 -0.0353523 56 48 44
0.0647816 -0.107529 -0.023832 45 44 45
0.0641138 -0.107176 -0.0248472 37 57 64
0.063446 -0.106822 -0.0258626 29 85 88
0.0630128 -0.106186 -0.0269121 36 104 108
0.0625786 -0.105549 -0.0279642 38 105 112
0.0626134 -0.104339 -0.0290924 37 103 111
0.0631226 -0.102541 -0.0303055 32 103 110
0.0629214 -0.101601 -0.0314128 36 107 113
0.0627192 -0.100656 -0.0325253 51 118 119
0.0625161 -0.0997072 -0.0336432 59 92 97
0.0620733 -0.0990506 -0.0347223 57 56 56
0.0643924 -0.106479 -0.0232135 41 36 35
0.0639604 -0.105842 -0.0242599 37 48 50
0.0632917 -0.105488 -0.0252765 26 77 77
0.0628578 -0.10485 -0.0263267 31 101 102
0.0624229 -0.10421 -0.0273794 38 106 111
0.0622217 -0.103282 -0.0284707 37 105 113
0.0627284 -0.101478 -0.0296802 32 104 111
0.0625263 -0.100535 -0.0307861 33 104 111
0.0623231 -0.099588 -0.0318972 46 116 118
0.0621189 -0.0986363 -0.0330137 51 108 114
0.0616756 -0.0979784 -0.0340921 54 67 70
0.0612312 -0.097319 -0.0351731 50 42 38
0.064476 -0.10486 -0.0226534 44 45 37
0.0638065 -0.104506 -0.0236712 40 43 46
0.063137 -0.104151 -0.024689 33 64 69
0.0627024 -0.103511 -0.0257398 30 93 94
0.0622666 -0.102868 -0.026793 38 104 110
0.0618299 -0.102225 -0.0278489 36 105 112
0.0623342 -0.100414 -0.0290548 33 103 111
0.0621311 -0.0994692 -0.0301593 32 102 110
0.0619269 -0.0985195 -0.031269 39 108 115
0.0617217 -0.0975653 -0.032384 48 114 121
0.0612778 -0.0969061 -0.0334618 54 74 82
0.0608329 -0.0962453 -0.0345421 52 45 45
0.0636523 -0.103166 -0.0230809 44 43 44
0.0632177 -0.102523 -0.024131 39 55 59
0.0625465 -0.102168 -0.0251514 28 83 84
0.06211 -0.101523 -0.0262053 38 101 105
0.0614379 -0.101168 -0.0272269 38 105 113
0.0619399 -0.099351 -0.0284293 37 105 111
0.0617358 -0.0984032 -0.0295324 34 102 110
0.0615306 -0.0974509 -0.0306407 36 105 113
0.0613244 -0.0964941 -0.0317543 50 117 118
0.06088 -0.0958335 -0.0328314 54 96 97
0.0604344 -0.0951714 -0.033911 50 60 56
0.0599878 -0.0945077 -0.0349934 52 46 33
0.0637343 -0.101533 -0.0225184 45 44 41
0.0632986 -0.100887 -0.0235704 43 48 49
0.0626258 -0.100531 -0.0245932 31 74 75
0.0619529 -0.100175 -0.025616 35 96 99
0.0615146 -0.0995262 -0.0266731 38 105 113
0.0615456 -0.0982874 -0.0278037 38 105 114
0.0613404 -0.097337 -0.0289053 35 104 112
0.0611342 -0.0963821 -0.0300122 34 104 112
0.0606906 -0.0957229 -0.0310847 44 115 117
0.0602459 -0.0950622 -0.0321598 49 109 113
0.060036 -0.0940973 -0.0332799 52 71 72
0.0595888 -0.0934323 -0.0343615 55 41 35
0.0642928 -0.0993069 -0.0220106 44 45 38
0.0636175 -0.0989495 -0.023037 43 44 43
0.0629423 -0.098592 -0.0240634 35 65 67
0.0620309 -0.098529 -0.0250575 30 88 92
0.0615916 -0.097877 -0.0261165 38 104 110
0.0613867 -0.0969268 -0.0272129 37 104 115
0.060945 -0.0962706 -0.0282782 36 105 112
0.0607378 -0.0953131 -0.0293837 33 102 110
0.0602937 -0.0946526 -0.0304555 37 109 116
0.0598484 -0.0939905 -0.0315299 48 115 119
0.0596375 -0.0930231 -0.0326485 55 80 84
0.0594255 -0.092051 -0.0337726 54 43 44
0.0592125 -0.0910743 -0.034902 52 43 35
0.0641376 -0.0979493 -0.0214133 43 48 39
0.0634615 -0.0975914 -0.0224409 40 40 41
0.0627854 -0.0972335 -0.0234686 37 58 60
0.0621092 -0.0968755 -0.0244963 26 81 83
0.061433 -0.0965175 -0.0255242 39 103 105
0.0612275 -0.0955628 -0.0266206 37 105 113
0.0607849 -0.0949042 -0.0276865 37 104 110
0.0603413 -0.0942439 -0.0287551 33 102 109
0.0598967 -0.0935821 -0.0298262 33 104 113
0.0594508 -0.0929187 -0.0308999 48 116 117
0.0592389 -0.0919486 -0.0320172 54 94 97
0.0590259 -0.090974 -0.0331398 50 55 59
0.059048 -0.0896851 -0.0343116 49 43 36
0.0633051 -0.0962299 -0.0218433 42 48 35
0.062391 -0.0961695 -0.0228424 41 54 49
0.0617148 -0.0958114 -0.0238703 32 72 74
0.0610385 -0.0954534 -0.0248982 36 95 97
0.060832 -0.0944961 -0.0259931 38 104 111
0.0603889 -0.0938361 -0.0270584 36 106 113
0.0599448 -0.0931746 -0.0281263 31 105 111
0.0594995 -0.0925114 -0.0291968 31 103 111
0.0590532 -0.0918467 -0.0302698 42 113 115
0.0586058 -0.0911803 -0.0313455 49 108 113
0.0583914 -0.0902049 -0.0324652 50 72 79
0.0586469 -0.0886039 -0.0336764 50 42 38
0.0622332 -0.094806 -0.0222453 42 45 39
0.0615561 -0.0944475 -0.0232744 34 63 64
0.0608789 -0.094089 -0.0243036 29 88 89
0.0604364 -0.0934292 -0.0253656 39 103 106
0.0599928 -0.0927679 -0.0264302 35 105 113
0.0595482 -0.092105 -0.0274974 33 104 111
0.0591023 -0.0914405 -0.0285672 32 102 110
0.0586555 -0.0907744 -0.0296396 36 107 114
0.0582075 -0.0901068 -0.0307146 46 112 117
0.0579921 -0.0891287 -0.0318329 54 81 91
0.0582456 -0.0875225 -0.0330412 53 44 51
0.0620749 -0.0934392 -0.0216466 43 41 33
0.0611611 -0.0933818 -0.0226474 38 54 52
0.0604838 -0.0930232 -0.0236766 28 79 78
0.0602756 -0.092059 -0.0247701 39 100 101
0.0595966 -0.0916995 -0.0258019 37 105 112
0.0591514 -0.0910352 -0.0268684 37 104 112
0.0587051 -0.0903694 -0.0279376 35 101 110
0.0582577 -0.089702 -0.0290093 34 103 111
0.0580427 -0.0887241 -0.0301222 46 113 116
0.0578267 -0.0877416 -0.0312405 54 94 100
0.0583154 -0.085812 -0.0324892 53 59 65
0.0610013 -0.0920131 -0.0220491 41 45 44
0.0603232 -0.091654 -0.0230796 30 71 70
0.0598794 -0.0909905 -0.0241416 35 93 96
0.0594345 -0.0903254 -0.0252062 38 104 110
0.0587547 -0.0899653 -0.0262394 36 105 112
0.0583078 -0.0892982 -0.0273078 34 102 110
0.0578599 -0.0886294 -0.0283788 33 102 110
0.0576438 -0.087649 -0.0294904 42 110 114
0.0574268 -0.0866638 -0.0306072 51 105 112
0.0608412 -0.090641 -0.0214493 40 40 44
0.0601622 -0.0902814 -0.0224811 33 61 63
0.0597176 -0.0896154 -0.0235437 29 86 90
0.0590378 -0.0892553 -0.0245769 36 101 108
0.0585912 -0.0885873 -0.0256434 34 105 112
0.0579104 -0.0882267 -0.0266779 33 103 112
0.0574619 -0.0875566 -0.0277483 32 101 110
0.0572449 -0.0865736 -0.0288584 37 106 114
0.0570268 -0.0855858 -0.0299738 46 109 120
0.0604451 -0.0895722 -0.0208205 43 42 39
0.0600008 -0.0889053 -0.0218811 38 52 49
0.0595554 -0.0882369 -0.0229443 27 79 78
0.0588746 -0.0878763 -0.0239788 34 99 102
0.0581938 -0.0875157 -0.0250133 36 104 112
0.057513 -0.0871551 -0.0260479 38 104 112
0.0570639 -0.0864837 -0.0271176 34 101 109
0.0605196 -0.0878865 -0.0202453 44 40 35
0.0598388 -0.0875259 -0.0212796 41 48 44
0.0591581 -0.0871653 -0.022314 30 70 70
0.0584772 -0.0868046 -0.0233486 33 92 94
0.0577964 -0.086444 -0.0243832 34 103 108
0.0573476 -0.0857717 -0.0254509 39 104 110
