ply
format ascii 1.0
element vertex 1218
property float x
property float y
property float z
property uchar diffuse_red
property uchar diffuse_green
property uchar diffuse_blue
end_header
0.206563 -0.259095 -0.057586 66 64 60
0.205114 -0.260307 -0.0583996 67 65 60
0.201241 -0.260687 -0.0572922 66 66 64
0.198221 -0.261334 -0.056832 68 67 64
0.195237 -0.261973 -0.0563772 68 83 74
0.193063 -0.262879 -0.0565508 60 96 93
0.190138 -0.263504 -0.0561022 51 98 105
0.18499 -0.263305 -0.0538239 47 92 97
0.181424 -0.263647 -0.052796 50 92 85
0.178636 -0.264253 -0.05238 45 89 82
0.177318 -0.26539 -0.0531598 43 85 82
0.171744 -0.264909 -0.0503882 42 80 83
0.157637 -0.26112 -0.0404204 40 78 86
0.153209 -0.260961 -0.0384751 35 87 93
0.148253 -0.260563 -0.0360439 40 104 108
0.145852 -0.261139 -0.0357479 48 118 122
0.144083 -0.261951 -0.0359754 59 128 128
0.142929 -0.263002 -0.0367221 71 128 120
0.142383 -0.264296 -0.0379892 81 110 94
0.141235 -0.265342 -0.0387313 71 81 77
0.140689 -0.266634 -0.0399964 68 67 60
0.207932 -0.254814 -0.0566278 67 62 56
0.207302 -0.256305 -0.0580883 66 64 61
0.205848 -0.257525 -0.0589026 63 69 66
0.20522 -0.259014 -0.0603604 64 77 72
0.203773 -0.260226 -0.0611686 63 89 86
0.19991 -0.260606 -0.0600397 60 84 91
0.196899 -0.261254 -0.0595636 58 96 90
0.193922 -0.261894 -0.059093 44 99 95
0.19098 -0.262527 -0.0586281 31 91 95
0.185052 -0.26207 -0.0556979 31 77 84
0.181479 -0.262422 -0.054654 39 65 72
0.17796 -0.262769 -0.053626 44 63 66
0.171663 -0.262061 -0.0502575 47 59 64
0.164872 -0.261119 -0.0464189 47 57 64
0.156995 -0.259711 -0.0416044 47 59 65
0.152573 -0.259568 -0.0396466 46 61 66
0.147625 -0.259187 -0.0372012 33 60 68
0.145227 -0.259769 -0.0368993 27 70 82
0.14346 -0.260587 -0.037123 29 90 100
0.142308 -0.26164 -0.0378678 42 114 118
0.141761 -0.262934 -0.0391351 62 129 128
0.141215 -0.264228 -0.0404025 70 122 122
0.140668 -0.265523 -0.0416699 72 97 94
0.140121 -0.266817 -0.0429374 70 73 70
0.206629 -0.24801 -0.05167 67 63 55
0.206823 -0.249746 -0.0537539 64 61 60
0.207019 -0.25149 -0.0558461 62 65 64
0.20639 -0.252978 -0.0573038 63 72 66
0.206586 -0.254732 -0.0594075 63 80 75
0.205133 -0.255955 -0.0602193 60 86 85
0.204505 -0.257443 -0.0616773 55 95 91
0.203059 -0.258659 -0.0624831 51 107 95
0.20162 -0.25987 -0.0632859 39 87 100
0.197782 -0.260253 -0.0621428 41 76 82
0.194004 -0.260629 -0.0610176 39 71 70
0.191056 -0.261271 -0.0605408 40 68 64
0.187381 -0.261634 -0.0594433 48 66 61
0.185261 -0.262532 -0.0596037 56 59 62
0.180198 -0.262346 -0.057299 62 62 59
0.170997 -0.260599 -0.0514854 62 59 59
0.163541 -0.25943 -0.0470575 62 60 59
0.157003 -0.258547 -0.0433397 63 60 58
0.152573 -0.258416 -0.0413602 62 58 57
0.147616 -0.258048 -0.0388896 56 59 55
0.144602 -0.2584 -0.0380509 52 59 61
0.142837 -0.259222 -0.0382707 38 60 66
0.142289 -0.260518 -0.0395402 25 71 77
0.141139 -0.261572 -0.0402811 27 97 99
0.140592 -0.262866 -0.0415487 59 127 127
0.140046 -0.26416 -0.0428163 83 130 130
0.140099 -0.265704 -0.0446193 88 100 102
0.139552 -0.267001 -0.0458893 78 62 63
0.203287 -0.243992 -0.0490378 69 57 41
0.204285 -0.245952 -0.0517245 67 59 50
0.20611 -0.248179 -0.0550675 62 67 66
0.206304 -0.249919 -0.0571626 60 74 79
0.205676 -0.251407 -0.0586205 61 88 84
0.205869 -0.253158 -0.060727 55 101 95
0.205239 -0.254649 -0.0621879 42 98 102
0.204609 -0.256141 -0.063649 30 78 92
0.203161 -0.257362 -0.0644527 31 71 68
0.201718 -0.258578 -0.0652533 40 68 66
0.200281 -0.259789 -0.0660508 53 65 63
0.196453 -0.260172 -0.0648861 59 63 60
0.192686 -0.26055 -0.0637398 62 63 58
0.191291 -0.261736 -0.0645266 66 63 57
0.162886 -0.257995 -0.0482633 67 64 55
0.156359 -0.257135 -0.0445262 66 62 56
0.152573 -0.25726 -0.04308 66 61 57
0.148854 -0.257382 -0.0416594 66 64 57
0.145201 -0.257503 -0.0402637 67 63 59
0.143427 -0.258331 -0.0404767 55 57 55
0.141666 -0.259153 -0.0406883 36 53 57
0.141119 -0.26045 -0.0419581 19 60 71
0.140571 -0.261746 -0.043228 28 99 102
0.140023 -0.263043 -0.0444979 71 131 130
0.139476 -0.26434 -0.0457679 87 121 117
0.138928 -0.265636 -0.0470381 80 86 80
0.199998 -0.240036 -0.0464468 64 60 57
0.201777 -0.242202 -0.0497192 62 61 62
0.20196 -0.24391 -0.0517789 60 74 79
0.205397 -0.246611 -0.0563814 63 106 87
0.205589 -0.248348 -0.0584794 48 107 109
0.205783 -0.250092 -0.0605857 36 87 98
0.205977 -0.251844 -0.0627006 30 73 79
0.206171 -0.253603 -0.0648241 34 67 67
0.205539 -0.2551 -0.0662911 46 63 63
0.204906 -0.256598 -0.0677583 53 63 58
0.204273 -0.258096 -0.0692256 65 65 56
0.202002 -0.259043 -0.0693532 65 64 58
0.200558 -0.260258 -0.0701461 63 63 57
0.199929 -0.261748 -0.0716049 64 62 55
0.203386 -0.264662 -0.0764641 66 61 55
0.157018 -0.256205 -0.0468299 66 61 55
0.153213 -0.256339 -0.0453581 64 61 54
0.149476 -0.25647 -0.0439125 65 63 56
0.147665 -0.257312 -0.0441152 64 63 58
0.144022 -0.257433 -0.0426984 61 59 55
0.142252 -0.258262 -0.0429031 46 51 51
0.141098 -0.259323 -0.043641 22 47 54
0.139948 -0.260381 -0.0443766 11 64 78
0.1394 -0.261678 -0.0456467 48 105 109
0.138852 -0.262975 -0.0469169 69 117 117
0.138304 -0.264271 -0.0481871 73 99 98
0.137757 -0.265568 -0.0494575 69 59 57
0.199298 -0.238496 -0.0477373 60 68 65
0.200272 -0.240419 -0.0503981 52 80 87
0.201254 -0.242357 -0.0530799 40 96 111
0.204683 -0.245042 -0.0576956 29 81 88
0.205696 -0.247027 -0.0604444 29 72 71
0.20589 -0.248772 -0.0625591 42 69 66
0.206085 -0.250524 -0.0646823 52 65 59
0.207111 -0.252547 -0.0674818 60 62 53
0.206476 -0.254051 -0.0689549 66 59 50
0.206673 -0.255825 -0.0711043 67 59 48
0.206036 -0.257332 -0.0725807 68 66 53
0.205399 -0.258839 -0.0740571 66 66 56
0.204763 -0.260346 -0.0755337 65 62 54
0.204126 -0.261854 -0.0770103 66 59 53
0.204318 -0.263648 -0.0791809 65 60 56
0.157026 -0.255028 -0.0485847 75 79 66
0.154504 -0.255651 -0.0482127 73 80 65
0.152009 -0.256267 -0.0478448 73 80 67
0.148282 -0.256399 -0.0463773 67 76 70
0.146476 -0.257242 -0.0465717 63 67 68
0.144067 -0.257839 -0.0462192 47 56 63
0.141683 -0.258431 -0.0458704 25 47 58
0.140528 -0.259494 -0.0466047 12 44 56
0.139978 -0.260795 -0.0478794 24 76 82
0.139428 -0.262096 -0.0491541 46 102 102
0.138878 -0.263398 -0.050429 64 100 98
0.138329 -0.264699 -0.051704 67 63 61
0.198597 -0.236955 -0.0490281 62 64 62
0.199568 -0.238872 -0.051694 54 64 67
0.199747 -0.24057 -0.0537539 48 67 71
0.203154 -0.243232 -0.0583673 56 63 65
0.204979 -0.245452 -0.0617642 61 60 57
0.205998 -0.247446 -0.0645406 61 54 53
0.207024 -0.249456 -0.0673395 63 57 47
0.206389 -0.25096 -0.0688127 63 60 49
0.207421 -0.252992 -0.0716405 63 62 53
0.20762 -0.254772 -0.0738042 67 62 51
0.206981 -0.256285 -0.0752868 64 59 49
0.20718 -0.258075 -0.0774625 62 63 53
0.206539 -0.259591 -0.0789482 63 62 54
0.205063 -0.260825 -0.0797349 64 64 60
0.203592 -0.262055 -0.0805185 63 70 71
0.203784 -0.263853 -0.0827008 60 73 81
0.155809 -0.254955 -0.0510984 67 102 91
0.153293 -0.255579 -0.0507131 67 103 97
0.150169 -0.255956 -0.0497713 61 99 102
0.147714 -0.256567 -0.049398 59 97 104
0.147155 -0.257891 -0.0506952 51 85 97
0.144112 -0.258248 -0.0497654 34 65 78
0.141112 -0.2586 -0.0488486 18 40 44
0.14056 -0.259906 -0.0501279 11 54 65
0.140008 -0.261212 -0.0514073 34 84 87
0.139456 -0.262518 -0.0526868 56 95 91
0.138303 -0.263576 -0.0534109 62 75 71
0.206301 -0.247868 -0.0686706 65 60 52
0.207333 -0.249889 -0.0714978 64 61 53
0.208373 -0.251925 -0.0743481 65 64 56
0.208575 -0.25371 -0.0765264 62 64 57
0.208778 -0.255501 -0.0787136 59 62 61
0.208134 -0.257024 -0.0802055 56 65 75
0.206649 -0.258268 -0.0809929 59 74 77
0.205169 -0.259508 -0.0817772 65 88 80
0.203695 -0.260742 -0.0825584 64 102 91
0.202227 -0.261972 -0.0833365 52 109 109
0.162478 -0.256202 -0.0587048 22 79 94
0.156555 -0.255607 -0.0553434 29 86 100
0.152082 -0.255507 -0.0532142 32 94 107
0.148966 -0.255885 -0.0522548 41 105 110
0.147773 -0.256976 -0.0529935 42 97 102
0.145959 -0.257821 -0.0531659 33 71 81
0.14354 -0.258419 -0.0527771 18 41 45
0.141756 -0.259251 -0.0529489 10 43 60
0.140592 -0.260321 -0.0536765 28 72 78
0.140038 -0.261632 -0.0549605 47 92 88
0.139485 -0.262942 -0.0562448 59 87 84
0.201914 -0.241822 -0.0630951 65 58 52
0.204558 -0.244283 -0.0671919 67 61 51
0.205578 -0.246281 -0.0700018 62 62 57
0.208285 -0.248808 -0.0742049 59 63 69
0.209332 -0.250849 -0.0770781 60 70 78
0.209537 -0.252639 -0.079271 67 84 80
0.209743 -0.254435 -0.081473 73 105 86
0.208248 -0.25569 -0.0822611 56 119 114
0.206759 -0.25694 -0.0830461 38 101 118
0.205276 -0.258185 -0.083828 32 84 98
0.202967 -0.259146 -0.0838991 29 74 77
0.199858 -0.25982 -0.0832678 23 68 68
0.199222 -0.261325 -0.0847423 17 63 67
0.159888 -0.255635 -0.0600759 19 52 52
0.155331 -0.255534 -0.0578721 19 53 52
0.149594 -0.254957 -0.054571 20 53 56
0.147763 -0.255814 -0.0547388 18 50 60
0.146572 -0.256904 -0.0554734 14 45 57
0.145385 -0.257991 -0.0562055 11 41 46
0.144203 -0.259074 -0.056935 10 42 53
0.142407 -0.259909 -0.0570933 18 65 70
0.141849 -0.261229 -0.0583867 35 88 88
0.141292 -0.26255 -0.0596801 58 93 93
0.19763 -0.235918 -0.0576513 65 57 50
0.200209 -0.238303 -0.061656 61 60 60
0.2012 -0.240253 -0.0644103 54 63 74
0.203838 -0.242701 -0.0685178 62 72 73
0.204855 -0.244693 -0.0713333 67 94 82
0.209244 -0.247719 -0.0769343 61 109 102
0.2103 -0.249764 -0.0798306 49 106 116
0.210508 -0.251558 -0.0820384 41 90 108
0.20986 -0.253091 -0.0835397 36 81 87
0.209213 -0.254623 -0.0850412 26 75 77
0.206027 -0.255333 -0.084395 21 73 72
0.204545 -0.256581 -0.0851742 26 69 67
0.202239 -0.257549 -0.0852402 35 66 64
0.199134 -0.258233 -0.0846009 43 62 63
0.198498 -0.259738 -0.0860756 51 56 61
0.19624 -0.260683 -0.0861375 59 59 56
0.170874 -0.256782 -0.0697532 60 64 56
0.160575 -0.254679 -0.0624891 57 62 55
0.156653 -0.25483 -0.0608432 54 59 51
0.150867 -0.25426 -0.0574818 42 53 49
0.147754 -0.254648 -0.0564906 30 47 45
0.14656 -0.255742 -0.0572235 20 43 42
0.145371 -0.256833 -0.0579539 11 41 44
0.144809 -0.258163 -0.0592564 9 42 50
0.143005 -0.259004 -0.0594072 8 58 67
0.142446 -0.260329 -0.0607053 27 82 87
0.141886 -0.261653 -0.0620034 57 96 94
0.141326 -0.262978 -0.0633017 62 63 58
0.197545 -0.232899 -0.0575123 64 59 49
0.197719 -0.234589 -0.0595883 61 62 58
0.200304 -0.236968 -0.0636166 58 76 78
0.202112 -0.23915 -0.0670457 50 106 113
0.203118 -0.241119 -0.069844 41 93 110
0.204132 -0.243104 -0.072665 40 88 96
0.208512 -0.246111 -0.0782825 36 85 87
0.210418 -0.248409 -0.0818939 31 79 80
0.209771 -0.249941 -0.0833953 33 73 75
0.209123 -0.251473 -0.0848967 38 68 70
0.208476 -0.253006 -0.0863984 44 64 66
0.205294 -0.253726 -0.085744 54 63 62
0.203814 -0.254977 -0.0865208 56 63 59
0.200686 -0.25568 -0.0858712 57 61 52
0.19841 -0.256645 -0.0859342 62 59 47
0.196152 -0.257603 -0.0859967 61 60 53
0.191527 -0.257738 -0.0839696 65 58 45
0.187767 -0.258138 -0.0826654 61 58 44
0.182546 -0.258 -0.0800341 62 58 49
0.174512 -0.256825 -0.0748503 65 59 54
0.164693 -0.254944 -0.0679911 66 61 55
0.157991 -0.254117 -0.0638473 66 61 49
0.153454 -0.254032 -0.0616028 57 62 48
0.149653 -0.254187 -0.0599889 54 56 44
0.146548 -0.254576 -0.0589801 46 49 41
0.145357 -0.255671 -0.0597088 27 44 42
0.144794 -0.257003 -0.0610137 12 38 47
0.143608 -0.258092 -0.0617378 5 46 64
0.142426 -0.259177 -0.0624593 25 75 83
0.141865 -0.260504 -0.06376 55 100 91
0.141304 -0.261831 -0.0650607 59 73 70
0.196839 -0.231348 -0.0588119 66 58 51
0.197012 -0.233034 -0.0608907 61 61 61
0.199591 -0.235401 -0.0649295 49 71 74
0.201395 -0.237574 -0.0683667 31 87 89
0.202398 -0.239537 -0.0711705 38 77 81
0.203409 -0.241516 -0.073997 44 70 74
0.206937 -0.244254 -0.0789306 49 66 66
0.207136 -0.246026 -0.0811233 53 64 58
0.208184 -0.248064 -0.0840372 56 62 52
0.180339 -0.255942 -0.0799821 63 61 50
0.173825 -0.255319 -0.0761158 61 59 55
0.166105 -0.254216 -0.071103 59 53 55
0.15867 -0.253154 -0.066275 59 60 59
0.154766 -0.253319 -0.064595 60 61 54
0.152229 -0.253959 -0.0641331 62 62 51
0.148439 -0.254115 -0.0624967 61 59 47
0.145971 -0.254741 -0.0620528 54 51 44
0.144779 -0.255838 -0.0627776 26 37 44
0.14359 -0.256931 -0.0634999 9 39 58
0.143027 -0.258263 -0.0648053 20 63 74
0.142464 -0.259595 -0.0661107 44 91 87
0.141282 -0.26068 -0.066826 58 90 90
0.14072 -0.26201 -0.0681293 62 67 59
0.196305 -0.23148 -0.0621933 61 61 58
0.198878 -0.233834 -0.0662427 47 65 64
0.200677 -0.235998 -0.0696879 46 70 66
0.201677 -0.237955 -0.0724971 54 66 54
0.186973 -0.253559 -0.0838324 65 62 54
0.183279 -0.253989 -0.0825398 65 62 51
0.181145 -0.25493 -0.0826143 62 62 55
0.176061 -0.25483 -0.0800146 60 59 60
0.16824 -0.253728 -0.0748904 60 56 62
0.16071 -0.252668 -0.0699564 59 56 63
0.156759 -0.252838 -0.0682303 60 61 62
0.153534 -0.253245 -0.0671394 62 62 57
0.151003 -0.253886 -0.066664 63 63 53
0.147224 -0.254042 -0.065005 59 60 50
0.144763 -0.25467 -0.064548 27 41 46
0.143573 -0.255767 -0.0652686 12 39 48
0.143009 -0.257101 -0.0665764 8 57 63
0.142444 -0.258436 -0.0678843 20 84 86
0.14188 -0.25977 -0.0691923 55 102 107
0.141316 -0.261105 -0.0705004 62 66 68
0.19897 -0.232487 -0.068217 58 61 53
0.200773 -0.234647 -0.0716811 64 60 51
0.199783 -0.247873 -0.086926 67 59 48
0.19751 -0.24887 -0.0869851 65 62 53
0.196063 -0.250117 -0.0877505 63 62 58
0.193819 -0.251099 -0.0878062 60 61 63
0.190012 -0.251555 -0.0864613 58 65 70
0.186264 -0.252005 -0.0851378 64 69 69
0.182575 -0.252447 -0.0838351 74 82 69
0.180445 -0.253394 -0.0839049 81 98 74
0.175368 -0.253312 -0.0812903 81 107 80
0.168269 -0.252486 -0.0767869 77 109 84
0.163471 -0.252417 -0.0743259 78 112 86
0.159457 -0.252592 -0.0725435 77 102 83
0.154854 -0.252524 -0.0701792 81 100 83
0.152302 -0.253172 -0.0696846 81 97 84
0.151074 -0.254293 -0.0704102 69 83 82
0.146009 -0.25397 -0.067514 38 61 74
0.143555 -0.254598 -0.0670437 19 41 52
0.142366 -0.255695 -0.0677601 9 44 58
0.141802 -0.25703 -0.0690682 17 67 82
0.141238 -0.258364 -0.0703764 56 101 103
0.140674 -0.259699 -0.0716846 61 68 70
0.202438 -0.240475 -0.0830442 62 58 55
0.201798 -0.241988 -0.0845281 61 61 58
0.201158 -0.243502 -0.086012 64 62 55
0.199695 -0.244767 -0.086784 63 60 58
0.198238 -0.246027 -0.0875529 65 62 63
0.196786 -0.247281 -0.0883189 67 69 66
0.195341 -0.248531 -0.0890819 69 80 72
0.193099 -0.24952 -0.0891323 66 93 83
0.189297 -0.249989 -0.0877772 53 98 100
0.185556 -0.250451 -0.0864434 47 89 104
0.182633 -0.251159 -0.0858158 46 84 92
0.179744 -0.251858 -0.0851955 47 82 83
0.174676 -0.251794 -0.0825663 43 80 77
0.169008 -0.251485 -0.0793427 41 78 75
0.164185 -0.251427 -0.0768439 39 74 77
0.161518 -0.252097 -0.0762999 37 79 86
0.15753 -0.252275 -0.0745027 42 90 101
0.154276 -0.252689 -0.0733581 49 105 115
0.153035 -0.25382 -0.0740824 49 111 119
0.151144 -0.254704 -0.0741845 41 90 107
0.145426 -0.254135 -0.0706259 25 50 57
0.143597 -0.255002 -0.0707386 11 40 51
0.142404 -0.256103 -0.0714512 17 60 72
0.141215 -0.2572 -0.0721613 53 98 92
0.14065 -0.258537 -0.0734721 57 78 74
0.139467 -0.259628 -0.0741775 57 63 58
0.200515 -0.235159 -0.0793271 69 64 51
0.201523 -0.237128 -0.0821989 69 59 55
0.200884 -0.238638 -0.0836798 65 58 62
0.200245 -0.240149 -0.0851608 61 66 69
0.199607 -0.24166 -0.0866419 65 77 70
0.198968 -0.243171 -0.0881231 69 91 78
0.197512 -0.244434 -0.0888896 61 95 95
0.196062 -0.245692 -0.089653 54 90 99
0.194618 -0.246945 -0.0904135 51 87 92
0.192379 -0.24794 -0.0904588 45 87 85
0.189369 -0.248674 -0.0897971 35 86 86
0.184847 -0.248896 -0.0877493 29 80 85
0.18269 -0.249864 -0.0878045 24 73 77
0.179796 -0.250573 -0.0871716 25 66 72
0.174717 -0.250524 -0.0845144 25 61 66
0.169038 -0.250231 -0.0812589 23 61 62
0.164903 -0.25043 -0.0793811 23 57 62
0.162915 -0.251351 -0.0794658 20 59 61
0.160256 -0.252021 -0.0789073 19 60 67
0.155609 -0.251959 -0.0764553 20 60 70
0.153034 -0.252615 -0.0759229 23 60 71
0.151795 -0.253746 -0.0766428 23 51 65
0.150561 -0.254873 -0.0773602 15 33 42
0.148037 -0.255508 -0.076828 7 30 43
0.14427 -0.255651 -0.0750722 11 49 62
0.141816 -0.256272 -0.0745601 38 90 86
0.140626 -0.257371 -0.0752661 52 91 91
0.139441 -0.258466 -0.0759698 58 72 71
0.200427 -0.232064 -0.0791854 68 62 52
0.199791 -0.233569 -0.0806602 69 73 65
0.199974 -0.235302 -0.0828351 74 79 73
0.200157 -0.237042 -0.0850187 67 85 87
0.199518 -0.238553 -0.0864998 54 92 100
0.198879 -0.240064 -0.0879811 50 91 96
0.198241 -0.241575 -0.0894625 57 97 86
0.196786 -0.242841 -0.0902265 42 95 93
0.195338 -0.244103 -0.0909874 35 86 91
0.194701 -0.245608 -0.0924631 35 76 82
0.192458 -0.24661 -0.0925004 39 69 72
0.189441 -0.247354 -0.0918253 39 65 66
0.184909 -0.24759 -0.0897536 36 62 60
0.182748 -0.248565 -0.0898011 40 63 60
0.179094 -0.249034 -0.0884652 43 61 58
0.174023 -0.249003 -0.0857933 42 59 55
0.168353 -0.24873 -0.0825209 39 58 51
0.164225 -0.248943 -0.0806313 42 61 54
0.162933 -0.250111 -0.0813611 42 59 50
0.160268 -0.250789 -0.0807911 40 58 52
0.156283 -0.25098 -0.0789494 35 51 51
0.153695 -0.251643 -0.0784013 28 41 47
0.151791 -0.25254 -0.0784883 15 38 47
0.151211 -0.253914 -0.0798351 9 27 34
0.149975 -0.255043 -0.0805483 3 26 34
0.147449 -0.255678 -0.0799978 3 44 50
0.144951 -0.256306 -0.0794536 11 78 78
0.141226 -0.256442 -0.0776808 48 92 99
0.139414 -0.257299 -0.0777687 62 73 73
0.138848 -0.258639 -0.0790823 66 59 48
0.20034 -0.228969 -0.0790436 62 64 58
0.199704 -0.230474 -0.0805186 58 71 71
0.199067 -0.231978 -0.0819936 59 85 91
0.199248 -0.233708 -0.0841713 63 94 90
0.19943 -0.235446 -0.0863578 55 99 94
0.198791 -0.236957 -0.0878391 39 94 100
0.198152 -0.238468 -0.0893207 30 83 94
0.197513 -0.239979 -0.0908022 39 74 75
0.19606 -0.241248 -0.0915636 38 70 68
0.194613 -0.242513 -0.0923219 42 68 60
0.193977 -0.244018 -0.0937978 48 64 56
0.191736 -0.245027 -0.09383 55 61 56
0.189513 -0.246028 -0.0938619 58 63 57
0.185747 -0.246524 -0.0924725 55 53 50
0.182806 -0.24726 -0.091806 61 57 47
0.178391 -0.247494 -0.0897591 62 59 48
0.173328 -0.247481 -0.0870724 60 57 46
0.166957 -0.246991 -0.0831214 59 55 43
0.163546 -0.247456 -0.0818817 60 58 50
0.162255 -0.248626 -0.0826094 58 60 50
0.159594 -0.249313 -0.0820325 60 61 54
0.156288 -0.249755 -0.0808197 52 58 54
0.154361 -0.250665 -0.0808983 33 50 49
0.152448 -0.251568 -0.0809766 10 38 42
0.150549 -0.252466 -0.0810544 4 31 35
0.149968 -0.25384 -0.0824015 3 33 44
0.148735 -0.254969 -0.0831102 2 44 61
0.146215 -0.255604 -0.082546 6 61 77
0.143724 -0.256233 -0.081988 47 95 99
0.140009 -0.256369 -0.0801927 62 78 76
0.138821 -0.25747 -0.0808904 66 62 54
0.199616 -0.227379 -0.0803768 60 62 55
0.19898 -0.228883 -0.081852 53 73 73
0.19916 -0.230607 -0.0840294 48 82 93
0.198523 -0.232115 -0.0855078 46 77 85
0.198703 -0.233849 -0.0876971 42 70 72
0.198064 -0.23536 -0.0891787 36 67 67
0.197425 -0.236871 -0.0906603 36 67 63
0.196786 -0.238382 -0.092142 50 65 62
0.196147 -0.239894 -0.0936238 56 65 58
0.193888 -0.240923 -0.0936568 61 62 51
0.193252 -0.242428 -0.0951329 64 59 46
0.191014 -0.243444 -0.0951598 64 59 46
0.188794 -0.244451 -0.0951866 64 61 50
0.185034 -0.24496 -0.0937868 61 51 47
0.182864 -0.24595 -0.0938189 65 57 41
0.177689 -0.245954 -0.0910532 65 59 42
0.169732 -0.245008 -0.0856497 63 57 43
0.164863 -0.245023 -0.0830609 63 54 44
0.162172 -0.245735 -0.0824782 61 57 50
0.159512 -0.246438 -0.0819021 61 60 52
0.15892 -0.247837 -0.0832741 60 63 60
0.155619 -0.24829 -0.0820522 49 67 66
0.154362 -0.249442 -0.0827691 28 67 65
0.152445 -0.250351 -0.0828408 6 49 55
0.149887 -0.251017 -0.0822738 9 55 56
0.149306 -0.252391 -0.0836211 24 71 75
0.148725 -0.253765 -0.0849684 28 73 84
0.146846 -0.254651 -0.0850317 16 60 77
0.144981 -0.255531 -0.0850947 48 97 92
0.141865 -0.255917 -0.0838913 57 85 81
0.139414 -0.256539 -0.0833304 61 68 62
0.198256 -0.227292 -0.0831856 58 60 58
0.198435 -0.229013 -0.0853659 57 61 61
0.198615 -0.230741 -0.0875551 56 62 62
0.198795 -0.232476 -0.0897533 55 62 59
0.198155 -0.23399 -0.091238 53 61 56
0.197514 -0.235504 -0.0927228 54 60 52
0.196234 -0.238533 -0.0956928 66 59 52
0.19397 -0.23957 -0.0957175 64 58 51
0.192527 -0.240838 -0.096468 63 59 49
0.190292 -0.24186 -0.0964898 64 60 48
0.188075 -0.242874 -0.0965115 64 60 49
0.186658 -0.244123 -0.0972532 59 52 51
0.182921 -0.244634 -0.0958401 62 59 52
0.176986 -0.244414 -0.0923476 62 61 55
0.16478 -0.242115 -0.0829289 61 62 57
0.16209 -0.242843 -0.082347 62 66 60
0.160116 -0.243791 -0.082421 66 74 63
0.158838 -0.244962 -0.0831439 66 76 66
0.156887 -0.245896 -0.0832146 59 80 76
0.15495 -0.246824 -0.083285 47 85 84
0.153694 -0.247979 -0.0839998 31 84 85
0.152442 -0.24913 -0.0847121 13 72 80
0.149879 -0.249803 -0.0841339 30 90 90
0.148644 -0.250942 -0.0848409 50 104 102
0.148063 -0.252316 -0.0861884 49 96 99
0.146833 -0.253449 -0.0868905 28 69 80
0.144965 -0.254335 -0.086947 41 90 84
0.143747 -0.255457 -0.087644 53 90 87
0.140639 -0.255844 -0.0864224 61 75 72
0.196962 -0.235649 -0.0962821 65 61 51
0.195504 -0.236933 -0.097036 66 55 55
0.194052 -0.238211 -0.0977869 61 56 57
0.191802 -0.239248 -0.0978035 60 60 58
0.191165 -0.240753 -0.09928 63 64 59
0.182209 -0.243072 -0.0971524 62 74 74
0.165401 -0.239429 -0.0834554 57 75 86
0.162007 -0.239951 -0.0822158 54 79 92
0.159348 -0.240686 -0.0816414 56 87 91
0.158074 -0.241861 -0.0823644 61 97 89
0.156805 -0.243031 -0.0830848 62 98 92
0.154868 -0.24397 -0.0831558 61 106 101
0.153612 -0.24513 -0.0838709 54 104 101
0.153026 -0.246516 -0.0852307 42 96 97
0.151775 -0.24767 -0.0859409 33 96 101
0.149872 -0.248585 -0.0860011 55 116 117
0.148634 -0.249728 -0.0867061 63 116 117
0.147401 -0.250867 -0.0874086 55 100 103
0.146819 -0.252242 -0.0887564 39 77 84
0.145592 -0.253374 -0.089454 30 78 80
0.143728 -0.254261 -0.0895013 48 90 93
0.142512 -0.255384 -0.090194 63 81 81
0.198157 -0.229492 -0.0931636 57 58 54
0.197515 -0.23101 -0.0946517 55 57 54
0.198518 -0.232979 -0.0976108 62 60 53
0.196232 -0.234045 -0.0976281 63 62 57
0.19559 -0.235563 -0.0991165 66 71 67
0.194134 -0.236847 -0.099865 59 71 72
0.192685 -0.238126 -0.10061 55 73 81
0.165317 -0.236515 -0.0833231 54 96 87
0.161924 -0.237058 -0.0820846 44 94 102
0.158582 -0.237593 -0.0808647 35 89 106
0.157313 -0.238771 -0.0815879 31 90 105
0.155374 -0.239726 -0.0816643 31 94 105
0.154787 -0.241115 -0.0830265 49 110 116
0.153531 -0.24228 -0.0837419 59 116 118
0.152944 -0.243667 -0.0851018 55 111 113
0.151694 -0.244825 -0.0858123 49 107 110
0.150448 -0.24598 -0.0865202 61 124 125
0.149207 -0.24713 -0.0872256 68 131 130
0.14797 -0.248276 -0.0879285 66 121 121
0.146738 -0.249418 -0.088629 58 102 104
0.146157 -0.250792 -0.0899769 43 80 87
0.14493 -0.251928 -0.0906725 20 65 77
0.143708 -0.253059 -0.0913656 45 88 94
0.142491 -0.254187 -0.0920563 62 84 86
0.198892 -0.226584 -0.0937488 63 62 50
0.199073 -0.228321 -0.0959736 55 66 61
0.198429 -0.229844 -0.097468 52 69 71
0.19861 -0.231592 -0.0997052 56 70 79
0.19714 -0.232892 -0.100457 55 72 80
0.194859 -0.233958 -0.100463 67 95 84
0.194217 -0.235476 -0.101952 61 101 88
0.160461 -0.233744 -0.0806542 27 69 68
0.157143 -0.234302 -0.0794496 26 69 66
0.15588 -0.235482 -0.0801729 24 71 70
0.154622 -0.236657 -0.0808935 26 78 81
0.153369 -0.237828 -0.0816115 40 98 105
0.152783 -0.239212 -0.0829688 62 120 123
0.152198 -0.240596 -0.0843262 56 109 120
0.151612 -0.24198 -0.0856837 53 111 122
0.150367 -0.24314 -0.0863919 61 129 133
0.149126 -0.244295 -0.0870977 76 148 144
0.147889 -0.245447 -0.0878009 70 129 129
0.146657 -0.246594 -0.0885016 66 119 118
0.146076 -0.247968 -0.0898496 54 100 101
0.145494 -0.249343 -0.0911977 31 70 80
0.144269 -0.250481 -0.0918912 14 54 74
0.143048 -0.251615 -0.0925823 44 86 89
0.142469 -0.252985 -0.0939257 61 89 86
0.141889 -0.254355 -0.0952692 61 64 64
0.201479 -0.225822 -0.0980489 58 58 54
0.200831 -0.227355 -0.0995525 60 80 71
0.198521 -0.228451 -0.0995621 61 104 92
0.197875 -0.229978 -0.10106 50 109 110
0.196406 -0.231281 -0.101809 36 96 111
0.194943 -0.232579 -0.102555 29 81 92
0.157649 -0.23005 -0.0779554 32 62 66
0.155713 -0.231034 -0.078045 41 65 63
0.154458 -0.232216 -0.0787682 43 65 65
0.153873 -0.233599 -0.0801254 44 72 78
0.152623 -0.234774 -0.0808436 51 95 103
0.151378 -0.235945 -0.0815593 66 133 133
0.150795 -0.237324 -0.0829117 53 116 131
0.150211 -0.238703 -0.0842643 49 117 129
0.149628 -0.240082 -0.0856169 65 136 139
0.149045 -0.241461 -0.0869697 83 151 149
0.147808 -0.242617 -0.0876732 71 128 135
0.147226 -0.243994 -0.0890236 70 123 121
0.145995 -0.245144 -0.0897223 63 109 107
0.145413 -0.246519 -0.0910704 46 84 86
0.144832 -0.247893 -0.0924187 21 51 58
0.143608 -0.249034 -0.0931101 8 47 64
0.143027 -0.250406 -0.094456 35 77 78
0.142447 -0.251779 -0.0958021 53 88 83
0.141866 -0.253151 -0.0971483 60 76 74
0.203263 -0.224835 -0.101663 52 60 56
0.200928 -0.225948 -0.101664 42 68 69
0.200278 -0.227484 -0.103171 33 69 73
0.19714 -0.228363 -0.102415 31 68 68
0.195672 -0.22967 -0.103161 33 68 64
0.197498 -0.231867 -0.106929 45 65 63
0.157568 -0.227188 -0.0778255 59 63 59
0.155632 -0.228184 -0.0779158 60 58 53
0.154377 -0.22937 -0.0786393 62 65 58
0.153791 -0.230754 -0.0799965 57 66 70
0.152542 -0.231934 -0.0807151 59 92 95
0.151297 -0.23311 -0.081431 64 128 127
0.150057 -0.234281 -0.0821444 62 137 143
0.149474 -0.235658 -0.0834946 51 118 130
0.148892 -0.237034 -0.0848448 67 138 142
0.148309 -0.238411 -0.0861951 76 147 151
0.147727 -0.239788 -0.0875455 73 138 146
0.147145 -0.241164 -0.088896 69 121 123
0.145914 -0.242319 -0.089595 71 117 114
0.145332 -0.243694 -0.0909431 62 86 90
0.144751 -0.245068 -0.0922915 43 57 63
0.144169 -0.246443 -0.0936399 19 41 41
0.143588 -0.247818 -0.0949884 7 43 48
0.142365 -0.248959 -0.0956754 19 67 68
0.141785 -0.250332 -0.0970216 39 86 85
0.141204 -0.251704 -0.0983679 59 87 85
0.140623 -0.253077 -0.0997143 60 54 44
0.203366 -0.223413 -0.103792 52 58 57
0.201867 -0.224746 -0.104545 52 60 61
0.200375 -0.226073 -0.105294 54 62 61
0.196404 -0.226748 -0.10377 57 60 58
0.194938 -0.228058 -0.104514 60 57 53
0.15555 -0.225333 -0.0777865 61 63 59
0.154295 -0.226525 -0.0785104 65 56 52
0.153045 -0.227713 -0.0792316 62 62 63
0.152461 -0.229094 -0.0805865 61 93 95
0.151216 -0.230275 -0.0813027 74 134 131
0.149975 -0.231451 -0.0820165 83 156 151
0.14874 -0.232624 -0.0827276 60 122 136
0.148158 -0.233998 -0.0840755 60 135 146
0.147577 -0.235372 -0.0854233 77 157 158
0.146996 -0.236746 -0.0867714 79 149 150
0.146414 -0.23812 -0.0881194 69 124 131
0.145833 -0.239495 -0.0894676 67 118 123
0.145251 -0.240869 -0.0908159 61 95 102
0.14467 -0.242244 -0.0921643 59 70 67
0.144088 -0.243618 -0.0935127 49 53 46
0.143506 -0.244993 -0.0948613 27 44 44
0.142925 -0.246368 -0.09621 15 38 42
0.142343 -0.247743 -0.0975587 10 53 62
0.141761 -0.249118 -0.0989076 29 78 85
0.141179 -0.250493 -0.100257 61 92 93
0.140598 -0.251868 -0.101606 64 54 55
0.158172 -0.223234 -0.0802136 59 61 55
0.154214 -0.223679 -0.0783814 60 62 59
0.152964 -0.224872 -0.0791029 65 63 59
0.152379 -0.226253 -0.0804579 55 85 92
0.151135 -0.227439 -0.0811744 86 142 138
0.149894 -0.228621 -0.0818885 89 154 156
0.148659 -0.229799 -0.0826 67 137 150
0.148077 -0.231173 -0.0839478 57 142 147
0.146847 -0.232343 -0.0846544 86 164 160
0.145622 -0.23351 -0.0853585 80 147 150
0.145042 -0.234879 -0.0867017 70 131 137
0.144463 -0.236249 -0.088045 63 122 126
0.143883 -0.237618 -0.0893884 61 114 118
0.143945 -0.239203 -0.0913833 59 81 97
0.144007 -0.240793 -0.0933856 56 65 80
0.143425 -0.242168 -0.0947342 49 56 66
0.142843 -0.243542 -0.0960829 37 47 54
0.142903 -0.245144 -0.0980979 21 36 43
0.14168 -0.246292 -0.0987807 11 45 60
0.141098 -0.247667 -0.10013 28 71 81
0.140516 -0.249043 -0.101479 60 93 91
0.140571 -0.250655 -0.103504 61 62 64
0.154133 -0.220833 -0.0782524 59 61 68
0.15222 -0.221846 -0.078341 57 64 77
0.150978 -0.223038 -0.0790601 54 78 94
0.150396 -0.224414 -0.0804102 81 130 131
0.149159 -0.225599 -0.0811244 80 150 154
0.148578 -0.226973 -0.0824723 76 150 155
0.147347 -0.228152 -0.0831815 78 146 148
0.14612 -0.229326 -0.0838882 84 153 156
0.145541 -0.230695 -0.0852314 81 151 158
0.14432 -0.231863 -0.0859334 72 132 140
0.143741 -0.23323 -0.0872743 67 121 128
0.143163 -0.234597 -0.0886153 63 119 126
0.142585 -0.235963 -0.0899564 54 119 124
0.142644 -0.237542 -0.0919488 55 122 126
0.142703 -0.239126 -0.0939486 58 112 113
0.142762 -0.240717 -0.0959559 64 102 95
0.142822 -0.242313 -0.0979706 66 90 75
0.142239 -0.243691 -0.0993221 34 45 47
0.141656 -0.245068 -0.100674 15 40 54
0.141713 -0.246676 -0.102701 25 64 72
0.141129 -0.248056 -0.104055 52 92 86
0.140545 -0.249437 -0.10541 59 73 74
0.139961 -0.250817 -0.106764 63 61 58
0.154051 -0.217986 -0.0781234 74 96 82
0.151479 -0.218831 -0.0775818 61 102 99
0.150241 -0.220027 -0.0783011 50 109 121
0.149007 -0.221217 -0.0790178 59 125 144
0.148427 -0.222589 -0.0803632 86 160 164
0.147198 -0.223773 -0.0810749 87 149 157
0.145974 -0.224953 -0.0817842 81 142 154
0.145396 -0.226319 -0.083125 81 152 159
0.144817 -0.227686 -0.0844657 87 162 162
0.1436 -0.228857 -0.0851678 76 136 141
0.143022 -0.230221 -0.0865064 69 124 129
0.142445 -0.231586 -0.087845 63 109 115
0.141868 -0.23295 -0.0891837 54 89 97
0.141925 -0.23452 -0.0911711 40 72 76
0.142622 -0.236306 -0.0938218 32 70 82
0.142681 -0.237891 -0.0958288 32 80 89
0.143384 -0.239699 -0.0985115 39 93 97
0.144092 -0.241521 -0.101214 46 93 99
0.14286 -0.242682 -0.101895 21 47 64
0.142274 -0.244065 -0.103252 12 40 52
0.141689 -0.245448 -0.104609 21 60 62
0.141104 -0.246831 -0.105966 42 88 83
0.140519 -0.248214 -0.107323 58 86 89
0.139933 -0.249597 -0.10868 66 65 61
0.139348 -0.25098 -0.110037 65 53 43
0.151981 -0.214624 -0.0761035 47 80 84
0.150086 -0.215655 -0.0761997 46 79 82
0.148855 -0.216851 -0.0769189 44 90 97
0.148276 -0.21822 -0.0782617 53 120 130
0.14705 -0.21941 -0.078976 92 169 167
0.146472 -0.220776 -0.0803166 82 149 161
0.145251 -0.221959 -0.081026 77 149 160
0.144035 -0.223139 -0.081733 83 158 163
0.143459 -0.2245 -0.083069 89 162 163
0.142883 -0.225862 -0.084405 78 141 146
0.142306 -0.227224 -0.0857413 71 126 130
0.142365 -0.22878 -0.0877186 66 117 118
0.141787 -0.230145 -0.0890574 62 95 95
0.14121 -0.231509 -0.0903962 56 68 69
0.141266 -0.233077 -0.0923861 47 61 61
0.1426 -0.235065 -0.0957017 41 59 58
0.143302 -0.236862 -0.098384 36 59 57
0.144659 -0.23889 -0.101764 32 59 59
0.14669 -0.241163 -0.105872 26 57 64
0.146098 -0.242561 -0.107245 14 39 50
0.146165 -0.244188 -0.109315 12 37 43
0.145572 -0.245589 -0.11069 15 53 54
0.142369 -0.24606 -0.109267 25 78 78
0.14178 -0.247451 -0.110631 55 90 97
0.139905 -0.248372 -0.110603 65 65 63
0.139319 -0.249758 -0.111963 64 50 44
0.139372 -0.251384 -0.114023 58 49 43
0.147987 -0.21081 -0.0722569 42 69 76
0.147411 -0.212171 -0.0735923 40 68 72
0.146835 -0.213532 -0.0749278 41 73 82
0.146259 -0.214893 -0.0762634 58 102 111
0.145683 -0.216254 -0.077599 87 149 150
0.144469 -0.217441 -0.0783108 84 158 165
0.143258 -0.218624 -0.0790201 83 155 157
0.142684 -0.219981 -0.0803512 84 157 159
0.14211 -0.221337 -0.0816824 84 156 160
0.141536 -0.222694 -0.0830136 80 146 151
0.140962 -0.224051 -0.0843451 68 126 131
0.140387 -0.225407 -0.0856765 69 121 123
0.140442 -0.226955 -0.0876467 66 99 101
0.140497 -0.228509 -0.0896242 64 73 73
0.140551 -0.230068 -0.091609 61 57 52
0.139974 -0.231432 -0.0929482 55 60 56
0.141936 -0.233613 -0.0969238 51 57 51
0.144577 -0.236037 -0.101636 49 55 47
0.146607 -0.238289 -0.105743 44 51 45
0.148668 -0.240575 -0.109913 34 45 45
0.148071 -0.241984 -0.111296 27 42 41
0.147475 -0.243393 -0.112678 19 37 38
0.146215 -0.244571 -0.11335 12 45 50
0.144303 -0.245512 -0.113311 15 64 74
0.143056 -0.24668 -0.113977 52 93 96
0.14052 -0.247375 -0.113233 61 70 69
0.139931 -0.248766 -0.114598 60 54 50
0.139343 -0.250157 -0.115964 56 50 46
0.142141 -0.205132 -0.0648009 61 61 50
0.143451 -0.206925 -0.0678949 57 62 54
0.143511 -0.208424 -0.0698144 56 63 60
0.143571 -0.209929 -0.0717409 47 67 72
0.143 -0.211278 -0.0730645 56 95 101
0.142429 -0.212627 -0.0743881 76 133 138
0.141858 -0.213976 -0.0757119 90 160 164
0.140661 -0.215156 -0.0764208 83 146 153
0.140091 -0.216503 -0.0777425 86 153 159
0.139521 -0.21785 -0.0790641 87 157 161
0.138951 -0.219196 -0.0803858 81 146 150
0.138381 -0.220543 -0.0817077 71 128 133
0.137811 -0.221891 -0.0830296 66 121 125
0.13786 -0.223421 -0.0849809 63 105 110
0.139158 -0.225331 -0.0882141 62 80 81
0.13921 -0.226878 -0.0901892 63 62 57
0.148058 -0.24072 -0.113259 45 50 43
0.147461 -0.242132 -0.114645 39 44 40
0.146863 -0.243544 -0.11603 25 42 49
0.144941 -0.244493 -0.115981 17 52 68
0.144346 -0.2459 -0.117361 49 89 88
0.14244 -0.246836 -0.117307 53 74 71
0.141196 -0.248002 -0.117967 53 60 55
0.139313 -0.248926 -0.117912 53 54 48
0.141552 -0.205203 -0.0678935 59 61 48
0.141609 -0.206694 -0.0698063 59 64 62
0.141665 -0.208191 -0.071726 56 88 92
0.141096 -0.209534 -0.073045 71 130 132
0.140527 -0.210878 -0.074364 86 157 160
0.139958 -0.212223 -0.0756832 79 147 160
0.138769 -0.213402 -0.0763898 78 149 158
0.138201 -0.214744 -0.0777068 89 159 164
0.137633 -0.216086 -0.0790239 83 149 155
0.137065 -0.217428 -0.080341 73 135 139
0.136497 -0.21877 -0.0816583 66 122 123
0.135928 -0.220113 -0.0829756 64 113 116
0.135974 -0.221634 -0.0849199 61 83 86
0.136638 -0.223344 -0.0875052 58 67 63
0.147447 -0.240866 -0.116619 54 53 43
0.146182 -0.242054 -0.117286 47 49 48
0.145584 -0.243466 -0.118672 35 48 57
0.144986 -0.244878 -0.120057 48 76 74
0.143071 -0.245822 -0.119993 49 69 64
0.141822 -0.246994 -0.120651 48 60 53
0.140577 -0.248161 -0.121306 49 55 47
0.140232 -0.202159 -0.0665829 61 59 49
0.140286 -0.203639 -0.0684865 54 62 58
0.14034 -0.205125 -0.0703971 54 78 84
0.139773 -0.206464 -0.0717114 75 127 128
0.139206 -0.207803 -0.0730258 84 154 156
0.138639 -0.209143 -0.0743403 83 158 164
0.138072 -0.210482 -0.0756548 80 152 157
0.137505 -0.211821 -0.0769695 83 159 162
0.136324 -0.212998 -0.0776716 85 156 158
0.135758 -0.214335 -0.0789841 76 137 141
0.135192 -0.215672 -0.0802967 67 124 126
0.134626 -0.21701 -0.0816094 64 116 114
0.134669 -0.21852 -0.0835443 62 89 93
0.134712 -0.220036 -0.0854864 62 64 63
0.145566 -0.242202 -0.120654 58 52 45
0.144305 -0.243387 -0.121314 51 62 55
0.143707 -0.244799 -0.1227 51 59 48
0.143109 -0.246212 -0.124086 52 56 43
0.139589 -0.200747 -0.067768 59 62 56
0.139024 -0.202081 -0.0690776 54 71 78
0.138459 -0.203415 -0.0703873 69 114 121
0.137894 -0.20475 -0.0716971 84 151 154
0.137329 -0.206084 -0.0730069 87 157 161
0.136764 -0.207419 -0.0743169 84 151 157
0.136199 -0.208753 -0.075627 86 160 159
0.135634 -0.210088 -0.0769371 88 159 159
0.134461 -0.211263 -0.0776368 75 136 142
0.133897 -0.212596 -0.0789448 68 125 128
0.133332 -0.213928 -0.0802529 65 116 116
0.133373 -0.215428 -0.0821786 64 97 98
0.132808 -0.216763 -0.0834892 63 61 64
0.13828 -0.197729 -0.0664625 58 58 52
0.13833 -0.199196 -0.0683594 58 68 69
0.137766 -0.200528 -0.0696668 63 100 106
0.136592 -0.201718 -0.0703778 85 148 150
0.136029 -0.203047 -0.071683 82 152 160
0.135466 -0.204377 -0.0729884 82 150 158
0.134903 -0.205707 -0.0742939 89 154 158
0.134339 -0.207037 -0.0755994 91 156 159
0.133173 -0.208213 -0.0762991 76 142 150
0.13261 -0.209541 -0.0776025 67 127 131
0.132048 -0.210869 -0.078906 64 120 120
0.131486 -0.212197 -0.0802096 63 102 103
0.131523 -0.213688 -0.0821285 61 72 75
0.131561 -0.215185 -0.0840544 62 52 47
0.136981 -0.194732 -0.0651663 62 58 49
0.13642 -0.196057 -0.0664668 61 65 64
0.136467 -0.197516 -0.068357 60 90 96
0.135905 -0.198843 -0.0696599 81 146 145
0.135343 -0.20017 -0.070963 80 155 162
0.134176 -0.201357 -0.0716694 80 149 159
0.133615 -0.202682 -0.0729703 82 150 160
0.133054 -0.204007 -0.0742712 84 155 164
0.132493 -0.205332 -0.0755723 83 152 154
0.131932 -0.206658 -0.0768735 68 127 132
0.13137 -0.207983 -0.0781747 64 123 124
0.130809 -0.209309 -0.0794761 62 107 107
0.130248 -0.210635 -0.0807775 61 82 81
0.130283 -0.21212 -0.0826942 61 60 54
0.135089 -0.191633 -0.0633005 64 60 50
0.135132 -0.193077 -0.0651751 62 64 63
0.134573 -0.194397 -0.0664711 64 86 92
0.134014 -0.195717 -0.0677672 76 133 135
0.134056 -0.19717 -0.0696533 88 165 168
0.133496 -0.198493 -0.0709518 79 151 158
0.132936 -0.199815 -0.0722505 78 154 160
0.131778 -0.200998 -0.0729524 84 161 163
0.131218 -0.202319 -0.074249 85 154 156
0.130659 -0.20364 -0.0755456 69 130 138
0.130695 -0.205107 -0.0774461 63 122 125
0.130134 -0.206431 -0.0787451 63 113 113
0.129574 -0.207754 -0.0800443 63 84 84
0.129014 -0.209077 -0.0813436 62 60 59
0.132029 -0.188333 -0.0603155 63 62 48
0.132067 -0.189758 -0.0621685 61 64 60
0.132106 -0.191188 -0.0640282 62 81 87
0.13155 -0.192499 -0.0653152 72 120 127
0.130995 -0.19381 -0.0666023 93 165 163
0.13044 -0.195121 -0.0678896 77 146 159
0.129296 -0.196301 -0.0685929 83 157 158
0.128742 -0.19761 -0.0698781 89 161 160
0.128188 -0.198919 -0.0711633 83 151 155
0.127633 -0.200228 -0.0724487 70 134 143
0.127663 -0.201677 -0.0743271 62 122 125
0.127108 -0.202989 -0.0756149 65 116 119
0.126552 -0.204301 -0.0769027 59 87 95
0.12658 -0.20576 -0.0787925 61 65 63
0.127195 -0.207374 -0.0812974 64 54 44
0.127224 -0.208847 -0.0832052 61 49 45
0.130775 -0.185421 -0.0590632 62 59 47
0.13081 -0.186836 -0.0609077 59 62 54
0.130258 -0.188139 -0.062188 57 77 79
0.130293 -0.189562 -0.0640413 68 115 119
0.129739 -0.190868 -0.065324 84 153 155
0.129186 -0.192174 -0.0666067 77 152 162
0.128633 -0.193481 -0.0678896 85 147 152
0.128079 -0.194787 -0.0691726 87 152 159
0.126944 -0.195965 -0.0698716 84 153 159
0.126391 -0.197269 -0.0711524 74 140 145
0.126419 -0.198708 -0.0730221 65 122 127
0.125865 -0.200015 -0.0743054 64 117 118
0.125892 -0.201461 -0.076184 62 97 99
0.125337 -0.20277 -0.0774698 62 70 64
0.125363 -0.204224 -0.0793574 63 60 47
0.124808 -0.205536 -0.0806456 64 57 43
0.130112 -0.182634 -0.0583797 56 58 51
0.129562 -0.183933 -0.0596555 58 60 52
0.129595 -0.185343 -0.061498 53 72 72
0.129044 -0.186644 -0.0627762 62 109 110
0.128493 -0.187946 -0.0640545 76 147 149
0.127941 -0.189248 -0.0653329 81 160 166
0.12739 -0.19055 -0.0666113 77 141 154
0.126838 -0.191852 -0.0678899 77 152 166
0.126287 -0.193154 -0.0691686 91 168 166
0.125735 -0.194456 -0.0704473 82 148 148
0.125183 -0.195759 -0.0717261 68 125 130
0.124632 -0.197061 -0.0730051 63 119 119
0.124656 -0.198497 -0.0748749 66 110 105
0.124681 -0.199938 -0.0767514 62 70 68
0.124127 -0.201245 -0.078035 62 57 50
0.129452 -0.179856 -0.0576987 60 63 54
0.128903 -0.181153 -0.0589723 61 60 51
0.128353 -0.18245 -0.0602461 58 64 67
0.127804 -0.183747 -0.0615199 60 98 104
0.127254 -0.185044 -0.0627938 77 146 148
0.126705 -0.186342 -0.0640678 86 162 164
0.126155 -0.187639 -0.0653419 74 145 155
0.125606 -0.188936 -0.0666161 79 162 162
0.125056 -0.190234 -0.0678904 94 169 162
0.124506 -0.191532 -0.0691647 81 146 149
0.123956 -0.192829 -0.0704392 70 128 134
0.123407 -0.194127 -0.0717138 67 120 123
0.122857 -0.195425 -0.0729884 67 110 111
0.122878 -0.196853 -0.0748518 59 71 81
0.123473 -0.19842 -0.0773169 56 59 58
0.128794 -0.177088 -0.0570199 59 63 51
0.128246 -0.178382 -0.0582914 61 65 51
0.128277 -0.179777 -0.0601252 60 64 62
0.127727 -0.181075 -0.0613991 58 85 97
0.127178 -0.182372 -0.0626731 84 140 143
0.126628 -0.183669 -0.0639471 84 156 161
0.126078 -0.184966 -0.0652213 75 151 158
0.124954 -0.186152 -0.0659223 89 161 155
0.124405 -0.187447 -0.0671945 94 158 159
0.123857 -0.188743 -0.0684667 80 147 156
0.123308 -0.190038 -0.069739 66 130 136
0.122759 -0.191334 -0.0710114 64 123 127
0.12278 -0.192752 -0.0728682 63 110 115
0.12223 -0.19405 -0.0741429 59 85 90
0.12168 -0.195349 -0.0754178 61 60 55
0.127561 -0.174238 -0.0557898 63 54 51
0.127015 -0.175528 -0.057057 62 59 51
0.127621 -0.177009 -0.0594423 59 64 60
0.127072 -0.178304 -0.0607141 54 77 87
0.126524 -0.179599 -0.0619859 77 131 132
0.125975 -0.180894 -0.0632579 77 151 157
0.124853 -0.182084 -0.0639611 78 151 159
0.124305 -0.183377 -0.0652309 84 147 156
0.123757 -0.18467 -0.0665009 82 151 166
0.12264 -0.185853 -0.0671975 86 164 167
0.122093 -0.187144 -0.0684655 71 133 137
0.122113 -0.18855 -0.0703114 62 124 125
0.122133 -0.189961 -0.0721638 61 116 115
0.121584 -0.191257 -0.0734365 63 96 92
0.121035 -0.192553 -0.0747092 64 67 61
0.121053 -0.193974 -0.0765727 66 58 49
0.126365 -0.172781 -0.0563829 66 65 55
0.126392 -0.174159 -0.058204 63 60 55
0.125845 -0.175449 -0.0594714 58 72 75
0.125299 -0.17674 -0.0607389 68 122 121
0.124752 -0.17803 -0.0620065 82 158 159
0.124205 -0.179321 -0.0632741 78 150 159
0.123658 -0.180612 -0.0645419 70 144 160
0.122544 -0.181799 -0.0652407 75 157 168
0.121997 -0.183088 -0.0665065 84 163 163
0.121451 -0.184376 -0.0677723 72 134 140
0.12147 -0.185775 -0.0696139 63 126 128
0.120923 -0.187066 -0.0708821 61 119 118
0.120941 -0.188473 -0.0727325 63 97 93
0.120393 -0.189766 -0.074003 64 73 66
0.120409 -0.19118 -0.0758622 64 59 49
0.125717 -0.170043 -0.0557111 65 64 58
0.125172 -0.171329 -0.0569741 63 65 61
0.124627 -0.172615 -0.0582372 55 70 73
0.124651 -0.17399 -0.0600586 57 104 111
0.124105 -0.175279 -0.0613241 88 163 160
0.123559 -0.176567 -0.0625896 75 148 160
0.122447 -0.177759 -0.0632906 74 154 159
0.121902 -0.179045 -0.0645541 83 164 161
0.121357 -0.180332 -0.0658178 85 159 160
0.120812 -0.181618 -0.0670815 71 140 149
0.120266 -0.182905 -0.0683453 63 122 128
0.120283 -0.184299 -0.0701849 62 122 121
0.120299 -0.185698 -0.0720308 61 100 103
0.119752 -0.186989 -0.0732993 62 75 73
0.119768 -0.188395 -0.075154 63 59 49
0.125071 -0.167314 -0.0550416 64 62 55
0.124527 -0.168598 -0.0563025 62 65 61
0.123983 -0.169881 -0.0575635 59 72 74
0.123439 -0.171165 -0.0588246 59 96 108
0.122895 -0.172449 -0.0600858 96 163 155
0.122351 -0.173733 -0.0613471 75 149 157
0.121806 -0.175017 -0.0626084 83 154 154
0.121262 -0.176301 -0.0638699 87 156 156
0.120158 -0.177489 -0.0645664 84 155 160
0.119614 -0.178771 -0.0658258 75 147 153
0.11963 -0.180153 -0.0676547 63 127 131
0.119085 -0.181438 -0.0689165 61 121 124
0.1191 -0.182827 -0.070754 61 107 108
0.119114 -0.184221 -0.072598 61 79 77
0.118568 -0.18551 -0.0738644 61 59 53
0.122175 -0.164303 -0.0522031 62 61 54
0.122195 -0.16565 -0.0539956 62 62 58
0.121655 -0.166925 -0.055248 61 68 68
0.121114 -0.1682 -0.0565006 64 95 98
0.120574 -0.169475 -0.0577532 80 143 143
0.119478 -0.170667 -0.0584552 75 157 164
0.118938 -0.17194 -0.0597059 79 144 152
0.118953 -0.173301 -0.0615116 82 145 158
0.118412 -0.174576 -0.0627646 83 154 162
0.11732 -0.175759 -0.0634585 77 150 154
0.11678 -0.177033 -0.0647095 65 131 134
0.11679 -0.178403 -0.0665241 60 122 123
0.11625 -0.179678 -0.0677774 63 115 115
0.116811 -0.181157 -0.0701722 62 83 83
0.116821 -0.182541 -0.0720058 61 62 60
0.12156 -0.162952 -0.0533348 60 62 55
0.121021 -0.164224 -0.0545851 57 66 63
0.120482 -0.165497 -0.0558356 60 87 88
0.119388 -0.166694 -0.0565396 70 129 131
0.118849 -0.167964 -0.0577882 81 164 170
0.11831 -0.169235 -0.0590368 73 140 155
0.117772 -0.170506 -0.0602854 72 149 161
0.116684 -0.171692 -0.0609812 84 162 164
0.116146 -0.172961 -0.0622279 81 153 156
0.115608 -0.17423 -0.0634748 68 134 141
0.115071 -0.175499 -0.0647217 60 122 125
0.115078 -0.176862 -0.0665303 63 118 117
0.115085 -0.178229 -0.0683451 60 87 93
0.115092 -0.179601 -0.0701663 62 67 65
0.11565 -0.181079 -0.0725695 62 58 52
0.120373 -0.160197 -0.0521381 64 51 48
0.12039 -0.161532 -0.0539244 57 58 57
0.119851 -0.162803 -0.0551728 52 81 84
0.119313 -0.164073 -0.0564213 65 122 125
0.118222 -0.16527 -0.0571234 85 162 161
0.117136 -0.166463 -0.0578231 70 146 159
0.116599 -0.16773 -0.0590676 79 157 158
0.116062 -0.168997 -0.0603123 83 161 160
0.115525 -0.170263 -0.0615569 79 154 157
0.114988 -0.17153 -0.0628018 69 139 143
0.114451 -0.172797 -0.0640466 61 123 128
0.113914 -0.174064 -0.0652916 60 116 118
0.113919 -0.175422 -0.0670982 59 96 99
0.113925 -0.176785 -0.0689112 58 65 63
0.11393 -0.178152 -0.0707303 59 59 52
0.119194 -0.15746 -0.0509495 60 49 42
0.118658 -0.158724 -0.0521915 61 56 52
0.118122 -0.159988 -0.0534336 55 72 79
0.118135 -0.161319 -0.0552164 63 111 119
0.11705 -0.162517 -0.0559181 80 152 153
0.116514 -0.163781 -0.0571605 74 151 159
0.115434 -0.164972 -0.057858 86 154 153
0.114899 -0.166235 -0.0590985 85 157 159
0.114364 -0.167497 -0.060339 80 155 160
0.113829 -0.16876 -0.0615796 69 139 146
0.113293 -0.170022 -0.0628204 61 126 132
0.112758 -0.171285 -0.0640612 59 118 120
0.112761 -0.172634 -0.0658598 60 104 103
0.112225 -0.173899 -0.0671028 58 72 72
0.112227 -0.175254 -0.0689097 61 59 46
0.117477 -0.154686 -0.0492402 65 58 41
0.118035 -0.156059 -0.0515393 65 52 46
0.1175 -0.157321 -0.0527794 59 64 71
0.116965 -0.158583 -0.0540196 66 104 111
0.11643 -0.159845 -0.0552599 73 143 148
0.115895 -0.161107 -0.0565002 74 152 160
0.114817 -0.162301 -0.0571977 79 144 151
0.114283 -0.163561 -0.0584361 84 149 159
0.113749 -0.164822 -0.0596746 84 159 163
0.113215 -0.166082 -0.0609132 71 142 150
0.113219 -0.167419 -0.0627033 62 128 135
0.112683 -0.168682 -0.0639442 60 121 123
0.112148 -0.169945 -0.0651851 61 109 108
0.111613 -0.171208 -0.0664262 59 80 79
0.111077 -0.172471 -0.0676673 60 57 50
0.114702 -0.15184 -0.0465071 63 62 50
0.115246 -0.153191 -0.0487778 61 61 52
0.115794 -0.154552 -0.0510639 58 63 66
0.115262 -0.155808 -0.0522979 63 98 102
0.114729 -0.157064 -0.053532 73 139 142
0.114197 -0.158319 -0.0547662 75 152 161
0.113664 -0.159575 -0.0560004 70 143 158
0.113132 -0.160831 -0.0572347 76 151 160
0.112599 -0.162087 -0.0584692 84 159 163
0.112067 -0.163343 -0.0597037 74 148 152
0.112069 -0.164671 -0.0614857 63 130 137
0.112071 -0.166004 -0.0632738 60 122 127
0.111537 -0.167265 -0.0645128 61 110 113
0.111002 -0.168525 -0.0657518 62 87 88
0.111002 -0.169867 -0.0675505 61 61 56
0.112501 -0.149085 -0.0443301 61 59 48
0.112504 -0.150371 -0.0460622 61 62 51
0.114105 -0.151811 -0.0493657 56 62 61
0.114111 -0.153113 -0.0511209 57 89 94
0.113581 -0.154364 -0.0523509 73 135 135
0.11305 -0.155616 -0.0535809 77 153 155
0.112519 -0.156867 -0.0548111 71 149 157
0.111988 -0.158119 -0.0560414 77 155 159
0.111458 -0.159371 -0.0572717 81 160 163
0.110927 -0.160623 -0.0585022 76 152 158
0.110927 -0.161942 -0.0602763 64 133 138
0.110395 -0.163196 -0.0615089 59 123 128
0.110927 -0.164593 -0.0638427 58 113 117
0.110394 -0.165852 -0.0650797 60 91 93
0.110393 -0.167187 -0.0668742 61 64 62
0.111376 -0.147725 -0.0449193 63 55 52
0.111377 -0.149007 -0.0466497 56 60 58
0.110852 -0.150245 -0.0478674 53 80 88
0.112972 -0.151732 -0.0517051 72 129 130
0.112442 -0.152982 -0.0529332 77 151 153
0.111912 -0.154231 -0.0541614 77 153 155
0.110853 -0.155425 -0.054856 79 153 152
0.110324 -0.156672 -0.0560823 82 159 158
0.109794 -0.15792 -0.0573087 80 156 159
0.109793 -0.15923 -0.059075 65 134 144
0.109263 -0.16048 -0.0603036 58 125 129
0.10926 -0.161797 -0.062078 59 117 119
0.109257 -0.163118 -0.0638584 58 97 99
0.109254 -0.164444 -0.0656449 58 70 69
0.109735 -0.145058 -0.0432765 59 54 47
0.110255 -0.146369 -0.0455068 60 54 56
0.110254 -0.147646 -0.0472354 53 69 79
0.109208 -0.148839 -0.0479344 70 119 124
0.110252 -0.150214 -0.0507102 75 147 153
0.109726 -0.151455 -0.0519303 76 149 157
0.1092 -0.152696 -0.0531504 78 145 154
0.108673 -0.153938 -0.0543707 83 154 158
0.108147 -0.155179 -0.055591 81 157 158
0.10762 -0.156421 -0.0568114 68 139 146
0.107094 -0.157662 -0.0580319 59 126 131
0.107087 -0.158966 -0.0597907 60 121 122
0.108128 -0.160402 -0.0626453 61 103 102
0.108124 -0.161719 -0.0644238 60 77 75
0.109142 -0.142484 -0.0426561 59 56 45
0.108621 -0.143712 -0.0438639 57 53 51
0.108618 -0.144979 -0.0455813 50 65 71
0.108614 -0.14625 -0.0473044 59 106 110
0.108091 -0.147483 -0.0485164 75 146 150
0.107569 -0.148716 -0.0497285 74 148 158
0.107563 -0.149995 -0.0514617 72 144 158
0.107039 -0.15123 -0.0526759 78 149 160
0.107033 -0.152516 -0.054417 80 155 161
0.106508 -0.153754 -0.0556334 73 147 151
0.105983 -0.154991 -0.05685 60 125 130
0.105458 -0.156229 -0.0580666 58 122 123
0.105967 -0.157585 -0.0603581 60 106 110
0.105958 -0.158888 -0.0621211 63 78 80
0.106994 -0.160324 -0.0649875 62 58 54
0.108032 -0.141145 -0.0432435 57 57 46
0.108028 -0.142405 -0.0449572 54 61 64
0.107506 -0.143634 -0.0461652 54 97 100
0.107501 -0.144901 -0.0478866 71 144 142
0.106979 -0.146131 -0.0490968 72 148 157
0.105943 -0.14732 -0.0497896 72 148 158
0.105935 -0.148593 -0.0515173 76 152 160
0.105412 -0.149825 -0.0527277 80 157 162
0.105403 -0.151104 -0.0544632 76 151 152
0.10488 -0.152337 -0.0556758 63 127 134
0.104357 -0.153571 -0.0568884 57 122 123
0.104346 -0.154859 -0.058634 60 111 113
0.104335 -0.156151 -0.0603854 59 80 87
0.10484 -0.157507 -0.062685 59 57 59
0.107445 -0.138585 -0.0426252 56 55 46
0.107439 -0.139839 -0.0443351 49 61 58
