ply
format ascii 1.0
element vertex 1182
property float x
property float y
property float z
property uchar diffuse_red
property uchar diffuse_green
property uchar diffuse_blue
end_header
0.122261 -0.162802 -0.0706215 44 76 84
0.121912 -0.161537 -0.0709772 54 72 78
0.147401 -0.173406 -0.0484406 71 72 68
0.147022 -0.172034 -0.0488265 76 108 103
0.146277 -0.170765 -0.0494943 83 151 149
0.144805 -0.169706 -0.0507193 76 133 133
0.144428 -0.168341 -0.0511031 58 89 89
0.127277 -0.166366 -0.0647144 22 75 74
0.126921 -0.165079 -0.0650763 25 75 73
0.125297 -0.16421 -0.0664093 35 75 73
0.124314 -0.16314 -0.0672503 58 76 70
0.123026 -0.162181 -0.068325 67 67 59
0.146556 -0.173303 -0.0472288 76 85 88
0.145811 -0.172032 -0.0478987 84 141 146
0.145432 -0.170662 -0.0482841 77 156 169
0.145054 -0.169292 -0.0486694 58 109 124
0.126803 -0.166167 -0.0633315 23 76 74
0.126128 -0.164982 -0.0639402 30 74 73
0.125455 -0.1638 -0.0645472 56 72 70
0.124469 -0.162727 -0.0653962 66 68 64
0.145711 -0.173201 -0.0460167 82 117 109
0.144967 -0.17193 -0.0466883 84 162 157
0.144588 -0.170559 -0.0470736 67 136 144
0.130944 -0.167341 -0.0581726 19 77 76
0.126365 -0.167358 -0.0618314 21 75 74
0.126009 -0.16607 -0.0621937 26 74 75
0.125335 -0.164885 -0.0628038 38 76 74
0.12498 -0.163598 -0.0631657 62 76 68
0.144865 -0.173098 -0.0448045 78 136 137
0.144122 -0.171827 -0.0454777 71 149 156
0.129808 -0.167344 -0.0572744 18 78 76
0.126208 -0.16706 -0.0601913 20 76 77
0.125215 -0.165973 -0.0610557 32 77 84
0.145483 -0.172596 -0.0424258 75 140 137
0.131345 -0.167947 -0.0541743 17 77 75
0.129658 -0.167041 -0.0555967 19 76 74
0.12864 -0.165937 -0.0564864 31 78 79
0.146863 -0.173376 -0.0393316 70 87 86
0.135294 -0.167838 -0.0491103 21 77 76
0.130532 -0.167848 -0.0530091 23 75 74
0.129837 -0.166632 -0.0536454 23 75 73
0.152474 -0.174575 -0.0326942 70 76 66
0.148639 -0.174067 -0.0358882 73 93 86
0.148252 -0.172666 -0.0362819 69 97 92
0.135526 -0.168874 -0.0469899 20 76 77
0.133442 -0.168049 -0.0487544 21 76 74
0.13172 -0.16713 -0.0502242 23 74 71
0.131353 -0.1658 -0.0505979 35 74 71
0.153943 -0.175391 -0.0294432 71 78 71
0.153548 -0.173963 -0.0298447 80 120 106
0.151208 -0.173051 -0.0318388 74 126 133
0.135068 -0.170119 -0.0454228 24 77 77
0.133668 -0.169081 -0.0466413 22 76 75
0.132618 -0.167948 -0.0475734 22 75 72
0.13191 -0.166716 -0.0482253 28 74 71
0.153847 -0.175084 -0.0275308 76 103 101
0.153451 -0.173651 -0.0279334 86 155 150
0.134239 -0.170018 -0.0442337 22 75 77
0.132842 -0.16898 -0.0454569 20 75 73
0.131793 -0.167848 -0.0463922 21 76 72
0.131424 -0.166511 -0.0467679 36 78 79
0.13207 -0.164851 -0.0463075 59 75 84
0.153754 -0.176311 -0.0255329 70 80 84
0.152964 -0.174977 -0.0262638 86 143 138
0.152568 -0.173544 -0.0266665 78 158 160
0.133409 -0.169917 -0.0430444 22 77 74
0.132015 -0.168879 -0.0442723 20 76 71
0.131306 -0.167643 -0.0449303 22 77 76
0.130937 -0.166305 -0.0453064 41 97 101
0.130567 -0.164966 -0.0456826 69 122 124
0.13121 -0.163298 -0.0452173 78 116 111
0.153262 -0.176105 -0.0239328 74 98 102
0.15208 -0.174871 -0.0249967 87 162 161
0.151684 -0.173438 -0.0253993 64 133 148
0.132238 -0.169917 -0.042141 23 76 72
0.131189 -0.168779 -0.0430876 25 76 73
0.130818 -0.167438 -0.0434642 24 82 84
0.130111 -0.166204 -0.0441232 27 92 100
0.129741 -0.164865 -0.0444994 45 108 113
0.130043 -0.163307 -0.0443122 63 130 131
0.130009 -0.161852 -0.0444071 79 137 133
0.130653 -0.160165 -0.0439348 79 111 109
0.133978 -0.153024 -0.0414226 71 69 61
0.153164 -0.175798 -0.0219931 83 123 115
0.151197 -0.174764 -0.0237294 76 156 157
0.150801 -0.173331 -0.0241319 56 110 117
0.134876 -0.170252 -0.0379537 25 76 73
0.131409 -0.169816 -0.0409529 25 75 71
0.130699 -0.168575 -0.041617 35 82 80
0.129991 -0.167338 -0.0422792 51 102 103
0.129285 -0.166103 -0.0429398 52 112 113
0.128915 -0.164764 -0.043316 41 102 107
0.129215 -0.163205 -0.0431256 39 100 113
0.12918 -0.16175 -0.0432189 57 121 126
0.129482 -0.160177 -0.0430276 72 140 140
0.129447 -0.158712 -0.0431212 78 132 132
0.133191 -0.155917 -0.0400241 76 104 103
0.13316 -0.15442 -0.0401154 68 72 82
0.13278 -0.153046 -0.0405014 72 67 64
0.132401 -0.151672 -0.0408876 73 68 62
0.132369 -0.150167 -0.0409802 72 65 61
0.153862 -0.176836 -0.0192959 68 77 75
0.152275 -0.175691 -0.0207183 81 129 117
0.150702 -0.174556 -0.0221285 61 122 131
0.150305 -0.17312 -0.0225317 46 90 94
0.133001 -0.170456 -0.0376368 24 74 71
0.13058 -0.169715 -0.0397646 27 75 71
0.129872 -0.168474 -0.0404302 34 80 81
0.1295 -0.167132 -0.0408073 45 96 99
0.128794 -0.165896 -0.0414707 57 120 121
0.128423 -0.164555 -0.0418473 60 126 129
0.128387 -0.163104 -0.0419388 54 115 122
0.128351 -0.161649 -0.0420305 41 106 114
0.12865 -0.160075 -0.041836 44 111 122
0.128614 -0.15861 -0.041928 56 129 135
0.129254 -0.156903 -0.0414439 69 144 147
0.131965 -0.154441 -0.039197 79 131 131
0.131586 -0.153068 -0.0395826 78 101 95
0.131553 -0.151567 -0.0396733 68 66 82
0.13152 -0.150062 -0.0397642 68 63 61
0.131139 -0.148685 -0.0401509 70 61 56
0.131453 -0.147039 -0.0399469 72 66 57
0.154967 -0.177784 -0.0162287 73 69 65
0.153765 -0.176529 -0.0173285 74 88 84
0.15178 -0.175483 -0.0191037 72 106 102
0.150206 -0.174347 -0.0205229 53 93 98
0.14942 -0.173013 -0.021262 38 83 84
0.148636 -0.171684 -0.0219991 30 81 80
0.135318 -0.170903 -0.0336628 19 75 73
0.132165 -0.170354 -0.0364387 25 73 70
0.130089 -0.169513 -0.0382852 29 74 72
0.12938 -0.16827 -0.0389536 26 74 73
0.128672 -0.167031 -0.0396203 29 77 79
0.128301 -0.165688 -0.0399975 39 91 95
0.12793 -0.164345 -0.0403746 51 112 116
0.127559 -0.163003 -0.0407518 63 132 134
0.127856 -0.161435 -0.0405541 66 136 136
0.127819 -0.159973 -0.0406443 54 120 129
0.127781 -0.158508 -0.0407346 39 107 123
0.128418 -0.1568 -0.0402457 45 120 129
0.129742 -0.154832 -0.0391665 60 141 145
0.130739 -0.152964 -0.0383697 78 150 152
0.13036 -0.151591 -0.0387553 81 125 129
0.130325 -0.150088 -0.0388448 67 94 89
0.13029 -0.148581 -0.0389347 64 64 74
0.129909 -0.147204 -0.0393214 72 66 58
0.129874 -0.14569 -0.0394121 73 66 59
0.129493 -0.144311 -0.0397993 77 65 57
0.156085 -0.178743 -0.0131257 69 77 69
0.154873 -0.177478 -0.0142408 89 118 99
0.153667 -0.17622 -0.0153495 80 99 103
0.152072 -0.175071 -0.016797 67 91 91
0.149319 -0.17424 -0.0192512 52 84 83
0.148148 -0.17301 -0.0203284 37 80 80
0.146984 -0.171787 -0.0213996 31 80 78
0.140218 -0.170636 -0.0273996 22 76 75
0.134124 -0.170902 -0.0327554 21 75 71
0.132015 -0.170049 -0.0346442 31 76 70
0.129596 -0.169309 -0.0368017 29 75 70
0.128886 -0.168065 -0.037473 22 70 68
0.127844 -0.16693 -0.0384332 23 69 68
0.127473 -0.165587 -0.0388103 26 73 73
0.127102 -0.164244 -0.0391874 32 83 86
0.127063 -0.162791 -0.0392754 46 104 108
0.127025 -0.161333 -0.0393637 60 130 132
0.126987 -0.159871 -0.0394523 69 146 149
0.126948 -0.158406 -0.0395411 66 138 144
0.127245 -0.156817 -0.0393391 55 125 130
0.127207 -0.155341 -0.0394282 41 111 130
0.128523 -0.153363 -0.0383435 51 128 139
0.128827 -0.151743 -0.0381362 67 147 153
0.12879 -0.150244 -0.0382246 78 148 150
0.128753 -0.148741 -0.0383134 79 115 119
0.128716 -0.147233 -0.0384024 69 78 85
0.128336 -0.145858 -0.0387886 72 67 67
0.128299 -0.144345 -0.0388785 73 67 57
0.127918 -0.142967 -0.0392652 71 68 57
0.155182 -0.178635 -0.0118299 80 110 104
0.154374 -0.17727 -0.0125954 97 162 146
0.153168 -0.176011 -0.0137104 77 97 103
0.151969 -0.174758 -0.014819 67 89 88
0.14882 -0.17403 -0.0176388 53 83 84
0.14688 -0.173007 -0.0193973 38 79 80
0.141597 -0.172923 -0.0240889 29 78 77
0.141208 -0.171517 -0.0244837 25 75 75
0.135059 -0.171765 -0.0299322 22 73 73
0.13328 -0.1708 -0.0315456 28 73 70
0.13152 -0.169844 -0.0331415 36 72 69
0.129439 -0.169003 -0.0350175 31 69 67
0.128391 -0.16786 -0.0359881 25 67 67
0.127683 -0.166618 -0.0366605 25 69 68
0.126644 -0.165486 -0.0376229 24 70 68
0.126605 -0.164034 -0.0377088 24 72 71
0.126234 -0.162689 -0.0380864 29 79 80
0.125862 -0.161344 -0.0384641 40 94 97
0.125822 -0.159884 -0.0385513 55 117 122
0.125782 -0.15842 -0.0386388 64 140 146
0.125741 -0.156953 -0.0387265 71 153 157
0.126035 -0.15536 -0.0385224 65 144 148
0.125995 -0.153882 -0.0386104 50 127 133
0.126627 -0.152147 -0.038111 43 117 136
0.126925 -0.150528 -0.0379037 56 134 144
0.127225 -0.1489 -0.0376952 72 152 156
0.127527 -0.147263 -0.0374857 80 143 146
0.127147 -0.145889 -0.0378714 81 111 109
0.127108 -0.144378 -0.0379598 67 71 86
0.127068 -0.142862 -0.0380486 70 68 61
0.126687 -0.141484 -0.0384354 72 65 59
0.126307 -0.140107 -0.0388222 68 67 60
0.154278 -0.178526 -0.0105338 90 150 146
0.153472 -0.177162 -0.0113012 84 155 161
0.152268 -0.175902 -0.01242 77 92 91
0.151071 -0.17465 -0.0135322 69 90 85
0.150669 -0.173196 -0.0139406 54 81 82
0.146763 -0.172692 -0.0174519 36 78 79
0.139996 -0.173021 -0.0234948 25 77 77
0.136361 -0.172537 -0.0267629 22 73 74
0.13386 -0.171763 -0.0290258 23 72 70
0.132436 -0.170697 -0.0303355 43 72 67
0.131023 -0.169639 -0.0316346 55 68 63
0.128943 -0.168798 -0.0335232 54 64 62
0.127895 -0.167654 -0.0344991 43 65 64
0.127187 -0.16641 -0.0351744 32 68 66
0.12648 -0.16517 -0.0358478 27 69 67
0.125776 -0.163932 -0.0365196 26 71 67
0.125404 -0.162587 -0.0368972 24 73 70
0.125363 -0.161129 -0.0369823 27 76 76
0.124991 -0.159782 -0.0373605 34 84 85
0.124618 -0.158435 -0.0377388 44 100 104
0.124576 -0.156969 -0.0378252 55 124 129
0.124535 -0.155499 -0.0379118 66 151 153
0.124492 -0.154025 -0.0379988 71 156 161
0.12445 -0.152547 -0.0380859 62 140 148
0.125075 -0.15081 -0.0375851 46 123 132
0.125705 -0.149058 -0.0370803 46 122 135
0.126001 -0.147426 -0.0368696 58 140 149
0.125961 -0.14592 -0.0369564 78 155 158
0.12592 -0.144411 -0.0370435 86 141 142
0.125879 -0.142897 -0.0371309 80 109 100
0.125837 -0.141379 -0.0372185 67 63 83
0.125456 -0.140001 -0.0376053 69 65 61
0.125076 -0.138623 -0.0379921 67 66 61
0.124695 -0.137246 -0.038379 71 67 58
0.152974 -0.178516 -0.0095962 90 169 165
0.151771 -0.177252 -0.0107198 78 123 135
0.150576 -0.175996 -0.011837 78 89 85
0.150174 -0.174542 -0.0122453 68 88 82
0.13732 -0.17342 -0.0238713 22 75 75
0.134445 -0.172735 -0.0264852 20 73 72
0.132664 -0.171762 -0.0281216 33 71 68
0.131592 -0.170595 -0.0291252 56 69 64
0.130182 -0.169537 -0.0304292 69 63 61
0.125277 -0.163721 -0.035035 29 71 67
0.124904 -0.162375 -0.0354131 23 73 69
0.124532 -0.161027 -0.0357913 26 73 72
0.124159 -0.15968 -0.0361695 31 73 73
0.123787 -0.158333 -0.0365477 31 77 77
0.123744 -0.156867 -0.0366326 36 87 89
0.123371 -0.155518 -0.0370114 45 106 110
0.123327 -0.154046 -0.0370969 57 130 135
0.123283 -0.15257 -0.0371828 68 155 158
0.12324 -0.151089 -0.0372689 72 158 159
0.123859 -0.149346 -0.0367648 63 138 144
0.124484 -0.147588 -0.0362566 43 120 134
0.124441 -0.146086 -0.0363424 50 124 138
0.124398 -0.144581 -0.0364284 64 145 150
0.124692 -0.142932 -0.0362155 78 156 157
0.124312 -0.141558 -0.0366012 83 128 136
0.124606 -0.139895 -0.0363882 76 99 94
0.124225 -0.138518 -0.036775 68 64 80
0.123844 -0.13714 -0.0371619 69 65 61
0.123463 -0.135762 -0.0375488 70 65 61
0.123418 -0.134231 -0.0376372 74 64 60
0.151275 -0.178603 -0.00901955 83 154 156
0.150081 -0.177343 -0.0101416 81 95 102
0.149679 -0.175888 -0.0105498 78 86 81
0.134327 -0.173913 -0.0245604 21 73 72
0.132544 -0.172932 -0.0262095 24 72 68
0.131471 -0.17176 -0.0272196 48 68 67
0.130403 -0.170594 -0.0282243 64 64 62
0.124031 -0.160812 -0.0343036 28 71 70
0.123328 -0.159578 -0.0349783 28 72 71
0.122955 -0.158231 -0.0353565 27 72 70
0.122911 -0.156765 -0.0354398 27 74 72
0.122538 -0.155415 -0.0358185 28 79 79
0.122165 -0.154066 -0.0361973 32 91 94
0.12212 -0.152592 -0.0362819 45 111 116
0.122074 -0.151113 -0.0363666 60 135 141
0.122029 -0.149631 -0.0364516 70 156 161
0.122643 -0.147881 -0.0359443 69 152 157
0.12293 -0.146252 -0.0357314 57 134 141
0.122885 -0.144751 -0.0358164 43 119 133
0.123174 -0.143106 -0.0356023 52 128 138
0.123129 -0.141594 -0.0356875 68 145 152
0.123084 -0.140078 -0.0357729 81 152 154
0.122704 -0.138704 -0.0361587 84 124 128
0.122994 -0.137034 -0.0359446 68 87 89
0.122613 -0.135655 -0.0363314 70 62 72
0.122567 -0.134125 -0.0364182 70 63 60
0.122521 -0.13259 -0.0365052 71 67 59
0.122138 -0.131207 -0.0368932 74 62 58
0.148801 -0.178882 -0.00915941 79 120 125
0.146461 -0.177921 -0.0113293 83 86 82
0.146063 -0.176481 -0.0117335 72 82 80
0.135629 -0.174703 -0.0213405 22 75 73
0.133124 -0.173909 -0.023657 21 72 69
0.13135 -0.172928 -0.0253087 40 70 66
0.130625 -0.171657 -0.0260073 62 64 61
0.122452 -0.158012 -0.033868 30 72 68
0.122079 -0.156662 -0.0342467 26 72 69
0.121705 -0.155313 -0.0346255 25 74 71
0.121332 -0.153963 -0.0350043 23 75 74
0.120959 -0.152614 -0.0353831 28 81 81
0.120912 -0.151137 -0.0354666 38 93 98
0.120865 -0.149657 -0.0355502 50 115 123
0.120817 -0.148172 -0.0356342 60 141 147
0.121427 -0.146416 -0.0351235 70 159 164
0.121711 -0.144783 -0.0349085 67 150 155
0.121664 -0.143279 -0.0349923 56 132 138
0.121617 -0.141772 -0.0350764 44 116 136
0.121903 -0.140117 -0.0348601 53 132 141
0.121523 -0.138744 -0.0352454 69 149 156
0.121476 -0.137224 -0.0353303 83 149 148
0.121096 -0.135849 -0.0357161 85 120 116
0.121381 -0.134171 -0.0355008 65 79 87
0.121333 -0.132638 -0.0355864 66 66 65
0.120951 -0.131257 -0.0359739 73 63 57
0.120569 -0.129877 -0.0363614 78 66 58
0.147917 -0.180319 -0.00782612 85 119 111
0.145971 -0.179254 -0.00965045 81 93 96
0.144807 -0.178008 -0.0107563 78 83 80
0.14441 -0.176572 -0.0111593 63 78 77
0.133004 -0.175088 -0.021728 17 73 73
0.131576 -0.174002 -0.0230745 29 71 67
0.130503 -0.172826 -0.0240945 59 69 62
0.121573 -0.15644 -0.0327545 35 71 67
0.120872 -0.15521 -0.0334322 26 72 69
0.120499 -0.153861 -0.033811 23 73 71
0.120126 -0.152511 -0.0341898 24 75 72
0.119752 -0.151161 -0.0345687 26 75 75
0.119704 -0.149682 -0.0346511 29 81 84
0.119655 -0.1482 -0.0347337 39 96 104
0.119606 -0.146713 -0.0348166 53 121 128
0.120211 -0.144951 -0.0343026 66 149 152
0.120162 -0.143452 -0.0343854 74 159 164
0.120113 -0.141948 -0.0344685 68 145 153
0.120394 -0.140298 -0.0342511 51 129 135
0.120345 -0.138784 -0.0343343 45 118 137
0.119966 -0.137413 -0.0347191 55 136 143
0.119916 -0.135893 -0.0348031 72 153 156
0.119867 -0.134369 -0.0348875 80 139 143
0.119817 -0.13284 -0.034972 80 117 106
0.119767 -0.131307 -0.0350569 69 72 85
0.119386 -0.129928 -0.0354438 79 68 60
0.118675 -0.128709 -0.0361313 77 65 58
0.118294 -0.127332 -0.0365178 77 69 59
0.14548 -0.180587 -0.00797139 82 89 87
0.144318 -0.179338 -0.00908197 82 85 80
0.143541 -0.177998 -0.00983612 71 80 78
0.143144 -0.176564 -0.0102385 56 76 74
0.141994 -0.175331 -0.0113381 33 74 71
0.134652 -0.17579 -0.0181596 21 73 70
0.131803 -0.175082 -0.020828 21 72 70
0.130381 -0.173998 -0.0221764 46 68 66
0.119293 -0.152408 -0.0329964 26 73 71
0.118919 -0.151058 -0.0333752 24 72 71
0.118869 -0.149579 -0.033456 24 73 72
0.118819 -0.148096 -0.033537 28 76 77
0.118445 -0.146742 -0.0339169 33 84 87
0.118394 -0.145254 -0.0339987 42 101 106
0.118994 -0.143485 -0.0334815 56 125 133
0.118943 -0.141984 -0.0335631 68 152 156
0.118893 -0.140478 -0.0336451 73 159 163
0.118842 -0.138969 -0.0337273 67 142 149
0.118791 -0.137455 -0.0338098 45 126 134
0.11874 -0.135937 -0.0338925 46 123 139
0.118689 -0.134414 -0.0339754 58 138 147
0.118638 -0.132888 -0.0340587 75 157 158
0.118258 -0.131512 -0.0344445 83 141 141
0.118206 -0.12998 -0.0345285 81 110 96
0.117825 -0.128602 -0.034915 71 65 81
0.117444 -0.127225 -0.0353014 72 66 63
0.116736 -0.126011 -0.0359883 72 66 60
0.116355 -0.124636 -0.0363743 75 65 59
0.143829 -0.180667 -0.00740745 81 85 84
0.143052 -0.179326 -0.00816397 76 82 79
0.141902 -0.178085 -0.00926932 63 76 76
0.140385 -0.176948 -0.0107159 47 74 72
0.135967 -0.176601 -0.0148678 25 74 70
0.132031 -0.176168 -0.018569 20 71 69
0.130604 -0.175076 -0.0199302 35 70 68
0.118409 -0.150828 -0.0318813 30 71 70
0.118035 -0.149476 -0.0322607 24 72 71
0.117983 -0.147993 -0.0323401 25 73 71
0.117609 -0.146639 -0.03272 25 74 73
0.117234 -0.145285 -0.0330999 26 77 77
0.117182 -0.143794 -0.0331806 32 87 91
0.117777 -0.14202 -0.0326601 43 105 110
0.117725 -0.140516 -0.0327407 59 131 136
0.117672 -0.139008 -0.0328216 69 156 157
0.117295 -0.137643 -0.0332048 73 160 160
0.117242 -0.136129 -0.0332864 67 141 145
0.117189 -0.134611 -0.0333683 46 122 135
0.117135 -0.133088 -0.0334505 51 125 139
0.117082 -0.131562 -0.0335328 61 146 149
0.117028 -0.130031 -0.0336155 78 155 153
0.116648 -0.128655 -0.0340014 84 129 133
0.116267 -0.12728 -0.0343874 79 101 94
0.115887 -0.125904 -0.0347733 66 69 78
0.115506 -0.124529 -0.0351594 70 64 57
0.115126 -0.123153 -0.0355454 77 64 60
0.114745 -0.121777 -0.0359314 76 61 55
0.142187 -0.180746 -0.00684659 78 85 82
0.141415 -0.179409 -0.00760171 68 81 79
0.1399 -0.178266 -0.00905533 53 75 75
0.136935 -0.177518 -0.0118723 34 72 71
0.134742 -0.176593 -0.0139632 21 72 70
0.130828 -0.17616 -0.0176716 25 71 68
0.129408 -0.17507 -0.0190347 55 68 67
0.117522 -0.149244 -0.0307631 37 69 68
0.117147 -0.14789 -0.031143 26 73 70
0.117095 -0.146402 -0.031221 23 72 71
0.11672 -0.145046 -0.0316014 22 73 70
0.116344 -0.14369 -0.0319819 22 75 72
0.115969 -0.142334 -0.0323624 26 80 79
0.116559 -0.140553 -0.0318386 35 89 92
0.116505 -0.139047 -0.0319181 49 111 115
0.116451 -0.137537 -0.0319979 60 138 142
0.116074 -0.136172 -0.0323811 72 158 161
0.116019 -0.134656 -0.0324616 72 152 157
0.115964 -0.133135 -0.0325424 64 135 138
0.115909 -0.131611 -0.0326235 45 119 134
0.11553 -0.130239 -0.0330083 52 126 138
0.115474 -0.128708 -0.0330901 67 147 151
0.115094 -0.127334 -0.0334756 82 151 152
0.115037 -0.125797 -0.0335582 84 124 128
0.114657 -0.124422 -0.0339442 72 89 89
0.114276 -0.123046 -0.0343302 74 69 73
0.113895 -0.12167 -0.0347163 73 64 58
0.113837 -0.120123 -0.0348008 68 64 59
0.140554 -0.180825 -0.00628862 72 82 79
0.139415 -0.179585 -0.00739455 62 77 75
0.136818 -0.17873 -0.00988294 47 73 72
0.134982 -0.1777 -0.0116502 27 72 69
0.133166 -0.176681 -0.0133979 25 71 66
0.129629 -0.176153 -0.0167766 42 70 66
0.116579 -0.146165 -0.0297178 36 70 70
0.115882 -0.144942 -0.0304025 26 72 70
0.115507 -0.143586 -0.0307829 23 74 71
0.115773 -0.141951 -0.0305571 23 74 72
0.115718 -0.140449 -0.0306348 23 75 75
0.115663 -0.138943 -0.0307127 30 80 79
0.115286 -0.137579 -0.0310953 37 93 96
0.114909 -0.136215 -0.0314779 51 116 121
0.114852 -0.1347 -0.0315572 63 141 145
0.114796 -0.133182 -0.0316366 76 160 160
0.114739 -0.13166 -0.0317163 73 151 154
0.11436 -0.13029 -0.0321006 60 134 136
0.114303 -0.128761 -0.0321811 45 120 138
0.113923 -0.127389 -0.032566 55 134 144
0.113865 -0.125854 -0.0326473 72 151 156
0.113485 -0.12448 -0.0330328 81 147 152
0.113426 -0.122939 -0.0331148 86 121 118
0.113046 -0.121562 -0.0335009 70 84 86
0.112986 -0.120015 -0.0335838 66 65 68
0.112605 -0.118637 -0.0339704 68 61 56
0.112545 -0.117083 -0.0340541 70 68 55
0.112163 -0.115703 -0.0344413 65 64 56
0.13893 -0.180903 -0.00573359 65 78 78
0.136337 -0.180037 -0.0082359 54 73 73
0.135223 -0.178813 -0.00932407 37 70 70
0.133757 -0.17769 -0.0107483 24 72 66
0.131598 -0.176768 -0.0128354 32 71 64
0.11531 -0.143206 -0.0289732 30 72 69
0.115254 -0.141706 -0.0290487 25 73 71
0.114877 -0.140344 -0.0294307 20 73 71
0.1145 -0.138982 -0.0298128 24 73 70
0.114444 -0.137474 -0.0298896 28 74 73
0.114066 -0.136109 -0.0302722 29 82 84
0.114009 -0.134595 -0.0303498 37 97 100
0.113631 -0.133229 -0.0307331 55 119 126
0.113573 -0.131708 -0.0308114 66 147 150
0.113194 -0.13034 -0.0311952 73 159 163
0.113135 -0.128813 -0.0312743 67 146 155
0.112756 -0.127443 -0.0316587 54 132 136
0.112696 -0.12591 -0.0317386 46 120 138
0.112317 -0.124538 -0.0321236 56 135 146
0.112256 -0.122999 -0.0322043 74 153 158
0.112196 -0.121455 -0.0322853 83 141 145
0.111815 -0.120079 -0.0326713 83 116 108
0.111754 -0.118529 -0.0327531 66 68 84
0.111372 -0.117151 -0.0331398 66 66 62
0.110991 -0.115772 -0.0335264 65 64 60
0.110609 -0.114394 -0.0339131 70 66 64
0.136219 -0.181254 -0.00623835 55 74 75
0.134743 -0.180117 -0.0076814 40 73 72
0.133636 -0.178895 -0.00876809 27 72 69
0.132535 -0.177681 -0.00984874 30 70 66
0.114036 -0.140239 -0.0282265 28 72 68
0.113659 -0.138877 -0.0286086 22 72 69
0.113282 -0.137515 -0.0289907 23 73 70
0.113224 -0.136004 -0.0290664 22 74 72
0.112846 -0.13464 -0.029449 27 77 76
0.112787 -0.133123 -0.0295255 31 84 87
0.112409 -0.131757 -0.0299087 39 103 107
0.112349 -0.130234 -0.029986 56 126 134
0.11197 -0.128866 -0.0303698 66 152 156
0.11191 -0.127337 -0.0304479 73 160 163
0.11153 -0.125966 -0.0308322 68 143 152
0.111469 -0.124431 -0.0309111 51 129 138
0.111089 -0.123058 -0.031296 49 124 142
0.111027 -0.121517 -0.0313757 61 139 148
0.110647 -0.120142 -0.0317612 78 156 156
0.110584 -0.118595 -0.0318416 82 133 141
0.110203 -0.117218 -0.0322277 80 108 97
0.109822 -0.115841 -0.0326138 64 65 84
0.109441 -0.114465 -0.033 68 64 62
0.10906 -0.113088 -0.0333862 66 63 54
0.108679 -0.111711 -0.0337724 67 64 58
0.133157 -0.180196 -0.0071298 29 71 70
0.113136 -0.138628 -0.0270951 39 69 67
0.112441 -0.13741 -0.0277862 26 72 69
0.112064 -0.136047 -0.0281683 20 73 71
0.112003 -0.134535 -0.0282429 23 73 72
0.111943 -0.133018 -0.0283178 21 74 74
0.111565 -0.131651 -0.028701 23 78 77
0.111187 -0.130284 -0.0290842 29 87 90
0.111125 -0.128759 -0.0291604 38 105 112
0.110746 -0.127391 -0.0295442 57 131 138
0.110684 -0.12586 -0.0296212 69 156 160
0.110305 -0.124489 -0.0300056 73 157 163
0.110241 -0.122952 -0.0300833 68 139 147
0.109862 -0.121579 -0.0304683 47 125 136
0.109798 -0.120035 -0.0305468 52 129 143
0.109417 -0.11866 -0.0309323 64 144 152
0.109353 -0.117111 -0.0310116 78 152 152
0.108972 -0.115734 -0.0313978 80 127 139
0.108591 -0.114357 -0.0317839 76 104 92
0.108209 -0.11298 -0.0321701 66 64 77
0.107828 -0.111602 -0.0325563 68 63 57
0.107447 -0.110225 -0.0329425 66 63 58
0.10738 -0.108661 -0.0330248 65 61 57
0.111222 -0.135942 -0.0269636 34 71 68
0.110845 -0.134579 -0.0273457 23 72 70
0.111099 -0.132912 -0.0271098 18 74 72
0.110721 -0.131545 -0.0274931 19 75 71
0.110342 -0.130179 -0.0278763 19 75 71
0.11028 -0.128653 -0.0279508 23 78 79
0.109901 -0.127285 -0.0283346 30 89 94
0.109522 -0.125916 -0.0287185 41 112 119
0.109458 -0.124382 -0.0287943 63 135 144
0.109078 -0.123011 -0.0291787 75 158 161
0.109014 -0.121472 -0.0292553 73 153 158
0.108634 -0.120099 -0.0296403 65 137 144
0.108254 -0.118726 -0.0300253 46 126 138
0.108187 -0.117178 -0.0301033 52 131 144
0.107807 -0.115803 -0.0304889 65 148 155
0.10774 -0.114249 -0.0305676 79 154 153
0.107359 -0.112871 -0.0309538 86 121 130
0.106978 -0.111494 -0.03134 73 96 87
0.106596 -0.110117 -0.0317262 62 61 76
0.106528 -0.108553 -0.0318069 63 60 59
0.106459 -0.106984 -0.0318878 62 63 56
0.106076 -0.105602 -0.0322751 66 62 52
0.109876 -0.13144 -0.0262849 22 74 70
0.109813 -0.129916 -0.0263572 18 73 70
0.109434 -0.128547 -0.026741 17 74 72
0.109055 -0.127178 -0.0271248 20 74 74
0.108676 -0.125809 -0.0275086 23 80 81
0.108297 -0.12444 -0.0278924 35 92 97
0.108231 -0.122905 -0.0279672 52 117 123
0.107852 -0.121533 -0.0283516 66 142 146
0.107472 -0.120162 -0.0287361 75 160 161
0.107405 -0.118618 -0.0288122 71 152 159
0.107025 -0.117245 -0.0291972 63 137 141
0.106957 -0.115695 -0.029274 46 124 142
0.106577 -0.11432 -0.0296596 54 136 147
0.106196 -0.112944 -0.0300453 73 150 154
0.106127 -0.111386 -0.0301235 79 147 148
0.105745 -0.110008 -0.0305097 82 117 123
0.105364 -0.108631 -0.0308959 67 87 84
0.105294 -0.107064 -0.0309755 62 62 69
0.105223 -0.105493 -0.0310553 64 60 56
0.105152 -0.103918 -0.0311353 62 60 49
0.104769 -0.102535 -0.0315232 66 59 47
0.108967 -0.12981 -0.0251472 30 70 69
0.108588 -0.128441 -0.0255309 18 73 71
0.108209 -0.127072 -0.0259147 20 73 70
0.10783 -0.125703 -0.0262985 19 74 71
0.107451 -0.124334 -0.0266824 21 75 75
0.107072 -0.122964 -0.0270663 27 80 83
0.106693 -0.121595 -0.0274502 34 96 100
0.106625 -0.120055 -0.0275243 56 122 127
0.106246 -0.118684 -0.0279088 65 144 150
0.106177 -0.117138 -0.0279838 75 162 164
0.105797 -0.115764 -0.0283688 71 145 157
0.105416 -0.11439 -0.0287539 59 132 139
0.105346 -0.112836 -0.0288302 48 125 142
0.104965 -0.111461 -0.0292159 61 137 148
0.104894 -0.1099 -0.029293 76 153 155
0.104513 -0.108522 -0.0296792 85 145 145
0.104132 -0.107145 -0.0300654 82 112 111
0.104369 -0.105384 -0.0298352 65 76 83
0.104297 -0.103809 -0.0299136 61 62 59
0.103914 -0.102425 -0.0303015 66 58 48
0.103531 -0.101041 -0.0306894 65 65 56
0.107363 -0.126966 -0.0247045 30 71 68
0.106984 -0.125597 -0.0250883 21 73 69
0.106917 -0.124062 -0.0251592 18 74 72
0.106226 -0.122858 -0.025856 20 74 74
0.105847 -0.121488 -0.0262399 20 75 75
0.105778 -0.119948 -0.0263124 31 80 83
0.105398 -0.118576 -0.0266969 37 100 105
0.105018 -0.117205 -0.0270814 58 126 134
0.104948 -0.115657 -0.0271552 71 149 154
0.104568 -0.114283 -0.0275403 77 159 162
0.104187 -0.112909 -0.0279254 70 142 154
0.104115 -0.111353 -0.0280006 58 131 137
0.103734 -0.109977 -0.0283863 52 128 146
0.103662 -0.108414 -0.0284623 70 145 153
0.10328 -0.107036 -0.0288485 84 156 153
0.103207 -0.105467 -0.0289253 84 130 138
0.103133 -0.103894 -0.0290022 80 107 100
0.103059 -0.102316 -0.0290795 64 71 79
0.102676 -0.100932 -0.0294674 63 68 65
0.102293 -0.0995476 -0.0298554 63 56 54
0.10191 -0.0981634 -0.0302434 66 62 52
0.106449 -0.125327 -0.0235627 39 67 65
0.106069 -0.123956 -0.0239471 25 72 71
0.10569 -0.122584 -0.0243314 21 73 73
0.10531 -0.121213 -0.0247158 19 74 73
0.10493 -0.119841 -0.0251003 22 74 74
0.104551 -0.118469 -0.0254847 22 76 77
0.104171 -0.117097 -0.0258692 31 84 88
0.103791 -0.115726 -0.0262537 41 106 110
0.103411 -0.114353 -0.0266382 63 134 139
0.103338 -0.112801 -0.0267116 77 155 159
0.102958 -0.111427 -0.0270967 77 157 161
0.102884 -0.109868 -0.0271707 68 139 150
0.102503 -0.108492 -0.0275564 56 129 137
0.102429 -0.106927 -0.0276313 57 136 150
0.102047 -0.105549 -0.0280176 75 145 155
0.101972 -0.103978 -0.0280932 86 155 150
0.102204 -0.102206 -0.0278573 81 122 137
0.101821 -0.100822 -0.0282453 76 104 97
0.101437 -0.0994379 -0.0286332 62 65 77
0.101054 -0.0980536 -0.0290212 64 61 59
0.100671 -0.0966691 -0.0294092 68 67 57
0.0999828 -0.0954899 -0.0301064 65 65 57
0.104771 -0.120936 -0.0231875 26 72 71
0.104083 -0.119734 -0.0238879 24 73 74
0.103703 -0.118362 -0.0242723 17 75 74
0.103323 -0.11699 -0.0246568 16 75 74
0.102943 -0.115618 -0.0250413 20 77 76
0.102563 -0.114246 -0.0254258 33 86 88
0.102183 -0.112874 -0.0258104 46 113 117
0.102109 -0.111319 -0.0258826 68 138 146
0.101728 -0.109945 -0.0262677 79 159 160
0.101653 -0.108384 -0.0263407 75 155 159
0.101272 -0.107008 -0.0267264 66 137 148
0.101195 -0.10544 -0.0268002 55 128 137
0.100814 -0.104062 -0.0271865 59 137 152
0.100737 -0.102488 -0.027261 78 147 157
0.100965 -0.100713 -0.0270228 85 153 146
0.100582 -0.0993282 -0.0274108 80 113 128
0.100199 -0.0979437 -0.0277988 74 94 89
0.0998153 -0.0965592 -0.0281867 64 71 75
0.0991283 -0.09538 -0.0288856 66 63 61
0.0987454 -0.0939972 -0.0292731 68 65 58
0.0983626 -0.0926142 -0.0296607 67 65 55
0.103542 -0.119456 -0.0223582 36 67 69
0.103162 -0.118082 -0.0227431 22 71 72
0.102475 -0.116883 -0.0234442 16 75 74
0.102095 -0.115511 -0.0238287 14 75 71
0.101715 -0.114138 -0.0242132 18 72 72
0.101335 -0.112766 -0.0245978 25 75 80
0.100955 -0.111393 -0.0249823 37 87 96
0.100879 -0.109837 -0.0250534 49 117 124
0.100498 -0.108462 -0.0254386 71 144 151
0.100421 -0.106899 -0.0255105 79 163 162
0.10004 -0.105522 -0.0258962 72 151 156
0.0999617 -0.103953 -0.0259688 65 132 146
0.0995801 -0.102574 -0.0263551 54 129 140
0.0991983 -0.101196 -0.0267415 62 144 155
0.0991189 -0.0996179 -0.0268155 83 150 157
0.0987367 -0.0982371 -0.0272024 86 149 140
0.0986565 -0.096653 -0.0272772 79 111 122
0.0982736 -0.0952701 -0.0276646 77 87 87
0.0978907 -0.0938871 -0.0280521 67 69 70
0.0975077 -0.092504 -0.0284397 65 64 57
0.0971248 -0.0911208 -0.0288272 68 61 57
0.102312 -0.117974 -0.0215287 43 67 65
0.101932 -0.1166 -0.0219137 30 71 71
0.101551 -0.115226 -0.0222987 19 74 70
0.100867 -0.114031 -0.0230004 17 73 72
0.100487 -0.112658 -0.0233849 19 73 75
0.100107 -0.111286 -0.0237695 22 72 76
0.100029 -0.109729 -0.0238389 26 76 81
0.0993467 -0.10854 -0.0245387 37 90 98
0.0992679 -0.106979 -0.0246092 50 125 130
0.0988872 -0.105604 -0.0249944 74 149 157
0.0988077 -0.104037 -0.0250658 82 161 163
0.0987279 -0.102465 -0.0251373 67 145 154
0.0983461 -0.101086 -0.0255236 60 129 143
0.0979643 -0.0997075 -0.02591 55 130 142
0.0975824 -0.0983284 -0.0262963 66 146 156
0.0972005 -0.0969493 -0.0266827 88 153 155
0.0971183 -0.0953653 -0.0267567 86 141 137
0.0967359 -0.0939841 -0.0271437 77 107 117
0.0966528 -0.0923938 -0.0272185 71 85 82
0.0962698 -0.0910105 -0.027606 67 67 68
0.0958867 -0.0896271 -0.0279936 69 60 59
0.0955036 -0.0882435 -0.0283812 69 62 57
0.100702 -0.115119 -0.021084 39 67 63
0.100321 -0.113744 -0.021469 27 71 70
0.0999408 -0.11237 -0.0218541 21 74 74
0.0992584 -0.111178 -0.0225564 20 72 73
0.0991795 -0.10962 -0.0226242 18 72 72
0.0984981 -0.108432 -0.0233256 19 71 75
0.0984181 -0.106871 -0.0233945 26 78 85
0.0980373 -0.105496 -0.0237797 40 97 104
0.0976565 -0.104121 -0.0241649 57 131 139
0.0975752 -0.102551 -0.0242351 75 151 160
0.0974937 -0.100977 -0.0243055 81 161 162
0.0971118 -0.0995982 -0.0246919 68 141 152
0.0967298 -0.098219 -0.0250782 60 127 140
0.0963479 -0.0968397 -0.0254647 57 135 145
0.095966 -0.0954603 -0.0258511 70 152 160
0.095584 -0.0940808 -0.0262375 88 154 155
0.0954994 -0.0924927 -0.0263109 83 133 130
0.0951169 -0.0911111 -0.0266979 76 95 106
0.0950315 -0.0895166 -0.0267722 71 75 77
0.0946483 -0.088133 -0.0271598 67 63 63
0.0942652 -0.0867492 -0.0275474 67 62 55
0.093882 -0.0853654 -0.0279351 69 61 51
0.099091 -0.112262 -0.0206392 32 71 67
0.0987104 -0.110887 -0.0210242 25 72 71
0.0983296 -0.109512 -0.0214093 20 72 73
0.0979488 -0.108137 -0.0217944 16 73 75
0.097269 -0.106951 -0.0224969 17 72 74
0.0968887 -0.105578 -0.0228816 22 74 78
0.0965084 -0.104204 -0.0232663 33 79 88
0.0964256 -0.102637 -0.0233352 42 100 110
0.0963425 -0.101065 -0.0234043 60 140 144
0.0959611 -0.0996877 -0.0237901 85 156 163
0.0955796 -0.0983102 -0.0241759 86 160 159
0.0954952 -0.0967301 -0.0242463 66 141 149
0.0951131 -0.0953506 -0.0246327 56 125 136
0.0947311 -0.093971 -0.0250192 61 138 146
0.094349 -0.0925913 -0.0254057 72 150 160
0.0939669 -0.0912115 -0.0257921 89 151 151
0.09388 -0.0896191 -0.025865 80 125 123
0.0934973 -0.0882373 -0.0262521 71 90 97
0.0934097 -0.0866385 -0.0263257 68 70 67
0.0930264 -0.0852545 -0.0267134 69 64 55
0.0926431 -0.0838705 -0.0271011 67 61 55
0.0922598 -0.0824863 -0.0274888 66 63 58
0.0974796 -0.109404 -0.0201942 34 72 69
0.0970988 -0.108029 -0.0205793 22 75 72
0.0967179 -0.106654 -0.0209644 20 73 72
0.0963371 -0.105279 -0.0213496 21 72 75
0.0959562 -0.103903 -0.0217348 24 73 74
0.0955753 -0.102528 -0.02212 24 75 76
0.0951943 -0.101152 -0.0225052 31 84 90
0.0948133 -0.0997768 -0.0228905 45 106 114
0.0944323 -0.0984012 -0.0232758 66 144 149
0.0943464 -0.0968232 -0.0233449 89 165 165
0.0939648 -0.0954455 -0.0237308 85 159 158
0.0938781 -0.0938612 -0.0238007 63 133 145
0.0934959 -0.0924813 -0.0241871 54 121 135
0.0931138 -0.0911014 -0.0245736 58 139 148
0.0927315 -0.0897214 -0.0249601 78 158 163
0.0923493 -0.0883413 -0.0253466 91 154 150
0.0919671 -0.086961 -0.0257332 78 120 121
0.0918773 -0.0853625 -0.025806 67 86 90
0.0917873 -0.0837595 -0.0258791 66 68 69
0.0914039 -0.0823752 -0.0262668 68 62 61
0.0913132 -0.0807657 -0.0263407 70 62 54
0.0954867 -0.10517 -0.0201342 24 72 72
0.0951057 -0.103795 -0.0205194 23 75 74
0.0947247 -0.102419 -0.0209046 20 74 74
0.0943438 -0.101044 -0.0212898 18 75 76
0.0939627 -0.0996678 -0.0216751 25 77 80
0.0935816 -0.0982919 -0.0220604 41 84 90
0.0932006 -0.0969161 -0.0224457 51 112 120
0.0931129 -0.0953359 -0.0225137 70 150 155
0.0927312 -0.0939579 -0.0228996 88 164 167
0.0923495 -0.0925798 -0.0232855 81 156 154
0.0919678 -0.0912016 -0.0236714 58 127 139
0.091586 -0.0898234 -0.0240574 52 118 132
0.0914959 -0.0882309 -0.0241279 59 141 149
0.0911136 -0.0868506 -0.0245144 84 163 166
0.0907313 -0.0854701 -0.024901 95 156 149
0.0903489 -0.0840896 -0.0252876 80 111 116
0.0902568 -0.0824868 -0.0253599 70 74 87
0.0901645 -0.0808795 -0.0254324 71 62 66
0.0900719 -0.0792678 -0.0255051 70 63 60
0.089979 -0.0776515 -0.0255781 66 64 60
0.0942552 -0.103686 -0.0193038 31 72 70
0.0938742 -0.10231 -0.019689 27 74 74
0.0934931 -0.100935 -0.0200742 22 75 76
0.093112 -0.0995587 -0.0204595 26 74 74
0.0927308 -0.0981828 -0.0208448 30 73 75
0.0923497 -0.0968067 -0.0212301 31 77 81
0.0922608 -0.0952263 -0.0212964 42 87 96
0.091879 -0.0938482 -0.0216823 54 118 126
0.0914973 -0.0924699 -0.0220682 73 155 159
0.0911155 -0.0910916 -0.0224541 89 168 167
0.0907337 -0.0897132 -0.0228401 81 154 151
0.0903519 -0.0883347 -0.0232261 57 126 138
0.08997 -0.0869561 -0.0236121 51 117 133
0.0895881 -0.0855775 -0.0239982 66 146 152
0.0894951 -0.0839788 -0.0240686 87 162 167
0.0891126 -0.0825981 -0.0244552 98 151 145
0.0890188 -0.080993 -0.0245264 80 105 111
0.0889247 -0.0793835 -0.0245977 64 66 82
0.0891203 -0.0775397 -0.0243524 64 61 59
0.0890259 -0.0759186 -0.0244239 67 62 52
0.0886407 -0.0745279 -0.0248133 68 61 51
0.0930234 -0.102201 -0.0184732 51 66 67
0.0926422 -0.100826 -0.0188584 37 73 72
0.0925538 -0.0992507 -0.0189214 27 75 74
0.092172 -0.0978728 -0.0193072 26 74 76
0.0917903 -0.0964948 -0.019693 29 74 75
0.0914086 -0.0951166 -0.0200789 33 75 76
0.0910268 -0.0937384 -0.0204648 34 76 83
0.0906449 -0.0923601 -0.0208507 43 91 99
0.0902631 -0.0909816 -0.0212366 55 122 130
0.0895922 -0.0898151 -0.0219411 76 157 163
0.0892107 -0.0884383 -0.0223266 95 169 170
0.0891174 -0.0868458 -0.0223945 82 151 152
0.0887354 -0.085467 -0.0227806 56 119 137
0.0883534 -0.084088 -0.0231667 50 116 135
0.0882587 -0.0824872 -0.023236 64 145 152
0.0878761 -0.0811062 -0.0236226 84 158 164
0.0877805 -0.0794989 -0.0236926 93 140 138
0.0876846 -0.0778871 -0.0237629 77 101 104
0.0878767 -0.076039 -0.0235153 62 65 78
0.0877806 -0.0744157 -0.0235857 65 61 60
0.0873952 -0.0730247 -0.0239751 65 62 54
0.0870099 -0.0716337 -0.0243645 66 61 50
0.0913198 -0.0977634 -0.0180895 31 75 73
0.090938 -0.0963852 -0.0184753 27 77 76
0.0905562 -0.095007 -0.0188612 27 76 76
0.0901743 -0.0936286 -0.019247 30 74 77
0.0897924 -0.0922502 -0.0196329 31 76 79
0.0891221 -0.0910818 -0.0203396 33 80 85
0.0887407 -0.089705 -0.020725 45 93 102
0.0883592 -0.0883282 -0.0211105 62 128 135
0.0879777 -0.0869512 -0.0214959 78 160 166
0.0875962 -0.0855741 -0.0218814 89 164 167
0.0875005 -0.0839774 -0.0219489 77 146 147
0.0871184 -0.0825983 -0.0223349 55 121 135
0.0870219 -0.0809952 -0.0224031 52 119 137
0.0866393 -0.079614 -0.0227898 67 144 151
0.0862566 -0.0782327 -0.0231765 82 151 158
0.0867306 -0.076159 -0.0226089 88 129 132
0.0866329 -0.0745379 -0.022678 77 101 98
0.0865349 -0.0729123 -0.0227472 63 68 76
0.0861495 -0.0715211 -0.0231367 65 64 55
0.0857641 -0.0701299 -0.0235261 65 64 51
0.0850933 -0.0689807 -0.0242337 68 61 50
0.0899932 -0.094692 -0.0173184 31 76 75
0.0896108 -0.0933117 -0.0177048 28 78 75
0.0889398 -0.0921403 -0.018415 29 75 77
0.0885577 -0.0907616 -0.0188009 31 75 78
0.087889 -0.089595 -0.0195087 33 78 81
0.0875075 -0.088218 -0.0198941 35 86 92
0.087126 -0.0868409 -0.0202796 46 101 109
0.0867444 -0.0854637 -0.0206651 63 132 137
0.0863628 -0.0840864 -0.0210506 79 160 162
0.0859812 -0.0827091 -0.0214362 88 163 163
0.0858832 -0.0811081 -0.021503 74 144 147
0.085501 -0.0797287 -0.0218891 54 123 137
0.0851188 -0.0783491 -0.0222753 54 123 141
0.0850194 -0.0767398 -0.0223435 69 141 149
0.0852036 -0.0748932 -0.0220927 82 151 152
0.0851038 -0.0732724 -0.0221609 86 128 128
0.0852889 -0.0714086 -0.0219086 76 97 90
0.0849034 -0.0700172 -0.0222981 61 65 76
0.0842338 -0.0688681 -0.0230073 66 62 56
0.0838488 -0.0674784 -0.0233963 65 62 52
0.0834637 -0.0660886 -0.0237853 64 59 48
0.0887569 -0.0932017 -0.016485 39 72 70
0.0883743 -0.0918211 -0.0168714 32 74 73
0.0877049 -0.0906515 -0.0175827 28 75 76
0.0873228 -0.0892726 -0.0179687 27 77 78
0.0869407 -0.0878936 -0.0183546 29 78 81
0.0862741 -0.0867306 -0.019063 32 80 85
0.0858924 -0.0853533 -0.0194485 40 88 96
0.0855108 -0.0839759 -0.019834 54 108 117
0.0851291 -0.0825984 -0.0202196 68 137 142
0.0847474 -0.0812208 -0.0206051 80 159 162
0.0843657 -0.0798431 -0.0209907 84 157 161
0.0842654 -0.078238 -0.021057 69 140 145
0.083883 -0.0768582 -0.0214432 53 126 138
0.0837818 -0.0752466 -0.0215103 57 130 143
0.0836804 -0.0736306 -0.0215775 72 143 148
0.0835786 -0.07201 -0.021645 82 145 145
0.0834766 -0.070385 -0.0217127 83 116 125
0.0833742 -0.0687554 -0.0217806 74 91 86
0.0829891 -0.0673656 -0.0221696 61 62 73
0.0823229 -0.0662213 -0.022878 61 60 53
0.0819382 -0.0648332 -0.0232666 65 59 54
0.0812743 -0.0636937 -0.0239726 68 62 55
0.0871376 -0.0903302 -0.0160377 37 72 72
0.0867549 -0.0889494 -0.0164242 32 76 77
0.0860876 -0.0877833 -0.0171362 31 76 79
0.0857054 -0.0864041 -0.0175222 31 76 79
0.0850403 -0.0852429 -0.0182317 31 78 82
0.0846586 -0.0838654 -0.0186173 36 81 88
0.0842769 -0.0824877 -0.0190028 45 91 101
0.0838951 -0.08111 -0.0193883 58 113 122
0.0835133 -0.0797321 -0.0197739 73 140 146
0.0831315 -0.0783542 -0.0201596 79 158 160
0.0827496 -0.0769762 -0.0205452 77 150 157
0.082647 -0.0753669 -0.0206109 67 137 144
0.0825441 -0.073753 -0.0206769 54 128 139
0.082161 -0.072371 -0.0210637 62 135 148
0.0820573 -0.0707507 -0.0211303 75 143 149
0.0819531 -0.0691259 -0.0211973 80 140 139
0.081569 -0.0677398 -0.0215852 76 104 117
0.0811849 -0.0663536 -0.0219731 67 87 79
0.0808008 -0.0649672 -0.0223611 60 61 71
0.0804166 -0.0635808 -0.0227491 66 62 58
0.0797556 -0.0624444 -0.0234549 70 61 49
0.0855178 -0.0874579 -0.0155904 39 73 74
0.084852 -0.0862936 -0.0163035 33 76 77
0.0844697 -0.0849142 -0.0166895 31 77 80
0.0838062 -0.0837548 -0.0174003 31 76 82
0.0834244 -0.082377 -0.0177858 34 77 84
0.0830426 -0.0809992 -0.0181713 39 83 89
0.0826607 -0.0796212 -0.0185569 49 98 105
0.0822788 -0.0782432 -0.0189425 61 119 127
0.0818969 -0.076865 -0.0193281 74 142 148
0.081515 -0.0754867 -0.0197138 78 157 158
0.0814106 -0.0738752 -0.0197785 71 146 152
0.0813059 -0.0722591 -0.0198433 64 131 140
0.0809228 -0.0708768 -0.0202301 54 130 141
0.0805397 -0.0694944 -0.0206169 63 139 152
0.0801566 -0.068112 -0.0210037 78 144 148
0.0797735 -0.0667294 -0.0213906 77 137 129
0.0796662 -0.0651009 -0.0214578 72 95 111
0.0792826 -0.0637162 -0.0218453 70 79 73
0.0788988 -0.0623315 -0.0222328 63 64 65
0.078515 -0.0609466 -0.0226203 67 65 57
0.0781312 -0.0595617 -0.0230078 67 60 56
0.0777474 -0.0581766 -0.0233954 66 65 57
0.0836162 -0.0848036 -0.0154707 38 74 75
0.0832338 -0.0834239 -0.0158567 35 76 79
0.0825719 -0.0822663 -0.0165686 33 77 81
0.08219 -0.0808883 -0.0169541 34 79 80
0.0818081 -0.0795102 -0.0173397 35 79 82
0.0814261 -0.0781321 -0.0177253 40 84 90
0.0810441 -0.0767538 -0.0181109 46 102 108
0.0806621 -0.0753754 -0.0184965 60 129 133
0.0802801 -0.0739969 -0.0188822 74 145 150
0.0801739 -0.0723831 -0.0189457 77 153 155
0.0797913 -0.0710026 -0.019332 66 139 148
0.0794087 -0.0696219 -0.0197183 60 126 139
0.079026 -0.0682412 -0.0201046 54 131 140
0.0789179 -0.066617 -0.02017 66 148 154
0.0785347 -0.0652342 -0.0205568 84 147 145
0.0784257 -0.0636034 -0.020623 78 129 124
0.0780419 -0.0622186 -0.0210105 67 91 106
0.077932 -0.0605813 -0.0210773 66 80 74
0.0778218 -0.0589395 -0.0211445 64 67 69
0.0774369 -0.0575505 -0.0215331 67 63 60
0.0770519 -0.0561615 -0.0219217 66 62 56
0.0813372 -0.0807775 -0.0157367 33 78 79
0.0809552 -0.0793993 -0.0161222 31 79 79
0.0805732 -0.078021 -0.0165078 31 79 81
0.0801912 -0.0766426 -0.0168934 32 80 85
0.0798091 -0.0752641 -0.0172791 39 87 93
0.079427 -0.0738855 -0.0176647 48 105 112
0.0790449 -0.0725068 -0.0180504 61 134 140
0.078937 -0.0708907 -0.0181128 77 151 156
0.0782805 -0.0697491 -0.0188219 81 155 155
0.0778983 -0.0683701 -0.0192077 62 133 142
0.0777888 -0.0667481 -0.0192717 55 121 133
0.0776789 -0.0651217 -0.019336 55 133 142
0.0775686 -0.0634906 -0.0194005 69 152 161
0.0774581 -0.0618551 -0.0194651 86 153 153
0.0773472 -0.060215 -0.01953 80 132 124
0.0769623 -0.058826 -0.0199186 67 91 103
0.0771245 -0.056921 -0.0196603 69 71 73
0.0767384 -0.0555281 -0.02005 70 63 60
0.0763523 -0.054135 -0.0204398 69 60 59
0.0759661 -0.0527418 -0.0208295 67 61 55
0.0801023 -0.0792883 -0.0149046 35 76 77
0.0797202 -0.0779098 -0.0152901 33 78 79
0.0793381 -0.0765313 -0.0156757 30 78 82
0.0789559 -0.0751527 -0.0160614 31 79 84
0.0785738 -0.073774 -0.016447 34 81 85
0.0781916 -0.0723951 -0.0168327 42 87 96
0.077537 -0.071253 -0.0175425 48 109 117
0.0771553 -0.0698759 -0.0179277 64 144 150
0.0767736 -0.0684986 -0.018313 82 158 162
0.0766625 -0.0668789 -0.0183757 84 154 155
0.0765512 -0.0652547 -0.0184387 59 127 141
0.0764396 -0.0636259 -0.0185018 50 116 135
0.0763276 -0.0619927 -0.0185652 60 144 150
0.0764876 -0.0601016 -0.0183039 82 178 182
0.0763752 -0.0584567 -0.0183673 86 159 166
0.0762624 -0.0568071 -0.0184309 79 124 122
0.0758763 -0.055414 -0.0188206 67 82 90
0.0754901 -0.0540208 -0.0192103 62 60 70
0.0751038 -0.0526275 -0.0196 62 60 57
0.0744469 -0.0515001 -0.0203132 64 61 55
0.078867 -0.0777987 -0.0140723 42 74 73
0.0784848 -0.07642 -0.0144578 36 76 79
0.0781026 -0.0750413 -0.0148434 32 79 82
0.0777204 -0.0736624 -0.0152291 31 81 84
0.0773381 -0.0722835 -0.0156148 33 80 84
0.0766847 -0.0711414 -0.0163262 31 82 88
0.0763029 -0.0697641 -0.0167114 42 86 97
0.0759211 -0.0683868 -0.0170967 50 110 118
0.0755392 -0.0670093 -0.0174819 67 150 155
0.0754265 -0.0653873 -0.0175436 91 163 168
0.0753134 -0.0637608 -0.0176054 86 155 155
0.0751999 -0.0621299 -0.0176675 63 141 153
0.0753566 -0.0602416 -0.0174041 70 163 174
0.0752427 -0.058599 -0.0174662 79 175 185
0.0751285 -0.0569517 -0.0175284 78 170 180
0.0747428 -0.0555604 -0.0179176 74 144 154
0.0743571 -0.054169 -0.0183067 68 108 112
0.073702 -0.053041 -0.0190207 62 78 82
0.0730487 -0.0519161 -0.0197327 62 62 66
0.0731998 -0.0499941 -0.0194744 65 63 59
0.0730824 -0.0483322 -0.0195397 66 65 59
0.0776314 -0.0763087 -0.0132397 46 70 69
0.0772491 -0.0749299 -0.0136254 38 74 75
0.0768669 -0.0735509 -0.014011 33 79 83
0.0764846 -0.0721718 -0.0143966 33 80 83
0.0758322 -0.0710298 -0.0151097 28 81 83
0.0754503 -0.0696524 -0.0154949 31 79 85
0.0748002 -0.068515 -0.0162056 36 80 86
0.0744188 -0.0671393 -0.0165904 44 87 95
0.0743046 -0.0655196 -0.0166507 53 113 121
0.0747271 -0.0634005 -0.016059 71 156 161
0.0746127 -0.0617667 -0.016119 92 173 178
0.0747679 -0.0598748 -0.0158511 95 178 180
0.074653 -0.0582293 -0.0159111 94 179 185
0.0742673 -0.0568379 -0.0163002 99 185 190
0.0738815 -0.0554464 -0.0166893 103 182 185
0.0732271 -0.0543167 -0.0174054 93 165 169
0.0725744 -0.05319 -0.0181196 74 136 141
0.0721896 -0.0518021 -0.0185077 67 101 107
0.0718048 -0.050414 -0.0188959 65 78 80
0.0719524 -0.0484877 -0.0186354 64 62 66
0.0718332 -0.0468235 -0.0186995 67 63 55
0.0722499 -0.0446029 -0.0181101 68 61 54
0.0756308 -0.0720602 -0.0131783 36 78 76
0.0749795 -0.0709181 -0.013893 30 78 83
0.07433 -0.0697791 -0.0146058 33 78 84
0.0739485 -0.0684033 -0.0149905 33 77 83
0.0738337 -0.0667853 -0.0150487 33 79 81
0.0737185 -0.0651627 -0.015107 34 84 87
0.0738707 -0.0632878 -0.0148373 46 96 104
0.0740236 -0.0614025 -0.0145662 61 117 127
0.0739079 -0.0597613 -0.0146243 67 138 148
0.0737917 -0.0581155 -0.0146827 72 152 160
0.0734059 -0.056724 -0.0150718 84 167 171
0.0730201 -0.0553325 -0.0154609 100 177 181
0.0723667 -0.0542028 -0.0161786 108 181 185
0.0714496 -0.0533386 -0.0172208 101 176 178
0.0710653 -0.0519524 -0.0176084 89 155 158
0.0709454 -0.0502998 -0.0176708 75 126 131
0.0705605 -0.0489115 -0.018059 67 92 98
0.0709702 -0.0467086 -0.0174693 64 74 72
0.0708494 -0.0450395 -0.017532 64 61 65
0.0715307 -0.0425284 -0.0166067 69 62 54
0.0741267 -0.0708065 -0.0126761 45 76 74
0.0737447 -0.0694288 -0.0130613 35 77 79
0.0733627 -0.068051 -0.0134465 35 77 82
0.0732469 -0.0664302 -0.0135026 32 79 80
0.0731306 -0.0648049 -0.0135589 33 79 80
0.0730141 -0.063175 -0.0136154 34 78 84
0.0731646 -0.0612894 -0.0133409 34 88 97
0.0730476 -0.0596478 -0.0133974 41 107 115
0.0729302 -0.0580018 -0.013454 50 124 131
0.0725444 -0.0566102 -0.0138432 61 139 145
0.0718916 -0.0554787 -0.0145631 76 152 158
0.0712406 -0.0543503 -0.015281 92 165 169
0.0705914 -0.0532248 -0.0159971 104 177 178
0.070207 -0.0518385 -0.0163847 108 180 183
0.0698226 -0.0504521 -0.0167724 97 173 176
0.069701 -0.0487972 -0.0168337 84 149 150
0.070107 -0.0465937 -0.016239 68 117 121
0.069985 -0.0449243 -0.0162999 65 86 95
0.0706615 -0.0424125 -0.0153678 64 70 66
0.0716155 -0.0395868 -0.0140894 58 63 60
0.0725097 -0.0679391 -0.0122294 43 72 74
0.0726583 -0.0660742 -0.0119521 33 76 78
0.0725411 -0.0644461 -0.0120064 30 77 78
0.0721574 -0.0630623 -0.0123932 29 76 79
0.0720392 -0.0614276 -0.0124482 25 80 83
0.0719207 -0.0597884 -0.0125034 30 90 95
0.0715359 -0.0584006 -0.0128914 39 102 107
0.071151 -0.0570126 -0.0132794 46 114 120
0.0707661 -0.0556246 -0.0136674 53 126 133
0.0701175 -0.0544973 -0.0143857 64 139 144
0.0697331 -0.053111 -0.0147732 81 154 157
0.0693486 -0.0517245 -0.0151608 99 170 175
0.0692262 -0.0500714 -0.0152199 107 185 186
0.0693666 -0.0481438 -0.0149493 104 180 181
0.0695077 -0.0462055 -0.0146773 89 172 175
0.0699151 -0.0439789 -0.0140704 83 144 145
0.0703259 -0.0417338 -0.0134586 62 107 111
0.0710097 -0.0391831 -0.012503 48 72 76
0.0711576 -0.037187 -0.0122197 57 60 54
0.0716842 -0.0643334 -0.010784 38 72 73
0.0713004 -0.0629495 -0.0111709 29 75 76
0.0709166 -0.0615655 -0.0115578 24 78 79
0.0705328 -0.0601814 -0.0119447 27 82 86
0.0704123 -0.0585425 -0.0119991 32 89 93
0.0700279 -0.0571563 -0.0123865 37 97 102
0.0693811 -0.0560285 -0.0131055 41 106 113
0.0689972 -0.054644 -0.0134925 46 116 124
0.0688745 -0.0529972 -0.0135491 56 127 135
0.0687515 -0.0513458 -0.013606 69 143 150
0.0686281 -0.0496898 -0.013663 86 161 166
0.0687669 -0.0477583 -0.0133877 103 171 176
0.0694357 -0.0452654 -0.0124409 109 186 187
0.0698444 -0.0430256 -0.0118222 113 188 183
0.0705256 -0.040482 -0.0108575 90 165 169
0.0712143 -0.0379099 -0.009882 63 119 116
0.0713635 -0.035899 -0.0095898 64 77 71
0.072615 -0.0326782 -0.00789809 69 66 60
0.0704434 -0.0628367 -0.00994834 42 67 68
0.0700595 -0.0614525 -0.0103352 33 75 74
0.0696757 -0.0600683 -0.0107221 30 79 79
0.0692917 -0.058684 -0.011109 29 82 86
0.0689078 -0.0572996 -0.0114959 30 86 92
0.0685238 -0.055915 -0.0118829 35 91 98
0.0681398 -0.0545304 -0.0122699 38 99 106
0.0677557 -0.0531457 -0.0126569 41 107 116
0.0678916 -0.0512316 -0.01238 48 118 126
0.0680282 -0.049307 -0.0121016 58 129 139
0.0686919 -0.046826 -0.0111489 71 143 151
0.069097 -0.0445958 -0.0105258 86 168 170
0.0700414 -0.0417811 -0.00921187 115 181 182
0.0712712 -0.038637 -0.0075311 125 185 188
0.0719698 -0.0360327 -0.00652861 92 150 156
0.0721224 -0.0339993 -0.00622442 90 103 96
0.0722758 -0.0319542 -0.00591853 100 92 79
0.0688183 -0.0599552 -0.00949926 42 70 67
0.0684343 -0.0585708 -0.00988617 33 74 76
0.0680503 -0.0571862 -0.0102731 29 77 83
0.0676663 -0.0558016 -0.0106601 31 82 87
0.0672822 -0.0544168 -0.011047 30 88 93
0.0668981 -0.053032 -0.0114341 31 93 99
0.0672914 -0.0508516 -0.0108188 41 98 106
0.0674265 -0.0489232 -0.0105357 44 108 117
0.0686161 -0.0458861 -0.00889133 47 120 128
0.0695571 -0.0430804 -0.00756602 56 128 139
0.0707828 -0.0399472 -0.0058714 75 145 155
0.0717537 -0.0370559 -0.00450431 99 162 165
0.0719058 -0.0350224 -0.0041939 79 133 141
0.0717818 -0.0332791 -0.00423991 81 99 98
0.0716575 -0.0315307 -0.00428608 95 91 82
0.0712562 -0.030084 -0.00469041 98 93 82
0.0671927 -0.0570729 -0.00905007 37 68 71
0.0668086 -0.0556881 -0.00943701 32 73 78
0.0664245 -0.0543033 -0.00982398 26 80 83
0.0662981 -0.0526556 -0.00987559 26 84 87
0.0666895 -0.0504705 -0.00925313 31 87 94
0.0676081 -0.0477235 -0.007943 37 95 100
0.0693405 -0.0440993 -0.00557123 41 100 108
0.0705661 -0.0409703 -0.00385737 43 109 117
0.0715367 -0.0380821 -0.00247408 51 122 127
0.0716884 -0.0360487 -0.00215748 66 126 129
0.071564 -0.0343043 -0.00220062 62 98 103
0.0711627 -0.0328576 -0.00260488 68 78 78
0.0707614 -0.0314108 -0.00300914 81 78 71
0.0706353 -0.029657 -0.00305365 87 82 75
0.0702334 -0.028208 -0.00345856 88 83 75
0.0698315 -0.0267589 -0.00386351 87 84 75
0.0686254 -0.0224108 -0.00507849 84 79 77
0.0682233 -0.0209612 -0.00548354 98 99 79
0.0678212 -0.0195115 -0.00588864 81 75 71
0.0674191 -0.0180618 -0.00629376 55 55 46
