ply
format ascii 1.0
element vertex 1185
property float x
property float y
property float z
property uchar diffuse_red
property uchar diffuse_green
property uchar diffuse_blue
end_header
0.149069 -0.231291 -0.015154 83 132 137
0.148043 -0.232367 -0.0151518 82 132 139
0.14702 -0.233441 -0.0151495 80 132 141
0.144564 -0.233418 -0.013268 78 134 143
0.143556 -0.23448 -0.0132685 76 135 145
0.142269 -0.23532 -0.0128972 73 137 149
0.141268 -0.236375 -0.0128983 72 140 152
0.141385 -0.238317 -0.0143882 70 142 155
0.139826 -0.238923 -0.0136417 68 145 160
0.139382 -0.240423 -0.0143862 61 141 162
0.13811 -0.241244 -0.0140131 59 144 166
0.137117 -0.242288 -0.0140127 66 158 164
0.136398 -0.243559 -0.0143835 79 163 156
0.135679 -0.24483 -0.0147543 95 157 138
0.13496 -0.246101 -0.0151252 109 145 116
0.133972 -0.247138 -0.0151233 119 129 110
0.132988 -0.248172 -0.0151215 103 106 115
0.132006 -0.249203 -0.0151198 89 92 106
0.131027 -0.250231 -0.0151181 95 93 85
0.12927 -0.250544 -0.0140106 90 86 78
0.127789 -0.25109 -0.0132792 86 80 75
0.119599 -0.252818 -0.00830829 62 71 67
0.118199 -0.253339 -0.00762109 35 58 66
0.117043 -0.254088 -0.00728399 24 60 74
0.115431 -0.254369 -0.00626296 35 83 94
0.113837 -0.254647 -0.00525264 70 128 130
0.112932 -0.255615 -0.00526416 110 169 166
0.111805 -0.256349 -0.00493819 108 150 149
0.111128 -0.257545 -0.00528727 103 114 109
0.11023 -0.258506 -0.00529878 97 86 78
0.154021 -0.223759 -0.0156885 72 85 95
0.152981 -0.224854 -0.0156854 55 107 123
0.152244 -0.226156 -0.0160653 50 119 140
0.151508 -0.227458 -0.0164452 53 125 140
0.150472 -0.228546 -0.0164411 51 124 135
0.149737 -0.229846 -0.0168206 50 120 131
0.148705 -0.23093 -0.0168159 49 119 128
0.147384 -0.231792 -0.0164289 50 116 124
0.14607 -0.23265 -0.0160441 50 112 120
0.143906 -0.23285 -0.0145302 49 110 117
0.142615 -0.233697 -0.0141545 48 107 114
0.141051 -0.234321 -0.013409 46 102 108
0.140331 -0.235595 -0.0137807 43 101 106
0.140723 -0.237758 -0.0156504 43 99 105
0.139442 -0.23859 -0.0152722 40 96 104
0.138719 -0.239867 -0.0156451 37 93 100
0.137721 -0.240918 -0.0156424 40 90 96
0.136726 -0.241966 -0.0156399 44 86 91
0.136005 -0.24324 -0.0160117 51 83 91
0.135283 -0.244515 -0.0163837 54 87 102
0.134562 -0.24579 -0.0167556 56 104 126
0.133573 -0.24683 -0.0167516 62 132 155
0.132586 -0.247867 -0.0167476 71 158 162
0.131602 -0.248901 -0.0167436 101 148 145
0.13062 -0.249933 -0.0167397 132 141 123
0.129641 -0.250962 -0.0167358 110 110 118
0.128406 -0.251749 -0.0163596 98 96 99
0.126666 -0.252053 -0.015247 95 90 79
0.124695 -0.252117 -0.0137821 89 81 75
0.12275 -0.25218 -0.012337 86 85 73
0.119176 -0.252537 -0.00985603 68 72 70
0.118009 -0.253294 -0.00951077 38 58 66
0.116615 -0.253813 -0.00881885 19 52 64
0.115002 -0.254096 -0.00778714 18 61 71
0.113178 -0.254145 -0.00642495 33 85 93
0.112049 -0.254884 -0.00609507 64 129 130
0.110925 -0.25562 -0.00576696 90 151 147
0.110248 -0.256816 -0.00611609 98 127 121
0.10935 -0.257778 -0.0061266 97 97 91
0.153365 -0.223166 -0.0169771 76 77 71
0.152325 -0.224263 -0.0169722 57 76 74
0.151587 -0.225567 -0.0173527 44 76 76
0.15055 -0.22666 -0.0173473 44 77 75
0.149813 -0.227962 -0.0177273 44 77 75
0.149076 -0.229264 -0.0181074 48 76 73
0.148044 -0.23035 -0.0181011 49 74 73
0.147015 -0.231433 -0.0180947 49 74 72
0.145409 -0.232076 -0.017321 50 75 72
0.142963 -0.232064 -0.0154188 53 75 72
0.141955 -0.23313 -0.0154164 55 73 72
0.140114 -0.233541 -0.0142915 58 73 72
0.139393 -0.234815 -0.0146633 61 73 72
0.13833 -0.239536 -0.0172859 52 70 74
0.137055 -0.240364 -0.0169032 52 72 73
0.136332 -0.241642 -0.0172762 45 71 74
0.135609 -0.24292 -0.0176492 34 72 74
0.134345 -0.243736 -0.0172667 26 73 75
0.133624 -0.245011 -0.0176387 25 74 78
0.132903 -0.246285 -0.0180108 27 76 82
0.131915 -0.247325 -0.0180051 33 78 90
0.131195 -0.248598 -0.0183766 49 102 120
0.130211 -0.249633 -0.0183705 70 155 162
0.12923 -0.250665 -0.0183644 98 168 168
0.127992 -0.251455 -0.0179828 131 162 142
0.126762 -0.25224 -0.0176032 132 131 121
0.125031 -0.252542 -0.0164838 108 95 107
0.12307 -0.252603 -0.0150106 94 94 87
0.121381 -0.2529 -0.0139189 92 81 75
0.11875 -0.252255 -0.0114121 68 70 70
0.117581 -0.253015 -0.0110619 34 59 64
0.116419 -0.25377 -0.0107136 16 53 61
0.1148 -0.254055 -0.00966772 13 53 61
0.112518 -0.253642 -0.00760046 18 62 71
0.111165 -0.254153 -0.00692607 31 90 97
0.110265 -0.255121 -0.00693557 71 133 129
0.109366 -0.256087 -0.00694506 87 130 128
0.10847 -0.25705 -0.00695457 92 105 99
0.131964 -0.245506 -0.0188941 43 68 69
0.131243 -0.246781 -0.0192662 23 70 70
0.130258 -0.24782 -0.0192589 20 66 72
0.129537 -0.249093 -0.0196305 27 71 79
0.128555 -0.250128 -0.0196227 46 98 111
0.127576 -0.25116 -0.019615 76 152 152
0.126343 -0.251948 -0.01923 117 171 167
0.125117 -0.252732 -0.0188472 140 158 157
0.122896 -0.252554 -0.0169797 118 132 129
0.121445 -0.253089 -0.0162395 100 93 83
0.119764 -0.253383 -0.0151412 61 68 70
0.117151 -0.252734 -0.0126215 27 57 62
0.115752 -0.253259 -0.0119136 14 53 59
0.114135 -0.253546 -0.0108601 13 51 59
0.111631 -0.252908 -0.00843486 15 53 63
0.110504 -0.253651 -0.00809938 18 66 78
0.109382 -0.254391 -0.0077657 52 108 108
0.108485 -0.255358 -0.00777419 72 122 122
0.10759 -0.256322 -0.00778264 84 101 96
0.130304 -0.246002 -0.0201498 65 69 65
0.129582 -0.247277 -0.020522 51 63 66
0.128599 -0.248315 -0.020513 24 61 68
0.127879 -0.249589 -0.0208847 17 66 71
0.126899 -0.250623 -0.0208753 25 79 88
0.125922 -0.251654 -0.0208659 58 121 134
0.124694 -0.252442 -0.0204775 97 167 180
0.122719 -0.252504 -0.018965 117 174 180
0.121017 -0.252803 -0.0178429 104 124 108
0.119334 -0.2531 -0.0167331 53 65 70
0.117668 -0.253393 -0.0156351 23 55 60
0.115317 -0.252979 -0.0134735 13 52 58
0.113697 -0.253269 -0.012409 12 50 59
0.111642 -0.253092 -0.0106567 13 51 62
0.109841 -0.253148 -0.0092759 14 58 69
0.108719 -0.25389 -0.00893877 32 88 90
0.107604 -0.254628 -0.00860347 59 110 110
0.106926 -0.255825 -0.00895283 79 93 91
0.127922 -0.247773 -0.021778 66 67 66
0.126941 -0.248811 -0.0217674 39 65 63
0.12622 -0.250085 -0.0221392 21 60 67
0.125243 -0.251118 -0.0221281 21 66 77
0.123761 -0.251668 -0.0213555 39 83 96
0.122541 -0.252453 -0.0209669 59 99 117
0.120587 -0.252515 -0.0194553 48 93 110
0.118901 -0.252814 -0.0183337 22 56 63
0.117233 -0.25311 -0.0172243 13 50 55
0.115819 -0.253639 -0.0164903 10 51 54
0.113028 -0.252757 -0.0136101 10 52 56
0.111427 -0.253047 -0.0125492 11 53 59
0.109619 -0.253103 -0.0111506 11 59 63
0.108054 -0.253388 -0.0101151 15 73 78
0.107156 -0.254359 -0.0101206 55 100 100
0.106045 -0.255096 -0.0097823 77 88 86
0.126261 -0.248269 -0.0230344 72 73 64
0.125282 -0.249307 -0.0230221 56 64 62
0.124561 -0.25058 -0.023394 34 57 61
0.123332 -0.251373 -0.0229977 18 56 62
0.12211 -0.252161 -0.0226036 15 56 61
0.120153 -0.252226 -0.0210766 14 53 56
0.118465 -0.252527 -0.0199432 9 51 58
0.117035 -0.253063 -0.0191922 11 51 55
0.115379 -0.253357 -0.0180797 10 50 53
0.112816 -0.252709 -0.0155322 10 50 54
0.110756 -0.252536 -0.0137458 11 53 56
0.109619 -0.253289 -0.013393 12 59 59
0.108046 -0.253574 -0.0123403 15 69 72
0.106489 -0.253857 -0.0112986 57 90 91
0.105593 -0.254827 -0.0113027 77 87 81
0.124599 -0.248765 -0.0242911 75 74 66
0.123877 -0.250041 -0.0246636 61 67 62
0.122901 -0.251076 -0.0246491 37 54 60
0.121427 -0.251627 -0.0238651 17 46 58
0.119964 -0.252174 -0.0230876 10 49 55
0.118027 -0.252238 -0.0215617 10 51 56
0.116835 -0.253015 -0.0211764 10 49 53
0.114937 -0.253073 -0.0196779 11 50 52
0.112371 -0.252426 -0.0171065 12 49 53
0.110536 -0.252488 -0.015661 13 51 54
0.10917 -0.253011 -0.0149451 13 58 59
0.108037 -0.253763 -0.0145892 23 74 70
0.106691 -0.254278 -0.0138823 61 83 81
0.155384 -0.221768 -0.0313746 92 79 82
0.154304 -0.222905 -0.0313487 88 82 100
0.152916 -0.223824 -0.0309046 86 86 110
0.151845 -0.224953 -0.0308796 89 88 109
0.150163 -0.225646 -0.0300242 89 91 110
0.148799 -0.226549 -0.029588 89 99 112
0.147743 -0.227665 -0.0295652 93 103 108
0.146391 -0.228559 -0.0291321 94 106 108
0.145343 -0.229666 -0.0291101 95 111 110
0.143974 -0.234322 -0.0315093 90 116 118
0.142926 -0.235425 -0.0314839 88 116 118
0.142466 -0.236986 -0.0322871 85 116 120
0.142005 -0.238551 -0.0330927 82 116 124
0.14125 -0.239885 -0.0334822 79 116 129
0.140494 -0.241219 -0.0338718 75 113 132
0.14032 -0.243034 -0.0351017 76 117 133
0.139273 -0.244129 -0.0350712 86 109 118
0.138229 -0.245222 -0.0350407 99 114 97
0.136617 -0.245824 -0.034174 97 104 88
0.13474 -0.246178 -0.0329014 88 88 85
0.132335 -0.246047 -0.0308285 82 79 78
0.130509 -0.246395 -0.029593 82 76 69
0.123446 -0.249739 -0.0263266 74 76 67
0.122215 -0.250538 -0.0259206 50 68 64
0.121241 -0.251572 -0.0259045 23 55 59
0.119526 -0.251881 -0.0247305 11 48 54
0.117587 -0.251948 -0.0231892 10 52 52
0.116392 -0.252727 -0.0227985 9 49 54
0.114492 -0.252788 -0.0212849 8 51 57
0.111924 -0.252142 -0.0186895 9 50 58
0.110313 -0.252439 -0.0175917 11 52 61
0.108943 -0.252964 -0.0168653 20 61 66
0.107806 -0.253719 -0.0165029 41 78 72
0.106675 -0.25447 -0.0161425 69 80 70
0.154075 -0.220729 -0.0318897 76 102 105
0.152999 -0.221865 -0.0318632 62 127 147
0.152237 -0.223212 -0.0322565 57 138 169
0.150856 -0.224129 -0.0318104 61 149 171
0.149484 -0.22504 -0.0313671 62 157 172
0.147817 -0.225732 -0.0305122 61 159 173
0.146763 -0.226848 -0.0304881 62 160 174
0.144822 -0.227312 -0.0292328 61 155 172
0.144073 -0.228636 -0.0296194 60 153 169
0.143616 -0.230179 -0.0304164 62 150 166
0.142574 -0.231283 -0.0303927 60 147 166
0.1427 -0.23328 -0.0320175 59 145 162
0.141364 -0.234157 -0.0315782 57 144 159
0.141194 -0.23594 -0.0327943 56 144 156
0.140152 -0.23704 -0.0327672 54 144 153
0.140267 -0.239068 -0.0344071 53 141 151
0.139512 -0.240402 -0.0347968 54 136 149
0.139335 -0.242214 -0.0360295 66 143 142
0.138577 -0.243553 -0.0364203 85 130 127
0.137532 -0.244648 -0.0363879 97 136 122
0.136206 -0.245496 -0.0359343 95 136 128
0.134606 -0.246096 -0.035065 89 125 128
0.133019 -0.246691 -0.0342032 94 114 110
0.130901 -0.246797 -0.032528 97 100 92
0.129348 -0.247382 -0.0316869 85 81 85
0.128074 -0.248204 -0.031257 81 74 75
0.126545 -0.248779 -0.0304274 79 75 70
0.121526 -0.249997 -0.0271958 65 71 66
0.120053 -0.250554 -0.0263992 42 57 60
0.118347 -0.250868 -0.0252241 19 44 53
0.116659 -0.251179 -0.0240619 10 50 52
0.114515 -0.251014 -0.02216 13 50 52
0.112638 -0.251086 -0.020659 10 49 56
0.110786 -0.251157 -0.0191782 9 51 57
0.109409 -0.25169 -0.0184425 8 52 63
0.108042 -0.252219 -0.0177128 20 60 72
0.107129 -0.253208 -0.0177086 53 78 76
0.153396 -0.22011 -0.0332471 69 81 81
0.152319 -0.221249 -0.0332185 49 83 90
0.150936 -0.222173 -0.0327691 43 86 92
0.149562 -0.223092 -0.0323223 42 86 88
0.147591 -0.22358 -0.0310472 38 83 87
0.146836 -0.224914 -0.0314366 36 81 84
0.144597 -0.225176 -0.029764 39 81 84
0.14268 -0.225647 -0.0285201 38 79 79
0.141935 -0.226963 -0.0289046 36 75 77
0.140615 -0.227849 -0.0284786 37 77 77
0.141599 -0.230472 -0.0313108 38 77 78
0.141139 -0.232018 -0.0321104 39 75 77
0.140388 -0.233345 -0.0324977 39 74 77
0.139637 -0.234671 -0.0328851 40 74 76
0.139173 -0.236226 -0.0336882 40 75 76
0.139285 -0.238251 -0.0353322 41 75 77
0.139397 -0.240294 -0.0369906 43 74 77
0.138638 -0.241634 -0.0373821 43 72 80
0.137305 -0.242493 -0.0369242 46 73 88
0.136263 -0.243589 -0.0368912 41 94 109
0.134942 -0.244439 -0.0364368 47 118 127
0.133349 -0.245043 -0.0355667 63 128 134
0.132046 -0.245883 -0.0351194 85 137 134
0.129934 -0.245994 -0.0334377 94 138 136
0.128653 -0.246824 -0.0330011 95 125 128
0.12738 -0.247648 -0.0325669 101 107 100
0.126113 -0.248468 -0.0321352 84 80 92
0.124594 -0.249042 -0.0313031 86 79 75
0.12134 -0.249935 -0.0292637 74 74 68
0.119861 -0.250495 -0.0284552 51 60 60
0.118149 -0.25081 -0.0272639 23 45 52
0.116455 -0.251123 -0.0260857 12 50 54
0.114067 -0.250722 -0.0237806 14 51 53
0.112421 -0.25103 -0.022639 9 52 56
0.111022 -0.25157 -0.0218814 8 53 57
0.10918 -0.251637 -0.0203925 8 56 63
0.107809 -0.252168 -0.019652 26 69 73
0.106892 -0.253162 -0.0196453 64 85 80
0.152261 -0.221053 -0.0354305 68 75 72
0.150563 -0.22177 -0.0345477 71 74 72
0.149491 -0.222905 -0.0345175 73 72 72
0.146909 -0.222973 -0.0323879 69 73 74
0.145854 -0.224096 -0.0323611 72 74 73
0.143916 -0.224576 -0.0310933 73 75 72
0.141711 -0.224839 -0.0294329 76 75 71
0.140106 -0.22552 -0.0286012 67 72 72
0.13908 -0.226618 -0.0285805 70 75 76
0.140047 -0.229223 -0.0314054 78 72 73
0.140162 -0.231206 -0.03303 75 71 74
0.139411 -0.232532 -0.0334174 69 72 72
0.13866 -0.233858 -0.0338048 65 71 72
0.138482 -0.235641 -0.0350276 63 71 71
0.138302 -0.237434 -0.0362574 61 72 72
0.13841 -0.239473 -0.03792 55 74 72
0.137651 -0.240813 -0.0383115 45 74 70
0.13632 -0.241675 -0.037851 35 73 70
0.13528 -0.242772 -0.0378167 31 73 69
0.133961 -0.243624 -0.0373597 28 70 71
0.13265 -0.244472 -0.0369053 34 73 85
0.131072 -0.245074 -0.0360358 42 99 111
0.129508 -0.245671 -0.0351737 58 128 134
0.128224 -0.246504 -0.0347309 84 146 142
0.126948 -0.247332 -0.0342907 106 148 140
0.125679 -0.248155 -0.0338529 109 124 141
0.124418 -0.248974 -0.0334177 115 124 105
0.122905 -0.249546 -0.0325802 94 85 83
0.121152 -0.249871 -0.0313491 73 77 73
0.119668 -0.250434 -0.0305285 45 63 61
0.117949 -0.250751 -0.0293208 20 46 52
0.116007 -0.250826 -0.0277374 14 47 53
0.11338 -0.250192 -0.0250291 15 48 53
0.111968 -0.250739 -0.0242567 11 53 51
0.110797 -0.251516 -0.0238665 9 54 55
0.109405 -0.252053 -0.0231041 13 63 61
0.107799 -0.252352 -0.0219769 36 75 70
0.13326 -0.243049 -0.0387069 51 69 68
0.131673 -0.24366 -0.0378258 35 66 68
0.130372 -0.244506 -0.0373715 26 65 69
0.128808 -0.245106 -0.0365026 29 74 79
0.127525 -0.245942 -0.0360554 43 98 105
0.126249 -0.246773 -0.0356107 67 130 141
0.125243 -0.247841 -0.0355806 103 153 167
0.123979 -0.248663 -0.0351392 124 181 161
0.122722 -0.24948 -0.0347005 105 118 115
0.121216 -0.25005 -0.0338576 73 86 82
0.119221 -0.250131 -0.0322181 38 62 62
0.1175 -0.250451 -0.0309977 15 48 54
0.115555 -0.250529 -0.0293983 14 48 54
0.112691 -0.249661 -0.0262811 12 49 52
0.111512 -0.250445 -0.0258834 11 52 52
0.11034 -0.251225 -0.0254878 9 53 60
0.109174 -0.252001 -0.0250944 24 68 68
0.107788 -0.252537 -0.0243271 51 82 73
0.131246 -0.243326 -0.0395949 70 69 68
0.129669 -0.243935 -0.0387112 52 65 65
0.128376 -0.244779 -0.0382552 36 63 64
0.126823 -0.245378 -0.0373838 28 64 69
0.125547 -0.246211 -0.0369348 30 76 89
0.124541 -0.247282 -0.0369027 47 110 129
0.123277 -0.248107 -0.0364571 83 161 164
0.12202 -0.248927 -0.036014 85 128 128
0.12077 -0.249743 -0.0355735 56 83 84
0.119527 -0.250554 -0.0351355 26 56 60
0.116802 -0.249909 -0.0322842 13 47 54
0.115102 -0.250229 -0.0310686 12 48 54
0.113181 -0.250308 -0.0294755 10 49 53
0.111054 -0.25015 -0.0275191 10 50 56
0.10988 -0.250933 -0.0271181 9 54 65
0.108712 -0.251712 -0.0267192 35 72 75
0.127672 -0.24421 -0.0395945 75 72 62
0.126654 -0.245292 -0.0395584 57 64 62
0.125108 -0.245889 -0.0386814 32 58 62
0.123836 -0.246721 -0.0382288 20 63 70
0.122313 -0.247307 -0.0373639 38 79 89
0.121316 -0.248372 -0.0373314 44 81 99
0.120066 -0.249191 -0.0368866 28 65 74
0.118823 -0.250005 -0.0364443 16 51 57
0.116348 -0.249605 -0.0339767 11 46 52
0.114403 -0.249689 -0.0323502 9 48 52
0.112723 -0.250009 -0.0311393 8 50 53
0.111295 -0.250563 -0.0303323 8 49 56
0.109417 -0.250639 -0.0287574 9 61 67
0.108247 -0.251421 -0.0283531 40 76 78
0.156046 -0.221023 -0.0486267 109 112 86
0.154925 -0.222203 -0.048574 114 124 91
0.154787 -0.224047 -0.0499091 115 121 93
0.135502 -0.229279 -0.0370977 78 84 111
0.134471 -0.230386 -0.0370648 76 78 110
0.134 -0.231933 -0.0378731 76 75 102
0.134088 -0.233936 -0.0395333 75 75 93
0.134177 -0.235958 -0.041208 73 74 80
0.133419 -0.237296 -0.0415993 73 71 68
0.132661 -0.238635 -0.0419905 75 75 66
0.131902 -0.239974 -0.0423818 74 71 66
0.131144 -0.241313 -0.042773 77 76 70
0.130109 -0.242412 -0.0427319 85 73 67
0.128803 -0.243268 -0.0422603 85 75 66
0.127234 -0.243878 -0.041364 84 77 67
0.125946 -0.244723 -0.0408998 79 74 66
0.124401 -0.245323 -0.0400158 62 65 61
0.12313 -0.246159 -0.0395588 33 57 58
0.121608 -0.246748 -0.038687 17 53 62
0.120353 -0.247574 -0.0382371 40 63 72
0.119106 -0.248395 -0.0377898 25 55 64
0.117866 -0.249211 -0.037345 14 47 54
0.1154 -0.248819 -0.0348687 8 46 51
0.113703 -0.249146 -0.0336354 5 48 52
0.112024 -0.24947 -0.0324159 5 50 54
0.110832 -0.250265 -0.0319964 3 49 59
0.109647 -0.251055 -0.0315793 12 70 68
0.108008 -0.251365 -0.0303844 43 77 76
0.155205 -0.222224 -0.0514063 87 116 114
0.155066 -0.22408 -0.0527585 84 117 118
0.133494 -0.229573 -0.037984 66 154 163
0.133022 -0.23112 -0.0387937 80 159 155
0.133386 -0.233345 -0.040886 94 152 135
0.13319 -0.235138 -0.0421368 106 136 110
0.133276 -0.237173 -0.0438304 110 121 100
0.132514 -0.238518 -0.0442235 96 102 104
0.131473 -0.239626 -0.04418 76 75 98
0.130434 -0.240731 -0.0441367 74 76 76
0.129399 -0.241832 -0.0440935 85 86 74
0.128366 -0.242931 -0.0440505 84 78 71
0.126794 -0.243545 -0.0431439 82 78 67
0.125237 -0.244153 -0.0422452 80 82 67
0.123692 -0.244756 -0.0413543 74 79 66
0.122161 -0.245355 -0.040471 62 68 66
0.120642 -0.245948 -0.0395954 38 65 74
0.119391 -0.246776 -0.0391429 55 89 89
0.118146 -0.247599 -0.0386931 28 53 60
0.116909 -0.248418 -0.0382458 11 40 46
0.114452 -0.248033 -0.0357608 5 40 46
0.11276 -0.248365 -0.0345226 4 44 51
0.111322 -0.24893 -0.0336961 4 47 54
0.110366 -0.249965 -0.0336699 1 52 65
0.109178 -0.250759 -0.0332471 27 76 70
0.107997 -0.251548 -0.0328267 55 78 71
0.132518 -0.228761 -0.0389034 52 92 98
0.131767 -0.230086 -0.0392907 58 89 96
0.132402 -0.232527 -0.0418122 61 90 102
0.133046 -0.235004 -0.0443705 62 103 119
0.132566 -0.236582 -0.0452016 63 131 143
0.131803 -0.237928 -0.0455952 70 152 156
0.130761 -0.239039 -0.0455498 94 150 143
0.129722 -0.240146 -0.0455044 131 137 109
0.128411 -0.241012 -0.0450228 99 93 109
0.12738 -0.242112 -0.0449785 87 79 81
0.125813 -0.242729 -0.044068 86 79 70
0.124259 -0.243342 -0.0431653 83 79 70
0.122719 -0.243949 -0.0422705 79 79 70
0.120933 -0.244312 -0.0409614 70 81 74
0.119677 -0.245147 -0.0405039 52 84 84
0.118176 -0.245739 -0.0396318 36 77 85
0.116687 -0.246326 -0.0387673 17 41 47
0.115457 -0.247146 -0.0383211 10 32 34
0.113021 -0.246775 -0.0358424 8 37 39
0.111817 -0.247584 -0.0354099 7 43 47
0.110619 -0.248388 -0.03498 5 47 52
0.109662 -0.249426 -0.034952 4 55 69
0.108707 -0.25046 -0.0349242 44 80 76
0.107755 -0.251492 -0.0348965 68 80 69
0.132055 -0.23418 -0.0453037 29 77 79
0.131573 -0.235756 -0.0461362 30 82 85
0.13081 -0.237103 -0.04653 38 85 95
0.129769 -0.238215 -0.0464832 52 104 118
0.128457 -0.239088 -0.045998 71 152 159
0.127152 -0.239956 -0.0455157 97 176 167
0.126124 -0.241056 -0.0454708 141 165 124
0.124831 -0.241914 -0.0449921 119 109 107
0.123018 -0.242293 -0.0436561 87 76 89
0.120967 -0.242431 -0.0419115 72 79 76
0.119453 -0.243037 -0.0410298 60 85 85
0.118205 -0.243873 -0.0405734 44 80 84
0.116964 -0.244705 -0.0401196 15 49 59
0.115482 -0.245295 -0.0392542 9 37 40
0.113284 -0.245176 -0.0371695 7 35 36
0.111837 -0.245757 -0.0363273 7 39 42
0.110874 -0.246802 -0.0362974 6 42 48
0.109913 -0.247845 -0.0362677 6 46 54
0.108956 -0.248884 -0.0362379 10 60 71
0.108001 -0.249921 -0.0362083 54 84 81
0.12954 -0.236046 -0.0470234 37 68 71
0.128228 -0.236925 -0.0465368 23 74 75
0.126923 -0.237799 -0.0460529 25 81 85
0.125896 -0.238902 -0.0460073 49 108 116
0.124603 -0.239767 -0.0455271 84 168 156
0.123319 -0.240627 -0.0450498 132 167 165
0.121259 -0.240778 -0.0432902 133 142 133
0.119229 -0.240926 -0.0415557 98 122 108
0.117982 -0.241769 -0.0410978 66 107 106
0.116741 -0.242606 -0.0406426 33 73 80
0.11526 -0.243206 -0.0397751 9 42 58
0.113306 -0.243335 -0.0380945 8 42 46
0.112336 -0.244389 -0.038062 11 46 47
0.110892 -0.244974 -0.0372162 10 46 52
0.110167 -0.246255 -0.0375906 7 44 53
0.109206 -0.2473 -0.037559 8 48 55
0.108248 -0.248342 -0.0375276 22 70 69
0.107524 -0.249619 -0.037901 63 87 78
0.127239 -0.236103 -0.0474678 52 67 65
0.125937 -0.23698 -0.0469813 31 70 65
0.124911 -0.238084 -0.0469343 23 67 71
0.123621 -0.238952 -0.0464516 32 83 94
0.121554 -0.239115 -0.0446769 74 125 131
0.119006 -0.238816 -0.0420817 92 138 147
0.117758 -0.239664 -0.0416224 79 123 136
0.116518 -0.240508 -0.0411658 50 96 104
0.115285 -0.241346 -0.0407117 19 66 73
0.113815 -0.241949 -0.0398464 13 57 67
0.112116 -0.242317 -0.0385786 10 55 69
0.111149 -0.243372 -0.0385455 16 70 73
0.110184 -0.244423 -0.0385125 18 69 70
0.109222 -0.245472 -0.0384796 12 55 64
0.108496 -0.246753 -0.0388542 12 52 63
0.10777 -0.248034 -0.0392287 38 77 74
0.120579 -0.238305 -0.0455949 58 101 105
0.117535 -0.237559 -0.042147 81 124 130
0.116296 -0.238409 -0.0416889 71 109 120
0.115063 -0.239253 -0.0412334 42 77 88
0.113837 -0.240093 -0.0407804 21 75 76
0.112861 -0.241158 -0.0407441 25 80 82
0.111407 -0.24176 -0.0398823 46 96 93
0.110439 -0.242817 -0.0398474 60 102 98
0.10971 -0.244103 -0.0402235 50 87 86
0.108511 -0.244922 -0.0397779 24 60 68
0.108018 -0.24644 -0.0405639 21 56 66
0.10729 -0.247724 -0.0409395 53 81 78
0.112731 -0.206072 -0.0141009 85 84 90
0.112051 -0.207272 -0.014452 79 81 94
0.11137 -0.208473 -0.014803 75 77 93
0.11069 -0.209673 -0.0151542 78 79 91
0.110454 -0.211223 -0.0162116 76 76 83
0.117564 -0.235678 -0.0430937 87 138 130
0.116073 -0.236309 -0.0422121 84 141 135
0.114841 -0.23716 -0.0417552 63 108 112
0.113616 -0.238006 -0.0413008 52 84 94
0.11264 -0.239074 -0.0412637 55 94 101
0.111186 -0.239684 -0.0403998 53 100 110
0.110456 -0.240972 -0.0407764 69 115 120
0.109727 -0.24226 -0.0411531 65 109 111
0.109233 -0.24378 -0.0419443 39 80 83
0.108739 -0.245305 -0.0427376 18 61 67
0.108479 -0.247073 -0.0439523 27 67 71
0.107981 -0.248609 -0.0447519 67 89 80
0.112977 -0.204466 -0.0152872 78 126 139
0.111846 -0.205335 -0.0149344 67 121 144
0.111165 -0.206535 -0.0152855 67 124 147
0.110708 -0.207906 -0.0159895 72 132 146
0.110027 -0.209108 -0.0163411 85 137 139
0.109789 -0.210658 -0.0174032 92 129 123
0.118012 -0.224529 -0.036745 83 79 86
0.117037 -0.225608 -0.0367143 80 74 75
0.116309 -0.226891 -0.0370897 78 73 66
0.115582 -0.228175 -0.0374651 81 74 66
0.113642 -0.232242 -0.0390007 94 157 146
0.112672 -0.23331 -0.038967 79 130 131
0.111945 -0.234594 -0.0393425 75 107 118
0.111456 -0.236099 -0.0401288 77 106 120
0.111445 -0.238057 -0.0417458 68 117 128
0.110713 -0.239349 -0.0421235 75 142 135
0.109981 -0.24064 -0.0425012 76 132 130
0.109487 -0.242163 -0.0432965 59 97 100
0.109229 -0.243923 -0.0445145 31 60 73
0.108494 -0.245221 -0.0448939 24 58 65
0.108232 -0.246995 -0.0461199 45 74 72
0.107969 -0.24878 -0.0473528 76 77 77
0.111865 -0.203562 -0.0157695 55 111 127
0.111184 -0.204764 -0.0161211 48 116 129
0.110502 -0.205966 -0.0164727 51 118 126
0.109821 -0.207168 -0.0168243 62 127 126
0.10914 -0.20837 -0.017176 73 124 121
0.109121 -0.210092 -0.018598 83 119 116
0.113206 -0.215087 -0.0266962 89 124 118
0.116063 -0.219194 -0.0328738 90 131 133
0.115345 -0.220461 -0.0332445 85 133 143
0.115837 -0.222728 -0.0356123 97 130 133
0.115114 -0.224004 -0.0359857 116 121 109
0.11439 -0.225281 -0.036359 102 105 96
0.113667 -0.226557 -0.0367325 84 85 92
0.112944 -0.227834 -0.0371058 87 129 127
0.112459 -0.229321 -0.0378846 101 156 153
0.111735 -0.230599 -0.0382586 83 134 141
0.11101 -0.231878 -0.0386326 85 123 132
0.110522 -0.233373 -0.0394147 87 126 135
0.11027 -0.235092 -0.0406099 85 135 139
0.109778 -0.236598 -0.041398 88 142 136
0.10976 -0.238558 -0.0430203 87 147 138
0.109265 -0.240078 -0.0438164 64 107 113
0.109245 -0.242064 -0.0454582 38 80 82
0.108746 -0.243598 -0.0462623 18 53 65
0.108485 -0.245373 -0.0474956 31 60 66
0.11205 -0.21594 -0.0286856 48 97 109
0.112982 -0.21852 -0.03176 52 110 123
0.113692 -0.220952 -0.0344955 76 124 129
0.112974 -0.222219 -0.0348663 99 145 141
0.112255 -0.223487 -0.0352372 96 153 151
0.111773 -0.224957 -0.036008 92 128 138
0.11129 -0.226432 -0.036781 103 153 160
0.111041 -0.22812 -0.0379605 84 135 149
0.110318 -0.229395 -0.0383335 79 128 135
0.109596 -0.23067 -0.0387066 92 146 142
0.109342 -0.232374 -0.0398948 90 146 144
0.108851 -0.23387 -0.0406787 85 139 143
0.108829 -0.23581 -0.0422913 89 140 141
0.109044 -0.237993 -0.0443364 74 118 119
0.1095 -0.24043 -0.0468301 53 90 89
0.10924 -0.242198 -0.0480669 28 60 59
0.108978 -0.243977 -0.0493107 14 53 60
0.108475 -0.245526 -0.0501272 35 67 71
0.111132 -0.215176 -0.0295504 56 72 69
0.111353 -0.217177 -0.0314618 54 70 74
0.111342 -0.219006 -0.033001 53 82 91
0.110629 -0.220263 -0.0333688 59 113 121
0.110149 -0.221717 -0.0341308 86 152 156
0.109435 -0.222976 -0.0344992 101 165 167
0.109184 -0.224638 -0.0356612 89 148 157
0.109164 -0.226513 -0.0372306 70 125 136
0.108677 -0.227989 -0.0380044 94 152 142
0.108189 -0.229468 -0.0387803 94 153 146
0.107932 -0.231164 -0.0399655 87 145 148
0.107673 -0.232869 -0.0411573 82 140 146
0.10788 -0.235023 -0.0431847 74 127 130
0.109757 -0.238786 -0.0482099 58 96 95
0.110222 -0.241253 -0.0507564 34 66 73
0.109477 -0.242569 -0.0511414 20 47 53
0.109456 -0.244601 -0.0528432 16 59 60
0.108949 -0.246164 -0.053672 40 72 73
0.109967 -0.216032 -0.0315535 74 72 69
0.109719 -0.217661 -0.0326979 61 79 83
0.10901 -0.218913 -0.0330642 69 116 116
0.1083 -0.220165 -0.0334307 99 164 153
0.10759 -0.221418 -0.0337971 98 172 163
0.107335 -0.223066 -0.0349509 72 130 138
0.107078 -0.224723 -0.036111 85 137 140
0.107279 -0.226799 -0.0380798 93 152 152
0.10702 -0.22848 -0.0392582 91 154 152
0.10653 -0.229961 -0.0400359 88 152 151
0.106729 -0.232086 -0.0420458 78 134 137
0.109773 -0.236905 -0.0491658 58 102 105
0.110484 -0.239594 -0.0521614 37 75 77
0.110959 -0.242092 -0.0547623 21 48 57
0.110206 -0.243422 -0.0551512 13 46 55
0.109697 -0.244993 -0.0559881 29 68 65
0.108942 -0.246324 -0.0563777 55 76 69
0.108338 -0.216515 -0.0327864 82 111 110
0.107857 -0.217954 -0.0335426 101 157 147
0.107148 -0.219205 -0.0339085 108 178 163
0.106439 -0.220455 -0.0342746 84 146 146
0.105956 -0.221902 -0.0350338 78 130 139
0.105696 -0.223552 -0.036191 89 149 155
0.105209 -0.225009 -0.036956 98 153 156
0.105626 -0.227289 -0.0393303 100 161 156
0.105591 -0.229182 -0.0409196 87 143 142
0.109549 -0.234796 -0.0496919 68 109 113
0.111733 -0.238853 -0.0553548 47 78 82
0.110978 -0.240184 -0.0557443 23 57 60
0.110716 -0.24199 -0.0570341 16 45 48
0.109959 -0.243326 -0.0574248 12 48 60
0.109448 -0.244903 -0.0582687 39 74 71
0.10869 -0.246241 -0.0586601 64 79 68
0.107896 -0.214314 -0.0328989 83 104 107
0.107416 -0.215749 -0.0336542 109 150 148
0.106708 -0.216997 -0.0340197 119 170 166
0.106 -0.218247 -0.0343853 96 147 153
0.105292 -0.219496 -0.0347508 81 135 143
0.104807 -0.220939 -0.0355098 96 158 157
0.104321 -0.222387 -0.0362708 93 149 161
0.104057 -0.224038 -0.0374314 113 163 164
0.103791 -0.225699 -0.0385985 101 149 151
0.104652 -0.228402 -0.0418034 75 115 120
0.113509 -0.238568 -0.0595195 51 83 89
0.112745 -0.239914 -0.0599137 31 60 65
0.111231 -0.240546 -0.0589334 17 47 50
0.110471 -0.241887 -0.0593259 15 46 48
0.109711 -0.243229 -0.0597184 16 55 64
0.108951 -0.24457 -0.0601109 51 79 77
0.10723 -0.211938 -0.0326228 77 94 101
0.10675 -0.213365 -0.0333757 103 138 144
0.106044 -0.214611 -0.0337403 117 163 171
0.105562 -0.216043 -0.0344957 102 147 163
0.104854 -0.217291 -0.0348608 90 137 148
0.10437 -0.21873 -0.0356189 103 160 155
0.103661 -0.219979 -0.0359846 104 167 167
0.102953 -0.221228 -0.0363503 112 164 173
0.102245 -0.222478 -0.036716 105 156 166
0.102417 -0.224525 -0.0386722 80 122 130
0.113782 -0.241001 -0.0645808 19 51 55
0.110987 -0.240436 -0.0612438 15 46 51
0.110473 -0.242024 -0.0621009 14 47 52
0.109708 -0.243373 -0.0624957 28 67 66
0.108943 -0.244722 -0.0628906 61 79 75
0.106344 -0.209396 -0.0319623 73 90 93
0.106088 -0.210994 -0.0330987 93 137 139
0.105607 -0.212418 -0.0338513 108 169 175
0.104902 -0.213662 -0.0342154 98 157 170
0.104418 -0.215092 -0.0349706 91 139 152
0.103712 -0.216338 -0.0353353 108 152 157
0.103005 -0.217584 -0.0357 119 170 170
0.102519 -0.219021 -0.0364582 109 165 170
0.101811 -0.220269 -0.0368235 105 181 180
0.101322 -0.221712 -0.0375844 80 135 141
0.100614 -0.222962 -0.0379502 58 97 102
0.113545 -0.240891 -0.0669542 15 49 51
0.112003 -0.241529 -0.0659269 14 47 53
0.110977 -0.242648 -0.0658521 13 52 60
0.110205 -0.244009 -0.0662506 43 77 72
0.105464 -0.206875 -0.0313072 72 81 86
0.104985 -0.208284 -0.0320523 87 131 131
0.104727 -0.209875 -0.033186 110 178 170
0.104466 -0.211474 -0.0343257 96 169 168
0.103983 -0.212899 -0.03508 84 146 155
0.103278 -0.214143 -0.0354443 100 149 160
0.102572 -0.215387 -0.0358085 115 164 174
0.101867 -0.216631 -0.0361728 109 165 172
0.101161 -0.217876 -0.0365371 118 186 170
0.100455 -0.21912 -0.0369015 87 147 146
0.100182 -0.220752 -0.0380562 65 103 108
0.0996907 -0.222195 -0.0388188 47 79 84
0.113306 -0.240779 -0.0693492 15 47 50
0.111758 -0.241421 -0.0683066 13 48 52
0.110981 -0.24279 -0.0687075 12 60 66
0.110205 -0.24416 -0.0691084 50 82 81
0.103895 -0.205603 -0.0310172 80 120 122
0.103198 -0.206832 -0.031377 119 188 170
0.102501 -0.208061 -0.0317368 109 178 169
0.102237 -0.209642 -0.0328636 85 149 154
0.102407 -0.211592 -0.0347727 93 156 161
0.101922 -0.213013 -0.0355256 105 170 176
0.101435 -0.214439 -0.0362807 107 171 178
0.100731 -0.215681 -0.0366445 120 175 171
0.100026 -0.216924 -0.0370084 102 155 155
0.0993213 -0.218167 -0.0373723 71 107 113
0.0988306 -0.219602 -0.038131 63 89 85
0.0987678 -0.221429 -0.0396876 63 76 71
0.113324 -0.240912 -0.0722557 15 47 47
0.11151 -0.241312 -0.0707078 14 52 54
0.110476 -0.242442 -0.0706253 21 70 68
0.109697 -0.243815 -0.0710275 57 83 82
0.103032 -0.203117 -0.0303712 75 108 115
0.102554 -0.204509 -0.0311093 123 176 170
0.101859 -0.205735 -0.0314682 117 175 179
0.101164 -0.206961 -0.0318271 89 146 158
0.100682 -0.208361 -0.0325681 93 157 157
0.100413 -0.209941 -0.0336957 107 180 173
0.100573 -0.21189 -0.0356068 113 180 180
0.100086 -0.21331 -0.0363599 113 169 177
0.0995978 -0.214734 -0.0371151 105 159 168
0.098894 -0.215975 -0.0374786 73 114 123
0.0979774 -0.217029 -0.0374488 61 89 88
0.0976984 -0.218648 -0.0386004 71 81 72
0.102391 -0.200813 -0.0301072 74 99 111
0.101913 -0.202199 -0.030843 108 154 162
0.10122 -0.203421 -0.031201 111 171 189
0.100527 -0.204644 -0.031559 83 142 163
0.100046 -0.206037 -0.0322977 90 149 156
0.0993512 -0.207261 -0.0326563 115 177 171
0.0990794 -0.208835 -0.0337811 118 177 179
0.0988061 -0.210416 -0.0349121 111 175 182
0.0987439 -0.212187 -0.0364389 102 172 173
0.0984678 -0.213789 -0.0375846 75 126 132
0.0977648 -0.215029 -0.0379477 59 93 96
0.0970618 -0.216268 -0.0383108 68 74 77
0.10154 -0.198362 -0.0294693 80 95 97
0.101063 -0.199739 -0.0302013 97 148 151
0.100797 -0.201284 -0.0313136 109 191 194
0.100317 -0.20267 -0.032051 78 149 163
0.0996237 -0.203893 -0.0324091 79 142 154
0.0989302 -0.205116 -0.0327672 116 172 176
0.0982367 -0.206338 -0.0331253 112 168 183
0.0977524 -0.207734 -0.0338663 113 182 183
0.0974762 -0.209309 -0.0349944 108 181 170
0.0971985 -0.210892 -0.0361287 82 137 137
0.0971297 -0.212665 -0.0376605 63 96 102
0.0968491 -0.214268 -0.0388097 60 82 83
0.100907 -0.196086 -0.0292094 76 94 94
0.10043 -0.197456 -0.0299392 91 142 141
0.0999522 -0.19883 -0.0306709 111 197 181
0.0996839 -0.200371 -0.0317831 83 161 162
0.0992029 -0.201754 -0.0325202 72 137 150
0.0985103 -0.202975 -0.0328779 108 165 174
0.098027 -0.204364 -0.0336175 103 173 185
0.0973334 -0.205587 -0.0339757 114 179 179
0.0966398 -0.20681 -0.0343339 113 178 173
0.096361 -0.208381 -0.0354619 90 147 148
0.0958726 -0.209783 -0.036208 66 104 107
0.0955905 -0.211368 -0.0373457 62 85 82
0.0996486 -0.193365 -0.0278387 75 91 92
0.0991733 -0.194723 -0.0285619 86 132 133
0.098489 -0.195929 -0.0289153 114 186 171
0.0982189 -0.19745 -0.0300141 93 163 163
0.0985734 -0.19946 -0.0322515 70 135 149
0.0980915 -0.200841 -0.0329884 96 165 166
0.0973997 -0.20206 -0.0333456 110 191 186
0.0969156 -0.203446 -0.0340849 117 174 177
0.0962228 -0.204668 -0.0344427 114 169 178
0.0957363 -0.206059 -0.0351845 91 143 154
0.0952485 -0.207455 -0.0359283 68 109 113
0.0947593 -0.208854 -0.0366742 63 84 84
0.0988192 -0.190974 -0.0272181 75 84 88
0.0983447 -0.192324 -0.0279377 89 126 125
0.097663 -0.193526 -0.0282898 114 169 166
0.0969813 -0.194727 -0.0286418 102 162 171
0.0965036 -0.196084 -0.0293643 74 136 151
0.0970513 -0.198233 -0.0319624 87 159 159
0.0965692 -0.199606 -0.032696 127 201 183
0.0960858 -0.200984 -0.0334316 114 167 177
0.0956011 -0.202365 -0.0341691 114 180 185
0.0951149 -0.20375 -0.0349086 93 153 159
0.0946275 -0.205139 -0.0356501 69 113 118
0.0941388 -0.206531 -0.0363936 61 88 89
0.0982015 -0.188746 -0.0269677 75 82 79
0.0975225 -0.189943 -0.0273184 89 115 115
0.0970474 -0.191288 -0.0280363 110 160 162
0.0963675 -0.192487 -0.0283875 102 166 179
0.0956874 -0.193685 -0.0287387 76 139 155
0.0952092 -0.195037 -0.0294595 88 149 154
0.0951343 -0.196703 -0.030927 137 186 185
0.0948555 -0.198224 -0.0320298 108 161 180
0.0947786 -0.199913 -0.0335172 119 197 185
0.0940903 -0.201127 -0.0338727 97 170 164
0.093604 -0.202505 -0.034609 72 120 126
0.0933187 -0.204053 -0.0357304 65 90 92
0.097587 -0.18653 -0.0267187 74 75 72
0.0971133 -0.187867 -0.027434 82 104 108
0.0964351 -0.189062 -0.0277842 98 151 157
0.0959592 -0.190404 -0.0285019 96 172 179
0.09528 -0.191601 -0.0288527 74 149 160
0.0946008 -0.192798 -0.0292035 79 143 157
0.0939215 -0.193995 -0.0295544 118 172 181
0.0934415 -0.195346 -0.0302753 102 168 188
0.0933595 -0.197011 -0.0317442 119 187 176
0.0930763 -0.198531 -0.0328478 103 173 167
0.0927915 -0.200059 -0.0339572 74 127 132
0.0923047 -0.201431 -0.0346917 61 98 100
0.0967731 -0.184187 -0.0261082 71 73 72
0.0963001 -0.185515 -0.0268199 75 97 102
0.0958258 -0.186847 -0.0275335 94 154 153
0.0953504 -0.188183 -0.028249 98 181 175
0.0946729 -0.189377 -0.0285989 77 153 159
0.0941951 -0.190717 -0.0293168 74 141 154
0.0935167 -0.191913 -0.0296672 100 171 175
0.0930367 -0.193259 -0.0303875 105 186 188
0.0923573 -0.194456 -0.0307384 116 174 174
0.0920729 -0.195962 -0.0318336 109 172 178
0.0917869 -0.197475 -0.0329346 78 132 142
0.0913014 -0.198837 -0.0336639 61 103 104
0.0957652 -0.181728 -0.0251428 71 78 71
0.0952933 -0.183046 -0.0258497 67 91 98
0.0948202 -0.184368 -0.0265584 90 146 147
0.0943458 -0.185693 -0.0272689 100 176 172
0.0940689 -0.187164 -0.0283466 81 157 162
0.0935916 -0.188498 -0.0290622 72 144 150
0.0931129 -0.189836 -0.0297798 95 168 164
0.0924353 -0.19103 -0.0301298 118 192 183
0.0917576 -0.192225 -0.0304799 107 166 177
0.0912758 -0.193569 -0.0312003 111 178 186
0.0907928 -0.194918 -0.0319227 83 139 151
0.0903084 -0.196269 -0.0326469 64 104 108
0.0945702 -0.179164 -0.0238316 72 69 68
0.0942968 -0.180602 -0.0248894 67 83 90
0.0938248 -0.181914 -0.0255933 87 135 137
0.0931552 -0.183094 -0.0259392 101 168 171
0.092681 -0.184411 -0.0266454 84 154 165
0.0925973 -0.18601 -0.0280794 71 142 152
0.0921198 -0.187338 -0.028792 96 164 161
0.0916411 -0.188669 -0.0295065 122 184 178
0.091161 -0.190004 -0.0302229 106 169 179
0.0906797 -0.191342 -0.0309411 107 185 183
0.0900027 -0.192535 -0.0312908 85 152 158
0.0899076 -0.194181 -0.0327562 63 106 117
0.0933106 -0.178183 -0.0239389 67 79 83
0.0928396 -0.179485 -0.024638 87 122 124
0.0923674 -0.180791 -0.025339 102 164 168
0.0918941 -0.1821 -0.0260417 86 158 170
0.0914193 -0.183412 -0.0267462 71 139 155
0.0909434 -0.184728 -0.0274526 92 151 162
0.0904661 -0.186047 -0.0281608 116 169 179
0.0899876 -0.18737 -0.0288709 109 172 182
0.0897003 -0.18884 -0.0299487 113 185 178
0.0892188 -0.190171 -0.0306639 88 160 160
0.0889283 -0.191654 -0.0317506 65 114 122
0.0924441 -0.177461 -0.0247551 74 113 116
0.0917786 -0.178633 -0.0250989 97 164 166
0.0911131 -0.179806 -0.0254427 87 164 171
0.0906391 -0.18111 -0.0261438 69 142 155
0.090164 -0.182418 -0.0268467 83 146 160
0.0894966 -0.183594 -0.0271915 104 167 178
0.0890193 -0.184907 -0.0278967 108 176 182
0.0887308 -0.186362 -0.0289665 114 176 174
0.0882505 -0.187684 -0.0296768 102 163 166
0.0881494 -0.189296 -0.0311228 73 123 127
0.091664 -0.175193 -0.0241633 71 102 110
0.0911927 -0.176486 -0.0248601 94 164 162
0.0907201 -0.177783 -0.0255587 89 169 170
0.0902462 -0.179083 -0.026259 69 144 154
0.0895806 -0.180256 -0.026603 75 145 155
0.0889149 -0.181429 -0.0269468 97 171 173
0.0884379 -0.182736 -0.02765 109 178 180
0.0879598 -0.184046 -0.028355 110 170 176
0.0874804 -0.185359 -0.0290618 103 166 170
0.0871879 -0.186816 -0.0301347 79 130 137
0.0867055 -0.188139 -0.0308465 63 99 99
0.0906997 -0.172822 -0.0232251 67 90 103
0.0902294 -0.174106 -0.0239172 92 153 153
0.0899476 -0.175517 -0.0249646 92 172 169
0.0894745 -0.176809 -0.0256616 73 146 153
0.0890001 -0.178105 -0.0263604 72 145 149
0.0883361 -0.179275 -0.0267036 99 173 167
0.0878596 -0.180575 -0.0274046 111 178 177
0.0873819 -0.181879 -0.0281075 109 172 180
0.086716 -0.183053 -0.0284515 103 171 175
0.0862361 -0.184362 -0.0291567 80 137 143
0.0859411 -0.185812 -0.0302271 63 101 106
0.0899331 -0.170591 -0.0226444 68 82 93
0.0892759 -0.171749 -0.0229839 95 146 145
0.0889929 -0.173147 -0.0240237 97 170 171
0.088521 -0.17443 -0.024716 75 148 156
0.088235 -0.17584 -0.0257643 69 141 147
0.0877602 -0.177131 -0.0264615 99 162 162
0.0872842 -0.178426 -0.0271605 110 170 175
0.0868069 -0.179724 -0.0278614 109 176 180
0.0861427 -0.180894 -0.0282045 104 176 177
0.0856632 -0.182197 -0.0289077 81 145 152
0.0851825 -0.183503 -0.0296125 64 106 114
0.0891722 -0.168377 -0.022068 66 82 85
0.0885175 -0.16953 -0.0224063 84 130 129
0.0880479 -0.1708 -0.0230923 99 168 173
0.0875771 -0.172074 -0.02378 76 149 163
0.0871051 -0.173351 -0.0244695 66 136 150
0.0868165 -0.174753 -0.0255132 92 155 161
0.0863417 -0.176038 -0.0262075 103 165 175
0.0860499 -0.177453 -0.0272596 106 174 178
0.0855722 -0.178746 -0.0279588 104 176 174
0.0849096 -0.179913 -0.0283012 87 152 156
0.0844297 -0.181212 -0.0290027 66 115 120
0.0884171 -0.166179 -0.0214961 71 80 83
0.0877647 -0.167328 -0.0218331 80 120 121
0.087296 -0.168591 -0.0225159 96 167 167
0.0866427 -0.169742 -0.0228534 79 155 164
0.0861718 -0.171009 -0.0235383 63 134 150
0.0856997 -0.17228 -0.0242249 82 148 159
0.0852264 -0.173554 -0.0249133 97 167 175
0.0847519 -0.174831 -0.0256034 103 171 176
0.0842761 -0.176111 -0.0262954 103 172 174
0.0841616 -0.177647 -0.0276994 90 156 159
0.0840462 -0.179194 -0.0291142 69 122 124
0.0835652 -0.180492 -0.0298167 60 94 92
0.0878513 -0.164105 -0.0212712 67 78 78
0.0873837 -0.165361 -0.0219515 76 112 117
0.0867321 -0.166508 -0.0222882 98 167 168
0.0862625 -0.167768 -0.0229707 83 161 166
0.08561 -0.168918 -0.0233079 63 136 148
0.0851384 -0.170183 -0.0239926 75 146 154
0.0846654 -0.171451 -0.024679 97 172 173
0.0841914 -0.172722 -0.0253671 104 167 175
0.083716 -0.173997 -0.026057 108 171 177
0.0834193 -0.175397 -0.0271023 95 159 165
0.0833015 -0.17693 -0.0285094 73 126 132
0.0830019 -0.178347 -0.0295675 61 96 98
0.086639 -0.163185 -0.021383 69 102 110
0.086171 -0.164436 -0.0220618 97 166 160
0.0857019 -0.16569 -0.0227424 91 168 169
0.0850509 -0.166837 -0.0230787 66 137 149
0.0845797 -0.168096 -0.0237614 70 142 150
0.0841072 -0.169358 -0.0244458 101 172 168
0.0834545 -0.170508 -0.0247831 104 169 174
0.08298 -0.171775 -0.0254697 106 171 180
0.0825042 -0.173045 -0.0261581 97 162 171
0.0822052 -0.17444 -0.027201 77 133 141
0.0819046 -0.175842 -0.0282492 61 100 106
0.0857196 -0.160922 -0.0204787 70 96 103
0.0854325 -0.162269 -0.0214944 92 154 149
0.0849642 -0.163516 -0.0221717 94 171 169
0.0844946 -0.164766 -0.0228507 69 141 151
0.0840239 -0.166019 -0.0235315 68 137 147
0.0833736 -0.167164 -0.0238675 98 164 166
0.0829007 -0.168422 -0.0245504 103 166 173
0.0824266 -0.169684 -0.025235 108 175 177
0.0819513 -0.170948 -0.0259214 99 170 172
0.0812984 -0.172098 -0.0262588 77 139 145
0.080997 -0.173487 -0.0272994 62 109 112
0.0848092 -0.158681 -0.0195833 72 90 96
0.0843436 -0.159914 -0.0202532 89 142 140
0.0838768 -0.161151 -0.0209249 96 171 170
0.0835858 -0.162495 -0.0219392 71 144 155
0.0831161 -0.163739 -0.0226155 63 133 145
0.0826453 -0.164987 -0.0232935 93 156 163
0.0821733 -0.166237 -0.0239732 98 164 175
0.0817 -0.167491 -0.0246546 105 173 174
0.0812255 -0.168748 -0.0253377 102 172 171
0.0809251 -0.170124 -0.0263721 82 146 148
0.0804478 -0.171389 -0.02706 64 114 115
0.083619 -0.157785 -0.0196981 84 132 130
0.0829776 -0.158914 -0.0200296 96 167 167
0.0825107 -0.160145 -0.0206986 75 152 158
0.0820427 -0.161379 -0.0213692 59 129 143
0.0815734 -0.162616 -0.0220414 82 150 156
0.0811029 -0.163856 -0.0227154 93 166 174
0.0809788 -0.165315 -0.0240785 100 167 171
0.0805051 -0.166565 -0.0247584 102 172 172
0.080204 -0.16793 -0.0257875 85 149 153
0.0797275 -0.169187 -0.0264722 66 117 121
0.0830745 -0.155766 -0.0194818 78 122 124
0.0824345 -0.156893 -0.0198125 92 165 164
0.0817946 -0.158019 -0.0201433 80 156 162
0.0813273 -0.159246 -0.0208108 62 133 143
0.0806865 -0.160374 -0.021142 77 147 151
0.0802172 -0.161605 -0.0218116 95 172 167
0.0799184 -0.162944 -0.0228233 95 164 170
0.0796179 -0.16429 -0.02384 103 170 174
0.0794881 -0.165751 -0.0252074 88 154 159
0.0790125 -0.167002 -0.0258887 68 120 127
0.0823589 -0.153664 -0.018933 76 115 119
0.0818941 -0.154881 -0.0195966 89 161 161
0.0814281 -0.1561 -0.0202618 81 159 165
0.0807889 -0.157226 -0.0205922 62 136 146
0.0803208 -0.15845 -0.0212594 71 143 147
0.0796807 -0.159577 -0.0215903 97 170 166
0.0790406 -0.160704 -0.0219212 94 164 169
0.0787394 -0.162038 -0.0229307 100 172 176
0.0784368 -0.163378 -0.0239453 89 159 166
0.0781326 -0.164725 -0.0249649 70 127 135
0.0779972 -0.166188 -0.0263365 59 98 102
0.081477 -0.151488 -0.0180573 70 109 114
0.0810133 -0.152696 -0.0187166 89 156 154
0.0807194 -0.154 -0.0197109 85 164 167
0.080253 -0.155216 -0.0203747 65 138 149
0.0796152 -0.156338 -0.0207043 70 138 145
0.0791468 -0.157559 -0.0213702 96 164 165
0.0785082 -0.158683 -0.0217002 95 162 171
0.0780378 -0.159908 -0.0223682 99 171 174
0.0775662 -0.161135 -0.0230378 90 167 171
0.0772613 -0.16247 -0.0240501 70 135 142
0.0769549 -0.163811 -0.0250676 60 106 110
0.0806035 -0.149333 -0.0171901 71 100 109
0.079972 -0.150444 -0.0175166 86 147 149
0.0795087 -0.151645 -0.0181721 88 165 166
0.0793812 -0.153031 -0.0194921 69 144 152
0.0789148 -0.154242 -0.0201533 66 135 145
0.0784472 -0.155455 -0.0208161 92 157 161
0.0779784 -0.156671 -0.0214805 92 162 172
0.0773412 -0.157793 -0.0218098 94 166 171
0.0770373 -0.159113 -0.0228143 95 170 170
0.076565 -0.160338 -0.0234836 74 140 145
0.0760914 -0.161567 -0.0241547 60 109 111
0.0799064 -0.147281 -0.016657 71 95 100
0.0792771 -0.148389 -0.0169823 83 140 143
0.0788146 -0.149583 -0.0176348 90 164 168
0.0781845 -0.150692 -0.0179605 73 145 155
0.07772 -0.151891 -0.0186151 65 133 145
0.07742 -0.153183 -0.019602 83 154 158
0.0771185 -0.154482 -0.0205938 90 162 170
0.0766498 -0.155693 -0.0212555 89 162 169
0.0763453 -0.157003 -0.022255 94 169 170
0.0758738 -0.158221 -0.0229213 79 146 150
0.0755661 -0.159543 -0.0239285 63 114 115
0.0793811 -0.145326 -0.0164524 68 93 92
0.0787533 -0.146431 -0.0167769 79 133 133
0.0781254 -0.147536 -0.0171015 89 163 166
0.0776626 -0.148726 -0.0177526 75 151 160
0.0770338 -0.149833 -0.0180776 64 134 145
0.076569 -0.151027 -0.0187308 80 150 155
0.076103 -0.152225 -0.0193855 89 167 169
0.0756358 -0.153426 -0.0200419 83 159 167
0.0754942 -0.154815 -0.0213657 95 170 172
0.0751875 -0.15612 -0.0223631 81 149 155
0.0748793 -0.157431 -0.0233653 64 117 122
0.078232 -0.144481 -0.0165726 76 127 125
0.0777703 -0.145665 -0.0172216 87 163 162
0.0771432 -0.146769 -0.0175458 78 155 161
0.076516 -0.147873 -0.0178701 64 135 144
0.0760516 -0.149062 -0.0185214 75 146 149
0.0754234 -0.150168 -0.0188461 91 166 166
0.0747954 -0.151273 -0.0191708 84 160 169
0.0744896 -0.152558 -0.0201544 92 167 171
0.0741823 -0.15385 -0.0211429 85 157 164
0.0740353 -0.155241 -0.0224708 65 122 129
0.0740497 -0.156739 -0.0241468 58 97 98
0.077549 -0.142464 -0.0160464 74 119 122
0.0770882 -0.143641 -0.0166924 87 159 159
0.0766262 -0.144821 -0.01734 80 160 163
0.0760005 -0.145922 -0.0176635 64 138 148
0.0753747 -0.147024 -0.017987 72 140 147
0.07491 -0.148209 -0.018637 90 160 163
0.074444 -0.149398 -0.0192886 85 158 169
0.073977 -0.15059 -0.0199418 87 163 170
0.0733487 -0.151695 -0.0202666 88 165 167
0.0730394 -0.152982 -0.0212529 69 129 136
0.0730489 -0.154459 -0.0229129 56 102 104
0.0770336 -0.140536 -0.0158451 71 111 119
0.0764109 -0.141632 -0.0161671 86 154 156
0.0759498 -0.142805 -0.0168118 85 163 166
0.0754874 -0.143981 -0.017458 67 140 149
0.0750239 -0.14516 -0.0181058 68 137 147
0.0743988 -0.14626 -0.018429 86 156 161
0.0737736 -0.147361 -0.0187522 86 158 167
0.0733074 -0.148545 -0.0194024 82 160 167
0.072999 -0.149819 -0.0203832 87 169 169
0.0725301 -0.151012 -0.0210378 70 137 141
0.0722186 -0.152296 -0.0220261 59 105 108
0.0760368 -0.1384 -0.0146865 69 106 111
0.0755779 -0.139563 -0.0153257 82 148 153
0.0749581 -0.140653 -0.0156461 86 162 166
0.0743382 -0.141744 -0.0159666 70 143 153
0.0738766 -0.142912 -0.0166081 68 134 147
0.073731 -0.144241 -0.0178976 84 153 160
0.073108 -0.145337 -0.0182197 85 159 166
0.0728006 -0.146598 -0.0191929 81 158 163
0.0723337 -0.14778 -0.0198429 88 168 167
0.0718656 -0.148966 -0.0204946 75 146 149
0.0715537 -0.150241 -0.021478 59 110 114
0.0753696 -0.136428 -0.0141733 71 101 105
0.0749116 -0.137584 -0.0148096 81 143 145
0.0742939 -0.138671 -0.0151289 85 162 166
0.0736762 -0.139758 -0.0154483 72 146 156
0.0732154 -0.140919 -0.0160869 66 135 146
0.0725968 -0.142007 -0.0164067 81 151 157
0.0721342 -0.143173 -0.0170473 85 160 165
0.0718263 -0.144421 -0.018012 79 157 163
0.0716731 -0.145755 -0.0193067 87 165 167
0.0713622 -0.147017 -0.0202826 80 151 155
0.0710498 -0.148284 -0.0212632 63 114 121
0.0744078 -0.135687 -0.0146135 79 137 138
0.0737915 -0.136771 -0.0149321 86 162 163
0.0731752 -0.137855 -0.0152508 73 150 157
0.0725588 -0.13894 -0.0155695 65 137 146
0.0720977 -0.140098 -0.0162068 81 150 153
0.0714806 -0.141184 -0.0165259 88 162 163
0.0710176 -0.142346 -0.0171651 80 157 163
0.0707077 -0.143588 -0.0181279 85 163 167
0.0703963 -0.144837 -0.0190953 81 154 162
0.0705482 -0.146337 -0.0210495 63 121 130
0.0737494 -0.133733 -0.0141031 76 130 128
0.0732915 -0.13488 -0.0147364 85 161 160
0.0726766 -0.135962 -0.0150543 75 153 159
0.0722167 -0.137114 -0.0156895 63 137 145
0.071601 -0.138197 -0.0160079 75 145 149
0.0709853 -0.13928 -0.0163262 89 159 161
0.0705227 -0.140437 -0.0169638 82 155 163
0.0700591 -0.141597 -0.0176028 83 160 167
0.0695943 -0.14276 -0.0182434 86 159 166
0.0692809 -0.144004 -0.0192088 68 127 137
0.0730957 -0.131792 -0.0135963 75 123 123
0.0726385 -0.132934 -0.0142268 85 157 157
0.0721803 -0.134077 -0.0148588 77 154 161
0.0717209 -0.135224 -0.0154923 64 137 147
0.0711066 -0.136305 -0.0158099 72 140 147
0.0704922 -0.137385 -0.0161276 86 155 159
0.0698779 -0.138466 -0.0164453 81 154 163
0.069567 -0.139693 -0.0174007 80 157 166
0.0691027 -0.14085 -0.0180396 83 162 165
0.0686372 -0.142011 -0.01868 71 136 142
0.0684734 -0.143329 -0.0199696 59 103 107
0.0726008 -0.129926 -0.013405 73 114 117
0.0721441 -0.131062 -0.0140339 85 153 154
0.0715327 -0.132138 -0.01435 81 157 162
0.0709213 -0.133213 -0.0146662 66 138 149
0.070462 -0.134355 -0.0152973 69 137 147
0.0700015 -0.1355 -0.0159299 84 152 159
0.0693885 -0.136578 -0.0162469 81 156 164
0.0687755 -0.137656 -0.0165639 79 157 164
0.0684627 -0.138878 -0.0175174 84 164 167
0.0681484 -0.140105 -0.0184755 73 143 147
0.0676823 -0.141263 -0.0191157 59 109 111
0.0718018 -0.127952 -0.0125934 71 108 114
0.071194 -0.129021 -0.0129077 83 149 151
0.0707377 -0.130151 -0.0135331 83 159 162
0.0701291 -0.131221 -0.0138478 68 140 149
0.0695205 -0.132292 -0.0141625 68 137 147
0.0690615 -0.133427 -0.0147902 81 152 157
0.0687513 -0.134631 -0.015734 81 158 164
0.0682898 -0.135774 -0.0163658 76 157 163
0.0679766 -0.136988 -0.0173166 85 166 166
0.0673634 -0.138066 -0.0176337 78 149 153
0.0671962 -0.139361 -0.0189105 61 114 120
0.0711616 -0.126051 -0.0120972 71 103 108
0.0705559 -0.127116 -0.0124105 80 143 147
0.0701004 -0.12824 -0.0130331 83 160 163
0.0694939 -0.129307 -0.0133468 70 144 151
0.0688873 -0.130374 -0.0136605 66 136 143
0.0684292 -0.131503 -0.0142854 79 151 154
0.06797 -0.132635 -0.0149117 82 160 162
0.0675097 -0.133769 -0.0155396 76 155 161
0.0670483 -0.134907 -0.0161689 83 164 164
0.066881 -0.136183 -0.0174332 81 155 156
0.0665643 -0.137398 -0.0183866 66 118 125
