ply
format ascii 1.0
element vertex 1184
property float x
property float y
property float z
property uchar diffuse_red
property uchar diffuse_green
property uchar diffuse_blue
end_header
0.128093 -0.195038 -0.0781052 84 81 77
0.132117 -0.194644 -0.0722195 77 89 94
0.131349 -0.194569 -0.0731173 84 100 101
0.130798 -0.194328 -0.0740906 94 123 111
0.130033 -0.194254 -0.0749857 103 139 126
0.129056 -0.194345 -0.0758 106 145 130
0.127873 -0.194602 -0.0765314 107 128 118
0.127115 -0.194527 -0.0774185 85 95 113
0.126567 -0.194288 -0.078385 82 83 85
0.125812 -0.194214 -0.0792693 85 82 70
0.125057 -0.19414 -0.0801518 81 79 72
0.124305 -0.194066 -0.0810326 58 85 78
0.132107 -0.194038 -0.0707155 74 98 89
0.130909 -0.194297 -0.0714659 73 130 126
0.130145 -0.194222 -0.0723618 86 153 152
0.129596 -0.193982 -0.073332 99 172 171
0.129046 -0.193742 -0.0743023 103 183 182
0.127652 -0.194166 -0.0749608 96 186 188
0.126895 -0.194092 -0.0758485 98 187 192
0.126348 -0.193853 -0.076814 97 175 176
0.125801 -0.193613 -0.0777795 109 140 126
0.125047 -0.19354 -0.0786636 86 84 102
0.124294 -0.193467 -0.079546 71 90 83
0.123339 -0.193559 -0.0803436 52 81 87
0.122998 -0.193155 -0.0813893 47 86 89
0.130349 -0.193452 -0.0709377 51 79 87
0.129585 -0.193379 -0.0718342 54 103 109
0.128612 -0.193472 -0.0726534 67 140 147
0.127432 -0.19373 -0.0733932 81 170 174
0.126676 -0.193657 -0.0742817 86 178 182
0.125922 -0.193584 -0.0751684 82 177 184
0.125376 -0.193345 -0.0761319 82 176 182
0.12483 -0.193106 -0.0770955 90 181 183
0.124284 -0.192868 -0.0780591 95 157 162
0.123328 -0.192961 -0.0788598 97 136 125
0.12258 -0.192889 -0.0797393 77 113 121
0.122035 -0.192651 -0.0807002 78 117 125
0.130722 -0.200364 -0.0561004 81 82 71
0.124908 -0.199045 -0.0642539 82 81 73
0.128053 -0.19263 -0.072127 54 88 91
0.126666 -0.193057 -0.0727932 64 131 139
0.125705 -0.19315 -0.0736054 80 178 181
0.124747 -0.193243 -0.0744144 81 179 185
0.124203 -0.193005 -0.0753749 85 179 182
0.124068 -0.192435 -0.0764931 84 176 181
0.123523 -0.192196 -0.0774558 86 178 185
0.122773 -0.192125 -0.0783377 87 179 187
0.122228 -0.191886 -0.0792995 88 184 190
0.13009 -0.200243 -0.0544808 81 80 75
0.129972 -0.1997 -0.055531 78 95 94
0.129645 -0.199311 -0.0565287 82 104 108
0.129112 -0.199078 -0.0574705 91 121 115
0.128578 -0.198844 -0.0584123 96 131 118
0.128044 -0.198611 -0.0593543 88 118 113
0.12751 -0.198378 -0.0602963 79 87 103
0.126773 -0.198301 -0.0611767 81 83 79
0.126036 -0.198225 -0.0620554 82 81 75
0.124497 -0.198773 -0.0626803 85 81 71
0.123767 -0.198697 -0.0635522 77 80 76
0.125149 -0.192313 -0.0730823 84 181 183
0.124193 -0.192408 -0.0738924 84 180 187
0.123648 -0.19217 -0.074853 87 182 187
0.123513 -0.191598 -0.0759702 88 178 186
0.122967 -0.191359 -0.0769329 90 179 186
0.130081 -0.199659 -0.0530299 76 83 77
0.129343 -0.199581 -0.0539147 83 108 98
0.129017 -0.199193 -0.0549076 86 146 136
0.12869 -0.198805 -0.0559026 87 168 168
0.128363 -0.198415 -0.0568997 89 172 174
0.12783 -0.198182 -0.0578407 91 173 176
0.127296 -0.197949 -0.0587817 94 181 181
0.126763 -0.197716 -0.0597229 93 163 161
0.126027 -0.19764 -0.060603 93 131 113
0.125494 -0.197407 -0.0615433 88 92 89
0.123758 -0.198115 -0.0621087 88 83 75
0.123029 -0.19804 -0.0629804 86 85 78
0.129334 -0.198998 -0.0524651 58 83 82
0.127984 -0.199386 -0.0531899 52 85 93
0.127455 -0.199155 -0.054124 58 118 120
0.127943 -0.198144 -0.0553345 76 155 157
0.127411 -0.197911 -0.0562735 85 177 178
0.126879 -0.197678 -0.0572127 85 179 182
0.126347 -0.197446 -0.0581518 82 175 182
0.125814 -0.197213 -0.0590911 80 176 181
0.125282 -0.19698 -0.0600304 86 177 173
0.124348 -0.197063 -0.0608475 94 140 133
0.12302 -0.197459 -0.0615382 85 106 115
0.122293 -0.197384 -0.0624096 72 97 120
0.134224 -0.202269 -0.0394904 88 75 67
0.133488 -0.202189 -0.040381 86 80 70
0.132754 -0.20211 -0.0412697 88 82 70
0.132228 -0.20188 -0.0421985 85 84 74
0.131701 -0.20165 -0.0431273 85 83 76
0.131175 -0.20142 -0.0440561 84 79 74
0.127445 -0.198573 -0.0526802 45 76 77
0.126916 -0.198342 -0.0536145 49 78 83
0.126589 -0.197954 -0.0546032 56 110 114
0.126059 -0.197722 -0.0555386 77 158 161
0.125528 -0.197491 -0.0564739 78 177 181
0.124998 -0.197259 -0.0574093 78 176 183
0.124869 -0.196712 -0.0584618 76 175 178
0.124338 -0.19648 -0.0593993 75 176 178
0.12301 -0.196878 -0.0600958 77 177 182
0.122086 -0.19696 -0.0609079 83 181 187
0.121952 -0.196415 -0.0619635 87 187 191
0.133589 -0.202144 -0.0379384 81 74 73
0.133064 -0.201914 -0.0388661 80 84 85
0.132538 -0.201684 -0.0397938 81 98 102
0.132012 -0.201454 -0.0407216 87 116 111
0.131486 -0.201224 -0.0416495 92 130 116
0.130755 -0.201146 -0.0425354 90 122 117
0.130434 -0.200764 -0.0435054 84 98 100
0.129908 -0.200534 -0.0444334 85 84 80
0.125519 -0.196908 -0.0550285 79 146 147
0.124989 -0.196677 -0.0559639 77 176 186
0.124459 -0.196445 -0.0568994 76 176 187
0.123331 -0.196685 -0.057662 79 174 184
0.122605 -0.196611 -0.0585364 82 173 182
0.122076 -0.19638 -0.0594683 84 172 182
0.121548 -0.196149 -0.0604003 81 177 183
0.109134 -0.187514 -0.0876632 68 127 137
0.107857 -0.187951 -0.0882514 62 124 128
0.132958 -0.202019 -0.0363957 75 76 69
0.132434 -0.20179 -0.0373205 80 91 84
0.13191 -0.201561 -0.0382455 87 129 117
0.131591 -0.20118 -0.039209 87 157 154
0.131066 -0.20095 -0.0401349 86 169 171
0.130337 -0.200873 -0.0410206 86 173 173
0.129812 -0.200643 -0.0419458 90 174 174
0.129085 -0.200566 -0.0428289 95 163 157
0.128359 -0.200489 -0.0437102 93 125 117
0.127635 -0.200412 -0.0445899 84 82 90
0.122595 -0.196031 -0.0570967 93 183 187
0.122067 -0.1958 -0.0580286 100 181 187
0.121538 -0.195569 -0.0589605 102 181 186
0.107479 -0.1877 -0.0866233 52 108 110
0.106946 -0.187466 -0.0875639 59 113 113
0.131604 -0.201817 -0.0357491 64 73 70
0.131286 -0.201438 -0.0367062 56 83 86
0.130763 -0.20121 -0.0376284 64 113 116
0.130444 -0.20083 -0.0385885 80 152 155
0.130124 -0.200449 -0.0395505 85 172 175
0.1296 -0.20022 -0.0404748 81 172 176
0.129076 -0.19999 -0.0413991 79 171 177
0.128149 -0.200066 -0.0422404 80 172 176
0.126826 -0.200444 -0.0429942 85 167 165
0.126106 -0.200367 -0.0438702 87 128 133
0.125586 -0.20014 -0.0447884 83 87 108
0.106555 -0.187949 -0.084746 53 96 98
0.106025 -0.187717 -0.0856818 66 88 90
0.105494 -0.187485 -0.0866177 69 83 83
0.105324 -0.186919 -0.0877297 76 82 75
0.129052 -0.20251 -0.0349041 65 74 69
0.128735 -0.202136 -0.0358509 47 74 73
0.128417 -0.20176 -0.0367997 46 84 83
0.128498 -0.201084 -0.0378238 62 116 115
0.128379 -0.200555 -0.0388163 76 158 159
0.127858 -0.200328 -0.0397351 75 172 178
0.127337 -0.2001 -0.0406539 72 169 178
0.126618 -0.200023 -0.0415323 73 168 175
0.125701 -0.200098 -0.0423676 75 170 176
0.124985 -0.200022 -0.0432417 81 174 177
0.124466 -0.199795 -0.0441571 86 169 162
0.107027 -0.189773 -0.0788492 49 104 106
0.106321 -0.189706 -0.0796972 51 99 104
0.106696 -0.188658 -0.0810254 57 93 96
0.106169 -0.188427 -0.0819564 65 88 90
0.105641 -0.188196 -0.0828875 70 80 73
0.105293 -0.1878 -0.0839023 68 75 68
0.12793 -0.202161 -0.0343052 66 72 68
0.127414 -0.201935 -0.0352147 41 73 74
0.127492 -0.201263 -0.0362291 31 77 80
0.127371 -0.200737 -0.0372135 49 97 101
0.127849 -0.199755 -0.0383136 74 144 142
0.127328 -0.199528 -0.0392325 74 172 178
0.126807 -0.1993 -0.0401514 73 171 180
0.126088 -0.199224 -0.0410303 73 171 180
0.125173 -0.199301 -0.0418666 76 169 179
0.124653 -0.199073 -0.042783 77 169 180
0.106462 -0.190398 -0.0760392 60 111 103
0.10594 -0.19017 -0.0769607 58 95 97
0.10524 -0.190103 -0.0778055 71 94 92
0.104895 -0.189713 -0.0788039 71 79 79
0.105261 -0.18867 -0.080121 75 71 64
0.105093 -0.188112 -0.0812086 75 73 67
0.127644 -0.202411 -0.0318657 80 72 64
0.127131 -0.202186 -0.0327715 78 73 69
0.12603 -0.202403 -0.0335808 66 74 75
0.125518 -0.202179 -0.0344841 42 80 84
0.126374 -0.200918 -0.0356263 37 91 101
0.126646 -0.200092 -0.0366776 61 121 127
0.107677 -0.190121 -0.0728465 54 99 98
0.106438 -0.190537 -0.0734786 60 91 91
0.106095 -0.190148 -0.0744705 70 82 79
0.105574 -0.18992 -0.0753902 77 81 68
0.10523 -0.18953 -0.0763852 73 77 64
0.104531 -0.189463 -0.0772297 76 72 64
0.127165 -0.202805 -0.0294172 71 75 67
0.126654 -0.202581 -0.0303185 77 77 70
0.126143 -0.202358 -0.03122 76 82 82
0.125632 -0.202134 -0.0321214 71 91 100
0.124734 -0.202203 -0.0329602 70 99 113
0.124031 -0.202127 -0.0338278 74 124 125
0.124485 -0.201168 -0.034893 81 157 147
0.106021 -0.193088 -0.0674593 49 101 102
0.106209 -0.192237 -0.0686311 57 99 100
0.106223 -0.191537 -0.0697441 60 94 100
0.106414 -0.190674 -0.0709332 63 83 83
0.106428 -0.189965 -0.072061 67 75 68
0.105907 -0.189737 -0.0729797 75 81 67
0.12645 -0.202166 -0.0288957 76 101 111
0.125745 -0.202089 -0.0297679 83 114 114
0.125235 -0.201866 -0.0306676 86 140 129
0.124532 -0.20179 -0.0315374 84 161 154
0.124022 -0.201567 -0.0324364 81 172 178
0.123321 -0.20149 -0.0333038 80 176 182
0.106861 -0.193129 -0.0641875 52 99 100
0.105823 -0.193371 -0.0649039 57 98 96
0.105486 -0.192992 -0.0658696 63 85 90
0.105322 -0.192456 -0.066902 71 84 77
0.104983 -0.192075 -0.0678727 72 73 65
0.126125 -0.201234 -0.0284289 79 174 180
0.125226 -0.201306 -0.0292748 80 173 179
0.124716 -0.201082 -0.0301745 79 174 179
0.124013 -0.201006 -0.0310449 80 175 180
0.123504 -0.200783 -0.0319439 82 176 181
0.108746 -0.192928 -0.0601928 50 103 103
0.108055 -0.192859 -0.0610401 61 102 101
0.107541 -0.192634 -0.0619456 70 100 97
0.106852 -0.192566 -0.0627904 64 88 91
0.106339 -0.192341 -0.0636952 71 79 78
0.105302 -0.192585 -0.0644131 73 82 70
0.104964 -0.192205 -0.0653785 79 72 63
0.10974 -0.193505 -0.0559119 48 107 108
0.109228 -0.193281 -0.0568155 72 112 108
0.109072 -0.192745 -0.0578306 68 114 106
0.108736 -0.192363 -0.0587929 51 98 104
0.108223 -0.192138 -0.0596992 58 83 90
0.107531 -0.19207 -0.060547 78 75 75
0.107018 -0.191846 -0.0614526 79 71 67
0.109707 -0.193631 -0.053458 47 102 102
0.109196 -0.193408 -0.0543588 43 94 99
0.10904 -0.192874 -0.0553661 33 85 98
0.108706 -0.192494 -0.0563231 40 80 92
0.108371 -0.192113 -0.057282 45 73 75
0.108213 -0.191574 -0.0582992 48 84 80
0.107699 -0.191349 -0.0592056 65 84 81
0.107185 -0.191124 -0.060112 90 75 68
0.110208 -0.193294 -0.0511653 37 90 98
0.109697 -0.19307 -0.052066 28 84 92
0.109186 -0.192847 -0.0529668 29 77 81
0.108675 -0.192623 -0.0538677 35 76 76
0.108519 -0.192087 -0.0548741 31 79 75
0.108361 -0.191549 -0.0558845 30 82 79
0.108025 -0.191167 -0.056844 31 82 83
0.107689 -0.190784 -0.0578053 43 93 94
0.107529 -0.190242 -0.0588257 62 91 92
0.107191 -0.189857 -0.059792 82 74 62
0.110198 -0.192733 -0.0497731 30 64 71
0.109688 -0.192509 -0.0506739 25 60 66
0.109177 -0.192285 -0.0515747 20 74 70
0.108666 -0.192062 -0.0524755 31 78 82
0.108155 -0.191838 -0.0533764 34 85 85
0.108174 -0.191143 -0.0544343 34 85 84
0.108015 -0.190603 -0.0554449 33 85 87
0.107502 -0.190378 -0.0563505 35 87 92
0.107519 -0.189676 -0.0574226 46 96 97
0.107181 -0.18929 -0.0583875 59 97 97
0.106842 -0.188904 -0.0593544 71 72 67
0.110189 -0.192172 -0.0483809 71 73 62
0.109678 -0.191948 -0.0492816 34 57 62
0.109167 -0.191724 -0.0501824 30 59 61
0.108656 -0.1915 -0.0510832 24 72 71
0.108145 -0.191277 -0.0519841 30 84 86
0.10781 -0.190896 -0.0529359 32 89 95
0.107828 -0.190198 -0.0539937 36 91 92
0.107492 -0.189814 -0.0549513 36 92 93
0.106978 -0.189589 -0.0558569 41 93 97
0.107171 -0.188724 -0.0569829 46 100 103
0.106832 -0.188337 -0.0579484 61 110 106
0.106493 -0.187949 -0.0589159 71 77 70
0.111002 -0.204855 -0.0257776 117 187 190
0.109668 -0.191387 -0.0478891 71 73 65
0.109157 -0.191163 -0.0487899 33 61 64
0.108646 -0.190939 -0.0496908 26 55 58
0.108135 -0.190715 -0.0505917 25 73 74
0.107801 -0.190334 -0.0515421 39 90 93
0.107465 -0.189951 -0.0524945 41 98 104
0.107305 -0.189409 -0.0535004 42 98 102
0.106968 -0.189025 -0.0544576 43 97 98
0.106631 -0.18864 -0.0554168 43 101 100
0.106822 -0.18777 -0.0565422 42 103 105
0.106483 -0.187382 -0.0575083 56 117 113
0.106142 -0.186992 -0.0584764 74 92 91
0.110172 -0.204385 -0.0252657 104 178 179
0.10969 -0.204174 -0.0261154 106 177 176
0.109545 -0.20369 -0.0270133 104 176 174
0.108637 -0.190378 -0.0482982 44 66 63
0.108126 -0.190154 -0.0491991 20 53 58
0.107791 -0.189772 -0.0501482 22 74 73
0.107455 -0.189389 -0.0510992 38 91 94
0.106943 -0.189165 -0.0520021 42 101 107
0.106782 -0.188621 -0.053007 42 101 106
0.106621 -0.188075 -0.054016 45 99 100
0.106107 -0.18785 -0.0549226 43 101 103
0.106296 -0.186977 -0.0560461 41 103 105
0.106132 -0.186424 -0.0570672 48 113 113
0.105791 -0.186034 -0.0580359 68 105 110
0.109682 -0.203645 -0.0247997 71 151 159
0.1092 -0.203434 -0.0256494 70 144 153
0.108885 -0.203085 -0.0265228 65 130 141
0.108738 -0.202598 -0.0274224 59 118 126
0.108758 -0.20197 -0.0283509 52 110 116
0.108273 -0.201758 -0.0292055 48 106 110
0.107789 -0.201546 -0.0300602 46 102 105
0.108116 -0.189592 -0.0478064 57 69 67
0.107781 -0.18921 -0.0487541 20 53 61
0.107269 -0.188986 -0.049656 20 73 70
0.106933 -0.188602 -0.0506066 31 89 93
0.106597 -0.188217 -0.0515591 45 104 105
0.106435 -0.187671 -0.0525643 46 105 106
0.106097 -0.187285 -0.0535216 45 98 103
0.106109 -0.186572 -0.0545866 42 100 103
0.105769 -0.186183 -0.0555499 42 99 104
0.105605 -0.185629 -0.0565701 45 109 112
0.105263 -0.185238 -0.0575384 67 114 113
0.109191 -0.202904 -0.0243337 46 99 104
0.108709 -0.202693 -0.0251834 48 103 107
0.108394 -0.202343 -0.0260564 48 103 105
0.108079 -0.201994 -0.0269311 49 100 102
0.108097 -0.201365 -0.0278574 48 96 98
0.107613 -0.201153 -0.0287113 51 91 94
0.107295 -0.2008 -0.0295919 55 83 86
0.10681 -0.200588 -0.0304468 64 75 75
0.106658 -0.200094 -0.0313582 73 72 66
0.107595 -0.188807 -0.0473144 67 67 62
0.10726 -0.188423 -0.0482617 26 56 63
0.106924 -0.188039 -0.049211 22 66 66
0.106587 -0.187654 -0.0501621 28 85 86
0.106249 -0.187268 -0.0511152 43 99 101
0.106087 -0.18672 -0.0521206 45 102 107
0.105748 -0.186332 -0.0530785 42 99 106
0.105759 -0.185616 -0.0541433 42 101 104
0.105419 -0.185225 -0.0551071 42 100 106
0.105077 -0.184834 -0.056073 45 106 111
0.104735 -0.184442 -0.0570408 68 121 113
0.108701 -0.202163 -0.0238676 43 80 82
0.108218 -0.201952 -0.0247173 48 86 89
0.107736 -0.20174 -0.0255672 52 85 88
0.107587 -0.201251 -0.0264643 61 79 81
0.10727 -0.2009 -0.0273403 66 77 73
0.106953 -0.200548 -0.028218 69 77 67
0.106303 -0.200476 -0.0290451 75 73 65
0.106914 -0.187476 -0.0478152 38 63 64
0.106577 -0.187091 -0.048765 24 56 65
0.106064 -0.186866 -0.0496689 27 83 81
0.105901 -0.186317 -0.0506704 40 96 100
0.105738 -0.185766 -0.0516759 42 102 109
0.105574 -0.185213 -0.0526854 42 101 107
0.105233 -0.184822 -0.0536469 53 107 101
0.105067 -0.184265 -0.0546634 43 104 107
0.104725 -0.183873 -0.0556298 44 103 110
0.104382 -0.183479 -0.0565982 66 123 114
0.104038 -0.183085 -0.0575685 69 83 83
0.106054 -0.186303 -0.0482716 22 54 62
0.105891 -0.185753 -0.0492704 22 79 78
0.105552 -0.185364 -0.0502246 39 95 98
0.105388 -0.18481 -0.0512302 41 103 108
0.105223 -0.184255 -0.0522399 43 102 106
0.104881 -0.183863 -0.053202 55 105 107
0.104715 -0.183303 -0.0542187 44 101 108
0.104372 -0.182909 -0.0551857 40 102 108
0.104028 -0.182514 -0.0561546 56 120 113
0.103684 -0.182119 -0.0571256 66 101 100
0.105881 -0.185188 -0.0478702 24 52 58
0.105542 -0.184799 -0.048823 22 75 72
0.105378 -0.184244 -0.0498259 34 90 91
0.105037 -0.183853 -0.0507836 41 105 104
0.104871 -0.183295 -0.0517935 42 107 107
0.104529 -0.182901 -0.0527561 45 100 102
0.104186 -0.182507 -0.0537207 43 99 101
0.103843 -0.182112 -0.0546872 40 101 107
0.103673 -0.181548 -0.0557101 48 115 114
0.103154 -0.18132 -0.0566263 67 113 115
0.105532 -0.184233 -0.0474213 32 53 63
0.105543 -0.183512 -0.0484683 24 68 66
0.105027 -0.183286 -0.0493778 30 84 87
0.104686 -0.182893 -0.0503361 41 101 102
0.104519 -0.182332 -0.0513461 41 102 105
0.104176 -0.181938 -0.0523093 41 100 107
0.103833 -0.181542 -0.0532744 38 100 106
0.103488 -0.181146 -0.0542416 40 101 105
0.103143 -0.180749 -0.0552107 44 110 113
0.102623 -0.180521 -0.0561269 64 113 115
0.105533 -0.182945 -0.0470624 35 63 64
0.104676 -0.182325 -0.0489287 29 81 84
0.104334 -0.181931 -0.0498875 42 98 102
0.104166 -0.181368 -0.0508977 41 103 107
0.103648 -0.181141 -0.0518111 41 101 105
0.103304 -0.180745 -0.0527758 40 100 105
0.102959 -0.180347 -0.0537425 41 101 105
0.102613 -0.179949 -0.0547111 42 107 112
0.102267 -0.179551 -0.0556818 68 123 115
0.105183 -0.181984 -0.0466108 35 68 66
0.104324 -0.181363 -0.0484786 21 78 81
0.103981 -0.180968 -0.049438 46 95 98
0.103638 -0.180572 -0.0503993 41 101 108
0.103293 -0.180175 -0.0513626 41 104 107
0.102948 -0.179777 -0.052328 44 101 104
0.102603 -0.179378 -0.0532952 40 101 107
0.102083 -0.17915 -0.0542115 41 103 107
0.101909 -0.178579 -0.0552358 61 119 112
0.101735 -0.178005 -0.0562641 68 91 90
0.104831 -0.181021 -0.0461582 52 68 63
0.103971 -0.180399 -0.0480275 23 76 73
0.103627 -0.180002 -0.0489875 47 93 94
0.103283 -0.179604 -0.0499494 39 101 103
0.102938 -0.179206 -0.0509133 43 103 107
0.102592 -0.178807 -0.0518792 43 99 103
0.102072 -0.178579 -0.0527955 41 101 105
0.101726 -0.178179 -0.0537643 41 100 106
0.101551 -0.177604 -0.0547887 51 116 116
0.10155 -0.176853 -0.0558721 67 103 113
0.1012 -0.176449 -0.05685 76 66 60
0.103617 -0.179432 -0.0475755 22 70 68
0.103273 -0.179034 -0.048536 39 89 91
0.102928 -0.178635 -0.0494985 36 101 101
0.102582 -0.178235 -0.050463 42 102 106
0.102062 -0.178007 -0.0513793 41 101 103
0.101715 -0.177607 -0.0523467 36 100 105
0.101367 -0.177205 -0.0533161 36 100 106
0.101192 -0.176628 -0.0543407 46 109 116
0.101016 -0.176049 -0.0553695 70 112 119
0.101013 -0.175291 -0.056458 80 73 62
0.103263 -0.178464 -0.0471225 31 66 64
0.102918 -0.178064 -0.0480836 27 87 87
0.102572 -0.177664 -0.0490466 35 100 101
0.102052 -0.177436 -0.0499629 40 102 108
0.101705 -0.177034 -0.0509289 41 102 108
0.101357 -0.176632 -0.0518969 41 100 104
0.101008 -0.176229 -0.0528669 35 101 103
0.100832 -0.17565 -0.0538917 43 108 111
0.100829 -0.174891 -0.0549747 66 115 114
0.100825 -0.174128 -0.0560643 76 67 65
0.102907 -0.177493 -0.0466685 25 58 64
0.102562 -0.177092 -0.0476301 21 81 80
0.102041 -0.176864 -0.0485464 41 99 98
0.101694 -0.176462 -0.049511 41 100 107
0.101347 -0.176059 -0.0504776 41 100 104
0.100998 -0.175656 -0.0514462 40 98 99
0.100649 -0.175251 -0.0524167 33 100 99
0.100471 -0.174669 -0.0534417 40 105 107
0.100467 -0.173907 -0.0545245 66 124 113
0.100462 -0.17314 -0.0556139 69 73 75
0.102725 -0.176346 -0.0462585 16 54 62
0.102379 -0.175944 -0.0472218 18 76 77
0.101857 -0.175715 -0.0481399 37 96 97
0.101509 -0.175311 -0.0491061 41 100 105
0.101161 -0.174906 -0.0500742 40 100 106
0.100984 -0.174323 -0.0510945 42 99 102
0.100981 -0.17356 -0.0521702 39 100 99
0.10063 -0.173151 -0.0531474 38 100 106
0.100625 -0.172381 -0.0542338 57 118 113
0.100272 -0.171969 -0.0552172 70 90 95
0.0999178 -0.171556 -0.0562026 72 63 61
0.102542 -0.175195 -0.0458469 20 54 65
0.102021 -0.174966 -0.0467659 15 73 72
0.101672 -0.174561 -0.0477317 37 91 93
0.101324 -0.174155 -0.0486995 41 100 104
0.100974 -0.173748 -0.0496692 41 102 106
0.100971 -0.172983 -0.0507406 40 99 104
0.100619 -0.172573 -0.0517164 38 97 100
0.100267 -0.172163 -0.0526943 39 100 105
0.100087 -0.17157 -0.0537272 50 111 114
0.0997334 -0.171158 -0.0547102 67 110 113
0.0995522 -0.170561 -0.0557504 72 71 64
0.102359 -0.174039 -0.0454335 29 52 63
0.101836 -0.17381 -0.0463544 23 64 67
0.101313 -0.17358 -0.0472755 28 86 87
0.101137 -0.172994 -0.0482911 40 101 102
0.10096 -0.172406 -0.0493109 42 101 105
0.100608 -0.171996 -0.0502853 41 100 106
0.100256 -0.171585 -0.0512617 35 98 99
0.099903 -0.171173 -0.0522401 34 99 102
0.0997226 -0.170578 -0.0532732 46 107 113
0.0993679 -0.170163 -0.0542568 64 113 117
0.0990124 -0.169748 -0.0552424 75 65 63
0.101825 -0.173235 -0.0449303 33 63 63
0.10165 -0.172648 -0.0459412 23 60 66
0.1013 -0.172239 -0.0469101 25 82 84
0.101123 -0.171648 -0.0479282 38 97 99
0.100598 -0.171418 -0.048854 45 103 105
0.100245 -0.171006 -0.049829 40 100 108
0.0998923 -0.170594 -0.050806 36 99 102
0.0995385 -0.17018 -0.051785 33 100 102
0.099357 -0.169582 -0.0528183 43 104 110
0.0990016 -0.169167 -0.0538024 68 120 112
0.0984725 -0.168935 -0.0547342 76 65 66
0.10164 -0.172072 -0.044514 33 66 61
0.101464 -0.171482 -0.0455262 18 54 64
0.101113 -0.171071 -0.0464967 22 79 77
0.100587 -0.17084 -0.0474226 44 94 96
0.100235 -0.170428 -0.0483961 44 102 105
0.0998816 -0.170015 -0.0493716 42 101 106
0.0995277 -0.1696 -0.0503492 42 101 102
0.0991731 -0.169186 -0.0513288 37 97 104
0.0989907 -0.168585 -0.0523623 42 101 108
0.0984617 -0.168353 -0.0532941 62 123 113
0.0982774 -0.16775 -0.0543338 64 86 84
0.101453 -0.170905 -0.044096 47 64 60
0.101102 -0.170493 -0.0450651 19 50 62
0.10075 -0.17008 -0.0460362 21 75 70
0.100224 -0.169849 -0.046963 42 89 93
0.0998709 -0.169435 -0.0479371 42 102 103
0.099517 -0.169021 -0.0489133 40 102 108
0.0991623 -0.168605 -0.0498914 36 99 104
0.0988069 -0.168189 -0.0508716 32 99 103
0.0984508 -0.167772 -0.0518539 37 100 105
0.0982665 -0.167167 -0.0528907 55 117 114
0.0979086 -0.166748 -0.053878 67 97 105
0.101266 -0.169732 -0.0436763 61 65 58
0.100914 -0.169318 -0.044647 24 56 59
0.100387 -0.169087 -0.0455747 23 68 63
0.100034 -0.168672 -0.0465484 35 86 89
0.0996796 -0.168256 -0.0475241 40 100 103
0.0991516 -0.168025 -0.0484539 41 102 108
0.0987961 -0.167608 -0.0494327 37 99 105
0.0984399 -0.16719 -0.0504134 36 100 104
0.098083 -0.166771 -0.0513963 39 101 104
0.0978976 -0.166164 -0.0524332 47 112 114
0.0977115 -0.165554 -0.0534745 64 111 117
0.100903 -0.168739 -0.0432122 62 64 59
0.10055 -0.168324 -0.0441834 24 60 61
0.100023 -0.168092 -0.0451122 26 59 58
0.0996687 -0.167676 -0.0460864 25 82 85
0.0993139 -0.167259 -0.0470627 42 98 101
0.0989582 -0.16684 -0.0480411 42 99 106
0.0984291 -0.166608 -0.0489729 36 101 106
0.0980721 -0.166189 -0.0499543 34 99 104
0.0977143 -0.165769 -0.0509377 41 97 101
0.0977005 -0.16497 -0.0520266 42 107 114
0.0973409 -0.164547 -0.0530163 63 114 118
0.10054 -0.167744 -0.0427471 67 67 60
0.100186 -0.167327 -0.0437189 36 64 63
0.099658 -0.167096 -0.0446486 26 53 58
0.0993031 -0.166678 -0.0456235 28 77 77
0.0989474 -0.166259 -0.0466003 43 98 98
0.0984182 -0.166027 -0.0475322 42 103 106
0.0980612 -0.165607 -0.0485121 38 103 107
0.0977034 -0.165186 -0.049494 35 99 104
0.0973448 -0.164764 -0.0504781 31 98 103
0.0973298 -0.163961 -0.0515667 39 105 111
0.0969694 -0.163536 -0.052557 67 122 116
0.100349 -0.16656 -0.0423226 66 61 61
0.0998209 -0.166328 -0.0432533 40 63 62
0.0994657 -0.165909 -0.0442277 19 51 65
0.0989366 -0.165677 -0.0451595 22 76 76
0.0984073 -0.165445 -0.0460913 38 94 96
0.0980503 -0.165024 -0.0470698 39 101 104
0.0976925 -0.164603 -0.0480503 41 105 107
0.0973338 -0.16418 -0.0490328 39 101 104
0.0969745 -0.163757 -0.0500174 33 97 104
0.0969583 -0.16295 -0.0511059 38 101 109
0.0969419 -0.162139 -0.0522011 62 122 114
0.0965795 -0.16171 -0.0531961 62 78 87
0.100158 -0.165372 -0.0418964 65 65 59
0.0994549 -0.165327 -0.0427867 52 63 60
0.0989257 -0.165095 -0.0437185 20 54 63
0.0983965 -0.164863 -0.0446503 20 69 68
0.0980394 -0.164442 -0.0456273 29 91 92
0.0976815 -0.16402 -0.0466063 34 101 105
0.0973229 -0.163597 -0.0475874 41 102 108
0.0969635 -0.163173 -0.0485706 38 100 105
0.0966033 -0.162748 -0.0495558 29 100 104
0.0965859 -0.161937 -0.050644 38 98 107
0.0965683 -0.161122 -0.0517389 54 118 115
0.0962051 -0.160692 -0.0527346 59 99 109
0.0992616 -0.164135 -0.042361 65 63 60
0.0987313 -0.163902 -0.0432947 28 53 64
0.0982009 -0.163669 -0.0442284 25 60 64
0.0976705 -0.163436 -0.0451623 27 87 87
0.0973119 -0.163013 -0.0461419 36 100 102
0.0967808 -0.16278 -0.0470768 43 104 108
0.0965923 -0.162163 -0.0481073 41 99 106
0.0962313 -0.161737 -0.0490931 32 101 104
0.0962126 -0.160922 -0.050181 34 101 102
0.0960216 -0.160298 -0.0512244 45 112 112
0.0958298 -0.159671 -0.0522721 61 113 118
0.0983629 -0.162895 -0.0428266 33 61 58
0.0973009 -0.162429 -0.0446962 26 81 80
0.0967698 -0.162196 -0.0456311 38 98 99
0.0964098 -0.161771 -0.0466123 44 103 106
0.0962202 -0.161151 -0.047643 41 99 103
0.0960298 -0.160529 -0.0486779 33 101 102
0.095667 -0.1601 -0.0496674 35 98 100
0.0954748 -0.159474 -0.0507098 43 106 110
0.0952818 -0.158845 -0.0517564 65 121 116
0.0981666 -0.161694 -0.0423995 44 65 61
0.0967588 -0.161612 -0.0441852 20 79 78
0.0965701 -0.160993 -0.0452099 35 95 98
0.096209 -0.160565 -0.0461928 42 101 106
0.0960186 -0.159942 -0.0472247 41 100 106
0.0956559 -0.159512 -0.0482127 35 101 103
0.0952923 -0.159082 -0.0492028 35 98 100
0.095099 -0.158453 -0.0502454 40 104 107
0.0947337 -0.15802 -0.0512407 67 125 114
0.0943677 -0.157586 -0.0522382 69 73 73
0.0977963 -0.160681 -0.0419289 54 65 62
0.096559 -0.160408 -0.043761 17 73 72
0.096198 -0.15998 -0.0447423 31 92 96
0.0960074 -0.159355 -0.0457714 39 100 104
0.0956446 -0.158925 -0.0467579 41 100 105
0.0952811 -0.158493 -0.0477466 40 103 103
0.0947459 -0.158258 -0.0486885 34 100 101
0.0945515 -0.157628 -0.04973 40 101 106
0.0941856 -0.157194 -0.0507249 57 118 116
0.0938189 -0.156759 -0.0517219 62 86 95
0.0977713 -0.159276 -0.0415399 60 66 61
0.0963584 -0.159198 -0.0433349 23 62 67
0.096168 -0.158572 -0.0443621 30 88 91
0.0956334 -0.158337 -0.0453029 37 101 102
0.0952698 -0.157905 -0.0462901 41 102 106
0.0949054 -0.157472 -0.0472793 41 101 104
0.0943696 -0.157237 -0.0482223 36 99 102
0.0941742 -0.156604 -0.049264 41 98 104
0.0938075 -0.156168 -0.0502595 50 112 116
0.0934399 -0.155731 -0.0512571 60 102 115
0.0929018 -0.155495 -0.0522042 70 63 56
0.0963288 -0.157786 -0.0429498 26 58 63
0.0957937 -0.157551 -0.0438916 27 84 83
0.0954298 -0.157118 -0.0448783 35 100 99
0.0948941 -0.156883 -0.0458212 41 102 108
0.0943584 -0.156648 -0.0467642 41 100 105
0.0939925 -0.156213 -0.047755 39 100 102
0.0936259 -0.155777 -0.0487479 39 99 101
0.0932585 -0.155341 -0.049743 45 109 114
0.0928904 -0.154904 -0.0507401 57 113 117
0.0925214 -0.154465 -0.0517393 67 61 58
0.0959543 -0.156764 -0.0424772 21 53 61
0.0954186 -0.156529 -0.04342 20 81 78
0.0948828 -0.156294 -0.0443629 32 98 97
0.0945176 -0.155859 -0.0453512 40 103 106
0.0939812 -0.155623 -0.0462953 39 101 106
0.0934448 -0.155388 -0.0472393 41 101 103
0.0930775 -0.154951 -0.0482318 37 100 102
0.0928789 -0.154312 -0.0492759 43 105 111
0.0923407 -0.154076 -0.050223 64 121 115
0.0919711 -0.153636 -0.0512218 69 60 62
0.0957508 -0.15554 -0.0420455 17 57 58
0.0950426 -0.155504 -0.0429474 16 78 74
0.0945062 -0.155269 -0.0438914 29 95 95
0.0939699 -0.155033 -0.0448353 40 102 105
0.0934334 -0.154798 -0.0457794 40 102 106
0.0930661 -0.154361 -0.0467704 42 101 104
0.0926981 -0.153923 -0.0477635 36 99 104
0.0923292 -0.153484 -0.0487586 41 103 108
0.091791 -0.153247 -0.0497059 64 123 113
0.0914207 -0.152807 -0.0507042 64 71 78
0.0952027 -0.154713 -0.0415289 18 55 59
0.0946657 -0.154478 -0.0424738 18 68 69
0.0941288 -0.154242 -0.0434187 30 92 90
0.0935918 -0.154006 -0.0443638 37 100 103
0.0930547 -0.15377 -0.0453088 42 105 108
0.0926866 -0.153331 -0.0463004 39 102 105
0.0921489 -0.153095 -0.0472466 37 98 104
0.0917794 -0.152655 -0.0482413 41 101 105
0.0914092 -0.152215 -0.0492381 55 120 113
0.0908703 -0.151978 -0.0501865 61 91 102
0.0904986 -0.151536 -0.0511864 67 61 54
0.0949971 -0.153482 -0.0410942 22 55 60
0.094288 -0.153448 -0.0419991 23 58 63
0.0937504 -0.153212 -0.042945 28 87 86
0.0932128 -0.152976 -0.0438911 33 98 103
0.0926751 -0.15274 -0.0448372 42 103 108
0.0921375 -0.152504 -0.0457834 37 103 107
0.0917679 -0.152063 -0.0467766 37 99 105
0.0913976 -0.151622 -0.0477719 39 100 105
0.0908587 -0.151385 -0.0487203 48 112 114
0.090487 -0.150943 -0.0497187 63 108 116
0.0901145 -0.150499 -0.0507193 68 62 59
0.0946189 -0.152449 -0.040617 28 60 61
0.0940802 -0.152213 -0.0415649 21 54 59
0.0933712 -0.152181 -0.0424703 22 81 82
0.092833 -0.151944 -0.0434174 32 97 101
0.0922947 -0.151708 -0.0443645 42 101 107
0.0917564 -0.151471 -0.0453118 38 103 108
0.091218 -0.151235 -0.0462591 38 100 107
0.0908471 -0.150793 -0.0472539 35 99 106
0.0903081 -0.150556 -0.0482023 43 107 115
0.0899358 -0.150112 -0.0492003 63 113 116
0.0897295 -0.14946 -0.0502511 67 61 61
0.0942399 -0.151415 -0.0401387 37 61 57
0.09353 -0.151384 -0.0410464 14 51 62
0.0929911 -0.151147 -0.0419945 17 77 79
0.0924523 -0.15091 -0.0429426 30 94 99
0.0917448 -0.150879 -0.0438468 41 100 107
0.0912065 -0.150643 -0.0447941 40 102 107
0.0908355 -0.1502 -0.0457874 39 101 107
0.0902964 -0.149963 -0.0467358 34 99 102
0.0897574 -0.149726 -0.0476843 40 105 111
0.0895509 -0.149074 -0.0487309 68 121 115
0.0893435 -0.148419 -0.0497819 67 65 67
0.0938599 -0.150378 -0.0396593 47 59 54
0.0931497 -0.150348 -0.0405685 15 50 62
0.0924408 -0.150317 -0.041476 17 71 74
0.0919019 -0.150081 -0.0424242 29 92 96
0.0913629 -0.149844 -0.0433724 41 101 105
0.0908239 -0.149607 -0.0443208 41 103 107
0.0902849 -0.14937 -0.0452691 41 101 105
0.0897457 -0.149133 -0.0462176 34 98 100
0.0893728 -0.148688 -0.0472136 39 102 107
0.0889989 -0.148242 -0.0482117 63 120 114
0.0887904 -0.147586 -0.0492617 64 79 82
0.0927685 -0.14931 -0.0400895 21 55 61
0.0922284 -0.149072 -0.0410397 20 62 67
0.0913513 -0.149251 -0.0419056 27 89 91
0.0908123 -0.149014 -0.0428539 37 101 103
0.0902732 -0.148777 -0.0438023 42 104 107
0.0897341 -0.14854 -0.0447508 41 102 106
0.0891949 -0.148304 -0.0456993 34 99 102
0.0888213 -0.147858 -0.0466949 37 100 105
0.0886125 -0.147201 -0.0477407 52 114 114
0.0884029 -0.146541 -0.0487908 58 97 104
0.0923864 -0.148269 -0.0396095 26 59 61
0.0918457 -0.148032 -0.0405607 21 54 63
0.0911365 -0.148003 -0.0414702 23 84 85
0.0902616 -0.148184 -0.0423353 32 99 102
0.0897225 -0.147947 -0.0432838 42 104 107
0.0891833 -0.14771 -0.0442324 41 101 107
0.0888096 -0.147264 -0.0452264 38 101 106
0.0884351 -0.146816 -0.0462225 35 100 103
0.0882253 -0.146157 -0.0472685 45 109 114
0.0881804 -0.145281 -0.0483678 58 110 118
0.0921731 -0.147016 -0.0391677 30 60 61
0.0914621 -0.146988 -0.0400806 17 51 64
0.0907525 -0.146961 -0.0409916 19 82 79
0.0900443 -0.146934 -0.0419008 29 98 99
0.089504 -0.146697 -0.0428513 40 103 108
0.0889637 -0.146459 -0.0438018 42 101 107
0.0884233 -0.146222 -0.0447524 41 101 107
0.088048 -0.145773 -0.0457491 34 99 103
0.0880027 -0.144897 -0.0468426 42 104 112
0.087957 -0.144016 -0.0479429 62 117 118
0.0916195 -0.146181 -0.0386461 40 61 59
0.0910776 -0.145943 -0.0395994 15 50 63
0.0903676 -0.145917 -0.0405119 18 78 73
0.0896591 -0.145891 -0.0414226 28 95 95
0.0891182 -0.145653 -0.0423741 37 103 106
0.0885772 -0.145416 -0.0433257 40 102 108
0.0880362 -0.145178 -0.0442773 42 101 108
0.0878252 -0.144514 -0.0453204 36 98 103
0.087779 -0.143632 -0.0464149 40 102 108
0.0875663 -0.142962 -0.0474679 64 123 114
0.0871868 -0.142505 -0.048476 62 66 67
0.0908609 -0.144682 -0.0391566 19 51 58
0.0899819 -0.144871 -0.0400311 20 68 68
0.0892729 -0.144845 -0.0409433 29 90 93
0.0887314 -0.144607 -0.0418959 36 102 105
0.0883555 -0.144156 -0.0428917 40 104 110
0.0878133 -0.143917 -0.0438454 42 101 108
0.087767 -0.143034 -0.0449353 38 100 102
0.0875543 -0.142362 -0.0459853 40 100 106
0.0871748 -0.141905 -0.0469919 59 121 114
0.0867944 -0.141447 -0.0480006 60 81 86
0.0865786 -0.140769 -0.0490615 65 61 48
0.0908124 -0.1432 -0.0387511 25 54 59
0.0900989 -0.143176 -0.0396693 21 58 65
0.0890525 -0.143583 -0.0405038 28 87 89
0.0885098 -0.143344 -0.0414584 34 100 105
0.0884656 -0.142458 -0.0425419 40 104 109
0.0880874 -0.142002 -0.0435438 43 103 107
0.0875423 -0.141762 -0.0445025 38 101 103
0.0871628 -0.141305 -0.0455075 39 99 106
0.0867823 -0.140846 -0.0465147 50 114 114
0.0864011 -0.140387 -0.047524 60 98 108
0.0861842 -0.139706 -0.0485851 67 62 53
0.0904246 -0.142143 -0.0382652 30 57 61
0.0897106 -0.142121 -0.039185 19 56 62
0.0891656 -0.141881 -0.0401436 24 84 82
0.0886206 -0.141642 -0.0411022 35 98 101
0.0882422 -0.141184 -0.0421035 39 102 107
0.0876965 -0.140944 -0.0430632 41 104 107
0.0873166 -0.140485 -0.0440678 41 101 107
0.0867703 -0.140245 -0.0450287 36 100 105
0.086389 -0.139785 -0.0460365 45 109 114
0.0861721 -0.139103 -0.0470944 63 110 117
0.0857889 -0.13864 -0.0481077 67 61 56
0.0898671 -0.141303 -0.0377401 41 59 57
0.0893215 -0.141064 -0.0386996 17 53 61
0.0887759 -0.140824 -0.0396592 20 80 74
0.0882302 -0.140584 -0.0406189 35 97 95
0.0878509 -0.140124 -0.0416209 39 101 105
0.0873046 -0.139884 -0.0425816 40 103 108
0.0867582 -0.139644 -0.0435425 41 102 107
0.0863769 -0.139183 -0.0445487 35 99 106
0.0859947 -0.138721 -0.0455571 42 105 114
0.0856117 -0.138259 -0.0465677 63 117 117
0.0852278 -0.137795 -0.0475804 66 62 55
0.0896462 -0.140024 -0.0372903 50 60 55
0.0890994 -0.139784 -0.0382519 17 51 63
0.0885525 -0.139543 -0.0392136 19 73 70
0.0880057 -0.139303 -0.0401753 31 94 92
0.0874587 -0.139062 -0.0411371 40 100 103
0.0869117 -0.138822 -0.0420989 41 104 108
0.0863647 -0.138581 -0.0430609 41 103 105
0.0859825 -0.138119 -0.0440677 36 100 105
0.0855995 -0.137655 -0.0450767 41 103 112
0.0852156 -0.137191 -0.0460879 67 123 115
0.0848309 -0.136726 -0.0471013 66 68 69
0.0887082 -0.13872 -0.0377638 22 53 61
0.0881607 -0.138479 -0.0387266 24 65 65
0.0876132 -0.138239 -0.0396893 28 88 88
0.0870656 -0.137998 -0.0406522 35 99 103
0.086518 -0.137757 -0.0416151 39 106 110
0.0859704 -0.137516 -0.0425781 40 103 106
0.0855873 -0.137052 -0.0435856 35 100 104
0.0852034 -0.136587 -0.0445952 40 102 108
0.0846545 -0.136346 -0.0455604 59 119 114
0.084433 -0.135654 -0.046621 61 78 91
0.0883161 -0.137654 -0.0372747 33 60 59
0.087768 -0.137413 -0.0382385 27 57 59
0.0872198 -0.137172 -0.0392023 25 85 85
0.0866716 -0.136931 -0.0401662 35 98 100
0.0861233 -0.13669 -0.0411302 41 103 108
0.0855751 -0.136449 -0.0420943 40 100 107
0.0851911 -0.135983 -0.0431024 37 99 106
0.0846422 -0.135742 -0.0440675 39 100 106
0.0844207 -0.135049 -0.045125 50 116 115
0.0841982 -0.134353 -0.046187 56 98 115
0.0839747 -0.133654 -0.0472535 75 64 49
0.0879231 -0.136586 -0.0367844 37 60 56
0.0873743 -0.136345 -0.0377493 17 50 63
0.0868255 -0.136103 -0.0387142 18 81 82
0.0862767 -0.135862 -0.0396792 32 97 98
0.0857278 -0.135621 -0.0406442 41 102 105
0.0851789 -0.135379 -0.0416093 41 102 108
0.0846299 -0.135138 -0.0425745 34 98 107
0.0844084 -0.134443 -0.0436289 35 99 106
0.0840218 -0.133974 -0.0446419 42 109 115
0.0839623 -0.133046 -0.0457511 57 111 120
0.0839024 -0.132112 -0.0468673 67 64 58
0.0875292 -0.135515 -0.036293 49 64 55
0.0869798 -0.135274 -0.0372589 19 48 62
0.0864303 -0.135032 -0.0382249 15 76 75
0.0857156 -0.135017 -0.0391511 27 94 97
0.0851666 -0.134775 -0.0401162 37 104 104
0.0847818 -0.134307 -0.0411233 40 102 106
0.084396 -0.133838 -0.0421326 40 99 105
0.0840094 -0.133368 -0.0431441 37 98 104
0.0837858 -0.132668 -0.0442031 41 106 112
0.0837253 -0.131733 -0.0453132 56 115 116
0.0834998 -0.131026 -0.0463825 68 64 61
0.0873013 -0.134215 -0.035837 49 63 52
0.0867508 -0.133973 -0.036805 22 52 60
0.0862001 -0.133731 -0.0377731 21 67 68
0.0854841 -0.133717 -0.0387017 30 92 92
0.0849339 -0.133475 -0.0396689 39 102 104
0.0843837 -0.133233 -0.0406362 40 102 109
0.083997 -0.132762 -0.0416461 41 102 105
0.0837733 -0.13206 -0.0427019 35 98 103
0.0833848 -0.131587 -0.0437173 39 103 111
0.083323 -0.130648 -0.0448271 63 124 115
0.0830963 -0.129937 -0.0458966 63 72 72
0.0865207 -0.132667 -0.0363491 30 54 59
0.0858028 -0.132654 -0.0372811 25 58 62
0.0850863 -0.13264 -0.0382113 28 84 86
0.0845355 -0.132398 -0.0391796 35 99 104
0.0841487 -0.131926 -0.040189 40 102 109
0.0837609 -0.131453 -0.0412006 38 102 105
0.0833724 -0.130979 -0.0422144 34 100 104
0.0833104 -0.130038 -0.0433195 39 100 109
0.0829197 -0.12956 -0.04434 54 117 116
0.0826918 -0.128847 -0.0454096 60 87 96
0.0867918 -0.130658 -0.0360018 28 58 57
0.0860698 -0.130647 -0.0369391 20 56 60
0.0850178 -0.1311 -0.037797 25 80 81
0.0844652 -0.130857 -0.0387684 36 98 101
0.0839125 -0.130614 -0.0397399 40 103 111
0.0836878 -0.129905 -0.0407951 36 102 107
0.0834622 -0.129194 -0.0418549 33 101 105
0.0829071 -0.128949 -0.0428306 37 98 107
0.0826792 -0.128234 -0.043897 47 114 118
0.0822864 -0.127753 -0.0449214 58 102 116
0.0818927 -0.127271 -0.0459481 68 65 58
0.08656 -0.129335 -0.0355406 37 62 56
0.0849487 -0.129549 -0.0373801 20 78 75
0.0843943 -0.129305 -0.0383546 33 96 97
0.0840047 -0.128827 -0.0393697 41 103 109
0.0836142 -0.128347 -0.0403869 39 103 107
0.0830585 -0.128103 -0.0413637 35 100 104
0.0826665 -0.127622 -0.0423843 38 98 105
0.0822737 -0.12714 -0.0434071 42 108 115
0.08188 -0.126658 -0.0444322 56 110 120
0.0814854 -0.126174 -0.0454595 67 67 63
0.084713 -0.128225 -0.0369223 20 72 70
0.0841573 -0.12798 -0.037899 33 92 95
0.0836017 -0.127736 -0.0388757 40 101 107
0.0832102 -0.127255 -0.0398936 39 104 109
0.0826539 -0.12701 -0.0408715 37 100 107
0.082261 -0.126527 -0.0418927 39 98 104
0.0818672 -0.126044 -0.0429161 40 106 112
0.0814727 -0.125559 -0.0439418 61 119 117
0.0809144 -0.125314 -0.0449231 65 68 68
0.0844761 -0.126895 -0.0364625 26 64 65
0.0839192 -0.12665 -0.0374413 32 88 92
0.0831976 -0.126642 -0.0383805 38 101 106
0.0826412 -0.126398 -0.0393584 40 104 107
0.0822483 -0.125914 -0.040378 39 101 107
0.0818546 -0.12543 -0.0413999 37 98 105
0.0812969 -0.125185 -0.04238 39 103 110
0.0809016 -0.124699 -0.0434052 60 122 114
0.0805054 -0.124213 -0.0444327 61 77 79
0.0842382 -0.125559 -0.0360007 26 55 62
0.0835147 -0.125553 -0.0369435 29 84 86
0.0827927 -0.125546 -0.0378843 37 100 104
0.0822357 -0.125301 -0.0388633 40 104 107
0.0818418 -0.124816 -0.0398835 40 101 106
0.0812841 -0.124571 -0.0408636 36 99 105
0.0808888 -0.124085 -0.0418872 38 100 108
0.0804926 -0.123597 -0.042913 53 117 114
0.0799336 -0.123351 -0.0438955 56 91 98
0.0795358 -0.122863 -0.0449247 64 65 53
0.0838331 -0.124458 -0.0355002 21 49 60
0.0831092 -0.124453 -0.0364445 24 81 80
0.0823868 -0.124448 -0.0373869 37 96 101
0.0818291 -0.124203 -0.038367 40 103 107
0.0812713 -0.123957 -0.0393471 41 101 106
0.080876 -0.12347 -0.0403691 39 100 105
0.0804797 -0.122982 -0.0413933 37 100 105
0.0799207 -0.122736 -0.0423757 45 112 114
0.0795229 -0.122247 -0.0434033 54 105 114
0.0789632 -0.122 -0.0443869 65 66 57
0.0832616 -0.123597 -0.0349623 18 49 60
0.0827028 -0.123351 -0.0359444 18 76 74
0.0819799 -0.123347 -0.0368883 33 92 97
0.0814216 -0.123101 -0.0378695 40 102 106
0.0808631 -0.122855 -0.0388508 41 101 107
0.0804669 -0.122367 -0.0398734 39 100 104
0.0799078 -0.122121 -0.0408558 37 99 104
0.0793487 -0.121875 -0.0418383 41 108 113
0.0789503 -0.121384 -0.0428653 54 113 118
0.0785509 -0.120893 -0.0438946 66 69 65
0.0828549 -0.122493 -0.0344599 19 51 59
0.0821311 -0.12249 -0.0354064 18 68 68
0.0815721 -0.122244 -0.0363887 30 90 93
0.0810131 -0.121998 -0.0373709 41 101 103
0.0804541 -0.121751 -0.0383533 40 102 107
0.0798949 -0.121505 -0.0393357 39 100 104
0.0793358 -0.121259 -0.0403182 38 99 104
0.0789373 -0.120768 -0.0413436 39 106 111
0.0785379 -0.120276 -0.0423713 56 117 115
0.0781377 -0.119783 -0.0434013 66 73 73
0.0824471 -0.121386 -0.0339563 22 55 57
0.0817229 -0.121384 -0.0349045 26 58 64
0.0810002 -0.121382 -0.0358507 29 86 86
0.0804412 -0.121136 -0.036833 42 100 102
0.079882 -0.12089 -0.0378155 41 103 107
0.0793228 -0.120644 -0.0387979 41 101 106
0.0789243 -0.120152 -0.0398218 38 99 105
0.0785249 -0.119659 -0.0408479 39 103 108
0.0782852 -0.118918 -0.0419198 59 121 112
0.0778837 -0.118422 -0.0429515 64 83 79
0.0820384 -0.120277 -0.0334516 30 60 55
0.0813138 -0.120276 -0.0344013 27 51 60
0.0807536 -0.120029 -0.0353858 24 81 79
0.0801932 -0.119783 -0.0363703 40 98 101
0.0796328 -0.119536 -0.0373549 40 102 108
0.0790724 -0.119289 -0.0383395 41 103 107
0.0786726 -0.118795 -0.0393651 38 98 106
0.0782721 -0.1183 -0.0403929 40 100 106
0.0778706 -0.117803 -0.041423 53 114 110
0.0777892 -0.116805 -0.0425442 61 96 98
0.0773854 -0.116305 -0.0435812 66 68 61
0.0817932 -0.118917 -0.0329798 35 63 53
0.0810672 -0.118918 -0.0339322 17 48 62
0.0805057 -0.118671 -0.0349188 19 77 76
0.0797818 -0.118671 -0.0358682 35 97 100
0.0792207 -0.118424 -0.0368539 40 102 108
0.0786597 -0.118177 -0.0378397 38 100 108
0.078259 -0.117681 -0.0388659 36 100 106
0.0778574 -0.117184 -0.0398944 40 98 105
0.077776 -0.116184 -0.0410107 45 110 111
0.0773721 -0.115683 -0.042046 58 109 116
0.0771279 -0.114927 -0.0431288 67 68 60
0.0818768 -0.117051 -0.0325737 45 62 49
0.0813122 -0.116802 -0.0335655 16 50 60
0.0802567 -0.117306 -0.0344497 9 74 73
0.0795314 -0.117308 -0.0354017 28 93 97
0.0788077 -0.11731 -0.0363518 39 100 108
0.078246 -0.117063 -0.0373387 42 103 106
0.0778444 -0.116565 -0.0383655 40 101 104
0.0777628 -0.115563 -0.0394769 38 99 103
0.0775197 -0.114808 -0.040553 42 106 111
0.0771146 -0.114304 -0.0415901 55 113 118
0.0767086 -0.1138 -0.0426295 63 73 65
0.0819611 -0.115168 -0.0321639 53 58 46
0.0812286 -0.115172 -0.0331255 21 53 57
0.0803336 -0.11543 -0.0340495 21 64 65
0.0796051 -0.115434 -0.035006 29 87 91
0.0785548 -0.115943 -0.0358858 40 100 105
0.0779918 -0.115695 -0.0368749 42 103 105
0.077589 -0.115194 -0.0379035 40 101 105
0.0775065 -0.114185 -0.0390159 37 99 103
0.0771013 -0.113681 -0.0400513 41 103 108
0.0766953 -0.113176 -0.0410891 61 119 114
0.0762884 -0.11267 -0.0421291 68 78 77
0.0758805 -0.112162 -0.0431714 64 60 57
0.0818792 -0.113526 -0.0317172 58 59 52
0.0809789 -0.113788 -0.0326482 27 55 60
0.0800824 -0.114049 -0.0335753 25 55 62
0.0791897 -0.11431 -0.0344985 24 82 86
0.0784624 -0.114315 -0.0354547 36 100 103
0.0778975 -0.114066 -0.036447 40 103 107
0.0774932 -0.113562 -0.0374785 38 101 106
0.0772488 -0.112801 -0.0385527 36 99 103
0.0768425 -0.112295 -0.03959 40 101 107
0.0764352 -0.111787 -0.0406295 59 119 113
0.0760271 -0.111278 -0.0416714 65 85 86
0.0754583 -0.111027 -0.0426705 65 63 62
0.0814632 -0.11239 -0.031202 58 60 56
0.080728 -0.112398 -0.0321689 34 55 59
0.0795026 -0.113176 -0.0330299 24 47 60
0.0787733 -0.113182 -0.0339897 21 77 78
0.0780455 -0.113189 -0.0349476 32 98 98
0.077641 -0.112684 -0.0359786 39 104 107
0.0772355 -0.112177 -0.0370119 38 103 106
0.0768291 -0.11167 -0.0380475 36 99 104
0.0762617 -0.11142 -0.0390443 38 100 106
0.0758537 -0.110911 -0.0400833 53 115 112
0.0756045 -0.110141 -0.041168 59 95 101
0.0750351 -0.10989 -0.0421683 63 65 65
0.079981 -0.111779 -0.0315878 50 60 53
0.0790856 -0.112045 -0.0325183 22 47 59
0.0783559 -0.112053 -0.0334798 19 73 72
0.0776277 -0.11206 -0.0344393 30 94 95
0.0772222 -0.111553 -0.035471 39 101 106
0.0766554 -0.111304 -0.0364666 40 102 106
0.0762483 -0.110795 -0.0375017 38 101 104
0.0758403 -0.110286 -0.0385391 35 100 106
0.0754314 -0.109775 -0.0395787 45 111 113
0.0750216 -0.109263 -0.0406207 55 106 114
0.0744521 -0.109012 -0.0416211 64 72 69
0.0795632 -0.110643 -0.0310728 57 64 47
0.0786676 -0.110911 -0.0320055 20 52 58
0.0779375 -0.11092 -0.0329687 19 69 68
0.0772089 -0.110929 -0.0339298 30 90 90
0.076642 -0.110679 -0.0349255 40 99 104
0.0762349 -0.11017 -0.0359589 39 102 107
0.0758269 -0.10966 -0.0369946 38 101 104
0.0752586 -0.10941 -0.0379927 34 100 104
0.074849 -0.108898 -0.0390318 39 106 112
0.0744385 -0.108385 -0.0400733 54 110 118
0.0738689 -0.108134 -0.0410737 65 75 71
0.0789807 -0.109765 -0.0305247 55 63 48
0.0782486 -0.109775 -0.0314915 21 56 56
0.0775181 -0.109785 -0.0324563 24 60 62
0.0767891 -0.109795 -0.0334191 31 85 86
0.0762215 -0.109545 -0.034416 38 98 102
0.0756539 -0.109295 -0.0354129 38 102 107
0.0752451 -0.108784 -0.036448 38 101 104
0.0748355 -0.108272 -0.0374855 35 99 103
0.0742666 -0.108021 -0.0384848 38 102 110
0.0738553 -0.107507 -0.0395257 54 112 116
0.0732856 -0.107256 -0.0405262 63 76 75
0.0785611 -0.108625 -0.0300079 57 60 49
0.0778286 -0.108637 -0.0309763 29 59 54
0.0769366 -0.108909 -0.0319094 28 53 58
0.0763684 -0.108659 -0.0329073 29 80 81
0.0758001 -0.108408 -0.0339053 34 96 100
0.0752317 -0.108158 -0.0349033 40 103 106
0.074822 -0.107645 -0.0359391 41 102 104
0.074253 -0.107394 -0.0369383 36 100 102
0.0738418 -0.10688 -0.0379776 37 101 108
0.073272 -0.106629 -0.0389781 55 117 114
0.0727023 -0.106378 -0.0399786 63 87 87
0.0781405 -0.107483 -0.0294898 58 56 46
0.0772458 -0.107759 -0.0304281 40 59 52
0.0766763 -0.107508 -0.0314281 23 54 59
0.0757866 -0.107783 -0.0323603 21 77 75
0.0752183 -0.107532 -0.0333584 29 94 96
0.0748085 -0.107018 -0.0343925 40 103 106
0.0742395 -0.106768 -0.0353918 41 101 107
0.0738282 -0.106252 -0.0364293 36 101 104
0.0732585 -0.106001 -0.0374298 35 102 105
0.0726886 -0.10575 -0.0384303 47 111 111
0.0722751 -0.105233 -0.0394726 57 95 101
0.0718607 -0.104715 -0.0405171 63 66 67
0.0769856 -0.106351 -0.0299423 45 58 44
0.0760933 -0.106629 -0.0308798 17 50 63
0.0755237 -0.106378 -0.03188 16 73 72
0.074795 -0.106392 -0.0328458 26 91 94
0.074226 -0.106141 -0.033845 38 99 105
0.0738146 -0.105625 -0.0348809 38 101 109
0.0732448 -0.105374 -0.0358814 36 100 105
0.072675 -0.105123 -0.0368819 37 100 102
0.0721052 -0.104872 -0.0378825 44 109 110
0.0718469 -0.104087 -0.0389653 53 106 115
0.0712757 -0.103835 -0.0399682 60 76 73
0.0758305 -0.105219 -0.030395 22 54 60
0.0749405 -0.1055 -0.0313316 18 61 69
0.0743708 -0.105249 -0.0323319 25 88 91
0.0738011 -0.104998 -0.0333323 34 99 102
0.0732313 -0.104746 -0.0343328 38 101 105
0.0726614 -0.104495 -0.0353333 36 100 104
0.0720915 -0.104244 -0.0363339 38 98 103
0.0716772 -0.103726 -0.0373739 42 104 110
0.071262 -0.103206 -0.0384163 52 112 117
0.0708458 -0.102685 -0.0394609 62 80 75
0.075406 -0.104071 -0.0298767 26 58 57
0.074675 -0.104087 -0.0308478 23 54 65
0.0737875 -0.10437 -0.0317836 23 81 84
0.0732177 -0.104119 -0.032784 33 98 101
0.0726478 -0.103868 -0.0337846 39 103 106
0.0720778 -0.103617 -0.0347852 40 100 104
0.0716635 -0.103097 -0.0358235 37 97 104
0.0712483 -0.102577 -0.0368641 39 101 109
0.0708321 -0.102055 -0.0379071 54 113 115
0.07057 -0.101261 -0.0389937 64 80 79
0.0744082 -0.102668 -0.0303618 24 53 62
0.0735193 -0.102955 -0.0313007 21 78 79
0.0726341 -0.10324 -0.0322357 32 95 98
0.0720642 -0.102989 -0.0332363 39 102 105
0.0716498 -0.102469 -0.0342729 41 100 104
0.0712345 -0.101948 -0.0353119 38 97 102
0.0708182 -0.101425 -0.0363532 38 100 107
0.0705561 -0.10063 -0.0374364 55 116 113
0.0702929 -0.0998312 -0.0385243 63 89 88
0.070184 -0.0987535 -0.0396593 62 57 53
0.0741402 -0.101243 -0.0298736 23 52 61
0.0732498 -0.101533 -0.0308157 18 74 76
0.0723633 -0.101822 -0.0317537 31 92 95
0.071792 -0.10157 -0.0327566 39 100 104
0.0712208 -0.101319 -0.0337595 39 102 105
0.0708044 -0.100795 -0.0347991 37 99 103
0.0703872 -0.100271 -0.035841 36 100 105
0.0701239 -0.0994726 -0.0369243 50 113 110
0.07017 -0.0981187 -0.0380934 57 98 99
0.0697487 -0.0975876 -0.039147 60 66 64
0.0740304 -0.0995375 -0.0294142 23 53 59
0.0729791 -0.100106 -0.0303284 18 70 71
0.0720911 -0.100398 -0.0312696 32 89 92
0.0713626 -0.100418 -0.0322407 39 99 103
0.0707907 -0.100166 -0.0332448 38 103 106
0.0703734 -0.0996406 -0.034285 36 100 105
0.0701099 -0.0988405 -0.035365 35 98 104
0.0700005 -0.0977606 -0.0364884 42 107 108
0.0697347 -0.096952 -0.0375792 52 105 110
0.0694677 -0.0961398 -0.0386748 60 75 76
0.0737599 -0.0980974 -0.0289211 27 54 57
0.0728654 -0.0983958 -0.0298705 22 65 66
0.0718177 -0.0989675 -0.0307833 31 85 88
0.0710879 -0.0989887 -0.0317571 36 97 103
0.0705145 -0.098736 -0.0327634 37 101 107
0.070096 -0.0982083 -0.0338055 38 99 106
0.0699865 -0.0971264 -0.0349238 37 97 104
0.0695654 -0.0965947 -0.0359729 39 103 108
0.0692984 -0.0957825 -0.0370638 49 109 116
0.0690301 -0.0949668 -0.0381596 62 82 85
0.0725921 -0.096953 -0.0293783 26 59 62
0.0718574 -0.0969765 -0.0303589 27 79 82
0.0708118 -0.0975534 -0.0312713 34 96 101
0.0702372 -0.0973 -0.0322799 37 101 107
0.0699725 -0.0964921 -0.0333591 37 100 107
0.0695514 -0.0959596 -0.0344064 35 98 104
0.0691294 -0.095426 -0.0354562 37 101 107
0.0688609 -0.0946104 -0.0365472 48 108 113
0.0685913 -0.0937912 -0.0376431 61 88 91
0.0721592 -0.0957836 -0.0288533 24 54 54
0.0714241 -0.0958084 -0.0298356 21 75 73
0.0706905 -0.0958331 -0.0308159 29 94 95
0.070114 -0.0955788 -0.0318279 37 102 106
0.0696925 -0.0950448 -0.0328747 40 101 106
0.0691153 -0.0947902 -0.0338878 36 98 103
0.0686922 -0.0942547 -0.0349382 34 99 106
0.0682682 -0.0937179 -0.035991 51 112 112
0.0679972 -0.0928967 -0.0370857 65 95 92
0.067571 -0.0923567 -0.0381445 63 54 55
0.0718833 -0.0943301 -0.0283571 23 51 56
0.0711468 -0.0943564 -0.0293422 20 72 70
0.0704119 -0.0943827 -0.0303252 30 91 91
0.069834 -0.0941278 -0.0313394 39 100 105
0.0692561 -0.0938729 -0.0323537 40 101 108
0.0686781 -0.093618 -0.033368 38 99 106
0.068254 -0.0930806 -0.034419 37 98 105
