ply
format ascii 1.0
element vertex 1227
property float x
property float y
property float z
property uchar diffuse_red
property uchar diffuse_green
property uchar diffuse_blue
end_header
-0.0569622 -0.218153 0.0999995 241 30 13
-0.0567919 -0.218337 0.0989499 251 48 34
-0.0567785 -0.218518 0.0979736 220 67 56
-0.0559728 -0.218726 0.0965961 144 77 66
-0.0507178 -0.21909 0.0929508 100 80 68
-0.0501866 -0.219297 0.0916686 93 76 67
-0.0620556 -0.212055 0.130046 255 87 62
-0.062758 -0.212213 0.129433 255 80 61
-0.0633171 -0.21237 0.128773 255 64 49
-0.0637348 -0.212527 0.128066 255 46 36
-0.0642912 -0.212683 0.12741 255 36 17
-0.0648459 -0.212838 0.126756 255 31 7
-0.0655368 -0.212993 0.126154 249 28 10
-0.0662246 -0.213147 0.125555 241 30 9
-0.0666367 -0.213302 0.124856 234 28 7
-0.0671842 -0.213455 0.12421 229 28 6
-0.0678652 -0.213607 0.123618 226 26 7
-0.0682743 -0.213761 0.122924 220 27 9
-0.0693515 -0.213908 0.122495 217 28 13
-0.0561152 -0.216793 0.102279 210 29 6
-0.0564159 -0.216963 0.10146 214 28 3
-0.0568735 -0.217129 0.100717 223 27 4
-0.0570173 -0.217303 0.0998227 233 28 10
-0.0570042 -0.217481 0.0988493 245 39 26
-0.0569912 -0.21766 0.0978727 233 61 48
-0.0565041 -0.217854 0.0966543 169 74 65
-0.0506013 -0.218213 0.0926752 107 77 68
-0.0500688 -0.218416 0.0913895 92 79 68
-0.0619727 -0.211105 0.130714 255 70 55
-0.0625343 -0.211264 0.130051 255 57 44
-0.0630942 -0.211422 0.12939 255 44 30
-0.0635124 -0.21158 0.128682 255 35 15
-0.0639299 -0.211737 0.127975 254 29 10
-0.0644861 -0.211894 0.127319 246 29 5
-0.0651788 -0.212051 0.126715 236 28 6
-0.0658685 -0.212207 0.126114 230 27 9
-0.0664184 -0.212363 0.125465 228 29 8
-0.0668304 -0.212518 0.124766 222 29 10
-0.0671057 -0.212674 0.124016 218 28 7
-0.0558538 -0.215948 0.101954 207 28 9
-0.0566278 -0.216108 0.10136 211 27 5
-0.0569285 -0.216278 0.100541 218 29 3
-0.0570725 -0.216452 0.0996456 228 31 6
-0.0572167 -0.216625 0.0987487 240 36 16
-0.057204 -0.216803 0.0977719 242 54 39
-0.0568759 -0.216989 0.0966327 193 68 59
-0.050822 -0.217324 0.0925705 115 69 65
-0.0502905 -0.217523 0.0912842 87 74 70
-0.0598901 -0.209976 0.131579 255 66 51
-0.0614632 -0.210149 0.131241 255 58 40
-0.0621686 -0.210311 0.130623 255 42 26
-0.06273 -0.210471 0.12996 254 34 16
-0.0632896 -0.210631 0.129299 250 30 12
-0.0637076 -0.210789 0.128591 242 30 7
-0.0642646 -0.210948 0.127934 235 30 7
-0.0650968 -0.211108 0.127377 229 27 8
-0.0657866 -0.211266 0.126775 222 29 9
-0.0660626 -0.211422 0.126023 218 30 9
-0.0560662 -0.215091 0.101854 205 27 7
-0.0566827 -0.215256 0.101184 208 28 4
-0.0569837 -0.215426 0.100365 213 27 5
-0.0571278 -0.215599 0.0994683 221 29 7
-0.0572722 -0.215772 0.0985704 233 33 16
-0.0574168 -0.215945 0.097671 245 52 39
-0.0570894 -0.216128 0.0965314 205 71 57
-0.0558034 -0.216333 0.094896 124 71 63
-0.0505121 -0.21663 0.091179 90 71 69
-0.0598065 -0.209016 0.132254 255 57 38
-0.0609513 -0.209189 0.13177 255 41 22
-0.0618018 -0.209356 0.131197 254 32 12
-0.0623646 -0.209517 0.130532 247 31 12
-0.0629257 -0.209679 0.129869 240 30 9
-0.0636252 -0.209841 0.129257 233 28 7
-0.063903 -0.209998 0.1285 228 28 5
-0.0643203 -0.210157 0.127793 224 25 6
-0.0647371 -0.210315 0.127087 220 29 8
-0.0655678 -0.210477 0.126534 214 31 10
-0.0565803 -0.214404 0.100932 204 28 7
-0.0568818 -0.214574 0.100111 209 27 4
-0.0571833 -0.214744 0.0992906 216 27 3
-0.0571706 -0.214919 0.0983137 228 30 8
-0.0568421 -0.215099 0.0971753 244 43 25
-0.0571452 -0.21527 0.0963502 215 64 47
-0.0561787 -0.215463 0.0948756 136 72 60
-0.0510717 -0.215731 0.0912483 95 68 65
-0.0591415 -0.208043 0.132743 255 44 25
-0.0600042 -0.208215 0.132162 253 36 11
-0.0611482 -0.208391 0.131679 246 31 8
-0.0619982 -0.208561 0.131106 238 28 6
-0.0625606 -0.208724 0.130441 232 27 6
-0.0631214 -0.208886 0.129778 226 27 8
-0.0635403 -0.209046 0.129069 219 28 8
-0.0640984 -0.209208 0.128409 213 29 7
-0.0564775 -0.213549 0.10068 202 30 7
-0.0567796 -0.213719 0.0998575 206 29 4
-0.0570816 -0.21389 0.0990352 212 29 4
-0.0570688 -0.214063 0.0980562 223 29 8
-0.0570559 -0.214237 0.0970739 240 38 20
-0.0562486 -0.214421 0.0956852 222 58 42
-0.0590576 -0.20708 0.133419 253 34 14
-0.0596307 -0.207247 0.132744 245 31 10
-0.0602019 -0.207413 0.13207 237 29 6
-0.0606275 -0.207576 0.131351 229 28 7
-0.0616253 -0.207752 0.130825 222 26 6
-0.0624738 -0.207923 0.130254 219 26 5
-0.0555798 -0.212693 0.100042 202 28 5
-0.0565189 -0.212862 0.0995255 206 28 6
-0.0568217 -0.213033 0.098701 211 28 6
-0.0569666 -0.213205 0.0977978 218 28 9
-0.0569536 -0.213378 0.0968134 234 35 17
-0.0564636 -0.213554 0.0955832 230 53 37
-0.0586814 -0.206107 0.134005 249 32 12
-0.059256 -0.206276 0.133327 240 28 8
-0.0598287 -0.206444 0.132652 229 28 7
-0.0601106 -0.206603 0.131884 222 28 7
-0.0554746 -0.211828 0.0997865 199 29 5
-0.0560979 -0.212 0.0991139 200 29 7
-0.056719 -0.212172 0.0984435 205 29 7
-0.0568642 -0.212343 0.0975385 214 29 10
-0.0570095 -0.212515 0.096632 230 34 16
-0.0566787 -0.212688 0.0954811 235 53 36
-0.0580209 -0.204972 0.135363 245 44 28
-0.058304 -0.205131 0.134592 240 29 6
-0.0588801 -0.205302 0.133913 231 27 6
-0.0594543 -0.205472 0.133235 224 27 5
-0.0597367 -0.205631 0.132467 216 29 9
-0.0552088 -0.210959 0.0994518 197 31 6
-0.0559937 -0.211134 0.0988563 200 30 6
-0.0566161 -0.211307 0.0981852 205 27 6
-0.05692 -0.211479 0.0973578 213 26 7
-0.0570656 -0.21165 0.0964503 226 31 15
-0.0568939 -0.211821 0.0953791 237 50 35
-0.0490339 -0.212342 0.088269 92 78 64
-0.0579366 -0.204005 0.136042 238 31 10
-0.0582198 -0.204165 0.135271 230 29 11
-0.058503 -0.204325 0.1345 223 26 6
-0.0592247 -0.204502 0.133866 214 26 4
-0.0595073 -0.204662 0.133097 209 29 4
-0.0558892 -0.210265 0.0985979 199 30 8
-0.0565128 -0.21044 0.0979259 204 29 5
-0.0568172 -0.210612 0.0970971 211 26 5
-0.056963 -0.210783 0.0961878 224 29 13
-0.05695 -0.210952 0.0951956 237 45 32
-0.0487387 -0.211432 0.0878875 90 71 66
-0.057705 -0.203031 0.136678 230 30 8
-0.0581355 -0.203198 0.13595 221 29 3
-0.0584188 -0.203358 0.135179 215 27 4
-0.0588484 -0.203525 0.134453 209 27 6
-0.0594233 -0.203698 0.133775 203 28 7
-0.0597059 -0.203857 0.133005 197 31 8
-0.0559445 -0.209395 0.0984173 200 28 6
-0.0564093 -0.20957 0.0976658 201 30 7
-0.0568733 -0.209744 0.0969155 207 29 7
-0.0570193 -0.209914 0.0960052 220 30 11
-0.0571654 -0.210084 0.0950934 234 43 28
-0.0482673 -0.210517 0.0874115 93 70 62
-0.0570288 -0.202032 0.137184 223 29 11
-0.0579041 -0.202224 0.136586 215 28 4
-0.0583345 -0.202391 0.135858 207 29 5
-0.0587643 -0.202559 0.135132 200 30 7
-0.0559999 -0.208524 0.0982365 197 28 7
-0.0564651 -0.208699 0.0974844 200 29 7
-0.0569294 -0.208874 0.0967336 205 27 8
-0.0570756 -0.209044 0.0958223 216 32 13
-0.057222 -0.209214 0.0949095 233 42 24
-0.0479683 -0.209597 0.0870254 96 64 62
-0.0560491 -0.20101 0.137608 215 29 6
-0.0572285 -0.201222 0.137092 205 31 10
-0.0581032 -0.201416 0.136494 194 33 12
-0.0599658 -0.202095 0.133636 120 58 47
0.0731684 -0.196407 0.0827195 169 1 0
-0.0560554 -0.207651 0.0980554 195 30 9
-0.056521 -0.207828 0.0973027 199 28 7
-0.0568265 -0.208 0.096471 204 27 8
-0.0571321 -0.208172 0.0956391 213 29 12
-0.0572787 -0.208341 0.0947253 231 38 19
-0.0574256 -0.208511 0.0938099 212 58 42
-0.0475215 -0.208493 0.0876088 147 66 59
-0.0478441 -0.208675 0.0867307 97 65 65
0.0729462 -0.194518 0.0854975 104 59 50
0.0723999 -0.195043 0.0827071 162 3 1
0.072339 -0.195295 0.0812347 173 0 0
-0.056577 -0.206954 0.0971207 198 29 9
-0.0568828 -0.207126 0.0962882 202 27 9
-0.0571887 -0.207299 0.0954555 212 29 10
-0.0573355 -0.207467 0.0945408 229 36 15
-0.0574826 -0.207636 0.0936244 219 53 38
-0.0475729 -0.207571 0.0874078 157 64 57
-0.0478957 -0.207753 0.0865288 100 66 64
0.0726047 -0.193135 0.085339 94 63 55
0.072119 -0.193409 0.0840169 120 41 39
0.0716333 -0.193683 0.0826947 155 8 3
0.0715715 -0.193932 0.0812241 171 2 0
-0.0558309 -0.206053 0.0965357 197 30 11
-0.0567797 -0.206246 0.0960241 200 28 10
-0.057086 -0.206419 0.09519 209 30 12
-0.0573924 -0.206592 0.0943559 224 36 17
-0.0477712 -0.206825 0.0862325 103 66 63
0.0718389 -0.191778 0.0853233 90 64 58
0.0717774 -0.192025 0.0838582 106 52 49
0.0712916 -0.192299 0.0825359 145 15 9
0.0703836 -0.192599 0.0813616 167 4 0
0.07032 -0.192847 0.0798911 173 4 4
-0.055402 -0.205155 0.096108 196 30 10
-0.0563553 -0.205352 0.095596 199 29 10
-0.0569831 -0.205536 0.0949236 208 30 13
-0.0571302 -0.205704 0.0940051 223 35 18
0.0714977 -0.190396 0.085165 91 65 58
0.0710126 -0.19067 0.0838444 98 64 53
0.070106 -0.190971 0.0826699 132 28 23
0.0692019 -0.191272 0.0814984 161 5 1
0.068718 -0.191545 0.0801811 171 4 5
-0.0559281 -0.204451 0.0951651 198 30 10
-0.0565588 -0.204637 0.094491 208 30 10
-0.0565453 -0.204799 0.0934854 222 34 16
0.0698293 -0.189348 0.0839747 90 69 54
0.0693453 -0.189621 0.0826574 113 45 38
0.0676105 -0.189982 0.0817809 154 9 4
0.0667143 -0.190282 0.0806167 168 5 3
-0.0556605 -0.203551 0.0948141 197 34 13
-0.0562932 -0.20374 0.0941388 206 32 14
-0.0564408 -0.203907 0.0932141 220 34 18
0.0682355 -0.188065 0.0842478 85 71 57
0.0677534 -0.188337 0.0829355 97 57 46
0.0660315 -0.188701 0.0820613 140 24 14
0.0651408 -0.189002 0.0809011 164 10 1
0.0650711 -0.189243 0.0794469 171 17 4
-0.0555543 -0.202655 0.0945446 197 36 18
-0.0561883 -0.202845 0.0938685 204 34 22
-0.056336 -0.203012 0.092942 216 35 22
0.0653524 -0.187128 0.0834985 90 66 54
0.0648734 -0.187398 0.0821947 122 46 34
0.0635797 -0.187732 0.0811832 155 16 6
0.0631019 -0.188001 0.0798827 168 16 6
-0.0556105 -0.201764 0.0943576 198 35 18
-0.056083 -0.201947 0.0935973 203 35 23
-0.0563929 -0.202122 0.0927536 214 35 21
-0.0567029 -0.202297 0.09191 226 49 35
-0.0464245 -0.202098 0.0843478 112 73 62
0.0637925 -0.185867 0.0837704 88 68 59
0.0633153 -0.186136 0.0824715 104 57 51
0.0628381 -0.186404 0.0811726 143 23 15
0.0615546 -0.18674 0.0801676 163 15 8
0.0618837 -0.186942 0.0785746 172 24 9
-0.0553408 -0.200852 0.0940027 198 35 17
-0.0561397 -0.201056 0.0934094 203 35 20
-0.0566118 -0.20124 0.0926498 213 34 17
-0.0569217 -0.201415 0.091806 226 46 31
-0.0463282 -0.200981 0.0851299 173 64 51
-0.046656 -0.201166 0.0842378 110 69 61
0.0622446 -0.184615 0.0840401 87 66 57
0.0617693 -0.184883 0.0827462 95 65 56
0.0608932 -0.185186 0.0815967 123 40 34
0.0596214 -0.185522 0.0805957 156 19 12
0.0591478 -0.185789 0.0793066 170 24 11
-0.0547414 -0.199915 0.0934768 196 35 18
-0.0558715 -0.200142 0.093052 200 36 21
-0.056669 -0.200348 0.092461 211 34 17
-0.0561683 -0.200473 0.0911861 225 45 27
0.0602352 -0.183639 0.0830187 86 70 60
0.0593644 -0.183942 0.0818732 101 57 53
0.0573154 -0.184353 0.0811631 140 28 17
0.0560641 -0.184689 0.080172 163 24 7
0.0555947 -0.184953 0.0788943 170 33 11
-0.0546327 -0.199003 0.0932024 195 36 18
-0.0552743 -0.199202 0.092522 198 36 22
-0.0555867 -0.199378 0.0916717 209 36 21
0.0562827 -0.18286 0.0827147 85 65 57
0.0550388 -0.183198 0.0817233 115 47 33
0.0541857 -0.183498 0.0805939 150 23 10
0.0525698 -0.18387 0.0797555 165 28 10
0.0540211 -0.183952 0.0777576 169 33 17
-0.0545237 -0.198088 0.092927 194 36 17
-0.055002 -0.198277 0.0921599 200 36 18
-0.0553153 -0.198453 0.0913073 208 37 19
0.053638 -0.181757 0.0834023 79 63 58
0.0531727 -0.182019 0.0821358 94 58 46
0.051946 -0.182357 0.0811533 127 33 26
0.049973 -0.182768 0.0804599 156 30 17
0.0495112 -0.183028 0.0792029 166 33 14
0.0501761 -0.183178 0.0775093 169 36 17
-0.0545799 -0.197183 0.0927365 192 33 15
-0.0548936 -0.19736 0.0918824 200 34 14
-0.0552074 -0.197537 0.0910283 208 36 19
0.0501958 -0.180971 0.0829611 83 66 55
0.0493605 -0.18127 0.0818455 99 50 45
0.0477849 -0.181644 0.0810137 139 33 21
0.0465884 -0.181979 0.0800473 160 28 16
0.0443056 -0.182422 0.0795097 166 32 16
0.0438506 -0.182679 0.0782711 165 38 20
-0.0544706 -0.196262 0.0924596 192 31 14
-0.0551153 -0.196466 0.0917773 197 33 13
-0.0552644 -0.19663 0.0908358 206 33 17
0.0471816 -0.180158 0.0823893 87 65 58
0.0456239 -0.180534 0.0815606 117 47 35
0.0440777 -0.180908 0.080738 152 18 14
0.0418273 -0.181355 0.0802 164 18 9
0.0399568 -0.18176 0.0795296 164 33 17
0.038454 -0.182124 0.0787264 165 36 19
0.035239 -0.182665 0.0786248 166 33 16
-0.0546927 -0.195367 0.0923544 192 31 11
-0.055007 -0.195544 0.0914987 196 28 9
-0.0553214 -0.195721 0.0906429 205 31 13
0.0450297 -0.17906 0.0829264 91 66 60
0.0434895 -0.179438 0.0821007 98 60 52
0.0419608 -0.179814 0.081281 129 44 22
0.0400896 -0.180226 0.0806053 157 17 8
0.0385863 -0.180595 0.079798 165 17 7
0.0353701 -0.181151 0.079686 163 24 13
0.0335644 -0.181549 0.07903 165 31 14
0.0331229 -0.181798 0.0778284 164 26 7
-0.0547492 -0.194457 0.0921628 192 31 8
-0.0552291 -0.194649 0.0913934 193 29 7
-0.0555436 -0.194826 0.0905375 203 31 11
0.0413814 -0.178355 0.0826342 84 65 58
0.0402225 -0.178691 0.0816812 98 56 43
0.0387186 -0.179066 0.0808699 134 35 21
0.0375732 -0.179399 0.0799269 160 14 3
0.0347155 -0.179926 0.0796771 164 10 2
0.0329151 -0.180329 0.0790218 163 25 11
0.0324741 -0.180577 0.0778215 161 17 5
0.0216343 -0.182569 0.076927 183 0 0
0.0202715 -0.182911 0.0761732 191 0 0
0.0195362 -0.183184 0.0751523 197 8 0
0.038851 -0.177537 0.0819419 76 63 56
0.0377053 -0.177873 0.0809962 98 45 48
0.0351884 -0.178372 0.0806015 144 19 7
0.0340625 -0.178703 0.0796681 164 0 0
0.0326043 -0.179072 0.0788765 165 7 0
0.0318269 -0.17936 0.0778145 160 9 2
0.0313863 -0.179608 0.0766155 162 7 0
0.0220742 -0.181076 0.0778135 178 0 0
0.0213333 -0.181353 0.0767859 182 0 0
0.0199716 -0.181699 0.0760325 189 0 0
0.0192366 -0.181974 0.0750116 196 8 0
0.0188118 -0.182213 0.0738553 199 8 0
0.0353195 -0.176858 0.0816631 83 64 56
0.0341932 -0.177192 0.0807271 118 44 23
0.0327345 -0.177567 0.0799316 154 4 3
0.0316212 -0.177897 0.0790052 163 1 0
0.0305131 -0.178227 0.0780832 159 12 0
0.0284206 -0.178674 0.0775789 163 5 0
0.0228309 -0.179542 0.0785688 171 0 0
0.0217729 -0.179859 0.0776723 178 0 0
0.0210323 -0.180136 0.0766448 182 0 0
0.0199822 -0.18045 0.0757559 186 0 0
0.0189369 -0.180763 0.074871 190 14 0
0.0185121 -0.181002 0.0737146 194 9 0
0.0180871 -0.181241 0.0725581 173 7 0
0.0336443 -0.175769 0.082054 78 60 50
0.0328647 -0.176061 0.0809869 91 56 39
0.031751 -0.176395 0.0800579 135 20 14
0.0303097 -0.176771 0.0792694 157 6 1
0.0285494 -0.177185 0.0786227 160 5 0
0.0258333 -0.177718 0.0783891 162 7 1
0.0225289 -0.178321 0.0784273 170 0 0
0.0217857 -0.178601 0.0773965 175 0 0
0.0210442 -0.178881 0.076368 181 0 0
0.0196819 -0.179237 0.075615 185 0 0
0.0192559 -0.179476 0.0744558 186 5 0
0.0182123 -0.179791 0.0735738 190 2 0
0.0177874 -0.180031 0.0724172 170 13 0
0.0326576 -0.1746 0.0821756 80 60 56
0.0318809 -0.174893 0.0811108 84 62 57
0.0304391 -0.175274 0.0803184 112 46 35
0.0290076 -0.175651 0.0795317 149 8 2
0.0275862 -0.176027 0.0787506 156 4 2
0.0252059 -0.176526 0.0783815 160 3 2
0.0222268 -0.1771 0.0782859 168 0 0
0.021484 -0.177382 0.0772551 176 0 0
0.0207428 -0.177663 0.0762267 180 0 0
0.0193814 -0.178023 0.075474 183 0 0
0.0189555 -0.178263 0.0743148 183 16 5
0.0182207 -0.178541 0.0732944 190 7 0
0.0177952 -0.178781 0.0721364 169 12 2
0.0305685 -0.173777 0.0813676 78 68 56
0.0294668 -0.174114 0.0804431 88 54 47
0.0280421 -0.174495 0.0796576 132 16 12
0.0266275 -0.174874 0.0788778 152 7 2
0.0245799 -0.175337 0.0783738 157 4 0
0.0219247 -0.175879 0.0781444 168 0 0
0.0211821 -0.176162 0.0771137 176 0 0
0.0204413 -0.176445 0.0760854 179 0 0
0.0190809 -0.176809 0.0753331 180 0 0
0.018655 -0.177048 0.0741737 179 0 3
0.0179204 -0.177328 0.0731534 185 8 0
0.0174949 -0.177568 0.0719953 167 6 0
0.0292654 -0.172668 0.0816225 77 62 57
0.0281708 -0.173007 0.0807006 82 60 56
0.0270813 -0.173345 0.0797829 116 36 30
0.0256733 -0.173726 0.0790044 144 8 5
0.0242753 -0.174105 0.0782313 155 6 1
0.0219376 -0.174614 0.0778685 166 0 0
0.0208803 -0.174942 0.0769723 175 0 0
0.0201398 -0.175226 0.075944 179 0 0
0.0187804 -0.175594 0.0751921 178 2 0
0.0183544 -0.175834 0.0740326 176 4 4
0.0179284 -0.176074 0.0728731 180 0 0
0.0272096 -0.17186 0.0808235 78 65 58
0.0261249 -0.172199 0.0799076 97 50 46
0.0250452 -0.172537 0.078996 136 10 9
0.0239707 -0.172873 0.0780887 152 5 2
0.0219505 -0.173345 0.077592 164 0 1
0.0205784 -0.173722 0.0768308 172 0 0
0.0198382 -0.174007 0.0758026 175 0 0
0.0184799 -0.17438 0.0750511 175 0 0
0.0180537 -0.174619 0.0738915 176 0 2
0.0258188 -0.170961 0.0797646 81 61 55
0.0247398 -0.171302 0.0788532 128 19 19
0.023666 -0.171641 0.0779461 149 8 2
0.0222798 -0.172026 0.0771791 160 2 4
0.0205896 -0.172455 0.0765536 169 0 0
0.0198484 -0.172742 0.0755244 172 0 0
0.019109 -0.173029 0.0744975 172 0 0
0.0255127 -0.169723 0.0796215 76 66 53
0.0244344 -0.170067 0.0787103 111 41 36
0.0236809 -0.17036 0.0776677 144 7 2
0.022293 -0.17075 0.0769008 156 2 2
0.0215455 -0.171041 0.0758651 167 0 0
0.0207997 -0.171331 0.0748317 168 0 0
0.0252065 -0.168485 0.0794784 83 67 56
0.0244503 -0.168781 0.0784323 94 54 51
0.0236958 -0.169075 0.0773887 137 11 7
0.0226243 -0.16942 0.0764848 158 0 2
0.0215578 -0.169763 0.075585 165 0 0
0.0217599 -0.169906 0.0741325 165 0 0
0.0244661 -0.167491 0.0781536 86 68 55
0.0237107 -0.167788 0.077109 132 17 12
0.022957 -0.168084 0.0760668 155 1 1
0.0218872 -0.16843 0.0751658 162 0 0
0.0220905 -0.168571 0.0737088 164 0 0
0.0248048 -0.166143 0.0777378 84 67 56
0.0243696 -0.166388 0.0765532 121 24 28
0.0232913 -0.166741 0.0756468 150 5 2
0.022218 -0.167091 0.0747446 162 0 0
0.0221034 -0.167282 0.0734244 161 0 0
0.0251451 -0.164789 0.07732 82 58 57
0.0247088 -0.165035 0.0761325 107 37 36
0.0236271 -0.165391 0.0752248 145 7 1
0.0231917 -0.165636 0.07404 162 0 0
0.0233995 -0.16577 0.0725697 160 0 2
0.0261398 -0.163312 0.076623 82 64 52
0.025375 -0.163616 0.0755699 97 59 45
0.024937 -0.163862 0.074378 144 8 2
0.024499 -0.164109 0.0731861 161 0 0
0.0250374 -0.164183 0.0715598 161 0 1
0.0159712 -0.167786 0.0591227 151 17 8
0.0155376 -0.16803 0.0579427 145 18 17
0.0271439 -0.16182 0.0759192 76 61 54
0.0263743 -0.162128 0.0748619 91 66 49
0.0256064 -0.162435 0.0738069 138 16 7
0.0251667 -0.162682 0.0726106 159 0 1
0.0257095 -0.162751 0.0709763 163 0 0
0.0160984 -0.166306 0.0601581 155 21 14
0.0150442 -0.166657 0.0592934 149 22 9
0.0139951 -0.167007 0.0584328 150 25 12
0.0129507 -0.167355 0.0575762 171 31 13
0.0281577 -0.160314 0.0752087 73 60 45
0.027052 -0.160687 0.0742899 83 60 42
0.0266102 -0.160935 0.0730878 127 20 16
0.0258393 -0.161245 0.072031 155 0 4
0.0257266 -0.161431 0.0706834 161 0 0
0.0162255 -0.164826 0.0611936 218 52 42
0.0151711 -0.16518 0.0603264 229 48 30
0.0144296 -0.165479 0.0593064 232 53 39
0.0133831 -0.16583 0.0584466 243 54 42
0.0120372 -0.166234 0.0577491 254 64 43
0.0111778 -0.166717 0.0554105 98 58 55
0.0113541 -0.166853 0.0539161 77 62 58
0.0109234 -0.167095 0.0527439 71 67 57
0.0298541 -0.158663 0.0742036 76 69 56
0.0287362 -0.159043 0.0732804 83 60 44
0.0276237 -0.159421 0.0723616 117 31 34
0.0271798 -0.15967 0.0711535 151 0 6
0.0264043 -0.159983 0.0700938 160 0 0
0.0259609 -0.160232 0.0688871 163 0 0
0.0149886 -0.163761 0.0615143 229 45 33
0.0145564 -0.164003 0.0603382 243 48 34
0.0138165 -0.164302 0.0593193 255 60 44
0.0133848 -0.164545 0.0581445 255 62 47
0.0123418 -0.164899 0.0572883 255 59 44
0.0113037 -0.165251 0.0564361 230 64 47
0.0110495 -0.165624 0.0537719 86 58 54
0.0106187 -0.165866 0.0525996 78 63 58
0.0308933 -0.157123 0.073476 73 59 54
0.0297674 -0.157508 0.07255 78 61 48
0.0289832 -0.157825 0.0714809 102 47 43
0.0282009 -0.158142 0.0704143 147 4 3
0.0270869 -0.158523 0.0695 160 0 2
0.0259783 -0.158902 0.0685901 161 0 0
0.0261966 -0.159023 0.0670775 161 0 0
0.0151153 -0.162285 0.0625463 211 39 27
0.0140671 -0.162644 0.0616789 227 40 27
0.013943 -0.162829 0.06035 243 47 27
0.0135113 -0.163071 0.0591752 255 51 40
0.0127734 -0.163371 0.0581586 255 64 46
0.0123422 -0.163613 0.0569851 255 64 42
0.0116065 -0.163912 0.0559722 255 62 44
0.0113523 -0.164284 0.0533003 93 63 60
0.0109205 -0.164526 0.0521252 80 65 62
0.0308087 -0.155958 0.0718123 82 67 56
0.0296802 -0.156347 0.070888 94 57 49
0.0288941 -0.156666 0.0698181 142 9 3
0.0281099 -0.156985 0.0687508 158 0 0
0.02666 -0.157436 0.06799 160 0 0
0.0258823 -0.157753 0.0669299 160 1 2
0.0152421 -0.16081 0.0635785 196 33 18
0.0138865 -0.161232 0.0628613 208 39 25
0.0134558 -0.161474 0.0616892 222 40 22
0.0133311 -0.161657 0.0603617 238 41 24
0.0128998 -0.161899 0.0591882 253 48 39
0.0124685 -0.162141 0.0580146 255 59 42
0.0120372 -0.162383 0.0568409 255 62 46
0.0116059 -0.162625 0.0556672 255 58 43
0.0112236 -0.16318 0.0516486 78 63 58
0.0300419 -0.154927 0.0704407 82 61 49
0.0292534 -0.155249 0.0693687 135 15 3
0.02813 -0.15564 0.0684512 158 0 0
0.0273466 -0.15596 0.0673854 163 0 0
0.0258995 -0.156415 0.0666293 162 0 0
0.0254537 -0.156665 0.0654163 164 0 0
0.0153689 -0.159334 0.0646109 186 34 17
0.0127911 -0.160006 0.064492 197 36 15
0.0123624 -0.160247 0.0633253 210 38 20
0.0131513 -0.160245 0.0615456 223 37 13
0.0130262 -0.160426 0.0602178 230 39 22
0.0125949 -0.160669 0.0590442 245 47 36
0.012469 -0.160851 0.0577118 254 55 39
0.0120371 -0.161093 0.0565367 255 63 45
0.0119103 -0.161276 0.0551998 255 60 40
0.0112224 -0.161886 0.0513368 87 58 53
0.0107889 -0.162129 0.0501572 77 62 58
0.0300645 -0.153573 0.0701419 83 64 57
0.0296144 -0.153825 0.0689171 126 22 16
0.0284873 -0.15422 0.0679983 154 0 0
0.0273657 -0.154613 0.067084 158 0 0
0.0262495 -0.155004 0.066174 160 0 0
0.0244781 -0.15553 0.0655774 163 0 0
0.0240333 -0.15578 0.0643671 155 4 2
0.0150634 -0.1581 0.064467 190 32 9
0.0130968 -0.158658 0.0640485 198 31 12
0.012667 -0.158899 0.062879 207 33 13
0.0134591 -0.158891 0.061093 217 35 19
0.0133341 -0.159071 0.0597615 229 41 22
0.0129017 -0.159314 0.058585 242 43 25
0.0127758 -0.159495 0.0572488 253 50 34
0.0123429 -0.159738 0.0560708 255 58 43
0.0122162 -0.159919 0.0547301 255 66 47
0.012089 -0.160101 0.0533861 255 62 46
0.0112211 -0.160589 0.0510242 87 60 52
0.010787 -0.160833 0.0498432 79 63 57
0.0300871 -0.152214 0.0698423 84 61 47
0.0292965 -0.152541 0.0687681 117 32 27
0.0288464 -0.152793 0.0675432 151 0 0
0.0273848 -0.153263 0.0667817 158 0 0
0.0262671 -0.153657 0.0658713 160 0 0
0.0241639 -0.154261 0.0654298 159 0 0
0.0237191 -0.154511 0.0642194 156 1 0
0.015377 -0.156736 0.06402 191 34 16
0.0134039 -0.157303 0.0636031 197 33 18
0.012973 -0.157545 0.0624307 205 34 13
0.0140769 -0.157466 0.0604823 212 35 21
0.0136434 -0.15771 0.0593029 226 39 20
0.01321 -0.157953 0.0581236 235 44 26
0.0130841 -0.158133 0.0567836 250 47 31
0.0126501 -0.158376 0.0556027 255 56 39
0.0122161 -0.15862 0.0544218 255 63 49
0.0117821 -0.158864 0.0532408 255 58 46
0.0104799 -0.159595 0.0496976 78 63 56
0.0294288 -0.151003 0.0698442 82 63 57
0.0289786 -0.151256 0.0686192 103 52 50
0.0275165 -0.15173 0.0678538 145 2 2
0.0263985 -0.152129 0.0669406 156 0 0
0.0246242 -0.15267 0.0663394 159 0 0
0.0241788 -0.15292 0.0651275 161 0 0
0.0237334 -0.15317 0.0639156 161 0 0
0.0146373 -0.155743 0.0626965 197 35 15
0.0145131 -0.15592 0.0613621 204 31 14
0.0140792 -0.156164 0.0601813 211 39 20
0.0136452 -0.156407 0.0590005 222 37 15
0.0132112 -0.156651 0.0578196 232 42 20
0.0127772 -0.156894 0.0566386 246 47 25
0.0126505 -0.157073 0.0552952 255 51 40
0.012216 -0.157317 0.0541128 255 60 46
0.0117814 -0.157561 0.0529303 255 61 47
0.0113468 -0.157805 0.0517478 245 63 46
0.0104775 -0.158293 0.0493825 79 61 57
0.0291109 -0.149718 0.0696953 71 58 56
0.0286606 -0.14997 0.0684702 92 53 45
0.0275357 -0.150374 0.0675521 142 8 1
0.0260824 -0.150851 0.0667923 156 0 0
0.0256348 -0.151103 0.0655745 160 0 0
0.0155729 -0.154233 0.0619345 195 33 11
0.0151373 -0.154477 0.0607495 199 35 20
0.0143913 -0.15479 0.0597222 206 34 21
0.0136469 -0.155102 0.0586972 214 39 24
0.0132124 -0.155345 0.0575148 229 38 17
0.0130861 -0.155522 0.0561708 242 47 22
0.012651 -0.155767 0.0549869 252 47 31
0.0122159 -0.156011 0.053803 255 58 42
0.0117807 -0.156255 0.052619 255 62 49
0.0113455 -0.156499 0.051435 255 62 44
0.0291322 -0.148354 0.0693951 80 53 43
0.0283426 -0.148685 0.0683211 86 59 49
0.0272184 -0.149092 0.0674034 136 19 6
0.0260997 -0.149497 0.0664901 155 1 0
0.0256516 -0.149749 0.0652706 159 0 0
0.0177817 -0.152424 0.0605351 196 34 15
0.0154531 -0.153095 0.0602902 200 34 13
0.0147048 -0.153409 0.0592609 204 36 22
0.0136486 -0.153793 0.0583933 213 33 22
0.0132135 -0.154037 0.0572094 224 36 21
0.013087 -0.154212 0.0558633 234 43 24
0.0126513 -0.154457 0.0546779 248 43 27
0.0122156 -0.154701 0.0534925 255 57 40
0.0114728 -0.155014 0.0524733 255 64 47
0.0110376 -0.155258 0.0512891 255 63 44
0.0288137 -0.147067 0.0692459 80 59 46
0.0283628 -0.14732 0.0680191 79 59 52
0.0275741 -0.147652 0.0669467 126 20 16
0.0264518 -0.148062 0.0660322 152 0 0
0.0260025 -0.148314 0.0648097 154 0 0
0.0174708 -0.151169 0.0603887 195 33 13
0.0157703 -0.151705 0.0598287 199 33 15
0.0147077 -0.152093 0.0589566 205 31 16
0.0136501 -0.15248 0.0580886 211 37 22
0.0132145 -0.152725 0.0569032 220 36 18
0.0130878 -0.152899 0.055555 230 34 19
0.0126516 -0.153144 0.0543681 240 43 28
0.0122153 -0.153389 0.0531811 253 51 34
0.0117791 -0.153633 0.0519941 255 60 41
0.0113428 -0.153878 0.0508071 255 64 45
0.0112137 -0.154054 0.0494498 234 63 47
0.028383 -0.145951 0.0677162 71 65 57
0.0275933 -0.146285 0.0666428 112 35 34
0.0271423 -0.146538 0.0654158 150 1 0
0.0260196 -0.146951 0.0645037 155 0 0
0.0262403 -0.147044 0.0629615 159 0 0
0.0181138 -0.149689 0.0597645 194 32 12
0.01672 -0.15016 0.0590455 197 32 14
0.0153362 -0.150628 0.0583316 201 37 16
0.0139621 -0.151092 0.0576227 207 34 16
0.0132155 -0.151409 0.0565962 214 39 20
0.0127793 -0.151654 0.0554092 225 36 21
0.0126519 -0.151827 0.0540575 234 43 28
0.0125241 -0.152001 0.0527026 246 46 30
0.0120868 -0.152246 0.0515127 255 58 41
0.0116495 -0.152492 0.0503227 255 63 46
0.0112121 -0.152737 0.0491326 255 59 43
0.0284032 -0.144579 0.0674127 73 59 51
0.0279511 -0.144832 0.0661826 101 36 34
0.027499 -0.145086 0.0649524 143 6 2
0.0263726 -0.145504 0.0640391 155 0 0
0.0259215 -0.145757 0.0628118 157 0 0
0.0254704 -0.14601 0.0615845 158 0 0
0.0250193 -0.146263 0.0603571 155 5 0
0.0198492 -0.147795 0.0600212 187 32 6
0.0178017 -0.148429 0.0596175 194 36 10
0.0167253 -0.148829 0.0587385 196 34 8
0.0159691 -0.149152 0.0577021 201 31 14
0.0145878 -0.149623 0.0569928 205 38 20
0.0138378 -0.149943 0.0559633 211 37 17
0.0133999 -0.150188 0.054772 220 37 19
0.0135842 -0.150287 0.0532482 231 40 22
0.0131453 -0.150533 0.0520539 243 46 25
0.0127063 -0.150779 0.0508597 254 54 37
0.0122674 -0.151026 0.0496653 255 61 46
0.0121385 -0.151199 0.0482984 255 62 46
0.0114391 -0.151794 0.0443558 78 60 56
0.0287639 -0.143118 0.0669532 72 62 40
0.0283107 -0.143372 0.06572 87 52 34
0.0278573 -0.143626 0.0644866 135 8 9
0.0267272 -0.144049 0.0635721 154 0 0
0.0256027 -0.144469 0.062662 155 0 0
0.0251516 -0.144722 0.0614346 156 0 0
0.0247004 -0.144975 0.0602071 157 6 0
0.022921 -0.145555 0.0596335 169 33 6
0.0195351 -0.146528 0.0598733 186 30 5
0.0174895 -0.147169 0.0594705 194 32 6
0.017048 -0.147417 0.0582693 196 33 13
0.0159734 -0.147819 0.0573933 201 33 11
0.0149038 -0.148219 0.0565214 204 42 18
0.0141515 -0.148542 0.0554899 210 34 17
0.0137126 -0.148788 0.0542957 218 35 18
0.0132736 -0.149034 0.0531014 226 37 17
0.0128346 -0.14928 0.051907 237 45 24
0.0127065 -0.149452 0.0505428 252 47 26
0.0125779 -0.149624 0.0491752 255 61 41
0.0121378 -0.14987 0.0479779 255 59 41
0.0117486 -0.150389 0.0438508 79 64 57
0.0298124 -0.141475 0.0661783 80 60 42
0.0286719 -0.141904 0.0652551 85 62 42
0.0278768 -0.142246 0.0641777 129 18 12
0.0270836 -0.142586 0.0631028 153 0 0
0.0259553 -0.143011 0.0621916 156 0 0
0.0251674 -0.143349 0.061123 155 0 0
0.0243814 -0.143687 0.0600571 155 4 4
0.0226035 -0.144273 0.0594841 166 31 8
0.0198674 -0.145098 0.0594031 185 32 12
0.0178148 -0.145749 0.059002 191 33 13
0.0167357 -0.146156 0.0581221 193 37 17
0.0156618 -0.146562 0.0572463 198 37 12
0.0149068 -0.146887 0.0562115 202 34 15
0.0141535 -0.147211 0.055179 206 33 19
0.013714 -0.147458 0.0539832 213 38 21
0.0132745 -0.147704 0.0527874 223 40 17
0.0128349 -0.147951 0.0515915 231 41 26
0.0127065 -0.148121 0.0502252 244 45 27
0.0125777 -0.148291 0.0488555 254 55 38
0.0124487 -0.148462 0.0474825 255 60 45
0.0123193 -0.148633 0.0461061 232 61 46
0.0121896 -0.148805 0.0447264 133 51 53
0.0117473 -0.149053 0.0435231 84 59 41
0.0301791 -0.139995 0.0657123 81 61 47
0.0297224 -0.140251 0.0644696 78 66 50
0.0282373 -0.140773 0.0637082 119 40 28
0.027102 -0.141204 0.062792 149 0 0
0.0259723 -0.141632 0.0618803 154 0 0
0.0248481 -0.142059 0.060973 154 0 0
0.0243963 -0.142312 0.0597438 157 0 1
0.022616 -0.142906 0.0591715 166 23 9
0.0198765 -0.143744 0.0590929 182 31 15
0.0178213 -0.144404 0.0586931 190 33 16
0.0167409 -0.144815 0.0578127 197 30 12
0.0156656 -0.145224 0.0569366 198 35 15
0.0149096 -0.145551 0.0559007 200 38 17
0.0141554 -0.145877 0.0548673 202 39 17
0.0137153 -0.146124 0.05367 211 33 19
0.0132752 -0.146371 0.0524726 216 41 23
0.0131471 -0.146539 0.0511056 225 38 21
0.0130188 -0.146708 0.0497353 237 43 28
0.0128901 -0.146877 0.0483617 249 54 35
0.0124483 -0.147125 0.0471598 255 60 46
0.0123187 -0.147295 0.0457813 249 60 46
0.0121888 -0.147465 0.0443994 145 55 51
0.0117459 -0.147713 0.0431945 87 61 42
0.0297442 -0.138855 0.0641584 74 62 57
0.0292869 -0.139112 0.062914 110 41 41
0.0274605 -0.139728 0.0623191 146 0 0
0.0259892 -0.140251 0.0615682 151 0 0
0.0248635 -0.140681 0.0606605 154 0 0
0.0240768 -0.141022 0.0595935 154 0 3
0.0226286 -0.141536 0.058858 163 17 4
0.0205366 -0.142216 0.0584557 177 34 14
0.0178278 -0.143056 0.0583834 191 32 9
0.0164281 -0.143553 0.0576653 194 34 12
0.0153536 -0.143964 0.0567894 198 31 11
0.0145979 -0.144293 0.0557536 200 36 16
0.0141572 -0.14454 0.0545548 203 36 17
0.0137166 -0.144787 0.053356 208 35 16
0.0135889 -0.144954 0.0519884 214 37 16
0.0131477 -0.145201 0.050788 223 36 20
0.0130191 -0.145369 0.0494155 234 45 26
0.0128902 -0.145536 0.0480397 244 46 32
0.0127609 -0.145704 0.0466606 254 58 43
0.012318 -0.145953 0.0454556 255 58 45
0.0118752 -0.146201 0.0442507 160 61 51
0.0117445 -0.14637 0.0428651 91 55 48
0.0297661 -0.137456 0.0638463 76 68 55
0.0293081 -0.137713 0.0626003 103 51 39
0.0285061 -0.138062 0.0615178 141 2 1
0.0263444 -0.138774 0.0610927 153 0 0
0.025215 -0.13921 0.0601837 153 0 0
0.0240911 -0.139643 0.0592792 153 0 1
0.0226411 -0.140162 0.0585438 158 11 6
0.0205465 -0.140852 0.0581428 175 37 19
0.0178342 -0.141703 0.0580729 190 32 9
0.0161153 -0.14229 0.0575179 194 29 9
0.0153569 -0.142622 0.0564787 197 30 12
0.0146002 -0.142952 0.0554419 198 38 20
0.0141591 -0.1432 0.0542416 201 35 19
0.0140317 -0.143364 0.0528733 206 36 17
0.0135899 -0.143612 0.0516714 210 37 21
0.0134617 -0.143778 0.0502984 219 39 24
0.0133331 -0.143944 0.0489219 233 42 25
0.0128903 -0.144192 0.047717 242 46 31
0.0124473 -0.14444 0.046512 253 57 43
0.0120044 -0.144689 0.045307 255 59 46
0.0118738 -0.144856 0.0439226 177 62 50
0.011743 -0.145024 0.042535 105 60 44
0.0301343 -0.135958 0.063372 74 60 49
0.0293293 -0.13631 0.0622858 92 58 48
0.0288707 -0.136567 0.061038 137 8 4
0.0277252 -0.137011 0.0601213 152 0 0
0.0252309 -0.137823 0.059869 153 0 0
0.0241055 -0.13826 0.058964 152 0 1
0.0226536 -0.138785 0.0582288 157 5 2
0.0205563 -0.139483 0.0578291 174 36 11
0.0181622 -0.140261 0.0575981 189 31 8
0.0161196 -0.140942 0.0572074 193 30 7
0.0150444 -0.14136 0.0563313 197 31 11
0.0146026 -0.141608 0.0551295 198 34 14
0.0141608 -0.141856 0.0539275 202 34 13
0.0140333 -0.142019 0.0525572 205 37 15
0.0139054 -0.142183 0.0511835 209 38 18
0.0134625 -0.142431 0.0499785 217 37 22
0.0130195 -0.142679 0.0487735 229 38 19
0.0128902 -0.142844 0.0473934 239 44 26
0.0127606 -0.14301 0.04601 247 53 38
0.0123166 -0.143258 0.0448019 254 60 46
0.0118725 -0.143507 0.0435938 203 62 46
0.0117415 -0.143674 0.0422039 118 55 47
0.0296968 -0.134807 0.0618069 85 62 48
0.0288913 -0.135161 0.060721 129 11 11
0.0280877 -0.135514 0.0596379 149 0 0
0.0266029 -0.136056 0.0588911 151 0 0
0.0244554 -0.13678 0.0584823 150 0 0
0.0223342 -0.137495 0.0580786 154 7 0
0.020894 -0.138021 0.0573491 173 31 9
0.0184916 -0.138811 0.057121 189 34 8
0.0158063 -0.139677 0.0570597 195 29 5
0.0153635 -0.139925 0.0558549 198 33 7
0.0146049 -0.14026 0.0548162 199 34 8
0.0144777 -0.140422 0.0534452 202 35 7
0.0140347 -0.14067 0.0522402 206 33 9
0.0139067 -0.140832 0.0508644 210 34 10
0.0134632 -0.141081 0.0496579 215 38 18
0.0133343 -0.141244 0.0482771 224 40 20
0.013205 -0.141408 0.046893 233 43 21
0.0127604 -0.141657 0.0456835 243 51 37
0.0123158 -0.141906 0.0444738 252 62 48
0.0118711 -0.142155 0.0432642 225 57 45
0.0117398 -0.14232 0.0418721 133 50 50
0.0114762 -0.142651 0.0390777 78 56 46
0.0297185 -0.133395 0.0614901 75 60 45
0.0289118 -0.133751 0.0604033 122 27 18
0.0281072 -0.134106 0.059319 145 0 0
0.0273045 -0.134461 0.0582374 150 0 0
0.0258226 -0.135006 0.0574957 151 0 0
0.0233452 -0.135831 0.0572628 151 3 0
0.0212334 -0.136551 0.0568668 170 31 6
0.0191472 -0.137263 0.0564756 187 29 2
0.0164466 -0.138145 0.0564194 194 29 8
0.01505 -0.138661 0.0557071 197 27 6
0.0146071 -0.138909 0.0545022 200 30 9
0.0144797 -0.139069 0.053129 200 38 16
0.0140362 -0.139318 0.0519225 204 34 13
0.014224 -0.139391 0.0503726 207 36 13
0.0137794 -0.13964 0.0491631 212 34 12
0.0133348 -0.139889 0.0479535 220 40 21
0.0132053 -0.140051 0.0465672 229 47 26
0.0127601 -0.140301 0.0453561 237 50 37
0.0123149 -0.14055 0.0441449 248 62 47
0.0121839 -0.140713 0.0427522 237 56 44
0.0117382 -0.140963 0.0415394 144 51 46
0.0117891 -0.141205 0.0385534 77 61 50
0.0293929 -0.132079 0.0613374 75 58 42
0.0289324 -0.132337 0.0600846 111 43 29
0.0284719 -0.132595 0.0588318 141 0 0
0.0273229 -0.133051 0.0579167 148 0 0
0.0261797 -0.133505 0.0570061 150 0 0
0.0247037 -0.134054 0.0562696 149 0 0
0.0215743 -0.135074 0.0563821 169 28 4
0.0204633 -0.135516 0.0554896 185 31 6
0.0177351 -0.136418 0.0554413 193 28 5
0.0156875 -0.137125 0.0550618 197 29 5
0.015243 -0.137374 0.0538524 197 34 11
0.0147984 -0.137623 0.0526429 197 32 11
0.0143538 -0.137872 0.0514334 202 37 9
0.0145427 -0.137942 0.0498785 206 33 7
0.0144144 -0.138102 0.0484911 209 36 17
0.0139681 -0.138352 0.0472771 215 37 22
0.0135218 -0.138602 0.046063 225 42 23
0.013392 -0.138763 0.0446692 234 49 35
0.0135793 -0.138836 0.04309 244 55 41
0.0131314 -0.139087 0.0418713 243 55 41
0.0130005 -0.139249 0.0404671 152 52 49
0.0133755 -0.139397 0.0372685 77 61 49
0.0294141 -0.130662 0.0610196 72 59 52
0.028953 -0.13092 0.0597652 98 47 33
0.0281461 -0.13128 0.0586788 136 4 1
0.0276856 -0.131538 0.0574258 146 0 0
0.0261966 -0.132096 0.0566841 148 0 0
0.0247186 -0.132651 0.0559478 147 0 0
0.0222494 -0.133493 0.0557261 166 25 7
0.0208023 -0.134036 0.0550013 183 32 7
0.0190392 -0.13467 0.0544513 193 29 2
0.0169713 -0.135392 0.0540753 194 33 5
0.0162033 -0.135735 0.0530284 197 30 9
0.0157565 -0.135985 0.0518129 197 34 10
0.0153098 -0.136236 0.0505974 201 34 10
0.0155018 -0.136302 0.0490328 204 34 10
0.0150539 -0.136553 0.0478143 208 34 16
0.0146059 -0.136804 0.0465957 212 34 24
0.014477 -0.136963 0.0451974 221 40 27
0.0140284 -0.137215 0.0439772 233 45 28
0.0138986 -0.137375 0.0425739 244 55 37
0.0137683 -0.137535 0.0411672 248 56 40
0.0136378 -0.137696 0.0397569 162 56 50
0.0133757 -0.13802 0.0369259 75 60 53
0.029088 -0.129344 0.0608667 73 56 43
0.0286269 -0.129602 0.0596121 87 55 40
0.0278204 -0.129964 0.0585258 129 8 5
0.0273598 -0.130222 0.0572727 143 0 0
0.0262135 -0.130684 0.0563612 144 0 0
0.0247336 -0.131244 0.0556251 142 0 0
0.0232647 -0.1318 0.0548944 159 20 8
0.0214744 -0.132451 0.0543401 179 36 14
0.0193738 -0.133192 0.0539616 190 31 4
0.0179459 -0.133733 0.0532475 194 34 1
0.0168503 -0.134175 0.0523677 196 30 6
0.0164018 -0.134426 0.0511477 198 34 8
0.0159534 -0.134677 0.0499276 200 35 13
0.0155049 -0.134929 0.0487075 204 34 11
0.0150563 -0.13518 0.0474874 208 34 8
0.0146078 -0.135431 0.0462672 210 37 20
0.0144786 -0.135589 0.0448667 219 40 24
0.0143491 -0.135748 0.0434627 229 48 27
0.0142193 -0.135906 0.0420553 241 51 37
0.0140891 -0.136066 0.0406443 247 57 41
0.0136383 -0.136318 0.0394179 169 63 49
0.0133757 -0.136638 0.0365824 74 59 47
0.0284159 -0.128131 0.0608791 71 58 43
0.0279552 -0.128389 0.059626 81 59 43
0.0274945 -0.128647 0.0583728 126 12 5
0.0270339 -0.128905 0.0571196 143 0 0
0.0258884 -0.129371 0.0562083 140 0 0
0.0244097 -0.129936 0.0554727 139 0 0
0.0232777 -0.130396 0.0545711 156 15 6
0.0224857 -0.130753 0.0535014 175 34 18
0.0193818 -0.131804 0.0536404 188 34 8
0.0176277 -0.132449 0.0530974 193 33 3
0.0168551 -0.132797 0.0520463 196 32 7
0.0160843 -0.133145 0.0509977 199 32 8
0.0159569 -0.1333 0.0496031 199 31 9
0.0158293 -0.133456 0.048205 201 35 13
0.0153796 -0.133708 0.0469818 203 37 13
0.01493 -0.13396 0.0457585 208 35 13
0.0148008 -0.134116 0.0443539 217 41 23
0.0146713 -0.134273 0.0429457 225 43 25
0.0145415 -0.134431 0.0415341 235 50 38
0.0140901 -0.134683 0.0403061 242 60 44
0.0139594 -0.134842 0.0388894 178 65 49
0.0133757 -0.135254 0.036238 76 64 55
0.02809 -0.126815 0.0607262 81 69 54
0.0276294 -0.127073 0.059473 79 58 42
0.0271687 -0.127331 0.0582197 118 32 19
0.026365 -0.127695 0.0571363 137 1 1
0.0252225 -0.128162 0.056226 139 0 0
0.023748 -0.128731 0.0554911 139 0 0
0.0229545 -0.129091 0.0544189 154 15 5
0.0221628 -0.129449 0.0533493 174 31 9
0.0197182 -0.130313 0.0531469 187 30 7
0.0176334 -0.131065 0.0527763 192 30 6
0.0168598 -0.131416 0.0517242 193 32 10
0.016088 -0.131766 0.0506746 198 30 7
0.0156389 -0.132017 0.0494529 198 30 7
0.0155108 -0.132171 0.0480545 202 30 8
0.0153824 -0.132326 0.0466526 202 37 14
0.0149321 -0.132578 0.0454278 207 37 14
0.0148028 -0.132733 0.0440209 213 39 21
0.0146731 -0.132889 0.0426105 221 43 26
0.014543 -0.133045 0.0411966 230 48 36
0.014091 -0.133298 0.039967 239 55 43
0.013639 -0.133551 0.0387373 188 63 52
0.0140195 -0.133672 0.0355057 85 60 53
0.0288002 -0.124834 0.0644937 73 68 58
0.0283401 -0.125091 0.0632421 79 62 58
0.02788 -0.125349 0.0619904 77 65 62
0.0274199 -0.125607 0.0607387 73 66 63
0.0269597 -0.125864 0.059487 72 58 54
0.0264995 -0.126122 0.0582351 108 46 32
0.0256976 -0.126487 0.0571529 131 1 1
0.0245582 -0.126957 0.0562436 135 0 0
0.023088 -0.12753 0.0555094 134 0 3
0.0216287 -0.128098 0.0547807 150 8 0
0.0211735 -0.128353 0.0535425 172 31 5
0.0193976 -0.129019 0.0529958 186 31 6
0.0173147 -0.129779 0.052626 192 28 5
0.0165415 -0.130131 0.051574 193 33 7
0.01577 -0.130483 0.0505245 196 29 8
0.0153209 -0.130734 0.0493026 199 32 8
0.0155137 -0.130787 0.0477267 201 30 7
0.0153851 -0.13094 0.0463227 200 31 14
0.0149342 -0.131193 0.0450962 204 36 18
0.0148047 -0.131346 0.0436871 211 38 22
0.0146748 -0.1315 0.0422744 219 39 26
0.0145446 -0.131655 0.0408583 227 48 38
0.014414 -0.13181 0.0394386 237 56 45
0.0142831 -0.131965 0.0380154 202 65 52
0.0143438 -0.132178 0.0349633 87 58 51
0.0695531 -0.109096 0.0617809 67 62 48
0.0271009 -0.123959 0.0649808 71 68 56
0.0273272 -0.123996 0.0634133 73 62 60
0.0268682 -0.124253 0.0621646 71 65 84
0.0267513 -0.124401 0.0607512 68 64 100
0.0262917 -0.124658 0.0595008 76 59 66
0.0258321 -0.124916 0.0582505 95 49 38
0.025032 -0.125281 0.0571694 120 2 5
0.0238955 -0.125754 0.0562612 128 0 4
0.0217617 -0.126543 0.0558672 131 0 0
0.0209744 -0.126903 0.0547996 142 6 0
0.0198591 -0.127367 0.053906 166 31 7
0.0184223 -0.127932 0.0531882 182 33 10
0.0166727 -0.128595 0.052647 190 28 6
0.0159011 -0.128948 0.0515962 192 34 9
0.015452 -0.1292 0.0503743 192 31 7
0.0153235 -0.12935 0.0489769 196 30 9
0.0155166 -0.1294 0.0473981 198 31 11
0.0150657 -0.129652 0.0461716 199 33 13
0.0149363 -0.129804 0.0447637 201 33 17
0.0148065 -0.129956 0.0433524 209 33 19
0.0146765 -0.130109 0.0419375 216 41 28
0.014546 -0.130261 0.0405191 222 50 40
0.0144153 -0.130415 0.0390971 234 55 46
0.0146075 -0.130468 0.0374801 212 63 54
0.0149951 -0.130574 0.0342217 82 58 49
0.069186 -0.10761 0.06161 63 60 56
0.0691136 -0.107754 0.0600087 68 61 57
0.0256253 -0.123455 0.0595147 109 58 77
0.0251662 -0.123712 0.0582657 75 21 28
0.0243678 -0.124079 0.0571859 109 1 5
0.0228982 -0.124662 0.0564481 123 0 5
0.0211073 -0.125349 0.055885 124 0 2
0.0193338 -0.126029 0.0553273 132 1 0
0.0185543 -0.126387 0.0542668 162 32 5
0.0171274 -0.126954 0.0535502 180 31 9
0.0153905 -0.127619 0.0530092 188 31 8
0.0155831 -0.127665 0.0514461 191 30 8
0.0151338 -0.127916 0.0502241 192 31 2
0.015005 -0.128065 0.0488264 193 32 6
0.0151972 -0.128112 0.0472472 196 32 9
0.015068 -0.128262 0.0458406 195 32 13
0.0149383 -0.128412 0.0444305 198 30 14
0.0144862 -0.128665 0.0432007 204 34 20
0.014678 -0.128713 0.0415997 211 42 30
0.0145474 -0.128864 0.0401791 221 46 33
0.0147401 -0.128914 0.0385646 232 56 45
0.0146089 -0.129066 0.0371348 218 64 55
0.0153236 -0.129062 0.0336728 85 56 40
0.01552 -0.129112 0.0320258 73 60 49
0.0257595 -0.121886 0.0606112 127 71 81
0.0253004 -0.122143 0.0593622 85 7 17
0.0248413 -0.1224 0.0581132 42 8 8
0.0237052 -0.122879 0.0572024 97 0 1
0.0222399 -0.123467 0.0564652 115 0 0
0.0201241 -0.124266 0.0560713 117 0 1
0.0177092 -0.125163 0.0558498 123 0 0
0.0172589 -0.125415 0.0546249 159 24 6
0.0155213 -0.126088 0.0540786 178 30 7
0.0141176 -0.126651 0.0533686 186 31 5
0.0139883 -0.126797 0.0519831 191 31 6
0.0144958 -0.126736 0.0502477 191 31 5
0.0146863 -0.12678 0.0486758 193 33 5
0.0148777 -0.126823 0.0470962 196 31 7
0.0150701 -0.126867 0.0455087 194 30 9
0.014618 -0.12712 0.0442789 197 35 12
0.0144876 -0.127269 0.042865 202 36 16
0.0146796 -0.127314 0.0412611 209 39 24
0.0145488 -0.127464 0.0398381 219 48 33
0.0147416 -0.12751 0.0382207 227 52 45
0.0152613 -0.12745 0.0364014 218 61 52
0.0153258 -0.127648 0.0333199 76 36 32
0.0151942 -0.1278 0.0318708 65 47 39
0.0153907 -0.127847 0.0302151 71 58 47
0.0254347 -0.120573 0.0604588 38 16 15
0.0249755 -0.12083 0.0592097 32 7 7
0.0241773 -0.1212 0.0581285 28 6 3
0.0230443 -0.121682 0.0572187 80 0 1
0.0209183 -0.122495 0.0568191 103 0 1
0.0188183 -0.123298 0.0564243 109 0 3
0.0164217 -0.124198 0.0562009 112 0 4
0.0156522 -0.124556 0.0551481 152 19 6
0.0139308 -0.12523 0.0546018 177 29 6
0.0128538 -0.125689 0.0537254 185 34 7
0.0124089 -0.125938 0.052515 189 30 4
0.0132245 -0.12577 0.0506174 190 32 9
0.0140481 -0.1256 0.0487013 191 30 3
0.0148797 -0.125428 0.0467663 192 30 3
0.0147498 -0.125575 0.0453572 193 31 8
0.0142976 -0.125828 0.0441272 195 30 9
0.0141668 -0.125976 0.042713 200 32 10
0.014358 -0.126017 0.0411087 207 40 20
0.0142267 -0.126166 0.0396854 216 48 32
0.0147431 -0.126102 0.037876 224 52 41
0.0152633 -0.126037 0.036053 217 54 44
0.0150003 -0.126337 0.0331652 72 45 37
0.0151961 -0.12638 0.0315147 53 44 43
0.0150638 -0.126531 0.0300596 62 47 36
0.0149314 -0.126682 0.0286008 67 53 40
0.0252287 -0.119119 0.061719 32 14 11
0.0247701 -0.119376 0.0604714 25 12 4
0.0243114 -0.119632 0.0592238 26 7 4
0.023515 -0.120004 0.0581438 24 5 5
0.0223849 -0.120488 0.057235 58 0 4
0.0199355 -0.121419 0.0570032 91 0 4
0.017522 -0.122337 0.0567747 104 0 1
0.0151435 -0.123241 0.0565495 104 0 2
0.0137444 -0.123812 0.0558321 146 12 4
0.0129837 -0.124168 0.0547872 171 31 9
0.0119115 -0.124628 0.0539124 181 32 11
0.0114676 -0.124877 0.0527048 186 31 5
0.0110236 -0.125125 0.0514972 188 30 6
0.0124606 -0.124742 0.0492514 190 31 4
0.0145597 -0.124138 0.0466151 189 31 4
0.0144294 -0.124283 0.0452056 190 32 7
0.0139772 -0.124536 0.0439756 191 32 7
0.0138459 -0.124682 0.0425611 195 33 10
0.0140362 -0.124721 0.0409562 202 40 23
0.0139045 -0.124867 0.0395327 211 44 31
0.0144197 -0.124798 0.0377226 220 50 38
0.0149387 -0.124729 0.0358989 213 50 33
0.0146748 -0.125025 0.0330105 71 41 28
0.0148697 -0.125066 0.0313595 63 50 31
0.014737 -0.125215 0.0299041 60 43 32
0.0146041 -0.125364 0.028445 64 45 36
0.0141426 -0.125622 0.0271898 68 57 48
0.0249042 -0.117808 0.0615669 27 13 8
0.0244455 -0.118064 0.0603192 22 12 4
0.0236489 -0.118438 0.0592378 23 9 7
0.0228542 -0.11881 0.0581591 22 5 6
0.0217271 -0.119297 0.0572512 42 4 3
0.0189576 -0.120348 0.0571863 81 0 6
0.0165569 -0.121271 0.0569569 95 0 0
0.0145087 -0.122072 0.0565658 98 0 1
0.0131135 -0.122647 0.0558492 141 5 1
0.0120411 -0.123111 0.0549718 166 32 9
0.011285 -0.123466 0.0539315 179 29 6
0.0108416 -0.123714 0.0527253 183 28 4
0.0103981 -0.123963 0.051519 184 29 4
0.0115145 -0.123678 0.0494497 187 27 4
0.0142397 -0.122847 0.0464638 187 33 7
0.0141089 -0.122991 0.0450541 187 32 7
0.0139778 -0.123135 0.0436408 187 31 6
0.0138463 -0.123279 0.0422241 192 31 9
0.0140368 -0.123314 0.0406163 198 36 17
0.0135823 -0.123568 0.0393799 206 43 26
0.0137726 -0.123605 0.0377611 213 47 31
0.0143491 -0.123714 0.0328558 71 34 30
0.0145432 -0.123751 0.0312043 70 50 36
0.0144101 -0.123898 0.0297486 70 54 39
0.0142767 -0.124046 0.0282892 62 45 36
0.0138151 -0.124304 0.0270339 61 52 42
0.0245796 -0.116496 0.0614147 26 11 9
0.0241209 -0.116753 0.0601669 22 11 5
0.0229879 -0.117245 0.0592518 22 10 7
0.0225302 -0.117502 0.058007 22 5 8
0.021404 -0.117991 0.0570993 28 2 2
0.0183103 -0.119168 0.0572023 69 0 1
0.0159173 -0.120099 0.056973 90 0 0
0.0138753 -0.120905 0.0565821 93 0 0
0.0124841 -0.121484 0.0558662 128 1 0
0.0114144 -0.12195 0.0549897 156 27 6
0.01066 -0.122307 0.0539505 173 27 7
0.010217 -0.122555 0.0527456 177 30 6
0.0100839 -0.122695 0.0513706 180 29 1
0.0108852 -0.122512 0.049474 181 30 4
0.0139197 -0.121556 0.0463125 183 29 5
0.0137885 -0.121698 0.0449025 184 29 5
0.0139784 -0.12173 0.0433053 184 30 5
0.0138467 -0.121872 0.0418862 187 30 8
0.0137146 -0.122015 0.0404636 191 33 13
0.01326 -0.12227 0.0392272 198 36 17
0.0138312 -0.122369 0.0343448 95 41 27
0.0136979 -0.122514 0.0329002 63 39 34
0.0135643 -0.122659 0.031452 62 49 47
0.0140831 -0.122581 0.0295931 65 52 42
0.0136221 -0.122839 0.0283392 61 39 31
0.0134877 -0.122986 0.0268779 63 47 35
0.0237962 -0.115441 0.0600146 24 8 8
0.022664 -0.115937 0.0590997 22 8 8
0.0215374 -0.116431 0.0581894 21 8 10
0.0197551 -0.117157 0.0576178 23 6 5
0.0179902 -0.117876 0.0570518 52 0 0
0.0152792 -0.118929 0.056989 78 0 0
0.0129283 -0.119853 0.0567629 86 0 0
0.0115438 -0.120435 0.056048 111 0 0
0.0111003 -0.120683 0.0548416 146 27 5
0.0103462 -0.12104 0.0538025 169 25 2
0.00990319 -0.121288 0.0525976 177 20 1
0.00976962 -0.121427 0.0512222 176 31 0
0.0102575 -0.121347 0.0494981 176 30 3
0.0129606 -0.12049 0.0465198 178 30 2
0.0134679 -0.120406 0.0447509 178 25 2
0.0139788 -0.120321 0.0429688 176 30 5
0.0135249 -0.120575 0.0417338 177 31 9
0.0130708 -0.120829 0.0404988 179 33 13
0.0129378 -0.12097 0.0390744 164 36 14
0.0126706 -0.121255 0.0362147 91 33 24
0.012859 -0.121285 0.0345837 68 41 32
0.0133726 -0.121203 0.0327457 58 41 40
0.0132385 -0.121347 0.0312971 58 36 41
0.0137561 -0.121264 0.0294375 55 39 37
0.0136217 -0.121409 0.0279775 60 45 38
0.0216708 -0.114869 0.0592796 22 11 8
0.0198878 -0.115603 0.0587026 22 11 8
0.0191044 -0.115976 0.0576334 24 10 8
0.0166968 -0.116933 0.0573999 33 5 3
0.0143242 -0.117876 0.0571697 58 1 0
0.012299 -0.118694 0.0567789 76 0 3
0.0112296 -0.119166 0.0559 96 0 4
0.0107861 -0.119415 0.0546936 137 20 7
0.0100324 -0.119774 0.0536546 159 27 1
0.00958931 -0.120022 0.0524494 171 19 0
0.00945532 -0.120159 0.0510738 170 26 0
0.00932103 -0.120297 0.0496949 169 29 1
0.0116898 -0.119541 0.0469041 170 29 2
0.0131473 -0.119113 0.0445992 169 28 1
0.013657 -0.119023 0.0428165 162 25 7
0.013203 -0.119277 0.0415814 144 27 11
0.0127489 -0.119531 0.0403463 125 29 18
0.0118406 -0.120039 0.0378758 80 27 26
0.0123473 -0.119952 0.0360613 59 35 33
0.0125349 -0.11998 0.0344298 58 41 36
0.0130472 -0.119892 0.032591 60 43 35
0.0129127 -0.120034 0.0311422 54 37 34
0.013429 -0.119947 0.0292818 52 39 38
0.0132942 -0.12009 0.0278215 60 52 46
0.0206824 -0.113807 0.0594584 20 14 13
0.0195661 -0.114304 0.0585515 25 16 11
0.0181283 -0.114917 0.057815 26 14 12
0.0163777 -0.115645 0.0572499 25 8 7
0.0140074 -0.116597 0.0570207 34 8 6
0.0119841 -0.117422 0.0566307 46 4 7
0.0109155 -0.117898 0.055752 65 1 7
0.0104719 -0.118146 0.0545455 124 10 5
0.0100282 -0.118394 0.0533388 149 21 1
0.00927538 -0.118755 0.0523013 155 18 0
0.009141 -0.118891 0.0509254 149 20 4
0.00900629 -0.119027 0.0495462 141 21 7
0.0104283 -0.118599 0.0472856 132 23 7
0.0112379 -0.118394 0.0453525 124 25 9
0.013014 -0.117841 0.0428489 113 30 16
0.012881 -0.117979 0.0414289 95 27 22
0.0124269 -0.118233 0.0401937 82 30 29
0.0119727 -0.118487 0.0389584 72 38 28
0.0115185 -0.118741 0.037723 63 36 30
