ply
format ascii 1.0
element vertex 1195
property float x
property float y
property float z
property uchar diffuse_red
property uchar diffuse_green
property uchar diffuse_blue
end_header
-0.229654 0.00765631 0.0283323 95 89 83
-0.229557 0.00888724 0.0284308 76 57 60
-0.229461 0.010119 0.0285293 52 33 33
-0.229365 0.0113516 0.0286278 45 40 33
-0.228974 0.0124775 0.0293439 48 42 33
-0.228732 0.013654 0.0297499 53 42 33
-0.228344 0.0147725 0.0304611 57 47 41
-0.228103 0.0159441 0.0308647 59 57 49
-0.227862 0.0171139 0.0312674 62 56 47
-0.227766 0.0183418 0.0313656 61 54 46
-0.22767 0.0195706 0.0314638 58 54 43
-0.228008 0.0209891 0.0306477 59 55 42
-0.228203 0.0223532 0.0301335 68 63 51
-0.228252 0.0236578 0.0299252 46 41 42
-0.228301 0.0249663 0.0297165 53 45 38
-0.228497 0.0263482 0.0291981 56 53 45
-0.230791 0.028754 0.0242542 55 56 41
-0.230997 0.0301754 0.0237124 56 53 43
-0.23105 0.0315269 0.0234916 58 54 40
-0.231103 0.0328824 0.0232704 60 52 44
-0.231157 0.034242 0.0230487 62 56 48
-0.231057 0.0355235 0.0231512 62 57 49
-0.231264 0.0369734 0.0226039 59 56 48
-0.231163 0.0382596 0.0227068 54 57 52
-0.231371 0.0397212 0.0221574 60 64 63
-0.240944 -0.0500614 0.0068664 94 63 57
-0.240239 -0.0474926 0.00812364 61 37 28
-0.240141 -0.0462343 0.00822394 56 32 26
-0.240042 -0.044975 0.00832432 70 32 26
-0.239943 -0.043715 0.00842476 89 49 42
-0.239844 -0.0424541 0.00852528 87 62 58
-0.239578 -0.0411848 0.00897561 72 59 52
-0.239312 -0.0399176 0.00942493 58 41 32
-0.238714 -0.0386436 0.0105664 47 27 24
-0.237793 -0.0373719 0.0123847 51 34 31
-0.237206 -0.0361173 0.0135051 52 39 43
-0.236302 -0.0348706 0.0152892 46 33 38
-0.236205 -0.0336305 0.015388 68 49 49
-0.235788 -0.0323953 0.0161548 79 71 57
-0.235057 -0.0311736 0.0175796 76 67 58
-0.234646 -0.0299511 0.0183362 72 66 60
-0.234081 -0.0287405 0.0194155 81 66 60
-0.233829 -0.0275205 0.0198389 89 69 61
-0.233424 -0.0263123 0.0205852 94 82 67
-0.233173 -0.0250977 0.0210059 106 94 81
-0.23277 -0.0238976 0.021747 118 103 90
-0.232217 -0.0227162 0.0228039 130 115 101
-0.231819 -0.0215268 0.0235368 141 126 115
-0.231272 -0.0203585 0.0245817 153 139 124
-0.231027 -0.0191617 0.0249929 164 161 140
-0.230931 -0.0179476 0.0250897 164 160 145
-0.230836 -0.0167327 0.0251865 152 146 131
-0.230741 -0.015517 0.0252834 138 133 119
-0.230646 -0.0143004 0.0253804 133 126 113
-0.230849 -0.0130333 0.0248491 132 127 106
-0.230903 -0.011786 0.0246313 120 99 92
-0.230807 -0.0105627 0.0247288 120 95 87
-0.230562 -0.00936778 0.0251413 113 102 81
-0.230466 -0.00814429 0.0252388 69 55 54
-0.23037 -0.00691995 0.0253364 45 43 45
-0.230274 -0.00569478 0.0254341 43 43 51
-0.230178 -0.00446876 0.0255318 46 31 37
-0.230081 -0.00324193 0.0256296 45 39 46
-0.230134 -0.00197675 0.0254132 45 34 34
-0.230038 -0.000746824 0.0255113 43 38 33
-0.229941 0.000483925 0.0256093 54 38 35
-0.229845 0.00171552 0.0257075 45 42 39
-0.229304 0.0028189 0.0267451 45 38 31
-0.229207 0.00404798 0.026843 50 43 37
-0.228964 0.00523228 0.0272525 60 44 45
-0.228868 0.00646163 0.0273505 66 57 59
-0.228771 0.00769181 0.0274486 94 79 76
-0.228675 0.00892285 0.0275467 90 69 69
-0.228432 0.0101036 0.0279552 58 46 45
-0.228335 0.011335 0.0280534 43 38 33
-0.227947 0.0124597 0.0287696 46 41 34
-0.227561 0.0135802 0.0294827 49 42 35
-0.227176 0.0146964 0.0301927 52 45 40
-0.226508 0.0156948 0.0315058 59 55 46
-0.225986 0.0167427 0.0325072 63 55 46
-0.225749 0.0179021 0.0329043 63 54 44
-0.225654 0.01912 0.0330013 60 55 40
-0.226695 0.0208366 0.0306821 56 52 43
-0.22703 0.0222604 0.0298631 70 61 49
-0.227077 0.023562 0.0296546 57 54 49
-0.227269 0.0249353 0.0291375 51 36 34
-0.227608 0.0263854 0.0283078 59 55 44
-0.230493 0.0290887 0.0220527 57 54 41
-0.230392 0.0303652 0.0221545 56 53 42
-0.230445 0.0317203 0.021931 59 57 43
-0.230192 0.0329209 0.0223582 60 54 47
-0.230092 0.0342001 0.0224601 62 56 51
-0.229688 0.0353165 0.0232098 64 58 49
-0.229588 0.0365945 0.0233116 62 56 47
-0.229488 0.0378733 0.0234136 58 58 53
-0.229842 0.0394121 0.0225442 61 63 62
-0.239927 -0.0487675 0.00604619 101 67 56
-0.239659 -0.0474902 0.00650048 93 58 46
-0.239224 -0.0462015 0.00730589 90 56 46
-0.239293 -0.0449543 0.00705394 100 60 48
-0.239194 -0.0436926 0.0071542 111 68 57
-0.239094 -0.0424301 0.00725452 96 66 61
-0.238995 -0.0411667 0.00735493 74 57 50
-0.238896 -0.0399025 0.0074554 52 41 32
-0.238463 -0.0386284 0.00825797 30 24 19
-0.237703 -0.0373536 0.00975194 26 19 16
-0.236787 -0.0360885 0.0115747 28 20 18
-0.236204 -0.0348375 0.0126978 26 16 16
-0.235305 -0.0335974 0.0144864 41 18 23
-0.235208 -0.0323563 0.014585 55 43 34
-0.234793 -0.0311232 0.0153535 65 55 49
-0.23391 -0.0299123 0.0171123 68 62 57
-0.233191 -0.0287074 0.0185242 74 64 57
-0.23294 -0.0274873 0.0189483 77 65 57
-0.232536 -0.0262792 0.0196963 80 71 61
-0.232134 -0.0250758 0.020441 89 77 67
-0.231734 -0.023877 0.0211823 99 88 75
-0.231184 -0.0226969 0.0222396 110 98 86
-0.230788 -0.0215088 0.0229727 123 109 94
-0.230245 -0.0203418 0.024018 134 119 102
-0.23015 -0.0191284 0.0241144 144 136 115
-0.230054 -0.0179142 0.0242109 154 143 131
-0.229959 -0.0166992 0.0243075 167 159 138
-0.229715 -0.0155054 0.0247184 169 161 140
-0.229767 -0.0142667 0.0245008 163 146 136
-0.229672 -0.0130492 0.0245975 167 147 119
-0.229724 -0.0118046 0.0243796 158 124 94
-0.229628 -0.0105841 0.0244766 130 91 75
-0.229532 -0.00936267 0.0245737 98 75 66
-0.229288 -0.00817085 0.0249852 78 69 67
-0.229192 -0.0069492 0.0250823 89 83 80
-0.229096 -0.00572672 0.0251794 110 94 87
-0.229 -0.0045034 0.0252766 113 66 60
-0.229051 -0.00324327 0.02506 120 93 75
-0.228955 -0.00201688 0.0251575 115 79 60
-0.229153 -0.000711875 0.0246254 104 76 58
-0.229056 0.000518991 0.0247232 94 73 55
-0.22896 0.00175068 0.0248211 67 62 52
-0.228715 0.00294007 0.0252339 54 45 41
-0.228325 0.00408324 0.025959 54 48 44
-0.228082 0.00526759 0.0263692 61 57 55
-0.227985 0.00649704 0.0264669 61 58 57
-0.227888 0.00772733 0.0265647 84 75 62
-0.227646 0.00890873 0.0269739 80 79 70
-0.227549 0.0101393 0.0270717 54 55 50
-0.227308 0.0113183 0.0274801 40 36 31
-0.226922 0.0124419 0.0281965 42 39 33
-0.226395 0.0135067 0.0292166 45 42 34
-0.22573 0.0145097 0.0305337 49 43 36
-0.225211 0.0155608 0.0315381 57 49 40
-0.224835 0.0166632 0.0322361 63 53 44
-0.22446 0.0177616 0.0329312 63 53 45
-0.224365 0.0189755 0.0330277 63 54 42
-0.224548 0.0203131 0.0325262 58 53 48
-0.225577 0.0220395 0.0302051 71 60 48
-0.225907 0.0234667 0.0293851 68 65 53
-0.226096 0.0248367 0.0288683 47 30 31
-0.229682 0.0278511 0.0210399 56 52 43
-0.230191 0.0294266 0.0198304 60 55 48
-0.23009 0.0307092 0.0199323 60 55 48
-0.229837 0.0319145 0.0203629 65 60 52
-0.229281 0.0329594 0.0214458 66 63 56
-0.228879 0.034078 0.0221974 61 58 55
-0.228628 0.0352736 0.0226226 58 53 47
-0.228378 0.0364673 0.0230469 64 53 44
-0.228427 0.0378276 0.0228256 62 54 53
-0.228477 0.039192 0.0226038 59 55 58
-0.238342 -0.042406 0.00598057 94 66 59
-0.238243 -0.041141 0.00608078 76 61 52
-0.238143 -0.0398752 0.00618106 54 43 36
-0.237877 -0.038604 0.00663481 32 22 21
-0.237446 -0.0373321 0.00743912 23 17 17
-0.236691 -0.0360624 0.00893676 22 18 17
-0.235781 -0.0348041 0.0107641 20 17 17
-0.2352 -0.0335567 0.0118899 19 17 16
-0.234307 -0.0323231 0.0136829 25 19 20
-0.234209 -0.0310811 0.0137813 44 31 29
-0.233172 -0.0298733 0.0158854 53 50 48
-0.232302 -0.0286743 0.0176327 64 57 53
-0.231898 -0.0274628 0.0183843 71 63 56
-0.231497 -0.026256 0.0191325 73 67 59
-0.231097 -0.0250539 0.0198773 77 67 60
-0.230399 -0.0238816 0.0212604 81 73 64
-0.230005 -0.0226916 0.0219954 92 82 72
-0.229612 -0.0215061 0.0227271 106 94 78
-0.229368 -0.0203086 0.0231397 119 104 89
-0.229273 -0.0190951 0.0232358 126 117 99
-0.229177 -0.0178808 0.0233321 141 124 113
-0.228934 -0.0166864 0.0237438 156 142 125
-0.228838 -0.0154718 0.02384 171 163 143
-0.228742 -0.0142564 0.0239363 150 156 145
-0.228793 -0.0130154 0.0237175 131 125 107
-0.228697 -0.0117969 0.023814 127 106 84
-0.228454 -0.0106053 0.0242255 125 97 84
-0.228358 -0.00938654 0.0243221 110 90 78
-0.228262 -0.00816701 0.0244187 117 87 77
-0.228166 -0.00694663 0.0245154 153 97 87
-0.228069 -0.00572544 0.0246121 134 114 82
-0.227973 -0.00450341 0.0247089 98 55 60
-0.227877 -0.00328054 0.0248058 81 51 60
-0.228072 -0.00198211 0.0242738 70 56 61
-0.227975 -0.000754797 0.024371 70 56 62
-0.228171 0.000554057 0.0238369 85 82 61
-0.228074 0.00178585 0.0239345 74 75 67
-0.227977 0.00301851 0.0240321 63 63 59
-0.227734 0.00420739 0.0244456 64 53 47
-0.227345 0.00534859 0.0251723 67 52 44
-0.227103 0.00653247 0.0255832 63 47 41
-0.227006 0.00776286 0.0256807 66 47 43
-0.226764 0.00894433 0.0260906 63 51 55
-0.226523 0.0101239 0.0264997 50 42 41
-0.226282 0.0113017 0.0269079 40 34 28
-0.225899 0.0124242 0.0276246 39 38 31
-0.225093 0.0133793 0.0292572 41 39 34
-0.224436 0.0143796 0.0305695 46 43 38
-0.224061 0.0154839 0.0312693 54 48 39
-0.22355 0.0165269 0.0322654 63 52 44
-0.22318 0.017622 0.0329578 62 55 52
-0.223084 0.0188319 0.0330536 62 54 50
-0.223263 0.0201649 0.0325536 61 53 52
-0.223581 0.0215675 0.0317513 70 57 47
-0.224601 0.0233062 0.029423 71 69 57
-0.224928 0.0247386 0.0286001 48 34 36
-0.22953 0.028257 0.0184822 61 53 48
-0.229428 0.0295403 0.0185838 71 66 62
-0.229175 0.0307477 0.0190162 81 72 64
-0.229074 0.0320313 0.0191179 82 72 68
-0.228821 0.033236 0.0195492 75 69 60
-0.227969 0.0341165 0.0212868 55 54 51
-0.227571 0.0352308 0.0220367 42 40 42
-0.227322 0.0364233 0.0224609 57 49 45
-0.227221 0.0376979 0.0225619 59 49 51
-0.227417 0.0391448 0.0220164 47 38 46
-0.227912 0.0407756 0.020816 49 45 48
-0.237423 -0.0423729 0.00505913 94 67 59
-0.237323 -0.0411078 0.00515905 80 68 58
-0.237223 -0.0398418 0.00525903 57 47 42
-0.236958 -0.0385706 0.00571357 33 22 24
-0.236693 -0.0373015 0.00616708 24 18 18
-0.236265 -0.0360332 0.00697133 23 18 18
-0.235516 -0.0347704 0.00846919 19 18 21
-0.234613 -0.0335202 0.0102969 19 15 17
-0.233721 -0.0322839 0.0121033 19 16 15
-0.232529 -0.03107 0.0145579 32 18 20
-0.232432 -0.0298343 0.0146555 37 30 35
-0.231564 -0.0286341 0.0164117 54 39 33
-0.230859 -0.0274382 0.0178215 67 54 46
-0.230309 -0.0262427 0.0188944 72 66 58
-0.230063 -0.025032 0.0193147 71 66 59
-0.22937 -0.0238611 0.0206985 72 66 60
-0.229126 -0.0226584 0.0211145 78 69 61
-0.228734 -0.0214729 0.0218479 88 77 65
-0.228345 -0.020292 0.0225781 101 87 76
-0.228249 -0.0190798 0.0226738 111 102 88
-0.228153 -0.0178667 0.0227696 125 110 99
-0.228057 -0.0166529 0.0228655 138 124 110
-0.227961 -0.0154382 0.0229614 149 141 125
-0.227865 -0.0142227 0.0230574 127 122 112
-0.227769 -0.0130064 0.0231534 100 83 75
-0.227672 -0.0117892 0.0232496 102 87 72
-0.227576 -0.0105713 0.0233458 115 94 83
-0.227334 -0.0093814 0.0237571 113 98 85
-0.227093 -0.00819342 0.0241675 130 107 96
-0.226997 -0.00697572 0.0242637 156 113 101
-0.226901 -0.00575718 0.0243599 127 108 78
-0.226948 -0.00450341 0.0241423 93 63 65
-0.226996 -0.00324594 0.0239243 82 76 71
-0.2269 -0.00202214 0.0240209 99 90 82
-0.227093 -0.000719906 0.0234869 71 72 75
-0.227286 0.000589125 0.0229505 70 65 44
-0.227335 0.00186296 0.0227301 65 70 62
-0.227237 0.0030971 0.0228275 64 61 54
-0.226849 0.00424273 0.0235593 65 62 53
-0.226606 0.00542981 0.0239726 69 70 60
-0.226364 0.00661503 0.024385 64 64 56
-0.226123 0.0077984 0.0247965 65 49 44
-0.225882 0.00897993 0.0252072 62 54 43
-0.225499 0.0101086 0.0259289 47 43 36
-0.225259 0.0112852 0.026337 38 32 27
-0.224737 0.0123533 0.0273627 39 34 28
-0.223939 0.0133067 0.0289928 39 34 35
-0.223288 0.0143052 0.030303 43 39 38
-0.222916 0.0154073 0.0310017 54 48 36
-0.22241 0.0164483 0.0319961 59 52 45
-0.222043 0.0175412 0.0326873 61 57 59
-0.221947 0.0187487 0.0327826 62 58 61
-0.221987 0.0200177 0.0325808 62 55 57
-0.2223 0.0214152 0.0317809 64 50 47
-0.222751 0.0228875 0.030674 68 65 59
-0.223625 0.0245739 0.0286402 65 64 55
-0.228614 0.0282953 0.0175654 96 77 63
-0.228664 0.0296544 0.0173342 92 83 72
-0.228411 0.0308631 0.0177682 119 107 86
-0.228158 0.0320698 0.0182013 105 98 86
-0.227906 0.0332746 0.0186334 76 52 46
-0.227059 0.034155 0.020376 47 33 32
-0.226663 0.0352693 0.0211277 34 35 38
-0.226268 0.0363793 0.0218761 60 58 53
-0.226167 0.0376525 0.0219767 68 69 62
-0.22636 0.0390979 0.0214301 46 51 52
-0.226998 0.0408148 0.0199004 34 39 45
-0.236503 -0.0423397 0.00413756 97 71 62
-0.236403 -0.0410745 0.00423716 87 77 66
-0.236302 -0.0398085 0.00433684 62 50 48
-0.236038 -0.0385371 0.0047922 34 23 26
-0.235938 -0.0372709 0.00489188 23 19 18
-0.235674 -0.0360024 0.00534614 25 19 17
-0.235248 -0.0347363 0.00615212 23 20 19
-0.234183 -0.0334819 0.00834961 21 19 15
-0.23329 -0.0322414 0.0101736 19 18 13
-0.231942 -0.031028 0.0129892 29 16 19
-0.230923 -0.0298246 0.0150908 26 23 30
-0.230825 -0.0285937 0.0151877 34 21 19
-0.229971 -0.0274052 0.0169325 44 26 19
-0.229276 -0.0262196 0.0183332 59 46 38
-0.228734 -0.0250327 0.0193993 72 63 55
-0.228343 -0.0238407 0.0201379 76 67 59
-0.227953 -0.0226532 0.0208731 73 66 59
-0.227857 -0.0214398 0.0209687 76 67 61
-0.227469 -0.0202588 0.0217005 85 72 65
-0.227373 -0.0190465 0.021796 92 83 74
-0.227277 -0.0178334 0.0218915 107 96 85
-0.22718 -0.0166194 0.021987 120 109 95
-0.227084 -0.0154046 0.0220827 118 111 98
-0.226987 -0.014189 0.0221784 101 84 75
-0.226891 -0.0129726 0.0222742 78 58 57
-0.22665 -0.0117816 0.0226863 83 74 63
-0.226553 -0.0105649 0.0227821 97 83 74
-0.226313 -0.00937627 0.0231933 109 93 84
-0.226073 -0.00818955 0.0236036 139 121 102
-0.225976 -0.00697312 0.0236993 150 129 112
-0.22588 -0.00575587 0.0237952 111 96 99
-0.225783 -0.00453778 0.0238911 82 72 87
-0.225973 -0.00324726 0.0233582 81 75 74
-0.226019 -0.00198743 0.023139 99 79 74
-0.225922 -0.000762692 0.0232354 75 71 70
-0.226257 0.00058373 0.022382 66 60 47
-0.226303 0.0018562 0.0221609 78 67 60
-0.226206 0.00308905 0.022258 72 66 60
-0.225963 0.00427807 0.0226729 69 65 59
-0.225866 0.00551121 0.0227699 76 71 65
-0.22548 0.0066505 0.0235 71 76 66
-0.225097 0.00778546 0.0242268 56 50 43
-0.224857 0.00896578 0.0246373 43 36 33
-0.224476 0.0100933 0.0253592 37 34 34
-0.224097 0.0112166 0.0260778 37 34 31
-0.223441 0.0122297 0.0274096 38 34 30
-0.222928 0.0132883 0.0284245 37 36 36
-0.222419 0.0143407 0.0294328 41 46 35
-0.221913 0.0153869 0.0304344 55 55 33
-0.221275 0.0163701 0.0317279 60 54 49
-0.221045 0.0175188 0.0321207 74 63 65
-0.220949 0.018725 0.0322156 97 98 82
-0.220853 0.019932 0.0323107 78 86 79
-0.221026 0.021264 0.0318102 60 47 49
-0.221471 0.0227307 0.0307068 73 66 61
-0.221919 0.0242114 0.0295937 72 91 78
-0.22815 0.0285566 0.0156449 81 79 71
-0.228048 0.0298447 0.0157463 86 79 79
-0.227494 0.0309016 0.0168507 138 135 114
-0.227392 0.0321869 0.0169519 114 107 98
-0.226992 0.0333133 0.0177174 68 50 53
-0.22689 0.0345974 0.0178185 35 28 33
-0.226048 0.035471 0.0195656 29 30 29
-0.225653 0.0365833 0.020319 51 51 44
-0.225406 0.0377753 0.0207447 69 73 64
-0.226038 0.0394817 0.0192124 67 73 68
-0.227125 0.0414775 0.0166622 53 59 66
-0.235583 -0.0423066 0.00321585 104 79 67
-0.235483 -0.0410413 0.00331515 97 88 77
-0.235382 -0.0397751 0.00341453 69 56 56
-0.235281 -0.0385081 0.00351397 37 28 30
-0.23518 -0.0372402 0.00361347 25 20 16
-0.235079 -0.0359715 0.00371305 27 19 15
-0.234654 -0.0347023 0.00452452 25 20 15
-0.23423 -0.0334383 0.00533224 23 19 14
-0.233172 -0.0321922 0.00753533 20 19 13
-0.232285 -0.0309583 0.00936385 25 16 16
-0.230031 -0.0297915 0.0141972 24 19 20
-0.229032 -0.0286041 0.0162758 25 17 16
-0.228935 -0.0273807 0.0163718 28 18 15
-0.22795 -0.0262163 0.0184213 37 23 21
-0.22756 -0.0250223 0.0191617 54 33 29
-0.227318 -0.0238202 0.0195783 70 51 45
-0.227076 -0.0226201 0.019994 75 67 62
-0.226689 -0.0214372 0.0207277 74 69 62
-0.226593 -0.0202256 0.0208228 74 65 61
-0.226496 -0.0190132 0.020918 78 72 63
-0.2264 -0.0178 0.0210132 89 78 67
-0.226159 -0.0166067 0.0214262 100 87 76
-0.226063 -0.0153932 0.0215214 93 86 76
-0.225966 -0.0141788 0.0216167 80 70 64
-0.225869 -0.0129637 0.0217121 69 62 61
-0.22563 -0.0117739 0.0221241 77 72 61
-0.225533 -0.0105585 0.0222195 83 74 66
-0.225293 -0.00937117 0.0226306 100 86 82
-0.225197 -0.00815547 0.022726 153 133 115
-0.224958 -0.00697051 0.0231362 185 174 147
-0.224861 -0.00575455 0.0232316 160 161 159
-0.224906 -0.0045034 0.0230126 140 128 140
-0.224809 -0.00328437 0.0231083 123 114 110
-0.224996 -0.00199007 0.0225733 104 93 104
-0.225041 -0.000727878 0.0223531 78 83 102
-0.225086 0.000538046 0.0221323 62 72 75
-0.225274 0.00184947 0.0215929 90 73 67
-0.225176 0.00308104 0.0216896 82 83 72
-0.225078 0.00431342 0.0217863 105 92 75
-0.22498 0.00554666 0.0218831 96 83 75
-0.224455 0.00663877 0.0229312 77 77 69
-0.224074 0.00777257 0.0236581 62 57 48
-0.223835 0.00895167 0.0240686 44 39 34
-0.223457 0.0100781 0.0247906 35 33 30
-0.222663 0.011045 0.0264382 34 32 29
-0.222291 0.0121595 0.0271493 35 32 29
-0.221783 0.0132161 0.0281626 35 35 31
-0.221414 0.0143213 0.0288662 38 40 30
-0.220911 0.0153665 0.0298682 50 46 34
-0.220278 0.0163489 0.0311625 60 53 50
-0.219916 0.0174386 0.0318526 103 76 73
-0.21982 0.0186422 0.0319471 209 136 104
-0.219724 0.0198466 0.0320416 179 145 104
-0.219628 0.0210519 0.0321362 96 50 57
-0.220064 0.0225113 0.0310389 94 80 69
-0.220504 0.0239846 0.0299319 84 93 84
-0.227026 0.0311723 0.014927 114 108 101
-0.226624 0.0323043 0.0156995 115 106 97
-0.226373 0.0335119 0.016135 77 50 55
-0.226568 0.0349628 0.0155667 35 25 30
-0.227056 0.0406651 0.0139485 78 86 76
-0.234664 -0.0422734 0.00229402 108 81 67
-0.234562 -0.041008 0.00239302 105 99 84
-0.234461 -0.0397417 0.00249207 76 67 67
-0.234522 -0.038479 0.00223252 42 34 33
-0.234421 -0.0372095 0.00233184 28 20 15
-0.234482 -0.0359404 0.00207192 27 19 13
-0.234218 -0.0346679 0.00253068 25 19 14
-0.234116 -0.0333958 0.0026302 23 18 15
-0.233212 -0.0321392 0.00451166 20 18 16
-0.23311 -0.030873 0.00461073 22 16 17
-0.230506 -0.0297046 0.0102678 24 17 15
-0.22785 -0.0285856 0.0160445 22 18 14
-0.22702 -0.0274078 0.0177678 23 17 13
-0.226923 -0.0261934 0.0178628 26 17 16
-0.226536 -0.0250006 0.0186034 32 20 19
-0.226295 -0.0237998 0.0190199 46 28 23
-0.226054 -0.022601 0.0194355 59 42 31
-0.225813 -0.0214041 0.0198502 70 62 48
-0.225717 -0.0201924 0.019945 77 68 62
-0.225477 -0.0189979 0.0203588 77 72 62
-0.22538 -0.017786 0.0204536 76 69 62
-0.225283 -0.0165732 0.0205485 94 84 69
-0.225186 -0.0153596 0.0206435 78 77 71
-0.224947 -0.0141687 0.0210562 93 71 64
-0.22485 -0.0129548 0.0211512 85 84 75
-0.224753 -0.0117401 0.0212462 86 78 68
-0.224514 -0.0105521 0.0216581 85 75 67
-0.224276 -0.00936604 0.022069 95 86 87
-0.224038 -0.0081818 0.0224791 161 138 129
-0.223661 -0.00703083 0.0232019 217 207 182
-0.223564 -0.00581886 0.0232968 221 228 213
-0.223467 -0.00460606 0.0233916 220 206 197
-0.223791 -0.00328563 0.0225447 189 186 167
-0.223834 -0.00202992 0.0223248 154 163 164
-0.224018 -0.000731829 0.0217879 133 133 161
-0.224204 0.000572997 0.0212485 96 116 116
-0.22439 0.00188462 0.0207068 104 85 76
-0.224291 0.00311628 0.0208032 91 100 86
-0.224193 0.00434878 0.0208996 104 99 93
-0.223952 0.00553605 0.021315 96 80 77
-0.223572 0.00667421 0.022047 81 78 71
-0.223192 0.00780804 0.0227756 70 66 57
-0.222815 0.00893759 0.023501 50 51 43
-0.222439 0.0100629 0.0242232 37 36 30
-0.221652 0.0110289 0.0258718 35 31 27
-0.221281 0.0121423 0.0265832 35 33 30
-0.220777 0.0131979 0.0275969 34 34 30
-0.220545 0.0143568 0.0279966 37 35 29
-0.220045 0.015402 0.0290013 49 40 32
-0.219151 0.0162711 0.0308967 63 51 44
-0.219055 0.017474 0.0309909 91 69 66
-0.218696 0.0185598 0.0316796 170 109 89
-0.2186 0.0197617 0.0317736 142 97 93
-0.218504 0.0209644 0.0318677 89 56 61
-0.218539 0.0222308 0.0316653 111 89 76
-0.219235 0.0238248 0.0299665 99 102 91
-0.226152 0.0325804 0.0137689 103 93 94
-0.2259 0.0337921 0.0142079 64 43 51
-0.225946 0.0351663 0.0139712 31 25 30
-0.227951 0.0417934 0.00887105 70 66 63
-0.233743 -0.0422402 0.00137203 105 74 62
-0.233642 -0.0409747 0.00147074 106 97 83
-0.233702 -0.0397142 0.00120956 77 79 76
-0.2336 -0.0384454 0.00130851 48 40 40
-0.23366 -0.0371786 0.00104699 33 20 17
-0.234206 -0.0359117 -0.000304201 27 18 15
-0.234103 -0.0346327 -0.00020446 23 18 17
-0.234001 -0.0333528 -0.00010464 24 19 17
-0.233413 -0.0320821 0.00108329 26 18 18
-0.234448 -0.0307706 -0.00136736 25 17 19
-0.234345 -0.0294819 -0.00126686 29 16 14
-0.226868 -0.027332 0.0152537 32 19 13
-0.225755 -0.0261803 0.0176291 30 17 14
-0.225658 -0.0249677 0.0177237 30 17 16
-0.225274 -0.0237795 0.0184627 33 19 16
-0.225177 -0.022568 0.0185571 41 26 19
-0.224937 -0.021371 0.0189726 54 37 30
-0.22484 -0.0201592 0.0190671 67 50 46
-0.224601 -0.0189647 0.0194816 77 67 61
-0.224504 -0.0177526 0.0195761 87 76 69
-0.224407 -0.0165397 0.0196707 113 97 79
-0.224168 -0.0153482 0.0200842 89 87 80
-0.224071 -0.014135 0.0201788 114 95 80
-0.223974 -0.0129211 0.0202735 101 101 88
-0.223736 -0.0117325 0.0206861 95 78 74
-0.223498 -0.0105458 0.0210978 94 86 79
-0.223261 -0.00936094 0.0215086 106 95 90
-0.222885 -0.00820803 0.0222333 141 123 117
-0.222235 -0.00712189 0.0235789 181 165 169
-0.222001 -0.0059477 0.0239839 214 200 203
-0.222042 -0.00470781 0.0237671 231 220 200
-0.222775 -0.00328688 0.0219823 221 227 201
-0.222956 -0.00199532 0.0214455 214 234 212
-0.223138 -0.000697052 0.0209063 210 197 206
-0.223321 0.000607969 0.0203646 146 166 147
-0.223505 0.00191979 0.0198206 109 83 75
-0.223406 0.00315154 0.0199167 92 97 86
-0.223166 0.00433944 0.0203328 86 86 88
-0.223068 0.00557149 0.0204289 89 72 72
-0.222688 0.00670966 0.0211626 89 82 75
-0.222311 0.00784353 0.0218929 78 72 64
-0.221935 0.00897309 0.0226201 60 61 54
-0.221561 0.0100984 0.023344 43 38 33
-0.220779 0.0110643 0.0249972 35 29 26
-0.22041 0.0121778 0.0257102 33 32 30
-0.219908 0.0132333 0.0267266 35 32 29
-0.219543 0.0143374 0.027432 37 33 28
-0.219179 0.0154375 0.0281342 44 38 32
-0.218291 0.0163065 0.0300351 56 50 41
-0.217933 0.0173941 0.0307256 70 59 55
-0.217837 0.0185953 0.0308193 102 75 67
-0.217741 0.0197973 0.0309131 98 66 74
-0.217645 0.0210001 0.0310069 80 70 73
-0.217548 0.0222037 0.0311007 117 97 81
-0.217452 0.0234082 0.0311947 107 102 90
-0.227163 0.0419259 0.00757663 56 46 47
-0.226904 0.0431565 0.00803208 77 71 65
-0.232823 -0.0422071 0.000449921 98 64 58
-0.232722 -0.0409414 0.000548314 104 86 73
-0.23278 -0.0396807 0.000285733 84 81 74
-0.232999 -0.0384204 -0.000340024 54 42 40
-0.23338 -0.037156 -0.00133392 35 24 21
-0.233927 -0.0358827 -0.00270356 26 20 21
-0.233987 -0.034597 -0.002973 24 17 21
-0.233884 -0.0333092 -0.0028729 34 20 18
-0.23378 -0.0320206 -0.00277271 44 23 18
-0.234168 -0.030716 -0.00378487 36 20 20
-0.22478 -0.0249348 0.0168437 39 19 18
-0.22454 -0.0237339 0.0172616 33 19 18
-0.224442 -0.0225209 0.017356 34 19 17
-0.224203 -0.0213225 0.0177729 41 23 19
-0.223964 -0.020126 0.018189 52 31 27
-0.223866 -0.0189133 0.0182833 69 43 36
-0.223769 -0.0176998 0.0183776 78 67 53
-0.223671 -0.0164854 0.018472 104 89 78
-0.223433 -0.0152925 0.0188871 112 92 84
-0.223195 -0.0141014 0.0193013 109 107 81
-0.223098 -0.0128873 0.0193957 87 88 80
-0.22286 -0.0116987 0.0198089 92 82 74
-0.222623 -0.0105119 0.0202214 110 92 84
-0.222387 -0.00932702 0.0206329 127 113 98
-0.222013 -0.00817408 0.0213592 119 105 94
-0.221229 -0.00711911 0.0230204 123 84 87
-0.221133 -0.00591375 0.0231141 149 83 96
-0.221172 -0.00467371 0.0228961 159 112 121
-0.222037 -0.00321669 0.0207885 162 163 159
-0.222356 -0.001886 0.0199294 191 204 200
-0.222397 -0.00062339 0.0197052 227 214 194
-0.222438 0.000642942 0.0194806 170 180 152
-0.22262 0.00195494 0.0189342 102 61 64
-0.222521 0.00318681 0.01903 81 70 66
-0.222282 0.00437477 0.0194469 76 71 66
-0.222043 0.00556087 0.0198629 84 72 67
-0.221805 0.00674511 0.020278 93 84 78
-0.221429 0.007879 0.0210101 87 75 69
-0.221055 0.00900859 0.0217389 72 64 61
-0.220682 0.0101339 0.0224645 48 36 35
-0.219905 0.0110997 0.0241224 31 27 25
-0.219404 0.0121606 0.025146 30 29 30
-0.219039 0.0132688 0.0258561 34 30 29
-0.218675 0.0143729 0.0265632 35 32 27
-0.218182 0.0154171 0.0275709 38 36 32
-0.2173 0.0162854 0.0294731 51 49 42
-0.217074 0.0174295 0.0298655 65 60 54
-0.21672 0.0185132 0.0305546 69 64 60
-0.216623 0.0197127 0.0306479 82 64 65
-0.216527 0.0209129 0.0307412 85 85 80
-0.216431 0.022114 0.0308346 109 96 84
-0.216206 0.0232521 0.0312245 101 90 81
-0.216366 0.024584 0.0307245 76 63 61
-0.226221 0.0419661 0.0066332 45 40 40
-0.226114 0.0432907 0.00673618 73 61 67
-0.225856 0.0445208 0.00719239 78 69 81
-0.23196 -0.0409154 -0.00073651 97 68 52
-0.232176 -0.0396588 -0.00136509 83 68 57
-0.232234 -0.0383911 -0.00163117 58 41 33
-0.233098 -0.0371331 -0.00373811 42 26 22
-0.233319 -0.0358509 -0.00438069 44 24 22
-0.233542 -0.0345616 -0.0050264 57 27 23
-0.233437 -0.0332691 -0.00492622 69 29 22
-0.233333 -0.0319756 -0.00482599 66 28 20
-0.233229 -0.0306813 -0.00472568 54 25 18
-0.223369 -0.0200592 0.0166645 39 20 17
-0.22313 -0.0188618 0.0170821 54 29 23
-0.223032 -0.0176468 0.0171763 64 44 37
-0.222934 -0.016431 0.0172705 85 58 54
-0.222696 -0.0152366 0.0176871 98 76 69
-0.222598 -0.0140205 0.0177814 98 96 77
-0.22236 -0.0128286 0.0181971 82 82 75
-0.222123 -0.0116386 0.0186119 90 78 72
-0.221748 -0.0104781 0.0193448 113 98 85
-0.221512 -0.00929309 0.019757 127 120 102
-0.221277 -0.00810997 0.0201684 124 125 110
-0.220769 -0.00699152 0.0212098 125 101 98
-0.2204 -0.00584725 0.0219314 131 91 86
-0.221812 -0.00426181 0.0185376 128 101 87
-0.221713 -0.00303822 0.0186325 123 104 97
-0.221614 -0.00181381 0.0187273 138 120 116
-0.221654 -0.000549559 0.0185013 168 117 116
-0.221834 0.000758987 0.0179523 154 132 122
-0.221734 0.00199011 0.0180477 91 45 60
-0.221635 0.00322208 0.0181432 60 62 59
-0.221397 0.00441011 0.0185608 61 68 66
-0.221159 0.00559626 0.0189775 79 71 65
-0.220922 0.00678058 0.0193934 82 74 66
-0.220411 0.00786604 0.0204453 94 77 68
-0.220039 0.00899449 0.0211743 77 54 58
-0.219804 0.0101694 0.021585 43 32 32
-0.219031 0.0111352 0.0232475 26 25 24
-0.218532 0.012196 0.0242738 28 26 28
-0.218169 0.0133042 0.0249855 32 29 28
-0.217807 0.0144084 0.0256942 35 31 27
-0.217316 0.0154525 0.0267045 40 33 31
-0.216312 0.0162643 0.0289122 52 45 41
-0.215959 0.0173499 0.0296031 73 64 56
-0.215735 0.01849 0.0299938 71 72 64
-0.215511 0.0196284 0.0303838 79 67 64
-0.215414 0.0208261 0.0304766 94 89 74
-0.215318 0.0220247 0.0305695 95 85 81
-0.215221 0.0232241 0.0306624 86 72 67
-0.215124 0.0244243 0.0307554 68 63 60
-0.225278 0.0420064 0.00568963 36 38 41
-0.225171 0.0433312 0.00579229 75 66 74
-0.225065 0.0446568 0.00589502 108 77 85
-0.224958 0.0459833 0.00599782 103 80 66
-0.201961 0.0509378 0.057996 95 94 92
-0.201668 0.0518781 0.0585652 99 99 97
-0.201376 0.0528154 0.0591323 103 106 104
-0.201287 0.0539256 0.0592183 108 110 111
-0.231947 -0.0383744 -0.00403081 71 42 29
-0.232488 -0.0371045 -0.00541759 65 34 29
-0.232708 -0.0358191 -0.0060662 70 35 29
-0.232766 -0.0345268 -0.00634166 80 43 33
-0.232662 -0.0332326 -0.00624168 82 46 37
-0.232557 -0.0319374 -0.00614163 75 37 32
-0.23229 -0.0306465 -0.00566662 74 27 22
-0.232185 -0.0293512 -0.00556656 73 36 25
-0.222096 -0.0151582 0.0161602 72 50 44
-0.22172 -0.0139868 0.0169016 84 62 56
-0.221621 -0.0127698 0.0169956 79 72 65
-0.221523 -0.0115519 0.0170897 87 72 67
-0.221147 -0.00166589 0.016876 102 96 92
-0.221048 -0.000436329 0.0169709 121 105 97
-0.221226 0.000875565 0.016417 117 103 95
-0.221126 0.0021096 0.0165123 73 30 50
-0.220888 0.00330086 0.0169324 45 44 45
-0.22065 0.00449025 0.0173515 71 59 47
-0.220412 0.00567778 0.0177698 82 67 52
-0.220038 0.00681604 0.0185086 72 51 49
-0.21953 0.00790149 0.0195632 89 76 62
-0.21916 0.00902995 0.0202939 70 51 64
-0.218926 0.010205 0.0207053 38 28 33
-0.218157 0.0111706 0.0223725 25 21 18
-0.217793 0.0122841 0.0230905 29 22 20
-0.2173 0.0133397 0.0241148 34 27 23
-0.216939 0.0144438 0.0248251 42 30 25
-0.216451 0.015488 0.0258381 44 31 27
-0.215453 0.0162996 0.0280522 45 33 31
-0.214975 0.0173278 0.0290435 66 42 35
-0.214751 0.0184668 0.0294341 74 66 52
-0.214655 0.0196638 0.0295266 76 74 63
-0.214558 0.0208617 0.0296191 84 74 64
-0.214461 0.0220603 0.0297117 82 71 66
-0.214364 0.0232598 0.0298044 76 60 60
-0.214141 0.0243952 0.0301941 65 59 54
-0.208667 0.0497008 0.0400593 77 64 61
-0.208225 0.050612 0.0409807 77 67 62
-0.202184 0.050627 0.0549167 74 74 71
-0.201377 0.0511444 0.056722 75 77 72
-0.200883 0.0519134 0.0577792 78 77 71
-0.200592 0.0528507 0.0583475 79 82 76
-0.200502 0.053961 0.0584333 85 85 82
-0.200213 0.054894 0.0589993 96 85 82
-0.227733 -0.0114594 -0.000321171 77 59 51
-0.221273 -8.41128e-05 0.0134617 96 90 79
-0.221173 0.0011577 0.0135573 80 69 72
-0.221072 0.00240037 0.013653 61 33 39
-0.220415 0.00346746 0.015065 51 43 43
-0.220039 0.00461567 0.0158138 58 36 31
-0.219664 0.00575951 0.0165592 59 51 40
-0.219291 0.00689897 0.0173013 52 38 39
-0.218919 0.00803411 0.0180401 62 43 34
-0.218415 0.00911513 0.0190948 49 39 35
-0.218181 0.0102915 0.0195078 29 28 26
-0.217416 0.0112578 0.0211833 23 22 18
-0.216921 0.0123196 0.022217 25 23 18
-0.21643 0.0133751 0.0232439 31 28 22
-0.216071 0.0144793 0.0239559 38 28 23
-0.215585 0.0155234 0.0249714 38 27 23
-0.214721 0.0163914 0.02689 37 32 28
-0.214118 0.0173631 0.0281858 51 41 33
-0.213895 0.0185021 0.0285771 68 60 44
-0.213798 0.0196993 0.0286693 69 61 50
-0.213701 0.0208972 0.0287615 69 62 54
-0.213604 0.022096 0.0288538 68 54 63
-0.213257 0.0231683 0.0295415 70 66 64
-0.213036 0.0243014 0.0299304 65 66 61
-0.208348 0.0463633 0.038388 76 68 63
-0.208136 0.0474597 0.0387588 70 62 59
-0.20781 0.0484659 0.0394071 65 59 56
-0.207484 0.0494688 0.0400528 64 58 54
-0.207274 0.0505585 0.04042 65 56 52
-0.207179 0.0517384 0.0405109 65 57 50
-0.201288 0.0505767 0.0543702 64 60 59
-0.200589 0.0511798 0.055933 64 62 57
-0.200097 0.0519487 0.056993 66 62 57
-0.199808 0.0528861 0.0575627 64 63 60
-0.199717 0.0539965 0.0576482 67 64 62
-0.199429 0.0549295 0.0582155 73 65 64
-0.199241 0.0559493 0.058541 76 65 67
-0.227327 -0.0178522 -0.00174573 29 21 15
-0.226764 -0.0166339 -0.000559793 28 18 15
-0.226804 -0.0114236 -0.0012523 80 52 37
-0.226699 -0.0101352 -0.00115342 85 63 54
-0.223916 -0.000336324 0.00427666 82 70 61
-0.221929 0.000397527 0.0088692 69 56 51
-0.220978 0.00140176 0.0109939 50 39 43
-0.220736 0.00260837 0.011425 49 31 30
-0.220077 0.00367951 0.0128534 49 42 38
-0.219424 0.00474168 0.0142688 39 26 25
-0.21905 0.00588793 0.0150192 37 31 30
-0.218677 0.00702981 0.0157662 37 24 25
-0.218171 0.00811843 0.0168331 39 23 19
-0.217802 0.00925044 0.0175719 36 28 23
-0.217434 0.0103782 0.0183074 25 26 26
-0.216672 0.0113452 0.0199912 22 21 20
-0.216049 0.0123551 0.0213434 25 22 17
-0.21556 0.0134106 0.022373 28 24 20
-0.215075 0.0144599 0.0233957 30 25 21
-0.214592 0.015503 0.0244117 31 27 22
-0.21386 0.0164267 0.0260288 34 30 25
-0.213261 0.0173984 0.027328 39 31 28
-0.213039 0.0185375 0.02772 47 36 32
-0.212942 0.0197347 0.0278118 52 43 36
-0.212845 0.0209328 0.0279038 70 53 44
-0.212499 0.0220069 0.0285932 79 75 62
-0.212156 0.0230772 0.0292797 82 93 78
-0.211813 0.0241436 0.0299633 71 75 70
-0.21123 0.025076 0.0312304 86 77 84
-0.210531 0.0259354 0.0327764 73 63 58
-0.210078 0.026919 0.0337322 66 63 56
-0.208691 0.0273635 0.0369462 96 86 72
-0.208365 0.0283966 0.0375957 122 114 97
-0.207127 0.0436157 0.0387639 76 73 63
-0.207031 0.0447921 0.0388542 69 60 56
-0.20705 0.0460551 0.0386663 64 54 49
-0.206954 0.0472343 0.0387568 61 50 46
-0.206744 0.0483261 0.0391254 58 52 49
-0.206535 0.0494164 0.0394933 58 55 51
-0.206326 0.0505051 0.0398605 60 54 50
-0.20623 0.0516839 0.0399509 59 55 48
-0.200597 0.0506981 0.0533279 59 57 54
-0.1997 0.0511294 0.055389 61 58 50
-0.199212 0.0518978 0.0564499 60 59 53
-0.199023 0.0529215 0.0567777 60 59 58
-0.198834 0.0539439 0.0571049 60 60 56
-0.198548 0.0548761 0.0576724 62 61 57
-0.19836 0.0558951 0.0579979 64 62 60
-0.19827 0.0570035 0.058083 67 63 62
-0.198082 0.0580209 0.0584079 69 65 65
-0.197992 0.0591298 0.058493 74 70 72
-0.226761 -0.020365 -0.00323744 65 31 22
-0.226503 -0.0191001 -0.00277365 47 27 19
-0.225943 -0.0178782 -0.00158437 32 22 18
-0.225838 -0.0165987 -0.00148648 25 15 16
-0.225885 -0.0152949 -0.00175109 27 16 16
-0.226084 -0.0139621 -0.00238053 37 23 17
-0.225979 -0.0126754 -0.00228209 74 42 21
-0.225874 -0.0113878 -0.00218357 84 60 41
-0.225769 -0.0100994 -0.002085 94 61 52
-0.225664 -0.00881002 -0.00198636 104 69 57
-0.225559 -0.00751982 -0.00188763 105 77 62
-0.225453 -0.00622872 -0.00178886 101 76 64
-0.225348 -0.00493677 -0.00169 96 68 60
-0.224941 -0.00371878 -0.000865404 93 61 56
-0.224536 -0.00250576 -4.47179e-05 91 60 53
-0.224133 -0.00129763 0.000772166 84 59 50
-0.222997 -0.000300138 0.00335697 66 45 40
-0.222024 0.000723617 0.00555261 44 25 25
-0.220922 0.00169124 0.00805938 32 19 21
-0.220537 0.00286209 0.00883678 36 26 25
-0.220015 0.00398334 0.00994826 37 34 30
-0.219496 0.00509765 0.0110521 25 20 23
-0.218843 0.00615792 0.0124805 25 19 25
-0.21806 0.00716125 0.0142239 26 18 17
-0.217689 0.00830117 0.0149725 26 19 12
-0.217186 0.00938639 0.016042 25 20 16
-0.216686 0.0104651 0.0171042 22 20 21
-0.215796 0.0113808 0.0191138 22 18 17
-0.215047 0.0123377 0.0207835 25 20 17
-0.214434 0.0133384 0.0221244 27 23 19
-0.213953 0.0143857 0.0231454 25 23 20
-0.213475 0.0154269 0.0241597 26 24 21
-0.212751 0.0163491 0.0257743 29 25 22
-0.212404 0.0174337 0.0264701 31 25 24
-0.212183 0.0185728 0.0268627 35 30 29
-0.212085 0.0197702 0.0269543 50 43 38
-0.211988 0.0209683 0.027046 78 53 45
-0.211767 0.0221048 0.0274377 76 71 63
-0.211302 0.0231128 0.0284251 104 96 77
-0.210598 0.0239869 0.0299959 80 80 72
-0.209783 0.0247881 0.0318405 69 70 70
-0.20945 0.0258399 0.0325103 78 72 62
-0.207954 0.0262318 0.0360236 104 88 73
-0.207514 0.0272008 0.0369547 132 118 96
-0.207419 0.0283647 0.0370438 146 122 101
-0.20721 0.0294613 0.0374121 140 124 107
-0.207002 0.0305564 0.0377798 136 135 113
-0.206455 0.0314399 0.0389768 127 127 106
-0.206248 0.0325287 0.039341 101 94 84
-0.205076 0.0354179 0.0417879 65 60 56
-0.204983 0.03657 0.0418761 64 61 56
-0.204998 0.0377986 0.0416939 64 60 57
-0.205125 0.0391079 0.0412399 72 62 58
-0.205362 0.0405025 0.040511 74 70 65
-0.205601 0.0419067 0.0397776 73 75 62
-0.205954 0.0434032 0.0387627 62 59 54
-0.206083 0.0447442 0.038297 57 52 45
-0.205987 0.0459203 0.0383869 56 50 41
-0.206004 0.0471841 0.0381986 54 48 43
-0.205795 0.0482748 0.0385671 54 49 46
-0.205699 0.0494533 0.0386572 56 50 50
-0.205379 0.0504519 0.039302 57 51 51
-0.205395 0.051721 0.0391152 57 54 47
-0.198714 0.0509935 0.0550909 60 52 47
-0.198329 0.051847 0.0559077 55 55 51
-0.198141 0.0528698 0.0562354 60 58 51
-0.197855 0.0538035 0.0568044 59 56 53
-0.197668 0.0548229 0.0571304 59 57 56
-0.197578 0.0559306 0.0572151 60 59 58
-0.197391 0.0569484 0.0575405 62 60 56
-0.1973 0.0580566 0.0576253 64 61 56
-0.197113 0.0590728 0.0579501 64 62 59
-0.196927 0.0600878 0.0582743 65 63 63
-0.19655 0.060913 0.0590742 70 62 64
-0.196175 0.0617342 0.0598695 78 64 67
-0.195802 0.0625513 0.0606601 82 69 76
-0.225727 -0.019046 -0.00406988 56 31 23
-0.22547 -0.0177817 -0.00360533 40 24 20
-0.225214 -0.0165195 -0.00314181 26 18 16
-0.225109 -0.015236 -0.00304393 27 19 15
-0.225155 -0.0139265 -0.00331133 44 27 19
-0.225201 -0.0126129 -0.00357928 79 53 28
-0.225095 -0.0113237 -0.00348096 87 57 36
-0.22499 -0.0100336 -0.00338258 98 63 51
-0.224884 -0.00874261 -0.00328413 101 65 57
-0.224628 -0.0074837 -0.00281998 103 64 58
-0.224522 -0.0061925 -0.00272152 100 60 56
-0.224267 -0.0049364 -0.00225845 96 57 50
-0.224012 -0.00368244 -0.00179643 89 54 43
-0.223609 -0.00246939 -0.000973821 85 49 38
-0.223207 -0.00126124 -0.000155042 81 44 34
-0.222369 -0.000181847 0.00172877 64 34 30
-0.221685 0.000927901 0.0032393 37 19 21
-0.22115 0.00207147 0.00438712 26 16 17
-0.220761 0.00325255 0.0051801 28 20 20
-0.220516 0.00447504 0.00562356 25 22 24
-0.220412 0.00574307 0.00572027 21 14 19
-0.220167 0.00696293 0.00616271 23 16 21
-0.220063 0.0082312 0.00625943 21 19 18
-0.218842 0.00908861 0.00909086 19 18 10
-0.217103 0.00972612 0.0131936 17 16 12
-0.216333 0.0107072 0.014925 19 14 14
-0.21492 0.0114163 0.0182363 23 15 13
-0.213919 0.0122677 0.020538 25 20 17
-0.213186 0.0132132 0.0221866 27 25 21
-0.21271 0.0142576 0.0232037 26 24 21
-0.212114 0.0152406 0.024519 24 21 20
-0.211522 0.0162158 0.0258228 26 24 21
-0.211425 0.0174116 0.025914 30 27 24
-0.211327 0.0186082 0.0260053 33 39 38
-0.211229 0.0198056 0.0260966 50 55 51
-0.211131 0.0210039 0.026188 78 54 48
-0.210911 0.0221404 0.0265803 79 61 68
-0.210569 0.0232118 0.0272714 106 80 72
-0.210109 0.0242149 0.028257 92 82 81
-0.208939 0.0248234 0.0309953 86 76 64
-0.208725 0.0259408 0.0313764 90 87 76
-0.207121 0.0262669 0.0351904 138 109 88
-0.206684 0.0272358 0.0361239 142 130 108
-0.206476 0.0283329 0.0364929 137 114 94
-0.206268 0.0294285 0.0368611 128 101 84
-0.205724 0.030316 0.0380617 125 115 92
-0.205406 0.0313357 0.0387023 112 105 90
-0.204869 0.0322113 0.0398878 82 71 71
-0.204555 0.0332223 0.0405207 67 60 56
-0.204351 0.0343018 0.0408801 65 59 57
-0.204148 0.03538 0.0412388 65 60 53
-0.204054 0.0365309 0.0413265 64 61 56
-0.204069 0.0377583 0.0411436 65 60 60
-0.204083 0.0389891 0.0409605 80 66 63
-0.204207 0.0403018 0.0405047 74 70 63
-0.204441 0.041701 0.0397733 64 54 47
-0.204677 0.0431099 0.0390374 53 48 44
-0.205137 0.0446965 0.0377408 48 53 43
-0.205153 0.0459569 0.0375516 50 50 41
-0.205057 0.0471339 0.0376414 50 48 43
-0.20496 0.0483117 0.0377312 50 49 44
-0.204864 0.0494903 0.0378211 51 50 44
-0.204767 0.0506697 0.037911 52 52 47
-0.197928 0.0510288 0.0543038 57 51 45
-0.197447 0.0517964 0.0553664 55 55 48
-0.197067 0.052645 0.0561789 57 56 49
-0.196976 0.0537513 0.0562633 59 53 52
-0.196694 0.0546814 0.0568303 56 56 54
-0.196508 0.0556977 0.0571551 55 58 55
-0.196417 0.056803 0.0572394 57 57 53
-0.196422 0.0580006 0.0570834 59 57 51
-0.196236 0.059016 0.0574082 60 59 53
-0.195861 0.0598437 0.0582103 59 61 57
-0.195582 0.060761 0.0587705 60 61 57
-0.195304 0.0616754 0.0593286 63 61 58
-0.194841 0.0623971 0.0603545 65 61 63
-0.194474 0.0632092 0.0611397 66 64 62
-0.193834 0.0637307 0.0626135 69 66 63
-0.193292 0.0643422 0.0638424 74 67 65
-0.192845 0.0650443 0.0648336 85 68 69
-0.224949 -0.0189917 -0.00536938 67 35 25
-0.224692 -0.0177258 -0.00490301 48 29 21
-0.224437 -0.0164621 -0.00443771 29 21 17
-0.224331 -0.015177 -0.00434001 32 18 14
-0.224376 -0.0138657 -0.00460959 54 30 19
-0.22427 -0.0125772 -0.00451165 83 58 32
-0.224164 -0.0112879 -0.00441363 89 57 34
-0.224058 -0.00999765 -0.00431555 96 59 43
-0.223952 -0.00870656 -0.0042174 97 61 52
-0.223697 -0.00744757 -0.00375246 100 61 55
-0.223591 -0.00615627 -0.00365429 100 62 57
-0.223485 -0.00486408 -0.00355606 95 58 53
-0.22323 -0.0036086 -0.00309225 88 52 44
-0.222976 -0.00235522 -0.00262948 83 44 36
-0.222575 -0.00114436 -0.00180512 80 41 32
-0.222322 0.000103319 -0.00134542 71 37 27
-0.22207 0.0013489 -0.000886742 49 24 20
-0.221965 0.0026371 -0.000788813 27 16 14
-0.221859 0.00392617 -0.000690823 23 16 14
-0.221753 0.00521612 -0.00059277 21 17 16
-0.221647 0.00650695 -0.000494653 21 14 13
-0.220818 0.00754564 0.00139127 22 14 13
-0.220426 0.00872716 0.00219787 16 16 15
-0.219469 0.00969354 0.00440155 17 14 13
-0.219364 0.0109681 0.00449844 14 14 14
-0.2187 0.0120232 0.00598214 17 13 13
-0.215346 0.0119787 0.0141316 23 13 12
-0.212797 0.012198 0.0202936 26 20 18
-0.211451 0.0128776 0.0234762 27 28 24
-0.211107 0.0139687 0.0241771 27 26 23
-0.210765 0.0150559 0.024875 25 22 20
-0.210667 0.016251 0.0249659 29 27 21
-0.210569 0.0174468 0.0250568 36 37 29
-0.21047 0.0186435 0.0251477 45 53 52
-0.210372 0.0198411 0.0252388 55 66 63
-0.210152 0.0209782 0.0256318 66 46 43
-0.209933 0.0221137 0.0260241 89 64 72
-0.209715 0.0232475 0.0264155 91 68 75
-0.209257 0.0242505 0.0274036 106 88 93
-0.208212 0.0249233 0.0298574 127 100 83
-0.207998 0.0260418 0.0302398 104 99 89
-0.207667 0.027092 0.0309126 143 114 94
-0.205854 0.0272709 0.0352929 146 130 109
-0.205646 0.028368 0.0356625 130 123 100
-0.205104 0.0292603 0.036869 110 96 77
-0.204677 0.0302142 0.0377893 93 74 65
-0.204362 0.031232 0.0384289 84 65 60
-0.203939 0.0321763 0.0393395 71 60 50
-0.203735 0.0332574 0.0397002 64 60 52
-0.203424 0.0342649 0.040332 64 59 55
-0.203222 0.0353421 0.0406906 65 61 52
-0.203127 0.0364919 0.040778 63 60 56
-0.203033 0.0376426 0.0408655 69 64 61
-0.203046 0.0388708 0.0406821 73 71 65
-0.203059 0.0401023 0.0404984 67 52 44
-0.203289 0.0414966 0.039769 51 44 39
-0.20352 0.0429005 0.0390351 50 43 40
-0.204082 0.0445649 0.0374643 47 47 46
-0.204207 0.045908 0.0369958 48 48 41
-0.204222 0.0471707 0.0368056 50 48 38
-0.204125 0.0483485 0.0368951 50 45 40
-0.197141 0.0510641 0.0535167 54 50 44
-0.196472 0.0516601 0.0550696 52 52 46
-0.196285 0.0526802 0.0553967 55 55 48
-0.196004 0.0536118 0.0559651 57 52 49
-0.195818 0.0546285 0.0562904 55 54 50
-0.195256 0.055289 0.0575736 54 56 52
-0.195166 0.056389 0.0576572 55 55 50
-0.195263 0.0576712 0.0572629 57 54 47
-0.195173 0.0587749 0.0573468 58 55 49
-0.194895 0.0596937 0.0579084 58 58 51
-0.194618 0.0606095 0.0584679 58 60 52
-0.19425 0.0614285 0.0592613 60 61 52
-0.193975 0.0623381 0.0598155 61 61 55
-0.193337 0.062865 0.0612994 63 62 54
-0.192707 0.0633866 0.0627662 64 66 57
-0.192439 0.0642824 0.0633064 65 67 61
-0.192172 0.0651756 0.0638446 69 67 65
-0.191906 0.0660661 0.0643808 73 67 67
-0.191729 0.0670513 0.0646892 77 69 69
-0.19164 0.0681337 0.0647715 78 73 72
-0.223912 -0.0176698 -0.00620397 58 37 26
-0.223657 -0.0164046 -0.00573685 37 24 20
-0.223551 -0.0151177 -0.00563934 36 16 14
-0.223445 -0.01383 -0.00554177 60 32 21
-0.223339 -0.0125415 -0.00544415 85 58 33
-0.223233 -0.011252 -0.00534645 91 56 33
-0.223127 -0.00996171 -0.00524868 92 54 36
-0.22302 -0.0086705 -0.00515084 93 55 42
-0.222766 -0.00741145 -0.00468507 96 59 51
-0.22266 -0.00612003 -0.00458723 101 65 57
-0.222553 -0.00482776 -0.00448931 96 64 58
-0.222299 -0.00357218 -0.00402468 88 53 47
-0.222046 -0.00231876 -0.00356111 81 44 37
-0.22194 -0.00102693 -0.00346323 80 38 29
-0.221541 0.000181745 -0.00263711 78 33 23
-0.221435 0.00147226 -0.00253933 57 27 20
-0.221474 0.0028087 -0.00280491 27 18 18
-0.221368 0.0041025 -0.00270688 18 15 16
-0.221261 0.00539721 -0.00260878 16 15 16
-0.220719 0.00654401 -0.001424 17 16 14
-0.219895 0.0075826 0.000467127 18 14 14
-0.21908 0.00860979 0.00233606 15 18 14
-0.218975 0.00988813 0.00243291 16 16 14
-0.211903 0.0109718 0.0196459 22 16 13
-0.210691 0.0117146 0.0225255 25 23 18
-0.210348 0.0128076 0.0232281 25 27 22
-0.210007 0.0138966 0.0239277 25 25 21
-0.209909 0.0150909 0.0240182 26 22 19
-0.209811 0.0162861 0.0241088 33 29 23
-0.209712 0.0174821 0.0241994 57 46 36
-0.209614 0.0186789 0.0242901 84 67 58
-0.209395 0.0198166 0.0246838 82 71 63
-0.209176 0.0209526 0.0250768 57 26 31
-0.208958 0.0220869 0.0254689 77 80 65
-0.208621 0.0231563 0.0261603 100 86 86
-0.208523 0.0243507 0.0262508 117 102 83
-0.208425 0.0255459 0.0263414 137 126 103
-0.205024 0.0273059 0.0344618 150 129 107
-0.204373 0.0281365 0.0359539 156 127 103
-0.203948 0.0290932 0.0368767 119 85 72
-0.203853 0.0302492 0.0369643 79 56 49
-0.203322 0.0311288 0.0381564 67 57 47
-0.203118 0.0322114 0.0385184 64 60 49
-0.2027 0.0331505 0.0394257 62 59 49
-0.202391 0.0341563 0.0400565 63 60 48
-0.202084 0.0351587 0.0406847 65 59 51
-0.201989 0.0363051 0.0407716 63 61 59
-0.201895 0.0374523 0.0408585 78 81 66
-0.201801 0.0386002 0.0409455 67 51 51
-0.202025 0.0399819 0.0402209 55 45 41
-0.202037 0.0412142 0.0400367 48 45 40
-0.20237 0.0426925 0.0390326 51 47 41
-0.202923 0.0443504 0.0374665 51 48 42
-0.203263 0.0458593 0.0364411 50 47 40
-0.203386 0.0472074 0.0359697 49 46 38
-0.19588 0.0518669 0.0537977 53 51 45
-0.195314 0.0525427 0.0551003 54 54 46
-0.195223 0.053647 0.055184 56 52 46
-0.194663 0.0543124 0.0564735 56 52 47
-0.194109 0.054972 0.0577506 55 53 49
-0.194111 0.0561567 0.0575959 55 54 48
-0.194206 0.0574348 0.0572024 56 53 44
-0.194115 0.0585353 0.0572858 59 51 47
-0.19384 0.0594519 0.0578456 58 55 50
-0.193474 0.0602728 0.0586397 58 58 48
-0.193201 0.0611831 0.0591942 55 60 49
-0.192839 0.0619965 0.0599807 58 58 52
-0.192749 0.0630902 0.0600635 62 60 53
-0.19212 0.0636116 0.0615401 64 64 57
-0.191764 0.0644133 0.0623132 65 65 60
-0.191497 0.0653072 0.0628535 66 64 61
-0.191232 0.0661983 0.0633918 67 64 63
-0.190968 0.0670869 0.0639281 68 64 63
-0.190879 0.0681694 0.0640102 66 67 64
-0.184756 0.0747235 0.0782056 143 132 116
-0.222727 -0.0163691 -0.00666855 47 29 24
-0.222621 -0.0150822 -0.00657136 38 18 16
-0.222514 -0.0137944 -0.0064741 57 30 22
-0.222408 -0.0125057 -0.00637678 85 53 31
-0.222301 -0.0112162 -0.00627939 92 53 33
-0.222195 -0.00992575 -0.00618193 89 52 33
-0.221941 -0.00866596 -0.0057153 90 50 35
-0.221835 -0.00737531 -0.00561783 92 57 45
-0.221728 -0.0060838 -0.00552029 98 65 56
-0.221621 -0.00479141 -0.00542268 97 68 61
-0.221515 -0.00349812 -0.00532502 88 56 52
-0.221408 -0.00220396 -0.00522728 81 46 38
-0.221155 -0.000949685 -0.00476194 80 38 27
-0.221048 0.000344706 -0.00466418 79 33 22
-0.220795 0.00159618 -0.00419996 64 29 21
-0.220689 0.00289078 -0.00410218 38 21 19
-0.220437 0.00413949 -0.00363907 20 14 15
-0.22033 0.0054343 -0.00354129 16 16 14
-0.219791 0.00658109 -0.00235347 18 17 13
-0.219114 0.00766999 -0.000815193 20 15 15
-0.218162 0.00864663 0.00141692 18 17 17
-0.218057 0.00992507 0.00151346 21 19 17
-0.211036 0.011007 0.0187777 26 19 11
-0.209832 0.0117496 0.0216656 26 20 16
-0.209491 0.0128425 0.0223699 25 23 20
-0.209152 0.0139316 0.0230711 24 23 20
-0.208933 0.0150713 0.0234656 24 23 19
-0.208715 0.0162093 0.0238594 27 26 22
-0.208617 0.0174027 0.0239495 45 39 34
-0.208518 0.018597 0.0240397 68 58 49
-0.2083 0.0197324 0.0244326 65 49 45
-0.208083 0.0208661 0.0248246 68 32 30
-0.207867 0.0219982 0.0252159 74 65 60
-0.208004 0.0233188 0.0247034 96 89 78
-0.203643 0.0270133 0.0350393 123 113 91
-0.203002 0.0278411 0.0365204 135 121 103
-0.202691 0.0288604 0.0371606 107 80 76
-0.202596 0.0300117 0.0372475 73 50 49
-0.202393 0.0310948 0.0376101 62 53 48
-0.201977 0.0320367 0.0385199 63 54 51
-0.201669 0.0330441 0.0391522 61 56 52
-0.201152 0.0339055 0.0403228 61 57 50
-0.200744 0.0348324 0.041216 64 58 52
-0.200649 0.0359729 0.0413022 68 62 57
-0.200555 0.0371143 0.0413883 68 67 65
-0.200461 0.0382564 0.0414746 57 44 41
-0.200784 0.0397072 0.0404855 50 43 36
-0.200795 0.0409342 0.040302 44 43 38
-0.20091 0.0422446 0.0398471 48 47 39
-0.201131 0.043643 0.0391175 50 48 38
-0.202213 0.0457255 0.0361671 49 48 38
-0.193426 0.053912 0.0568938 57 51 45
-0.193061 0.0547446 0.0576893 56 52 47
-0.193153 0.0560143 0.0572973 55 54 47
-0.192972 0.0570202 0.0576174 53 52 45
-0.192881 0.0581155 0.0577001 53 54 47
-0.192791 0.0592116 0.0577829 55 57 49
-0.192519 0.0601232 0.0583388 56 51 46
-0.192248 0.0610321 0.0588926 57 54 48
-0.192068 0.0620321 0.05921 60 59 55
-0.191978 0.0631259 0.0592926 63 60 57
-0.19162 0.063933 0.0600763 64 63 58
-0.191264 0.0647361 0.0608556 64 64 59
-0.19091 0.0655354 0.0616305 64 63 61
-0.190645 0.066428 0.0621719 65 62 61
-0.190207 0.0671225 0.063167 66 63 62
-0.190118 0.0682051 0.0632487 67 67 64
-0.184272 0.073924 0.0770016 101 84 80
-0.183958 0.0746595 0.0776854 104 93 87
-0.221797 -0.0163337 -0.0076004 50 35 25
-0.22169 -0.0150467 -0.00750352 32 19 19
-0.221583 -0.0137588 -0.00740657 51 24 20
-0.221477 -0.01247 -0.00730955 85 43 27
-0.22137 -0.0111803 -0.00721247 92 52 33
-0.221117 -0.0099198 -0.00674498 88 51 32
-0.22101 -0.00862992 -0.00664788 90 46 31
-0.220903 -0.00733918 -0.00655073 89 55 38
-0.220796 -0.00604756 -0.0064535 94 61 51
-0.220689 -0.00475504 -0.0063562 96 68 60
-0.220582 -0.00346167 -0.00625884 89 60 55
-0.220475 -0.00216738 -0.00616141 83 49 40
-0.220368 -0.000872227 -0.00606392 80 39 29
-0.220261 0.000423802 -0.00596636 78 34 25
-0.220008 0.0016768 -0.00550031 71 32 24
-0.219901 0.00297306 -0.00540274 50 24 20
-0.21965 0.00422328 -0.0049378 26 16 14
-0.219399 0.00547139 -0.00447394 19 15 11
-0.218863 0.00661815 -0.00328308 20 17 12
-0.21819 0.007707 -0.00174071 21 15 15
-0.217245 0.00868347 0.00049765 22 16 19
-0.216724 0.00980401 0.00165295 26 18 16
-0.216619 0.0110789 0.00174892 29 16 14
-0.208974 0.0117845 0.0208057 26 20 15
