ply
format ascii 1.0
element vertex 1205
property float x
property float y
property float z
property uchar diffuse_red
property uchar diffuse_green
property uchar diffuse_blue
end_header
0.117917 -0.17238 -0.052414 72 67 60
0.340071 -0.021255 0.0802245 73 68 59
0.338542 -0.0200414 0.0784792 72 68 59
0.337856 -0.0182659 0.0772408 72 65 58
0.338007 -0.0159176 0.0765016 76 66 59
0.338158 -0.0135592 0.075759 78 67 62
0.117421 -0.175972 -0.0501528 89 179 177
0.115969 -0.17592 -0.0514127 76 149 158
0.115994 -0.174931 -0.0517545 70 97 104
0.116676 -0.173513 -0.0516924 75 68 60
0.117033 -0.172295 -0.0518339 73 67 61
0.338452 -0.0208174 0.0817623 71 65 58
0.336927 -0.0196044 0.0800138 73 65 58
0.337076 -0.0172589 0.0792804 74 66 57
0.336387 -0.0154794 0.0780393 75 67 61
0.335699 -0.0136999 0.076798 76 66 62
0.114913 -0.17692 -0.0506027 84 178 178
0.114613 -0.176144 -0.0511442 79 137 140
0.114635 -0.175159 -0.0514844 72 81 85
0.114981 -0.173959 -0.0516237 74 68 60
0.335997 -0.0209431 0.082787 73 67 58
0.335311 -0.0191675 0.0815486 74 66 57
0.334624 -0.0173917 0.0803102 77 66 57
0.334768 -0.0150412 0.0795772 78 68 61
0.33408 -0.0132615 0.0783359 78 68 60
0.114185 -0.17771 -0.0495944 88 167 167
0.112929 -0.177546 -0.0507423 78 170 175
0.113107 -0.176468 -0.0509785 77 123 122
0.113126 -0.175488 -0.0513167 78 71 67
0.113626 -0.17419 -0.051354 79 71 61
0.335068 -0.0222819 0.0855605 78 73 60
0.333553 -0.0210682 0.0838077 77 72 58
0.332868 -0.0192961 0.0825718 73 70 60
0.332182 -0.0175239 0.0813359 74 63 61
0.331496 -0.0157517 0.0800999 79 66 60
0.330811 -0.0139792 0.0788638 81 70 59
0.11127 -0.178928 -0.0503461 90 173 172
0.110974 -0.178163 -0.0508798 77 159 167
0.111145 -0.177094 -0.0511147 72 111 114
0.11116 -0.176123 -0.0514507 78 67 61
0.112121 -0.174524 -0.0511869 79 71 63
0.332626 -0.0224043 0.0865757 78 70 59
0.33194 -0.0206321 0.0853399 79 72 58
0.331255 -0.0188599 0.084104 72 72 60
0.330569 -0.0170875 0.082868 72 61 60
0.329066 -0.0158867 0.0811242 78 64 57
0.328382 -0.0141178 0.0798906 80 70 60
0.110714 -0.179604 -0.0492514 84 157 159
0.109647 -0.179334 -0.050286 88 179 178
0.109352 -0.178573 -0.0508168 79 147 155
0.109518 -0.177511 -0.0510503 72 94 102
0.109685 -0.176444 -0.051285 74 67 61
0.110163 -0.175165 -0.0513217 74 67 62
0.331013 -0.0219683 0.0881082 73 66 61
0.330327 -0.0201961 0.0868724 73 66 59
0.329641 -0.0184236 0.0856364 70 65 58
0.32814 -0.01722 0.0838868 74 65 57
0.327456 -0.015451 0.0826533 78 67 55
0.326771 -0.0136819 0.0814197 76 70 60
0.109249 -0.179908 -0.0490963 85 162 165
0.107739 -0.17993 -0.0504247 83 177 180
0.107749 -0.178978 -0.0507544 80 136 139
0.107758 -0.178023 -0.0510853 74 80 84
0.107918 -0.176963 -0.0513187 72 72 61
0.108692 -0.17549 -0.0511565 70 69 61
0.329399 -0.0215323 0.089641 72 67 60
0.328713 -0.0197598 0.0884051 71 68 61
0.327214 -0.0185533 0.0866498 70 67 59
0.32653 -0.0167843 0.0854162 76 69 58
0.325845 -0.0150152 0.0841826 76 71 58
0.106446 -0.181077 -0.0498405 90 167 167
0.106155 -0.180325 -0.0503647 79 167 173
0.106311 -0.179282 -0.0505941 76 121 123
0.106317 -0.178331 -0.0509232 74 70 67
0.106473 -0.177277 -0.0511551 72 71 60
0.107082 -0.175914 -0.0510919 70 67 59
0.326973 -0.0216557 0.0906463 74 67 58
0.326288 -0.0198868 0.0894129 73 70 59
0.325604 -0.0181178 0.0881795 73 67 59
0.324114 -0.016917 0.0864281 76 66 58
0.323431 -0.0151514 0.0851971 78 73 61
0.105904 -0.18174 -0.0487654 89 151 150
0.104585 -0.181654 -0.0499805 92 174 172
0.104588 -0.180716 -0.0503053 80 155 163
0.104738 -0.179679 -0.0505332 73 108 115
0.104889 -0.178637 -0.0507625 73 66 61
0.105337 -0.17739 -0.0507962 71 63 59
0.326046 -0.0229894 0.0934098 73 64 59
0.324556 -0.0217786 0.0916477 72 66 59
0.323873 -0.0200132 0.0904168 73 69 60
0.323189 -0.0182478 0.0891859 75 66 59
0.322506 -0.0164821 0.0879549 77 64 58
0.321823 -0.0147164 0.0867238 77 67 61
0.104046 -0.183243 -0.0485912 83 128 129
0.103469 -0.182685 -0.0493073 86 158 161
0.103181 -0.181941 -0.0498255 88 178 179
0.103182 -0.181009 -0.0501486 80 144 152
0.103327 -0.179977 -0.0503752 73 90 101
0.103183 -0.179134 -0.0507984 72 66 61
0.103913 -0.1777 -0.0506359 70 63 60
0.323631 -0.0231096 0.0944057 74 66 56
0.322149 -0.0219009 0.0926451 73 69 59
0.321467 -0.0201391 0.0914168 75 70 59
0.320785 -0.0183771 0.0901884 78 68 58
0.320898 -0.0160472 0.0894819 78 65 56
0.101368 -0.184346 -0.049325 85 134 134
0.101507 -0.183335 -0.0495465 87 162 166
0.101931 -0.182133 -0.0495741 81 177 179
0.101787 -0.181298 -0.0499933 78 136 138
0.102072 -0.180177 -0.0501209 71 74 80
0.101927 -0.179336 -0.0505423 71 65 59
0.102213 -0.178202 -0.0506725 72 67 60
0.321226 -0.0232292 0.0953977 76 68 57
0.320545 -0.0214673 0.0941694 74 67 57
0.319863 -0.0197053 0.092941 77 67 59
0.31918 -0.0179431 0.0917126 73 65 57
0.100562 -0.185171 -0.0484691 76 120 122
0.100278 -0.184437 -0.0489806 88 142 143
0.100133 -0.183612 -0.0493951 92 167 169
0.100269 -0.182602 -0.0496165 77 167 173
0.100687 -0.181398 -0.0496445 73 123 125
0.100825 -0.180375 -0.0498682 73 67 64
0.100963 -0.179346 -0.0500931 72 67 58
0.101103 -0.178311 -0.0503193 71 68 59
0.320304 -0.0245577 0.0981506 78 68 57
0.319622 -0.0227957 0.0969223 73 66 58
0.31894 -0.0210337 0.095694 74 67 58
0.318258 -0.0192714 0.0944655 76 67 58
0.317576 -0.0175091 0.093237 72 67 58
0.0996149 -0.18517 -0.0480299 71 121 125
0.0990544 -0.184618 -0.0487352 83 149 152
0.0989095 -0.183796 -0.0491481 92 175 175
0.0989026 -0.182881 -0.049465 77 158 167
0.0990346 -0.18187 -0.0496863 67 107 117
0.099727 -0.180477 -0.0495197 73 65 61
0.100145 -0.179259 -0.0495474 73 67 60
0.318699 -0.0241243 0.0996755 72 64 57
0.318017 -0.0223622 0.0984472 72 60 56
0.317335 -0.0205999 0.0972188 72 63 59
0.316653 -0.0188375 0.0959903 73 63 59
0.0978481 -0.185704 -0.048178 69 125 128
0.0972944 -0.185154 -0.0488782 81 156 160
0.0974209 -0.184159 -0.0490959 86 178 180
0.0975482 -0.183158 -0.0493147 76 147 156
0.097676 -0.182152 -0.0495346 68 91 104
0.0980803 -0.180954 -0.0495621 75 63 60
0.317094 -0.0236908 0.101201 72 63 59
0.316412 -0.0219285 0.0999723 71 61 59
0.31573 -0.0201661 0.0987438 74 62 57
0.0962395 -0.186142 -0.0482276 72 130 131
0.0959595 -0.185419 -0.0487317 86 162 162
0.0958134 -0.184607 -0.04914 80 173 177
0.0964756 -0.183252 -0.0489727 75 137 139
0.0968726 -0.182065 -0.0489976 70 77 82
0.316171 -0.0250196 0.103954 69 63 58
0.315489 -0.0232572 0.102726 68 62 58
0.314806 -0.0214948 0.101498 70 62 60
0.0955932 -0.186862 -0.0472916 55 112 117
0.0943861 -0.186749 -0.048468 76 137 139
0.0945036 -0.185769 -0.048682 93 168 165
0.0950206 -0.184518 -0.0486092 79 165 169
0.095007 -0.183615 -0.0489214 73 124 127
0.314566 -0.0245861 0.10548 69 65 56
0.313883 -0.0228236 0.104252 70 62 51
0.0936169 -0.187548 -0.0476348 57 113 120
0.0930791 -0.187004 -0.0483247 81 143 150
0.0928023 -0.186289 -0.0488228 96 172 172
0.0935693 -0.184873 -0.04856 81 155 162
0.31296 -0.0241525 0.107006 69 66 58
0.092575 -0.187628 -0.0473033 64 117 124
0.0920403 -0.187086 -0.047992 89 151 156
0.0917642 -0.186373 -0.048489 95 177 177
0.0918742 -0.185399 -0.0487016 80 144 150
0.312815 -0.0249324 0.110326 73 62 58
0.311354 -0.0237189 0.108532 68 63 62
0.0916667 -0.187624 -0.0468772 72 125 129
0.0911344 -0.187082 -0.0475655 103 162 160
0.0909864 -0.186284 -0.0479664 98 174 174
0.0910943 -0.18531 -0.0481776 82 135 137
0.311205 -0.024498 0.111856 72 61 54
0.309747 -0.0232852 0.110059 73 59 60
0.0906339 -0.187704 -0.0465488 77 135 137
0.0894738 -0.187587 -0.0477119 106 168 163
0.0900829 -0.186281 -0.0475402 99 163 164
0.311056 -0.0252804 0.115194 69 62 57
0.309595 -0.0240634 0.113386 68 61 56
0.308141 -0.0228515 0.111586 70 58 60
0.307458 -0.0210883 0.110357 73 58 58
0.0891033 -0.188121 -0.0466061 77 142 143
0.0883306 -0.187751 -0.0474789 92 163 161
0.0885554 -0.186706 -0.0475917 82 138 144
0.309442 -0.024845 0.116727 71 64 59
0.308757 -0.0230747 0.115494 70 63 58
0.306534 -0.0224176 0.113113 70 64 57
0.305851 -0.0206543 0.111884 70 60 51
0.305168 -0.0188908 0.110655 72 61 52
0.0879612 -0.188283 -0.0463766 68 143 142
0.0876881 -0.187578 -0.0468678 68 140 147
0.0875386 -0.186788 -0.0472641 69 115 122
0.307829 -0.0244097 0.118261 68 60 58
0.307143 -0.022639 0.117028 67 62 58
0.304927 -0.0219837 0.11464 67 66 59
0.304244 -0.0202202 0.113411 68 64 54
0.303561 -0.0184565 0.112183 73 65 54
0.302877 -0.0166928 0.110954 76 62 58
0.0870455 -0.187405 -0.0462566 62 120 122
0.307672 -0.0251939 0.12162 70 66 57
0.306215 -0.0239742 0.119795 75 67 57
0.305529 -0.0222034 0.118562 72 66 58
0.303319 -0.0215497 0.116168 73 64 57
0.302636 -0.019786 0.114939 72 65 58
0.301953 -0.0180222 0.11371 71 70 60
0.30127 -0.0162583 0.112481 73 63 57
0.300586 -0.0144942 0.111252 75 60 52
0.307514 -0.0259815 0.124994 65 62 57
0.306054 -0.0247576 0.123158 68 61 58
0.304601 -0.0235387 0.12133 73 62 59
0.303153 -0.0223246 0.119509 74 63 63
0.301712 -0.0211156 0.117696 70 65 59
0.301028 -0.0193518 0.116467 72 64 58
0.300345 -0.0175878 0.115238 72 66 58
0.299662 -0.0158237 0.114009 71 69 57
0.298978 -0.0140595 0.11278 74 66 56
0.298295 -0.0122951 0.111551 73 61 57
0.297611 -0.0105306 0.110321 73 67 57
0.296927 -0.008766 0.109092 75 64 54
0.305893 -0.0255444 0.126535 66 63 58
0.304436 -0.0243212 0.124696 73 65 56
0.302986 -0.023103 0.122864 73 68 58
0.301542 -0.0218898 0.12104 74 69 57
0.300104 -0.0206815 0.119224 74 69 57
0.29942 -0.0189175 0.117995 73 65 56
0.298737 -0.0171533 0.116766 79 66 56
0.298053 -0.015389 0.115537 73 64 54
0.29737 -0.0136246 0.114308 71 60 57
0.296686 -0.0118601 0.113079 75 59 61
0.296002 -0.0100954 0.111849 73 63 58
0.295319 -0.00833069 0.11062 75 63 50
0.294635 -0.00656582 0.10939 72 68 55
0.304271 -0.0251072 0.128077 66 64 60
0.302818 -0.0238848 0.126234 71 63 61
0.301371 -0.0226673 0.124399 70 68 58
0.299931 -0.0214548 0.122572 69 64 53
0.298496 -0.0202472 0.120752 73 60 58
0.297812 -0.0184831 0.119523 72 65 58
0.297128 -0.0167187 0.118294 71 64 56
0.296445 -0.0149543 0.117065 72 67 51
0.295761 -0.0131897 0.115836 68 62 52
0.295077 -0.0114251 0.114607 67 60 57
0.294393 -0.00966026 0.113377 68 62 53
0.29371 -0.00789525 0.112148 66 66 58
0.293026 -0.00613022 0.110918 68 62 60
0.292342 -0.00436501 0.109689 71 67 61
0.30265 -0.0246699 0.129618 70 63 57
0.3012 -0.0234482 0.127773 67 63 57
0.299756 -0.0222315 0.125934 70 63 57
0.29907 -0.02046 0.1247 74 63 53
0.297634 -0.0192519 0.122872 72 61 51
0.296203 -0.0180486 0.121052 67 59 54
0.29552 -0.0162841 0.119823 71 63 56
0.294836 -0.0145195 0.118594 72 66 58
0.294152 -0.0127548 0.117364 70 65 58
0.293468 -0.0109899 0.116135 67 66 57
0.292784 -0.00922492 0.114906 68 61 53
0.2921 -0.00745982 0.113676 70 66 59
0.291416 -0.0056946 0.112447 77 72 65
0.290732 -0.0039292 0.111217 77 67 60
0.290048 -0.00216372 0.109987 78 65 60
0.289364 -0.000398099 0.108757 72 64 60
0.30248 -0.0254585 0.133017 72 67 57
0.301028 -0.0242326 0.13116 74 66 52
0.299581 -0.0230117 0.129311 71 65 51
0.298894 -0.0212364 0.128075 70 64 54
0.297455 -0.020024 0.126236 71 64 57
0.296768 -0.0182523 0.125002 75 65 58
0.295336 -0.0170484 0.123173 73 71 59
0.293911 -0.0158494 0.121352 70 64 57
0.293227 -0.0140846 0.120122 70 70 59
0.292543 -0.0123197 0.118893 67 66 61
0.291859 -0.0105547 0.117664 73 65 60
0.291175 -0.00878957 0.116434 78 59 52
0.290491 -0.00702426 0.115205 72 66 58
0.289806 -0.00525883 0.113975 71 60 59
0.289122 -0.00349331 0.112745 74 64 57
0.288438 -0.00172764 0.111516 75 63 54
0.287754 3.81172e-05 0.110286 77 66 59
0.287069 0.00180407 0.109056 73 60 59
0.300095 -0.0255741 0.133942 68 67 56
0.299406 -0.0237952 0.132703 69 63 51
0.298716 -0.0220162 0.131464 70 66 51
0.297275 -0.0207996 0.129614 68 67 56
0.296586 -0.019024 0.128377 71 64 56
0.295152 -0.017816 0.126537 75 65 58
0.294465 -0.0160439 0.125303 74 70 58
0.292301 -0.0154146 0.122881 71 63 59
0.291617 -0.0136496 0.121651 68 63 60
0.290933 -0.0118846 0.120422 66 64 56
0.290249 -0.0101194 0.119193 70 64 54
0.289565 -0.00835408 0.117963 72 65 58
0.288881 -0.00658864 0.116734 73 62 60
0.288196 -0.00482304 0.115504 70 68 59
0.287512 -0.0030573 0.114274 69 62 55
0.286828 -0.0012915 0.113044 69 65 57
0.286143 0.000474438 0.111814 74 62 59
0.285459 0.00224052 0.110584 76 67 57
0.284774 0.00400671 0.109354 70 66 58
0.28409 0.00577307 0.108124 73 62 61
0.299229 -0.0245821 0.136108 69 65 59
0.298538 -0.0227994 0.134867 69 62 52
0.297847 -0.0210164 0.133625 72 62 50
0.296404 -0.0197992 0.131767 68 64 58
0.294967 -0.0185869 0.129916 74 62 60
0.294279 -0.0168111 0.128679 79 71 63
0.292849 -0.0156074 0.126839 79 69 61
0.291425 -0.0144086 0.125006 78 71 62
0.290008 -0.0132146 0.123181 81 73 60
0.289323 -0.0114494 0.121951 70 71 60
0.288639 -0.00968404 0.120722 70 67 57
0.28723 -0.00850201 0.118909 72 65 56
0.286547 -0.00674008 0.117682 76 64 59
0.286586 -0.00438717 0.117033 72 65 62
0.285902 -0.00262131 0.115803 70 63 57
0.285217 -0.000855312 0.114573 68 67 58
0.284533 0.000910804 0.113343 75 66 56
0.283848 0.00267708 0.112113 75 65 57
0.283164 0.00444344 0.110883 67 67 63
0.282479 0.00620994 0.109653 69 60 55
0.281794 0.00797658 0.108422 64 61 51
0.297667 -0.0217992 0.137041 70 62 51
0.296221 -0.0205777 0.135171 71 63 58
0.29553 -0.0187945 0.133929 71 64 60
0.294091 -0.0175817 0.13207 76 67 58
0.292659 -0.0163738 0.130219 78 68 59
0.291233 -0.0151708 0.128375 76 68 62
0.289812 -0.0139727 0.126539 74 66 58
0.288397 -0.0127795 0.12471 79 65 52
0.287713 -0.0110141 0.123481 80 63 58
0.287029 -0.00924858 0.122251 74 64 57
0.286344 -0.00748293 0.121022 77 64 58
0.28566 -0.00571714 0.119792 83 76 63
0.284975 -0.00395119 0.118562 75 64 63
0.284291 -0.00218517 0.117332 75 67 57
0.283606 -0.000419021 0.116102 71 66 60
0.282922 0.00134729 0.114872 69 63 56
0.282237 0.00311369 0.113642 73 65 58
0.281552 0.00488023 0.112412 70 69 62
0.280868 0.00664693 0.111182 66 62 54
0.280183 0.0084137 0.109951 65 63 55
0.279498 0.0101806 0.108721 75 62 55
0.294651 -0.0177855 0.136101 69 66 59
0.293212 -0.016572 0.134234 76 66 63
0.291778 -0.0153636 0.132374 75 64 61
0.29035 -0.0141601 0.130521 72 65 60
0.288199 -0.0135368 0.128072 69 67 60
0.286787 -0.0123444 0.12624 70 65 58
0.286103 -0.0105788 0.125011 73 69 61
0.285418 -0.00881305 0.123781 81 66 58
0.284734 -0.00704724 0.122551 79 69 57
0.284049 -0.0052813 0.121322 74 70 62
0.283365 -0.0035152 0.120092 72 66 60
0.28268 -0.00174895 0.118862 72 65 56
0.281995 1.73748e-05 0.117632 71 60 57
0.281311 0.00178379 0.116402 70 61 55
0.280626 0.00355041 0.115172 72 66 58
0.279941 0.00531709 0.113941 71 66 57
0.279256 0.00708397 0.112711 72 64 57
0.278571 0.00885093 0.11148 68 66 60
0.277886 0.010618 0.11025 73 63 57
0.277201 0.0123852 0.109019 69 64 51
0.276516 0.0141526 0.107789 70 62 50
0.289464 -0.013145 0.132677 77 68 57
0.288041 -0.0119458 0.130824 74 71 55
0.285177 -0.0119091 0.12777 70 64 52
0.284492 -0.0101433 0.126541 71 64 57
0.283808 -0.00837746 0.125311 77 66 57
0.283123 -0.00661144 0.124081 73 72 59
0.282438 -0.00484535 0.122852 68 63 64
0.281754 -0.00307909 0.121622 70 68 59
0.281069 -0.00131272 0.120392 73 65 58
0.280384 0.00045377 0.119162 71 62 56
0.279699 0.00222041 0.117931 65 61 58
0.279014 0.00398716 0.116701 66 70 61
0.278329 0.00575405 0.115471 66 64 57
0.277644 0.00752109 0.11424 76 64 57
0.276959 0.00928821 0.11301 66 65 58
0.276274 0.0110554 0.111779 73 66 47
0.275589 0.0128229 0.110549 67 62 50
0.274904 0.0145904 0.109318 66 60 44
0.274218 0.016358 0.108087 69 67 56
0.273533 0.0181258 0.106856 72 60 42
0.285731 -0.00973099 0.131127 66 62 52
0.282881 -0.00970782 0.128071 72 60 57
0.282196 -0.0079418 0.126841 76 65 57
0.281512 -0.00617564 0.125612 73 68 59
0.280827 -0.00440933 0.124382 69 65 57
0.280142 -0.00264293 0.123152 71 60 51
0.279457 -0.000876367 0.121922 69 62 57
0.278066 0.000288516 0.120106 68 63 47
0.277383 0.00205167 0.118878 69 62 52
0.277402 0.00442404 0.118231 65 66 57
0.276717 0.00619106 0.117001 69 63 60
0.276032 0.00795826 0.11577 72 64 57
0.275347 0.00972557 0.11454 66 63 57
0.274662 0.011493 0.113309 68 62 49
0.273976 0.0132606 0.112078 67 63 55
0.273291 0.0150282 0.110847 67 56 48
0.272606 0.016796 0.109617 75 61 42
0.27192 0.018564 0.108386 69 61 44
0.271235 0.020332 0.107154 69 70 59
0.0873666 -0.175531 -0.0329797 69 68 66
0.0874698 -0.174475 -0.0331628 71 76 60
0.0874411 -0.173515 -0.0334609 74 66 58
0.0872801 -0.172656 -0.0338738 74 68 57
0.0875163 -0.171481 -0.0339465 71 63 57
0.280585 -0.00750606 0.128372 70 70 59
0.2799 -0.00573972 0.127142 74 66 59
0.279215 -0.00397325 0.125912 70 63 54
0.27853 -0.00220664 0.124682 69 62 56
0.277845 -0.000439942 0.123452 69 61 61
0.276458 0.000724196 0.121633 64 60 52
0.275774 0.00248747 0.120405 69 60 58
0.27579 0.00486095 0.119761 68 59 55
0.275105 0.00662822 0.118531 71 64 50
0.27442 0.00839555 0.1173 65 72 57
0.273734 0.010163 0.11607 68 59 48
0.273049 0.0119306 0.114839 66 59 50
0.272364 0.0136983 0.113608 66 61 52
0.271678 0.0154662 0.112377 73 61 49
0.270993 0.0172342 0.111146 65 65 54
0.270307 0.0190023 0.109915 70 71 57
0.269622 0.0207705 0.108684 71 66 54
0.268936 0.0225388 0.107453 73 65 59
0.26825 0.0243073 0.106222 75 65 58
0.0863881 -0.174593 -0.0328509 67 73 86
0.0864887 -0.173534 -0.0330337 73 64 64
0.0865897 -0.172469 -0.0332175 76 64 57
0.0864277 -0.171608 -0.0336306 72 64 60
0.0866611 -0.170428 -0.0337026 67 60 62
0.278289 -0.00530371 0.128673 74 66 60
0.277603 -0.00353709 0.127443 67 66 59
0.276918 -0.00177032 0.126213 67 63 61
0.276233 -3.42727e-06 0.124983 76 62 60
0.274849 0.00115997 0.12316 74 58 57
0.274165 0.00292346 0.121932 76 70 59
0.274178 0.00529796 0.121292 67 62 59
0.273492 0.00706536 0.120061 66 63 53
0.272807 0.00883287 0.118831 70 60 55
0.272122 0.0106005 0.1176 64 71 61
0.271436 0.0123683 0.116369 61 58 60
0.270751 0.0141362 0.115138 68 60 47
0.270065 0.0159042 0.113907 72 57 48
0.269379 0.0176723 0.112676 69 57 54
0.268694 0.0194406 0.111445 74 70 56
0.268008 0.0212091 0.110214 70 67 56
0.267322 0.0229775 0.108983 63 68 59
0.266636 0.0247462 0.107751 68 64 61
0.265951 0.026515 0.10652 67 65 56
0.0857365 -0.171422 -0.0329737 67 68 60
0.0859673 -0.170241 -0.0330434 68 64 57
0.0861998 -0.169052 -0.0331136 70 59 59
0.0868339 -0.167526 -0.0328368 66 61 62
0.275991 -0.00310087 0.128974 73 67 56
0.275306 -0.00133392 0.127744 72 66 61
0.274621 0.000433117 0.126513 73 65 60
0.273936 0.00220028 0.125283 70 62 58
0.27325 0.00396758 0.124053 71 69 60
0.272565 0.00573505 0.122822 74 66 60
0.271879 0.00750262 0.121592 73 65 56
0.271194 0.0092703 0.120361 72 64 52
0.270508 0.0110381 0.11913 69 62 53
0.269823 0.012806 0.1179 67 63 47
0.269137 0.0145741 0.116669 67 64 50
0.268452 0.0163423 0.115438 82 62 58
0.267766 0.0181106 0.114207 79 63 59
0.26708 0.019879 0.112976 76 67 60
0.266394 0.0216476 0.111744 70 66 58
0.265708 0.0234163 0.110513 65 64 59
0.265022 0.0251851 0.109282 70 64 59
0.264336 0.0269541 0.10805 70 60 58
0.26365 0.0287232 0.106818 68 60 59
0.262964 0.0304924 0.105587 66 63 53
0.0852735 -0.170054 -0.0323841 69 67 82
0.0855034 -0.168864 -0.032452 73 67 61
0.0854707 -0.167883 -0.0327522 68 67 60
0.0858352 -0.166569 -0.0327057 71 68 60
0.085936 -0.165466 -0.032892 67 63 58
0.0859037 -0.16447 -0.0331959 66 64 60
0.274379 -0.00266455 0.130505 73 68 63
0.270952 0.00617221 0.124353 72 63 59
0.270266 0.00793995 0.123123 69 64 56
0.269581 0.00970781 0.121892 67 72 57
0.268895 0.0114758 0.120661 71 64 58
0.268209 0.0132439 0.11943 70 61 58
0.267524 0.0150121 0.118199 79 60 47
0.266838 0.0167805 0.116968 74 62 51
0.266152 0.018549 0.115737 70 66 58
0.265466 0.0203176 0.114506 68 62 61
0.26478 0.0220863 0.113275 74 67 56
0.264094 0.0238551 0.112043 72 65 58
0.263408 0.0256242 0.110812 70 70 61
0.262722 0.0273933 0.10958 70 58 55
0.262036 0.0291625 0.108349 73 62 54
0.262022 0.0315989 0.107677 70 59 56
0.261335 0.0333721 0.106443 70 62 57
0.260647 0.0351454 0.105208 67 70 60
0.0847729 -0.167695 -0.0320893 66 65 78
0.0850021 -0.16649 -0.0321565 72 66 61
0.0849682 -0.165499 -0.032458 69 64 59
0.0849342 -0.164506 -0.0327606 73 64 58
0.0849001 -0.163508 -0.0330643 76 69 60
0.0856667 -0.161813 -0.0326668 71 64 59
0.267967 0.0101454 0.123423 71 62 59
0.267281 0.0119135 0.122192 84 69 60
0.266596 0.0136818 0.120961 80 66 54
0.26591 0.0154502 0.11973 78 60 57
0.265224 0.0172187 0.118499 81 59 55
0.264538 0.0189874 0.117268 74 63 50
0.263852 0.0207562 0.116037 69 66 57
0.263842 0.0231745 0.115382 74 59 58
0.263155 0.0249473 0.114148 75 66 58
0.262467 0.0267201 0.112913 71 63 59
0.261779 0.0284931 0.111679 71 59 53
0.261092 0.0302662 0.110445 70 62 53
0.261076 0.0327102 0.109776 71 72 61
0.260387 0.0344872 0.108539 75 68 63
0.259697 0.0362644 0.107302 67 61 51
0.25834 0.0373599 0.105507 72 62 57
0.0840395 -0.166521 -0.0317253 70 91 98
0.084135 -0.165421 -0.0319085 74 62 74
0.084231 -0.164315 -0.0320928 71 64 63
0.0841956 -0.163317 -0.0323953 73 61 61
0.0844246 -0.162085 -0.0324645 75 68 59
0.0846554 -0.160844 -0.0325342 70 63 60
0.0847539 -0.159712 -0.0327225 67 65 63
0.0847189 -0.158693 -0.03303 65 68 62
0.265668 0.0123513 0.123724 72 59 57
0.264982 0.0141198 0.122493 73 61 58
0.264296 0.0158883 0.121262 70 65 59
0.26361 0.017657 0.120031 81 64 55
0.262923 0.0194259 0.118799 77 67 61
0.262912 0.0218416 0.11815 76 67 64
0.262224 0.0236143 0.116916 75 69 60
0.261537 0.0253872 0.115682 72 62 58
0.260849 0.0271602 0.114448 72 62 61
0.260832 0.0295976 0.113787 70 63 59
0.260816 0.0320453 0.113124 66 62 56
0.260125 0.0338262 0.111884 69 62 51
0.259434 0.0356071 0.110645 73 67 59
0.258744 0.0373882 0.109405 70 63 60
0.258053 0.0391694 0.108165 68 57 52
0.256696 0.0402614 0.106364 68 61 50
0.0833032 -0.165343 -0.0313599 84 130 128
0.0833969 -0.164238 -0.0315425 68 87 92
0.0833598 -0.163241 -0.0318438 65 64 69
0.0835856 -0.162009 -0.0319109 68 67 63
0.0836807 -0.160885 -0.0320967 75 63 60
0.083909 -0.159637 -0.0321652 80 67 56
0.0837394 -0.158739 -0.0325896 73 63 62
0.0837025 -0.157718 -0.0328969 67 63 60
0.0836653 -0.156694 -0.0332054 71 65 60
0.264739 0.0110207 0.126486 76 71 67
0.264053 0.0127892 0.125255 74 69 58
0.263367 0.0145579 0.124024 72 65 62
0.262681 0.0163266 0.122793 69 64 59
0.261995 0.0180954 0.121562 80 70 58
0.261981 0.0205083 0.120918 77 70 61
0.261294 0.0222812 0.119684 69 66 66
0.260606 0.0240541 0.11845 71 61 63
0.260589 0.0264849 0.117798 71 64 63
0.2599 0.0282618 0.116562 68 64 61
0.259881 0.0307068 0.115904 74 65 58
0.259863 0.0331622 0.115244 71 62 52
0.259844 0.035628 0.114581 65 60 52
0.258478 0.0367318 0.112759 68 66 57
0.257786 0.0385168 0.111517 69 62 51
0.256427 0.0396125 0.109706 71 65 57
0.255736 0.041394 0.108466 70 65 58
0.0826172 -0.162049 -0.0314763 63 76 95
0.0828406 -0.16081 -0.0315423 69 63 63
0.0830656 -0.159563 -0.0316088 82 66 57
0.0830274 -0.158546 -0.0319137 77 64 62
0.082989 -0.157525 -0.0322198 67 62 57
0.0829505 -0.1565 -0.032527 66 64 54
0.0826467 -0.155717 -0.0330721 77 61 60
0.0824751 -0.15481 -0.0334994 74 62 59
0.261753 0.014996 0.125556 73 59 59
0.261066 0.0167649 0.124325 74 74 61
0.261051 0.0191751 0.123687 72 69 61
0.260363 0.0209479 0.122453 70 69 64
0.259675 0.0227209 0.121219 68 66 65
0.259656 0.0251489 0.120573 72 70 59
0.258967 0.0269259 0.119336 72 72 59
0.258946 0.0293681 0.118685 68 67 61
0.258926 0.0318207 0.11803 74 65 57
0.258905 0.0342838 0.117373 69 63 53
0.258211 0.0360725 0.116128 64 62 52
0.257517 0.0378613 0.114883 73 62 46
0.256823 0.0396502 0.113638 73 77 56
0.255463 0.040746 0.111818 70 59 60
0.0822236 -0.159489 -0.0310533 65 73 90
0.0823152 -0.158353 -0.0312377 71 66 61
0.0822755 -0.157331 -0.0315425 77 67 55
0.0822356 -0.156306 -0.0318485 69 69 60
0.0819317 -0.155523 -0.0323936 69 62 59
0.0817594 -0.154616 -0.0328203 68 62 60
0.0818503 -0.153458 -0.0330113 72 65 61
0.259451 0.0172033 0.125857 76 69 58
0.258744 0.0213875 0.123988 67 64 64
0.258723 0.0238128 0.123348 68 68 64
0.258034 0.0255898 0.122111 73 73 60
0.258011 0.0280293 0.121466 75 67 51
0.257989 0.0304791 0.120817 68 60 52
0.257966 0.0329394 0.120166 66 58 54
0.257943 0.0354103 0.119512 70 63 60
0.25792 0.0378916 0.118855 83 76 60
0.257223 0.0396882 0.117604 75 64 58
0.0814721 -0.15828 -0.0306814 78 119 106
0.0815618 -0.157138 -0.0308652 69 69 89
0.0815205 -0.156112 -0.0311699 70 64 63
0.0813478 -0.155206 -0.0315955 66 63 59
0.0810436 -0.154422 -0.0321412 71 63 61
0.0811324 -0.153263 -0.0323302 74 66 60
0.081486 -0.151844 -0.0322811 71 66 61
0.0814441 -0.150797 -0.0325918 69 68 63
0.256463 0.0211806 0.124926 69 65 61
0.259726 0.034314 0.125371 69 59 51
0.259026 0.036118 0.124116 66 66 57
0.0806319 -0.155012 -0.0309163 64 69 87
0.0805887 -0.153979 -0.0312221 66 67 63
0.0806764 -0.152817 -0.0314089 69 71 58
0.0807646 -0.151648 -0.0315968 67 63 60
0.0807213 -0.150601 -0.0319063 71 64 61
0.0805458 -0.14968 -0.0323371 82 67 58
0.0805019 -0.148626 -0.032649 66 66 59
0.0798713 -0.153785 -0.0305414 71 103 101
0.079957 -0.152622 -0.0307263 68 67 78
0.0801742 -0.151324 -0.0307911 69 61 57
0.0799984 -0.150405 -0.0312206 70 67 59
0.0798222 -0.149483 -0.0316509 77 62 58
0.0796457 -0.14856 -0.032082 77 71 63
0.0795999 -0.147504 -0.0323937 76 70 59
0.0798176 -0.146176 -0.0324655 75 62 50
0.0792374 -0.152426 -0.0300437 84 137 135
0.0794519 -0.151128 -0.0301059 70 94 92
0.079406 -0.150079 -0.030413 68 63 74
0.0792291 -0.149157 -0.030843 68 64 58
0.0790518 -0.148232 -0.0312738 66 64 62
0.0790049 -0.147174 -0.0315843 71 63 59
0.0789577 -0.146112 -0.031896 72 69 65
0.0789104 -0.145045 -0.0322089 67 63 55
0.0791264 -0.143702 -0.0322804 65 63 57
0.0789471 -0.142762 -0.0327173 74 62 51
0.0785998 -0.15106 -0.0295431 82 169 171
0.0786822 -0.149883 -0.0297264 83 134 135
0.0786347 -0.14883 -0.0300334 64 93 94
0.0784566 -0.147904 -0.0304639 63 62 71
0.0784085 -0.146844 -0.0307732 73 67 57
0.0783602 -0.14578 -0.0310837 70 63 60
0.0784426 -0.144576 -0.0312732 68 67 56
0.0783941 -0.143502 -0.0315862 66 64 58
0.078214 -0.142563 -0.0320224 66 60 50
0.0782964 -0.141343 -0.0322159 69 60 51
0.0781155 -0.140397 -0.0326544 70 59 50
0.077829 -0.149816 -0.0291628 72 166 174
0.0779094 -0.148632 -0.0293455 81 169 168
0.0778602 -0.147575 -0.0296524 79 130 125
0.0778109 -0.146513 -0.0299605 70 76 94
0.0780222 -0.145178 -0.0300234 70 68 71
0.0779729 -0.144105 -0.030334 68 67 62
0.0777924 -0.143166 -0.030769 63 61 59
0.0778736 -0.141948 -0.0309588 64 59 53
0.0775611 -0.141143 -0.031519 66 63 57
0.0773794 -0.140197 -0.0319569 67 64 57
0.0773284 -0.139108 -0.0322734 69 61 52
0.0786034 -0.136568 -0.0313568 63 61 59
0.0770551 -0.148566 -0.0287811 55 149 155
0.0771333 -0.147377 -0.0289631 72 169 174
0.0770826 -0.146315 -0.0292699 81 160 165
0.0772912 -0.144979 -0.0293302 79 125 119
0.0773707 -0.143769 -0.0295154 61 75 93
0.0774507 -0.142553 -0.0297017 62 63 65
0.0771382 -0.141748 -0.0302618 66 61 50
0.076956 -0.140803 -0.0306985 68 60 55
0.0769042 -0.139714 -0.0310127 70 63 54
0.0768521 -0.138622 -0.031328 72 58 46
0.0774587 -0.136802 -0.0310247 69 62 51
0.0780735 -0.134957 -0.0307173 65 53 50
0.078157 -0.133689 -0.0309113 71 55 47
0.0779719 -0.132716 -0.0313582 72 71 58
0.0783256 -0.13113 -0.0313029 65 63 57
0.076278 -0.147312 -0.0283979 40 125 136
0.0763541 -0.146117 -0.0285792 57 150 160
0.0765599 -0.14478 -0.0286369 74 168 173
0.0766374 -0.14357 -0.0288202 79 155 159
0.0767152 -0.142353 -0.0290045 77 121 109
0.0765326 -0.141408 -0.02944 63 72 91
0.0764799 -0.140321 -0.0297517 73 62 62
0.076427 -0.13923 -0.0300647 71 70 57
0.0763739 -0.138134 -0.0303789 71 58 54
0.0767145 -0.136599 -0.0303196 70 58 51
0.0769258 -0.135197 -0.0303856 63 64 55
0.0770058 -0.133933 -0.0305782 68 50 53
0.07682 -0.132962 -0.0310234 71 60 54
0.0768999 -0.131687 -0.0312186 70 61 44
0.0771141 -0.13025 -0.031289 67 62 50
0.0769269 -0.129268 -0.0317385 69 60 46
0.0759796 -0.142153 -0.0283072 75 169 175
0.0757963 -0.141208 -0.0287421 79 150 152
0.0757421 -0.14012 -0.0290525 78 114 103
0.0756877 -0.139029 -0.0293642 61 65 88
0.0757633 -0.137789 -0.0295517 66 62 58
0.0761013 -0.13625 -0.0294884 71 62 60
0.0761786 -0.134993 -0.0296777 67 63 53
0.0762563 -0.133728 -0.0298683 66 60 50
0.0760697 -0.132758 -0.0303129 69 63 54
0.076015 -0.131633 -0.0306323 71 63 59
0.0758276 -0.130658 -0.0310791 71 59 56
0.0760376 -0.129217 -0.031149 65 64 53
0.0759823 -0.128078 -0.0314723 67 61 54
0.0765969 -0.126142 -0.0311632 72 60 56
0.0750597 -0.141007 -0.028044 61 154 161
0.0750042 -0.139919 -0.0283531 76 169 171
0.0749484 -0.138827 -0.0286635 76 143 146
0.0751515 -0.137443 -0.0287227 69 107 97
0.0753561 -0.136047 -0.0287824 63 63 83
0.0754312 -0.134789 -0.0289698 66 62 60
0.0755067 -0.133524 -0.0291582 66 61 54
0.0753193 -0.132553 -0.0296022 70 66 58
0.0751316 -0.13158 -0.030047 64 61 54
0.0749436 -0.130605 -0.0304928 64 61 51
0.0747551 -0.129629 -0.0309394 68 60 57
0.0752251 -0.127871 -0.0307555 69 60 51
0.0754339 -0.126411 -0.0308247 64 62 59
0.0755105 -0.125099 -0.031022 66 61 51
0.0742088 -0.138626 -0.0279627 62 158 162
0.0744091 -0.13724 -0.0280192 77 171 168
0.0746108 -0.135844 -0.0280763 78 137 141
0.0746837 -0.134586 -0.0282616 63 100 97
0.074757 -0.13332 -0.0284481 65 69 74
0.0745688 -0.132348 -0.0288914 77 61 50
0.0743804 -0.131375 -0.0293356 71 61 51
0.0741915 -0.1304 -0.0297806 66 59 55
0.0741328 -0.129269 -0.0300998 69 62 59
0.0744678 -0.127664 -0.0300386 63 64 62
0.0745412 -0.126362 -0.0302329 69 63 54
0.0747479 -0.124891 -0.0303002 66 63 56
0.074956 -0.123408 -0.0303681 66 63 58
0.0735382 -0.137183 -0.0274433 46 139 147
0.0738653 -0.135641 -0.02737 63 161 168
0.073936 -0.134382 -0.0275534 76 173 172
0.0738772 -0.133265 -0.0278663 78 137 135
0.0738182 -0.132144 -0.0281804 69 95 93
0.0736289 -0.13117 -0.028624 66 62 70
0.0735692 -0.130041 -0.0289406 69 59 55
0.0735092 -0.128908 -0.0292585 67 64 60
0.0737104 -0.127458 -0.0293215 65 62 58
0.0737815 -0.126154 -0.0295137 73 68 49
0.0738531 -0.124843 -0.0297071 70 60 47
0.0737929 -0.123686 -0.0300304 66 64 59
0.0739975 -0.122197 -0.0300974 64 63 58
0.0747398 -0.12003 -0.0296449 67 61 53
0.0729311 -0.134474 -0.0271027 49 142 151
0.0728704 -0.13336 -0.0274141 66 161 168
0.0729384 -0.13209 -0.0275982 80 168 165
0.0728774 -0.130965 -0.0279123 79 132 125
0.0728161 -0.129836 -0.0282275 67 84 92
0.0727546 -0.128702 -0.028544 65 66 66
0.0728227 -0.127408 -0.0287332 62 66 53
0.0730217 -0.125947 -0.0287945 77 65 55
0.0730909 -0.124635 -0.0289857 74 59 49
0.0730292 -0.123477 -0.0293076 71 59 52
0.0732307 -0.121988 -0.0293718 65 65 59
0.0734338 -0.120486 -0.0294365 68 64 56
0.0736384 -0.118973 -0.0295019 70 60 51
0.0719322 -0.132187 -0.0271461 54 147 152
0.0718693 -0.131064 -0.0274586 69 164 171
0.0719345 -0.129784 -0.0276435 80 161 160
0.0719999 -0.128496 -0.0278295 81 127 116
0.0720657 -0.127201 -0.0280166 65 72 90
0.0721319 -0.125898 -0.0282048 69 62 64
0.0721985 -0.124587 -0.0283942 68 61 57
0.0722654 -0.123269 -0.0285848 69 60 54
0.0724638 -0.121778 -0.0286461 70 66 52
0.0726638 -0.120276 -0.028708 68 65 57
0.0727327 -0.11893 -0.0289017 66 61 56
0.0725368 -0.117915 -0.0293587 69 58 49
0.0724728 -0.116728 -0.0296861 67 59 49
0.0721436 -0.11588 -0.0302757 69 63 56
0.0710544 -0.129732 -0.0270605 52 147 153
0.0711171 -0.128446 -0.0272446 71 164 169
0.0710522 -0.127308 -0.0275596 79 154 157
0.0712437 -0.125849 -0.0276162 79 121 109
0.0714368 -0.124379 -0.0276733 65 68 90
0.0715014 -0.12306 -0.0278618 68 64 63
0.0715664 -0.121733 -0.0280514 69 63 58
0.0716317 -0.120398 -0.0282421 68 66 57
0.0718287 -0.118887 -0.0283026 71 69 60
0.071632 -0.117873 -0.0287586 70 61 53
0.0714349 -0.116857 -0.0292156 68 67 56
0.0712373 -0.11584 -0.0296735 68 63 58
0.0709083 -0.114993 -0.0302626 67 63 61
0.0705793 -0.114146 -0.0308517 64 65 57
0.0702502 -0.113298 -0.0314408 69 63 50
0.0701092 -0.12855 -0.0267908 43 126 134
0.0701692 -0.127258 -0.0269743 59 148 156
0.0702296 -0.125959 -0.027159 76 164 166
0.0704183 -0.124492 -0.0272143 74 145 152
0.0706084 -0.123013 -0.02727 75 117 107
0.0705415 -0.121851 -0.0275889 62 70 85
0.0707332 -0.120353 -0.0276465 63 64 60
0.0707961 -0.119012 -0.0278365 67 63 57
0.0708593 -0.117662 -0.0280277 65 60 59
0.070531 -0.116816 -0.0286156 65 62 59
0.0703327 -0.1158 -0.0290724 66 63 59
0.070134 -0.114781 -0.0295303 69 66 62
0.0698049 -0.113933 -0.0301194 67 61 51
0.0694758 -0.113086 -0.0307086 66 61 48
0.0692759 -0.112063 -0.0311686 66 61 54
0.0692879 -0.127208 -0.0263901 32 111 119
0.0693456 -0.12591 -0.0265729 44 129 136
0.0694036 -0.124604 -0.0267569 59 152 160
0.0694619 -0.123291 -0.026942 75 163 167
0.0696483 -0.121806 -0.0269967 77 139 145
0.0698362 -0.120309 -0.0270519 72 106 101
0.0698964 -0.118969 -0.02724 63 68 80
0.0698274 -0.117789 -0.0275616 65 67 64
0.0697581 -0.116605 -0.0278845 63 64 59
0.0694297 -0.115759 -0.0284724 62 62 58
0.0692302 -0.114741 -0.0289292 75 59 54
0.0690303 -0.113721 -0.029387 70 61 52
0.0687011 -0.112874 -0.0299762 72 62 51
0.0685005 -0.111851 -0.0304355 72 60 52
0.0688157 -0.110115 -0.0303751 67 59 56
0.0688972 -0.124076 -0.0257746 35 114 124
0.0689541 -0.122759 -0.0259572 45 133 140
0.0690113 -0.121433 -0.0261409 59 153 160
0.0691968 -0.119933 -0.0261929 71 159 161
0.0691266 -0.118758 -0.0265117 76 135 138
0.0691847 -0.117408 -0.0266988 71 100 95
0.0689851 -0.116393 -0.0271534 61 69 77
0.0687852 -0.115376 -0.0276089 64 65 56
0.0685848 -0.114356 -0.0280653 70 65 57
0.068384 -0.113335 -0.0285227 68 62 56
0.0681828 -0.112311 -0.028981 70 62 56
0.0683675 -0.110753 -0.0290454 71 60 50
0.0686835 -0.109003 -0.0289777 68 56 46
0.067939 -0.122875 -0.0255007 25 105 116
0.0681194 -0.121388 -0.0255499 34 114 123
0.0683012 -0.11989 -0.0255994 46 134 141
0.0683566 -0.118547 -0.0257833 63 151 159
0.0682845 -0.117367 -0.026102 76 158 159
0.068212 -0.116182 -0.0264221 74 128 132
0.0680113 -0.115164 -0.0268769 64 94 92
0.067938 -0.113971 -0.0271996 62 67 72
0.0677363 -0.112947 -0.0276566 65 59 59
0.0676623 -0.111746 -0.0279818 66 63 60
0.0675879 -0.11054 -0.0283084 69 59 48
0.0679 -0.108788 -0.028237 68 58 43
0.0679551 -0.107385 -0.0284329 65 60 50
0.068141 -0.105788 -0.0284959 66 58 45
0.0671553 -0.120177 -0.0252744 27 106 117
0.0673334 -0.118672 -0.025323 40 116 126
0.067386 -0.117325 -0.0255063 49 136 144
0.0674388 -0.11597 -0.0256907 62 150 160
0.0672372 -0.114952 -0.0261448 69 152 154
0.0671623 -0.113758 -0.026466 73 126 124
0.0670871 -0.112559 -0.0267885 66 83 91
0.0671395 -0.111179 -0.0269784 64 65 71
0.0674493 -0.10943 -0.0269003 67 62 57
0.0672449 -0.108392 -0.0273618 69 59 45
0.067169 -0.107169 -0.0276898 66 60 45
0.0670927 -0.105941 -0.0280193 62 60 46
0.0671456 -0.104522 -0.0282156 62 62 52
0.067329 -0.102905 -0.0282783 64 59 50
0.0664392 -0.11863 -0.0247303 34 104 117
0.0663634 -0.117453 -0.025046 31 109 115
0.0665391 -0.115929 -0.0250941 39 118 131
0.066463 -0.11474 -0.0254125 49 140 148
0.0663865 -0.113546 -0.0257323 64 152 156
0.0663098 -0.112346 -0.0260534 74 148 149
0.066487 -0.110787 -0.0261062 76 118 117
0.0667937 -0.109035 -0.0260236 64 78 90
0.0667168 -0.107813 -0.026349 62 61 64
0.0666396 -0.106586 -0.0266757 65 62 52
0.0665621 -0.105355 -0.0270038 63 62 55
0.0664842 -0.104118 -0.0273333 66 64 53
0.0665354 -0.102687 -0.0275284 65 60 54
0.066457 -0.101438 -0.0278607 62 60 57
0.0666385 -0.0997989 -0.0279224 63 61 54
0.0662992 -0.0989255 -0.0285295 65 61 52
0.065516 -0.11606 -0.0246336 33 105 121
0.0655632 -0.1147 -0.0248155 29 111 120
0.0656106 -0.113333 -0.0249985 40 121 130
0.0655322 -0.112133 -0.0253182 54 142 148
0.0657063 -0.110573 -0.025368 66 151 156
0.066009 -0.10882 -0.0252818 69 141 148
0.0660584 -0.107415 -0.0254689 71 113 110
0.066108 -0.106001 -0.0256573 66 76 84
0.0660292 -0.104766 -0.025984 64 62 65
0.0660789 -0.103337 -0.026175 66 61 54
0.0657416 -0.102469 -0.0267784 64 61 56
0.0656615 -0.10122 -0.0271092 63 60 56
0.0657103 -0.0997727 -0.0273047 66 59 52
0.0655003 -0.098706 -0.027775 65 59 51
0.0652899 -0.097637 -0.0282462 62 59 49
0.0655975 -0.0957748 -0.0281732 62 60 48
0.064665 -0.114661 -0.0242196 42 117 126
0.0645851 -0.113469 -0.0245364 34 106 118
0.0646295 -0.112096 -0.0247188 35 111 121
0.064549 -0.110893 -0.0250383 42 126 135
0.0650976 -0.108785 -0.024677 54 144 152
0.0652711 -0.107199 -0.0247248 67 150 154
0.0653183 -0.105785 -0.0249109 71 134 141
0.0652378 -0.104549 -0.0252361 72 107 103
0.065285 -0.103119 -0.0254248 67 73 80
0.065204 -0.101871 -0.0257529 63 61 65
0.0652514 -0.100426 -0.0259442 62 59 58
0.0650409 -0.0993599 -0.0264131 63 56 50
0.0648299 -0.0982916 -0.0268829 63 55 49
0.0644901 -0.0974171 -0.0274908 64 58 49
0.0644067 -0.0961482 -0.0278257 64 62 46
0.0644518 -0.0946745 -0.028025 64 62 46
0.0637285 -0.112059 -0.0241205 43 115 126
0.0636462 -0.110857 -0.0244385 33 108 120
0.0640624 -0.108932 -0.0242108 32 114 124
0.0643574 -0.107166 -0.0241187 43 129 138
0.0644017 -0.105753 -0.0243028 56 143 150
0.0643194 -0.104518 -0.0246265 68 148 148
0.0644911 -0.102901 -0.0246745 71 129 135
0.0644083 -0.101653 -0.0250011 69 104 102
0.0644532 -0.100207 -0.0251902 61 72 80
0.0643699 -0.0989463 -0.0255195 58 59 59
0.0640301 -0.0980717 -0.0261274 61 56 49
0.0638178 -0.0970008 -0.0265975 64 58 48
0.0637329 -0.0957297 -0.0269309 65 59 47
0.0636476 -0.0944533 -0.0272657 65 58 49
0.0640774 -0.0923615 -0.0270486 67 61 53
0.0642518 -0.0906563 -0.0271082 67 61 53
0.0641665 -0.0893531 -0.0274477 67 59 52
0.0638203 -0.0884626 -0.0280666 66 57 55
0.0637338 -0.087152 -0.0284089 62 57 51
0.0628682 -0.110643 -0.0237029 54 133 140
0.0630313 -0.109077 -0.0237463 40 115 126
0.0631957 -0.107498 -0.0237902 32 109 121
0.0632363 -0.10609 -0.0239728 35 116 126
0.0634027 -0.104488 -0.024018 45 131 138
0.0635704 -0.102872 -0.0240635 58 144 150
0.0636126 -0.101434 -0.0242491 67 148 146
0.0635278 -0.10018 -0.0245756 68 125 131
0.06357 -0.0987265 -0.0247638 64 96 95
0.0633572 -0.0976562 -0.0252325 61 71 71
0.0632713 -0.0963864 -0.025563 62 60 56
0.0630575 -0.0953103 -0.0260341 63 57 50
0.0630984 -0.0938309 -0.0262284 63 55 52
0.063268 -0.0921388 -0.0262843 65 61 54
0.0634389 -0.0904326 -0.0263408 66 63 54
0.0632225 -0.0893366 -0.0268188 65 58 51
0.0630057 -0.0882383 -0.0272977 65 57 51
0.0629174 -0.0869271 -0.0276385 63 59 48
0.0628288 -0.0856104 -0.0279806 62 58 44
0.0633913 -0.0832106 -0.027624 65 58 47
0.0623798 -0.0789421 -0.0297139 59 57 45
0.0621584 -0.0778148 -0.0302039 58 55 39
0.0622875 -0.107465 -0.0231872 54 132 138
0.0623253 -0.106058 -0.0233678 40 114 124
0.0623632 -0.104643 -0.0235496 33 110 120
0.0624014 -0.103219 -0.0237325 39 117 126
0.0625651 -0.101597 -0.023777 49 136 141
0.0627302 -0.099961 -0.023822 59 144 151
0.0627698 -0.0985066 -0.0240079 67 141 143
0.0625562 -0.0974361 -0.0244758 68 120 123
0.0625954 -0.0959678 -0.0246647 64 92 91
0.0623806 -0.0948901 -0.0251353 61 69 69
0.0626745 -0.0930036 -0.0250459 60 57 59
0.0625863 -0.091712 -0.0253794 61 59 53
0.0626259 -0.0902088 -0.0255733 62 62 56
0.0625371 -0.0889045 -0.0259097 61 60 55
0.0623192 -0.0878045 -0.0263882 60 54 50
0.0621009 -0.0867021 -0.0268678 65 57 48
0.0620105 -0.0853848 -0.0272084 67 57 45
0.0620486 -0.0838471 -0.0274102 68 57 47
0.0622166 -0.082082 -0.0274725 66 59 45
0.0618662 -0.0811807 -0.0280989 66 57 46
0.0617743 -0.0798389 -0.0284455 67 60 44
0.0614232 -0.0789356 -0.0290734 65 57 42
0.0612009 -0.0778094 -0.0295622 56 58 46
0.0614159 -0.106026 -0.0227639 60 144 150
0.0613278 -0.104798 -0.023083 51 129 133
0.0614863 -0.10319 -0.0231246 41 113 123
0.0615218 -0.101759 -0.0233067 35 111 121
0.0616823 -0.100127 -0.0233496 39 120 129
0.0618439 -0.0984815 -0.023393 50 137 144
0.061755 -0.0972159 -0.0237191 60 146 150
0.0617917 -0.0957468 -0.0239056 68 140 139
0.061576 -0.0946688 -0.0243755 69 114 118
0.0618657 -0.0927811 -0.0242822 64 87 90
0.0617757 -0.0914889 -0.0246141 60 70 68
0.0618128 -0.089985 -0.0248057 61 63 63
0.0617222 -0.0886801 -0.0251404 59 62 58
0.0616312 -0.0873698 -0.0254767 56 58 57
0.0614119 -0.0862657 -0.0259558 61 56 54
0.061192 -0.0851592 -0.026436 64 58 50
0.0612275 -0.0836207 -0.0266354 65 61 51
0.0613919 -0.0818546 -0.0266945 65 61 51
0.0610415 -0.0809532 -0.0273209 65 64 55
0.0609478 -0.0796109 -0.027666 67 61 49
0.0607251 -0.0784853 -0.0281533 66 59 44
0.0605018 -0.0773574 -0.0286417 60 63 55
0.0604184 -0.104767 -0.0224787 64 151 154
0.0604504 -0.103348 -0.0226578 59 142 148
0.0606056 -0.101731 -0.0226979 48 126 132
0.060762 -0.1001 -0.0227384 39 113 122
0.0607954 -0.0986506 -0.0229205 34 111 121
0.060829 -0.0971919 -0.0231038 39 123 132
0.0607378 -0.0959222 -0.0234297 52 142 147
0.0607713 -0.0944475 -0.0236155 64 146 150
0.0609308 -0.0927613 -0.0236606 68 134 136
0.0608389 -0.0914703 -0.0239909 68 112 113
0.0608729 -0.0899677 -0.0241804 67 83 86
0.0609072 -0.0884557 -0.0243711 61 70 68
0.0606875 -0.087355 -0.0248481 57 63 63
0.0605942 -0.0860404 -0.0251841 56 55 57
0.0603734 -0.0849336 -0.0256636 62 61 55
0.0604062 -0.0833943 -0.0258605 64 63 58
0.0605671 -0.0816271 -0.0259164 64 61 52
0.0603444 -0.0805061 -0.0264008 63 60 51
0.0601212 -0.0793827 -0.0268862 66 59 51
0.0600253 -0.0780341 -0.0272311 68 63 48
0.059801 -0.0769044 -0.0277191 63 62 52
0.0598436 -0.100074 -0.0221282 57 141 147
0.0597511 -0.0988189 -0.0224498 46 124 131
0.0597813 -0.0973637 -0.0226313 37 113 121
0.0596882 -0.0960968 -0.0229556 35 113 124
0.0597183 -0.0946256 -0.0231396 41 124 134
0.0597486 -0.0931452 -0.0233248 54 141 147
0.0599039 -0.0914517 -0.0233689 67 145 146
0.0599349 -0.0899505 -0.0235562 70 129 129
0.0599661 -0.0884399 -0.0237449 64 108 108
0.0598715 -0.0871302 -0.0240778 60 80 83
0.0597763 -0.085815 -0.0244123 58 61 64
0.0596808 -0.0844942 -0.0247482 63 59 56
0.0597114 -0.0829518 -0.0249425 64 61 57
0.0598694 -0.0811809 -0.0249945 62 58 53
0.0596457 -0.0800581 -0.0254785 62 63 50
0.0595488 -0.0787109 -0.0258204 66 61 49
0.0591967 -0.0778054 -0.0264496 66 62 49
0.0590986 -0.0764503 -0.0267943 65 62 50
0.0587378 -0.0975347 -0.0221605 59 139 145
0.0587648 -0.0960739 -0.0223414 47 122 130
0.0586694 -0.094803 -0.0226655 38 111 121
0.0588194 -0.093125 -0.0227066 36 112 123
0.0587234 -0.09184 -0.0230335 43 126 132
0.0587507 -0.0903446 -0.0232193 57 142 146
0.0589023 -0.0886322 -0.0232632 67 147 148
0.0589302 -0.0871157 -0.0234511 70 127 129
0.0589583 -0.0855896 -0.0236403 63 97 103
0.058861 -0.0842683 -0.0239746 64 74 75
0.058889 -0.0827251 -0.0241665 62 64 62
0.0590435 -0.0809531 -0.0242153 61 60 57
0.0589454 -0.0796092 -0.0245541 63 58 52
0.0587201 -0.0784822 -0.0250387 68 59 46
0.0584943 -0.0773528 -0.0255243 67 60 48
0.058268 -0.076221 -0.0260111 66 60 47
0.0578433 -0.0960509 -0.0217283 65 152 153
0.057746 -0.0947812 -0.0220509 57 137 142
0.05777 -0.0933057 -0.0222322 43 118 129
0.0577942 -0.0918209 -0.0224148 36 110 119
0.0578184 -0.0903269 -0.0225985 38 112 122
0.0578428 -0.0888236 -0.0227834 44 128 136
0.0579909 -0.0871011 -0.0228256 57 144 151
0.0580159 -0.0855766 -0.0230126 67 147 147
0.0579167 -0.0842565 -0.0233453 72 124 120
0.0579416 -0.0827148 -0.023535 64 89 98
0.0580919 -0.0809445 -0.0235811 66 72 70
0.0581175 -0.0793808 -0.0237731 65 55 59
0.0578913 -0.0782535 -0.0242569 65 62 53
0.0577903 -0.0768993 -0.024597 65 61 51
0.0574373 -0.0759916 -0.0252277 65 60 50
0.0568244 -0.0947594 -0.0214374 63 154 157
0.0567248 -0.0934855 -0.0217598 63 149 153
0.0567456 -0.0920044 -0.0219405 55 134 139
0.0567665 -0.090514 -0.0221224 42 115 125
0.0567875 -0.0890142 -0.0223054 34 107 117
0.0568087 -0.087505 -0.0224896 37 111 123
0.0569525 -0.0857752 -0.0225307 44 130 136
0.0569742 -0.0842447 -0.0227171 59 149 153
0.0568726 -0.0829202 -0.0230496 69 150 151
0.0571422 -0.0809359 -0.0229481 73 123 117
0.0572895 -0.0791523 -0.022992 60 78 93
0.0570623 -0.0780247 -0.023475 59 68 65
0.0569595 -0.07667 -0.0238135 62 64 57
0.0568562 -0.0753094 -0.0241534 61 63 52
0.0558031 -0.093465 -0.0211458 58 143 148
0.0557013 -0.092187 -0.021468 66 156 158
0.0557188 -0.0907001 -0.0216481 63 149 151
0.055857 -0.0889978 -0.0216853 54 132 136
0.0557542 -0.0876985 -0.0220117 41 111 123
0.0560149 -0.0857618 -0.0219059 33 106 113
0.0559116 -0.0844461 -0.0222353 36 114 121
0.0560524 -0.0826941 -0.0222756 45 133 140
0.0561943 -0.0809273 -0.0223164 61 150 158
0.0564613 -0.0789238 -0.0222107 70 149 150
0.0562332 -0.0777959 -0.0226929 73 124 111
0.0562528 -0.0762152 -0.022883 61 74 91
0.0560234 -0.0750795 -0.0233681 63 61 65
0.0548088 -0.0891874 -0.0212108 68 159 160
0.0548235 -0.0876833 -0.0213911 65 147 150
0.0549586 -0.0859593 -0.0214276 54 128 134
0.0549739 -0.084434 -0.02161 35 109 121
0.0551105 -0.0826837 -0.0216477 29 105 115
0.0552483 -0.0809186 -0.0216858 36 110 124
0.0553871 -0.0791386 -0.0217243 46 132 145
0.0554039 -0.0775671 -0.0219107 62 156 159
0.0555444 -0.0757594 -0.0219505 70 149 148
0.055314 -0.0746219 -0.0224351 72 121 109
0.055704 -0.0723292 -0.0221803 61 78 89
0.0538947 -0.0876681 -0.0207717 63 150 153
0.0540257 -0.0859458 -0.0208056 68 160 163
0.054038 -0.0844219 -0.0209859 64 146 151
0.0541705 -0.0826733 -0.021021 55 123 133
0.0543041 -0.08091 -0.0210564 38 101 120
0.0543173 -0.0793523 -0.0212397 31 101 115
0.0544525 -0.0775617 -0.0212765 36 114 124
0.0544663 -0.0759817 -0.0214619 47 136 144
0.0544801 -0.0743916 -0.0216487 63 151 155
0.0548646 -0.0720973 -0.0213888 71 137 143
0.0531039 -0.0844099 -0.0203629 61 152 159
0.0531133 -0.0828779 -0.0205423 69 161 168
0.0533617 -0.0809013 -0.0204282 63 142 150
0.0533719 -0.0793452 -0.0206094 49 123 131
0.0533822 -0.0777792 -0.0207918 36 107 119
0.0533925 -0.0762031 -0.0209753 33 107 119
0.0534028 -0.074617 -0.0211601 38 119 129
0.0541483 -0.0716329 -0.0204464 50 136 145
0.056406 -0.0574442 -0.0189347 19 26 28
0.0560348 -0.05649 -0.0195975 19 18 22
0.0586781 -0.0442279 -0.0172793 20 17 14
0.058019 -0.0438044 -0.0182958 20 19 17
0.0520603 -0.0830815 -0.0200654 45 127 135
0.0523026 -0.08111 -0.0199492 59 147 155
0.0524284 -0.079338 -0.0199802 65 156 160
0.0523162 -0.0779956 -0.0203089 60 144 148
0.0523231 -0.0764235 -0.0204906 47 124 129
0.0523299 -0.0748414 -0.0206735 38 110 120
0.0562747 -0.0591109 -0.0167857 68 126 133
0.0559035 -0.0581567 -0.0174485 48 83 94
0.0555322 -0.0572024 -0.0181113 31 53 58
0.0551609 -0.0562481 -0.0187742 15 20 42
0.0547897 -0.0552937 -0.0194371 15 17 18
0.057636 -0.0442591 -0.0165934 14 15 13
0.0571157 -0.0435539 -0.0174451 15 16 15
0.0567319 -0.0425673 -0.0181304 18 18 18
0.051365 -0.0811011 -0.0193238 44 104 109
0.0514866 -0.0793308 -0.0193523 48 128 134
0.0513726 -0.0779897 -0.0196793 57 147 152
0.0512581 -0.076643 -0.0200078 62 155 155
0.0514991 -0.0746119 -0.01989 58 140 143
0.0557722 -0.0598235 -0.0152994 85 179 186
0.0552716 -0.059125 -0.0161238 80 165 170
0.0549007 -0.0581718 -0.0167858 68 143 146
0.0546583 -0.0569606 -0.0172878 52 111 117
0.054287 -0.0560062 -0.0179507 32 67 88
0.0539156 -0.0550517 -0.0186137 20 44 44
0.0565961 -0.0442901 -0.015909 10 14 14
0.0562122 -0.0433034 -0.0165943 10 15 15
0.0558283 -0.0423167 -0.0172796 11 15 19
0.0554444 -0.0413299 -0.017965 15 17 19
0.0505478 -0.0777621 -0.0189014 44 108 112
0.0503143 -0.0766384 -0.0193777 49 130 135
0.05055 -0.0746094 -0.0192567 56 144 149
0.0548983 -0.0595819 -0.0144757 85 175 183
0.054527 -0.0586276 -0.0151385 87 173 179
0.0541556 -0.0576732 -0.0158013 78 166 172
0.0537843 -0.0567187 -0.0164642 64 150 157
0.0534128 -0.0557642 -0.0171271 57 133 138
0.0530415 -0.0548096 -0.01779 39 106 106
0.0548616 -0.0493206 -0.0156975 23 52 79
0.0560764 -0.0450264 -0.0143727 13 39 42
0.0554248 -0.0446019 -0.0153937 11 25 32
0.0550417 -0.0436174 -0.0160774 15 21 24
0.0549246 -0.0420661 -0.0164287 14 17 21
0.0545406 -0.0410792 -0.0171141 12 16 19
0.0541565 -0.0400922 -0.0177995 14 17 19
0.0497198 -0.0743801 -0.0184737 43 109 117
0.0540243 -0.0593402 -0.0136518 80 168 176
0.0536529 -0.0583858 -0.0143146 85 167 176
0.0532815 -0.0574313 -0.0149775 77 162 168
0.0529101 -0.0564768 -0.0156404 64 154 163
0.0526651 -0.0552621 -0.0161417 62 156 163
0.0522932 -0.0543063 -0.0168054 58 150 156
0.0529365 -0.0512314 -0.0161753 52 126 132
0.0535916 -0.0481005 -0.0155338 32 102 101
0.0537334 -0.0460247 -0.0155482 22 64 80
0.0534833 -0.0447685 -0.0160618 29 43 51
0.0537568 -0.0423827 -0.0159121 34 37 36
0.0536366 -0.0408284 -0.016263 26 30 26
0.0532525 -0.0398414 -0.0169485 18 22 16
0.0528684 -0.0388542 -0.017634 22 19 15
0.0531501 -0.0590986 -0.0128278 63 144 152
0.0527787 -0.0581441 -0.0134906 66 146 155
0.0524072 -0.0571895 -0.0141535 63 145 153
0.0521616 -0.0559755 -0.0146532 61 148 158
0.0517897 -0.0550198 -0.0153169 61 151 160
0.0514177 -0.0540639 -0.0159806 57 152 161
0.0517996 -0.0515206 -0.0156707 57 154 161
