ply
format ascii 1.0
element vertex 1156
property float x
property float y
property float z
property uchar diffuse_red
property uchar diffuse_green
property uchar diffuse_blue
end_header
0.082914 -0.183523 -0.046168 84 136 61
0.0827053 -0.182806 -0.0478412 77 128 57
0.0832147 -0.182073 -0.0496753 71 120 53
0.0830057 -0.181354 -0.0513511 67 115 52
0.0835165 -0.180618 -0.0531941 64 110 50
0.0833072 -0.179898 -0.0548725 62 112 49
0.0830979 -0.179178 -0.0565508 65 116 50
0.0828886 -0.178458 -0.058229 70 121 53
0.0826793 -0.177738 -0.0599071 75 127 58
0.08247 -0.177019 -0.061585 81 135 63
0.0815432 -0.176323 -0.0630785 86 140 67
0.0813343 -0.175605 -0.0647534 93 143 68
0.0804109 -0.174914 -0.0662387 95 143 67
0.0802025 -0.174196 -0.0679105 90 141 67
0.0807078 -0.17345 -0.0697772 83 138 69
0.0812148 -0.172701 -0.0716502 77 132 68
0.082444 -0.171917 -0.0737323 76 128 61
0.0858716 -0.171027 -0.0764541 75 127 56
0.0863946 -0.170263 -0.078364 75 133 59
0.0869194 -0.169497 -0.0802804 79 141 62
0.0881876 -0.168691 -0.0824244 89 150 70
0.0879746 -0.167958 -0.0841329 106 175 99
0.0870207 -0.167266 -0.0856143 101 180 121
0.084602 -0.166659 -0.0866347 104 175 113
0.079333 -0.166228 -0.08674 113 170 80
0.0762891 -0.16568 -0.0875124 92 150 68
0.0753792 -0.165009 -0.0889502 80 138 61
0.073775 -0.164385 -0.0901549 74 132 59
0.0687545 -0.16399 -0.0902164 71 129 58
0.0658508 -0.16347 -0.0909475 107 155 71
0.0649791 -0.162819 -0.092346 111 151 88
0.0786489 -0.203788 0.00745486 75 123 54
0.0798343 -0.203127 0.00568835 55 109 52
0.0831419 -0.202521 0.00370243 42 104 35
0.0836447 -0.20183 0.00197555 41 108 41
0.0841493 -0.201136 0.000242978 45 111 45
0.0839423 -0.200424 -0.00141674 52 113 48
0.0837353 -0.199712 -0.00307636 55 113 44
0.0835284 -0.199001 -0.00473583 55 112 44
0.0833215 -0.198289 -0.00639521 53 110 48
0.0831145 -0.197577 -0.00805445 53 110 39
0.0829076 -0.196865 -0.00971358 63 116 47
0.0834119 -0.196163 -0.0114679 59 112 45
0.0832047 -0.19545 -0.0131295 61 112 43
0.0837103 -0.194744 -0.0148923 69 123 52
0.0835028 -0.19403 -0.0165565 85 141 64
0.0840098 -0.193321 -0.0183278 96 152 72
0.0838019 -0.192606 -0.0199946 100 154 73
0.0835941 -0.191891 -0.0216613 97 156 74
0.0833862 -0.191176 -0.0233279 95 150 72
0.083894 -0.190461 -0.0251132 90 139 66
0.0836858 -0.189745 -0.0267823 82 129 59
0.0834777 -0.189029 -0.0284513 76 125 57
0.0832696 -0.188313 -0.0301203 74 119 55
0.0830615 -0.187597 -0.031789 71 117 51
0.0828534 -0.186881 -0.0334577 69 115 51
0.0826453 -0.186166 -0.0351263 73 125 53
0.0831528 -0.185441 -0.0369337 79 133 59
0.0829444 -0.184724 -0.0386048 82 135 62
0.0827359 -0.184007 -0.0402759 81 134 62
0.0825276 -0.183291 -0.0419468 76 131 60
0.0830358 -0.18256 -0.0437683 73 127 56
0.0828271 -0.181842 -0.0454418 72 123 52
0.0833367 -0.181108 -0.0472721 68 118 51
0.0831276 -0.180389 -0.0489482 65 114 50
0.0836386 -0.179651 -0.0507874 63 108 51
0.0841513 -0.178911 -0.0526327 63 107 50
0.0853925 -0.178147 -0.0546548 65 112 50
0.0851821 -0.177423 -0.0563419 70 121 54
0.0842458 -0.176724 -0.0578525 78 132 61
0.0833127 -0.176026 -0.0593578 87 144 67
0.0831031 -0.175305 -0.0610388 93 155 74
0.0821735 -0.174612 -0.0625359 98 161 79
0.0812471 -0.173921 -0.0640278 106 162 80
0.0810383 -0.173203 -0.0657028 113 162 80
0.0808294 -0.172484 -0.0673775 119 164 84
0.0813366 -0.171734 -0.0692467 124 166 89
0.0825662 -0.170947 -0.0713209 121 166 90
0.0830791 -0.170189 -0.0732062 103 155 78
0.0857832 -0.16932 -0.0757195 91 145 68
0.0863059 -0.168553 -0.0776284 90 147 69
0.0868306 -0.167784 -0.0795438 90 149 69
0.0873571 -0.167013 -0.0814656 94 153 73
0.0871443 -0.166281 -0.0831713 107 166 86
0.0861935 -0.165593 -0.084652 108 172 95
0.0830556 -0.165041 -0.0854511 108 172 87
0.078533 -0.164586 -0.0857924 116 175 80
0.0762022 -0.164004 -0.0867929 94 156 74
0.0745925 -0.163383 -0.0880073 83 138 61
0.0729936 -0.162766 -0.0892133 76 133 58
0.0679905 -0.16239 -0.0892857 71 137 62
0.0657658 -0.161833 -0.0902453 116 170 79
0.0648943 -0.161185 -0.0916451 111 135 76
0.0799544 -0.202186 0.00804506 55 112 46
0.083263 -0.201572 0.00607857 54 119 54
0.0844777 -0.200896 0.00428665 55 115 46
0.0857006 -0.200215 0.00248279 69 127 54
0.0854929 -0.199501 0.00081718 83 134 61
0.0852853 -0.198787 -0.000848293 93 138 65
0.0850776 -0.198072 -0.00251366 92 134 60
0.0848699 -0.197358 -0.00417891 80 131 60
0.0846623 -0.196644 -0.00584403 67 122 61
0.0851711 -0.195939 -0.00759813 63 116 50
0.0849631 -0.195223 -0.00926583 64 115 50
0.0847552 -0.194508 -0.0109334 65 117 50
0.0852651 -0.193798 -0.0126987 68 121 51
0.0850569 -0.193082 -0.0143688 81 135 59
0.0848486 -0.192366 -0.0160389 91 149 68
0.0846404 -0.191649 -0.0177088 97 154 73
0.0844322 -0.190933 -0.0193786 97 154 72
0.0842239 -0.190217 -0.0210483 96 153 73
0.0840158 -0.189501 -0.0227178 91 147 70
0.0838076 -0.188785 -0.0243873 85 135 64
0.0835994 -0.188069 -0.0260566 77 128 58
0.0833913 -0.187353 -0.0277258 71 124 56
0.0831831 -0.186637 -0.0293949 68 119 54
0.082975 -0.185921 -0.0310639 68 116 51
0.0827669 -0.185206 -0.0327327 68 115 51
0.0825588 -0.18449 -0.0344014 69 123 53
0.0830661 -0.183762 -0.0362078 70 127 56
0.0828577 -0.183046 -0.0378791 72 127 56
0.0826493 -0.182329 -0.0395503 75 129 57
0.0824409 -0.181612 -0.0412214 73 127 59
0.0829489 -0.180879 -0.0430418 74 128 60
0.0827402 -0.180161 -0.0447155 77 127 59
0.0832496 -0.179424 -0.0465448 76 123 57
0.0837607 -0.178684 -0.0483801 73 119 54
0.0842737 -0.177942 -0.0502216 69 117 54
0.0855152 -0.177175 -0.0522358 68 116 53
0.0867653 -0.176402 -0.0542636 70 122 55
0.0865542 -0.175676 -0.0559566 75 132 60
0.084884 -0.175004 -0.0572975 83 145 67
0.0846737 -0.17428 -0.0589846 95 156 73
0.0830156 -0.173616 -0.0603103 112 165 80
0.082806 -0.172895 -0.0619913 121 173 87
0.0818769 -0.172205 -0.0634869 122 177 92
0.0809511 -0.171518 -0.0649772 124 181 101
0.0814584 -0.170766 -0.0668426 131 182 104
0.0819676 -0.170011 -0.0687143 140 177 98
0.0824785 -0.169254 -0.0705922 134 172 91
0.0829912 -0.168494 -0.0724764 111 163 81
0.0856946 -0.167612 -0.0749849 97 154 74
0.0862173 -0.166843 -0.0768927 96 154 74
0.0867417 -0.166071 -0.078807 96 154 73
0.0865294 -0.165341 -0.08051 97 156 73
0.086317 -0.16461 -0.0822129 104 160 76
0.0846364 -0.163973 -0.0834708 109 164 80
0.0807998 -0.16348 -0.0840543 111 167 78
0.0777356 -0.162949 -0.084848 108 170 79
0.0761153 -0.162329 -0.0860733 87 154 74
0.0745058 -0.161713 -0.0872902 80 140 61
0.0729072 -0.161101 -0.0884988 77 138 61
0.0679051 -0.160745 -0.0885797 74 140 68
0.0656808 -0.160196 -0.0895429 124 180 90
0.0648094 -0.15955 -0.0909441 115 117 74
0.080568 -0.200557 0.00870027 38 105 39
0.0845991 -0.199943 0.00667107 66 128 55
0.0858225 -0.19926 0.00487493 85 145 62
0.0863332 -0.198558 0.00313802 94 161 74
0.0861251 -0.197843 0.00146945 97 163 80
0.0859171 -0.197127 -0.000199005 94 152 77
0.085709 -0.196412 -0.00186735 89 141 69
0.085501 -0.195696 -0.00353557 77 134 61
0.085293 -0.194981 -0.00520368 73 127 56
0.085085 -0.194266 -0.00687166 72 123 54
0.0855955 -0.193555 -0.0086305 72 121 50
0.0853872 -0.192839 -0.0103011 70 122 52
0.0851789 -0.192122 -0.0119715 75 127 54
0.0849706 -0.191406 -0.0136418 86 141 62
0.0847622 -0.19069 -0.015312 90 148 67
0.084554 -0.189973 -0.0169821 91 150 70
0.0843458 -0.189257 -0.0186521 89 150 70
0.0841376 -0.188541 -0.020322 86 142 65
0.0839294 -0.187825 -0.0219917 81 135 60
0.0837211 -0.187109 -0.0236613 75 128 59
0.083513 -0.186393 -0.0253308 69 122 55
0.0833048 -0.185677 -0.0270002 64 119 53
0.0830967 -0.184961 -0.0286694 61 114 49
0.0828885 -0.184246 -0.0303385 62 114 49
0.0826804 -0.18353 -0.0320076 64 115 52
0.0824723 -0.182814 -0.0336765 69 121 55
0.0822642 -0.182098 -0.0353452 77 127 58
0.0820561 -0.181383 -0.0370139 89 135 60
0.0818481 -0.180667 -0.0386824 97 144 65
0.0823542 -0.179933 -0.0404958 93 148 69
0.0821458 -0.179217 -0.042167 91 149 73
0.0833716 -0.178458 -0.0441407 93 147 75
0.0838829 -0.177717 -0.0459723 99 142 72
0.085121 -0.17695 -0.0479689 98 138 68
0.0870996 -0.176152 -0.0501425 91 135 66
0.0868884 -0.175426 -0.051836 83 133 61
0.0874111 -0.174672 -0.0536992 80 136 61
0.0871996 -0.173945 -0.0553953 85 142 64
0.086255 -0.173248 -0.0569156 92 153 70
0.0845859 -0.172584 -0.0582533 104 163 78
0.0836506 -0.171893 -0.0597607 126 168 87
0.0827185 -0.171204 -0.0612629 134 175 92
0.0817896 -0.170518 -0.0627599 125 180 95
0.0815803 -0.169798 -0.064438 118 183 101
0.0813711 -0.169079 -0.066116 118 178 98
0.08188 -0.168321 -0.0679865 118 166 87
0.0823908 -0.167561 -0.0698634 113 159 78
0.0821809 -0.166839 -0.0715467 105 157 74
0.0841446 -0.16599 -0.07384 100 156 74
0.0846628 -0.16522 -0.0757394 99 157 75
0.0851828 -0.164448 -0.0776453 100 159 75
0.0849711 -0.163721 -0.0793426 101 162 75
0.0847595 -0.162993 -0.0810399 105 164 77
0.081642 -0.16246 -0.0818614 108 165 78
0.0792795 -0.161886 -0.0828893 109 164 80
0.0769409 -0.161317 -0.0839066 103 166 75
0.074626 -0.160754 -0.0849136 80 150 66
0.0730269 -0.160146 -0.0861305 81 144 63
0.0714386 -0.159541 -0.0873391 79 142 66
0.0678197 -0.1591 -0.0878736 81 146 72
0.0655958 -0.158559 -0.0888405 124 180 98
0.0647245 -0.157916 -0.090243 108 105 74
0.0786 -0.19957 0.0112316 43 101 36
0.0811835 -0.198922 0.00935778 40 106 40
0.0852278 -0.198291 0.00733162 74 135 55
0.0864552 -0.1976 0.00553451 93 156 72
0.0862471 -0.196885 0.00386564 97 161 75
0.086039 -0.196169 0.00219689 96 160 75
0.085831 -0.195454 0.000528261 92 153 74
0.0856229 -0.194738 -0.00114022 85 144 68
0.0854149 -0.194023 -0.00280862 76 136 60
0.0852068 -0.193308 -0.0044769 77 131 56
0.0857175 -0.192595 -0.00623199 74 128 55
0.0855092 -0.191879 -0.00790285 69 124 52
0.0853008 -0.191162 -0.00957356 68 125 52
0.0850925 -0.190446 -0.0112442 74 132 57
0.0848842 -0.18973 -0.0129147 77 137 60
0.0846759 -0.189013 -0.0145851 81 140 63
0.0844676 -0.188297 -0.0162553 75 137 61
0.0842594 -0.187581 -0.0179254 74 134 58
0.0840511 -0.186865 -0.0195955 73 128 55
0.0838429 -0.186149 -0.0212654 68 122 54
0.0836347 -0.185433 -0.0229351 65 117 54
0.0834265 -0.184717 -0.0246048 67 111 53
0.0832183 -0.184001 -0.0262744 66 111 51
0.0830102 -0.183285 -0.0279438 64 111 47
0.082802 -0.182569 -0.0296131 68 115 51
0.0825938 -0.181854 -0.0312823 73 124 55
0.0823857 -0.181138 -0.0329513 81 141 62
0.0821776 -0.180422 -0.0346203 90 150 69
0.0819695 -0.179707 -0.0362891 98 155 75
0.0817615 -0.178991 -0.0379578 101 159 77
0.0815534 -0.178276 -0.0396264 102 162 80
0.082059 -0.177538 -0.0414415 106 164 87
0.0832845 -0.176774 -0.0434129 119 166 93
0.0837957 -0.17603 -0.0452434 140 167 92
0.0850334 -0.175257 -0.0472377 137 169 94
0.0870116 -0.17445 -0.0494078 120 161 90
0.0875345 -0.173695 -0.0512671 102 155 77
0.0873229 -0.172967 -0.0529635 94 151 71
0.0863781 -0.172272 -0.0544883 93 150 71
0.0861669 -0.171546 -0.0561816 95 155 74
0.0844981 -0.170888 -0.0575219 100 161 80
0.0828407 -0.170235 -0.058853 107 164 84
0.0819115 -0.16955 -0.0603544 111 164 83
0.0817022 -0.16883 -0.0620327 113 167 82
0.0814929 -0.168111 -0.063711 114 171 82
0.0812836 -0.167391 -0.0653891 114 172 83
0.0810744 -0.166672 -0.0670672 113 169 81
0.0815829 -0.16591 -0.0689394 110 165 79
0.0813733 -0.165189 -0.0706201 107 163 76
0.0818833 -0.164423 -0.0725013 105 162 75
0.0816733 -0.163702 -0.0741846 106 163 77
0.0814634 -0.16298 -0.0758678 105 166 76
0.0812536 -0.162258 -0.0775508 105 167 77
0.0810438 -0.161537 -0.0792338 106 168 78
0.079401 -0.160917 -0.0804872 105 167 77
0.0784795 -0.16025 -0.0819477 106 167 77
0.076149 -0.15969 -0.0829683 100 165 73
0.0738419 -0.159137 -0.0839784 81 146 62
0.0722482 -0.158535 -0.0851966 86 149 66
0.0699798 -0.157992 -0.086187 82 147 68
0.0670584 -0.157509 -0.086948 91 156 73
0.0655107 -0.156921 -0.0881379 114 173 101
0.0785157 -0.19793 0.0119456 53 104 45
0.0810986 -0.197271 0.0100763 49 110 45
0.085142 -0.196623 0.00805725 71 133 51
0.0856507 -0.195918 0.00632818 91 156 69
0.086161 -0.195211 0.0045934 97 161 76
0.0859529 -0.194496 0.00292446 94 157 74
0.0857448 -0.19378 0.00125568 88 151 70
0.0855368 -0.193065 -0.000413001 80 144 63
0.0853287 -0.192349 -0.00208156 75 136 58
0.0851207 -0.191634 -0.00375001 75 134 56
0.0849127 -0.190919 -0.00541832 71 130 54
0.0854228 -0.190202 -0.00717506 67 127 52
0.0852145 -0.189486 -0.00884596 66 129 54
0.0850061 -0.18877 -0.0105167 66 129 56
0.0847978 -0.188053 -0.0121874 68 130 55
0.0845895 -0.187337 -0.013858 70 128 58
0.0843813 -0.186621 -0.0155284 71 129 58
0.0834569 -0.185913 -0.0170933 78 130 58
0.083249 -0.185198 -0.0187606 86 129 57
0.0837565 -0.184472 -0.0205389 83 128 58
0.0835482 -0.183756 -0.0222089 79 127 61
0.08334 -0.18304 -0.0238787 74 124 62
0.0831318 -0.182325 -0.0255484 75 122 59
0.0829237 -0.181609 -0.027218 72 122 56
0.0827155 -0.180893 -0.0288875 70 127 59
0.0825073 -0.180177 -0.0305569 76 136 61
0.0822992 -0.179461 -0.0322261 85 149 65
0.0820911 -0.178746 -0.0338952 94 156 70
0.081883 -0.17803 -0.0355642 102 165 78
0.0816749 -0.177315 -0.0372331 108 170 89
0.0814668 -0.176599 -0.0389019 117 176 96
0.0819722 -0.175858 -0.0407158 136 183 103
0.0831974 -0.175089 -0.042685 150 193 111
0.0837085 -0.174342 -0.0445144 138 185 102
0.0849459 -0.173563 -0.0465064 119 178 104
0.0869236 -0.172748 -0.0486729 107 170 99
0.0874463 -0.171989 -0.0505311 100 158 82
0.0865012 -0.171295 -0.0520604 97 153 74
0.0848311 -0.170639 -0.0534152 96 152 73
0.0838954 -0.169951 -0.0549315 96 153 73
0.0829628 -0.169265 -0.0564425 98 156 74
0.0820334 -0.168582 -0.0579482 102 160 76
0.0818241 -0.167862 -0.0596269 106 164 78
0.0816148 -0.167142 -0.0613055 113 169 81
0.0806893 -0.166464 -0.0628 114 171 83
0.0804804 -0.165746 -0.0644755 111 172 83
0.0802715 -0.165027 -0.0661509 113 173 84
0.0807777 -0.164264 -0.0680185 115 173 83
0.0805685 -0.163545 -0.0696965 113 172 81
0.0803593 -0.162825 -0.0713743 110 172 79
0.0801501 -0.162106 -0.0730521 110 171 80
0.0792272 -0.161436 -0.0745259 110 171 79
0.0790184 -0.160718 -0.0762005 108 170 78
0.0788096 -0.160001 -0.077875 106 169 80
0.0786008 -0.159283 -0.0795494 104 168 77
0.0762696 -0.158728 -0.0805824 104 169 77
0.0753596 -0.158069 -0.082033 97 165 74
0.0723678 -0.15758 -0.0828313 87 146 64
0.0707842 -0.156986 -0.0840494 94 158 71
0.0685308 -0.156452 -0.0850424 87 152 69
0.0662997 -0.155924 -0.0860253 108 163 75
0.0784314 -0.196289 0.0126597 76 118 57
0.079616 -0.195603 0.0109095 66 121 53
0.0836308 -0.194941 0.00890543 65 128 49
0.0848488 -0.194241 0.0071193 80 151 64
0.085357 -0.193533 0.00538857 87 160 75
0.0851492 -0.192818 0.00372231 81 150 68
0.0849415 -0.192104 0.00205617 74 143 64
0.0847337 -0.19139 0.000390127 69 139 60
0.084526 -0.190676 -0.00127579 67 132 54
0.0843183 -0.189961 -0.00294159 66 130 53
0.0841106 -0.189247 -0.00460728 64 126 50
0.0846185 -0.188529 -0.00635986 64 123 50
0.0844104 -0.187814 -0.0080281 67 123 53
0.0849198 -0.187093 -0.00978917 75 127 56
0.0847114 -0.186376 -0.01146 86 135 59
0.0845031 -0.18566 -0.0131307 89 145 64
0.0842948 -0.184944 -0.0148013 94 154 72
0.0833706 -0.184239 -0.0163676 96 156 74
0.0831627 -0.183524 -0.0180351 96 151 71
0.08367 -0.182796 -0.0198124 97 147 72
0.0834618 -0.18208 -0.0214825 89 145 74
0.0832535 -0.181364 -0.0231525 83 142 81
0.0830453 -0.180648 -0.0248224 91 138 79
0.0828372 -0.179932 -0.0264922 90 140 70
0.082629 -0.179216 -0.0281618 87 143 69
0.0824208 -0.1785 -0.0298313 89 146 66
0.0822126 -0.177785 -0.0315007 95 156 73
0.0820045 -0.177069 -0.03317 102 163 75
0.0817963 -0.176353 -0.0348392 106 168 84
0.0815883 -0.175638 -0.0365083 111 180 103
0.0813802 -0.174922 -0.0381772 116 189 111
0.0818855 -0.174179 -0.0399901 118 176 99
0.0831104 -0.173403 -0.041957 122 170 87
0.0829013 -0.172684 -0.0436341 115 164 79
0.0841338 -0.171901 -0.0456198 108 159 77
0.0846482 -0.171146 -0.0474604 105 161 76
0.0866243 -0.170319 -0.0496319 102 159 75
0.0849539 -0.169665 -0.0509953 102 158 75
0.0832947 -0.169016 -0.0523493 101 156 74
0.083085 -0.168295 -0.0540314 101 157 75
0.0828753 -0.167574 -0.0557133 102 159 76
0.081946 -0.166894 -0.0572205 105 163 77
0.0817367 -0.166174 -0.0588993 109 167 78
0.080811 -0.165497 -0.0603983 114 174 83
0.080602 -0.164779 -0.0620741 117 177 85
0.0803931 -0.16406 -0.0637497 116 177 85
0.0801842 -0.163342 -0.0654252 120 179 86
0.0799753 -0.162624 -0.0671006 122 181 87
0.0797664 -0.161906 -0.0687759 119 182 87
0.0795575 -0.161187 -0.0704511 117 180 85
0.0786372 -0.160521 -0.0719271 113 177 84
0.07772 -0.159856 -0.0733979 112 175 81
0.0775118 -0.159141 -0.0750671 110 171 79
0.0773037 -0.158425 -0.0767361 106 169 79
0.0763904 -0.157765 -0.078196 104 169 77
0.0761826 -0.157051 -0.079862 103 170 78
0.0738754 -0.156511 -0.0808883 94 163 76
0.0715913 -0.155976 -0.0819041 94 153 68
0.0686494 -0.155505 -0.0826967 99 163 73
0.0677671 -0.154863 -0.0841195 90 154 71
0.0655434 -0.154343 -0.0851056 126 179 83
0.077656 -0.194642 0.0134266 107 151 76
0.078836 -0.193952 0.0116817 93 142 69
0.0800239 -0.193257 0.00992531 81 137 61
0.0833385 -0.192567 0.00797056 79 143 60
0.0831318 -0.191856 0.00631239 79 142 62
0.0829251 -0.191145 0.0046543 70 136 58
0.0827183 -0.190435 0.00299636 65 131 59
0.0825116 -0.189724 0.00133851 68 127 55
0.0823049 -0.189013 -0.000319213 70 124 51
0.0828072 -0.188298 -0.00205617 69 124 51
0.0833112 -0.187581 -0.00379883 68 124 54
0.0838169 -0.186862 -0.00554727 72 127 53
0.0843242 -0.18614 -0.00730146 78 134 58
0.0841162 -0.185425 -0.00896977 86 145 68
0.084625 -0.184699 -0.0107325 88 155 71
0.0844167 -0.183983 -0.0124034 91 156 73
0.0842084 -0.183267 -0.0140741 94 160 76
0.0832843 -0.182565 -0.0156418 99 161 79
0.0830764 -0.18185 -0.0173095 109 164 81
0.0835836 -0.181119 -0.0190857 137 169 91
0.0833753 -0.180403 -0.020756 130 181 91
0.083167 -0.179687 -0.0224262 112 183 104
0.0829588 -0.178971 -0.0240963 118 177 103
0.0827506 -0.178255 -0.0257662 109 168 91
0.0825424 -0.177539 -0.027436 99 166 87
0.0823342 -0.176823 -0.0291057 96 155 75
0.0821261 -0.176108 -0.0307753 96 155 75
0.0819179 -0.175392 -0.0324447 101 159 76
0.0817098 -0.174676 -0.034114 105 162 76
0.0815016 -0.173961 -0.0357833 109 165 78
0.0812935 -0.173245 -0.0374524 110 168 78
0.0817987 -0.172499 -0.0392643 110 169 81
0.0815902 -0.171782 -0.0409359 112 169 82
0.0828141 -0.170999 -0.0429061 110 166 80
0.082605 -0.17028 -0.0445832 108 164 79
0.0838366 -0.169488 -0.0465723 108 165 78
0.0836268 -0.168767 -0.0482549 106 165 79
0.083417 -0.168046 -0.0499373 106 162 78
0.0824867 -0.167365 -0.0514548 105 161 77
0.0822774 -0.166645 -0.0531342 104 164 77
0.082068 -0.165925 -0.0548135 107 166 78
0.0818586 -0.165205 -0.0564926 110 169 79
0.0809327 -0.16453 -0.0579959 115 172 81
0.0800099 -0.163857 -0.059494 118 178 85
0.0798013 -0.16314 -0.0611671 121 181 88
0.0795927 -0.162423 -0.0628401 122 182 88
0.0793841 -0.161706 -0.064513 126 186 89
0.0791756 -0.160989 -0.0661857 127 188 90
0.078967 -0.160272 -0.0678583 124 187 91
0.0780492 -0.159608 -0.0693365 123 185 90
0.0771345 -0.158946 -0.0708095 118 181 87
0.0769267 -0.158231 -0.0724762 114 176 83
0.0767189 -0.157517 -0.0741426 110 171 80
0.0765111 -0.156803 -0.075809 107 171 78
0.0763034 -0.156088 -0.0774753 106 169 77
0.0753932 -0.155434 -0.0789315 102 170 77
0.0730938 -0.154902 -0.0799609 90 161 73
0.0715052 -0.154316 -0.0811911 96 160 72
0.0685638 -0.153856 -0.0819886 99 165 74
0.0670059 -0.153278 -0.0831996 93 157 74
0.0654584 -0.152705 -0.0844025 134 184 91
0.0768832 -0.193 0.0141912 97 150 74
0.0773681 -0.192303 0.0125058 118 168 87
0.0785471 -0.191605 0.0107577 144 176 85
0.079734 -0.190903 0.00899819 141 169 85
0.0809288 -0.190196 0.00722705 134 160 82
0.0807231 -0.189489 0.00557709 118 157 80
0.0791189 -0.188788 0.00406478 90 153 82
0.078914 -0.188083 0.00242056 83 144 70
0.0787089 -0.187379 0.000776425 76 137 60
0.0799004 -0.18666 -0.00102152 71 130 56
0.0810999 -0.185937 -0.00283141 71 128 55
0.0815993 -0.185218 -0.00456958 78 133 56
0.0828106 -0.184487 -0.00640026 79 137 60
0.08403 -0.18375 -0.00824317 84 147 64
0.083822 -0.183035 -0.00991155 93 161 70
0.0843303 -0.182306 -0.0116759 98 167 74
0.084122 -0.18159 -0.0133468 106 170 80
0.083198 -0.18089 -0.0149159 130 176 88
0.0829901 -0.180175 -0.0165838 126 187 97
0.0827821 -0.17946 -0.0182516 117 175 99
0.0825742 -0.178746 -0.0199192 111 166 84
0.0830805 -0.178009 -0.0216997 107 160 76
0.0821584 -0.177316 -0.0232541 108 155 75
0.082664 -0.176578 -0.0250401 103 157 75
0.0824558 -0.175862 -0.02671 102 157 73
0.0822476 -0.175146 -0.0283799 99 155 75
0.0820394 -0.17443 -0.0300497 98 156 74
0.0818313 -0.173715 -0.0317193 100 157 74
0.0816232 -0.172999 -0.0333888 105 161 75
0.081415 -0.172283 -0.0350582 109 165 78
0.0812069 -0.171568 -0.0367274 110 169 79
0.0809988 -0.170852 -0.0383966 111 171 82
0.0815034 -0.170102 -0.0402101 114 172 83
0.081295 -0.169385 -0.0418819 114 170 84
0.081801 -0.168631 -0.0437041 113 169 84
0.0815923 -0.167914 -0.0453785 111 171 83
0.0813835 -0.167196 -0.0470527 111 171 81
0.0818906 -0.166437 -0.0488865 111 169 80
0.0816815 -0.165719 -0.0505633 111 168 81
0.0814725 -0.165 -0.05224 111 170 81
0.0812635 -0.164281 -0.0539166 112 172 82
0.0810544 -0.163563 -0.055593 114 174 82
0.0801314 -0.162891 -0.0570955 120 178 87
0.0799227 -0.162174 -0.0587689 122 183 89
0.0790032 -0.161507 -0.0602632 125 186 91
0.078795 -0.160791 -0.0619335 126 188 91
0.0785867 -0.160075 -0.0636037 127 191 91
0.0783785 -0.159359 -0.0652738 126 190 92
0.0774632 -0.158697 -0.0667541 123 187 91
0.0772554 -0.157983 -0.0684211 123 187 90
0.0770475 -0.157268 -0.070088 121 183 87
0.0768397 -0.156554 -0.0717548 115 176 83
0.0766319 -0.15584 -0.0734214 109 173 81
0.0764241 -0.155125 -0.0750879 107 171 78
0.0762164 -0.154411 -0.0767544 107 169 76
0.0746065 -0.153822 -0.0780041 100 168 73
0.0730074 -0.153236 -0.0792452 87 159 71
0.071419 -0.152655 -0.080478 98 167 77
0.0684782 -0.152206 -0.0812804 94 164 76
0.0669206 -0.151634 -0.0824939 98 163 77
0.0653733 -0.151066 -0.0836993 125 179 97
0.0759097 -0.190664 0.0133245 84 115 60
0.0763923 -0.189965 0.0116403 102 140 71
0.0768763 -0.189263 0.00995073 108 162 92
0.0766726 -0.188563 0.00831684 109 171 100
0.077158 -0.187858 0.0066192 109 185 108
0.076954 -0.187157 0.00498284 114 207 114
0.07675 -0.186455 0.00334658 143 185 95
0.0772364 -0.185746 0.00163826 114 169 79
0.0770321 -0.185043 -4.61936e-07 81 135 63
0.0796095 -0.184298 -0.00195214 75 135 59
0.0808081 -0.183567 -0.00376518 78 137 60
0.081307 -0.182844 -0.005505 75 136 61
0.0825173 -0.182105 -0.00733885 91 153 66
0.0837356 -0.18136 -0.009185 98 165 74
0.0842438 -0.180628 -0.0109483 102 168 79
0.0840355 -0.179912 -0.0126194 105 171 80
0.0831117 -0.179215 -0.0141899 114 168 80
0.0829037 -0.1785 -0.0158579 115 172 82
0.0826958 -0.177786 -0.0175259 110 169 82
0.0824879 -0.177071 -0.0191937 106 163 79
0.082994 -0.176332 -0.0209731 103 165 77
0.082072 -0.175641 -0.0225289 107 162 77
0.0825775 -0.1749 -0.0243138 106 162 74
0.0823692 -0.174184 -0.025984 104 160 75
0.082161 -0.173468 -0.027654 105 160 78
0.0819529 -0.172753 -0.0293239 102 159 75
0.0817447 -0.172037 -0.0309937 105 162 74
0.0815365 -0.171321 -0.0326634 106 164 78
0.0813283 -0.170606 -0.034333 110 168 81
0.0811202 -0.16989 -0.0360024 113 173 82
0.0809121 -0.169175 -0.0376717 115 175 83
0.080704 -0.168459 -0.0393409 119 178 86
0.0804959 -0.167744 -0.04101 121 179 89
0.0802878 -0.167029 -0.042679 121 180 89
0.0807913 -0.166272 -0.0444995 117 178 87
0.0805829 -0.165556 -0.0461711 116 176 85
0.0803745 -0.164839 -0.0478425 117 174 85
0.080879 -0.164078 -0.0496746 119 176 87
0.0806703 -0.16336 -0.0513486 118 176 85
0.0804616 -0.162643 -0.0530225 117 176 84
0.0802529 -0.161925 -0.0546963 118 178 84
0.0800442 -0.161208 -0.05637 120 183 90
0.0791245 -0.160542 -0.0578686 123 185 92
0.0789162 -0.159826 -0.0595393 126 188 91
0.0787079 -0.15911 -0.0612098 128 190 92
0.0784996 -0.158394 -0.0628801 129 190 91
0.0775841 -0.157734 -0.0643647 129 191 92
0.0773762 -0.15702 -0.0660321 127 191 92
0.0771684 -0.156305 -0.0676993 124 186 90
0.0769606 -0.155591 -0.0693663 120 181 86
0.0767528 -0.154876 -0.0710333 114 175 81
0.0765449 -0.154162 -0.0727001 109 173 80
0.0756343 -0.153511 -0.074165 108 173 78
0.0747268 -0.152861 -0.0756248 107 170 75
0.0745197 -0.15215 -0.0772857 98 165 71
0.0729209 -0.15157 -0.0785294 91 158 71
0.0713328 -0.150994 -0.0797647 103 172 81
0.0690727 -0.150489 -0.0807815 93 162 76
0.0652882 -0.149427 -0.082996 107 151 95
0.0751422 -0.189034 0.0140867 69 72 44
0.0756227 -0.188333 0.0124065 71 82 51
0.0754196 -0.187635 0.0107777 75 90 52
0.0752166 -0.186937 0.00914897 77 93 52
0.0750135 -0.186239 0.00752039 77 103 55
0.0754946 -0.185532 0.00582698 80 124 63
0.0752913 -0.184833 0.00419594 108 146 77
0.0757736 -0.184123 0.0024945 123 195 98
0.0762576 -0.183411 0.000787511 129 182 86
0.0767432 -0.182696 -0.00092496 94 140 68
0.0793187 -0.181935 -0.00288287 82 140 60
0.0805162 -0.181197 -0.00469907 76 139 56
0.0810146 -0.18047 -0.00644048 90 158 69
0.0829355 -0.179704 -0.00836779 99 162 71
0.0834413 -0.17897 -0.0101269 105 166 77
0.0832334 -0.178255 -0.0117954 105 168 76
0.0830253 -0.17754 -0.0134637 108 170 79
0.0828173 -0.176825 -0.0151319 108 171 82
0.0826094 -0.176111 -0.0168 111 169 78
0.0831157 -0.17537 -0.0185757 109 168 80
0.0829074 -0.174654 -0.0202464 107 168 79
0.0826992 -0.173938 -0.021917 113 169 79
0.0824909 -0.173222 -0.0235875 111 170 77
0.0822827 -0.172506 -0.0252578 108 163 77
0.0820745 -0.17179 -0.026928 110 166 79
0.0818662 -0.171075 -0.0285981 109 165 77
0.081658 -0.170359 -0.030268 108 169 79
0.0821637 -0.169608 -0.0320686 109 170 80
0.0819552 -0.168891 -0.0337412 115 174 82
0.0817467 -0.168174 -0.0354136 116 178 85
0.0808254 -0.167497 -0.0369467 120 181 86
0.0806173 -0.166781 -0.0386161 122 183 88
0.0804091 -0.166066 -0.0402853 126 188 90
0.0802011 -0.165351 -0.0419545 133 185 91
0.079993 -0.164635 -0.0436235 127 184 90
0.079785 -0.16392 -0.0452924 121 181 90
0.0802875 -0.163158 -0.0471173 122 179 90
0.0800792 -0.162442 -0.0487888 118 180 90
0.0798708 -0.161726 -0.0504602 117 179 87
0.0796624 -0.16101 -0.0521314 119 179 85
0.0794541 -0.160293 -0.0538026 120 181 87
0.0792457 -0.159577 -0.0554736 121 187 92
0.0790375 -0.158861 -0.0571444 125 190 94
0.0788292 -0.158145 -0.0588152 126 191 94
0.0786209 -0.157429 -0.0604859 128 192 96
0.0777051 -0.156771 -0.0619749 130 190 93
0.0774972 -0.156056 -0.0636424 133 190 91
0.0772893 -0.155342 -0.0653099 133 191 92
0.0770814 -0.154627 -0.0669773 125 187 90
0.0768736 -0.153913 -0.0686445 117 180 86
0.0766657 -0.153198 -0.0703117 113 176 81
0.0764579 -0.152484 -0.0719786 110 175 80
0.0755474 -0.151835 -0.0734449 107 175 80
0.0739425 -0.151256 -0.0747041 103 170 77
0.0730408 -0.150613 -0.0761581 92 161 71
0.0714523 -0.15004 -0.0774017 97 163 74
0.0691915 -0.14954 -0.0784305 105 171 81
0.068987 -0.148837 -0.0800719 98 162 74
0.0652031 -0.147788 -0.0822925 97 110 80
0.0736984 -0.187413 0.0148965 70 64 45
0.0748557 -0.186705 0.0131702 66 64 49
0.0746529 -0.186008 0.0115439 67 66 50
0.0744502 -0.185312 0.00991772 66 73 47
0.0749295 -0.184605 0.00823076 70 72 43
0.0747264 -0.183907 0.00660215 72 81 40
0.0745234 -0.183209 0.00497364 73 90 52
0.0743204 -0.182511 0.00334524 88 132 66
0.0748004 -0.181799 0.00164513 121 189 89
0.0752819 -0.181084 -6.04689e-05 119 181 87
0.0764541 -0.180349 -0.00184955 92 143 63
0.0790277 -0.179573 -0.00381367 72 139 57
0.0802243 -0.178826 -0.00563304 84 154 65
0.0814289 -0.178074 -0.00746448 96 162 70
0.0826416 -0.177318 -0.00930816 105 167 74
0.083147 -0.17658 -0.0110689 106 170 80
0.082939 -0.175865 -0.0127374 108 171 80
0.0834458 -0.175124 -0.0145067 110 171 81
0.0832375 -0.174407 -0.0161778 112 173 79
0.0830292 -0.173691 -0.0178487 120 180 85
0.0828209 -0.172975 -0.0195196 118 176 83
0.0826126 -0.17226 -0.0211903 119 178 83
0.0824043 -0.171544 -0.022861 115 176 82
0.0821961 -0.170828 -0.0245314 114 171 79
0.0819878 -0.170112 -0.0262018 113 171 80
0.0817796 -0.169396 -0.0278721 112 171 79
0.0822854 -0.168643 -0.0296689 112 170 79
0.0820769 -0.167926 -0.0313417 113 174 83
0.0818684 -0.16721 -0.0330144 117 178 85
0.0816598 -0.166493 -0.0346871 120 183 89
0.0807387 -0.165819 -0.0362216 122 185 89
0.0805305 -0.165103 -0.0378911 124 187 91
0.0803224 -0.164388 -0.0395605 128 197 94
0.0801143 -0.163672 -0.0412299 128 187 92
0.0799062 -0.162957 -0.042899 127 186 90
0.0796981 -0.162242 -0.0445681 122 183 89
0.0794901 -0.161527 -0.0462371 124 185 90
0.079282 -0.160812 -0.0479059 121 183 91
0.079074 -0.160097 -0.0495746 121 182 88
0.078866 -0.159382 -0.0512432 122 182 86
0.0793671 -0.158612 -0.0530779 121 182 88
0.0791587 -0.157896 -0.0547491 124 187 92
0.0789504 -0.15718 -0.0564201 129 193 96
0.078034 -0.156522 -0.0579164 127 194 98
0.0778261 -0.155807 -0.0595844 125 194 98
0.0776181 -0.155093 -0.0612523 125 192 93
0.0774102 -0.154378 -0.06292 126 188 89
0.0772023 -0.153663 -0.0645877 125 186 88
0.0769944 -0.152949 -0.0662552 122 183 87
0.0767866 -0.152234 -0.0679226 118 181 86
0.0765787 -0.15152 -0.0695899 115 177 84
0.0763709 -0.150806 -0.0712571 111 176 82
0.0754605 -0.15016 -0.0727247 107 175 79
0.0738558 -0.149586 -0.0739865 100 169 75
0.0729543 -0.148946 -0.0754419 89 160 70
0.0713661 -0.148378 -0.076688 99 170 78
0.0697884 -0.147815 -0.0779257 102 170 81
0.0734126 -0.185092 0.0139829 66 64 45
0.0732106 -0.184398 0.0123618 68 64 47
0.0736862 -0.183692 0.0106841 69 63 44
0.0739608 -0.182286 0.00737487 66 63 38
0.0744393 -0.181575 0.00568376 68 67 40
0.0742363 -0.180877 0.00405523 68 82 53
0.0740333 -0.180179 0.00242679 89 132 64
0.0745128 -0.179463 0.000725105 128 188 91
0.0749938 -0.178744 -0.000982061 105 173 82
0.0761651 -0.178002 -0.00277425 69 139 61
0.0787368 -0.17721 -0.00474457 75 147 60
0.0806365 -0.176431 -0.00665401 90 160 72
0.0818445 -0.17567 -0.00849202 103 169 76
0.0830607 -0.174904 -0.0103423 105 170 77
0.0828526 -0.174189 -0.012011 112 173 81
0.0833593 -0.173445 -0.0137792 115 176 83
0.0831509 -0.172729 -0.0154505 117 180 85
0.0829426 -0.172013 -0.0171216 125 186 89
0.0827343 -0.171297 -0.0187926 121 180 88
0.082526 -0.170581 -0.0204635 116 184 89
0.0823177 -0.169865 -0.0221343 116 178 86
0.0821094 -0.169149 -0.023805 117 176 83
0.0819012 -0.168434 -0.0254755 117 175 83
0.0824072 -0.167679 -0.0272686 115 175 83
0.0821986 -0.166962 -0.0289417 116 176 82
0.0819901 -0.166245 -0.0306147 116 178 86
0.0817815 -0.165528 -0.0322876 120 184 88
0.081573 -0.164812 -0.0339604 123 186 90
0.080652 -0.16414 -0.0354963 124 189 92
0.0804438 -0.163425 -0.037166 124 189 94
0.0802356 -0.162709 -0.0388356 125 190 92
0.0800275 -0.161994 -0.0405051 128 191 91
0.0798194 -0.161279 -0.0421744 127 189 91
0.0796114 -0.160563 -0.0438437 124 186 89
0.0794033 -0.159848 -0.0455128 126 187 92
0.0791952 -0.159133 -0.0471818 124 188 100
0.0789872 -0.158418 -0.0488507 123 184 94
0.0787791 -0.157703 -0.0505195 125 186 89
0.0785711 -0.156988 -0.0521881 123 185 88
0.0783631 -0.156273 -0.0538566 123 185 89
0.0781551 -0.155558 -0.055525 124 189 90
0.0779471 -0.154844 -0.0571934 125 190 90
0.0777391 -0.154129 -0.0588615 125 189 89
0.0775312 -0.153414 -0.0605295 125 189 88
0.0773233 -0.1527 -0.0621975 124 189 89
0.0771153 -0.151985 -0.0638653 122 187 89
0.0769075 -0.15127 -0.065533 121 184 88
0.0766996 -0.150556 -0.0672006 118 181 86
0.0764917 -0.149841 -0.068868 115 177 83
0.0762838 -0.149127 -0.0705354 111 175 80
0.0753736 -0.148484 -0.0720044 105 174 77
0.0737692 -0.147916 -0.0732688 96 166 72
0.0728678 -0.147278 -0.0747256 95 162 70
0.0712798 -0.146717 -0.0759742 103 174 80
0.0697024 -0.146159 -0.0772144 100 169 80
0.0736741 -0.179958 0.00645797 70 62 37
0.0741522 -0.179242 0.00476532 64 64 45
0.0739492 -0.178545 0.00313672 67 81 54
0.0737461 -0.177847 0.00150825 105 136 76
0.0742252 -0.177127 -0.000195011 133 176 97
0.0747057 -0.176404 -0.00190374 96 154 77
0.0758761 -0.175654 -0.00369905 70 140 61
0.0791451 -0.17482 -0.00576071 84 161 70
0.08105 -0.174028 -0.00767852 99 170 77
0.0815511 -0.173287 -0.00943096 109 175 82
0.0827662 -0.172513 -0.0112845 115 179 85
0.0832727 -0.171766 -0.0130516 119 184 86
0.0830644 -0.17105 -0.014723 122 187 88
0.0828561 -0.170334 -0.0163943 123 187 90
0.0826477 -0.169618 -0.0180656 124 188 92
0.0824394 -0.168902 -0.0197366 123 186 95
0.0822311 -0.168186 -0.0214076 121 184 89
0.0820228 -0.167471 -0.0230784 121 180 85
0.082529 -0.166714 -0.0248677 121 180 87
0.0823204 -0.165997 -0.0265411 120 180 90
0.0821118 -0.16528 -0.0282144 120 182 89
0.0819032 -0.164563 -0.0298876 127 184 91
0.0816947 -0.163847 -0.0315607 135 188 89
0.0807734 -0.163177 -0.0331009 131 189 91
0.0805652 -0.162461 -0.0347709 134 191 91
0.080357 -0.161746 -0.0364408 127 192 93
0.0801489 -0.16103 -0.0381106 134 195 93
0.0799407 -0.160315 -0.0397802 134 194 94
0.0797326 -0.1596 -0.0414497 131 189 94
0.0795245 -0.158885 -0.0431192 131 185 90
0.0793164 -0.15817 -0.0447884 125 186 90
0.0791084 -0.157454 -0.0464576 130 189 93
0.0789003 -0.156739 -0.0481267 130 189 94
0.0786922 -0.156024 -0.0497956 127 188 92
0.0784842 -0.155309 -0.0514644 125 188 90
0.0782762 -0.154594 -0.0531331 124 189 90
0.0780682 -0.15388 -0.0548017 124 192 89
0.0778602 -0.153165 -0.0564701 125 191 90
0.0776522 -0.15245 -0.0581385 125 189 89
0.0781513 -0.151669 -0.0599846 125 189 89
0.077943 -0.150953 -0.0616555 125 188 89
0.0770284 -0.150306 -0.0631428 123 186 88
0.0768205 -0.149592 -0.0648106 120 183 87
0.0766126 -0.148877 -0.0664784 117 180 85
0.0764047 -0.148163 -0.068146 114 178 81
0.0761968 -0.147448 -0.0698135 110 176 78
0.0752867 -0.146808 -0.071284 99 171 75
0.0736825 -0.146245 -0.0725509 91 165 71
0.0727813 -0.145611 -0.0740091 102 170 74
0.0711936 -0.145055 -0.0752603 107 176 81
0.0733874 -0.177629 0.00554098 69 65 41
0.073865 -0.17691 0.00384678 65 67 43
0.073662 -0.176212 0.00221814 74 99 53
0.073459 -0.175514 0.000589594 113 162 79
0.0739375 -0.17479 -0.0011152 130 181 99
0.0751033 -0.174037 -0.00290509 92 149 71
0.075587 -0.173307 -0.0046239 77 150 63
0.0795548 -0.172422 -0.00678031 91 170 71
0.0807571 -0.171649 -0.0086159 109 180 80
0.0819676 -0.170871 -0.0104637 119 188 90
0.0824718 -0.170122 -0.0122267 123 190 92
0.0829778 -0.169371 -0.0139955 127 191 90
0.0827695 -0.168655 -0.015667 129 195 90
0.0825611 -0.167939 -0.0173383 124 196 97
0.0823528 -0.167223 -0.0190096 120 186 97
0.0821444 -0.166507 -0.0206807 122 187 91
0.0826508 -0.165749 -0.0224662 124 183 87
0.0824422 -0.165032 -0.0241399 124 187 91
0.0822335 -0.164315 -0.0258135 122 190 97
0.0820249 -0.163598 -0.027487 122 192 99
0.0818163 -0.162882 -0.0291604 125 190 97
0.0808948 -0.162213 -0.0307049 129 188 95
0.0806867 -0.161498 -0.0323752 134 190 93
0.0804784 -0.160782 -0.0340454 138 192 94
0.0802703 -0.160067 -0.0357155 136 192 97
0.0800621 -0.159351 -0.0373854 135 194 95
0.0798539 -0.158636 -0.0390552 138 197 97
0.0796458 -0.157921 -0.0407249 135 193 96
0.0794377 -0.157206 -0.0423945 135 189 92
0.0792296 -0.15649 -0.044064 130 185 92
0.0790215 -0.155775 -0.0457333 125 187 91
0.0788134 -0.15506 -0.0474025 124 192 99
0.0786054 -0.154345 -0.0490716 124 189 97
0.0783973 -0.15363 -0.0507406 125 188 92
0.0781892 -0.152915 -0.0524095 125 189 90
0.0779812 -0.1522 -0.0540782 125 189 89
0.0777732 -0.151486 -0.0557468 124 189 89
0.0775652 -0.150771 -0.0574154 124 189 90
0.0780642 -0.149987 -0.0592604 125 188 90
0.0778559 -0.149271 -0.0609315 125 186 89
0.0776476 -0.148556 -0.0626025 123 184 88
0.0767334 -0.147912 -0.0640882 119 183 86
0.0765255 -0.147198 -0.0657561 116 180 84
0.0763176 -0.146483 -0.0674239 112 178 83
0.0761097 -0.145769 -0.0690916 106 175 80
0.0751997 -0.145132 -0.0705634 95 167 73
0.0735959 -0.144575 -0.0718329 94 165 71
0.0720027 -0.144021 -0.0730938 107 177 79
0.0704202 -0.143472 -0.0743461 106 175 82
0.0731007 -0.1753 0.0046239 66 66 43
0.0735778 -0.174577 0.00292814 63 73 50
0.0733748 -0.173879 0.00129946 80 122 55
0.0731718 -0.173182 -0.000329122 124 187 86
0.0736499 -0.172454 -0.00203551 125 189 91
0.0748147 -0.171692 -0.00382847 88 152 69
0.0759873 -0.170926 -0.00563325 81 162 65
0.0792628 -0.17005 -0.00771464 98 176 77
0.0804641 -0.169269 -0.00955339 113 188 86
0.0816736 -0.168483 -0.0114044 121 194 93
0.0821773 -0.167731 -0.013169 124 193 93
0.0819693 -0.167016 -0.0148378 129 197 93
0.0824745 -0.16626 -0.016611 126 194 93
0.0822661 -0.165544 -0.0182824 126 192 94
0.0820578 -0.164828 -0.0199537 126 188 93
0.082564 -0.164067 -0.0217382 124 187 90
0.0823554 -0.16335 -0.0234121 128 191 93
0.0821467 -0.162633 -0.0250858 127 189 92
0.0819381 -0.161916 -0.0267595 125 188 89
0.0810163 -0.161249 -0.0283084 127 189 90
0.0808081 -0.160534 -0.029979 126 190 93
0.0805999 -0.159818 -0.0316495 129 192 93
0.0803917 -0.159103 -0.0333198 133 192 93
0.0801835 -0.158387 -0.03499 133 194 94
0.0799753 -0.157672 -0.0366601 130 188 91
0.0797671 -0.156957 -0.0383301 129 190 92
0.079559 -0.156241 -0.04 126 193 102
0.0793508 -0.155526 -0.0416697 129 187 92
0.0791427 -0.154811 -0.0433393 124 184 88
0.0789346 -0.154096 -0.0450088 119 183 87
0.0787265 -0.153381 -0.0466782 119 182 87
0.0785185 -0.152666 -0.0483475 121 184 88
0.0783104 -0.151951 -0.0500167 125 186 90
0.0781023 -0.151236 -0.0516857 126 188 91
0.0778942 -0.150521 -0.0533546 126 189 91
0.0776863 -0.149806 -0.0550234 124 190 90
0.0774783 -0.149091 -0.0566921 123 189 90
0.077977 -0.148305 -0.0585361 123 187 90
0.0777687 -0.147589 -0.0602073 122 185 89
0.0775604 -0.146873 -0.0618785 121 185 87
0.0773521 -0.146158 -0.0635495 118 183 86
0.0764385 -0.145518 -0.0650337 115 180 84
0.0762306 -0.144804 -0.0667017 110 177 83
0.0760227 -0.14409 -0.0683695 100 171 78
0.0751128 -0.143455 -0.0698427 93 165 72
0.0735092 -0.142904 -0.0711148 103 171 75
0.0719163 -0.142356 -0.0723783 110 179 82
0.0696495 -0.141893 -0.0734349 107 174 81
0.0728139 -0.172971 0.00370672 69 64 44
0.0732906 -0.172244 0.00200941 66 77 52
0.0730876 -0.171546 0.00038068 93 129 64
0.0728846 -0.170849 -0.00124796 131 194 93
0.0733621 -0.170117 -0.00295587 120 194 91
0.0745261 -0.169348 -0.00475197 86 162 69
0.0756977 -0.168573 -0.00655983 86 172 70
0.0789708 -0.167679 -0.00864902 102 186 80
0.0801711 -0.16689 -0.010491 118 195 90
0.0813796 -0.166096 -0.0123452 125 196 91
0.0818828 -0.165339 -0.0141114 126 200 94
0.0816748 -0.164624 -0.0157803 125 195 95
0.0821795 -0.163864 -0.0175551 126 194 94
0.0819711 -0.163148 -0.0192266 126 190 89
0.0817628 -0.162432 -0.0208979 127 189 88
0.0822685 -0.161667 -0.022684 126 188 88
0.0820599 -0.16095 -0.024358 124 190 91
0.0811379 -0.160285 -0.0259113 123 189 89
0.0809296 -0.15957 -0.0275821 124 186 87
0.0807213 -0.158854 -0.0292529 125 188 89
0.0805131 -0.158139 -0.0309235 125 190 88
0.0803049 -0.157423 -0.032594 127 189 88
0.0800967 -0.156708 -0.0342644 130 190 90
0.0798885 -0.155992 -0.0359347 130 189 88
0.0796803 -0.155277 -0.0376048 126 185 90
0.0794721 -0.154562 -0.0392749 121 184 89
0.079264 -0.153846 -0.0409448 121 181 85
0.0790558 -0.153131 -0.0426146 113 175 80
0.0788477 -0.152416 -0.0442843 105 172 76
0.0786396 -0.151701 -0.0459538 103 170 79
0.0784315 -0.150986 -0.0476233 106 172 80
0.0782234 -0.150271 -0.0492926 113 177 84
0.0780154 -0.149556 -0.0509618 120 185 89
0.0778073 -0.148841 -0.0526309 124 189 91
0.0775993 -0.148126 -0.0542998 125 187 90
0.0773913 -0.147412 -0.0559687 123 187 90
0.0778899 -0.146622 -0.0578116 122 186 90
0.0776816 -0.145907 -0.0594831 121 185 88
0.0774733 -0.145191 -0.0611544 119 185 87
0.0772649 -0.144475 -0.0628256 117 183 86
0.0770566 -0.143759 -0.0644967 113 180 84
0.0761435 -0.143124 -0.0659793 105 175 79
0.0759355 -0.14241 -0.0676473 94 167 74
0.0743265 -0.141861 -0.0689293 96 168 75
0.0727281 -0.141316 -0.0702024 109 180 82
0.0711406 -0.140774 -0.071467 109 178 82
0.0725271 -0.170641 0.00278945 66 66 46
0.0730033 -0.16991 0.0010906 73 82 54
0.0728003 -0.169213 -0.000538185 103 134 74
0.0725973 -0.168515 -0.00216688 141 194 103
0.0737567 -0.167742 -0.00395755 115 191 91
0.0742373 -0.167003 -0.00567554 83 167 72
0.0754081 -0.166221 -0.00748654 88 177 73
0.0786787 -0.165307 -0.00958352 104 188 83
0.079878 -0.16451 -0.0114286 119 197 91
0.0803771 -0.163753 -0.0131876 126 199 92
0.0815883 -0.162947 -0.015054 128 196 91
0.0813802 -0.162232 -0.0167229 127 194 89
0.0818844 -0.161468 -0.0184993 127 194 87
0.0816761 -0.160752 -0.0201709 126 192 88
0.0814678 -0.160037 -0.0218422 126 193 88
0.0812595 -0.159321 -0.0235135 125 191 90
0.0810512 -0.158605 -0.0251847 125 189 91
0.0808429 -0.15789 -0.0268557 125 189 88
0.0806346 -0.157174 -0.0285267 123 191 87
0.0804263 -0.156459 -0.0301974 124 188 88
0.0802181 -0.155743 -0.0318681 124 188 90
0.0800098 -0.155028 -0.0335387 126 188 89
0.0798016 -0.154312 -0.0352091 127 186 87
0.0795934 -0.153597 -0.0368795 123 184 88
0.0793853 -0.152882 -0.0385497 110 175 82
0.0791771 -0.152166 -0.0402198 99 162 74
0.078969 -0.151451 -0.0418897 88 154 66
0.0787608 -0.150736 -0.0435596 83 150 62
0.0785527 -0.150021 -0.0452293 82 149 64
0.0783446 -0.149306 -0.0468989 84 151 67
0.0781365 -0.148591 -0.0485684 91 158 71
0.0779284 -0.147876 -0.0502378 109 172 78
0.0777203 -0.147161 -0.051907 120 184 86
0.0775123 -0.146447 -0.0535762 124 187 90
0.0773043 -0.145732 -0.0552452 124 187 89
0.0778027 -0.14494 -0.0570871 123 186 88
0.0775944 -0.144224 -0.0587587 121 185 88
0.077386 -0.143508 -0.0604302 118 184 88
0.0771777 -0.142792 -0.0621015 116 183 85
0.0769694 -0.142076 -0.0637728 111 180 81
0.0760563 -0.141444 -0.0652568 99 172 76
0.0751464 -0.140814 -0.0667357 94 168 73
0.0735427 -0.140272 -0.0680187 105 177 78
0.0719497 -0.139733 -0.069293 112 184 86
0.0696826 -0.139283 -0.0703655 111 179 85
0.0722403 -0.168311 0.00187212 66 68 38
0.0720376 -0.167615 0.000245824 74 92 53
0.072513 -0.166879 -0.00145717 112 146 77
0.07231 -0.166182 -0.00308591 141 196 105
0.0734684 -0.165401 -0.00487965 111 183 88
0.0739487 -0.164658 -0.0065992 84 168 71
0.0751184 -0.163868 -0.00841331 91 179 75
0.0783866 -0.162934 -0.0105181 107 190 82
0.0788814 -0.162178 -0.0122698 123 198 89
0.0800835 -0.161369 -0.014127 128 198 92
0.0805838 -0.160606 -0.0158934 127 197 91
0.0817977 -0.159788 -0.017772 128 195 90
0.0815894 -0.159072 -0.0194436 126 194 90
0.0813811 -0.158356 -0.0211152 124 194 90
0.0811727 -0.157641 -0.0227867 126 194 90
0.0809644 -0.156925 -0.024458 126 191 90
0.0807561 -0.156209 -0.0261292 126 190 91
0.0805478 -0.155494 -0.0278003 124 189 90
0.07963 -0.154839 -0.0293451 125 190 87
0.0801313 -0.154063 -0.0311421 124 188 89
0.079923 -0.153347 -0.0328128 125 189 91
0.0797148 -0.152632 -0.0344835 124 187 90
0.0795066 -0.151917 -0.036154 109 174 81
0.0792984 -0.151201 -0.0378243 94 160 68
0.0790902 -0.150486 -0.0394946 86 143 67
0.078882 -0.149771 -0.0411647 87 138 66
0.0786739 -0.149056 -0.0428347 92 140 63
0.0784658 -0.148341 -0.0445046 87 136 63
0.0782576 -0.147626 -0.0461744 77 139 63
0.0780495 -0.146911 -0.0478441 76 143 61
0.0778414 -0.146196 -0.0495136 99 157 68
0.0776334 -0.145481 -0.0511831 116 183 88
0.0774253 -0.144766 -0.0528524 120 186 90
0.0772172 -0.144051 -0.0545215 121 184 87
0.0770092 -0.143337 -0.0561906 121 185 89
0.0775072 -0.142541 -0.0580342 119 185 89
0.0772988 -0.141825 -0.0597058 117 184 88
0.0770904 -0.141109 -0.0613774 113 182 85
0.0761772 -0.140478 -0.0628657 104 177 79
0.0759692 -0.139764 -0.0645342 94 169 73
0.07436 -0.139224 -0.0658271 99 172 76
0.0727615 -0.138687 -0.0671111 111 183 83
0.0704866 -0.138242 -0.0681966 112 183 85
0.0668812 -0.137977 -0.0688918 117 183 88
0.0719534 -0.165981 0.000954673 66 72 43
0.0717507 -0.165285 -0.00067167 76 99 53
0.0722257 -0.164546 -0.00237621 112 158 77
0.0720226 -0.163848 -0.004005 146 193 106
0.0731802 -0.16306 -0.00580184 113 181 87
0.0736599 -0.162313 -0.00752296 86 168 71
0.0748287 -0.161515 -0.00934018 91 182 74
0.0773957 -0.160612 -0.011358 107 191 81
0.0778881 -0.159853 -0.0131082 123 198 89
0.0790848 -0.159038 -0.0149651 123 196 91
0.0809991 -0.158163 -0.0169393 127 197 92
0.0815026 -0.157392 -0.0187163 128 198 92
0.0812943 -0.156676 -0.0203881 126 196 92
0.081086 -0.15596 -0.0220597 127 196 90
0.0808776 -0.155244 -0.0237312 129 191 89
0.0799592 -0.15459 -0.0252833 127 190 91
0.0797512 -0.153876 -0.0269517 126 191 92
0.0795433 -0.153161 -0.02862 128 191 89
0.0793354 -0.152447 -0.0302883 128 188 88
0.0798362 -0.151667 -0.0320869 126 189 90
0.0796279 -0.150951 -0.0337577 117 185 91
0.0794197 -0.150236 -0.0354283 98 167 74
0.0792115 -0.149521 -0.0370989 102 157 70
0.0790033 -0.148806 -0.0387693 109 167 78
0.0787951 -0.14809 -0.0404396 117 171 83
0.0785869 -0.147375 -0.0421098 112 170 83
0.0783788 -0.14666 -0.0437799 107 167 82
0.0781707 -0.145945 -0.0454498 101 158 76
0.0779625 -0.14523 -0.0471196 89 145 64
0.0777544 -0.144515 -0.0487894 85 149 70
0.0775463 -0.1438 -0.050459 111 185 96
0.0773382 -0.143086 -0.0521284 121 185 90
0.0771302 -0.142371 -0.0537978 122 182 86
0.0769221 -0.141656 -0.055467 125 188 93
0.07742 -0.140857 -0.0573095 123 189 94
0.0772116 -0.140141 -0.0589813 116 185 90
0.0762981 -0.139512 -0.060474 106 178 83
0.0760901 -0.138798 -0.0621428 94 170 75
0.07518 -0.138172 -0.0636274 94 171 73
0.0735761 -0.137638 -0.0649213 109 181 80
0.0712934 -0.137198 -0.0660199 114 185 86
0.0676752 -0.136941 -0.0667346 116 183 86
0.0661226 -0.13642 -0.0679964 123 177 89
0.0716666 -0.163651 3.71188e-05 65 71 47
0.0721413 -0.162909 -0.00166641 77 109 53
0.0719383 -0.162212 -0.00329538 116 167 83
0.0717353 -0.161514 -0.00492422 143 195 111
0.0728919 -0.160718 -0.00672413 109 179 86
0.0733711 -0.159968 -0.00844683 87 170 70
0.074539 -0.159162 -0.0102672 91 181 73
0.0764081 -0.158298 -0.0121952 107 192 82
0.0768981 -0.157536 -0.0139439 119 199 91
0.0794963 -0.1566 -0.0160061 122 199 91
0.0799956 -0.155829 -0.0177757 128 199 90
0.0804965 -0.155055 -0.0195512 128 197 93
0.0802885 -0.154341 -0.0212201 128 198 92
0.0800805 -0.153626 -0.022889 127 195 93
0.0798725 -0.152912 -0.0245577 125 192 92
0.0796646 -0.152198 -0.0262264 125 195 91
0.0794566 -0.151483 -0.0278948 126 193 91
0.0792487 -0.150769 -0.0295632 126 190 90
0.0797493 -0.149986 -0.0313608 129 192 93
0.0795411 -0.149271 -0.0330317 117 189 95
0.0793328 -0.148555 -0.0347026 110 169 79
0.0791246 -0.14784 -0.0363733 111 175 84
0.0789164 -0.147125 -0.0380439 115 177 83
0.0787082 -0.14641 -0.0397144 121 181 87
0.0785 -0.145694 -0.0413847 119 179 89
0.0782918 -0.144979 -0.043055 116 175 86
0.0780837 -0.144264 -0.0447251 111 169 82
0.0778756 -0.143549 -0.0463951 101 160 76
0.0776674 -0.142834 -0.048065 82 149 73
0.0774593 -0.14212 -0.0497347 121 187 91
0.0772512 -0.141405 -0.0514044 125 181 86
0.0770431 -0.14069 -0.0530739 120 179 86
0.0768351 -0.139975 -0.0547433 123 188 95
0.076627 -0.139261 -0.0564126 122 190 96
0.076419 -0.138546 -0.0580818 112 184 88
0.076211 -0.137831 -0.0597508 98 173 78
0.0753007 -0.137207 -0.0612398 95 168 74
0.0743935 -0.136586 -0.0627235 106 178 80
0.0721027 -0.13615 -0.0638353 112 187 87
0.0677938 -0.135992 -0.0643873 116 187 87
0.0662408 -0.135474 -0.0656573 127 186 90
0.0713796 -0.161321 -0.000880525 67 72 41
0.0718539 -0.160575 -0.00258562 75 113 53
0.0716509 -0.159877 -0.0042146 116 166 82
0.0714479 -0.15918 -0.00584351 141 193 106
0.0726036 -0.158376 -0.00764652 111 180 87
0.0730823 -0.157622 -0.00937079 87 169 73
0.0735626 -0.156865 -0.0111006 90 179 73
0.0747331 -0.156048 -0.0129327 103 190 83
0.0780035 -0.155048 -0.015079 116 198 90
0.0784985 -0.154276 -0.0168413 124 200 90
0.0782915 -0.153565 -0.0185021 126 199 90
0.078788 -0.152791 -0.0202729 126 198 90
0.0792861 -0.152014 -0.0220496 126 200 92
0.0790784 -0.1513 -0.0237157 126 196 90
0.0788708 -0.150587 -0.0253816 125 194 93
0.0786632 -0.149874 -0.0270475 127 193 92
0.0784556 -0.149161 -0.0287132 127 194 93
0.078954 -0.148376 -0.0305065 120 194 96
0.0794542 -0.147589 -0.0323057 121 201 107
0.0792459 -0.146874 -0.0339767 120 181 86
0.0790377 -0.146159 -0.0356476 115 182 85
0.0788294 -0.145444 -0.0373183 118 184 85
0.0786212 -0.144728 -0.038989 123 189 91
0.078413 -0.144013 -0.0406595 126 191 100
0.0782049 -0.143298 -0.0423299 125 191 96
0.0779967 -0.142583 -0.0440002 117 180 88
0.0777885 -0.141868 -0.0456704 108 168 80
0.0775804 -0.141153 -0.0473404 86 148 73
0.0773723 -0.140438 -0.0490104 122 180 84
0.0764599 -0.13981 -0.0505183 116 179 82
0.0769561 -0.139009 -0.0523499 104 172 80
0.076748 -0.138294 -0.0540195 108 178 87
0.0765399 -0.137579 -0.0556889 107 179 87
0.0763319 -0.136865 -0.0573583 99 175 79
0.0754214 -0.136242 -0.0588515 96 168 74
0.074514 -0.135622 -0.0603396 104 175 79
0.0722226 -0.135191 -0.0614637 114 189 86
