ply
format ascii 1.0
element vertex 1195
property float x
property float y
property float z
property uchar diffuse_red
property uchar diffuse_green
property uchar diffuse_blue
end_header
0.0704525 -0.207867 -0.020935 168 0 0
0.0690501 -0.208448 -0.0214177 173 4 0
0.0671983 -0.208839 -0.0215338 181 19 0
0.0644609 -0.208855 -0.0209276 187 25 1
0.0626508 -0.20924 -0.0210446 191 26 1
0.0608565 -0.209622 -0.0211606 189 26 3
0.0590777 -0.21 -0.0212757 181 26 7
0.0573143 -0.210375 -0.0213899 173 8 2
0.055566 -0.210747 -0.0215031 167 2 1
0.0542563 -0.211299 -0.0219673 165 1 0
0.0525336 -0.211664 -0.0220774 165 3 1
0.0512417 -0.21221 -0.0225367 169 15 5
0.0507872 -0.213122 -0.0236962 183 24 7
0.0503326 -0.214034 -0.0248558 197 30 11
0.049878 -0.214947 -0.0260154 208 33 17
0.0242171 -0.207436 -0.00970832 229 51 35
0.0234534 -0.20811 -0.0104668 232 55 44
0.0233824 -0.209111 -0.0118375 229 50 36
0.022965 -0.209949 -0.0129022 224 45 28
0.0225476 -0.210787 -0.0139669 218 45 32
0.0221302 -0.211624 -0.0150317 191 49 40
0.0220574 -0.212631 -0.0164104 150 52 45
0.0216393 -0.21347 -0.0174767 100 57 48
0.0212213 -0.214309 -0.018543 81 62 51
0.167274 -0.179431 -0.00713528 90 62 58
0.165949 -0.18042 -0.00819503 113 49 39
0.165368 -0.181584 -0.00967572 156 22 9
0.165529 -0.182931 -0.0115855 172 8 1
0.164948 -0.184098 -0.013069 173 4 0
0.163627 -0.185079 -0.0141182 169 3 1
0.162311 -0.186056 -0.0151636 167 8 5
0.16027 -0.186841 -0.0157704 171 22 12
0.158245 -0.187621 -0.0163728 178 39 27
0.156233 -0.188394 -0.016971 189 45 38
0.154947 -0.189354 -0.0179984 205 42 22
0.152958 -0.190117 -0.0185877 207 42 22
0.151684 -0.191068 -0.0196069 204 39 20
0.149718 -0.191822 -0.0201875 191 37 21
0.147765 -0.19257 -0.020764 181 34 14
0.143784 -0.192731 -0.0200433 175 17 5
0.141205 -0.193274 -0.0201859 171 8 0
0.140648 -0.194393 -0.021608 173 10 0
0.144136 -0.196705 -0.0256481 185 18 2
0.135025 -0.196557 -0.0232818 201 27 3
0.119481 -0.19309 -0.0147773 204 25 3
0.117163 -0.193602 -0.0149385 194 29 10
0.115455 -0.194292 -0.015492 190 24 5
0.114343 -0.195162 -0.0164367 201 33 13
0.113235 -0.196029 -0.0173783 211 37 20
0.112711 -0.19708 -0.0187147 204 16 4
0.111607 -0.197942 -0.0196512 189 4 0
0.110507 -0.198802 -0.0205847 185 8 0
0.109984 -0.19985 -0.0219169 190 17 0
0.108317 -0.200513 -0.0224427 194 18 0
0.10666 -0.201172 -0.0229651 192 15 0
0.105013 -0.201827 -0.0234841 186 10 0
0.103378 -0.202477 -0.0239999 177 9 0
0.1012 -0.20293 -0.024113 172 5 0
0.0995898 -0.203572 -0.0246227 169 5 0
0.0969079 -0.203824 -0.0243361 171 7 0
0.0937291 -0.203881 -0.0236612 174 10 0
0.0885297 -0.203183 -0.0214582 176 11 1
0.0824779 -0.202138 -0.018571 177 10 0
0.0795292 -0.202206 -0.0179656 176 7 0
0.0771057 -0.202453 -0.0177341 174 2 0
0.0751871 -0.202877 -0.0178685 172 0 0
0.0742318 -0.203659 -0.0187284 171 0 0
0.0737523 -0.204621 -0.0199516 167 0 0
0.0718601 -0.205034 -0.0200754 165 0 0
0.0704494 -0.205625 -0.0205621 165 0 0
0.0699734 -0.20658 -0.0217763 172 2 0
0.068112 -0.20698 -0.0218913 181 11 0
0.066267 -0.207377 -0.0220053 192 26 0
0.0639887 -0.207588 -0.0217569 200 29 4
0.0621806 -0.207978 -0.0218704 199 28 3
0.0603883 -0.208365 -0.021983 190 26 3
0.0581768 -0.208567 -0.0217385 177 20 3
0.0559908 -0.208766 -0.0214969 168 3 1
0.0546779 -0.209325 -0.0219618 165 1 0
0.0529508 -0.209699 -0.0220721 165 1 0
0.0516559 -0.210251 -0.0225323 171 5 1
0.0507839 -0.210982 -0.0233411 184 19 3
0.0499143 -0.211711 -0.0241477 202 30 11
0.0494604 -0.212622 -0.0253058 214 35 18
0.04942 -0.213719 -0.0268202 221 39 24
0.0237966 -0.20631 -0.0104474 237 63 45
0.0233792 -0.207147 -0.0115121 230 51 36
0.0229618 -0.207985 -0.0125768 224 45 30
0.0225444 -0.208823 -0.0136416 217 44 29
0.0221269 -0.20966 -0.0147065 207 47 34
0.0217095 -0.210498 -0.0157713 160 50 41
0.021292 -0.211336 -0.0168362 115 54 46
0.021218 -0.212342 -0.0182175 80 58 50
0.165786 -0.176344 -0.00583624 86 65 54
0.165206 -0.177507 -0.00731425 100 54 50
0.164627 -0.178669 -0.00879236 145 35 17
0.164047 -0.179832 -0.0102705 175 13 2
0.163468 -0.180995 -0.0117487 179 5 0
0.162888 -0.182158 -0.013227 176 5 0
0.162309 -0.183321 -0.0147053 171 4 0
0.160268 -0.184116 -0.0153138 172 9 2
0.158242 -0.184905 -0.015918 184 26 6
0.156948 -0.185874 -0.0169511 202 40 16
0.155658 -0.186839 -0.0179805 216 44 26
0.154372 -0.187801 -0.0190063 225 47 29
0.152386 -0.18857 -0.0195922 224 48 28
0.151113 -0.189524 -0.0206097 207 48 27
0.148454 -0.190093 -0.0207515 185 41 23
0.146509 -0.190846 -0.0213251 172 37 16
0.143221 -0.191212 -0.0210307 168 19 5
0.140645 -0.191763 -0.0211683 172 11 1
0.140088 -0.192881 -0.0225906 186 17 1
0.118948 -0.191654 -0.0157115 208 31 10
0.116042 -0.191993 -0.0154725 189 32 18
0.114341 -0.192687 -0.0160234 203 35 16
0.113232 -0.193558 -0.0169658 220 38 19
0.112708 -0.194609 -0.0183023 219 29 13
0.111604 -0.195476 -0.0192396 205 14 0
0.110504 -0.19634 -0.0201738 195 10 0
0.109982 -0.197388 -0.0215061 201 19 0
0.109459 -0.198436 -0.0228384 208 23 0
0.107793 -0.199104 -0.0233613 206 25 0
0.106138 -0.199767 -0.0238809 196 22 0
0.103933 -0.200236 -0.0239953 183 16 0
0.102859 -0.201081 -0.0249101 172 8 0
0.100684 -0.201541 -0.0250189 170 1 0
0.0996223 -0.202379 -0.0259264 170 4 0
0.0985637 -0.203214 -0.026831 174 11 0
0.0958883 -0.203468 -0.0265304 178 19 2
0.0880295 -0.201837 -0.0223365 180 20 2
0.081986 -0.200815 -0.0194346 180 12 0
0.0785542 -0.200714 -0.0184544 177 4 0
0.0766204 -0.201148 -0.0185862 174 1 0
0.074704 -0.201578 -0.0187169 172 0 0
0.0737493 -0.202362 -0.0195757 170 0 0
0.0718571 -0.202785 -0.0197013 166 0 0
0.0709123 -0.203562 -0.0205536 163 0 0
0.0699703 -0.204338 -0.0214035 170 3 0
0.0690311 -0.205111 -0.0222508 183 11 0
0.0671766 -0.205517 -0.0223636 198 19 0
0.0653385 -0.20592 -0.0224755 208 27 1
0.0635165 -0.20632 -0.0225864 209 30 4
0.0612674 -0.206535 -0.0223363 196 28 4
0.0594816 -0.206928 -0.0224468 182 20 3
0.0572785 -0.207137 -0.0222001 171 11 2
0.0555279 -0.207524 -0.0223102 162 8 1
0.0537921 -0.207907 -0.0224194 165 5 1
0.0524911 -0.208466 -0.0228799 172 5 0
0.0507807 -0.208842 -0.022986 187 13 0
0.0499111 -0.209574 -0.0237932 207 26 2
0.048632 -0.210124 -0.024246 221 31 12
0.0481793 -0.211032 -0.0254009 226 37 21
0.0244888 -0.204663 -0.0107349 232 48 36
0.0237227 -0.205343 -0.0114941 230 53 42
0.0233048 -0.206182 -0.0125603 223 51 32
0.0225411 -0.206858 -0.0133163 219 47 29
0.0221237 -0.207696 -0.0143812 206 47 32
0.0217062 -0.208534 -0.0154461 180 51 39
0.0212887 -0.209371 -0.0165111 126 53 43
0.0208712 -0.210209 -0.0175761 90 57 50
0.164466 -0.174604 -0.00643662 93 60 52
0.163888 -0.175765 -0.00791212 132 45 38
0.161845 -0.176585 -0.00854385 182 34 13
0.161269 -0.177742 -0.0100142 193 19 0
0.160692 -0.178899 -0.0114845 187 8 0
0.160116 -0.180055 -0.012955 182 8 0
0.159539 -0.181212 -0.0144254 182 10 1
0.15824 -0.182189 -0.0154631 194 19 1
0.156945 -0.183163 -0.0164971 214 34 9
0.155655 -0.184133 -0.0175274 232 45 23
0.15437 -0.1851 -0.0185542 238 50 31
0.153089 -0.186063 -0.0195773 234 51 29
0.151813 -0.187023 -0.0205968 218 47 27
0.149842 -0.187793 -0.0211751 190 38 19
0.147885 -0.188557 -0.0217493 172 35 15
0.145942 -0.189315 -0.0223196 167 34 13
0.141312 -0.189318 -0.0211569 168 27 8
0.139419 -0.190064 -0.0217214 186 25 4
0.139528 -0.19137 -0.0235733 207 29 4
0.114925 -0.190389 -0.0160049 194 32 19
0.113813 -0.191265 -0.0169489 226 45 29
0.112706 -0.192139 -0.0178899 236 36 19
0.111602 -0.193009 -0.0188279 227 24 6
0.110501 -0.193877 -0.0197628 215 21 4
0.109979 -0.194925 -0.0210952 214 22 2
0.109457 -0.195973 -0.0224277 222 25 1
0.108361 -0.196835 -0.0233554 222 26 1
0.10727 -0.197694 -0.0242802 208 25 1
0.105052 -0.198175 -0.0243931 191 17 0
0.102856 -0.198651 -0.024505 178 9 0
0.101786 -0.199497 -0.0254176 171 6 0
0.100718 -0.200341 -0.0263274 170 1 0
0.100204 -0.201372 -0.0276389 174 5 0
0.09221 -0.202163 -0.0267293 184 20 3
0.0805071 -0.199136 -0.0195525 180 7 0
0.0780666 -0.199403 -0.0193104 177 0 0
0.076135 -0.199843 -0.0194385 175 0 0
0.0742207 -0.200279 -0.0195655 171 0 0
0.0723236 -0.200711 -0.0196914 168 0 0
0.0709093 -0.201316 -0.0201801 166 0 0
0.0704325 -0.202273 -0.0213963 167 1 0
0.0694912 -0.20305 -0.022245 182 12 0
0.0676319 -0.203467 -0.022358 199 22 2
0.0662439 -0.204058 -0.0228348 209 27 2
0.0648641 -0.204646 -0.0233087 211 27 0
0.0621516 -0.204694 -0.0226916 203 26 2
0.0599169 -0.204918 -0.0224417 186 20 3
0.0581421 -0.205317 -0.0225516 173 13 4
0.0563827 -0.205712 -0.0226605 163 10 5
0.0537889 -0.205751 -0.0220615 160 16 6
0.0524879 -0.206316 -0.0225231 168 8 2
0.0511942 -0.206878 -0.0229821 187 15 1
0.0503227 -0.207614 -0.0237905 209 24 1
0.0482179 -0.207815 -0.0235418 228 31 3
0.0473568 -0.208545 -0.0243438 235 31 9
0.0477231 -0.209809 -0.0262024 232 35 15
0.0240672 -0.203534 -0.011476 226 50 32
0.0236486 -0.204373 -0.0125437 221 49 29
0.0228835 -0.205053 -0.0133007 214 47 24
0.0224655 -0.205892 -0.014367 209 47 27
0.0217029 -0.206569 -0.0151208 181 49 34
0.0212853 -0.207407 -0.0161859 135 52 43
0.0208678 -0.208245 -0.017251 93 56 47
0.0201083 -0.208918 -0.0180001 77 62 52
0.164464 -0.171873 -0.00597862 88 63 56
0.16242 -0.172708 -0.00661734 116 57 49
0.161843 -0.173864 -0.00808767 181 42 27
0.161267 -0.175021 -0.00955807 214 37 18
0.159964 -0.176009 -0.0106044 213 27 4
0.158667 -0.176994 -0.011647 204 20 4
0.158092 -0.178146 -0.0131123 205 25 10
0.157518 -0.179299 -0.0145777 217 29 12
0.156943 -0.180451 -0.0160431 232 39 18
0.155653 -0.181427 -0.0170743 245 48 26
0.154368 -0.182398 -0.0181019 248 51 30
0.153087 -0.183366 -0.0191259 241 49 25
0.152515 -0.184513 -0.0205838 223 43 18
0.15124 -0.185476 -0.0216016 198 35 15
0.148576 -0.186067 -0.0217386 174 34 14
0.146627 -0.186836 -0.0223099 165 34 14
0.145375 -0.187785 -0.0233142 167 36 16
0.140751 -0.187804 -0.0221412 185 32 16
0.13886 -0.188554 -0.0227024 212 35 11
0.138303 -0.189671 -0.0241225 231 38 9
0.114396 -0.188965 -0.0169319 219 42 26
0.112703 -0.189668 -0.0174774 239 43 27
0.111021 -0.190366 -0.0180195 241 30 11
0.110498 -0.191414 -0.0193519 234 25 5
0.109402 -0.192283 -0.0202846 229 28 7
0.10888 -0.19333 -0.0216149 232 32 7
0.108359 -0.194376 -0.0229453 232 29 2
0.107267 -0.195239 -0.0238708 218 27 4
0.106179 -0.196099 -0.0247934 200 21 1
0.103411 -0.196403 -0.0245011 184 12 0
0.101783 -0.19707 -0.0250131 174 8 0
0.101268 -0.198103 -0.0263266 170 6 0
0.0790372 -0.197467 -0.0196698 181 0 0
0.0766129 -0.197743 -0.0194279 178 0 0
0.0746935 -0.198189 -0.0195552 174 0 0
0.0723206 -0.198459 -0.0193166 169 0 0
0.0709063 -0.19907 -0.0198065 167 0 0
0.0704294 -0.200027 -0.0210227 169 2 0
0.0694881 -0.200808 -0.0218721 180 7 0
0.0676288 -0.201234 -0.0219869 200 24 4
0.0662408 -0.201832 -0.0224648 210 29 8
0.064861 -0.202427 -0.0229399 212 29 6
0.063041 -0.202842 -0.0230489 205 27 0
0.0603536 -0.202902 -0.0224365 192 24 1
0.0585742 -0.20331 -0.0225467 180 17 1
0.0568103 -0.203715 -0.0226558 170 12 1
0.0537857 -0.203595 -0.0217036 166 16 2
0.0524846 -0.204166 -0.0221662 170 25 6
0.051191 -0.204734 -0.0226263 189 22 3
0.0503195 -0.205473 -0.0234353 212 27 5
0.0482146 -0.205687 -0.0231887 231 32 5
0.0465389 -0.206071 -0.0232928 240 34 5
0.0460887 -0.206975 -0.0244413 239 32 7
0.0254636 -0.202188 -0.0123875 225 47 26
0.0239933 -0.20256 -0.012527 218 45 25
0.0232268 -0.203243 -0.0132851 211 43 23
0.0228081 -0.204083 -0.0143528 205 42 24
0.0220441 -0.204764 -0.0151077 182 45 29
0.021282 -0.205442 -0.0158606 143 49 35
0.0208644 -0.20628 -0.0169258 100 52 40
0.0201049 -0.206956 -0.0176754 75 52 44
0.162994 -0.16883 -0.00469067 84 63 58
0.162418 -0.169986 -0.00616101 103 59 53
0.161113 -0.170983 -0.00721343 158 53 44
0.159813 -0.171977 -0.00826212 221 47 28
0.158518 -0.172967 -0.00930712 237 39 17
0.157228 -0.173954 -0.0103484 232 35 17
0.156655 -0.175102 -0.0118085 233 43 30
0.156083 -0.176251 -0.0132687 238 45 30
0.15551 -0.177399 -0.014729 246 47 29
0.154938 -0.178548 -0.0161893 252 50 32
0.154365 -0.179696 -0.0176497 254 51 32
0.153084 -0.180669 -0.0186745 245 48 26
0.152513 -0.181816 -0.0201325 224 41 18
0.151237 -0.182784 -0.0211512 200 33 11
0.149269 -0.183568 -0.0217277 179 30 8
0.147314 -0.184347 -0.0223002 168 30 8
0.145373 -0.185121 -0.0228688 171 34 7
0.144126 -0.186071 -0.0238704 193 34 13
0.14019 -0.186289 -0.0231257 219 44 25
0.137639 -0.186863 -0.0232522 240 44 20
0.137083 -0.187979 -0.02467 245 41 13
0.113868 -0.18754 -0.017859 231 57 36
0.111018 -0.187903 -0.0176083 240 31 9
0.10992 -0.188777 -0.0185439 237 23 1
0.109399 -0.189824 -0.0198743 236 26 5
0.108877 -0.19087 -0.0212047 238 33 12
0.107785 -0.191739 -0.0221331 237 37 13
0.107264 -0.192784 -0.0234614 226 29 4
0.106176 -0.193648 -0.0243848 206 23 4
0.103967 -0.194147 -0.0244971 190 13 1
0.102891 -0.195004 -0.025413 177 8 0
0.101265 -0.195676 -0.0259222 171 7 0
0.0800136 -0.195519 -0.0200313 187 13 0
0.0770923 -0.195637 -0.0194173 184 3 0
0.0746906 -0.195923 -0.0191781 179 0 0
0.0723175 -0.196205 -0.0189418 173 0 0
0.0709032 -0.196824 -0.0194328 168 0 0
0.0699612 -0.197609 -0.0202846 170 1 0
0.069485 -0.198564 -0.0214992 181 7 0
0.0680853 -0.199173 -0.0219806 197 19 1
0.0662377 -0.199605 -0.0220947 214 31 8
0.0648578 -0.200207 -0.022571 215 32 13
0.0630379 -0.200631 -0.0226818 208 30 9
0.0607914 -0.20088 -0.0224314 197 24 2
0.0590076 -0.201297 -0.0225417 184 18 0
0.0568071 -0.20154 -0.0222947 177 17 0
0.0537825 -0.201439 -0.0213456 175 20 0
0.0524814 -0.202016 -0.0218093 180 26 3
0.0507709 -0.20242 -0.0219202 192 32 9
0.0494875 -0.202991 -0.0223792 213 35 16
0.0478017 -0.203388 -0.0224869 232 34 14
0.0465356 -0.203952 -0.0229412 241 35 8
0.0444725 -0.204172 -0.0226999 242 36 3
0.045635 -0.205758 -0.0252384 233 35 4
0.0286638 -0.201614 -0.0148887 224 44 26
0.0246888 -0.200897 -0.012821 217 39 20
0.0235709 -0.201428 -0.0132693 209 39 20
0.0228049 -0.202113 -0.0140266 199 40 25
0.0220408 -0.202796 -0.0147819 183 43 32
0.0212786 -0.203477 -0.0155353 142 49 37
0.0208611 -0.204315 -0.0166005 105 53 42
0.0201015 -0.204993 -0.0173507 80 55 44
0.16081 -0.165659 -0.00300302 89 60 58
0.160236 -0.166809 -0.00446552 90 61 55
0.159663 -0.167959 -0.0059281 125 56 49
0.15837 -0.168955 -0.00697542 199 51 40
0.157082 -0.169947 -0.00801908 241 53 39
0.156511 -0.171093 -0.00947662 251 43 29
0.155228 -0.172079 -0.0105141 247 52 50
0.154658 -0.173224 -0.0119691 253 57 62
0.154088 -0.174368 -0.0134242 255 53 41
0.153517 -0.175513 -0.0148794 255 52 37
0.152947 -0.176657 -0.0163346 253 50 34
0.152376 -0.177802 -0.0177899 245 48 28
0.151103 -0.178775 -0.0188111 227 43 20
0.149835 -0.179745 -0.0198286 203 35 13
0.147878 -0.180537 -0.0204079 183 30 7
0.145935 -0.181324 -0.0209831 175 30 5
0.14537 -0.182457 -0.0224233 181 31 7
0.144123 -0.183412 -0.0234258 201 36 14
0.143559 -0.184542 -0.0248635 229 44 22
0.142318 -0.185492 -0.0258601 242 47 32
0.137081 -0.185356 -0.0242319 244 44 32
0.136525 -0.186471 -0.0256498 236 38 21
0.112756 -0.185945 -0.018387 227 29 17
0.109344 -0.186149 -0.0177385 227 21 2
0.108823 -0.187194 -0.0190668 226 21 0
0.108303 -0.188239 -0.0203951 232 30 10
0.107782 -0.189283 -0.0217235 236 38 20
0.107261 -0.190328 -0.023052 229 36 19
0.106173 -0.191196 -0.0239761 214 27 6
0.103964 -0.191708 -0.0240905 195 22 3
0.102888 -0.192568 -0.025007 181 12 0
0.101262 -0.193248 -0.0255176 173 7 0
0.078545 -0.19386 -0.0201474 195 11 0
0.0746875 -0.193656 -0.0188009 188 3 0
0.0723145 -0.193952 -0.0185669 180 0 0
0.0709002 -0.194577 -0.0190592 172 0 0
0.0699581 -0.195366 -0.0199116 173 1 0
0.0690188 -0.196152 -0.0207614 182 7 0
0.0680822 -0.196936 -0.0216088 196 18 1
0.0666909 -0.197548 -0.0220887 210 28 3
0.0653076 -0.198157 -0.0225658 219 30 8
0.0630347 -0.198421 -0.0223145 215 33 13
0.0607883 -0.198682 -0.0220663 203 29 9
0.0590044 -0.199109 -0.0221784 190 20 3
0.0568039 -0.199364 -0.0219335 181 11 0
0.0533564 -0.199115 -0.0206371 180 21 0
0.0520584 -0.199699 -0.0211023 188 25 2
0.0507676 -0.200279 -0.0215648 200 32 8
0.0490716 -0.200688 -0.0216764 215 38 16
0.0469826 -0.200928 -0.0214409 231 39 19
0.0461268 -0.201664 -0.0222427 239 38 14
0.0440688 -0.201897 -0.0220057 240 35 10
0.0436216 -0.202794 -0.0231464 235 32 7
0.0304736 -0.200391 -0.0161557 219 43 27
0.0275173 -0.200151 -0.0150062 212 40 21
0.0242653 -0.199762 -0.0135654 203 36 17
0.0228016 -0.200143 -0.0137003 196 38 22
0.0220374 -0.200828 -0.0144561 177 42 32
0.0212753 -0.201512 -0.0152099 146 48 42
0.0208577 -0.20235 -0.0162752 104 52 46
0.0200981 -0.203031 -0.0170259 82 56 49
0.158794 -0.16381 -0.0031945 84 60 58
0.157508 -0.164809 -0.00424298 96 57 56
0.156938 -0.165953 -0.00569787 150 55 49
0.156367 -0.167098 -0.0071528 227 59 44
0.155797 -0.168242 -0.00860784 252 58 55
0.154518 -0.169232 -0.00964505 253 52 61
0.153243 -0.170218 -0.0106786 255 71 93
0.151974 -0.171201 -0.0117086 255 55 55
0.151406 -0.17234 -0.0131561 255 52 39
0.150839 -0.173478 -0.0146037 253 51 35
0.150271 -0.174617 -0.0160513 244 47 30
0.149704 -0.175755 -0.017499 227 43 24
0.149136 -0.176894 -0.0189468 208 37 15
0.147875 -0.177863 -0.0199606 192 31 7
0.145932 -0.17866 -0.0205375 185 29 6
0.144684 -0.179621 -0.0215434 190 33 10
0.144121 -0.180752 -0.0229811 208 37 16
0.143557 -0.181883 -0.024419 231 45 25
0.139067 -0.183258 -0.0250952 243 50 29
0.109862 -0.182649 -0.0160004 220 38 33
0.109342 -0.183693 -0.0173287 219 20 0
0.107114 -0.184242 -0.0174755 215 16 0
0.106596 -0.185282 -0.0187974 220 19 0
0.106643 -0.186489 -0.0205163 227 33 15
0.106124 -0.187531 -0.0218406 228 37 24
0.105041 -0.188401 -0.0227637 219 32 17
0.103961 -0.189268 -0.0236838 202 25 4
0.102885 -0.190132 -0.0246011 185 20 3
0.101259 -0.19082 -0.0251131 177 10 0
0.101852 -0.192205 -0.0272371 178 10 0
0.0761206 -0.191881 -0.0195238 202 14 0
0.0727824 -0.191861 -0.0185551 192 8 0
0.0713645 -0.192493 -0.0190482 182 4 0
0.0699551 -0.193122 -0.0195385 177 5 0
0.0690157 -0.193912 -0.0203889 182 7 0
0.0680791 -0.194699 -0.021237 195 18 0
0.0666877 -0.195318 -0.021718 208 27 3
0.0653044 -0.195933 -0.0221962 217 29 6
0.0630315 -0.19621 -0.0219473 220 30 8
0.0607851 -0.196485 -0.0217013 212 34 11
0.0581294 -0.196591 -0.0211024 199 28 6
0.0563698 -0.197024 -0.0212179 188 18 2
0.0533532 -0.196962 -0.0202795 185 13 1
0.0516366 -0.197388 -0.0203972 189 24 2
0.0503488 -0.197973 -0.0208612 202 28 5
0.048657 -0.198392 -0.0209756 218 34 12
0.0465732 -0.198645 -0.0207444 233 40 21
0.0445127 -0.198894 -0.0205158 241 46 26
0.0432681 -0.199465 -0.0209712 240 41 19
0.0420303 -0.200033 -0.0214243 234 36 11
0.0415855 -0.200925 -0.0225587 227 35 10
0.0411407 -0.201818 -0.0236933 222 41 19
0.0323078 -0.199152 -0.0174397 215 42 23
0.0289526 -0.198767 -0.0159498 207 38 17
0.0263768 -0.198696 -0.0151233 199 35 15
0.023493 -0.198474 -0.0139971 189 34 22
0.0223796 -0.199012 -0.014442 176 42 31
0.021616 -0.199699 -0.0151969 142 48 41
0.0208543 -0.200384 -0.0159499 106 53 48
0.0204366 -0.201222 -0.0170153 81 56 50
0.156793 -0.161974 -0.00338476 82 63 56
0.155515 -0.162973 -0.00442933 114 55 54
0.154947 -0.164114 -0.0058792 185 55 49
0.153674 -0.165107 -0.00691763 244 65 53
0.153106 -0.166245 -0.00836502 253 63 65
0.151839 -0.167234 -0.00939729 252 60 74
0.150576 -0.168218 -0.010426 255 71 92
0.149318 -0.1692 -0.0114511 255 51 30
0.148753 -0.170332 -0.0128911 254 51 34
0.148188 -0.171465 -0.0143311 247 49 30
0.146936 -0.172439 -0.0153477 231 44 25
0.146373 -0.173569 -0.0167853 215 38 19
0.145809 -0.1747 -0.018223 203 34 12
0.145245 -0.17583 -0.0196608 197 32 9
0.144682 -0.176961 -0.0210986 201 32 11
0.144118 -0.178092 -0.0225364 214 37 16
0.105937 -0.180284 -0.0145839 223 21 0
0.105421 -0.181318 -0.0158995 214 19 0
0.105466 -0.182514 -0.0176054 211 14 0
0.104949 -0.18355 -0.0189232 222 20 1
0.104433 -0.184586 -0.0202411 226 32 13
0.103358 -0.185457 -0.0211624 221 32 15
0.102286 -0.186325 -0.0220808 208 26 8
0.101218 -0.18719 -0.0229963 193 19 1
0.100704 -0.188221 -0.024308 182 13 2
0.0775668 -0.190089 -0.0202533 210 22 2
0.0737253 -0.189925 -0.0189079 204 17 1
0.0718302 -0.190403 -0.0190372 196 15 0
0.0708838 -0.191201 -0.0198922 186 14 0
0.0694758 -0.191833 -0.0203801 185 12 1
0.068076 -0.192462 -0.0208651 194 16 2
0.0666846 -0.193087 -0.0213473 208 23 2
0.0653013 -0.193709 -0.0218266 216 26 3
0.0630283 -0.193999 -0.0215799 217 28 4
0.0607819 -0.194286 -0.0213362 216 34 8
0.0581262 -0.194409 -0.02074 208 35 11
0.0555086 -0.194529 -0.0201525 197 29 6
0.052508 -0.194488 -0.019226 191 23 2
0.0512159 -0.195083 -0.019694 193 21 2
0.049518 -0.195515 -0.0198136 201 28 5
0.0478343 -0.195943 -0.0199321 217 32 8
0.045761 -0.196208 -0.0197075 235 38 17
0.0445094 -0.196788 -0.0201665 244 44 27
0.0424718 -0.197047 -0.0199425 244 48 30
0.0412396 -0.19762 -0.0203971 236 41 17
0.0384636 -0.197555 -0.0195021 227 39 14
0.0353547 -0.197336 -0.0182911 218 39 17
0.0330465 -0.19743 -0.0177556 210 38 20
0.0300383 -0.197215 -0.0165805 201 35 18
0.0278022 -0.197308 -0.016065 194 36 17
0.0255956 -0.1974 -0.0155564 184 38 20
0.0230698 -0.197341 -0.0147407 171 41 28
0.0219575 -0.197881 -0.0151838 135 48 42
0.0215387 -0.198721 -0.0162519 102 54 47
0.0204333 -0.199256 -0.01669 80 57 48
0.153401 -0.159877 -0.00276703 86 66 56
0.152138 -0.160873 -0.00380546 135 53 50
0.151573 -0.162005 -0.00524523 210 52 48
0.150315 -0.162996 -0.00627755 252 61 48
0.149752 -0.164126 -0.00771489 255 55 44
0.148499 -0.165111 -0.0087412 255 53 42
0.147251 -0.166093 -0.00976397 255 52 41
0.145327 -0.166923 -0.0103714 254 52 35
0.144091 -0.167897 -0.011386 249 51 32
0.143532 -0.169017 -0.0128111 238 47 26
0.142974 -0.170138 -0.0142363 224 42 22
0.142415 -0.171259 -0.0156615 214 38 16
0.141856 -0.17238 -0.0170868 209 36 13
0.139961 -0.173184 -0.0176658 210 36 15
0.141409 -0.174782 -0.0203653 219 38 18
0.105934 -0.177851 -0.014178 224 27 13
0.1043 -0.178576 -0.0147224 217 19 0
0.104343 -0.179764 -0.016421 212 18 0
0.103828 -0.180797 -0.0177346 212 14 0
0.103313 -0.18183 -0.0190484 223 28 8
0.102798 -0.182863 -0.0203621 225 30 6
0.101729 -0.183733 -0.0212804 214 26 3
0.100664 -0.184601 -0.0221958 201 21 1
0.0996018 -0.185466 -0.0231083 192 17 0
0.100187 -0.186828 -0.0252159 190 17 1
0.0804937 -0.186482 -0.0188718 213 33 12
0.0780493 -0.186827 -0.018634 214 26 7
0.0751558 -0.187009 -0.0180335 215 20 0
0.0732486 -0.187503 -0.018167 212 20 1
0.0718271 -0.188149 -0.0186622 207 20 0
0.0704141 -0.188792 -0.0191545 199 20 0
0.0690095 -0.18943 -0.0196439 193 19 0
0.0676132 -0.190065 -0.0201304 197 16 0
0.0657702 -0.190537 -0.0202528 207 24 1
0.0639434 -0.191005 -0.0203742 216 27 6
0.0616884 -0.19131 -0.0201371 218 27 6
0.0590222 -0.191454 -0.0195488 216 28 4
0.0559654 -0.191439 -0.0186195 213 31 6
0.0529609 -0.191425 -0.017706 207 30 9
0.0512507 -0.191873 -0.0178343 199 27 6
0.0495549 -0.192318 -0.0179616 197 26 2
0.0478736 -0.192759 -0.0180879 202 27 1
0.0454006 -0.192888 -0.0175356 215 32 6
0.0437551 -0.193321 -0.0176623 231 38 14
0.0425178 -0.193906 -0.0181239 243 44 23
0.0408956 -0.194332 -0.0182474 246 46 28
0.0377465 -0.194142 -0.0170418 237 43 26
0.0357872 -0.19441 -0.0168395 225 39 17
0.033476 -0.194524 -0.0163138 213 40 19
0.0308293 -0.194486 -0.0154733 203 39 19
0.028585 -0.194597 -0.0149646 194 36 18
0.0270827 -0.195004 -0.015096 183 35 21
0.025239 -0.195259 -0.0149104 174 37 23
0.0248163 -0.196107 -0.0159884 154 43 30
0.0229942 -0.196355 -0.0157992 122 51 40
0.0215353 -0.19675 -0.0159257 90 57 48
0.0211166 -0.19759 -0.016994 77 57 48
0.149368 -0.157678 -0.00176077 85 64 56
0.148808 -0.158802 -0.00319052 147 53 45
0.148247 -0.159926 -0.0046203 225 51 40
0.147004 -0.160914 -0.00564665 255 59 42
0.145765 -0.161897 -0.00666951 255 55 41
0.14453 -0.162878 -0.00768882 255 52 40
0.143299 -0.163855 -0.00870461 255 53 38
0.142073 -0.164829 -0.00971696 253 55 37
0.140851 -0.165799 -0.0107259 244 51 31
0.140296 -0.166912 -0.0121412 233 45 26
0.139079 -0.167877 -0.0131442 221 42 22
0.138525 -0.168988 -0.0145573 215 39 16
0.137971 -0.170099 -0.0159703 215 38 16
0.137418 -0.17121 -0.0173834 222 42 20
0.138845 -0.17279 -0.0200674 232 44 23
0.103742 -0.176001 -0.0139346 222 20 3
0.103228 -0.177031 -0.0152441 214 14 0
0.103269 -0.178214 -0.016941 212 13 0
0.102755 -0.179245 -0.0182526 219 21 0
0.102241 -0.180277 -0.0195644 226 29 9
0.101174 -0.18115 -0.0204825 221 28 6
0.100112 -0.18202 -0.0213978 211 26 1
0.0995989 -0.183049 -0.0227055 203 25 0
0.0990862 -0.184077 -0.0240132 198 25 1
0.0809792 -0.1832 -0.0172423 209 34 17
0.0790194 -0.183717 -0.0173813 211 34 12
0.0770774 -0.18423 -0.017519 213 26 4
0.0751528 -0.184738 -0.0176555 213 19 0
0.0732456 -0.185241 -0.0177909 212 18 0
0.0718241 -0.185894 -0.0182872 211 21 0
0.0704111 -0.186544 -0.0187807 203 22 0
0.0694696 -0.187344 -0.0196338 198 21 0
0.0680698 -0.187987 -0.0201211 199 20 0
0.066222 -0.188469 -0.0202439 207 22 0
0.064842 -0.189103 -0.0207259 217 29 2
0.0625751 -0.18942 -0.0204861 221 29 5
0.0598947 -0.189578 -0.0198937 221 29 5
0.0568216 -0.189579 -0.0189588 218 28 5
0.0533787 -0.189429 -0.017694 214 27 6
0.0512475 -0.189734 -0.0174792 208 32 9
0.0495518 -0.190188 -0.017608 202 27 3
0.0470567 -0.190335 -0.0170568 204 26 0
0.0445963 -0.19048 -0.0165132 214 30 2
0.0429587 -0.190923 -0.016644 228 36 8
0.0417269 -0.191512 -0.0171071 238 41 20
0.0401125 -0.191947 -0.0172346 241 44 22
0.0373608 -0.19193 -0.0163704 233 42 21
0.0354062 -0.192209 -0.0161721 221 39 19
0.0334727 -0.192485 -0.0159761 206 38 18
0.03156 -0.192759 -0.0157822 194 36 18
0.0296677 -0.19303 -0.0155903 184 35 17
0.0277956 -0.193297 -0.0154007 173 36 21
0.0259432 -0.193562 -0.015213 160 41 29
0.0248129 -0.194118 -0.015659 136 45 38
0.0229908 -0.194376 -0.0154716 110 51 44
0.0218772 -0.194925 -0.0159134 84 57 49
0.0211132 -0.195619 -0.0166677 73 59 51
0.147438 -0.155898 -0.00195294 85 62 58
0.14688 -0.157018 -0.00337783 150 52 50
0.145643 -0.158007 -0.00440283 226 51 43
0.144411 -0.158993 -0.00542435 254 54 39
0.142513 -0.159841 -0.00604165 255 51 38
0.141959 -0.160954 -0.0074569 255 54 38
0.140739 -0.161929 -0.00846798 253 54 36
0.138864 -0.162762 -0.00907177 248 53 34
0.137656 -0.16373 -0.0100749 236 47 25
0.136452 -0.164694 -0.0110748 225 43 24
0.135902 -0.165797 -0.0124781 218 39 19
0.134703 -0.166756 -0.0134722 218 40 16
0.134154 -0.167858 -0.0148732 225 44 22
0.136205 -0.169556 -0.0179396 235 47 26
0.103184 -0.173434 -0.0131494 234 30 9
0.103225 -0.174609 -0.0148402 224 23 2
0.102712 -0.175639 -0.0161498 217 19 0
0.102199 -0.176668 -0.0174594 215 20 3
0.101685 -0.177698 -0.0187691 227 28 7
0.101172 -0.178728 -0.0200789 230 30 9
0.100109 -0.179603 -0.0209949 223 27 4
0.099596 -0.180631 -0.0223026 214 26 1
0.0990832 -0.181659 -0.0236104 204 26 1
0.0809763 -0.180896 -0.0168589 205 31 8
0.078043 -0.181125 -0.0162683 209 30 7
0.0746773 -0.181202 -0.0153262 213 24 3
0.0737224 -0.182017 -0.0161907 212 18 0
0.0727703 -0.18283 -0.0170527 210 14 0
0.071821 -0.183639 -0.0179122 208 15 0
0.070408 -0.184295 -0.0184068 203 18 2
0.0694665 -0.1851 -0.0192606 197 19 2
0.0685277 -0.185901 -0.0201118 198 21 1
0.0666752 -0.186393 -0.0202348 207 24 0
0.0652918 -0.187035 -0.0207177 218 28 1
0.0639165 -0.187672 -0.0211978 226 32 5
0.0616583 -0.187997 -0.0209557 228 30 5
0.0585519 -0.188013 -0.0200062 224 31 8
0.0542213 -0.187576 -0.0180283 219 30 12
0.0516611 -0.187743 -0.017467 213 28 12
0.0495486 -0.188057 -0.0172544 205 29 6
0.0470534 -0.188219 -0.0167057 205 27 1
0.044593 -0.188379 -0.0161647 216 29 1
0.0425605 -0.188684 -0.0159636 229 34 5
0.0413315 -0.189278 -0.0164281 239 38 13
0.0401092 -0.18987 -0.0168901 240 39 16
0.0373575 -0.189869 -0.0160288 227 38 15
0.0354029 -0.19016 -0.0158324 213 38 15
0.0334694 -0.190447 -0.0156382 197 37 15
0.0315567 -0.190732 -0.0154462 184 34 17
0.0300284 -0.191158 -0.0155771 174 33 17
0.0285123 -0.191581 -0.0157069 160 37 22
0.0270082 -0.192001 -0.0158357 142 44 31
0.0255161 -0.192417 -0.0159636 123 51 42
0.0243869 -0.192975 -0.0164077 98 53 48
0.0225669 -0.19324 -0.0162164 81 58 50
0.0214544 -0.193792 -0.0166565 75 61 50
0.145522 -0.15413 -0.00214389 85 62 58
0.144292 -0.155121 -0.00316756 136 52 54
0.143066 -0.156108 -0.00418778 206 50 41
0.142511 -0.157221 -0.00560303 246 51 34
0.140627 -0.158072 -0.00621774 254 49 36
0.139414 -0.159049 -0.00722756 252 48 33
0.13755 -0.15989 -0.00783363 245 47 28
0.136348 -0.160858 -0.00883557 231 46 26
0.135151 -0.161824 -0.00983414 222 41 27
0.134602 -0.162924 -0.0112328 220 44 23
0.134054 -0.164024 -0.0126314 229 43 21
0.133506 -0.165123 -0.0140302 236 48 24
0.133602 -0.166367 -0.015841 243 51 31
0.103182 -0.171016 -0.012746 246 34 15
0.102669 -0.172044 -0.0140535 238 27 8
0.102156 -0.173072 -0.0153611 229 25 3
0.102196 -0.174246 -0.0170555 226 24 0
0.101682 -0.175276 -0.0183653 228 26 3
0.101169 -0.176306 -0.0196751 236 32 9
0.100106 -0.177185 -0.0205919 233 32 7
0.099593 -0.178213 -0.0218997 223 29 3
0.0990803 -0.179241 -0.0232076 210 31 4
0.0814675 -0.178739 -0.0168437 207 27 9
0.07804 -0.178839 -0.0158878 210 30 10
0.0746743 -0.178937 -0.0149492 213 25 4
0.0732464 -0.17961 -0.0154548 214 19 1
0.0722965 -0.180425 -0.0163167 211 13 0
0.0713493 -0.181237 -0.0171761 206 9 0
0.0704049 -0.182047 -0.0180329 201 10 0
0.0694634 -0.182854 -0.0188873 195 11 3
0.0685246 -0.18366 -0.0197392 197 17 3
0.0671296 -0.184312 -0.0202257 207 24 2
0.0652886 -0.184809 -0.0203479 221 29 3
0.0643643 -0.185605 -0.0211903 232 32 5
0.0625462 -0.186094 -0.0213077 236 33 7
0.0603024 -0.186427 -0.0210658 231 32 7
0.0567846 -0.186306 -0.0197654 223 31 8
0.0533372 -0.186188 -0.018491 215 28 7
0.0503718 -0.186219 -0.0175841 210 26 4
0.0478639 -0.186394 -0.0170317 208 26 1
0.0445898 -0.186278 -0.0158161 217 29 1
0.0425573 -0.186594 -0.015617 229 33 5
0.0413282 -0.187195 -0.0160825 236 37 10
0.040106 -0.187792 -0.0165455 233 39 13
0.0373542 -0.187808 -0.0156871 218 35 11
0.0357774 -0.188253 -0.015819 201 36 14
0.0342132 -0.188695 -0.0159498 186 35 13
0.0319219 -0.188847 -0.0154325 173 34 14
0.03039 -0.189281 -0.0155637 160 36 21
0.0292327 -0.189855 -0.0160147 148 39 27
0.0277218 -0.190283 -0.0161427 125 47 36
0.0265793 -0.190851 -0.0165893 105 54 44
0.0250888 -0.191272 -0.0167143 90 58 52
0.0243124 -0.191977 -0.0174756 76 59 49
0.022143 -0.192104 -0.0169615 73 60 48
0.143619 -0.152375 -0.00233372 78 61 59
0.143064 -0.153488 -0.00374902 103 55 54
0.141842 -0.154476 -0.00476656 165 46 33
0.140625 -0.155461 -0.00578066 219 43 23
0.138754 -0.156315 -0.00639275 235 46 30
0.136895 -0.157164 -0.00700073 236 49 30
0.135697 -0.158136 -0.00800249 232 50 27
0.134502 -0.159104 -0.00900086 230 47 27
0.133312 -0.16007 -0.0099959 231 44 28
0.132765 -0.161166 -0.0113899 239 52 29
0.132219 -0.162262 -0.0127839 251 56 34
0.131672 -0.163358 -0.014178 255 56 37
0.103179 -0.168597 -0.0123425 250 39 19
0.102666 -0.169625 -0.01365 245 30 10
0.102154 -0.170653 -0.0149577 239 26 7
0.101641 -0.171681 -0.0162654 235 26 4
0.101679 -0.172854 -0.0179615 237 29 6
0.101166 -0.173884 -0.0192714 241 34 12
0.100103 -0.174766 -0.0201888 240 35 10
0.0995901 -0.175795 -0.0214968 230 31 9
0.0990773 -0.176823 -0.0228047 216 26 4
0.0829561 -0.176864 -0.0175693 206 26 7
0.0790105 -0.176838 -0.0162363 213 29 11
0.0751479 -0.176813 -0.0149315 218 32 17
0.0732434 -0.177351 -0.015079 220 23 2
0.0722934 -0.178169 -0.0159415 215 17 0
0.0713463 -0.178985 -0.0168015 208 11 0
0.0699367 -0.179654 -0.0172989 200 8 0
0.0694603 -0.180609 -0.018514 195 9 0
0.0685214 -0.181418 -0.0193665 196 19 0
0.0675854 -0.182224 -0.0202165 210 24 1
0.0657397 -0.182731 -0.020339 225 30 6
0.064361 -0.183383 -0.0208211 237 33 9
0.062543 -0.183881 -0.0209402 242 34 10
0.0611837 -0.184524 -0.021417 237 34 8
0.0585172 -0.184718 -0.020819 227 33 8
0.0554602 -0.184761 -0.0198777 216 29 6
0.0520358 -0.184659 -0.018606 210 26 3
0.0490898 -0.184702 -0.0177008 212 26 2
0.0453877 -0.18446 -0.0161373 219 29 6
0.0433451 -0.184787 -0.0159359 228 36 9
0.041325 -0.185111 -0.0157369 227 38 11
0.0401027 -0.185713 -0.0162008 219 37 12
0.037351 -0.185747 -0.0153453 205 35 10
0.0361528 -0.186341 -0.0158054 188 31 8
0.0342099 -0.18665 -0.015611 175 31 11
0.032288 -0.186956 -0.0154187 166 29 16
0.0307525 -0.187399 -0.0155501 151 33 23
0.0292294 -0.187838 -0.0156806 132 45 31
0.0284392 -0.188556 -0.0164513 107 52 42
0.0269334 -0.188988 -0.0165775 88 56 49
0.0261503 -0.189701 -0.017343 77 58 54
0.025015 -0.190268 -0.0177855 74 60 56
0.141729 -0.150631 -0.00252238 86 63 56
0.141176 -0.15174 -0.00393293 91 62 54
0.139302 -0.152607 -0.00455141 122 54 38
0.138751 -0.153713 -0.0059572 176 45 25
0.136893 -0.15457 -0.00656677 224 45 28
0.135694 -0.155547 -0.00756935 249 54 38
0.133856 -0.156394 -0.0081704 255 55 40
0.13203 -0.157235 -0.00876737 255 52 38
0.130216 -0.15807 -0.00936039 255 51 37
0.127789 -0.158772 -0.00955366 255 60 41
0.127249 -0.159855 -0.0109313 255 60 41
0.131123 -0.161874 -0.015141 255 57 37
0.103689 -0.16515 -0.0106313 232 46 34
0.103176 -0.166178 -0.0119389 252 48 26
0.102664 -0.167206 -0.0132466 250 30 4
0.102151 -0.168235 -0.0145543 244 24 3
0.101638 -0.169263 -0.0158621 240 24 4
0.101677 -0.170431 -0.0175576 242 31 10
0.101163 -0.171461 -0.0188676 247 38 16
0.100649 -0.172491 -0.0201776 247 37 14
0.100136 -0.173521 -0.0214877 236 32 6
0.0809722 -0.175106 -0.0173238 217 42 18
0.0765831 -0.174959 -0.0156364 224 40 15
0.0732405 -0.175092 -0.0147031 228 24 1
0.0722905 -0.175913 -0.0155662 222 22 0
0.0713432 -0.176732 -0.0164269 215 17 0
0.0699337 -0.177408 -0.0169254 206 15 0
0.0694572 -0.178363 -0.0181406 198 12 0
0.0685183 -0.179175 -0.0189937 199 13 0
0.0675823 -0.179985 -0.0198444 212 27 2
0.0661921 -0.180647 -0.0203301 230 32 7
0.06481 -0.181305 -0.0208129 242 35 11
0.0629873 -0.181814 -0.0209323 246 36 12
0.0611805 -0.182318 -0.0210507 240 35 10
0.0589511 -0.182673 -0.0208112 230 33 8
0.0567475 -0.183023 -0.0205745 221 31 8
0.0545692 -0.183369 -0.0203406 218 27 7
0.0507416 -0.183138 -0.0187204 220 30 8
0.0461901 -0.182632 -0.0164602 222 35 10
0.0433418 -0.182691 -0.0155883 222 38 14
0.0417139 -0.183165 -0.0157227 218 37 12
0.0400994 -0.183635 -0.0158562 206 35 11
0.0373477 -0.183685 -0.0150035 192 32 10
0.0361495 -0.184286 -0.0154646 178 31 12
0.0345817 -0.184744 -0.0155973 166 32 17
0.0330265 -0.185199 -0.0157289 147 38 21
0.0318529 -0.185788 -0.0161832 126 41 24
0.0299538 -0.186097 -0.0159891 104 47 31
0.0287977 -0.18668 -0.0164391 87 55 41
0.028008 -0.187399 -0.017209 75 59 48
0.0265038 -0.187836 -0.0173322 71 60 53
0.138644 -0.149889 -0.00372252 85 64 56
0.13744 -0.150875 -0.00473164 93 61 53
0.136891 -0.151976 -0.00613273 119 55 41
0.135692 -0.152957 -0.00713613 176 47 29
0.133212 -0.153692 -0.00734266 232 48 32
0.131391 -0.154541 -0.00794155 255 55 37
0.128953 -0.155261 -0.00814237 255 55 39
0.125921 -0.155851 -0.00795016 254 59 39
0.120506 -0.155944 -0.00622078 255 55 37
0.11465 -0.155916 -0.00416278 255 55 39
0.114127 -0.156963 -0.00549567 255 54 36
0.102502 -0.160179 -0.00613493 231 29 8
0.1009 -0.160951 -0.00669834 228 31 10
0.102031 -0.162348 -0.00910524 232 39 19
0.101521 -0.163372 -0.0104067 247 44 28
0.102109 -0.164656 -0.0124635 251 27 5
0.102148 -0.165815 -0.0141509 244 22 0
0.101635 -0.166844 -0.0154587 241 21 3
0.101123 -0.167872 -0.0167666 241 26 15
0.0804797 -0.173779 -0.018188 235 38 16
0.0737104 -0.172967 -0.014685 236 29 8
0.0722874 -0.173657 -0.0151909 232 23 0
0.0713402 -0.17448 -0.0160522 223 20 0
0.0699306 -0.175162 -0.0165519 214 19 0
0.0694541 -0.176117 -0.0177672 204 17 0
0.0685152 -0.176933 -0.0186209 205 19 0
0.0675791 -0.177745 -0.0194722 219 26 3
0.0661889 -0.178414 -0.0199591 236 36 10
0.0648068 -0.179079 -0.0204431 246 40 15
0.063883 -0.179883 -0.0212856 249 38 16
0.0616215 -0.180254 -0.021043 244 39 14
0.0593863 -0.180621 -0.0208032 236 39 13
0.0576108 -0.181126 -0.0209213 227 37 15
0.0554212 -0.181485 -0.0206848 223 36 16
0.0519921 -0.181415 -0.0194034 225 34 17
0.0474037 -0.18093 -0.0171242 223 37 16
0.0445334 -0.181005 -0.016243 216 39 15
0.0421038 -0.181214 -0.0157086 205 36 13
0.0404855 -0.181692 -0.0158423 195 32 12
0.0377269 -0.181759 -0.0149887 179 32 15
0.036526 -0.182365 -0.0154506 159 33 17
0.0349545 -0.182832 -0.0155835 138 35 22
0.0333957 -0.183295 -0.0157154 120 40 31
0.0318495 -0.183755 -0.0158463 102 49 39
0.0310493 -0.184483 -0.016623 89 54 40
0.0295209 -0.184936 -0.0167497 80 57 41
0.0287281 -0.185659 -0.0175212 73 58 44
0.13559 -0.149154 -0.00491077 79 68 59
0.135042 -0.150252 -0.0063072 87 64 56
0.133209 -0.151115 -0.00691171 115 57 48
0.130754 -0.151855 -0.00711848 151 51 37
0.127699 -0.15247 -0.00693252 187 47 29
0.125918 -0.153314 -0.00752592 220 41 26
0.120504 -0.153441 -0.00580229 238 44 23
0.114647 -0.153449 -0.00375048 245 47 30
0.10896 -0.153456 -0.00175827 254 43 22
0.106201 -0.15403 -0.00161642 254 43 21
0.103477 -0.154596 -0.0014764 248 34 13
0.101874 -0.155385 -0.00205359 244 32 11
0.0997417 -0.156053 -0.00226918 241 31 10
0.0992371 -0.157064 -0.00355614 243 36 15
0.0981956 -0.157958 -0.00448221 244 39 20
0.100389 -0.159573 -0.00759365 244 41 25
0.0998816 -0.160591 -0.00888893 246 42 28
0.100462 -0.161861 -0.0109312 247 31 18
0.100498 -0.16301 -0.0126081 244 22 0
0.101633 -0.164424 -0.0150553 236 22 0
0.0785159 -0.172043 -0.017941 244 31 14
0.0722844 -0.171401 -0.0148156 241 25 2
0.0708698 -0.172093 -0.0153197 232 23 0
0.0699275 -0.172916 -0.0161784 223 19 2
0.069451 -0.173871 -0.0173937 215 19 0
0.0685121 -0.17469 -0.0182481 217 24 1
0.067576 -0.175506 -0.0191 227 31 8
0.0666426 -0.17632 -0.0199494 238 39 18
0.0652572 -0.176992 -0.0204343 243 46 24
0.0638798 -0.17766 -0.0209163 243 44 18
0.0625106 -0.178324 -0.0213956 244 42 18
0.0602636 -0.178703 -0.0211531 242 44 21
0.0576075 -0.178939 -0.0205582 236 47 25
0.0554179 -0.17931 -0.0203238 228 50 29
0.0524091 -0.1794 -0.0193938 219 47 28
0.049039 -0.179351 -0.0181361 212 38 22
0.0457349 -0.179303 -0.0169032 199 34 17
0.0428904 -0.179391 -0.0160277 184 32 14
0.0412642 -0.179878 -0.0161605 167 32 14
0.0392638 -0.180228 -0.0159614 151 37 19
0.0372852 -0.180573 -0.0157644 135 41 31
0.0360855 -0.181183 -0.0162242 115 44 36
0.0345158 -0.181654 -0.0163541 98 48 41
0.0329587 -0.182122 -0.016483 85 53 48
0.0317835 -0.182721 -0.0169361 78 56 48
0.0306146 -0.183317 -0.0173867 76 60 48
0.130031 -0.147982 -0.00452775 82 62 55
0.128862 -0.148954 -0.00551887 87 60 55
0.126453 -0.149698 -0.00573072 96 58 57
0.124069 -0.150434 -0.00594052 110 55 54
0.120502 -0.150936 -0.00538373 131 51 41
0.112328 -0.150538 -0.00185968 151 51 25
0.108393 -0.150915 -0.000989113 176 44 22
0.105642 -0.151504 -0.000852484 215 43 27
0.102926 -0.152085 -0.000717659 246 51 35
0.100244 -0.152659 -0.000584546 254 52 32
0.0992007 -0.153559 -0.00151529 255 43 26
0.0976265 -0.154344 -0.00208711 255 41 23
0.0971243 -0.155351 -0.00336813 255 51 33
0.0960909 -0.156243 -0.00429029 255 56 40
0.0966517 -0.157483 -0.00629242 254 51 37
0.0961486 -0.158491 -0.00757566 249 40 21
0.0967112 -0.159742 -0.00959462 243 24 0
0.0994398 -0.1615 -0.0131295 235 23 1
0.0708774 -0.168758 -0.0133742 250 27 5
0.070401 -0.169713 -0.0145895 246 24 1
0.0694606 -0.170538 -0.0154479 243 27 6
0.0689848 -0.171492 -0.0166616 240 30 14
0.068509 -0.172446 -0.0178752 229 33 14
0.0675728 -0.173266 -0.0187277 224 40 18
0.0666394 -0.174083 -0.0195778 221 42 20
0.0652539 -0.174762 -0.0200638 220 40 19
0.0647808 -0.17571 -0.0212705 218 37 15
0.0634048 -0.176382 -0.0217502 215 35 11
0.0615909 -0.176912 -0.0218656 212 35 14
0.0584758 -0.177024 -0.0209058 208 34 12
0.0554146 -0.177134 -0.0199627 202 31 8
0.0528274 -0.177378 -0.0193841 196 28 7
0.0490358 -0.177216 -0.0177819 187 26 8
0.0461355 -0.177322 -0.0168904 174 24 15
0.04408 -0.17769 -0.0166843 157 28 20
0.0424421 -0.178187 -0.016815 136 35 25
0.0404269 -0.178547 -0.0166114 117 43 30
0.0388198 -0.179035 -0.0167413 102 53 37
0.0372259 -0.179519 -0.0168702 92 54 44
0.0360246 -0.180133 -0.0173277 83 56 47
0.034077 -0.180476 -0.0171249 76 58 50
0.0325217 -0.180949 -0.0172508 71 60 53
0.121633 -0.147476 -0.00399094 83 60 57
0.117516 -0.147892 -0.00307925 86 59 55
0.112325 -0.148087 -0.00144996 92 61 51
0.107267 -0.148276 0.000137489 99 60 48
0.104532 -0.14888 0.000266474 108 57 46
0.102376 -0.149582 3.87989e-05 137 50 36
0.100241 -0.150277 -0.000186805 188 49 28
0.0986613 -0.151074 -0.000763673 249 57 39
0.097624 -0.151973 -0.00169136 255 58 41
0.0960596 -0.152761 -0.00226096 255 51 31
0.0955589 -0.153764 -0.00353811 255 47 28
0.0945311 -0.154656 -0.00445722 255 47 33
0.0950852 -0.155887 -0.00645379 252 39 26
0.0945836 -0.156892 -0.00773313 246 26 8
0.0940821 -0.157898 -0.00901248 236 22 1
0.095699 -0.159384 -0.0117723 229 26 7
0.0699454 -0.166263 -0.012296 254 34 12
0.0690085 -0.16709 -0.0131554 250 35 11
0.0685341 -0.168041 -0.0143655 241 38 15
0.0680597 -0.168992 -0.0155755 233 36 16
0.0675852 -0.169944 -0.0167857 224 32 16
0.0671108 -0.170895 -0.0179958 214 30 11
0.0661794 -0.171714 -0.0188458 203 30 11
0.0652507 -0.172531 -0.0196932 196 26 10
0.0647776 -0.17348 -0.0209 191 21 8
0.0634016 -0.174159 -0.0213809 186 18 9
0.0629298 -0.175104 -0.0225842 178 18 10
0.0606737 -0.175504 -0.0223343 166 21 12
0.0571367 -0.175494 -0.0210159 151 27 13
0.0540958 -0.175617 -0.0200747 138 37 15
0.0506896 -0.175606 -0.0188033 126 45 21
0.0465372 -0.175334 -0.0168774 117 48 31
0.0444766 -0.175714 -0.0166712 105 50 41
0.0432317 -0.17635 -0.0171381 96 55 42
0.0419937 -0.176982 -0.0176025 90 57 43
0.0403712 -0.17748 -0.017729 84 59 46
0.0391496 -0.178104 -0.0181886 78 63 51
0.0367835 -0.178331 -0.0176472 77 60 45
0.106148 -0.145654 0.001257 85 63 52
0.103429 -0.146273 0.00137834 86 64 52
0.101285 -0.146985 0.00114604 84 64 49
0.0996995 -0.147793 0.00056402 94 63 51
0.0986588 -0.148699 -0.000367198 121 52 40
0.0970888 -0.149497 -0.000941876 217 48 36
0.0955285 -0.150291 -0.00151301 250 54 39
0.0950285 -0.151294 -0.00278825 255 56 38
0.0945286 -0.152296 -0.00406352 255 55 37
0.0935039 -0.153188 -0.00498052 253 51 38
0.0935284 -0.154301 -0.00661426 249 35 20
0.0930284 -0.155303 -0.00788972 241 24 3
0.0925283 -0.156306 -0.00916522 228 32 17
0.0925513 -0.157425 -0.0108082 226 51 46
0.0685591 -0.163662 -0.0108763 251 41 18
0.0676284 -0.164489 -0.011734 245 36 14
0.0671561 -0.165436 -0.0129388 235 35 13
0.0666837 -0.166383 -0.0141436 223 33 12
0.0657571 -0.167206 -0.0149954 211 27 10
0.0657389 -0.168277 -0.0165534 197 24 11
0.0652665 -0.169225 -0.0177583 179 25 11
0.0638911 -0.169915 -0.0182477 159 30 15
0.0629712 -0.17073 -0.0190911 142 32 19
0.0633984 -0.171935 -0.0210115 130 33 24
0.0629266 -0.17288 -0.0222149 122 39 31
0.06156 -0.173559 -0.0226907 117 48 38
0.0602013 -0.174233 -0.0231637 109 51 37
0.0566691 -0.174236 -0.021837 98 54 39
0.0523624 -0.173977 -0.0198363 91 56 44
0.0489879 -0.173982 -0.0185727 83 61 52
0.0456795 -0.173987 -0.0173341 78 67 59
0.0440257 -0.174502 -0.017463 75 60 58
0.0981212 -0.146224 0.000381496 83 61 55
0.0970863 -0.14713 -0.000546653 99 63 49
0.0955259 -0.147931 -0.0011191 192 47 43
0.0950259 -0.148933 -0.00239438 248 55 39
0.0940005 -0.149831 -0.00331401 255 57 39
0.0929784 -0.150726 -0.00423086 255 59 38
0.0924799 -0.151725 -0.00550236 254 41 17
0.0925027 -0.152834 -0.00713444 246 28 4
0.0914828 -0.153724 -0.00804551 232 29 23
0.0909842 -0.154724 -0.00931716 221 49 73
0.0910046 -0.155837 -0.0109554 222 85 124
0.071345 -0.161061 -0.0110372 250 47 27
0.0690159 -0.161547 -0.0108526 246 44 21
0.0680831 -0.162379 -0.0117118 236 40 17
0.067153 -0.163209 -0.0125684 221 33 15
0.0666806 -0.164156 -0.0137733 207 29 13
0.0662082 -0.165103 -0.0149781 187 29 12
0.0652823 -0.165927 -0.0158289 164 33 16
0.0652633 -0.166997 -0.0173881 146 38 26
0.0638879 -0.167694 -0.0178787 126 44 39
0.0625206 -0.168386 -0.0183664 107 48 44
0.0620508 -0.169328 -0.0195645 96 53 48
0.0620272 -0.170398 -0.0211226 89 55 51
0.0624514 -0.171602 -0.0230491 84 55 51
0.0619795 -0.172548 -0.0242527 84 58 51
0.0601716 -0.173095 -0.0243574 82 58 48
0.0583795 -0.173637 -0.0244613 79 59 46
0.0557369 -0.173909 -0.0238428 76 59 47
0.0965527 -0.144665 0.000199955 85 61 56
0.0955234 -0.14557 -0.000725109 100 58 49
0.0950233 -0.146573 -0.00200051 186 44 41
0.0939979 -0.147474 -0.00292081 249 59 41
0.0929757 -0.148373 -0.00383833 255 62 46
0.0919566 -0.149268 -0.00475304 255 48 35
0.0919786 -0.150372 -0.00638153 251 32 12
0.090961 -0.151264 -0.00729239 243 27 3
0.0899466 -0.152154 -0.00820046 233 54 44
0.0889353 -0.153042 -0.00910582 224 105 119
0.088439 -0.154037 -0.0103717 221 152 175
0.0879426 -0.155032 -0.0116377 234 150 149
0.071342 -0.158813 -0.0106632 240 47 29
0.0699364 -0.15954 -0.0111778 236 42 29
0.0689995 -0.160377 -0.012039 222 38 15
0.067607 -0.161096 -0.0125473 208 30 11
0.0671339 -0.162045 -0.013754 188 30 19
0.0666607 -0.162993 -0.0149608 165 36 28
0.0661875 -0.163942 -0.0161676 137 44 33
0.0652602 -0.164769 -0.017018 112 53 36
0.0647877 -0.165716 -0.0182231 101 57 45
0.0634136 -0.166417 -0.0187113 91 61 59
0.0620476 -0.167113 -0.0191966 83 58 57
0.0615778 -0.168055 -0.0203949 80 61 60
0.0955208 -0.14321 -0.000331093 82 63 56
0.0950207 -0.144212 -0.00160656 99 58 52
0.0939953 -0.145117 -0.00252757 194 44 45
0.0929731 -0.146019 -0.00344578 251 66 48
0.091954 -0.146919 -0.00436117 255 62 47
0.090938 -0.147815 -0.00527376 254 39 20
0.0909583 -0.148915 -0.00690067 250 28 6
0.0899438 -0.149808 -0.00780943 247 36 13
0.0879089 -0.150489 -0.00799498 247 45 28
0.0858927 -0.151164 -0.00817888 248 47 39
0.083895 -0.151832 -0.0083611 249 45 39
0.0829068 -0.152708 -0.00925397 245 42 35
0.0819216 -0.153581 -0.0101442 235 37 17
0.0814327 -0.154561 -0.011391 227 35 16
0.0804511 -0.15543 -0.0122767 226 34 13
0.071339 -0.156565 -0.0102892 235 43 20
0.0708624 -0.15752 -0.0115048 230 41 21
0.0694582 -0.158251 -0.0120169 212 34 20
0.0689829 -0.159204 -0.013229 194 32 18
0.0680473 -0.160042 -0.0140874 179 33 20
0.0675728 -0.160993 -0.0152978 147 39 31
0.0670982 -0.161944 -0.0165083 118 48 45
0.0661667 -0.162777 -0.0173608 96 57 51
0.065238 -0.163607 -0.0182107 85 61 50
0.0647647 -0.164556 -0.0194177 83 63 52
0.094492 -0.141759 -0.00086065 83 57 51
0.0939927 -0.14276 -0.00213424 103 56 50
0.0929704 -0.143666 -0.00305315 205 48 42
0.0914324 -0.144473 -0.00361468 252 71 53
0.0909353 -0.145469 -0.00488252 255 47 32
0.0894083 -0.146268 -0.00543678 252 36 24
0.0894261 -0.147362 -0.00705898 253 35 15
0.0879061 -0.148154 -0.00760577 252 39 28
0.0858899 -0.148839 -0.00779155 247 46 55
0.0838922 -0.149518 -0.00797563 244 50 61
0.0829039 -0.150398 -0.00886912 242 48 42
0.0819187 -0.151274 -0.00975998 239 41 25
0.0814298 -0.152254 -0.011007 232 42 18
0.0804482 -0.153127 -0.0118933 228 36 15
0.0794696 -0.153997 -0.012777 229 34 11
0.0765562 -0.154428 -0.0122199 232 35 13
0.072742 -0.154638 -0.0109656 234 41 20
0.0708594 -0.155272 -0.0111308 226 41 21
0.0703827 -0.156227 -0.0123465 209 37 19
0.0694423 -0.157072 -0.0132088 189 34 25
0.0689663 -0.158026 -0.0144228 175 36 30
0.0684903 -0.15898 -0.0156369 146 42 35
0.0680142 -0.159935 -0.016851 107 52 47
0.0670786 -0.160773 -0.0177055 87 57 55
0.0661457 -0.161609 -0.0185575 79 60 56
0.0934664 -0.140312 -0.00138875 93 56 46
0.0924465 -0.14122 -0.00230743 140 52 39
0.0914297 -0.142126 -0.0032233 225 51 36
0.0904161 -0.143029 -0.00413642 253 53 44
0.0894056 -0.143929 -0.00504674 251 37 28
0.0883982 -0.144826 -0.00595431 248 46 43
0.0879033 -0.145818 -0.0072165 252 43 29
0.0858871 -0.146514 -0.00740414 249 54 46
0.0838893 -0.147204 -0.00759009 249 120 93
0.0829011 -0.148087 -0.00848425 254 161 103
0.0824114 -0.149068 -0.00973316 254 115 66
0.0814268 -0.149947 -0.0106228 250 60 40
0.0804453 -0.150823 -0.0115098 233 39 20
0.0794667 -0.151697 -0.0123941 229 38 20
0.0765533 -0.152145 -0.01184 231 35 16
0.0727391 -0.152379 -0.0105898 233 43 23
0.0717909 -0.153233 -0.0114585 225 42 21
0.0703797 -0.153979 -0.0119725 207 37 19
0.069903 -0.154934 -0.0131884 188 38 24
0.0689632 -0.155781 -0.0140495 173 41 33
0.0684871 -0.156735 -0.0152636 154 44 44
0.0684727 -0.157801 -0.0168363 109 56 53
0.067535 -0.158644 -0.0176921 85 57 57
0.0670589 -0.159598 -0.0189064 78 62 57
0.0929417 -0.137872 -0.000645462 80 58 49
0.0919242 -0.138783 -0.00156397 109 55 41
0.091427 -0.139779 -0.00283188 188 48 36
0.0898985 -0.140596 -0.00339255 246 55 38
0.0888903 -0.141498 -0.00430273 255 37 18
0.0883954 -0.14249 -0.00556493 250 38 17
0.0863769 -0.143202 -0.0057602 252 40 25
0.0858843 -0.144189 -0.00701671 252 41 24
0.0848883 -0.14508 -0.0079159 249 45 35
0.083396 -0.145872 -0.00845531 251 64 54
0.0824085 -0.146757 -0.00934828 255 70 61
0.0814239 -0.14764 -0.0102386 251 56 49
