ply
format ascii 1.0
element vertex 1182
property float x
property float y
property float z
property uchar diffuse_red
property uchar diffuse_green
property uchar diffuse_blue
end_header
-0.281694 -0.0443664 0.212531 58 98 43
-0.281614 -0.043513 0.212544 55 95 44
-0.281535 -0.0426616 0.212557 77 119 58
-0.281609 -0.0418088 0.21249 88 134 66
-0.281225 -0.0409687 0.212661 92 135 68
-0.281452 -0.0401144 0.212515 96 139 71
-0.254764 -0.0300883 0.226012 111 170 82
-0.254291 -0.0294209 0.226235 107 169 82
-0.254375 -0.0287007 0.226168 104 169 80
-0.254569 -0.0279689 0.226043 109 178 83
-0.254652 -0.0272489 0.225976 121 186 88
-0.254846 -0.0265164 0.225851 124 185 89
-0.255041 -0.0257832 0.225726 120 178 86
-0.255347 -0.0250355 0.225542 116 171 82
-0.254544 -0.0244296 0.225938 112 164 78
-0.254738 -0.0236985 0.225813 103 153 73
-0.254932 -0.0229667 0.225688 87 136 63
-0.255127 -0.0222343 0.225563 83 136 60
-0.255321 -0.0215012 0.225438 86 143 63
-0.255516 -0.0207676 0.225313 90 151 70
-0.25571 -0.0200334 0.225188 97 159 78
-0.270403 -0.0484888 0.217626 88 119 64
-0.270618 -0.0476772 0.217488 99 144 74
-0.28117 -0.0451923 0.211888 64 102 47
-0.281397 -0.0443341 0.211741 53 94 39
-0.281164 -0.0434814 0.211835 67 106 49
-0.281238 -0.0426266 0.211769 87 131 64
-0.281313 -0.0417723 0.211702 92 136 67
-0.281234 -0.0409228 0.211716 93 137 69
-0.281614 -0.040061 0.211489 96 142 73
-0.281905 -0.0332744 0.211117 122 174 86
-0.253477 -0.0301364 0.225885 112 169 80
-0.252685 -0.0295045 0.226279 107 168 79
-0.252877 -0.0287776 0.226155 104 170 79
-0.25307 -0.0280501 0.226031 110 179 82
-0.253263 -0.0273219 0.225906 121 186 88
-0.253456 -0.0265931 0.225782 125 185 91
-0.253649 -0.0258638 0.225657 121 179 86
-0.254725 -0.0250229 0.225067 117 171 82
-0.254036 -0.0244032 0.225407 111 162 79
-0.25423 -0.0236719 0.225282 102 152 74
-0.254424 -0.0229401 0.225157 90 139 65
-0.254618 -0.0222076 0.225032 94 141 64
-0.254812 -0.0214745 0.224907 95 146 65
-0.270165 -0.0492817 0.216879 86 112 60
-0.270105 -0.0484647 0.216885 99 147 74
-0.270596 -0.047654 0.2166 98 146 72
-0.280566 -0.0451627 0.211258 57 95 44
-0.280793 -0.0443045 0.211111 57 98 44
-0.28102 -0.0434455 0.210963 83 124 58
-0.281094 -0.0425886 0.210897 93 137 67
-0.280862 -0.0417392 0.210993 93 136 69
-0.280937 -0.0408849 0.210927 94 138 70
-0.281011 -0.0400312 0.210861 95 143 73
-0.280477 -0.0391998 0.211116 97 146 74
-0.280173 -0.0341569 0.211118 122 177 87
-0.280851 -0.0332742 0.210732 121 174 85
-0.251986 -0.0302049 0.225875 111 169 79
-0.252178 -0.0294785 0.22575 107 168 78
-0.25237 -0.0287516 0.225626 105 171 79
-0.252563 -0.0280239 0.225501 111 179 84
-0.252756 -0.0272957 0.225376 121 186 89
-0.252948 -0.0265669 0.225252 126 184 89
-0.253141 -0.0258374 0.225127 121 178 86
-0.253335 -0.0251074 0.225002 117 171 83
-0.253528 -0.0243767 0.224877 111 163 80
-0.253721 -0.0236454 0.224751 104 154 75
-0.253915 -0.0229135 0.224626 99 149 71
-0.254109 -0.0221809 0.224501 107 155 75
-0.269376 -0.0500669 0.21642 78 108 53
-0.269591 -0.049254 0.21628 97 144 69
-0.280346 -0.0459905 0.210449 57 99 43
-0.280267 -0.0451317 0.210464 57 95 48
-0.280494 -0.044272 0.210317 75 107 56
-0.280568 -0.0434137 0.210251 92 138 69
-0.280643 -0.0425561 0.210185 96 141 70
-0.280717 -0.041699 0.210119 93 135 69
-0.280486 -0.0408509 0.210216 95 139 71
-0.28056 -0.0399965 0.210151 97 143 72
-0.279725 -0.0391754 0.21057 97 146 72
-0.279124 -0.0375113 0.21084 109 164 82
-0.27905 -0.0366739 0.210853 126 184 93
-0.279126 -0.0358305 0.210787 131 189 92
-0.278755 -0.0350135 0.21096 126 183 88
-0.278979 -0.034164 0.210814 123 177 86
-0.279204 -0.0333138 0.210668 121 173 84
-0.280931 -0.0323564 0.209718 119 169 83
-0.251479 -0.030179 0.225346 112 169 79
-0.251671 -0.0294526 0.225221 107 168 77
-0.251863 -0.0287255 0.225096 107 172 79
-0.252055 -0.0279978 0.224972 113 180 83
-0.252248 -0.0272695 0.224847 122 185 88
-0.252441 -0.0265406 0.224722 127 184 88
-0.25302 -0.0243502 0.224346 113 161 78
-0.253213 -0.0236189 0.22422 108 157 76
-0.253406 -0.0228869 0.224095 105 158 77
-0.2536 -0.0221543 0.223969 108 166 83
-0.253794 -0.0214211 0.223843 108 163 78
-0.268724 -0.0508551 0.215887 69 94 46
-0.268802 -0.0500392 0.215821 94 137 67
-0.269154 -0.0492286 0.215608 102 149 73
-0.280897 -0.0468259 0.20922 60 102 47
-0.279893 -0.0459609 0.209734 57 95 43
-0.279967 -0.0451005 0.209669 65 104 53
-0.280195 -0.0442394 0.209521 89 133 62
-0.280269 -0.0433797 0.209455 93 140 69
-0.280343 -0.0425206 0.20939 95 138 70
-0.280418 -0.0416622 0.209324 93 134 69
-0.280492 -0.0408044 0.209258 96 139 71
-0.280261 -0.039957 0.209357 99 144 71
-0.278525 -0.0391673 0.210268 99 147 72
-0.278302 -0.0383328 0.210363 101 152 75
-0.277636 -0.0375216 0.210697 112 167 83
-0.277859 -0.0366734 0.210551 127 186 93
-0.27764 -0.0358484 0.210644 131 188 92
-0.277275 -0.0350351 0.210816 125 182 88
-0.277499 -0.0341894 0.210671 123 175 85
-0.277722 -0.0333431 0.210525 121 172 84
-0.278833 -0.0324327 0.2099 118 166 82
-0.251164 -0.0294266 0.224692 107 168 77
-0.251356 -0.0286994 0.224567 108 172 79
-0.252511 -0.0243238 0.223815 111 160 79
-0.252704 -0.0235923 0.223689 107 156 77
-0.252898 -0.0228603 0.223564 105 158 76
-0.253091 -0.0221276 0.223438 106 167 79
-0.253285 -0.0213943 0.223312 109 165 77
-0.268287 -0.050831 0.215215 88 123 64
-0.268501 -0.0500174 0.215075 101 144 72
-0.280441 -0.0467968 0.2085 58 97 40
-0.280361 -0.0459304 0.208519 62 103 45
-0.280435 -0.0450652 0.208453 80 121 58
-0.280509 -0.0442007 0.208388 91 137 68
-0.280737 -0.0433346 0.208239 95 139 68
-0.280966 -0.0424678 0.20809 92 133 68
-0.281194 -0.0416003 0.20794 90 132 68
-0.27667 -0.0383454 0.210302 103 154 76
-0.276161 -0.0375317 0.210555 115 170 84
-0.276383 -0.0366875 0.210409 128 188 93
-0.276314 -0.0358583 0.210423 130 188 93
-0.275954 -0.035048 0.210595 124 181 89
-0.276176 -0.0342055 0.21045 124 175 86
-0.27669 -0.0333427 0.210146 121 171 84
-0.277059 -0.032487 0.209921 118 166 81
-0.252003 -0.0242973 0.223284 110 160 78
-0.252196 -0.0235658 0.223158 107 155 75
-0.252389 -0.0228337 0.223032 106 158 75
-0.252582 -0.022101 0.222906 107 165 77
-0.252775 -0.0213676 0.22278 110 166 77
-0.252969 -0.0206336 0.222653 109 167 78
-0.253163 -0.019899 0.222527 106 163 77
-0.267848 -0.0508069 0.214541 98 140 74
-0.279911 -0.0476355 0.207843 60 98 44
-0.279985 -0.0467676 0.207778 61 98 45
-0.280059 -0.0459003 0.207714 74 113 55
-0.280287 -0.0450328 0.207564 88 134 65
-0.280671 -0.0441631 0.207329 94 140 68
-0.2809 -0.0432935 0.207179 95 140 69
-0.281129 -0.0424232 0.207029 82 121 64
-0.275346 -0.0383458 0.210082 106 156 76
-0.274988 -0.0375286 0.210256 117 174 85
-0.275065 -0.0366941 0.21019 127 189 94
-0.274854 -0.0358759 0.210283 127 187 93
-0.2745 -0.0350692 0.210454 124 181 87
-0.274721 -0.0342305 0.210309 123 176 85
-0.275519 -0.0333521 0.209847 120 171 85
-0.27603 -0.0324885 0.209543 118 166 83
-0.277276 -0.0315657 0.208834 108 157 79
-0.251687 -0.0235393 0.222627 106 154 74
-0.25188 -0.0228071 0.222501 105 157 74
-0.252073 -0.0220743 0.222374 107 163 76
-0.252266 -0.0213408 0.222248 110 166 77
-0.252459 -0.0206068 0.222121 108 169 79
-0.252653 -0.0198721 0.221995 108 167 77
-0.252847 -0.0191369 0.221868 107 163 76
-0.266923 -0.0515887 0.214157 100 144 75
-0.267273 -0.0507792 0.213941 102 147 73
-0.279533 -0.0484783 0.2071 62 100 46
-0.279453 -0.047607 0.20712 59 97 46
-0.279527 -0.0467384 0.207056 70 109 53
-0.279756 -0.0458701 0.206906 85 129 63
-0.279984 -0.0450012 0.206756 93 139 68
-0.280213 -0.0441316 0.206605 95 140 68
-0.280597 -0.0432589 0.206369 84 126 61
-0.274176 -0.0383403 0.209785 107 159 78
-0.273251 -0.0375518 0.210275 119 178 87
-0.273471 -0.0367151 0.21013 127 190 93
-0.273265 -0.0359011 0.210222 126 187 89
-0.2732 -0.0350818 0.210236 123 180 84
-0.27342 -0.0342462 0.210091 122 175 84
-0.274068 -0.0333809 0.20971 121 170 85
-0.274718 -0.0325108 0.209326 118 166 83
-0.275517 -0.031625 0.20886 107 156 78
-0.251371 -0.0227805 0.221969 103 156 75
-0.251564 -0.0220476 0.221843 106 161 76
-0.251757 -0.0213141 0.221716 108 164 77
-0.25195 -0.02058 0.221589 109 168 78
-0.252143 -0.0198453 0.221462 110 166 78
-0.252337 -0.0191099 0.221335 109 167 79
-0.25253 -0.0183739 0.221208 108 164 78
-0.252724 -0.0176373 0.221081 106 160 75
-0.265652 -0.0531747 0.213989 45 53 36
-0.266 -0.0523689 0.213773 97 119 61
-0.266348 -0.0515611 0.213558 101 148 74
-0.279229 -0.0484524 0.206289 58 97 42
-0.279457 -0.0475821 0.206138 66 103 48
-0.279069 -0.046709 0.206332 81 124 60
-0.279297 -0.0458401 0.206181 92 137 68
-0.279526 -0.0449704 0.206031 95 139 70
-0.271879 -0.0383822 0.210123 109 161 80
-0.271957 -0.0375552 0.210058 121 179 88
-0.272176 -0.0367216 0.209914 127 189 92
-0.272114 -0.0359029 0.209927 127 185 89
-0.272051 -0.035086 0.20994 125 177 85
-0.27227 -0.0342528 0.209796 123 172 84
-0.273054 -0.0333804 0.209335 121 169 83
-0.273416 -0.032533 0.209111 116 165 81
-0.274782 -0.0316062 0.208325 106 154 77
-0.275873 -0.0306911 0.207692 107 158 78
-0.251054 -0.0220209 0.221311 105 160 77
-0.251247 -0.0212873 0.221184 107 163 77
-0.25144 -0.0205532 0.221057 109 166 78
-0.251633 -0.0198184 0.22093 110 166 80
-0.251826 -0.0190829 0.220802 110 166 80
-0.25202 -0.0183469 0.220675 110 167 78
-0.252213 -0.0176102 0.220547 109 165 76
-0.252407 -0.0168729 0.22042 106 160 74
-0.265078 -0.0531473 0.213391 50 59 39
-0.265426 -0.0523414 0.213175 99 132 68
-0.280011 -0.0484397 0.204862 61 95 44
-0.279072 -0.0466811 0.205346 90 131 64
-0.270516 -0.0392069 0.209973 102 149 75
-0.270734 -0.0383766 0.209829 111 164 79
-0.270952 -0.0375456 0.209685 123 182 88
-0.270891 -0.0367281 0.209699 128 189 92
-0.270691 -0.0359201 0.209791 127 183 89
-0.27077 -0.0350984 0.209725 124 175 85
-0.270988 -0.0342684 0.209581 121 173 83
-0.271905 -0.0333896 0.209042 119 170 82
-0.272265 -0.0325447 0.208818 113 164 80
-0.273476 -0.0316318 0.208113 104 152 76
-0.273983 -0.0307673 0.207805 107 160 81
-0.275502 -0.029812 0.206925 112 167 83
-0.275871 -0.0289491 0.206696 114 169 82
-0.250545 -0.0219942 0.220779 106 160 76
-0.250737 -0.0212606 0.220652 108 161 77
-0.25093 -0.0205264 0.220524 109 163 79
-0.251123 -0.0197915 0.220397 111 164 79
-0.251316 -0.019056 0.220269 111 165 79
-0.251509 -0.0183199 0.220142 110 167 78
-0.251703 -0.0175831 0.220014 110 166 78
-0.251896 -0.0168458 0.219886 110 165 79
-0.25209 -0.0161078 0.219758 107 161 77
-0.265138 -0.0425703 0.212173 89 132 66
-0.26535 -0.0417605 0.212033 93 140 70
-0.266765 -0.0409154 0.211207 98 146 73
-0.267792 -0.0400718 0.210604 100 146 73
-0.268416 -0.0392353 0.210228 102 150 76
-0.269044 -0.0383944 0.209851 114 168 82
-0.26926 -0.0375683 0.209707 125 183 90
-0.269477 -0.0367415 0.209564 128 187 92
-0.269419 -0.0359294 0.209577 127 181 89
-0.26936 -0.0351191 0.20959 124 175 86
-0.269715 -0.0342838 0.209368 121 172 83
-0.270624 -0.0334083 0.20883 118 169 81
-0.27168 -0.0325152 0.208208 112 160 79
-0.272463 -0.0316352 0.207741 103 151 77
-0.273109 -0.0307609 0.207353 110 163 82
-0.274187 -0.0298444 0.206717 114 169 83
-0.274987 -0.0289453 0.206241 115 169 82
-0.2755 -0.0280677 0.205927 114 169 80
-0.250228 -0.0212338 0.220119 109 159 77
-0.25042 -0.0204995 0.219992 109 160 78
-0.250613 -0.0197646 0.219864 111 162 77
-0.250806 -0.019029 0.219736 112 163 78
-0.250999 -0.0182928 0.219609 111 166 78
-0.251192 -0.017556 0.219481 110 167 79
-0.251386 -0.0168186 0.219353 110 167 81
-0.251579 -0.0160805 0.219224 110 167 83
-0.251773 -0.0153418 0.219096 111 165 83
-0.264144 -0.0441599 0.211861 59 100 46
-0.264356 -0.0433515 0.21172 73 115 58
-0.264568 -0.0425423 0.211579 90 140 71
-0.26478 -0.0417324 0.211438 94 140 68
-0.265125 -0.040918 0.211221 98 145 72
-0.266405 -0.0400704 0.210467 100 144 73
-0.26743 -0.0392222 0.209859 102 151 77
-0.267781 -0.0383946 0.209638 117 171 85
-0.268269 -0.0375587 0.209338 126 185 92
-0.268349 -0.0367408 0.209273 128 186 93
-0.268292 -0.0359311 0.209286 127 180 90
-0.268508 -0.0351066 0.209143 124 175 86
-0.268724 -0.0342814 0.208999 120 172 84
-0.269214 -0.0334365 0.208698 117 168 82
-0.270815 -0.0325063 0.207758 111 159 80
-0.271735 -0.0316165 0.207209 102 151 77
-0.272237 -0.0307544 0.206901 109 165 82
-0.27274 -0.029889 0.206592 114 170 82
-0.273818 -0.0289678 0.205952 116 170 81
-0.274615 -0.0280652 0.205473 114 168 80
-0.249718 -0.0212071 0.219587 108 159 75
-0.24991 -0.0204727 0.219459 109 160 76
-0.250103 -0.0197377 0.219331 110 162 76
-0.250295 -0.0190021 0.219203 111 162 78
-0.250488 -0.0182658 0.219075 112 164 79
-0.250681 -0.0175289 0.218947 111 166 81
-0.250875 -0.0167914 0.218819 111 168 83
-0.251068 -0.0160533 0.21869 112 169 84
-0.251261 -0.0153145 0.218562 115 167 83
-0.263363 -0.04494 0.211408 55 98 44
-0.263575 -0.0441321 0.211267 65 106 47
-0.263786 -0.0433235 0.211126 84 128 62
-0.263998 -0.0425142 0.210985 91 140 71
-0.264342 -0.041701 0.210767 94 141 70
-0.264819 -0.0408821 0.210473 98 144 72
-0.26543 -0.0400555 0.2101 101 146 73
-0.266045 -0.0392245 0.209725 104 154 78
-0.267068 -0.0383717 0.209114 120 175 86
-0.267283 -0.0375492 0.20897 128 187 92
-0.267227 -0.0367401 0.208984 129 186 91
-0.267037 -0.0359403 0.209076 126 179 87
-0.267252 -0.0351188 0.208933 123 175 85
-0.267738 -0.0342789 0.208632 120 171 84
-0.268498 -0.0334168 0.208173 117 168 82
-0.269539 -0.0325282 0.20755 111 158 77
-0.270868 -0.0316089 0.20676 105 152 76
-0.271368 -0.030748 0.206451 113 166 81
-0.271869 -0.0298839 0.206141 116 171 83
-0.273226 -0.0289376 0.205335 116 171 83
-0.273734 -0.0280626 0.20502 113 167 81
-0.249208 -0.0211803 0.219055 107 159 77
-0.2494 -0.0204458 0.218927 108 159 77
-0.249593 -0.0197108 0.218799 108 161 76
-0.249785 -0.0189751 0.21867 110 162 78
-0.249978 -0.0182388 0.218542 111 163 79
-0.250171 -0.0175018 0.218414 112 165 82
-0.250363 -0.0167642 0.218285 113 168 84
-0.250557 -0.016026 0.218156 114 169 83
-0.25075 -0.0152872 0.218028 116 170 83
-0.250943 -0.0145478 0.217899 115 169 85
-0.251535 -0.0502986 0.217507 45 56 35
-0.251733 -0.0495404 0.217375 65 72 45
-0.262794 -0.0449121 0.210814 59 97 45
-0.263005 -0.0441042 0.210673 79 120 59
-0.263217 -0.0432955 0.210532 91 136 69
-0.263428 -0.0424862 0.210391 92 136 69
-0.263903 -0.0416696 0.210095 96 142 72
-0.264247 -0.0408538 0.209877 100 146 72
-0.264459 -0.0400407 0.209735 101 149 73
-0.26507 -0.0392114 0.20936 107 157 78
-0.265684 -0.0383778 0.208983 123 179 88
-0.265898 -0.0375589 0.20884 129 187 91
-0.265711 -0.0367603 0.208932 129 184 90
-0.265658 -0.035957 0.208945 126 178 87
-0.265872 -0.0351392 0.208802 122 174 85
-0.266219 -0.0343118 0.208581 119 171 85
-0.267647 -0.0334067 0.207727 116 167 82
-0.268135 -0.0325602 0.207424 110 159 78
-0.269726 -0.0316233 0.206474 106 154 74
-0.270641 -0.03073 0.20592 113 168 81
-0.271281 -0.0298539 0.205527 116 170 81
-0.271924 -0.0289732 0.205133 115 170 81
-0.273141 -0.0280323 0.204401 112 167 79
-0.248698 -0.0211535 0.218522 109 161 76
-0.24889 -0.020419 0.218394 110 161 76
-0.249082 -0.0196839 0.218266 111 162 77
-0.249275 -0.0189481 0.218137 112 163 78
-0.249467 -0.0182117 0.218009 111 164 79
-0.24966 -0.0174747 0.21788 113 165 82
-0.249852 -0.0167371 0.217751 114 166 82
-0.250045 -0.0159988 0.217622 114 168 82
-0.250238 -0.0152599 0.217493 114 171 83
-0.250432 -0.0145204 0.217364 114 171 87
-0.250999 -0.0502728 0.216949 53 67 35
-0.262667 -0.0456902 0.209977 53 97 42
-0.262355 -0.0448834 0.210144 70 111 50
-0.262436 -0.0440763 0.210079 89 131 63
-0.262777 -0.0432654 0.209861 94 137 68
-0.26312 -0.0424527 0.209642 96 136 68
-0.263332 -0.0416414 0.2095 99 142 70
-0.263544 -0.0408295 0.209358 101 147 71
-0.263756 -0.0400169 0.209216 103 151 74
-0.2641 -0.0391984 0.208996 110 159 80
-0.264313 -0.0383838 0.208853 125 181 90
-0.264525 -0.0375685 0.208711 130 186 92
-0.264474 -0.0367665 0.208724 128 183 90
-0.264555 -0.0359586 0.208659 123 178 88
-0.264768 -0.035143 0.208517 120 173 86
-0.265645 -0.0342829 0.207982 119 170 85
-0.266529 -0.0334157 0.207443 116 165 83
-0.267284 -0.0325514 0.206979 110 157 78
-0.267908 -0.031692 0.206594 107 154 75
-0.270054 -0.0307002 0.205308 113 168 83
-0.270692 -0.029824 0.204914 117 170 81
-0.271334 -0.0289432 0.204517 117 170 80
-0.272405 -0.0280159 0.203866 113 166 79
-0.248188 -0.0211267 0.21799 110 160 77
-0.24838 -0.0203922 0.217861 111 160 77
-0.248572 -0.0196569 0.217733 112 161 78
-0.248764 -0.0189211 0.217604 112 161 80
-0.248956 -0.0181847 0.217475 112 163 80
-0.249149 -0.0174476 0.217346 112 165 81
-0.249341 -0.0167099 0.217217 112 164 80
-0.249534 -0.0159715 0.217088 111 165 79
-0.249727 -0.0152326 0.216959 110 167 81
-0.24992 -0.014493 0.216829 111 168 84
-0.250113 -0.0137528 0.2167 113 170 84
-0.25066 -0.0494887 0.216257 93 136 66
-0.262803 -0.0464741 0.208977 59 97 41
-0.262226 -0.045662 0.209303 64 99 48
-0.261915 -0.0448546 0.209472 83 126 64
-0.262126 -0.0440453 0.20933 92 138 68
-0.262338 -0.0432353 0.209188 93 136 67
-0.26268 -0.0424219 0.208969 97 137 70
-0.262891 -0.04161 0.208826 101 143 73
-0.262972 -0.0408013 0.208762 102 147 71
-0.262922 -0.0399976 0.208775 102 151 74
-0.263265 -0.0391803 0.208555 111 164 81
-0.263477 -0.0383669 0.208413 125 184 92
-0.263558 -0.0375591 0.208348 128 186 92
-0.263377 -0.0367656 0.20844 125 183 91
-0.263458 -0.0359601 0.208375 121 177 88
-0.26367 -0.0351469 0.208233 120 173 85
-0.264408 -0.0342981 0.207777 119 170 84
-0.265151 -0.0334435 0.207318 115 163 82
-0.266435 -0.0325425 0.206536 109 156 77
-0.267192 -0.0316735 0.206069 107 156 75
-0.269467 -0.0306704 0.204696 112 168 83
-0.270244 -0.0297817 0.204216 118 171 82
-0.270744 -0.0289131 0.203901 116 171 83
-0.247678 -0.0211 0.217457 112 160 77
-0.24787 -0.0203653 0.217328 112 160 78
-0.248061 -0.01963 0.217199 112 160 79
-0.248253 -0.0188941 0.217071 112 161 80
-0.248445 -0.0181576 0.216941 113 165 78
-0.248637 -0.0174205 0.216812 112 165 79
-0.24883 -0.0166827 0.216683 111 165 78
-0.249022 -0.0159443 0.216554 110 165 78
-0.249215 -0.0152053 0.216424 110 165 80
-0.249408 -0.0144656 0.216295 111 167 81
-0.249601 -0.0137253 0.216165 114 171 83
-0.250041 -0.0502241 0.215763 90 125 62
-0.262412 -0.0472622 0.208284 61 99 44
-0.262492 -0.0464467 0.208221 59 96 45
-0.262441 -0.045632 0.208236 78 119 57
-0.261735 -0.0448239 0.208643 90 137 68
-0.261947 -0.0440127 0.208501 92 139 70
-0.262289 -0.0431987 0.20828 92 136 69
-0.262239 -0.042391 0.208294 96 140 71
-0.26232 -0.0415818 0.20823 100 145 73
-0.26214 -0.0407809 0.208323 101 146 73
-0.262221 -0.0399739 0.208258 103 152 76
-0.262432 -0.0391623 0.208116 114 165 83
-0.262514 -0.0383557 0.208052 127 188 95
-0.262465 -0.037556 0.208066 130 189 95
-0.262286 -0.0367648 0.208157 126 182 92
-0.262109 -0.0359765 0.208249 122 175 88
-0.262969 -0.0351264 0.207716 121 172 84
-0.263442 -0.0342956 0.207416 119 169 81
-0.264049 -0.0334522 0.207036 114 162 79
-0.265857 -0.0325133 0.205933 107 155 76
-0.266747 -0.0316332 0.205383 107 158 75
-0.247168 -0.0210732 0.216924 113 161 78
-0.247359 -0.0203385 0.216795 113 161 78
-0.247551 -0.0196031 0.216666 112 161 79
-0.247742 -0.0188672 0.216537 111 162 79
-0.247934 -0.0181306 0.216408 112 162 79
-0.248126 -0.0173934 0.216278 111 163 78
-0.248318 -0.0166555 0.216149 110 163 77
-0.248511 -0.015917 0.216019 109 163 78
-0.248703 -0.0151779 0.21589 110 164 80
-0.248896 -0.0144382 0.21576 111 166 82
-0.249089 -0.0136979 0.21563 113 171 85
-0.249282 -0.0129569 0.2155 115 171 86
-0.249421 -0.05096 0.215268 83 110 59
-0.249619 -0.0502012 0.215134 96 138 71
-0.261968 -0.0472352 0.207605 56 96 42
-0.262048 -0.046419 0.207541 69 108 51
-0.262129 -0.0456033 0.207478 89 135 64
-0.262341 -0.0447872 0.207334 95 141 68
-0.262159 -0.0439752 0.207429 94 138 69
-0.261978 -0.0431662 0.207524 93 136 68
-0.261928 -0.0423573 0.20754 96 143 71
-0.261618 -0.0415569 0.207713 99 147 72
-0.261439 -0.0407567 0.207806 100 148 73
-0.261262 -0.0399593 0.207899 104 155 76
-0.261343 -0.0391546 0.207835 116 170 83
-0.261425 -0.0383503 0.20777 128 189 96
-0.26112 -0.0375655 0.207941 130 184 92
-0.260945 -0.0367778 0.208032 126 179 88
-0.260899 -0.0359854 0.208045 122 174 86
-0.261494 -0.0351545 0.20767 120 173 83
-0.26248 -0.0342931 0.207057 118 170 80
-0.263083 -0.0334516 0.206677 112 161 77
-0.265547 -0.0324636 0.205167 108 155 75
-0.246658 -0.0210464 0.216391 112 161 78
-0.246849 -0.0203116 0.216262 111 161 78
-0.24704 -0.0195762 0.216133 110 162 78
-0.247232 -0.0188402 0.216004 109 162 79
-0.247423 -0.0181035 0.215874 110 161 79
-0.247615 -0.0173662 0.215744 109 162 78
-0.247807 -0.0166283 0.215615 110 162 77
-0.247999 -0.0158898 0.215485 109 162 77
-0.248191 -0.0151506 0.215355 110 164 77
-0.248384 -0.0144108 0.215225 111 165 78
-0.248577 -0.0136704 0.215095 112 167 81
-0.248769 -0.0129294 0.214964 113 170 86
-0.248962 -0.0121877 0.214834 116 175 90
-0.249029 -0.0517044 0.214633 76 103 51
-0.249226 -0.0509445 0.2145 93 138 67
-0.261311 -0.048024 0.207068 59 97 41
-0.261523 -0.047208 0.206924 61 101 46
-0.261735 -0.0463914 0.206781 84 127 61
-0.261948 -0.0455741 0.206637 93 139 68
-0.26216 -0.0447561 0.206493 96 140 68
-0.261846 -0.0439439 0.20667 95 137 68
-0.261796 -0.0431314 0.206687 94 138 69
-0.261616 -0.0423235 0.206783 97 144 72
-0.261046 -0.0415288 0.207117 98 147 73
-0.260611 -0.0407365 0.207369 99 148 74
-0.260564 -0.0399357 0.207384 106 157 78
-0.260133 -0.039152 0.207633 119 174 86
-0.260215 -0.0383507 0.207569 128 188 95
-0.259915 -0.0375687 0.207739 129 186 92
-0.259743 -0.0367838 0.20783 125 177 87
-0.259952 -0.0359794 0.207688 121 174 87
-0.260416 -0.0351583 0.207391 121 174 85
-0.261009 -0.0343255 0.207014 117 168 82
-0.262122 -0.0334509 0.206319 112 159 77
-0.246338 -0.0202847 0.215729 109 161 78
-0.246529 -0.0195493 0.2156 108 162 79
-0.246721 -0.0188132 0.21547 108 161 79
-0.246912 -0.0180764 0.21534 109 161 77
-0.247104 -0.0173391 0.21521 109 161 77
-0.247296 -0.0166011 0.21508 110 162 77
-0.247487 -0.0158625 0.21495 110 162 76
-0.24768 -0.0151233 0.21482 111 162 77
-0.247872 -0.0143834 0.21469 112 163 78
-0.248064 -0.0136429 0.214559 112 163 80
-0.248257 -0.0129018 0.214429 110 167 82
-0.24845 -0.0121601 0.214298 112 172 86
-0.248642 -0.0114177 0.214168 115 174 88
-0.248719 -0.0516865 0.213933 89 129 60
-0.260916 -0.0488176 0.206369 62 98 39
-0.260866 -0.0479975 0.206387 60 98 42
-0.261078 -0.0471809 0.206243 78 113 56
-0.26129 -0.0463635 0.206099 91 138 70
-0.261634 -0.0455451 0.205873 95 140 72
-0.261847 -0.0447258 0.205729 96 138 68
-0.262059 -0.0439058 0.205584 93 135 68
-0.261614 -0.0430964 0.205845 95 138 69
-0.261695 -0.042281 0.205782 97 144 72
-0.260427 -0.0406963 0.206537 99 149 74
-0.259357 -0.0399304 0.207184 108 160 79
-0.259058 -0.0391444 0.207355 121 178 87
-0.259014 -0.038351 0.207369 129 189 93
-0.258844 -0.0375656 0.207461 129 184 89
-0.258675 -0.0367829 0.207552 124 177 87
-0.258883 -0.0359808 0.207411 121 174 87
-0.25947 -0.0351541 0.207035 121 171 85
-0.259932 -0.0343316 0.206737 117 167 83
-0.260652 -0.0334875 0.20628 110 157 78
-0.245828 -0.0202579 0.215196 107 159 78
-0.246019 -0.0195223 0.215066 107 160 78
-0.24621 -0.0187862 0.214936 108 160 77
-0.246401 -0.0180494 0.214806 109 161 76
-0.246592 -0.0173119 0.214676 110 161 77
-0.246784 -0.0165739 0.214546 111 162 79
-0.246976 -0.0158352 0.214416 110 162 78
-0.247168 -0.0150959 0.214285 111 162 79
-0.24736 -0.014356 0.214155 111 162 80
-0.247552 -0.0136154 0.214024 111 162 81
-0.247744 -0.0128743 0.213893 109 163 81
-0.247937 -0.0121324 0.213762 110 167 82
-0.248129 -0.01139 0.213631 113 170 85
-0.248322 -0.0106469 0.2135 116 171 88
-0.24818 -0.0516607 0.213371 99 139 69
-0.261392 -0.0488061 0.205113 61 98 40
-0.260551 -0.0479724 0.205623 70 110 51
-0.260763 -0.0471545 0.205478 91 136 64
-0.260975 -0.0463358 0.205334 93 140 70
-0.26198 -0.0455139 0.204696 97 140 73
-0.262193 -0.0446902 0.204551 93 133 67
-0.262674 -0.0438624 0.204239 91 132 65
-0.261694 -0.0430567 0.204836 95 139 68
-0.258284 -0.0399205 0.206907 111 163 82
-0.257614 -0.0391521 0.207312 124 181 90
-0.257696 -0.038357 0.207248 129 188 94
-0.257405 -0.0375811 0.207417 128 184 89
-0.25724 -0.0368024 0.207508 123 176 85
-0.257571 -0.035997 0.207289 123 172 83
-0.258402 -0.0351578 0.206759 120 170 84
-0.259114 -0.0343205 0.206304 116 166 84
-0.259957 -0.0334682 0.205767 107 156 81
-0.245317 -0.020231 0.214663 110 160 76
-0.245508 -0.0194954 0.214533 109 160 76
-0.245699 -0.0187592 0.214403 109 160 77
-0.24589 -0.0180223 0.214272 110 160 78
-0.246081 -0.0172848 0.214142 110 160 79
-0.246272 -0.0165467 0.214012 111 162 79
-0.246464 -0.015808 0.213881 109 162 79
-0.246655 -0.0150686 0.21375 110 164 80
-0.246847 -0.0143286 0.21362 111 165 81
-0.247039 -0.013588 0.213489 111 164 81
-0.247231 -0.0128467 0.213358 110 165 80
-0.247424 -0.0121048 0.213227 111 164 79
-0.247616 -0.0113623 0.213095 113 167 81
-0.247809 -0.0106191 0.212964 115 170 83
-0.248002 -0.00987535 0.212833 116 172 87
-0.247445 -0.0523954 0.212944 95 132 67
-0.261127 -0.0496104 0.204321 59 96 41
-0.260943 -0.0487801 0.204425 68 105 47
-0.261024 -0.0479557 0.204362 87 126 59
-0.261369 -0.0471335 0.204133 94 137 66
-0.256844 -0.0399243 0.206867 114 166 85
-0.256307 -0.0391546 0.207192 126 184 93
-0.25639 -0.038363 0.207128 130 188 94
-0.255736 -0.0376089 0.207527 128 183 90
-0.255942 -0.0368149 0.207387 124 177 85
-0.256516 -0.0359983 0.207015 124 174 84
-0.25697 -0.0351854 0.206718 120 170 84
-0.258047 -0.0343266 0.20603 116 166 83
-0.244806 -0.0202041 0.214129 111 160 75
-0.244997 -0.0194684 0.213999 109 159 76
-0.245188 -0.0187321 0.213869 110 159 77
-0.245378 -0.0179952 0.213738 110 160 78
-0.245569 -0.0172577 0.213608 110 161 79
-0.24576 -0.0165195 0.213477 110 162 78
-0.245952 -0.0157807 0.213346 109 163 80
-0.246143 -0.0150412 0.213215 110 164 80
-0.246335 -0.0143012 0.213084 111 164 80
-0.246527 -0.0135605 0.212953 111 164 80
-0.246719 -0.0128192 0.212822 111 165 79
-0.246911 -0.0120772 0.212691 111 164 80
-0.247103 -0.0113346 0.212559 112 164 82
-0.247296 -0.0105914 0.212428 112 167 83
-0.247488 -0.00984754 0.212296 114 172 85
-0.247681 -0.00910304 0.212164 118 176 87
-0.246709 -0.0531297 0.212518 81 112 63
-0.260544 -0.0495822 0.203714 67 98 47
-0.260758 -0.048758 0.203568 81 116 59
-0.260971 -0.0479332 0.203422 92 139 71
-0.255541 -0.0399235 0.206749 116 170 87
-0.255134 -0.0391521 0.206996 128 185 94
-0.255217 -0.0383633 0.206932 131 187 93
-0.254572 -0.0376118 0.20733 128 182 90
-0.254776 -0.0368207 0.20719 124 177 86
-0.255346 -0.0360069 0.206819 122 173 86
-0.255918 -0.035189 0.206445 120 170 87
-0.256616 -0.0343583 0.205992 115 165 82
-0.244486 -0.0194415 0.213465 110 160 75
-0.244676 -0.0187051 0.213335 109 161 77
-0.244867 -0.0179681 0.213204 109 161 79
-0.245058 -0.0172305 0.213073 110 161 80
-0.245249 -0.0164923 0.212942 111 163 82
-0.24544 -0.0157534 0.212811 109 163 81
-0.245631 -0.0150139 0.21268 110 163 79
-0.245822 -0.0142738 0.212549 111 163 80
-0.246014 -0.013533 0.212418 111 163 79
-0.246206 -0.0127916 0.212286 112 164 79
-0.246398 -0.0120496 0.212155 111 164 81
-0.24659 -0.0113069 0.212023 111 163 81
-0.246782 -0.0105636 0.211891 111 165 82
-0.246975 -0.0098197 0.211759 113 168 84
-0.247167 -0.00907513 0.211627 115 172 86
-0.24736 -0.00832994 0.211495 118 174 88
-0.247547 -0.0447155 0.210971 62 105 51
-0.247745 -0.0439522 0.210836 88 136 66
-0.253524 -0.0399495 0.207095 118 173 87
-0.253728 -0.0391597 0.206955 129 186 94
-0.253212 -0.0384025 0.207275 131 186 92
-0.253296 -0.0376209 0.207211 126 181 89
-0.253499 -0.036833 0.207071 123 177 86
-0.253943 -0.03603 0.206778 121 172 86
-0.254751 -0.0352005 0.206251 117 171 87
-0.255565 -0.0343643 0.205721 113 163 82
-0.243975 -0.0194146 0.212932 108 159 77
-0.244165 -0.0186781 0.212801 110 159 76
-0.244355 -0.0179411 0.21267 111 159 76
-0.244546 -0.0172034 0.212539 111 159 78
-0.244737 -0.016465 0.212408 110 159 79
-0.244928 -0.0157261 0.212276 110 161 76
-0.245119 -0.0149865 0.212145 110 163 78
-0.24531 -0.0142463 0.212014 110 164 80
-0.245501 -0.0135055 0.211882 112 164 79
-0.245693 -0.012764 0.21175 113 163 78
-0.245885 -0.0120219 0.211618 111 164 79
-0.246077 -0.0112792 0.211486 111 164 79
-0.246269 -0.0105359 0.211354 110 165 80
-0.246461 -0.00979185 0.211222 110 166 82
-0.246653 -0.00904722 0.21109 112 168 84
-0.246846 -0.00830197 0.210958 114 173 86
-0.247038 -0.00755607 0.210825 118 174 88
-0.246812 -0.0454519 0.210546 61 100 40
-0.247009 -0.0446892 0.21041 71 107 49
-0.247206 -0.0439259 0.210275 91 142 69
-0.247403 -0.0431619 0.210139 97 145 74
-0.252765 -0.0407113 0.206656 106 158 77
-0.252252 -0.0399486 0.206978 120 177 88
-0.252455 -0.0391621 0.206838 129 187 94
-0.252183 -0.0383971 0.207004 129 186 92
-0.252267 -0.0376177 0.206941 125 180 89
-0.25247 -0.036832 0.206801 121 175 85
-0.252911 -0.0360312 0.206508 120 172 85
-0.253592 -0.0352119 0.206059 115 171 85
-0.254884 -0.0343447 0.205216 112 162 79
-0.244412 -0.0199342 0.211793 109 159 79
-0.243464 -0.0193876 0.212398 108 159 78
-0.243654 -0.0186511 0.212267 108 160 76
-0.243844 -0.017914 0.212136 108 160 77
-0.244034 -0.0171762 0.212004 109 161 78
-0.244225 -0.0164378 0.211873 111 161 78
-0.244415 -0.0156988 0.211741 112 160 77
-0.244606 -0.0149592 0.21161 113 162 77
-0.244797 -0.0142189 0.211478 111 162 79
-0.244989 -0.013478 0.211346 112 162 78
-0.24518 -0.0127365 0.211214 113 163 78
-0.245371 -0.0119943 0.211082 112 163 79
-0.245563 -0.0112515 0.21095 110 165 80
-0.245755 -0.0105081 0.210818 110 165 80
-0.245947 -0.00976401 0.210685 109 164 81
-0.246139 -0.00901932 0.210553 110 166 81
-0.246332 -0.00827397 0.21042 112 169 82
-0.246524 -0.00752801 0.210287 115 171 84
-0.246717 -0.00678141 0.210155 118 172 89
-0.246078 -0.0461878 0.210121 61 101 44
-0.246163 -0.0454261 0.210058 59 97 42
-0.246359 -0.0446639 0.209922 85 124 58
-0.246668 -0.0438995 0.209713 94 142 69
-0.246865 -0.0431354 0.209577 99 146 74
-0.247399 -0.0423629 0.209221 100 145 72
-0.250705 -0.0415089 0.207064 100 146 75
-0.250907 -0.0407265 0.206924 108 160 79
-0.251109 -0.0399434 0.206785 122 179 91
-0.251311 -0.0391596 0.206645 129 188 95
-0.25116 -0.0383918 0.206735 128 184 92
-0.251245 -0.0376145 0.206671 124 179 89
-0.251446 -0.036831 0.206532 121 174 86
-0.252002 -0.0360253 0.206162 120 171 84
-0.252561 -0.0352154 0.20579 116 170 82
-0.24381 -0.0206309 0.21132 107 158 79
-0.242763 -0.0200966 0.211995 107 160 79
-0.242952 -0.0193606 0.211864 107 158 79
-0.243142 -0.0186241 0.211733 107 159 78
-0.243332 -0.0178869 0.211601 109 160 78
-0.243522 -0.0171491 0.21147 110 160 78
-0.243713 -0.0164106 0.211338 110 160 77
-0.243903 -0.0156715 0.211206 110 161 76
-0.244094 -0.0149318 0.211074 110 164 78
-0.244285 -0.0141915 0.210942 112 162 80
-0.244476 -0.0134505 0.21081 113 161 79
-0.244667 -0.0127089 0.210678 113 162 79
-0.244858 -0.0119666 0.210546 110 164 81
-0.24505 -0.0112238 0.210413 109 163 81
-0.245241 -0.0104803 0.210281 110 164 80
-0.245433 -0.00973617 0.210148 110 164 80
-0.245625 -0.00899139 0.210016 110 165 80
-0.245817 -0.008246 0.209883 111 166 80
-0.246009 -0.00749995 0.20975 113 169 82
-0.246202 -0.00675329 0.209617 116 172 89
-0.246395 -0.00600596 0.209483 119 174 92
-0.245344 -0.0469232 0.209696 64 105 47
-0.24554 -0.0461616 0.20956 55 95 40
-0.245625 -0.0453999 0.209497 66 106 50
-0.245821 -0.0446376 0.209361 90 137 67
-0.246129 -0.0438731 0.209151 95 141 68
-0.246438 -0.0431069 0.208942 101 147 74
-0.246859 -0.0423363 0.208658 100 146 73
-0.248763 -0.0415211 0.207402 102 149 76
-0.249193 -0.0407377 0.207112 110 165 82
-0.249857 -0.0399426 0.206669 123 183 92
-0.249826 -0.039172 0.206682 129 188 95
-0.249794 -0.0384029 0.206695 127 183 93
-0.249879 -0.0376294 0.206632 123 177 89
-0.25008 -0.0368498 0.206493 121 174 85
-0.25063 -0.036048 0.206124 120 172 83
-0.251653 -0.0352111 0.205446 117 170 81
-0.243519 -0.0212787 0.210642 106 159 80
-0.242062 -0.0208051 0.211593 106 159 80
-0.242251 -0.0200697 0.211461 106 160 79
-0.242441 -0.0193337 0.21133 107 159 79
-0.242631 -0.018597 0.211198 109 159 78
-0.24282 -0.0178598 0.211067 110 160 79
-0.24301 -0.0171219 0.210935 110 160 78
-0.243201 -0.0163834 0.210803 110 160 77
-0.243391 -0.0156442 0.210671 110 162 78
-0.243581 -0.0149044 0.210539 110 162 78
-0.243772 -0.014164 0.210407 113 161 79
-0.243963 -0.013423 0.210274 112 161 80
-0.244154 -0.0126813 0.210142 110 161 79
-0.244345 -0.011939 0.210009 109 161 79
-0.244536 -0.0111961 0.209877 110 161 80
-0.244728 -0.0104525 0.209744 111 164 80
-0.244919 -0.0097083 0.209611 111 164 80
-0.245111 -0.00896348 0.209478 110 163 80
-0.245303 -0.008218 0.209345 111 164 80
-0.245495 -0.00747189 0.209212 111 168 81
-0.245687 -0.00672514 0.209079 114 170 86
-0.24588 -0.00597777 0.208945 118 174 89
-0.235297 -0.0504449 0.215456 88 125 63
-0.244721 -0.0476591 0.209198 69 109 48
-0.244806 -0.046897 0.209135 57 96 40
-0.245002 -0.0461354 0.208999 59 98 42
-0.245087 -0.0453737 0.208936 78 120 56
-0.245394 -0.0446103 0.208726 94 141 70
-0.245591 -0.0438467 0.20859 99 142 71
-0.245899 -0.0430804 0.208379 100 145 73
-0.246431 -0.0423071 0.20802 100 146 72
-0.247305 -0.0415202 0.207435 103 151 76
-0.248302 -0.0407221 0.206769 113 166 83
-0.248846 -0.039933 0.206402 126 184 93
-0.248816 -0.0391645 0.206416 130 189 93
-0.248671 -0.0384031 0.206504 126 183 90
-0.248871 -0.0376262 0.206366 122 177 87
-0.249186 -0.0368421 0.20615 120 174 84
-0.249502 -0.0360563 0.205935 119 171 83
-0.250282 -0.0352378 0.205411 116 169 83
-0.243003 -0.0212517 0.210103 106 160 81
-0.241551 -0.0207783 0.211059 107 160 80
-0.24174 -0.0200428 0.210927 108 160 79
-0.241929 -0.0193067 0.210796 108 160 79
-0.242119 -0.01857 0.210664 109 159 78
-0.242309 -0.0178327 0.210532 109 160 79
-0.242498 -0.0170947 0.2104 109 160 77
-0.242688 -0.0163561 0.210268 109 160 77
-0.242878 -0.0156169 0.210136 109 161 78
-0.243069 -0.0148771 0.210003 111 162 79
-0.243259 -0.0141366 0.209871 113 162 78
-0.24345 -0.0133955 0.209738 111 161 78
-0.24364 -0.0126537 0.209606 110 162 79
-0.243831 -0.0119113 0.209473 111 163 78
-0.244022 -0.0111684 0.20934 112 162 77
-0.244214 -0.0104247 0.209207 113 161 79
-0.244405 -0.00968045 0.209074 111 161 79
-0.244597 -0.00893555 0.208941 110 162 78
-0.244788 -0.00819001 0.208807 110 163 79
-0.24498 -0.00744382 0.208674 110 167 80
-0.245172 -0.00669702 0.20854 111 168 81
-0.245365 -0.00594956 0.208407 117 172 86
-0.245557 -0.00520148 0.208273 120 175 90
-0.234986 -0.0504263 0.214796 94 136 67
-0.244183 -0.0476331 0.208637 59 99 42
-0.244268 -0.0468709 0.208575 56 95 40
-0.244464 -0.0461092 0.208438 67 109 52
-0.24466 -0.0453469 0.208302 90 134 65
-0.244856 -0.0445839 0.208165 95 140 69
-0.245052 -0.0438203 0.208028 100 144 73
-0.245471 -0.0430518 0.207743 99 145 74
-0.245891 -0.0422805 0.207457 102 144 71
-0.2462 -0.0415096 0.207244 107 152 75
-0.247187 -0.0407142 0.206579 116 170 83
-0.247841 -0.0399234 0.206137 126 187 93
-0.247812 -0.0391571 0.20615 129 189 92
-0.24767 -0.0383977 0.206239 125 184 89
-0.247869 -0.037623 0.206101 120 178 88
-0.248182 -0.0368411 0.205885 118 174 88
-0.24861 -0.0360503 0.205594 116 172 86
-0.249155 -0.0352489 0.205224 113 167 81
-0.242487 -0.0212246 0.209564 106 161 80
-0.24104 -0.0207514 0.210525 107 161 80
-0.241229 -0.0200159 0.210393 108 161 80
-0.241418 -0.0192798 0.210262 107 160 80
-0.241607 -0.018543 0.21013 107 160 80
-0.241797 -0.0178056 0.209997 108 160 78
-0.241986 -0.0170675 0.209865 108 159 77
-0.242176 -0.0163289 0.209733 109 159 78
-0.242366 -0.0155896 0.2096 109 160 79
-0.242556 -0.0148497 0.209468 110 162 79
-0.242746 -0.0141091 0.209335 112 163 80
-0.242937 -0.013368 0.209202 111 161 80
-0.243127 -0.0126262 0.209069 111 163 80
-0.243318 -0.0118837 0.208936 111 163 79
-0.243509 -0.0111406 0.208803 111 162 79
-0.2437 -0.0103969 0.20867 111 165 80
-0.243891 -0.00965259 0.208537 111 163 79
-0.244082 -0.00890762 0.208403 110 162 78
-0.244274 -0.00816202 0.20827 109 162 79
-0.244465 -0.00741576 0.208136 108 163 80
-0.244657 -0.00666886 0.208002 110 164 80
-0.244849 -0.00592135 0.207868 113 169 83
-0.245042 -0.0051732 0.207734 115 171 85
-0.245234 -0.00442439 0.2076 116 172 86
-0.234293 -0.0511195 0.214395 92 133 70
-0.244445 -0.0483825 0.207543 61 103 48
-0.243755 -0.0476081 0.208002 55 95 43
-0.243951 -0.0468459 0.207866 62 101 47
-0.244036 -0.046083 0.207803 81 123 60
-0.244121 -0.0453206 0.20774 93 140 70
-0.244317 -0.0445576 0.207603 95 140 70
-0.244624 -0.0437923 0.207392 100 144 73
-0.244931 -0.0430253 0.20718 99 145 73
-0.245127 -0.0422593 0.207042 104 148 74
-0.245547 -0.0414861 0.206755 107 153 76
-0.245856 -0.040714 0.206542 119 174 86
-0.246728 -0.0399183 0.205949 128 189 94
-0.246701 -0.0391546 0.205962 129 188 91
-0.246449 -0.0384033 0.206127 125 180 87
-0.246647 -0.0376318 0.205988 121 175 86
-0.24707 -0.0368466 0.205698 119 171 85
-0.247836 -0.0360372 0.205177 117 169 84
-0.248492 -0.0352291 0.20473 113 164 81
-0.240529 -0.0207246 0.209991 107 160 80
-0.240718 -0.019989 0.209859 107 159 79
-0.240906 -0.0192528 0.209727 107 159 78
-0.241095 -0.0185159 0.209595 107 161 79
-0.241285 -0.0177784 0.209463 107 160 78
-0.241474 -0.0170404 0.20933 108 159 77
-0.241664 -0.0163016 0.209198 109 159 77
-0.241853 -0.0155623 0.209065 110 161 77
-0.242043 -0.0148223 0.208932 110 162 77
-0.242233 -0.0140817 0.208799 111 162 80
-0.242423 -0.0133404 0.208666 111 162 82
-0.242614 -0.0125986 0.208533 111 162 82
-0.242804 -0.011856 0.2084 110 162 80
-0.242995 -0.0111129 0.208266 110 163 79
-0.243186 -0.0103691 0.208133 110 164 79
-0.243377 -0.00962472 0.207999 110 162 79
-0.243568 -0.00887968 0.207866 109 163 78
-0.243759 -0.00813399 0.207732 109 163 78
-0.243951 -0.00738768 0.207598 109 162 79
-0.244142 -0.00664074 0.207464 110 162 78
-0.244334 -0.00589313 0.20733 110 166 78
-0.244526 -0.0051449 0.207195 112 168 80
-0.244718 -0.00439604 0.207061 112 169 82
-0.24491 -0.00364651 0.206926 111 169 82
-0.233601 -0.0518123 0.213994 91 134 67
-0.233785 -0.0510952 0.213865 96 141 71
-0.244014 -0.048358 0.206904 55 97 44
-0.243657 -0.0475862 0.207142 56 98 48
-0.243632 -0.0468207 0.207154 74 114 57
-0.243717 -0.0460568 0.207092 91 134 67
-0.243803 -0.0452933 0.207029 93 140 71
-0.243999 -0.0445291 0.206892 95 142 71
-0.244195 -0.0437643 0.206755 100 145 72
-0.24428 -0.043001 0.206692 101 145 73
-0.244477 -0.0422354 0.206554 103 149 76
-0.244784 -0.041466 0.206341 106 156 77
-0.24498 -0.0406986 0.206203 123 178 88
-0.245511 -0.0399175 0.205838 128 188 95
-0.245374 -0.0391619 0.205927 128 186 93
-0.245349 -0.0384034 0.20594 126 180 88
-0.245546 -0.0376345 0.205802 123 175 86
-0.245966 -0.036852 0.205512 121 172 86
-0.246388 -0.0360667 0.205221 119 168 85
-0.247717 -0.0352171 0.204314 113 162 80
-0.240637 -0.0213023 0.20904 104 159 80
-0.240018 -0.0206978 0.209458 105 160 80
-0.240206 -0.0199621 0.209325 106 159 79
-0.240395 -0.0192258 0.209193 107 158 78
-0.240584 -0.0184889 0.209061 107 160 77
-0.240773 -0.0177513 0.208928 108 160 76
-0.240962 -0.0170132 0.208795 108 161 75
-0.241151 -0.0162744 0.208662 109 161 75
-0.241341 -0.015535 0.208529 110 162 75
-0.24153 -0.0147949 0.208396 111 162 77
-0.24172 -0.0140542 0.208263 111 161 80
-0.24191 -0.0133129 0.20813 110 163 82
-0.2421 -0.012571 0.207997 111 162 81
-0.24229 -0.0118284 0.207863 113 162 80
-0.242481 -0.0110852 0.207729 112 163 79
-0.242672 -0.0103413 0.207596 109 163 78
-0.242862 -0.00959686 0.207462 109 163 78
-0.243053 -0.00885175 0.207328 110 164 77
-0.243244 -0.00810599 0.207194 109 165 78
-0.243436 -0.00735961 0.20706 109 165 79
-0.243627 -0.00661259 0.206925 109 163 78
-0.243819 -0.00586491 0.206791 110 165 76
-0.244011 -0.00511662 0.206656 111 168 79
-0.244202 -0.00436767 0.206522 111 169 81
-0.244395 -0.0036181 0.206387 109 168 81
-0.233104 -0.0525131 0.21346 90 132 61
-0.233287 -0.0517956 0.213331 93 138 67
-0.243831 -0.0491084 0.206097 58 96 43
-0.243805 -0.0483365 0.206111 54 96 43
-0.243668 -0.0475652 0.206201 67 109 53
-0.243643 -0.046797 0.206214 86 130 66
-0.243398 -0.0460305 0.206379 94 139 71
-0.243594 -0.0452652 0.206241 94 139 70
-0.243679 -0.0445005 0.206179 95 142 70
-0.243655 -0.0437378 0.206192 100 146 71
-0.243741 -0.0429745 0.206129 101 147 72
-0.243827 -0.0422116 0.206067 101 150 76
-0.244023 -0.0414459 0.205929 107 161 79
-0.244109 -0.0406833 0.205867 125 181 91
-0.244085 -0.0399255 0.20588 129 187 93
-0.244391 -0.0391545 0.205666 128 185 91
-0.244477 -0.0383927 0.205603 125 179 88
-0.244673 -0.0376254 0.205465 122 175 87
-0.245091 -0.0368445 0.205175 119 172 87
-0.245399 -0.0360677 0.204961 117 169 84
-0.246043 -0.0352664 0.204516 111 161 80
-0.239318 -0.021406 0.209056 107 158 79
-0.239506 -0.0206709 0.208924 106 159 79
-0.239695 -0.0199352 0.208791 107 158 78
-0.239883 -0.0191988 0.208659 108 157 75
-0.240072 -0.0184618 0.208526 108 158 74
-0.24026 -0.0177242 0.208393 107 158 75
-0.240449 -0.016986 0.20826 106 160 75
-0.240639 -0.0162471 0.208127 108 160 76
-0.240828 -0.0155076 0.207994 110 162 77
-0.241017 -0.0147675 0.207861 110 163 78
-0.241207 -0.0140268 0.207727 110 161 80
-0.241397 -0.0132854 0.207594 110 163 81
-0.241587 -0.0125434 0.20746 112 162 80
-0.241777 -0.0118007 0.207326 113 162 79
-0.241967 -0.0110574 0.207192 112 163 78
-0.242157 -0.0103135 0.207058 111 164 78
-0.242348 -0.00956898 0.206924 110 164 78
-0.242539 -0.00882379 0.20679 111 163 77
-0.24273 -0.00807797 0.206656 110 164 79
-0.242921 -0.00733153 0.206521 110 165 79
-0.243112 -0.00658444 0.206387 111 164 78
-0.243303 -0.0058367 0.206252 113 166 77
-0.243495 -0.00508834 0.206118 112 166 78
-0.243687 -0.00433931 0.205983 112 168 80
-0.243879 -0.00358967 0.205848 112 169 80
-0.232983 -0.052506 0.212662 95 139 72
-0.243312 -0.0498556 0.205516 60 97 46
-0.243287 -0.0490821 0.20553 54 95 42
-0.243484 -0.0483134 0.205392 63 104 49
-0.243458 -0.047542 0.205406 82 127 62
-0.243433 -0.0467722 0.205421 94 140 69
-0.243408 -0.0460039 0.205435 95 140 69
-0.243163 -0.0452383 0.205602 95 140 69
-0.243249 -0.0444729 0.205539 96 142 69
-0.243225 -0.0437097 0.205553 100 147 72
-0.242982 -0.0429524 0.205718 100 148 73
-0.242741 -0.0421987 0.205882 101 152 77
-0.242827 -0.0414389 0.20582 109 165 81
-0.242913 -0.0406794 0.205757 125 185 92
-0.242782 -0.039929 0.205845 130 187 92
-0.243413 -0.0391473 0.205406 127 184 89
-0.243608 -0.0383821 0.205268 124 178 87
-0.243804 -0.0376163 0.20513 122 174 87
-0.24411 -0.0368434 0.204916 119 173 86
-0.244637 -0.0360547 0.204549 117 169 83
-0.245055 -0.0352697 0.204257 110 162 79
-0.238807 -0.0213792 0.208522 107 158 79
-0.238995 -0.0206441 0.20839 107 158 79
-0.239183 -0.0199083 0.208257 107 157 78
-0.239371 -0.0191718 0.208124 107 157 77
-0.23956 -0.0184348 0.207991 108 158 77
-0.239748 -0.0176971 0.207858 107 158 79
-0.239937 -0.0169588 0.207725 108 159 78
-0.240126 -0.0162199 0.207592 107 160 78
-0.240315 -0.0154803 0.207458 109 162 78
-0.240504 -0.0147401 0.207325 110 163 78
-0.240694 -0.0139993 0.207191 109 162 78
-0.240883 -0.0132578 0.207057 111 162 80
-0.241073 -0.0125158 0.206923 111 162 79
-0.241263 -0.011773 0.206789 110 163 79
-0.241453 -0.0110297 0.206655 110 164 79
-0.241643 -0.0102857 0.206521 111 164 79
-0.241834 -0.00954111 0.206387 112 166 79
-0.242024 -0.00879586 0.206252 111 164 77
-0.242215 -0.00804997 0.206118 109 166 79
-0.242406 -0.00730344 0.205983 110 168 81
-0.242597 -0.00655626 0.205848 113 170 81
-0.242788 -0.00580848 0.205713 114 169 82
-0.242979 -0.00506003 0.205578 113 166 81
-0.243171 -0.00431096 0.205443 112 164 80
-0.243362 -0.00356121 0.205308 112 163 78
-0.232776 -0.0532244 0.211922 93 137 74
-0.243101 -0.0498374 0.204716 56 95 43
-0.242965 -0.0490601 0.204809 61 98 45
-0.243161 -0.0482903 0.20467 80 121 57
-0.243136 -0.0475177 0.204686 92 138 68
-0.243333 -0.0467477 0.204546 96 142 70
-0.243419 -0.0459771 0.204485 96 141 70
-0.243062 -0.0452094 0.204731 95 140 69
-0.242818 -0.0444453 0.204899 98 144 70
-0.242466 -0.0436866 0.205142 101 147 73
-0.242117 -0.0429326 0.205384 102 149 73
-0.241555 -0.0421886 0.205773 103 155 77
-0.241749 -0.0414286 0.205636 111 169 82
-0.241835 -0.0406718 0.205574 127 188 94
-0.241707 -0.0399239 0.205661 130 188 93
-0.241686 -0.0391737 0.205674 127 183 89
-0.24231 -0.038393 0.205236 123 177 87
-0.242613 -0.037625 0.205023 122 173 86
-0.242917 -0.0368553 0.20481 120 172 85
-0.243767 -0.0360488 0.204215 117 168 82
-0.244514 -0.0352425 0.203692 109 161 79
-0.238108 -0.0220871 0.208121 107 157 79
-0.238296 -0.0213525 0.207988 107 159 79
-0.238483 -0.0206172 0.207856 107 160 78
-0.238671 -0.0198813 0.207723 107 159 77
-0.238859 -0.0191448 0.207589 107 158 75
-0.239048 -0.0184077 0.207456 107 158 76
-0.239236 -0.01767 0.207323 107 159 78
-0.239425 -0.0169316 0.20719 108 157 77
-0.239613 -0.0161926 0.207056 107 159 76
-0.239802 -0.015453 0.206922 108 159 75
-0.239991 -0.0147127 0.206789 109 160 75
-0.24018 -0.0139718 0.206655 110 160 76
-0.24037 -0.0132303 0.206521 111 161 78
-0.240559 -0.0124881 0.206387 110 162 78
-0.240749 -0.0117454 0.206252 108 165 80
-0.240939 -0.011002 0.206118 108 165 80
-0.241129 -0.0102579 0.205984 110 165 79
-0.241319 -0.00951322 0.205849 112 166 79
-0.241509 -0.0087679 0.205714 110 166 78
-0.2417 -0.00802195 0.20558 110 170 80
-0.24189 -0.00727536 0.205445 112 172 83
-0.242081 -0.00652811 0.20531 114 172 84
-0.242272 -0.00578025 0.205175 114 170 83
-0.242463 -0.00503173 0.205039 113 164 80
-0.242655 -0.00428257 0.204904 111 162 79
-0.242846 -0.00353278 0.204769 110 161 78
-0.232556 -0.0532144 0.211183 95 141 72
-0.243137 -0.0506039 0.20374 58 95 41
-0.242555 -0.0498111 0.204148 60 95 43
-0.242752 -0.0490402 0.204008 74 111 53
-0.242838 -0.048267 0.203946 90 134 68
-0.242924 -0.0474944 0.203885 96 141 71
-0.24301 -0.0467221 0.203823 97 141 71
-0.243096 -0.0459504 0.203761 95 139 70
-0.243071 -0.0451797 0.203778 95 141 70
-0.242386 -0.0444177 0.204258 99 144 72
-0.241926 -0.0436602 0.20458 102 147 73
-0.240505 -0.0429283 0.205578 103 149 73
-0.240698 -0.0421705 0.205441 105 157 77
-0.240785 -0.0414153 0.205378 115 172 84
-0.240871 -0.0406604 0.205316 128 188 94
-0.240745 -0.0399146 0.205404 130 188 92
-0.240619 -0.0391712 0.205491 127 182 89
-0.241345 -0.0383878 0.204979 124 177 88
-0.241539 -0.0376277 0.204842 124 173 86
-0.241841 -0.0368606 0.204629 121 171 84
-0.24225 -0.0360848 0.204339 116 166 81
-0.243643 -0.0352382 0.203359 107 158 78
-0.237597 -0.0220604 0.207587 107 157 77
-0.237784 -0.0213257 0.207454 107 158 78
-0.237972 -0.0205903 0.207321 107 158 76
-0.238159 -0.0198544 0.207188 107 158 75
-0.238347 -0.0191178 0.207055 107 158 76
-0.238535 -0.0183807 0.206921 107 158 78
-0.238724 -0.0176428 0.206788 107 159 78
-0.238912 -0.0169044 0.206654 109 158 76
-0.2391 -0.0161653 0.20652 110 159 78
-0.239289 -0.0154256 0.206387 111 160 77
-0.239478 -0.0146853 0.206253 111 160 77
-0.239667 -0.0139444 0.206118 110 160 78
-0.239856 -0.0132028 0.205984 110 162 79
-0.240045 -0.0124606 0.20585 109 163 79
-0.240235 -0.0117177 0.205715 107 164 79
-0.251336 -0.00847474 0.197906 109 166 79
-0.251308 -0.00773173 0.197924 111 166 79
-0.251511 -0.00693509 0.19778 111 166 80
-0.241948 -0.00500342 0.2045 111 164 79
-0.242139 -0.0042542 0.204365 108 161 78
-0.231666 -0.0539019 0.210917 95 143 74
-0.242838 -0.0513663 0.202992 58 97 44
-0.242812 -0.050584 0.20301 58 95 43
-0.242675 -0.0498007 0.203107 66 105 51
-0.242761 -0.0490243 0.203046 86 135 65
-0.242735 -0.0482468 0.203063 94 142 71
-0.242933 -0.0474729 0.202923 96 143 72
-0.24313 -0.0466983 0.202782 97 141 72
-0.242994 -0.0459234 0.202879 96 140 70
-0.242858 -0.0451512 0.202975 97 141 70
-0.243055 -0.0443779 0.202834 100 145 73
-0.24204 -0.0436234 0.203554 101 148 73
-0.239864 -0.0429043 0.205096 102 151 74
-0.239739 -0.0421551 0.205184 107 158 77
-0.239826 -0.041402 0.205122 118 175 86
-0.239807 -0.0406529 0.205135 129 190 95
-0.239788 -0.0399053 0.205148 130 187 91
-0.239665 -0.039164 0.205235 126 182 88
-0.239857 -0.0384092 0.205098 124 177 89
-0.240579 -0.0376245 0.204586 125 173 88
-0.240985 -0.0368531 0.204298 122 171 85
-0.2415 -0.0360719 0.203932 115 165 81
-0.241694 -0.0353093 0.203794 107 156 77
-0.237273 -0.0212989 0.20692 106 158 77
-0.23746 -0.0205635 0.206787 106 157 76
-0.237648 -0.0198275 0.206654 106 156 76
-0.237835 -0.0190909 0.20652 106 157 77
-0.238023 -0.0183536 0.206386 107 158 78
-0.238211 -0.0176157 0.206253 107 158 78
-0.238399 -0.0168772 0.206119 108 160 77
-0.238588 -0.0161381 0.205985 108 159 78
-0.238776 -0.0153983 0.205851 109 159 78
