ply
format ascii 1.0
element vertex 1278
property float x
property float y
property float z
property uchar diffuse_red
property uchar diffuse_green
property uchar diffuse_blue
end_header
-0.2413 0.129115 0.320733 110 154 74
-0.240622 0.129583 0.320727 110 155 75
-0.240056 0.130133 0.320715 109 156 77
-0.240045 0.131103 0.320676 108 157 77
-0.221832 0.129055 0.321095 109 162 77
-0.221321 0.129567 0.321084 111 163 79
-0.220633 0.129925 0.321082 111 163 79
-0.220212 0.130512 0.321066 114 167 82
-0.218964 0.133255 0.32098 124 170 86
-0.217755 0.133138 0.321007 127 163 85
-0.216389 0.132868 0.321043 128 154 84
-0.21597 0.133451 0.321027 124 143 80
-0.215551 0.134035 0.321012 117 131 78
-0.215132 0.13462 0.320996 108 117 75
-0.214713 0.135205 0.320981 100 107 69
-0.241679 0.128386 0.320008 109 154 75
-0.241 0.128855 0.320003 109 152 75
-0.240434 0.129406 0.319992 110 153 75
-0.239979 0.13004 0.319975 108 154 77
-0.218613 0.132935 0.32031 112 165 82
-0.217754 0.133133 0.32032 116 168 87
-0.216217 0.132707 0.320371 119 171 93
-0.215798 0.133291 0.320356 122 178 96
-0.215379 0.133875 0.32034 127 181 95
-0.214959 0.134459 0.320324 132 179 93
-0.21454 0.135044 0.320308 134 171 89
-0.21412 0.135629 0.320292 131 158 86
-0.212017 0.13856 0.320213 53 52 36
-0.240357 0.129311 0.319251 109 153 75
-0.239902 0.129946 0.319233 108 154 75
-0.220172 0.132374 0.319607 107 158 77
-0.21948 0.132731 0.319607 109 156 76
-0.218439 0.132773 0.319631 110 158 76
-0.217581 0.13297 0.319643 110 157 77
-0.216728 0.133167 0.319655 110 158 79
-0.215625 0.13313 0.319684 111 160 79
-0.215206 0.133714 0.319668 114 164 78
-0.214787 0.134298 0.319652 116 169 83
-0.214367 0.134883 0.319636 117 174 91
-0.213947 0.135468 0.31962 120 179 96
-0.213527 0.136053 0.319604 122 180 99
-0.213107 0.136639 0.319588 120 166 93
-0.211844 0.138399 0.319539 52 53 35
-0.219819 0.132054 0.318935 104 157 74
-0.219305 0.132567 0.318925 106 156 75
-0.218177 0.132532 0.318958 106 157 76
-0.217407 0.132808 0.318966 107 156 76
-0.21664 0.133083 0.318974 106 158 77
-0.215453 0.132969 0.319012 107 159 76
-0.215033 0.133553 0.318996 109 157 75
-0.214614 0.134137 0.318979 108 156 75
-0.214194 0.134722 0.318963 108 158 76
-0.213774 0.135307 0.318947 108 160 78
-0.213354 0.135892 0.318931 109 161 78
-0.212934 0.136478 0.318914 114 162 81
-0.212513 0.137064 0.318898 109 146 83
-0.212092 0.137651 0.318882 81 91 65
-0.21167 0.138238 0.318866 61 47 34
-0.219644 0.13189 0.318253 105 152 73
-0.218689 0.132013 0.318276 107 154 75
-0.217916 0.132291 0.318285 106 153 74
-0.217233 0.132646 0.318288 106 155 75
-0.216466 0.132921 0.318298 106 156 76
-0.21528 0.132808 0.31834 106 155 76
-0.214861 0.133392 0.318323 108 156 75
-0.214441 0.133976 0.318307 109 155 74
-0.214021 0.134561 0.31829 107 154 74
-0.213601 0.135146 0.318274 105 155 74
-0.213181 0.135731 0.318258 105 157 73
-0.21276 0.136317 0.318241 109 158 75
-0.21234 0.136903 0.318225 105 148 83
-0.211918 0.13749 0.318208 84 104 76
-0.211497 0.138077 0.318192 61 53 41
-0.21885 0.131183 0.317619 104 151 73
-0.218164 0.13154 0.317623 104 153 74
-0.217481 0.131895 0.317628 103 153 74
-0.216886 0.132328 0.317625 104 154 74
-0.216207 0.132682 0.317629 105 154 74
-0.215107 0.132647 0.317668 105 154 73
-0.214688 0.133231 0.317651 106 153 73
-0.214268 0.133815 0.317634 107 153 73
-0.213849 0.1344 0.317618 107 154 73
-0.213428 0.134985 0.317601 106 154 73
-0.213008 0.13557 0.317584 105 155 75
-0.212587 0.136156 0.317568 109 155 75
-0.212166 0.136742 0.317551 106 144 77
-0.211745 0.137329 0.317534 85 101 67
-0.211324 0.137916 0.317518 63 49 36
-0.218835 0.130201 0.316979 102 150 70
-0.218325 0.130712 0.316969 103 153 71
-0.217729 0.131146 0.316967 103 152 74
-0.217221 0.131656 0.316958 103 152 74
-0.216627 0.132088 0.316955 103 152 73
-0.215354 0.131902 0.317012 104 153 73
-0.214935 0.132486 0.316995 105 153 73
-0.214515 0.13307 0.316978 106 152 73
-0.214096 0.133654 0.316962 106 153 73
-0.213676 0.134239 0.316945 106 154 73
-0.213255 0.134824 0.316928 106 154 74
-0.212835 0.135409 0.316911 105 153 75
-0.212414 0.135995 0.316894 107 153 75
-0.211993 0.136581 0.316877 104 143 76
-0.211572 0.137168 0.31686 87 103 64
-0.21115 0.137755 0.316843 64 53 35
-0.219083 0.12945 0.316318 103 149 72
-0.218399 0.129809 0.316324 102 149 70
-0.21789 0.13032 0.316315 103 151 72
-0.217469 0.130906 0.316298 103 151 73
-0.216874 0.131339 0.316296 103 152 73
-0.216367 0.131849 0.316287 104 151 72
-0.215181 0.131741 0.31634 104 152 73
-0.214762 0.132325 0.316323 104 153 74
-0.214343 0.132909 0.316306 105 152 73
-0.213923 0.133493 0.316289 105 152 74
-0.213503 0.134078 0.316272 105 152 73
-0.213082 0.134663 0.316255 105 152 73
-0.212662 0.135248 0.316238 105 153 75
-0.212241 0.135834 0.31622 106 154 77
-0.21182 0.13642 0.316203 103 144 78
-0.211398 0.137007 0.316186 85 102 65
-0.210977 0.137594 0.316169 64 52 37
-0.218647 0.12906 0.315664 103 151 71
-0.218051 0.129495 0.315664 101 150 71
-0.217543 0.130005 0.315655 103 149 71
-0.217122 0.130591 0.315637 103 150 71
-0.216615 0.131101 0.315628 103 151 72
-0.215428 0.130997 0.315685 105 150 72
-0.215009 0.13158 0.315668 104 150 72
-0.214589 0.132164 0.31565 103 150 73
-0.21417 0.132748 0.315633 104 151 74
-0.21375 0.133332 0.315616 105 152 74
-0.21333 0.133917 0.315599 104 152 74
-0.212909 0.134502 0.315581 105 152 73
-0.212489 0.135087 0.315564 105 153 73
-0.212068 0.135673 0.315547 106 154 75
-0.211646 0.136259 0.315529 103 144 79
-0.211225 0.136846 0.315512 86 103 67
-0.210803 0.137433 0.315495 63 50 36
-0.217704 0.129182 0.315005 102 150 72
-0.217197 0.129691 0.314996 103 149 70
-0.216777 0.130276 0.314978 103 150 70
-0.215674 0.130253 0.31503 103 150 71
-0.215255 0.130836 0.315013 105 149 72
-0.214836 0.131419 0.314995 105 150 72
-0.214417 0.132003 0.314978 103 149 72
-0.213997 0.132587 0.31496 103 150 73
-0.213577 0.133171 0.314943 104 151 73
-0.213157 0.133756 0.314925 103 152 74
-0.212736 0.134341 0.314908 104 152 73
-0.212315 0.134926 0.31489 105 152 71
-0.211894 0.135512 0.314873 106 153 72
-0.211473 0.136098 0.314855 104 145 78
-0.211052 0.136685 0.314838 87 102 66
-0.21063 0.137271 0.31482 63 49 36
-0.217175 0.127764 0.314429 102 152 73
-0.216757 0.128346 0.314411 103 150 73
-0.216339 0.128927 0.314393 103 150 72
-0.215921 0.12951 0.314376 104 150 72
-0.215502 0.130092 0.314358 103 151 72
-0.215083 0.130675 0.314341 103 150 72
-0.214663 0.131258 0.314323 104 151 72
-0.214244 0.131842 0.314305 104 151 71
-0.213824 0.132426 0.314288 103 150 72
-0.213404 0.13301 0.31427 103 150 73
-0.212984 0.133595 0.314252 103 151 74
-0.212563 0.13418 0.314234 103 152 73
-0.212142 0.134765 0.314217 105 153 71
-0.211721 0.135351 0.314199 106 153 74
-0.2113 0.135937 0.314181 103 145 77
-0.210878 0.136523 0.314163 88 104 64
-0.210456 0.13711 0.314146 65 52 36
-0.217003 0.127603 0.313757 103 147 73
-0.216585 0.128185 0.31374 103 149 71
-0.216167 0.128766 0.313722 103 149 72
-0.215748 0.129348 0.313704 104 150 73
-0.215329 0.129931 0.313686 103 151 72
-0.21491 0.130514 0.313668 103 150 72
-0.214491 0.131097 0.31365 102 150 71
-0.214071 0.131681 0.313632 102 151 71
-0.213651 0.132264 0.313615 103 151 71
-0.213231 0.132849 0.313597 103 150 73
-0.212811 0.133433 0.313579 103 151 74
-0.21239 0.134018 0.313561 103 152 73
-0.211969 0.134604 0.313543 104 153 73
-0.211548 0.13519 0.313525 105 153 75
-0.211126 0.135776 0.313507 103 144 77
-0.210705 0.136362 0.313489 88 101 61
-0.210283 0.136949 0.313471 67 54 36
-0.216831 0.127442 0.313086 101 149 72
-0.216413 0.128024 0.313068 99 147 72
-0.215994 0.128605 0.31305 100 149 71
-0.215576 0.129187 0.313032 102 148 71
-0.215157 0.12977 0.313014 102 148 69
-0.214738 0.130353 0.312996 104 147 69
-0.214318 0.130936 0.312978 102 147 71
-0.213898 0.131519 0.31296 102 150 73
-0.213478 0.132103 0.312941 102 151 72
-0.213058 0.132688 0.312923 101 150 73
-0.212638 0.133272 0.312905 103 150 74
-0.212217 0.133857 0.312887 103 151 74
-0.211796 0.134443 0.312869 103 150 74
-0.211375 0.135028 0.312851 105 151 74
-0.210953 0.135615 0.312833 104 144 75
-0.210531 0.136201 0.312814 90 98 60
-0.210109 0.136788 0.312796 66 47 36
-0.216659 0.127281 0.312414 98 141 66
-0.21624 0.127862 0.312396 96 143 68
-0.215822 0.128444 0.312378 96 144 67
-0.215403 0.129026 0.31236 97 145 70
-0.214984 0.129609 0.312341 97 145 71
-0.214565 0.130191 0.312323 99 147 68
-0.214145 0.130775 0.312305 98 147 69
-0.213726 0.131358 0.312287 99 145 71
-0.213305 0.131942 0.312268 100 147 72
-0.212885 0.132526 0.31225 100 149 74
-0.212465 0.133111 0.312232 101 150 73
-0.212044 0.133696 0.312213 102 149 73
-0.211623 0.134281 0.312195 102 148 73
-0.211201 0.134867 0.312176 104 149 73
-0.21078 0.135453 0.312158 104 143 75
-0.210358 0.13604 0.31214 89 96 61
-0.209935 0.136627 0.312121 62 46 38
-0.216486 0.12712 0.311743 92 133 61
-0.216068 0.127701 0.311724 91 134 63
-0.215649 0.128283 0.311706 92 135 64
-0.215231 0.128865 0.311687 92 137 65
-0.214812 0.129448 0.311669 93 139 66
-0.214392 0.13003 0.311651 94 140 66
-0.213973 0.130614 0.311632 94 141 67
-0.213553 0.131197 0.311613 94 142 68
-0.213133 0.131781 0.311595 95 142 68
-0.212712 0.132365 0.311576 95 143 68
-0.212291 0.13295 0.311558 95 144 70
-0.21187 0.133535 0.311539 97 144 71
-0.211449 0.13412 0.311521 99 146 72
-0.211028 0.134706 0.311502 100 147 72
-0.210606 0.135292 0.311483 99 141 75
-0.210184 0.135879 0.311465 86 95 61
-0.209762 0.136465 0.311446 62 44 38
-0.216314 0.126959 0.311071 84 124 58
-0.215896 0.12754 0.311053 84 124 58
-0.215477 0.128122 0.311034 85 127 57
-0.215058 0.128704 0.311015 86 129 60
-0.214639 0.129286 0.310996 86 130 60
-0.214219 0.129869 0.310978 88 131 60
-0.2138 0.130452 0.310959 89 132 61
-0.21338 0.131036 0.31094 90 134 63
-0.21296 0.13162 0.310922 90 134 64
-0.212539 0.132204 0.310903 91 135 64
-0.212118 0.132789 0.310884 92 137 64
-0.211697 0.133374 0.310865 93 139 65
-0.211276 0.133959 0.310846 95 139 67
-0.210854 0.134545 0.310828 95 140 69
-0.210433 0.135131 0.310809 94 135 72
-0.210011 0.135717 0.31079 78 90 60
-0.209588 0.136304 0.310771 55 47 42
-0.216142 0.126798 0.310399 75 117 55
-0.215723 0.127379 0.310381 76 116 54
-0.215305 0.127961 0.310362 76 118 54
-0.214886 0.128543 0.310343 78 118 56
-0.214466 0.129125 0.310324 78 122 56
-0.214047 0.129708 0.310305 79 123 56
-0.213627 0.130291 0.310286 80 123 57
-0.213207 0.130875 0.310267 82 124 58
-0.212787 0.131458 0.310248 84 124 60
-0.212366 0.132043 0.310229 86 125 59
-0.211945 0.132627 0.31021 86 126 58
-0.211524 0.133212 0.310191 87 128 59
-0.211103 0.133798 0.310172 87 129 62
-0.210681 0.134383 0.310153 89 131 65
-0.210259 0.13497 0.310134 88 125 67
-0.209837 0.135556 0.310115 72 86 54
-0.209415 0.136143 0.310096 51 46 35
-0.215969 0.126636 0.309728 68 110 52
-0.215551 0.127218 0.309708 70 109 51
-0.215132 0.127799 0.309689 71 108 51
-0.214713 0.128381 0.30967 71 108 53
-0.214294 0.128964 0.309651 70 111 55
-0.213874 0.129547 0.309632 71 114 55
-0.213454 0.13013 0.309613 72 114 55
-0.213034 0.130713 0.309594 74 113 54
-0.212614 0.131297 0.309574 76 114 55
-0.212193 0.131881 0.309555 78 116 55
-0.211772 0.132466 0.309536 77 118 54
-0.211351 0.133051 0.309517 77 118 55
-0.210929 0.133636 0.309498 80 119 57
-0.210508 0.134222 0.309478 83 120 58
-0.210086 0.134808 0.309459 81 113 64
-0.209663 0.135395 0.30944 66 76 50
-0.209241 0.135981 0.309421 49 45 33
-0.215378 0.127056 0.309036 65 103 49
-0.214959 0.127638 0.309017 65 103 48
-0.21454 0.12822 0.308998 66 102 51
-0.214121 0.128803 0.308978 65 104 53
-0.213701 0.129385 0.308959 65 105 54
-0.213281 0.129969 0.30894 67 107 54
-0.212861 0.130552 0.30892 68 106 53
-0.21244 0.131136 0.308901 70 106 52
-0.21202 0.13172 0.308881 71 108 51
-0.211599 0.132305 0.308862 70 109 51
-0.211177 0.13289 0.308843 70 110 52
-0.210756 0.133475 0.308823 72 111 53
-0.210334 0.134061 0.308804 77 112 55
-0.209912 0.134647 0.308784 73 100 60
-0.20949 0.135233 0.308765 55 68 49
-0.209067 0.13582 0.308745 42 47 34
-0.214787 0.127477 0.308344 62 99 46
-0.214368 0.128059 0.308325 63 99 48
-0.213948 0.128641 0.308305 63 99 48
-0.213528 0.129224 0.308286 62 99 50
-0.213108 0.129807 0.308266 64 101 51
-0.212688 0.130391 0.308247 65 100 51
-0.212267 0.130975 0.308227 65 100 51
-0.211847 0.131559 0.308207 66 102 49
-0.211425 0.132143 0.308188 66 102 49
-0.211004 0.132728 0.308168 65 103 51
-0.210582 0.133314 0.308148 67 104 52
-0.210161 0.133899 0.308129 74 106 55
-0.209738 0.134486 0.308109 66 86 53
-0.209316 0.135072 0.308089 48 60 42
-0.208893 0.135659 0.30807 42 50 34
-0.214614 0.127316 0.307672 62 96 45
-0.214195 0.127898 0.307652 61 97 46
-0.213775 0.12848 0.307632 61 96 45
-0.213355 0.129063 0.307612 60 96 47
-0.212935 0.129646 0.307593 61 97 48
-0.212515 0.130229 0.307573 62 96 47
-0.212094 0.130813 0.307553 62 97 48
-0.211673 0.131398 0.307533 62 97 46
-0.211252 0.131982 0.307513 63 97 47
-0.210831 0.132567 0.307494 62 97 49
-0.210409 0.133152 0.307474 65 100 51
-0.209987 0.133738 0.307454 70 101 55
-0.209565 0.134324 0.307434 61 75 46
-0.209142 0.134911 0.307414 48 52 34
-0.214861 0.126573 0.307019 62 96 43
-0.214442 0.127154 0.306999 61 95 45
-0.214022 0.127736 0.306979 59 96 45
-0.213603 0.128319 0.306959 59 97 44
-0.213183 0.128901 0.306939 60 94 45
-0.212762 0.129485 0.306919 60 94 47
-0.212342 0.130068 0.306899 61 94 46
-0.211921 0.130652 0.306879 61 95 45
-0.2115 0.131236 0.306859 61 94 43
-0.211079 0.131821 0.306839 62 94 43
-0.210657 0.132406 0.306819 61 96 48
-0.210236 0.132991 0.306799 64 100 52
-0.209814 0.133577 0.306779 64 92 55
-0.209391 0.134163 0.306759 55 62 42
-0.208969 0.134749 0.306739 50 46 31
-0.214688 0.126411 0.306346 61 96 45
-0.214269 0.126993 0.306326 61 94 44
-0.21385 0.127575 0.306306 60 95 45
-0.21343 0.128157 0.306286 60 94 43
-0.21301 0.12874 0.306266 61 93 42
-0.212589 0.129323 0.306245 60 94 45
-0.212169 0.129907 0.306225 60 93 47
-0.211748 0.130491 0.306205 59 94 46
-0.211327 0.131075 0.306185 61 94 44
-0.210906 0.131659 0.306165 61 94 46
-0.210484 0.132244 0.306144 62 96 50
-0.210062 0.13283 0.306124 65 98 54
-0.20964 0.133415 0.306104 58 76 49
-0.209218 0.134001 0.306083 50 53 37
-0.284249 0.115718 0.300487 51 109 47
-0.283724 0.116446 0.300462 57 113 49
-0.283703 0.117437 0.300365 67 111 48
-0.283344 0.118257 0.300316 75 112 46
-0.278327 0.122656 0.300327 37 96 28
-0.277152 0.123019 0.300395 38 96 28
-0.275825 0.123288 0.300487 39 95 27
-0.275143 0.123922 0.300485 37 96 27
-0.214516 0.12625 0.305674 61 97 50
-0.214096 0.126832 0.305653 62 95 48
-0.213677 0.127414 0.305633 60 95 52
-0.213257 0.127996 0.305613 60 95 50
-0.212837 0.128579 0.305592 60 95 50
-0.212416 0.129162 0.305572 61 96 45
-0.211996 0.129745 0.305551 60 93 45
-0.211575 0.130329 0.305531 60 95 45
-0.211154 0.130913 0.30551 59 95 48
-0.210732 0.131498 0.30549 60 95 52
-0.210311 0.132083 0.305469 65 97 54
-0.209889 0.132668 0.305449 64 88 54
-0.209466 0.133254 0.305428 54 65 39
-0.209044 0.13384 0.305408 49 49 29
-0.284237 0.113632 0.299802 38 90 26
-0.283047 0.11402 0.299872 36 89 24
-0.283025 0.114997 0.299775 33 90 25
-0.282669 0.115807 0.299725 35 91 26
-0.282812 0.116879 0.299602 43 90 28
-0.282621 0.117783 0.299527 49 88 30
-0.282262 0.118602 0.299477 45 93 35
-0.281734 0.119334 0.299451 45 100 49
-0.28104 0.119976 0.29945 47 106 55
-0.280182 0.120528 0.299473 51 111 59
-0.279326 0.121078 0.299496 54 110 54
-0.278799 0.121808 0.29947 48 103 40
-0.277946 0.122356 0.299493 44 99 31
-0.276613 0.122629 0.299589 40 98 26
-0.275608 0.123081 0.299635 36 96 25
-0.274926 0.123716 0.299634 33 95 26
-0.274087 0.124257 0.299656 29 95 25
-0.273407 0.124889 0.299655 27 94 25
-0.271639 0.124875 0.29982 26 92 23
-0.270505 0.125227 0.299889 25 90 21
-0.269987 0.125945 0.299863 27 90 23
-0.214343 0.126089 0.305001 62 97 52
-0.213924 0.12667 0.30498 64 96 47
-0.213504 0.127252 0.30496 61 96 53
-0.213084 0.127835 0.304939 63 95 51
-0.212664 0.128417 0.304918 63 95 52
-0.212243 0.129 0.304898 62 94 48
-0.211823 0.129584 0.304877 61 95 48
-0.211402 0.130168 0.304857 61 96 48
-0.21098 0.130752 0.304836 61 97 50
-0.210559 0.131336 0.304815 61 95 54
-0.210137 0.131921 0.304794 65 94 57
-0.209715 0.132507 0.304774 58 65 49
-0.209293 0.133092 0.304753 49 52 38
-0.285233 0.112059 0.298975 47 84 33
-0.283872 0.112369 0.299073 48 87 35
-0.283185 0.113008 0.299071 46 88 32
-0.282665 0.113729 0.299046 41 89 29
-0.282144 0.114451 0.29902 37 91 28
-0.282119 0.115428 0.29892 34 93 28
-0.281762 0.116239 0.298869 33 93 26
-0.28157 0.117138 0.298793 31 93 24
-0.281709 0.118216 0.298667 28 90 23
-0.281183 0.118947 0.298641 30 89 25
-0.280325 0.119499 0.298665 28 89 23
-0.279634 0.120139 0.298664 29 89 22
-0.278944 0.120779 0.298663 33 89 22
-0.278581 0.121599 0.298612 33 88 21
-0.277891 0.122239 0.298611 31 88 20
-0.277202 0.122878 0.29861 30 91 22
-0.275871 0.123148 0.298709 30 94 26
-0.274868 0.1236 0.298758 29 94 27
-0.274186 0.124235 0.298756 28 94 27
-0.27319 0.124683 0.298805 30 93 26
-0.271424 0.12467 0.298975 30 91 23
-0.270597 0.125206 0.298998 29 89 21
-0.269772 0.125741 0.299021 37 92 24
-0.269102 0.126367 0.29902 49 99 31
-0.215098 0.126735 0.304154 59 95 51
-0.214676 0.12732 0.304134 64 95 49
-0.215791 0.129268 0.303823 62 97 52
-0.21519 0.129708 0.303834 64 94 52
-0.213743 0.129383 0.304007 63 96 52
-0.213318 0.129972 0.303986 63 96 50
-0.212893 0.130561 0.303964 63 94 52
-0.212384 0.131074 0.303959 64 95 52
-0.21171 0.131432 0.303987 64 95 53
-0.210385 0.131175 0.30414 64 96 57
-0.209964 0.13176 0.304119 58 70 49
-0.209541 0.132345 0.304099 52 49 35
-0.281407 0.114966 0.298143 58 85 35
-0.280885 0.115689 0.298116 54 90 34
-0.280364 0.116412 0.29809 48 94 29
-0.280663 0.117569 0.297936 35 93 27
-0.280633 0.118561 0.297833 29 90 25
-0.279942 0.119201 0.297832 29 90 24
-0.279416 0.119931 0.297806 29 90 21
-0.278889 0.12066 0.297779 30 90 19
-0.278526 0.121481 0.297727 29 88 20
-0.278161 0.122304 0.297675 27 87 21
-0.277308 0.122853 0.2977 25 88 20
-0.276457 0.1234 0.297726 24 89 21
-0.275769 0.124038 0.297725 23 89 24
-0.274603 0.124397 0.297802 23 88 22
-0.273445 0.124754 0.297878 30 90 23
-0.272451 0.125202 0.297929 36 92 27
-0.270689 0.125185 0.298105 38 96 30
-0.269863 0.125721 0.298129 54 103 36
-0.268887 0.126163 0.298178 67 114 46
-0.215618 0.130082 0.30303 63 94 53
-0.214758 0.130291 0.303093 62 92 52
-0.214158 0.13073 0.303105 62 95 50
-0.213645 0.131247 0.303101 62 94 52
-0.213132 0.131762 0.303096 64 95 55
-0.212619 0.132278 0.303091 59 88 55
-0.211524 0.132246 0.303203 48 67 48
-0.210522 0.132292 0.303297 46 47 36
-0.280862 0.11459 0.297343 53 50 30
-0.280505 0.115396 0.297291 50 60 32
-0.279984 0.116119 0.297264 56 78 34
-0.279625 0.116928 0.297212 46 95 34
-0.279756 0.118001 0.29708 37 94 27
-0.279396 0.118816 0.297027 31 93 23
-0.279034 0.119633 0.296974 32 92 26
-0.278671 0.120452 0.296921 32 91 25
-0.278471 0.121363 0.296841 31 92 25
-0.27827 0.122278 0.296761 28 90 25
-0.277577 0.122919 0.296761 26 89 23
-0.276885 0.12356 0.296761 25 89 21
-0.276195 0.1242 0.296761 23 87 21
-0.275505 0.12484 0.296761 22 86 19
-0.27386 0.124918 0.29692 26 87 20
-0.272704 0.125274 0.296999 35 92 28
-0.271711 0.12572 0.297052 44 103 39
-0.270261 0.125886 0.297182 64 112 46
-0.269433 0.126422 0.297207 75 125 56
-0.268154 0.126677 0.29731 75 127 57
-0.218091 0.125458 0.302562 62 97 50
-0.217576 0.125976 0.302557 60 96 53
-0.216132 0.129552 0.302311 61 97 53
-0.215441 0.129917 0.302341 62 96 52
-0.215011 0.130513 0.302319 62 96 53
-0.214409 0.130954 0.302332 61 95 53
-0.213979 0.13155 0.302311 67 97 55
-0.213379 0.131989 0.302324 62 80 49
-0.212864 0.132506 0.302319 56 55 35
-0.212098 0.132787 0.302367 47 49 31
-0.280125 0.115104 0.296466 46 59 35
-0.279767 0.115912 0.296413 58 65 35
-0.279245 0.116635 0.296386 55 102 49
-0.279049 0.117532 0.296306 40 98 32
-0.279014 0.11852 0.296198 35 94 25
-0.278652 0.119336 0.296144 36 93 25
-0.278453 0.120243 0.296062 36 94 26
-0.278744 0.121426 0.295898 36 94 26
-0.278872 0.122528 0.29576 34 93 27
-0.277848 0.122987 0.295816 31 92 26
-0.277317 0.123722 0.295789 29 91 23
-0.276786 0.124458 0.295762 28 89 22
-0.276092 0.1251 0.295763 24 88 21
-0.274917 0.125458 0.295846 25 88 20
-0.272801 0.125253 0.296093 34 91 26
-0.272119 0.125887 0.296093 50 106 43
-0.271593 0.126615 0.296066 68 116 49
-0.269218 0.126217 0.296361 78 127 57
-0.218519 0.124849 0.301863 61 95 47
-0.217915 0.125293 0.301876 59 94 49
-0.2174 0.125811 0.301872 59 98 51
-0.217061 0.126478 0.301832 59 97 46
-0.216391 0.129773 0.301531 62 94 50
-0.215524 0.129984 0.301598 61 97 52
-0.215093 0.130581 0.301576 62 97 53
-0.214662 0.131178 0.301554 67 96 54
-0.214144 0.131698 0.30155 63 90 55
-0.213627 0.132217 0.301546 56 64 35
-0.213026 0.132657 0.30156 50 44 30
-0.279746 0.114813 0.295643 55 51 27
-0.279388 0.115619 0.295589 65 63 36
-0.278507 0.117151 0.295508 55 103 42
-0.278146 0.117962 0.295453 48 98 32
-0.277785 0.118775 0.295398 42 97 31
-0.278071 0.119945 0.295232 38 97 30
-0.279348 0.121672 0.294893 37 96 27
-0.279645 0.122872 0.294722 35 94 26
-0.278449 0.12324 0.29481 33 93 26
-0.277916 0.123978 0.294782 31 92 23
-0.277218 0.124623 0.294783 31 90 23
-0.276197 0.125078 0.294842 26 89 24
-0.275341 0.125626 0.294871 25 89 22
-0.274168 0.125983 0.294958 36 91 25
-0.273638 0.126717 0.29493 57 107 43
-0.218343 0.124684 0.301176 59 96 43
-0.217739 0.125129 0.30119 60 94 45
-0.217312 0.125721 0.301168 58 94 46
-0.216797 0.126238 0.301164 58 95 39
-0.216457 0.126905 0.301124 60 94 47
-0.21691 0.12924 0.300805 61 91 43
-0.216301 0.129685 0.300819 60 92 44
-0.215868 0.130284 0.300797 59 93 45
-0.215436 0.130883 0.300775 62 95 47
-0.215002 0.131484 0.300752 67 95 54
-0.214483 0.132005 0.300749 52 62 40
-0.213963 0.132526 0.300745 44 48 27
-0.279367 0.114522 0.294822 53 57 28
-0.278847 0.115243 0.294794 59 57 34
-0.279924 0.12294 0.293763 42 97 30
-0.279055 0.123495 0.293794 33 94 26
-0.278354 0.124143 0.293796 31 92 24
-0.277654 0.124789 0.293798 30 90 23
-0.276627 0.125246 0.293859 28 90 23
-0.275444 0.125605 0.293949 27 90 22
-0.274589 0.126153 0.293979 33 92 26
-0.274057 0.12689 0.293952 55 107 43
-0.217651 0.125038 0.300485 62 92 41
-0.217136 0.125556 0.300482 57 92 39
-0.216621 0.126074 0.300478 58 93 40
-0.216194 0.126666 0.300456 58 91 43
-0.216026 0.127484 0.300378 60 91 41
-0.216643 0.128996 0.300129 59 89 38
-0.216298 0.129673 0.300088 60 92 43
-0.215865 0.130273 0.300065 59 93 41
-0.215432 0.130874 0.300043 66 98 49
-0.214998 0.131475 0.30002 60 80 50
-0.214564 0.132076 0.299998 50 46 30
-0.279152 0.114315 0.293972 51 53 30
-0.278631 0.115036 0.293945 53 55 37
-0.279165 0.123471 0.292862 47 103 35
-0.278629 0.124213 0.292833 39 96 28
-0.277597 0.124672 0.292897 32 94 25
-0.276897 0.125319 0.292899 30 91 22
-0.275385 0.12549 0.293052 27 91 19
-0.274852 0.126228 0.293024 29 93 25
-0.216903 0.11974 0.300486 61 96 38
-0.216485 0.120318 0.300464 59 97 43
-0.21696 0.125391 0.299795 58 92 42
-0.216445 0.125909 0.299792 60 93 39
-0.216018 0.126501 0.299769 59 93 38
-0.215849 0.127319 0.29969 60 90 39
-0.216465 0.12883 0.299436 59 90 36
-0.21612 0.129507 0.299393 59 90 42
-0.215774 0.130185 0.299351 61 92 42
-0.215427 0.130864 0.299309 70 97 53
-0.214993 0.131466 0.299286 56 65 36
-0.214558 0.132068 0.299263 48 44 23
-0.278415 0.114829 0.293095 53 52 36
-0.276852 0.116994 0.293012 107 168 81
-0.27633 0.117716 0.292984 102 162 74
-0.275807 0.118439 0.292957 99 160 73
-0.278739 0.12419 0.291897 57 109 40
-0.278201 0.124935 0.291869 41 99 31
-0.277168 0.125393 0.291934 32 93 23
-0.276303 0.125945 0.291968 26 92 20
-0.217148 0.119001 0.299837 61 98 40
-0.216731 0.119579 0.299815 61 96 40
-0.216313 0.120157 0.299793 60 97 40
-0.215895 0.120736 0.29977 60 95 37
-0.216697 0.125152 0.299128 59 93 44
-0.216269 0.125744 0.299105 60 93 41
-0.216015 0.126486 0.299044 60 92 40
-0.215933 0.12738 0.298943 60 91 41
-0.216375 0.128741 0.298722 60 92 39
-0.216117 0.129495 0.298659 60 92 43
-0.215771 0.130174 0.298616 63 94 47
-0.215336 0.130776 0.298593 66 94 55
-0.214901 0.131378 0.29857 53 51 29
-0.278199 0.114622 0.292245 50 52 34
-0.276315 0.116616 0.292222 109 170 81
-0.275794 0.117337 0.292194 104 165 75
-0.275591 0.118232 0.292106 101 163 75
-0.217393 0.118261 0.299188 61 101 43
-0.216976 0.118839 0.299165 60 98 43
-0.216558 0.119417 0.299143 60 96 41
-0.216141 0.119995 0.299121 61 98 39
-0.215723 0.120574 0.299098 60 96 38
-0.216521 0.124988 0.298442 60 93 42
-0.216093 0.125579 0.298419 59 94 43
-0.215839 0.126321 0.298356 59 94 44
-0.216279 0.12767 0.298132 61 91 39
-0.216372 0.128728 0.297986 61 92 38
-0.216026 0.129406 0.297943 62 94 40
-0.215592 0.130007 0.297919 67 101 52
-0.215157 0.130609 0.297896 57 78 53
-0.214809 0.13129 0.297852 48 44 33
-0.277822 0.114332 0.291426 47 52 34
-0.274786 0.116702 0.291499 98 158 75
-0.275057 0.117852 0.291316 92 153 72
-0.227629 0.115947 0.297493 83 135 69
-0.227005 0.116407 0.297512 90 144 77
-0.226573 0.117005 0.297489 97 155 83
-0.217221 0.1181 0.298516 60 99 42
-0.216804 0.118678 0.298494 60 98 44
-0.216386 0.119255 0.298471 61 97 41
-0.215968 0.119834 0.298448 60 98 41
-0.21555 0.120412 0.298426 62 95 37
-0.216258 0.124749 0.297776 60 94 37
-0.215831 0.125341 0.297753 59 94 44
-0.215749 0.12623 0.297648 60 92 43
-0.216276 0.127656 0.297398 61 92 37
-0.216282 0.128638 0.29727 61 93 36
-0.215935 0.129317 0.297226 62 94 42
-0.2155 0.129918 0.297202 70 103 54
-0.215065 0.130521 0.297179 55 62 47
-0.214717 0.131202 0.297134 44 42 35
-0.276605 0.114594 0.290643 49 55 38
-0.273474 0.115904 0.290872 85 132 68
-0.272958 0.116619 0.290844 78 131 64
-0.272751 0.117505 0.290753 69 128 62
-0.227883 0.115181 0.296819 76 122 63
-0.227451 0.115779 0.296795 83 131 67
-0.226826 0.116239 0.296814 90 142 75
-0.226299 0.116767 0.296812 96 152 80
-0.225581 0.117155 0.296853 98 155 84
-0.217049 0.117938 0.297845 61 99 43
-0.216632 0.118516 0.297822 61 98 43
-0.216214 0.119094 0.297799 60 98 40
-0.215796 0.119672 0.297776 59 97 41
-0.215378 0.120251 0.297753 62 96 36
-0.216771 0.124213 0.297051 60 95 40
-0.216256 0.124732 0.297049 61 95 35
-0.215914 0.125398 0.297004 60 94 44
-0.215659 0.12614 0.296939 60 91 44
-0.216274 0.127642 0.296662 60 93 41
-0.216191 0.128548 0.296552 61 95 37
-0.215844 0.129227 0.296507 62 97 47
-0.215409 0.129829 0.296483 67 99 57
-0.215061 0.13051 0.296438 52 52 39
-0.274606 0.114438 0.290024 60 57 30
-0.270749 0.115327 0.290411 78 117 57
-0.269935 0.115868 0.290446 70 117 52
-0.269124 0.116408 0.29048 55 103 38
-0.268464 0.11703 0.290482 48 99 34
-0.268103 0.11782 0.290423 48 97 33
-0.268189 0.118868 0.290271 50 98 29
-0.270097 0.120975 0.289735 44 100 28
-0.269577 0.121694 0.289706 46 99 25
-0.269362 0.122594 0.289613 38 100 35
-0.268688 0.123225 0.289617 33 99 34
-0.267712 0.123673 0.289685 31 100 30
-0.267041 0.124302 0.289688 35 100 27
-0.227273 0.11561 0.296097 80 129 65
-0.226648 0.11607 0.296117 90 142 73
-0.225456 0.116115 0.296268 94 153 81
-0.224838 0.116572 0.296288 98 156 83
-0.224408 0.117166 0.296264 99 157 89
-0.217712 0.116623 0.297219 75 119 60
-0.217295 0.1172 0.297196 64 101 47
-0.216877 0.117777 0.297173 61 98 43
-0.21646 0.118354 0.29715 61 99 42
-0.216042 0.118932 0.297127 59 99 42
-0.215624 0.119511 0.297104 59 98 41
-0.215206 0.120089 0.297081 60 98 38
-0.217013 0.122504 0.296517 60 97 39
-0.216334 0.123829 0.296428 60 95 41
-0.21608 0.124567 0.296362 62 96 39
-0.215825 0.125307 0.296295 60 95 43
-0.215655 0.126124 0.296207 60 93 45
-0.216271 0.127628 0.295923 59 94 43
-0.2161 0.128458 0.295834 61 96 40
-0.215841 0.129215 0.295766 65 100 50
-0.215492 0.129896 0.29572 65 93 61
-0.215056 0.1305 0.295696 52 48 33
-0.271864 0.113875 0.289572 57 52 30
-0.269423 0.115501 0.289677 86 126 65
-0.268763 0.116123 0.289681 70 120 55
-0.268253 0.116828 0.289652 60 108 47
-0.267743 0.117534 0.289624 58 104 44
-0.267381 0.118324 0.289564 55 102 43
-0.267464 0.119375 0.289408 50 102 41
-0.269362 0.121489 0.288861 44 101 37
-0.268537 0.12203 0.288898 38 103 37
-0.267866 0.122659 0.288901 33 104 33
-0.267196 0.123288 0.288905 36 103 32
-0.266526 0.123916 0.288909 41 101 33
-0.266006 0.124634 0.28888 42 103 37
-0.22509 0.11581 0.295618 96 156 84
-0.22438 0.116198 0.295661 100 157 85
-0.22395 0.116792 0.295637 100 155 88
-0.21754 0.116461 0.296547 72 113 53
-0.217123 0.117038 0.296524 62 101 45
-0.216705 0.117615 0.296501 62 98 41
-0.216288 0.118193 0.296478 61 99 40
-0.21587 0.118771 0.296455 60 99 43
-0.215452 0.119349 0.296432 60 99 42
-0.217526 0.121965 0.295791 60 99 42
-0.217187 0.122628 0.295746 60 98 43
-0.216759 0.123219 0.295722 58 97 46
-0.216331 0.12381 0.295698 60 95 41
-0.216077 0.124549 0.295631 61 96 42
-0.21617 0.125587 0.295475 60 96 46
-0.216791 0.127089 0.295185 60 94 44
-0.216533 0.127843 0.295116 59 94 43
-0.216185 0.128523 0.295069 60 98 45
-0.215837 0.129203 0.295022 70 104 53
-0.215576 0.129964 0.294953 60 80 56
-0.215139 0.130568 0.294928 51 44 31
-0.27008 0.113808 0.288936 53 52 31
-0.268762 0.115052 0.288944 101 129 70
-0.268253 0.115756 0.288915 93 150 75
-0.267744 0.11646 0.288887 79 133 57
-0.267383 0.117248 0.288826 77 126 53
-0.267021 0.118038 0.288765 75 127 54
-0.266954 0.119001 0.288639 69 123 51
-0.268387 0.120842 0.288182 61 113 49
-0.267868 0.121558 0.288153 55 106 43
-0.26735 0.122276 0.288124 48 104 33
-0.266831 0.122993 0.288095 44 105 33
-0.266013 0.123531 0.288133 42 104 35
-0.265494 0.124248 0.288103 44 105 37
-0.224725 0.115506 0.29497 99 154 83
-0.224016 0.115894 0.295013 101 154 82
-0.223402 0.11635 0.295034 100 153 81
-0.222149 0.116325 0.295211 93 146 80
-0.220375 0.115897 0.295517 91 140 76
-0.219511 0.116143 0.295602 89 138 75
-0.217785 0.115723 0.295899 87 129 65
-0.217368 0.116299 0.295876 69 109 50
-0.216951 0.116876 0.295853 62 100 43
-0.216533 0.117454 0.295829 62 99 39
-0.216116 0.118031 0.295806 62 99 39
-0.215698 0.118609 0.295782 61 98 40
-0.215279 0.119187 0.295759 62 99 42
-0.217438 0.121872 0.295083 60 99 42
-0.217011 0.122463 0.295059 60 97 44
-0.216583 0.123054 0.295035 59 96 43
-0.216242 0.123718 0.294989 60 95 42
-0.215987 0.124457 0.294921 59 98 44
-0.216517 0.125869 0.294649 59 97 46
-0.216966 0.127227 0.294396 60 94 43
-0.216707 0.127983 0.294326 59 95 45
-0.216448 0.128742 0.294255 60 99 49
-0.21601 0.129347 0.29423 73 106 57
-0.21566 0.130031 0.294183 57 62 42
-0.215222 0.130637 0.294158 45 44 27
-0.269269 0.113284 0.288238 53 47 29
-0.268254 0.114687 0.288181 99 114 68
-0.267598 0.115308 0.288185 115 167 90
-0.267089 0.11601 0.288156 96 148 67
-0.266728 0.116796 0.288095 88 147 64
-0.266514 0.117668 0.288 89 144 65
-0.266742 0.118798 0.287806 88 146 64
-0.26727 0.120113 0.287543 81 136 60
-0.267503 0.121266 0.287344 72 127 54
-0.267135 0.122071 0.287281 63 117 48
-0.266317 0.12261 0.28732 55 110 41
-0.265649 0.123237 0.287324 50 107 38
-0.264983 0.123863 0.287329 48 107 36
-0.264464 0.12458 0.2873 57 111 46
-0.224548 0.115339 0.294278 98 152 82
-0.223469 0.115456 0.294414 100 151 80
-0.222399 0.115571 0.294549 99 149 78
-0.220623 0.11515 0.294861 93 144 75
-0.219935 0.115532 0.294903 90 141 74
-0.219249 0.115913 0.294946 89 138 73
-0.217613 0.115561 0.295228 82 125 64
-0.217196 0.116138 0.295204 65 106 49
-0.216779 0.116715 0.295181 61 100 43
-0.216361 0.117292 0.295157 62 99 39
-0.215944 0.117869 0.295134 62 99 41
-0.215525 0.118447 0.29511 61 97 41
-0.217689 0.121117 0.294421 62 98 43
-0.217349 0.121779 0.294374 61 98 42
-0.216922 0.12237 0.29435 59 97 44
-0.216494 0.122961 0.294326 61 96 39
-0.216153 0.123626 0.294279 62 96 41
-0.216158 0.124586 0.294141 60 98 43
-0.217222 0.126457 0.293722 59 97 43
-0.217231 0.127442 0.293579 61 96 44
-0.216794 0.128046 0.293555 60 95 47
-0.216445 0.128729 0.293506 63 100 49
-0.216095 0.129413 0.293458 72 105 60
-0.215656 0.13002 0.293433 56 48 32
-0.267157 0.114 0.287553 92 100 69
-0.266651 0.114699 0.287524 134 183 97
-0.266145 0.115399 0.287496 107 162 78
-0.265931 0.116263 0.2874 97 158 73
-0.265569 0.117048 0.287338 98 157 72
-0.266234 0.118426 0.28704 97 156 71
-0.266461 0.119563 0.286841 93 154 68
-0.266989 0.120885 0.286571 86 146 65
-0.266621 0.121689 0.286507 80 137 60
-0.265953 0.122316 0.286512 71 126 54
-0.265139 0.122854 0.286552 62 118 49
-0.264474 0.123479 0.286557 57 113 45
-0.263663 0.124014 0.286596 58 113 50
-0.224371 0.115172 0.293585 96 151 82
-0.22265 0.114817 0.293887 99 152 82
-0.221409 0.114802 0.294069 97 148 78
-0.220271 0.114853 0.294226 92 144 75
-0.219761 0.115369 0.294225 89 141 73
-0.219076 0.11575 0.294268 88 136 72
-0.217441 0.1154 0.294557 77 119 59
-0.217024 0.115976 0.294533 63 104 48
-0.216607 0.116553 0.294509 60 101 47
-0.216189 0.11713 0.294485 61 99 41
-0.215771 0.117708 0.294461 60 100 42
-0.216204 0.118969 0.294214 60 98 44
-0.217777 0.121165 0.293665 60 97 44
-0.217349 0.121757 0.293641 61 97 44
-0.21692 0.122349 0.293617 60 97 44
-0.216492 0.122941 0.293592 62 98 40
-0.216324 0.123752 0.293498 61 97 40
-0.216243 0.124642 0.29338 61 96 41
-0.217668 0.126822 0.292854 60 97 43
-0.217319 0.127504 0.292805 62 98 43
-0.216792 0.128033 0.292805 62 97 44
-0.216442 0.128716 0.292755 65 102 51
-0.216092 0.129401 0.292706 65 96 61
-0.215652 0.130009 0.292681 48 42 31
-0.266362 0.113479 0.286865 83 94 69
-0.265858 0.114176 0.286836 138 185 97
-0.265498 0.114954 0.286773 112 169 85
-0.264993 0.115652 0.286744 101 159 73
-0.264488 0.116351 0.286715 101 163 74
-0.265581 0.11797 0.286312 100 162 74
-0.265805 0.119102 0.28611 98 159 71
-0.266476 0.120506 0.285801 92 154 69
-0.266108 0.121308 0.285736 88 148 66
-0.265442 0.121935 0.285742 82 141 62
-0.264777 0.122561 0.285747 73 132 58
-0.263966 0.123097 0.285787 66 125 55
-0.262721 0.123363 0.285932 61 123 56
-0.222201 0.114451 0.293271 97 152 80
-0.220697 0.114239 0.293525 94 147 76
-0.220009 0.114623 0.29357 90 143 74
-0.219499 0.115139 0.293569 88 141 71
-0.21899 0.115654 0.293568 88 134 68
-0.218046 0.115834 0.293681 73 114 54
-0.216852 0.115814 0.293861 63 103 47
-0.216435 0.116391 0.293837 62 100 45
-0.216017 0.116968 0.293813 61 100 42
-0.216452 0.118224 0.293562 59 99 41
-0.216288 0.119012 0.293468 60 98 44
-0.217777 0.121142 0.29293 61 97 43
-0.217348 0.121735 0.292906 61 98 42
-0.216919 0.122327 0.292881 60 98 43
-0.216577 0.122993 0.292832 61 99 43
-0.216409 0.123806 0.292736 60 96 40
-0.216416 0.124772 0.292591 60 97 43
-0.217577 0.12673 0.292127 60 96 43
-0.217228 0.127413 0.292078 60 98 43
-0.216789 0.128019 0.292052 63 98 44
-0.21635 0.128625 0.292027 69 105 54
-0.216 0.129311 0.291977 57 82 54
-0.21556 0.129919 0.291952 41 41 30
-0.265862 0.113121 0.286112 76 82 59
-0.265359 0.113816 0.286083 137 174 88
-0.264999 0.114593 0.28602 114 175 92
-0.264495 0.11529 0.28599 101 161 74
-0.264278 0.116151 0.285893 99 163 75
-0.26464 0.117349 0.285656 99 162 73
-0.265593 0.1189 0.285276 96 160 71
-0.266114 0.120215 0.284997 93 158 69
-0.265746 0.121017 0.284931 90 154 67
-0.26508 0.121643 0.284937 87 147 64
-0.263829 0.121915 0.285086 82 140 59
-0.263606 0.122804 0.284985 74 135 58
-0.223797 0.109364 0.293064 87 140 70
-0.220944 0.113493 0.29287 93 147 73
-0.220434 0.11401 0.292869 91 145 73
-0.219747 0.114394 0.292915 88 141 71
-0.219326 0.114975 0.292891 87 139 69
-0.218817 0.11549 0.29289 86 129 65
-0.21796 0.115738 0.292982 70 111 51
-0.217454 0.116251 0.292981 64 102 45
-0.217034 0.116832 0.292957 64 99 40
-0.216785 0.117548 0.292886 62 99 38
-0.216536 0.118266 0.292814 61 99 39
-0.216372 0.119056 0.292719 60 99 43
-0.2176 0.120977 0.292241 61 97 45
-0.217259 0.121641 0.292192 62 97 42
-0.21683 0.122234 0.292168 64 98 41
-0.216663 0.123045 0.29207 61 98 42
-0.216495 0.123861 0.291971 59 97 43
-0.217655 0.125804 0.2915 59 98 46
-0.217486 0.126638 0.291399 61 97 41
-0.217048 0.127244 0.291374 59 97 42
-0.216609 0.12785 0.291349 63 98 48
-0.216259 0.128534 0.291298 75 107 56
-0.215819 0.129142 0.291272 55 62 38
-0.215379 0.12975 0.291247 44 42 29
-0.264646 0.114313 0.285234 111 176 98
-0.264142 0.115009 0.285204 98 155 71
-0.263781 0.115788 0.28514 95 157 71
-0.263563 0.11665 0.28504 94 158 71
-0.265528 0.118783 0.284406 93 157 71
-0.2659 0.120012 0.284158 96 156 69
-0.265088 0.120551 0.284201 92 155 69
-0.264132 0.121 0.28428 89 150 67
-0.263471 0.121624 0.284286 86 145 61
-0.263392 0.122601 0.284147 80 140 58
-0.223769 0.108435 0.292482 88 142 68
-0.223351 0.109013 0.292458 87 141 70
-0.223113 0.109717 0.292386 88 142 71
-0.221371 0.112878 0.292167 89 144 67
-0.220592 0.113199 0.292238 91 144 70
-0.220083 0.113715 0.292238 88 143 72
-0.219573 0.11423 0.292237 86 139 68
-0.219152 0.114812 0.292212 87 136 68
-0.218643 0.115327 0.292211 83 125 62
-0.217961 0.115708 0.292258 67 108 49
-0.217453 0.116222 0.292258 64 102 44
-0.217119 0.116871 0.292209 62 100 47
-0.21687 0.117588 0.292137 62 99 40
-0.216534 0.11824 0.292088 62 100 38
-0.216198 0.118892 0.292039 62 99 41
-0.217512 0.120882 0.291528 60 98 45
-0.217083 0.121475 0.291503 60 98 45
-0.216653 0.122068 0.291478 64 99 41
-0.216486 0.122879 0.291378 60 97 43
-0.216668 0.123989 0.291178 58 97 48
-0.217655 0.125788 0.290747 58 97 50
-0.217396 0.126545 0.29067 60 98 41
-0.216957 0.127152 0.290645 61 98 40
-0.216517 0.127758 0.290619 64 100 49
-0.216167 0.128443 0.290567 71 100 58
-0.215726 0.129051 0.290542 56 47 32
-0.215286 0.129659 0.290516 43 41 31
-0.26415 0.113953 0.284485 109 172 97
-0.263933 0.11481 0.284384 95 149 68
-0.263429 0.115507 0.284354 90 149 67
-0.263067 0.116286 0.284289 91 150 69
-0.265315 0.11858 0.283571 90 152 68
-0.264875 0.120347 0.283363 91 153 70
-0.263919 0.120798 0.283443 86 149 67
-0.263403 0.121509 0.283413 85 145 61
-0.223596 0.108272 0.291806 87 140 67
-0.223178 0.10885 0.291781 87 141 69
-0.222759 0.109428 0.291757 88 143 71
-0.222521 0.110133 0.291683 93 146 70
-0.222281 0.11084 0.29161 95 148 73
-0.222041 0.111549 0.291536 96 147 74
-0.221439 0.112002 0.29156 93 145 70
-0.220929 0.112519 0.29156 90 144 69
-0.220419 0.113035 0.291559 88 143 71
-0.219821 0.113486 0.291583 87 142 71
-0.2194 0.114067 0.291559 88 139 67
-0.218979 0.114648 0.291534 89 135 66
-0.21847 0.115164 0.291533 79 121 58
-0.217961 0.115679 0.291533 65 104 49
-0.217367 0.116126 0.291556 62 101 43
-0.217118 0.116843 0.291483 60 102 50
-0.216783 0.117493 0.291434 62 99 44
-0.216446 0.118145 0.291384 62 100 41
-0.216195 0.118867 0.29131 60 97 39
-0.217335 0.120717 0.290839 61 97 39
-0.216739 0.122119 0.290712 61 98 41
-0.216835 0.123151 0.290534 59 99 46
-0.216843 0.124117 0.290381 58 98 48
-0.217654 0.125771 0.289992 59 97 48
-0.217215 0.126376 0.289966 60 98 41
-0.216865 0.12706 0.289914 62 98 43
-0.216426 0.127667 0.289888 68 103 51
-0.216074 0.128352 0.289836 62 86 58
-0.215634 0.12896 0.28981 47 43 27
-0.263798 0.113674 0.283702 111 176 98
-0.263438 0.11445 0.283636 92 145 66
-0.263077 0.115226 0.28357 85 142 64
-0.262715 0.116005 0.283503 86 142 65
-0.262209 0.116702 0.283473 88 146 65
-0.223005 0.108686 0.291105 90 141 68
-0.222586 0.109264 0.29108 91 143 68
-0.222167 0.109843 0.291055 94 150 72
-0.221748 0.110422 0.29103 95 152 74
-0.221687 0.111257 0.290906 98 151 76
-0.221176 0.111774 0.290906 95 147 74
-0.220755 0.112355 0.290881 91 146 71
-0.220245 0.112871 0.290881 89 143 71
-0.219824 0.113453 0.290855 89 141 72
-0.219226 0.113903 0.29088 90 140 69
-0.218893 0.114551 0.29083 91 133 65
-0.218384 0.115067 0.29083 74 114 54
-0.217875 0.115582 0.29083 63 103 47
-0.217366 0.116097 0.290829 62 101 42
-0.217031 0.116747 0.29078 61 101 45
-0.216695 0.117398 0.29073 62 98 44
-0.216445 0.118118 0.290655 63 98 42
-0.216193 0.118841 0.290579 59 98 40
-0.217089 0.122387 0.289866 60 98 41
-0.217098 0.123351 0.28971 60 98 43
-0.217643 0.12477 0.289394 59 99 45
-0.217563 0.125677 0.289262 61 96 41
-0.217213 0.12636 0.289209 59 99 42
-0.216774 0.126967 0.289183 61 97 47
-0.216423 0.127652 0.28913 73 106 55
-0.216071 0.128338 0.289076 54 64 46
-0.21563 0.128948 0.28905 43 44 26
-0.26359 0.113476 0.282883 113 174 96
-0.263087 0.11417 0.282853 90 142 66
-0.262583 0.114865 0.282823 80 138 62
-0.262221 0.115642 0.282756 80 138 61
-0.262 0.116503 0.282652 84 141 61
-0.261636 0.117284 0.282585 88 144 65
-0.222413 0.109101 0.290403 92 146 69
-0.221994 0.10968 0.290378 95 150 72
-0.221485 0.110195 0.290378 94 153 75
-0.221066 0.110774 0.290353 94 151 78
-0.221003 0.11161 0.290227 92 146 74
-0.220671 0.112256 0.290176 91 146 71
-0.22016 0.112773 0.290176 89 142 69
-0.21965 0.113289 0.290176 86 139 70
-0.219229 0.113871 0.290151 88 139 71
-0.218807 0.114453 0.290126 87 128 65
-0.21821 0.114903 0.290151 71 109 50
-0.217788 0.115485 0.290126 61 102 46
-0.217279 0.116001 0.290126 61 99 40
-0.216944 0.116651 0.290075 60 100 45
-0.216694 0.11737 0.289999 60 98 46
-0.216356 0.118023 0.289948 62 99 40
-0.21771 0.122877 0.288932 59 97 42
-0.217363 0.123552 0.288879 60 97 44
-0.217732 0.124827 0.288611 60 98 45
-0.217562 0.12566 0.288503 59 97 45
-0.217212 0.126344 0.288449 58 98 43
-0.216771 0.126952 0.288422 62 99 50
-0.216331 0.12756 0.288396 71 101 57
-0.215979 0.128247 0.288342 55 50 34
-0.215537 0.128856 0.288316 39 46 29
-0.263096 0.113118 0.282139 116 169 93
-0.262594 0.113812 0.282109 90 138 65
-0.262233 0.114586 0.282041 75 133 57
-0.261871 0.115362 0.281973 74 132 57
-0.261508 0.11614 0.281906 78 135 58
-0.261285 0.117002 0.2818 81 136 60
-0.260779 0.1177 0.281769 80 136 60
-0.221821 0.109516 0.289701 95 152 74
-0.221402 0.110095 0.289675 97 152 76
-0.22125 0.110865 0.289573 104 153 78
-0.220918 0.11151 0.289522 96 147 71
-0.220497 0.112092 0.289496 91 146 71
-0.220075 0.112674 0.289471 89 140 68
-0.219653 0.113256 0.289445 86 139 67
-0.219231 0.113839 0.28942 90 136 67
-0.218633 0.114289 0.289446 81 123 61
-0.218211 0.114872 0.28942 67 105 47
-0.217701 0.115388 0.289421 61 102 44
-0.217192 0.115904 0.289421 60 100 39
-0.216856 0.116555 0.28937 59 99 43
-0.216606 0.117274 0.289292 59 98 46
-0.216268 0.117927 0.289241 60 99 41
-0.218957 0.122918 0.287959 59 97 43
-0.21762 0.122783 0.288206 60 98 44
-0.21763 0.123755 0.288043 58 99 43
-0.217821 0.124884 0.287824 59 99 44
-0.217651 0.125719 0.287714 58 97 47
-0.217481 0.126558 0.287603 60 100 45
-0.217038 0.127168 0.287576 65 102 51
-0.216596 0.127778 0.28755 61 88 57
-0.216153 0.128389 0.287523 47 44 29
-0.262604 0.112762 0.281398 112 152 82
-0.262102 0.113454 0.281367 87 134 64
-0.261741 0.114227 0.281299 71 126 53
-0.261239 0.114921 0.281268 70 124 52
-0.261017 0.115778 0.281161 71 126 53
-0.260512 0.116473 0.281131 72 128 55
-0.260288 0.117335 0.281024 71 129 55
-0.260063 0.1182 0.280916 72 130 55
-0.259697 0.118983 0.280847 73 131 55
-0.259189 0.119684 0.280816 71 130 55
-0.222249 0.111536 0.288551 102 155 77
-0.221462 0.111862 0.288631 95 151 74
-0.220949 0.112382 0.288632 90 145 71
-0.220436 0.112901 0.288633 88 139 67
-0.219923 0.11342 0.288633 86 140 69
-0.219499 0.114004 0.288608 91 135 66
-0.218634 0.114258 0.288714 74 116 56
-0.218212 0.114841 0.288688 63 103 46
-0.217614 0.115291 0.288715 61 101 41
-0.217191 0.115875 0.288689 60 99 40
-0.216855 0.116526 0.288637 59 98 40
-0.216518 0.117178 0.288585 59 97 43
-0.21618 0.117832 0.288532 58 97 42
-0.218776 0.122749 0.287255 60 97 38
-0.217888 0.122983 0.287368 62 96 42
-0.21808 0.124108 0.287145 60 98 41
-0.217911 0.124941 0.287033 59 98 42
-0.218013 0.126008 0.286835 60 97 44
-0.21757 0.126619 0.286809 62 99 49
-0.217127 0.12723 0.286782 71 105 54
-0.216683 0.127842 0.286754 54 64 44
-0.21624 0.128454 0.286727 44 48 29
-0.261332 0.11294 0.280704 85 135 66
-0.260971 0.11371 0.280635 69 123 52
-0.260609 0.114482 0.280566 66 119 48
-0.260387 0.115336 0.280458 65 122 49
-0.260024 0.116111 0.280389 66 123 51
-0.259799 0.116971 0.28028 66 124 52
-0.259434 0.11775 0.28021 67 124 52
-0.259207 0.118616 0.280102 67 125 52
-0.258839 0.119399 0.280031 64 124 52
-0.258332 0.120099 0.28 63 123 51
-0.221649 0.111957 0.28784 93 149 75
-0.221134 0.112477 0.287841 90 142 70
-0.220619 0.112998 0.287842 88 140 67
-0.220105 0.113518 0.287843 87 139 66
-0.21968 0.114104 0.287817 87 131 64
-0.2189 0.114425 0.287899 70 110 50
-0.218212 0.11481 0.287953 63 102 44
-0.217614 0.115261 0.287981 62 100 42
-0.217104 0.115778 0.287981 62 99 41
-0.216767 0.116429 0.287929 59 98 44
-0.216429 0.117082 0.287876 60 99 41
-0.216611 0.118148 0.287661 60 97 42
-0.219655 0.121517 0.286547 61 96 43
-0.218596 0.122579 0.286551 59 98 41
-0.218519 0.123482 0.286409 60 96 44
-0.218533 0.124465 0.286238 59 98 46
-0.218273 0.125227 0.286153 61 97 44
-0.217921 0.125914 0.286096 63 98 44
-0.217569 0.126603 0.28604 64 99 48
-0.217125 0.127215 0.286013 71 101 55
-0.216681 0.127827 0.285985 52 49 31
-0.260845 0.112586 0.279967 87 138 72
-0.260624 0.113433 0.279859 71 126 54
-0.260123 0.114124 0.279828 66 121 50
-0.25976 0.114896 0.279758 64 122 50
-0.259397 0.115669 0.279688 64 122 50
-0.259311 0.116608 0.279539 64 122 51
-0.259085 0.117469 0.279429 65 121 51
-0.258719 0.118249 0.279359 63 121 51
-0.258351 0.119031 0.279288 61 119 48
-0.258122 0.1199 0.279177 59 117 48
-0.221474 0.111791 0.287155 91 145 68
-0.221049 0.112378 0.287128 90 141 67
-0.220534 0.112898 0.28713 89 139 65
-0.220019 0.113419 0.287131 90 136 64
-0.219594 0.114006 0.287104 84 121 60
-0.218991 0.114459 0.287133 68 104 45
-0.218389 0.114912 0.287162 62 101 38
-0.217614 0.11523 0.287245 61 97 39
-0.21719 0.115815 0.287219 62 100 40
-0.216766 0.1164 0.287192 60 97 42
-0.216688 0.117258 0.287056 61 98 38
-0.219218 0.1221 0.285757 62 96 38
-0.218416 0.12241 0.285847 61 97 39
-0.218338 0.123312 0.285703 61 97 44
-0.218442 0.124371 0.285499 58 96 42
-0.218273 0.125209 0.285383 62 95 42
-0.217921 0.125897 0.285326 61 99 48
-0.217567 0.126587 0.285269 66 101 52
-0.217123 0.1272 0.285241 63 88 56
-0.216678 0.127813 0.285214 46 48 27
-0.260359 0.112233 0.279233 93 142 79
-0.259999 0.112999 0.279163 80 133 61
-0.259637 0.113768 0.279092 72 127 55
-0.259137 0.114458 0.279061 69 126 54
-0.258774 0.115229 0.27899 68 126 54
-0.258548 0.116083 0.27888 68 126 53
-0.258598 0.117105 0.278689 67 124 52
-0.258371 0.117967 0.278578 64 122 51
-0.258003 0.118748 0.278506 61 119 48
-0.257635 0.119531 0.278434 58 115 47
-0.221299 0.111626 0.286469 94 145 70
-0.220874 0.112212 0.286443 90 140 67
-0.220448 0.112799 0.286416 87 139 67
-0.219933 0.11332 0.286417 90 134 66
-0.219507 0.113907 0.286391 78 117 53
-0.218993 0.114427 0.286392 66 102 42
-0.21839 0.114881 0.286422 63 100 37
-0.217789 0.115333 0.286451 60 98 39
-0.217364 0.11592 0.286425 60 98 38
-0.216938 0.116506 0.286398 58 98 40
-0.216773 0.117299 0.286287 60 97 39
-0.219037 0.12193 0.285052 62 98 39
-0.218416 0.122388 0.285083 61 98 42
-0.218157 0.123143 0.284997 59 97 46
-0.218534 0.124427 0.2847 60 97 42
-0.218273 0.125191 0.284612 62 95 41
-0.217829 0.125803 0.284584 59 97 48
-0.217475 0.126493 0.284526 74 103 54
-0.21703 0.127106 0.284498 52 62 42
-0.216585 0.12772 0.28447 42 42 28
-0.260014 0.111958 0.278462 98 142 80
-0.259515 0.112646 0.27843 91 143 69
-0.259016 0.113334 0.278399 81 135 59
-0.258516 0.114023 0.278367 78 134 57
-0.258153 0.114791 0.278296 77 134 58
-0.258065 0.115723 0.278144 75 134 57
-0.257975 0.11666 0.277992 74 132 56
-0.258162 0.117768 0.277757 71 129 54
-0.257656 0.118465 0.277725 67 124 52
-0.257287 0.119247 0.277653 62 120 50
-0.221123 0.111461 0.285784 88 143 67
-0.220698 0.112047 0.285757 93 141 67
-0.220273 0.112633 0.28573 91 138 65
-0.219758 0.113154 0.285732 88 131 65
-0.219332 0.113741 0.285705 69 110 51
-0.218906 0.114329 0.285678 61 102 43
-0.218391 0.114849 0.28568 60 99 38
-0.217789 0.115303 0.28571 61 99 38
-0.217363 0.11589 0.285683 61 97 38
-0.217024 0.116545 0.285628 60 97 37
-0.216772 0.117271 0.285544 58 97 40
-0.219496 0.122277 0.284133 62 98 40
-0.218689 0.122589 0.284227 62 96 39
-0.218521 0.123421 0.284108 60 99 44
-0.218534 0.124408 0.283927 61 98 41
-0.218273 0.125173 0.283838 61 98 41
-0.217828 0.125786 0.28381 63 98 50
-0.217383 0.126399 0.283782 70 97 57
-0.217028 0.127091 0.283723 49 43 31
-0.259393 0.111529 0.277772 104 137 75
-0.259033 0.112293 0.2777 99 151 75
-0.258534 0.11298 0.277668 88 145 66
-0.258035 0.113668 0.277637 85 143 61
-0.257673 0.114435 0.277565 84 143 61
-0.257309 0.115204 0.277492 83 143 61
-0.257355 0.116218 0.277298 82 141 61
-0.257814 0.117486 0.276978 80 139 59
-0.257309 0.118183 0.276946 76 134 57
-0.257078 0.119048 0.276831 70 129 55
-0.220523 0.111881 0.285071 90 139 67
-0.220008 0.112403 0.285073 93 138 68
