ply
format ascii 1.0
element vertex 1263
property float x
property float y
property float z
property uchar diffuse_red
property uchar diffuse_green
property uchar diffuse_blue
end_header
-0.262467 0.147236 0.270449 63 123 50
-0.261694 0.147779 0.270461 61 121 49
-0.260776 0.148221 0.270516 60 121 49
-0.25957 0.14846 0.27066 60 124 51
-0.258086 0.148498 0.27089 64 126 53
-0.257041 0.148834 0.270988 77 135 61
-0.256422 0.149471 0.270955 103 166 77
-0.255804 0.150108 0.270922 109 173 81
-0.223676 0.141932 0.277781 105 163 79
-0.222268 0.141754 0.278044 108 167 81
-0.221544 0.142141 0.27808 110 170 84
-0.220916 0.142608 0.278083 112 170 85
-0.22029 0.143074 0.278087 105 157 81
-0.219758 0.143621 0.278058 82 128 65
-0.219226 0.144169 0.27803 66 111 51
-0.218694 0.144717 0.278001 63 108 49
-0.218255 0.145347 0.277941 64 106 49
-0.217815 0.145979 0.27788 65 105 50
-0.217374 0.146612 0.277819 66 105 49
-0.220394 0.154746 0.275643 64 105 52
-0.219737 0.155228 0.275648 61 106 51
-0.219178 0.155803 0.275618 63 104 51
-0.218521 0.156284 0.275624 65 103 53
-0.217962 0.156859 0.275594 66 97 54
-0.217403 0.157435 0.275564 49 61 41
-0.216747 0.157915 0.27557 41 42 26
-0.261789 0.138403 0.271495 53 58 28
-0.261184 0.139026 0.271463 94 94 57
-0.260579 0.139648 0.27143 120 181 94
-0.260116 0.140362 0.271355 106 167 77
-0.259935 0.141263 0.271195 95 156 69
-0.262254 0.146972 0.269609 70 132 55
-0.261334 0.147416 0.269666 63 126 52
-0.260271 0.147757 0.269768 59 120 49
-0.258925 0.147898 0.269958 57 118 50
-0.257875 0.148237 0.270059 58 120 52
-0.256971 0.148674 0.270114 71 129 57
-0.256211 0.149211 0.270125 103 165 75
-0.255593 0.149847 0.270092 108 171 80
-0.222812 0.141144 0.277295 107 167 83
-0.221894 0.141371 0.277397 110 171 83
-0.221266 0.141838 0.277401 112 172 85
-0.22064 0.142305 0.277405 111 164 84
-0.220108 0.142852 0.277376 96 144 74
-0.219576 0.143399 0.277348 72 115 55
-0.219044 0.143947 0.277319 63 107 50
-0.218606 0.144577 0.277258 62 106 50
-0.218073 0.145125 0.277229 63 104 49
-0.217633 0.145757 0.277168 63 104 50
-0.217192 0.14639 0.277106 64 104 50
-0.220203 0.154514 0.274897 63 104 52
-0.219644 0.155089 0.274867 62 103 50
-0.219085 0.155665 0.274837 63 102 51
-0.218428 0.156146 0.274843 66 101 54
-0.217868 0.156722 0.274813 58 86 53
-0.217308 0.157298 0.274783 50 48 23
-0.260871 0.137701 0.270896 56 53 29
-0.260268 0.138321 0.270864 83 82 57
-0.259666 0.138941 0.270831 121 178 92
-0.259063 0.139561 0.270798 112 173 81
-0.258881 0.140455 0.270637 103 165 74
-0.259262 0.141724 0.270301 97 161 73
-0.260827 0.146953 0.268919 76 138 57
-0.259334 0.146997 0.269158 68 129 53
-0.258283 0.147338 0.26926 61 122 51
-0.257521 0.147876 0.269272 57 117 51
-0.256902 0.148513 0.269238 65 120 54
-0.256 0.14895 0.269295 99 162 72
-0.255381 0.149587 0.269262 108 170 78
-0.222629 0.140921 0.276582 109 170 84
-0.221616 0.141069 0.276719 112 172 84
-0.22099 0.141536 0.276723 114 169 84
-0.220458 0.142083 0.276694 106 154 78
-0.219927 0.14263 0.276666 82 126 62
-0.219395 0.143177 0.276637 67 108 49
-0.218956 0.143807 0.276575 62 103 48
-0.218424 0.144355 0.276546 62 102 50
-0.217984 0.144986 0.276484 62 102 50
-0.217543 0.145618 0.276422 62 103 49
-0.220671 0.153799 0.274146 63 102 48
-0.220111 0.154375 0.274115 63 103 50
-0.219552 0.154951 0.274085 63 102 51
-0.218894 0.155433 0.274091 63 102 53
-0.218334 0.156009 0.274061 65 96 53
-0.217774 0.156585 0.274031 49 60 43
-0.217214 0.157161 0.274001 50 43 24
-0.260241 0.137181 0.270216 66 52 33
-0.25964 0.137799 0.270183 69 70 55
-0.259039 0.138418 0.27015 119 169 88
-0.258438 0.139037 0.270118 113 176 87
-0.257837 0.139655 0.270085 103 168 78
-0.257235 0.140275 0.270052 100 165 75
-0.260614 0.14669 0.268081 89 152 66
-0.258834 0.146538 0.268416 81 143 61
-0.257928 0.146978 0.268474 74 135 57
-0.257309 0.147615 0.268441 66 126 55
-0.256407 0.148053 0.268498 64 119 55
-0.255789 0.14869 0.268465 98 156 68
-0.25517 0.149327 0.268431 104 170 76
-0.221966 0.1403 0.276037 108 170 85
-0.221339 0.140767 0.276042 112 171 85
-0.220713 0.141234 0.276046 111 163 82
-0.220277 0.141861 0.275984 94 141 70
-0.219745 0.142408 0.275955 71 113 52
-0.219307 0.143036 0.275893 64 104 47
-0.218774 0.143584 0.275864 63 102 46
-0.218335 0.144215 0.275801 61 100 51
-0.217802 0.144763 0.275772 61 101 50
-0.217454 0.145478 0.275675 62 102 49
-0.221039 0.152991 0.27343 63 103 49
-0.22048 0.153567 0.273399 63 103 46
-0.21992 0.154142 0.273369 63 103 48
-0.21936 0.154718 0.273339 63 103 50
-0.2188 0.155294 0.273308 65 100 53
-0.21824 0.155871 0.273278 61 82 48
-0.21768 0.156448 0.273247 51 46 29
-0.259755 0.136751 0.269495 60 48 34
-0.259155 0.137368 0.269462 60 65 55
-0.258555 0.137986 0.269429 111 150 79
-0.257955 0.138603 0.269396 111 174 86
-0.257354 0.139221 0.269364 101 169 78
-0.256615 0.139749 0.269375 99 165 75
-0.256152 0.140458 0.269298 100 164 75
-0.259242 0.145639 0.267618 97 164 74
-0.258336 0.146081 0.267677 93 158 70
-0.257433 0.146521 0.267736 87 150 66
-0.256815 0.147157 0.267702 81 141 62
-0.256196 0.147793 0.267668 69 126 57
-0.255437 0.14833 0.267681 95 145 61
-0.254959 0.149066 0.267601 102 171 78
-0.221498 0.139841 0.275428 106 166 84
-0.220968 0.140387 0.275399 112 167 85
-0.220532 0.141012 0.275336 103 152 78
-0.220001 0.141559 0.275307 79 125 61
-0.219563 0.142186 0.275244 64 107 48
-0.219125 0.142814 0.275181 62 103 43
-0.218686 0.143444 0.275118 62 102 44
-0.218153 0.143992 0.275089 60 100 47
-0.217805 0.144706 0.274991 60 102 48
-0.221407 0.152183 0.272714 62 100 46
-0.220848 0.152758 0.272684 61 102 47
-0.220289 0.153334 0.272653 61 101 48
-0.219729 0.15391 0.272623 62 101 48
-0.219169 0.154486 0.272592 65 102 50
-0.218609 0.155062 0.272562 67 94 55
-0.218049 0.155638 0.272531 54 54 38
-0.25941 0.13641 0.268732 56 55 32
-0.258811 0.137027 0.268699 50 61 43
-0.258211 0.137644 0.268666 109 132 70
-0.257611 0.138261 0.268633 113 167 83
-0.257011 0.138878 0.2686 100 165 77
-0.25641 0.139496 0.268567 95 160 73
-0.25581 0.140114 0.268534 96 162 74
-0.255619 0.141005 0.268367 97 165 74
-0.256394 0.142552 0.267884 98 166 74
-0.256481 0.143648 0.267622 97 165 74
-0.257131 0.14514 0.267173 96 162 73
-0.257222 0.14626 0.266906 93 159 71
-0.256321 0.1467 0.266965 90 155 69
-0.255564 0.147236 0.266978 78 139 64
-0.254668 0.147673 0.267038 88 137 59
-0.254329 0.148506 0.266911 101 171 78
-0.221561 0.13884 0.274851 82 144 69
-0.221127 0.139462 0.274788 101 158 79
-0.220787 0.140165 0.27469 109 161 82
-0.220256 0.140711 0.274661 91 138 69
-0.219819 0.141337 0.274597 69 111 53
-0.219382 0.141964 0.274533 62 102 47
-0.219037 0.142673 0.274435 61 102 41
-0.218597 0.143303 0.274371 61 101 41
-0.218157 0.143934 0.274307 61 101 42
-0.217623 0.144483 0.274277 61 100 43
-0.221216 0.15195 0.271968 61 99 42
-0.220657 0.152526 0.271938 58 99 42
-0.220196 0.153194 0.271869 60 100 45
-0.219636 0.15377 0.271838 63 99 47
-0.219076 0.154346 0.271807 67 98 51
-0.218418 0.154829 0.271815 58 78 49
-0.217857 0.155405 0.271784 43 44 30
-0.258328 0.136598 0.267982 54 57 39
-0.257268 0.137918 0.267871 111 161 83
-0.256668 0.138535 0.267838 101 164 78
-0.256068 0.139153 0.267805 93 155 70
-0.255604 0.13986 0.267726 91 156 69
-0.25514 0.140569 0.267648 91 159 70
-0.255221 0.141647 0.267388 92 161 71
-0.25544 0.142827 0.26708 94 163 72
-0.255385 0.143829 0.266861 95 163 71
-0.256305 0.145513 0.266313 93 163 72
-0.25555 0.146049 0.266326 93 161 71
-0.254103 0.146098 0.266574 86 151 70
-0.25308 0.146437 0.26668 83 136 62
-0.253152 0.147555 0.266413 98 165 73
-0.222919 0.137917 0.274027 64 129 52
-0.222388 0.138463 0.273998 69 132 56
-0.221476 0.138696 0.274108 80 140 64
-0.220946 0.139241 0.274079 99 152 76
-0.220605 0.139943 0.27398 100 151 77
-0.220169 0.140568 0.273916 77 121 57
-0.219732 0.141195 0.273852 64 104 49
-0.219294 0.141822 0.273787 62 101 45
-0.218949 0.142532 0.273687 62 100 41
-0.218509 0.143162 0.273623 62 101 40
-0.217975 0.143711 0.273593 62 100 40
-0.221584 0.151143 0.271253 60 100 44
-0.221025 0.151718 0.271222 60 99 44
-0.220565 0.152385 0.271153 59 99 45
-0.220104 0.153053 0.271083 60 100 43
-0.219544 0.15363 0.271052 63 98 49
-0.218885 0.154113 0.27106 62 90 53
-0.218324 0.15469 0.271029 47 53 32
-0.257847 0.13617 0.267267 55 55 30
-0.256651 0.137401 0.2672 109 155 82
-0.256052 0.138016 0.267167 104 167 81
-0.255453 0.138632 0.267134 93 154 70
-0.25499 0.139337 0.267055 90 151 67
-0.254798 0.140225 0.266885 88 153 66
-0.254468 0.141025 0.26676 87 154 66
-0.254683 0.142199 0.26645 88 155 66
-0.255176 0.143572 0.266042 90 156 67
-0.25498 0.144485 0.265867 89 157 68
-0.254369 0.145114 0.265833 90 158 69
-0.253345 0.145455 0.265941 87 156 71
-0.252463 0.14589 0.266001 83 143 64
-0.251853 0.146518 0.265967 94 159 68
-0.222738 0.137695 0.273317 76 136 56
-0.222207 0.13824 0.273288 86 142 64
-0.221676 0.138786 0.273258 95 148 71
-0.22105 0.139254 0.273265 103 149 77
-0.220613 0.139879 0.2732 88 133 69
-0.220082 0.140426 0.27317 69 107 49
-0.219644 0.141052 0.273105 63 100 45
-0.2193 0.14176 0.273004 63 101 42
-0.21886 0.14239 0.272939 62 100 41
-0.218326 0.142939 0.272909 62 101 41
-0.217885 0.14357 0.272844 63 99 40
-0.222053 0.150426 0.270499 60 98 44
-0.221393 0.15091 0.270507 61 99 45
-0.220934 0.151576 0.270437 61 99 44
-0.220473 0.152244 0.270366 60 99 44
-0.219913 0.15282 0.270335 61 99 47
-0.219352 0.153397 0.270304 65 96 56
-0.218693 0.15388 0.270313 46 67 48
-0.218132 0.154457 0.270282 42 43 27
-0.257505 0.135831 0.266508 53 52 29
-0.256173 0.136972 0.266487 106 142 77
-0.255575 0.137587 0.266454 110 169 82
-0.254977 0.138202 0.266421 97 159 72
-0.254514 0.138905 0.266342 91 152 68
-0.253916 0.139521 0.266308 89 152 65
-0.253991 0.140589 0.266044 86 151 63
-0.254203 0.141758 0.26573 85 150 62
-0.254555 0.143033 0.265366 84 149 64
-0.254358 0.143943 0.265189 84 151 64
-0.253747 0.14457 0.265155 84 151 66
-0.252864 0.145007 0.265217 85 153 68
-0.252119 0.145538 0.26523 83 146 65
-0.222749 0.137627 0.272535 93 150 68
-0.222026 0.138018 0.272577 100 156 75
-0.22159 0.138642 0.272512 104 155 77
-0.221059 0.139189 0.272482 96 144 76
-0.220527 0.139736 0.272453 74 115 58
-0.219995 0.140283 0.272423 63 102 46
-0.219651 0.14099 0.272321 61 100 45
-0.219306 0.141699 0.272219 62 100 42
-0.218772 0.142248 0.272189 62 100 42
-0.218331 0.142879 0.272123 61 99 42
-0.221962 0.150283 0.269712 61 99 43
-0.221302 0.150768 0.269721 61 98 42
-0.220942 0.151526 0.26961 62 97 42
-0.220381 0.152103 0.269579 60 97 45
-0.21982 0.15268 0.269548 63 97 50
-0.219259 0.153257 0.269516 59 88 54
-0.218599 0.153741 0.269525 41 51 34
-0.218038 0.154318 0.269494 39 41 27
-0.255289 0.136285 0.265915 101 124 67
-0.254559 0.13681 0.265928 115 168 82
-0.253964 0.137422 0.265895 103 168 78
-0.253369 0.138034 0.265861 95 160 71
-0.25264 0.138558 0.265874 92 156 69
-0.252045 0.13917 0.265841 89 153 65
-0.253997 0.141503 0.264917 85 150 63
-0.25421 0.142683 0.264597 82 145 63
-0.253602 0.143308 0.264563 80 144 63
-0.253266 0.144123 0.264432 78 145 63
-0.252656 0.14475 0.264398 80 147 64
-0.224172 0.137711 0.271448 95 151 68
-0.223343 0.138027 0.271529 103 161 76
-0.222228 0.138107 0.271721 107 161 79
-0.221696 0.138654 0.271691 102 150 76
-0.221163 0.139202 0.271661 80 126 64
-0.22063 0.13975 0.271631 64 105 50
-0.220097 0.140298 0.271601 60 101 46
-0.219752 0.141007 0.271498 60 98 47
-0.219312 0.141637 0.271431 61 99 43
-0.218777 0.142187 0.271401 61 100 45
-0.218806 0.143227 0.271148 60 100 44
-0.222073 0.150322 0.268843 60 98 43
-0.221411 0.150808 0.268853 60 97 41
-0.22085 0.151384 0.268821 62 96 42
-0.220289 0.151961 0.26879 61 96 49
-0.219727 0.152539 0.268759 64 92 54
-0.219166 0.153116 0.268727 50 58 41
-0.218408 0.153507 0.268777 40 40 28
-0.254088 0.136386 0.265221 116 160 79
-0.25336 0.13691 0.265234 111 178 85
-0.252766 0.13752 0.265201 102 168 76
-0.252172 0.138131 0.265168 98 164 74
-0.251577 0.138742 0.265134 94 160 71
-0.253248 0.140882 0.264297 90 156 68
-0.254002 0.142427 0.26378 84 150 66
-0.253394 0.143052 0.263746 80 145 64
-0.252921 0.143772 0.263662 75 143 61
-0.223989 0.137487 0.270731 102 162 76
-0.22316 0.137803 0.270814 108 165 81
-0.222626 0.138353 0.270784 107 157 80
-0.222091 0.138903 0.270754 89 134 68
-0.221459 0.139373 0.270761 68 111 53
-0.220924 0.139923 0.270731 60 102 47
-0.22058 0.140633 0.270626 60 101 46
-0.220139 0.141265 0.270558 60 100 46
-0.219602 0.141817 0.270528 61 98 42
-0.21916 0.14245 0.27046 60 99 45
-0.223255 0.150238 0.267795 60 98 41
-0.222082 0.15027 0.268012 61 98 41
-0.22132 0.150665 0.268063 60 96 46
-0.220758 0.151242 0.268031 62 98 44
-0.220196 0.15182 0.268 64 96 50
-0.219634 0.152397 0.267968 58 74 51
-0.218974 0.152882 0.267978 50 44 27
-0.253617 0.135963 0.264517 111 147 77
-0.253024 0.136573 0.264483 120 182 90
-0.252298 0.137096 0.264497 109 174 80
-0.251573 0.137618 0.26451 104 171 76
-0.251374 0.138491 0.264335 100 167 75
-0.250911 0.139191 0.264254 97 165 72
-0.225174 0.136394 0.26996 82 143 62
-0.224538 0.136867 0.269968 95 155 70
-0.223806 0.137263 0.270014 106 166 78
-0.22327 0.137813 0.269984 109 164 81
-0.222734 0.138364 0.269954 98 145 73
-0.222198 0.138915 0.269923 77 117 57
-0.221661 0.139466 0.269893 63 103 49
-0.221125 0.140018 0.269863 61 99 44
-0.220684 0.14065 0.269794 61 99 44
-0.220242 0.141283 0.269726 62 100 42
-0.223063 0.150003 0.267041 60 97 44
-0.222397 0.150491 0.267051 60 98 45
-0.22163 0.150888 0.267104 60 96 48
-0.220966 0.151375 0.267114 60 99 50
-0.220203 0.15177 0.267166 61 90 53
-0.219541 0.152256 0.267177 47 47 34
-0.252424 0.136064 0.263828 121 176 88
-0.2517 0.136586 0.263842 113 179 84
-0.250977 0.137108 0.263856 107 174 77
-0.250778 0.137977 0.26368 104 173 77
-0.250184 0.138587 0.263646 103 172 76
-0.225626 0.135695 0.269233 82 149 62
-0.225089 0.136246 0.269203 86 148 64
-0.224454 0.13672 0.269211 99 159 74
-0.223819 0.137194 0.26922 109 167 82
-0.223282 0.137745 0.269189 102 154 77
-0.222745 0.138297 0.269159 82 126 62
-0.222208 0.138849 0.269128 68 105 50
-0.221768 0.13948 0.269059 62 100 48
-0.22123 0.140033 0.269028 60 99 45
-0.220692 0.140586 0.268998 61 99 44
-0.220345 0.141301 0.268889 61 100 42
-0.223639 0.149369 0.266234 59 99 43
-0.222972 0.149858 0.266245 58 98 47
-0.222305 0.150348 0.266255 59 99 47
-0.221639 0.150836 0.266266 61 98 50
-0.220974 0.151324 0.266277 65 95 54
-0.22031 0.151812 0.266288 49 60 43
-0.219448 0.152114 0.266384 39 42 24
-0.251105 0.136079 0.26319 118 183 89
-0.250775 0.136858 0.263061 108 174 79
-0.250183 0.137466 0.263027 105 175 78
-0.249074 0.137726 0.263185 105 173 77
-0.248484 0.138333 0.263151 105 173 79
-0.22628 0.135148 0.268427 91 161 70
-0.225443 0.13547 0.268515 84 153 67
-0.224906 0.136021 0.268484 90 152 70
-0.224369 0.136573 0.268453 105 160 78
-0.223734 0.137047 0.268462 105 157 82
-0.223197 0.137599 0.268432 88 133 68
-0.222659 0.138151 0.268401 71 110 51
-0.222219 0.138782 0.268331 63 102 46
-0.221778 0.139415 0.268261 61 100 50
-0.221239 0.139968 0.26823 60 99 50
-0.2207 0.140522 0.268199 60 100 48
-0.224783 0.148152 0.265457 61 98 44
-0.224115 0.148643 0.265468 61 100 49
-0.223446 0.149133 0.265479 61 98 46
-0.222779 0.149623 0.26549 61 97 44
-0.222214 0.150204 0.265458 61 98 47
-0.221548 0.150693 0.265469 64 98 50
-0.220882 0.151181 0.265481 56 80 50
-0.220217 0.151669 0.265492 44 45 29
-0.250383 0.135489 0.26259 120 179 88
-0.250053 0.136265 0.262459 110 175 82
-0.249334 0.136785 0.262474 105 172 78
-0.248487 0.137219 0.262537 104 171 76
-0.247771 0.137737 0.262551 105 172 78
-0.247182 0.138342 0.262518 103 173 76
-0.226599 0.135307 0.267506 91 163 70
-0.225558 0.135475 0.267676 89 158 70
-0.22502 0.136028 0.267645 97 157 74
-0.224383 0.136503 0.267654 105 155 76
-0.223747 0.136978 0.267663 91 138 70
-0.223209 0.13753 0.267633 73 114 56
-0.222671 0.138083 0.267602 64 103 46
-0.222229 0.138715 0.267531 62 101 44
-0.221691 0.139269 0.2675 61 99 48
-0.221151 0.139823 0.267469 61 100 49
-0.22526 0.147425 0.264689 58 100 49
-0.22459 0.147916 0.264701 59 99 48
-0.223921 0.148407 0.264713 60 98 45
-0.223356 0.148988 0.26468 61 97 42
-0.222688 0.149478 0.264692 62 98 45
-0.222021 0.149968 0.264704 62 98 48
-0.221355 0.150457 0.264715 61 90 50
-0.220789 0.151038 0.264683 40 52 33
-0.220124 0.151527 0.264695 38 42 27
-0.249464 0.135761 0.261813 113 180 86
-0.248875 0.136365 0.261779 105 172 77
-0.248031 0.136799 0.261843 102 169 75
-0.247189 0.137231 0.261906 103 169 78
-0.246349 0.137662 0.26197 101 170 76
-0.245637 0.138178 0.261984 102 168 74
-0.227768 0.135142 0.266485 98 173 80
-0.22692 0.135466 0.266578 93 165 72
-0.225875 0.135635 0.266752 98 161 73
-0.225235 0.136112 0.266761 102 157 75
-0.224496 0.13651 0.266812 95 145 70
-0.22376 0.136908 0.266862 75 120 58
-0.223221 0.137462 0.266831 65 105 51
-0.22278 0.138094 0.26676 62 103 50
-0.22224 0.138648 0.266729 62 101 50
-0.2217 0.139203 0.266698 62 102 49
-0.225842 0.146786 0.263876 61 100 47
-0.225171 0.147278 0.263888 60 99 47
-0.224501 0.14777 0.263901 62 98 46
-0.223831 0.148261 0.263913 61 97 48
-0.223163 0.148752 0.263925 64 97 47
-0.222597 0.149334 0.263892 64 97 51
-0.221929 0.149824 0.263904 61 92 56
-0.221262 0.150313 0.263917 41 59 42
-0.220596 0.150803 0.263929 41 37 27
-0.249006 0.135343 0.261121 119 178 87
-0.248163 0.135777 0.261185 111 176 82
-0.247449 0.136295 0.2612 102 169 75
-0.24661 0.136727 0.261264 99 166 77
-0.245523 0.136987 0.261426 98 166 75
-0.24432 0.137161 0.261634 97 165 71
-0.243737 0.137759 0.261601 96 164 72
-0.232286 0.134534 0.264864 93 161 71
-0.230777 0.134396 0.265219 89 160 73
-0.229809 0.134647 0.265358 108 171 79
-0.22895 0.134975 0.265453 112 178 82
-0.227787 0.135069 0.265674 100 172 77
-0.22704 0.135471 0.265727 101 165 75
-0.226193 0.135795 0.265821 105 161 77
-0.22545 0.136196 0.265873 96 148 72
-0.224709 0.136596 0.265924 77 124 60
-0.22397 0.136995 0.265976 65 108 53
-0.22343 0.13755 0.265945 63 103 49
-0.223086 0.138263 0.265831 64 103 50
-0.222642 0.138899 0.265758 64 102 50
-0.222492 0.139778 0.265559 63 104 51
-0.227061 0.14668 0.262786 62 102 49
-0.225858 0.146727 0.263028 61 101 51
-0.225081 0.147131 0.263086 60 99 51
-0.224411 0.147624 0.263099 60 99 51
-0.223741 0.148115 0.263111 61 98 52
-0.223072 0.148607 0.263124 64 97 52
-0.222403 0.149098 0.263137 64 91 53
-0.221736 0.149588 0.263149 47 61 44
-0.221069 0.150078 0.263162 41 41 30
-0.247581 0.135276 0.260545 120 180 88
-0.246744 0.135709 0.26061 110 173 79
-0.245908 0.136141 0.260675 101 167 77
-0.244703 0.136317 0.260886 97 167 76
-0.24363 0.136577 0.261047 95 165 71
-0.243171 0.137258 0.260965 95 161 72
-0.232757 0.133814 0.264113 92 161 72
-0.231138 0.133603 0.264516 93 160 74
-0.230485 0.134088 0.264527 96 162 75
-0.229623 0.134418 0.264625 107 177 84
-0.228972 0.134901 0.264636 108 180 84
-0.227909 0.135073 0.264818 107 171 78
-0.227058 0.135399 0.264915 109 165 79
-0.226311 0.135801 0.264968 99 148 71
-0.225667 0.136281 0.264979 79 124 59
-0.224923 0.136682 0.265032 67 109 54
-0.224281 0.13716 0.265043 63 104 52
-0.223739 0.137717 0.265011 64 102 50
-0.223394 0.138433 0.264895 64 103 51
-0.22285 0.138992 0.264863 63 104 51
-0.229006 0.145041 0.261937 61 104 50
-0.227756 0.146125 0.261918 63 103 51
-0.226866 0.146442 0.262024 63 100 51
-0.226085 0.146848 0.262084 63 101 52
-0.225096 0.147073 0.262236 62 101 53
-0.224425 0.147567 0.26225 62 100 52
-0.22365 0.147969 0.262309 63 99 53
-0.222878 0.148371 0.262368 66 95 53
-0.22221 0.148862 0.262381 51 64 45
-0.221644 0.149443 0.262348 40 43 25
-0.245918 0.135043 0.260073 122 184 89
-0.245087 0.135474 0.260138 109 173 80
-0.24389 0.135653 0.260351 103 172 78
-0.242824 0.135914 0.260513 102 169 74
-0.242245 0.136508 0.260479 99 165 74
-0.232569 0.133582 0.263373 90 160 71
-0.231163 0.133527 0.263694 92 161 71
-0.230403 0.133936 0.263749 105 167 76
-0.229645 0.134343 0.263805 110 181 87
-0.228889 0.13475 0.26386 109 179 85
-0.228238 0.135233 0.263872 113 171 82
-0.227486 0.135638 0.263927 104 156 79
-0.226633 0.135964 0.264025 83 128 63
-0.225885 0.136366 0.264079 68 110 52
-0.225239 0.136847 0.264091 63 103 52
-0.224695 0.137406 0.264059 63 102 52
-0.22405 0.137886 0.26407 64 103 52
-0.223505 0.138445 0.264038 63 104 52
-0.223957 0.139813 0.263572 62 104 50
-0.229027 0.14498 0.261079 63 104 49
-0.228347 0.145478 0.261093 62 103 52
-0.227668 0.145976 0.261107 62 102 53
-0.226884 0.146383 0.261168 62 101 54
-0.226101 0.146789 0.261229 62 101 54
-0.225321 0.147195 0.26129 63 99 53
-0.224334 0.147419 0.261445 65 101 53
-0.223663 0.147913 0.261458 64 95 54
-0.22289 0.148315 0.261518 51 68 44
-0.222118 0.148716 0.261578 46 43 28
-0.244975 0.1343 0.25959 125 182 90
-0.244149 0.13473 0.259655 117 183 87
-0.243205 0.135076 0.25977 110 178 81
-0.242023 0.135256 0.259982 110 176 77
-0.241327 0.135764 0.259997 105 175 78
-0.232488 0.133427 0.262588 94 164 73
-0.231081 0.133374 0.262913 93 164 73
-0.230216 0.133705 0.263014 111 172 78
-0.229562 0.134191 0.263026 111 179 86
-0.228806 0.134598 0.263083 107 175 85
-0.228258 0.13516 0.263051 108 162 79
-0.227607 0.135644 0.263063 90 138 70
-0.226957 0.136127 0.263075 70 113 54
-0.226206 0.136531 0.263131 63 105 50
-0.225659 0.137092 0.263099 63 103 50
-0.225112 0.137654 0.263067 62 102 50
-0.224766 0.138376 0.262946 63 103 51
-0.224318 0.13902 0.26287 63 104 51
-0.229621 0.14433 0.260251 62 104 52
-0.22894 0.144829 0.260266 64 105 51
-0.22826 0.145328 0.26028 64 105 52
-0.227473 0.145737 0.260343 64 102 55
-0.226901 0.146324 0.260309 62 103 53
-0.226223 0.146821 0.260324 63 101 52
-0.225441 0.147227 0.260386 65 99 54
-0.224556 0.147542 0.260496 64 94 55
-0.223572 0.147766 0.260652 47 66 45
-0.222798 0.148169 0.260714 41 40 27
-0.243221 0.133993 0.259176 125 191 93
-0.242403 0.134421 0.259242 114 180 82
-0.241587 0.134848 0.259307 112 180 80
-0.240654 0.135192 0.259421 108 179 80
-0.24008 0.135781 0.259388 108 178 80
-0.232299 0.133195 0.261847 101 172 77
-0.230894 0.133143 0.262177 100 171 77
-0.230134 0.133552 0.262234 114 178 82
-0.22948 0.134038 0.262247 113 176 83
-0.228723 0.134445 0.262304 107 167 82
-0.228071 0.13493 0.262317 99 149 74
-0.227523 0.135492 0.262284 77 121 59
-0.226975 0.136055 0.262252 63 105 50
-0.226427 0.136618 0.26222 60 103 49
-0.225878 0.137181 0.262187 61 103 48
-0.225533 0.137904 0.262065 62 102 45
-0.225186 0.13863 0.261943 63 102 46
-0.229535 0.144179 0.259436 61 104 51
-0.228853 0.144679 0.259451 63 104 52
-0.228172 0.145178 0.259466 63 103 51
-0.227492 0.145676 0.259481 62 103 52
-0.226813 0.146174 0.259496 63 104 54
-0.226134 0.146672 0.259511 65 103 54
-0.225562 0.147259 0.259477 63 93 54
-0.224675 0.147575 0.259589 46 60 42
-0.223688 0.147799 0.259749 46 40 23
-0.242541 0.133425 0.258602 131 194 97
-0.241966 0.134015 0.258568 116 179 84
-0.241033 0.13436 0.258684 111 180 81
-0.240222 0.134786 0.25875 108 179 80
-0.239648 0.135375 0.258716 108 178 80
-0.23211 0.132963 0.261106 105 175 78
-0.230706 0.132912 0.26144 106 174 79
-0.229946 0.133322 0.261498 113 183 86
-0.229292 0.133807 0.261511 110 176 83
-0.22864 0.134293 0.261524 103 159 79
-0.228091 0.134856 0.261492 89 138 69
-0.227542 0.135419 0.261459 70 112 53
-0.226993 0.135982 0.261427 62 103 48
-0.226444 0.136546 0.261394 60 102 46
-0.225997 0.137189 0.261316 60 102 44
-0.225752 0.137995 0.261147 62 103 40
-0.229721 0.142156 0.259081 61 103 45
-0.229776 0.144293 0.258471 60 103 51
-0.228766 0.144528 0.258635 61 103 49
-0.228192 0.145116 0.258601 61 104 48
-0.227618 0.145705 0.258567 61 104 52
-0.226937 0.146204 0.258583 64 103 55
-0.226151 0.146613 0.258648 63 93 56
-0.225472 0.14711 0.258663 52 58 41
-0.224794 0.147608 0.258679 45 40 25
-0.242105 0.133021 0.257931 134 183 94
-0.241411 0.133529 0.257947 118 180 87
-0.240718 0.134037 0.257963 108 176 81
-0.23979 0.134382 0.25808 104 176 81
-0.239217 0.134969 0.258046 106 175 78
-0.231922 0.132731 0.260365 104 175 79
-0.230519 0.132681 0.260703 111 174 80
-0.229864 0.133168 0.260716 110 179 87
-0.229105 0.133577 0.260776 108 171 82
-0.228556 0.13414 0.260743 103 153 75
-0.227904 0.134626 0.260756 84 132 68
-0.227458 0.135267 0.260678 67 112 54
-0.226908 0.135831 0.260645 61 106 50
-0.226359 0.136395 0.260613 61 104 45
-0.226115 0.137198 0.260441 63 103 42
-0.226489 0.138492 0.259989 64 103 43
-0.229526 0.141917 0.258318 60 104 50
-0.230154 0.143463 0.257736 60 103 50
-0.229579 0.144053 0.257702 59 102 50
-0.229004 0.144643 0.257667 59 104 50
-0.228429 0.145233 0.257633 61 104 49
-0.227745 0.145734 0.257649 62 102 52
-0.226955 0.146144 0.257716 65 95 54
-0.226274 0.146643 0.257732 53 58 43
-0.225593 0.147142 0.257748 43 41 27
-0.241669 0.132618 0.257261 134 167 87
-0.241096 0.133207 0.257227 120 181 95
-0.240167 0.133553 0.257345 109 175 81
-0.23936 0.133978 0.257413 104 174 80
-0.238905 0.134647 0.257328 105 173 78
-0.23184 0.132575 0.259576 105 176 78
-0.230436 0.132527 0.259919 117 177 80
-0.229781 0.133014 0.259933 111 178 84
-0.229022 0.133424 0.259994 108 170 82
-0.228369 0.13391 0.260007 104 148 72
-0.22782 0.134473 0.259975 84 127 62
-0.22727 0.135037 0.259942 71 115 53
-0.226823 0.135679 0.259862 64 108 51
-0.226376 0.136323 0.259783 62 104 47
-0.226751 0.137609 0.259326 62 103 44
-0.227971 0.139576 0.258477 62 104 47
-0.229223 0.141593 0.257605 62 105 51
-0.229739 0.143047 0.257068 62 103 50
-0.229383 0.143812 0.256932 60 100 48
-0.229025 0.14458 0.256796 59 98 48
-0.228558 0.145261 0.25671 60 97 47
-0.227872 0.145763 0.256727 63 97 52
-0.227188 0.146264 0.256744 57 82 50
-0.226611 0.146856 0.256709 45 41 26
-0.241117 0.132137 0.256645 132 150 79
-0.240545 0.132724 0.256611 117 179 98
-0.239737 0.133151 0.256679 109 173 81
-0.239048 0.133657 0.256696 107 173 80
-0.238709 0.134406 0.256559 107 174 79
-0.231866 0.132497 0.258739 109 175 79
-0.230249 0.132295 0.259182 113 175 82
-0.229593 0.132783 0.259196 114 177 85
-0.228834 0.133193 0.259257 114 170 83
-0.228181 0.133679 0.259271 103 148 72
-0.227632 0.134243 0.259239 86 128 59
-0.227186 0.134884 0.259158 76 121 55
-0.226738 0.135527 0.259078 69 112 53
-0.22629 0.136171 0.258998 63 105 52
-0.228341 0.138764 0.257758 61 103 50
-0.229274 0.140515 0.257028 62 102 48
-0.229029 0.141354 0.256843 61 102 47
-0.229543 0.142806 0.2563 61 100 45
-0.229405 0.143748 0.25606 59 97 45
-0.228938 0.144428 0.255973 58 95 47
-0.228469 0.145109 0.255887 62 97 44
-0.227892 0.145702 0.255852 66 95 50
-0.227314 0.146294 0.255818 43 57 34
-0.226736 0.146887 0.255783 36 39 28
-0.240685 0.131737 0.25598 124 135 69
-0.240113 0.132323 0.255945 113 174 90
-0.239424 0.13283 0.255963 106 169 78
-0.238853 0.133416 0.255928 113 167 77
-0.231677 0.132264 0.257996 117 172 83
-0.230061 0.132064 0.258444 112 168 83
-0.229301 0.132475 0.258506 114 171 85
-0.228543 0.132886 0.258568 114 168 85
-0.227994 0.133449 0.258535 101 148 75
-0.227444 0.134012 0.258502 88 130 62
-0.226895 0.134576 0.258469 82 124 58
-0.22655 0.135296 0.258341 75 116 55
-0.228711 0.137952 0.25704 66 106 51
-0.229865 0.139864 0.2562 60 101 50
-0.229296 0.140447 0.256166 60 98 49
-0.228942 0.141202 0.25603 61 98 46
-0.229565 0.142741 0.255428 60 96 45
-0.229208 0.143507 0.255289 61 96 42
-0.22885 0.144276 0.255149 62 95 44
-0.228272 0.144868 0.255115 64 97 49
-0.227803 0.14555 0.255027 58 87 53
-0.227225 0.146143 0.254992 40 41 29
-0.24002 0.131181 0.25542 118 128 65
-0.239333 0.131687 0.255438 112 167 83
-0.238763 0.132271 0.255404 105 164 76
-0.238425 0.133015 0.255265 104 165 78
-0.231703 0.132185 0.257154 99 153 76
-0.229768 0.131757 0.257754 106 157 79
-0.229009 0.132168 0.257818 105 157 79
-0.228355 0.132655 0.257833 104 156 81
-0.227806 0.133218 0.257799 99 148 76
-0.227257 0.133782 0.257766 91 134 64
-0.226707 0.134345 0.257733 89 130 60
-0.22626 0.134987 0.257651 83 123 58
-0.230239 0.139042 0.255473 73 112 54
-0.229887 0.139794 0.255336 65 103 50
-0.229318 0.140379 0.255301 62 97 48
-0.228964 0.141134 0.255163 62 96 45
-0.229478 0.142588 0.254605 62 94 46
-0.22912 0.143354 0.254465 61 93 43
-0.228652 0.144034 0.254377 63 95 46
-0.228184 0.144716 0.254289 68 96 55
-0.227714 0.145398 0.254201 50 65 52
-0.239475 0.130706 0.254812 113 124 62
-0.23879 0.131211 0.25483 110 165 83
-0.238221 0.131794 0.254796 101 161 75
-0.237883 0.132536 0.254656 97 158 73
-0.22937 0.131375 0.257114 75 131 65
-0.228717 0.131862 0.25713 87 137 69
-0.228168 0.132425 0.257096 100 149 75
-0.227618 0.132988 0.257063 101 152 77
-0.227069 0.133551 0.25703 94 139 65
-0.226519 0.134114 0.256996 93 137 65
-0.230481 0.13914 0.254503 83 123 58
-0.22991 0.139725 0.254468 75 113 53
-0.229339 0.14031 0.254434 67 102 48
-0.229311 0.141324 0.254135 63 96 42
-0.229391 0.142434 0.253782 65 94 39
-0.228923 0.143113 0.253693 66 95 43
-0.228455 0.143793 0.253605 69 98 49
-0.228095 0.144563 0.253462 73 96 55
-0.227516 0.145157 0.253427 51 50 37
-0.239048 0.130311 0.254154 113 120 59
-0.23848 0.130894 0.254119 108 165 84
-0.237912 0.131476 0.254085 97 159 75
-0.237458 0.132138 0.253997 94 153 70
-0.229078 0.131069 0.256427 45 96 28
-0.228529 0.131631 0.256394 74 108 40
-0.22798 0.132194 0.25636 103 139 67
-0.227431 0.132757 0.256327 103 154 75
-0.226881 0.13332 0.256293 96 142 64
-0.226332 0.133884 0.25626 94 140 67
-0.230151 0.139824 0.253491 85 125 61
-0.229579 0.140411 0.253457 77 113 56
-0.22966 0.141516 0.2531 71 104 50
-0.229194 0.142193 0.253011 69 101 47
-0.228726 0.142871 0.252922 69 102 48
-0.228258 0.143551 0.252832 70 102 53
-0.227897 0.144321 0.252688 71 93 55
-0.227318 0.144915 0.252653 52 42 30
-0.238738 0.129995 0.253445 111 118 60
-0.238171 0.130576 0.25341 107 164 82
-0.237603 0.131158 0.253375 96 156 73
-0.237149 0.131819 0.253287 92 149 68
-0.228891 0.130838 0.255691 39 100 31
-0.228342 0.131401 0.255658 73 112 43
-0.227689 0.131888 0.255674 106 141 70
-0.22714 0.13245 0.25564 102 153 76
-0.226694 0.13309 0.255557 96 141 64
-0.230614 0.140095 0.2524 91 135 63
-0.230039 0.140685 0.252365 85 127 59
-0.229573 0.141361 0.252275 78 117 57
-0.229106 0.142039 0.252185 75 113 55
-0.228529 0.14263 0.25215 75 110 51
-0.228169 0.143398 0.252005 75 110 54
-0.227699 0.144079 0.251914 62 92 57
-0.22712 0.144673 0.251879 42 40 28
-0.238545 0.129756 0.252682 107 117 62
-0.237862 0.13026 0.252701 104 160 82
-0.237294 0.130841 0.252666 96 155 72
-0.236841 0.131501 0.252577 92 151 67
-0.228154 0.13117 0.254921 76 117 46
-0.227502 0.131657 0.254938 108 144 69
-0.226953 0.13222 0.254904 100 150 74
-0.226506 0.132859 0.25482 95 141 65
-0.230418 0.139854 0.25163 91 139 66
-0.229843 0.140444 0.251594 91 136 64
-0.229376 0.14112 0.251504 89 130 64
-0.228909 0.141798 0.251413 87 126 60
-0.228332 0.142389 0.251378 85 125 57
-0.227972 0.143156 0.251231 82 118 60
-0.227393 0.143749 0.251196 62 90 61
-0.226923 0.144431 0.251105 40 43 32
-0.238235 0.129439 0.251974 105 112 58
-0.237668 0.130021 0.251939 107 164 82
-0.2371 0.130602 0.251904 96 156 73
-0.236533 0.131184 0.251869 91 152 69
-0.227417 0.131502 0.254151 111 147 71
-0.226765 0.131989 0.254168 101 149 74
-0.230331 0.139699 0.250804 93 140 68
-0.229756 0.140289 0.250768 94 141 67
-0.229289 0.140965 0.250677 95 140 65
-0.228712 0.141556 0.250641 94 137 62
-0.228135 0.142147 0.250606 93 135 63
-0.227774 0.142914 0.250458 86 123 67
-0.227196 0.143507 0.250422 57 82 63
-0.226617 0.1441 0.250386 38 42 32
-0.238042 0.1292 0.251212 105 111 56
-0.237474 0.129782 0.251177 106 164 78
-0.236907 0.130363 0.251142 95 157 71
-0.236339 0.130945 0.251106 92 153 67
-0.23071 0.138868 0.250069 95 143 65
-0.230025 0.139372 0.250089 96 143 65
-0.229559 0.140047 0.249997 96 143 68
-0.229092 0.140724 0.249905 97 142 68
-0.228515 0.141315 0.249869 98 144 67
-0.227938 0.141906 0.249833 99 143 68
-0.227469 0.142585 0.249741 92 128 68
-0.226998 0.143265 0.249648 60 72 56
-0.22642 0.143858 0.249612 43 42 27
-0.237848 0.128961 0.25045 105 112 56
-0.23728 0.129542 0.250415 105 164 81
-0.236713 0.130124 0.250379 95 157 71
-0.236258 0.130783 0.250288 92 152 67
-0.235803 0.131444 0.250197 91 151 67
-0.229855 0.138122 0.249637 96 141 65
-0.229719 0.139047 0.249375 96 143 66
-0.229253 0.139721 0.249283 99 146 67
-0.228786 0.140396 0.24919 102 146 69
-0.228318 0.141073 0.249097 103 149 70
-0.227741 0.141664 0.249061 102 146 71
-0.227271 0.142343 0.248968 96 129 70
-0.226693 0.142935 0.248932 61 63 52
-0.226222 0.143616 0.248838 42 41 27
-0.237654 0.128722 0.249688 103 108 53
-0.237087 0.129303 0.249652 106 164 82
-0.236519 0.129885 0.249617 98 156 72
-0.236064 0.130544 0.249525 93 152 68
-0.235609 0.131205 0.249433 89 153 68
-0.224755 0.13314 0.25175 97 144 65
-0.224204 0.133704 0.251716 95 144 68
-0.229086 0.138469 0.248834 94 147 72
-0.228947 0.139395 0.248569 98 147 69
-0.228589 0.140155 0.248418 101 150 71
-0.228012 0.140746 0.248382 103 150 71
-0.227543 0.141423 0.248289 106 149 75
-0.226966 0.142014 0.248252 98 131 72
-0.226495 0.142694 0.248158 61 58 46
-0.225917 0.143286 0.248122 39 43 26
-0.237346 0.128407 0.248982 104 109 55
-0.236893 0.129064 0.24889 107 163 81
-0.236325 0.129645 0.248854 96 157 73
-0.23587 0.130305 0.248762 92 153 69
-0.235414 0.130965 0.248669 90 154 69
-0.224567 0.132909 0.251012 95 144 68
-0.224016 0.133473 0.250978 96 146 69
-0.228782 0.138145 0.248124 97 147 71
-0.228642 0.139069 0.247857 99 148 71
-0.228283 0.139828 0.247705 102 148 71
-0.227815 0.140504 0.247611 101 150 72
-0.227238 0.141095 0.247574 103 149 73
-0.226769 0.141773 0.24748 98 129 71
-0.226191 0.142364 0.247443 62 51 41
-0.237152 0.128168 0.24822 104 110 55
-0.236585 0.128749 0.248184 108 162 80
-0.236131 0.129406 0.248091 97 158 72
-0.235563 0.129988 0.248055 92 153 66
-0.235107 0.130648 0.247962 92 153 66
-0.225866 0.129902 0.250787 112 154 73
-0.225319 0.130462 0.250752 101 147 71
-0.224872 0.131098 0.250664 98 143 66
-0.224828 0.132038 0.250363 96 144 68
-0.224379 0.132678 0.250274 96 147 69
-0.223827 0.133242 0.250239 98 146 67
-0.228586 0.137905 0.247356 98 146 69
-0.228229 0.13866 0.247204 100 150 71
-0.227978 0.139502 0.246992 102 153 72
-0.22751 0.140177 0.246897 103 153 74
-0.226934 0.140767 0.246861 102 150 74
-0.226464 0.141444 0.246766 95 126 68
-0.225993 0.142123 0.24667 63 49 36
-0.236958 0.127929 0.247458 102 109 56
-0.236391 0.128509 0.247422 105 163 83
-0.235823 0.12909 0.247386 97 157 72
-0.235368 0.129749 0.247292 92 154 65
-0.234913 0.130408 0.247198 92 154 66
-0.235464 0.134762 0.245573 82 145 64
-0.226125 0.129038 0.250141 98 151 70
-0.225578 0.129598 0.250106 110 154 76
-0.225031 0.130158 0.250072 100 146 72
-0.224685 0.130868 0.24993 97 144 69
-0.224237 0.131504 0.249841 96 145 70
-0.22409 0.132371 0.24959 97 147 69
-0.223639 0.133011 0.249501 99 146 68
-0.228391 0.137665 0.246589 100 149 70
-0.228033 0.138419 0.246435 100 149 72
-0.227674 0.139176 0.246281 102 151 72
-0.227206 0.139851 0.246185 103 152 74
-0.226737 0.140526 0.246089 102 148 75
-0.22616 0.141117 0.246053 88 120 66
-0.225583 0.141707 0.246016 63 42 32
-0.236651 0.127614 0.246754 101 106 54
-0.236084 0.128194 0.246718 105 163 81
-0.235629 0.128851 0.246624 95 158 70
-0.235174 0.129509 0.246529 92 152 67
-0.234606 0.130091 0.246493 91 154 68
-0.226997 0.128614 0.249171 86 145 68
-0.22604 0.128881 0.249354 100 151 73
-0.225492 0.129442 0.249319 111 154 76
-0.225046 0.130077 0.24923 101 146 71
-0.224497 0.130638 0.249195 95 146 69
-0.224049 0.131274 0.249105 94 148 69
-0.223901 0.13214 0.248852 97 147 68
-0.223451 0.13278 0.248762 98 148 71
-0.228087 0.137341 0.24588 99 150 72
-0.227621 0.138011 0.245785 101 151 72
-0.227155 0.138682 0.245689 102 154 72
-0.226902 0.139524 0.245474 103 154 71
-0.226433 0.140199 0.245377 100 148 73
-0.225856 0.140789 0.245341 80 111 68
-0.22528 0.14138 0.245304 56 37 32
-0.236457 0.127375 0.245993 103 108 55
-0.23589 0.127955 0.245957 104 163 81
-0.235323 0.128536 0.24592 94 159 73
-0.234868 0.129193 0.245825 91 154 68
-0.234411 0.129852 0.24573 90 156 66
-0.226809 0.128383 0.248435 86 146 66
-0.225853 0.128652 0.24862 101 153 73
-0.225305 0.129212 0.248585 112 156 74
-0.224858 0.129846 0.248495 101 147 69
-0.224411 0.130482 0.248405 97 146 67
-0.223962 0.131119 0.248315 98 146 68
-0.223713 0.131909 0.248114 98 146 68
-0.223262 0.132549 0.248024 99 148 68
-0.227569 0.136853 0.245292 101 149 71
-0.227426 0.137771 0.245017 103 150 72
-0.226852 0.138358 0.24498 102 152 71
-0.226385 0.13903 0.244884 103 153 71
-0.22581 0.139618 0.244847 100 148 74
-0.225235 0.140206 0.24481 77 109 67
-0.23615 0.127061 0.24529 99 109 59
-0.235583 0.127641 0.245254 104 164 81
-0.235016 0.128221 0.245218 94 157 73
-0.234561 0.128878 0.245122 89 153 68
-0.234105 0.129536 0.245026 88 156 68
-0.226622 0.128153 0.247699 86 143 65
-0.225666 0.128422 0.247885 104 154 75
-0.225118 0.128982 0.24785 113 158 77
-0.224671 0.129616 0.24776 102 146 69
-0.224223 0.130252 0.247669 98 146 68
-0.223774 0.130888 0.247579 98 148 69
-0.223525 0.131678 0.247376 100 150 69
-0.223074 0.132318 0.247285 102 150 69
-0.227374 0.136614 0.244527 102 151 71
-0.227016 0.137365 0.24437 102 151 72
-0.226549 0.138034 0.244273 102 152 72
-0.225976 0.138621 0.244236 104 150 71
-0.225402 0.139208 0.244199 99 142 73
-0.224933 0.13988 0.244102 71 103 65
-0.235843 0.126748 0.244589 101 107 56
-0.235277 0.127327 0.244553 105 164 81
-0.23471 0.127907 0.244516 97 155 73
-0.234255 0.128563 0.24442 91 153 68
-0.233799 0.12922 0.244323 89 154 68
-0.226434 0.127922 0.246963 86 142 67
-0.225479 0.128192 0.247151 105 155 79
-0.224931 0.128752 0.247116 111 160 79
-0.224383 0.129312 0.247081 100 148 70
-0.223935 0.129947 0.246989 97 147 70
-0.223487 0.130583 0.246898 98 150 71
-0.223337 0.131446 0.246638 101 152 71
-0.222786 0.13201 0.246602 102 151 71
-0.227179 0.136374 0.243761 102 152 73
-0.22682 0.137125 0.243603 102 153 73
-0.226353 0.137794 0.243505 103 154 71
-0.22578 0.138381 0.243468 103 152 73
-0.225206 0.138968 0.243431 96 141 75
-0.224527 0.139471 0.243455 68 96 65
-0.23565 0.126509 0.243828 101 106 55
-0.235083 0.127089 0.243792 103 163 80
-0.234517 0.127668 0.243755 96 155 71
-0.23395 0.128248 0.243718 91 153 67
-0.233605 0.128981 0.24356 89 153 68
-0.226247 0.127691 0.246227 84 140 64
-0.225292 0.127962 0.246417 102 155 77
-0.224643 0.128449 0.246438 109 159 79
-0.224196 0.129082 0.246346 101 148 70
-0.223648 0.129643 0.246311 98 148 70
-0.223199 0.130278 0.246219 98 149 69
-0.223049 0.13114 0.245957 100 150 69
-0.222597 0.131779 0.245864 102 153 71
-0.226984 0.136135 0.242996 102 152 72
-0.226624 0.136885 0.242836 102 153 73
-0.226051 0.137471 0.242799 103 152 73
-0.225478 0.138057 0.242762 103 150 74
-0.224905 0.138644 0.242725 95 139 73
-0.224331 0.139231 0.242687 61 89 63
-0.235231 0.126122 0.243189 100 107 53
-0.234778 0.126775 0.243091 103 163 82
-0.234211 0.127354 0.243055 94 156 69
-0.233756 0.128009 0.242957 90 152 65
-0.233411 0.128741 0.242798 90 152 67
-0.225957 0.127388 0.245548 83 140 64
-0.225004 0.127659 0.245739 101 155 77
-0.224256 0.128073 0.245817 110 158 78
-0.223909 0.128779 0.245668 103 147 70
-0.223361 0.129339 0.245632 100 149 70
-0.222912 0.129974 0.24554 99 151 70
-0.222761 0.130834 0.245276 101 151 70
-0.222409 0.131548 0.245125 103 153 72
-0.226788 0.135895 0.24223 104 152 71
-0.226322 0.136563 0.242131 103 153 70
-0.225856 0.137231 0.242032 104 153 72
-0.225282 0.137817 0.241994 104 153 74
-0.224604 0.13832 0.242019 95 138 74
-0.22403 0.138907 0.241982 57 80 59
-0.234926 0.12581 0.24249 99 105 54
-0.234472 0.126462 0.242392 104 164 83
-0.234018 0.127116 0.242294 93 155 71
-0.233451 0.127695 0.242257 91 151 66
-0.233106 0.128426 0.242097 91 152 68
-0.22577 0.127157 0.244812 86 140 64
-0.224616 0.127285 0.24512 104 156 76
-0.223869 0.127699 0.245198 111 159 78
-0.223323 0.128258 0.245162 103 147 70
-0.222876 0.128889 0.24507 100 149 69
-0.222625 0.12967 0.244862 102 151 68
-0.222473 0.130529 0.244596 102 151 69
-0.227165 0.135071 0.241501 103 153 71
-0.226593 0.135656 0.241464 104 153 71
-0.226127 0.136323 0.241364 104 154 71
-0.225554 0.136908 0.241327 103 153 72
-0.224981 0.137494 0.241289 103 153 75
-0.224408 0.13808 0.241252 97 135 73
-0.223834 0.138667 0.241214 56 70 54
-0.234509 0.125425 0.241855 100 104 54
-0.234056 0.126076 0.241756 106 164 81
-0.233713 0.126803 0.241595 93 155 72
-0.233369 0.127532 0.241434 89 151 67
-0.232801 0.128112 0.241397 89 151 66
-0.22538 0.126783 0.244191 86 141 63
-0.224229 0.126912 0.244502 104 156 73
-0.223583 0.127398 0.244523 110 159 77
-0.222938 0.127884 0.244545 103 148 70
-0.222491 0.128514 0.244452 100 150 69
-0.222043 0.129146 0.244358 102 152 68
-0.222087 0.130149 0.243976 103 151 69
-0.226969 0.134831 0.240735 104 152 71
-0.226397 0.135416 0.240698 105 152 71
-0.225825 0.136001 0.24066 104 152 70
-0.225358 0.136669 0.24056 104 152 72
-0.224785 0.137254 0.240522 103 150 74
-0.224107 0.137757 0.240548 97 132 73
-0.223534 0.138343 0.24051 58 62 51
-0.234205 0.125114 0.241158 100 104 55
-0.233641 0.125691 0.241121 103 162 81
-0.233076 0.126268 0.241084 93 155 71
-0.233064 0.127218 0.240735 89 151 66
-0.225091 0.126481 0.243515 87 142 63
-0.223843 0.12654 0.243885 105 157 74
-0.223198 0.127025 0.243907 108 161 77
-0.222653 0.127583 0.243871 101 149 71
-0.222206 0.128213 0.243778 100 149 71
-0.221758 0.128844 0.243684 100 152 71
-0.221702 0.129771 0.243357 102 152 72
-0.226774 0.134592 0.23997 101 151 74
-0.226202 0.135176 0.239932 102 152 73
-0.22563 0.135761 0.239894 104 152 70
-0.225057 0.136347 0.239857 102 151 72
-0.224485 0.136932 0.239819 101 150 74
-0.223912 0.137518 0.239781 95 128 70
-0.223338 0.138104 0.239743 60 57 43
-0.233901 0.124804 0.240463 100 105 56
-0.233337 0.12538 0.240426 102 163 84
-0.232773 0.125957 0.240388 93 155 70
-0.232209 0.126533 0.240351 89 152 66
-0.224904 0.126251 0.24278 91 142 62
-0.223656 0.126311 0.243154 109 157 75
-0.223012 0.126797 0.243177 108 159 78
-0.222467 0.127354 0.243141 100 150 71
-0.221921 0.127911 0.243105 99 149 72
-0.221474 0.128542 0.24301 101 151 72
-0.221417 0.129467 0.242681 102 152 72
-0.226579 0.134352 0.239203 102 152 73
-0.226007 0.134937 0.239166 103 151 71
-0.225434 0.135522 0.239128 105 153 70
-0.224862 0.136107 0.23909 104 151 71
-0.224289 0.136692 0.239052 101 149 73
-0.223716 0.137278 0.239014 95 125 68
-0.223143 0.137864 0.238976 63 51 39
-0.233598 0.124494 0.239769 100 103 55
-0.232924 0.124997 0.239794 103 164 84
-0.232361 0.125573 0.239757 91 154 72
-0.231688 0.126075 0.239783 88 153 68
-0.231452 0.126873 0.239556 88 152 67
-0.22437 0.126724 0.24189 112 158 75
-0.230333 0.131979 0.237977 109 159 77
-0.229757 0.132567 0.237939 102 151 71
-0.221833 0.127754 0.242315 99 151 71
-0.221679 0.128603 0.242042 100 151 71
-0.226383 0.134112 0.238437 102 153 72
-0.225811 0.134697 0.238399 102 153 72
-0.225239 0.135282 0.238361 102 152 73
-0.224666 0.135867 0.238323 101 149 75
-0.224093 0.136452 0.238285 99 148 75
-0.22352 0.137038 0.238247 91 117 66
-0.222947 0.137624 0.238209 61 38 35
-0.233295 0.124184 0.239075 101 105 57
-0.232732 0.12476 0.239038 103 163 82
-0.232059 0.125262 0.239064 91 153 71
-0.231387 0.125765 0.23909 90 151 67
-0.230716 0.126266 0.239116 91 152 67
-0.230153 0.126841 0.239078 93 151 67
-0.226188 0.133872 0.237671 101 152 71
-0.225616 0.134457 0.237633 101 152 71
-0.224938 0.134961 0.23766 101 151 72
-0.224366 0.135546 0.237622 101 149 72
-0.223793 0.136131 0.237584 98 145 73
-0.22322 0.136716 0.237546 86 110 63
-0.222647 0.137301 0.237507 58 37 30
-0.233103 0.123947 0.238319 99 104 56
-0.23243 0.12445 0.238345 102 162 80
-0.231758 0.124953 0.238372 91 151 67
-0.231086 0.125455 0.238398 99 151 67
-0.230524 0.12603 0.23836 99 160 74
-0.229961 0.126605 0.238323 105 161 76
-0.229397 0.12718 0.238285 116 169 86
-0.230515 0.130908 0.236473 109 159 79
-0.22994 0.131496 0.236434 109 157 77
-0.228495 0.131453 0.236926 101 150 70
-0.225781 0.133473 0.237036 101 152 71
-0.225209 0.134057 0.236998 102 150 72
-0.224638 0.134641 0.23696 103 150 72
-0.224066 0.135225 0.236921 103 149 71
-0.223494 0.135809 0.236883 98 143 73
-0.222921 0.136394 0.236845 78 105 65
-0.222349 0.136979 0.236807 50 33 30
-0.23291 0.123709 0.237562 99 104 53
-0.232238 0.124213 0.237589 102 163 80
-0.231457 0.124643 0.23768 90 149 67
-0.230894 0.125218 0.237643 103 150 68
-0.230224 0.12572 0.237669 100 158 75
-0.229661 0.126294 0.237631 108 158 75
-0.228991 0.126795 0.237658 120 168 85
-0.228429 0.12737 0.23762 107 167 83
-0.229689 0.12923 0.236473 99 152 70
-0.229227 0.129889 0.236369 107 157 76
-0.228656 0.130473 0.23633 109 157 77
-0.228084 0.131056 0.236292 102 150 70
-0.227513 0.13164 0.236253 99 149 69
-0.226941 0.132224 0.236215 100 150 70
-0.225946 0.132492 0.236441 101 151 70
-0.225375 0.133074 0.236403 100 150 71
-0.224909 0.133737 0.236299 101 149 71
-0.224338 0.134321 0.23626 102 149 70
-0.223766 0.134905 0.236222 102 149 71
-0.223195 0.135489 0.236183 96 141 72
-0.222622 0.136073 0.236145 71 100 63
-0.22205 0.136658 0.236107 46 36 26
-0.232718 0.123472 0.236806 98 104 52
-0.232045 0.123975 0.236833 100 162 79
-0.231265 0.124406 0.236925 88 147 66
-0.230594 0.124908 0.236952 106 149 69
-0.230031 0.125483 0.236914 96 153 74
-0.229362 0.125984 0.236941 106 154 74
-0.228693 0.126485 0.236968 117 167 84
-0.22813 0.127059 0.23693 100 161 80
-0.228098 0.128007 0.236567 95 146 66
-0.228816 0.129496 0.235736 105 155 74
-0.228353 0.130155 0.235631 107 156 77
-0.227782 0.130739 0.235593 102 150 69
-0.227211 0.131322 0.235554 100 150 69
-0.226639 0.131905 0.235516 98 150 70
-0.225856 0.132331 0.235611 98 149 69
-0.22518 0.132835 0.235639 99 149 70
-0.224714 0.133498 0.235534 99 149 72
-0.224143 0.134081 0.235495 100 148 72
-0.223467 0.134585 0.235523 101 147 70
-0.222793 0.135088 0.235551 95 139 72
-0.222221 0.135671 0.235513 69 98 64
-0.221752 0.136336 0.235408 45 35 29
-0.232526 0.123234 0.236049 97 100 53
-0.231853 0.123738 0.236076 97 156 78
-0.231072 0.124169 0.23617 87 145 64
-0.230402 0.124672 0.236197 105 146 66
-0.229839 0.125246 0.236159 92 148 69
-0.22917 0.125748 0.236186 106 149 69
-0.228501 0.126249 0.236214 116 164 83
-0.227938 0.126823 0.236176 97 156 80
-0.227905 0.12777 0.235809 93 139 65
-0.228298 0.129027 0.235173 103 151 73
-0.227943 0.129762 0.235 105 155 75
-0.227373 0.130344 0.234962 101 146 70
-0.227016 0.131082 0.234789 99 146 71
-0.226444 0.131666 0.23475 97 147 70
-0.225872 0.132249 0.234711 98 147 68
-0.22509 0.132675 0.234807 98 148 68
-0.22431 0.1331 0.234903 98 148 70
-0.22374 0.133682 0.234864 101 147 71
-0.223065 0.134185 0.234893 101 146 71
-0.222495 0.134768 0.234854 93 136 73
-0.221924 0.135351 0.234815 66 91 64
-0.221353 0.135934 0.234777 43 31 29
-0.231661 0.123501 0.23532 73 121 71
-0.23088 0.123932 0.235414 71 120 61
-0.23021 0.124435 0.235442 92 130 64
-0.229647 0.125009 0.235404 87 138 68
-0.228977 0.125511 0.235431 106 144 69
-0.228415 0.126085 0.235393 119 162 82
-0.227852 0.12666 0.235355 97 154 80
-0.227712 0.127532 0.235051 94 136 65
-0.22789 0.128637 0.234545 104 149 73
-0.227535 0.129369 0.234371 103 153 73
-0.227178 0.130105 0.234197 98 145 69
-0.224686 0.132278 0.234178 96 146 70
-0.224115 0.132861 0.234139 97 145 70
-0.223441 0.133364 0.234168 99 144 70
-0.222871 0.133946 0.234129 101 145 70
-0.222197 0.134449 0.234158 90 132 72
-0.221627 0.135031 0.234119 59 83 60
-0.221056 0.135614 0.23408 37 32 25
-0.231468 0.123263 0.234563 51 64 40
-0.230688 0.123695 0.234658 50 66 37
-0.230125 0.12427 0.23462 68 72 39
-0.229455 0.124772 0.234648 70 82 45
-0.228892 0.125347 0.23461 82 91 47
-0.228223 0.125849 0.234638 87 104 58
-0.227765 0.126497 0.234533 67 108 65
-0.227625 0.127369 0.234227 72 110 61
-0.227377 0.128172 0.233986 86 128 71
-0.22734 0.12913 0.233608 91 138 71
-0.226983 0.129865 0.233433 92 137 68
-0.224387 0.131961 0.233482 96 142 69
-0.223713 0.132464 0.233511 97 141 69
-0.223143 0.133046 0.233472 99 142 69
-0.222573 0.133628 0.233433 99 142 69
-0.222002 0.13421 0.233394 88 127 72
-0.22133 0.134712 0.233423 55 76 57
-0.220557 0.135133 0.23352 35 38 24
-0.232058 0.122592 0.23371 34 31 20
-0.231385 0.123097 0.233739 38 37 22
-0.230712 0.123601 0.233768 40 35 24
-0.229933 0.124033 0.233864 43 36 24
-0.22937 0.124608 0.233825 42 42 28
-0.228806 0.125183 0.233787 47 46 30
-0.228243 0.125758 0.233748 49 51 34
-0.227997 0.126554 0.233507 40 54 33
-0.227644 0.12728 0.233332 47 59 33
-0.227609 0.128235 0.232952 56 65 39
-0.227359 0.129044 0.232707 64 70 39
-0.2244 0.131878 0.232581 79 119 68
-0.223518 0.132225 0.232748 83 124 71
-0.222948 0.132807 0.232709 86 127 71
