ply
format ascii 1.0
element vertex 589
property float x
property float y
property float z
property uchar diffuse_red
property uchar diffuse_green
property uchar diffuse_blue
end_header
-0.275787 0.00398297 0.296697 113 164 84
-0.274539 0.0039961 0.296077 116 166 85
-0.27416 0.00464367 0.29647 116 167 86
-0.275051 0.00383859 0.294972 118 167 86
-0.273438 0.00405679 0.295453 117 168 87
-0.272928 0.00465471 0.295855 116 168 87
-0.2735 0.00563746 0.296186 117 168 87
-0.274463 0.00329826 0.293941 118 170 89
-0.27449 0.00409142 0.294309 116 168 87
-0.272478 0.00416468 0.294824 116 169 86
-0.271306 0.00452304 0.295273 116 168 87
-0.268979 0.00445562 0.295796 116 167 86
-0.273247 0.00410368 0.293699 117 170 84
-0.271256 0.00417711 0.294218 117 169 85
-0.270097 0.00453457 0.294668 116 166 85
-0.268567 0.0047487 0.295141 116 166 85
-0.268863 0.00562185 0.295481 116 168 86
-0.269912 0.00414231 0.293627 121 170 90
-0.269028 0.00459318 0.294058 117 168 87
-0.268155 0.00504183 0.294485 117 165 85
-0.268972 0.00424891 0.293009 109 162 83
-0.26745 0.00446376 0.293493 112 166 85
-0.267743 0.005335 0.29383 115 168 85
-0.268297 0.00444918 0.292372 109 154 76
-0.267039 0.00475639 0.292839 114 165 84
-0.267331 0.00562823 0.293174 116 170 87
-0.268372 0.00415229 0.291307 102 148 75
-0.267624 0.00464902 0.291736 115 163 82
-0.266627 0.00504907 0.292184 117 169 87
-0.267957 0.00444732 0.290647 116 171 89
-0.26721 0.00494309 0.291078 120 172 89
-0.267502 0.00581877 0.291413 120 170 88
-0.267573 0.0055241 0.290346 126 174 89
-0.258623 -0.00705584 0.281586 78 103 52
-0.259413 -0.00787614 0.280074 104 147 74
-0.257954 -0.00759659 0.280645 106 149 76
-0.258222 -0.0067726 0.28095 109 152 77
-0.258491 -0.00594572 0.281255 112 157 79
-0.258761 -0.00511598 0.281561 114 161 82
-0.259031 -0.00428336 0.281869 114 165 85
-0.258743 -0.00841783 0.27913 117 171 84
-0.257288 -0.00813556 0.279708 119 169 85
-0.257555 -0.00731385 0.28001 118 170 87
-0.257822 -0.00648929 0.280313 118 171 88
-0.25809 -0.00566187 0.280617 119 171 87
-0.258359 -0.00483155 0.280922 119 172 87
-0.258629 -0.00399836 0.281229 119 173 87
-0.2589 -0.00316226 0.281536 120 172 88
-0.257806 -0.0164122 0.274793 123 173 91
-0.254798 -0.0143306 0.276701 121 175 90
-0.255575 -0.0119224 0.277583 125 178 92
-0.255836 -0.0111142 0.277879 125 177 91
-0.257563 -0.00985458 0.277929 125 177 89
-0.258198 -0.00891939 0.278168 124 177 89
-0.258094 -0.00821117 0.278531 125 177 89
-0.256889 -0.00785332 0.279073 125 176 90
-0.257155 -0.00703105 0.279374 125 176 91
-0.257421 -0.00620592 0.279676 124 177 90
-0.257689 -0.00537794 0.279979 125 177 90
-0.257957 -0.00454705 0.280283 124 177 89
-0.258226 -0.00371331 0.280589 125 177 89
-0.253128 -0.0180149 0.27463 129 173 93
-0.253382 -0.0172278 0.274917 129 175 93
-0.253636 -0.0164381 0.275205 128 175 91
-0.253891 -0.0156457 0.275494 127 176 89
-0.254147 -0.0148506 0.275784 126 175 90
-0.254404 -0.0140528 0.276075 125 175 89
-0.254661 -0.0132522 0.276366 125 175 89
-0.25492 -0.0124489 0.276659 125 173 90
-0.255179 -0.0116429 0.276953 125 176 91
-0.25544 -0.0108341 0.277248 123 176 89
-0.25704 -0.00960957 0.277313 122 175 89
-0.256226 -0.00839103 0.278139 119 173 88
-0.25649 -0.00757104 0.278438 119 172 88
-0.256755 -0.00674819 0.278738 118 171 87
-0.257021 -0.00592252 0.279039 116 170 86
-0.257287 -0.00509397 0.279341 115 168 84
-0.25866 -0.00389075 0.279468 114 166 83
-0.252485 -0.0185246 0.273724 121 171 91
-0.252737 -0.0177396 0.274009 120 170 91
-0.25299 -0.016952 0.274295 117 169 91
-0.253244 -0.0161618 0.274581 113 170 87
-0.253498 -0.0153688 0.274869 111 171 87
-0.253753 -0.0145732 0.275158 110 168 86
-0.25401 -0.0137748 0.275448 109 166 84
-0.254267 -0.0129738 0.275739 107 164 83
-0.254524 -0.0121699 0.276031 106 162 82
-0.254783 -0.0113634 0.276324 103 159 80
-0.255043 -0.010554 0.276617 99 158 78
-0.255827 -0.00810926 0.277505 94 151 75
-0.256091 -0.0072887 0.277803 92 148 72
-0.256355 -0.0064653 0.278102 92 146 71
-0.25662 -0.00563905 0.278402 90 144 69
-0.25811 -0.00440021 0.278501 88 141 67
-0.252346 -0.0174643 0.273387 89 133 62
-0.252599 -0.0166762 0.273672 87 134 63
-0.252851 -0.0158854 0.273958 84 133 60
-0.253105 -0.0150919 0.274245 82 130 59
-0.25336 -0.0142958 0.274533 83 128 60
-0.253615 -0.0134969 0.274821 81 128 56
-0.253872 -0.0126952 0.275111 79 125 55
-0.254129 -0.0118909 0.275402 77 125 56
-0.254387 -0.0110837 0.275694 75 122 56
-0.254646 -0.0102739 0.275986 73 121 54
-0.255429 -0.00782743 0.276871 68 119 52
-0.255691 -0.00700632 0.277168 68 117 48
-0.255955 -0.00618236 0.277466 67 115 50
-0.256219 -0.00535554 0.277764 66 114 49
-0.251955 -0.017189 0.272766 70 113 51
-0.252207 -0.0164004 0.273049 68 111 50
-0.252459 -0.015609 0.273334 67 111 49
-0.252712 -0.014815 0.27362 65 111 48
-0.252966 -0.0140183 0.273907 63 110 49
-0.253221 -0.0132188 0.274195 63 109 47
-0.253477 -0.0124167 0.274483 63 108 46
-0.253734 -0.0116118 0.274773 62 107 48
-0.253991 -0.0108041 0.275064 62 106 50
-0.254249 -0.00999366 0.275355 59 104 49
-0.255292 -0.00672388 0.276532 60 101 39
-0.255555 -0.00589937 0.276829 58 100 44
-0.255819 -0.00507199 0.277127 59 99 43
-0.251815 -0.0161244 0.272427 68 105 47
-0.252067 -0.0153326 0.27271 67 103 48
-0.252319 -0.014538 0.272995 65 104 44
-0.252573 -0.0137407 0.273281 64 102 41
-0.252827 -0.0129408 0.273568 64 100 43
-0.253082 -0.0121381 0.273855 63 102 43
-0.253338 -0.0113326 0.274144 62 101 47
-0.253595 -0.0105244 0.274434 61 100 47
-0.254892 -0.00644141 0.275897 62 100 47
-0.255155 -0.00561632 0.276193 63 99 52
-0.255418 -0.00478839 0.27649 65 101 52
-0.255682 -0.00395757 0.276787 67 102 49
-0.255947 -0.00312387 0.277086 68 103 50
-0.256213 -0.00228725 0.277386 71 105 52
-0.256747 -0.000605244 0.277989 77 112 54
-0.257016 0.000240178 0.278292 79 114 56
-0.251675 -0.0150561 0.272087 84 110 53
-0.251926 -0.014261 0.27237 85 112 51
-0.252179 -0.0134632 0.272655 85 113 52
-0.252433 -0.0126627 0.272941 87 116 55
-0.252687 -0.0118594 0.273227 90 119 57
-0.252942 -0.0110534 0.273515 90 118 58
-0.253199 -0.0102446 0.273804 91 121 57
-0.253456 -0.00943309 0.274093 94 123 58
-0.254232 -0.00698167 0.274968 99 133 64
-0.254493 -0.00615887 0.275262 98 137 65
-0.254754 -0.00533322 0.275556 102 139 67
-0.255017 -0.00450474 0.275852 102 141 69
-0.25528 -0.00367336 0.276149 102 141 69
-0.255544 -0.00283908 0.276446 104 146 71
-0.25581 -0.00200191 0.276745 105 149 73
-0.256076 -0.0011618 0.277045 108 151 74
-0.256343 -0.000318747 0.277346 108 153 74
-0.256611 0.000527259 0.277648 108 155 76
-0.25688 0.00137623 0.277951 109 156 79
-0.251533 -0.0139839 0.271745 107 147 73
-0.251785 -0.0131855 0.272029 108 149 75
-0.252038 -0.0123845 0.272314 108 151 77
-0.252292 -0.0115807 0.272599 108 153 79
-0.252547 -0.0107741 0.272886 108 153 80
-0.252802 -0.00996482 0.273173 109 156 79
-0.253059 -0.00915274 0.273462 108 158 81
-0.253316 -0.00833785 0.273751 109 160 81
-0.253574 -0.00752016 0.274042 111 159 81
-0.253833 -0.00669965 0.274334 111 161 83
-0.254093 -0.0058763 0.274626 109 162 83
-0.254354 -0.00505009 0.27492 109 164 83
-0.254616 -0.00422103 0.275214 111 165 83
-0.254879 -0.00338907 0.27551 111 168 86
-0.255142 -0.00255424 0.275806 113 168 89
-0.255407 -0.0017165 0.276104 114 167 88
-0.255672 -0.000875804 0.276403 115 167 86
-0.255938 -3.21823e-05 0.276703 115 168 86
-0.256206 0.000814384 0.277003 115 169 84
-0.25114 -0.0137068 0.27112 121 167 86
-0.251392 -0.0129079 0.271403 122 167 86
-0.251644 -0.0121063 0.271686 121 169 88
-0.251897 -0.0113019 0.271971 121 169 88
-0.252151 -0.0104948 0.272256 123 168 89
-0.252406 -0.00968497 0.272543 123 170 88
-0.252662 -0.00887232 0.272831 122 170 88
-0.252918 -0.00805689 0.273119 123 170 88
-0.253176 -0.00723864 0.273408 124 170 89
-0.253434 -0.00641757 0.273699 124 170 89
-0.253693 -0.00559366 0.27399 123 171 88
-0.253954 -0.00476689 0.274283 125 173 90
-0.254215 -0.00393727 0.274576 123 172 86
-0.254477 -0.00310476 0.274871 124 174 88
-0.25474 -0.00226936 0.275166 124 173 89
-0.255004 -0.00143104 0.275463 126 173 90
-0.255268 -0.000589768 0.275761 127 174 91
-0.255534 0.000254415 0.276059 127 175 90
-0.255801 0.00110158 0.276359 124 176 88
-0.250747 -0.0134296 0.270495 126 174 91
-0.250998 -0.0126302 0.270777 128 174 92
-0.251249 -0.011828 0.271059 128 176 92
-0.251502 -0.0110231 0.271343 127 177 92
-0.251755 -0.0102155 0.271627 128 176 93
-0.252009 -0.00940507 0.271913 127 175 92
-0.252264 -0.00859187 0.272199 125 176 92
-0.25252 -0.00777588 0.272486 125 176 92
-0.252777 -0.00695708 0.272775 123 173 93
-0.253035 -0.00613544 0.273064 123 174 92
-0.253294 -0.00531099 0.273355 122 174 91
-0.253553 -0.00448367 0.273646 123 174 90
-0.253814 -0.00365347 0.273938 121 173 90
-0.254075 -0.00282039 0.274232 122 175 91
-0.254337 -0.00198441 0.274526 122 175 91
-0.2546 -0.00114551 0.274822 122 173 90
-0.254864 -0.000303692 0.275118 120 171 90
-0.255129 0.000541072 0.275416 118 172 89
-0.255395 0.00138881 0.275715 116 173 88
-0.250354 -0.0131523 0.26987 115 166 86
-0.250604 -0.0123524 0.27015 115 165 85
-0.250855 -0.0115497 0.270432 116 166 84
-0.251107 -0.0107443 0.270714 115 165 83
-0.251359 -0.00993608 0.270998 113 162 83
-0.251613 -0.00912511 0.271282 112 161 83
-0.251867 -0.00831137 0.271567 109 160 82
-0.252123 -0.00749483 0.271854 107 158 81
-0.252379 -0.00667547 0.272141 106 155 79
-0.252636 -0.00585328 0.272429 106 155 80
-0.252894 -0.00502826 0.272719 104 155 75
-0.253153 -0.00420037 0.273009 102 152 74
-0.253412 -0.00336962 0.2733 102 151 73
-0.253673 -0.00253596 0.273593 100 149 74
-0.253935 -0.00169942 0.273886 100 148 76
-0.254197 -0.000859964 0.274181 99 146 73
-0.254461 -1.75617e-05 0.274476 98 146 70
-0.254725 0.000827796 0.274772 97 145 66
-0.25499 0.0016761 0.27507 96 144 65
-0.249712 -0.0136729 0.268966 96 140 68
-0.24996 -0.0128751 0.269244 95 140 67
-0.25021 -0.0120746 0.269524 95 141 67
-0.25046 -0.0112713 0.269804 95 141 66
-0.250711 -0.0104654 0.270086 94 138 65
-0.250963 -0.00965662 0.270368 92 137 66
-0.251216 -0.00884511 0.270651 91 137 66
-0.25147 -0.00803082 0.270936 89 135 64
-0.251725 -0.00721372 0.271221 89 135 63
-0.25198 -0.00639381 0.271507 88 133 60
-0.252237 -0.00557107 0.271794 87 132 63
-0.252494 -0.00474548 0.272083 86 132 61
-0.252752 -0.00391702 0.272372 86 132 60
-0.253011 -0.00308571 0.272662 87 130 60
-0.253271 -0.0022515 0.272954 83 129 59
-0.253532 -0.00141438 0.273246 83 127 60
-0.253794 -0.000574348 0.273539 83 127 58
-0.254057 0.000268627 0.273833 84 125 57
-0.25432 0.00111455 0.274129 81 125 56
-0.249319 -0.0133961 0.268341 84 123 57
-0.249567 -0.0125978 0.268619 85 123 55
-0.249816 -0.0117967 0.268897 84 124 55
-0.250065 -0.0109929 0.269177 82 124 55
-0.250316 -0.0101864 0.269457 82 122 54
-0.250567 -0.00937713 0.269738 81 121 55
-0.25082 -0.00856506 0.27002 80 122 55
-0.251073 -0.00775022 0.270304 79 123 54
-0.251327 -0.00693257 0.270588 80 122 53
-0.251582 -0.00611209 0.270873 79 121 53
-0.251837 -0.0052888 0.271159 77 120 55
-0.252094 -0.00446264 0.271447 77 120 55
-0.252351 -0.00363363 0.271735 78 120 55
-0.25261 -0.00280176 0.272024 79 118 54
-0.252869 -0.00196697 0.272314 75 118 54
-0.253129 -0.00112929 0.272605 74 118 54
-0.25339 -0.000288685 0.272898 76 117 52
-0.253652 0.000554869 0.273191 75 115 51
-0.253915 0.00140136 0.273485 74 115 51
-0.24998 -0.0128002 0.267469 78 116 54
-0.249173 -0.0123204 0.267993 79 116 54
-0.249422 -0.0115188 0.26827 78 117 53
-0.249671 -0.0107145 0.268549 76 117 51
-0.24992 -0.0099074 0.268828 77 116 51
-0.250171 -0.00909757 0.269108 77 115 51
-0.250423 -0.00828497 0.26939 76 115 51
-0.250675 -0.00746956 0.269672 75 117 51
-0.250929 -0.00665136 0.269955 76 115 51
-0.251183 -0.00583035 0.270239 75 114 52
-0.251438 -0.00500648 0.270524 75 114 53
-0.251694 -0.00417977 0.27081 74 115 52
-0.251951 -0.00335019 0.271097 76 114 53
-0.252208 -0.00251775 0.271386 76 112 53
-0.252467 -0.00168241 0.271675 72 112 53
-0.252727 -0.000844157 0.271965 71 113 52
-0.252987 -2.97659e-06 0.272256 74 111 50
-0.253248 0.000841151 0.272548 72 111 50
-0.253511 0.00168821 0.272841 71 109 49
-0.251355 -0.012716 0.26608 74 115 53
-0.250174 -0.0123419 0.2667 76 113 54
-0.250305 -0.0115717 0.267006 76 112 54
-0.249027 -0.0112408 0.267644 75 112 52
-0.249276 -0.010436 0.267921 75 112 51
-0.249525 -0.00962835 0.268199 74 111 51
-0.249775 -0.00881797 0.268478 74 111 50
-0.250026 -0.00800482 0.268759 74 111 51
-0.250278 -0.00718886 0.26904 74 111 51
-0.25053 -0.00637011 0.269322 74 111 50
-0.250784 -0.00554853 0.269605 74 110 50
-0.251038 -0.00472412 0.269889 75 111 51
-0.251294 -0.00389684 0.270174 74 112 51
-0.25155 -0.00306672 0.27046 75 111 53
-0.251807 -0.0022337 0.270747 75 109 51
-0.252065 -0.00139778 0.271035 72 109 52
-0.252324 -0.00055896 0.271324 72 110 51
-0.252583 0.000282777 0.271614 73 108 50
-0.252844 0.00112749 0.271905 71 108 49
-0.253106 0.00197512 0.272197 71 107 49
-0.251427 -0.0130277 0.26499 75 113 52
-0.250955 -0.0124348 0.265445 74 110 55
-0.250369 -0.0118805 0.265926 74 110 55
-0.2505 -0.0111074 0.266233 74 110 54
-0.250749 -0.0102951 0.266511 73 110 53
-0.248881 -0.0101574 0.267293 75 109 52
-0.249129 -0.00934926 0.26757 74 109 52
-0.249379 -0.00853834 0.267848 73 109 51
-0.249629 -0.00772464 0.268127 74 108 51
-0.24988 -0.00690812 0.268408 74 109 50
-0.250639 -0.0044417 0.269254 75 109 51
-0.250893 -0.00361388 0.269538 74 110 50
-0.251149 -0.00278317 0.269823 73 111 53
-0.251405 -0.00194959 0.270108 73 109 50
-0.251663 -0.00111312 0.270395 73 108 52
-0.251921 -0.000273711 0.270683 73 109 51
-0.25218 0.000568598 0.270972 73 108 50
-0.25244 0.00141387 0.271262 73 107 50
-0.252701 0.0022621 0.271553 71 105 47
-0.251027 -0.0127459 0.264354 77 112 50
-0.250556 -0.0121536 0.26481 76 111 53
-0.250328 -0.0114897 0.265205 74 109 53
-0.2506 -0.00919814 0.266155 75 108 52
-0.248734 -0.00907012 0.266941 74 108 54
-0.248982 -0.00825865 0.267218 73 107 54
-0.249232 -0.00744438 0.267496 73 108 52
-0.249483 -0.00662732 0.267775 73 109 49
-0.250239 -0.00415923 0.268618 74 107 51
-0.250493 -0.00333084 0.268901 74 108 50
-0.250748 -0.00249958 0.269185 73 108 53
-0.251004 -0.00166544 0.26947 73 109 51
-0.25126 -0.000828401 0.269756 72 108 50
-0.251518 1.15781e-05 0.270042 74 108 50
-0.251776 0.000854467 0.27033 73 107 50
-0.252035 0.00170031 0.270619 73 107 50
-0.252296 0.0025491 0.270909 71 105 48
-0.250755 -0.0116883 0.264024 74 109 50
-0.249573 -0.0113195 0.26466 73 109 51
-0.248586 -0.0079789 0.266588 70 107 53
-0.248835 -0.0071641 0.266865 72 108 51
-0.249085 -0.00634649 0.267143 73 109 49
-0.25078 -0.00354444 0.267765 72 107 51
-0.250093 -0.00304777 0.268264 71 107 51
-0.250347 -0.00221594 0.268547 72 107 53
-0.250602 -0.00138124 0.268831 73 107 52
-0.250858 -0.000543615 0.269116 73 107 51
-0.251115 0.000296912 0.269401 72 106 50
-0.251372 0.00114038 0.269688 71 105 50
-0.251631 0.0019868 0.269976 72 105 51
-0.251891 0.00283617 0.270265 71 106 50
-0.249758 -0.011591 0.263541 73 107 50
-0.24819 -0.00769911 0.265958 73 108 52
-0.248438 -0.00688375 0.266233 72 108 51
-0.248687 -0.00606559 0.26651 72 108 50
-0.249692 -0.00276464 0.267628 71 107 51
-0.249946 -0.00193226 0.267909 72 106 51
-0.2502 -0.00109698 0.268192 73 106 51
-0.250455 -0.000258813 0.268476 72 105 51
-0.250712 0.000582299 0.26876 70 105 50
-0.250969 0.00142634 0.269046 70 104 51
-0.251227 0.00227334 0.269333 72 104 51
-0.251485 0.00312329 0.26962 72 105 50
-0.248041 -0.00660337 0.265602 71 106 50
-0.248289 -0.00578465 0.265878 72 104 50
-0.249292 -0.00248148 0.266991 71 105 50
-0.249545 -0.00164853 0.267271 70 104 51
-0.249798 -0.000812684 0.267553 72 104 52
-0.250053 2.6064e-05 0.267835 73 104 49
-0.250308 0.000867746 0.268119 70 103 48
-0.250565 0.00171234 0.268404 71 102 49
-0.250822 0.00255992 0.268689 73 103 49
-0.248891 -0.00219826 0.266354 69 98 51
-0.249143 -0.00136474 0.266633 70 96 50
-0.249396 -0.000528338 0.266914 69 98 49
-0.24965 0.000310985 0.267195 69 97 46
-0.249905 0.00115324 0.267478 69 98 45
-0.248491 -0.00191497 0.265717 56 66 35
-0.248742 -0.0010809 0.265995 62 64 36
-0.248995 -0.000243926 0.266274 62 66 38
-0.249248 0.000595965 0.266555 57 71 33
-0.238974 0.0224916 0.243831 51 86 32
-0.238985 0.0222359 0.242646 50 83 31
-0.23734 0.0221369 0.243646 48 86 29
-0.236271 0.0223352 0.244411 50 85 28
-0.238564 0.0225345 0.241977 48 85 29
-0.237252 0.0226104 0.242851 47 86 31
-0.235857 0.0226293 0.243753 49 84 28
-0.236094 0.0235326 0.244 50 84 31
-0.238255 0.0228932 0.241263 53 85 30
-0.236835 0.0229068 0.242187 51 87 32
-0.235443 0.0229234 0.243094 54 85 27
-0.235679 0.0238273 0.243341 53 86 29
-0.236729 0.0225929 0.241051 59 89 30
-0.236417 0.0232033 0.241523 57 88 32
-0.235029 0.0232176 0.242435 58 85 29
-0.235264 0.0241221 0.242681 55 83 32
-0.2355 0.0250298 0.242927 58 85 30
-0.23631 0.0228898 0.240385 61 89 34
-0.235457 0.0232013 0.241085 60 89 36
-0.234615 0.0235118 0.241777 57 89 36
-0.23485 0.0244169 0.242021 56 87 32
-0.235085 0.0253253 0.242266 61 84 28
-0.235321 0.0262369 0.242512 61 84 31
-0.235456 0.0229478 0.239905 61 88 37
-0.234825 0.0233776 0.240514 61 88 37
-0.234201 0.0238061 0.241118 55 91 36
-0.234435 0.0247118 0.241361 54 90 36
-0.234669 0.0256208 0.241605 61 90 35
-0.234905 0.026533 0.24185 62 89 37
-0.233555 0.0231974 0.240218 61 91 37
-0.233787 0.0241005 0.240459 61 92 36
-0.23402 0.0250068 0.240701 61 90 36
-0.234253 0.0259163 0.240943 63 92 38
-0.234488 0.0268291 0.241187 63 95 40
-0.234724 0.0277452 0.241432 67 98 43
-0.233141 0.0234912 0.23956 61 91 36
-0.233372 0.0243949 0.239799 63 93 37
-0.233605 0.0253018 0.24004 65 95 40
-0.233838 0.0262119 0.240282 63 96 44
-0.234072 0.0271254 0.240524 63 97 44
-0.234306 0.0280421 0.240768 65 100 44
-0.232727 0.023785 0.238901 62 95 37
-0.232958 0.0246893 0.23914 63 98 41
-0.233189 0.0255968 0.23938 64 99 41
-0.233422 0.0265076 0.23962 65 99 44
-0.233655 0.0274216 0.239862 67 99 44
-0.233889 0.028339 0.240104 67 103 45
-0.232313 0.0240789 0.238243 66 97 36
-0.232543 0.0249838 0.238481 66 99 40
-0.232774 0.0258919 0.238719 65 100 40
-0.233006 0.0268033 0.238959 64 101 46
-0.233238 0.027718 0.239199 66 102 50
-0.233472 0.0286359 0.23944 64 104 51
-0.233706 0.0295572 0.239682 67 109 54
-0.231899 0.0243729 0.237585 64 98 43
-0.232129 0.0252784 0.237821 65 100 44
-0.232359 0.0261871 0.238059 66 100 43
-0.23259 0.0270991 0.238297 69 101 43
-0.232821 0.0280144 0.238536 69 103 49
-0.233054 0.0289329 0.238776 69 107 51
-0.233287 0.0298548 0.239016 70 111 53
-0.233522 0.03078 0.239258 71 111 52
-0.231486 0.0246669 0.236926 65 99 44
-0.231714 0.025573 0.237162 65 100 47
-0.231943 0.0264823 0.237398 67 101 47
-0.232174 0.0273949 0.237635 69 104 46
-0.232405 0.0283108 0.237873 70 107 52
-0.232636 0.02923 0.238111 71 111 54
-0.232869 0.0301525 0.238351 71 111 51
-0.233103 0.0310783 0.238591 74 114 54
-0.231072 0.0249609 0.236268 65 101 48
-0.231299 0.0258676 0.236502 67 102 48
-0.231528 0.0267776 0.236737 68 106 48
-0.231757 0.0276908 0.236973 68 107 49
-0.231988 0.0286073 0.237209 71 106 52
-0.232219 0.0295271 0.237447 71 110 52
-0.232451 0.0304502 0.237685 72 111 52
-0.232684 0.0313766 0.237925 74 115 53
-0.230657 0.025255 0.235609 65 104 48
-0.230885 0.0261623 0.235842 69 103 47
-0.231112 0.0270729 0.236076 69 106 49
-0.231341 0.0279867 0.236311 68 109 51
-0.231571 0.0289038 0.236546 71 109 50
-0.231801 0.0298243 0.236782 71 110 53
-0.232032 0.030748 0.23702 73 113 54
-0.230243 0.0255492 0.23495 67 106 44
-0.23047 0.0264571 0.235182 68 106 47
-0.230697 0.0273683 0.235415 69 107 50
-0.230925 0.0282827 0.235648 69 111 52
-0.231154 0.0292005 0.235883 72 108 52
-0.231383 0.0301215 0.236118 72 112 53
-0.231614 0.0310458 0.236354 75 114 52
-0.229829 0.0258434 0.234291 67 106 45
-0.230055 0.0267519 0.234522 68 108 48
-0.230281 0.0276637 0.234754 70 109 50
-0.230508 0.0285788 0.234986 71 110 51
-0.230737 0.0294971 0.235219 71 110 53
-0.230965 0.0304187 0.235453 73 114 54
-0.231195 0.0313437 0.235688 74 115 53
-0.229415 0.0261377 0.233632 67 107 50
-0.22964 0.0270468 0.233862 68 109 50
-0.229865 0.0279592 0.234092 70 112 52
-0.230092 0.0288749 0.234323 72 112 53
-0.230319 0.0297938 0.234555 72 113 54
-0.230547 0.0307161 0.234788 72 116 56
-0.230776 0.0316417 0.235022 76 116 53
-0.229 0.026432 0.232973 70 106 53
-0.229224 0.0273417 0.233201 70 109 53
-0.22945 0.0282547 0.233431 70 111 51
-0.229675 0.029171 0.233661 73 113 52
-0.229902 0.0300906 0.233892 73 113 52
-0.230129 0.0310135 0.234123 74 116 54
-0.230358 0.0319397 0.234356 76 115 54
-0.228809 0.0276367 0.232541 72 109 51
-0.229034 0.0285503 0.232769 71 110 50
-0.229259 0.0294672 0.232998 73 113 53
-0.229485 0.0303874 0.233228 72 114 53
-0.229711 0.0313109 0.233458 76 117 55
-0.229939 0.0322377 0.233689 77 115 54
-0.228394 0.0279317 0.23188 72 109 50
-0.228618 0.028846 0.232107 73 110 50
-0.228842 0.0297635 0.232335 75 112 54
-0.229067 0.0306843 0.232564 73 115 54
-0.229293 0.0316084 0.232793 75 116 54
-0.22952 0.0325358 0.233023 75 117 56
-0.227979 0.0282268 0.23122 71 109 53
-0.228202 0.0291417 0.231445 71 111 52
-0.228425 0.0300598 0.231672 74 111 55
-0.22865 0.0309812 0.231899 73 116 54
-0.228875 0.0319059 0.232128 75 116 53
-0.229101 0.032834 0.232357 75 117 56
-0.227563 0.028522 0.230559 70 110 54
-0.227785 0.0294374 0.230784 71 112 54
-0.228008 0.0303561 0.231009 74 113 55
-0.228232 0.0312782 0.231235 74 115 52
-0.228457 0.0322035 0.231462 75 115 53
-0.228682 0.0331322 0.23169 75 117 55
-0.226927 0.0279044 0.229675 69 109 53
-0.227148 0.0288171 0.229898 70 111 53
-0.227369 0.0297332 0.230121 71 112 53
-0.227591 0.0306526 0.230346 74 113 54
-0.227814 0.0315752 0.230571 75 115 52
-0.228038 0.0325012 0.230796 74 116 53
-0.228263 0.0334305 0.231023 75 116 53
-0.226512 0.028199 0.229016 70 109 52
-0.226732 0.0291124 0.229237 71 112 51
-0.226953 0.0300291 0.229459 71 113 52
-0.227174 0.030949 0.229682 74 114 53
-0.227397 0.0318723 0.229906 75 114 53
-0.22762 0.0327989 0.230131 75 116 53
-0.227844 0.0337288 0.230356 75 115 53
-0.226097 0.0284937 0.228356 70 108 50
-0.226317 0.0294077 0.228576 71 111 51
-0.226536 0.030325 0.228797 72 114 50
-0.226757 0.0312455 0.229019 75 114 51
-0.226979 0.0321694 0.229241 74 114 53
-0.227201 0.0330966 0.229465 75 114 53
-0.227424 0.0340272 0.229689 74 114 53
-0.225465 0.0278771 0.227477 69 101 44
-0.225682 0.0287884 0.227695 71 109 51
-0.225901 0.029703 0.227915 72 111 52
-0.22612 0.0306209 0.228134 74 112 51
-0.22634 0.0315421 0.228355 74 113 51
-0.226561 0.0324666 0.228577 73 113 52
-0.226783 0.0333944 0.228799 74 113 52
-0.227005 0.0343256 0.229022 74 113 52
-0.22505 0.0281713 0.226818 68 97 39
-0.225267 0.0290832 0.227035 70 107 51
-0.225485 0.0299984 0.227253 72 110 51
-0.225704 0.030917 0.227472 73 110 51
-0.225923 0.0318387 0.227691 72 112 52
-0.226143 0.0327639 0.227912 72 112 51
-0.226364 0.0336923 0.228133 72 112 50
-0.226585 0.0346241 0.228355 72 112 52
-0.224852 0.0293781 0.226375 70 107 52
-0.225069 0.0302939 0.226592 70 107 50
-0.225287 0.031213 0.226809 72 108 50
-0.225506 0.0321354 0.227028 72 111 50
-0.225725 0.0330612 0.227247 70 111 51
-0.225945 0.0339902 0.227467 70 111 50
-0.226166 0.0349226 0.227687 70 112 51
-0.224437 0.029673 0.225714 68 107 52
-0.224653 0.0305894 0.22593 69 105 51
-0.22487 0.0315092 0.226146 72 107 50
-0.225088 0.0324322 0.226364 72 108 48
-0.225307 0.0333585 0.226582 70 109 49
-0.225526 0.0342882 0.2268 69 110 50
-0.225746 0.0352212 0.22702 70 110 51
-0.224237 0.030885 0.225268 68 104 48
-0.224454 0.0318053 0.225483 71 106 48
-0.224671 0.032729 0.225699 70 106 48
-0.224889 0.0336559 0.225916 69 107 48
-0.225107 0.0345862 0.226134 68 107 50
-0.223821 0.0311806 0.224606 59 91 37
-0.224037 0.0321016 0.22482 67 101 45
-0.224253 0.0330258 0.225035 68 104 49
-0.22447 0.0339534 0.225251 67 104 48
-0.224688 0.0348843 0.225467 66 103 48
-0.223835 0.0333227 0.224371 52 80 37
-0.224052 0.0342509 0.224585 55 83 38
