ply
format ascii 1.0
element vertex 1257
property float x
property float y
property float z
property uchar diffuse_red
property uchar diffuse_green
property uchar diffuse_blue
end_header
-0.26923 0.097859 0.302526 24 86 19
-0.268159 0.0981524 0.302584 22 86 19
-0.267338 0.0985759 0.302621 21 85 20
-0.266642 0.0990637 0.302648 27 88 22
-0.266307 0.0997501 0.302644 62 105 44
-0.269181 0.097811 0.301822 22 85 19
-0.268475 0.0983037 0.30185 21 84 18
-0.267408 0.0985954 0.30191 24 85 18
-0.266469 0.0989515 0.30196 31 88 21
-0.266134 0.0996383 0.301955 58 99 37
-0.269132 0.0977629 0.301115 26 85 22
-0.268548 0.0983228 0.301133 24 86 20
-0.267599 0.0986816 0.301186 30 86 20
-0.266416 0.0989054 0.30126 38 90 23
-0.266081 0.0995932 0.301255 55 96 34
-0.27423 0.0783815 0.300854 79 124 59
-0.273656 0.0789454 0.300872 79 122 56
-0.268959 0.0976483 0.300418 32 86 24
-0.268375 0.0982088 0.300437 30 88 23
-0.26767 0.0987014 0.300468 37 88 26
-0.266484 0.0989256 0.300546 44 91 27
-0.265787 0.0994142 0.300576 54 96 38
-0.265691 0.100237 0.300548 73 108 50
-0.275726 0.0773267 0.300091 84 126 58
-0.274268 0.0775377 0.300193 85 127 60
-0.273446 0.0780003 0.300235 84 128 62
-0.273121 0.0786658 0.30023 82 127 62
-0.27255 0.0792282 0.300249 79 125 61
-0.270682 0.0800369 0.300356 72 123 58
-0.270359 0.0806988 0.300351 68 121 57
-0.270156 0.081414 0.300335 67 118 56
-0.269509 0.0827412 0.300325 66 111 54
-0.269065 0.0833513 0.300332 61 109 52
-0.268741 0.0840156 0.300327 56 108 47
-0.269001 0.0967745 0.299738 31 84 18
-0.268663 0.0974675 0.299733 34 86 21
-0.268202 0.0980946 0.29974 39 88 26
-0.267496 0.0985878 0.299772 42 90 31
-0.266551 0.0989459 0.299829 44 93 30
-0.265733 0.0993686 0.299873 54 97 37
-0.265397 0.100058 0.299868 70 105 47
-0.275764 0.0764785 0.299426 69 119 56
-0.274306 0.0766943 0.299532 68 116 55
-0.273484 0.0771588 0.299576 67 113 55
-0.273159 0.0778238 0.299571 67 110 55
-0.272834 0.0784892 0.299566 68 108 54
-0.272263 0.0790519 0.299585 69 106 51
-0.271571 0.0795615 0.299617 67 107 49
-0.270397 0.0798618 0.299696 67 107 46
-0.270074 0.0805237 0.299691 64 110 44
-0.269871 0.0812388 0.299674 62 109 46
-0.269548 0.0819021 0.299669 62 105 47
-0.269104 0.0825123 0.299676 57 100 43
-0.26878 0.0831761 0.299671 49 97 38
-0.268455 0.0838404 0.299666 43 96 34
-0.26825 0.0845603 0.299649 39 95 30
-0.268705 0.0965936 0.299053 35 88 25
-0.268366 0.0972867 0.299047 39 89 24
-0.267538 0.0977153 0.299093 47 91 27
-0.2672 0.0984074 0.299088 44 92 29
-0.26662 0.0989662 0.299109 46 96 30
-0.265919 0.0994568 0.299142 56 100 40
-0.265702 0.100216 0.299124 68 104 48
-0.274344 0.0758515 0.298872 67 105 47
-0.27377 0.0764174 0.298892 68 107 49
-0.273445 0.0770828 0.298886 68 109 50
-0.272873 0.0776472 0.298907 67 108 48
-0.272671 0.0783639 0.298889 65 107 50
-0.2721 0.0789271 0.298909 66 106 49
-0.271529 0.0794892 0.298929 65 106 48
-0.270839 0.0799981 0.298961 66 104 44
-0.270514 0.0806627 0.298956 66 106 40
-0.27019 0.0813278 0.298951 65 106 40
-0.269262 0.0817268 0.299008 66 104 41
-0.268938 0.0823906 0.299003 59 98 34
-0.268494 0.0830009 0.29901 47 93 26
-0.268289 0.0837197 0.298992 36 91 25
-0.268084 0.08444 0.298974 30 93 27
-0.267877 0.0851618 0.298956 29 91 26
-0.268408 0.0964127 0.298367 42 93 33
-0.26807 0.0971058 0.298362 45 94 29
-0.267364 0.0976009 0.298396 49 96 28
-0.266905 0.098227 0.298404 46 97 30
-0.266324 0.098786 0.298425 48 98 32
-0.265986 0.0994782 0.29842 58 102 41
-0.265889 0.100306 0.298387 67 103 48
-0.277517 0.0738344 0.298001 68 112 51
-0.276549 0.0742612 0.298063 69 111 50
-0.275461 0.0746365 0.298138 70 111 52
-0.274382 0.0750091 0.298212 72 112 51
-0.273808 0.0755757 0.298233 74 112 50
-0.273483 0.0762406 0.298227 76 114 52
-0.273158 0.076906 0.298221 76 115 52
-0.272833 0.0775719 0.298216 75 116 49
-0.272507 0.0782383 0.29821 73 117 52
-0.271936 0.0788021 0.298231 69 118 53
-0.271365 0.0793647 0.298252 68 117 55
-0.270918 0.0799785 0.298259 67 114 54
-0.270593 0.0806445 0.298254 68 114 51
-0.269903 0.0811519 0.298288 69 113 50
-0.269458 0.0817642 0.298295 71 110 48
-0.268892 0.0823224 0.298316 70 106 43
-0.268567 0.0829876 0.29831 59 99 34
-0.268362 0.0837079 0.298291 42 93 25
-0.268156 0.0844297 0.298273 34 94 25
-0.267829 0.0850973 0.298267 33 92 25
-0.268235 0.0962971 0.297668 46 99 41
-0.267529 0.0967938 0.297704 47 99 37
-0.26719 0.0974863 0.297698 49 98 31
-0.26673 0.0981129 0.297706 46 98 31
-0.26627 0.0987392 0.297714 49 98 34
-0.266174 0.099567 0.29768 60 100 41
-0.26632 0.100534 0.297619 67 101 49
-0.26598 0.101231 0.297613 66 99 44
-0.276587 0.0734132 0.297398 79 123 56
-0.275499 0.0737916 0.297475 78 123 57
-0.275047 0.07441 0.297483 75 122 58
-0.273971 0.0747833 0.29756 73 122 58
-0.273646 0.0754482 0.297554 74 122 57
-0.273445 0.0761633 0.297535 77 120 57
-0.273367 0.0769303 0.297501 78 121 57
-0.273041 0.077598 0.297496 79 122 55
-0.272344 0.0781126 0.297531 79 125 56
-0.271894 0.0787284 0.297539 75 124 55
-0.271323 0.0792919 0.29756 70 119 57
-0.270875 0.0799066 0.297568 64 116 55
-0.270427 0.0805208 0.297576 60 115 55
-0.26998 0.0811347 0.297584 57 113 55
-0.269412 0.0816949 0.297605 57 108 54
-0.268846 0.082254 0.297626 52 102 47
-0.268521 0.0829201 0.29762 43 98 36
-0.268195 0.0835867 0.297615 37 94 28
-0.268228 0.0844193 0.297568 33 93 23
-0.268021 0.0851441 0.297549 32 91 21
-0.267233 0.0966131 0.297019 47 102 44
-0.266894 0.0973056 0.297013 50 98 34
-0.266555 0.0979986 0.297007 47 96 30
-0.266216 0.0986922 0.297001 50 96 33
-0.266241 0.0995887 0.296951 60 97 40
-0.266266 0.10049 0.296902 66 100 48
-0.275971 0.0739042 0.296722 78 120 56
-0.275011 0.0743297 0.296787 75 119 56
-0.273625 0.0777776 0.296728 63 107 52
-0.272426 0.0780889 0.296822 61 102 51
-0.27173 0.0786029 0.296859 59 101 43
-0.271036 0.0791153 0.296895 53 97 37
-0.270588 0.07973 0.296903 48 95 33
-0.27014 0.0803444 0.296911 43 97 31
-0.269693 0.0809584 0.296919 39 97 30
-0.269246 0.0815721 0.296927 38 95 32
-0.26868 0.0821317 0.296949 35 93 32
-0.268354 0.0827983 0.296943 31 91 27
-0.268267 0.0835746 0.296909 30 90 24
-0.26806 0.0842983 0.296889 28 89 21
-0.267973 0.0850793 0.296854 27 87 20
-0.266936 0.0964324 0.296334 51 100 43
-0.266598 0.0971249 0.296327 54 97 35
-0.266624 0.0980169 0.296277 52 94 28
-0.266284 0.098712 0.29627 52 92 33
-0.266309 0.0996104 0.296219 62 96 36
-0.271442 0.0784259 0.296192 63 102 45
-0.270749 0.0789386 0.296229 54 96 37
-0.270301 0.0795534 0.296238 43 91 32
-0.269975 0.0802203 0.296231 37 91 26
-0.269527 0.0808349 0.29624 34 91 21
-0.26896 0.0813958 0.296262 30 90 22
-0.268393 0.0819557 0.296285 27 89 23
-0.268067 0.0826222 0.296279 27 88 21
-0.26798 0.0833983 0.296243 27 87 20
-0.267893 0.084177 0.296208 24 87 19
-0.267804 0.0849584 0.296172 25 84 21
-0.267496 0.0967095 0.295541 56 98 41
-0.26691 0.0972732 0.295565 53 95 40
-0.266815 0.098102 0.295528 52 95 34
-0.266964 0.0990687 0.295459 56 95 32
-0.270462 0.0787619 0.295564 50 99 44
-0.270014 0.0793768 0.295572 40 92 34
-0.269687 0.0800437 0.295566 34 90 26
-0.269361 0.0807111 0.295559 32 90 21
-0.268673 0.0812195 0.295598 29 90 20
-0.268226 0.081833 0.295606 26 90 22
-0.2679 0.0825 0.2956 27 89 21
-0.267812 0.0832764 0.295563 28 88 20
-0.267605 0.0840004 0.295541 25 86 17
-0.26809 0.0978896 0.294685 55 99 44
-0.269605 0.0791485 0.294922 35 92 31
-0.269279 0.0798149 0.294916 29 89 23
-0.268832 0.0804293 0.294924 27 88 21
-0.268386 0.0810433 0.294933 26 87 19
-0.268059 0.0817102 0.294926 22 87 19
-0.267732 0.0823776 0.294919 18 86 20
-0.267644 0.0831544 0.294882 25 87 22
-0.267436 0.0838788 0.294859 31 84 17
-0.269439 0.0790236 0.294241 26 85 19
-0.269113 0.0796904 0.294234 23 84 17
-0.268545 0.0802528 0.294259 23 83 17
-0.268219 0.0809198 0.294252 23 81 16
-0.267772 0.0815339 0.294261 23 81 15
-0.267565 0.0822551 0.294238 25 84 17
-0.267357 0.0829778 0.294215 30 88 23
-0.267268 0.083757 0.294176 36 89 25
-0.268378 0.0801287 0.293578 19 81 19
-0.267931 0.0807433 0.293587 23 81 18
-0.267604 0.0814107 0.293579 28 82 17
-0.267397 0.0821323 0.293556 29 87 22
-0.267188 0.0828554 0.293532 36 90 27
-0.266979 0.08358 0.293508 36 93 28
-0.266651 0.0842508 0.293501 37 94 28
-0.268211 0.0800044 0.292895 17 77 14
-0.267644 0.0805668 0.292921 20 79 15
-0.267317 0.0812341 0.292914 29 82 17
-0.267109 0.0819556 0.292889 32 90 24
-0.267019 0.0827328 0.292848 41 94 31
-0.266691 0.0834031 0.29284 39 97 31
-0.267476 0.0804428 0.292238 20 78 10
-0.267149 0.0811106 0.292231 26 81 16
-0.26706 0.0818861 0.292188 34 92 26
-0.275673 0.103715 0.288132 66 102 47
-0.275307 0.104461 0.288123 60 94 40
-0.275216 0.105361 0.288069 57 92 37
-0.298591 0.0873032 0.285691 25 84 21
-0.276273 0.103076 0.287312 71 110 53
-0.275354 0.10352 0.287394 64 99 44
-0.274988 0.104266 0.287384 59 93 37
-0.274896 0.105166 0.287329 56 92 36
-0.274666 0.105992 0.287297 54 92 36
-0.299401 0.0847624 0.284942 54 91 31
-0.299019 0.0855397 0.284932 44 87 26
-0.298637 0.0863176 0.284921 34 86 21
-0.298254 0.0870961 0.284911 28 85 18
-0.277066 0.103487 0.286382 71 110 54
-0.275585 0.103628 0.286562 62 98 43
-0.275218 0.104376 0.286552 58 93 35
-0.27485 0.105125 0.286542 55 91 33
-0.274895 0.106107 0.286461 52 91 34
-0.299828 0.0830024 0.284184 53 54 24
-0.299446 0.0837786 0.284174 65 90 42
-0.299065 0.0845553 0.284163 102 104 54
-0.298683 0.0853326 0.284153 88 98 48
-0.298301 0.0861104 0.284142 59 92 34
-0.297918 0.0868889 0.284132 39 88 25
-0.297535 0.0876679 0.284121 31 87 23
-0.277816 0.102918 0.285525 76 121 58
-0.277024 0.103443 0.285589 70 108 54
-0.276374 0.104042 0.285627 60 96 45
-0.275726 0.104641 0.285666 56 91 34
-0.27508 0.105238 0.285704 54 90 31
-0.275125 0.106224 0.285621 52 90 32
-0.299492 0.0827953 0.283406 52 42 28
-0.299111 0.0835714 0.283395 70 82 49
-0.298729 0.0843481 0.283384 121 145 81
-0.298181 0.0850599 0.283401 112 146 79
-0.297799 0.0858371 0.28339 86 125 61
-0.297417 0.0866149 0.283379 69 111 49
-0.297034 0.0873933 0.283369 58 101 40
-0.278005 0.102042 0.284763 74 117 55
-0.277493 0.10272 0.284778 74 118 56
-0.276981 0.103398 0.284792 69 107 53
-0.27647 0.104076 0.284807 63 94 41
-0.27596 0.104753 0.284822 56 90 32
-0.275311 0.105352 0.284861 52 90 30
-0.275218 0.106262 0.2848 53 89 30
-0.299156 0.0825882 0.282627 52 43 28
-0.298775 0.0833643 0.282616 65 69 47
-0.298227 0.0840763 0.282634 108 139 77
-0.297516 0.0847227 0.282679 113 159 84
-0.297134 0.0854986 0.282668 95 146 74
-0.296752 0.0862751 0.282657 84 135 64
-0.29637 0.0870521 0.282645 75 123 55
-0.288333 0.0882962 0.283656 27 86 19
-0.287055 0.0886558 0.283804 22 86 19
-0.277681 0.101845 0.284015 70 117 56
-0.27731 0.102599 0.284004 71 115 57
-0.276939 0.103354 0.283993 67 105 53
-0.276567 0.10411 0.283983 64 95 40
-0.276195 0.104866 0.283972 58 90 31
-0.275544 0.105466 0.284012 52 89 31
-0.275451 0.10638 0.28395 50 89 34
-0.298821 0.082381 0.281849 53 51 28
-0.298273 0.0830932 0.281866 56 58 39
-0.297562 0.0837407 0.281913 91 116 63
-0.297016 0.0844512 0.28193 105 153 77
-0.296471 0.0851611 0.281947 97 153 75
-0.29609 0.0859363 0.281936 88 144 68
-0.294898 0.0863807 0.282068 83 136 61
-0.295326 0.0874884 0.281913 75 127 55
-0.289604 0.0878639 0.282693 41 95 31
-0.287251 0.0877686 0.283035 31 88 21
-0.285834 0.0880642 0.283212 25 87 21
-0.285465 0.0888139 0.283201 26 87 22
-0.27764 0.101798 0.283214 71 117 56
-0.277127 0.102477 0.283229 73 115 56
-0.277037 0.103386 0.283165 67 103 49
-0.276664 0.104144 0.283154 62 93 38
-0.276291 0.104902 0.283143 58 90 32
-0.275639 0.105503 0.283185 54 89 33
-0.275685 0.106498 0.283094 52 89 32
-0.298319 0.0821108 0.2811 50 45 25
-0.297773 0.0828227 0.281118 50 47 30
-0.297062 0.0834699 0.281165 73 89 48
-0.296681 0.0842446 0.281153 93 136 67
-0.295324 0.0846305 0.281317 93 149 71
-0.29414 0.0850779 0.28145 86 141 65
-0.293761 0.0858473 0.281439 80 135 59
-0.293382 0.0866173 0.281427 73 129 55
-0.292844 0.0873214 0.281444 65 122 55
-0.290113 0.0870981 0.28186 60 112 51
-0.289276 0.0876622 0.281933 49 100 40
-0.286926 0.0875689 0.282283 37 91 26
-0.286405 0.0882567 0.282299 30 87 24
-0.297139 0.104883 0.2793 79 123 59
-0.278452 0.102206 0.282247 72 117 55
-0.277226 0.102508 0.282399 74 115 55
-0.277136 0.103418 0.282333 68 104 48
-0.276762 0.104178 0.282322 60 93 38
-0.276247 0.104859 0.282338 56 90 32
-0.275873 0.105619 0.282326 55 89 32
-0.276343 0.106856 0.282151 53 88 31
-0.297109 0.0824893 0.2804 46 43 25
-0.296075 0.0830091 0.280508 57 66 36
-0.295532 0.0837173 0.280525 76 108 55
-0.294347 0.0841681 0.280662 84 133 66
-0.293648 0.0848086 0.280709 79 131 61
-0.293269 0.0855774 0.280697 71 124 55
-0.29289 0.0863468 0.280685 62 118 50
-0.291407 0.0866554 0.280878 56 115 52
-0.28963 0.0868306 0.281127 49 103 48
-0.289101 0.0875261 0.281144 45 98 34
-0.287506 0.0877601 0.281361 42 95 26
-0.287133 0.088517 0.281349 41 94 26
-0.298284 0.103359 0.278375 60 107 47
-0.29719 0.103845 0.278495 67 115 52
-0.296786 0.104667 0.278482 77 124 57
-0.296381 0.105489 0.27847 77 121 57
-0.277894 0.102844 0.281453 73 115 55
-0.277519 0.103605 0.281441 68 104 49
-0.277143 0.104367 0.281429 59 94 39
-0.276768 0.10513 0.281418 54 91 32
-0.276392 0.105893 0.281406 54 89 30
-0.276582 0.106977 0.281282 53 87 31
-0.295741 0.0828032 0.279733 47 49 28
-0.294393 0.0831943 0.279903 56 71 39
-0.293694 0.0838357 0.279951 68 101 52
-0.292839 0.0844117 0.280029 71 110 53
-0.29183 0.0849213 0.280136 67 108 49
-0.291453 0.0856863 0.280124 59 100 37
-0.29014 0.0860616 0.280289 53 100 36
-0.289301 0.0866285 0.280366 54 98 41
-0.288773 0.0873241 0.280383 54 100 35
-0.287635 0.0877558 0.280517 53 100 33
-0.287261 0.0885145 0.280505 54 101 33
-0.29793 0.103142 0.277555 60 107 48
-0.296837 0.103629 0.277677 65 116 53
-0.296432 0.104451 0.277664 74 123 58
-0.296027 0.105273 0.277651 77 121 56
-0.295622 0.106096 0.277638 74 122 57
-0.277619 0.103638 0.2806 69 104 49
-0.277243 0.104402 0.280588 60 94 39
-0.276866 0.105166 0.280576 54 91 33
-0.276631 0.106011 0.280535 54 89 29
-0.276538 0.106937 0.280465 54 88 30
-0.293421 0.082738 0.279254 45 47 26
-0.292726 0.0833781 0.279303 52 65 32
-0.291405 0.0837638 0.279473 66 88 42
-0.290562 0.0843358 0.279551 78 112 52
-0.289877 0.0849694 0.279599 65 111 49
-0.289502 0.0857301 0.279586 59 102 35
-0.288973 0.0864263 0.279604 57 101 36
-0.288291 0.0870567 0.279652 55 102 37
-0.287307 0.0875546 0.279758 55 102 36
-0.286933 0.0883132 0.279746 54 102 37
-0.298327 0.102268 0.276678 63 113 52
-0.297575 0.102925 0.276734 59 107 50
-0.296655 0.103496 0.276825 64 115 54
-0.296079 0.104234 0.276846 73 121 59
-0.295673 0.105057 0.276832 79 123 57
-0.295268 0.10588 0.276819 78 125 57
-0.277577 0.103593 0.279783 71 104 48
-0.2772 0.104358 0.279771 64 93 39
-0.276822 0.105124 0.279759 59 89 33
-0.276587 0.10597 0.279717 56 87 30
-0.276635 0.106978 0.279616 56 88 28
-0.290983 0.0826124 0.278813 51 47 30
-0.290452 0.08331 0.278831 56 60 36
-0.289923 0.0840071 0.278849 77 102 55
-0.289394 0.0847036 0.278867 78 126 65
-0.288712 0.0853356 0.278916 63 109 43
-0.288337 0.086095 0.278903 58 104 38
-0.287658 0.0867249 0.278952 57 102 39
-0.286526 0.0871579 0.27909 54 103 39
-0.286153 0.0879147 0.279078 52 103 40
-0.297972 0.102051 0.275857 61 116 53
-0.297221 0.102708 0.275914 58 109 51
-0.296472 0.103364 0.275971 64 112 54
-0.295725 0.104018 0.276027 74 121 58
-0.295319 0.10484 0.276014 82 127 59
-0.294914 0.105663 0.276 85 129 60
-0.277677 0.103626 0.278934 70 106 50
-0.277014 0.104236 0.278982 62 95 40
-0.276778 0.105082 0.278939 57 91 34
-0.276685 0.106008 0.278866 56 90 32
-0.276733 0.107019 0.278762 53 89 31
-0.277357 0.108364 0.278535 51 88 31
-0.28966 0.0829211 0.278163 47 45 30
-0.289286 0.0836793 0.27815 67 76 43
-0.288758 0.084375 0.278168 92 132 70
-0.288078 0.0850065 0.278218 78 122 54
-0.287248 0.0855727 0.278298 66 112 46
-0.286875 0.0863295 0.278285 60 107 45
-0.285899 0.0868277 0.278395 58 105 42
-0.285526 0.0875833 0.278382 56 105 42
-0.297617 0.101833 0.275035 62 117 52
-0.296866 0.102491 0.275093 58 109 51
-0.296118 0.103147 0.275151 66 110 53
-0.295371 0.103802 0.275209 72 121 57
-0.294966 0.104624 0.275195 78 126 61
-0.29456 0.105447 0.275181 81 128 61
-0.294153 0.106271 0.275167 79 126 60
-0.277113 0.104271 0.27813 63 95 41
-0.276734 0.105039 0.278117 59 90 30
-0.276783 0.106047 0.278011 56 90 29
-0.276689 0.10698 0.277936 54 90 32
-0.277025 0.108162 0.277766 55 90 34
-0.288718 0.0824725 0.277529 50 42 26
-0.287819 0.083922 0.277535 95 121 62
-0.287294 0.0846153 0.277553 93 136 66
-0.286318 0.0851177 0.277665 79 125 56
-0.285945 0.0858722 0.277652 70 118 51
-0.285274 0.0864985 0.277702 67 114 48
-0.285051 0.0873177 0.277657 65 111 47
-0.297262 0.101616 0.274213 61 111 46
-0.296511 0.102274 0.274272 59 110 50
-0.295763 0.10293 0.274331 67 110 50
-0.295017 0.103585 0.27439 74 119 55
-0.294443 0.104323 0.274412 76 125 59
-0.294037 0.105145 0.274398 79 129 62
-0.293799 0.106054 0.274347 79 128 61
-0.293392 0.106878 0.274333 76 123 57
-0.277932 0.1047 0.277115 65 95 37
-0.277119 0.105234 0.277197 63 89 29
-0.276739 0.106006 0.277183 60 89 31
-0.276644 0.10694 0.277107 57 90 32
-0.276836 0.108041 0.276965 55 90 33
-0.286585 0.0833482 0.276968 87 102 54
-0.286063 0.0840385 0.276987 102 147 76
-0.285542 0.0847284 0.277005 91 138 65
-0.285022 0.0854176 0.277023 82 130 57
-0.28465 0.0861702 0.27701 77 126 55
-0.284278 0.0869234 0.276997 73 123 53
-0.297251 0.101564 0.273316 58 108 41
-0.296157 0.102057 0.273451 63 114 49
-0.295409 0.102714 0.273511 65 110 49
-0.294664 0.103369 0.273571 69 118 55
-0.29392 0.104022 0.273631 74 126 58
-0.293515 0.104844 0.273616 79 130 60
-0.293277 0.105752 0.273565 79 129 62
-0.293038 0.106662 0.273513 77 125 59
-0.27818 0.104815 0.276218 65 95 39
-0.277219 0.105271 0.276334 59 89 32
-0.276837 0.106044 0.276321 57 89 31
-0.276599 0.1069 0.276275 57 90 31
-0.276503 0.107839 0.276196 54 90 33
-0.285589 0.0837762 0.276265 103 147 79
-0.285068 0.0844657 0.276284 96 147 72
-0.284548 0.0851546 0.276302 87 138 62
-0.284177 0.0859066 0.276289 83 134 58
-0.283805 0.0866592 0.276275 78 132 58
-0.296144 0.102006 0.272554 64 117 49
-0.295225 0.10258 0.272653 63 114 51
-0.29431 0.103152 0.272752 68 118 55
-0.293567 0.103806 0.272813 73 124 56
-0.293161 0.104628 0.272798 79 131 61
-0.292923 0.105536 0.272746 82 132 63
-0.292683 0.106445 0.272693 81 126 60
-0.277847 0.104613 0.275449 65 96 41
-0.277175 0.105228 0.275501 59 91 33
-0.276793 0.106003 0.275487 55 90 32
-0.27641 0.106778 0.275473 55 91 32
-0.27617 0.107636 0.275426 54 90 32
-0.284594 0.0842034 0.275563 99 151 75
-0.284223 0.0849549 0.275549 89 142 67
-0.283852 0.0857068 0.275536 85 137 61
-0.28348 0.0864594 0.275522 82 135 61
-0.283108 0.0872124 0.275508 79 133 60
-0.296132 0.101954 0.271653 61 113 48
-0.29487 0.102363 0.271832 63 115 51
-0.293956 0.102936 0.271933 67 115 54
-0.293214 0.10359 0.271995 73 123 56
-0.292808 0.104412 0.27198 78 130 62
-0.292401 0.105234 0.271965 83 131 63
-0.292329 0.106229 0.271873 81 128 61
-0.277514 0.10441 0.274679 66 98 40
-0.277131 0.105185 0.274665 61 92 32
-0.276604 0.105881 0.274684 56 91 34
-0.276221 0.106657 0.27467 54 91 32
-0.276124 0.107597 0.274588 55 90 29
-0.28427 0.0840036 0.274811 101 148 75
-0.283898 0.084755 0.274796 92 147 69
-0.283526 0.085507 0.274782 87 139 63
-0.283155 0.0862595 0.274768 83 135 62
-0.282782 0.0870126 0.274754 81 133 60
-0.294515 0.102146 0.271011 63 115 52
-0.29377 0.102803 0.271075 67 115 53
-0.29286 0.103374 0.271177 72 122 57
-0.292454 0.104196 0.271162 78 129 62
-0.292048 0.105018 0.271146 82 131 63
-0.291974 0.106012 0.271052 81 130 62
-0.277182 0.104207 0.27391 66 100 41
-0.276798 0.104982 0.273895 62 93 32
-0.276415 0.105758 0.27388 58 91 32
-0.276175 0.106616 0.273831 55 92 30
-0.275934 0.107475 0.273782 56 91 29
-0.243045 0.0903652 0.281546 51 91 35
-0.283426 0.0844927 0.274077 96 148 72
-0.283054 0.085244 0.274063 87 137 62
-0.282829 0.0860596 0.274015 82 135 61
-0.294161 0.101929 0.27019 61 115 50
-0.293416 0.102586 0.270255 66 116 53
-0.292674 0.103241 0.270319 71 120 57
-0.291934 0.103895 0.270383 77 127 61
-0.291527 0.104717 0.270367 81 131 63
-0.29162 0.105796 0.270232 83 132 63
-0.277137 0.104162 0.27307 65 101 44
-0.276465 0.10478 0.273125 61 93 32
-0.276225 0.105636 0.273075 58 90 29
-0.276128 0.106575 0.27299 56 92 30
-0.242771 0.0901985 0.280912 54 92 37
-0.242454 0.090838 0.2809 57 91 32
-0.283101 0.084293 0.273325 100 150 74
-0.282729 0.0850443 0.27331 89 138 64
-0.282357 0.0857962 0.273295 83 134 62
-0.282131 0.0866127 0.273246 80 134 60
-0.293975 0.101795 0.269328 60 113 46
-0.29323 0.102452 0.269394 64 116 52
-0.29232 0.103025 0.2695 69 119 55
-0.29158 0.103679 0.269565 75 125 60
-0.291174 0.1045 0.269549 80 129 62
-0.277238 0.104197 0.272191 66 102 45
-0.276564 0.104815 0.272248 61 95 33
-0.276179 0.105593 0.272232 57 92 30
-0.276082 0.106534 0.272145 54 92 32
-0.275984 0.107478 0.272058 51 93 35
-0.242813 0.0893929 0.280291 52 93 34
-0.242497 0.0900319 0.280279 55 91 36
-0.24218 0.0906713 0.280267 55 91 35
-0.241864 0.0913112 0.280254 54 92 35
-0.282776 0.0840932 0.272572 100 146 76
-0.282404 0.0848445 0.272557 90 141 69
-0.282032 0.0855964 0.272542 84 134 62
-0.281806 0.0864128 0.272492 81 132 59
-0.293958 0.101743 0.268423 58 111 42
-0.293043 0.102318 0.268531 63 115 51
-0.292133 0.102892 0.26864 67 119 54
-0.291061 0.103379 0.268788 73 124 57
-0.290655 0.1042 0.268772 78 126 59
-0.277923 0.104551 0.27116 67 103 46
-0.276518 0.104772 0.271402 61 94 36
-0.276133 0.105551 0.271387 58 93 33
-0.276324 0.106656 0.271224 54 93 31
-0.276371 0.107686 0.271097 51 94 31
-0.242539 0.0892262 0.279658 56 93 32
-0.242223 0.0898652 0.279646 57 93 31
-0.241906 0.0905046 0.279633 55 91 30
-0.241589 0.0911445 0.27962 55 90 33
-0.282451 0.0838935 0.271819 96 133 71
-0.282079 0.0846447 0.271804 90 141 72
-0.281707 0.0853966 0.271789 81 130 60
-0.281334 0.086149 0.271773 77 129 58
-0.281107 0.0869664 0.271722 75 127 55
-0.293602 0.101525 0.267599 56 108 40
-0.293025 0.102267 0.267625 60 112 49
-0.291778 0.102675 0.26782 64 117 53
-0.290708 0.103163 0.267971 70 123 55
-0.290301 0.103984 0.267954 76 126 56
-0.277879 0.104506 0.270307 68 104 45
-0.277199 0.105129 0.270366 63 96 33
-0.276666 0.105831 0.270388 61 93 30
-0.276568 0.106778 0.270297 60 93 34
-0.276034 0.107481 0.270319 59 94 35
-0.242265 0.0890595 0.279025 59 93 33
-0.241948 0.0896985 0.279012 57 92 31
-0.241632 0.0903379 0.278999 55 93 36
-0.241315 0.0909777 0.278986 54 92 34
-0.240998 0.0916181 0.278973 56 94 30
-0.281754 0.0844449 0.271051 90 141 73
-0.281381 0.0851967 0.271035 76 126 59
-0.281009 0.0859491 0.27102 71 124 55
-0.280781 0.0867663 0.270968 69 122 53
-0.280408 0.0875204 0.270952 67 121 54
-0.293416 0.10139 0.266732 53 107 36
-0.292669 0.10205 0.266802 57 109 45
-0.291424 0.102459 0.267 61 114 52
-0.290354 0.102948 0.267153 67 119 54
-0.289948 0.103768 0.267136 72 123 55
-0.277835 0.104462 0.269451 70 104 47
-0.277154 0.105085 0.269512 61 96 35
-0.276765 0.10587 0.269496 66 91 34
-0.276668 0.106819 0.269402 81 88 34
-0.275987 0.107441 0.269463 65 94 35
-0.241991 0.0888928 0.278391 59 94 33
-0.241674 0.0895317 0.278378 60 91 31
-0.241357 0.0901711 0.278365 56 94 34
-0.24104 0.090811 0.278352 52 94 35
-0.240723 0.0914513 0.278339 54 95 35
-0.240406 0.0920922 0.278325 57 90 33
-0.281283 0.0841828 0.270334 89 137 70
-0.280911 0.084934 0.270318 73 123 57
-0.280538 0.0856858 0.270303 67 119 52
-0.28031 0.0865022 0.27025 64 116 51
-0.280082 0.0873203 0.270197 62 115 51
-0.279708 0.088075 0.270181 60 112 48
-0.292313 0.101832 0.265978 57 111 40
-0.29107 0.102242 0.266179 62 115 48
-0.290001 0.102731 0.266336 66 119 54
-0.289594 0.103552 0.266318 70 122 56
-0.277645 0.104336 0.268631 69 104 47
-0.277109 0.105041 0.268654 61 95 36
-0.276719 0.105827 0.268638 63 92 34
-0.27633 0.106614 0.268621 70 91 34
-0.27594 0.107401 0.268605 63 93 34
-0.241717 0.0887261 0.277758 59 93 35
-0.2414 0.0893649 0.277744 58 91 35
-0.241083 0.0900043 0.277731 56 92 35
-0.240766 0.0906442 0.277717 54 93 35
-0.240449 0.0912845 0.277704 54 93 32
-0.240131 0.0919253 0.277691 55 92 35
-0.239813 0.0925666 0.277677 56 93 35
-0.280958 0.0839831 0.269581 88 121 62
-0.280586 0.0847343 0.269565 73 121 58
-0.280213 0.0854861 0.269549 64 112 47
-0.27984 0.0862384 0.269533 62 110 48
-0.279611 0.0870557 0.269479 61 110 47
-0.279381 0.0878748 0.269426 58 108 46
-0.290715 0.102025 0.265359 60 115 48
-0.289647 0.102515 0.265518 65 119 52
-0.289241 0.103336 0.2655 69 122 54
-0.277747 0.104371 0.26773 67 104 47
-0.276917 0.104916 0.267834 62 94 36
-0.276382 0.105622 0.267857 62 92 32
-0.276283 0.106572 0.26776 60 93 34
-0.275602 0.107195 0.267823 58 94 33
-0.241442 0.0885593 0.277124 58 94 36
-0.241126 0.0891982 0.27711 55 93 38
-0.240809 0.0898375 0.277097 55 92 37
-0.240491 0.0904774 0.277083 56 95 34
-0.240174 0.0911177 0.277069 57 95 29
-0.239856 0.0917585 0.277056 56 93 34
-0.239538 0.0923998 0.277042 56 91 37
-0.23922 0.0930415 0.277028 55 93 34
-0.279971 0.0844098 0.268888 76 123 61
-0.279599 0.0851604 0.268872 62 108 44
-0.27937 0.085975 0.268817 60 105 41
-0.279141 0.0867914 0.268763 60 106 41
-0.278911 0.0876097 0.268708 56 105 44
-0.278681 0.0884299 0.268654 59 104 39
-0.289953 0.102631 0.264521 64 118 51
-0.277018 0.104953 0.26693 63 95 37
-0.276627 0.105741 0.266913 61 92 34
-0.241168 0.0883925 0.27649 59 94 35
-0.240851 0.0890313 0.276476 56 92 37
-0.240534 0.0896707 0.276462 57 92 37
-0.240217 0.0903105 0.276449 57 94 33
-0.239899 0.0909508 0.276435 58 93 32
-0.239581 0.0915916 0.276421 55 93 34
-0.239263 0.0922329 0.276407 56 92 38
-0.238945 0.0928746 0.276393 54 90 35
-0.279503 0.0841483 0.268174 82 125 65
-0.279131 0.0848982 0.268158 63 110 46
-0.278902 0.085712 0.268102 58 105 42
-0.278672 0.0865275 0.268047 55 105 46
-0.278442 0.0873449 0.267992 58 103 43
-0.278354 0.0882296 0.267898 59 103 37
-0.277979 0.0889853 0.267881 57 104 42
-0.240894 0.0882257 0.275856 60 93 34
-0.240577 0.0888645 0.275842 58 91 36
-0.24026 0.0895038 0.275828 58 92 36
-0.239942 0.0901436 0.275814 56 92 34
-0.239625 0.0907839 0.2758 60 92 34
-0.239307 0.0914247 0.275786 58 93 34
-0.238988 0.092066 0.275771 59 91 35
-0.23867 0.0927077 0.275757 53 91 38
-0.238351 0.0933499 0.275743 57 91 33
-0.238032 0.0939926 0.275729 60 92 32
-0.237713 0.0946358 0.275715 60 93 35
-0.237394 0.0952795 0.2757 60 93 38
-0.237074 0.0959237 0.275686 67 100 49
-0.236754 0.0965683 0.275672 70 102 58
-0.278892 0.0838254 0.267501 85 117 59
-0.27852 0.0845742 0.267484 70 116 52
-0.278148 0.0853235 0.267467 61 108 45
-0.277918 0.0861368 0.267411 59 108 45
-0.278116 0.087145 0.267237 60 106 45
-0.278028 0.0880294 0.267142 60 106 41
-0.277652 0.0887851 0.267125 59 105 42
-0.24062 0.0880588 0.275223 61 94 33
-0.240303 0.0886976 0.275208 60 92 35
-0.239985 0.089337 0.275194 60 93 37
-0.239668 0.0899768 0.275179 58 93 35
-0.23935 0.090617 0.275165 60 93 35
-0.239032 0.0912578 0.275151 59 93 35
-0.238713 0.091899 0.275136 61 90 33
-0.238395 0.0925408 0.275122 55 92 37
-0.238076 0.093183 0.275107 58 91 35
-0.237757 0.0938257 0.275093 60 92 34
-0.237438 0.0944688 0.275078 60 92 34
-0.237118 0.0951125 0.275064 61 94 40
-0.236798 0.0957566 0.275049 69 102 51
-0.236478 0.0964013 0.275035 67 98 60
-0.236158 0.0970464 0.27502 54 50 36
-0.277856 0.0833201 0.266947 81 101 56
-0.277486 0.0840659 0.26693 77 126 63
-0.276974 0.0847501 0.266952 65 114 50
-0.276603 0.0854964 0.266935 61 110 48
-0.277647 0.0868808 0.266522 60 110 47
-0.277701 0.0878291 0.266385 61 110 45
-0.277326 0.0885848 0.266368 60 108 43
-0.240028 0.0885307 0.274574 62 93 37
-0.239711 0.0891701 0.274559 62 95 41
-0.239393 0.0898098 0.274545 62 94 35
-0.239075 0.0904501 0.27453 61 94 36
-0.238757 0.0910909 0.274515 59 92 38
-0.238438 0.0917321 0.274501 59 91 34
-0.23812 0.0923738 0.274486 57 92 31
-0.237801 0.093016 0.274471 60 91 32
-0.237481 0.0936587 0.274457 57 92 35
-0.237162 0.0943018 0.274442 60 90 35
-0.236842 0.0949455 0.274427 61 95 41
-0.236523 0.0955896 0.274412 70 102 53
-0.236202 0.0962342 0.274398 64 91 62
-0.235882 0.0968793 0.274383 46 52 38
-0.2766 0.0836226 0.26634 88 134 71
-0.27623 0.0843666 0.266323 75 123 54
-0.27586 0.0851111 0.266306 68 117 50
-0.276896 0.0864892 0.265889 66 115 49
-0.277089 0.087499 0.26571 64 116 49
-0.276999 0.0883845 0.265612 64 114 48
-0.239754 0.0883638 0.273939 62 95 41
-0.239436 0.0890031 0.273925 61 96 43
-0.239118 0.0896429 0.27391 62 94 36
-0.2388 0.0902831 0.273895 61 93 35
-0.238482 0.0909239 0.27388 61 91 38
-0.238163 0.0915651 0.273865 60 91 33
-0.237844 0.0922068 0.27385 57 91 28
-0.237525 0.092849 0.273835 58 91 30
-0.237206 0.0934916 0.27382 54 93 37
-0.236886 0.0941348 0.273805 58 90 34
-0.236567 0.0947784 0.27379 60 95 40
-0.236247 0.0954225 0.273775 72 103 54
-0.235926 0.0960671 0.27376 61 81 57
-0.235606 0.0967122 0.273745 41 50 37
-0.275998 0.0833032 0.265675 94 127 66
-0.275768 0.0841074 0.265617 86 136 65
-0.275538 0.0849133 0.265559 77 126 55
-0.275446 0.0857839 0.265461 75 123 53
-0.276763 0.087299 0.264955 73 123 53
-0.239479 0.0881969 0.273305 61 94 35
-0.239161 0.0888362 0.27329 59 95 37
-0.238843 0.0894759 0.273275 60 91 36
-0.238525 0.0901162 0.27326 60 91 33
-0.238207 0.0907569 0.273244 60 89 35
-0.237888 0.0913981 0.273229 59 92 34
-0.237569 0.0920398 0.273214 56 92 31
-0.23725 0.0926819 0.273199 56 92 34
-0.23693 0.0933246 0.273184 53 92 38
-0.236611 0.0939677 0.273169 56 89 34
-0.236291 0.0946113 0.273153 61 96 39
-0.235971 0.0952554 0.273138 77 108 54
-0.23565 0.0959 0.273123 62 72 46
-0.23533 0.0965451 0.273108 45 48 34
-0.275168 0.0837874 0.264953 99 149 76
-0.275216 0.0847155 0.264813 88 138 62
-0.274845 0.0854606 0.264795 83 134 58
-0.238887 0.0886692 0.272655 57 93 32
-0.238568 0.0893089 0.27264 55 92 36
-0.23825 0.0899492 0.272624 57 91 34
-0.237932 0.0905899 0.272609 54 90 36
-0.237613 0.091231 0.272594 58 92 36
-0.237294 0.0918727 0.272578 56 91 34
-0.236974 0.0925149 0.272563 54 90 35
-0.236655 0.0931575 0.272547 56 90 30
-0.236335 0.0938006 0.272532 57 90 32
-0.236015 0.0944442 0.272516 61 96 40
-0.235695 0.0950883 0.272501 76 107 54
-0.235374 0.0957329 0.272485 62 64 40
-0.235053 0.0963779 0.27247 51 42 33
-0.274847 0.0835901 0.264208 106 146 76
-0.274754 0.084456 0.264107 97 147 69
-0.238612 0.0885022 0.27202 55 92 36
-0.238294 0.0891419 0.272005 54 91 35
-0.237975 0.0897821 0.271989 56 89 33
-0.237656 0.0904228 0.271973 55 90 30
-0.237337 0.091064 0.271958 56 90 34
-0.237018 0.0917056 0.271942 56 88 33
-0.236699 0.0923478 0.271926 54 88 33
-0.236379 0.0929904 0.271911 57 90 31
-0.236059 0.0936335 0.271895 55 92 35
-0.235739 0.0942771 0.271879 62 96 45
-0.236335 0.0955135 0.271565 73 104 57
-0.236105 0.0962225 0.271519 61 54 33
-0.235782 0.0968722 0.271503 49 41 28
-0.273742 0.0839519 0.26357 103 152 77
-0.273924 0.0849406 0.263385 94 147 71
-0.238019 0.0889749 0.271369 55 93 36
-0.2377 0.0896151 0.271353 54 91 33
-0.237381 0.0902557 0.271338 56 92 31
-0.237062 0.0908969 0.271322 54 91 35
-0.236743 0.0915385 0.271306 52 88 32
-0.236423 0.0921806 0.27129 52 89 34
-0.236104 0.0928232 0.271274 54 89 32
-0.236888 0.0941666 0.270894 55 91 36
-0.23675 0.0949339 0.270817 64 97 44
-0.236705 0.0957638 0.270709 70 99 56
-0.27233 0.0832709 0.263161 104 153 81
-0.271828 0.0839472 0.263184 98 151 73
-0.271327 0.084623 0.263207 92 147 68
-0.237425 0.089448 0.270718 58 90 29
-0.237106 0.0900886 0.270702 58 90 30
-0.236787 0.0907298 0.270686 54 92 33
-0.236467 0.0913714 0.27067 50 89 37
-0.236977 0.092529 0.270377 54 89 35
-0.237118 0.0934666 0.270206 50 90 39
-0.237074 0.0942926 0.270097 56 88 36
-0.23675 0.0949434 0.27008 65 99 49
-0.271375 0.0836912 0.262488 102 153 75
-0.271008 0.0844275 0.262469 94 148 66
-0.270641 0.0851644 0.26245 89 145 65
-0.237715 0.0912967 0.269645 56 90 32
-0.237393 0.0919438 0.269628 57 90 37
-0.23735 0.0927652 0.269517 55 86 36
-0.237869 0.0939441 0.269215 52 89 37
-0.238015 0.094897 0.269038 60 90 38
-0.271056 0.0834956 0.26175 104 150 77
-0.270689 0.084232 0.261731 97 149 70
-0.270322 0.0849688 0.261712 90 146 67
-0.239175 0.0913361 0.268537 59 90 33
-0.238659 0.0918734 0.268585 53 91 34
-0.238334 0.0925262 0.268568 54 89 37
-0.238292 0.0933559 0.268454 54 87 35
-0.238061 0.0940704 0.268405 53 87 38
-0.238208 0.0950269 0.268224 61 90 39
-0.270737 0.0833001 0.261011 100 143 77
-0.27037 0.0840364 0.260992 98 150 74
-0.270003 0.0847732 0.260973 89 143 68
-0.239948 0.0918023 0.267525 60 93 33
-0.238949 0.092051 0.26774 55 92 35
-0.238623 0.0927064 0.267723 54 89 34
-0.238581 0.0935398 0.267606 57 89 33
-0.238253 0.0941975 0.267589 59 87 36
-0.238497 0.0952183 0.267371 63 93 46
-0.238646 0.0961863 0.267185 72 100 56
-0.237984 0.097515 0.267151 50 49 33
-0.269785 0.08372 0.260341 99 145 73
-0.269418 0.0844557 0.260321 88 141 67
-0.239666 0.0916307 0.266872 58 90 32
-0.238954 0.0920548 0.266989 56 90 38
-0.239201 0.0930654 0.266769 59 89 38
-0.238872 0.0937252 0.266751 60 87 35
-0.238639 0.0944457 0.2667 62 86 34
-0.2385 0.0952285 0.266614 64 95 50
-0.238553 0.0961369 0.266459 66 94 57
-0.238318 0.0968639 0.266407 53 45 35
-0.269201 0.0834046 0.259692 95 136 73
-0.26857 0.0840183 0.25976 91 140 70
-0.268204 0.0847522 0.25974 82 132 59
-0.239576 0.0915753 0.26615 58 91 35
-0.239247 0.0922342 0.266132 56 88 38
-0.239399 0.09319 0.265942 59 89 40
-0.239069 0.0938521 0.265924 60 88 40
-0.238835 0.0945751 0.265871 62 90 39
-0.2386 0.0952996 0.265819 69 97 51
-0.238364 0.0960256 0.265766 61 82 56
-0.238032 0.096691 0.265748 46 46 33
-0.267597 0.0835237 0.259246 95 137 71
-0.266972 0.0841345 0.259314 82 132 61
-0.266478 0.0848045 0.259338 77 130 57
-0.265856 0.085413 0.259406 76 128 55
-0.239969 0.0918121 0.265251 59 93 36
-0.239639 0.0924741 0.265233 59 90 40
-0.239599 0.0933155 0.265109 61 91 44
-0.239267 0.0939798 0.265091 62 94 42
-0.238935 0.0946446 0.265073 61 94 48
-0.238603 0.0953099 0.265055 71 98 55
-0.238367 0.0960374 0.265001 60 63 42
-0.238034 0.0967042 0.264983 48 47 28
-0.267021 0.0832107 0.258602 95 133 73
-0.266397 0.083821 0.258671 88 137 68
-0.265904 0.0844902 0.258695 80 130 58
-0.26554 0.0852196 0.258675 76 130 56
-0.265175 0.0859495 0.258655 74 129 55
-0.240151 0.0945342 0.263999 63 96 49
-0.239817 0.0952045 0.26398 65 97 52
-0.239579 0.0959374 0.263925 66 93 57
-0.239244 0.0966091 0.263906 55 50 36
-0.265953 0.0835679 0.257985 95 138 72
-0.265588 0.0842968 0.257964 83 134 60
-0.265224 0.0850262 0.257944 78 131 56
-0.264859 0.0857561 0.257923 76 130 55
-0.240135 0.0971903 0.262794 44 42 31
-0.265509 0.0833152 0.2573 95 133 71
-0.265017 0.0839837 0.257324 91 142 69
-0.264525 0.0846517 0.257349 83 135 59
-0.264543 0.0855626 0.257192 81 134 58
-0.264319 0.0836121 0.256732 99 143 75
-0.263324 0.0840404 0.256939 93 145 70
-0.262962 0.0847648 0.256918 88 142 65
-0.248816 0.093502 0.259413 58 93 40
-0.245354 0.0959633 0.259969 68 100 55
-0.244482 0.0963342 0.260151 67 99 53
-0.244135 0.0970267 0.260131 64 98 56
-0.26251 0.0836119 0.256396 101 155 78
-0.2619 0.0842153 0.256466 96 152 71
-0.261912 0.0851169 0.256308 93 151 69
-0.248865 0.0926195 0.258737 60 97 40
-0.248406 0.0932555 0.258758 61 97 41
-0.247839 0.0938276 0.258821 61 98 44
-0.247273 0.0943986 0.258885 61 100 48
-0.246281 0.0947126 0.259113 63 101 55
-0.245403 0.0950882 0.259299 66 100 56
-0.245055 0.0957821 0.259279 67 99 57
-0.244184 0.0961536 0.259463 66 99 54
-0.243837 0.0968461 0.259443 61 85 48
-0.261464 0.083965 0.255789 103 158 77
-0.261227 0.0847457 0.255722 96 153 71
-0.248564 0.0924362 0.258041 59 98 40
-0.248105 0.0930724 0.258062 59 99 39
-0.247322 0.0935182 0.258211 59 100 42
-0.246651 0.0940252 0.258316 62 100 43
-0.245982 0.0945307 0.258422 62 101 52
-0.245527 0.0951624 0.258443 66 100 56
-0.244757 0.0956008 0.258589 65 98 57
-0.244409 0.0962953 0.258568 70 100 55
-0.244062 0.0969902 0.258548 56 69 38
-0.260905 0.0836563 0.25516 108 156 80
-0.260545 0.0843762 0.255138 99 155 75
-0.248154 0.0921905 0.257387 59 98 39
-0.247479 0.0927008 0.257495 58 99 40
-0.246592 0.0930839 0.257687 58 98 41
-0.246244 0.0937797 0.257666 61 99 44
-0.245895 0.094476 0.257645 62 100 50
-0.245546 0.0951729 0.257624 64 100 52
-0.245091 0.0958056 0.257645 65 98 54
-0.244742 0.096503 0.257625 78 105 57
-0.244498 0.0972666 0.257561 55 60 37
-0.259257 0.0837151 0.25479 102 158 81
-0.258657 0.0843135 0.254861 96 151 72
-0.247852 0.0920073 0.256691 60 98 38
-0.246855 0.0923309 0.256929 59 98 41
-0.246186 0.0928392 0.257037 60 99 43
-0.245944 0.0935976 0.256973 61 98 46
-0.245702 0.0943575 0.256909 62 97 46
-0.245352 0.0950548 0.256888 61 96 43
-0.245003 0.0957527 0.256866 64 96 49
-0.244653 0.0964511 0.256845 82 109 60
-0.244409 0.0972157 0.256781 58 55 40
-0.258585 0.0833508 0.254213 106 155 80
-0.257987 0.0839485 0.254285 103 156 79
-0.257629 0.0846625 0.254263 100 152 77
-0.246234 0.0919624 0.256366 59 94 37
-0.24578 0.0925949 0.256388 58 97 40
-0.245538 0.0933525 0.256324 60 95 41
-0.245508 0.0942388 0.256172 61 92 40
-0.245158 0.0949366 0.25615 61 92 40
-0.244808 0.0956349 0.256129 64 96 48
-0.244564 0.096399 0.256064 84 112 61
-0.244319 0.0971646 0.255998 60 55 42
-0.258156 0.0831036 0.253544 102 138 71
-0.257678 0.0837594 0.253569 104 154 81
-0.25732 0.0844734 0.253547 101 149 77
-0.245828 0.0917187 0.255718 58 95 35
-0.24548 0.0924129 0.255697 59 96 36
-0.245132 0.0931077 0.255675 60 93 38
-0.245207 0.0940563 0.255478 62 90 39
-0.244858 0.0947541 0.255456 62 91 43
-0.244613 0.0955169 0.25539 65 97 49
-0.244369 0.0962814 0.255324 86 116 63
-0.244123 0.0970476 0.255258 65 59 39
-0.257369 0.0835703 0.252854 93 141 75
-0.257011 0.0842843 0.252831 88 135 66
-0.256653 0.0849988 0.252809 82 132 61
-0.245664 0.0907212 0.255137 59 97 43
-0.245317 0.0914139 0.255115 60 97 43
-0.245181 0.092231 0.255005 61 95 42
-0.244938 0.0929883 0.254939 61 92 42
-0.244907 0.0938737 0.254783 61 91 40
-0.244663 0.0946354 0.254717 62 93 45
-0.244418 0.0953988 0.25465 66 99 51
-0.244173 0.0961637 0.254583 88 120 63
-0.243821 0.0968646 0.254561 63 64 42
-0.25706 0.0833811 0.252138 88 131 67
-0.256702 0.0840951 0.252115 81 129 61
-0.256343 0.0848096 0.252093 76 126 57
-0.245684 0.090722 0.254313 61 96 44
-0.24523 0.0913548 0.254335 61 97 45
-0.244987 0.0921109 0.254268 62 95 47
-0.244639 0.0928061 0.254246 63 92 43
-0.244606 0.0936912 0.254089 63 92 41
-0.244468 0.0945166 0.253976 61 96 45
-0.244117 0.0952159 0.253954 67 102 51
-0.243871 0.0959807 0.253886 90 122 61
-0.243625 0.0967472 0.253819 61 75 55
-0.256869 0.0832498 0.251374 85 115 59
-0.256392 0.0839059 0.251399 79 126 62
-0.256034 0.0846204 0.251376 74 122 55
-0.255675 0.0853355 0.251353 73 122 53
-0.245036 0.0912341 0.253598 60 99 48
-0.244688 0.0919288 0.253576 64 99 46
-0.244444 0.0926864 0.253508 65 96 47
-0.244306 0.0935086 0.253394 64 96 44
-0.244167 0.0943338 0.25328 64 98 46
-0.243921 0.0950974 0.253212 70 104 50
-0.243675 0.0958626 0.253144 90 122 60
-0.243428 0.0966295 0.253075 70 93 66
-0.256201 0.083775 0.250634 78 123 62
-0.255842 0.08449 0.250611 71 119 54
-0.255483 0.0852055 0.250587 71 117 53
-0.255241 0.0859816 0.250514 76 117 57
-0.244295 0.0855206 0.254121 60 94 33
-0.244843 0.0911132 0.25286 65 99 48
-0.244494 0.0918083 0.252837 67 99 44
-0.24425 0.0925664 0.252769 68 99 47
-0.244005 0.093326 0.2527 66 100 44
-0.243971 0.0942146 0.252538 69 101 46
-0.24362 0.0949144 0.252515 74 109 50
-0.243478 0.0957444 0.2524 89 124 62
-0.243231 0.0965117 0.25233 79 109 70
-0.25601 0.0836438 0.249867 78 118 59
-0.25565 0.0843593 0.249844 67 115 53
-0.255291 0.0850754 0.24982 65 111 51
-0.255049 0.0858519 0.249746 64 105 47
-0.244343 0.0846623 0.253464 60 97 41
-0.244001 0.0853416 0.253442 62 96 36
-0.243763 0.0860782 0.253374 60 97 37
-0.243731 0.086931 0.253217 62 96 38
-0.244648 0.0909921 0.252121 67 101 51
-0.244194 0.091626 0.252144 69 102 50
-0.244055 0.0924462 0.252028 70 102 47
-0.24381 0.0932063 0.251958 67 103 47
-0.243669 0.0940316 0.251842 72 106 50
-0.243423 0.0947955 0.251772 76 113 53
-0.243281 0.0956259 0.251655 87 125 61
-0.243034 0.0963937 0.251584 89 123 70
-0.255818 0.0835124 0.249099 75 105 51
-0.255458 0.0842284 0.249075 66 114 53
-0.255098 0.084945 0.249051 62 107 50
-0.254974 0.0857819 0.248926 60 103 45
-0.253761 0.0887845 0.248728 65 99 47
-0.244049 0.0844832 0.252785 62 97 43
-0.243708 0.0851626 0.252762 63 97 41
-0.243469 0.085899 0.252694 64 98 41
-0.243333 0.0866941 0.252581 68 97 37
-0.244454 0.0908708 0.25138 70 105 51
-0.243999 0.0915052 0.251404 71 105 51
-0.243859 0.0923258 0.251286 71 105 50
-0.243719 0.0931493 0.251169 69 106 50
-0.243473 0.093912 0.251098 76 110 54
-0.243332 0.0947406 0.25098 79 117 55
-0.24319 0.0955721 0.250861 88 126 61
-0.242941 0.096341 0.25079 97 133 72
-0.255384 0.084156 0.248255 70 114 54
-0.255023 0.0848737 0.24823 64 104 47
-0.255016 0.0857718 0.248052 61 102 44
-0.255009 0.0866745 0.247872 59 98 42
-0.254764 0.0874584 0.247796 58 95 46
-0.254164 0.088058 0.247875 75 110 54
-0.253801 0.0887811 0.247851 69 106 50
-0.243859 0.0843597 0.25206 66 101 45
-0.243517 0.0850395 0.252037 67 98 44
-0.243278 0.0857763 0.251969 68 101 48
-0.243141 0.0865718 0.251854 72 100 46
-0.244365 0.0908105 0.250591 73 105 52
-0.243909 0.0914459 0.250615 72 109 52
-0.243769 0.0922676 0.250496 71 108 53
-0.243523 0.0930291 0.250424 73 109 52
-0.243382 0.0938559 0.250305 80 113 54
-0.24324 0.0946856 0.250185 83 118 55
-0.242992 0.0954532 0.250113 90 127 59
-0.242954 0.0963537 0.249944 101 136 71
-0.255191 0.0840247 0.247483 72 108 52
-0.255066 0.0848615 0.247355 67 104 46
-0.255059 0.0857616 0.247173 63 102 40
-0.254696 0.0864835 0.247149 59 99 38
-0.254451 0.0872673 0.247071 53 97 44
-0.253852 0.0878672 0.247151 76 107 51
-0.253488 0.0885902 0.247127 74 112 51
-0.252774 0.0891256 0.247259 71 105 47
-0.243326 0.0849161 0.251311 71 104 48
-0.242983 0.0855969 0.251288 72 107 52
-0.24417 0.0906888 0.249847 76 110 54
-0.243819 0.0913864 0.249823 74 110 54
-0.243679 0.0922091 0.249703 75 112 53
-0.243432 0.0929717 0.249631 76 114 52
-0.24329 0.0937996 0.249509 78 117 55
-0.243148 0.0946303 0.249388 84 121 55
-0.243005 0.0954641 0.249266 89 129 59
-0.242861 0.0963007 0.249144 99 137 68
-0.255354 0.0840694 0.246553 72 99 50
-0.25511 0.0848492 0.246475 67 105 49
-0.254865 0.0856307 0.246397 63 101 39
-0.25462 0.0864139 0.246319 61 98 35
-0.254374 0.0871989 0.246241 57 95 38
-0.253892 0.0878616 0.246269 71 101 48
-0.253881 0.088774 0.246084 78 116 54
-0.242792 0.0854739 0.25056 78 111 51
-0.243974 0.0905668 0.249103 79 114 54
-0.243623 0.0912649 0.249079 77 115 54
-0.243482 0.092088 0.248957 80 115 52
-0.243341 0.0929141 0.248834 80 117 55
-0.24341 0.0938707 0.248613 81 121 57
-0.243161 0.0946394 0.248539 86 122 57
-0.242912 0.0954098 0.248465 90 127 62
-0.242662 0.0961818 0.248391 96 135 66
-0.255279 0.0839963 0.245723 66 83 41
-0.255034 0.0847772 0.245645 68 110 53
-0.254789 0.0855598 0.245566 63 101 44
-0.254543 0.0863442 0.245487 60 99 39
-0.254297 0.0871302 0.245407 56 99 40
-0.253932 0.0878559 0.245382 62 98 43
-0.243673 0.0903836 0.248406 82 118 55
-0.243322 0.0910816 0.248382 80 117 55
-0.243391 0.0920291 0.24816 82 118 55
-0.24346 0.0929826 0.247936 83 120 58
-0.243212 0.0937502 0.247861 83 124 58
-0.243069 0.0945838 0.247737 86 125 58
-0.242713 0.0952901 0.247712 89 128 61
-0.242463 0.0960626 0.247637 94 134 64
-0.242212 0.0968367 0.247562 89 126 72
-0.255085 0.083864 0.244946 56 66 31
-0.25484 0.0846454 0.244866 70 108 52
-0.254594 0.0854285 0.244786 64 102 43
-0.254348 0.0862133 0.244706 60 100 41
-0.253983 0.0869384 0.244681 55 99 40
-0.253617 0.0876641 0.244655 54 97 43
-0.243266 0.0901394 0.24776 85 123 56
-0.242915 0.090837 0.247735 83 123 58
-0.243088 0.0918453 0.24746 83 122 57
-0.243263 0.0928615 0.247184 85 122 58
-0.24312 0.0936933 0.247058 85 125 60
-0.242764 0.094399 0.247033 87 125 59
-0.242514 0.0951703 0.246957 89 129 60
-0.242263 0.0959432 0.246882 91 133 63
-0.242012 0.0967178 0.246806 97 136 73
-0.25489 0.0837315 0.244167 47 49 31
-0.254645 0.0845134 0.244086 71 95 49
-0.254399 0.0852969 0.244005 64 107 49
-0.254034 0.0860215 0.24398 59 101 40
-0.253669 0.0867466 0.243954 57 100 34
-0.242965 0.0899563 0.247063 85 123 58
-0.242614 0.0906538 0.247038 87 123 59
-0.242786 0.0916614 0.246761 86 124 58
-0.242959 0.0926769 0.246482 86 126 58
-0.242815 0.0935085 0.246355 85 127 60
-0.242565 0.0942786 0.246278 86 128 58
-0.242314 0.0950503 0.246202 88 127 60
-0.242063 0.0958236 0.246125 90 133 64
-0.241706 0.0965325 0.2461 101 140 72
-0.254577 0.08354 0.243442 42 43 22
-0.254331 0.0843217 0.243361 67 78 40
-0.254085 0.0851051 0.243279 70 112 54
-0.25372 0.0858297 0.243253 62 100 42
-0.242293 0.0860047 0.247318 87 125 58
-0.242153 0.0868072 0.247195 87 124 58
-0.24312 0.0891362 0.246342 87 124 59
-0.242769 0.0898337 0.246316 88 126 59
-0.242731 0.0907155 0.246138 87 126 61
-0.242483 0.0914776 0.246062 90 128 58
-0.24255 0.0924294 0.245832 89 127 60
-0.242405 0.09326 0.245703 87 130 61
-0.24226 0.0940935 0.245574 88 130 60
-0.242115 0.09493 0.245445 89 129 60
-0.241758 0.0956383 0.245419 90 133 62
-0.241505 0.0964132 0.245342 101 140 69
-0.254264 0.0833485 0.242717 43 44 24
-0.254018 0.08413 0.242635 55 61 36
-0.253771 0.0849133 0.242552 73 110 55
-0.253406 0.0856378 0.242526 63 104 44
-0.241931 0.0849118 0.246856 88 126 58
-0.241585 0.0855963 0.246831 87 126 60
-0.241649 0.0865108 0.246606 88 124 57
-0.241508 0.0873145 0.246481 88 128 61
-0.242401 0.0887135 0.245849 89 127 61
-0.242887 0.0898931 0.245414 89 128 63
-0.242744 0.090716 0.245285 88 130 61
-0.2426 0.0915419 0.245155 88 128 59
-0.242246 0.092245 0.24513 87 127 61
-0.241996 0.0930119 0.245052 87 130 61
-0.241955 0.0939085 0.24487 88 131 61
-0.241809 0.0947447 0.244739 88 129 62
-0.241557 0.0955184 0.244661 89 134 62
-0.241199 0.0962277 0.244635 97 137 67
-0.253704 0.0839383 0.241909 47 49 31
-0.253457 0.0847214 0.241826 72 98 49
-0.253091 0.0854459 0.241799 65 109 50
-0.241634 0.0847313 0.246171 88 127 62
-0.241289 0.0854159 0.246146 89 127 61
-0.241352 0.0863298 0.245919 88 126 59
-0.24121 0.0871332 0.245793 87 126 59
-0.241789 0.0883524 0.245309 90 126 59
-0.243111 0.090014 0.244453 91 127 59
-0.242757 0.0907165 0.244427 90 129 62
-0.242402 0.0914195 0.244401 90 131 63
-0.242047 0.0921231 0.244376 90 130 61
-0.241692 0.0928272 0.24435 90 129 60
-0.241651 0.0937235 0.244166 90 129 59
-0.241504 0.0945594 0.244034 88 131 61
-0.241251 0.0953329 0.243955 89 131 62
-0.240893 0.0960422 0.243928 95 135 66
-0.240535 0.0967521 0.243902 94 129 73
-0.253508 0.0838056 0.241126 48 43 25
-0.253143 0.0845295 0.241099 67 79 33
-0.252777 0.085254 0.241072 71 115 52
-0.252528 0.0860398 0.240988 61 105 43
-0.241645 0.0847191 0.245334 91 128 60
-0.241299 0.0854051 0.245308 90 126 62
-0.241157 0.0862061 0.245181 89 129 58
-0.240912 0.086952 0.245104 87 128 60
-0.242453 0.0905319 0.243725 89 131 61
-0.242098 0.0912349 0.243699 90 129 60
-0.241743 0.0919385 0.243673 91 129 59
-0.241597 0.0927689 0.243541 89 131 60
-0.241346 0.0935384 0.243461 90 132 58
-0.241198 0.094374 0.243328 91 133 59
-0.240945 0.0951474 0.243248 90 133 64
-0.240587 0.0958567 0.243222 93 136 66
-0.240333 0.0966328 0.243142 102 140 73
-0.253194 0.0836136 0.240399 45 39 26
-0.252463 0.0850621 0.240345 75 109 54
-0.252213 0.0858476 0.24026 64 106 47
-0.241207 0.0853375 0.244519 90 130 61
-0.24086 0.0860249 0.244493 89 132 59
-0.240614 0.0867706 0.244415 88 129 61
-0.241395 0.0881057 0.243818 91 127 59
-0.242504 0.0896447 0.24305 88 131 61
-0.242149 0.0903472 0.243023 90 130 62
-0.241794 0.0910502 0.242997 90 130 63
-0.241544 0.0918163 0.242917 92 132 62
-0.241397 0.0926471 0.242783 92 133 61
-0.241145 0.093417 0.242703 93 134 60
-0.240997 0.0942531 0.242568 93 132 61
-0.240639 0.0949618 0.242541 91 134 64
-0.240385 0.0957367 0.242461 95 135 64
-0.240131 0.0965133 0.24238 104 145 72
-0.252762 0.0833631 0.23973 42 42 27
-0.252148 0.0848701 0.239617 72 98 49
-0.251899 0.0856555 0.239531 68 111 50
-0.240909 0.0851563 0.243831 90 133 60
-0.240562 0.0858437 0.243805 88 131 61
-0.240418 0.086647 0.243675 88 133 62
-0.240478 0.08757 0.243439 90 132 63
-0.241677 0.0891573 0.242617 89 133 61
-0.241845 0.0901626 0.242321 89 130 63
-0.24149 0.0908656 0.242295 89 133 63
-0.241344 0.0916939 0.24216 89 132 63
-0.241197 0.0925251 0.242024 92 134 65
-0.24084 0.0932318 0.241997 92 134 60
-0.240691 0.0940675 0.241862 93 134 60
-0.240438 0.0948412 0.24178 92 135 62
-0.240183 0.0956165 0.241698 93 135 63
