ply
format ascii 1.0
element vertex 1255
property float x
property float y
property float z
property uchar diffuse_red
property uchar diffuse_green
property uchar diffuse_blue
end_header
-0.184324 0.206054 0.27878 70 116 59
-0.183678 0.206503 0.278808 79 123 63
-0.187908 0.216769 0.276866 89 136 71
-0.187147 0.217112 0.276924 92 137 72
-0.186465 0.217586 0.276953 95 136 73
-0.185782 0.218061 0.276983 99 134 75
-0.185175 0.218669 0.276985 91 107 71
-0.184642 0.219413 0.276959 78 76 66
-0.247866 0.1786 0.27296 70 66 52
-0.187331 0.203534 0.27794 105 156 85
-0.186686 0.203982 0.277968 91 142 77
-0.186041 0.204431 0.277996 75 121 63
-0.185396 0.204879 0.278024 68 107 57
-0.184751 0.205327 0.278052 64 107 54
-0.187522 0.216212 0.276183 89 132 70
-0.186609 0.216291 0.276299 92 136 73
-0.185929 0.216765 0.276328 95 137 74
-0.185248 0.217238 0.276358 93 130 76
-0.184793 0.218109 0.276302 82 101 73
-0.184185 0.218717 0.276303 74 73 65
-0.247205 0.178985 0.272179 70 68 55
-0.246646 0.179566 0.272176 91 95 62
-0.246587 0.180574 0.272044 117 142 76
-0.246275 0.181374 0.271976 117 178 89
-0.187979 0.203153 0.277133 96 144 75
-0.187186 0.203371 0.277214 84 128 67
-0.186468 0.203704 0.277269 71 114 60
-0.185823 0.204152 0.277297 65 104 53
-0.18525 0.204717 0.277299 62 102 53
-0.187508 0.214663 0.27559 77 120 62
-0.18683 0.215134 0.275619 84 129 69
-0.186151 0.215606 0.275649 90 135 74
-0.185547 0.216209 0.275649 97 136 76
-0.184943 0.216813 0.27565 92 116 74
-0.184262 0.217286 0.275679 79 86 66
-0.246042 0.178951 0.271527 89 91 60
-0.245731 0.179743 0.271458 119 141 73
-0.245046 0.180219 0.271488 116 179 91
-0.24436 0.180695 0.271517 92 147 69
-0.192204 0.199619 0.276264 108 167 84
-0.191559 0.200068 0.276292 100 157 80
-0.190914 0.200516 0.27632 92 146 75
-0.188555 0.202655 0.276351 80 123 64
-0.187761 0.202874 0.276433 72 113 58
-0.187041 0.203208 0.276488 67 106 53
-0.186395 0.203657 0.276516 63 100 51
-0.185749 0.204106 0.276544 61 100 50
-0.185247 0.204788 0.276518 61 100 51
-0.187803 0.213641 0.274884 68 110 55
-0.187125 0.214112 0.274913 72 116 59
-0.186448 0.214583 0.274943 79 124 66
-0.185845 0.215184 0.274943 87 131 73
-0.185167 0.215656 0.274972 95 132 77
-0.184563 0.216258 0.274972 89 106 70
-0.183958 0.216862 0.274972 77 78 62
-0.245194 0.178131 0.270947 85 93 63
-0.245006 0.179022 0.270843 119 148 76
-0.244446 0.179602 0.27084 112 176 90
-0.243762 0.180078 0.270869 90 147 69
-0.243322 0.180765 0.270832 85 143 66
-0.242424 0.187676 0.269948 76 127 56
-0.241596 0.18805 0.270014 78 128 57
-0.240769 0.188424 0.270079 79 129 55
-0.193276 0.198445 0.275508 125 176 92
-0.192554 0.198781 0.275564 101 154 79
-0.19191 0.199229 0.275592 85 135 69
-0.191189 0.199564 0.275647 76 123 63
-0.190545 0.200012 0.275675 70 115 59
-0.190051 0.200686 0.275648 66 110 57
-0.189406 0.201134 0.275676 65 106 56
-0.188909 0.201811 0.275649 65 102 54
-0.188263 0.202261 0.275677 64 100 51
-0.18769 0.202825 0.275677 62 100 51
-0.187042 0.203275 0.275705 61 100 51
-0.186395 0.203725 0.275733 61 98 49
-0.185747 0.204175 0.275761 59 98 50
-0.185533 0.205327 0.275623 61 98 51
-0.187497 0.21322 0.27418 65 107 55
-0.18682 0.213691 0.274209 68 112 58
-0.186142 0.214162 0.274238 75 119 61
-0.18554 0.214762 0.274238 84 127 70
-0.184862 0.215233 0.274267 91 123 76
-0.184258 0.215835 0.274266 86 95 68
-0.183579 0.216307 0.274296 77 76 62
-0.244352 0.177318 0.270371 83 94 63
-0.244162 0.178203 0.270266 122 158 80
-0.243726 0.178884 0.270228 110 178 92
-0.243533 0.179778 0.270122 91 151 70
-0.242849 0.180253 0.270152 84 145 64
-0.242767 0.186766 0.269186 67 122 53
-0.242064 0.187254 0.269216 71 124 55
-0.241236 0.187629 0.269282 78 129 57
-0.240533 0.188117 0.269313 86 137 60
-0.239831 0.188606 0.269343 94 148 65
-0.193547 0.197496 0.274837 112 158 86
-0.192904 0.197943 0.274865 95 141 75
-0.19226 0.198391 0.274893 76 124 63
-0.191616 0.198838 0.274921 66 110 56
-0.190972 0.199286 0.274948 62 103 51
-0.190327 0.199733 0.274976 61 100 49
-0.189758 0.200294 0.274976 59 98 51
-0.189188 0.200856 0.274976 59 98 52
-0.188616 0.201418 0.274976 58 97 50
-0.188044 0.201982 0.274975 59 97 50
-0.18784 0.203123 0.274834 62 97 49
-0.18719 0.203575 0.274862 62 98 49
-0.186541 0.204026 0.27489 60 98 51
-0.185963 0.204595 0.27489 59 97 51
-0.187714 0.212076 0.273508 63 99 52
-0.187039 0.212545 0.273537 64 103 55
-0.186591 0.213399 0.273475 65 108 57
-0.185913 0.21387 0.273504 72 114 59
-0.185236 0.214341 0.273534 82 121 66
-0.184558 0.214812 0.273563 85 110 73
-0.18388 0.215283 0.273592 81 85 68
-0.243759 0.176714 0.269732 85 94 64
-0.243325 0.177389 0.269693 127 168 84
-0.243132 0.178274 0.269586 111 181 93
-0.242573 0.178851 0.269581 93 155 73
-0.242619 0.179954 0.269405 85 146 65
-0.24336 0.186083 0.268352 65 118 53
-0.242656 0.186572 0.268383 66 117 51
-0.241828 0.186947 0.268449 67 120 52
-0.241001 0.187321 0.268515 80 132 55
-0.240052 0.187581 0.268618 99 151 65
-0.23935 0.188069 0.268648 113 170 77
-0.194617 0.196323 0.274083 107 160 79
-0.193896 0.19666 0.274139 106 159 82
-0.193253 0.197107 0.274167 87 137 72
-0.192609 0.197554 0.274195 71 115 58
-0.192042 0.198112 0.274194 63 105 53
-0.191398 0.19856 0.274222 61 101 52
-0.190754 0.199007 0.274249 59 100 49
-0.19011 0.199455 0.274277 60 99 46
-0.189466 0.199903 0.274305 58 97 49
-0.188895 0.200464 0.274304 58 99 51
-0.188398 0.201139 0.274275 58 97 48
-0.188419 0.202622 0.274044 59 97 50
-0.187917 0.203307 0.274014 64 93 43
-0.187414 0.203993 0.273984 62 95 44
-0.186761 0.204447 0.274012 59 97 49
-0.188007 0.211062 0.272809 61 96 50
-0.187333 0.211531 0.272838 63 98 50
-0.18681 0.212254 0.272805 63 100 53
-0.186286 0.212979 0.272772 65 104 55
-0.185684 0.213578 0.27277 70 109 57
-0.185007 0.214049 0.2728 79 112 65
-0.184329 0.21452 0.272829 78 95 68
-0.183651 0.214991 0.272858 76 77 65
-0.24329 0.176214 0.269061 89 92 65
-0.242735 0.176786 0.269056 133 173 87
-0.242179 0.177358 0.269051 115 183 95
-0.241501 0.177829 0.26908 97 161 77
-0.241663 0.179026 0.268867 88 149 67
-0.244531 0.184798 0.267524 81 143 63
-0.243701 0.185174 0.267591 73 129 56
-0.242998 0.185662 0.267621 68 116 51
-0.24242 0.186264 0.267615 71 120 51
-0.241716 0.186753 0.267645 81 130 54
-0.240765 0.187014 0.267749 96 147 62
-0.240062 0.187503 0.267779 110 167 75
-0.239115 0.187762 0.267882 117 180 85
-0.216646 0.189466 0.271033 104 168 88
-0.21598 0.189929 0.271062 101 163 84
-0.215315 0.190391 0.27109 97 159 83
-0.214456 0.190634 0.271183 97 156 80
-0.213599 0.190875 0.271275 100 155 78
-0.21303 0.191447 0.271272 103 155 77
-0.196251 0.194595 0.273331 107 144 73
-0.19545 0.194824 0.273416 108 147 72
-0.194808 0.19527 0.273444 112 159 79
-0.194166 0.195716 0.273472 107 162 83
-0.193524 0.196162 0.273499 85 136 72
-0.192881 0.196608 0.273527 69 114 56
-0.192392 0.197276 0.273496 62 104 50
-0.191825 0.197834 0.273495 61 101 51
-0.191181 0.198282 0.273523 61 99 48
-0.190537 0.198729 0.27355 59 101 47
-0.189892 0.199177 0.273578 57 100 49
-0.189248 0.199625 0.273606 57 97 48
-0.188603 0.200073 0.273633 57 96 49
-0.189 0.20212 0.273251 60 96 46
-0.188498 0.202805 0.27322 57 93 48
-0.187846 0.203258 0.273248 59 91 44
-0.187779 0.210772 0.272078 59 94 49
-0.187105 0.21124 0.272107 61 97 51
-0.186582 0.211963 0.272073 60 99 53
-0.186057 0.212688 0.272039 62 103 54
-0.18538 0.213158 0.272068 70 105 57
-0.184777 0.213757 0.272065 74 98 62
-0.1841 0.214228 0.272094 74 84 65
-0.242943 0.175817 0.268358 93 91 64
-0.242268 0.176286 0.268387 135 174 90
-0.241712 0.176857 0.268381 119 183 96
-0.241036 0.177327 0.26841 101 167 80
-0.240597 0.178003 0.268369 91 155 68
-0.244422 0.184602 0.266719 86 148 64
-0.243592 0.184979 0.266786 83 145 65
-0.243014 0.18558 0.266779 77 132 59
-0.242309 0.18607 0.266809 85 135 57
-0.241605 0.186559 0.266839 91 148 65
-0.240776 0.186935 0.266907 102 160 71
-0.239826 0.187195 0.267012 113 171 79
-0.239123 0.187684 0.267042 115 178 85
-0.219183 0.187436 0.270162 111 175 87
-0.218318 0.187682 0.270256 107 169 82
-0.217654 0.188144 0.270284 104 165 81
-0.217087 0.188715 0.27028 101 162 81
-0.216422 0.189177 0.270309 99 159 78
-0.215756 0.189639 0.270337 100 159 77
-0.214897 0.189883 0.270431 102 162 78
-0.214136 0.190235 0.270492 107 166 79
-0.213376 0.190587 0.270553 112 172 82
-0.212807 0.191158 0.270549 117 177 84
-0.212142 0.19162 0.270577 123 180 86
-0.196597 0.193762 0.272635 98 154 83
-0.195717 0.193884 0.272751 105 158 86
-0.194998 0.194221 0.272808 116 168 91
-0.194357 0.194666 0.272835 113 168 91
-0.193716 0.195111 0.272863 88 142 74
-0.193075 0.195557 0.27289 71 117 57
-0.192588 0.196221 0.272859 63 108 51
-0.192022 0.196777 0.272857 61 103 50
-0.191608 0.197556 0.272796 62 101 49
-0.190964 0.198003 0.272824 61 100 46
-0.190319 0.198451 0.272851 61 102 44
-0.189675 0.198899 0.272879 58 100 48
-0.18903 0.199346 0.272906 58 97 50
-0.189659 0.201732 0.272426 57 96 52
-0.189006 0.202186 0.272454 59 97 50
-0.188353 0.202639 0.272482 58 93 46
-0.187475 0.210355 0.271379 59 93 46
-0.1868 0.210824 0.271407 61 95 47
-0.186277 0.211545 0.271372 60 99 53
-0.185753 0.212269 0.271337 62 100 55
-0.185151 0.212867 0.271334 72 99 60
-0.184474 0.213337 0.271363 76 86 63
-0.242477 0.17532 0.267691 94 91 62
-0.241802 0.175788 0.26772 135 172 91
-0.241247 0.176358 0.267713 122 184 96
-0.24069 0.176929 0.267707 105 171 83
-0.240133 0.177501 0.2677 94 160 73
-0.244439 0.184518 0.265874 86 152 65
-0.243734 0.185008 0.265904 86 150 67
-0.243029 0.185498 0.265934 85 148 68
-0.242198 0.185875 0.266002 95 152 69
-0.241493 0.186365 0.266032 97 158 73
-0.240664 0.186741 0.266101 101 164 75
-0.239713 0.187002 0.266207 109 170 78
-0.238887 0.187377 0.266275 111 173 81
-0.218959 0.187146 0.269437 109 170 82
-0.218095 0.187393 0.269532 108 165 78
-0.21743 0.187855 0.269561 105 163 78
-0.216962 0.188534 0.269523 104 161 79
-0.216296 0.188996 0.269551 106 164 78
-0.215532 0.18935 0.269613 109 168 79
-0.21477 0.189703 0.269674 114 174 81
-0.214008 0.190056 0.269736 119 181 85
-0.213248 0.190408 0.269797 122 187 90
-0.212583 0.190869 0.269826 125 193 93
-0.211919 0.191331 0.269854 128 196 93
-0.21182 0.19246 0.269684 127 198 96
-0.197665 0.192592 0.271882 117 173 80
-0.196783 0.192716 0.272 122 175 83
-0.195826 0.192733 0.272147 126 178 86
-0.195108 0.19307 0.272204 129 179 89
-0.194392 0.193406 0.272262 119 172 88
-0.193753 0.19385 0.272289 93 148 77
-0.193115 0.194293 0.272316 74 122 59
-0.192476 0.194737 0.272344 67 112 54
-0.192066 0.195507 0.272282 64 107 52
-0.191729 0.196389 0.272189 63 105 50
-0.19139 0.197277 0.272097 61 102 51
-0.190822 0.197836 0.272094 57 102 50
-0.190177 0.198284 0.272122 58 101 49
-0.189607 0.198844 0.272119 59 99 51
-0.191402 0.202974 0.27116 58 95 48
-0.187247 0.210065 0.270648 60 95 49
-0.186573 0.210533 0.270677 59 96 50
-0.186049 0.211254 0.27064 62 97 54
-0.185524 0.211977 0.270604 67 96 58
-0.184847 0.212447 0.270633 71 82 62
-0.242011 0.174824 0.267026 97 94 60
-0.241338 0.175292 0.267055 134 170 88
-0.240902 0.175961 0.267012 124 183 94
-0.240464 0.176633 0.266969 106 172 84
-0.244457 0.184434 0.265026 85 150 65
-0.243624 0.184812 0.265095 88 152 67
-0.242792 0.18519 0.265164 89 153 70
-0.242087 0.18568 0.265194 100 162 75
-0.241132 0.185943 0.265302 101 164 76
-0.240428 0.186433 0.265332 100 165 74
-0.239477 0.186694 0.265439 106 169 75
-0.23853 0.186955 0.265546 110 170 78
-0.237706 0.18733 0.265614 111 169 79
-0.220006 0.187039 0.26848 111 170 83
-0.218736 0.186856 0.268712 109 169 80
-0.21807 0.187319 0.268741 109 168 80
-0.217404 0.187781 0.268769 109 167 81
-0.216935 0.188461 0.26873 112 169 82
-0.21617 0.188815 0.268792 115 174 84
-0.215503 0.189278 0.268821 119 181 86
-0.214643 0.189523 0.268917 123 186 88
-0.213977 0.189985 0.268945 127 189 91
-0.213406 0.190558 0.26894 127 192 93
-0.212835 0.191132 0.268934 128 195 94
-0.212263 0.191706 0.268929 128 194 93
-0.21169 0.192282 0.268924 126 193 93
-0.21121 0.192971 0.268885 123 190 91
-0.210634 0.193549 0.268879 119 187 89
-0.20959 0.193563 0.269043 116 183 85
-0.208922 0.194027 0.269072 112 175 85
-0.207521 0.193591 0.269368 109 169 81
-0.205603 0.192498 0.269856 107 165 79
-0.198651 0.191316 0.271161 114 180 86
-0.197848 0.191548 0.271249 119 187 89
-0.197048 0.191781 0.271338 123 191 91
-0.196249 0.192012 0.271426 126 193 93
-0.195532 0.19235 0.271484 131 192 96
-0.194815 0.192687 0.271541 123 178 92
-0.194099 0.193023 0.271599 99 152 79
-0.193461 0.193466 0.271626 79 125 63
-0.192823 0.19391 0.271653 71 116 57
-0.192185 0.194353 0.27168 76 110 54
-0.191622 0.194905 0.271677 85 103 52
-0.191209 0.195675 0.271614 70 104 52
-0.191173 0.196999 0.271398 62 104 51
-0.190604 0.197557 0.271394 58 102 52
-0.187095 0.209899 0.269884 61 91 52
-0.18642 0.210368 0.269913 64 91 53
-0.185896 0.211089 0.269875 69 85 57
-0.185295 0.211686 0.269871 68 78 60
-0.241073 0.173933 0.266507 100 94 60
-0.24052 0.174498 0.2665 132 168 86
-0.240439 0.175464 0.266347 124 182 93
-0.244475 0.18435 0.264175 84 148 64
-0.243514 0.184616 0.264284 87 151 66
-0.242807 0.185107 0.264315 92 155 69
-0.24185 0.185371 0.264424 103 166 76
-0.240896 0.185635 0.264533 104 167 77
-0.239699 0.185672 0.26472 101 164 74
-0.238997 0.18616 0.264749 107 170 74
-0.238051 0.186422 0.264857 112 172 78
-0.236869 0.186456 0.265042 114 173 82
-0.235576 0.186379 0.265264 115 173 83
-0.220653 0.186498 0.267653 113 174 87
-0.219781 0.186747 0.267751 112 172 84
-0.218912 0.186996 0.267849 111 172 82
-0.217945 0.187136 0.267981 113 173 82
-0.217576 0.187924 0.267906 115 174 84
-0.216908 0.188388 0.267934 119 178 86
-0.21624 0.188852 0.267963 122 184 88
-0.215279 0.188988 0.268095 125 189 91
-0.214612 0.189452 0.268123 128 192 92
-0.213945 0.189915 0.268151 129 192 93
-0.21347 0.190599 0.268111 128 193 95
-0.212897 0.191174 0.268105 127 193 95
-0.212324 0.19175 0.268099 126 192 93
-0.211749 0.192327 0.268093 124 189 90
-0.211079 0.192792 0.268122 119 185 86
-0.210408 0.193258 0.26815 115 180 86
-0.209272 0.19316 0.26835 114 174 83
-0.207962 0.192841 0.268617 114 170 82
-0.206307 0.192084 0.269013 110 170 83
-0.205293 0.192103 0.269174 109 167 82
-0.198832 0.190276 0.27053 119 183 87
-0.198192 0.19072 0.270557 122 188 90
-0.197472 0.191059 0.270615 125 190 93
-0.196673 0.191292 0.270704 127 192 94
-0.195876 0.191524 0.270793 130 192 95
-0.195238 0.191967 0.270821 123 181 92
-0.194522 0.192304 0.270878 101 155 79
-0.193807 0.192641 0.270936 82 129 64
-0.193169 0.193084 0.270963 73 119 56
-0.192531 0.193527 0.270991 70 114 54
-0.191893 0.19397 0.271018 72 110 52
-0.191331 0.19452 0.271014 76 106 51
-0.190767 0.195072 0.271011 65 105 52
-0.194564 0.201972 0.269217 61 104 50
-0.193897 0.202435 0.269245 59 102 52
-0.192134 0.204184 0.26923 58 98 48
-0.191466 0.204648 0.269259 58 97 48
-0.190875 0.205234 0.269254 60 94 45
-0.186419 0.210454 0.26908 75 80 56
-0.185743 0.210924 0.269109 75 73 59
-0.240495 0.173344 0.265884 100 98 59
-0.239826 0.173809 0.265913 128 162 83
-0.239157 0.174273 0.265941 124 181 89
-0.244365 0.184153 0.263362 83 148 63
-0.24353 0.184532 0.263432 87 150 64
-0.24257 0.184797 0.263543 94 155 68
-0.241489 0.18495 0.263694 103 167 76
-0.240413 0.185101 0.263843 104 168 77
-0.239219 0.18514 0.264032 103 164 74
-0.238034 0.185179 0.26422 110 173 77
-0.237334 0.185665 0.264249 115 176 81
-0.236039 0.18559 0.264474 116 177 83
-0.235106 0.18585 0.264582 120 178 85
-0.234293 0.186222 0.26465 123 183 89
-0.2212 0.185849 0.26686 117 174 84
-0.220428 0.186207 0.266924 116 175 86
-0.219557 0.186456 0.267023 117 176 87
-0.218788 0.186813 0.267087 116 177 86
-0.21802 0.187169 0.26715 119 179 86
-0.217352 0.187633 0.267179 121 183 87
-0.216683 0.188097 0.267207 124 187 89
-0.216015 0.188561 0.267235 126 190 91
-0.215347 0.189025 0.267264 127 193 92
-0.214388 0.189161 0.267397 129 194 93
-0.213913 0.189844 0.267356 128 194 93
-0.213341 0.190418 0.267349 127 194 95
-0.212863 0.191105 0.267307 125 192 95
-0.212193 0.19157 0.267336 123 190 93
-0.211618 0.192147 0.267329 121 186 90
-0.210853 0.192501 0.267393 115 181 87
-0.210089 0.192854 0.267456 112 176 86
-0.209047 0.19287 0.267624 116 173 84
-0.208012 0.192886 0.267791 112 170 82
-0.206892 0.192791 0.267991 109 172 84
-0.199012 0.189241 0.269902 123 188 91
-0.198293 0.18958 0.26996 125 190 93
-0.197575 0.189918 0.270019 127 191 93
-0.196937 0.190361 0.270046 128 191 94
-0.19622 0.190699 0.270104 130 191 95
-0.195504 0.191037 0.270163 124 182 94
-0.194867 0.191479 0.27019 103 159 82
-0.194152 0.191816 0.270248 83 132 65
-0.193438 0.192153 0.270306 73 118 57
-0.192801 0.192595 0.270333 71 114 54
-0.192164 0.193037 0.27036 70 114 54
-0.191603 0.193587 0.270356 68 112 53
-0.190965 0.194029 0.270383 68 110 52
-0.190477 0.194688 0.270348 63 106 52
-0.194664 0.202157 0.268357 61 102 51
-0.193995 0.202621 0.268386 60 102 51
-0.193326 0.203086 0.268414 58 102 51
-0.192978 0.20403 0.268306 58 98 47
-0.192227 0.204376 0.268369 59 97 45
-0.191319 0.20448 0.268499 58 96 50
-0.190728 0.205066 0.268494 60 97 49
-0.190058 0.205531 0.268522 65 92 50
-0.240154 0.172953 0.26519 95 97 58
-0.239485 0.173417 0.265219 124 157 81
-0.2387 0.173783 0.265284 123 182 91
-0.238032 0.174247 0.265312 106 171 82
-0.244127 0.183843 0.262589 83 149 64
-0.24304 0.183997 0.262742 86 150 63
-0.242083 0.184264 0.262853 93 154 67
-0.241004 0.184417 0.263005 102 165 74
-0.239808 0.184458 0.263196 104 168 77
-0.23862 0.184499 0.263387 105 164 75
-0.237199 0.184318 0.263655 113 177 81
-0.236265 0.18458 0.263764 117 181 85
-0.235569 0.185063 0.263793 120 181 84
-0.234638 0.185324 0.263901 124 186 87
-0.233943 0.185806 0.263931 126 188 90
-0.233248 0.186289 0.26396 127 189 92
-0.232322 0.186548 0.264068 127 190 93
-0.22871 0.184169 0.265092 127 190 93
-0.22792 0.184534 0.265158 128 189 93
-0.226699 0.184466 0.265373 128 188 92
-0.224955 0.183866 0.26577 126 186 90
-0.224178 0.184227 0.265835 122 186 90
-0.223297 0.18448 0.265936 119 184 90
-0.222522 0.184839 0.266001 120 180 89
-0.221645 0.185092 0.266102 120 179 88
-0.220975 0.185557 0.26613 120 177 86
-0.220203 0.185915 0.266194 120 178 87
-0.219433 0.186272 0.266259 122 181 88
-0.218563 0.186522 0.266359 123 182 89
-0.217795 0.186878 0.266423 124 186 90
-0.217127 0.187342 0.266451 126 189 91
-0.216557 0.187915 0.266444 127 191 93
-0.215888 0.188379 0.266472 127 193 93
-0.215219 0.188844 0.2665 129 195 93
-0.214357 0.189089 0.2666 129 195 93
-0.213688 0.189553 0.266628 127 194 93
-0.213308 0.190348 0.26655 126 192 93
-0.212734 0.190924 0.266542 124 189 92
-0.212063 0.19139 0.266571 122 186 90
-0.211392 0.191856 0.266599 118 183 89
-0.210627 0.19221 0.266663 119 177 89
-0.209863 0.192563 0.266727 117 178 88
-0.199354 0.188417 0.269213 124 189 90
-0.198635 0.188756 0.269272 127 191 92
-0.197918 0.189095 0.26933 127 192 94
-0.197201 0.189433 0.269389 128 194 96
-0.196484 0.189771 0.269448 130 192 96
-0.195848 0.190213 0.269475 125 183 94
-0.195133 0.190551 0.269534 106 161 84
-0.194419 0.190888 0.269592 83 133 67
-0.193783 0.19133 0.269619 72 120 57
-0.193146 0.191772 0.269646 69 115 56
-0.19251 0.192213 0.269673 69 112 54
-0.191874 0.192655 0.2697 69 112 54
-0.191312 0.193204 0.269695 67 113 53
-0.19075 0.193754 0.269691 66 111 52
-0.195765 0.202353 0.267324 63 107 51
-0.194438 0.201868 0.267631 61 104 51
-0.193769 0.202332 0.26766 61 103 52
-0.1931 0.202797 0.267688 60 102 51
-0.192751 0.203741 0.267578 58 100 48
-0.19208 0.204207 0.267606 60 97 48
-0.191329 0.204552 0.267669 62 95 52
-0.19058 0.204897 0.267732 65 91 53
-0.189831 0.205242 0.267795 69 80 57
-0.239696 0.172465 0.264535 91 92 58
-0.239029 0.172929 0.264563 120 150 80
-0.238361 0.173392 0.264591 122 181 91
-0.237693 0.173856 0.264619 103 170 83
-0.237025 0.17432 0.264647 95 164 73
-0.24389 0.183533 0.261815 85 150 66
-0.242552 0.183465 0.262053 87 148 64
-0.241472 0.18362 0.262207 93 153 66
-0.240275 0.183663 0.262401 100 162 71
-0.239085 0.183707 0.262593 103 165 74
-0.237902 0.18375 0.262785 106 164 73
-0.236727 0.183793 0.262975 115 179 81
-0.235795 0.184055 0.263084 121 186 89
-0.2351 0.184538 0.263114 122 185 89
-0.234405 0.18502 0.263143 123 188 90
-0.233594 0.185392 0.263212 125 188 91
-0.232784 0.185763 0.263281 127 189 91
-0.231975 0.186133 0.26335 127 189 91
-0.228482 0.183872 0.26435 127 188 92
-0.227692 0.184237 0.264417 128 188 91
-0.226687 0.184386 0.264559 127 187 91
-0.224729 0.183573 0.265037 126 185 90
-0.223952 0.183933 0.265102 123 183 90
-0.222967 0.184081 0.265241 122 184 90
-0.222193 0.184441 0.265307 120 180 90
-0.22142 0.1848 0.265372 122 180 89
-0.22075 0.185265 0.2654 123 181 90
-0.22008 0.18573 0.265428 123 182 90
-0.219309 0.186088 0.265493 126 186 90
-0.218438 0.186338 0.265594 127 188 91
-0.21767 0.186695 0.265659 128 190 93
-0.216902 0.187051 0.265723 129 191 94
-0.216332 0.187624 0.265715 128 192 94
-0.215663 0.188088 0.265744 128 192 94
-0.214994 0.188553 0.265772 128 193 93
-0.214228 0.188908 0.265836 127 193 94
-0.213656 0.189482 0.265828 126 191 94
-0.213179 0.190167 0.265784 126 188 93
-0.212604 0.190744 0.265776 122 186 91
-0.211933 0.19121 0.265805 122 185 89
-0.211261 0.191676 0.265833 123 181 90
-0.210402 0.191918 0.265934 118 177 89
-0.200333 0.187151 0.268498 126 191 94
-0.199614 0.187491 0.268557 127 192 94
-0.198896 0.187831 0.268616 127 193 94
-0.198179 0.18817 0.268675 127 194 93
-0.197463 0.188508 0.268735 128 194 95
-0.196748 0.188846 0.268794 129 192 97
-0.196112 0.189288 0.26882 124 184 95
-0.195476 0.189729 0.268847 108 162 84
-0.19484 0.190171 0.268874 86 134 67
-0.194127 0.190508 0.268933 73 119 57
-0.193491 0.190949 0.26896 69 115 55
-0.192856 0.191391 0.268987 68 114 55
-0.192295 0.191938 0.268982 68 113 56
-0.191659 0.19238 0.269009 67 112 55
-0.191022 0.192822 0.269036 67 111 54
-0.196461 0.201953 0.266458 67 110 52
-0.195786 0.202421 0.266487 64 107 51
-0.194865 0.20253 0.266622 62 105 51
-0.194111 0.202877 0.266686 62 102 53
-0.193438 0.203344 0.266715 60 102 53
-0.192846 0.203932 0.266708 60 101 52
-0.192013 0.204158 0.266807 66 95 54
-0.191261 0.204504 0.266871 69 87 57
-0.239473 0.172173 0.263805 88 88 60
-0.238805 0.172636 0.263833 117 143 78
-0.238137 0.1731 0.263861 123 180 90
-0.237469 0.173564 0.26389 103 170 82
-0.236801 0.174027 0.263918 94 162 73
-0.24194 0.182823 0.261408 88 149 65
-0.240741 0.182869 0.261605 93 152 66
-0.239428 0.182805 0.261841 98 160 70
-0.238366 0.18296 0.261994 101 165 73
-0.237428 0.183225 0.262105 107 166 72
-0.236375 0.183379 0.262256 116 182 81
-0.235562 0.183752 0.262326 123 189 89
-0.23475 0.184124 0.262396 123 189 91
-0.233939 0.184496 0.262466 124 188 92
-0.233245 0.184978 0.262495 125 189 91
-0.232435 0.185349 0.262564 127 188 91
-0.230944 0.185056 0.262873 127 187 91
-0.230029 0.185315 0.262982 127 188 91
-0.222071 0.184255 0.264539 122 182 92
-0.221297 0.184614 0.264604 123 182 91
-0.220627 0.18508 0.264632 125 185 92
-0.219956 0.185545 0.264661 126 187 92
-0.219184 0.185904 0.264726 128 190 93
-0.218413 0.186262 0.264792 128 192 95
-0.217644 0.186619 0.264857 128 191 96
-0.216974 0.187084 0.264885 129 190 96
-0.216403 0.187658 0.264876 129 191 94
-0.215634 0.188014 0.264941 130 192 93
-0.214964 0.188479 0.26497 131 191 94
-0.214294 0.188945 0.264998 128 194 94
-0.21372 0.18952 0.264989 126 189 94
-0.213049 0.189986 0.265018 126 186 91
-0.212474 0.190563 0.265009 123 183 91
-0.211707 0.190918 0.265074 124 183 92
-0.21113 0.191496 0.265066 126 184 91
-0.201145 0.185685 0.26785 125 188 93
-0.200428 0.186025 0.267909 127 190 93
-0.199792 0.186467 0.267936 128 193 97
-0.199076 0.186806 0.267996 128 193 96
-0.19844 0.187247 0.268022 128 195 94
-0.197805 0.187688 0.268049 127 196 94
-0.197169 0.188129 0.268076 129 192 95
-0.196455 0.188468 0.268135 124 182 95
-0.195819 0.188909 0.268162 107 163 86
-0.195184 0.18935 0.268189 86 136 70
-0.194471 0.189687 0.268248 73 119 59
-0.193836 0.190128 0.268275 69 114 55
-0.193277 0.190674 0.268269 68 113 54
-0.192641 0.191116 0.268296 67 113 55
-0.192005 0.191557 0.268323 67 111 57
-0.191444 0.192105 0.268317 67 111 56
-0.196991 0.201312 0.265662 67 110 54
-0.196317 0.201781 0.26569 67 108 53
-0.195642 0.202249 0.265718 65 108 53
-0.194884 0.202598 0.265783 62 106 53
-0.194047 0.202826 0.265884 62 102 53
-0.193373 0.203294 0.265912 62 101 55
-0.192699 0.203761 0.265941 65 97 56
-0.191945 0.204108 0.266005 72 84 59
-0.239249 0.17188 0.263076 85 85 60
-0.238581 0.172343 0.263104 112 134 75
-0.237913 0.172807 0.263132 123 180 89
-0.237245 0.173271 0.26316 103 169 81
-0.236577 0.173735 0.263188 94 161 72
-0.241208 0.182074 0.260809 88 152 66
-0.239771 0.181904 0.26109 91 153 66
-0.238588 0.181953 0.261286 97 160 70
-0.237892 0.182436 0.261315 100 166 74
-0.236956 0.182701 0.261427 108 167 73
-0.236024 0.182965 0.261539 118 182 80
-0.235211 0.183338 0.261609 123 189 87
-0.2344 0.183711 0.261679 123 189 90
-0.23359 0.184083 0.261749 124 189 91
-0.232896 0.184564 0.261779 124 189 91
-0.232203 0.185046 0.261808 125 189 91
-0.231053 0.185085 0.262 126 189 92
-0.230022 0.185234 0.26215 125 189 92
-0.221175 0.184428 0.263836 125 187 92
-0.220401 0.184787 0.263902 128 188 91
-0.219731 0.185253 0.26393 127 191 93
-0.218959 0.185612 0.263996 127 191 94
-0.218288 0.186077 0.264024 129 191 94
-0.215801 0.188158 0.264061 126 192 94
-0.214934 0.188406 0.264165 127 188 93
-0.214262 0.188872 0.264193 126 188 92
-0.213688 0.189448 0.264184 125 188 92
-0.213016 0.189915 0.264212 125 187 92
-0.212439 0.190492 0.264203 126 186 95
-0.201237 0.184566 0.267264 127 191 93
-0.200603 0.185006 0.267291 128 192 95
-0.199969 0.185446 0.267318 129 193 94
-0.199335 0.185887 0.267344 131 195 97
-0.198701 0.186327 0.267371 130 194 96
-0.198066 0.186768 0.267398 128 195 95
-0.197432 0.187208 0.267424 129 193 96
-0.196797 0.187649 0.267451 124 184 94
-0.196162 0.188089 0.267478 107 161 85
-0.195449 0.188427 0.267538 85 135 69
-0.194814 0.188868 0.267564 71 119 59
-0.19418 0.189308 0.267591 67 114 56
-0.193621 0.189853 0.267585 68 113 55
-0.192986 0.190294 0.267611 67 113 54
-0.192426 0.19084 0.267605 66 112 55
-0.191866 0.191387 0.267599 67 110 57
-0.197438 0.200552 0.264901 67 110 56
-0.196764 0.20102 0.264929 67 110 55
-0.196089 0.201489 0.264957 66 109 54
-0.195414 0.201957 0.264986 65 108 54
-0.194657 0.202306 0.265051 63 106 54
-0.193982 0.202775 0.265079 64 102 53
-0.193307 0.203243 0.265108 70 98 57
-0.192552 0.203591 0.265173 71 85 60
-0.239025 0.171587 0.262346 81 82 60
-0.238357 0.172051 0.262374 105 124 74
-0.237689 0.172514 0.262402 123 177 89
-0.237021 0.172978 0.26243 103 171 81
-0.236353 0.173442 0.262458 93 159 72
-0.235685 0.173906 0.262486 94 162 70
-0.239626 0.180573 0.260509 89 154 68
-0.23893 0.181056 0.260538 92 156 67
-0.238114 0.181431 0.260609 98 160 71
-0.237419 0.181914 0.260639 101 165 75
-0.236485 0.182179 0.260751 105 165 75
-0.23579 0.182662 0.260781 117 185 85
-0.234861 0.182926 0.260893 122 189 87
-0.234051 0.183298 0.260964 124 189 88
-0.233357 0.183779 0.260993 125 188 89
-0.232663 0.184261 0.261022 125 188 90
-0.231512 0.184302 0.261216 125 189 91
-0.23082 0.184783 0.261245 125 190 92
-0.230129 0.185263 0.261274 125 190 92
-0.221312 0.183353 0.263191 126 188 91
-0.220643 0.183818 0.263219 126 188 92
-0.219973 0.184283 0.263247 135 189 93
-0.219404 0.184854 0.263237 134 190 93
-0.218733 0.185319 0.263265 131 191 94
-0.218163 0.185892 0.263255 129 191 93
-0.214903 0.188332 0.263358 127 190 92
-0.214133 0.188689 0.263424 126 189 93
-0.213558 0.189266 0.263414 126 188 93
-0.203092 0.183169 0.266428 128 188 92
-0.202043 0.183113 0.266623 127 190 91
-0.201329 0.183453 0.266683 130 190 92
-0.200696 0.183892 0.266709 131 193 93
-0.200145 0.184431 0.266702 130 194 94
-0.199513 0.18487 0.266729 129 194 95
-0.19888 0.185309 0.266755 132 197 99
-0.198327 0.18585 0.266748 131 194 95
-0.197693 0.186289 0.266775 130 191 94
-0.197138 0.186831 0.266768 124 183 93
-0.196504 0.187271 0.266795 107 163 84
-0.195791 0.187609 0.266855 86 135 69
-0.195157 0.18805 0.266881 72 117 57
-0.1946 0.188593 0.266874 66 113 54
-0.193966 0.189033 0.266901 66 112 55
-0.193331 0.189474 0.266928 67 112 55
-0.192772 0.190019 0.266921 67 112 56
-0.192288 0.19067 0.266881 67 111 55
-0.197716 0.199556 0.264215 68 110 55
-0.197211 0.20026 0.264168 68 110 55
-0.196536 0.200729 0.264196 67 110 56
-0.195861 0.201197 0.264224 67 109 55
-0.195186 0.201665 0.264253 66 107 54
-0.194511 0.202134 0.264281 66 104 54
-0.193836 0.202603 0.264309 69 101 54
-0.19308 0.202951 0.264375 75 88 60
-0.238802 0.171294 0.261616 77 79 60
-0.238134 0.171758 0.261644 99 116 73
-0.237466 0.172222 0.261672 123 173 88
-0.236797 0.172685 0.2617 104 172 82
-0.236129 0.173149 0.261728 92 157 72
-0.235461 0.173613 0.261756 92 159 69
-0.240784 0.179303 0.259691 90 159 70
-0.240089 0.179786 0.25972 89 158 70
-0.239151 0.180054 0.259834 90 156 70
-0.238336 0.180429 0.259906 94 156 69
-0.237642 0.180911 0.259935 100 162 70
-0.236947 0.181393 0.259964 101 168 75
-0.236252 0.181876 0.259993 106 165 74
-0.23544 0.182249 0.260064 117 185 84
-0.234511 0.182514 0.260178 122 189 86
-0.233818 0.182995 0.260207 123 189 87
-0.233124 0.183476 0.260236 124 188 89
-0.232316 0.183848 0.260307 125 188 90
-0.231622 0.18433 0.260336 126 189 90
-0.230588 0.184481 0.26049 126 189 91
-0.229896 0.184961 0.260519 125 189 92
-0.225561 0.182988 0.261679 127 188 92
-0.223199 0.181771 0.262338 127 188 89
-0.222117 0.181819 0.262522 126 189 92
-0.221347 0.182178 0.262588 127 191 91
-0.219871 0.181811 0.262923 128 190 90
-0.220418 0.183526 0.262489 127 190 91
-0.219748 0.183991 0.262517 130 192 94
-0.219179 0.184562 0.262507 131 190 92
-0.218508 0.185027 0.262535 130 191 93
-0.217837 0.185493 0.262563 130 192 94
-0.202463 0.1824 0.265908 133 191 95
-0.201419 0.182347 0.266104 131 192 92
-0.200789 0.182784 0.266131 132 193 94
-0.20024 0.18332 0.266123 132 193 95
-0.199689 0.183857 0.266116 131 193 95
-0.199138 0.184395 0.266108 130 194 96
-0.198506 0.184834 0.266135 131 196 99
-0.197954 0.185373 0.266127 131 192 97
-0.1974 0.185914 0.26612 125 181 91
-0.196767 0.186353 0.266146 105 160 81
-0.196212 0.186895 0.266139 84 135 68
-0.195578 0.187335 0.266165 71 116 58
-0.194943 0.187775 0.266192 67 111 54
-0.194309 0.188215 0.266219 66 110 53
-0.193751 0.188758 0.266211 66 110 52
-0.193116 0.189199 0.266238 66 110 54
-0.192633 0.189848 0.266196 67 111 56
-0.197573 0.199382 0.263445 68 110 54
-0.196983 0.199968 0.263435 67 111 54
-0.196308 0.200437 0.263463 67 110 55
-0.195633 0.200905 0.263492 67 107 55
-0.194958 0.201374 0.26352 67 106 56
-0.194283 0.201842 0.263548 71 102 55
-0.193608 0.202311 0.263576 73 93 57
-0.238462 0.170906 0.260927 76 76 59
-0.23791 0.171465 0.260914 92 105 70
-0.237242 0.171929 0.260942 123 169 86
-0.236574 0.172393 0.26097 109 176 86
-0.235905 0.172857 0.260998 94 158 70
-0.235237 0.173321 0.261026 90 157 67
-0.240186 0.17868 0.259061 89 159 70
-0.239613 0.179268 0.259047 88 159 71
-0.238798 0.179643 0.259119 88 157 71
-0.237983 0.180018 0.259191 92 157 71
-0.237409 0.180607 0.259177 100 163 72
-0.236595 0.180982 0.259249 101 169 76
-0.235901 0.181464 0.259278 104 162 71
-0.235089 0.181837 0.259349 116 182 83
-0.234279 0.182211 0.259421 122 189 87
-0.233469 0.182583 0.259493 124 190 88
-0.232776 0.183064 0.259522 123 189 89
-0.231968 0.183436 0.259593 124 189 90
-0.231389 0.184027 0.25958 125 189 90
-0.230356 0.184178 0.259736 125 188 91
-0.226689 0.181751 0.260883 126 188 92
-0.226011 0.182222 0.260911 126 189 93
-0.223958 0.181325 0.261461 126 188 93
-0.222767 0.181271 0.261687 127 188 89
-0.22128 0.180908 0.262028 127 191 93
-0.220615 0.18137 0.262056 127 191 90
-0.219249 0.181111 0.262354 126 189 91
-0.218885 0.181879 0.262266 126 190 92
-0.218222 0.18234 0.262294 127 191 94
-0.217558 0.1828 0.262322 130 190 94
-0.216895 0.183261 0.262349 130 190 93
-0.215842 0.183304 0.262531 130 190 93
-0.203132 0.18198 0.26509 131 194 96
-0.201755 0.181538 0.265427 132 195 96
-0.201125 0.181975 0.265453 130 194 96
-0.200414 0.182314 0.265513 130 195 97
-0.199785 0.182751 0.26554 129 195 98
-0.199235 0.183287 0.265532 129 195 97
-0.198605 0.183724 0.265558 130 193 97
-0.198054 0.184261 0.26555 130 192 98
-0.197502 0.184799 0.265542 123 181 93
-0.197029 0.185438 0.2655 105 158 81
-0.196475 0.185977 0.265492 82 133 65
-0.19592 0.186518 0.265484 69 116 56
-0.195286 0.186958 0.265511 67 110 55
-0.194652 0.187398 0.265537 66 110 54
-0.194095 0.18794 0.265529 66 111 52
-0.193537 0.188483 0.265521 66 110 52
-0.192978 0.189027 0.265513 66 109 53
-0.198016 0.197228 0.262964 66 110 54
-0.197766 0.198273 0.2628 67 109 54
-0.197262 0.198973 0.262751 67 107 54
-0.196671 0.199558 0.262741 65 110 55
-0.19608 0.200145 0.26273 66 109 54
-0.195405 0.200613 0.262758 67 107 55
-0.19473 0.201082 0.262787 68 103 57
-0.194055 0.20155 0.262815 73 94 58
-0.238123 0.170517 0.260238 74 68 54
-0.237571 0.171076 0.260225 87 90 67
-0.237018 0.171636 0.260212 119 160 82
-0.23635 0.1721 0.26024 111 179 91
-0.235681 0.172564 0.260268 95 161 75
-0.235013 0.173028 0.260296 90 157 68
-0.239711 0.178165 0.25839 89 156 68
-0.239138 0.178752 0.258375 88 157 70
-0.238445 0.179233 0.258404 88 158 71
-0.237751 0.179715 0.258433 92 159 73
-0.237057 0.180196 0.258462 100 163 74
-0.236362 0.180678 0.258491 102 169 78
-0.23555 0.181052 0.258563 101 160 71
-0.234739 0.181426 0.258635 114 180 82
-0.23393 0.181799 0.258708 122 189 88
-0.233121 0.182172 0.25878 124 190 89
-0.232428 0.182653 0.258808 123 189 90
-0.231621 0.183025 0.25888 124 188 89
-0.231043 0.183614 0.258866 125 187 90
-0.229673 0.18344 0.259152 125 188 91
-0.226246 0.181245 0.260226 126 190 91
-0.224403 0.180567 0.260701 126 190 91
-0.223211 0.180515 0.26093 125 190 93
-0.222542 0.180979 0.260958 127 189 91
-0.221056 0.180618 0.261303 128 192 92
-0.220089 0.180772 0.261449 127 191 91
-0.219026 0.180823 0.261633 128 189 92
-0.218167 0.181077 0.261738 127 189 91
-0.216822 0.180822 0.262036 128 190 92
-0.216165 0.181279 0.262064 129 191 93
-0.21599 0.182248 0.261898 128 191 94
-0.215137 0.1825 0.262003 127 190 93
-0.214765 0.183268 0.261915 128 190 91
-0.202173 0.180827 0.264715 128 193 95
-0.201543 0.181264 0.264741 129 195 94
-0.200832 0.181604 0.264802 129 194 95
-0.200122 0.181943 0.264863 127 195 98
-0.199492 0.18238 0.264889 127 195 97
-0.198863 0.182816 0.264915 128 195 97
-0.198313 0.183352 0.264907 129 192 97
-0.197683 0.183789 0.264933 122 180 93
-0.197132 0.184326 0.264925 103 156 80
-0.19658 0.184863 0.264917 80 130 64
-0.196183 0.185602 0.264839 67 115 54
-0.195628 0.186142 0.26483 64 110 52
-0.195072 0.186683 0.264822 65 109 53
-0.194438 0.187123 0.264848 65 110 54
-0.193804 0.187563 0.264874 64 111 54
-0.193323 0.188208 0.264831 64 111 52
-0.198291 0.196244 0.262286 65 110 52
-0.19779 0.196938 0.262236 65 109 54
-0.197204 0.197518 0.262225 65 109 53
-0.196867 0.198448 0.262098 67 108 53
-0.19636 0.199149 0.262048 66 109 55
-0.19577 0.199735 0.262036 67 108 54
-0.195178 0.200321 0.262025 68 105 57
-0.194502 0.20079 0.262053 70 94 59
-0.23767 0.170034 0.259591 73 70 53
-0.237233 0.170688 0.259537 81 84 64
-0.23668 0.171247 0.259523 116 146 78
-0.236126 0.171807 0.25951 120 183 91
-0.235457 0.172271 0.259537 101 166 78
-0.234788 0.172735 0.259565 91 157 69
-0.239479 0.177861 0.257633 90 155 67
-0.238785 0.178342 0.257662 89 155 68
-0.238092 0.178824 0.257691 89 157 70
-0.237399 0.179305 0.257719 92 160 72
-0.236824 0.179893 0.257704 100 164 73
-0.236011 0.180267 0.257777 102 171 80
-0.2352 0.180642 0.25785 97 160 73
-0.23439 0.181015 0.257922 111 177 80
-0.233581 0.181389 0.257995 119 189 87
-0.232774 0.181761 0.258068 122 190 89
-0.232081 0.182242 0.258096 122 188 90
-0.231275 0.182614 0.258169 123 187 91
-0.230244 0.182768 0.258328 125 187 91
-0.228773 0.182491 0.258658 125 189 91
-0.226019 0.18095 0.259488 125 191 91
-0.224283 0.180377 0.259928 125 188 90
-0.223194 0.180429 0.260119 125 188 91
-0.222009 0.180379 0.26035 125 189 92
-0.221342 0.180842 0.260377 128 189 90
-0.219866 0.180483 0.260725 128 190 91
-0.218606 0.180331 0.26099 127 190 93
-0.217748 0.180586 0.261097 126 190 95
-0.216601 0.180536 0.26132 133 189 100
-0.215944 0.180992 0.261347 137 189 103
-0.215382 0.18155 0.261335 133 190 100
-0.214915 0.182212 0.261285 129 191 95
-0.214447 0.182876 0.261234 127 191 92
-0.201879 0.180457 0.264065 128 193 95
-0.201249 0.180894 0.264091 129 194 94
-0.20062 0.18133 0.264117 131 193 92
-0.19991 0.18167 0.264179 129 193 96
-0.19928 0.182107 0.264205 129 193 96
-0.198571 0.182445 0.264266 130 192 96
-0.197942 0.182882 0.264292 121 179 92
-0.197392 0.183417 0.264283 101 154 80
-0.196841 0.183953 0.264274 80 126 63
-0.196289 0.18449 0.264265 68 112 54
-0.195736 0.185027 0.264256 63 109 54
-0.195337 0.185767 0.264177 63 109 53
-0.194859 0.186408 0.264133 64 109 52
-0.194225 0.186848 0.264159 64 109 53
-0.193744 0.187492 0.264114 62 110 54
-0.198481 0.19515 0.261649 63 109 53
-0.197981 0.195841 0.261598 66 107 52
-0.197397 0.196419 0.261587 67 107 53
-0.196894 0.197113 0.261536 67 108 52
-0.196556 0.198041 0.261406 66 108 53
-0.19605 0.198741 0.261355 67 108 54
-0.195459 0.199325 0.261344 68 106 55
-0.19495 0.200029 0.261292 70 97 60
-0.236781 0.170204 0.258891 75 80 58
-0.236228 0.170762 0.258877 112 127 71
-0.235788 0.171418 0.258821 126 176 89
-0.235233 0.171978 0.258807 110 172 84
-0.234564 0.172442 0.258835 96 161 73
-0.237979 0.178626 0.256889 90 156 68
-0.237166 0.179001 0.256962 93 159 70
-0.236472 0.179483 0.256991 99 163 71
-0.235661 0.179857 0.257064 104 173 80
-0.234968 0.180338 0.257093 93 159 74
-0.234041 0.180605 0.25721 108 175 77
-0.233233 0.180979 0.257284 118 188 86
-0.232426 0.181351 0.257356 122 190 89
-0.231735 0.181831 0.257385 124 188 89
-0.230703 0.181988 0.257546 125 187 90
-0.229452 0.181929 0.257793 126 188 92
-0.227334 0.181022 0.258382 125 191 93
-0.225791 0.180654 0.25875 124 192 93
-0.224057 0.180084 0.259196 126 188 91
-0.223073 0.18024 0.259348 126 191 92
-0.222196 0.180499 0.259458 125 191 92
-0.221117 0.180551 0.259649 128 191 93
-0.219643 0.180193 0.260002 129 192 97
-0.218581 0.180246 0.26019 153 189 102
-0.217723 0.180501 0.260297 166 203 107
-0.216866 0.180756 0.260405 156 217 120
-0.216012 0.18101 0.260511 138 209 129
-0.215642 0.181775 0.260419 129 194 117
-0.214981 0.182233 0.260447 127 191 99
-0.21432 0.182692 0.260474 125 192 95
-0.202296 0.179747 0.263354 129 194 94
-0.201667 0.180183 0.26338 129 193 95
-0.201037 0.18062 0.263406 128 193 95
-0.200327 0.18096 0.263468 130 193 93
-0.199698 0.181397 0.263494 131 192 96
-0.198909 0.181639 0.263591 129 189 97
-0.19828 0.182075 0.263617 119 178 92
-0.197651 0.182511 0.263643 97 151 77
-0.197101 0.183045 0.263634 77 123 61
-0.19655 0.183581 0.263624 67 111 53
-0.195998 0.184117 0.263615 63 108 53
-0.195523 0.184753 0.26357 63 108 53
-0.195046 0.185392 0.263525 63 108 53
-0.194645 0.186134 0.263443 64 108 52
-0.194165 0.186777 0.263398 64 107 52
-0.198923 0.194398 0.260896 63 108 53
-0.198256 0.194861 0.260924 62 108 54
-0.197672 0.195438 0.260912 63 107 55
-0.197088 0.196015 0.2609 64 108 53
-0.196502 0.196593 0.260888 65 107 52
-0.196081 0.197403 0.260796 66 106 53
-0.195657 0.198217 0.260704 66 105 55
-0.195149 0.198917 0.260652 70 99 58
-0.236443 0.169817 0.258205 71 77 56
-0.235891 0.170375 0.25819 96 103 64
-0.235337 0.170933 0.258175 125 169 89
-0.234783 0.171492 0.258161 116 180 90
-0.23434 0.172149 0.258104 101 167 77
-0.236933 0.178698 0.256205 94 158 69
-0.23624 0.179179 0.256233 99 161 70
-0.235428 0.179554 0.256307 104 173 78
-0.234618 0.179929 0.256381 91 158 73
-0.233809 0.180303 0.256455 104 170 74
-0.232886 0.180569 0.256573 115 184 83
-0.232194 0.181049 0.256602 120 190 89
-0.231161 0.181207 0.256764 123 190 88
-0.230133 0.181365 0.256926 125 188 87
-0.228776 0.181202 0.257219 125 189 90
-0.226997 0.18062 0.257683 126 190 92
-0.225564 0.180359 0.258011 126 188 91
-0.223832 0.179791 0.258463 126 189 92
-0.222848 0.179947 0.258616 126 190 92
-0.222074 0.180309 0.258686 127 189 91
-0.221301 0.180671 0.258755 128 189 92
-0.21942 0.179904 0.259278 127 189 99
-0.218756 0.180364 0.259306 137 196 113
-0.217796 0.180518 0.259455 143 194 111
-0.216937 0.180774 0.259564 133 191 103
-0.216275 0.181233 0.259591 117 186 103
-0.215613 0.181692 0.259618 111 179 100
-0.215048 0.182254 0.259605 113 179 92
-0.202002 0.179377 0.262705 128 193 93
-0.201373 0.179814 0.262731 130 192 93
-0.200744 0.18025 0.262757 128 193 95
-0.200115 0.180687 0.262783 129 193 96
-0.199325 0.18093 0.262881 127 186 95
-0.198617 0.181269 0.262943 115 171 89
-0.197989 0.181704 0.262969 92 145 74
-0.197361 0.18214 0.262995 73 121 58
-0.196811 0.182674 0.262985 65 109 52
-0.19626 0.183209 0.262975 63 105 52
-0.195708 0.183744 0.262965 63 106 52
-0.195232 0.18438 0.262919 63 106 52
-0.194833 0.185118 0.262837 63 107 52
-0.194586 0.186061 0.262681 64 108 52
-0.199196 0.193423 0.260224 64 107 53
-0.198614 0.193997 0.260211 62 106 52
-0.198031 0.194572 0.260198 62 107 53
-0.197363 0.195035 0.260226 63 106 54
-0.196696 0.195498 0.260254 62 107 54
-0.196193 0.196189 0.260201 64 106 55
-0.195607 0.196768 0.260188 68 104 56
-0.195265 0.197694 0.260054 76 96 57
-0.236107 0.169431 0.257519 69 69 55
-0.235554 0.169988 0.257504 84 85 61
-0.234888 0.17045 0.257532 117 155 84
-0.234222 0.170912 0.257559 122 183 93
-0.233891 0.171663 0.257459 109 175 83
-0.236007 0.178875 0.255476 97 161 72
-0.235196 0.179251 0.25555 103 170 76
-0.234386 0.179625 0.255624 90 162 72
-0.233577 0.18 0.255699 99 165 71
-0.232654 0.180267 0.255818 114 180 80
-0.23162 0.180427 0.255982 121 189 87
-0.230703 0.180692 0.256101 123 189 89
-0.229566 0.180745 0.256309 125 189 90
-0.228436 0.180797 0.256515 125 190 91
-0.22666 0.180218 0.256984 127 188 91
-0.22523 0.179959 0.257316 125 190 93
-0.223606 0.179497 0.25773 126 188 93
-0.222726 0.179757 0.257843 126 189 92
-0.221952 0.18012 0.257913 127 190 93
-0.221179 0.180482 0.257983 124 188 92
-0.220102 0.180534 0.258179 118 182 90
-0.218732 0.180279 0.258499 112 179 90
-0.217869 0.180535 0.258609 105 172 86
-0.217205 0.180996 0.258636 97 163 77
-0.216443 0.181354 0.258705 91 158 73
-0.215779 0.181815 0.258732 90 158 73
-0.202255 0.178478 0.262068 129 192 94
-0.201627 0.178913 0.262094 129 192 94
-0.200917 0.179254 0.262156 131 192 92
-0.20029 0.179689 0.262182 130 190 95
-0.199662 0.180125 0.262208 126 186 96
-0.199034 0.18056 0.262234 107 166 87
-0.198406 0.180996 0.26226 85 136 70
-0.197777 0.181432 0.262286 69 116 54
-0.197149 0.181868 0.262312 62 108 50
-0.196521 0.182304 0.262337 62 105 51
-0.19597 0.182838 0.262327 63 105 52
-0.195495 0.183471 0.26228 63 106 52
-0.19502 0.184106 0.262233 62 105 52
-0.195006 0.185345 0.261965 62 105 52
-0.199467 0.19245 0.259553 63 107 52
-0.198971 0.193134 0.259499 63 106 52
-0.198305 0.193596 0.259527 63 106 52
-0.197639 0.194058 0.259554 62 105 51
-0.197055 0.194633 0.259541 62 104 51
-0.196471 0.195209 0.259528 64 104 52
-0.195885 0.195786 0.259515 67 104 55
-0.195299 0.196364 0.259502 69 95 56
-0.235658 0.168951 0.256878 71 66 54
-0.235106 0.169506 0.256863 79 76 60
-0.234441 0.169968 0.25689 106 130 75
-0.233775 0.170429 0.256917 125 176 89
-0.23311 0.170891 0.256945 118 181 87
-0.235774 0.178572 0.254718 96 161 73
-0.234963 0.178947 0.254793 103 169 75
-0.234153 0.179322 0.254868 92 164 73
-0.233229 0.179591 0.254989 95 161 71
-0.232193 0.179752 0.255155 110 176 78
-0.231161 0.179913 0.255321 122 188 85
-0.230135 0.180073 0.255485 124 187 86
-0.229113 0.180233 0.255649 125 188 88
-0.228096 0.180392 0.255813 125 191 91
-0.226216 0.179713 0.25633 126 190 92
-0.225003 0.179664 0.256578 127 191 93
-0.22338 0.179204 0.256997 127 193 94
-0.222604 0.179567 0.257068 128 189 92
-0.22183 0.17993 0.257138 125 192 94
-0.220954 0.18019 0.257252 113 182 86
-0.220181 0.180551 0.257322 101 171 79
-0.21941 0.180913 0.257392 91 160 72
-0.218741 0.181377 0.25742 82 152 65
-0.218271 0.18205 0.257362 79 146 64
-0.2176 0.182516 0.25739 83 144 65
-0.202589 0.177675 0.261396 130 190 93
-0.201879 0.178015 0.261458 128 192 93
-0.201171 0.178356 0.261521 129 192 94
-0.200544 0.17879 0.261547 132 190 95
-0.199998 0.179321 0.261536 125 182 93
-0.19945 0.179852 0.261525 103 159 84
-0.198822 0.180287 0.26155 80 131 68
-0.198115 0.180627 0.261613 67 114 54
-0.197487 0.181062 0.261639 63 107 48
-0.196937 0.181595 0.261628 62 106 46
-0.196309 0.182031 0.261654 62 105 48
-0.195758 0.182565 0.261643 62 103 50
-0.195283 0.183198 0.261595 62 104 52
-0.200402 0.19102 0.258858 62 105 52
-0.199908 0.1917 0.258803 62 105 50
-0.199243 0.192162 0.25883 63 105 50
-0.198662 0.192734 0.258816 62 104 53
-0.197996 0.193196 0.258844 63 105 53
-0.197414 0.19377 0.25883 62 104 52
-0.196747 0.194232 0.258857 62 105 53
-0.196163 0.194807 0.258844 64 103 53
-0.195578 0.195383 0.25883 68 95 57
-0.234435 0.168839 0.256309 74 72 57
-0.23366 0.169205 0.25638 94 108 64
-0.232998 0.169665 0.256407 119 159 81
-0.232225 0.17003 0.256477 124 185 90
-0.231562 0.170489 0.256504 109 177 83
-0.234847 0.17875 0.253989 102 166 74
-0.23392 0.179019 0.254111 96 165 76
-0.232881 0.179182 0.25428 91 158 71
-0.231619 0.179134 0.25454 104 172 76
-0.230592 0.179296 0.254707 120 188 85
-0.229569 0.179457 0.254872 125 189 87
-0.22855 0.179618 0.255037 126 190 87
-0.227318 0.179569 0.255292 127 191 89
-0.225988 0.179416 0.25559 128 191 91
-0.224776 0.179368 0.25584 129 190 92
-0.223155 0.17891 0.256264 127 191 93
-0.222379 0.179274 0.256335 132 191 93
-0.221604 0.179637 0.256406 116 187 93
-0.22083 0.18 0.256477 98 170 79
-0.220058 0.180362 0.256548 85 158 69
-0.219387 0.180827 0.256576 81 149 65
-0.218817 0.181396 0.25656 85 147 64
-0.203005 0.176967 0.260687 128 194 93
-0.202131 0.17712 0.260825 129 192 92
-0.201505 0.177554 0.26085 129 194 95
-0.200879 0.177989 0.260876 130 190 96
-0.200252 0.178423 0.260902 122 179 93
-0.199706 0.178953 0.26089 99 153 78
-0.199159 0.179483 0.260878 76 124 62
-0.198531 0.179919 0.260904 65 109 53
-0.197903 0.180354 0.26093 61 104 50
-0.197275 0.18079 0.260956 60 103 49
-0.196647 0.181225 0.260981 61 102 47
-0.196097 0.181758 0.26097 60 102 45
-0.195623 0.182389 0.260921 61 103 45
-0.199599 0.191302 0.258121 63 104 50
-0.198935 0.191763 0.258149 62 103 50
-0.198354 0.192335 0.258134 62 104 51
-0.197688 0.192796 0.258162 64 104 51
-0.197106 0.193369 0.258147 64 103 51
-0.19644 0.193831 0.258175 65 101 52
-0.195856 0.194406 0.25816 68 96 55
-0.23399 0.168362 0.255672 68 70 53
-0.233217 0.168727 0.255743 79 86 57
-0.232555 0.169186 0.25577 105 134 73
-0.231783 0.169552 0.25584 123 176 88
-0.231122 0.17001 0.255867 118 183 89
-0.230352 0.170375 0.255938 106 169 77
-0.22969 0.170833 0.255965 100 165 73
-0.232995 0.179197 0.253383 92 158 75
-0.231501 0.178938 0.253741 97 163 74
-0.230361 0.178995 0.253956 114 183 81
-0.22945 0.179262 0.254077 123 191 89
-0.22832 0.179319 0.25429 128 191 89
-0.227636 0.179794 0.254318 128 191 91
-0.226407 0.179744 0.254576 128 192 93
-0.22508 0.17959 0.254876 130 190 93
-0.223872 0.179542 0.25513 129 189 91
-0.222257 0.179083 0.255558 128 194 93
-0.221378 0.179344 0.255674 106 178 85
-0.220707 0.17981 0.255702 88 160 71
-0.219934 0.180172 0.255773 85 150 64
-0.219263 0.180638 0.2558 92 155 67
-0.203421 0.176259 0.259978 128 192 94
-0.202465 0.17632 0.260155 129 193 92
-0.201757 0.176661 0.260218 130 192 92
-0.201132 0.177095 0.260244 128 186 95
-0.200507 0.177528 0.26027 115 171 91
-0.199881 0.177962 0.260295 92 141 73
-0.199335 0.178491 0.260283 75 119 57
-0.198788 0.17902 0.260271 64 107 51
-0.19824 0.17955 0.260259 61 103 49
-0.197613 0.179985 0.260284 60 104 47
-0.196986 0.180421 0.26031 59 104 49
-0.196436 0.180952 0.260298 60 104 51
-0.195963 0.181582 0.260248 61 103 47
-0.19987 0.190335 0.257456 62 103 50
-0.199206 0.190795 0.257483 62 102 50
-0.198626 0.191365 0.257468 61 102 51
-0.198046 0.191936 0.257453 61 103 50
-0.197464 0.192508 0.257438 63 102 50
-0.196798 0.192969 0.257465 66 100 52
-0.196133 0.193431 0.257493 70 93 54
-0.232774 0.168251 0.255108 70 71 55
-0.232113 0.16871 0.255134 86 100 63
-0.231343 0.169075 0.255205 114 151 78
-0.230683 0.169533 0.255232 127 183 89
-0.230022 0.169991 0.255259 113 178 83
-0.229361 0.170449 0.255286 105 172 77
-0.2287 0.170908 0.255313 99 166 72
-0.221153 0.179051 0.254942 98 171 77
-0.220481 0.179517 0.254969 91 156 67
-0.21981 0.179983 0.254997 97 157 68
-0.203837 0.175551 0.259269 127 190 92
-0.20288 0.175614 0.259448 130 193 94
