ply
format ascii 1.0
element vertex 1252
property float x
property float y
property float z
property uchar diffuse_red
property uchar diffuse_green
property uchar diffuse_blue
end_header
-0.316513 0.168883 0.196032 149 240 94
-0.31598 0.170064 0.195769 126 239 90
-0.315444 0.171248 0.195505 111 226 76
-0.323605 0.17818 0.19014 105 222 73
-0.323358 0.179623 0.189681 105 221 72
-0.321908 0.180265 0.18993 109 226 73
-0.321357 0.181511 0.189648 125 240 83
-0.320804 0.18276 0.189365 140 253 92
-0.319656 0.183601 0.189438 131 246 85
-0.31851 0.18444 0.18951 135 242 78
-0.316782 0.184864 0.189935 141 251 86
-0.315067 0.185285 0.190356 143 251 88
-0.310829 0.183872 0.19232 145 250 87
-0.307797 0.183292 0.193563 144 248 86
-0.306431 0.183907 0.193794 143 245 84
-0.305338 0.184719 0.193858 148 245 87
-0.304248 0.18553 0.193922 110 221 80
-0.303425 0.186541 0.19382 86 191 59
-0.302602 0.187552 0.193719 82 184 57
-0.301779 0.188563 0.193617 87 187 60
-0.300693 0.189371 0.193681 95 193 63
-0.299609 0.190176 0.193744 97 196 66
-0.298268 0.190775 0.193973 96 193 64
-0.296934 0.19137 0.1942 93 183 61
-0.2951 0.191553 0.194752 95 199 62
-0.293532 0.191938 0.195137 121 221 71
-0.292222 0.192527 0.195359 137 237 80
-0.290672 0.192907 0.195739 143 241 82
-0.289863 0.193902 0.195639 146 246 83
-0.288568 0.194483 0.195858 144 248 87
-0.287519 0.195269 0.195918 146 249 88
-0.285996 0.19564 0.196294 145 246 85
-0.284248 0.195802 0.196824 144 243 85
-0.282284 0.195758 0.197504 141 242 82
-0.280571 0.195919 0.198023 136 240 82
-0.279776 0.196895 0.197924 137 238 81
-0.276086 0.195233 0.199797 134 234 79
-0.269783 0.191117 0.203475 130 232 76
-0.268203 0.191292 0.203943 128 228 77
-0.267243 0.192034 0.203989 129 230 78
-0.266485 0.192965 0.203896 128 231 78
-0.265526 0.193705 0.203942 135 233 79
-0.264769 0.194635 0.203848 145 238 84
-0.264011 0.195567 0.203754 134 214 80
-0.263252 0.196498 0.203661 109 173 70
-0.262494 0.197431 0.203567 90 153 62
-0.261734 0.198363 0.203473 83 147 61
-0.260975 0.199296 0.203379 81 145 61
-0.260605 0.200628 0.203004 80 143 62
-0.267763 0.209728 0.197163 81 142 61
-0.266967 0.210706 0.197065 79 141 61
-0.266381 0.211906 0.196812 82 142 63
-0.265583 0.212886 0.196713 77 130 63
-0.264784 0.213867 0.196614 66 97 49
-0.315716 0.168218 0.195112 149 223 87
-0.314904 0.169215 0.195012 143 250 97
-0.314926 0.170757 0.194419 123 239 84
-0.32166 0.179944 0.188631 112 231 74
-0.32081 0.180987 0.188525 124 240 82
-0.319961 0.182031 0.18842 143 253 91
-0.319111 0.183075 0.188315 134 249 90
-0.317967 0.183914 0.188388 129 240 80
-0.316534 0.184545 0.188638 139 249 85
-0.314532 0.184762 0.189241 147 254 89
-0.31003 0.183158 0.191389 145 251 87
-0.307013 0.182586 0.192638 142 244 85
-0.306189 0.183597 0.192536 146 242 85
-0.305097 0.18441 0.192601 138 244 90
-0.304007 0.185221 0.192666 99 205 67
-0.303184 0.186232 0.192564 87 192 60
-0.302361 0.187243 0.192462 105 201 64
-0.301537 0.188255 0.19236 118 215 72
-0.300451 0.189062 0.192425 126 228 78
-0.299368 0.189868 0.19249 126 230 79
-0.298028 0.190467 0.192721 124 225 78
-0.296439 0.190858 0.193116 117 209 74
-0.294609 0.191043 0.193672 103 199 66
-0.293293 0.191634 0.193898 115 209 65
-0.291737 0.192019 0.194284 136 237 80
-0.290435 0.192605 0.194507 143 243 82
-0.289626 0.193599 0.194406 144 248 85
-0.288331 0.194182 0.194628 144 248 87
-0.286804 0.194556 0.195009 143 247 88
-0.285523 0.195134 0.195228 144 246 84
-0.283779 0.195298 0.195762 142 243 85
-0.28182 0.195257 0.196447 138 242 85
-0.28011 0.195421 0.19697 136 243 82
-0.27382 0.191436 0.200634 137 242 81
-0.27032 0.189899 0.202413 135 238 79
-0.268739 0.190079 0.202886 130 235 79
-0.267778 0.190822 0.202933 129 233 77
-0.266819 0.191563 0.20298 131 234 80
-0.266062 0.192493 0.202886 137 235 83
-0.265105 0.193233 0.202933 147 241 88
-0.264348 0.194163 0.202839 133 215 80
-0.263788 0.195286 0.202604 107 177 70
-0.26303 0.196217 0.20251 90 155 63
-0.262271 0.19715 0.202416 82 150 60
-0.261512 0.198082 0.202322 78 147 62
-0.261143 0.19941 0.201944 79 146 61
-0.268326 0.208455 0.196055 79 143 62
-0.267955 0.209871 0.195645 79 141 63
-0.267156 0.210852 0.195546 82 141 63
-0.266147 0.211611 0.195603 78 131 63
-0.265349 0.212592 0.195504 64 100 53
-0.314113 0.16855 0.194096 156 251 96
-0.313303 0.169545 0.193995 136 249 91
-0.320561 0.180667 0.187225 125 240 81
-0.319416 0.181508 0.1873 139 250 90
-0.318567 0.18255 0.187194 139 252 93
-0.317133 0.183184 0.187447 126 244 82
-0.315417 0.183611 0.187878 131 244 80
-0.313428 0.183832 0.188481 141 249 85
-0.309786 0.182846 0.190119 139 246 83
-0.306771 0.182276 0.19138 137 242 84
-0.305679 0.18309 0.191446 147 246 87
-0.304588 0.183902 0.191513 116 229 81
-0.303766 0.184912 0.19141 93 199 63
-0.302943 0.185923 0.191308 102 204 65
-0.30212 0.186934 0.191206 126 230 77
-0.301296 0.187946 0.191103 135 239 81
-0.30021 0.188754 0.191169 138 244 82
-0.299127 0.18956 0.191235 137 244 82
-0.297787 0.19016 0.191469 136 242 84
-0.295944 0.190348 0.192035 133 235 83
-0.29437 0.190738 0.19243 122 221 77
-0.292558 0.190923 0.192986 114 212 73
-0.291253 0.191512 0.193212 138 244 83
-0.290198 0.192303 0.193274 145 245 81
-0.289145 0.193092 0.193336 143 248 85
-0.287613 0.19347 0.193721 144 249 86
-0.286091 0.193846 0.194104 143 247 87
-0.283411 0.193206 0.195276 144 247 83
-0.282383 0.193982 0.195335 140 245 83
-0.281587 0.194961 0.195236 137 244 85
-0.274365 0.190201 0.199557 138 242 81
-0.270858 0.188682 0.201352 137 242 80
-0.26948 0.189054 0.201686 133 239 80
-0.268313 0.18961 0.201876 130 238 82
-0.267354 0.190353 0.201924 131 238 81
-0.266396 0.191094 0.201972 140 238 85
-0.265639 0.192023 0.201878 146 239 91
-0.264883 0.192952 0.201784 133 213 82
-0.264126 0.193882 0.20169 107 175 67
-0.263368 0.194812 0.201595 87 157 64
-0.262807 0.195936 0.201359 81 151 61
-0.262049 0.196868 0.201264 81 148 60
-0.261878 0.19839 0.200741 77 147 62
-0.267827 0.206111 0.195726 78 146 62
-0.268519 0.208596 0.194535 79 142 63
-0.267721 0.209576 0.194436 82 142 66
-0.266922 0.210557 0.194337 79 134 63
-0.266123 0.211538 0.194237 66 102 50
-0.311699 0.168348 0.193576 152 253 99
-0.312254 0.170235 0.192653 134 249 87
-0.320313 0.180346 0.185925 126 244 85
-0.319167 0.181187 0.186001 135 249 90
-0.317732 0.181824 0.186257 148 254 94
-0.316014 0.182256 0.186691 131 248 88
-0.31317 0.181881 0.187831 118 237 78
-0.31205 0.182708 0.187903 121 238 79
-0.309543 0.182533 0.188848 124 235 78
-0.30653 0.181966 0.190122 135 237 83
-0.30517 0.182583 0.190359 130 247 88
-0.304347 0.183593 0.190257 100 215 67
-0.303525 0.184603 0.190154 92 201 64
-0.302702 0.185614 0.190051 116 220 73
-0.301878 0.186625 0.189949 133 244 84
-0.301055 0.187637 0.189846 137 246 84
-0.299969 0.188445 0.189913 140 246 84
-0.298885 0.189252 0.189981 141 245 83
-0.29729 0.189648 0.190386 140 245 85
-0.295705 0.190042 0.190788 138 243 84
-0.29363 0.190027 0.19152 132 237 83
-0.292072 0.190417 0.191914 129 226 84
-0.29077 0.191006 0.192142 140 252 93
-0.289717 0.191797 0.192205 145 248 81
-0.288183 0.192179 0.192594 143 247 83
-0.286659 0.192559 0.192981 144 249 86
-0.284441 0.192331 0.193845 144 247 85
-0.283178 0.192909 0.194064 142 248 83
-0.279083 0.192657 0.195594 139 247 83
-0.272022 0.188024 0.199855 139 245 82
-0.270016 0.18784 0.200628 138 244 81
-0.268848 0.188399 0.20082 135 241 81
-0.267888 0.189143 0.200869 133 242 83
-0.26693 0.189884 0.200918 145 243 86
-0.266174 0.190813 0.200823 145 236 91
-0.265418 0.191742 0.200729 131 208 80
-0.264661 0.192671 0.200635 105 174 68
-0.263904 0.193601 0.20054 88 157 60
-0.263344 0.194723 0.200302 80 152 63
-0.262782 0.195849 0.200064 79 151 62
-0.262614 0.197369 0.199535 80 148 61
-0.26445 0.200906 0.197526 78 146 61
-0.268655 0.206889 0.193742 78 144 62
-0.268285 0.208301 0.193326 83 141 65
-0.267487 0.209281 0.193226 78 130 64
-0.266688 0.210262 0.193127 66 104 49
-0.310651 0.167515 0.192835 164 252 102
-0.309848 0.168501 0.192735 148 254 96
-0.318331 0.180465 0.185067 138 252 92
-0.316032 0.180501 0.185866 150 255 97
-0.313762 0.180537 0.186655 140 251 98
-0.312079 0.180968 0.187083 116 239 82
-0.310408 0.181397 0.187507 101 226 73
-0.309299 0.18222 0.187578 109 228 73
-0.306019 0.181461 0.189035 135 241 83
-0.304929 0.182274 0.189103 110 234 81
-0.304106 0.183284 0.189001 90 210 63
-0.303284 0.184294 0.188898 98 207 67
-0.30246 0.185305 0.188795 124 235 78
-0.301637 0.186316 0.188692 134 248 85
-0.300813 0.187328 0.188589 142 251 84
-0.299728 0.188136 0.188657 146 251 88
-0.298127 0.188537 0.189068 149 250 87
-0.296538 0.188934 0.189475 151 250 87
-0.294707 0.189127 0.190047 142 243 84
-0.293142 0.189521 0.190448 138 243 84
-0.291342 0.189711 0.191011 150 245 89
-0.290045 0.190301 0.19124 143 248 90
-0.288511 0.190687 0.191631 142 248 84
-0.287227 0.191272 0.191858 144 248 83
-0.285006 0.191053 0.192729 143 250 86
-0.283741 0.191633 0.192951 142 247 86
-0.282482 0.192211 0.193171 141 249 84
-0.281457 0.192987 0.193231 144 246 82
-0.272561 0.186803 0.198791 141 247 84
-0.270758 0.186812 0.199425 139 249 83
-0.269383 0.187189 0.199765 140 246 82
-0.268423 0.187933 0.199814 141 244 83
-0.267464 0.188676 0.199864 148 250 89
-0.266709 0.189604 0.199769 145 232 86
-0.265952 0.190532 0.199675 125 202 78
-0.265196 0.191461 0.19958 103 169 64
-0.264439 0.19239 0.199485 87 156 61
-0.26388 0.193511 0.199246 81 155 59
-0.263319 0.194635 0.199006 80 152 61
-0.263153 0.19615 0.198474 79 149 62
-0.264997 0.19967 0.196449 79 149 62
-0.267943 0.204343 0.193583 79 147 62
-0.268635 0.20681 0.192376 83 141 65
-0.267838 0.207789 0.192276 77 125 66
-0.267253 0.208986 0.192017 62 98 52
-0.309078 0.167846 0.191834 163 255 101
-0.308542 0.169007 0.191569 145 255 93
-0.317208 0.179546 0.18432 151 254 100
-0.313786 0.178801 0.185837 153 255 102
-0.312669 0.179629 0.185911 157 255 103
-0.310996 0.180063 0.186339 131 247 93
-0.307694 0.179325 0.187811 109 229 74
-0.306871 0.180336 0.187708 117 229 73
-0.30551 0.180956 0.187951 125 246 85
-0.304688 0.181965 0.187847 97 217 68
-0.303599 0.182778 0.187917 88 208 64
-0.302778 0.183787 0.187814 105 217 70
-0.301955 0.184796 0.187711 129 245 81
-0.301395 0.186007 0.187435 142 252 87
-0.30031 0.186817 0.187504 156 255 91
-0.299226 0.187625 0.187574 166 255 97
-0.297629 0.188027 0.187987 156 255 93
-0.295536 0.188023 0.188738 154 254 94
-0.293716 0.18822 0.189311 141 247 88
-0.292161 0.188615 0.189713 150 245 86
-0.290371 0.188808 0.190277 151 254 95
-0.288598 0.189 0.190836 146 242 80
-0.287556 0.189787 0.190899 142 249 86
-0.28557 0.189775 0.191614 146 250 83
-0.284071 0.19016 0.191999 143 250 83
-0.283275 0.191137 0.191899 141 248 85
-0.282249 0.191914 0.191961 141 248 82
-0.273946 0.186323 0.197132 143 247 84
-0.27171 0.185965 0.198073 141 247 84
-0.270329 0.186345 0.198418 138 248 83
-0.268957 0.186723 0.19876 144 246 85
-0.268201 0.187652 0.198665 150 250 90
-0.267445 0.18858 0.19857 143 228 87
-0.266487 0.189323 0.198621 121 194 75
-0.265731 0.190251 0.198526 98 166 64
-0.265174 0.191369 0.198285 88 157 61
-0.264416 0.192299 0.19819 81 153 61
-0.264055 0.193612 0.197803 80 152 61
-0.263891 0.195125 0.197266 81 152 61
-0.265952 0.198834 0.195068 78 148 62
-0.268502 0.20308 0.192484 79 149 62
-0.268984 0.205323 0.191429 82 147 65
-0.268401 0.206515 0.191168 77 120 67
-0.267604 0.207494 0.191068 59 92 53
-0.308311 0.167194 0.190938 167 253 102
-0.307775 0.168352 0.190672 150 255 99
-0.313259 0.178291 0.18474 168 255 108
-0.311305 0.178534 0.18535 174 255 110
-0.308004 0.177813 0.186831 160 253 110
-0.306643 0.178438 0.187075 143 246 91
-0.306091 0.179638 0.186798 138 239 81
-0.305001 0.180453 0.186869 107 235 80
-0.30418 0.181461 0.186765 88 213 61
-0.303094 0.182273 0.186836 94 208 65
-0.302273 0.183281 0.186733 113 225 73
-0.301714 0.184488 0.186455 135 250 83
-0.300891 0.185498 0.186352 146 255 90
-0.299807 0.186307 0.186422 158 255 98
-0.298467 0.186914 0.186667 173 255 106
-0.296366 0.186916 0.187426 162 255 103
-0.29404 0.186721 0.188345 150 255 101
-0.292733 0.187318 0.18858 140 252 99
-0.290697 0.18732 0.189316 160 249 92
-0.288445 0.187126 0.190208 132 251 93
-0.287169 0.187715 0.190436 142 243 78
-0.285663 0.188106 0.190826 145 251 87
-0.284633 0.188886 0.190888 147 251 85
-0.283838 0.189863 0.190788 145 250 81
-0.28258 0.190443 0.191013 142 248 84
-0.275128 0.185653 0.195611 142 247 82
-0.272456 0.184932 0.196865 141 247 84
-0.271487 0.185682 0.196917 139 248 84
-0.269901 0.18588 0.197412 150 248 84
-0.268736 0.186442 0.197611 149 242 90
-0.26798 0.18737 0.197516 135 224 84
-0.267223 0.188299 0.197421 113 186 73
-0.266466 0.189228 0.197325 97 163 64
-0.265709 0.190157 0.19723 86 155 62
-0.265151 0.191276 0.196988 83 155 62
-0.264792 0.192588 0.196597 81 152 63
-0.26463 0.194099 0.196055 81 149 63
-0.26816 0.199208 0.192749 82 150 62
-0.269272 0.202027 0.191226 80 148 64
-0.269547 0.204052 0.190322 81 147 65
-0.268965 0.205242 0.19006 77 121 65
-0.268168 0.206221 0.18996 60 84 49
-0.306486 0.16735 0.190111 149 255 102
-0.306476 0.168856 0.189511 142 254 87
-0.311892 0.177202 0.184185 161 255 108
-0.307772 0.175928 0.186203 170 255 116
-0.306953 0.176933 0.186099 174 255 120
-0.305866 0.177748 0.18617 160 255 106
-0.305314 0.178944 0.185893 131 245 85
-0.304494 0.179951 0.185789 93 220 68
-0.303409 0.180763 0.18586 83 216 63
-0.302589 0.181769 0.185757 99 216 69
-0.301769 0.182776 0.185654 121 235 80
-0.300948 0.183783 0.18555 139 253 86
-0.300128 0.18479 0.185447 141 255 87
-0.299047 0.185599 0.185518 145 254 94
-0.296943 0.185609 0.186283 159 255 106
-0.294363 0.185225 0.187381 155 255 110
-0.292809 0.185629 0.187787 144 253 94
-0.291266 0.186031 0.188191 145 253 99
-0.28877 0.185651 0.189256 149 253 97
-0.287258 0.186049 0.18965 110 236 79
-0.28599 0.186638 0.189878 136 247 80
-0.284962 0.187419 0.189941 146 251 86
-0.283935 0.188198 0.190004 146 251 87
-0.283605 0.189566 0.189577 145 249 84
-0.282347 0.190147 0.189804 141 247 83
-0.274903 0.185367 0.194443 140 247 84
-0.272233 0.184649 0.195707 145 246 83
-0.271264 0.185399 0.195761 149 252 88
-0.269679 0.185598 0.196261 149 234 84
-0.268718 0.186344 0.196314 130 210 79
-0.267758 0.187089 0.196366 103 178 67
-0.267001 0.188018 0.196271 92 160 61
-0.266445 0.189133 0.196027 84 155 60
-0.265888 0.190251 0.195783 83 153 62
-0.26553 0.191562 0.195388 83 152 62
-0.266181 0.193842 0.194236 84 150 63
-0.269556 0.19877 0.191027 85 149 63
-0.270258 0.20118 0.189804 85 147 65
-0.270324 0.202993 0.189053 79 140 65
-0.269528 0.20397 0.188953 76 119 60
-0.268518 0.204734 0.189016 59 75 49
-0.305469 0.16653 0.189389 146 252 96
-0.305455 0.168028 0.188789 135 249 83
-0.30544 0.169537 0.188184 130 249 83
-0.308356 0.173057 0.185682 130 249 83
-0.30754 0.174057 0.185579 135 252 91
-0.306457 0.174871 0.185651 141 254 104
-0.305642 0.175872 0.185547 150 255 110
-0.304562 0.176684 0.185619 146 252 101
-0.303484 0.177495 0.185689 105 236 76
-0.303988 0.17945 0.184712 89 219 65
-0.302378 0.179877 0.185135 99 223 70
-0.3013 0.180686 0.185206 119 237 84
-0.300484 0.181688 0.185103 136 247 92
-0.299667 0.18269 0.184999 145 255 89
-0.29885 0.183693 0.184896 143 255 87
-0.296502 0.183518 0.185835 142 254 88
-0.294935 0.183929 0.186248 145 255 93
-0.292639 0.183755 0.187168 136 253 99
-0.290374 0.183585 0.188074 130 247 83
-0.289334 0.184373 0.18814 150 252 92
-0.28782 0.184774 0.188538 123 245 88
-0.286552 0.185366 0.188767 91 216 70
-0.285523 0.186148 0.188832 129 245 79
-0.284496 0.186928 0.188896 142 249 84
-0.283471 0.187707 0.18896 139 251 88
-0.282678 0.188681 0.18886 137 249 87
-0.281427 0.189262 0.189087 138 248 84
-0.274464 0.184896 0.193428 146 247 88
-0.27222 0.184548 0.194399 149 244 88
-0.271042 0.185116 0.194604 143 228 84
-0.269663 0.185499 0.19496 117 190 74
-0.2687 0.186246 0.195013 97 165 59
-0.267739 0.186992 0.195067 84 157 57
-0.267183 0.188107 0.194822 84 154 57
-0.266829 0.189412 0.194425 79 153 58
-0.266472 0.190723 0.194027 80 153 62
-0.267749 0.193583 0.192398 84 149 61
-0.270111 0.197515 0.189934 87 148 62
-0.270818 0.199914 0.188702 90 148 64
-0.270886 0.201721 0.187946 80 130 67
-0.27009 0.202698 0.187846 68 110 53
-0.269294 0.203675 0.187745 58 74 42
-0.306042 0.163773 0.188873 92 124 49
-0.304992 0.164575 0.188939 145 211 80
-0.304201 0.165546 0.188838 145 246 89
-0.30341 0.166517 0.188738 133 240 81
-0.304423 0.168706 0.187466 124 241 79
-0.304665 0.170396 0.186686 119 241 79
-0.304646 0.171921 0.186071 121 245 82
-0.304102 0.173092 0.185796 129 251 85
-0.303295 0.174083 0.185694 139 254 90
-0.302487 0.175074 0.185591 126 243 85
-0.301679 0.176065 0.185489 93 223 66
-0.302431 0.178187 0.184342 98 224 69
-0.300836 0.178616 0.184763 136 239 85
-0.299509 0.179232 0.185008 155 255 101
-0.298698 0.180227 0.184905 167 255 108
-0.297632 0.18103 0.184976 161 255 101
-0.296316 0.18164 0.185219 151 255 94
-0.295006 0.182247 0.185461 147 255 90
-0.293207 0.182468 0.186043 140 254 84
-0.290455 0.181926 0.187293 123 245 81
-0.289418 0.182714 0.187359 128 240 81
-0.288383 0.1835 0.187425 141 252 95
-0.287113 0.184094 0.187658 103 230 70
-0.286319 0.185069 0.187557 77 206 65
-0.285057 0.185659 0.187788 112 230 72
-0.284031 0.186439 0.187853 129 242 80
-0.283238 0.187411 0.187753 128 246 85
-0.281986 0.187995 0.187983 138 245 84
-0.278051 0.186275 0.190155 142 247 89
-0.274239 0.18461 0.19226 146 231 86
-0.272626 0.184813 0.19278 129 212 82
-0.271234 0.185199 0.193143 104 179 64
-0.270058 0.185766 0.193351 88 156 58
-0.268886 0.186331 0.193559 79 151 54
-0.268126 0.187263 0.193462 76 151 53
-0.267366 0.188196 0.193366 76 150 56
-0.269691 0.191983 0.190952 76 147 58
-0.272094 0.1959 0.188455 78 148 59
-0.272386 0.197883 0.187537 86 146 60
-0.272244 0.199474 0.186941 84 145 64
-0.271666 0.200659 0.186674 84 125 64
-0.270869 0.201636 0.186572 60 92 54
-0.270072 0.202614 0.186471 49 69 34
-0.305034 0.162972 0.188161 91 111 40
-0.304245 0.163939 0.188061 139 200 75
-0.303456 0.164908 0.187961 137 236 83
-0.302922 0.166047 0.187693 121 228 74
-0.302386 0.167189 0.187426 114 231 74
-0.30339 0.169385 0.186142 112 234 75
-0.303627 0.171078 0.185356 115 239 79
-0.303343 0.172425 0.184908 132 246 84
-0.302538 0.173413 0.184806 138 250 88
-0.301732 0.174402 0.184703 103 235 79
-0.300925 0.175391 0.184601 91 219 63
-0.300376 0.176567 0.184325 117 235 78
-0.299312 0.177371 0.184396 145 255 96
-0.298504 0.178362 0.184293 158 255 102
-0.297443 0.179164 0.184364 177 255 114
-0.296635 0.180154 0.184261 166 255 113
-0.295577 0.180954 0.184332 147 254 94
-0.293775 0.18118 0.184919 140 252 88
-0.291018 0.180651 0.186179 130 249 82
-0.28974 0.181251 0.186415 114 237 80
-0.288707 0.182038 0.186482 145 242 84
-0.287675 0.182823 0.186548 122 248 91
-0.286881 0.183797 0.186447 90 222 63
-0.285851 0.18458 0.186514 77 205 62
-0.284591 0.185171 0.186747 99 211 66
-0.283337 0.185759 0.186979 126 230 73
-0.282087 0.186344 0.18721 131 242 85
-0.279941 0.186163 0.188096 143 233 82
-0.277603 0.185796 0.18913 138 224 84
-0.274227 0.184508 0.190936 116 189 75
-0.273246 0.185265 0.190995 96 164 66
-0.271637 0.185467 0.19152 81 154 57
-0.270248 0.18585 0.191887 75 151 52
-0.269485 0.186786 0.19179 73 149 54
-0.269548 0.188472 0.191072 72 147 53
-0.271717 0.192102 0.188758 71 147 56
-0.273737 0.195646 0.186536 72 144 56
-0.2736 0.197229 0.185936 78 142 58
-0.273024 0.19841 0.185667 78 132 64
-0.272446 0.199594 0.185398 70 120 58
-0.271649 0.200572 0.185297 56 77 50
-0.270852 0.20155 0.185195 42 59 33
-0.304289 0.162341 0.187287 88 102 40
-0.303502 0.163307 0.187187 133 196 77
-0.302969 0.164441 0.186919 128 228 82
-0.30218 0.165409 0.186819 111 217 70
-0.301645 0.166548 0.18655 105 222 69
-0.301616 0.168036 0.185943 109 228 72
-0.302357 0.170064 0.184818 118 235 77
-0.302588 0.171761 0.184025 132 246 87
-0.301784 0.172747 0.183922 127 242 85
-0.30098 0.173733 0.18382 91 219 65
-0.300176 0.17472 0.183717 96 223 66
-0.299371 0.175707 0.183614 135 245 79
-0.29882 0.176881 0.183337 143 254 87
-0.298013 0.177871 0.183234 150 254 91
-0.296954 0.178672 0.183306 157 255 103
-0.295645 0.179284 0.183552 150 255 109
-0.294343 0.179893 0.183796 135 251 83
-0.291824 0.179562 0.184896 119 242 77
-0.290302 0.179978 0.185304 112 238 78
-0.289268 0.180766 0.185372 119 237 84
-0.288236 0.181552 0.185439 145 254 95
-0.287442 0.182526 0.185338 114 243 77
-0.286412 0.18331 0.185406 102 228 68
-0.285151 0.183903 0.185641 106 217 73
-0.283896 0.184493 0.185875 111 216 77
-0.28196 0.184512 0.186607 136 217 75
-0.280721 0.185098 0.186837 137 224 84
-0.279263 0.185491 0.18723 116 196 77
-0.277374 0.185506 0.187945 106 171 66
-0.275723 0.185708 0.188492 90 156 67
-0.273233 0.185164 0.189668 80 153 68
-0.272464 0.186108 0.18957 79 149 62
-0.271695 0.187052 0.189472 75 151 56
-0.271346 0.188373 0.189057 73 149 55
-0.272268 0.190856 0.187673 74 146 52
-0.273423 0.193583 0.1861 74 145 59
-0.273942 0.195757 0.184998 69 140 58
-0.273587 0.197139 0.18456 77 121 57
-0.27301 0.198321 0.18429 58 91 52
-0.272213 0.199298 0.184188 47 68 34
-0.271633 0.200485 0.183917 37 55 32
-0.303802 0.161878 0.18625 91 106 42
-0.303016 0.162843 0.186149 127 194 76
-0.302229 0.163808 0.186049 118 220 77
-0.301442 0.164773 0.185948 105 211 66
-0.30116 0.166079 0.18551 103 217 71
-0.300622 0.167219 0.185239 107 226 78
-0.301098 0.169059 0.184285 129 239 81
-0.301323 0.170743 0.183493 139 248 85
-0.301034 0.172084 0.183042 105 232 76
-0.300232 0.173068 0.18294 84 211 62
-0.299684 0.174235 0.182662 102 229 72
-0.29888 0.175221 0.182559 139 254 85
-0.298329 0.176392 0.182281 143 252 84
-0.297271 0.177195 0.182354 144 252 84
-0.295964 0.177809 0.182601 143 254 85
-0.294662 0.17842 0.182847 133 251 80
-0.292631 0.178471 0.18361 113 240 76
-0.290864 0.178706 0.184193 99 231 73
-0.289829 0.179494 0.184262 109 232 78
-0.288797 0.180282 0.184331 143 241 87
-0.287766 0.181068 0.184399 132 253 101
-0.286738 0.181852 0.184467 122 242 84
-0.285711 0.182635 0.184535 135 232 80
-0.284454 0.183228 0.184772 139 227 83
-0.283203 0.183819 0.185007 128 221 89
-0.281729 0.184218 0.185409 115 193 79
-0.280265 0.184616 0.185808 106 169 67
-0.279034 0.185199 0.186038 93 157 67
-0.277587 0.185592 0.186432 87 152 68
-0.276367 0.186171 0.18666 82 154 69
-0.27472 0.18637 0.187213 82 151 71
-0.273944 0.187322 0.187113 84 152 67
-0.274245 0.189231 0.186197 79 150 65
-0.275205 0.191753 0.18477 80 148 61
-0.275296 0.193517 0.183996 80 144 58
-0.274723 0.194691 0.183725 81 125 61
-0.274369 0.196071 0.183284 66 113 53
-0.273573 0.197048 0.183182 60 68 39
-0.272995 0.198231 0.182909 43 55 29
-0.303572 0.161581 0.185045 103 125 49
-0.302785 0.162545 0.184944 126 195 73
-0.301998 0.16351 0.184844 109 207 68
-0.301211 0.164476 0.184743 118 207 66
-0.300424 0.165442 0.184642 147 235 87
-0.299887 0.166578 0.184371 152 255 97
-0.299599 0.167891 0.183928 145 255 97
-0.300069 0.169735 0.182965 127 240 92
-0.300033 0.171245 0.182341 92 215 75
-0.299487 0.172405 0.182064 96 212 66
-0.299194 0.17375 0.18161 125 234 75
-0.298644 0.174918 0.18133 139 255 86
-0.297587 0.175721 0.181404 141 255 83
-0.296281 0.176337 0.181653 141 254 82
-0.295229 0.177136 0.181725 134 251 83
-0.293195 0.177193 0.182494 120 243 77
-0.291425 0.177434 0.183083 102 229 71
-0.29039 0.178224 0.183153 101 224 75
-0.289357 0.179012 0.183222 129 228 82
-0.288327 0.179799 0.183292 158 244 90
-0.287298 0.180584 0.183361 144 238 89
-0.286505 0.181556 0.18326 129 226 90
-0.285479 0.182339 0.183329 115 200 78
-0.284454 0.183121 0.183398 104 177 67
-0.282972 0.183524 0.183806 101 157 60
-0.281726 0.184113 0.184043 96 153 63
-0.280486 0.1847 0.184278 90 152 66
-0.279251 0.185285 0.184513 85 151 71
-0.278021 0.185867 0.184746 85 150 72
-0.276797 0.186448 0.184979 86 151 70
-0.276015 0.187407 0.184878 85 151 70
-0.276109 0.189137 0.18411 87 150 68
-0.276648 0.191279 0.182995 82 146 70
-0.2763 0.192648 0.182552 83 132 68
-0.275727 0.193823 0.182278 76 121 60
-0.275153 0.195002 0.182004 58 75 54
-0.274577 0.196183 0.18173 50 57 28
-0.273779 0.197162 0.181627 43 52 25
-0.303087 0.161119 0.184011 103 146 58
-0.302301 0.162083 0.18391 118 196 73
-0.301515 0.163047 0.183809 97 193 66
-0.300728 0.164011 0.183708 97 190 63
-0.300193 0.165144 0.183436 120 212 76
-0.299405 0.166111 0.183334 146 242 94
-0.298866 0.167249 0.183062 162 255 102
-0.298576 0.168563 0.182615 161 252 99
-0.297784 0.169534 0.182514 147 240 88
-0.298999 0.171924 0.181016 153 240 78
-0.298705 0.173267 0.18056 154 255 84
-0.296046 0.176035 0.180427 139 255 83
-0.294746 0.17665 0.180677 129 252 82
-0.29223 0.176345 0.181799 117 240 77
-0.291193 0.177136 0.181871 125 229 78
-0.289918 0.177742 0.182114 140 238 88
-0.289125 0.178715 0.182012 124 219 91
-0.288094 0.179502 0.182083 112 189 73
-0.287301 0.180474 0.181981 101 166 63
-0.286273 0.181259 0.182052 88 150 55
-0.28548 0.182231 0.18195 82 141 49
-0.284223 0.182826 0.182192 74 138 48
-0.2832 0.183607 0.182262 74 138 48
-0.281951 0.184197 0.182502 76 142 54
-0.280707 0.184785 0.182742 76 147 66
-0.279469 0.185371 0.18298 92 148 68
-0.278459 0.186145 0.183048 97 150 68
-0.277673 0.187109 0.182947 92 149 70
-0.277552 0.188653 0.182336 85 146 69
-0.277431 0.190209 0.181721 89 130 67
-0.275586 0.195315 0.180271 42 47 26
-0.302857 0.160822 0.182808 104 167 73
-0.301818 0.161621 0.182878 108 195 73
-0.301032 0.162584 0.182777 89 180 62
-0.300247 0.163547 0.182675 82 170 54
-0.299711 0.164679 0.182402 84 163 49
-0.298924 0.165644 0.182301 93 173 53
-0.298385 0.16678 0.182026 110 200 71
-0.297596 0.167747 0.181925 134 234 90
-0.296807 0.168715 0.181823 142 247 91
-0.296511 0.170032 0.181374 146 246 87
-0.291754 0.175864 0.180761 136 237 85
-0.290719 0.176655 0.180833 130 225 90
-0.289686 0.177445 0.180905 115 187 78
-0.288893 0.178417 0.180802 102 166 70
-0.287862 0.179205 0.180874 92 154 63
-0.287069 0.180177 0.180772 80 149 55
-0.286041 0.180962 0.180843 65 142 53
-0.285482 0.182122 0.180567 64 139 50
-0.284455 0.182907 0.180639 64 136 48
-0.28343 0.18369 0.18071 64 136 49
-0.282407 0.184471 0.180782 64 135 52
-0.281158 0.185061 0.181026 69 131 55
-0.280367 0.18603 0.180924 79 129 53
-0.279575 0.187001 0.180821 82 130 54
-0.278783 0.187971 0.180719 75 131 68
-0.278216 0.189138 0.180444 57 99 67
-0.302373 0.160362 0.181777 111 186 79
-0.301588 0.161325 0.181675 100 192 70
-0.300551 0.162122 0.181746 83 174 57
-0.299766 0.163084 0.181645 75 167 51
-0.29923 0.164214 0.181371 66 159 47
-0.298444 0.165178 0.181269 61 148 43
-0.297905 0.166312 0.180994 66 140 44
-0.297117 0.167279 0.180892 109 162 50
-0.296328 0.168245 0.18079 147 210 69
-0.295539 0.169212 0.180688 146 239 87
-0.291039 0.175204 0.1799 130 214 85
-0.290246 0.176176 0.179797 107 173 77
-0.288976 0.176783 0.180045 94 160 74
-0.288185 0.177753 0.179942 89 160 73
-0.287629 0.178908 0.179665 90 159 74
-0.286836 0.17988 0.179562 86 157 73
-0.286043 0.180852 0.17946 84 148 66
-0.285483 0.182014 0.179181 80 141 59
-0.284688 0.182988 0.179078 76 133 52
-0.28366 0.183773 0.179152 60 117 53
-0.282404 0.184366 0.1794 55 108 57
-0.281382 0.185147 0.179472 52 95 54
-0.280589 0.186119 0.17937 47 80 42
-0.279796 0.187091 0.179267 49 72 26
-0.279002 0.188064 0.179165 50 57 28
-0.278659 0.18943 0.17871 42 51 35
-0.278088 0.190604 0.178431 40 53 27
-0.30189 0.159903 0.180748 114 192 75
-0.301106 0.160864 0.180647 93 188 64
-0.300321 0.161826 0.180545 79 174 56
-0.299536 0.162788 0.180443 71 167 53
-0.298751 0.16375 0.180341 65 160 49
-0.297965 0.164713 0.180239 56 146 44
-0.297426 0.165846 0.179963 46 133 41
-0.296639 0.166811 0.179861 65 139 44
-0.295851 0.167776 0.179759 97 173 67
-0.294818 0.16857 0.179831 103 198 85
-0.294274 0.169709 0.179554 102 196 75
-0.288426 0.168539 0.182443 147 243 93
-0.285362 0.167807 0.184008 156 247 98
-0.284372 0.168578 0.184073 134 217 88
-0.284056 0.169851 0.183644 108 174 75
-0.289297 0.175336 0.179116 93 161 73
-0.288507 0.176305 0.179013 91 158 74
-0.287953 0.177456 0.178735 90 157 73
-0.287161 0.178427 0.178632 88 152 74
-0.286604 0.179583 0.178353 91 147 74
-0.286045 0.180742 0.178073 93 135 74
-0.28525 0.181716 0.17797 62 98 60
-0.301408 0.159445 0.179722 110 194 71
-0.300625 0.160405 0.17962 89 182 61
-0.299841 0.161365 0.179518 79 171 55
-0.299306 0.162492 0.179241 70 167 53
-0.29852 0.163454 0.179139 66 162 49
-0.297735 0.164417 0.179037 58 149 45
-0.296948 0.16538 0.178935 47 133 43
-0.296162 0.166344 0.178832 56 130 42
-0.295375 0.167309 0.17873 79 151 50
-0.294588 0.168273 0.178628 82 166 57
-0.293315 0.168893 0.178877 75 156 50
-0.289205 0.167469 0.181192 84 155 51
-0.285903 0.166582 0.182939 115 177 58
-0.284912 0.167354 0.183005 141 206 69
-0.283923 0.168124 0.183071 113 183 76
-0.283383 0.169228 0.182806 94 156 69
-0.282841 0.170334 0.182541 87 152 70
-0.288039 0.175828 0.177984 87 151 71
-0.287721 0.177159 0.177527 87 146 72
-0.287165 0.178314 0.177246 89 140 69
-0.286843 0.179657 0.176786 83 124 70
-0.286047 0.180631 0.176682 68 74 55
-0.301962 0.158189 0.178624 114 187 76
-0.300927 0.158988 0.178698 102 194 68
-0.300145 0.159947 0.178596 85 178 59
-0.299611 0.161069 0.178318 79 171 53
-0.299076 0.162195 0.178039 73 168 51
-0.29829 0.163158 0.177936 68 164 47
-0.297752 0.164288 0.177657 61 153 45
-0.296965 0.165252 0.177554 50 140 45
-0.295931 0.166048 0.177629 72 150 48
-0.295144 0.167012 0.177526 97 177 59
-0.29387 0.167635 0.177778 91 180 62
-0.289753 0.166229 0.18011 82 166 56
-0.286444 0.165357 0.18187 82 159 55
-0.285679 0.166294 0.18177 104 181 68
-0.284688 0.167066 0.181838 123 198 79
-0.283699 0.167837 0.181905 97 161 71
-0.282935 0.168773 0.181805 85 147 71
-0.282393 0.169878 0.181539 83 142 70
-0.287572 0.175352 0.176957 83 140 71
-0.287962 0.177228 0.17596 86 136 71
-0.287405 0.178384 0.175677 83 120 69
-0.28732 0.179917 0.17503 65 73 55
-0.301229 0.157574 0.177778 117 203 83
-0.300198 0.158372 0.177852 96 190 65
-0.299666 0.15949 0.177574 82 177 58
-0.299381 0.160773 0.177117 78 173 53
-0.298846 0.161899 0.176837 72 167 51
-0.298308 0.163027 0.176555 69 163 48
-0.297521 0.163991 0.176452 64 154 45
-0.296734 0.164955 0.17635 62 148 46
-0.295701 0.165751 0.176425 93 182 61
-0.294913 0.166716 0.176322 117 212 75
-0.29364 0.167339 0.176576 111 206 74
-0.28976 0.166105 0.178755 102 194 68
-0.28622 0.16507 0.180702 106 186 64
-0.285228 0.165843 0.18077 117 191 71
-0.284239 0.166615 0.180838 106 182 78
-0.283475 0.16755 0.180738 90 151 69
-0.288918 0.173124 0.175959 83 143 70
-0.289556 0.175166 0.174776 82 136 70
-0.288761 0.176139 0.174672 83 132 71
-0.288682 0.177663 0.174021 82 121 68
-0.287884 0.178641 0.173917 63 85 57
-0.3005 0.156962 0.176935 117 203 78
-0.299969 0.158077 0.176656 94 184 63
-0.299188 0.159033 0.176554 81 176 57
-0.298903 0.160314 0.176095 77 172 53
-0.298615 0.161602 0.175634 73 166 51
-0.29783 0.162564 0.175531 70 163 49
-0.297291 0.163694 0.175248 65 156 46
-0.296257 0.164491 0.175325 81 161 49
-0.29547 0.165455 0.175222 112 205 70
-0.294439 0.16625 0.175298 127 230 80
-0.291252 0.165528 0.176973 124 222 77
-0.289767 0.16598 0.177396 116 212 75
-0.286223 0.164945 0.179363 120 207 73
-0.28523 0.165719 0.179433 121 195 74
-0.28424 0.166492 0.179502 97 166 73
-0.283924 0.167761 0.179062 87 149 68
-0.289877 0.173717 0.17385 85 141 69
-0.289562 0.175049 0.173381 83 135 71
-0.288767 0.176023 0.173276 83 129 73
-0.288448 0.177364 0.172804 74 113 64
-0.300802 0.155556 0.176021 132 190 67
-0.299527 0.156196 0.176274 111 198 70
-0.298996 0.157306 0.175994 89 181 59
-0.298959 0.158738 0.175357 80 176 55
-0.298673 0.160019 0.174895 76 172 53
-0.298137 0.161142 0.174612 73 166 51
-0.297599 0.162268 0.174328 69 164 49
-0.296813 0.163231 0.174225 64 159 49
-0.296026 0.164194 0.174121 97 183 58
-0.294751 0.164822 0.17438 125 221 74
-0.292998 0.165113 0.174996 130 233 78
-0.290788 0.165069 0.17596 128 227 77
-0.28954 0.165688 0.176211 124 219 77
-0.286912 0.165312 0.177505 124 211 78
-0.285232 0.165595 0.178093 113 186 76
-0.284466 0.166534 0.177992 92 156 69
-0.28972 0.171918 0.173292 84 149 68
-0.289645 0.173419 0.17264 84 143 70
-0.288852 0.174391 0.172535 85 136 70
-0.288534 0.175725 0.172063 81 121 71
-0.300076 0.154951 0.175186 127 211 84
-0.299299 0.155902 0.175083 102 191 64
-0.298522 0.156854 0.174981 85 180 56
-0.298236 0.158124 0.17452 79 176 55
-0.298196 0.159561 0.173876 74 172 53
-0.29766 0.160682 0.173592 70 168 52
-0.297122 0.161807 0.173307 66 163 49
-0.296336 0.162769 0.173203 70 163 54
-0.295306 0.163565 0.173282 107 202 69
-0.293551 0.163861 0.173903 129 229 78
-0.291812 0.164154 0.174518 132 231 78
-0.290324 0.164611 0.17495 129 229 78
-0.288845 0.165065 0.175379 129 220 77
-0.286687 0.165022 0.176329 124 202 76
-0.285917 0.165965 0.176228 103 172 73
-0.285603 0.16724 0.175777 89 151 68
-0.289488 0.171622 0.172086 84 149 69
-0.289412 0.173122 0.171429 83 144 69
-0.288619 0.174093 0.171324 86 137 69
-0.288063 0.175245 0.171034 80 114 65
-0.299601 0.154502 0.174174 119 215 86
-0.298825 0.155452 0.174072 93 187 62
-0.298048 0.156403 0.173969 81 180 57
-0.297761 0.157671 0.173506 79 174 55
-0.29772 0.159105 0.17286 73 171 53
-0.297183 0.160224 0.172574 69 168 52
-0.2964 0.161183 0.172471 67 162 49
-0.295616 0.162143 0.172367 88 175 56
-0.294104 0.162609 0.17281 119 216 76
-0.292602 0.163072 0.173249 131 229 81
-0.291109 0.163532 0.173686 132 229 80
-0.289627 0.16399 0.17412 127 227 78
-0.288386 0.164609 0.174373 129 218 76
-0.286461 0.164733 0.175154 121 191 73
-0.285691 0.165675 0.175052 97 160 69
-0.287219 0.168295 0.173172 87 150 68
-0.288782 0.170975 0.171249 86 149 68
-0.288941 0.172646 0.170404 85 144 68
-0.288386 0.173795 0.170113 82 133 71
-0.28783 0.174947 0.169822 69 101 60
-0.299127 0.154055 0.173165 106 204 77
-0.298351 0.155004 0.173063 88 183 59
-0.297575 0.155954 0.17296 80 179 56
-0.297533 0.157376 0.172313 76 175 52
-0.296754 0.15833 0.17221 73 170 53
-0.296708 0.159767 0.171559 69 165 50
-0.295925 0.160725 0.171455 68 162 51
-0.294414 0.161195 0.1719 105 197 62
-0.293152 0.161824 0.172161 128 226 78
-0.291896 0.162451 0.17242 132 228 80
-0.290645 0.163076 0.172678 132 226 79
-0.289166 0.163534 0.173114 128 223 76
-0.287696 0.16399 0.173548 126 212 76
-0.286236 0.164444 0.173978 112 179 73
-0.285466 0.165386 0.173876 93 153 67
-0.289339 0.169714 0.17015 86 150 67
-0.288788 0.170853 0.169859 86 148 67
-0.288709 0.172349 0.169195 87 142 68
-0.288154 0.173497 0.168902 80 124 70
-0.28736 0.174469 0.168797 55 82 56
-0.299428 0.15266 0.172261 128 200 74
-0.298654 0.153608 0.172158 100 196 70
-0.298124 0.15471 0.171874 84 180 58
-0.297348 0.15566 0.171771 77 180 55
-0.29706 0.156924 0.171303 77 175 52
-0.296526 0.158036 0.171017 72 168 51
-0.295746 0.15899 0.170913 69 161 49
-0.294724 0.159784 0.170993 75 168 56
-0.293703 0.160577 0.171072 114 213 73
-0.292685 0.161368 0.171151 131 230 81
-0.291431 0.161995 0.171413 133 229 80
-0.289947 0.162458 0.171853 130 226 79
-0.288473 0.162917 0.172291 133 219 75
-0.287239 0.163537 0.172547 124 199 76
-0.285782 0.163991 0.17298 103 168 72
-0.286615 0.166088 0.171622 89 149 67
-0.289108 0.169418 0.168946 85 149 67
-0.288556 0.170557 0.168654 85 146 68
-0.288477 0.172051 0.167985 87 141 69
-0.287921 0.1732 0.167691 78 112 63
-0.287127 0.174172 0.167585 49 62 43
-0.299201 0.152367 0.171075 125 218 85
-0.298427 0.153315 0.170971 97 186 61
-0.297652 0.154263 0.170868 82 182 56
-0.297121 0.155367 0.170582 79 179 51
-0.296588 0.156473 0.170295 76 174 50
-0.29581 0.157425 0.170191 68 168 48
-0.295032 0.158377 0.170088 65 162 48
-0.294013 0.15917 0.170168 98 178 55
-0.293235 0.160122 0.170064 132 222 78
-0.29198 0.160752 0.170328 138 234 86
-0.290966 0.161541 0.170407 134 231 83
-0.289486 0.162004 0.170851 128 225 79
-0.288247 0.162627 0.17111 133 216 77
-0.286325 0.162761 0.171907 118 185 74
-0.285557 0.163702 0.171805 96 156 68
-0.287081 0.166296 0.16989 88 148 65
-0.289114 0.169294 0.167554 86 147 67
-0.288562 0.170435 0.16726 86 145 69
-0.288245 0.171754 0.166775 83 134 69
-0.287689 0.172902 0.166479 67 96 53
-0.286894 0.173874 0.166373 46 54 27
-0.298728 0.151923 0.170071 115 213 80
-0.297955 0.152869 0.169968 93 182 59
-0.297425 0.15397 0.169681 79 182 58
-0.296893 0.155073 0.169393 77 179 54
-0.296117 0.156023 0.169289 74 172 49
-0.29534 0.156974 0.169185 71 165 46
-0.294562 0.157925 0.169081 67 162 54
-0.293785 0.158877 0.168978 118 206 69
-0.292768 0.159669 0.169059 142 235 88
-0.291752 0.160459 0.169139 146 239 92
-0.290268 0.160926 0.169587 139 232 83
-0.289026 0.161551 0.16985 131 220 77
-0.287558 0.162013 0.170293 127 209 78
-0.285872 0.162311 0.170913 109 175 73
-0.285331 0.163413 0.17063 91 152 68
-0.286853 0.166003 0.168701 87 150 66
-0.288409 0.168654 0.166727 87 148 67
-0.28833 0.170138 0.166053 89 145 70
-0.288012 0.171456 0.165565 79 118 67
-0.287456 0.172604 0.165267 53 72 47
-0.299275 0.150684 0.168989 128 188 66
-0.298257 0.151479 0.16907 106 202 71
-0.297728 0.152577 0.168782 87 181 58
-0.296954 0.153524 0.168678 77 180 57
-0.296422 0.154625 0.168389 78 177 54
-0.295889 0.15573 0.168099 70 168 52
-0.29487 0.156524 0.168181 69 163 47
-0.294094 0.157474 0.168077 82 167 57
-0.293317 0.158424 0.167973 128 219 79
-0.292301 0.159216 0.168055 143 234 89
-0.291288 0.160006 0.168137 145 233 87
-0.289806 0.160474 0.168587 135 224 79
-0.288335 0.16094 0.169035 137 215 75
-0.286415 0.161083 0.169842 124 193 74
-0.285647 0.162023 0.169739 102 161 71
-0.28579 0.16361 0.168908 89 149 68
-0.287555 0.16638 0.166765 88 150 66
-0.288415 0.168529 0.165334 88 147 67
-0.288335 0.170015 0.164653 88 140 69
-0.28778 0.171159 0.164355 77 104 57
-0.286987 0.172129 0.164248 50 59 36
-0.298803 0.150242 0.167989 123 207 75
-0.29803 0.151187 0.167885 98 193 64
-0.297257 0.152133 0.167781 82 181 57
-0.296727 0.153231 0.167491 78 180 55
-0.295952 0.154178 0.167387 75 175 53
-0.295419 0.155281 0.167097 67 167 52
-0.294402 0.156075 0.167179 65 160 51
-0.293626 0.157024 0.167075 107 189 63
-0.29285 0.157973 0.166971 126 225 82
-0.291836 0.158764 0.167054 131 227 90
-0.290588 0.159395 0.167322 127 222 87
-0.289113 0.159864 0.167774 124 220 79
-0.286957 0.159855 0.168772 131 212 78
-0.28619 0.160794 0.168669 116 177 73
-0.285422 0.161734 0.168566 95 155 68
-0.286481 0.163973 0.166988 87 150 67
-0.288028 0.16659 0.165001 87 148 67
-0.28842 0.168405 0.163937 88 146 69
-0.288103 0.169717 0.163444 79 131 70
-0.287311 0.170686 0.163338 58 88 51
-0.286754 0.171831 0.163038 40 51 30
-0.298577 0.149949 0.166804 115 210 78
-0.297804 0.150894 0.1667 93 188 59
-0.297031 0.15184 0.166596 80 182 55
-0.296257 0.152786 0.166492 78 179 54
-0.295725 0.153885 0.1662 74 172 52
-0.29495 0.154833 0.166096 68 166 50
-0.293935 0.155627 0.16618 69 164 57
-0.29316 0.156575 0.166075 120 215 73
-0.292384 0.157523 0.165971 127 230 81
-0.291136 0.158156 0.166241 128 226 82
-0.289658 0.158629 0.166697 126 223 82
-0.2875 0.158628 0.167702 128 216 77
-0.286504 0.159409 0.167782 124 206 78
-0.285965 0.160505 0.167495 106 170 70
-0.285424 0.161604 0.167208 91 152 66
-0.286715 0.164009 0.165427 88 149 66
-0.287798 0.166295 0.163802 87 146 67
-0.288189 0.168108 0.162731 90 144 68
-0.287635 0.169247 0.16243 79 113 65
-0.287079 0.170389 0.162129 50 66 44
-0.299123 0.148712 0.165724 121 167 63
-0.29835 0.149657 0.16562 107 203 74
-0.297577 0.150602 0.165515 88 185 57
-0.296804 0.151547 0.165411 79 183 54
-0.296031 0.152493 0.165307 76 178 54
-0.295257 0.15344 0.165202 72 170 53
-0.294482 0.154387 0.165098 69 164 50
-0.293708 0.155334 0.164993 89 172 58
-0.292694 0.156126 0.165077 128 230 82
-0.291683 0.156917 0.165161 131 232 81
-0.290204 0.157394 0.16562 130 230 80
-0.287812 0.157246 0.166817 126 224 78
-0.286817 0.158028 0.166897 134 213 74
-0.285824 0.158808 0.166978 118 190 75
-0.285286 0.159901 0.166691 97 161 69
-0.285199 0.161315 0.166032 87 150 67
-0.286719 0.163881 0.16405 85 149 68
-0.287568 0.166 0.162603 86 146 67
-0.287721 0.16764 0.16172 84 140 69
-0.287167 0.168777 0.161419 69 97 53
-0.286612 0.169917 0.161116 46 56 31
-0.298651 0.148272 0.164729 123 194 70
-0.297636 0.149069 0.164813 99 195 66
-0.296865 0.150012 0.164709 84 184 57
-0.296335 0.151105 0.164415 79 182 56
-0.295804 0.152201 0.164121 74 177 54
-0.29503 0.153147 0.164016 69 169 54
-0.293776 0.153788 0.164291 69 163 55
-0.293003 0.154734 0.164186 115 196 65
-0.291993 0.155525 0.164271 132 226 86
-0.290749 0.15616 0.164544 143 239 87
-0.288123 0.155868 0.165934 137 233 81
-0.286901 0.156496 0.1662 125 223 77
-0.285911 0.157275 0.166281 131 211 77
-0.285148 0.158209 0.166178 111 175 72
-0.284835 0.159455 0.165705 92 153 67
-0.285428 0.161345 0.164482 86 150 67
-0.286491 0.163588 0.162861 85 148 67
-0.287338 0.165705 0.161404 87 145 67
-0.287255 0.167174 0.160712 76 121 67
-0.286146 0.169447 0.160105 39 50 29
-0.298181 0.147834 0.163735 114 203 77
-0.297167 0.14863 0.163821 91 187 63
-0.296397 0.149572 0.163716 80 181 58
-0.295867 0.150663 0.163421 80 181 59
-0.295095 0.151607 0.163317 75 179 58
-0.294083 0.1524 0.163402 68 168 57
-0.293073 0.153192 0.163487 76 169 63
-0.292065 0.153983 0.163572 126 221 79
-0.290825 0.15462 0.163846 122 206 79
-0.288664 0.154644 0.164867 140 231 88
-0.287441 0.155275 0.165135 135 230 80
-0.285997 0.15575 0.165587 128 219 77
-0.285236 0.156681 0.165484 123 203 79
-0.284924 0.157921 0.16501 103 163 71
-0.284385 0.159011 0.164721 90 151 67
-0.28543 0.161215 0.163114 86 150 67
-0.286263 0.163296 0.161671 85 148 67
-0.286875 0.165243 0.160401 88 143 67
-0.286556 0.166539 0.159902 74 104 55
-0.298726 0.1466 0.162658 114 167 69
-0.297712 0.147397 0.162744 107 203 74
-0.296699 0.148192 0.16283 85 182 59
-0.295689 0.148986 0.162916 84 181 59
-0.29492 0.149926 0.162811 94 190 64
-0.293912 0.150719 0.162897 84 197 72
-0.292906 0.151509 0.162982 77 177 69
-0.291198 0.151851 0.163633 94 188 72
-0.2902 0.152637 0.163717 118 227 89
-0.288743 0.153122 0.164175 103 183 69
-0.287752 0.153904 0.164258 120 209 79
-0.286083 0.154233 0.164897 123 224 78
-0.285099 0.15501 0.164978 133 215 76
-0.284788 0.156242 0.164505 115 187 77
-0.284251 0.157325 0.164216 98 156 69
-0.284386 0.158879 0.163364 87 151 66
-0.285432 0.161084 0.161743 85 150 66
-0.286035 0.163003 0.160482 86 147 66
-0.28618 0.164616 0.159595 82 135 68
-0.28586 0.165907 0.159096 66 88 45
-0.298256 0.146164 0.161668 120 185 71
-0.297243 0.14696 0.161755 96 191 68
-0.295992 0.14761 0.162033 80 178 59
-0.294746 0.148258 0.16231 100 191 66
-0.293268 0.148757 0.162774 136 224 84
-0.292269 0.149545 0.162859 119 239 98
-0.291505 0.150479 0.162755 116 223 84
-0.289813 0.150823 0.163403 123 224 82
-0.288593 0.151459 0.163673 102 212 88
-0.287605 0.152239 0.163756 96 170 76
-0.286167 0.152722 0.16421 123 221 76
-0.284516 0.153054 0.164845 120 223 80
-0.283762 0.153976 0.164742 131 211 79
-0.283894 0.1555 0.1639 107 173 72
-0.283804 0.156885 0.163238 93 153 67
-0.284839 0.15906 0.161624 86 151 65
-0.285434 0.160953 0.160369 85 148 65
-0.285806 0.16271 0.159292 88 145 67
-0.285719 0.164156 0.158597 74 118 67
-0.285168 0.165278 0.158293 50 72 44
-0.297787 0.145729 0.16068 111 194 71
-0.296535 0.146381 0.16096 89 184 61
-0.29481 0.146744 0.161621 80 178 57
-0.293336 0.147247 0.162087 106 196 68
-0.292339 0.148034 0.162172 130 216 77
-0.291344 0.148821 0.162257 103 204 71
-0.289889 0.149315 0.162717 105 202 67
-0.288672 0.149952 0.162988 142 231 82
-0.287233 0.150441 0.163444 147 234 87
-0.285579 0.150782 0.164081 135 217 80
-0.284604 0.151556 0.164162 135 232 85
-0.283631 0.152329 0.164243 126 218 78
-0.282659 0.153101 0.164324 122 205 81
-0.282566 0.154465 0.163669 99 162 68
-0.282914 0.156141 0.162636 88 153 66
-0.284841 0.158927 0.160258 85 151 66
-0.285436 0.160822 0.158991 84 146 68
-0.285578 0.162417 0.158102 88 142 70
-0.285029 0.163533 0.157798 68 94 59
-0.284708 0.164818 0.157296 40 60 38
-0.298574 0.144639 0.159412 113 179 74
-0.297562 0.145437 0.1595 104 195 70
-0.295351 0.14552 0.160554 84 178 57
-0.293875 0.146027 0.161023 93 178 56
-0.292643 0.146673 0.161299 120 200 70
-0.291649 0.147459 0.161384 119 211 77
-0.290426 0.148101 0.161658 98 187 62
-0.289207 0.14874 0.161931 117 196 69
-0.287767 0.149232 0.16239 140 232 87
-0.285888 0.149435 0.163217 132 225 81
-0.284692 0.150065 0.163484 107 198 66
-0.28372 0.150837 0.163565 99 201 63
-0.282751 0.151609 0.163646 129 204 70
-0.282001 0.152525 0.163543 111 185 81
-0.281687 0.153736 0.163072 93 154 68
-0.282691 0.155856 0.161476 88 150 65
-0.285297 0.159109 0.158499 85 149 67
-0.285438 0.160691 0.157611 84 144 68
-0.28535 0.162124 0.156912 79 133 70
-0.284571 0.163076 0.156805 64 81 44
-0.28402 0.164193 0.1565 41 56 28
-0.298349 0.144347 0.15823 118 193 76
-0.297094 0.145003 0.158516 97 188 65
-0.294414 0.144807 0.159959 80 174 56
-0.293181 0.145455 0.160237 106 187 61
-0.292187 0.146243 0.160323 126 206 74
-0.291194 0.147029 0.160409 102 198 73
-0.289973 0.14767 0.160685 98 186 63
-0.288529 0.148167 0.161149 131 206 73
-0.286419 0.148233 0.16217 133 220 81
-0.285222 0.148865 0.162438 107 202 69
-0.28425 0.149638 0.16252 86 176 51
-0.283281 0.15041 0.162602 90 181 61
-0.282531 0.151326 0.162499 127 208 83
-0.281782 0.152242 0.162396 105 167 73
-0.281249 0.153305 0.162108 91 153 65
-0.28269 0.155721 0.160126 87 149 66
-0.285299 0.158976 0.157123 85 147 67
-0.285211 0.160399 0.156425 88 147 69
-0.285122 0.161831 0.155722 68 107 66
-0.284343 0.162783 0.155614 47 68 38
-0.299629 0.143538 0.156562 125 175 70
-0.298123 0.144055 0.157049 114 197 73
-0.295667 0.144007 0.158314 90 180 60
-0.293719 0.144238 0.159175 81 170 58
-0.292724 0.145027 0.159263 117 195 70
-0.291731 0.145814 0.15935 126 204 74
-0.29074 0.146599 0.159437 95 185 67
-0.289521 0.147241 0.159714 101 192 68
-0.2874 0.147313 0.160747 134 215 80
-0.285752 0.147666 0.161393 123 210 77
-0.28478 0.14844 0.161476 84 184 63
-0.28381 0.149213 0.161559 73 170 50
-0.283061 0.150128 0.161456 106 180 63
-0.282312 0.151043 0.161352 121 194 83
-0.281562 0.151959 0.161249 101 156 67
-0.281029 0.153022 0.160959 90 150 66
-0.283581 0.156195 0.158003 84 148 68
-0.285301 0.158843 0.155743 83 145 69
-0.285213 0.160266 0.155039 87 138 67
-0.284893 0.161538 0.154531 68 86 48
-0.284114 0.16249 0.154424 42 57 30
-0.297898 0.143763 0.155868 106 190 69
-0.295443 0.143717 0.157142 84 174 59
-0.293496 0.14395 0.158009 82 168 60
-0.292501 0.144739 0.158098 112 189 71
-0.291276 0.145385 0.158379 111 188 67
-0.290287 0.146171 0.158466 97 176 60
-0.28907 0.146813 0.158745 114 195 72
-0.28673 0.146747 0.159971 130 217 84
-0.28531 0.147242 0.160432 110 197 74
-0.28434 0.148015 0.160516 74 170 59
-0.283591 0.14893 0.160412 75 173 55
-0.282842 0.149845 0.160309 120 192 69
-0.282092 0.15076 0.160205 111 183 77
-0.281342 0.151676 0.160102 95 152 64
-0.281026 0.152886 0.159622 88 148 67
-0.284256 0.15652 0.156052 85 148 68
-0.285074 0.158551 0.15456 85 146 69
-0.284985 0.159974 0.153851 74 127 68
-0.284665 0.161245 0.153341 57 69 38
-0.297672 0.143471 0.154686 98 182 65
-0.295219 0.143427 0.155969 82 171 57
-0.293273 0.143662 0.156843 78 167 56
-0.292279 0.144451 0.156933 87 171 59
-0.291054 0.145098 0.157216 84 166 56
-0.290065 0.145884 0.157304 98 170 58
-0.28862 0.146386 0.157778 124 197 73
-0.28651 0.146463 0.15882 123 209 80
-0.28509 0.146959 0.159284 96 185 68
-0.28412 0.147733 0.159369 74 163 54
-0.283371 0.148647 0.159266 87 179 61
-0.282622 0.149562 0.159162 123 200 77
-0.281872 0.150478 0.159058 103 169 71
-0.281122 0.151394 0.158954 91 150 66
-0.281024 0.152749 0.158281 89 148 66
-0.284937 0.156848 0.154084 85 148 66
-0.285076 0.158417 0.153175 88 145 68
-0.284757 0.159682 0.152664 65 100 64
-0.284437 0.160952 0.15215 47 60 37
-0.297447 0.143179 0.153505 90 176 60
-0.295473 0.143417 0.154399 82 168 50
-0.29305 0.143374 0.155677 77 164 49
-0.292056 0.144163 0.155767 72 158 49
-0.290832 0.144811 0.156053 67 151 51
-0.289842 0.145597 0.156142 90 171 62
-0.288398 0.1461 0.15662 114 192 71
-0.286066 0.146039 0.15786 106 187 70
-0.284871 0.146675 0.158137 83 173 59
-0.283901 0.14745 0.158223 79 164 51
-0.283152 0.148364 0.158119 102 186 64
-0.282402 0.149279 0.158015 118 197 81
-0.281653 0.150195 0.15791 99 157 69
-0.28112 0.151256 0.157616 89 149 67
-0.281239 0.152759 0.156745 89 148 66
-0.284938 0.156712 0.152703 85 146 66
-0.284849 0.158125 0.15199 86 139 68
-0.284529 0.159389 0.151476 63 78 50
-0.284208 0.160659 0.150959 42 56 34
-0.297221 0.142887 0.152323 86 173 57
-0.295248 0.143126 0.153224 79 168 52
