ply
format ascii 1.0
element vertex 1255
property float x
property float y
property float z
property uchar diffuse_red
property uchar diffuse_green
property uchar diffuse_blue
end_header
-0.307831 0.129298 0.211337 100 212 76
-0.306645 0.129957 0.211502 118 212 70
-0.305464 0.130614 0.211666 133 220 82
-0.305242 0.131759 0.211311 97 163 68
-0.30478 0.132785 0.211085 64 94 44
-0.326579 0.10039 0.214441 66 98 31
-0.326155 0.101358 0.214222 92 130 46
-0.32547 0.102238 0.214128 118 170 63
-0.324526 0.103027 0.214161 131 207 76
-0.323841 0.103906 0.214068 146 219 88
-0.3229 0.104693 0.2141 149 230 88
-0.322215 0.105573 0.214007 130 221 87
-0.321021 0.106264 0.214166 126 217 86
-0.319831 0.106952 0.214323 123 216 85
-0.319148 0.107829 0.21423 115 214 80
-0.318465 0.108707 0.214137 109 212 74
-0.318031 0.109683 0.213918 105 212 70
-0.317346 0.110563 0.213825 103 210 67
-0.31741 0.111743 0.213352 102 208 67
-0.317474 0.112932 0.212876 104 206 70
-0.317537 0.114129 0.212397 119 236 85
-0.317096 0.115123 0.212174 101 207 72
-0.316402 0.116015 0.212079 94 195 61
-0.315958 0.117013 0.211855 98 199 60
-0.315513 0.118015 0.211631 109 211 66
-0.314817 0.118909 0.211536 125 225 71
-0.314369 0.119915 0.211311 127 220 71
-0.313671 0.120811 0.211215 129 216 71
-0.312973 0.121708 0.21112 127 215 74
-0.312522 0.122719 0.210894 125 219 74
-0.311822 0.123618 0.210799 117 224 75
-0.311121 0.124517 0.210703 93 207 66
-0.310421 0.125417 0.210608 84 189 60
-0.30972 0.126317 0.210512 98 199 64
-0.309018 0.127218 0.210417 128 211 69
-0.308317 0.128119 0.210321 120 224 86
-0.306888 0.128661 0.210619 116 213 84
-0.305948 0.12944 0.210654 134 198 75
-0.305248 0.130339 0.210559 114 178 80
-0.305265 0.131606 0.21007 70 99 49
-0.325 0.101874 0.213163 78 101 40
-0.324057 0.102662 0.213197 94 142 51
-0.323373 0.103541 0.213103 117 173 58
-0.322432 0.104328 0.213136 134 214 81
-0.321239 0.10502 0.213296 153 226 93
-0.320051 0.105709 0.213456 156 233 93
-0.319118 0.106491 0.213488 143 231 92
-0.318187 0.107271 0.213521 131 225 86
-0.317505 0.108146 0.213428 120 219 78
-0.317072 0.109118 0.213209 111 214 73
-0.316389 0.109995 0.213115 107 210 68
-0.316201 0.111071 0.212769 103 209 69
-0.316509 0.112353 0.212165 102 208 69
-0.31607 0.113339 0.211942 130 234 77
-0.316129 0.114535 0.211461 106 207 70
-0.315937 0.115634 0.211107 97 195 60
-0.315493 0.116631 0.210882 97 197 60
-0.314798 0.117523 0.210787 106 209 66
-0.314352 0.118525 0.210561 119 220 69
-0.313656 0.119419 0.210466 119 217 71
-0.312959 0.120313 0.21037 121 213 69
-0.312262 0.121208 0.210275 122 215 72
-0.311811 0.122217 0.210048 121 218 74
-0.311112 0.123113 0.209953 116 223 75
-0.310659 0.124126 0.209725 94 210 68
-0.309714 0.124909 0.209762 82 189 60
-0.309014 0.125807 0.209666 95 196 61
-0.308314 0.126706 0.20957 119 208 65
-0.307372 0.127487 0.209607 116 230 83
-0.305712 0.127911 0.210037 124 231 83
-0.305492 0.129045 0.209679 125 198 72
-0.305271 0.130185 0.209319 85 137 61
-0.322905 0.103176 0.21214 78 91 31
-0.321711 0.103871 0.212302 92 137 49
-0.320522 0.104562 0.212463 118 166 56
-0.319589 0.105344 0.212497 134 207 80
-0.318408 0.106032 0.212657 150 226 88
-0.317231 0.106717 0.212816 148 235 86
-0.316305 0.107494 0.212849 135 232 81
-0.315626 0.108365 0.212756 121 221 76
-0.315438 0.109431 0.21241 112 214 71
-0.315495 0.110601 0.211935 105 211 72
-0.315304 0.111678 0.211586 101 210 68
-0.315113 0.112761 0.211235 138 230 71
-0.315168 0.113951 0.210752 107 210 72
-0.315223 0.115149 0.210267 96 194 62
-0.315029 0.11625 0.20991 95 194 61
-0.314583 0.117248 0.209683 104 207 66
-0.313888 0.118141 0.209588 115 218 69
-0.313192 0.119034 0.209493 117 218 72
-0.312496 0.119928 0.209397 121 216 69
-0.3118 0.120822 0.209302 122 217 69
-0.311103 0.121716 0.209206 122 221 73
-0.310651 0.122724 0.208978 116 222 78
-0.309953 0.123621 0.208882 99 216 70
-0.309254 0.124518 0.208786 83 192 60
-0.308312 0.125299 0.208823 95 194 59
-0.307131 0.125963 0.208993 111 203 65
-0.306194 0.126741 0.209029 120 227 82
-0.305258 0.127518 0.209065 133 230 87
-0.304799 0.128531 0.208838 112 170 76
-0.318878 0.104888 0.211667 90 128 48
-0.3177 0.105574 0.211829 114 175 57
-0.316281 0.106165 0.212116 139 213 75
-0.315115 0.106847 0.212275 146 234 86
-0.314438 0.107715 0.212182 134 234 84
-0.314492 0.108871 0.211709 118 221 77
-0.314301 0.109937 0.211361 110 215 73
-0.314109 0.111009 0.211012 104 212 70
-0.314161 0.112186 0.210531 141 227 75
-0.314213 0.11337 0.210048 103 218 81
-0.314265 0.114563 0.209562 91 194 65
-0.314317 0.115764 0.209072 90 192 60
-0.313872 0.116759 0.208845 103 207 64
-0.313425 0.117758 0.208617 115 219 68
-0.31273 0.11865 0.208521 119 223 71
-0.311543 0.119324 0.208691 121 221 70
-0.310605 0.120105 0.208728 122 221 70
-0.309911 0.120996 0.208632 123 225 72
-0.308974 0.121776 0.208669 119 227 78
-0.307799 0.122442 0.208838 105 224 71
-0.305915 0.12277 0.209398 83 198 63
-0.305225 0.123655 0.209303 95 192 61
-0.304536 0.12454 0.209208 103 203 69
-0.303845 0.125426 0.209113 117 222 82
-0.303859 0.12666 0.208624 128 220 85
-0.304346 0.128138 0.207867 104 146 67
-0.315094 0.105525 0.211546 105 156 50
-0.314176 0.106298 0.211579 133 199 68
-0.313502 0.107163 0.211486 139 225 82
-0.312828 0.108029 0.211393 125 228 82
-0.312876 0.109183 0.210919 113 220 74
-0.31341 0.110541 0.210185 114 216 71
-0.313215 0.111614 0.209833 142 224 75
-0.313264 0.112793 0.209348 105 227 88
-0.313067 0.113878 0.208992 88 191 65
-0.31287 0.114967 0.208634 89 190 59
-0.31267 0.116062 0.208275 103 205 62
-0.311979 0.116949 0.20818 116 220 67
-0.311044 0.117729 0.208217 122 229 73
-0.31011 0.118508 0.208254 127 225 74
-0.309178 0.119286 0.208291 128 225 76
-0.308008 0.119954 0.208459 126 230 75
-0.30708 0.120729 0.208495 124 232 80
-0.306154 0.121503 0.208532 123 231 76
-0.30523 0.122276 0.208568 123 217 73
-0.304542 0.123159 0.208473 144 216 72
-0.303385 0.123817 0.20864 142 225 76
-0.302698 0.124699 0.208545 135 224 79
-0.302475 0.125811 0.208188 124 210 79
-0.302952 0.127277 0.207432 95 127 60
-0.304397 0.130501 0.205623 33 59 28
-0.314158 0.104982 0.210854 69 104 36
-0.313244 0.105753 0.210888 98 154 54
-0.312572 0.106615 0.210795 124 197 72
-0.311899 0.107478 0.210702 131 222 82
-0.311465 0.108437 0.210482 118 224 77
-0.311508 0.10959 0.210005 118 219 68
-0.312518 0.111145 0.209008 143 226 71
-0.312808 0.112421 0.208391 114 236 92
-0.312366 0.113401 0.208164 95 192 70
-0.311924 0.114384 0.207938 97 192 64
-0.31148 0.11537 0.20771 112 205 63
-0.310791 0.116253 0.207615 125 222 69
-0.310103 0.117137 0.20752 131 230 76
-0.309173 0.117914 0.207557 132 222 76
-0.308244 0.118691 0.207594 132 221 78
-0.30708 0.119358 0.207763 133 229 81
-0.30592 0.120022 0.207931 134 236 90
-0.303831 0.120251 0.20862 138 241 90
-0.302227 0.120693 0.209043 137 231 86
-0.301547 0.121565 0.208949 139 220 80
-0.300867 0.122438 0.208855 123 208 74
-0.300415 0.123422 0.208632 128 205 69
-0.300646 0.124745 0.208018 119 197 73
-0.301572 0.126424 0.207001 90 113 55
-0.303218 0.128485 0.205565 54 51 33
-0.303942 0.130103 0.204649 33 56 27
-0.312317 0.105211 0.2102 72 106 37
-0.311409 0.105979 0.210234 108 160 53
-0.310739 0.106838 0.210141 127 202 72
-0.310306 0.107792 0.209921 120 217 80
-0.310345 0.108938 0.209445 113 213 71
-0.310623 0.11019 0.208837 135 229 78
-0.312353 0.112049 0.207435 122 239 95
-0.311911 0.113028 0.207208 111 213 80
-0.311468 0.11401 0.20698 117 211 79
-0.310782 0.11489 0.206884 132 218 75
-0.310095 0.115772 0.206789 138 224 77
-0.309408 0.116654 0.206694 132 219 76
-0.30848 0.11743 0.206732 125 209 72
-0.307555 0.118205 0.206769 126 208 74
-0.306394 0.118871 0.206939 127 208 78
-0.304302 0.119107 0.207634 119 199 79
-0.302696 0.119554 0.208061 112 193 74
-0.301788 0.120318 0.208097 102 177 65
-0.300881 0.121081 0.208132 91 158 55
-0.300202 0.121951 0.208038 80 146 50
-0.29975 0.122933 0.207814 114 168 53
-0.299523 0.124028 0.207459 118 189 70
-0.29975 0.125354 0.206839 91 108 57
-0.301364 0.127387 0.205411 54 49 34
-0.303487 0.129706 0.203676 34 55 27
-0.310728 0.105529 0.209424 88 113 39
-0.309824 0.106295 0.209459 120 170 58
-0.309156 0.107152 0.209366 125 206 74
-0.309191 0.108292 0.208889 115 206 78
-0.308991 0.109344 0.208539 144 234 84
-0.311174 0.11138 0.206879 142 247 97
-0.311457 0.112655 0.206253 133 244 100
-0.310772 0.113534 0.206157 122 224 94
-0.310328 0.114516 0.205928 117 209 82
-0.309642 0.115396 0.205833 110 194 73
-0.308715 0.116172 0.205871 108 189 68
-0.308029 0.117053 0.205776 112 194 70
-0.307105 0.117827 0.205814 111 189 73
-0.305946 0.118494 0.205986 98 167 67
-0.303166 0.118414 0.207079 79 141 50
-0.302257 0.119179 0.207116 67 135 46
-0.30135 0.119943 0.207152 55 127 34
-0.300671 0.120813 0.207058 46 116 29
-0.299992 0.121684 0.206963 51 115 30
-0.299313 0.122555 0.206869 100 145 42
-0.29886 0.123537 0.206643 119 185 70
-0.298857 0.124746 0.206153 95 110 59
-0.299996 0.126536 0.204992 55 52 34
-0.302796 0.12919 0.202845 36 53 24
-0.308448 0.105573 0.209034 105 142 49
-0.307783 0.106426 0.208941 122 193 67
-0.30735 0.107372 0.208721 110 198 74
-0.306915 0.10832 0.208501 107 187 66
-0.30811 0.10994 0.207376 89 177 62
-0.310762 0.112183 0.205434 80 153 57
-0.310561 0.113262 0.205069 73 134 46
-0.309875 0.114141 0.204974 70 125 37
-0.309189 0.115021 0.204878 67 125 37
-0.308265 0.115797 0.204917 77 143 49
-0.307579 0.116676 0.204822 90 162 64
-0.306656 0.11745 0.204861 86 157 69
-0.305264 0.118011 0.205168 69 132 57
-0.302726 0.118041 0.206135 60 128 44
-0.301818 0.118806 0.206172 51 134 45
-0.30114 0.119675 0.206077 38 129 31
-0.300462 0.120546 0.205983 27 117 26
-0.299783 0.121416 0.205888 42 116 24
-0.299104 0.122287 0.205793 87 133 40
-0.298424 0.123159 0.205698 118 187 74
-0.298194 0.124254 0.205339 95 117 64
-0.297963 0.125354 0.204977 53 58 37
-0.30258 0.128914 0.201737 34 52 27
-0.307115 0.10598 0.20814 117 176 60
-0.306681 0.106923 0.207919 108 192 68
-0.306016 0.107776 0.207826 86 164 54
-0.306041 0.108911 0.207347 60 139 48
-0.310551 0.111912 0.204348 43 120 38
-0.309868 0.112789 0.204252 30 114 25
-0.309423 0.113768 0.204021 32 116 22
-0.308738 0.114646 0.203925 45 122 27
-0.308053 0.115525 0.20383 60 128 36
-0.30713 0.1163 0.203869 69 130 42
-0.306444 0.117179 0.203773 68 128 44
-0.305053 0.117741 0.204084 63 130 45
-0.302516 0.117773 0.20506 67 138 48
-0.301609 0.118538 0.205098 64 147 51
-0.300931 0.119408 0.205003 51 135 40
-0.300252 0.120278 0.204908 32 117 29
-0.299573 0.121149 0.204813 41 116 25
-0.298668 0.121911 0.204851 73 126 43
-0.297989 0.122782 0.204756 115 188 76
-0.297759 0.123874 0.204394 91 127 69
-0.297526 0.124972 0.204031 50 67 41
-0.302128 0.12852 0.20077 31 51 30
-0.305787 0.106384 0.207248 109 186 65
-0.305352 0.107327 0.207027 82 161 55
-0.305145 0.108365 0.206675 55 137 47
-0.31034 0.111641 0.203263 42 121 38
-0.309897 0.112619 0.20303 30 114 27
-0.309212 0.113497 0.202934 36 113 22
-0.308527 0.114375 0.202838 52 121 28
-0.307841 0.115254 0.202742 66 138 40
-0.307155 0.116133 0.202645 70 147 48
-0.306232 0.116908 0.202686 69 144 49
-0.304842 0.117471 0.203 76 147 51
-0.302536 0.11761 0.20385 88 159 55
-0.301628 0.118376 0.203889 83 164 58
-0.300721 0.11914 0.203928 65 150 48
-0.300042 0.12001 0.203833 40 122 33
-0.299363 0.120881 0.203737 39 118 26
-0.298684 0.121752 0.203642 60 123 45
-0.298004 0.122624 0.203547 113 185 73
-0.297548 0.123606 0.203317 89 138 74
-0.297091 0.124592 0.203086 49 74 44
-0.301912 0.128245 0.199664 33 51 29
-0.305582 0.106121 0.206194 108 185 68
-0.304919 0.106971 0.206101 83 167 61
-0.304483 0.107915 0.205878 61 141 47
-0.31037 0.11147 0.202039 45 124 42
-0.309926 0.112448 0.201805 27 117 30
-0.30924 0.113327 0.201708 35 113 22
-0.308554 0.114206 0.201612 56 122 32
-0.307867 0.115086 0.201515 76 149 46
-0.306943 0.115862 0.201557 84 163 53
-0.306021 0.116637 0.201599 88 164 55
-0.304865 0.117306 0.201778 93 169 58
-0.302557 0.117446 0.202638 97 174 61
-0.301647 0.118213 0.202678 90 175 62
-0.300512 0.118872 0.202853 76 161 54
-0.299833 0.119743 0.202757 49 128 42
-0.299154 0.120613 0.202662 44 118 26
-0.298474 0.121484 0.202566 53 124 44
-0.297794 0.122356 0.20247 113 182 66
-0.297338 0.123338 0.202239 90 151 80
-0.29688 0.124323 0.202007 52 79 45
-0.301461 0.127851 0.1987 36 51 25
-0.305377 0.105858 0.205141 108 182 68
-0.304714 0.106708 0.205047 88 173 65
-0.304278 0.107651 0.204823 68 147 49
-0.310399 0.111298 0.200813 48 129 42
-0.309954 0.112276 0.200577 30 118 34
-0.309268 0.113156 0.20048 33 114 22
-0.308581 0.114037 0.200383 53 123 31
-0.307655 0.114814 0.200426 78 153 44
-0.306969 0.115695 0.200329 93 172 55
-0.306045 0.116471 0.200372 98 179 59
-0.304653 0.117035 0.200692 101 183 60
-0.302577 0.117282 0.201423 102 184 62
-0.301437 0.117944 0.201601 96 179 61
-0.300529 0.11871 0.201641 81 166 54
-0.299623 0.119475 0.201682 53 140 46
-0.298944 0.120346 0.201586 45 121 33
-0.298264 0.121217 0.20149 55 133 45
-0.297584 0.122088 0.201394 116 179 58
-0.297128 0.12307 0.201161 93 162 79
-0.29667 0.124055 0.200928 56 83 45
-0.300312 0.127107 0.198168 39 51 25
-0.305172 0.105595 0.204087 110 175 64
-0.304509 0.106445 0.203993 95 178 66
-0.304072 0.107388 0.203767 72 151 51
-0.310429 0.111125 0.199584 54 135 43
-0.309743 0.112004 0.199487 42 120 34
-0.309056 0.112884 0.19939 37 116 25
-0.308369 0.113765 0.199293 50 124 35
-0.307682 0.114645 0.199196 80 156 45
-0.306756 0.115423 0.199239 99 180 56
-0.305833 0.116199 0.199283 105 189 63
-0.304442 0.116765 0.199606 107 190 65
-0.302367 0.117013 0.200344 105 186 65
-0.301227 0.117676 0.200523 98 181 62
-0.30032 0.118442 0.200565 83 171 57
-0.299413 0.119207 0.200606 57 149 50
-0.298734 0.120078 0.20051 51 130 44
-0.298054 0.120949 0.200414 65 148 45
-0.297374 0.12182 0.200318 121 177 53
-0.296917 0.122802 0.200083 99 172 79
-0.296459 0.123787 0.199849 66 82 45
-0.299173 0.126368 0.197641 43 50 28
-0.304967 0.105331 0.203032 114 164 60
-0.304304 0.106182 0.202938 101 182 67
-0.30364 0.107032 0.202844 76 159 55
-0.310217 0.110853 0.198495 59 141 44
-0.30953 0.111732 0.198397 50 126 38
-0.308844 0.112612 0.1983 39 121 33
-0.308157 0.113493 0.198202 53 129 39
-0.307469 0.114373 0.198105 83 159 47
-0.306544 0.115151 0.198149 103 185 60
-0.305621 0.115928 0.198194 110 194 68
-0.303997 0.11639 0.198661 110 193 69
-0.301927 0.11664 0.199404 108 190 65
-0.301017 0.117408 0.199446 102 185 62
-0.30011 0.118174 0.199488 85 175 59
-0.299204 0.118939 0.19953 63 155 50
-0.298524 0.11981 0.199434 57 142 44
-0.297844 0.120681 0.199337 77 155 46
-0.297164 0.121553 0.199241 118 175 56
-0.296707 0.122534 0.199005 104 184 78
-0.296472 0.123629 0.19863 79 79 43
-0.298729 0.125981 0.196688 50 50 27
-0.304535 0.104978 0.202112 114 154 58
-0.304099 0.105918 0.201884 106 185 69
-0.303435 0.106769 0.201789 81 167 58
-0.310246 0.11068 0.197262 66 148 45
-0.309559 0.11156 0.197164 55 133 41
-0.308632 0.11234 0.197209 47 126 40
-0.307945 0.113221 0.197112 64 138 42
-0.307257 0.114101 0.197014 87 160 49
-0.306332 0.114879 0.197059 106 188 62
-0.305409 0.115656 0.197104 112 198 70
-0.303786 0.116119 0.197576 112 197 70
-0.301716 0.116372 0.198325 111 193 68
-0.300807 0.117139 0.198368 105 188 66
-0.2999 0.117906 0.198412 89 179 60
-0.298994 0.118671 0.198454 69 164 52
-0.298314 0.119542 0.198358 62 147 45
-0.297634 0.120413 0.198261 86 163 48
-0.296954 0.121285 0.198164 112 174 56
-0.29672 0.122376 0.197787 119 192 78
-0.296485 0.123471 0.197408 85 80 54
-0.298287 0.125593 0.195737 48 54 31
-0.30433 0.104715 0.201058 107 143 57
-0.303667 0.105564 0.200963 110 186 69
-0.30323 0.106505 0.200734 89 174 60
-0.308419 0.112068 0.196119 55 131 44
-0.307732 0.112948 0.196021 75 146 46
-0.307045 0.113829 0.195923 87 163 54
-0.30612 0.114608 0.195969 106 190 63
-0.304961 0.115281 0.196159 113 199 69
-0.303342 0.115745 0.196634 114 198 69
-0.301506 0.116103 0.197247 113 195 68
-0.300597 0.116871 0.197291 107 190 66
-0.29969 0.117638 0.197335 94 182 63
-0.298784 0.118404 0.197378 75 168 53
-0.298104 0.119274 0.197281 66 151 46
-0.297424 0.120145 0.197184 88 166 49
-0.296744 0.121017 0.197087 102 175 56
-0.29651 0.122107 0.196707 126 196 78
-0.296274 0.123202 0.196326 84 92 62
-0.297845 0.125207 0.194788 44 58 34
-0.303898 0.104363 0.20014 100 138 58
-0.303236 0.105211 0.200045 112 186 67
-0.302799 0.106151 0.199815 93 181 61
-0.308207 0.111796 0.195028 60 137 45
-0.30752 0.112676 0.19493 81 149 46
-0.306595 0.113455 0.194977 83 167 59
-0.305671 0.114233 0.195024 103 191 62
-0.304749 0.11501 0.195071 113 199 67
-0.302899 0.115372 0.195694 113 199 68
-0.301296 0.115834 0.196168 113 197 68
-0.30016 0.116499 0.196355 110 193 69
-0.29948 0.11737 0.196257 99 186 66
-0.298574 0.118136 0.196302 82 171 56
-0.297894 0.119006 0.196205 70 153 50
-0.297214 0.119877 0.196107 85 164 49
-0.296534 0.120749 0.19601 91 177 61
-0.296299 0.121839 0.195628 127 202 74
-0.296286 0.123044 0.1951 79 109 63
-0.297631 0.124935 0.193694 46 63 35
-0.303468 0.104011 0.199224 91 127 48
-0.302806 0.104859 0.199129 114 180 65
-0.302368 0.105797 0.198897 98 184 66
-0.302155 0.106829 0.198528 76 163 56
-0.308922 0.110743 0.193889 65 153 49
-0.308234 0.111624 0.193791 64 142 45
-0.30707 0.112304 0.193985 81 149 43
-0.306383 0.113184 0.193887 80 170 62
-0.305459 0.113962 0.193934 101 189 61
-0.304537 0.114739 0.193982 112 199 68
-0.302688 0.115102 0.19461 114 201 70
-0.301086 0.115565 0.195089 116 200 71
-0.29995 0.116231 0.195278 114 197 70
-0.299044 0.116997 0.195323 103 189 67
-0.298364 0.117868 0.195226 84 174 60
-0.297684 0.118738 0.195128 69 157 52
-0.297004 0.119609 0.19503 79 160 50
-0.296324 0.120481 0.194933 87 176 60
-0.295865 0.121461 0.194692 127 200 69
-0.296075 0.122774 0.194016 77 128 76
-0.297417 0.124663 0.1926 44 64 41
-0.303263 0.103749 0.198172 95 113 41
-0.302376 0.104507 0.198214 117 173 63
-0.301939 0.105444 0.197981 100 187 70
-0.30195 0.106566 0.197472 80 170 61
-0.30871 0.11047 0.192797 69 156 50
-0.308022 0.111351 0.192698 66 147 45
-0.306857 0.112032 0.192895 75 149 45
-0.305934 0.112811 0.192944 80 173 62
-0.305012 0.113588 0.192992 102 185 58
-0.304091 0.114365 0.19304 115 198 68
-0.302477 0.114833 0.193527 120 204 74
-0.300876 0.115297 0.19401 122 204 75
-0.299513 0.11586 0.194345 118 200 73
-0.298834 0.116729 0.194247 105 191 70
-0.298154 0.1176 0.194149 86 177 62
-0.297474 0.11847 0.194051 69 160 53
-0.296794 0.119341 0.193953 73 157 50
-0.296113 0.120213 0.193855 88 177 59
-0.295655 0.121193 0.193613 126 191 64
-0.29564 0.122395 0.193079 81 149 83
-0.296977 0.124278 0.191654 51 65 34
-0.302834 0.103398 0.197258 86 94 37
-0.301948 0.104156 0.1973 114 164 62
-0.30151 0.105092 0.197067 105 188 72
-0.301295 0.10612 0.196694 83 174 62
-0.308497 0.110198 0.191705 72 160 48
-0.307809 0.111079 0.191606 67 151 44
-0.306408 0.11166 0.191953 71 148 45
-0.305486 0.112439 0.192002 81 172 59
-0.304565 0.113216 0.192052 102 177 55
-0.303646 0.113992 0.1921 121 196 67
-0.302035 0.114461 0.19259 125 205 76
-0.300665 0.115028 0.192931 124 204 77
-0.299304 0.115592 0.193269 118 200 75
-0.298624 0.116461 0.193171 106 193 70
-0.297945 0.117332 0.193072 87 180 62
-0.297264 0.118202 0.192974 69 164 55
-0.296584 0.119073 0.192876 69 156 50
-0.295903 0.119945 0.192778 91 175 56
-0.295444 0.120925 0.192534 127 187 62
-0.295429 0.122126 0.191996 88 165 84
-0.296763 0.124006 0.190561 60 58 33
-0.302405 0.103048 0.196346 70 74 40
-0.301744 0.103894 0.19625 111 159 65
-0.301083 0.10474 0.196155 108 190 71
-0.300644 0.105677 0.19592 88 178 62
-0.30596 0.111289 0.191013 69 149 48
-0.305039 0.112067 0.191063 87 171 54
-0.30412 0.112844 0.191113 101 172 55
-0.30297 0.113519 0.191311 118 193 67
-0.301824 0.114191 0.191508 123 200 74
-0.300455 0.114759 0.191851 124 200 75
-0.299094 0.115324 0.192192 115 196 73
-0.298414 0.116193 0.192094 103 191 69
-0.29751 0.11696 0.192142 89 183 63
-0.296831 0.117829 0.192043 72 168 57
-0.296151 0.1187 0.191945 69 156 51
-0.295693 0.119677 0.1917 92 170 52
-0.295012 0.120549 0.191601 123 183 61
-0.294995 0.121747 0.191061 101 180 80
-0.296324 0.123622 0.189619 74 51 34
-0.301977 0.102699 0.195436 54 63 33
-0.301316 0.103544 0.19534 103 145 54
-0.300656 0.104389 0.195244 109 186 67
-0.300217 0.105324 0.195008 91 180 64
-0.305513 0.110919 0.190075 69 150 47
-0.304359 0.111597 0.190275 89 164 50
-0.303442 0.112373 0.190325 92 172 57
-0.302296 0.113047 0.190524 109 192 66
-0.301384 0.11382 0.190574 118 195 70
-0.300017 0.114388 0.19092 124 194 71
-0.298884 0.115056 0.191116 113 190 70
-0.29798 0.115823 0.191164 103 190 67
-0.297301 0.116692 0.191066 92 187 63
-0.296621 0.117562 0.190967 76 171 57
-0.295941 0.118432 0.190868 71 157 50
-0.295483 0.119409 0.190622 90 167 50
-0.294801 0.12028 0.190523 115 182 62
-0.294784 0.121478 0.189979 115 187 79
-0.295885 0.123239 0.188678 77 54 44
-0.301773 0.102437 0.194386 41 58 27
-0.301112 0.103281 0.19429 101 132 46
-0.300452 0.104127 0.194194 112 183 66
-0.300012 0.105062 0.193957 92 182 65
-0.300463 0.106363 0.193151 75 164 56
-0.305516 0.109577 0.189389 68 153 50
-0.304832 0.110452 0.18929 70 149 48
-0.30345 0.111031 0.18964 88 161 51
-0.302537 0.111805 0.189691 88 172 60
-0.301855 0.112678 0.189592 107 192 62
-0.300944 0.11345 0.189642 112 194 64
-0.299807 0.11412 0.189841 112 187 64
-0.298674 0.114787 0.190039 111 189 64
-0.29777 0.115555 0.190089 107 194 67
-0.297091 0.116424 0.18999 96 190 65
-0.296188 0.11719 0.190039 80 175 56
-0.295509 0.118059 0.18994 73 159 48
-0.295051 0.119034 0.189693 87 166 50
-0.294591 0.120012 0.189445 107 183 63
-0.294351 0.121101 0.189047 121 185 77
-0.295447 0.122857 0.187739 73 67 57
-0.301569 0.102174 0.193337 35 57 24
-0.300908 0.103019 0.193241 98 113 43
-0.300248 0.103865 0.193144 115 179 66
-0.299586 0.10471 0.193048 97 185 68
-0.299367 0.105737 0.192667 77 168 59
-0.300261 0.107227 0.191563 68 154 51
-0.303458 0.109695 0.188959 70 150 48
-0.302777 0.110566 0.188859 81 158 49
-0.302096 0.111437 0.18876 83 174 62
-0.301415 0.112309 0.188661 107 189 60
-0.300277 0.11298 0.188862 113 201 69
-0.29937 0.11375 0.188912 112 200 70
-0.298465 0.114519 0.188962 114 199 70
-0.29756 0.115287 0.189013 110 197 71
-0.296881 0.116156 0.188914 99 191 67
-0.295979 0.116922 0.188964 83 176 57
-0.295299 0.117791 0.188864 73 161 49
-0.29484 0.118766 0.188616 82 164 49
-0.29438 0.119744 0.188366 104 184 63
-0.29414 0.120832 0.187966 122 187 76
-0.295235 0.122586 0.186648 67 89 66
-0.30026 0.102584 0.192476 84 89 44
-0.299822 0.103515 0.192237 113 176 68
-0.299161 0.10436 0.19214 100 189 69
-0.298721 0.105294 0.191901 82 171 59
-0.299831 0.10687 0.190649 70 156 51
-0.302327 0.109042 0.188481 69 151 48
-0.302337 0.1102 0.187931 76 155 50
-0.301657 0.11107 0.187831 85 174 60
-0.300748 0.111841 0.187883 105 185 59
-0.29984 0.112612 0.187934 115 200 67
-0.29916 0.113482 0.187834 116 202 69
-0.298255 0.114251 0.187886 115 202 72
-0.297351 0.115019 0.187937 114 201 72
-0.296448 0.115786 0.187987 104 194 69
-0.295547 0.116551 0.188038 84 178 59
-0.294868 0.11742 0.187939 71 163 49
-0.294409 0.118393 0.187689 77 163 49
-0.293949 0.11937 0.187439 100 183 62
-0.293488 0.120348 0.187188 119 189 74
-0.294798 0.122204 0.185712 67 113 75
-0.295228 0.123644 0.184835 39 54 34
-0.300057 0.102322 0.191428 66 72 47
-0.299397 0.103166 0.191332 108 170 65
-0.298957 0.104098 0.191091 103 191 69
-0.298296 0.104943 0.190994 87 173 59
-0.29918 0.106423 0.189882 72 159 51
-0.300752 0.108206 0.188307 67 153 49
-0.30144 0.109641 0.187307 74 155 49
-0.300989 0.110606 0.187056 88 171 55
-0.30031 0.111474 0.186956 105 181 56
-0.29963 0.112344 0.186856 118 201 68
-0.298724 0.113113 0.186908 108 207 80
-0.29782 0.113882 0.18696 143 193 79
-0.296917 0.11465 0.187012 138 198 76
-0.296016 0.115416 0.187063 112 196 71
-0.295117 0.116181 0.187115 88 182 62
-0.294438 0.117049 0.187015 72 164 51
-0.293979 0.118021 0.186764 74 161 50
-0.293519 0.118996 0.186513 98 181 58
-0.293277 0.12008 0.186109 116 185 70
-0.293917 0.121604 0.185088 74 133 78
-0.294566 0.123148 0.184053 47 51 31
-0.298753 0.10273 0.190572 109 161 57
-0.298533 0.103748 0.190186 108 191 69
-0.299417 0.105217 0.189069 90 175 61
-0.298752 0.106068 0.188971 74 161 53
-0.298973 0.107288 0.188283 66 153 49
-0.300322 0.108991 0.186838 72 154 49
-0.300552 0.11024 0.186131 90 168 54
-0.299873 0.111108 0.186031 102 180 58
-0.299194 0.111976 0.185931 117 200 73
-0.29829 0.112746 0.185984 86 149 81
-0.297387 0.113514 0.186036 110 142 57
-0.296485 0.114281 0.186089 116 169 62
-0.295364 0.114946 0.186292 105 191 68
-0.294247 0.115608 0.186495 87 186 63
-0.293571 0.116473 0.186396 72 166 54
-0.29355 0.117649 0.185841 72 160 49
-0.29309 0.118623 0.185589 97 175 55
-0.292628 0.119598 0.185336 114 184 69
-0.293484 0.121225 0.184157 81 142 76
-0.294129 0.122766 0.183117 56 46 36
-0.29855 0.102469 0.189526 114 142 50
-0.297891 0.103311 0.189428 114 191 68
-0.298548 0.104686 0.188455 92 179 63
-0.297884 0.105534 0.188357 74 163 54
-0.298101 0.106748 0.187668 65 153 49
-0.298098 0.107879 0.187123 72 154 50
-0.299437 0.109588 0.185666 88 167 54
-0.299211 0.110645 0.185261 98 179 61
-0.298534 0.111512 0.185161 115 197 74
-0.297408 0.112182 0.185367 73 138 86
-0.296287 0.112849 0.185572 67 98 44
-0.29517 0.113514 0.185776 103 150 56
-0.293405 0.113879 0.18643 107 190 69
-0.292733 0.114738 0.186331 92 189 66
-0.29206 0.115597 0.186232 75 168 54
-0.292251 0.116866 0.185529 75 159 46
-0.292443 0.118146 0.18482 97 171 51
-0.2922 0.119225 0.184413 114 185 67
-0.292831 0.120739 0.183384 95 153 72
-0.293692 0.122383 0.182183 69 49 36
-0.298127 0.102122 0.188625 110 122 47
-0.297687 0.10305 0.188382 117 189 67
-0.297683 0.104157 0.187844 95 184 67
-0.297679 0.105271 0.187303 75 166 55
-0.297015 0.10612 0.187205 65 155 49
-0.297228 0.107336 0.186511 72 155 49
-0.297222 0.10847 0.185962 84 164 54
-0.297881 0.109897 0.184953 92 181 65
-0.297207 0.110759 0.184854 110 195 76
-0.294992 0.110944 0.185815 77 158 87
-0.294322 0.1118 0.185716 54 74 41
-0.293435 0.11256 0.185768 115 151 52
-0.292549 0.113318 0.185819 129 200 71
-0.291879 0.114174 0.18572 106 197 71
-0.291423 0.115131 0.18547 78 172 58
-0.29118 0.116192 0.185068 74 159 48
-0.290936 0.117258 0.184665 93 168 50
-0.291555 0.118747 0.183646 114 187 66
-0.291962 0.120147 0.18277 109 161 74
-0.293479 0.122112 0.181092 70 57 48
-0.297706 0.101775 0.187726 91 102 47
-0.297048 0.102616 0.187629 120 189 70
-0.296607 0.103544 0.187384 99 188 71
-0.296817 0.104741 0.186696 78 165 57
-0.29681 0.105857 0.186151 65 153 49
-0.296146 0.106706 0.186053 71 151 47
-0.296135 0.107833 0.185504 84 165 56
-0.295687 0.108779 0.185254 102 193 72
-0.295018 0.109633 0.185155 117 204 83
-0.29435 0.110488 0.185056 87 164 83
-0.293681 0.111343 0.184957 61 71 52
-0.292796 0.112101 0.185009 127 169 64
-0.292127 0.112956 0.184909 141 216 81
-0.291458 0.113811 0.18481 111 204 79
-0.290788 0.114667 0.184711 78 173 62
-0.290544 0.115725 0.184308 70 159 49
-0.290299 0.116787 0.183904 87 167 52
-0.290053 0.117855 0.183498 111 185 65
-0.290666 0.119348 0.182471 111 161 73
-0.292602 0.121512 0.18048 66 75 55
-0.293019 0.122946 0.179576 42 54 30
-0.297503 0.101514 0.186682 79 89 48
-0.296845 0.102355 0.186584 119 183 67
-0.296187 0.103196 0.186486 102 190 71
-0.295744 0.104125 0.18624 80 169 56
-0.295085 0.104968 0.186142 66 154 48
-0.295505 0.106262 0.185298 71 148 47
-0.294841 0.10711 0.1852 105 176 60
-0.294394 0.10805 0.184951 139 215 79
-0.293513 0.108807 0.185002 132 211 88
-0.292849 0.109656 0.184903 96 153 77
-0.291544 0.110222 0.185254 82 96 66
-0.290881 0.11107 0.185155 136 183 77
-0.290641 0.11211 0.184757 138 218 83
-0.290611 0.113253 0.184205 109 202 78
-0.290156 0.114205 0.183954 79 172 60
-0.289911 0.11526 0.183551 69 157 49
-0.289665 0.116319 0.183145 81 164 53
-0.289418 0.117383 0.182738 109 184 66
-0.289169 0.118452 0.18233 109 169 75
-0.291949 0.121024 0.179712 65 99 63
-0.292362 0.122452 0.178805 48 61 32
-0.297082 0.101169 0.185786 64 90 44
-0.296425 0.102009 0.185688 117 167 58
-0.295767 0.102849 0.185589 108 192 69
-0.295109 0.103689 0.185491 84 168 55
-0.294451 0.10453 0.185393 66 154 50
-0.293579 0.105283 0.185444 66 151 51
-0.29292 0.106124 0.185345 98 178 60
-0.292262 0.106966 0.185247 130 205 71
-0.291391 0.107716 0.185297 127 195 76
-0.290733 0.108558 0.185199 107 152 73
-0.290074 0.1094 0.185101 107 120 67
-0.289414 0.110242 0.185003 139 162 66
-0.288963 0.11118 0.184755 132 205 75
-0.288929 0.112312 0.184207 110 202 75
-0.289526 0.113745 0.183201 83 171 60
-0.28928 0.114796 0.182796 69 156 50
-0.289245 0.115953 0.182236 78 163 53
-0.288997 0.117016 0.181828 106 181 63
-0.288536 0.117979 0.181572 107 172 76
-0.291081 0.12043 0.179108 70 116 68
-0.291928 0.122071 0.177876 51 61 34
-0.296879 0.100908 0.184742 56 84 38
-0.296006 0.101663 0.184793 115 150 53
-0.295349 0.102502 0.184695 115 194 70
-0.294691 0.103342 0.184596 86 172 60
-0.29382 0.104094 0.184647 68 154 52
-0.293162 0.104934 0.184549 63 149 49
-0.292293 0.105685 0.1846 93 168 54
-0.291635 0.106525 0.184501 124 193 67
-0.290977 0.107365 0.184403 123 190 78
-0.290319 0.108206 0.184305 102 151 77
-0.289661 0.109047 0.184206 87 113 69
-0.289002 0.109889 0.184108 128 140 54
-0.288343 0.110731 0.184009 131 209 78
-0.288098 0.111763 0.18361 113 206 76
-0.288061 0.112898 0.183059 86 170 61
-0.288652 0.114335 0.182045 68 156 51
-0.288615 0.115488 0.181484 75 161 50
-0.288578 0.116649 0.180918 107 177 59
-0.288116 0.117611 0.180662 111 176 72
-0.290002 0.119733 0.178667 81 125 66
-0.291056 0.121471 0.177274 57 55 35
-0.296459 0.100563 0.183848 56 78 35
-0.295803 0.101402 0.18375 107 130 52
-0.294931 0.102156 0.183801 116 193 72
-0.294274 0.102995 0.183703 87 176 64
-0.293404 0.103747 0.183754 70 153 51
-0.292747 0.104586 0.183656 62 146 47
-0.29209 0.105425 0.183557 92 159 53
-0.291432 0.106265 0.183459 120 185 67
-0.290774 0.107105 0.18336 120 190 79
-0.290116 0.107946 0.183261 98 160 83
-0.289457 0.108787 0.183163 86 121 73
-0.288798 0.109629 0.183064 115 127 61
-0.288139 0.110471 0.182965 132 210 80
-0.28748 0.111313 0.182866 121 207 76
-0.287648 0.11254 0.182161 87 171 63
-0.288026 0.113875 0.181297 68 157 51
-0.288408 0.115224 0.180423 75 158 49
-0.288159 0.116283 0.180011 105 172 56
-0.287697 0.117244 0.179754 116 180 70
-0.288932 0.119042 0.178229 95 128 65
-0.290407 0.120983 0.176513 63 56 41
-0.296257 0.100303 0.182805 54 70 35
-0.295384 0.101057 0.182857 94 115 53
-0.294514 0.101811 0.18291 114 190 71
-0.293857 0.102649 0.182811 89 181 68
-0.293201 0.103487 0.182712 71 150 51
-0.292544 0.104326 0.182613 62 143 46
-0.291887 0.105165 0.182515 87 152 51
-0.291229 0.106005 0.182416 114 179 63
-0.290571 0.106845 0.182317 118 191 78
-0.289913 0.107686 0.182218 100 165 82
-0.289254 0.108527 0.182119 84 120 72
-0.288595 0.109369 0.18202 96 105 61
-0.287936 0.110211 0.181921 130 203 76
-0.287276 0.111053 0.181821 124 203 76
-0.287443 0.112279 0.181112 88 176 70
-0.287821 0.113613 0.180242 68 158 52
-0.288201 0.114961 0.179363 75 155 47
-0.287951 0.116019 0.178948 99 168 56
-0.28749 0.116979 0.17869 118 184 73
-0.288083 0.118461 0.177636 104 137 72
-0.289544 0.12039 0.175918 63 66 50
-0.295838 0.0999591 0.181914 48 64 37
-0.294967 0.100713 0.181967 81 109 54
-0.294311 0.101551 0.181868 112 185 67
-0.293655 0.102389 0.181769 95 185 70
-0.292998 0.103227 0.18167 70 145 53
-0.292341 0.104066 0.181571 60 141 47
-0.291684 0.104905 0.181472 79 147 49
-0.291026 0.105745 0.181373 108 178 63
-0.290368 0.106585 0.181274 120 192 76
-0.289709 0.107426 0.181174 109 167 78
-0.289051 0.108267 0.181075 89 117 69
-0.288391 0.109109 0.180976 86 92 61
-0.287732 0.109951 0.180876 129 173 63
-0.287486 0.110982 0.18047 127 199 77
-0.287446 0.112114 0.179908 88 169 67
-0.287824 0.113448 0.179031 70 154 50
-0.287784 0.114598 0.17846 73 152 46
-0.287744 0.115754 0.177885 90 164 54
-0.287282 0.116715 0.177625 118 188 71
-0.28745 0.117987 0.176885 104 146 75
-0.288902 0.119907 0.175164 62 79 59
-0.295635 0.0996988 0.180872 43 64 35
-0.294765 0.100453 0.180925 75 108 46
-0.294108 0.101291 0.180826 114 175 61
-0.293452 0.102129 0.180727 100 185 71
-0.292795 0.102967 0.180628 68 142 56
-0.292138 0.103806 0.180528 57 140 47
-0.29148 0.104645 0.180429 71 143 48
-0.290823 0.105485 0.18033 99 172 60
-0.290164 0.106325 0.18023 115 184 71
-0.289506 0.107166 0.18013 109 162 72
-0.288847 0.108007 0.180031 86 114 67
-0.288188 0.108849 0.179931 72 90 61
-0.287943 0.109877 0.179523 94 132 51
-0.287905 0.111005 0.178958 94 154 57
-0.288285 0.112333 0.178076 79 149 51
-0.287827 0.113283 0.177817 68 153 49
-0.287577 0.114334 0.1774 66 150 48
-0.287326 0.11539 0.176981 84 160 55
-0.287074 0.11645 0.176561 119 188 69
-0.28703 0.117618 0.175977 104 160 79
-0.287835 0.119215 0.174739 61 93 63
-0.295433 0.0994386 0.179829 45 64 37
-0.294562 0.100193 0.179884 80 105 48
-0.293906 0.101031 0.179784 119 164 62
-0.293249 0.101869 0.179685 105 185 71
-0.292592 0.102707 0.179585 70 148 58
-0.291935 0.103546 0.179486 59 139 45
-0.291488 0.104473 0.179231 63 142 45
-0.29104 0.105403 0.178977 88 160 53
-0.290802 0.106425 0.178566 100 168 61
-0.290141 0.107269 0.178466 98 152 63
-0.289479 0.108113 0.178365 78 118 66
-0.288817 0.108958 0.178265 59 92 64
-0.289202 0.110274 0.17738 65 100 44
-0.288746 0.111219 0.177121 75 136 47
-0.288289 0.112167 0.176861 73 147 45
-0.28783 0.113118 0.176601 65 153 47
-0.287371 0.11407 0.176341 62 148 48
-0.287119 0.115126 0.175919 79 154 54
-0.286656 0.116084 0.175657 115 182 65
-0.286612 0.11725 0.175071 101 169 81
-0.286988 0.118633 0.174155 70 103 66
-0.29523 0.0991783 0.178787 43 63 34
-0.294359 0.0999329 0.178842 80 98 43
-0.293703 0.100771 0.178742 118 155 60
-0.293046 0.101609 0.178642 109 188 71
-0.292601 0.102533 0.178387 74 158 60
-0.291943 0.103373 0.178287 62 136 43
-0.291496 0.104301 0.178031 59 139 46
-0.292109 0.105677 0.176989 82 152 48
-0.292299 0.106888 0.176253 84 151 51
-0.291846 0.107832 0.175992 87 148 54
-0.291178 0.108684 0.175891 75 131 66
-0.29051 0.109537 0.175789 57 100 65
-0.289841 0.11039 0.175688 58 92 47
-0.289173 0.111243 0.175586 74 136 48
-0.288293 0.112001 0.175644 74 150 48
-0.287834 0.112952 0.175382 68 156 49
-0.287164 0.113807 0.175281 61 147 49
-0.286912 0.114861 0.174857 79 152 50
-0.286449 0.11582 0.174593 115 178 60
-0.285984 0.116781 0.174329 108 178 79
-0.286147 0.118054 0.173575 82 107 65
-0.295027 0.0989179 0.177744 45 62 35
-0.294157 0.0996728 0.1778 79 96 46
-0.2935 0.10051 0.1777 110 154 64
-0.293056 0.101433 0.177444 108 188 73
-0.292398 0.102273 0.177343 79 166 64
-0.291952 0.103199 0.177086 63 136 45
-0.292567 0.104568 0.176038 61 135 44
-0.29276 0.105775 0.175298 80 148 47
-0.292737 0.106899 0.174714 77 151 56
-0.292283 0.107845 0.17445 86 155 57
-0.291613 0.1087 0.174348 83 148 65
-0.290729 0.109461 0.174408 71 123 67
-0.289847 0.110221 0.174467 71 117 58
-0.289177 0.111075 0.174365 80 147 54
-0.288507 0.11193 0.174263 81 159 55
-0.287627 0.112688 0.174323 76 162 56
-0.286957 0.113543 0.174221 65 148 49
-0.286495 0.114498 0.173957 78 153 46
-0.286032 0.115455 0.173692 110 174 58
-0.285568 0.116414 0.173427 118 185 78
-0.285519 0.117582 0.172833 94 113 69
-0.294825 0.0986575 0.176701 53 69 53
-0.293954 0.0994127 0.176758 89 109 64
-0.293298 0.10025 0.176657 115 162 79
-0.292853 0.101173 0.1764 109 186 82
-0.292407 0.102098 0.176142 84 169 67
-0.29196 0.103025 0.175883 63 137 47
-0.29322 0.104661 0.174343 58 136 44
-0.2932 0.105782 0.173756 74 144 43
-0.292746 0.106726 0.173491 72 156 56
-0.292077 0.107581 0.173388 91 167 58
-0.291407 0.108436 0.173286 100 174 64
-0.290736 0.109291 0.173184 97 170 68
-0.289853 0.110052 0.173244 91 165 65
-0.288971 0.110812 0.173305 90 168 61
-0.2883 0.111666 0.173202 91 172 62
-0.28742 0.112425 0.173263 83 168 61
-0.28675 0.113279 0.17316 67 150 49
-0.28608 0.114135 0.173058 74 151 47
-0.285616 0.11509 0.172792 102 168 58
-0.285152 0.116049 0.172526 126 191 78
-0.284894 0.117111 0.172095 97 118 74
-0.294622 0.0983971 0.175658 88 102 85
-0.293751 0.0991525 0.175716 125 138 91
-0.293095 0.0999901 0.175615 132 168 97
-0.29265 0.100912 0.175356 114 184 89
-0.292416 0.101922 0.174937 89 173 68
-0.292181 0.102937 0.174517 66 139 50
-0.29323 0.104487 0.173124 59 138 43
-0.292993 0.105518 0.172696 69 142 42
-0.29254 0.106462 0.172429 71 154 55
-0.29187 0.107316 0.172327 95 170 56
-0.2912 0.108171 0.172224 105 181 63
-0.290529 0.109027 0.172121 101 180 65
-0.289646 0.109788 0.172183 98 176 63
-0.288764 0.110548 0.172244 98 174 62
-0.287883 0.111306 0.172305 97 174 62
-0.287213 0.112161 0.172203 85 170 60
-0.286335 0.112918 0.172264 67 154 51
-0.285665 0.113773 0.172161 69 147 51
-0.284995 0.114628 0.172058 95 164 59
-0.28453 0.115583 0.171792 129 193 76
-0.284271 0.116643 0.17136 106 135 81
-0.303073 0.0980689 0.169999 112 87 73
-0.301711 0.0986778 0.170401 129 111 87
-0.295291 0.0973798 0.174556 159 140 102
-0.294419 0.0981366 0.174615 162 167 114
-0.292235 0.100568 0.174471 118 186 91
-0.292425 0.101747 0.17373 95 176 69
-0.292189 0.102762 0.173307 69 143 53
-0.293024 0.104223 0.172066 59 138 43
-0.292787 0.105253 0.171635 63 139 44
-0.292333 0.106197 0.171368 74 155 53
-0.291663 0.107052 0.171265 100 169 55
-0.290993 0.107907 0.171162 106 185 65
-0.290322 0.108762 0.171059 102 188 68
-0.289439 0.109523 0.171121 100 181 66
-0.288557 0.110284 0.171183 102 178 64
-0.287467 0.110947 0.17141 99 177 61
-0.286589 0.111704 0.171471 88 172 59
-0.28592 0.112558 0.171369 71 158 53
-0.285251 0.113411 0.171266 68 147 49
-0.284581 0.114265 0.171163 90 163 57
-0.283911 0.11512 0.17106 128 188 72
-0.283651 0.116176 0.170627 129 158 88
-0.292032 0.100308 0.173428 119 189 94
-0.292221 0.101485 0.172683 100 177 71
-0.291985 0.1025 0.172257 71 148 57
-0.292818 0.103959 0.171009 59 138 43
-0.292365 0.1049 0.170741 59 138 44
-0.292126 0.105933 0.170306 78 154 48
-0.291456 0.106787 0.170203 99 167 54
-0.290786 0.107642 0.1701 108 189 67
-0.290115 0.108497 0.169997 109 195 69
-0.28902 0.109165 0.170226 107 190 68
-0.288139 0.109925 0.170288 105 184 66
-0.287051 0.110588 0.170516 101 181 64
-0.286383 0.111441 0.170413 89 173 63
-0.2853 0.112101 0.17064 74 158 54
-0.284631 0.112953 0.170537 67 151 46
-0.283553 0.113609 0.170763 87 160 52
-0.28248 0.114264 0.170988 128 186 65
-0.282829 0.115611 0.170063 153 188 95
-0.307354 0.0904175 0.169192 111 110 93
-0.307382 0.0915048 0.168579 106 77 65
-0.306942 0.0924425 0.168304 100 78 58
-0.291618 0.099964 0.172546 124 188 107
-0.291805 0.101139 0.171798 100 180 71
-0.291568 0.102152 0.17137 73 156 58
-0.292397 0.103607 0.170116 60 139 44
-0.292159 0.104635 0.169681 60 139 43
-0.291705 0.105578 0.169411 82 151 43
-0.291249 0.106523 0.169141 94 165 53
-0.290579 0.107378 0.169037 109 190 66
-0.289908 0.108233 0.168934 113 196 68
-0.288813 0.108901 0.169165 111 190 69
-0.287933 0.109661 0.169228 109 184 67
-0.286845 0.110325 0.169458 104 179 64
-0.285761 0.110987 0.169687 92 172 61
-0.284681 0.111646 0.169914 78 160 54
-0.283402 0.112208 0.170305 71 149 46
-0.282737 0.113056 0.170202 88 157 48
-0.281668 0.113709 0.170428 124 181 63
-0.281003 0.114556 0.170325 153 177 89
-0.306886 0.0889963 0.168905 103 115 100
-0.306913 0.0900742 0.168293 88 89 72
-0.306474 0.0910062 0.168019 81 80 59
-0.3065 0.0920957 0.167401 82 77 54
-0.306058 0.0930346 0.167124 97 68 54
-0.305615 0.0939758 0.166847 141 71 71
-0.304938 0.0948386 0.166743 206 178 116
-0.290576 0.0993736 0.172149 126 181 77
-0.290968 0.100625 0.17124 105 185 72
-0.291152 0.101805 0.170485 78 161 60
-0.292191 0.103344 0.169059 62 140 46
-0.291738 0.104283 0.168789 63 139 44
-0.291498 0.105314 0.168351 83 149 44
-0.291042 0.106258 0.168079 88 162 55
-0.290371 0.107113 0.167975 109 188 63
-0.289701 0.107968 0.167871 113 191 67
-0.288606 0.108637 0.168104 112 187 68
-0.287516 0.109303 0.168336 109 183 68
-0.28643 0.109967 0.168567 103 179 65
-0.285142 0.110534 0.168963 94 174 61
-0.283862 0.111099 0.169356 80 164 57
-0.282994 0.111851 0.169418 72 150 50
-0.281724 0.112409 0.169809 85 155 53
-0.281061 0.113254 0.169706 112 176 67
-0.280398 0.1141 0.169604 140 180 87
-0.306421 0.0875873 0.168621 107 101 87
-0.305986 0.088509 0.168349 84 70 59
-0.30601 0.0895821 0.167736 70 60 51
-0.306034 0.0906623 0.16712 63 56 45
-0.305826 0.0916724 0.166672 62 53 40
-0.305617 0.0926871 0.166222 76 63 48
-0.305173 0.093627 0.165944 113 101 77
-0.289335 0.0987065 0.171916 121 179 71
-0.289719 0.0999487 0.17101 105 188 73
-0.290527 0.101373 0.169766 82 164 61
-0.291772 0.102993 0.16817 66 141 48
-0.291532 0.104019 0.167731 66 138 45
-0.291077 0.104959 0.167458 76 147 48
-0.290622 0.105903 0.167186 82 164 60
-0.290164 0.106848 0.166912 107 186 64
-0.289281 0.107611 0.166978 112 186 68
-0.288399 0.108373 0.167043 111 184 67
-0.28731 0.10904 0.167277 106 182 69
-0.286017 0.10961 0.167677 103 180 67
-0.284731 0.110178 0.168075 97 178 64
-0.283453 0.110743 0.168471 83 168 60
-0.282384 0.111399 0.168699 72 152 53
-0.281519 0.112149 0.168761 80 153 54
-0.280856 0.112994 0.168658 103 170 65
-0.306853 0.0854157 0.168274 127 103 88
-0.30619 0.0862608 0.168171 95 70 69
-0.305756 0.0871779 0.167899 72 58 53
-0.30555 0.0881702 0.167456 70 48 33
-0.305573 0.0892411 0.166842 66 51 46
-0.305596 0.0903191 0.166223 57 48 38
-0.305386 0.0913274 0.165773 54 48 35
-0.304945 0.0922625 0.165496 63 55 40
-0.304965 0.093358 0.164869 93 71 52
-0.288483 0.0992787 0.170782 108 190 74
-0.289904 0.100943 0.169049 87 168 61
-0.291566 0.102729 0.167113 69 145 49
-0.291326 0.103755 0.166672 65 139 46
-0.290871 0.104695 0.166398 73 148 50
-0.290415 0.105638 0.166124 83 168 59
-0.289745 0.106492 0.16602 107 182 60
-0.289074 0.107347 0.165916 109 187 69
-0.288193 0.108108 0.165982 109 185 66
-0.286894 0.108683 0.166387 108 182 67
-0.285604 0.109254 0.166789 107 183 68
-0.28432 0.109822 0.167189 101 182 66
-0.283248 0.110481 0.16742 85 171 60
-0.282179 0.111138 0.16765 70 155 54
-0.281315 0.111888 0.167713 75 152 54
-0.280652 0.112733 0.16761 98 168 62
-0.308438 0.083598 0.167084 137 91 75
-0.307311 0.0843063 0.16732 116 87 67
-0.306418 0.0850814 0.167386 90 73 59
-0.305756 0.0859256 0.167283 63 67 59
-0.305093 0.0867703 0.167179 53 59 51
-0.305115 0.087832 0.166566 62 47 32
-0.305136 0.0889007 0.165949 67 55 44
-0.305388 0.0900517 0.165155 52 46 32
-0.305179 0.0910594 0.164703 47 46 28
-0.304737 0.0919943 0.164423 58 46 29
-0.304756 0.0930889 0.163793 79 53 36
-0.302277 0.0966216 0.163194 88 88 65
-0.289614 0.0962957 0.170537 95 119 85
-0.28876 0.0970431 0.170597 99 117 70
-0.288111 0.0978694 0.170496 120 166 73
-0.287871 0.0988582 0.170072 113 191 74
-0.289283 0.100515 0.168336 90 169 62
-0.29136 0.102466 0.166057 70 148 52
-0.29112 0.103491 0.165613 64 142 48
-0.290664 0.104431 0.165338 71 150 51
-0.290208 0.105374 0.165062 88 168 58
-0.289538 0.106228 0.164958 106 177 60
-0.288867 0.107082 0.164853 111 194 70
-0.287775 0.107752 0.165091 111 190 70
-0.286688 0.108419 0.165328 111 189 71
-0.284986 0.108805 0.166072 111 188 70
-0.283911 0.109467 0.166305 104 184 67
-0.28284 0.110126 0.166537 86 174 61
-0.281974 0.110878 0.166601 70 159 55
-0.28111 0.111628 0.166665 72 151 53
-0.280447 0.112473 0.166562 94 167 58
-0.308431 0.0823534 0.16647 104 74 69
-0.307769 0.0831972 0.166367 91 62 53
-0.306876 0.083973 0.166434 78 59 54
-0.304888 0.0865056 0.166123 47 45 33
-0.304452 0.0874225 0.165848 52 42 31
-0.304701 0.088561 0.165058 53 44 29
-0.304529 0.091726 0.163351 52 41 23
-0.304316 0.0927413 0.162894 60 46 30
-0.30387 0.0936816 0.162611 67 58 43
-0.303424 0.0946244 0.162328 84 76 61
-0.302746 0.0954881 0.162222 93 89 67
-0.302068 0.0963522 0.162116 76 81 67
-0.289208 0.0959604 0.169669 79 97 69
-0.28856 0.0967863 0.169568 85 109 72
-0.287911 0.0976126 0.169466 120 154 70
-0.287262 0.0984393 0.169365 118 193 74
-0.288045 0.0998404 0.16812 92 171 65
-0.291581 0.102376 0.164658 72 150 54
-0.290913 0.103227 0.164554 64 142 49
-0.290458 0.104167 0.164278 72 150 51
-0.289789 0.105019 0.164173 92 166 55
-0.289331 0.105963 0.163896 103 174 59
-0.288449 0.106726 0.163963 114 197 71
-0.287359 0.107396 0.164203 117 193 71
-0.286273 0.108063 0.164441 115 191 70
-0.28478 0.108543 0.165018 114 190 71
-0.283706 0.109205 0.165254 105 187 70
-0.282635 0.109865 0.165488 87 177 62
-0.28177 0.110617 0.165552 72 162 53
-0.280905 0.111367 0.165617 73 154 51
-0.280242 0.112212 0.165513 95 166 55
-0.307995 0.0820222 0.165585 71 59 48
-0.305118 0.0853266 0.165341 53 58 37
-0.304683 0.0862409 0.165066 51 58 37
-0.304107 0.0924724 0.161818 41 44 28
-0.303661 0.0934125 0.161535 54 54 38
-0.302984 0.0942748 0.161429 83 71 55
-0.302307 0.0951375 0.161322 92 89 68
-0.301629 0.0960007 0.161216 78 71 66
-0.289008 0.0957035 0.16864 89 86 54
-0.288359 0.0965294 0.168538 88 91 54
-0.287711 0.0973557 0.168437 118 142 57
-0.287062 0.0981824 0.168335 123 196 72
-0.286819 0.0991722 0.167906 90 174 69
-0.291375 0.102112 0.163599 74 152 55
-0.29092 0.10305 0.163322 67 142 48
-0.290039 0.103814 0.16339 75 149 49
-0.289582 0.104755 0.163112 91 163 53
-0.288912 0.105608 0.163007 98 174 59
-0.288242 0.106462 0.162902 114 195 69
-0.287153 0.107132 0.163143 118 196 71
-0.286067 0.1078 0.163383 115 194 71
-0.28437 0.108189 0.164136 113 192 71
-0.283297 0.108851 0.164372 105 188 71
-0.28243 0.109604 0.164438 92 179 65
-0.281364 0.110262 0.164672 77 164 58
-0.280701 0.111107 0.164568 75 155 53
-0.280037 0.111952 0.164464 93 163 55
-0.306467 0.0834437 0.164321 43 47 39
-0.305804 0.0842874 0.164217 58 57 36
-0.305142 0.0851316 0.164113 49 53 36
-0.303452 0.0931433 0.160458 49 48 31
-0.302775 0.0940056 0.160352 78 66 49
-0.302098 0.0948683 0.160245 88 85 66
-0.30142 0.0957315 0.160139 89 68 61
-0.288808 0.0954466 0.167611 90 99 68
-0.287955 0.0961941 0.167673 96 110 73
-0.287306 0.0970195 0.167571 112 132 71
-0.286658 0.0978454 0.167469 126 196 71
-0.286212 0.0987526 0.167203 94 180 72
-0.291383 0.101934 0.162367 77 159 57
-0.290714 0.102786 0.162261 66 145 49
-0.289832 0.10355 0.16233 74 147 49
-0.289164 0.104402 0.162225 85 159 54
-0.288494 0.105254 0.16212 93 175 62
-0.287825 0.106107 0.162015 112 193 66
-0.286737 0.106777 0.162257 117 199 71
-0.285654 0.107445 0.162499 113 194 71
-0.28396 0.107835 0.163254 112 192 72
-0.282889 0.108497 0.163492 106 188 70
-0.282225 0.109343 0.163387 95 180 64
-0.281159 0.110001 0.163624 81 164 57
-0.280496 0.110846 0.16352 75 154 53
-0.279833 0.111691 0.163416 87 159 56
-0.306058 0.0841596 0.162813 49 39 32
-0.303243 0.0928741 0.159381 46 40 35
-0.302566 0.0937364 0.159275 73 57 52
-0.30166 0.0945187 0.159348 88 86 63
-0.300983 0.095381 0.159242 91 72 54
-0.288607 0.0951896 0.166581 80 86 62
-0.287754 0.0959373 0.166644 86 89 61
-0.287106 0.0967628 0.166542 101 116 63
-0.286458 0.0975887 0.16644 124 192 72
-0.286011 0.0984956 0.166172 98 186 74
-0.291176 0.10167 0.161306 77 158 57
-0.290507 0.102522 0.161201 65 145 50
-0.289626 0.103286 0.16127 70 143 48
-0.288957 0.104138 0.161165 78 155 57
-0.288288 0.10499 0.16106 90 175 66
-0.287618 0.105842 0.160954 111 190 65
-0.286323 0.106423 0.161373 115 199 72
-0.285241 0.107091 0.161615 112 194 72
-0.283755 0.107574 0.162202 112 191 72
-0.282684 0.108236 0.162442 107 188 68
-0.281819 0.108989 0.162509 98 181 62
-0.280955 0.109741 0.162576 81 166 57
-0.280291 0.110585 0.162471 73 154 54
-0.279628 0.11143 0.162367 81 158 56
-0.302128 0.0933879 0.158379 61 58 53
-0.301451 0.0942497 0.158272 66 68 66
-0.288202 0.0948556 0.165718 63 59 40
-0.287351 0.0956029 0.165781 69 65 42
-0.286703 0.0964275 0.165678 89 105 54
-0.286055 0.0972526 0.165576 121 184 68
-0.285608 0.0981582 0.165308 102 191 75
-0.28942 0.103022 0.160211 67 144 48
-0.28875 0.103874 0.160105 75 154 53
-0.288081 0.104726 0.159999 92 171 60
-0.287202 0.105488 0.160069 109 185 63
-0.285909 0.106069 0.16049 112 196 71
-0.284829 0.106737 0.160734 115 195 71
-0.283346 0.107221 0.161324 112 192 70
-0.282277 0.107884 0.161564 110 189 67
-0.281614 0.108728 0.161459 100 182 62
-0.28075 0.10948 0.161527 81 167 59
-0.279887 0.110231 0.161595 71 155 56
-0.279224 0.111075 0.16149 77 156 56
-0.278759 0.112015 0.161213 101 172 63
-0.302148 0.0931978 0.15712 52 50 41
-0.288002 0.0945988 0.164689 47 58 30
-0.287151 0.0953463 0.164753 55 63 37
-0.286503 0.096171 0.16465 83 102 50
-0.285855 0.096996 0.164548 119 173 63
-0.285206 0.0978215 0.164445 105 191 74
-0.289002 0.102671 0.159327 65 142 49
