ply
format ascii 1.0
element vertex 1249
property float x
property float y
property float z
property uchar diffuse_red
property uchar diffuse_green
property uchar diffuse_blue
end_header
-0.302151 0.0902436 0.275496 62 139 40
-0.301493 0.0909928 0.275487 60 137 39
-0.301026 0.0918161 0.275432 56 134 41
-0.300751 0.0927159 0.27533 54 132 43
-0.300284 0.0935413 0.275275 55 131 42
-0.300007 0.0944448 0.275173 55 128 43
-0.29992 0.095429 0.275024 56 124 46
-0.30985 0.103837 0.271877 61 136 62
-0.309352 0.104716 0.271818 62 135 66
-0.310385 0.111883 0.270441 82 170 63
-0.30966 0.112682 0.270436 88 177 65
-0.30915 0.113583 0.270375 97 188 66
-0.3095 0.114897 0.270095 105 200 68
-0.308987 0.115803 0.270034 109 203 70
-0.308905 0.11692 0.269862 112 202 69
-0.30839 0.117829 0.269801 114 200 68
-0.308521 0.119062 0.269572 108 195 66
-0.308652 0.120304 0.269342 101 190 66
-0.309002 0.121665 0.269054 99 184 63
-0.311566 0.124186 0.268183 99 178 60
-0.313973 0.12666 0.267347 95 172 60
-0.313666 0.127728 0.267223 85 164 56
-0.313357 0.128799 0.267099 76 157 49
-0.312819 0.12975 0.267035 70 156 47
-0.31228 0.130701 0.266971 71 156 45
-0.311741 0.131653 0.266907 75 157 45
-0.310524 0.132228 0.267025 77 160 46
-0.309986 0.133178 0.266962 79 161 49
-0.308777 0.133748 0.267079 75 161 49
-0.303036 0.131706 0.268429 72 161 47
-0.300006 0.131179 0.269049 70 158 46
-0.299076 0.131855 0.2691 73 162 47
-0.298558 0.132771 0.269038 82 172 52
-0.297835 0.133566 0.269032 96 178 58
-0.308643 0.0805696 0.274985 59 123 51
-0.30699 0.0809961 0.27521 59 124 51
-0.305939 0.0816151 0.275294 59 124 48
-0.30412 0.0819682 0.27556 61 124 45
-0.303277 0.0826462 0.275597 61 126 43
-0.302627 0.0833891 0.275587 60 130 43
-0.302169 0.0841986 0.275533 62 133 43
-0.30152 0.0849406 0.275524 64 134 43
-0.300872 0.085682 0.275514 62 134 41
-0.300413 0.0864919 0.27546 60 135 42
-0.299954 0.0873024 0.275405 59 136 42
-0.301416 0.0908357 0.274544 54 134 42
-0.300758 0.0915849 0.274536 52 132 44
-0.300482 0.0924845 0.274433 55 129 46
-0.300015 0.0933099 0.274377 62 129 47
-0.299928 0.0942905 0.274227 63 133 53
-0.299841 0.0952753 0.274076 60 136 61
-0.300909 0.0967443 0.273636 58 136 67
-0.309353 0.103501 0.270977 64 133 61
-0.308855 0.104379 0.270918 64 137 59
-0.309412 0.105722 0.270591 64 144 60
-0.310093 0.111633 0.269468 94 183 59
-0.309583 0.112534 0.269407 101 191 65
-0.309935 0.113845 0.269122 108 201 66
-0.309638 0.114854 0.269004 114 207 68
-0.309341 0.115866 0.268887 118 212 71
-0.309475 0.117094 0.268655 117 208 74
-0.309392 0.118221 0.268479 115 201 71
-0.308874 0.119136 0.268417 110 193 67
-0.309007 0.120381 0.268182 102 185 64
-0.309358 0.121747 0.267888 97 179 63
-0.311263 0.123929 0.267177 93 174 61
-0.312078 0.125567 0.266754 88 167 59
-0.312903 0.127225 0.266325 82 160 56
-0.312594 0.128294 0.2662 78 156 52
-0.312511 0.129488 0.266012 72 154 47
-0.311972 0.130439 0.265948 70 155 44
-0.311207 0.131266 0.265946 74 155 45
-0.310217 0.131967 0.266005 76 159 47
-0.309679 0.132917 0.26594 75 158 48
-0.308916 0.133741 0.265938 67 156 46
-0.302948 0.131573 0.267375 64 156 44
-0.299505 0.130808 0.268122 64 152 44
-0.298781 0.131604 0.268118 69 156 45
-0.298262 0.13252 0.268056 77 167 48
-0.297539 0.133315 0.268051 95 172 55
-0.309376 0.080664 0.273849 59 122 44
-0.307315 0.0809608 0.274175 58 123 44
-0.30626 0.0815816 0.274262 57 123 44
-0.304822 0.0820674 0.274442 59 124 42
-0.303396 0.0825495 0.27462 58 125 41
-0.302554 0.0832271 0.274658 55 128 42
-0.302095 0.0840373 0.274603 54 130 43
-0.301256 0.0847123 0.27464 55 131 43
-0.300608 0.0854538 0.274631 57 130 40
-0.299773 0.0861257 0.274669 57 131 40
-0.299315 0.0869348 0.274614 57 132 42
-0.300681 0.0914284 0.273592 58 133 49
-0.300213 0.0922531 0.273536 59 135 53
-0.300128 0.0932311 0.273383 62 136 61
-0.300041 0.0942134 0.273231 64 138 65
-0.300723 0.0955153 0.272882 64 140 64
-0.300636 0.0965102 0.272727 63 141 63
-0.309067 0.103256 0.270025 55 135 55
-0.30857 0.104134 0.269965 59 135 50
-0.308913 0.105383 0.269688 67 146 46
-0.310112 0.107021 0.269187 69 154 49
-0.312491 0.111486 0.267984 94 177 57
-0.311319 0.112089 0.268095 99 185 61
-0.310806 0.112995 0.268033 102 192 65
-0.310509 0.114006 0.267914 107 197 66
-0.309994 0.114915 0.267852 111 200 66
-0.309696 0.11593 0.267733 115 203 68
-0.309831 0.117161 0.267496 114 202 70
-0.309749 0.118292 0.267317 111 196 69
-0.309666 0.119428 0.267137 107 188 66
-0.309145 0.120348 0.267074 102 181 63
-0.309937 0.121942 0.266656 97 176 61
-0.310961 0.123671 0.266171 91 171 61
-0.311325 0.125072 0.265864 85 165 59
-0.311917 0.126605 0.265492 79 159 57
-0.31206 0.127911 0.265242 77 154 54
-0.311749 0.128981 0.265115 71 152 48
-0.311438 0.130053 0.264987 65 152 44
-0.310673 0.13088 0.264985 71 154 44
-0.30991 0.131705 0.264983 75 157 45
-0.309372 0.132656 0.264919 70 154 45
-0.308609 0.13348 0.264917 64 150 42
-0.302648 0.131318 0.266379 60 149 42
-0.299004 0.130438 0.267198 61 148 41
-0.298281 0.131234 0.267193 64 151 42
-0.297763 0.132149 0.267131 73 162 46
-0.297244 0.133065 0.267069 94 168 52
-0.30951 0.0805617 0.27285 56 123 41
-0.307047 0.0807291 0.27328 54 123 38
-0.306189 0.0814161 0.273321 52 124 40
-0.30553 0.0821675 0.273313 53 123 44
-0.304094 0.0826513 0.273497 53 124 44
-0.302671 0.0831314 0.273679 53 126 44
-0.302211 0.083943 0.273623 53 127 46
-0.30137 0.0846194 0.273662 52 128 48
-0.300344 0.0852256 0.273749 56 128 47
-0.299697 0.0859667 0.27374 62 130 46
-0.301758 0.0917219 0.272352 69 144 59
-0.300327 0.0921724 0.272541 73 148 57
-0.300625 0.0933055 0.272288 75 149 58
-0.300924 0.0944474 0.272032 73 150 64
-0.300838 0.0954397 0.271876 73 151 64
-0.308782 0.103011 0.269072 69 148 44
-0.308284 0.103889 0.269012 68 146 44
-0.308626 0.105137 0.268731 74 150 46
-0.308336 0.106113 0.268615 78 156 51
-0.30996 0.107952 0.267991 83 163 54
-0.312858 0.111537 0.266825 92 174 58
-0.311681 0.112142 0.266939 96 180 62
-0.311166 0.113051 0.266877 99 184 65
-0.311088 0.114169 0.266696 104 186 66
-0.310571 0.115081 0.266634 107 190 66
-0.310271 0.1161 0.266512 109 193 67
-0.31019 0.117229 0.266331 110 194 68
-0.309889 0.118255 0.266208 109 192 68
-0.310025 0.119503 0.265965 106 187 67
-0.310604 0.120984 0.265599 103 181 63
-0.310078 0.121912 0.265535 99 175 60
-0.310659 0.123413 0.265165 93 169 59
-0.311021 0.124813 0.264853 85 163 57
-0.311386 0.126225 0.264539 78 160 57
-0.311302 0.127409 0.264348 75 154 54
-0.311216 0.128597 0.264157 67 150 48
-0.310905 0.129669 0.264029 61 149 44
-0.310366 0.130618 0.263964 69 153 42
-0.309603 0.131444 0.263962 74 155 43
-0.309064 0.132395 0.263897 66 152 44
-0.298504 0.130069 0.266275 60 147 40
-0.297986 0.130983 0.266212 63 150 41
-0.297467 0.131898 0.266149 73 158 45
-0.296948 0.132814 0.266087 94 166 53
-0.30924 0.0803279 0.271947 53 121 40
-0.307572 0.0807583 0.272188 52 120 38
-0.306315 0.081316 0.272329 52 122 39
-0.305458 0.0820025 0.272371 53 122 46
-0.304799 0.082754 0.272363 55 122 50
-0.303559 0.0833028 0.272502 59 126 50
-0.301946 0.0837138 0.272737 61 130 54
-0.301485 0.084526 0.272681 60 133 59
-0.300456 0.0851336 0.27277 61 139 60
-0.299432 0.0857386 0.272858 65 144 59
-0.30285 0.0920192 0.271096 81 163 64
-0.30121 0.0923949 0.271342 86 168 62
-0.301707 0.0936125 0.271031 93 173 57
-0.301428 0.0945267 0.270923 94 175 56
-0.301928 0.0957622 0.270609 92 174 59
-0.308994 0.101888 0.26818 83 165 54
-0.308496 0.102765 0.26812 81 158 49
-0.308208 0.103734 0.268003 77 152 49
-0.308129 0.104798 0.26783 75 149 49
-0.308049 0.105867 0.267656 79 152 50
-0.313005 0.111487 0.265718 92 167 59
-0.312487 0.1124 0.265655 94 174 61
-0.311969 0.113313 0.265593 97 177 64
-0.311671 0.114332 0.265469 101 180 67
-0.311151 0.115248 0.265406 103 186 68
-0.310852 0.116272 0.265282 104 190 71
-0.310551 0.117298 0.265158 105 191 71
-0.310249 0.118327 0.265033 107 188 69
-0.309946 0.119358 0.264909 106 184 67
-0.310524 0.120839 0.264536 105 181 63
-0.310885 0.122222 0.264223 102 176 60
-0.310356 0.123155 0.264159 94 169 58
-0.310717 0.124554 0.263843 87 163 55
-0.311081 0.125965 0.263524 79 160 57
-0.310546 0.126908 0.263459 74 154 54
-0.31091 0.128336 0.263137 66 150 47
-0.310597 0.129407 0.263007 61 148 44
-0.310059 0.130357 0.262942 69 152 43
-0.309296 0.131183 0.262941 71 155 45
-0.308757 0.132133 0.262875 63 152 44
-0.298209 0.129818 0.265294 60 146 40
-0.297691 0.130733 0.265231 63 150 41
-0.297172 0.131647 0.265168 72 159 47
-0.29645 0.132443 0.265164 96 169 55
-0.309373 0.0802247 0.270942 54 119 43
-0.308101 0.0807877 0.271088 56 119 47
-0.306837 0.0813473 0.271233 60 123 48
-0.305976 0.0820362 0.271276 60 127 52
-0.305314 0.0827904 0.27127 60 129 58
-0.304068 0.083341 0.271413 61 133 60
-0.30283 0.0838883 0.271555 64 138 61
-0.302367 0.0847049 0.271498 68 142 62
-0.30133 0.0853153 0.27159 75 150 61
-0.300109 0.0858539 0.271731 78 161 62
-0.302969 0.091937 0.270084 107 198 65
-0.302494 0.0927737 0.270026 107 198 67
-0.30202 0.093611 0.269968 105 194 66
-0.302131 0.0946855 0.269753 103 189 65
-0.302636 0.0959274 0.269432 101 186 64
-0.308708 0.101642 0.267228 85 164 60
-0.30821 0.10252 0.267167 83 155 54
-0.307922 0.103489 0.267049 80 152 51
-0.307842 0.104552 0.266874 74 149 49
-0.307762 0.10562 0.266698 78 150 51
-0.31293 0.111334 0.264669 92 164 62
-0.31219 0.112146 0.264667 93 172 66
-0.311893 0.113163 0.264542 96 176 69
-0.311815 0.114287 0.264355 98 179 71
-0.311516 0.115311 0.26423 101 185 72
-0.310994 0.11623 0.264166 101 188 74
-0.310472 0.11715 0.264102 101 188 71
-0.31017 0.11818 0.263976 104 185 67
-0.309647 0.119103 0.263912 105 183 64
-0.310224 0.120583 0.263535 105 180 63
-0.310583 0.121964 0.263217 101 175 62
-0.310722 0.123242 0.262961 93 171 59
-0.310191 0.124179 0.262896 88 165 55
-0.310328 0.125469 0.262638 83 160 55
-0.310241 0.126648 0.262443 74 156 54
-0.310378 0.127954 0.262182 66 151 47
-0.310065 0.129023 0.262051 60 146 44
-0.309527 0.129972 0.261985 68 150 44
-0.308765 0.130797 0.261985 71 155 47
-0.308227 0.131747 0.261919 64 151 44
-0.297914 0.129568 0.264312 60 149 40
-0.297192 0.130363 0.26431 64 153 40
-0.296674 0.131277 0.264246 73 163 47
-0.296155 0.132192 0.264183 98 171 57
-0.309773 0.0792286 0.270043 55 125 51
-0.309102 0.0799903 0.270037 58 126 54
-0.308231 0.0806855 0.270083 59 126 56
-0.307363 0.0813788 0.270129 60 126 57
-0.306696 0.082137 0.270123 62 129 55
-0.306228 0.0829621 0.270065 65 134 55
-0.306354 0.0839937 0.269852 68 139 57
-0.303959 0.0911683 0.26902 116 204 70
-0.303483 0.0920074 0.268962 119 207 72
-0.303007 0.0928472 0.268903 115 204 71
-0.302924 0.0938443 0.268738 107 196 69
-0.30284 0.0948458 0.268572 101 188 66
-0.30375 0.0962567 0.268135 99 182 62
-0.30871 0.100432 0.266394 90 169 60
-0.308423 0.101397 0.266275 86 160 58
-0.308134 0.102364 0.266156 84 151 54
-0.308055 0.103425 0.265979 80 150 52
-0.307555 0.104306 0.265917 77 149 55
-0.307474 0.105374 0.265739 79 152 57
-0.312633 0.11108 0.26368 90 164 66
-0.312114 0.111994 0.263616 91 171 70
-0.312038 0.113115 0.263427 94 176 73
-0.311739 0.114137 0.2633 96 180 74
-0.311438 0.115161 0.263173 99 184 74
-0.310916 0.116082 0.263109 100 184 73
-0.310394 0.117003 0.263045 99 184 69
-0.309871 0.117925 0.26298 102 183 65
-0.309347 0.118847 0.262916 104 183 63
-0.309702 0.120214 0.262597 103 181 63
-0.310059 0.121593 0.262275 99 176 63
-0.310196 0.122868 0.262016 94 171 61
-0.31011 0.124036 0.261821 91 165 57
-0.309577 0.124974 0.261755 86 161 55
-0.309489 0.12615 0.261559 75 157 53
-0.309624 0.127452 0.261295 64 152 48
-0.309087 0.128397 0.261229 57 147 46
-0.308551 0.129343 0.261163 68 151 43
-0.307571 0.130044 0.26123 76 157 47
-0.307034 0.130989 0.261164 66 151 45
-0.297415 0.129199 0.263393 61 151 40
-0.296897 0.130113 0.263329 66 159 42
-0.296177 0.130908 0.263327 78 166 49
-0.295658 0.131822 0.263263 104 174 59
-0.309503 0.078994 0.269138 58 131 59
-0.30863 0.079691 0.269185 59 129 56
-0.308161 0.0805172 0.269127 58 130 55
-0.307492 0.0812776 0.269121 56 131 56
-0.307023 0.0821043 0.269063 57 135 55
-0.306952 0.0830675 0.2689 61 141 54
-0.303686 0.0909325 0.268106 113 203 71
-0.303209 0.0917716 0.268048 113 202 69
-0.303721 0.0929991 0.267718 110 197 68
-0.304037 0.0941594 0.26744 105 189 66
-0.303955 0.0951679 0.26727 98 182 64
-0.308425 0.100187 0.265443 89 165 61
-0.307928 0.101063 0.265381 86 158 60
-0.307848 0.102119 0.265202 82 153 59
-0.307769 0.103178 0.265023 80 152 61
-0.307268 0.10406 0.264961 82 152 61
-0.307186 0.105127 0.26478 84 154 62
-0.312336 0.110826 0.26269 88 163 63
-0.311817 0.111739 0.262626 92 169 67
-0.31174 0.11286 0.262435 95 174 73
-0.311662 0.113986 0.262243 97 179 74
-0.31114 0.114906 0.262178 100 181 74
-0.310617 0.115826 0.262114 101 181 70
-0.309875 0.11664 0.262113 101 182 66
-0.309352 0.117561 0.262048 102 182 65
-0.308829 0.118482 0.261984 103 181 64
-0.309401 0.119957 0.261596 102 180 63
-0.309757 0.121335 0.26127 99 177 62
-0.309893 0.12261 0.261007 95 171 61
-0.309806 0.123777 0.260809 92 166 57
-0.309496 0.124832 0.260677 89 162 54
-0.309184 0.12589 0.260545 76 158 51
-0.30865 0.126832 0.260478 64 153 47
-0.308337 0.127895 0.260345 59 147 45
-0.30758 0.128717 0.260346 72 154 44
-0.306605 0.129417 0.260414 77 160 47
-0.306289 0.130483 0.260281 67 153 44
-0.296918 0.128832 0.262475 65 155 41
-0.2964 0.129744 0.262411 71 163 44
-0.295882 0.130657 0.262346 86 169 51
-0.295163 0.131452 0.262345 111 179 64
-0.30903 0.0786953 0.268285 65 139 55
-0.308159 0.0793921 0.268334 59 135 56
-0.307891 0.0802829 0.268222 57 133 50
-0.307222 0.0810436 0.268217 60 134 44
-0.306952 0.0819371 0.268105 65 140 40
-0.306681 0.082833 0.267993 70 148 42
-0.306694 0.0909171 0.266477 107 188 63
-0.305404 0.091458 0.266641 111 190 63
-0.304923 0.0923048 0.266581 110 190 64
-0.305044 0.0933883 0.266353 105 189 67
-0.305166 0.0944785 0.266124 101 184 66
-0.306101 0.0959022 0.265666 98 177 64
-0.308139 0.0999423 0.264491 89 166 65
-0.307642 0.100818 0.264429 86 159 64
-0.307772 0.101962 0.264188 83 156 64
-0.307482 0.102932 0.264066 81 154 64
-0.306981 0.103814 0.264004 84 154 62
-0.306899 0.10488 0.263821 86 154 61
-0.307236 0.106139 0.263517 88 156 61
-0.312336 0.109558 0.261829 89 161 65
-0.312039 0.110571 0.261701 88 163 64
-0.31152 0.111485 0.261636 92 167 62
-0.311442 0.112605 0.261442 95 173 66
-0.311363 0.113731 0.261248 98 177 70
-0.310841 0.11465 0.261183 100 179 74
-0.310098 0.115465 0.261183 100 181 70
-0.309576 0.116385 0.261118 101 183 64
-0.309053 0.117305 0.261053 103 181 64
-0.30853 0.118227 0.260988 102 178 65
-0.308881 0.11959 0.260661 101 177 62
-0.309455 0.121077 0.260265 99 176 61
-0.309368 0.122237 0.260065 96 171 60
-0.30928 0.123402 0.259865 93 167 57
-0.309191 0.124573 0.259664 89 163 55
-0.308658 0.125513 0.259598 76 158 51
-0.308124 0.126453 0.259532 65 154 46
-0.307589 0.127395 0.259465 64 147 42
-0.307054 0.128337 0.259399 75 155 46
-0.306081 0.129037 0.259468 78 160 48
-0.305765 0.1301 0.259333 69 154 43
-0.296421 0.128465 0.261558 67 159 44
-0.295703 0.129259 0.261557 76 167 48
-0.295386 0.130289 0.261429 91 174 54
-0.294668 0.131083 0.261428 116 183 68
-0.308558 0.0783971 0.267435 82 153 50
-0.307889 0.0791581 0.26743 78 153 50
-0.30742 0.0799835 0.267372 73 149 48
-0.306951 0.0808095 0.267313 72 145 47
-0.306681 0.0817028 0.2672 74 144 46
-0.30641 0.0825985 0.267087 77 149 48
-0.306619 0.0907546 0.265495 100 179 63
-0.306137 0.0916048 0.265434 102 183 64
-0.305653 0.0924556 0.265374 104 185 65
-0.305574 0.0934652 0.265199 103 186 66
-0.306309 0.0948018 0.264792 101 182 66
-0.308064 0.0997841 0.263479 92 167 69
-0.307775 0.100749 0.263356 89 162 67
-0.307695 0.101805 0.263172 85 155 65
-0.307195 0.102686 0.26311 83 154 63
-0.306694 0.103567 0.263047 84 156 63
-0.306611 0.104633 0.262862 86 156 60
-0.306947 0.105892 0.262553 89 161 64
-0.311819 0.109205 0.260906 91 165 69
-0.311742 0.110317 0.260711 91 166 68
-0.311223 0.111231 0.260646 92 166 63
-0.311144 0.11235 0.26045 93 170 62
-0.310844 0.113371 0.260319 97 175 66
-0.310322 0.11429 0.260254 100 179 72
-0.3098 0.115209 0.260188 99 181 72
-0.309277 0.116129 0.260123 99 182 67
-0.308754 0.11705 0.260058 102 180 65
-0.308231 0.117971 0.259992 103 178 65
-0.30858 0.119333 0.259661 101 176 64
-0.308932 0.120707 0.259326 99 174 62
-0.309065 0.121979 0.259057 96 171 60
-0.308755 0.123028 0.258923 91 168 58
-0.308665 0.124197 0.25872 88 163 54
-0.308353 0.125253 0.258585 78 158 50
-0.307598 0.126075 0.258587 65 153 45
-0.307064 0.127016 0.25852 66 146 43
-0.306311 0.127837 0.258521 77 155 47
-0.305777 0.128778 0.258455 79 158 49
-0.305242 0.129719 0.258388 70 153 43
-0.295725 0.127983 0.260707 72 161 44
-0.295209 0.128893 0.260643 78 171 49
-0.294692 0.129803 0.260578 99 180 56
-0.294174 0.130714 0.260513 119 184 69
-0.304056 0.0730437 0.268416 95 176 59
-0.308087 0.0780994 0.266585 89 168 56
-0.307419 0.07886 0.266581 86 161 55
-0.30715 0.0797494 0.266467 83 153 52
-0.306482 0.0805098 0.266463 80 147 50
-0.305814 0.0812694 0.266459 77 143 48
-0.305939 0.0822965 0.266235 77 143 47
-0.307232 0.0898172 0.264513 97 171 64
-0.306545 0.0905918 0.26451 100 177 67
-0.306062 0.0914427 0.264449 101 183 70
-0.30578 0.0923724 0.26433 101 185 69
-0.306312 0.0936223 0.263977 101 182 67
-0.306233 0.0946415 0.263797 100 179 67
-0.309059 0.0968283 0.262775 97 175 66
-0.308486 0.0987488 0.262528 94 169 65
-0.307987 0.0996257 0.262465 93 168 71
-0.307698 0.100591 0.262341 90 163 70
-0.307408 0.101559 0.262216 86 158 67
-0.306908 0.10244 0.262153 84 156 64
-0.306407 0.103321 0.26209 83 157 65
-0.306323 0.104387 0.261903 86 158 62
-0.306658 0.105644 0.26159 90 164 67
-0.311743 0.10905 0.259852 91 167 70
-0.311666 0.110163 0.259655 92 170 71
-0.310926 0.110976 0.259656 93 169 68
-0.310626 0.111993 0.259524 94 170 65
-0.310325 0.113012 0.259392 96 174 66
-0.310023 0.114035 0.259259 99 177 69
-0.309282 0.114848 0.259261 99 179 71
-0.308978 0.115874 0.259128 99 180 70
-0.308455 0.116795 0.259062 102 180 67
-0.307932 0.117716 0.258996 104 178 65
-0.30828 0.119077 0.25866 101 174 63
-0.30863 0.12045 0.258322 98 172 61
-0.308541 0.121607 0.258118 95 170 61
-0.308452 0.12277 0.257913 91 168 61
-0.30814 0.123822 0.257777 89 164 54
-0.307828 0.124876 0.257641 76 159 49
-0.307294 0.125816 0.257574 62 153 47
-0.30654 0.126637 0.257576 67 149 42
-0.305788 0.127458 0.257578 78 158 48
-0.305254 0.128398 0.257511 76 157 52
-0.30472 0.129338 0.257444 70 152 46
-0.295231 0.127618 0.259795 78 163 48
-0.294715 0.128527 0.25973 84 174 53
-0.294198 0.129436 0.259665 110 184 59
-0.293483 0.130229 0.259665 119 182 75
-0.30444 0.0720729 0.267543 108 192 65
-0.303794 0.0728161 0.267538 105 189 65
-0.304105 0.0738479 0.267269 101 183 63
-0.307355 0.0757888 0.266187 99 177 58
-0.307685 0.0768545 0.265908 92 171 58
-0.307417 0.0777392 0.265793 89 168 56
-0.307348 0.07869 0.265623 86 160 53
-0.306879 0.0795153 0.265563 83 152 48
-0.306013 0.0802106 0.265615 79 145 46
-0.305544 0.0810356 0.265556 77 140 47
-0.305075 0.0818613 0.265497 78 140 49
-0.308125 0.0879515 0.263648 91 165 61
-0.307642 0.088802 0.263587 93 168 65
-0.306954 0.0895775 0.263585 96 172 68
-0.30647 0.0904286 0.263524 100 178 70
-0.305986 0.0912803 0.263462 101 181 73
-0.306111 0.0923672 0.263223 100 182 72
-0.306441 0.0935408 0.262923 99 180 68
-0.306773 0.0947238 0.262621 98 176 65
-0.308985 0.0966672 0.261762 97 173 64
-0.308698 0.0976269 0.261637 96 172 62
-0.3082 0.0985031 0.261574 94 170 64
-0.307702 0.0993799 0.261511 92 168 71
-0.307412 0.100345 0.261386 88 164 73
-0.307122 0.101313 0.26126 87 160 68
-0.306621 0.102194 0.261197 84 158 65
-0.306329 0.103165 0.26107 85 157 65
-0.306036 0.10414 0.260944 89 160 63
-0.306159 0.105303 0.26069 91 165 69
-0.310849 0.110823 0.258598 93 172 68
-0.310328 0.111738 0.258532 95 172 66
-0.309808 0.112654 0.258466 96 174 66
-0.309287 0.113571 0.2584 97 175 65
-0.308984 0.114593 0.258267 99 179 66
-0.308461 0.115512 0.258201 99 181 69
-0.308156 0.116539 0.258066 101 179 67
-0.30785 0.117569 0.257932 103 177 64
-0.308198 0.11893 0.257591 102 174 62
-0.308109 0.12008 0.257386 98 172 60
-0.308239 0.121349 0.257111 94 169 61
-0.308148 0.122511 0.256904 91 168 60
-0.307616 0.123447 0.256836 87 164 55
-0.307303 0.1245 0.256699 73 158 50
-0.30677 0.125439 0.256631 61 153 47
-0.306017 0.12626 0.256634 67 152 44
-0.305266 0.12708 0.256637 79 159 50
-0.30495 0.128139 0.256499 74 157 51
-0.296774 0.126008 0.258686 69 159 42
-0.296257 0.126919 0.25862 74 162 46
-0.294738 0.127254 0.258884 79 169 50
-0.294024 0.128046 0.258884 88 179 54
-0.293508 0.128954 0.258819 118 191 62
-0.292402 0.129511 0.25895 120 180 74
-0.305017 0.0711565 0.266616 111 197 70
-0.304562 0.0719575 0.266558 109 192 68
-0.304298 0.0728163 0.266446 104 187 66
-0.306366 0.0743811 0.265681 100 177 62
-0.306691 0.0754351 0.265401 96 173 60
-0.307416 0.076621 0.265007 91 166 58
-0.307148 0.0775055 0.264891 87 161 55
-0.307078 0.0784559 0.264719 82 155 55
-0.306609 0.0792811 0.264659 81 149 54
-0.305743 0.0799768 0.264712 81 144 53
-0.305077 0.0807361 0.264709 80 144 53
-0.304608 0.0815611 0.264649 79 147 56
-0.305322 0.0827917 0.264249 80 149 61
-0.307847 0.0877116 0.26272 90 162 67
-0.307364 0.0885621 0.262658 94 166 69
-0.306396 0.0902651 0.262535 97 179 72
-0.306318 0.091272 0.262353 100 181 73
-0.306649 0.0924407 0.262049 101 181 72
-0.307188 0.0936992 0.261682 99 179 67
-0.307109 0.0947252 0.261496 96 175 63
-0.308699 0.0964218 0.26081 95 173 64
-0.308412 0.0973812 0.260684 94 171 64
-0.308124 0.0983432 0.260558 95 169 65
-0.307625 0.0992209 0.260494 90 169 73
-0.307335 0.100187 0.260367 87 166 72
-0.306835 0.101067 0.260303 86 163 68
-0.306334 0.101947 0.26024 86 160 66
-0.306042 0.102919 0.260112 87 159 65
-0.305748 0.103893 0.259984 91 163 66
-0.305871 0.105055 0.259728 90 165 70
-0.30951 0.112399 0.257474 95 174 69
-0.308771 0.113212 0.257476 96 174 65
-0.30825 0.114129 0.25741 98 177 62
-0.307945 0.115151 0.257275 99 181 65
-0.30764 0.116177 0.25714 99 181 67
-0.307551 0.117313 0.256935 98 178 64
-0.307897 0.118674 0.256589 97 174 62
-0.307807 0.119823 0.256382 94 172 60
-0.307716 0.120978 0.256174 92 170 61
-0.307625 0.122138 0.255965 90 167 58
-0.307312 0.123188 0.255826 83 164 54
-0.30678 0.124125 0.255758 70 158 49
-0.306247 0.125063 0.25569 61 151 46
-0.305496 0.125883 0.255694 70 153 45
-0.304745 0.126703 0.255697 80 161 50
-0.304212 0.127641 0.25563 75 157 47
-0.303248 0.128339 0.255704 70 159 43
-0.295876 0.125417 0.257907 70 159 45
-0.294364 0.125757 0.258173 77 166 47
-0.293652 0.126548 0.258173 83 174 51
-0.293138 0.127452 0.258108 95 183 57
-0.292624 0.128357 0.258042 123 199 67
-0.291913 0.129147 0.258043 108 169 74
-0.307808 0.0671406 0.265809 103 176 58
-0.307157 0.0678885 0.265806 106 182 63
-0.306702 0.0686892 0.265747 108 188 66
-0.306052 0.0694362 0.265743 109 193 69
-0.305596 0.0702375 0.265685 109 193 70
-0.30514 0.0710393 0.265627 106 191 68
-0.304684 0.0718418 0.265568 103 186 64
-0.306562 0.0733374 0.264848 99 177 62
-0.306888 0.074387 0.264565 96 170 60
-0.307614 0.0755665 0.264166 92 167 60
-0.307346 0.0764493 0.264049 93 165 57
-0.306878 0.0772718 0.263989 91 161 55
-0.306609 0.0781582 0.263872 85 157 59
-0.30614 0.0789827 0.263812 80 152 63
-0.305671 0.0798079 0.263752 80 148 63
-0.305004 0.080568 0.263749 80 148 62
-0.304731 0.08146 0.263632 79 150 64
-0.304852 0.0824891 0.263398 81 154 66
-0.306372 0.0840086 0.262753 81 156 67
-0.306903 0.0852003 0.262395 85 156 67
-0.306829 0.086187 0.262214 85 160 69
-0.307756 0.0906383 0.261115 98 176 72
-0.307396 0.092594 0.260804 100 180 73
-0.308911 0.0953024 0.259922 95 175 64
-0.308624 0.0962601 0.259794 94 174 64
-0.308337 0.0972202 0.259667 93 170 66
-0.307838 0.0980972 0.259603 95 170 68
-0.307548 0.0990614 0.259475 90 170 73
-0.307048 0.0999406 0.259411 88 168 71
-0.306548 0.10082 0.259347 87 165 68
-0.306256 0.10179 0.259218 89 162 64
-0.305754 0.102672 0.259154 88 161 64
-0.305252 0.103555 0.25909 90 165 69
-0.305373 0.104715 0.25883 88 164 72
-0.305077 0.105695 0.2587 92 168 68
-0.308473 0.112957 0.256484 96 175 67
-0.307952 0.113874 0.256418 96 175 61
-0.30743 0.114791 0.256351 96 178 62
-0.307125 0.115815 0.256214 95 181 66
-0.307251 0.117057 0.255937 93 179 64
-0.307596 0.118417 0.255588 92 173 58
-0.307287 0.119455 0.255449 88 171 58
-0.307195 0.120608 0.255239 86 169 58
-0.307102 0.121766 0.255028 85 167 56
-0.30679 0.122815 0.254888 80 164 50
-0.306476 0.123866 0.254747 68 158 47
-0.305725 0.124687 0.254752 62 150 46
-0.304975 0.125507 0.254756 74 155 47
-0.304226 0.126326 0.254759 81 163 52
-0.303693 0.127263 0.254691 74 158 49
-0.300403 0.126663 0.255549 70 161 45
-0.294585 0.124605 0.257266 71 165 46
-0.293874 0.125396 0.257267 80 172 50
-0.293163 0.126186 0.257268 90 181 55
-0.292649 0.12709 0.257203 102 188 62
-0.291745 0.127764 0.25727 128 202 72
-0.291231 0.128668 0.257205 94 151 76
-0.308985 0.0663692 0.264709 95 168 58
-0.307545 0.0669116 0.264928 101 172 60
-0.306894 0.0676596 0.264925 104 173 60
-0.306439 0.0684603 0.264866 106 177 60
-0.305789 0.0692076 0.264863 109 182 61
-0.305526 0.0700635 0.264749 109 183 62
-0.305652 0.0710332 0.264523 106 181 63
-0.305972 0.0720656 0.264241 103 178 65
-0.306295 0.0731061 0.263956 99 176 66
-0.308011 0.0745726 0.263267 95 171 66
-0.307544 0.0753938 0.263207 95 168 65
-0.307076 0.0762156 0.263147 91 166 66
-0.306807 0.0771004 0.263029 86 164 66
-0.306339 0.0779243 0.262968 81 159 66
-0.305869 0.0787487 0.262908 78 153 65
-0.3054 0.0795738 0.262848 79 150 64
-0.30493 0.0803996 0.262787 81 151 65
-0.304855 0.0813586 0.26261 82 153 67
-0.304581 0.0822544 0.262491 83 155 67
-0.305099 0.0834264 0.262135 83 158 70
-0.306224 0.0848209 0.261595 83 157 70
-0.306148 0.085805 0.261413 85 159 70
-0.308836 0.0951396 0.258905 96 173 65
-0.308339 0.0960144 0.258841 95 173 64
-0.308051 0.0969743 0.258712 92 172 68
-0.307552 0.0978512 0.258648 95 171 68
-0.307262 0.0988152 0.258519 95 171 73
-0.306971 0.0997816 0.258389 91 168 73
-0.30647 0.100662 0.258325 90 165 70
-0.305968 0.101544 0.25826 91 164 64
-0.305467 0.102426 0.258195 89 163 62
-0.304965 0.103308 0.258131 89 165 69
-0.304877 0.104375 0.257934 88 166 73
-0.30458 0.105354 0.257803 92 167 67
-0.304283 0.106336 0.257672 95 172 68
-0.307437 0.113515 0.255496 95 175 64
-0.306916 0.114431 0.255429 96 175 64
-0.306826 0.11556 0.25522 94 178 67
-0.306952 0.116801 0.25494 92 177 65
-0.30686 0.117941 0.254729 91 172 57
-0.306768 0.119087 0.254518 87 169 57
-0.306675 0.120238 0.254306 85 167 54
-0.306581 0.121394 0.254092 83 164 52
-0.306268 0.122442 0.253951 78 164 49
-0.305736 0.123377 0.253883 68 157 46
-0.305204 0.124312 0.253814 65 151 43
-0.304239 0.125015 0.253892 75 158 45
-0.303707 0.12595 0.253823 79 163 51
-0.302533 0.126532 0.253973 73 159 50
-0.296812 0.124572 0.255675 71 161 46
-0.293897 0.124134 0.256429 75 169 46
-0.293384 0.125036 0.256363 84 180 51
-0.292675 0.125825 0.256365 94 186 56
-0.292161 0.126728 0.256299 110 194 62
-0.291453 0.127517 0.2563 128 203 79
-0.290745 0.128305 0.256302 79 128 75
-0.308721 0.0661392 0.263824 89 163 55
-0.307477 0.0667344 0.26399 90 163 54
-0.307021 0.0675359 0.263931 94 164 55
-0.306565 0.068338 0.263872 98 167 57
-0.306108 0.0691407 0.263813 101 172 60
-0.306235 0.0701089 0.263585 102 177 63
-0.305971 0.070971 0.263469 102 178 66
-0.306294 0.0720059 0.263181 103 175 68
-0.306816 0.0731074 0.262833 101 173 70
-0.307741 0.0743389 0.262366 99 171 71
-0.307673 0.0752815 0.262188 94 168 68
-0.307205 0.0761048 0.262127 89 164 66
-0.306736 0.0769287 0.262066 86 159 63
-0.306267 0.0777533 0.262006 83 157 63
-0.305797 0.0785785 0.261945 81 155 65
-0.305327 0.0794043 0.261884 80 152 65
-0.305055 0.0802962 0.261764 80 154 67
-0.304781 0.0811903 0.261644 82 157 68
-0.304705 0.0821541 0.261463 85 159 69
-0.304826 0.0831905 0.261222 84 160 70
-0.305547 0.0844428 0.260798 85 157 66
-0.305873 0.0855668 0.260491 87 156 67
-0.308551 0.0948939 0.257953 98 172 64
-0.308053 0.0957686 0.257888 99 173 66
-0.307764 0.0967283 0.257758 95 175 69
-0.307475 0.0976904 0.257627 94 171 65
-0.306975 0.0985688 0.257563 97 171 72
-0.306684 0.099535 0.257432 93 167 74
-0.306183 0.100416 0.257367 92 166 72
-0.305889 0.101386 0.257235 91 167 67
-0.305179 0.102179 0.257237 92 165 64
-0.304677 0.103062 0.257172 91 166 71
-0.304381 0.104037 0.25704 91 169 73
-0.304084 0.105014 0.256908 94 169 70
-0.303787 0.105994 0.256776 94 174 70
-0.303281 0.106882 0.25671 94 176 73
-0.302776 0.107771 0.256645 97 176 72
-0.30714 0.113261 0.254504 98 175 67
-0.306618 0.114177 0.254437 98 174 64
-0.306527 0.115305 0.254226 93 177 67
-0.306652 0.116545 0.253942 90 176 65
-0.306343 0.117577 0.253802 91 174 56
-0.30625 0.11872 0.253588 87 170 57
-0.306155 0.119869 0.253374 84 167 55
-0.305843 0.120911 0.253232 83 164 51
-0.305747 0.122069 0.253016 76 162 50
-0.305216 0.123003 0.252948 66 155 47
-0.304468 0.123823 0.252953 66 152 43
-0.303292 0.124409 0.253105 74 162 48
-0.302761 0.125342 0.253036 78 163 50
-0.30054 0.125343 0.253551 74 160 47
-0.296315 0.124208 0.254764 75 162 46
-0.293409 0.123775 0.255527 81 172 46
-0.292896 0.124676 0.255461 87 185 55
-0.292187 0.125465 0.255463 98 191 60
-0.291674 0.126367 0.255397 121 202 61
-0.290966 0.127155 0.255399 128 201 80
-0.309449 0.0661672 0.262651 89 156 50
-0.307802 0.0666608 0.262937 90 162 56
-0.307345 0.0674644 0.262877 92 166 61
-0.306887 0.0682686 0.262818 94 170 63
-0.306429 0.0690735 0.262758 98 173 66
-0.306166 0.0699339 0.262641 100 176 67
-0.306293 0.0709084 0.262408 98 177 68
-0.306421 0.0718888 0.262174 99 173 67
-0.306944 0.0729916 0.261821 99 169 67
-0.307672 0.0741649 0.261405 96 170 70
-0.307603 0.075108 0.261225 90 167 65
-0.307334 0.0759935 0.261104 89 163 61
-0.306665 0.0767567 0.261102 87 160 61
-0.305996 0.077519 0.261101 83 159 66
-0.305527 0.0783442 0.26104 81 158 68
-0.305453 0.079299 0.260859 81 155 68
-0.304981 0.0801269 0.260798 83 154 67
-0.304707 0.0810217 0.260676 84 157 68
-0.305027 0.0821208 0.260371 85 160 70
-0.304751 0.0830229 0.260249 85 161 66
-0.304873 0.0840661 0.260003 86 160 64
-0.305195 0.0851866 0.259694 87 160 66
-0.308133 0.0935305 0.257263 96 174 69
-0.307637 0.094402 0.257199 98 173 66
-0.307558 0.0954398 0.257001 100 178 71
-0.307269 0.0963982 0.25687 94 172 68
-0.306979 0.097359 0.256738 92 168 63
-0.306688 0.0983225 0.256606 94 172 74
-0.306397 0.0992884 0.256474 92 168 76
-0.306104 0.100257 0.256341 92 167 71
-0.305602 0.101139 0.256276 91 167 64
-0.305099 0.102022 0.256211 94 167 67
-0.304389 0.102815 0.256213 92 168 73
-0.303886 0.103698 0.256147 91 171 73
-0.303589 0.104674 0.256014 94 172 73
-0.303291 0.105653 0.255881 96 176 71
-0.302786 0.10654 0.255815 96 178 73
-0.302281 0.107428 0.255749 96 178 73
-0.30198 0.108412 0.255615 97 180 72
-0.307147 0.111988 0.253652 97 179 73
-0.306627 0.112903 0.253585 97 178 69
-0.306106 0.113818 0.253517 96 175 65
-0.306013 0.114944 0.253304 91 174 68
-0.306136 0.116182 0.253017 89 175 67
-0.305827 0.117212 0.252876 94 174 58
-0.305516 0.118245 0.252734 89 171 57
-0.305421 0.119391 0.252518 84 167 55
-0.305324 0.120542 0.252301 83 165 50
-0.305011 0.121585 0.252158 75 163 49
-0.30448 0.122517 0.252089 64 155 46
-0.30352 0.12322 0.252169 70 151 43
-0.301926 0.123578 0.25247 79 164 48
-0.301187 0.124391 0.252475 80 164 48
-0.299406 0.124628 0.252846 75 163 48
-0.295217 0.12351 0.254066 74 166 49
-0.292921 0.123416 0.254627 85 175 50
-0.292408 0.124316 0.25456 93 191 55
-0.291895 0.125217 0.254493 100 195 64
-0.291188 0.126006 0.254496 128 206 70
-0.290481 0.126794 0.254498 123 191 82
-0.312881 0.0659558 0.260872 85 153 54
-0.309183 0.065936 0.261762 88 156 61
-0.307735 0.0664827 0.261993 91 162 62
-0.307277 0.067287 0.261934 89 165 60
-0.306818 0.0680919 0.261874 93 169 60
-0.30636 0.0688975 0.261814 98 171 64
-0.306292 0.0698134 0.261637 100 173 68
-0.306223 0.0707333 0.261459 100 175 69
-0.30635 0.0717141 0.261222 97 171 69
-0.307271 0.0729339 0.260744 95 169 69
-0.307402 0.0739309 0.260502 96 171 64
-0.307533 0.0749341 0.260259 90 168 64
-0.307063 0.0757589 0.260198 90 163 60
-0.306593 0.0765843 0.260136 88 161 61
-0.306123 0.0774103 0.260075 86 159 65
-0.305652 0.0782369 0.260013 84 158 68
-0.30538 0.0791287 0.259891 82 157 69
-0.304908 0.0799574 0.259829 83 156 70
-0.304435 0.0807867 0.259767 85 158 69
-0.304754 0.0818849 0.259459 84 161 68
-0.304478 0.0827867 0.259335 87 160 63
-0.304599 0.0838292 0.259086 86 162 63
-0.30452 0.0848078 0.258899 88 164 68
-0.30764 0.0932048 0.25638 96 172 68
-0.307144 0.0940755 0.256316 98 174 67
-0.307064 0.0951115 0.256116 97 177 68
-0.306983 0.0961523 0.255916 91 167 64
-0.306693 0.0971129 0.255783 92 169 69
-0.306402 0.0980761 0.25565 92 172 78
-0.306318 0.0991286 0.255448 91 169 79
-0.305816 0.10001 0.255382 91 166 70
-0.305522 0.100981 0.255248 92 166 62
-0.304811 0.101775 0.255251 92 167 68
-0.304308 0.102658 0.255185 92 168 71
-0.303598 0.103451 0.255188 92 171 69
-0.303095 0.104335 0.255122 95 173 69
-0.302591 0.10522 0.255056 95 176 71
-0.302292 0.106199 0.254921 96 177 72
-0.301992 0.107181 0.254786 97 177 71
-0.301486 0.108069 0.25472 96 178 66
-0.30642 0.111531 0.252808 95 178 67
-0.306114 0.112546 0.252667 94 176 70
-0.305594 0.11346 0.252599 94 176 71
-0.305286 0.11448 0.252457 91 175 71
-0.305406 0.115714 0.252168 91 174 68
-0.305312 0.116849 0.251952 94 174 61
-0.304786 0.117771 0.251883 90 173 58
-0.304689 0.118914 0.251665 85 169 58
-0.304591 0.120061 0.251447 82 166 53
-0.304063 0.12099 0.251378 76 162 48
-0.303106 0.121694 0.251458 65 153 44
-0.302153 0.122395 0.251539 72 153 44
-0.301204 0.123095 0.251619 79 163 48
-0.29984 0.123565 0.251846 77 163 48
-0.297257 0.123355 0.25251 75 164 48
-0.293929 0.122708 0.253443 77 169 51
-0.292629 0.123169 0.253658 89 180 56
-0.292117 0.124069 0.253591 100 192 57
-0.291409 0.124858 0.253594 107 200 65
-0.290702 0.125646 0.253597 133 216 78
-0.313077 0.0649033 0.26003 82 149 56
-0.312202 0.065617 0.260091 82 154 61
-0.309515 0.0658595 0.260693 83 158 62
-0.308259 0.06646 0.260871 89 159 58
-0.307208 0.0671093 0.260988 87 165 62
-0.306749 0.0679149 0.260928 91 165 61
-0.30629 0.0687211 0.260868 96 167 60
-0.306026 0.0695827 0.260748 99 171 61
-0.305957 0.0705022 0.260568 97 173 63
-0.306083 0.0714823 0.260328 97 171 63
-0.307002 0.0727005 0.259844 94 169 68
-0.307132 0.0736969 0.2596 93 169 63
-0.307063 0.0746391 0.259416 90 166 64
-0.306793 0.0755242 0.259292 89 163 63
-0.306323 0.0763495 0.25923 87 161 64
-0.306051 0.0772383 0.259107 87 160 64
-0.30558 0.0780656 0.259045 86 158 67
-0.305108 0.0788937 0.258983 84 158 71
-0.304636 0.0797223 0.258921 83 159 71
-0.304361 0.0806175 0.258796 84 160 69
-0.304481 0.0816489 0.258547 85 160 66
-0.304602 0.0826866 0.258296 87 161 63
-0.304723 0.0837308 0.258043 89 163 64
-0.30806 0.0921696 0.255428 96 172 69
-0.307355 0.09296 0.255431 97 170 66
-0.306859 0.0938306 0.255366 98 173 66
-0.306571 0.0947839 0.255233 93 171 62
-0.306697 0.0959064 0.254962 90 166 63
-0.306407 0.0968668 0.254828 93 172 72
-0.306115 0.0978296 0.254693 91 170 77
-0.306031 0.0988816 0.254489 90 172 78
-0.305946 0.0999384 0.254284 89 168 73
-0.305442 0.100822 0.254218 91 163 65
-0.304731 0.101617 0.254221 91 165 64
-0.30402 0.102411 0.254225 91 168 67
-0.303311 0.103205 0.254228 93 171 65
-0.302807 0.104089 0.254162 94 173 66
-0.302098 0.104881 0.254165 92 174 70
-0.301799 0.105858 0.254029 95 175 74
-0.301498 0.106839 0.253893 98 176 75
-0.301401 0.107917 0.253686 99 179 72
-0.306123 0.111277 0.251819 98 181 73
-0.305817 0.112292 0.251677 95 181 79
-0.305296 0.113206 0.251608 94 180 78
-0.304988 0.114225 0.251466 92 177 73
-0.30468 0.115247 0.251323 90 173 66
-0.304583 0.116379 0.251104 92 172 60
-0.304272 0.117407 0.25096 92 173 58
-0.303961 0.118439 0.250816 86 170 57
-0.303647 0.119473 0.250671 81 168 54
-0.30312 0.120399 0.250602 71 163 49
-0.30238 0.121213 0.250608 63 152 45
-0.30143 0.121914 0.25069 72 155 46
-0.300484 0.122613 0.250771 79 164 48
-0.299333 0.123197 0.250926 75 161 47
-0.29615 0.122657 0.251817 74 163 50
-0.293243 0.12224 0.252614 77 172 54
-0.292338 0.122921 0.252689 90 188 59
-0.29163 0.12371 0.252692 101 197 60
-0.290924 0.124499 0.252696 112 207 66
-0.290411 0.125399 0.252629 132 215 83
-0.305267 0.0472356 0.264764 96 166 56
-0.304654 0.0479537 0.26476 91 166 55
-0.30441 0.0487392 0.264651 91 166 54
-0.313273 0.0638515 0.25919 83 147 50
-0.312603 0.0646176 0.25919 83 151 54
-0.311729 0.0653311 0.259252 82 152 58
-0.309449 0.0656792 0.259741 84 154 55
-0.307994 0.066229 0.259982 88 156 57
-0.307534 0.0670362 0.259921 87 165 64
-0.30668 0.0677375 0.25998 87 165 65
-0.306221 0.0685444 0.25992 93 165 63
-0.30576 0.069352 0.259859 97 169 61
-0.305691 0.070271 0.259677 96 172 61
-0.305424 0.0711376 0.259556 95 172 64
-0.305549 0.0721209 0.259312 92 170 67
-0.306862 0.0734629 0.258697 93 168 63
-0.306792 0.0744046 0.258511 92 165 62
-0.306522 0.0752895 0.258386 89 162 63
-0.306251 0.0761765 0.258262 87 161 64
-0.30578 0.0770032 0.258199 87 161 64
-0.305706 0.0779575 0.258011 87 160 67
-0.305233 0.078787 0.257949 86 161 71
-0.30476 0.0796172 0.257886 84 161 70
-0.304485 0.0805139 0.25776 85 159 67
-0.308271 0.0910545 0.254544 93 172 72
-0.307775 0.0919245 0.254479 94 171 68
-0.307279 0.0927952 0.254413 96 168 62
-0.306575 0.0935856 0.254416 98 171 65
-0.306286 0.0945387 0.254282 94 172 62
-0.305996 0.0954943 0.254147 90 171 64
-0.30612 0.0966206 0.253872 90 170 66
-0.306036 0.0976685 0.253666 90 166 68
-0.306161 0.0988078 0.253389 90 171 70
-0.306076 0.0998665 0.253181 86 166 70
-0.305571 0.100752 0.253115 88 164 68
-0.30465 0.101459 0.25319 91 165 67
-0.303939 0.102254 0.253194 90 167 68
-0.303228 0.103048 0.253198 93 172 70
-0.302519 0.103842 0.253202 96 175 73
-0.30181 0.104634 0.253205 95 178 79
-0.301306 0.105519 0.253139 96 180 81
-0.301209 0.106591 0.252931 98 180 80
-0.301316 0.107765 0.252651 98 181 79
-0.305612 0.110922 0.250905 98 181 79
-0.305306 0.111936 0.250762 97 181 80
-0.304999 0.112952 0.250618 96 180 78
-0.304691 0.113971 0.250474 94 180 74
-0.304381 0.114992 0.250329 91 177 68
-0.304071 0.116017 0.250184 91 173 62
-0.30376 0.117044 0.250039 92 172 59
-0.303447 0.118074 0.249894 87 170 57
-0.302921 0.118997 0.249824 78 169 54
-0.302395 0.119921 0.249755 67 161 49
-0.301657 0.120734 0.249761 65 151 44
-0.30092 0.121547 0.249768 74 157 45
-0.299767 0.122134 0.249926 76 158 46
-0.29862 0.122718 0.250084 73 160 46
-0.295452 0.122184 0.250983 71 163 48
-0.292754 0.121883 0.251715 82 175 53
-0.291851 0.122564 0.251791 96 192 59
-0.291339 0.123463 0.251724 105 198 62
-0.290632 0.124252 0.251728 125 207 69
-0.29012 0.125151 0.25166 133 209 85
-0.305817 0.0463307 0.263879 113 174 63
-0.305018 0.0470176 0.263929 111 175 64
-0.304406 0.0477358 0.263926 103 173 63
-0.304161 0.0485211 0.263815 96 173 59
-0.303732 0.0492738 0.263758 87 167 55
-0.312334 0.0643832 0.258289 84 152 52
-0.31146 0.0650972 0.258352 81 153 57
-0.308983 0.0653958 0.258909 85 155 53
-0.307926 0.0660496 0.259031 90 154 54
-0.307268 0.0668051 0.259031 90 161 57
-0.306415 0.0675068 0.259092 89 165 61
-0.305955 0.0683137 0.259031 91 166 61
-0.305495 0.0691212 0.25897 95 167 61
-0.305229 0.0699845 0.258847 95 169 62
-0.305158 0.0709061 0.258663 93 170 66
-0.305282 0.0718888 0.258417 95 169 66
-0.306195 0.0731113 0.25792 93 167 61
-0.306522 0.0741701 0.257606 92 165 60
-0.306052 0.074994 0.257544 89 162 62
-0.305979 0.0759415 0.257354 88 162 63
-0.305906 0.0768932 0.257164 87 162 65
-0.305832 0.0778489 0.256974 87 162 68
-0.306762 0.0791333 0.256459 88 162 70
-0.306285 0.0799704 0.256395 85 161 69
-0.307778 0.0907311 0.253664 93 172 72
-0.307282 0.0916003 0.253598 92 169 64
-0.306787 0.0924701 0.253532 94 168 60
-0.30629 0.0933407 0.253466 98 169 62
-0.306001 0.0942935 0.25333 96 172 63
-0.30571 0.0952488 0.253194 92 171 62
-0.305834 0.0963743 0.252917 89 167 60
-0.305749 0.0974218 0.252709 89 163 60
-0.305873 0.0985604 0.252428 88 162 60
-0.306206 0.0997942 0.252074 89 160 62
-0.305701 0.100681 0.252007 89 166 71
-0.304777 0.10139 0.252084 92 168 76
-0.303857 0.102097 0.25216 93 170 78
-0.303146 0.102892 0.252165 94 175 81
-0.302436 0.103686 0.25217 96 177 82
-0.301727 0.104479 0.252174 97 178 81
-0.301426 0.105457 0.252035 98 180 79
-0.301124 0.106438 0.251896 98 181 79
-0.301641 0.107803 0.251468 100 183 79
-0.303413 0.109771 0.250592 100 184 79
-0.305009 0.111682 0.249772 97 181 81
-0.304701 0.112698 0.249627 96 182 82
-0.304393 0.113716 0.249482 95 183 79
-0.304083 0.114738 0.249336 93 180 73
-0.303559 0.115656 0.249266 89 177 67
-0.303248 0.116682 0.24912 89 175 60
-0.302935 0.11771 0.248973 83 172 58
-0.30241 0.118632 0.248903 74 168 53
-0.301883 0.119555 0.248833 64 159 46
-0.301147 0.120368 0.248841 65 153 43
-0.300411 0.12118 0.248848 72 158 46
-0.299053 0.121656 0.249085 71 157 45
-0.297092 0.121795 0.249547 69 159 46
-0.29416 0.121386 0.250373 74 165 48
-0.292267 0.121526 0.250818 87 182 54
-0.29156 0.122316 0.250823 99 195 62
-0.290853 0.123105 0.250828 107 201 66
-0.290341 0.124004 0.25076 133 208 70
-0.308438 0.0457715 0.262386 86 141 51
-0.306312 0.0462403 0.262825 96 158 59
-0.305139 0.0468645 0.262986 109 172 67
-0.304341 0.047551 0.263037 119 181 70
-0.303912 0.048303 0.26298 112 188 65
-0.303483 0.0490556 0.262923 91 173 60
-0.303054 0.0498088 0.262865 75 163 54
-0.311643 0.0576413 0.258937 82 151 52
-0.31019 0.0582182 0.25918 79 145 50
-0.312064 0.0641488 0.257387 85 151 51
-0.310786 0.0647608 0.257578 81 150 51
-0.308915 0.065215 0.257954 86 155 50
-0.307858 0.0658699 0.258079 92 158 55
-0.307199 0.0666261 0.258079 94 162 55
-0.306542 0.0673816 0.25808 91 164 57
-0.306081 0.06819 0.258018 90 166 60
-0.30562 0.068999 0.257957 93 166 60
-0.305158 0.0698085 0.257895 96 167 62
-0.304891 0.0706746 0.257771 93 168 63
-0.305014 0.0716566 0.257522 94 168 62
-0.305531 0.0727609 0.257145 91 166 60
-0.306251 0.0739356 0.256701 89 164 59
-0.306179 0.0748804 0.25651 89 161 62
-0.305708 0.0757065 0.256447 90 162 65
-0.306033 0.0767826 0.256126 89 164 66
-0.306964 0.0780594 0.255605 86 163 67
-0.307094 0.0790912 0.255343 87 161 65
-0.306615 0.0799306 0.255279 84 161 65
-0.306006 0.0930957 0.252516 94 167 60
-0.305716 0.0940482 0.252379 95 170 60
-0.305218 0.0949209 0.252313 92 165 60
-0.30534 0.0960444 0.252033 93 162 58
-0.305254 0.0970901 0.251823 89 163 59
-0.305168 0.0981406 0.251612 87 160 60
-0.305498 0.0993704 0.251255 93 161 62
-0.304993 0.100256 0.251187 92 167 72
-0.304488 0.101142 0.25112 91 170 77
-0.303775 0.101939 0.251125 95 171 79
-0.303063 0.102735 0.25113 96 175 80
-0.302352 0.10353 0.251136 97 177 82
-0.301642 0.104324 0.251141 98 179 83
-0.301341 0.105303 0.251001 98 181 82
-0.301039 0.106284 0.25086 98 180 82
-0.30135 0.107554 0.250499 99 182 82
-0.302077 0.10903 0.249987 98 185 80
-0.304287 0.111225 0.248936 97 183 81
-0.304191 0.112341 0.248713 96 183 81
-0.303882 0.113358 0.248567 95 184 80
-0.303572 0.114378 0.24842 93 181 77
-0.303261 0.115401 0.248272 93 177 69
-0.302737 0.11632 0.248202 92 177 59
-0.302213 0.117239 0.248132 82 174 57
-0.301688 0.11816 0.248062 71 166 52
-0.301163 0.119081 0.247992 63 156 45
-0.300637 0.120002 0.247922 68 154 43
-0.299486 0.120593 0.248085 70 156 47
-0.298548 0.121291 0.248169 70 155 46
-0.295783 0.120993 0.248941 69 158 47
-0.29288 0.120595 0.24977 77 169 49
-0.291781 0.12117 0.249923 91 188 55
-0.291074 0.12196 0.249928 103 198 62
-0.290562 0.122858 0.24986 111 202 69
-0.289857 0.123647 0.249865 138 214 77
-0.306623 0.0461171 0.261819 81 128 51
-0.305446 0.0467433 0.261984 94 145 54
-0.304461 0.0473987 0.262092 103 165 61
-0.303663 0.0480849 0.262144 121 187 68
-0.303234 0.0488375 0.262087 108 187 66
-0.302805 0.0495906 0.262029 84 169 59
-0.302557 0.0503798 0.261916 67 155 50
-0.311634 0.056569 0.258175 82 152 49
-0.310381 0.0571929 0.25836 79 149 50
-0.309927 0.0579888 0.258299 78 145 49
-0.310467 0.0590105 0.25793 80 143 47
-0.312 0.0639649 0.256421 85 153 49
-0.310517 0.0645272 0.256679 81 153 50
-0.308848 0.0650339 0.256998 85 154 48
-0.307988 0.0657413 0.257062 88 160 53
-0.307131 0.0664469 0.257126 89 161 53
-0.306669 0.067256 0.257064 90 163 56
-0.306011 0.0680122 0.257065 90 165 59
-0.305549 0.0688219 0.257003 91 164 59
-0.305087 0.0696322 0.256941 95 163 58
-0.304624 0.0704431 0.256878 94 164 61
-0.304747 0.0714245 0.256627 92 165 61
-0.305065 0.0724697 0.256309 90 165 61
-0.305782 0.0736416 0.255861 88 163 60
-0.305908 0.0746454 0.255603 87 162 64
-0.305635 0.0755326 0.255474 88 162 66
-0.305761 0.0765466 0.255214 88 163 66
-0.306892 0.0778859 0.254621 86 163 65
-0.306818 0.078853 0.254423 86 161 61
-0.30634 0.0796923 0.254359 83 162 62
-0.306952 0.0880511 0.252324 99 173 72
-0.30646 0.0889139 0.252258 95 174 75
-0.305967 0.0897774 0.252192 93 171 69
-0.305474 0.0906416 0.252126 93 168 61
-0.304981 0.0915065 0.252059 91 168 60
-0.304487 0.0923719 0.251993 91 167 60
-0.304933 0.0946756 0.251361 97 167 64
-0.304435 0.0955489 0.251294 96 166 64
-0.303936 0.0964229 0.251227 90 164 65
-0.304466 0.0977224 0.250798 86 160 65
-0.304378 0.0987748 0.250585 93 164 66
-0.304496 0.0999197 0.250297 92 169 75
-0.303784 0.100716 0.250303 92 171 79
-0.303486 0.101691 0.250162 94 173 81
-0.302774 0.102487 0.250167 95 177 81
-0.302474 0.103465 0.250026 96 179 83
-0.301763 0.10426 0.250031 99 180 84
-0.301257 0.105148 0.249963 99 183 84
-0.30075 0.106037 0.249895 98 184 85
-0.30065 0.107115 0.249679 98 184 84
-0.30096 0.108392 0.249312 97 185 81
-0.302936 0.11047 0.248334 97 185 80
-0.30347 0.111883 0.247879 97 184 81
-0.303372 0.113001 0.247653 95 185 80
-0.303062 0.114019 0.247505 94 182 76
-0.302539 0.114936 0.247435 94 176 65
-0.302227 0.115959 0.247286 93 176 59
-0.301914 0.116984 0.247137 82 175 57
-0.301389 0.117905 0.247067 69 164 52
-0.300863 0.118826 0.246996 63 152 46
-0.29992 0.119528 0.247083 71 155 43
-0.29898 0.120228 0.247169 71 158 45
-0.297224 0.120486 0.247567 70 159 46
-0.294486 0.120199 0.24834 72 162 47
-0.292197 0.120132 0.248949 84 176 50
-0.291295 0.120815 0.249029 100 192 57
-0.290783 0.121712 0.24896 107 199 61
-0.290078 0.122501 0.248966 123 206 68
-0.289374 0.123289 0.248972 139 214 81
-0.30594 0.046654 0.26092 89 120 54
-0.304765 0.0472789 0.261087 92 137 59
-0.303782 0.0479335 0.261197 102 160 53
-0.303168 0.0486533 0.261195 119 184 65
-0.302738 0.0494071 0.261137 103 183 66
-0.30249 0.0501967 0.261023 78 166 58
-0.302059 0.0509523 0.260964 62 147 45
-0.311371 0.0563387 0.257292 82 152 47
-0.310119 0.0569635 0.257479 83 151 47
-0.31046 0.0579356 0.257169 81 149 47
-0.310602 0.0588702 0.256919 80 146 48
-0.31216 0.0601358 0.256222 82 148 49
-0.31328 0.0622435 0.255449 85 156 47
-0.312196 0.062913 0.255581 86 157 47
-0.311526 0.0636799 0.255584 85 156 50
-0.310249 0.0642935 0.25578 82 155 54
-0.308581 0.0648015 0.256103 86 155 52
-0.30792 0.0655608 0.256105 87 158 55
-0.307259 0.0663193 0.256106 89 160 55
-0.306599 0.0670771 0.256108 90 163 56
-0.306137 0.0678876 0.256045 91 166 58
-0.305674 0.0686987 0.255983 92 166 58
-0.305211 0.0695104 0.25592 93 165 58
-0.304943 0.0703785 0.255794 92 164 61
-0.305263 0.0714193 0.255473 89 165 60
-0.30519 0.0723522 0.255281 87 164 59
-0.305512 0.0734072 0.254956 87 163 59
-0.305637 0.0744103 0.254696 85 163 62
-0.305563 0.0753584 0.2545 84 161 63
-0.305688 0.0763728 0.254237 85 160 62
-0.306013 0.077457 0.253905 86 162 60
-0.306341 0.0785499 0.25357 87 162 57
-0.305863 0.0793884 0.253506 84 161 58
-0.305585 0.080294 0.253373 84 160 59
-0.303015 0.0864806 0.252644 98 174 72
-0.302332 0.0872557 0.252647 95 174 75
-0.301848 0.0881038 0.252582 92 171 67
-0.299312 0.0892025 0.253 93 170 60
-0.304204 0.0921283 0.251048 92 169 64
-0.304149 0.0953035 0.250342 94 170 69
-0.302834 0.0958448 0.250565 95 167 69
-0.302743 0.0968838 0.250353 88 164 66
-0.303061 0.0980981 0.249993 91 165 68
-0.303175 0.0992355 0.249705 91 170 75
-0.303289 0.10038 0.249415 92 171 79
-0.302991 0.101354 0.249272 92 173 82
-0.302897 0.10242 0.249055 94 177 83
-0.302391 0.103308 0.248986 97 180 85
-0.301474 0.104013 0.249067 99 181 87
-0.300967 0.1049 0.248999 98 184 87
-0.30046 0.105789 0.248931 98 186 85
-0.300156 0.106772 0.248787 99 186 84
-0.300259 0.10795 0.248493 100 185 81
-0.301599 0.109723 0.247737 100 184 80
-0.302543 0.111326 0.247125 97 185 81
-0.302653 0.112542 0.24682 94 186 79
-0.302132 0.113454 0.24675 94 183 71
-0.301821 0.114472 0.246601 93 178 61
