ply
format ascii 1.0
element vertex 1245
property float x
property float y
property float z
property uchar diffuse_red
property uchar diffuse_green
property uchar diffuse_blue
end_header
-0.310035 0.0910495 0.257787 89 159 64
-0.309505 0.0918666 0.257739 90 158 65
-0.30918 0.0927588 0.257628 90 160 64
-0.308855 0.0936532 0.257517 90 164 65
-0.308938 0.0947029 0.25728 90 166 65
-0.308405 0.095526 0.257231 93 167 66
-0.307463 0.0961934 0.25731 95 171 67
-0.306727 0.0969374 0.257325 94 172 68
-0.305791 0.0976013 0.257402 95 173 70
-0.305259 0.0984227 0.257354 97 173 74
-0.304726 0.0992446 0.257306 102 171 72
-0.304595 0.10023 0.257131 98 171 70
-0.304462 0.10122 0.256956 93 169 66
-0.304732 0.102382 0.256652 90 168 69
-0.305207 0.103639 0.256281 89 166 72
-0.305482 0.104821 0.255972 88 163 69
-0.305348 0.105836 0.255791 89 161 63
-0.305008 0.106766 0.255676 91 162 60
-0.304872 0.107788 0.255495 91 163 63
-0.304735 0.108815 0.255313 88 165 67
-0.304802 0.109939 0.255063 89 167 66
-0.304664 0.110976 0.25488 91 170 67
-0.304731 0.112113 0.254628 96 171 69
-0.304384 0.113064 0.25451 98 174 71
-0.305283 0.114606 0.253982 99 175 70
-0.305771 0.115968 0.253586 98 177 68
-0.30542 0.116937 0.253465 93 178 68
-0.305488 0.118113 0.253205 95 177 65
-0.305769 0.119401 0.252872 93 177 68
-0.306479 0.120914 0.252394 92 177 64
-0.305908 0.121795 0.252342 91 174 62
-0.306407 0.123222 0.25193 92 174 68
-0.30691 0.124664 0.251514 91 176 78
-0.306549 0.125668 0.251388 87 175 82
-0.306186 0.126675 0.251262 84 173 78
-0.305823 0.127685 0.251136 81 168 65
-0.305242 0.128581 0.251084 70 162 48
-0.304232 0.129245 0.251178 63 158 41
-0.302589 0.129558 0.251492 72 160 47
-0.302646 0.130801 0.25122 80 167 53
-0.293007 0.128973 0.253823 89 176 52
-0.292448 0.129836 0.253773 94 189 59
-0.291889 0.1307 0.253722 106 195 65
-0.291329 0.131564 0.253671 129 204 73
-0.312278 0.054247 0.263982 97 158 53
-0.310852 0.0548007 0.264199 93 157 51
-0.31019 0.0554951 0.264208 93 158 50
-0.309528 0.0561887 0.264216 95 159 50
-0.318312 0.0703336 0.259175 82 142 45
-0.317591 0.0710709 0.259189 83 142 44
-0.317079 0.0718612 0.259142 84 145 44
-0.316567 0.072652 0.259095 86 146 48
-0.316054 0.0734434 0.259049 87 150 49
-0.315541 0.0742352 0.259002 88 155 51
-0.314821 0.0749708 0.259016 88 159 54
-0.314103 0.0757054 0.259029 90 161 56
-0.312977 0.0763235 0.259162 98 162 56
-0.312872 0.077231 0.258996 96 169 60
-0.312359 0.0780232 0.258949 95 169 61
-0.31266 0.0790576 0.25866 95 169 60
-0.312348 0.0799152 0.258552 97 169 57
-0.31224 0.0808372 0.258383 96 167 55
-0.311112 0.0814476 0.258519 94 166 56
-0.310595 0.0822453 0.258472 90 164 56
-0.31028 0.0831078 0.258364 89 161 53
-0.309964 0.0839725 0.258255 88 158 51
-0.309647 0.0848393 0.258147 85 153 49
-0.309532 0.0857752 0.257977 83 150 50
-0.309011 0.0865792 0.257929 84 149 52
-0.308691 0.0874523 0.25782 85 153 54
-0.308775 0.0884671 0.257586 83 156 60
-0.310085 0.0899165 0.256974 85 160 64
-0.309967 0.0908777 0.256799 90 161 65
-0.309437 0.0916955 0.25675 90 161 67
-0.309112 0.0925884 0.256638 89 164 67
-0.308785 0.0934835 0.256526 92 166 68
-0.308663 0.0944571 0.256349 97 168 69
-0.307721 0.095126 0.256429 100 170 69
-0.306985 0.0958704 0.256445 97 169 70
-0.306453 0.0966922 0.256396 96 171 71
-0.305718 0.0974355 0.256411 96 173 73
-0.304985 0.0981779 0.256427 94 171 75
-0.304452 0.0989998 0.256378 100 172 68
-0.30432 0.0999848 0.256202 94 167 66
-0.304186 0.100974 0.256024 91 167 66
-0.304657 0.102219 0.255651 89 167 71
-0.305336 0.103562 0.255209 88 165 72
-0.305612 0.104746 0.254895 87 161 68
-0.305683 0.105851 0.254645 88 160 62
-0.305342 0.106784 0.254528 92 162 60
-0.305001 0.107719 0.254411 91 165 62
-0.304453 0.108564 0.254361 89 166 66
-0.30452 0.109688 0.254109 91 170 65
-0.30438 0.110725 0.253923 95 171 69
-0.30424 0.111766 0.253736 96 174 69
-0.303893 0.112715 0.253617 97 174 69
-0.304996 0.114351 0.253014 97 176 71
-0.305483 0.115712 0.252613 100 177 64
-0.304921 0.116579 0.252561 98 178 64
-0.304988 0.117753 0.252298 95 178 65
-0.304634 0.118728 0.252176 92 176 65
-0.305122 0.120124 0.251767 90 176 62
-0.305615 0.121535 0.251354 91 175 61
-0.305043 0.122417 0.251302 91 173 65
-0.30511 0.123628 0.251031 90 174 71
-0.304963 0.124735 0.250832 87 176 76
-0.304601 0.125735 0.250706 82 175 75
-0.304237 0.126738 0.250579 76 169 60
-0.30366 0.127629 0.250527 68 162 46
-0.302871 0.128405 0.250548 66 158 42
-0.301872 0.129066 0.250643 77 162 46
-0.301505 0.130072 0.250517 82 169 56
-0.292721 0.128721 0.25286 92 181 56
-0.292162 0.129584 0.252809 98 191 62
-0.291602 0.130447 0.252758 113 202 68
-0.290849 0.131198 0.252776 127 206 79
-0.311459 0.0539167 0.263299 115 174 64
-0.310606 0.054577 0.263361 108 175 63
-0.309755 0.0552354 0.263423 100 167 59
-0.309095 0.0559286 0.263432 96 160 55
-0.308622 0.0566585 0.263389 97 161 52
-0.308149 0.0573888 0.263345 83 160 48
-0.317838 0.0700414 0.258335 82 143 45
-0.317117 0.0707782 0.258349 83 143 45
-0.316606 0.0715678 0.258302 82 146 46
-0.316509 0.0724668 0.258133 84 148 49
-0.315788 0.0732036 0.258147 85 151 50
-0.315275 0.0739955 0.2581 88 154 51
-0.314556 0.0747312 0.258114 91 158 52
-0.313632 0.075409 0.258189 93 161 53
-0.312712 0.0760847 0.258263 96 163 52
-0.3122 0.076875 0.258216 94 166 58
-0.310881 0.0774304 0.258412 94 166 59
-0.31037 0.0782188 0.258365 94 167 59
-0.311065 0.0793699 0.257953 94 168 57
-0.310955 0.0802867 0.257784 94 166 54
-0.310238 0.0810201 0.257798 94 165 53
-0.310327 0.0820051 0.257566 90 161 57
-0.310012 0.0828674 0.257457 92 160 52
-0.309696 0.0837318 0.257347 91 157 50
-0.309783 0.0847304 0.257113 87 154 51
-0.309871 0.0857351 0.256877 85 152 52
-0.309349 0.0865413 0.25683 86 151 52
-0.309028 0.0874168 0.256719 88 153 53
-0.30891 0.0883643 0.256544 88 156 60
-0.310017 0.0897437 0.255986 88 158 65
-0.310105 0.0907783 0.255744 89 164 67
-0.3104 0.0918934 0.255435 89 166 69
-0.309867 0.0927164 0.255386 91 166 70
-0.309127 0.0934643 0.255403 94 167 69
-0.307979 0.0940591 0.255549 96 167 67
-0.307243 0.0948039 0.255565 97 166 65
-0.306711 0.0956252 0.255516 95 167 70
-0.306178 0.096447 0.255467 94 171 74
-0.305444 0.0971905 0.255483 95 173 73
-0.30471 0.0979331 0.255499 94 171 71
-0.304178 0.098755 0.25545 95 172 67
-0.304045 0.0997395 0.255272 91 168 67
-0.303911 0.100728 0.255092 89 167 68
-0.30438 0.101972 0.254715 87 166 72
-0.305876 0.103658 0.253998 86 163 70
-0.306154 0.104847 0.253678 87 161 65
-0.305608 0.10569 0.253628 89 161 63
-0.305266 0.106623 0.25351 91 161 61
-0.304719 0.107468 0.253459 92 165 61
-0.304376 0.108405 0.253341 90 167 63
-0.304237 0.109437 0.253154 91 172 63
-0.303891 0.110379 0.253034 96 171 65
-0.303545 0.111324 0.252915 97 174 64
-0.303403 0.112367 0.252726 96 174 67
-0.3045 0.113999 0.252116 93 177 69
-0.304985 0.115357 0.25171 97 178 63
-0.304632 0.116323 0.251588 97 173 64
-0.304489 0.117395 0.251393 94 176 63
-0.304134 0.118367 0.251269 92 174 61
-0.303988 0.119447 0.251073 92 176 61
-0.304262 0.120743 0.250731 91 176 60
-0.304538 0.12205 0.250386 90 173 60
-0.303967 0.122931 0.250334 87 170 62
-0.304029 0.124143 0.25006 87 174 69
-0.303667 0.125139 0.249933 83 175 69
-0.303304 0.126138 0.249806 73 170 59
-0.302729 0.127027 0.249753 64 161 50
-0.302153 0.127915 0.249701 67 157 46
-0.301157 0.128575 0.249797 80 163 48
-0.300581 0.129463 0.249744 83 165 51
-0.292434 0.128468 0.251896 94 186 58
-0.291875 0.129331 0.251845 101 194 64
-0.291122 0.130083 0.251863 121 205 71
-0.29037 0.130833 0.251882 121 196 83
-0.311212 0.0536926 0.26246 99 157 53
-0.310171 0.0543178 0.262577 111 176 61
-0.30951 0.055012 0.262586 112 181 65
-0.308849 0.0557054 0.262596 105 173 62
-0.308376 0.0564352 0.262552 97 159 54
-0.307903 0.0571655 0.262509 81 157 51
-0.307429 0.0578962 0.262465 74 157 46
-0.317991 0.069906 0.25731 82 146 46
-0.31706 0.0705915 0.257387 84 146 46
-0.316756 0.0714353 0.257277 83 147 47
-0.316243 0.0722269 0.25723 83 150 49
-0.31573 0.0730189 0.257183 85 151 52
-0.315216 0.0738114 0.257135 89 153 52
-0.314496 0.074548 0.25715 94 157 51
-0.313367 0.0751698 0.257288 96 163 54
-0.312447 0.075846 0.257364 95 164 55
-0.310927 0.0763471 0.257623 94 164 58
-0.310416 0.0771342 0.257576 92 166 58
-0.309906 0.0779218 0.257529 91 167 57
-0.309594 0.0787697 0.257421 92 165 56
-0.310285 0.0799244 0.257004 91 164 55
-0.309971 0.0807806 0.256894 92 165 56
-0.309456 0.081576 0.256847 92 161 57
-0.309744 0.082627 0.256549 90 159 53
-0.310035 0.0836862 0.25625 89 158 52
-0.310327 0.0847538 0.255948 87 156 52
-0.310008 0.0856274 0.255836 86 153 53
-0.309485 0.086435 0.255788 87 152 53
-0.309164 0.0873121 0.255675 88 154 52
-0.308842 0.0881912 0.255563 91 157 56
-0.309744 0.0894991 0.255061 90 159 62
-0.310451 0.0907516 0.254619 90 163 67
-0.308852 0.0932182 0.254472 94 167 68
-0.307501 0.093738 0.254686 94 166 66
-0.306766 0.0944824 0.254702 94 168 69
-0.306032 0.095226 0.254719 93 169 72
-0.3055 0.0960462 0.25467 93 170 74
-0.304968 0.096867 0.254621 94 172 72
-0.304436 0.0976883 0.254572 94 170 67
-0.303903 0.0985101 0.254522 94 170 66
-0.30397 0.0995752 0.254276 93 171 69
-0.303635 0.100482 0.25416 91 169 67
-0.303902 0.101642 0.253845 87 165 67
-0.306213 0.103667 0.252847 85 162 65
-0.306079 0.104684 0.252659 88 162 62
-0.305532 0.105528 0.252609 89 163 63
-0.304985 0.106372 0.252558 88 163 63
-0.304437 0.107217 0.252508 90 164 59
-0.304093 0.108154 0.252388 92 166 61
-0.303954 0.109185 0.252198 92 170 65
-0.303608 0.110127 0.252078 93 171 67
-0.303261 0.111072 0.251957 95 174 64
-0.303118 0.112114 0.251766 96 174 67
-0.304006 0.113647 0.25122 95 179 67
-0.304487 0.115001 0.25081 97 178 63
-0.304344 0.116067 0.250614 96 175 66
-0.30399 0.117036 0.250489 94 177 63
-0.303635 0.118008 0.250365 93 175 62
-0.30328 0.118982 0.25024 93 174 61
-0.303132 0.120063 0.250042 90 175 61
-0.303402 0.121362 0.249695 87 174 60
-0.303463 0.122564 0.24942 85 172 62
-0.302891 0.123445 0.249367 86 176 68
-0.30295 0.124657 0.24909 84 176 65
-0.302587 0.125654 0.248962 73 169 54
-0.302012 0.12654 0.248909 64 161 48
-0.301437 0.127427 0.248856 70 157 46
-0.30003 0.12786 0.249103 79 161 50
-0.299456 0.128744 0.24905 80 162 52
-0.298676 0.129514 0.249072 80 166 49
-0.292902 0.127464 0.250913 88 177 54
-0.292148 0.128216 0.250932 95 191 60
-0.291589 0.129079 0.25088 104 199 66
-0.290643 0.129718 0.250971 130 209 75
-0.310966 0.0534685 0.261621 88 131 56
-0.309925 0.0540942 0.26174 100 156 53
-0.309451 0.0548243 0.261696 111 176 58
-0.308603 0.0554822 0.26176 113 183 65
-0.30813 0.0562119 0.261716 99 172 63
-0.307657 0.0569422 0.261672 84 158 54
-0.307183 0.0576729 0.261628 72 153 47
-0.306709 0.0584041 0.261584 68 153 42
-0.319079 0.0690812 0.256203 82 147 45
-0.317934 0.069718 0.256345 84 147 47
-0.317212 0.0704571 0.25636 84 148 48
-0.31649 0.0711953 0.256375 83 149 49
-0.315977 0.0719868 0.256327 84 150 48
-0.315463 0.0727789 0.25628 85 154 50
-0.31495 0.0735714 0.256232 89 157 52
-0.31423 0.0743081 0.256247 93 159 54
-0.313306 0.0749873 0.256325 94 164 56
-0.312385 0.0756644 0.256403 92 165 59
-0.311266 0.0762819 0.256542 95 164 56
-0.310352 0.0769546 0.256619 94 164 58
-0.309841 0.0777429 0.256571 92 164 59
-0.30933 0.0785317 0.256524 94 162 58
-0.309417 0.0795026 0.256289 96 160 57
-0.309705 0.080541 0.255991 92 157 58
-0.309189 0.0813364 0.255943 93 157 56
-0.309881 0.0825142 0.255515 93 157 54
-0.31058 0.0837056 0.255082 91 158 53
-0.310261 0.0845777 0.254969 90 155 52
-0.310146 0.0855192 0.25479 89 152 53
-0.309621 0.0863284 0.254742 89 154 54
-0.309096 0.087138 0.254693 90 156 54
-0.308977 0.0880876 0.254514 90 160 56
-0.309471 0.0892544 0.254136 91 160 59
-0.308942 0.0900709 0.254087 92 162 65
-0.308616 0.0909608 0.253972 90 166 71
-0.308086 0.0917792 0.253923 92 168 70
-0.307149 0.0924494 0.254006 95 167 65
-0.306821 0.0933423 0.25389 95 168 67
-0.306289 0.0941615 0.253841 94 172 75
-0.305758 0.0949812 0.253792 93 170 74
-0.305226 0.0958014 0.253743 91 170 77
-0.304694 0.0966221 0.253693 94 170 72
-0.304161 0.0974434 0.253644 92 169 66
-0.303828 0.098345 0.253528 92 169 65
-0.303895 0.0994106 0.253278 93 167 68
-0.303961 0.100483 0.253026 91 165 65
-0.303826 0.101478 0.252841 89 164 64
-0.306138 0.103503 0.251829 88 163 62
-0.305798 0.104433 0.251708 90 163 59
-0.305251 0.105277 0.251657 90 164 61
-0.304703 0.106122 0.251607 87 163 63
-0.304155 0.106967 0.251556 90 165 60
-0.304016 0.107994 0.251365 92 168 64
-0.303671 0.108934 0.251243 94 170 68
-0.303325 0.109876 0.251121 93 172 69
-0.302978 0.11082 0.250999 98 176 66
-0.302629 0.111767 0.250877 98 177 68
-0.30372 0.113393 0.250253 97 178 66
-0.303783 0.114548 0.249984 96 179 63
-0.303638 0.115611 0.249786 93 179 63
-0.303492 0.116679 0.249588 93 177 63
-0.303137 0.117649 0.249462 93 177 62
-0.302781 0.118622 0.249336 93 176 60
-0.302424 0.119597 0.24921 89 176 60
-0.302274 0.12068 0.249009 85 175 61
-0.30254 0.121982 0.248658 86 174 63
-0.302598 0.123186 0.248379 84 177 71
-0.302026 0.124068 0.248326 80 177 65
-0.301663 0.125061 0.248198 71 168 50
-0.30109 0.125944 0.248145 65 157 46
-0.300309 0.126716 0.248167 73 157 46
-0.298911 0.127149 0.248415 78 162 51
-0.298545 0.128144 0.248287 77 162 50
-0.296348 0.12812 0.248832 83 169 48
-0.292421 0.127101 0.25002 94 183 56
-0.291862 0.127964 0.249968 101 195 61
-0.291109 0.128716 0.249988 112 203 68
-0.290165 0.129355 0.250079 132 208 77
-0.311289 0.0533481 0.260617 77 113 57
-0.309867 0.0539056 0.260848 88 129 51
-0.309205 0.0546006 0.260858 100 152 52
-0.308544 0.055295 0.260869 110 174 58
-0.307884 0.0559886 0.260879 109 181 66
-0.307411 0.0567189 0.260835 90 165 58
-0.306937 0.0574496 0.260791 74 154 49
-0.306462 0.0581808 0.260746 63 148 42
-0.306173 0.0589517 0.260647 64 147 41
-0.319841 0.0672544 0.255393 79 144 45
-0.319327 0.068047 0.255345 79 146 45
-0.318813 0.0688401 0.255297 81 149 48
-0.318088 0.0695816 0.255313 83 151 50
-0.317364 0.0703222 0.255329 83 151 49
-0.316432 0.0710085 0.255409 82 151 53
-0.315918 0.0718008 0.255361 84 151 51
-0.315404 0.0725935 0.255313 87 153 49
-0.314683 0.0733313 0.255329 90 156 48
-0.314169 0.0741243 0.255281 93 155 47
-0.313245 0.0748044 0.25536 100 156 48
-0.312527 0.0755396 0.255376 96 159 53
-0.311607 0.0762163 0.255455 95 160 51
-0.310892 0.0769492 0.25547 94 163 53
-0.309977 0.0776224 0.255548 96 163 57
-0.309665 0.0784724 0.255437 98 160 57
-0.309552 0.079385 0.255263 99 158 53
-0.309438 0.0803014 0.255087 96 159 51
-0.309525 0.0812844 0.254847 96 156 52
-0.310018 0.082401 0.254476 96 154 52
-0.310514 0.0835286 0.254102 94 153 52
-0.310399 0.0844676 0.253922 94 153 52
-0.310079 0.0853434 0.253807 95 151 52
-0.309554 0.0861532 0.253758 97 152 51
-0.309232 0.0870324 0.253643 95 155 53
-0.308909 0.0879137 0.253527 92 161 57
-0.308789 0.0888679 0.253345 92 161 59
-0.308668 0.0898262 0.253162 94 163 64
-0.307935 0.0905707 0.25318 92 168 71
-0.307202 0.0913144 0.253197 94 169 68
-0.306673 0.092131 0.253147 97 167 63
-0.306143 0.0929481 0.253098 97 169 68
-0.305613 0.0937657 0.253048 95 173 76
-0.305082 0.0945838 0.252999 95 172 74
-0.304551 0.0954025 0.252949 91 172 79
-0.30442 0.0963773 0.252766 93 171 75
-0.303887 0.0971985 0.252716 89 169 69
-0.303553 0.0980998 0.252599 90 167 64
-0.30402 0.0993267 0.252209 93 167 67
-0.304087 0.100401 0.251954 91 165 66
-0.304154 0.101481 0.251697 89 164 64
-0.305651 0.103167 0.250949 88 163 62
-0.30531 0.104096 0.250828 89 162 61
-0.304969 0.105027 0.250706 89 162 60
-0.304421 0.105871 0.250655 87 161 60
-0.303873 0.106716 0.250604 89 164 62
-0.303733 0.107743 0.25041 90 170 67
-0.303388 0.108682 0.250288 93 169 65
-0.303246 0.109717 0.250093 93 171 64
-0.302694 0.110568 0.250042 98 177 64
-0.302345 0.111515 0.249918 98 177 65
-0.303433 0.113138 0.249286 98 178 67
-0.303495 0.114293 0.249014 96 180 66
-0.302935 0.115157 0.248961 95 180 62
-0.302581 0.116121 0.248835 96 177 61
-0.302433 0.117189 0.248635 94 177 61
-0.302077 0.118159 0.248508 93 178 60
-0.30172 0.119132 0.248381 91 178 60
-0.301569 0.120212 0.248179 86 177 63
-0.301416 0.121297 0.247975 87 178 67
-0.30147 0.122494 0.247696 86 180 70
-0.301316 0.12359 0.247491 78 176 62
-0.300745 0.124471 0.247437 70 165 50
-0.300173 0.125352 0.247384 67 156 46
-0.29919 0.126011 0.247483 74 159 46
-0.297801 0.126445 0.247733 76 162 49
-0.296625 0.126988 0.247905 76 164 47
-0.295056 0.127305 0.248226 85 174 50
-0.292134 0.126849 0.249056 96 190 58
-0.291575 0.127711 0.249004 104 197 61
-0.29063 0.128353 0.249097 123 205 68
-0.289688 0.128992 0.24919 126 199 81
-0.309809 0.0537166 0.259954 76 110 54
-0.309147 0.0544124 0.259965 86 126 52
-0.308485 0.0551075 0.259976 102 150 52
-0.307824 0.0558019 0.259987 114 174 61
-0.30735 0.0565327 0.259942 102 173 61
-0.306876 0.057264 0.259898 85 160 54
-0.306401 0.0579958 0.259853 68 147 46
-0.306111 0.0587672 0.259753 59 143 44
-0.305635 0.0595006 0.259708 64 146 43
-0.319665 0.0661233 0.254665 77 144 47
-0.319152 0.0669139 0.254617 77 145 47
-0.319061 0.0678059 0.254439 79 145 46
-0.318968 0.0687017 0.254261 82 147 48
-0.318031 0.0693926 0.254343 85 151 49
-0.317516 0.0701867 0.254294 87 154 47
-0.316583 0.0708746 0.254376 87 154 47
-0.316068 0.0716683 0.254328 87 153 48
-0.315138 0.0723532 0.254409 87 154 48
-0.314417 0.0730912 0.254425 87 156 49
-0.313903 0.0738842 0.254377 90 156 49
-0.313183 0.0746211 0.254393 96 159 51
-0.312464 0.0753572 0.254409 98 161 57
-0.311747 0.0760925 0.254425 96 162 56
-0.311232 0.0768853 0.254377 95 164 54
-0.310516 0.0776195 0.254393 97 164 54
-0.310001 0.0784126 0.254345 99 161 52
-0.309687 0.0792669 0.254232 100 158 50
-0.309775 0.0802464 0.253989 97 159 49
-0.309661 0.0811692 0.25381 99 156 50
-0.309952 0.0822234 0.253499 100 152 50
-0.310448 0.0833512 0.25312 98 152 51
-0.310333 0.0842907 0.252937 97 154 51
-0.310012 0.0851671 0.252821 99 153 50
-0.309486 0.0859777 0.252772 99 153 50
-0.30896 0.0867888 0.252722 98 155 53
-0.308637 0.0876699 0.252606 96 159 54
-0.308313 0.0885531 0.252489 94 161 59
-0.307988 0.0894386 0.252372 94 166 65
-0.307459 0.0902541 0.252322 93 169 71
-0.306727 0.0909973 0.25234 95 169 68
-0.306198 0.0918131 0.252291 98 169 62
-0.305668 0.0926294 0.252241 98 171 66
-0.305138 0.0934463 0.252191 95 173 76
-0.304608 0.0942636 0.252141 95 173 76
-0.304078 0.0950815 0.252091 94 172 80
-0.303746 0.0959772 0.251974 93 173 79
-0.303612 0.0969536 0.251788 90 170 73
-0.303279 0.0978547 0.251669 89 166 66
-0.304146 0.0992425 0.251137 92 167 66
-0.30381 0.100154 0.251017 92 169 68
-0.303876 0.101233 0.250757 91 168 65
-0.30496 0.102745 0.250142 90 164 62
-0.305029 0.103845 0.249877 88 160 61
-0.304482 0.104688 0.249826 86 159 59
-0.304139 0.10562 0.249703 85 161 58
-0.303591 0.106465 0.249651 87 162 61
-0.303451 0.107492 0.249456 89 166 62
-0.303309 0.108522 0.24926 92 168 61
-0.302962 0.109465 0.249135 92 172 61
-0.302614 0.11041 0.249011 95 176 63
-0.302061 0.111262 0.248959 95 178 68
-0.30294 0.112787 0.248393 98 179 67
-0.303001 0.11394 0.248118 97 180 66
-0.302441 0.114803 0.248065 97 181 61
-0.302087 0.115766 0.247938 98 178 59
-0.301732 0.116731 0.247811 96 178 61
-0.301582 0.117801 0.247608 94 179 62
-0.301224 0.118772 0.24748 92 180 61
-0.300866 0.119746 0.247351 89 179 63
-0.300712 0.120828 0.247147 88 183 72
-0.300557 0.121915 0.246941 85 183 69
-0.299989 0.12279 0.246888 76 173 56
-0.299421 0.123666 0.246834 68 161 49
-0.298852 0.124543 0.246781 69 156 47
-0.298079 0.125311 0.246804 74 161 50
-0.2967 0.125746 0.247055 75 161 50
-0.295732 0.126399 0.247153 78 165 48
-0.292602 0.125843 0.248071 88 180 54
-0.291848 0.126596 0.248092 98 194 62
-0.290903 0.127239 0.248186 109 198 65
-0.289961 0.12788 0.248281 134 209 73
-0.309088 0.0542238 0.25907 77 107 52
-0.308426 0.0549196 0.259082 90 124 50
-0.307765 0.0556147 0.259093 104 154 55
-0.30729 0.0563462 0.259048 109 171 61
-0.306815 0.0570781 0.259003 99 168 60
-0.30634 0.0578105 0.258958 81 154 53
-0.305864 0.0585434 0.258914 61 143 48
-0.305573 0.0593164 0.258812 59 141 42
-0.319399 0.0658827 0.253762 75 146 48
-0.318886 0.0666733 0.253713 78 147 46
-0.319217 0.0676656 0.253402 81 147 46
-0.318913 0.0685114 0.253287 84 148 47
-0.318185 0.0692552 0.253305 85 152 49
-0.317249 0.0699455 0.253388 85 156 52
-0.316524 0.0706869 0.253405 88 156 48
-0.315801 0.0714275 0.253422 89 157 46
-0.315078 0.0721672 0.253439 89 156 47
-0.314151 0.072851 0.253521 88 156 49
-0.313636 0.073644 0.253473 87 158 52
-0.313121 0.0744375 0.253424 89 161 55
-0.312402 0.0751744 0.253441 90 161 54
-0.311887 0.0759682 0.253392 93 161 54
-0.311372 0.0767624 0.253344 94 162 55
-0.310653 0.0774981 0.25336 93 162 55
-0.31034 0.0783525 0.253246 92 161 54
-0.310025 0.0792091 0.253132 95 158 52
-0.30971 0.0800677 0.253017 92 158 55
-0.309595 0.0809909 0.252836 94 155 53
-0.309682 0.0819817 0.252587 96 152 50
-0.310178 0.0831084 0.252203 95 153 49
-0.309858 0.0839815 0.252086 95 155 50
-0.309537 0.0848567 0.251969 96 155 50
-0.309011 0.0856665 0.25192 96 157 51
-0.308283 0.0864087 0.251938 97 157 53
-0.307959 0.0872877 0.25182 97 159 51
-0.307837 0.0882389 0.251635 95 160 59
-0.30731 0.0890524 0.251585 94 166 64
-0.30658 0.0897948 0.251603 94 170 70
-0.305651 0.0904644 0.251689 94 170 71
-0.304924 0.0912046 0.251707 96 170 66
-0.304397 0.092017 0.251657 99 173 67
-0.304266 0.0929784 0.251472 98 174 75
-0.303737 0.0937935 0.251422 95 174 79
-0.303407 0.094685 0.251303 96 173 80
-0.303273 0.0956556 0.251116 94 173 81
-0.30294 0.0965524 0.250997 95 171 78
-0.302805 0.0975304 0.250809 92 168 74
-0.303668 0.0989147 0.250271 92 166 67
-0.303533 0.0999065 0.25008 92 168 66
-0.303396 0.100903 0.249888 93 166 64
-0.303865 0.102156 0.249482 92 163 61
-0.304543 0.103508 0.248999 89 161 60
-0.304201 0.104438 0.248875 86 159 57
-0.303857 0.10537 0.248751 85 161 57
-0.303309 0.106215 0.248699 86 162 58
-0.303372 0.107331 0.248428 89 168 57
-0.30323 0.108362 0.24823 92 171 58
-0.302678 0.109213 0.248178 94 174 59
-0.30233 0.110157 0.248052 96 176 63
-0.301776 0.11101 0.247999 98 180 65
-0.302654 0.112533 0.247427 97 180 66
-0.302714 0.113685 0.247149 99 181 64
-0.302154 0.114548 0.247096 97 182 62
-0.301594 0.115411 0.247043 97 180 61
-0.301444 0.116476 0.246839 96 180 62
-0.301087 0.117443 0.24671 93 180 63
-0.300935 0.118516 0.246504 91 182 63
-0.30037 0.119386 0.246451 94 183 65
-0.300216 0.120466 0.246244 90 185 73
-0.299855 0.121444 0.246114 80 181 69
-0.299288 0.122318 0.24606 69 170 54
-0.29872 0.123193 0.246007 65 160 46
-0.297746 0.123851 0.246107 72 159 47
-0.297179 0.124725 0.246053 74 160 52
-0.296008 0.12527 0.24623 74 160 48
-0.294447 0.125595 0.246557 83 168 50
-0.292121 0.125482 0.24718 94 186 57
-0.291368 0.126235 0.247202 101 195 63
-0.290425 0.126878 0.247298 114 201 68
-0.289294 0.12741 0.247467 136 210 78
-0.308554 0.0547672 0.258128 76 105 50
-0.307891 0.0554637 0.25814 88 130 48
-0.307416 0.0561964 0.258095 101 158 54
-0.30694 0.0569295 0.25805 105 174 61
-0.306464 0.0576631 0.258005 96 171 64
-0.305987 0.0583972 0.25796 77 149 53
-0.305511 0.0591318 0.257914 62 143 45
-0.306146 0.0601093 0.257523 58 143 41
-0.319768 0.0657877 0.252659 73 149 45
-0.319253 0.0665805 0.25261 78 149 46
-0.319161 0.0674743 0.252427 81 148 48
-0.318857 0.0683207 0.252311 82 150 50
-0.31834 0.0691172 0.252262 82 155 52
-0.317401 0.0698091 0.252347 86 154 51
-0.316258 0.0704459 0.252499 89 156 48
-0.315742 0.0712403 0.25245 87 158 49
-0.315019 0.0719808 0.252467 87 160 52
-0.31409 0.0726656 0.252551 90 160 54
-0.31337 0.0734038 0.252569 92 160 56
-0.312855 0.0741972 0.25252 87 164 58
-0.31234 0.0749912 0.252471 85 162 60
-0.31162 0.0757281 0.252488 88 160 56
-0.311308 0.0765807 0.252373 90 160 55
-0.310791 0.0773762 0.252324 89 161 56
-0.310275 0.0781722 0.252275 89 160 55
-0.310162 0.0790901 0.252092 91 158 55
-0.309846 0.0799501 0.251976 89 156 57
-0.309529 0.0808123 0.251859 90 155 54
-0.309413 0.08174 0.251675 91 153 51
-0.3095 0.0827361 0.251423 90 153 50
-0.309383 0.0836727 0.251237 90 155 50
-0.309062 0.0845469 0.251119 91 156 51
-0.308537 0.0853559 0.251069 91 156 53
-0.307809 0.0860976 0.251087 95 159 53
-0.307485 0.0869756 0.250969 95 159 52
-0.306959 0.0877862 0.250919 95 162 59
-0.306634 0.0886676 0.2508 95 165 64
-0.305906 0.089409 0.250819 96 170 70
-0.30498 0.090078 0.250906 94 172 74
-0.304255 0.0908171 0.250924 93 172 71
-0.303728 0.0916281 0.250874 95 172 68
-0.303399 0.0925132 0.250756 99 175 72
-0.303069 0.0934005 0.250637 97 178 77
-0.302738 0.09429 0.250518 98 175 75
-0.302603 0.095258 0.25033 96 174 80
-0.302468 0.0962303 0.25014 97 172 79
-0.302134 0.0971281 0.25002 95 171 79
-0.302592 0.0983469 0.249619 92 169 73
-0.302854 0.0994963 0.249285 90 167 68
-0.302917 0.100572 0.24902 90 164 68
-0.303586 0.101907 0.248538 88 162 68
-0.304466 0.103344 0.247976 87 161 64
-0.303919 0.104187 0.247924 86 161 60
-0.303576 0.105119 0.247799 85 161 59
-0.303231 0.106053 0.247673 85 163 59
-0.303294 0.107169 0.247399 89 168 57
-0.302947 0.10811 0.247272 91 172 59
-0.302599 0.109053 0.247145 97 175 57
-0.302046 0.109905 0.247092 97 180 63
-0.301696 0.110852 0.246965 98 180 60
-0.302573 0.112375 0.246384 99 180 63
-0.302426 0.11343 0.246179 100 184 64
-0.301866 0.114293 0.246126 100 184 61
-0.301511 0.115255 0.245996 98 184 63
-0.301155 0.11622 0.245866 95 183 64
-0.300798 0.117188 0.245736 95 183 66
-0.300645 0.11826 0.245528 94 185 69
-0.300081 0.11913 0.245475 94 188 72
-0.29972 0.120104 0.245343 91 187 70
-0.299359 0.121082 0.245212 79 179 61
-0.298792 0.121955 0.245158 68 166 52
-0.298022 0.122721 0.245182 67 159 47
-0.297051 0.123379 0.245283 75 162 47
-0.295883 0.123926 0.245462 77 163 50
-0.295318 0.124797 0.245408 78 164 48
-0.292978 0.12469 0.246043 88 177 52
-0.291835 0.12523 0.246216 98 193 63
-0.290697 0.125767 0.246389 105 195 66
-0.289566 0.126301 0.246561 127 205 71
-0.308582 0.0554213 0.25701 81 110 48
-0.308105 0.0561572 0.256964 89 141 50
-0.307627 0.0568935 0.256918 102 164 55
-0.307148 0.0576302 0.256873 110 177 61
-0.30667 0.0583675 0.256827 91 174 63
-0.306191 0.0591052 0.256781 72 153 49
-0.30627 0.0599647 0.256559 60 142 42
-0.306163 0.0607878 0.256395 58 139 40
-0.319835 0.0665367 0.251433 77 150 46
-0.319318 0.0673329 0.251383 79 151 49
-0.318801 0.0681296 0.251334 79 153 52
-0.318072 0.0688751 0.251352 80 155 52
-0.317134 0.0695674 0.251439 85 156 47
-0.316199 0.0702576 0.251525 88 157 51
-0.315475 0.0709992 0.251543 86 160 54
-0.314959 0.071794 0.251494 86 161 54
-0.313824 0.0724251 0.251646 89 161 53
-0.313103 0.0731635 0.251664 92 161 53
-0.312588 0.073957 0.251615 90 162 53
-0.312073 0.0747509 0.251566 89 161 55
-0.311557 0.0755454 0.251517 89 161 54
-0.311041 0.0763404 0.251467 89 162 55
-0.310727 0.0771948 0.25135 89 161 55
-0.310412 0.0780513 0.251233 90 159 54
-0.310097 0.0789098 0.251116 90 158 55
-0.30978 0.0797705 0.250999 88 156 52
-0.309463 0.0806333 0.250881 88 156 52
-0.309144 0.0814982 0.250763 88 154 52
-0.30923 0.0824937 0.250508 88 153 51
-0.309112 0.0834298 0.25032 88 155 51
-0.308588 0.0842376 0.25027 89 156 52
-0.308063 0.0850458 0.250219 89 156 52
-0.307135 0.0857197 0.250307 92 158 53
-0.306611 0.0865275 0.250257 92 160 55
-0.306688 0.0875429 0.25 95 164 58
-0.306161 0.088354 0.249949 97 166 62
-0.305434 0.089095 0.249968 97 169 68
-0.30451 0.089764 0.250057 97 173 74
-0.303983 0.0905745 0.250006 95 174 76
-0.303457 0.0913854 0.249956 94 173 73
-0.30293 0.0921969 0.249906 97 173 72
-0.3026 0.093083 0.249786 99 176 71
-0.302072 0.0938963 0.249735 99 174 69
-0.301936 0.0948619 0.249546 95 173 75
-0.301799 0.0958315 0.249355 96 171 72
-0.301662 0.0968053 0.249164 93 171 73
-0.301524 0.0977833 0.248971 88 170 71
-0.301781 0.0989262 0.248636 88 167 70
-0.302239 0.10016 0.248226 87 164 71
-0.303509 0.101742 0.24752 87 163 71
-0.304185 0.103094 0.247025 89 162 66
-0.303638 0.103937 0.246973 90 162 60
-0.303498 0.104956 0.246772 87 163 62
-0.303357 0.10598 0.24657 87 164 64
-0.303215 0.107008 0.246367 90 168 59
-0.302663 0.107858 0.246314 89 173 59
-0.302315 0.108801 0.246186 96 176 57
-0.301761 0.109653 0.246133 96 179 62
-0.301411 0.110599 0.246004 99 181 59
-0.302286 0.112121 0.245417 103 181 60
-0.302139 0.113176 0.245209 100 184 63
-0.301784 0.114136 0.245078 101 185 63
-0.301223 0.115 0.245025 100 186 64
-0.300867 0.115965 0.244894 98 185 67
-0.300509 0.116932 0.244762 100 185 73
-0.300356 0.118004 0.244552 100 189 79
-0.299791 0.118873 0.244498 95 190 78
-0.29943 0.119848 0.244366 87 187 67
-0.298865 0.12072 0.244312 76 176 55
-0.298298 0.121592 0.244258 68 162 47
-0.297529 0.122358 0.244282 73 160 46
-0.296158 0.122801 0.244541 78 165 49
-0.2946 0.123136 0.244875 78 166 49
-0.292666 0.123255 0.245359 83 172 50
-0.292107 0.124116 0.245306 93 185 55
-0.291162 0.124762 0.245405 100 195 64
-0.289837 0.125192 0.245655 110 201 68
-0.288145 0.125405 0.246053 135 211 74
-0.30861 0.0560803 0.255882 83 113 54
-0.30813 0.0568192 0.255836 97 137 49
-0.30765 0.0575585 0.25579 103 164 52
-0.306982 0.0582591 0.255804 112 178 63
-0.306502 0.0589987 0.255758 90 166 56
-0.306021 0.0597388 0.255711 71 151 49
-0.305913 0.0605615 0.255546 59 140 43
-0.320636 0.0665423 0.250177 69 147 43
-0.319262 0.0671407 0.250404 75 150 46
-0.318533 0.0678872 0.250423 81 152 48
-0.318015 0.0686844 0.250373 83 154 49
-0.317286 0.0694299 0.250392 84 155 48
-0.316349 0.0701216 0.25048 89 159 52
-0.315415 0.0708113 0.250568 90 160 54
-0.314692 0.0715529 0.250586 90 161 55
-0.314175 0.0723482 0.250537 89 161 55
-0.313042 0.0729783 0.250692 87 163 55
-0.312526 0.0737724 0.250642 87 162 53
-0.311806 0.0745106 0.250661 88 162 54
-0.31129 0.075305 0.250611 91 161 54
-0.31118 0.0762161 0.250425 90 161 55
-0.310662 0.077013 0.250375 89 161 55
-0.31055 0.0779298 0.250188 90 159 53
-0.310031 0.0787293 0.250139 91 157 50
-0.309714 0.0795906 0.25002 89 156 51
-0.309396 0.080454 0.249901 88 155 51
-0.309483 0.081446 0.249643 87 155 52
-0.309163 0.0823153 0.249523 88 154 53
-0.308842 0.0831868 0.249403 88 154 53
-0.308317 0.0839946 0.249352 87 156 53
-0.307792 0.0848028 0.249302 87 158 53
-0.306865 0.0854772 0.249391 91 160 53
-0.30634 0.086285 0.249341 92 162 55
-0.306416 0.0872996 0.24908 94 165 56
-0.305889 0.0881107 0.249029 96 168 59
-0.305163 0.0888519 0.249049 98 170 66
-0.304437 0.0895923 0.249069 97 173 76
-0.303712 0.0903318 0.249088 96 175 80
-0.303185 0.0911427 0.249038 97 174 79
-0.302658 0.0919541 0.248987 98 172 76
-0.302328 0.0928401 0.248866 96 169 69
-0.301799 0.0936533 0.248815 96 171 65
-0.301467 0.0945427 0.248694 93 168 67
-0.301133 0.0954342 0.248572 94 168 62
-0.301191 0.0964831 0.248309 90 166 62
-0.301249 0.0975384 0.248043 86 165 61
-0.301505 0.0986804 0.247704 85 161 60
-0.301962 0.0999133 0.24729 85 158 59
-0.304451 0.102 0.246127 85 157 59
-0.304518 0.103101 0.245848 87 159 59
-0.303764 0.10386 0.245871 88 163 58
-0.303624 0.104881 0.245667 88 165 62
-0.303483 0.105906 0.245462 89 166 65
-0.302931 0.106756 0.245409 92 170 61
-0.302583 0.107697 0.24528 93 173 60
-0.30203 0.108548 0.245227 95 176 60
-0.301477 0.1094 0.245173 97 179 64
-0.301126 0.110347 0.245044 99 182 62
-0.302 0.111867 0.244449 103 186 62
-0.301851 0.112921 0.24424 102 187 64
-0.301496 0.113881 0.244107 101 187 65
-0.30114 0.114844 0.243975 100 188 67
-0.300783 0.115809 0.243842 103 187 73
-0.300425 0.116777 0.243709 102 192 81
-0.300066 0.117748 0.243576 98 196 82
-0.299501 0.118617 0.243522 91 193 73
-0.298936 0.119487 0.243467 81 185 61
-0.298371 0.120358 0.243413 72 172 51
-0.297805 0.121229 0.243359 72 162 45
-0.296634 0.121783 0.243542 79 165 49
-0.29547 0.122334 0.243724 80 169 56
-0.293134 0.122248 0.244372 80 169 52
-0.291992 0.122792 0.244549 89 181 52
-0.290665 0.123228 0.244803 100 195 57
-0.290109 0.124084 0.244749 104 198 61
-0.288227 0.124198 0.245227 119 206 71
-0.287487 0.124943 0.24525 132 208 81
-0.308448 0.0567064 0.254807 90 118 59
-0.307966 0.0574476 0.254761 96 139 60
-0.307108 0.0581111 0.254836 104 163 60
-0.306627 0.058852 0.254789 105 171 66
-0.306145 0.0595934 0.254743 89 163 58
-0.306037 0.0604172 0.254575 70 150 48
-0.305554 0.0611608 0.254528 57 140 44
-0.320581 0.0663485 0.249192 63 141 41
-0.318994 0.0668981 0.249492 70 146 44
-0.318476 0.0676955 0.249442 78 151 45
-0.317747 0.068442 0.249462 84 154 46
-0.317228 0.0692397 0.249412 85 156 47
-0.3165 0.0699851 0.249432 88 159 49
-0.315773 0.0707297 0.249451 89 162 53
-0.314839 0.0714194 0.24954 89 163 55
-0.313908 0.072107 0.249629 89 164 57
-0.313391 0.0729029 0.249579 88 165 57
-0.312873 0.0736992 0.249529 87 164 56
-0.312356 0.074496 0.249479 88 165 57
-0.311838 0.0752934 0.249429 89 162 57
-0.311933 0.0762661 0.24917 89 161 56
-0.311413 0.0770667 0.24912 88 161 55
-0.310893 0.0778678 0.24907 89 160 53
-0.310372 0.0786695 0.249019 89 158 49
-0.310258 0.0795946 0.248829 89 157 50
-0.309939 0.0804612 0.248708 88 156 51
-0.309619 0.0813299 0.248586 88 157 51
-0.309299 0.0822008 0.248465 88 155 53
-0.308774 0.0830087 0.248414 88 154 54
-0.308249 0.0838172 0.248364 86 156 54
-0.307521 0.0845598 0.248384 85 158 54
-0.306795 0.0853015 0.248404 91 161 52
-0.30647 0.0861778 0.248282 93 163 54
-0.306144 0.0870563 0.24816 94 166 57
-0.305618 0.0878674 0.248109 95 170 60
-0.30509 0.088679 0.248058 96 172 69
-0.304364 0.0894201 0.248079 96 174 79
-0.303638 0.0901605 0.248099 95 176 83
-0.303309 0.0910445 0.247977 95 175 80
-0.302781 0.0918574 0.247926 95 172 73
-0.302252 0.0926709 0.247875 90 170 69
-0.301723 0.0934849 0.247823 90 168 62
-0.301194 0.0942994 0.247772 89 165 57
-0.301056 0.0952671 0.247578 87 162 56
-0.300917 0.0962389 0.247383 83 160 54
-0.301171 0.0973722 0.247042 78 158 54
-0.301824 0.0986754 0.246552 75 155 54
-0.302685 0.100076 0.245982 73 153 52
-0.305197 0.102176 0.244795 74 155 50
-0.304236 0.10285 0.244895 77 157 50
-0.304096 0.103869 0.244688 80 158 52
-0.303751 0.104805 0.244558 84 161 57
-0.303199 0.105654 0.244505 86 166 62
-0.302852 0.106593 0.244374 93 169 65
-0.302299 0.107444 0.244321 96 174 65
-0.301746 0.108296 0.244267 96 178 64
-0.301396 0.10924 0.244136 99 181 63
-0.300841 0.110094 0.244083 99 183 63
-0.301508 0.111517 0.24356 104 188 65
-0.301564 0.112666 0.24327 102 190 64
-0.301208 0.113626 0.243136 102 189 67
-0.300852 0.114589 0.243003 105 192 76
-0.300495 0.115554 0.242869 106 197 85
-0.300136 0.116521 0.242734 101 196 85
-0.299777 0.117491 0.2426 95 192 77
-0.299212 0.118361 0.242545 88 190 66
-0.298646 0.119231 0.24249 78 182 57
-0.298081 0.120102 0.242436 71 167 49
-0.297313 0.120868 0.242461 76 162 47
-0.296144 0.121422 0.242647 83 169 52
-0.294191 0.121552 0.243148 82 172 56
-0.292458 0.121786 0.243564 85 175 56
-0.290936 0.122121 0.243898 95 187 58
-0.28905 0.122246 0.244381 100 197 63
-0.288122 0.122888 0.24448 111 202 64
-0.28757 0.123738 0.244427 132 214 72
-0.307905 0.0572593 0.253849 94 128 69
-0.307423 0.0580016 0.253803 94 143 63
-0.306752 0.0587047 0.253817 107 162 61
-0.30627 0.0594474 0.25377 106 169 63
-0.305787 0.0601905 0.253723 91 162 60
-0.305304 0.060934 0.253677 73 146 48
-0.30482 0.0616781 0.25363 59 141 43
-0.320312 0.0661047 0.248276 58 140 41
-0.319364 0.0668051 0.248368 61 144 42
-0.318632 0.067554 0.248389 69 149 44
-0.318112 0.0683534 0.248338 78 153 47
-0.317381 0.0691012 0.248359 83 156 48
-0.316862 0.0699008 0.248308 87 159 48
-0.316132 0.0706475 0.248329 89 161 50
-0.315403 0.0713933 0.248349 90 163 52
-0.314883 0.072193 0.248299 91 166 54
-0.314363 0.0729932 0.248248 90 165 53
-0.314051 0.0738504 0.248127 90 163 53
-0.31353 0.0746524 0.248076 89 165 55
-0.313215 0.0755128 0.247954 90 164 56
-0.312693 0.0763166 0.247903 89 163 55
-0.31217 0.0771209 0.247852 89 163 54
-0.311647 0.0779257 0.247802 88 163 53
-0.311124 0.0787311 0.247751 88 161 51
-0.310601 0.0795369 0.2477 88 159 50
-0.310077 0.0803433 0.247649 88 158 52
-0.309756 0.0812135 0.247526 89 156 51
-0.309435 0.0820858 0.247403 89 155 52
-0.308909 0.0828952 0.247352 88 156 53
-0.30818 0.0836395 0.247373 88 157 53
-0.307452 0.0843829 0.247394 88 157 54
-0.306725 0.0851254 0.247415 90 161 51
-0.306399 0.0860024 0.247292 94 163 54
-0.306073 0.0868815 0.247168 94 167 58
-0.305746 0.0877628 0.247045 96 170 63
-0.305018 0.0885057 0.247066 97 174 73
-0.30449 0.0893185 0.247015 97 176 80
-0.303763 0.0900603 0.247035 94 176 80
-0.303234 0.0908735 0.246984 92 173 74
-0.302706 0.0916871 0.246933 93 168 63
-0.302177 0.0925013 0.246881 89 167 59
-0.301647 0.0933161 0.24683 85 163 55
-0.301314 0.0942067 0.246706 80 158 51
-0.300979 0.0950996 0.246582 72 154 50
-0.30084 0.096072 0.246384 67 152 48
-0.301291 0.0972846 0.245965 65 150 47
-0.301946 0.0985897 0.245468 63 148 48
-0.30464 0.100741 0.244202 61 149 48
-0.304914 0.101924 0.243839 61 151 45
-0.30457 0.102857 0.243708 65 153 45
-0.304224 0.103792 0.243576 71 155 46
-0.303878 0.104729 0.243444 76 157 51
-0.303326 0.10558 0.243391 82 163 53
-0.302772 0.106431 0.243337 92 170 61
-0.302219 0.107283 0.243283 97 178 66
-0.301665 0.108135 0.243229 98 179 67
-0.301111 0.108988 0.243176 100 182 62
-0.300759 0.109934 0.243043 101 183 63
-0.301221 0.111262 0.242593 101 190 67
-0.301276 0.112411 0.242299 100 192 66
-0.30092 0.113371 0.242165 105 192 70
-0.300359 0.114235 0.24211 108 196 83
-0.300001 0.115198 0.241975 104 200 85
-0.299643 0.116165 0.24184 99 198 75
-0.299487 0.117235 0.241623 95 195 66
-0.298922 0.118105 0.241568 85 190 62
-0.298357 0.118975 0.241513 70 177 56
-0.297791 0.119845 0.241458 68 166 49
-0.296419 0.120298 0.241727 80 169 49
-0.295456 0.120956 0.241834 86 176 53
-0.292925 0.120778 0.242576 86 177 53
-0.291399 0.121118 0.242915 93 183 56
-0.289131 0.121044 0.24356 102 195 61
-0.288391 0.12179 0.243583 107 201 64
-0.287652 0.122536 0.243606 121 209 70
-0.287101 0.123384 0.243553 137 215 80
-0.306878 0.0585569 0.252842 97 149 59
-0.306395 0.0593008 0.252795 105 164 58
-0.305911 0.0600452 0.252747 107 172 62
-0.30524 0.0607486 0.252763 93 166 62
-0.30457 0.0614512 0.252778 72 148 51
-0.320042 0.0658609 0.247361 59 141 44
-0.319522 0.0666615 0.24731 56 141 42
-0.318575 0.0673613 0.247403 61 144 42
-0.318055 0.0681614 0.247352 69 149 44
-0.317323 0.0689101 0.247374 77 155 47
-0.316803 0.0697105 0.247323 84 159 47
-0.316283 0.0705114 0.247272 89 160 48
-0.315762 0.0713128 0.247221 91 163 50
-0.315031 0.0720598 0.247242 92 166 52
-0.31451 0.0728615 0.247191 91 164 52
-0.314197 0.0737201 0.247068 90 164 53
-0.313675 0.0745236 0.247017 91 166 53
-0.31336 0.0753855 0.246894 91 165 54
-0.312837 0.0761908 0.246842 90 164 54
-0.312313 0.0769965 0.246791 89 165 53
-0.311583 0.0777426 0.246813 88 165 52
-0.311059 0.0785487 0.246761 88 164 52
-0.31033 0.0792937 0.246783 87 160 51
-0.31001 0.0801624 0.246659 86 159 52
-0.309689 0.0810332 0.246535 88 156 51
-0.309164 0.0818421 0.246483 89 155 50
-0.308637 0.0826515 0.246432 88 156 50
-0.308111 0.0834614 0.246381 87 157 52
-0.307382 0.0842056 0.246402 89 156 55
-0.306654 0.084949 0.246423 89 160 53
-0.306128 0.085759 0.246372 92 164 53
-0.306002 0.0867064 0.246175 94 166 58
-0.305474 0.0875189 0.246123 99 169 63
-0.304945 0.088332 0.246071 101 173 72
-0.304417 0.0891456 0.24602 98 176 77
-0.303888 0.0899597 0.245968 94 174 72
-0.303358 0.0907744 0.245916 91 169 64
-0.302828 0.0915895 0.245864 90 166 57
-0.302298 0.0924053 0.245813 82 163 53
-0.301571 0.0931469 0.245834 73 157 48
-0.301237 0.0940382 0.245709 68 151 46
-0.300902 0.0949317 0.245583 61 147 46
-0.300762 0.0959047 0.245384 56 146 49
-0.301213 0.0971177 0.244959 56 144 51
-0.302268 0.0985843 0.244304 55 142 51
-0.304975 0.100742 0.243016 54 142 49
-0.304837 0.101757 0.242805 54 144 46
-0.304492 0.102691 0.242672 57 147 43
-0.304147 0.103626 0.242539 63 151 42
-0.303594 0.104476 0.242485 68 154 45
-0.303041 0.105327 0.242431 78 161 46
-0.302488 0.106178 0.242377 97 171 56
-0.302139 0.10712 0.242244 95 179 65
-0.301584 0.107974 0.242189 98 181 72
-0.30103 0.108827 0.242135 102 183 70
-0.300474 0.109681 0.242081 103 185 65
-0.301139 0.111103 0.241546 102 190 67
-0.300989 0.112156 0.241329 100 192 67
-0.300632 0.113115 0.241193 107 197 73
-0.300071 0.113979 0.241138 107 201 84
-0.299713 0.114943 0.241002 101 200 81
-0.299354 0.115909 0.240866 98 197 71
-0.299197 0.116979 0.240647 92 193 65
-0.298632 0.117848 0.240591 79 184 61
-0.298067 0.118718 0.240536 69 170 53
-0.297097 0.119381 0.240645 76 167 48
-0.29593 0.119938 0.240835 85 177 51
-0.293392 0.119769 0.241587 86 181 54
-0.29225 0.120319 0.241772 88 184 55
-0.2894 0.119946 0.242662 98 192 59
-0.28866 0.120693 0.242686 105 200 66
-0.287921 0.121439 0.24271 114 206 68
-0.287183 0.122184 0.242734 134 214 76
-0.30652 0.0591537 0.251815 98 149 59
-0.30566 0.059818 0.251895 105 165 57
-0.304989 0.0605215 0.25191 107 178 64
-0.304319 0.0612243 0.251926 89 166 61
-0.304206 0.0620538 0.251752 71 150 50
-0.319252 0.0664177 0.246394 59 142 43
-0.318731 0.0672187 0.246343 56 142 40
-0.317786 0.067918 0.246437 61 144 41
-0.317265 0.0687186 0.246386 68 153 45
-0.316744 0.0695197 0.246335 76 157 45
-0.316223 0.0703213 0.246284 83 160 47
-0.315702 0.0711235 0.246233 88 163 51
-0.31539 0.071981 0.246108 91 166 53
-0.314867 0.0727849 0.246057 92 166 54
-0.314344 0.0735893 0.246006 89 166 55
-0.314029 0.0744515 0.245881 91 167 54
-0.313505 0.0752577 0.245829 90 165 54
-0.312981 0.0760644 0.245778 90 165 54
-0.312456 0.0768717 0.245726 88 167 53
-0.311518 0.0775592 0.245822 86 166 51
-0.310788 0.0783052 0.245843 87 164 51
-0.310264 0.0791118 0.245792 86 161 51
-0.309739 0.0799189 0.24574 85 159 50
-0.309214 0.0807264 0.245689 86 157 50
-0.308892 0.0815983 0.245563 88 156 49
-0.308366 0.0824077 0.245512 87 157 48
-0.307839 0.0832176 0.24546 85 157 51
-0.307111 0.083962 0.245482 88 157 55
-0.306383 0.0847056 0.245504 90 163 53
-0.305856 0.0855156 0.245452 91 165 55
-0.30573 0.0864625 0.245253 94 167 58
-0.305402 0.0873442 0.245127 100 169 62
-0.304873 0.088158 0.245075 102 174 70
-0.304343 0.0889723 0.245023 98 176 72
-0.303814 0.0897872 0.244971 95 173 64
-0.303284 0.0906026 0.244919 91 167 58
-0.302753 0.0914185 0.244866 82 162 56
-0.302222 0.0922349 0.244814 69 156 50
-0.301691 0.0930519 0.244762 64 148 48
-0.30116 0.0938694 0.24471 61 142 53
-0.300824 0.0947635 0.244583 63 141 56
-0.300684 0.0957371 0.244381 65 141 60
-0.302531 0.0975053 0.243417 65 141 62
-0.304624 0.0993971 0.242352 61 142 60
-0.304692 0.10049 0.242061 60 141 55
-0.304967 0.101675 0.241689 60 140 50
-0.304415 0.102524 0.241634 60 141 44
-0.303863 0.103374 0.24158 59 144 39
-0.30331 0.104224 0.241526 59 149 42
-0.302757 0.105074 0.241471 71 160 46
-0.302204 0.105925 0.241417 107 177 58
-0.301854 0.106867 0.241282 97 187 71
-0.301299 0.10772 0.241228 98 183 68
-0.300745 0.108574 0.241173 102 186 75
-0.300392 0.109521 0.241038 102 186 72
-0.300852 0.110849 0.240577 104 189 69
-0.300906 0.111997 0.240277 105 193 69
-0.300344 0.11286 0.240222 105 195 75
-0.299783 0.113724 0.240167 104 201 81
-0.299424 0.114687 0.240029 103 197 73
-0.299065 0.115653 0.239891 99 195 64
-0.298704 0.116621 0.239753 86 191 61
-0.298342 0.117592 0.239614 72 176 55
-0.297574 0.118359 0.239642 73 166 49
-0.296405 0.118919 0.239835 85 172 50
-0.295044 0.119373 0.240108 90 181 55
-0.292911 0.119414 0.240704 90 183 57
-0.289669 0.118849 0.241765 96 191 59
-0.288741 0.119495 0.241868 104 200 63
-0.288003 0.120241 0.241893 108 206 68
-0.28708 0.120884 0.241995 120 214 74
-0.286345 0.121627 0.242019 140 219 84
-0.306269 0.0589261 0.250961 94 129 65
-0.305784 0.0596717 0.250913 98 150 59
-0.305111 0.0603766 0.25093 105 169 55
-0.30444 0.0610808 0.250946 107 179 63
-0.305076 0.0620822 0.250511 91 169 59
-0.317207 0.0685267 0.245397 59 147 41
-0.316686 0.0693286 0.245346 67 153 43
-0.316375 0.0701841 0.24522 75 159 46
-0.315852 0.0709878 0.245168 83 163 50
-0.315539 0.0718467 0.245042 88 164 52
-0.315015 0.0726521 0.244991 93 167 54
-0.314491 0.073458 0.244939 92 168 56
-0.313967 0.0742645 0.244887 90 169 54
-0.313442 0.0750714 0.244835 89 167 54
-0.312917 0.0758789 0.244783 90 166 55
-0.312185 0.0766275 0.244806 89 166 55
-0.311659 0.0774353 0.244754 87 166 55
-0.310517 0.0780617 0.244925 89 165 52
-0.309993 0.0788683 0.244873 87 163 53
-0.309468 0.0796753 0.244822 85 161 51
-0.308943 0.0804829 0.24477 85 159 52
-0.308417 0.081291 0.244718 86 158 51
-0.307892 0.0820996 0.244666 86 159 49
-0.307365 0.0829087 0.244614 85 160 50
-0.306839 0.0837184 0.244562 88 160 54
-0.306111 0.0844622 0.244584 90 165 55
-0.305585 0.0852721 0.244532 93 167 58
-0.305457 0.0862186 0.244331 95 168 59
-0.305129 0.0871 0.244204 98 172 65
-0.3048 0.0879836 0.244076 97 175 71
-0.30427 0.0887987 0.244024 96 175 68
-0.303739 0.0896143 0.243971 95 172 59
-0.303209 0.0904304 0.243919 87 166 56
-0.302678 0.0912471 0.243866 73 158 56
-0.302146 0.0920642 0.243814 62 147 51
-0.301615 0.092882 0.243761 62 139 57
-0.301082 0.0937002 0.243709 63 143 66
-0.300746 0.094595 0.243581 67 147 74
-0.301594 0.0959568 0.242994 74 150 75
-0.304342 0.0991462 0.241401 77 154 65
-0.304615 0.100322 0.241026 76 153 58
-0.304683 0.101423 0.24073 77 152 53
-0.304131 0.102272 0.240675 74 148 50
-0.303579 0.103121 0.240621 66 146 47
-0.302821 0.103884 0.240647 61 146 46
-0.302269 0.104733 0.240593 65 152 45
-0.301919 0.105673 0.240457 99 170 52
-0.301366 0.106524 0.240402 102 196 71
-0.301014 0.107467 0.240266 99 179 61
-0.300459 0.108321 0.240211 103 186 67
-0.300106 0.109268 0.240075 105 189 74
-0.300769 0.110689 0.239527 106 192 73
-0.300413 0.111645 0.239388 108 197 69
-0.300056 0.112605 0.23925 108 196 72
-0.299495 0.113468 0.239194 103 197 74
-0.298932 0.114333 0.239139 100 197 68
-0.298573 0.115297 0.239 94 196 62
-0.298212 0.116264 0.238861 78 185 57
-0.29785 0.117233 0.238721 69 171 50
-0.29668 0.117796 0.238916 78 171 50
-0.295318 0.118254 0.239193 88 180 56
-0.294164 0.118811 0.239386 90 184 59
-0.292625 0.119161 0.239741 95 189 58
-0.289009 0.1184 0.240973 102 199 60
-0.288271 0.119146 0.240998 107 205 66
-0.287348 0.11979 0.241102 114 210 70
-0.286428 0.120433 0.241205 132 217 78
-0.306474 0.0596468 0.249732 94 126 65
-0.305798 0.0603548 0.249749 97 147 52
-0.305311 0.061104 0.249701 108 170 56
-0.305954 0.0621108 0.249257 106 179 61
-0.305843 0.0629525 0.249075 92 172 59
-0.316838 0.0691894 0.244279 59 147 41
-0.316315 0.0699932 0.244227 68 154 44
-0.315792 0.0707976 0.244175 75 159 47
-0.315479 0.0716571 0.244048 83 162 49
-0.315164 0.0725188 0.24392 90 165 50
-0.314639 0.0733262 0.243868 95 168 55
-0.314114 0.0741341 0.243816 93 170 56
-0.313588 0.0749426 0.243764 91 170 56
-0.313062 0.0757515 0.243711 91 169 56
-0.312327 0.0765017 0.243735 91 168 57
-0.311388 0.0771911 0.243834 88 168 57
-0.310862 0.0779993 0.243781 89 167 54
-0.309722 0.0786247 0.243955 88 164 54
-0.309197 0.0794317 0.243903 85 163 54
-0.308672 0.0802393 0.243851 84 162 54
-0.308146 0.0810474 0.243798 85 162 54
-0.30762 0.081856 0.243746 86 162 52
-0.307094 0.0826651 0.243694 88 162 51
-0.306366 0.0834093 0.243717 88 163 53
-0.305639 0.0841527 0.24374 90 164 58
-0.305113 0.0849619 0.243687 94 169 60
-0.304985 0.0859068 0.243484 98 172 63
-0.304856 0.0868558 0.24328 98 177 70
-0.304527 0.0877391 0.243152 96 176 71
-0.303997 0.0885542 0.243099 96 172 64
-0.303466 0.0893698 0.243046 93 171 58
-0.303134 0.0902579 0.242917 80 166 57
-0.302602 0.0910753 0.242865 67 152 55
-0.30207 0.0918932 0.242812 67 136 58
-0.301538 0.0927117 0.242759 67 142 69
-0.301005 0.0935307 0.242706 75 151 72
-0.300668 0.0944261 0.242576 86 162 75
-0.302917 0.0963363 0.241434 90 169 79
-0.304676 0.0991422 0.240206 88 170 70
-0.304332 0.10007 0.240071 88 167 61
-0.304193 0.101085 0.239853 86 166 58
-0.303847 0.102019 0.239716 81 162 57
-0.30309 0.102782 0.239743 78 159 54
-0.302537 0.103631 0.239688 76 157 50
-0.301985 0.104481 0.239633 70 155 49
-0.301635 0.10542 0.239496 85 164 48
-0.301081 0.106271 0.239441 113 204 70
-0.30073 0.107214 0.239304 97 181 63
-0.300174 0.108068 0.239249 99 183 59
-0.299821 0.109015 0.239111 108 189 65
-0.300482 0.110434 0.238557 112 197 71
-0.299922 0.111295 0.238501 111 199 71
-0.299565 0.112253 0.238362 111 198 72
-0.299003 0.113116 0.238306 106 198 70
-0.298441 0.113979 0.23825 98 197 66
-0.298081 0.114942 0.23811 85 190 60
-0.297518 0.115808 0.238054 71 175 54
-0.296955 0.116674 0.237998 72 168 51
-0.295592 0.117136 0.238279 86 177 54
-0.29503 0.118 0.238223 94 184 59
-0.294468 0.118864 0.238167 97 185 61
-0.289277 0.117305 0.240079 102 195 64
-0.288539 0.118052 0.240104 108 206 66
