ply
format ascii 1.0
element vertex 1246
property float x
property float y
property float z
property uchar diffuse_red
property uchar diffuse_green
property uchar diffuse_blue
end_header
-0.357287 0.126639 0.208044 116 211 72
-0.355313 0.127188 0.208547 117 211 73
-0.354323 0.128166 0.208621 118 213 72
-0.353015 0.128997 0.208836 121 215 72
-0.35203 0.129971 0.208909 124 219 74
-0.350415 0.130648 0.209263 128 223 78
-0.349124 0.131469 0.209475 132 224 79
-0.347529 0.132137 0.209824 136 224 78
-0.346252 0.132951 0.210033 131 223 78
-0.345286 0.13391 0.210104 129 222 75
-0.344323 0.134868 0.210174 130 217 72
-0.343362 0.135825 0.210244 125 215 74
-0.342402 0.13678 0.210314 121 212 73
-0.341745 0.137887 0.210247 118 206 69
-0.341088 0.138994 0.21018 117 205 66
-0.34043 0.140103 0.210113 115 202 64
-0.34007 0.14137 0.209909 112 201 67
-0.339411 0.142481 0.209842 112 203 66
-0.338751 0.143592 0.209774 117 201 66
-0.337794 0.144542 0.209845 116 205 68
-0.33684 0.145491 0.209915 121 212 69
-0.335887 0.146438 0.209984 128 217 76
-0.335228 0.147548 0.209917 131 221 77
-0.334568 0.148659 0.20985 132 227 78
-0.333328 0.149435 0.210056 130 226 78
-0.331521 0.149874 0.210533 128 227 76
-0.330296 0.150644 0.210736 128 226 77
-0.329077 0.15141 0.210939 128 217 75
-0.327863 0.152174 0.21114 126 215 72
-0.326932 0.153103 0.211207 125 213 71
-0.326003 0.154031 0.211274 120 210 72
-0.308061 0.148599 0.218488 121 215 69
-0.307451 0.149627 0.218426 119 215 71
-0.30684 0.150656 0.218364 114 216 68
-0.306229 0.151685 0.218302 110 209 68
-0.305618 0.152714 0.218239 143 238 87
-0.318426 0.167435 0.210339 101 156 84
-0.317502 0.168355 0.210407 106 152 83
-0.358653 0.109139 0.210642 154 234 86
-0.358004 0.110231 0.210575 146 253 103
-0.367346 0.11794 0.20552 127 227 84
-0.36598 0.118808 0.205748 149 236 97
-0.365304 0.119947 0.205679 162 246 107
-0.364627 0.121087 0.205609 133 234 99
-0.36395 0.122227 0.20554 116 217 77
-0.363272 0.123368 0.20547 123 217 75
-0.362256 0.124367 0.205549 124 217 77
-0.360569 0.125075 0.205923 119 213 73
-0.359227 0.125923 0.206148 117 212 72
-0.357561 0.126622 0.206518 116 211 72
-0.355581 0.127172 0.207029 118 211 71
-0.353942 0.127863 0.207392 121 213 69
-0.352634 0.128694 0.20761 124 216 71
-0.351332 0.129522 0.207826 127 218 75
-0.349722 0.1302 0.208183 128 222 79
-0.347811 0.130727 0.208677 131 224 80
-0.346534 0.131543 0.208889 135 225 79
-0.345569 0.132503 0.208961 133 223 78
-0.344605 0.133462 0.209032 130 223 76
-0.343644 0.13442 0.209103 126 220 75
-0.342684 0.135376 0.209174 121 213 75
-0.341726 0.13633 0.209245 117 207 72
-0.34107 0.137435 0.209178 113 200 66
-0.340413 0.138542 0.20911 108 195 63
-0.339756 0.139649 0.209043 102 191 61
-0.339396 0.140914 0.208837 95 187 59
-0.338737 0.142024 0.20877 92 185 60
-0.338078 0.143134 0.208702 95 186 63
-0.337123 0.144083 0.208773 102 194 66
-0.335877 0.144869 0.208982 110 203 65
-0.334927 0.145814 0.209053 122 211 68
-0.33398 0.146758 0.209123 130 221 74
-0.333612 0.14803 0.208918 132 225 78
-0.331803 0.148475 0.2094 133 229 80
-0.330578 0.149247 0.209605 132 224 76
-0.32964 0.150183 0.209674 129 227 78
-0.328705 0.151117 0.209743 128 218 74
-0.327213 0.151713 0.210082 126 215 74
-0.326561 0.152811 0.210015 121 212 77
-0.308324 0.147299 0.217437 120 214 71
-0.307476 0.148174 0.217492 119 218 71
-0.306866 0.149201 0.21743 111 216 71
-0.306256 0.150228 0.217367 102 208 68
-0.305646 0.151256 0.217305 146 224 72
-0.305036 0.152284 0.217242 125 207 87
-0.317785 0.166957 0.209278 107 153 85
-0.357633 0.109933 0.209375 166 236 92
-0.356984 0.111026 0.209308 137 235 89
-0.365593 0.118498 0.204498 132 231 81
-0.364916 0.119637 0.204428 148 242 92
-0.36424 0.120777 0.204359 148 245 99
-0.363562 0.121917 0.204289 121 226 83
-0.362885 0.123058 0.204219 111 216 72
-0.361868 0.124057 0.204299 119 218 78
-0.360518 0.12491 0.204528 120 216 77
-0.359507 0.125904 0.204608 117 213 73
-0.357836 0.126605 0.204984 116 212 72
-0.355524 0.127012 0.20565 119 212 71
-0.353561 0.127559 0.206163 120 216 71
-0.352254 0.128391 0.206383 122 220 75
-0.35032 0.128929 0.206889 127 222 78
-0.348405 0.129461 0.20739 129 223 79
-0.347125 0.130281 0.207604 130 227 79
-0.345851 0.131097 0.207818 131 227 78
-0.344887 0.132057 0.20789 131 224 78
-0.343926 0.133015 0.207963 129 220 76
-0.342966 0.133972 0.208035 124 217 76
-0.342008 0.134927 0.208107 120 210 72
-0.341352 0.136032 0.208039 111 203 67
-0.340695 0.137138 0.207971 98 195 61
-0.340038 0.138244 0.207904 86 182 58
-0.339381 0.139351 0.207836 78 175 55
-0.338723 0.140459 0.207768 73 173 51
-0.338065 0.141567 0.2077 70 171 51
-0.337112 0.142517 0.207772 72 171 51
-0.33616 0.143465 0.207844 78 176 51
-0.33521 0.144411 0.207915 86 186 55
-0.333395 0.144871 0.208402 103 199 64
-0.332167 0.14565 0.208609 122 213 72
-0.331799 0.146913 0.208405 130 224 75
-0.33086 0.147851 0.208475 129 225 77
-0.329922 0.148788 0.208545 128 226 78
-0.328986 0.149723 0.208614 128 223 76
-0.327773 0.15049 0.20882 125 221 76
-0.326842 0.151421 0.20889 124 217 73
-0.32619 0.152518 0.208822 124 215 73
-0.308348 0.14585 0.216505 119 214 73
-0.307501 0.146725 0.216561 118 216 71
-0.306892 0.14775 0.216498 117 216 72
-0.306283 0.148775 0.216435 105 210 69
-0.305674 0.149801 0.216372 131 203 73
-0.305064 0.150828 0.216309 139 225 93
-0.304688 0.152012 0.216128 113 176 77
-0.317413 0.166665 0.208082 89 148 80
-0.356942 0.109515 0.208314 134 206 77
-0.356294 0.110606 0.208247 143 233 95
-0.355963 0.111821 0.20804 130 226 80
-0.364529 0.119327 0.203178 138 233 83
-0.363852 0.120467 0.203108 146 244 93
-0.363175 0.121608 0.203038 129 231 93
-0.362497 0.122749 0.202967 112 211 76
-0.361819 0.12389 0.202897 112 212 69
-0.360803 0.124889 0.202978 117 217 74
-0.359455 0.12574 0.203211 118 216 73
-0.357782 0.126443 0.203592 119 215 70
-0.355467 0.126851 0.204267 121 217 71
-0.353502 0.1274 0.204787 121 219 73
-0.351874 0.128088 0.205156 124 222 75
-0.349942 0.128627 0.205668 129 224 77
-0.348028 0.129161 0.206174 131 226 78
-0.34644 0.129836 0.206534 132 230 79
-0.345169 0.130652 0.206749 133 231 80
-0.344207 0.131612 0.206822 130 225 80
-0.343248 0.13257 0.206896 127 220 76
-0.342591 0.133675 0.206828 121 216 73
-0.341634 0.13463 0.2069 114 206 71
-0.340977 0.135735 0.206833 95 192 63
-0.340321 0.136841 0.206765 78 182 55
-0.339663 0.137947 0.206696 67 172 54
-0.339006 0.139054 0.206628 63 164 53
-0.338348 0.140162 0.20656 67 160 51
-0.337394 0.141112 0.206633 72 159 48
-0.336736 0.14222 0.206565 74 159 47
-0.335493 0.143008 0.206778 71 159 49
-0.333676 0.143475 0.20727 67 167 50
-0.332162 0.144096 0.207618 81 180 55
-0.330941 0.144874 0.207827 108 203 64
-0.330857 0.146294 0.207483 123 223 79
-0.329921 0.14723 0.207554 127 227 75
-0.329268 0.14833 0.207486 126 228 76
-0.328054 0.149099 0.207695 128 224 74
-0.327402 0.150197 0.207627 122 222 77
-0.326749 0.151295 0.20756 123 218 76
-0.30861 0.144552 0.215456 123 217 71
-0.307763 0.145428 0.215512 119 215 71
-0.306918 0.146302 0.215568 119 215 68
-0.30631 0.147326 0.215505 107 214 69
-0.305701 0.14835 0.215442 112 209 70
-0.305093 0.149375 0.215379 146 238 88
-0.304483 0.150401 0.215316 122 186 80
-0.317696 0.165267 0.206955 105 149 85
-0.355605 0.110188 0.207188 147 220 80
-0.354957 0.111279 0.20712 137 233 92
-0.364142 0.119017 0.201927 122 228 80
-0.363465 0.120157 0.201857 136 236 85
-0.362787 0.121298 0.201786 137 241 89
-0.361771 0.122298 0.201869 116 225 80
-0.361093 0.123438 0.201798 105 211 66
-0.360415 0.124579 0.201727 108 213 67
-0.359402 0.125576 0.20181 113 218 72
-0.357727 0.12628 0.202196 116 218 72
-0.355736 0.126835 0.20273 119 220 72
-0.35312 0.127095 0.203556 124 224 72
-0.351493 0.127785 0.20393 128 225 74
-0.349563 0.128325 0.204446 130 225 77
-0.347651 0.128861 0.204958 133 228 79
-0.345757 0.129392 0.205465 133 230 78
-0.344489 0.130209 0.205683 132 229 79
-0.343833 0.131314 0.205614 129 226 80
-0.342873 0.132272 0.205689 126 219 77
-0.341915 0.133228 0.205763 121 214 69
-0.341259 0.134333 0.205694 99 197 69
-0.340603 0.135438 0.205626 80 182 58
-0.339946 0.136543 0.205558 68 174 50
-0.339289 0.13765 0.205489 78 167 50
-0.338631 0.138757 0.205421 91 174 54
-0.337973 0.139864 0.205352 96 187 62
-0.337019 0.140815 0.205426 101 188 62
-0.336068 0.141764 0.2055 103 189 62
-0.334537 0.142395 0.205857 98 180 58
-0.332443 0.142705 0.206491 83 170 57
-0.331221 0.143485 0.206702 75 169 52
-0.330288 0.144421 0.206773 93 186 64
-0.329919 0.145677 0.206566 125 237 95
-0.328986 0.146612 0.206637 127 221 75
-0.328334 0.147709 0.20657 128 222 76
-0.327683 0.148806 0.206502 128 225 77
-0.32703 0.149904 0.206434 126 221 74
-0.308264 0.14428 0.214343 119 217 72
-0.30718 0.145007 0.214521 117 217 72
-0.306572 0.14603 0.214458 109 211 69
-0.305964 0.147054 0.214395 99 210 68
-0.305355 0.148078 0.214331 146 230 81
-0.304746 0.149103 0.214268 128 201 86
-0.304137 0.150129 0.214205 108 165 81
-0.318248 0.164053 0.205687 104 151 81
-0.353955 0.110739 0.206205 148 212 87
-0.353937 0.112073 0.205854 129 226 81
-0.363077 0.119847 0.200605 123 229 78
-0.362399 0.120988 0.200534 135 238 84
-0.361383 0.121988 0.200618 130 237 84
-0.360706 0.123129 0.200547 108 221 72
-0.359692 0.124127 0.200631 99 212 64
-0.359015 0.125267 0.20056 109 216 68
-0.357672 0.126117 0.200797 117 220 73
-0.355352 0.126528 0.20149 119 221 75
-0.35306 0.126935 0.202175 123 222 74
-0.351431 0.127626 0.202554 127 225 75
-0.349184 0.128024 0.203225 130 228 79
-0.347585 0.128705 0.203596 132 231 79
-0.345382 0.129094 0.204255 133 229 77
-0.344114 0.129911 0.204475 132 228 77
-0.343155 0.13087 0.20455 127 226 79
-0.342197 0.131827 0.204625 126 224 79
-0.341541 0.132931 0.204557 133 221 74
-0.340885 0.134035 0.204488 93 193 65
-0.340228 0.13514 0.204419 74 177 57
-0.339571 0.136246 0.20435 85 176 55
-0.338914 0.137352 0.204282 96 191 64
-0.338256 0.138459 0.204213 104 196 66
-0.337598 0.139567 0.204144 112 203 69
-0.336645 0.140518 0.204219 109 204 69
-0.335401 0.14131 0.204437 110 201 68
-0.333297 0.141627 0.205081 111 200 70
-0.331502 0.142097 0.205577 104 196 70
-0.330568 0.143034 0.205649 93 185 59
-0.329636 0.14397 0.205721 95 182 66
-0.328985 0.145064 0.205653 128 248 96
-0.328335 0.146158 0.205585 127 220 74
-0.327684 0.147253 0.205517 127 222 79
-0.327033 0.148349 0.205449 128 225 79
-0.307443 0.143712 0.213475 116 220 74
-0.306835 0.144735 0.213411 108 218 69
-0.306227 0.145758 0.213347 93 208 69
-0.305618 0.146782 0.213284 137 211 71
-0.305009 0.147806 0.21322 136 215 92
-0.3044 0.148831 0.213156 114 169 78
-0.352313 0.111287 0.205225 139 221 87
-0.352916 0.112867 0.204586 123 223 78
-0.362012 0.120678 0.199283 126 228 79
-0.360996 0.121679 0.199368 134 237 84
-0.360318 0.122819 0.199296 126 228 81
-0.359305 0.123817 0.199381 106 212 72
-0.357962 0.12467 0.199621 100 208 67
-0.357285 0.125809 0.19955 111 216 71
-0.354967 0.126222 0.20025 119 222 76
-0.352677 0.12663 0.200942 122 224 76
-0.351368 0.127467 0.201174 127 226 75
-0.349119 0.127866 0.201854 130 229 74
-0.347518 0.128549 0.202231 131 232 76
-0.344701 0.128651 0.20319 132 232 77
-0.34374 0.129612 0.203267 132 228 76
-0.342478 0.130427 0.203488 126 224 74
-0.341523 0.131384 0.203564 125 221 74
-0.340867 0.132486 0.203495 133 221 72
-0.340212 0.133589 0.203426 93 190 65
-0.339556 0.134693 0.203357 87 177 60
-0.339196 0.135949 0.203143 99 192 64
-0.338539 0.137055 0.203074 110 201 68
-0.337881 0.138162 0.203005 117 210 73
-0.337222 0.139269 0.202936 116 212 73
-0.335976 0.140065 0.203157 114 212 70
-0.334445 0.1407 0.203521 117 213 72
-0.332352 0.14102 0.204169 118 211 74
-0.330848 0.141647 0.204526 117 211 73
-0.329915 0.142584 0.204599 114 205 67
-0.329265 0.143677 0.204531 109 197 78
-0.328615 0.144771 0.204462 134 252 96
-0.327965 0.145866 0.204394 131 216 71
-0.327314 0.146961 0.204325 128 223 77
-0.326662 0.148057 0.204257 131 231 78
-0.307097 0.14344 0.212365 109 217 72
-0.306489 0.144463 0.212301 96 209 66
-0.305881 0.145486 0.212237 130 200 71
-0.305272 0.14651 0.212173 143 229 94
-0.304663 0.147534 0.212109 119 176 77
-0.350369 0.111712 0.204393 139 228 87
-0.360945 0.121509 0.197959 126 226 81
-0.359595 0.122368 0.198203 131 234 83
-0.358584 0.123366 0.198288 118 223 79
-0.357244 0.124219 0.19853 102 209 69
-0.355256 0.124783 0.199081 101 210 66
-0.354583 0.125915 0.19901 112 220 72
-0.352616 0.126469 0.199556 121 227 76
-0.350987 0.127163 0.199944 124 230 76
-0.349054 0.127708 0.20048 127 231 76
-0.34714 0.128248 0.201012 133 232 77
-0.344021 0.12821 0.202128 134 233 80
-0.34276 0.129027 0.202352 135 230 79
-0.341504 0.129841 0.202575 127 224 76
-0.34085 0.130941 0.202506 124 222 76
-0.340195 0.132042 0.202436 134 222 75
-0.33954 0.133144 0.202367 97 194 67
-0.338884 0.134246 0.202298 97 190 62
-0.338525 0.1355 0.202082 109 203 68
-0.337868 0.136605 0.202013 119 213 71
-0.33721 0.137711 0.201943 118 216 72
-0.336259 0.138662 0.20202 119 217 75
-0.335018 0.139457 0.202243 118 218 76
-0.333206 0.139938 0.202754 118 218 81
-0.331411 0.140416 0.20326 120 219 78
-0.330477 0.141354 0.203334 119 219 74
-0.329545 0.142291 0.203408 121 216 71
-0.328895 0.143385 0.20334 123 213 83
-0.328245 0.144478 0.203271 137 254 105
-0.327594 0.145573 0.203202 126 211 71
-0.326943 0.146668 0.203133 128 226 76
-0.307359 0.142146 0.211319 115 215 70
-0.306752 0.143168 0.211254 96 211 65
-0.306144 0.144191 0.21119 114 202 70
-0.305535 0.145214 0.211126 146 241 89
-0.304926 0.146238 0.211062 122 184 80
-0.304317 0.147262 0.210997 105 157 83
-0.348743 0.112257 0.203422 144 236 88
-0.359878 0.12234 0.196634 123 227 79
-0.358197 0.123057 0.197039 125 232 82
-0.356858 0.123911 0.197284 114 221 78
-0.354221 0.124193 0.198153 102 207 68
-0.352904 0.125037 0.198392 101 208 65
-0.352233 0.126164 0.198321 110 220 73
-0.350605 0.126859 0.198713 121 229 76
-0.348674 0.127405 0.199255 128 232 77
-0.346761 0.127947 0.199792 132 233 79
-0.343343 0.12777 0.201068 133 234 83
-0.341785 0.128444 0.201441 133 231 80
-0.340534 0.129258 0.201665 125 225 77
-0.339881 0.130355 0.201596 119 222 79
-0.339228 0.131454 0.201526 129 228 79
-0.33887 0.1327 0.20131 98 198 66
-0.338215 0.133801 0.201241 102 196 64
-0.33756 0.134903 0.201171 117 214 72
-0.336904 0.136005 0.201101 122 219 71
-0.336248 0.137108 0.201032 119 221 71
-0.3353 0.138058 0.201109 127 227 75
-0.333487 0.138545 0.201625 134 238 84
-0.332261 0.139335 0.201847 135 243 94
-0.330757 0.139968 0.202212 129 231 91
-0.329825 0.140906 0.202287 127 224 76
-0.329175 0.141999 0.202218 124 218 75
-0.328525 0.143092 0.202149 130 219 80
-0.327875 0.144186 0.20208 138 253 100
-0.327224 0.14528 0.202011 115 205 66
-0.326572 0.146375 0.201941 118 222 76
-0.307014 0.141874 0.210209 97 211 67
-0.306406 0.142896 0.210144 109 199 67
-0.305798 0.143918 0.210079 145 243 86
-0.305189 0.144941 0.210015 120 191 83
-0.304581 0.145965 0.20995 104 163 80
-0.347124 0.112799 0.202455 147 245 91
-0.346482 0.113879 0.202386 131 234 85
-0.359498 0.120611 0.195775 122 226 79
-0.358821 0.12175 0.195703 119 224 78
-0.357478 0.122607 0.195951 120 227 81
-0.356472 0.123603 0.196038 119 229 82
-0.353837 0.123887 0.196916 111 220 76
-0.351879 0.124449 0.19747 99 209 68
-0.350257 0.125148 0.197864 98 213 66
-0.34959 0.126269 0.197793 110 225 70
-0.347357 0.126674 0.198491 121 230 75
-0.34515 0.127075 0.19918 130 234 78
-0.342366 0.127189 0.20016 134 235 81
-0.340814 0.127865 0.200535 129 230 79
-0.338978 0.128394 0.201053 119 220 76
-0.338035 0.129345 0.20113 114 224 78
-0.337385 0.130436 0.201061 129 231 80
-0.336736 0.131529 0.200992 99 199 68
-0.336376 0.132768 0.200776 102 197 64
-0.335725 0.133863 0.200706 116 217 76
-0.335363 0.135108 0.20049 119 219 75
-0.33471 0.136206 0.20042 129 231 74
-0.333768 0.137153 0.200497 146 241 81
-0.332542 0.137945 0.200721 175 251 91
-0.331037 0.138582 0.20109 161 254 97
-0.330105 0.139521 0.201166 138 250 92
-0.329455 0.140613 0.201097 139 245 85
-0.328805 0.141706 0.201027 127 232 82
-0.328155 0.142799 0.200958 128 221 82
-0.327504 0.143893 0.200888 126 247 96
-0.326853 0.144988 0.200819 91 196 61
-0.307276 0.14058 0.209163 90 206 65
-0.306668 0.141602 0.209098 104 200 68
-0.30606 0.142623 0.209034 141 247 86
-0.305452 0.143646 0.208969 120 195 85
-0.304843 0.144669 0.208904 103 161 81
-0.345813 0.113462 0.201346 150 249 97
-0.345171 0.114541 0.201277 134 240 88
-0.345129 0.115872 0.200916 124 232 81
-0.345087 0.11721 0.200554 120 227 78
-0.354125 0.122453 0.19575 121 227 78
-0.353454 0.123581 0.195678 121 228 79
-0.35246 0.124568 0.195765 111 220 75
-0.349876 0.124845 0.196636 98 211 68
-0.3464 0.124698 0.197955 95 213 65
-0.34574 0.125807 0.197884 104 221 68
-0.342647 0.125792 0.199026 117 224 73
-0.340499 0.126194 0.199702 126 225 73
-0.338669 0.126729 0.200223 121 221 73
-0.338021 0.127819 0.200154 110 212 74
-0.337081 0.128767 0.200231 104 214 79
-0.336143 0.129714 0.200308 131 236 84
-0.335495 0.130803 0.200239 103 203 69
-0.334847 0.131892 0.200169 106 202 65
-0.334486 0.133128 0.199953 117 217 73
-0.333836 0.13422 0.199883 117 222 77
-0.333186 0.135313 0.199813 131 237 80
-0.332536 0.136406 0.199744 137 243 89
-0.331316 0.137197 0.199968 148 244 94
-0.330384 0.138137 0.200045 167 252 94
-0.329735 0.139229 0.199976 161 254 97
-0.329085 0.140321 0.199906 132 234 82
-0.328435 0.141413 0.199836 121 226 75
-0.327785 0.142506 0.199766 124 224 81
-0.327134 0.1436 0.199697 115 242 97
-0.307538 0.139287 0.208118 81 200 62
-0.306931 0.140308 0.208053 111 195 67
-0.306323 0.141329 0.207988 141 244 87
-0.305715 0.142351 0.207923 118 195 85
-0.305106 0.143374 0.207858 104 162 81
-0.344804 0.114248 0.200092 155 250 96
-0.344162 0.115327 0.200023 141 242 90
-0.343519 0.116408 0.199953 128 234 80
-0.342875 0.117489 0.199884 122 231 76
-0.350828 0.122302 0.195552 122 229 77
-0.348865 0.124261 0.195723 109 222 74
-0.345102 0.123983 0.197202 94 213 67
-0.341428 0.123712 0.198645 88 212 62
-0.340778 0.124805 0.198575 96 214 64
-0.338947 0.125347 0.199101 102 219 70
-0.337715 0.126159 0.199328 95 215 72
-0.336778 0.127107 0.199406 87 204 66
-0.336131 0.128193 0.199336 93 210 76
-0.335485 0.129279 0.199266 129 242 86
-0.334837 0.130367 0.199197 105 206 68
-0.33419 0.131455 0.199127 106 204 65
-0.333542 0.132543 0.199057 115 220 72
-0.332608 0.133486 0.199135 113 224 75
-0.332245 0.134723 0.198917 124 237 80
-0.331312 0.135664 0.198995 126 233 79
-0.330381 0.136604 0.199073 128 233 78
-0.329733 0.137694 0.199003 141 235 82
-0.329084 0.138784 0.198933 139 236 87
-0.328435 0.139874 0.198863 118 228 81
-0.327786 0.140965 0.198793 112 218 71
-0.327414 0.142214 0.198575 124 224 83
-0.326763 0.143307 0.198505 120 244 99
-0.307193 0.139015 0.207009 123 196 69
-0.306585 0.140036 0.206943 143 240 90
-0.305977 0.141057 0.206877 123 190 83
-0.343496 0.114909 0.198985 155 248 98
-0.342557 0.115863 0.199064 144 246 92
-0.341915 0.116941 0.198994 126 238 82
-0.341272 0.11802 0.198925 121 233 79
-0.34063 0.1191 0.198855 120 232 79
-0.339986 0.12018 0.198785 118 232 79
-0.339343 0.121261 0.198716 111 227 75
-0.338699 0.122343 0.198646 98 216 68
-0.338055 0.123425 0.198576 87 207 62
-0.33741 0.124508 0.198506 81 206 61
-0.336765 0.125591 0.198436 76 206 58
-0.33612 0.126675 0.198366 72 200 60
-0.335474 0.12776 0.198297 89 209 75
-0.334828 0.128845 0.198226 130 245 90
-0.334181 0.129931 0.198156 106 208 70
-0.333534 0.131018 0.198086 106 209 64
-0.332887 0.132105 0.198016 112 221 69
-0.331955 0.133048 0.198095 110 221 72
-0.331308 0.134135 0.198025 121 234 80
-0.33066 0.135223 0.197955 124 234 82
-0.329171 0.135865 0.19833 128 231 79
-0.328525 0.136951 0.19826 130 230 81
-0.328156 0.138188 0.198041 127 233 78
-0.327509 0.139276 0.197971 105 222 73
-0.327138 0.140519 0.197752 105 212 70
-0.327044 0.141921 0.197383 126 224 82
-0.306847 0.138743 0.205898 138 231 95
-0.34219 0.11557 0.19788 157 243 93
-0.341253 0.116522 0.19796 154 250 94
-0.340025 0.117346 0.198187 136 244 88
-0.338802 0.118167 0.198413 123 234 84
-0.337584 0.118984 0.198638 119 231 80
-0.336086 0.11967 0.199009 118 231 78
-0.33545 0.120738 0.198939 114 229 76
-0.336529 0.122599 0.197986 105 218 70
-0.336464 0.123945 0.197619 94 209 63
-0.33582 0.125026 0.197549 88 202 59
-0.335176 0.126107 0.197479 92 202 59
-0.334818 0.127328 0.197259 109 219 73
-0.334173 0.128412 0.197189 129 245 91
-0.333527 0.129497 0.197119 106 210 70
-0.33288 0.130583 0.197048 106 209 65
-0.33195 0.131525 0.197128 114 219 72
-0.331304 0.13261 0.197057 124 225 75
-0.330095 0.133405 0.197286 147 250 88
-0.329449 0.134489 0.197216 154 254 101
-0.328246 0.135279 0.197443 148 253 94
-0.327049 0.136065 0.19767 139 247 90
-0.32668 0.137296 0.197451 126 235 82
-0.326035 0.138379 0.197381 102 219 75
-0.326215 0.13992 0.196864 101 213 68
-0.326673 0.141628 0.196192 127 229 79
-0.340299 0.115979 0.197077 149 235 90
-0.339076 0.116802 0.197306 162 251 99
-0.337858 0.117622 0.197533 152 248 93
-0.335789 0.118059 0.198201 131 240 85
-0.334588 0.11887 0.198424 123 234 79
-0.333954 0.119934 0.198355 122 232 78
-0.334166 0.121388 0.197845 117 231 80
-0.335521 0.123385 0.196736 111 229 79
-0.335165 0.124598 0.196516 107 226 76
-0.334522 0.125679 0.196445 108 225 74
-0.333878 0.12676 0.196375 119 233 83
-0.333519 0.12798 0.196154 130 246 91
-0.332874 0.129064 0.196083 106 213 67
-0.332228 0.130148 0.196012 106 213 65
-0.331299 0.13109 0.196093 120 227 75
-0.330372 0.13203 0.196173 142 250 87
-0.329168 0.132824 0.196402 151 255 109
-0.327969 0.133615 0.196631 162 255 128
-0.32705 0.134549 0.19671 175 255 104
-0.32586 0.135334 0.196937 152 253 88
-0.325218 0.136412 0.196867 122 235 79
-0.324576 0.137489 0.196796 102 215 69
-0.325023 0.139172 0.196129 100 214 67
-0.336061 0.116705 0.197102 157 246 96
-0.334577 0.117394 0.197475 156 253 99
-0.333664 0.11833 0.197552 139 246 89
-0.333031 0.119391 0.197483 127 237 83
-0.332678 0.120582 0.197266 122 235 83
-0.333166 0.122168 0.196604 119 234 80
-0.334227 0.124037 0.195635 117 236 78
-0.33387 0.125251 0.195414 115 236 78
-0.333511 0.126468 0.195191 122 241 86
-0.332867 0.127549 0.195121 128 245 88
-0.332222 0.128631 0.19505 104 214 66
-0.331295 0.129573 0.195131 103 214 67
-0.330089 0.130372 0.195363 120 228 72
-0.329445 0.131452 0.195292 136 246 80
-0.328246 0.132246 0.195523 142 238 85
-0.327052 0.133036 0.195753 150 238 91
-0.325863 0.133824 0.195981 150 248 100
-0.32495 0.134754 0.19606 135 247 86
-0.324039 0.135682 0.196138 109 233 75
-0.323399 0.136756 0.196068 93 214 64
-0.323839 0.138429 0.195399 95 211 68
-0.318679 0.14709 0.194832 98 149 84
-0.333935 0.116982 0.196459 150 236 87
-0.332465 0.117667 0.196831 156 253 99
-0.331557 0.118599 0.196909 139 249 92
-0.330927 0.119656 0.196839 130 243 83
-0.331126 0.1211 0.196327 129 242 81
-0.332165 0.122948 0.195363 124 241 78
-0.33237 0.12442 0.19484 121 239 79
-0.332011 0.12563 0.194618 124 242 85
-0.33137 0.126707 0.194547 126 244 89
-0.330728 0.127784 0.194476 104 212 65
-0.330086 0.128862 0.194405 103 212 67
-0.32861 0.129519 0.194789 117 227 71
-0.327693 0.130453 0.194869 129 238 77
-0.327053 0.131528 0.194798 133 236 78
-0.326138 0.13246 0.194878 136 237 79
-0.325226 0.133391 0.194958 136 238 79
-0.324044 0.134175 0.195187 126 238 79
-0.323137 0.135102 0.195266 100 223 72
-0.322498 0.136174 0.195196 84 203 59
-0.318958 0.145716 0.193723 76 138 80
-0.33155 0.117132 0.195968 151 234 89
-0.330371 0.117938 0.196193 163 253 99
-0.329743 0.118992 0.196123 149 252 89
-0.329388 0.120173 0.195906 138 249 84
-0.329856 0.121745 0.195243 130 248 82
-0.330328 0.123332 0.194573 121 245 84
-0.330247 0.124666 0.194201 124 241 93
-0.329609 0.125736 0.19413 124 244 93
-0.328971 0.126807 0.194059 102 210 65
-0.328332 0.127879 0.193988 102 212 62
-0.327418 0.128812 0.194069 116 223 70
-0.32678 0.129884 0.193998 126 238 78
-0.326141 0.130956 0.193927 128 233 79
-0.325501 0.132029 0.193856 129 234 78
-0.32432 0.132816 0.194088 133 236 77
-0.323412 0.133744 0.194168 125 237 76
-0.322773 0.134815 0.194097 99 220 72
-0.319503 0.144499 0.19246 70 108 69
-0.32892 0.117159 0.195629 153 241 93
-0.328295 0.118207 0.195559 150 251 100
-0.32794 0.119382 0.195342 136 246 89
-0.328399 0.120943 0.194679 129 252 90
-0.329137 0.12265 0.193859 127 251 96
-0.32933 0.124111 0.193334 128 246 98
-0.328693 0.125179 0.193263 120 243 94
-0.328056 0.126247 0.193192 94 206 65
-0.327419 0.127316 0.193121 98 206 64
-0.326508 0.128248 0.193202 116 223 70
-0.32587 0.129317 0.193131 129 239 79
-0.325233 0.130387 0.19306 129 236 79
-0.324324 0.131316 0.193141 130 240 78
-0.323687 0.132386 0.193069 134 240 77
-0.323048 0.133456 0.192998 127 241 77
-0.320586 0.143593 0.190883 73 119 71
-0.327129 0.117553 0.194853 149 241 89
-0.326505 0.118599 0.194783 133 242 85
-0.326417 0.119897 0.194418 130 243 80
-0.32741 0.121714 0.193451 133 245 82
-0.328142 0.123426 0.192623 131 244 91
-0.327781 0.124623 0.1924 115 236 93
-0.327145 0.125689 0.192328 87 198 65
-0.326509 0.126756 0.192257 91 200 61
-0.325601 0.127686 0.192339 118 221 71
-0.324965 0.128753 0.192268 138 243 81
-0.324329 0.12982 0.192196 136 241 80
-0.323961 0.131028 0.191972 133 243 82
-0.326238 0.117025 0.194004 140 223 81
-0.325615 0.118069 0.193934 132 233 85
-0.325525 0.119362 0.193566 126 230 76
-0.325435 0.120662 0.193197 132 240 82
-0.327507 0.123008 0.191612 130 251 94
-0.327146 0.124203 0.191387 111 237 98
-0.326511 0.125268 0.191315 86 193 76
-0.325875 0.126333 0.191244 88 199 76
-0.324969 0.127263 0.191326 124 221 78
-0.324603 0.128465 0.191101 137 244 83
-0.323966 0.129532 0.191029 137 247 85
-0.324994 0.117663 0.192939 130 226 83
-0.324637 0.11883 0.192719 127 227 79
-0.324545 0.120126 0.192349 147 245 91
-0.326602 0.12246 0.190756 154 255 100
-0.326512 0.123783 0.190376 145 251 99
-0.325877 0.124847 0.190304 134 244 98
-0.325242 0.125911 0.190233 133 242 100
-0.324338 0.12684 0.190316 135 231 90
-0.323703 0.127904 0.190244 133 228 78
-0.323604 0.129245 0.189862 132 231 79
-0.313097 0.129231 0.194236 132 239 87
-0.311742 0.129861 0.194601 124 227 83
-0.310882 0.130757 0.194676 138 215 79
-0.324375 0.117259 0.191946 129 218 78
-0.324017 0.118424 0.191725 116 211 72
-0.323659 0.119592 0.191503 116 207 74
-0.325432 0.121785 0.190059 109 203 76
-0.325609 0.123234 0.189523 96 192 73
-0.324975 0.124295 0.189451 90 185 71
-0.324342 0.125356 0.189379 92 181 68
-0.32344 0.126284 0.189463 103 189 67
-0.32254 0.12721 0.189546 135 215 77
-0.320326 0.127458 0.190398 133 209 75
-0.318658 0.127972 0.190935 102 186 70
-0.318031 0.129022 0.190864 93 155 49
-0.313611 0.128053 0.193031 88 153 45
-0.312499 0.12882 0.193254 77 153 46
-0.310903 0.129318 0.193766 79 156 52
-0.310289 0.130346 0.193697 136 202 70
-0.319873 0.139948 0.186608 88 132 95
-0.323757 0.116855 0.190955 123 211 77
-0.323136 0.117896 0.190884 104 197 68
-0.32304 0.119185 0.19051 88 175 56
-0.324003 0.120988 0.189521 70 156 51
-0.324442 0.122557 0.18883 56 143 45
-0.324078 0.123745 0.188602 47 132 39
-0.323446 0.124804 0.18853 48 129 35
-0.322547 0.12573 0.188613 65 138 41
-0.320597 0.12612 0.189316 90 154 52
-0.318928 0.126639 0.189859 90 147 53
-0.318301 0.127689 0.189787 70 137 45
-0.317674 0.128739 0.189716 63 133 42
-0.313012 0.127643 0.192049 57 140 38
-0.312149 0.128543 0.192127 49 133 37
-0.310554 0.129042 0.192644 49 136 49
-0.30994 0.13007 0.192574 137 193 68
-0.309812 0.131369 0.19221 136 191 93
-0.319618 0.138272 0.185823 123 156 102
-0.318972 0.139354 0.185749 76 121 96
-0.323403 0.116574 0.189814 121 204 75
-0.322782 0.117614 0.189743 100 194 67
-0.32216 0.118655 0.189672 82 169 55
-0.32285 0.120324 0.188833 65 148 49
-0.323548 0.122013 0.187985 46 131 40
-0.323451 0.123328 0.187599 31 124 29
-0.323085 0.124518 0.18737 31 121 24
-0.322187 0.125445 0.187454 47 130 31
-0.319717 0.125571 0.188474 65 146 44
-0.318571 0.126357 0.188711 67 138 45
-0.317945 0.127406 0.188639 71 139 46
-0.317317 0.128457 0.188567 77 153 49
-0.312661 0.127365 0.190921 68 154 47
-0.312045 0.128398 0.19085 53 141 41
-0.310205 0.128766 0.191521 50 134 50
-0.309591 0.129794 0.19145 138 191 66
-0.309462 0.131093 0.191084 136 195 94
-0.318192 0.137386 0.185291 125 164 107
-0.318076 0.138762 0.184893 72 118 101
-0.322787 0.116171 0.188827 120 198 72
-0.322166 0.11721 0.188755 100 192 68
-0.321545 0.11825 0.188683 83 170 56
-0.322494 0.120041 0.187684 69 153 51
-0.32319 0.121728 0.186829 54 135 42
-0.322825 0.122913 0.186599 36 123 32
-0.322725 0.124232 0.186209 30 121 25
-0.322092 0.125292 0.186136 51 132 36
-0.320405 0.125818 0.186696 75 158 50
-0.318473 0.126207 0.187407 82 160 52
-0.317588 0.127124 0.187491 92 169 57
-0.316961 0.128174 0.187418 94 179 63
-0.311694 0.12812 0.189721 70 159 52
-0.310099 0.128622 0.190249 59 138 50
-0.309484 0.129651 0.190178 138 191 66
-0.309354 0.130951 0.189808 138 196 96
-0.317564 0.13695 0.184278 127 169 108
-0.317447 0.138323 0.183879 72 121 103
-0.322433 0.11589 0.187687 122 192 70
-0.321551 0.116808 0.187769 102 195 69
-0.321191 0.117969 0.187543 83 173 57
-0.321875 0.119632 0.186692 70 159 52
-0.322831 0.121443 0.185673 57 143 46
-0.322466 0.122627 0.185441 40 130 39
-0.322365 0.123946 0.185049 33 124 31
-0.321732 0.125006 0.184976 59 136 45
-0.320308 0.125666 0.185382 93 180 60
-0.319154 0.126456 0.185626 102 187 65
-0.318005 0.127242 0.18587 103 187 65
-0.310726 0.128876 0.188521 68 152 54
-0.309864 0.129775 0.188601 138 188 67
-0.317199 0.136661 0.183105 127 174 106
-0.316819 0.137885 0.182866 75 126 102
-0.321818 0.115488 0.186702 124 185 68
-0.320938 0.116406 0.186785 106 196 70
-0.320577 0.117565 0.186558 87 174 58
-0.321257 0.119224 0.185702 73 162 53
-0.322208 0.12103 0.184678 62 149 48
-0.322107 0.122342 0.184284 50 136 44
-0.32174 0.123529 0.18405 42 126 41
-0.321107 0.124588 0.183976 66 148 49
-0.319949 0.125381 0.184224 105 197 66
-0.319056 0.126305 0.184311 114 201 71
-0.318424 0.127361 0.184238 111 196 70
-0.317096 0.13652 0.181765 126 173 104
-0.316453 0.137596 0.181691 78 130 103
-0.320946 0.114969 0.185876 126 179 67
-0.320326 0.116005 0.185804 111 199 71
-0.319965 0.117162 0.185575 89 178 59
-0.32038 0.118693 0.184873 76 166 54
-0.321322 0.120491 0.183844 69 155 49
-0.321219 0.121799 0.183449 58 143 46
-0.320852 0.122983 0.183214 49 136 46
-0.320221 0.124039 0.183141 73 157 53
-0.319589 0.125096 0.183067 113 208 71
-0.318697 0.12602 0.183155 118 210 74
-0.317806 0.126942 0.183242 117 205 71
-0.316731 0.136231 0.18059 127 173 104
-0.316088 0.137308 0.180515 82 135 100
-0.320334 0.11457 0.184897 124 175 64
-0.319202 0.115366 0.185138 114 205 74
-0.319097 0.11664 0.184752 91 183 63
-0.319765 0.118288 0.183888 77 171 55
-0.320703 0.120081 0.182854 70 159 50
-0.320598 0.121386 0.182456 61 150 48
-0.32023 0.122568 0.18222 55 144 47
-0.3196 0.123623 0.182146 77 166 56
-0.318969 0.124679 0.182072 116 214 74
-0.318078 0.125602 0.182161 120 217 76
-0.317447 0.126658 0.182087 120 213 74
-0.316815 0.127714 0.182013 119 210 74
-0.317271 0.135012 0.179322 136 197 94
-0.316366 0.135942 0.179414 128 174 103
-0.315722 0.137019 0.179339 86 137 101
-0.319468 0.114054 0.184077 120 170 64
-0.318595 0.114968 0.184162 116 206 77
-0.318233 0.116119 0.183932 92 188 67
-0.319153 0.117883 0.182905 78 174 57
-0.320084 0.119672 0.181865 71 163 51
-0.319717 0.120847 0.181628 63 153 48
-0.319349 0.122026 0.181392 59 150 47
-0.31898 0.123208 0.181154 80 171 58
-0.31835 0.124263 0.18108 117 217 74
-0.31746 0.125185 0.181169 124 220 76
-0.316572 0.126107 0.181258 124 216 73
-0.316199 0.127295 0.18102 122 214 75
-0.316905 0.134723 0.178145 136 198 95
-0.316261 0.1358 0.178069 127 174 104
-0.315356 0.13673 0.178163 88 140 100
-0.31886 0.113657 0.183103 116 161 66
-0.317989 0.114571 0.183188 120 209 80
-0.317627 0.11572 0.182957 96 192 70
-0.318541 0.117479 0.181925 82 176 59
-0.319208 0.119138 0.181041 74 167 53
-0.3191 0.120437 0.180641 67 155 47
-0.318731 0.121614 0.180403 64 151 48
-0.318103 0.122665 0.180328 81 172 60
-0.317473 0.123717 0.180254 117 217 73
-0.316844 0.12477 0.180179 126 220 75
-0.316214 0.125823 0.180105 127 217 72
-0.315584 0.126877 0.18003 125 217 74
-0.318239 0.133935 0.176357 134 186 67
-0.31654 0.134433 0.176968 135 200 95
-0.315895 0.135511 0.176892 127 174 104
-0.31499 0.136441 0.176986 90 141 98
-0.318254 0.113262 0.18213 111 154 68
-0.317638 0.114292 0.182057 122 210 81
-0.317022 0.115322 0.181984 100 195 70
-0.317931 0.117076 0.180946 85 180 60
-0.318851 0.118855 0.179894 76 171 55
-0.318484 0.120027 0.179655 69 160 49
-0.318115 0.121203 0.179416 65 155 49
-0.317745 0.122381 0.179176 81 174 60
-0.317115 0.123433 0.179101 117 215 71
-0.316486 0.124486 0.179026 126 219 74
-0.315856 0.125539 0.178951 128 217 73
-0.315225 0.126593 0.178876 126 217 74
-0.316818 0.133067 0.175867 133 186 68
-0.316174 0.134144 0.175791 135 201 94
-0.315529 0.135221 0.175714 127 176 103
-0.314625 0.136152 0.17581 94 143 96
-0.317904 0.112982 0.180999 105 152 69
-0.317287 0.114012 0.180926 121 210 80
-0.316671 0.115043 0.180852 101 199 72
-0.317577 0.116795 0.179806 86 183 61
-0.318237 0.118449 0.178911 77 174 56
-0.318127 0.119744 0.178506 70 165 50
-0.3175 0.120792 0.178431 64 159 48
-0.317129 0.121969 0.17819 82 178 58
-0.3165 0.12302 0.178115 119 214 69
-0.315871 0.124071 0.178039 131 222 75
-0.315242 0.125123 0.177964 136 223 77
-0.314867 0.126309 0.177722 130 221 76
-0.316191 0.132635 0.174864 133 186 66
-0.315808 0.133855 0.174613 133 201 93
-0.314903 0.134786 0.17471 126 176 102
-0.314259 0.135863 0.174633 99 144 92
-0.317553 0.112703 0.179868 98 143 66
-0.316936 0.113733 0.179794 121 208 77
-0.316319 0.114764 0.17972 102 202 72
-0.316968 0.116394 0.178831 86 184 60
-0.317368 0.11792 0.178097 78 175 55
-0.317513 0.119336 0.177523 71 166 50
-0.317143 0.120509 0.177281 63 160 49
-0.316515 0.121558 0.177206 79 178 57
-0.316143 0.122736 0.176963 118 214 69
-0.315513 0.123787 0.176887 134 226 79
-0.314884 0.124839 0.176812 136 226 81
-0.314254 0.125892 0.176736 132 224 78
-0.315825 0.132346 0.173688 131 186 66
-0.315181 0.133421 0.173611 133 201 94
-0.314537 0.134497 0.173534 127 175 100
-0.313893 0.135574 0.173457 105 147 91
-0.317202 0.112424 0.178737 96 138 61
-0.316585 0.113454 0.178663 122 204 74
-0.315968 0.114484 0.178588 103 202 71
-0.316108 0.115873 0.178022 87 184 58
-0.316757 0.117515 0.177119 79 176 54
-0.317156 0.119053 0.176375 71 168 51
-0.316529 0.1201 0.176299 62 161 50
-0.316158 0.121274 0.176055 80 178 56
-0.315529 0.122324 0.17598 117 212 68
-0.314901 0.123374 0.175904 131 222 79
-0.314271 0.124425 0.175828 132 222 80
-0.313895 0.125608 0.175583 131 220 75
-0.31546 0.132057 0.172512 129 186 67
-0.314557 0.132989 0.172611 134 201 94
-0.314172 0.134208 0.172357 129 176 98
-0.313527 0.135285 0.172279 112 150 91
-0.316851 0.112145 0.177606 98 134 55
-0.315982 0.113058 0.177695 125 198 72
-0.315365 0.114088 0.177621 105 202 72
-0.315502 0.115474 0.177051 87 184 59
-0.315894 0.116991 0.176311 78 176 54
-0.316288 0.118522 0.175564 71 167 52
-0.316173 0.119817 0.17515 65 160 50
-0.315545 0.120864 0.175074 82 175 55
-0.314917 0.121912 0.174999 116 209 65
-0.314543 0.12309 0.174753 124 217 76
-0.313914 0.124141 0.174676 124 216 80
-0.313284 0.125192 0.1746 121 214 75
-0.313933 0.132558 0.171613 133 200 93
-0.313548 0.133775 0.171358 129 178 99
-0.312904 0.13485 0.17128 119 154 89
-0.316247 0.111751 0.17664 98 126 50
-0.315631 0.112779 0.176565 126 194 72
-0.315014 0.113809 0.17649 106 203 73
-0.314899 0.115075 0.176083 86 185 60
-0.315286 0.116588 0.175339 77 176 55
-0.315677 0.118116 0.174588 71 167 53
-0.315561 0.119408 0.174172 66 160 51
-0.315188 0.120581 0.173925 83 173 55
-0.31456 0.121629 0.173849 116 206 65
-0.313932 0.122678 0.173772 120 215 75
-0.313303 0.123728 0.173696 120 211 78
-0.312926 0.124909 0.173448 117 213 74
-0.313568 0.132269 0.170439 134 203 93
-0.312925 0.133343 0.170361 129 179 98
-0.312282 0.134417 0.170282 120 153 87
-0.315897 0.111472 0.175509 98 120 47
-0.315029 0.112385 0.175601 126 194 71
-0.314413 0.113413 0.175525 108 205 72
-0.314046 0.11456 0.175283 86 187 60
-0.314429 0.116067 0.174537 76 177 56
-0.315068 0.117711 0.173614 70 168 53
-0.31495 0.119001 0.173196 64 161 51
-0.314831 0.120298 0.172775 82 174 56
-0.314203 0.121346 0.172699 116 205 66
-0.313575 0.122395 0.172622 123 218 76
-0.312946 0.123444 0.172545 123 215 76
-0.312317 0.124494 0.172469 122 217 75
-0.313203 0.131981 0.169265 134 206 93
-0.31256 0.133054 0.169186 130 178 99
-0.311917 0.134128 0.169108 122 155 89
-0.315295 0.111079 0.174546 95 113 46
-0.314679 0.112106 0.174471 127 189 70
-0.313814 0.113019 0.174563 111 207 72
-0.313695 0.11428 0.174152 88 188 60
-0.313326 0.11543 0.173908 77 177 56
-0.314208 0.117186 0.172813 70 169 53
-0.314341 0.118595 0.172221 63 163 50
-0.314221 0.119889 0.171799 81 175 55
-0.313846 0.121063 0.171549 116 206 67
-0.313217 0.122112 0.171472 126 223 77
-0.312337 0.123032 0.171568 128 222 80
-0.311959 0.124211 0.171317 126 221 79
-0.312838 0.131692 0.16809 134 207 93
-0.312195 0.132766 0.168012 131 179 101
-0.311551 0.13384 0.167933 125 157 91
-0.314944 0.1108 0.173417 92 106 44
-0.314079 0.111713 0.17351 126 185 70
-0.313215 0.112625 0.173602 112 206 73
-0.312847 0.113768 0.173358 89 188 63
-0.312726 0.115032 0.172944 78 177 57
-0.312853 0.116422 0.172357 70 169 53
-0.313482 0.118067 0.171422 64 163 49
-0.31336 0.119357 0.170998 83 176 54
-0.313236 0.120653 0.170573 117 206 67
-0.312608 0.121701 0.170496 123 218 81
-0.31198 0.122749 0.170419 122 216 90
-0.311601 0.123928 0.170166 132 228 86
-0.312473 0.131403 0.166916 133 207 94
-0.31183 0.132477 0.166837 131 180 100
-0.311186 0.133551 0.166757 128 160 92
-0.314344 0.110408 0.172457 82 93 40
-0.31348 0.111321 0.17255 122 176 69
-0.312865 0.112347 0.172474 113 207 76
-0.31225 0.113373 0.172398 91 190 64
-0.31188 0.114517 0.172152 79 177 58
-0.311756 0.115784 0.171735 70 168 54
-0.311879 0.117177 0.171144 65 162 49
-0.312502 0.118827 0.170201 84 175 53
-0.312377 0.120119 0.169775 119 204 68
-0.31175 0.121164 0.169697 113 199 85
-0.311623 0.122466 0.169269 103 178 88
-0.311464 0.132188 0.165662 131 181 98
-0.31082 0.133262 0.165582 128 158 90
-0.313745 0.110017 0.171499 75 83 42
-0.31313 0.111043 0.171423 119 173 71
-0.312515 0.112068 0.171346 115 208 77
-0.311899 0.113095 0.17127 92 191 65
-0.311283 0.114122 0.171194 77 178 58
-0.310667 0.11515 0.171117 69 169 53
-0.310295 0.116297 0.170869 64 162 49
-0.309922 0.117448 0.170621 85 175 54
-0.310037 0.118846 0.170026 120 204 70
-0.311394 0.120882 0.16855 109 184 83
-0.311099 0.131899 0.164487 132 181 99
-0.310201 0.132831 0.164592 127 160 91
-0.313396 0.109739 0.170372 60 70 44
-0.31278 0.110764 0.170295 114 172 73
-0.311919 0.111676 0.17039 117 209 78
-0.311303 0.112701 0.170313 92 192 66
-0.310688 0.113727 0.170237 77 178 57
-0.310072 0.114754 0.17016 73 168 52
-0.309213 0.115663 0.170255 79 168 52
-0.308114 0.116451 0.170521 99 184 58
-0.307499 0.117476 0.170444 124 207 72
-0.308089 0.11911 0.169507 115 188 85
-0.30747 0.120142 0.16943 96 147 79
-0.303061 0.119214 0.172075 111 181 79
-0.30222 0.120108 0.172166 124 225 80
-0.301612 0.121122 0.17209 104 206 70
-0.301003 0.122137 0.172014 86 182 62
-0.300393 0.123153 0.171939 105 182 68
-0.309584 0.1324 0.163603 125 161 93
-0.312798 0.109349 0.169417 49 64 44
-0.312184 0.110373 0.16934 109 168 72
-0.311569 0.111398 0.169263 114 211 80
-0.310709 0.112309 0.169359 91 194 68
-0.310094 0.113333 0.169282 77 176 56
-0.309236 0.114242 0.169377 85 167 52
-0.308379 0.11515 0.169473 123 190 61
-0.307284 0.115937 0.169739 143 212 69
-0.30501 0.116133 0.170854 132 209 75
-0.304166 0.11703 0.170946 131 189 79
-0.303091 0.117807 0.171206 147 193 81
-0.302483 0.11882 0.17113 152 233 88
-0.301875 0.119834 0.171054 131 222 79
-0.301266 0.120848 0.170978 100 195 65
-0.300657 0.121864 0.170902 83 181 63
-0.300047 0.122879 0.170826 101 183 71
-0.309219 0.132112 0.16243 121 158 93
-0.312449 0.109071 0.16829 45 67 52
-0.311834 0.110095 0.168213 108 164 71
-0.310974 0.111007 0.16831 116 210 79
-0.310359 0.112031 0.168232 93 192 68
-0.309501 0.11294 0.168329 79 174 55
-0.308644 0.113849 0.168425 87 173 55
-0.307309 0.114522 0.168866 120 207 73
-0.305273 0.114844 0.169816 128 222 85
-0.304195 0.115625 0.170079 108 195 76
-0.303354 0.116521 0.170171 120 182 69
-0.302746 0.117533 0.170095 144 207 78
-0.302138 0.118547 0.170019 140 232 86
-0.301529 0.11956 0.169942 119 208 72
-0.30092 0.120575 0.169866 92 180 58
-0.300082 0.121467 0.169958 80 178 63
-0.299473 0.122482 0.169882 98 181 70
-0.299091 0.123622 0.169636 132 210 93
-0.308352 0.131542 0.161632 120 160 94
-0.312099 0.108793 0.167163 40 66 39
-0.311239 0.109705 0.167261 104 155 61
-0.310625 0.110729 0.167183 118 205 76
-0.309766 0.111639 0.167281 97 190 68
-0.308909 0.112548 0.167378 81 173 56
-0.307813 0.113341 0.167648 84 170 55
-0.306009 0.113784 0.168435 115 198 71
-0.304458 0.114339 0.169043 120 213 86
-0.303616 0.115235 0.169137 98 188 77
-0.303009 0.116247 0.16906 110 175 66
-0.302401 0.11726 0.168983 135 202 75
-0.301792 0.118273 0.168907 134 226 85
-0.301184 0.119287 0.16883 113 200 71
-0.300345 0.12018 0.168923 87 173 58
-0.299736 0.121194 0.168847 80 176 62
-0.299127 0.122208 0.16877 96 181 68
-0.298745 0.123348 0.168522 132 209 92
-0.306007 0.130143 0.161958 119 163 97
-0.31175 0.108515 0.166036 29 50 30
-0.31089 0.109427 0.166135 104 147 51
-0.310031 0.110339 0.166233 121 203 71
-0.309174 0.111249 0.166331 100 188 65
-0.308319 0.112157 0.166429 80 172 54
-0.30651 0.112607 0.167223 81 167 56
-0.305426 0.113395 0.167492 113 197 73
-0.304112 0.114065 0.167931 115 211 86
-0.303271 0.114961 0.168026 92 185 78
-0.302664 0.115973 0.167949 105 170 68
-0.302056 0.116986 0.167872 132 200 77
-0.301447 0.117999 0.167795 134 225 86
-0.300838 0.119013 0.167717 112 198 74
-0.3 0.119906 0.167812 84 173 61
-0.299391 0.12092 0.167735 78 178 62
-0.298782 0.121935 0.167658 96 182 70
-0.298172 0.12295 0.16758 133 209 89
-0.297788 0.124091 0.167331 130 184 94
-0.304914 0.129447 0.161356 116 162 98
-0.3114 0.108236 0.164909 23 42 28
-0.310296 0.109039 0.165186 109 138 52
-0.309682 0.110061 0.165108 125 199 73
-0.308584 0.110859 0.165383 97 187 64
-0.30773 0.111767 0.165482 72 170 54
-0.3064 0.112445 0.16593 73 166 56
-0.30508 0.11312 0.166376 109 196 71
-0.303767 0.113791 0.166819 116 209 85
-0.302926 0.114688 0.166915 95 182 74
-0.302318 0.1157 0.166837 105 167 65
-0.30171 0.116712 0.16676 130 197 78
-0.301102 0.117725 0.166682 136 224 88
-0.300492 0.118739 0.166605 114 199 75
-0.299654 0.119633 0.1667 83 175 62
-0.299045 0.120647 0.166623 76 175 62
-0.298209 0.121539 0.166718 93 180 71
-0.2976 0.122553 0.16664 133 206 87
-0.297669 0.123943 0.166043 130 184 94
-0.304312 0.129027 0.160386 116 164 98
-0.31105 0.107958 0.163782 22 42 22
-0.309947 0.108761 0.164061 113 138 50
-0.30909 0.109672 0.164161 125 199 74
-0.307994 0.11047 0.164438 95 183 66
-0.307381 0.11149 0.164359 71 163 51
-0.306768 0.112511 0.164281 72 158 53
-0.305205 0.113073 0.164909 109 193 71
-0.303889 0.113745 0.165358 117 209 85
-0.302813 0.114529 0.165629 100 180 74
-0.301973 0.115426 0.165725 105 162 67
-0.301365 0.116438 0.165648 128 193 80
-0.300756 0.117452 0.16557 137 221 89
-0.300147 0.118466 0.165492 111 196 77
-0.299309 0.11936 0.165588 81 173 61
-0.298473 0.120252 0.165684 75 174 60
-0.297638 0.121143 0.16578 92 181 69
-0.297029 0.122156 0.165702 137 206 86
-0.297322 0.123669 0.164927 132 185 94
-0.303953 0.128744 0.159231 117 167 99
-0.310701 0.10768 0.162655 19 43 21
-0.309598 0.108483 0.162936 109 133 50
-0.308741 0.109395 0.163036 125 202 76
-0.307646 0.110193 0.163315 94 182 67
-0.307033 0.111213 0.163237 72 161 51
-0.30642 0.112234 0.163158 69 156 49
-0.305806 0.113255 0.163079 102 177 63
-0.304482 0.11393 0.163535 112 192 79
-0.302933 0.114485 0.164165 95 173 73
-0.302091 0.115384 0.164262 98 156 67
-0.301019 0.116165 0.164535 120 178 76
-0.30041 0.117178 0.164457 123 197 81
-0.299801 0.118192 0.164379 97 178 69
-0.298963 0.119086 0.164476 79 170 57
-0.297901 0.119858 0.164748 76 172 58
-0.297068 0.120749 0.164844 92 179 66
-0.296459 0.121761 0.164766 134 204 85
-0.296975 0.123395 0.163812 132 188 97
-0.303594 0.12846 0.158075 115 166 100
-0.310596 0.107511 0.161345 25 41 17
-0.309492 0.108315 0.161629 112 131 49
-0.308393 0.109117 0.161912 129 206 78
-0.307298 0.109916 0.162193 97 185 68
-0.306685 0.110936 0.162114 74 161 53
-0.306071 0.111957 0.162035 65 153 48
-0.305457 0.112978 0.161956 77 147 46
-0.304843 0.114 0.161877 83 149 50
-0.303992 0.114906 0.161978 81 155 60
-0.302674 0.115576 0.162436 90 155 66
-0.301134 0.116125 0.163069 96 120 58
-0.300065 0.116904 0.163345 91 115 48
-0.299455 0.117918 0.163266 86 149 46
-0.298391 0.118693 0.16354 84 167 51
-0.297331 0.119465 0.163813 77 171 59
-0.296499 0.120355 0.16391 93 177 65
-0.295891 0.121366 0.163832 137 202 82
-0.310245 0.107232 0.160216 27 44 13
-0.309142 0.108037 0.160502 116 130 45
-0.308044 0.10884 0.160787 132 206 76
-0.307189 0.10975 0.160889 99 187 69
-0.306336 0.110659 0.160991 75 161 54
-0.306199 0.111907 0.160549 64 151 48
-0.305822 0.113046 0.160287 59 142 44
-0.305206 0.114071 0.160207 62 141 46
-0.304589 0.115097 0.160127 75 159 57
-0.303972 0.116124 0.160047 93 166 67
-0.301714 0.116319 0.161237 85 113 62
-0.300177 0.116865 0.161875 76 105 52
-0.299109 0.117644 0.162153 83 153 49
-0.298046 0.11842 0.162429 84 174 55
-0.296761 0.119073 0.16288 76 172 59
-0.295042 0.119483 0.163678 95 177 64
-0.294438 0.120489 0.1636 137 200 80
-0.309035 0.107869 0.159191 125 131 44
-0.307695 0.108562 0.159662 136 208 77
-0.30708 0.109584 0.159582 100 188 70
-0.306465 0.110606 0.159503 76 162 54
-0.306089 0.111743 0.159239 65 151 51
-0.305711 0.112883 0.158975 55 141 47
-0.305332 0.114026 0.158711 56 139 48
-0.304952 0.115172 0.158445 82 168 60
-0.304333 0.116202 0.158365 100 176 66
-0.303003 0.116873 0.158839 80 130 61
-0.300753 0.117064 0.160038 82 136 55
-0.298991 0.117488 0.16086 98 176 58
-0.297927 0.118265 0.161139 94 183 62
-0.296194 0.118681 0.161949 79 172 61
-0.294039 0.118857 0.1631 94 176 61
-0.293437 0.119859 0.163022 137 199 77
-0.307586 0.108394 0.158353 139 211 81
-0.306731 0.109306 0.158457 101 189 72
-0.306116 0.110329 0.158377 77 163 56
-0.305978 0.111579 0.157927 66 152 51
-0.305599 0.112719 0.157661 55 142 47
-0.30522 0.113863 0.157394 56 141 48
-0.304601 0.114893 0.157313 87 176 62
-0.303981 0.115923 0.157232 100 186 68
-0.303361 0.116953 0.157152 93 169 65
-0.3011 0.117144 0.158367 99 177 65
-0.298873 0.117332 0.159564 107 193 67
-0.298034 0.11823 0.159666 99 189 66
-0.296971 0.119005 0.159947 79 176 61
-0.295242 0.119418 0.160763 96 179 62
-0.307477 0.108226 0.15704 144 212 83
-0.306381 0.109029 0.157332 103 191 74
-0.305766 0.110051 0.157251 78 164 56
-0.305627 0.1113 0.156798 66 153 49
-0.305249 0.112441 0.15653 55 143 46
-0.304868 0.113584 0.156262 56 141 48
-0.304249 0.114614 0.156181 88 179 63
-0.303629 0.115644 0.1561 101 193 70
-0.302773 0.116555 0.156206 103 189 67
-0.30075 0.116867 0.157243 111 195 68
-0.299212 0.117413 0.1579 111 199 70
-0.297915 0.118074 0.158368 101 192 65
-0.307127 0.107948 0.155912 147 211 80
-0.306032 0.108751 0.156206 103 194 74
-0.305417 0.109773 0.156125 78 166 56
-0.305039 0.110909 0.155857 66 154 49
-0.304659 0.112048 0.155588 56 145 46
-0.304279 0.11319 0.155319 57 142 50
-0.30366 0.114218 0.155237 90 180 63
-0.303041 0.115247 0.155156 104 196 70
-0.302186 0.116158 0.155263 109 198 69
-0.299478 0.116118 0.15686 116 203 71
-0.298864 0.117138 0.15678 114 204 72
-0.306537 0.10756 0.154973 147 210 80
-0.305445 0.108364 0.155268 104 197 74
-0.30483 0.109385 0.155187 78 167 58
-0.304451 0.110519 0.154918 67 157 50
-0.304072 0.111656 0.154648 59 149 47
-0.303691 0.112796 0.154377 60 146 48
-0.303072 0.113823 0.154296 93 181 61
-0.302454 0.114851 0.154214 112 200 71
-0.3016 0.115761 0.154322 119 207 75
-0.298672 0.115609 0.156111 123 211 77
-0.29806 0.116626 0.15603 119 208 75
-0.305949 0.107174 0.154035 146 209 79
-0.304385 0.107759 0.154708 105 198 75
-0.303772 0.108777 0.154627 78 168 60
-0.303865 0.110129 0.15398 69 158 51
-0.303485 0.111265 0.153709 64 153 47
-0.303104 0.112403 0.153438 63 151 47
-0.302486 0.113429 0.153356 93 182 59
-0.301868 0.114456 0.153274 116 203 74
-0.301249 0.115483 0.153192 126 209 79
-0.29787 0.115102 0.155365 130 213 81
-0.297259 0.116116 0.155284 123 207 75
-0.304847 0.128485 0.145368 133 173 100
-0.30465 0.106465 0.153668 141 209 81
