ply
format ascii 1.0
element vertex 1175
property float x
property float y
property float z
property uchar diffuse_red
property uchar diffuse_green
property uchar diffuse_blue
end_header
0.121025 -0.224336 -0.0487914 44 75 72
0.119679 -0.225178 -0.0489748 40 75 71
0.118642 -0.226045 -0.0495241 35 71 68
0.117608 -0.226909 -0.0500721 24 65 62
0.116279 -0.227741 -0.0502512 12 51 52
0.115548 -0.228631 -0.0511638 8 36 40
0.114522 -0.229489 -0.0517075 10 36 41
0.113792 -0.230378 -0.052619 11 54 57
0.112769 -0.231232 -0.0531602 18 63 64
0.11204 -0.23212 -0.0540705 13 62 67
0.1116 -0.233046 -0.0553538 19 74 80
0.111159 -0.233975 -0.0566407 47 106 107
0.111008 -0.234946 -0.0583094 67 114 113
0.111147 -0.235965 -0.0603699 78 91 87
0.111581 -0.237036 -0.0628355 83 74 66
0.15205 -0.215161 -0.0677216 50 105 119
0.150089 -0.216102 -0.0674332 41 94 111
0.148523 -0.217054 -0.0675787 41 84 93
0.146221 -0.217961 -0.0668645 41 77 81
0.145418 -0.218939 -0.0678672 40 78 77
0.121346 -0.222299 -0.0488025 77 80 71
0.119998 -0.223149 -0.0489861 78 78 68
0.118657 -0.223993 -0.0491688 73 77 68
0.117623 -0.22486 -0.0497173 54 66 65
0.116591 -0.225725 -0.0502643 23 55 59
0.115562 -0.226588 -0.05081 11 43 45
0.114536 -0.227448 -0.0513542 10 36 39
0.113806 -0.228337 -0.0522657 12 50 54
0.113075 -0.229227 -0.0531773 25 74 77
0.112345 -0.230116 -0.054089 40 88 84
0.111614 -0.231006 -0.0550006 28 76 73
0.110884 -0.231895 -0.0559124 17 63 73
0.110731 -0.23286 -0.057577 39 92 95
0.110578 -0.23383 -0.0592506 61 119 116
0.111008 -0.234886 -0.0617034 76 105 97
0.111738 -0.235996 -0.0645754 83 81 72
0.11218 -0.237077 -0.0670883 84 74 65
0.149675 -0.214837 -0.0684863 40 76 77
0.147731 -0.215778 -0.0681956 50 74 75
0.145434 -0.216692 -0.0674778 66 73 73
0.14463 -0.217671 -0.0684807 74 77 72
0.120317 -0.221113 -0.0489974 82 84 70
0.118973 -0.221964 -0.0491804 81 78 67
0.117637 -0.222811 -0.0493624 74 73 65
0.116605 -0.223679 -0.04991 41 60 64
0.115577 -0.224544 -0.0504561 16 50 56
0.11455 -0.225407 -0.0510009 10 39 43
0.11382 -0.226296 -0.0519124 12 47 52
0.11309 -0.227186 -0.052824 26 77 79
0.112359 -0.228075 -0.0537357 50 103 105
0.111628 -0.228965 -0.0546475 58 108 106
0.110898 -0.229854 -0.0555592 46 87 87
0.110167 -0.230744 -0.0564711 26 65 75
0.110302 -0.231741 -0.0585159 34 80 86
0.110438 -0.232747 -0.0605774 53 111 108
0.111457 -0.233879 -0.0638244 69 114 111
0.111897 -0.234947 -0.0663297 80 88 89
0.112341 -0.236027 -0.0688629 83 71 70
0.148067 -0.214544 -0.0701193 71 77 70
0.14613 -0.215485 -0.0698215 78 78 72
0.118988 -0.21991 -0.0488245 81 81 71
0.117651 -0.220762 -0.0490074 77 78 70
0.11662 -0.221632 -0.0495556 57 69 65
0.115591 -0.2225 -0.0501022 25 59 64
0.114565 -0.223366 -0.0506475 10 47 59
0.113541 -0.22423 -0.0511914 10 41 54
0.112812 -0.225118 -0.0521018 20 68 77
0.112373 -0.226034 -0.0533825 50 106 108
0.111643 -0.226923 -0.0542942 58 122 126
0.110912 -0.227813 -0.0552061 58 111 113
0.110181 -0.228703 -0.056118 56 99 98
0.110027 -0.229658 -0.0577832 36 75 78
0.109872 -0.23062 -0.0594575 31 71 77
0.110298 -0.231658 -0.0619116 43 92 96
0.111911 -0.232861 -0.0659689 61 112 114
0.112056 -0.233889 -0.0680987 76 101 102
0.111903 -0.234885 -0.0698415 82 78 77
0.118267 -0.21875 -0.0493861 83 90 81
0.116634 -0.219586 -0.0492011 70 81 77
0.115309 -0.220436 -0.0493825 44 69 70
0.114285 -0.221303 -0.0499281 23 66 68
0.113555 -0.222191 -0.0508385 11 46 60
0.112535 -0.223055 -0.0513814 14 58 68
0.112096 -0.223967 -0.0526595 36 97 97
0.111657 -0.224882 -0.0539409 59 127 127
0.110926 -0.225772 -0.0548528 59 123 126
0.110195 -0.226661 -0.0557648 59 113 114
0.109464 -0.227551 -0.0566768 57 108 107
0.109597 -0.228535 -0.0587225 57 92 89
0.10973 -0.229528 -0.060785 45 73 75
0.109864 -0.230529 -0.0628645 40 77 80
0.111474 -0.23172 -0.066938 54 104 102
0.111917 -0.232784 -0.0694782 70 113 108
0.112063 -0.23382 -0.0716378 80 93 86
0.11221 -0.234864 -0.0738155 84 73 64
0.117246 -0.217572 -0.0495797 74 109 100
0.113275 -0.21827 -0.0464993 57 97 92
0.112551 -0.219151 -0.0474024 34 78 80
0.111828 -0.220031 -0.0483055 18 71 73
0.111391 -0.220934 -0.0495708 18 60 65
0.110954 -0.221838 -0.0508396 28 84 84
0.111091 -0.222793 -0.0528477 52 116 118
0.110651 -0.223705 -0.0541279 57 127 131
0.110209 -0.224619 -0.0554115 58 118 124
0.109478 -0.225509 -0.0563235 61 117 117
0.108747 -0.226399 -0.0572357 52 107 109
0.108877 -0.227379 -0.0592838 70 119 110
0.109007 -0.228366 -0.0613487 57 90 95
0.109721 -0.229429 -0.0642106 39 71 76
0.111632 -0.230647 -0.0687121 45 85 87
0.112077 -0.231709 -0.071273 61 110 108
0.112224 -0.232745 -0.0734492 74 103 95
0.112677 -0.23383 -0.0760621 80 80 71
0.112828 -0.234884 -0.0782804 80 72 66
0.113289 -0.216247 -0.0461491 44 96 108
0.111702 -0.21708 -0.0459803 44 94 99
0.110981 -0.217957 -0.0468798 36 90 90
0.110831 -0.218871 -0.0484979 21 78 79
0.110394 -0.219771 -0.0497619 28 81 81
0.109956 -0.220673 -0.0510293 46 104 103
0.109516 -0.221577 -0.0523002 60 126 126
0.109935 -0.222554 -0.0546858 58 123 127
0.109492 -0.223467 -0.0559703 61 120 122
0.108761 -0.224357 -0.0568825 64 116 116
0.108316 -0.225274 -0.0581718 51 94 96
0.108444 -0.22625 -0.0602266 48 105 104
0.108572 -0.227235 -0.0622983 50 102 108
0.110164 -0.228387 -0.0663545 40 73 75
0.111791 -0.229565 -0.0705011 39 73 73
0.112239 -0.230626 -0.0730828 53 102 99
0.112691 -0.231698 -0.0756937 66 111 107
0.112843 -0.232744 -0.0779105 75 91 86
0.11143 -0.215052 -0.0452765 47 93 97
0.11071 -0.215928 -0.0461749 46 100 104
0.10999 -0.216804 -0.0470733 35 90 95
0.109553 -0.217697 -0.0483304 31 84 89
0.1094 -0.218611 -0.0499525 36 95 101
0.10896 -0.21951 -0.0512186 54 117 120
0.108804 -0.220432 -0.0528551 60 126 128
0.109506 -0.221425 -0.0556171 59 120 123
0.108775 -0.222315 -0.0565292 63 120 120
0.10833 -0.223229 -0.0578181 68 100 99
0.108171 -0.224171 -0.0594905 66 71 66
0.10801 -0.225119 -0.0611721 50 72 69
0.108426 -0.226129 -0.0636393 51 82 82
0.110316 -0.227303 -0.0681213 41 66 66
0.112253 -0.228506 -0.0727165 35 63 64
0.113011 -0.229601 -0.0757437 45 84 87
0.112857 -0.230603 -0.0775405 61 106 109
0.113009 -0.231649 -0.0797747 74 101 99
0.111444 -0.21304 -0.0449281 57 96 92
0.110724 -0.213916 -0.0458265 52 112 112
0.110004 -0.214792 -0.046725 46 104 108
0.109284 -0.215668 -0.0476236 37 89 95
0.108564 -0.216545 -0.0485222 38 98 100
0.108407 -0.217454 -0.0501428 44 111 112
0.107967 -0.21835 -0.0514075 55 128 129
0.108092 -0.219287 -0.0534102 58 120 125
0.108789 -0.220272 -0.0561759 60 118 120
0.108344 -0.221184 -0.0574644 63 111 111
0.108185 -0.22212 -0.0591359 73 82 77
0.108024 -0.223063 -0.0608165 74 71 64
0.107575 -0.223984 -0.0621203 72 71 63
0.1077 -0.224962 -0.0642055 68 67 61
0.110468 -0.226209 -0.0699031 55 58 59
0.113025 -0.227467 -0.0753747 42 58 58
0.113178 -0.228496 -0.0775933 44 70 71
0.113024 -0.229499 -0.0794032 55 98 98
0.111458 -0.211027 -0.0445797 67 88 89
0.110738 -0.211903 -0.0454781 60 109 110
0.109734 -0.212769 -0.0460212 53 113 117
0.109015 -0.213644 -0.0469186 43 98 104
0.108578 -0.214532 -0.0481739 45 95 100
0.107858 -0.215408 -0.0490726 44 103 110
0.107418 -0.2163 -0.0503326 54 119 123
0.107258 -0.21721 -0.0519603 59 124 127
0.10738 -0.218142 -0.0539653 60 117 121
0.108072 -0.219119 -0.0567349 62 118 117
0.107912 -0.220049 -0.0584022 67 96 94
0.107751 -0.220984 -0.0600786 76 74 63
0.11243 -0.225275 -0.0741723 78 70 61
0.112886 -0.226322 -0.0768006 62 62 59
0.113038 -0.227349 -0.0790316 50 63 64
0.111906 -0.208135 -0.0429814 83 72 65
0.111187 -0.209009 -0.0438786 76 77 75
0.110467 -0.209884 -0.0447759 64 100 101
0.109748 -0.210759 -0.0456733 55 118 122
0.109029 -0.211634 -0.0465707 46 108 114
0.10831 -0.212509 -0.0474682 42 98 104
0.107591 -0.213385 -0.0483657 45 106 108
0.107151 -0.214272 -0.0496231 49 114 117
0.10671 -0.215162 -0.050884 55 125 129
0.106549 -0.216069 -0.0525132 57 120 124
0.106667 -0.216996 -0.0545206 62 118 119
0.107355 -0.217966 -0.057294 64 109 108
0.107193 -0.218893 -0.0589629 72 79 74
0.107029 -0.219825 -0.060641 75 70 63
0.113052 -0.225199 -0.07866 77 72 62
0.113206 -0.226226 -0.0809087 63 65 62
0.110916 -0.206997 -0.0431793 80 74 71
0.110198 -0.20787 -0.0440755 66 91 88
0.109762 -0.208749 -0.0453253 57 113 114
0.109043 -0.209624 -0.0462228 50 112 121
0.108324 -0.210499 -0.0471203 45 100 107
0.107604 -0.211374 -0.0480179 48 101 105
0.106885 -0.212249 -0.0489155 48 108 113
0.106445 -0.213135 -0.0501738 56 123 123
0.106003 -0.214024 -0.0514354 58 122 126
0.105839 -0.214928 -0.0530663 59 119 121
0.105955 -0.215851 -0.0550759 64 117 116
0.106354 -0.216797 -0.057477 70 94 92
0.106189 -0.21772 -0.0591442 77 73 65
0.110495 -0.205864 -0.0440799 73 75 75
0.109493 -0.206736 -0.0446241 62 100 103
0.108775 -0.20761 -0.0455205 51 115 120
0.108057 -0.208484 -0.0464168 45 104 113
0.107338 -0.209358 -0.0473133 45 99 106
0.106899 -0.210239 -0.0485677 47 107 112
0.106179 -0.211114 -0.0494654 49 116 122
0.105738 -0.211998 -0.0507244 56 126 131
0.105295 -0.212885 -0.0519869 59 121 124
0.105129 -0.213786 -0.0536194 62 119 119
0.104963 -0.214692 -0.0552606 67 107 106
0.105075 -0.215617 -0.0572847 74 77 73
0.104907 -0.216534 -0.058947 78 72 66
0.110509 -0.203853 -0.0437318 75 73 67
0.10979 -0.204728 -0.0446293 65 93 87
0.108789 -0.205602 -0.0451729 55 117 114
0.10807 -0.206476 -0.0460693 45 111 115
0.107352 -0.20735 -0.0469658 44 103 108
0.106634 -0.208224 -0.0478623 48 105 109
0.105915 -0.209098 -0.0487589 49 111 115
0.105474 -0.209978 -0.0500154 56 124 127
0.105031 -0.210861 -0.0512753 58 124 130
0.104587 -0.211747 -0.0525386 61 118 122
0.10442 -0.212645 -0.0541726 66 113 113
0.104251 -0.213547 -0.0558154 73 87 89
0.103803 -0.214442 -0.0570935 81 71 67
0.110524 -0.201842 -0.0433837 78 73 68
0.109804 -0.202717 -0.0442812 68 78 81
0.109085 -0.203592 -0.0451788 58 103 109
0.108084 -0.204468 -0.0457218 47 113 121
0.107087 -0.205341 -0.0462634 42 104 110
0.106369 -0.206214 -0.0471588 44 102 108
0.105929 -0.20709 -0.0484115 47 107 114
0.10521 -0.207964 -0.0493082 52 116 121
0.104768 -0.208843 -0.0505654 57 125 131
0.104324 -0.209724 -0.0518262 58 121 126
0.103879 -0.210608 -0.0530903 62 117 120
0.10371 -0.211503 -0.0547259 68 103 101
0.103262 -0.212393 -0.0559991 77 75 69
0.109535 -0.200712 -0.0435813 75 79 77
0.108817 -0.201585 -0.0444777 62 98 96
0.107818 -0.202463 -0.045021 55 118 118
0.1071 -0.203335 -0.0459164 45 109 115
0.106105 -0.204209 -0.0464571 45 103 107
0.105388 -0.205081 -0.0473514 47 106 109
0.104947 -0.205954 -0.0486028 49 112 118
0.104505 -0.206829 -0.0498575 56 123 129
0.104062 -0.207707 -0.0511156 58 121 130
0.103617 -0.208587 -0.0523772 59 119 122
0.103171 -0.209469 -0.0536421 65 111 112
0.102724 -0.210354 -0.0549105 69 86 85
0.102276 -0.211241 -0.0561824 80 71 63
0.108705 -0.198728 -0.0421854 76 70 64
0.108269 -0.199591 -0.043428 64 83 84
0.107552 -0.200463 -0.0443221 59 110 112
0.106836 -0.201334 -0.0452163 50 112 116
0.106119 -0.202206 -0.0461105 45 100 106
0.105126 -0.20308 -0.0466504 45 100 105
0.104685 -0.203949 -0.0478992 47 107 113
0.103968 -0.204821 -0.0487937 53 118 124
0.1038 -0.205695 -0.0504069 56 125 131
0.103356 -0.206571 -0.0516659 58 121 127
0.10291 -0.207449 -0.0529283 62 116 118
0.102463 -0.20833 -0.0541941 67 101 98
0.101741 -0.209208 -0.0550948 73 77 64
0.107724 -0.197608 -0.0423836 72 78 71
0.107009 -0.198477 -0.0432754 60 103 99
0.106294 -0.199346 -0.0441673 53 119 120
0.105579 -0.200215 -0.0450592 47 105 111
0.104864 -0.201085 -0.0459512 46 101 106
0.104149 -0.201954 -0.0468432 46 107 108
0.103708 -0.20282 -0.0480908 51 118 119
0.103265 -0.203689 -0.0493416 58 127 129
0.102821 -0.20456 -0.0505959 58 121 126
0.102649 -0.205434 -0.0522163 60 118 121
0.102203 -0.206311 -0.0534795 64 106 110
0.101482 -0.207188 -0.054379 66 79 82
0.101033 -0.208069 -0.0556469 75 68 61
0.106628 -0.195659 -0.0406554 80 77 64
0.105917 -0.196524 -0.0415426 66 92 84
0.105206 -0.197388 -0.0424298 60 117 114
0.104495 -0.198253 -0.0433171 47 112 119
0.103784 -0.199118 -0.0442044 44 102 106
0.103072 -0.199982 -0.0450918 47 101 106
0.102903 -0.200836 -0.0466827 48 110 117
0.102733 -0.201694 -0.0482819 53 124 128
0.102289 -0.20256 -0.0495315 56 125 131
0.102117 -0.203427 -0.0511448 59 118 123
0.101943 -0.204298 -0.0527667 64 112 116
0.101495 -0.205173 -0.0540307 68 96 93
0.100774 -0.20605 -0.0549304 73 73 65
0.106092 -0.193701 -0.0396265 75 71 62
0.105382 -0.194563 -0.0405114 71 80 78
0.104673 -0.195425 -0.0413963 63 107 108
0.103693 -0.196299 -0.0419368 53 119 123
0.102984 -0.197161 -0.0428206 42 104 111
0.102276 -0.198022 -0.0437046 42 103 108
0.101836 -0.198875 -0.0449366 46 108 113
0.101663 -0.199724 -0.046523 51 121 124
0.10149 -0.200577 -0.0481177 56 128 131
0.101587 -0.20143 -0.050079 57 122 127
0.101684 -0.202289 -0.0520558 63 119 121
0.101237 -0.203161 -0.0533173 69 104 107
0.100788 -0.204035 -0.0545821 72 74 79
0.105123 -0.192596 -0.0398264 73 70 66
0.104415 -0.193457 -0.0407102 60 91 89
0.103436 -0.194333 -0.0412509 59 119 119
0.102728 -0.195193 -0.0421336 45 110 119
0.10202 -0.196053 -0.0430165 44 102 109
0.101313 -0.196913 -0.0438994 46 103 111
0.100872 -0.197764 -0.0451301 49 115 120
0.10043 -0.198617 -0.0463642 56 127 128
0.100254 -0.199465 -0.0479545 58 125 129
0.100884 -0.200299 -0.0506265 60 118 124
0.100978 -0.201154 -0.0526057 64 112 116
0.10053 -0.202024 -0.0538679 68 93 90
0.10008 -0.202897 -0.0551336 75 68 61
0.105137 -0.190615 -0.0394836 78 70 64
0.104157 -0.191494 -0.0400259 65 78 79
0.103449 -0.192354 -0.0409086 57 105 111
0.102473 -0.19323 -0.0414484 48 115 122
0.101499 -0.194103 -0.0419869 42 103 110
0.100793 -0.194962 -0.0428675 44 103 111
0.100352 -0.195808 -0.0440937 46 111 117
0.0999108 -0.196656 -0.0453233 52 124 128
0.099468 -0.197506 -0.0465561 55 127 131
0.0992896 -0.19835 -0.0481448 57 121 124
0.100181 -0.199167 -0.0511741 61 119 119
0.100273 -0.200018 -0.0531556 67 101 102
0.0998232 -0.200887 -0.0544187 71 77 74
0.104878 -0.188656 -0.0388008 76 71 65
0.10417 -0.189516 -0.0396835 68 69 70
0.103193 -0.190395 -0.0402249 58 99 97
0.102218 -0.191272 -0.0407649 56 120 122
0.101512 -0.19213 -0.0416456 45 105 115
0.100806 -0.192988 -0.0425262 45 104 109
0.1001 -0.193846 -0.0434069 44 107 115
0.0993942 -0.194704 -0.0442877 49 118 125
0.0989519 -0.19555 -0.045516 55 126 131
0.0985084 -0.196398 -0.0467475 55 123 129
0.0985923 -0.197228 -0.0486882 58 120 123
0.0989432 -0.198055 -0.0510025 62 112 111
0.0992978 -0.198891 -0.0533414 67 87 84
0.0988475 -0.199757 -0.0546031 74 67 61
0.103913 -0.18756 -0.0390013 70 71 71
0.102937 -0.188441 -0.0395429 58 87 88
0.102231 -0.189299 -0.0404235 57 116 119
0.101526 -0.190157 -0.0413042 45 115 123
0.10082 -0.191014 -0.0421849 43 100 110
0.100114 -0.191872 -0.0430656 43 103 111
0.0994076 -0.192731 -0.0439464 47 115 119
0.0987016 -0.193589 -0.0448273 54 126 129
0.0982583 -0.194433 -0.0460564 55 126 129
0.0978138 -0.19528 -0.0472887 55 120 123
0.0976311 -0.196117 -0.0488775 58 119 119
0.0974474 -0.196958 -0.0504747 63 99 98
0.0975273 -0.197795 -0.0524405 69 72 69
0.102951 -0.186467 -0.0392014 71 72 74
0.102245 -0.187325 -0.040082 59 104 104
0.101539 -0.188183 -0.0409627 53 122 125
0.100567 -0.189062 -0.0415013 43 106 113
0.0998622 -0.189918 -0.0423809 46 107 110
0.099157 -0.190775 -0.0432606 47 113 115
0.0987149 -0.191615 -0.044486 53 126 126
0.0980088 -0.192473 -0.045367 57 128 131
0.0973026 -0.193331 -0.0462481 55 121 127
0.097119 -0.194161 -0.04783 58 120 123
0.0969344 -0.194995 -0.0494203 60 108 114
0.0964863 -0.195846 -0.0506621 64 83 86
0.0960369 -0.196699 -0.0519072 72 72 62
0.102696 -0.18452 -0.0385216 71 67 65
0.101991 -0.185376 -0.0394011 61 89 89
0.101286 -0.186233 -0.0402806 61 120 122
0.100581 -0.18709 -0.0411603 47 113 121
0.0996113 -0.187969 -0.041698 44 103 108
0.0989071 -0.188825 -0.0425766 43 107 112
0.0984652 -0.189661 -0.0437995 49 117 122
0.0977599 -0.190518 -0.0446794 54 128 131
0.0973159 -0.191357 -0.0459068 53 126 129
0.0966096 -0.192215 -0.046788 55 120 123
0.0961634 -0.193058 -0.0480198 60 117 121
0.0959764 -0.193888 -0.0496086 66 94 98
0.0955275 -0.194737 -0.0508492 72 74 72
0.0950774 -0.195587 -0.052093 74 75 63
0.102709 -0.182548 -0.0381805 78 74 63
0.102004 -0.183405 -0.03906 69 72 75
0.101299 -0.184262 -0.0399396 59 109 111
0.100594 -0.185118 -0.0408193 52 121 125
0.0996248 -0.186 -0.0413575 42 105 111
0.0986578 -0.18688 -0.0418943 44 107 111
0.0982161 -0.187712 -0.0431148 47 115 118
0.0975117 -0.188568 -0.0439936 54 127 128
0.0970679 -0.189403 -0.0452185 58 128 129
0.0966229 -0.190241 -0.0464467 56 121 124
0.0959165 -0.191099 -0.0473279 58 120 122
0.0954693 -0.191941 -0.0485606 59 106 111
0.0950208 -0.192784 -0.0497965 66 81 83
0.0945711 -0.19363 -0.0510358 74 68 65
0.101751 -0.181464 -0.0383812 78 72 69
0.101047 -0.182319 -0.0392597 64 100 95
0.100342 -0.183175 -0.0401382 59 124 123
0.0993746 -0.184058 -0.0406766 45 110 118
0.0986712 -0.184913 -0.0415542 44 105 111
0.0979677 -0.185767 -0.0424318 45 110 118
0.0972642 -0.186622 -0.0433094 52 121 127
0.0968206 -0.187454 -0.0445319 54 128 134
0.0963758 -0.188288 -0.0457577 55 122 127
0.0959297 -0.189125 -0.0469867 57 119 121
0.0952233 -0.189983 -0.047868 60 117 115
0.0947751 -0.190823 -0.0491015 70 94 89
0.0943256 -0.191665 -0.0503383 75 73 65
0.101232 -0.179561 -0.0373687 75 72 63
0.10053 -0.180414 -0.0382449 65 77 81
0.0998275 -0.181267 -0.0391212 57 111 119
0.0991251 -0.182121 -0.0399976 48 120 126
0.0984225 -0.182974 -0.040874 42 103 112
0.0977199 -0.183828 -0.0417506 43 109 115
0.0970173 -0.184682 -0.0426271 45 120 123
0.0963146 -0.185535 -0.0435037 53 131 132
0.0961293 -0.18634 -0.0450704 56 128 132
0.0956835 -0.187173 -0.046297 54 119 124
0.0952365 -0.188008 -0.0475268 58 118 119
0.0945299 -0.188867 -0.0484082 61 102 106
0.0938233 -0.189725 -0.0492897 68 82 79
0.0933731 -0.190565 -0.0505251 75 74 64
0.100279 -0.178484 -0.0375698 71 75 71
0.0995778 -0.179336 -0.038445 58 105 102
0.0988761 -0.180189 -0.0393202 56 126 127
0.0981745 -0.181041 -0.0401956 42 109 118
0.0974728 -0.181893 -0.041071 45 107 114
0.096771 -0.182746 -0.0419464 47 112 121
0.0960692 -0.183598 -0.042822 52 127 131
0.0956251 -0.184424 -0.0440408 54 129 134
0.0951797 -0.185252 -0.0452628 54 121 128
0.0949911 -0.186058 -0.0468363 57 119 123
0.0945431 -0.186892 -0.0480669 61 116 114
0.0938365 -0.18775 -0.0489485 68 91 85
0.0931298 -0.188608 -0.04983 73 74 63
0.100029 -0.176559 -0.0368963 78 75 67
0.0993287 -0.17741 -0.0377705 66 83 87
0.0986279 -0.178261 -0.0386446 60 118 122
0.0976671 -0.179146 -0.0391823 47 117 125
0.0969672 -0.179996 -0.0400555 43 103 110
0.0962672 -0.180846 -0.0409287 44 110 116
0.0955672 -0.181697 -0.041802 50 120 125
0.0951235 -0.182518 -0.0430164 54 130 133
0.0946786 -0.183341 -0.044234 55 126 131
0.0944891 -0.18414 -0.0458008 56 119 124
0.0942986 -0.184943 -0.0473758 60 117 120
0.0938496 -0.185775 -0.0486072 66 97 101
0.0931429 -0.186633 -0.0494888 69 77 75
0.0924361 -0.187492 -0.0503705 72 69 63
0.0982987 -0.175602 -0.0361013 68 73 80
0.0976015 -0.176449 -0.036971 60 108 109
0.0969043 -0.177296 -0.0378407 55 126 127
0.0959506 -0.178177 -0.0383768 43 106 116
0.0949992 -0.179057 -0.0389116 46 109 114
0.0943036 -0.179902 -0.0397793 46 116 123
0.0941149 -0.180684 -0.0413204 55 129 132
0.0941801 -0.18144 -0.0432105 57 129 132
0.0937344 -0.182261 -0.0444269 55 120 127
0.0935427 -0.183056 -0.0459922 59 118 120
0.0930944 -0.183882 -0.047217 66 110 110
0.0929001 -0.184684 -0.0487958 73 86 83
0.0924492 -0.185516 -0.0500293 75 69 63
0.0977943 -0.173733 -0.0351049 68 70 71
0.0970989 -0.174577 -0.0359724 59 95 94
0.0964034 -0.175422 -0.0368399 59 123 126
0.0954528 -0.176304 -0.037376 45 112 121
0.0947581 -0.177147 -0.0382426 43 103 111
0.0940634 -0.177991 -0.0391092 45 111 118
0.0933686 -0.178835 -0.0399759 51 122 129
0.0929254 -0.179646 -0.0411787 56 130 137
0.092733 -0.180428 -0.0427237 56 124 131
0.0927926 -0.181183 -0.0446192 56 118 124
0.0928527 -0.181944 -0.0465297 61 117 119
0.0924034 -0.182769 -0.0477553 65 92 97
0.0916993 -0.183624 -0.0486336 70 70 71
0.0968552 -0.172674 -0.035307 68 77 81
0.0959052 -0.173558 -0.0358443 58 117 119
0.0952114 -0.1744 -0.0367097 51 124 128
0.0942645 -0.175281 -0.0372446 43 104 113
0.0935716 -0.176123 -0.0381091 44 109 115
0.0928785 -0.176964 -0.0389736 46 120 123
0.0924358 -0.177771 -0.0401721 54 131 135
0.0919919 -0.17858 -0.0413738 57 128 135
0.0917973 -0.179358 -0.0429173 56 120 126
0.0921053 -0.180076 -0.0451546 58 118 121
0.0919093 -0.180864 -0.04672 62 107 109
0.0914594 -0.181686 -0.0479444 66 82 81
0.0910082 -0.182511 -0.049172 71 71 63
0.0966121 -0.170775 -0.0346433 81 71 68
0.0956635 -0.17166 -0.0351807 64 100 95
0.0949706 -0.172501 -0.0360451 59 126 126
0.0940252 -0.173383 -0.0365802 43 111 121
0.0933331 -0.174224 -0.0374436 43 106 112
0.0926409 -0.175064 -0.038307 46 113 120
0.0919487 -0.175905 -0.0391706 53 126 131
0.0915052 -0.176709 -0.0403679 56 131 135
0.0910606 -0.177516 -0.0415684 56 124 129
0.0908638 -0.17829 -0.0431105 57 119 124
0.0909159 -0.179035 -0.0450029 61 117 117
0.0907173 -0.179819 -0.0465639 69 92 89
0.0905176 -0.180606 -0.0481331 71 72 66
0.0963696 -0.16888 -0.0339812 74 71 67
0.0956767 -0.169722 -0.0348456 68 83 83
0.0947304 -0.170607 -0.0353821 60 117 121
0.0940383 -0.171448 -0.0362455 49 121 127
0.0933461 -0.172288 -0.0371089 42 104 110
0.0926539 -0.173129 -0.0379724 43 111 116
0.0919617 -0.173969 -0.038836 47 120 125
0.0912694 -0.17481 -0.0396996 55 133 136
0.090577 -0.17565 -0.0405633 59 128 129
0.0901316 -0.176455 -0.0417625 58 121 121
0.0899326 -0.177225 -0.0433033 61 119 119
0.0897324 -0.178 -0.044852 63 103 106
0.0895313 -0.178779 -0.0464088 68 80 78
0.0888324 -0.179627 -0.0472805 69 69 63
0.0961277 -0.16699 -0.0333208 77 74 64
0.0954356 -0.167831 -0.0341841 72 78 75
0.0947435 -0.168671 -0.0350474 61 108 104
0.0940514 -0.169511 -0.0359108 59 127 130
0.0931083 -0.170396 -0.0364456 42 108 120
0.0924169 -0.171236 -0.037308 44 108 112
0.0919746 -0.172033 -0.0385014 46 116 121
0.0912822 -0.172874 -0.039365 52 128 133
0.0905899 -0.173714 -0.0402287 55 130 136
0.0901445 -0.174516 -0.0414276 56 122 125
0.0899455 -0.175282 -0.0429675 58 120 119
0.0897453 -0.176051 -0.0445154 63 115 115
0.0890483 -0.176898 -0.0453849 69 87 86
0.0883512 -0.177744 -0.0462544 72 72 63
0.0954488 -0.165895 -0.0338492 75 73 67
0.0947567 -0.166735 -0.0347126 63 91 89
0.0938127 -0.167623 -0.0352489 60 125 126
0.0931213 -0.168462 -0.0361113 47 118 125
0.0921806 -0.169347 -0.0366451 43 102 112
0.0914899 -0.170186 -0.0375066 44 112 119
0.091047 -0.170981 -0.0386988 48 124 128
0.0906027 -0.171778 -0.0398942 54 134 136
0.0899102 -0.172619 -0.0407579 55 129 132
0.0894639 -0.173419 -0.0419576 55 120 125
0.0892631 -0.174182 -0.043499 60 119 121
0.0888141 -0.174987 -0.0447068 65 101 105
0.088364 -0.175795 -0.0459179 70 78 76
0.0874216 -0.176678 -0.0464439 74 69 59
0.0952084 -0.164011 -0.0331898 76 67 64
0.0945171 -0.16485 -0.0340521 67 78 77
0.0935746 -0.165739 -0.0345885 57 113 113
0.092884 -0.166577 -0.0354499 53 128 131
0.0919447 -0.167464 -0.0359839 41 106 118
0.091255 -0.168301 -0.0368443 44 111 117
0.0908122 -0.169093 -0.0380342 45 120 124
0.0901215 -0.169931 -0.0388958 53 131 132
0.0896766 -0.170726 -0.04009 55 129 133
0.0892305 -0.171523 -0.0412873 54 123 127
0.0887833 -0.172322 -0.0424877 57 119 123
0.0885806 -0.173082 -0.0440305 61 112 114
0.0878853 -0.173926 -0.0448979 70 87 83
0.0874344 -0.174731 -0.0461077 72 73 66
0.0942781 -0.162969 -0.0333933 68 68 63
0.0935876 -0.163807 -0.0342546 59 96 90
0.0926474 -0.164697 -0.0347902 58 126 126
0.0919577 -0.165534 -0.0356505 45 115 123
0.0910206 -0.166421 -0.0361837 43 104 112
0.090578 -0.167209 -0.0373713 44 115 120
0.0898882 -0.168046 -0.0382318 48 125 131
0.0894436 -0.168838 -0.0394237 55 132 136
0.0889978 -0.169631 -0.0406186 55 126 129
0.0885507 -0.170427 -0.0418167 56 120 123
0.0881025 -0.171224 -0.0430179 62 119 119
0.0876531 -0.172024 -0.0442222 67 92 99
0.0872025 -0.172826 -0.0454296 74 70 70
0.0862639 -0.17371 -0.045955 73 65 62
0.0940398 -0.161093 -0.0327361 72 71 60
0.0931002 -0.161985 -0.0332728 65 77 77
0.0924113 -0.162821 -0.034132 60 115 118
0.0917225 -0.163657 -0.0349913 52 124 127
0.0907869 -0.164545 -0.0355248 38 106 112
0.0900988 -0.16538 -0.0363831 44 112 117
0.0896555 -0.166166 -0.0375695 46 119 125
0.0892111 -0.166954 -0.038759 55 132 136
0.0887655 -0.167744 -0.0399517 57 129 136
0.0885635 -0.16849 -0.0414821 55 120 128
0.0881153 -0.169285 -0.0426829 58 119 121
0.0874216 -0.170127 -0.0435481 63 108 109
0.0869713 -0.170925 -0.0447532 70 79 79
0.0862766 -0.171768 -0.0456197 74 67 62
0.0928639 -0.160115 -0.0326174 66 71 70
0.0921759 -0.16095 -0.0334756 59 104 97
0.0914879 -0.161785 -0.0343338 58 129 129
0.0905537 -0.162674 -0.0348674 42 113 120
0.0898664 -0.163508 -0.0357247 41 108 113
0.0891791 -0.164342 -0.036582 43 117 124
0.0887352 -0.165126 -0.0377673 51 127 134
0.0882901 -0.165912 -0.0389556 57 133 138
0.0880874 -0.16665 -0.0404797 56 125 130
0.0878835 -0.167393 -0.0420116 56 119 124
0.0874343 -0.168187 -0.0432131 61 117 117
0.0867406 -0.169029 -0.0440785 69 91 90
0.0860468 -0.169871 -0.0449439 74 72 66
0.0926282 -0.158249 -0.0319637 71 67 65
0.0919411 -0.159083 -0.0328208 61 80 85
0.0910075 -0.159975 -0.0333556 58 119 123
0.0903211 -0.160807 -0.0342117 49 121 126
0.0891474 -0.16175 -0.0344214 42 105 113
0.0884626 -0.162581 -0.0352754 44 114 121
0.0880195 -0.16336 -0.0364546 47 123 130
0.087817 -0.164088 -0.0379646 55 135 138
0.0876136 -0.16482 -0.0394823 56 129 132
0.0874091 -0.165557 -0.0410079 57 120 124
0.0872034 -0.166296 -0.0425412 57 117 120
0.0865105 -0.167137 -0.0434055 61 104 107
0.0858175 -0.167978 -0.0442698 69 82 78
0.0853655 -0.168773 -0.0454744 70 68 62
0.0917068 -0.157221 -0.0321676 72 76 73
0.0907747 -0.158114 -0.0327026 61 110 106
0.0896013 -0.159062 -0.0329157 57 129 130
0.0886753 -0.159948 -0.0334479 44 107 116
0.0879922 -0.160777 -0.0342999 45 110 114
0.0873092 -0.161606 -0.0351519 45 118 127
0.0871056 -0.162328 -0.0366529 53 131 135
0.0866607 -0.163106 -0.037834 54 133 137
0.086937 -0.163729 -0.0400091 55 125 126
0.0867307 -0.164462 -0.0415361 57 119 120
0.0865232 -0.1652 -0.0430709 60 116 114
0.0858302 -0.166041 -0.0439352 66 87 84
0.0851372 -0.166882 -0.0447997 69 73 66
0.0912271 -0.155426 -0.0311971 69 72 70
0.090298 -0.156319 -0.0317321 62 91 94
0.0893711 -0.157209 -0.0322657 59 123 128
0.0884465 -0.158097 -0.0327981 47 119 125
0.0875242 -0.158982 -0.0333291 46 102 111
0.0868427 -0.159809 -0.034179 46 115 123
0.0863996 -0.16058 -0.0353511 48 126 133
0.0859554 -0.161353 -0.0365261 53 135 140
0.0857483 -0.162074 -0.0380307 53 128 133
0.0862603 -0.162638 -0.040536 55 121 124
0.0860521 -0.163368 -0.0420644 57 118 119
0.0858429 -0.164103 -0.0436006 59 101 103
0.0851498 -0.164944 -0.0444651 66 78 71
0.0907499 -0.15364 -0.0302316 72 72 67
0.0900669 -0.154469 -0.0310835 68 73 83
0.0891415 -0.15536 -0.0316173 61 111 115
0.0882183 -0.156249 -0.0321498 53 124 129
0.0872974 -0.157136 -0.0326811 41 107 116
0.0866167 -0.157962 -0.03353 45 112 116
0.0859361 -0.158788 -0.0343789 47 120 128
0.0854923 -0.159557 -0.0355498 55 132 139
0.0850474 -0.160327 -0.0367237 55 130 137
0.0850759 -0.160989 -0.0385543 55 122 125
0.0855834 -0.161546 -0.041063 57 119 122
0.0853735 -0.162274 -0.0425929 60 113 113
0.084922 -0.163059 -0.0437924 63 86 79
0.0842297 -0.163899 -0.0446559 67 73 60
0.0898365 -0.152624 -0.0304365 72 73 71
0.0889124 -0.153516 -0.0309705 63 93 97
0.0879906 -0.154406 -0.0315032 60 124 128
0.0870712 -0.155294 -0.0320346 44 114 123
0.0863914 -0.156119 -0.0328825 41 107 114
0.0857115 -0.156944 -0.0337304 44 118 126
0.0850316 -0.157769 -0.0345784 51 127 135
0.0845872 -0.158535 -0.0357482 56 133 139
0.0843774 -0.159246 -0.0372453 56 125 132
0.0844033 -0.159904 -0.039078 55 118 123
0.0849065 -0.160454 -0.0415901 61 118 120
0.0844555 -0.161235 -0.0427854 63 97 99
0.0840033 -0.162018 -0.0439838 66 75 65
0.0835499 -0.162803 -0.0451852 68 67 57
0.0893645 -0.150851 -0.0294764 75 71 64
0.0884433 -0.151743 -0.0300103 67 79 83
0.0877636 -0.152568 -0.0308581 61 115 119
0.0868454 -0.153457 -0.0313897 52 124 130
0.0861665 -0.154281 -0.0322365 39 107 115
0.0854874 -0.155104 -0.0330835 43 116 120
0.0848083 -0.155928 -0.0339305 45 124 131
0.0843641 -0.156692 -0.035098 53 134 140
0.0839188 -0.157457 -0.0362685 56 129 135
0.0837073 -0.158165 -0.037767 55 122 127
0.0837305 -0.158819 -0.0396017 55 119 120
0.0839914 -0.15942 -0.0417835 59 110 111
0.0835397 -0.160198 -0.0429775 66 81 80
0.0830869 -0.160979 -0.0441747 70 69 60
0.0891358 -0.149017 -0.0288339 73 69 63
0.088216 -0.14991 -0.0293679 70 69 72
0.0875371 -0.150734 -0.0302146 61 104 104
0.0868581 -0.151557 -0.0310615 56 127 131
0.0861791 -0.152381 -0.0319083 43 111 122
0.0855 -0.153205 -0.0327553 43 108 115
0.0848209 -0.154028 -0.0336023 45 118 125
0.0841417 -0.154852 -0.0344493 49 130 135
0.0836966 -0.155614 -0.0356176 51 133 139
0.0832504 -0.156378 -0.0367889 55 124 129
0.0828029 -0.157144 -0.0379631 56 120 123
0.0830577 -0.157733 -0.0401256 60 118 116
0.0828425 -0.158447 -0.0416436 62 94 94
0.0826261 -0.159164 -0.0431693 67 71 69
0.0882287 -0.14801 -0.0290395 72 69 65
0.0875497 -0.148834 -0.0298863 62 83 88
0.0868708 -0.149657 -0.0307331 58 120 125
0.0861917 -0.150481 -0.0315801 47 121 128
0.0852765 -0.151372 -0.0321103 40 105 115
0.0845982 -0.152194 -0.0329562 44 116 121
0.0841542 -0.152952 -0.0341212 48 125 130
0.083475 -0.153776 -0.0349683 52 133 140
0.0827957 -0.1546 -0.0358155 52 128 134
0.0825818 -0.155299 -0.0373093 55 119 125
0.0821334 -0.156064 -0.0384843 58 120 122
0.0821506 -0.156709 -0.0403196 60 106 108
0.0816993 -0.157479 -0.0415044 64 78 76
0.0814805 -0.158192 -0.043026 70 66 62
0.0880019 -0.146184 -0.028399 69 65 58
0.0873238 -0.147006 -0.0292448 67 71 72
0.0868834 -0.147757 -0.0304048 60 109 111
0.0859674 -0.148651 -0.0309365 55 126 130
0.0852891 -0.149474 -0.0317824 40 109 118
0.0843761 -0.150365 -0.0323119 42 112 116
0.0836985 -0.151187 -0.0331569 43 122 126
0.0832539 -0.151942 -0.0343206 50 130 135
0.0828081 -0.152699 -0.0354874 52 132 137
0.0821287 -0.153523 -0.0363347 53 124 129
0.0819131 -0.15422 -0.0378299 55 119 123
0.0814638 -0.154983 -0.0390056 59 117 117
0.0812455 -0.155687 -0.0405133 63 92 88
0.0807936 -0.156455 -0.041697 68 70 63
0.0870984 -0.145183 -0.0286048 68 66 63
0.0861844 -0.146078 -0.0291374 63 90 89
0.08598 -0.146753 -0.0306086 59 123 127
0.0850662 -0.147647 -0.0311394 46 117 125
0.0843886 -0.148469 -0.0319844 40 106 114
0.083711 -0.149291 -0.0328294 43 118 123
0.0830334 -0.150112 -0.0336746 47 126 133
0.0823558 -0.150934 -0.0345197 52 132 137
0.0821412 -0.151623 -0.0360066 53 126 131
0.0814617 -0.152447 -0.036854 54 121 123
0.0812443 -0.153141 -0.0383506 58 119 119
0.0807941 -0.153903 -0.039527 60 100 105
0.080574 -0.154603 -0.0410361 65 79 73
0.0798901 -0.155433 -0.041889 67 66 58
0.0866368 -0.143441 -0.0276564 73 66 58
0.085961 -0.14426 -0.0284991 65 74 78
0.0852852 -0.14508 -0.0293419 59 113 115
0.0848438 -0.145825 -0.030498 54 127 130
0.084167 -0.146646 -0.0313419 42 108 117
0.0834903 -0.147467 -0.0321859 45 113 117
0.0828135 -0.148287 -0.03303 46 122 128
0.0821366 -0.149108 -0.0338742 52 131 137
0.0816904 -0.14986 -0.0350376 53 129 136
0.0814741 -0.150546 -0.0365258 54 122 127
0.0807946 -0.15137 -0.0373733 56 119 121
0.0805753 -0.152061 -0.0388713 62 115 113
0.0801242 -0.152822 -0.0400485 65 87 84
0.0796719 -0.153585 -0.0412288 67 70 64
0.0857381 -0.142447 -0.0278624 72 66 64
0.0850631 -0.143265 -0.0287042 61 101 97
0.0843881 -0.144084 -0.0295461 58 127 128
0.083713 -0.144902 -0.030388 45 115 123
0.08327 -0.145647 -0.031544 42 108 114
0.082594 -0.146467 -0.0323871 45 119 124
0.082149 -0.147214 -0.0335472 49 127 133
0.081472 -0.148035 -0.0343914 53 133 138
0.081025 -0.148786 -0.0355555 54 125 130
0.0808069 -0.149469 -0.0370452 54 121 123
0.0801273 -0.150293 -0.0378927 60 118 117
0.0799063 -0.150982 -0.0393921 64 98 99
0.0792249 -0.151808 -0.040242 67 75 70
0.0855158 -0.140638 -0.0272273 67 68 63
0.0848416 -0.141455 -0.0280681 63 77 80
0.0841674 -0.142272 -0.0289089 58 119 118
0.0834931 -0.14309 -0.0297498 50 126 128
0.0828188 -0.143907 -0.0305907 40 107 114
0.0823752 -0.14465 -0.0317457 43 116 120
0.0816999 -0.145469 -0.0325878 46 124 129
0.0812543 -0.146214 -0.0337468 50 132 136
0.0808074 -0.146962 -0.0349087 53 128 135
0.080589 -0.147639 -0.0363949 54 122 126
0.0801396 -0.148392 -0.0375646 54 120 121
0.079689 -0.149146 -0.0387373 59 111 110
0.0790084 -0.149971 -0.0395861 66 81 80
0.0785557 -0.150728 -0.040763 71 67 62
0.0845945 -0.139078 -0.0256756 65 63 58
0.0839236 -0.139892 -0.0265123 63 69 68
0.0832527 -0.140705 -0.027349 59 103 102
0.0825817 -0.141518 -0.0281857 56 127 128
0.0816819 -0.142409 -0.0287139 42 112 121
0.0810117 -0.143222 -0.0295497 42 110 115
0.0805685 -0.143959 -0.0306964 44 121 126
0.0808079 -0.144473 -0.0327881 49 129 133
0.0803616 -0.145217 -0.033946 50 133 136
0.0799141 -0.145962 -0.0351068 51 125 129
0.0799225 -0.146563 -0.0369137 54 121 123
0.0794722 -0.147314 -0.0380841 57 117 117
0.0787924 -0.148138 -0.0389319 59 93 94
0.07834 -0.148892 -0.0401065 65 71 68
0.0837048 -0.138096 -0.0258827 64 62 62
0.0828049 -0.13899 -0.0264129 60 84 83
0.0821356 -0.139802 -0.0272477 60 121 121
0.0812385 -0.140692 -0.0277757 49 120 125
0.0805699 -0.141503 -0.0286096 42 105 113
0.0801272 -0.142236 -0.0297522 44 116 121
0.0796833 -0.142971 -0.0308978 46 124 131
0.079918 -0.14348 -0.032988 49 132 137
0.079471 -0.144221 -0.0341448 50 128 133
0.07925 -0.14489 -0.0356237 51 121 126
0.0790279 -0.145561 -0.03711 55 120 121
0.0788046 -0.146237 -0.0386038 59 106 107
0.0781247 -0.147061 -0.0394516 62 76 76
0.0774448 -0.147885 -0.0402995 68 66 61
0.0832566 -0.13639 -0.0249513 63 63 53
0.082588 -0.1372 -0.025785 62 69 73
0.0816915 -0.138093 -0.0263141 58 109 109
0.0810238 -0.138903 -0.027147 55 127 129
0.0803559 -0.139712 -0.0279798 42 110 119
0.079688 -0.140522 -0.0288127 44 110 116
0.0792447 -0.141253 -0.0299543 46 120 126
0.0788002 -0.141986 -0.0310988 49 129 135
0.0785793 -0.142644 -0.0325592 49 130 136
0.0785826 -0.143228 -0.0343432 52 123 128
0.0785859 -0.143817 -0.0361406 53 117 124
0.078362 -0.144486 -0.0376283 58 117 117
0.07791 -0.145234 -0.0387984 62 92 90
0.077457 -0.145983 -0.0399714 64 69 66
0.0823717 -0.135415 -0.0251586 61 63 60
0.0817039 -0.136224 -0.0259913 57 94 91
0.0808096 -0.137117 -0.0265197 56 124 127
0.0801425 -0.137925 -0.0273516 46 117 125
0.0792511 -0.138815 -0.0278777 42 106 114
0.0788082 -0.139542 -0.0290154 45 117 123
0.0783643 -0.140272 -0.030156 48 124 131
0.0779192 -0.141003 -0.0312994 50 131 136
0.0776963 -0.141657 -0.0327585 51 126 131
0.0779209 -0.142159 -0.0348582 53 121 125
0.0779216 -0.142745 -0.0366577 57 117 121
0.0776959 -0.143411 -0.0381467 61 102 107
0.0770177 -0.144233 -0.0389926 68 78 73
0.0765639 -0.14498 -0.0401645 68 66 60
0.0821559 -0.133633 -0.0245337 62 64 58
0.0814889 -0.134441 -0.0253655 59 69 76
0.0805959 -0.135335 -0.025894 55 116 116
0.0799296 -0.136143 -0.0267248 49 126 130
0.0792633 -0.13695 -0.0275557 40 107 116
0.0785969 -0.137758 -0.0283867 45 112 117
0.0779305 -0.138566 -0.0292177 46 122 127
0.0774859 -0.139293 -0.0303572 51 131 135
0.0770402 -0.140021 -0.0314996 50 129 135
0.0770378 -0.140593 -0.033271 54 122 125
0.077259 -0.141091 -0.0353733 56 120 122
0.0772572 -0.141672 -0.0371748 59 114 115
0.0768049 -0.142414 -0.0383415 64 86 90
0.0763514 -0.143158 -0.0395112 70 68 65
0.0812744 -0.132663 -0.024741 60 68 65
0.0806081 -0.13347 -0.0255718 56 95 99
0.0799418 -0.134278 -0.0264027 54 127 128
0.0792755 -0.135085 -0.0272337 41 116 122
0.0786091 -0.135893 -0.0280647 41 107 114
0.0779426 -0.136701 -0.0288958 45 119 125
0.0772761 -0.137508 -0.0297269 50 128 132
0.0768307 -0.138234 -0.0308671 52 132 137
0.0763841 -0.138961 -0.0320101 51 126 130
0.0761575 -0.13961 -0.0334694 55 120 122
0.0761516 -0.140182 -0.0352527 59 117 118
0.0763688 -0.140679 -0.0373703 61 100 100
0.0759159 -0.141419 -0.0385359 67 74 73
0.0754618 -0.14216 -0.0397045 70 65 61
0.0812867 -0.130798 -0.0244189 62 63 60
0.0806204 -0.131605 -0.0252497 55 81 81
0.0799541 -0.132413 -0.0260806 55 121 120
0.0792877 -0.13322 -0.0269116 49 124 126
0.0783983 -0.134115 -0.0274379 39 107 113
0.0777326 -0.134921 -0.0282679 43 114 118
0.0772882 -0.135643 -0.0294049 44 123 130
0.0766217 -0.136451 -0.0302361 53 132 137
0.0759551 -0.137258 -0.0310674 52 127 134
0.0757279 -0.137901 -0.0325208 53 121 125
0.0752793 -0.13863 -0.0336675 56 120 120
0.0750495 -0.139278 -0.0351328 62 110 110
0.0752607 -0.139769 -0.0372446 66 80 80
0.075029 -0.140426 -0.0387298 67 66 62
0.081299 -0.128933 -0.0240967 64 61 53
0.0806327 -0.12974 -0.0249276 56 67 71
0.0799663 -0.130547 -0.0257585 53 102 104
0.0792999 -0.131355 -0.0265895 54 127 131
0.0784104 -0.132252 -0.0271162 42 111 119
0.0777447 -0.133058 -0.0279463 43 108 112
0.077079 -0.133865 -0.0287765 44 119 123
0.0764132 -0.134671 -0.0296067 46 128 133
0.0759671 -0.135393 -0.0307455 52 131 136
0.0753004 -0.136201 -0.0315768 55 123 127
0.0748523 -0.136925 -0.0327196 55 118 121
0.0746221 -0.137568 -0.034179 59 117 117
0.0741714 -0.138297 -0.0353292 63 96 93
0.0737195 -0.139027 -0.0364824 67 69 64
0.0804195 -0.127969 -0.0243044 61 62 62
0.0797539 -0.128775 -0.0251344 53 86 87
0.0790883 -0.129582 -0.0259644 53 122 126
0.0784226 -0.130388 -0.0267945 46 120 128
0.0775352 -0.131285 -0.0273203 41 105 114
0.0768702 -0.132091 -0.0281495 45 114 120
0.0762052 -0.132896 -0.0289787 44 122 129
0.0757594 -0.133615 -0.0301154 49 132 136
0.0750934 -0.134421 -0.0309458 52 127 131
0.0746456 -0.135143 -0.0320863 55 120 121
0.0741967 -0.135866 -0.0332298 57 119 119
0.0739647 -0.136506 -0.0346905 59 106 109
0.0732953 -0.137317 -0.0355252 62 78 73
0.0802068 -0.126202 -0.0236827 64 60 52
0.079542 -0.127007 -0.0245117 58 66 72
0.0788771 -0.127813 -0.0253408 55 111 108
0.0782122 -0.128618 -0.0261698 52 127 130
0.0775473 -0.129424 -0.026999 39 109 120
0.0766619 -0.130321 -0.027524 42 110 117
0.0759977 -0.131125 -0.0283523 44 119 127
0.0755521 -0.131841 -0.0294868 46 130 133
0.074887 -0.132646 -0.0303162 49 131 135
0.0744394 -0.133365 -0.0314547 53 123 126
0.0739907 -0.134084 -0.032596 56 119 120
0.0735409 -0.134806 -0.0337401 59 116 116
0.0730899 -0.13553 -0.0348871 60 88 94
0.0724213 -0.13634 -0.0357209 63 67 64
0.0793306 -0.125244 -0.0238905 63 65 63
0.0786665 -0.126048 -0.0247186 56 87 93
0.0780024 -0.126852 -0.0255467 56 124 128
0.0773382 -0.127657 -0.0263749 45 118 125
0.076674 -0.128462 -0.0272031 39 107 116
0.0757907 -0.129359 -0.0277274 43 118 123
0.0753454 -0.130071 -0.0288598 46 125 130
0.074681 -0.130876 -0.0296882 50 133 136
0.0742338 -0.131591 -0.0308245 52 124 131
0.0740027 -0.132218 -0.032274 54 119 123
0.0733357 -0.133026 -0.0331056 58 119 119
0.072885 -0.133747 -0.0342505 59 105 105
0.0722172 -0.134556 -0.0350833 65 75 70
0.0715493 -0.135365 -0.0359161 66 63 58
0.0788972 -0.123583 -0.0229729 61 64 59
0.0784564 -0.124287 -0.0240979 56 73 76
0.077793 -0.125091 -0.024925 56 117 114
0.0771297 -0.125894 -0.0257522 51 125 128
0.0764662 -0.126698 -0.0265795 41 105 117
0.0758028 -0.127501 -0.0274068 42 112 119
0.0751392 -0.128305 -0.0282342 45 120 127
0.0744756 -0.129109 -0.0290616 49 128 134
0.0740286 -0.129821 -0.0301958 50 129 135
0.0737973 -0.130443 -0.031642 54 121 126
0.0733477 -0.13116 -0.0327837 56 118 121
0.0726806 -0.131968 -0.0336154 61 116 115
0.0720136 -0.132776 -0.0344472 60 85 88
0.0715611 -0.133496 -0.0355939 63 64 60
0.0706793 -0.134392 -0.0361109 64 59 55
0.078245 -0.122032 -0.0217644 64 63 54
0.077805 -0.122731 -0.0228839 60 66 64
0.0773638 -0.123433 -0.0240061 52 96 99
0.076702 -0.124234 -0.0248313 54 127 129
0.0760402 -0.125036 -0.0256566 40 112 121
0.0753783 -0.125837 -0.0264819 41 105 115
0.0747163 -0.126639 -0.0273073 42 118 125
0.0742707 -0.127346 -0.0284366 47 124 131
0.0736078 -0.128149 -0.0292631 49 131 136
0.0731602 -0.128859 -0.0303962 50 124 128
0.073143 -0.129386 -0.0321511 54 120 123
0.0726925 -0.130101 -0.0332935 58 118 119
0.0720254 -0.130909 -0.0341253 60 101 103
0.0713582 -0.131717 -0.0349572 63 72 67
0.070691 -0.132525 -0.0357891 63 63 56
0.0769397 -0.121288 -0.0213849 65 62 52
0.0764997 -0.121984 -0.0224999 60 77 79
0.0760585 -0.122682 -0.0236176 55 121 123
0.075399 -0.123481 -0.0244399 47 123 129
0.0745235 -0.124377 -0.0249638 37 104 115
0.0738648 -0.125175 -0.0257852 42 114 119
0.0732059 -0.125973 -0.0266067 43 122 129
0.0731891 -0.126485 -0.0283349 49 130 137
0.0729568 -0.127097 -0.0297696 49 127 132
0.0722938 -0.127899 -0.0305962 51 120 123
0.0722734 -0.128422 -0.0323498 55 118 122
0.0718223 -0.129135 -0.0334911 60 114 114
0.07137 -0.12985 -0.0346352 61 82 80
0.0707028 -0.130658 -0.0354672 64 64 55
0.0765162 -0.119653 -0.0204821 65 60 56
0.0760767 -0.120345 -0.0215933 64 66 63
0.075636 -0.121039 -0.0227073 58 108 102
0.0749781 -0.121836 -0.0235277 55 127 130
0.0743201 -0.122633 -0.0243481 39 108 120
0.073448 -0.123528 -0.0248709 39 106 115
0.0727908 -0.124324 -0.0256904 43 118 126
0.0723459 -0.125023 -0.0268097 49 127 132
0.0718999 -0.125724 -0.0279317 50 130 136
0.0718782 -0.126236 -0.0296648 50 122 127
0.0716426 -0.126847 -0.0311029 52 119 122
0.0716197 -0.127366 -0.0328584 57 117 120
0.0709541 -0.128172 -0.0336883 58 92 101
0.0705013 -0.128884 -0.0348314 62 66 64
0.0760947 -0.118025 -0.0195836 60 63 51
0.0756558 -0.118714 -0.0206912 60 64 60
0.0752156 -0.119404 -0.0218014 57 79 84
0.0745592 -0.120199 -0.0226198 54 122 128
0.0739028 -0.120994 -0.0234383 45 120 127
0.0732464 -0.121789 -0.0242568 36 104 112
0.0725898 -0.122584 -0.0250754 42 115 120
0.0719333 -0.123379 -0.025894 44 122 128
0.0714878 -0.124076 -0.0270122 51 132 134
0.0710413 -0.124775 -0.0281332 51 125 131
0.0708047 -0.125379 -0.0295607 53 118 124
0.0709912 -0.125794 -0.0316097 54 118 120
0.0707527 -0.126405 -0.0330562 58 114 112
0.0703002 -0.127115 -0.0341971 62 78 74
0.0752369 -0.11709 -0.0197933 62 63 52
0.0747972 -0.117777 -0.0208998 58 67 70
0.0741424 -0.11857 -0.0217163 55 114 109
0.0734875 -0.119363 -0.0225328 53 126 129
0.0728326 -0.120156 -0.0233494 39 105 117
0.0721776 -0.120949 -0.024166 43 108 114
0.0715226 -0.121742 -0.0249827 43 117 123
0.0710777 -0.122435 -0.0260972 47 126 131
0.0706317 -0.123131 -0.0272144 49 129 133
0.0703948 -0.12373 -0.0286362 52 121 124
0.0699462 -0.124429 -0.0297607 55 117 121
0.0701282 -0.124838 -0.0318082 58 115 118
0.0696765 -0.125544 -0.0329435 58 86 95
0.0694347 -0.126155 -0.0343934 63 63 56
0.0752488 -0.115259 -0.0194771 67 58 43
0.0745948 -0.116051 -0.0202926 58 57 59
0.0739407 -0.116842 -0.0211081 53 87 90
0.0732866 -0.117634 -0.0219237 55 123 127
0.0726324 -0.118426 -0.0227393 42 115 124
0.0719782 -0.119218 -0.023555 38 103 113
0.0713239 -0.12001 -0.0243707 42 114 121
0.0708793 -0.120701 -0.0254831 45 123 125
0.0702241 -0.121494 -0.0263 51 132 132
0.0697776 -0.122188 -0.0274162 51 124 128
0.0695387 -0.122783 -0.0288368 55 120 121
0.0692987 -0.123382 -0.0302644 56 117 120
0.0692671 -0.123885 -0.0320064 56 108 110
0.0688149 -0.124589 -0.0331406 61 77 70
0.0683615 -0.125294 -0.0342777 67 61 50
0.0743928 -0.114328 -0.0196867 63 58 52
0.0737394 -0.115119 -0.0205013 60 68 76
0.0730861 -0.11591 -0.0213159 54 117 121
0.0724327 -0.116701 -0.0221306 48 125 129
0.0717792 -0.117492 -0.0229453 35 106 116
0.0711257 -0.118283 -0.0237601 40 114 116
0.0704721 -0.119074 -0.024575 41 117 125
0.0700269 -0.119763 -0.0256864 48 127 134
0.0695806 -0.120453 -0.0268005 49 127 132
0.0691332 -0.121145 -0.0279174 54 121 123
0.0686847 -0.121839 -0.0290371 55 118 120
0.0684428 -0.122435 -0.0304635 60 115 115
0.0679916 -0.123133 -0.0315904 66 82 87
0.0679552 -0.123636 -0.0333374 67 64 55
0.0672934 -0.124437 -0.0341626 66 57 50
0.0739784 -0.11272 -0.0187944 58 60 53
0.0733266 -0.113509 -0.0196071 60 65 63
0.0726748 -0.114298 -0.0204198 56 104 102
0.0720229 -0.115087 -0.0212325 52 133 139
0.0713709 -0.115876 -0.0220453 39 116 128
0.0707189 -0.116665 -0.0228583 37 107 117
0.0702751 -0.11735 -0.0239649 41 120 124
0.0698302 -0.118035 -0.0250743 43 125 130
0.0691765 -0.118827 -0.0258893 49 131 136
0.068937 -0.119412 -0.0273012 51 123 128
0.0684887 -0.120103 -0.0284188 54 118 123
0.0680394 -0.120796 -0.0295391 57 115 120
0.0675888 -0.12149 -0.0306622 59 99 106
0.0671371 -0.122186 -0.0317881 66 72 69
0.0666843 -0.122884 -0.0329167 66 61 51
0.0729157 -0.111907 -0.0187171 60 58 59
0.0722654 -0.112694 -0.0195279 56 79 86
0.071615 -0.113481 -0.0203388 58 131 138
0.0709646 -0.114268 -0.0211497 71 159 161
0.0705221 -0.114948 -0.0222516 49 123 136
0.0698708 -0.115736 -0.0230636 43 120 131
0.0692196 -0.116524 -0.0238756 43 122 130
0.0687743 -0.117208 -0.0249823 50 131 133
0.0685344 -0.117788 -0.0263887 50 127 133
0.0680867 -0.118475 -0.0275025 50 119 126
0.0676378 -0.119164 -0.0286191 54 118 122
0.0671879 -0.119855 -0.0297384 58 112 114
0.0667367 -0.120547 -0.0308605 60 80 83
0.0662845 -0.121242 -0.0319853 63 66 61
0.0720673 -0.110985 -0.0189266 58 61 67
0.0714177 -0.111771 -0.0197365 54 111 112
0.0705602 -0.112668 -0.0202582 57 145 157
0.0699112 -0.113453 -0.0210672 72 166 172
0.0692623 -0.114239 -0.0218764 72 157 160
0.0686133 -0.115024 -0.0226856 55 140 149
0.0681689 -0.115703 -0.0237869 49 131 139
0.0679283 -0.116277 -0.0251854 52 130 136
0.0676866 -0.116855 -0.0265907 52 122 129
0.0672383 -0.11754 -0.0277035 53 119 124
0.0667889 -0.118227 -0.028819 57 117 119
0.0663383 -0.118916 -0.0299373 58 92 101
0.0658867 -0.119607 -0.0310584 60 65 65
0.0652303 -0.120401 -0.0318768 62 63 56
0.0716608 -0.109394 -0.0180413 62 64 59
0.070598 -0.110404 -0.018279 54 81 83
0.0699514 -0.111186 -0.0190851 53 127 130
0.0690996 -0.112079 -0.0196052 61 151 161
0.0682499 -0.11297 -0.0201241 66 158 166
0.0676047 -0.113751 -0.0209286 69 158 164
0.0669594 -0.114532 -0.021733 59 145 152
0.0669201 -0.114993 -0.0234074 56 135 141
0.0668806 -0.115457 -0.0250937 54 128 135
0.0666368 -0.116031 -0.0264955 55 121 129
0.0663919 -0.116607 -0.0279041 55 120 124
0.0661456 -0.117187 -0.0293194 58 113 112
0.0654908 -0.117979 -0.0301359 58 78 76
0.0648358 -0.118772 -0.0309523 59 61 53
0.0710489 -0.107926 -0.0168774 64 59 52
0.0704031 -0.108707 -0.0176826 58 68 71
0.0697572 -0.109489 -0.0184878 51 103 105
0.0691113 -0.110271 -0.0192931 49 127 134
0.068058 -0.111275 -0.0195271 56 145 154
0.0672114 -0.112165 -0.020045 60 149 158
0.0665677 -0.112944 -0.0208476 61 148 157
0.0661245 -0.113614 -0.0219378 58 138 147
0.0656802 -0.114287 -0.0230306 57 132 138
0.0656362 -0.114747 -0.0247097 58 129 137
0.0655919 -0.11521 -0.0264008 58 124 131
0.06575 -0.115569 -0.0284033 59 120 121
0.0650967 -0.11636 -0.0292177 59 94 96
0.0646451 -0.117045 -0.030334 61 69 61
0.0708537 -0.106234 -0.0162834 64 58 50
0.0704147 -0.106898 -0.0173704 61 61 63
0.0697688 -0.10768 -0.0181757 55 87 88
0.0687141 -0.10869 -0.0184123 47 116 118
0.0680696 -0.10947 -0.0192158 44 125 131
0.0670213 -0.110474 -0.0194495 48 133 141
0.0663782 -0.111252 -0.0202512 53 138 145
0.0659353 -0.11192 -0.0213394 54 137 145
0.0652914 -0.112699 -0.0221421 54 132 139
0.0648465 -0.11337 -0.023234 54 130 136
0.0649998 -0.113717 -0.0252047 59 133 140
0.0649532 -0.114177 -0.0268977 60 129 133
0.0649062 -0.11464 -0.0286029 60 114 116
0.0644548 -0.115322 -0.0297171 62 76 77
0.0638013 -0.116112 -0.0305318 64 62 54
0.0700146 -0.105326 -0.016494 61 61 56
0.0693701 -0.106106 -0.0172974 58 71 75
0.0687257 -0.106885 -0.0181009 51 107 107
0.0678783 -0.10778 -0.0186205 44 119 123
0.0670328 -0.108673 -0.0191389 42 124 130
0.0663897 -0.109451 -0.0199406 45 127 133
0.0657466 -0.110229 -0.0207424 50 132 136
0.0651034 -0.111007 -0.0215442 50 130 136
0.0646589 -0.111675 -0.0226341 51 129 134
0.0642132 -0.112345 -0.0237266 50 130 136
0.0645633 -0.112577 -0.0259937 58 136 141
0.0643144 -0.113143 -0.0273946 62 130 130
0.0640642 -0.113712 -0.0288022 60 97 99
0.0636123 -0.114392 -0.0299154 63 65 60
0.0629595 -0.115182 -0.0307291 63 59 47
0.0693818 -0.104301 -0.016986 59 66 64
0.0687372 -0.10508 -0.0177894 54 91 93
0.0678898 -0.105977 -0.0183094 48 114 120
0.0670443 -0.106872 -0.0188282 44 121 126
0.0662008 -0.107765 -0.0193459 43 124 132
0.0655583 -0.108542 -0.0201467 48 128 134
0.0649159 -0.109319 -0.0209476 50 131 135
0.0646702 -0.109872 -0.0223232 49 128 136
0.0642245 -0.110539 -0.0234154 48 127 134
0.0637778 -0.111208 -0.0245102 47 125 133
0.063926 -0.111546 -0.0264894 57 132 135
0.0636754 -0.112109 -0.0278915 61 118 120
0.063224 -0.112786 -0.0290011 62 77 78
