ply
format ascii 1.0
element vertex 1197
property float x
property float y
property float z
property uchar diffuse_red
property uchar diffuse_green
property uchar diffuse_blue
end_header
-0.242963 0.00320651 0.0647745 253 76 50
-0.243187 0.00444722 0.0643674 255 76 50
-0.243412 0.00569405 0.0639585 255 74 49
-0.243638 0.00694706 0.063548 239 77 52
-0.243865 0.00820628 0.0631358 173 62 47
-0.250292 0.0113732 0.0525015 84 13 23
-0.250544 0.012704 0.0520449 39 25 23
-0.250456 0.0139309 0.0521505 45 27 30
-0.250197 0.0151022 0.0525373 46 35 32
-0.250109 0.0163295 0.052643 46 37 33
-0.25002 0.0175576 0.0527487 43 33 30
-0.249762 0.0187259 0.0531346 37 29 25
-0.249674 0.0199543 0.0532404 47 35 29
-0.249416 0.0211203 0.0536255 54 46 34
-0.249327 0.022349 0.0537313 58 42 32
-0.249239 0.0235786 0.0538372 57 36 32
-0.24915 0.0248089 0.0539431 52 42 35
-0.24839 0.0257667 0.0551579 50 42 36
-0.248135 0.0269239 0.0555389 48 43 34
-0.247549 0.0279387 0.056467 52 42 34
-0.246967 0.0289475 0.0573889 48 36 31
-0.246715 0.0300947 0.0577648 59 56 42
-0.246628 0.0313136 0.0578698 47 46 35
-0.246703 0.0326085 0.0577042 45 36 27
-0.246944 0.0339838 0.0572665 45 31 23
-0.24702 0.0352876 0.0570998 47 29 22
-0.246931 0.0365154 0.0572055 48 30 21
-0.247008 0.0378253 0.0570387 50 33 25
-0.247249 0.0392218 0.0565979 52 41 30
-0.24716 0.0404563 0.0567042 53 38 28
-0.247072 0.0416916 0.0568106 50 34 25
-0.246982 0.0429278 0.056917 48 36 24
-0.246728 0.0440763 0.0572968 48 34 23
-0.246639 0.0453127 0.0574032 49 33 24
-0.24655 0.0465501 0.0575098 53 37 27
-0.260322 0.0555875 0.0346486 53 39 27
-0.260225 0.0569434 0.0347653 59 38 27
-0.260127 0.0583003 0.0348822 71 46 33
-0.269642 0.0713465 0.0188708 99 60 52
-0.268657 0.0722364 0.0204567 111 67 59
-0.26682 0.0725644 0.0234571 116 70 60
-0.265864 0.0734364 0.0249955 117 70 61
-0.264918 0.0743005 0.0265183 120 70 60
-0.264398 0.0754354 0.0273348 119 67 59
-0.263466 0.0762849 0.0288345 121 62 59
-0.262748 0.0772674 0.0299797 128 71 63
-0.262443 0.0785269 0.0304398 142 74 67
-0.262342 0.0799279 0.0305605 155 82 74
-0.262241 0.0813299 0.0306812 165 84 81
-0.261936 0.0825857 0.0311402 171 93 86
-0.261633 0.0838393 0.0315981 178 102 95
-0.261329 0.0850908 0.032055 192 116 104
-0.25481 -0.0511711 0.0448147 154 150 134
-0.254724 -0.0499833 0.0449167 159 161 145
-0.254462 -0.0487789 0.045309 161 166 149
-0.254376 -0.0475908 0.045411 160 161 147
-0.25429 -0.046402 0.0455131 155 152 140
-0.253855 -0.0451889 0.0461931 136 135 127
-0.253594 -0.0439908 0.0465829 116 113 108
-0.253509 -0.0428036 0.0466848 95 85 81
-0.253249 -0.0416079 0.0470737 71 59 56
-0.253163 -0.0404204 0.0471757 63 57 54
-0.253077 -0.0392322 0.0472777 68 60 59
-0.252991 -0.0380431 0.0473798 85 63 67
-0.252905 -0.0368532 0.047482 88 93 87
-0.254216 -0.0356698 0.0452751 120 112 108
-0.258101 -0.0344573 0.0388082 131 131 124
-0.258204 -0.0307429 0.0385129 131 135 120
-0.257929 -0.0295097 0.0389263 103 103 97
-0.25747 -0.0282862 0.039644 80 74 69
-0.255921 -0.0271217 0.0421666 71 66 60
-0.252995 -0.0260584 0.0469709 72 60 57
-0.251187 -0.024966 0.0499245 82 62 54
-0.250423 -0.0238235 0.0511485 56 52 50
-0.250169 -0.0226497 0.0515293 36 32 24
-0.249414 -0.0215222 0.0527395 33 26 22
-0.248831 -0.020388 0.0536656 30 25 24
-0.248088 -0.0192776 0.0548572 32 25 22
-0.247514 -0.0181579 0.0557693 34 26 22
-0.246461 -0.0171031 0.0574757 40 30 21
-0.245105 -0.016102 0.0596834 45 39 31
-0.244395 -0.0150321 0.0608225 46 41 32
-0.244 -0.0139258 0.0614376 48 43 35
-0.243762 -0.0127997 0.0617936 53 38 30
-0.243525 -0.0116752 0.0621489 51 34 29
-0.24298 -0.0106044 0.0630136 50 29 27
-0.242439 -0.00953972 0.0638729 100 33 18
-0.242052 -0.00845292 0.0644754 147 45 22
-0.241667 -0.00736997 0.0650754 168 52 28
-0.241134 -0.00632109 0.065922 180 52 32
-0.240604 -0.00527805 0.0667632 186 51 34
-0.240226 -0.00420861 0.0673536 202 56 33
-0.239996 -0.00310953 0.0676964 226 70 43
-0.239619 -0.00204646 0.0682831 241 78 53
-0.23998 -0.000808777 0.0676455 243 73 50
-0.240194 0.000400292 0.0672508 240 70 48
-0.24161 0.00192635 0.0648574 240 67 47
-0.242135 0.00323975 0.0639452 240 65 46
-0.242204 0.00443845 0.0637905 241 66 45
-0.242426 0.00568403 0.0633806 242 67 44
-0.242804 0.00698081 0.0627125 234 74 49
-0.248664 0.00993337 0.052921 187 60 46
-0.249248 0.0113566 0.051907 90 12 21
-0.249498 0.0126859 0.0514492 34 20 21
-0.249409 0.0139116 0.0515545 42 26 28
-0.249321 0.0151381 0.0516598 47 32 28
-0.249063 0.0163076 0.0520465 53 32 27
-0.248806 0.0174754 0.0524324 48 22 25
-0.248382 0.0185812 0.0530967 35 21 15
-0.247793 0.0196216 0.0540353 40 30 23
-0.247705 0.0208427 0.0541401 50 41 35
-0.247285 0.0219372 0.0547971 54 38 35
-0.247197 0.0231572 0.0549018 54 40 34
-0.24678 0.0242458 0.0555558 54 44 32
-0.246201 0.0252635 0.0564792 54 39 32
-0.245787 0.026343 0.0571262 51 46 36
-0.2457 0.0275569 0.0572304 56 44 34
-0.244966 0.0284903 0.0584117 51 39 34
-0.244879 0.0297004 0.0585156 63 50 42
-0.244952 0.0309842 0.0583515 58 46 43
-0.245186 0.032346 0.0579178 52 35 28
-0.245422 0.0337148 0.0574823 43 31 23
-0.245821 0.0351684 0.0567729 42 29 21
-0.245896 0.0364731 0.0566056 45 29 21
-0.245971 0.0377815 0.0564381 48 32 25
-0.246045 0.0390937 0.0562702 49 38 29
-0.24612 0.0404097 0.056102 50 41 29
-0.246031 0.0416437 0.0562079 51 39 26
-0.245778 0.0427917 0.0565877 49 38 25
-0.245689 0.044026 0.0566937 49 35 24
-0.2456 0.0452612 0.0567997 49 32 23
-0.24551 0.0464973 0.0569059 50 35 25
-0.245258 0.0476419 0.0572847 51 37 25
-0.245006 0.0487848 0.0576627 53 37 25
-0.244917 0.0500207 0.0577688 61 40 28
-0.244827 0.0512573 0.057875 75 50 37
-0.267639 0.0722818 0.0194389 107 65 57
-0.265176 0.0721977 0.0235166 113 70 59
-0.264441 0.0732056 0.0246974 117 70 60
-0.263712 0.074207 0.0258693 120 70 58
-0.262577 0.0749244 0.0277225 120 66 58
-0.26227 0.0761898 0.0281868 121 61 58
-0.261558 0.0771715 0.0293326 126 67 61
-0.261456 0.0785717 0.0294528 139 70 64
-0.261355 0.0799728 0.0295731 151 78 71
-0.261254 0.0813749 0.0296935 161 86 80
-0.260749 0.0824839 0.030492 170 96 87
-0.260446 0.0837362 0.0309498 178 105 96
-0.260345 0.085136 0.03107 192 117 104
-0.253946 -0.0511405 0.0439489 157 151 135
-0.253685 -0.0499355 0.044342 163 160 143
-0.253599 -0.0487482 0.0444436 167 165 149
-0.253513 -0.04756 0.0445453 168 164 150
-0.253252 -0.046358 0.0449375 165 164 153
-0.252819 -0.0451463 0.0456177 159 161 150
-0.25256 -0.0439495 0.0460074 146 152 139
-0.251787 -0.0427281 0.0472546 114 112 106
-0.25153 -0.0415391 0.0476405 73 54 63
-0.251445 -0.0403582 0.0477416 58 53 47
-0.251359 -0.0391765 0.0478428 61 53 51
-0.251103 -0.0379905 0.0482277 76 58 61
-0.251017 -0.0368085 0.0483289 77 77 73
-0.251442 -0.0356283 0.0475778 107 96 91
-0.257948 -0.0344224 0.0366778 114 117 113
-0.25814 -0.0319347 0.0362687 135 130 121
-0.257864 -0.0306951 0.0366862 114 126 114
-0.257774 -0.0294511 0.0367927 81 78 72
-0.257128 -0.0282297 0.0378271 68 52 46
-0.255035 -0.0270886 0.0412789 72 68 57
-0.251952 -0.0260358 0.0463882 80 77 68
-0.250157 -0.0249448 0.0493446 77 64 60
-0.249566 -0.0237912 0.0502898 48 36 40
-0.249313 -0.0226173 0.0506712 33 30 25
-0.248561 -0.0214899 0.051885 32 27 23
-0.247981 -0.0203557 0.0528136 31 26 22
-0.247241 -0.0192454 0.0540088 31 26 23
-0.246669 -0.0181257 0.0549233 32 22 21
-0.245781 -0.0170516 0.0563679 33 27 20
-0.244273 -0.0160701 0.0588497 38 31 27
-0.243566 -0.0150002 0.0599921 43 38 29
-0.243019 -0.0139164 0.060867 42 40 36
-0.242782 -0.0127914 0.0612229 49 38 32
-0.242392 -0.0116929 0.0618345 51 33 28
-0.242004 -0.0105983 0.0624435 62 29 25
-0.241315 -0.00956161 0.0635563 110 39 20
-0.241082 -0.00844895 0.0639062 145 45 20
-0.240549 -0.00739619 0.0647571 163 47 22
-0.240021 -0.00634933 0.0656026 177 49 28
-0.239642 -0.00527718 0.0661957 187 56 38
-0.239266 -0.00420876 0.0667863 199 55 38
-0.238745 -0.0031773 0.0676194 216 63 41
-0.238663 -0.00204869 0.0677161 230 72 49
-0.238581 -0.000919302 0.0678127 233 67 47
-0.239378 0.000432848 0.0664342 233 66 46
-0.240786 0.00195936 0.0640318 234 66 47
-0.241155 0.0032322 0.0633703 234 65 46
-0.241223 0.00442973 0.0632149 233 66 45
-0.241595 0.00571758 0.062548 233 68 46
-0.241816 0.00696948 0.0621343 214 70 47
-0.249138 0.0103748 0.0497947 146 54 43
-0.249049 0.0116017 0.0498998 69 14 17
-0.248622 0.0127216 0.0505721 28 19 16
-0.248533 0.0139474 0.0506771 40 23 22
-0.248276 0.0151176 0.0510645 59 35 30
-0.24802 0.0162859 0.0514512 87 53 40
-0.247597 0.0173936 0.0521173 63 56 52
-0.247011 0.0184373 0.0530588 40 17 21
-0.246757 0.0195966 0.0534409 41 27 24
-0.246504 0.0207541 0.0538221 48 38 28
-0.246416 0.0219734 0.0539265 52 39 37
-0.246 0.0230639 0.0545823 55 41 37
-0.245423 0.0240848 0.0555086 57 40 35
-0.245011 0.0251662 0.0561573 53 40 37
-0.244441 0.0261761 0.0570734 52 40 35
-0.243399 0.0269756 0.0587847 53 41 34
-0.243311 0.0281783 0.0588877 53 45 34
-0.243224 0.029382 0.0589908 62 57 38
-0.243295 0.0306584 0.0588278 62 56 41
-0.243365 0.0319384 0.0586644 47 40 28
-0.243914 0.0334481 0.057696 39 31 23
-0.244306 0.0348945 0.0569902 39 28 21
-0.244539 0.0362723 0.056552 41 27 22
-0.244936 0.0377379 0.0558386 43 32 25
-0.245009 0.0390487 0.0556699 46 37 28
-0.245082 0.0403633 0.055501 49 42 31
-0.244993 0.041596 0.0556065 51 44 32
-0.244741 0.0427428 0.0559862 50 41 30
-0.244652 0.0439759 0.0560918 50 37 27
-0.244562 0.0452098 0.0561974 50 35 25
-0.244311 0.0463539 0.0565763 50 34 25
-0.244221 0.0475881 0.0566819 50 34 25
-0.244132 0.0488232 0.0567877 50 34 25
-0.244042 0.0500592 0.0568935 54 37 26
-0.243791 0.0511999 0.0572714 66 44 30
-0.243863 0.0525336 0.0571054 80 54 40
-0.243773 0.0537721 0.0572114 88 58 46
-0.263962 0.072106 0.0228678 109 67 57
-0.263025 0.0729761 0.0244007 117 71 60
-0.262303 0.0739759 0.0255704 119 70 59
-0.261383 0.0748309 0.0270764 120 67 58
-0.261078 0.076095 0.0275406 121 63 57
-0.260571 0.0772162 0.0283458 126 66 60
-0.26047 0.0786165 0.0284657 135 70 64
-0.260368 0.0800178 0.0285856 148 81 72
-0.260065 0.0812744 0.0290465 158 89 80
-0.259763 0.082529 0.0295063 168 98 87
-0.259462 0.0837813 0.029965 180 108 94
-0.259161 0.0850316 0.0304227 195 118 102
-0.253168 -0.0522972 0.0429817 139 123 112
-0.253082 -0.05111 0.043083 147 135 119
-0.252821 -0.0499049 0.0434767 154 146 128
-0.252735 -0.0487175 0.0435781 158 151 135
-0.252475 -0.0475149 0.043971 161 153 140
-0.252216 -0.0463142 0.044363 162 158 145
-0.251785 -0.0451039 0.0450435 162 161 149
-0.251015 -0.0438779 0.0462947 155 159 145
-0.250759 -0.0426884 0.0466813 128 126 117
-0.250504 -0.0415007 0.047067 89 79 79
-0.250249 -0.0403149 0.047452 63 60 62
-0.250164 -0.0391357 0.0475527 66 60 60
-0.249909 -0.0379523 0.0479368 85 85 76
-0.249823 -0.0367729 0.0480375 96 85 84
-0.249738 -0.0355927 0.0481383 98 92 83
-0.251514 -0.0271886 0.0448337 63 58 51
-0.249889 -0.026073 0.047529 66 65 61
-0.248962 -0.0249347 0.0490481 57 53 49
-0.248542 -0.0237713 0.0497118 36 27 28
-0.248124 -0.0226123 0.0503725 30 30 27
-0.247544 -0.0214725 0.0513079 30 28 24
-0.246804 -0.0203555 0.0525119 31 27 21
-0.246232 -0.0192304 0.0534331 31 26 21
-0.245664 -0.0181118 0.0543483 29 25 22
-0.2451 -0.0169999 0.0552576 31 26 21
-0.243753 -0.0159973 0.0574888 30 24 24
-0.243046 -0.0149254 0.0586392 35 24 22
-0.242653 -0.0138166 0.0592599 36 32 29
-0.241955 -0.0127594 0.0603954 42 33 28
-0.241567 -0.0116609 0.0610085 45 30 26
-0.241029 -0.0105922 0.0618745 84 31 24
-0.240495 -0.00952963 0.0627351 130 48 30
-0.240113 -0.00844498 0.0633382 151 51 32
-0.239732 -0.00736416 0.0639388 160 47 26
-0.239059 -0.00634741 0.0650358 173 46 25
-0.238683 -0.0052763 0.0656291 188 56 36
-0.238454 -0.00417667 0.0659732 200 58 38
-0.237935 -0.00314523 0.0668086 214 64 42
-0.237853 -0.00201651 0.066905 224 72 48
-0.237771 -0.000887021 0.0670014 230 69 47
-0.238563 0.000465422 0.0656174 233 68 46
-0.239961 0.00199237 0.063206 234 69 46
-0.240327 0.00326543 0.0625416 234 68 46
-0.240243 0.004421 0.0626403 232 68 46
-0.240461 0.00566407 0.0622282 225 71 47
-0.240679 0.00691326 0.0618144 188 66 44
-0.248598 0.0105132 0.0483438 106 44 33
-0.248508 0.0117429 0.0484488 46 22 19
-0.247746 0.0127573 0.0496949 28 18 15
-0.24749 0.0139281 0.0500831 37 24 20
-0.247068 0.0150408 0.0507527 54 40 35
-0.246647 0.0161493 0.0514193 86 67 55
-0.246065 0.0171953 0.0523617 66 78 74
-0.245976 0.0184136 0.0524657 39 26 34
-0.245724 0.0195717 0.0528477 37 36 34
-0.245472 0.020728 0.0532289 38 31 26
-0.24522 0.0218826 0.0536093 53 41 37
-0.245132 0.0231001 0.0537132 54 40 39
-0.244558 0.0241209 0.0546421 54 39 34
-0.243668 0.0250031 0.056108 55 42 33
-0.24263 0.0258096 0.0578253 54 41 30
-0.242386 0.0269437 0.0581948 54 39 32
-0.242142 0.0280762 0.0585635 55 42 34
-0.242055 0.0292772 0.058666 59 46 39
-0.242123 0.0305509 0.0585027 64 47 37
-0.242192 0.0318281 0.0583391 55 45 31
-0.242419 0.0331838 0.0579078 42 31 25
-0.242962 0.0347 0.0569358 39 29 26
-0.243351 0.0361515 0.0562273 38 28 26
-0.243582 0.037533 0.0557871 39 30 27
-0.243975 0.0390038 0.0550709 44 34 29
-0.244046 0.0403169 0.0549012 51 40 34
-0.243957 0.0415484 0.0550063 53 45 37
-0.243867 0.0427807 0.0551115 52 46 36
-0.243777 0.0440139 0.0552168 51 43 31
-0.243527 0.0451585 0.0555964 51 39 28
-0.243437 0.046392 0.0557017 50 36 27
-0.243347 0.0476264 0.055807 49 33 27
-0.243097 0.0487683 0.0561857 51 34 26
-0.243007 0.050003 0.0562911 52 36 25
-0.242917 0.0512385 0.0563966 55 39 26
-0.242827 0.0524749 0.0565022 67 48 34
-0.242897 0.053811 0.056335 84 58 45
-0.242807 0.0550505 0.0564408 88 57 44
-0.26296 0.0721508 0.0218649 105 61 53
-0.261412 0.0726117 0.0244554 114 69 60
-0.260293 0.0733367 0.0263121 116 68 60
-0.260191 0.0747377 0.0264317 119 67 60
-0.259687 0.0758615 0.0272393 119 65 58
-0.259585 0.0772609 0.0273588 124 68 61
-0.259283 0.0785192 0.0278207 133 72 64
-0.259181 0.0799188 0.0279402 144 82 74
-0.25888 0.0811742 0.0284009 156 93 82
-0.258778 0.082574 0.0285204 165 100 87
-0.258477 0.0838265 0.0289801 177 108 94
-0.25798 0.0849274 0.0297769 194 119 103
-0.252304 -0.0522668 0.0421159 127 114 108
-0.252218 -0.0510795 0.0422169 132 117 105
-0.251958 -0.0498743 0.0426114 136 122 107
-0.251699 -0.0486711 0.043005 141 125 114
-0.25144 -0.0474698 0.0433978 146 133 122
-0.251182 -0.0462705 0.0437898 151 140 127
-0.250583 -0.04505 0.0447594 154 147 133
-0.249989 -0.043837 0.0457226 153 147 134
-0.249734 -0.0426487 0.0461091 141 137 124
-0.24948 -0.0414624 0.0464948 115 116 108
-0.249227 -0.0402778 0.0468797 88 90 92
-0.249141 -0.0390999 0.0469799 91 75 76
-0.248887 -0.0379177 0.047364 168 107 98
-0.248801 -0.0367395 0.0474643 182 155 111
-0.248549 -0.0355597 0.0478475 124 97 100
-0.248629 -0.0343807 0.0476651 141 93 84
-0.250731 -0.0283608 0.0438584 60 52 44
-0.249114 -0.0272341 0.0465632 45 34 28
-0.248191 -0.02609 0.0480874 40 25 24
-0.247772 -0.0249247 0.0487528 38 25 27
-0.247521 -0.0237514 0.0491349 33 28 29
-0.246941 -0.0226073 0.050075 33 28 29
-0.246528 -0.0214551 0.0507318 35 27 28
-0.245955 -0.0203233 0.0516616 35 33 26
-0.245226 -0.0192154 0.0528587 29 31 19
-0.244821 -0.0180796 0.0535031 26 29 20
-0.244417 -0.0169481 0.0541447 30 28 21
-0.243543 -0.0158829 0.0555883 28 25 27
-0.242679 -0.0148285 0.0570163 31 23 21
-0.241977 -0.0137619 0.0581673 31 26 23
-0.241281 -0.0127037 0.0593085 35 26 24
-0.240742 -0.0116289 0.0601824 39 25 24
-0.240057 -0.0105862 0.0613066 88 28 22
-0.239526 -0.00952459 0.0621678 137 49 31
-0.239146 -0.00844102 0.0627712 160 57 39
-0.238768 -0.00736124 0.0633721 168 55 37
-0.238245 -0.00631543 0.0642206 177 51 30
-0.23787 -0.00524426 0.0648154 192 57 35
-0.237642 -0.00414459 0.06516 207 62 39
-0.237415 -0.00304644 0.065504 218 68 43
-0.237043 -0.00198434 0.0660938 225 71 48
-0.237539 -0.000711563 0.0652012 230 69 48
-0.238039 0.000572759 0.0643011 232 67 47
-0.238988 0.0019861 0.0626343 233 70 46
-0.239052 0.00317659 0.0624782 232 70 46
-0.239415 0.00445432 0.0618112 230 69 48
-0.239331 0.00561079 0.0619097 212 71 51
-0.239546 0.0068573 0.0614958 152 63 47
-0.24687 0.012793 0.0488176 28 15 16
-0.246283 0.0138539 0.0497736 33 22 19
-0.245536 0.0148526 0.0510039 43 37 33
-0.245284 0.0160136 0.0513874 74 52 54
-0.245032 0.0171729 0.0517702 86 86 81
-0.244781 0.0183303 0.0521521 68 53 51
-0.24453 0.0194861 0.0525333 40 28 24
-0.244441 0.020702 0.0526368 28 21 19
-0.244191 0.0218554 0.0530172 41 31 27
-0.243781 0.0229428 0.0536722 48 40 36
-0.243692 0.0241571 0.0537756 54 38 33
-0.242807 0.0250392 0.0552459 55 41 34
-0.241775 0.0258455 0.0569686 54 40 31
-0.241375 0.0269119 0.0576059 56 41 31
-0.241132 0.0280433 0.0579746 54 40 35
-0.24089 0.029173 0.0583425 54 47 39
-0.240957 0.0304438 0.058179 55 50 38
-0.241024 0.0317182 0.0580151 60 51 33
-0.241092 0.0329963 0.0578509 45 37 27
-0.241471 0.0344303 0.0571505 39 31 25
-0.242168 0.0360313 0.0559038 37 31 26
-0.242713 0.0375703 0.0549174 40 30 26
-0.242942 0.0389589 0.0544731 45 32 27
-0.243013 0.0402707 0.0543026 52 39 33
-0.242923 0.0415009 0.0544073 56 46 38
-0.242833 0.042732 0.0545121 57 51 40
-0.242743 0.0439639 0.054617 57 49 38
-0.242653 0.0451966 0.0547219 56 44 34
-0.242404 0.0463396 0.0551014 53 41 31
-0.242313 0.0475727 0.0552064 50 37 27
-0.242065 0.0487134 0.055585 51 35 25
-0.241974 0.0499469 0.05569 51 36 25
-0.241884 0.0511811 0.0557951 48 37 26
-0.241794 0.0524163 0.0559002 53 40 30
-0.241862 0.0537509 0.0557323 74 50 39
-0.241931 0.0550894 0.055564 89 59 47
-0.259407 0.071981 0.0252043 106 63 56
-0.259105 0.0732453 0.0256695 110 64 58
-0.258803 0.0745074 0.0261335 113 65 60
-0.258701 0.075906 0.0262525 114 67 58
-0.2584 0.0771652 0.0267154 119 66 60
-0.258297 0.078564 0.0268345 130 74 64
-0.257997 0.0798202 0.0272962 141 82 73
-0.257895 0.0812192 0.0274153 151 90 80
-0.257793 0.0826191 0.0275345 161 94 81
-0.257493 0.0838716 0.027995 174 104 86
-0.256998 0.0849725 0.0287939 189 115 97
-0.251613 -0.0522561 0.0409548 117 120 115
-0.251353 -0.0510489 0.0413508 120 109 101
-0.251266 -0.0498607 0.0414516 124 110 98
-0.250836 -0.0486404 0.0421402 128 110 101
-0.250578 -0.0474391 0.0425337 131 114 103
-0.25015 -0.0462268 0.0432177 134 119 105
-0.249387 -0.0449964 0.0444764 139 125 111
-0.248965 -0.0437962 0.0451516 143 132 117
-0.248711 -0.0426092 0.045538 142 136 121
-0.248458 -0.0414241 0.0459236 133 130 121
-0.248206 -0.0402408 0.0463085 120 115 111
-0.24812 -0.0390641 0.0464083 137 121 106
-0.248033 -0.0378866 0.0465083 207 161 145
-0.247782 -0.0367063 0.0468922 229 201 164
-0.247695 -0.0355285 0.0469922 147 103 125
-0.247609 -0.0343499 0.0470922 120 84 80
-0.247523 -0.0331705 0.0471923 102 86 73
-0.247436 -0.0319903 0.0472925 105 89 72
-0.24735 -0.0308094 0.0473928 132 115 82
-0.247263 -0.0296276 0.0474931 108 91 72
-0.247341 -0.0284379 0.0473103 69 57 52
-0.247255 -0.0272532 0.0474109 42 40 39
-0.247003 -0.0260775 0.0477944 47 35 34
-0.246916 -0.0248925 0.047895 65 42 41
-0.246338 -0.023744 0.04884 57 44 48
-0.245926 -0.0225887 0.0494999 53 31 39
-0.245515 -0.0214377 0.050157 72 38 42
-0.244786 -0.0203232 0.0513629 56 62 49
-0.244221 -0.0192004 0.0522853 29 28 23
-0.243977 -0.0180474 0.0526577 27 27 21
-0.243733 -0.0168961 0.0530293 32 27 23
-0.242861 -0.01583 0.0544803 31 27 24
-0.242464 -0.014709 0.0551154 30 25 21
-0.24176 -0.0136382 0.0562794 29 27 22
-0.24091 -0.0125999 0.0576959 34 26 23
-0.240219 -0.011547 0.0588376 36 25 21
-0.239235 -0.0105542 0.0604837 69 21 17
-0.238707 -0.00949264 0.0613472 116 36 20
-0.238181 -0.00843707 0.0622053 151 52 30
-0.237805 -0.00735835 0.0628065 171 60 40
-0.237431 -0.00628342 0.0634052 185 59 40
-0.237057 -0.00521223 0.0640014 201 61 40
-0.236974 -0.00408012 0.0640975 215 66 44
-0.236892 -0.00294723 0.0641937 223 70 47
-0.236808 -0.00181357 0.0642899 227 71 47
-0.237015 -0.000607029 0.063887 229 69 48
-0.237513 0.00068055 0.0629792 230 68 47
-0.238164 0.0020191 0.0618092 230 70 47
-0.23808 0.00316917 0.0619068 231 70 47
-0.238143 0.0043618 0.0617497 229 70 49
-0.238206 0.00555775 0.0615923 197 70 53
-0.238418 0.00680157 0.0611784 119 61 51
-0.245499 0.0126677 0.0487951 29 16 16
-0.244755 0.013671 0.0500294 30 20 18
-0.244342 0.014777 0.050694 41 32 29
-0.244091 0.0159356 0.0510767 62 38 45
-0.243841 0.0170924 0.0514586 114 91 77
-0.243752 0.0183068 0.0515617 82 66 61
-0.243502 0.0194613 0.0519428 40 24 24
-0.243413 0.020676 0.0520459 21 18 17
-0.243004 0.0217652 0.0527028 26 22 21
-0.242597 0.0228505 0.0533568 42 36 30
-0.241877 0.0238018 0.0545538 54 39 37
-0.241475 0.024877 0.0551995 53 43 36
-0.240764 0.0258148 0.0563807 52 40 31
-0.240212 0.0268126 0.0572852 54 40 34
-0.239818 0.0278732 0.0579188 52 39 36
-0.239425 0.0289299 0.0585498 52 43 36
-0.239796 0.0303372 0.0578565 56 49 38
-0.239708 0.0315362 0.0579583 59 46 32
-0.240081 0.0329584 0.0572609 54 41 29
-0.240147 0.0342387 0.0570957 44 30 23
-0.240678 0.0357555 0.0561228 40 32 28
-0.241528 0.0374468 0.0545957 41 32 26
-0.241912 0.0389142 0.0538765 45 32 25
-0.24214 0.0403084 0.0534292 51 37 28
-0.24205 0.0415387 0.0535336 57 47 34
-0.24196 0.0427698 0.0536381 63 55 43
-0.24187 0.0440019 0.0537427 64 56 49
-0.241621 0.0451454 0.0541229 62 52 45
-0.241215 0.046197 0.0547765 58 47 38
-0.240967 0.047336 0.0551545 53 42 30
-0.240877 0.048566 0.0552589 51 38 26
-0.240787 0.0497968 0.0553633 51 35 25
-0.240697 0.0510284 0.0554679 49 34 26
-0.240763 0.0523578 0.0552994 49 34 28
-0.24083 0.053691 0.0551307 62 39 33
-0.240897 0.055028 0.0549617 86 55 43
-0.240964 0.0563689 0.0547924 91 56 46
-0.25822 0.0718912 0.0245632 98 57 50
-0.257721 0.073019 0.0253736 103 59 55
-0.257619 0.0744149 0.0254921 109 64 56
-0.257516 0.0758119 0.0256107 113 68 59
-0.257414 0.0772098 0.0257294 119 65 59
-0.257312 0.0786087 0.0258481 128 70 63
-0.257012 0.079865 0.0263107 138 78 70
-0.256909 0.0812641 0.0264295 147 86 75
-0.256807 0.0826642 0.0265483 157 89 77
-0.256508 0.0839167 0.0270097 169 95 81
-0.256015 0.0850177 0.0278107 184 104 90
-0.255718 0.0862646 0.0282691 198 112 97
-0.250748 -0.0522256 0.0400878 124 133 120
-0.250661 -0.0510367 0.0401884 116 117 105
-0.250402 -0.0498301 0.040585 116 107 97
-0.249973 -0.0486098 0.0412753 120 108 97
-0.249716 -0.0474083 0.0416695 123 108 95
-0.24929 -0.046196 0.0423551 123 108 93
-0.24853 -0.0449657 0.0436175 121 107 94
-0.247943 -0.0437555 0.0445818 123 108 95
-0.247857 -0.0425784 0.0446814 128 114 100
-0.247439 -0.0413859 0.0453537 129 116 106
-0.247352 -0.0402099 0.0454532 129 117 106
-0.247266 -0.0390331 0.0455528 146 136 117
-0.247179 -0.0378555 0.0456525 177 160 146
-0.246928 -0.036675 0.0460371 204 162 151
-0.246842 -0.0354972 0.0461368 148 119 124
-0.246755 -0.0343185 0.0462365 114 97 90
-0.246668 -0.033139 0.0463363 97 85 75
-0.246581 -0.0319587 0.0464362 104 93 78
-0.246495 -0.0307777 0.0465362 130 127 98
-0.246408 -0.0295958 0.0466362 104 93 86
-0.246321 -0.0284132 0.0467363 73 63 57
-0.246234 -0.0272297 0.0468365 63 55 43
-0.246147 -0.0260454 0.0469367 68 60 49
-0.245734 -0.0248827 0.0476027 73 68 59
-0.245322 -0.0237242 0.0482657 69 66 60
-0.244751 -0.0225838 0.0492051 66 61 57
-0.244025 -0.0214649 0.0504149 69 60 57
-0.243621 -0.020323 0.0510654 60 60 54
-0.243219 -0.0191855 0.0517131 36 26 31
-0.242975 -0.0180336 0.0520854 30 24 21
-0.242889 -0.0168638 0.0521844 32 24 19
-0.242333 -0.0157561 0.053099 30 29 22
-0.241936 -0.0146328 0.0537383 31 29 20
-0.241696 -0.0134903 0.0541062 32 29 20
-0.240688 -0.0124713 0.0558075 35 27 20
-0.239693 -0.0114647 0.0574869 35 28 21
-0.238859 -0.0104441 0.0588862 44 25 20
-0.237887 -0.00946069 0.0605265 82 25 19
-0.237364 -0.0084051 0.0613869 118 38 23
-0.23699 -0.00732637 0.0619895 151 51 32
-0.236761 -0.00622119 0.0623379 180 58 40
-0.236533 -0.00511757 0.0626857 202 64 42
-0.236161 -0.00404798 0.0632832 215 67 46
-0.236078 -0.00291501 0.0633791 222 70 48
-0.236283 -0.00171147 0.0629739 227 73 48
-0.236488 -0.000502048 0.0625671 229 72 48
-0.236839 0.000750993 0.0619053 229 71 48
-0.23734 0.00205209 0.060984 231 71 48
-0.237255 0.00320226 0.0610814 232 72 49
-0.237171 0.00435321 0.0611788 224 72 49
-0.237086 0.00550495 0.0612762 180 67 51
-0.237295 0.00674609 0.0608623 99 54 48
-0.243975 0.01249 0.0490554 28 19 18
-0.243402 0.0135437 0.0500026 27 18 16
-0.243152 0.0147017 0.0503853 41 30 23
-0.243063 0.0159145 0.0504879 57 44 38
-0.242974 0.0171281 0.0505906 121 89 70
-0.242725 0.0182833 0.0509725 82 83 80
-0.242476 0.0194367 0.0513536 38 22 23
-0.242228 0.0205883 0.0517339 22 19 16
-0.241823 0.0216755 0.0523896 21 16 17
-0.241105 0.0226312 0.0535906 35 28 21
-0.240705 0.0237083 0.0542381 48 40 34
-0.240461 0.0248472 0.0546117 54 46 34
-0.239755 0.0257842 0.0557939 52 42 30
-0.239055 0.0267138 0.0569658 53 39 34
-0.238512 0.0277042 0.0578633 52 39 38
-0.237673 0.0285514 0.0592794 51 39 35
-0.237586 0.029738 0.0593798 56 44 35
-0.237648 0.0309967 0.0592186 53 41 33
-0.23756 0.0321862 0.0593193 56 45 35
-0.237622 0.0334505 0.059158 43 32 26
-0.23859 0.0351747 0.0574095 40 31 28
-0.239419 0.0368473 0.0559039 40 34 28
-0.240571 0.0387059 0.053831 43 35 28
-0.240795 0.0400951 0.0533848 49 38 29
-0.241177 0.0415765 0.0526598 58 46 33
-0.241086 0.0428077 0.052764 66 57 45
-0.240681 0.0438641 0.053421 69 63 57
-0.240434 0.0450054 0.0538004 68 61 58
-0.240187 0.046145 0.054179 64 55 49
-0.239785 0.0471918 0.0548301 58 46 38
-0.239695 0.0484192 0.054934 54 40 30
-0.23976 0.0497411 0.0547649 52 36 28
-0.239669 0.0509715 0.0548691 51 34 26
-0.239734 0.0522994 0.0546999 48 34 27
-0.2398 0.0536312 0.0545304 52 38 27
-0.239865 0.0549668 0.0543606 72 47 36
-0.240087 0.056408 0.053915 91 58 49
-0.239996 0.0576495 0.0540201 88 49 37
-0.256839 0.0716681 0.0242703 89 53 38
-0.25654 0.0729284 0.0247342 96 56 48
-0.256438 0.0743227 0.0248522 104 62 53
-0.256531 0.0758564 0.0246248 107 63 57
-0.256428 0.0772545 0.0247432 113 64 55
-0.256326 0.0786535 0.0248615 122 68 59
-0.256027 0.0799098 0.0253251 129 71 62
-0.255924 0.0813091 0.0254435 138 79 69
-0.255821 0.0827093 0.025562 148 85 76
-0.255523 0.0839619 0.0260243 161 89 81
-0.255032 0.0850628 0.0268275 177 95 86
-0.254736 0.0863098 0.0272867 192 106 95
-0.249624 -0.0509878 0.039618 127 130 120
-0.249537 -0.0497994 0.0397183 115 116 109
-0.24911 -0.0485791 0.0404103 115 105 99
-0.248684 -0.0473635 0.0410992 116 108 94
-0.248429 -0.0461653 0.0414925 116 106 94
-0.247673 -0.0449349 0.0427584 99 103 96
-0.247088 -0.0437247 0.0437253 95 91 89
-0.247002 -0.0425476 0.0438246 106 94 85
-0.246586 -0.0413551 0.0444985 111 99 84
-0.246499 -0.0401789 0.0445978 110 98 87
-0.246412 -0.039002 0.0446971 116 101 94
-0.246325 -0.0378243 0.0447965 126 103 98
-0.246075 -0.0366438 0.0451818 138 96 94
-0.245988 -0.0354659 0.0452812 129 107 103
-0.245901 -0.0342871 0.0453807 120 112 105
-0.245814 -0.0331075 0.0454802 94 88 76
-0.245727 -0.0319271 0.0455798 110 105 89
-0.24564 -0.030746 0.0456795 127 123 111
-0.245552 -0.029564 0.0457792 103 92 88
-0.245465 -0.0283813 0.0458791 74 61 59
-0.245378 -0.0271977 0.0459789 68 56 52
-0.244966 -0.0260331 0.0466467 71 66 61
-0.244556 -0.0248728 0.0473115 71 70 65
-0.244148 -0.0237169 0.0479734 69 67 62
-0.243423 -0.0225924 0.0491897 69 66 61
-0.24302 -0.0214476 0.0498433 70 65 59
-0.242618 -0.0203069 0.050494 62 61 53
-0.242218 -0.0191706 0.051142 47 45 39
-0.242132 -0.0180014 0.0512407 37 31 25
-0.242046 -0.0168315 0.0513394 32 25 23
-0.241959 -0.0156608 0.0514382 31 26 20
-0.241406 -0.0145561 0.052355 31 26 17
-0.241011 -0.0134346 0.0529957 31 26 22
-0.240771 -0.0122925 0.0533643 36 27 22
-0.239769 -0.0112804 0.0550702 36 27 22
-0.238779 -0.0102806 0.0567541 39 26 23
-0.237655 -0.00932013 0.0586755 53 23 22
-0.236984 -0.00828869 0.0598018 78 26 23
-0.236463 -0.00723596 0.0606643 114 36 24
-0.23609 -0.00615883 0.0612683 153 47 28
-0.235862 -0.00505403 0.0616173 185 54 31
-0.235778 -0.00391813 0.0617131 204 62 40
-0.235695 -0.00278146 0.061809 214 68 47
-0.235754 -0.00160891 0.0616523 223 73 48
-0.235959 -0.000396621 0.0612415 227 76 51
-0.236309 0.000859508 0.0605738 227 76 53
-0.236516 0.00208508 0.0601587 229 75 52
-0.236431 0.00323535 0.0602557 225 74 51
-0.236346 0.0043864 0.0603529 204 70 49
-0.236261 0.00553824 0.0604501 150 58 44
-0.236322 0.00673516 0.060291 85 43 37
-0.242624 0.0123666 0.049032 27 21 18
-0.242216 0.0134712 0.0496959 23 17 14
-0.241968 0.0146267 0.0500779 36 26 19
-0.241879 0.0158369 0.05018 58 49 35
-0.241789 0.0170479 0.0502822 99 74 68
-0.241542 0.0182007 0.0506632 91 95 95
-0.241138 0.0192916 0.051321 51 15 22
-0.240892 0.0204397 0.0516997 24 20 15
-0.240179 0.0213991 0.052902 21 13 14
-0.239935 0.0225402 0.0532771 28 22 16
-0.239692 0.0236796 0.0536515 42 36 26
-0.238989 0.0246211 0.0548375 52 46 32
-0.238748 0.0257536 0.0552082 53 43 32
-0.237751 0.0265485 0.0569135 54 41 33
-0.236916 0.0274013 0.0583344 50 42 37
-0.236532 0.0284501 0.0589584 50 41 36
-0.23615 0.0294952 0.0595798 51 42 33
-0.236063 0.0306776 0.0596796 53 42 36
-0.236123 0.0319328 0.0595192 57 45 37
-0.236183 0.0331915 0.0593585 46 37 33
-0.236391 0.0345287 0.0589359 41 30 28
-0.237648 0.0364138 0.0566563 41 36 29
-0.239084 0.038418 0.0540588 43 38 30
-0.239613 0.0399661 0.0530657 47 39 31
-0.239678 0.0412744 0.0528935 56 44 35
-0.239588 0.0425003 0.052997 65 56 47
-0.239497 0.043727 0.0531005 75 68 62
-0.238942 0.0446894 0.0540274 78 72 68
-0.238238 0.0455575 0.0552195 74 67 63
-0.237843 0.0465977 0.055863 65 56 50
-0.237753 0.0478157 0.0559658 58 45 37
-0.237663 0.0490345 0.0560687 53 38 31
-0.237573 0.0502541 0.0561716 50 36 30
-0.238093 0.0518562 0.0551929 48 34 29
-0.238617 0.0534734 0.0542055 46 37 28
-0.23868 0.054806 0.0540355 56 40 33
-0.238899 0.0562437 0.0535899 87 54 42
-0.239118 0.0576887 0.0531423 89 56 43
-0.255762 0.0701865 0.023515 81 43 30
-0.255659 0.071579 0.0236325 84 46 28
-0.255557 0.0729726 0.0237501 90 54 39
-0.255454 0.0743671 0.0238678 98 57 45
-0.255351 0.0757625 0.0239855 101 60 53
-0.255638 0.0774397 0.0234093 105 60 51
-0.255535 0.0788406 0.0235276 111 57 53
-0.255236 0.0800984 0.023993 117 59 56
-0.255133 0.0814995 0.0241113 126 68 62
-0.254835 0.0827543 0.0245756 139 76 69
-0.254538 0.084007 0.0250388 155 87 78
-0.254049 0.085108 0.025844 176 97 86
-0.253754 0.086355 0.0263041 195 106 95
-0.248334 -0.049735 0.0394453 127 130 122
-0.248246 -0.0485484 0.0395451 118 117 112
-0.247823 -0.0473327 0.0402357 112 104 98
-0.247568 -0.0461345 0.0406297 114 108 98
-0.246815 -0.0449042 0.0418992 115 112 105
-0.246398 -0.0437039 0.0425793 98 103 104
-0.246147 -0.0425167 0.0429678 94 89 84
-0.245896 -0.0413314 0.0433554 92 79 72
-0.245645 -0.040148 0.0437423 89 77 72
-0.245721 -0.0389756 0.0435536 88 78 74
-0.245634 -0.0377965 0.0436529 84 74 70
-0.245384 -0.0366146 0.0440396 86 63 62
-0.245296 -0.0354352 0.0441388 109 80 83
-0.245046 -0.0342557 0.0445247 135 118 108
-0.244959 -0.033076 0.044624 117 113 93
-0.244872 -0.0318956 0.0447233 123 108 98
-0.244784 -0.0307143 0.0448227 122 107 97
-0.244697 -0.0295322 0.0449221 96 83 74
-0.244448 -0.0283566 0.0453071 76 65 64
-0.244199 -0.0271829 0.0456912 116 82 74
-0.24379 -0.0260207 0.0463578 129 104 94
-0.243384 -0.024863 0.0470215 97 93 96
-0.242662 -0.0237341 0.0482416 74 73 80
-0.24226 -0.0225875 0.0488969 70 70 67
-0.242016 -0.0214303 0.0492728 67 65 61
-0.241617 -0.0202909 0.0499238 63 61 54
-0.241375 -0.0191385 0.0502974 58 54 44
-0.241288 -0.0179692 0.0503958 47 42 36
-0.241202 -0.0167992 0.0504943 36 32 29
-0.241115 -0.0156284 0.0505928 32 25 23
-0.241029 -0.0144569 0.0506914 32 25 23
-0.240633 -0.0133317 0.0513375 30 28 22
-0.240392 -0.0121859 0.0517088 31 24 21
-0.240152 -0.0110418 0.0520793 33 22 22
-0.239759 -0.00992659 0.0527199 37 25 21
-0.238163 -0.00903999 0.0554927 39 26 20
-0.236747 -0.00814304 0.0579473 47 23 19
-0.236079 -0.00711572 0.0590765 69 24 20
-0.235561 -0.00606586 0.0599412 111 33 21
-0.235477 -0.00492704 0.060037 153 44 22
-0.235393 -0.00378744 0.0601329 182 57 34
-0.235308 -0.00264707 0.0602288 194 65 45
-0.235224 -0.00150592 0.0603249 197 70 49
-0.235572 -0.000254006 0.0596539 200 73 52
-0.235631 0.000930386 0.0594937 204 75 55
-0.235691 0.00211809 0.0593332 204 73 52
-0.235606 0.00326845 0.05943 194 67 48
-0.235521 0.00441959 0.0595269 157 58 44
-0.235581 0.00561463 0.0593664 105 47 38
-0.23637 0.00703659 0.0579085 67 35 30
-0.24144 0.0122965 0.0487277 27 21 18
-0.240878 0.0133453 0.0496702 20 18 14
-0.240476 0.0144425 0.0503288 29 19 18
-0.240075 0.0155357 0.0509846 56 40 33
-0.239831 0.0166818 0.051362 80 58 64
-0.239433 0.017768 0.0520134 114 95 89
-0.239036 0.0188504 0.0526621 69 26 41
-0.238794 0.019989 0.0530358 25 20 17
-0.238706 0.0211874 0.0531366 19 13 15
-0.238464 0.0223238 0.0535095 25 20 18
-0.238223 0.0234586 0.0538817 35 28 20
-0.237983 0.0245917 0.0542531 46 40 31
-0.237291 0.0255249 0.0554298 54 43 35
-0.236456 0.0263843 0.0568615 53 44 34
-0.235778 0.0273023 0.0580156 49 45 37
-0.235397 0.0283492 0.0586387 51 44 38
-0.235017 0.0293924 0.0592592 51 43 35
-0.234785 0.0305021 0.059618 60 45 37
-0.234843 0.0317531 0.0594578 62 45 37
-0.235047 0.0330808 0.0590369 60 48 44
-0.235105 0.0343403 0.0588756 47 31 34
-0.235457 0.0357558 0.0581896 42 34 29
-0.237458 0.0380523 0.0545557 46 39 29
-0.23813 0.0396727 0.0532965 49 39 30
-0.2385 0.0411431 0.0525754 54 43 35
-0.23841 0.0423664 0.0526784 63 55 49
-0.238165 0.0435036 0.0530563 77 71 66
-0.237464 0.0443762 0.0542523 91 84 77
-0.23692 0.0453301 0.055168 89 84 77
-0.236679 0.0464566 0.0555401 76 71 64
-0.236439 0.0475815 0.0559114 64 56 48
-0.236349 0.0487964 0.0560137 58 45 34
-0.236259 0.0500121 0.0561159 53 42 31
-0.236319 0.0513232 0.0559496 50 36 29
-0.237135 0.0531214 0.0544281 48 35 28
-0.237654 0.0547452 0.0534371 53 39 26
-0.23787 0.0561813 0.0529904 72 44 39
-0.237932 0.0575216 0.0528185 89 62 49
-0.238149 0.0589705 0.052369 80 47 37
-0.254676 0.0716232 0.0226486 80 42 28
-0.254767 0.0731518 0.0224176 85 48 35
-0.254664 0.0745482 0.0225351 92 53 40
-0.255144 0.0763631 0.0216035 98 55 43
-0.255236 0.0779084 0.0213703 98 55 42
-0.254937 0.0791712 0.0218398 98 52 41
-0.254638 0.0804319 0.0223082 106 55 50
-0.25434 0.0816904 0.0227755 120 68 60
-0.254042 0.0829467 0.0232417 137 81 71
-0.253746 0.0842008 0.0237069 158 94 82
-0.253066 0.0851531 0.0248605 180 105 92
-0.252963 0.0865513 0.0249781 199 112 100
-0.247049 -0.0484868 0.0392727 126 132 123
-0.246795 -0.047288 0.0396674 123 120 113
-0.246541 -0.046091 0.0400613 112 112 102
-0.245958 -0.0448735 0.0410399 113 107 103
-0.245542 -0.0436731 0.0417216 107 109 101
-0.245291 -0.0424859 0.0421107 93 94 91
-0.245041 -0.0413005 0.0424991 78 78 79
-0.244954 -0.0401229 0.0425979 74 70 71
-0.244866 -0.0389445 0.0426968 73 70 69
-0.244941 -0.0377685 0.0425065 68 68 63
-0.244691 -0.0365853 0.0428947 70 60 56
-0.244441 -0.0354038 0.043282 99 80 74
-0.244354 -0.0342236 0.0433811 149 120 101
-0.244104 -0.0330445 0.0437676 145 141 118
-0.244017 -0.031864 0.0438666 144 117 114
-0.243929 -0.0306826 0.0439657 139 118 97
-0.243681 -0.0295064 0.0443514 105 89 85
-0.243432 -0.0283321 0.0447362 105 86 86
-0.243025 -0.0271681 0.0454046 185 146 120
-0.24262 -0.0260085 0.0460701 209 186 152
-0.241901 -0.0248753 0.047294 186 171 148
-0.241501 -0.0237268 0.0479511 150 133 119
-0.241258 -0.0225691 0.0483276 107 97 95
-0.241015 -0.0214131 0.0487034 75 71 78
-0.240773 -0.0202588 0.0490785 64 65 66
-0.240532 -0.0191063 0.0494527 63 63 57
-0.240445 -0.017937 0.0495508 59 56 49
-0.240358 -0.0167669 0.049649 53 52 43
-0.240426 -0.0155749 0.0494714 44 36 29
-0.240184 -0.0144243 0.0498455 38 22 22
-0.240097 -0.0132519 0.0499439 35 24 25
-0.24001 -0.0120786 0.0500423 32 21 23
-0.239769 -0.0109308 0.0504156 32 25 24
-0.239529 -0.00978463 0.0507882 31 22 20
-0.238984 -0.00869741 0.0517049 33 21 17
-0.237992 -0.00770506 0.0534231 34 23 19
-0.236569 -0.00681531 0.0559106 39 22 20
-0.235463 -0.00588018 0.0578338 64 21 22
-0.235234 -0.00476725 0.0581885 104 33 20
-0.235149 -0.00362271 0.0582845 134 46 26
-0.23492 -0.00251181 0.0586384 140 55 40
-0.234835 -0.00136693 0.0587345 129 54 45
-0.234893 -0.000184403 0.058573 126 52 43
-0.235097 0.00103965 0.0581525 139 51 42
-0.235011 0.00219056 0.0582491 152 55 44
-0.234926 0.00334223 0.0583457 135 52 41
-0.23484 0.0044947 0.0584424 100 44 36
-0.235625 0.00590876 0.0569781 67 40 35
-0.237612 0.00770975 0.0533554 53 38 31
-0.239198 0.00942039 0.050452 50 35 23
-0.240038 0.0109184 0.0488843 42 25 19
-0.239793 0.0120702 0.0492648 29 20 16
-0.239085 0.013061 0.0504767 21 17 14
-0.238536 0.0140978 0.0514039 22 14 16
-0.238295 0.0152385 0.0517784 38 26 24
-0.238206 0.0164337 0.0518786 71 45 49
-0.237965 0.0175722 0.0522524 125 93 75
-0.237725 0.018709 0.0526253 79 72 76
-0.237636 0.0199041 0.0527256 32 13 19
-0.237547 0.0211 0.0528259 16 14 17
-0.237157 0.0221716 0.0534692 25 21 20
-0.236768 0.0232394 0.0541097 28 20 19
-0.23653 0.0243679 0.054479 40 31 25
-0.235847 0.0252982 0.0556493 52 45 36
-0.235316 0.0262873 0.0565454 52 45 36
-0.234789 0.0272708 0.0574356 52 47 39
-0.234266 0.0282488 0.0583202 53 45 40
-0.234034 0.029359 0.0586798 52 44 38
-0.233658 0.0303975 0.0592979 58 49 38
-0.233427 0.0315035 0.0596553 56 51 41
-0.233627 0.032825 0.0592363 69 63 53
-0.233827 0.034153 0.0588156 54 42 44
-0.234029 0.0354876 0.0583931 42 32 32
-0.234815 0.0371398 0.0569144 46 37 32
-0.236509 0.0393003 0.0537971 49 40 34
-0.237023 0.0408449 0.0528077 52 43 35
-0.236933 0.0420629 0.0529099 61 53 45
-0.23654 0.0431096 0.0535584 74 70 63
-0.236149 0.0441525 0.0542042 92 87 80
-0.235909 0.0452796 0.0545769 100 95 88
-0.235669 0.0464051 0.0549489 90 86 80
-0.235281 0.0474387 0.055589 74 68 63
-0.235043 0.0485598 0.0559589 63 54 48
-0.234953 0.0497717 0.0560605 59 44 39
-0.234863 0.0509844 0.0561623 65 40 31
-0.235367 0.0525802 0.0551894 53 38 31
-0.236327 0.0544864 0.053389 47 31 28
-0.236691 0.056018 0.0526681 52 34 43
-0.236904 0.0574579 0.0522194 92 60 44
-0.237118 0.0589051 0.0517688 83 52 45
-0.237179 0.0602533 0.051595 77 41 29
-0.253975 0.0733316 0.0210816 79 43 34
-0.254259 0.0750051 0.0204958 85 44 35
-0.254349 0.0765478 0.0202608 92 51 36
-0.25444 0.0780954 0.0200253 92 48 35
-0.254141 0.0793597 0.0204967 96 49 41
-0.253842 0.0806218 0.020967 110 61 53
-0.253544 0.0818818 0.0214363 128 77 66
-0.253247 0.0831395 0.0219044 148 90 77
-0.252759 0.0842461 0.0227198 168 102 89
-0.252273 0.085348 0.0235312 188 112 99
-0.251979 0.0865966 0.023994 204 119 106
-0.245769 -0.0472433 0.0391003 132 135 125
-0.245681 -0.0460603 0.0391992 125 128 121
-0.244774 -0.0448203 0.0407653 116 116 108
-0.244686 -0.0436423 0.0408638 110 105 100
-0.244436 -0.0424551 0.0412536 98 96 96
-0.244348 -0.0412768 0.0413522 88 93 94
-0.24426 -0.0400978 0.0414508 83 86 84
-0.244173 -0.0389179 0.0415495 80 81 77
-0.244085 -0.0377373 0.0416483 74 72 72
-0.243997 -0.0365559 0.0417471 73 70 69
-0.243747 -0.0353731 0.0421359 93 92 80
-0.243498 -0.0341921 0.0425239 124 105 89
-0.24325 -0.033013 0.0429111 138 133 118
-0.243162 -0.0318323 0.0430098 158 129 122
-0.242914 -0.0306556 0.0433962 162 146 121
-0.242666 -0.0294807 0.0437818 138 117 116
-0.242261 -0.0283148 0.0444519 153 120 110
-0.241699 -0.0271619 0.0454025 212 178 145
-0.240985 -0.0260256 0.0466277 239 211 171
-0.240587 -0.0248765 0.0472852 242 215 175
-0.240345 -0.0237195 0.0476617 225 200 164
-0.240258 -0.0225507 0.0477595 192 169 143
-0.240016 -0.0213959 0.0481352 150 132 117
-0.239775 -0.0202428 0.0485102 110 103 94
-0.239688 -0.0190742 0.0486079 84 83 77
-0.239601 -0.0179048 0.0487058 71 67 63
-0.239514 -0.0167346 0.0488036 65 60 54
-0.239581 -0.0155424 0.0486249 63 44 37
-0.23934 -0.0143919 0.0489996 46 28 25
-0.239252 -0.0132193 0.0490977 32 22 27
-0.239165 -0.0120459 0.0491959 33 22 27
-0.239231 -0.0108454 0.0490178 33 25 26
-0.239143 -0.00966911 0.0491162 31 24 23
-0.23875 -0.00854981 0.0497662 33 25 26
-0.23851 -0.0074046 0.0501393 29 27 23
-0.237818 -0.00635458 0.0513303 32 26 24
-0.237731 -0.0051841 0.0514282 39 27 26
-0.237643 -0.00401283 0.0515262 64 28 23
-0.236364 -0.0031174 0.0537788 80 23 21
-0.235106 -0.00223655 0.0559929 81 20 24
-0.23502 -0.00108298 0.0560894 75 24 27
-0.234934 7.1372e-05 0.056186 72 31 27
-0.235284 0.00134279 0.055494 81 32 29
-0.235198 0.00250244 0.055591 87 30 30
-0.235112 0.00366289 0.055688 80 33 29
-0.235317 0.00490957 0.0552572 66 43 32
-0.236856 0.00656463 0.052411 54 43 34
-0.23767 0.00802423 0.0508747 48 34 30
-0.237582 0.00921209 0.0509741 45 34 24
-0.238101 0.0106002 0.0499725 36 24 21
-0.238012 0.0117949 0.0500724 29 22 16
-0.237619 0.0128852 0.0507237 24 17 14
-0.237227 0.0139716 0.0513723 21 13 13
-0.237139 0.0151636 0.051472 23 16 14
-0.236899 0.0163002 0.051845 45 31 27
-0.236811 0.0174925 0.0519447 93 73 66
-0.236572 0.018627 0.0523169 96 110 95
-0.236184 0.0197001 0.0529594 49 18 27
-0.235946 0.0208301 0.0533294 16 16 16
-0.235561 0.0218967 0.0539678 26 21 19
-0.235177 0.0229594 0.0546035 27 20 19
-0.235089 0.0241461 0.0547028 35 22 18
-0.234561 0.0251383 0.0556015 51 45 33
-0.234181 0.0261907 0.0562304 54 44 38
-0.233803 0.0272393 0.0568567 55 45 40
-0.233283 0.0282165 0.057742 53 44 39
-0.232909 0.0292568 0.0583618 51 45 38
-0.232679 0.0303632 0.0587199 51 44 39
-0.232449 0.0314681 0.0590773 53 49 42
-0.232361 0.0326435 0.0591756 68 56 50
-0.232558 0.033967 0.0587558 61 54 51
-0.232899 0.0353725 0.0580733 43 36 35
-0.233098 0.0367106 0.057649 41 37 34
-0.23461 0.038771 0.0548302 48 43 39
-0.235559 0.0405493 0.0530378 54 42 39
-0.235618 0.0418464 0.0528666 61 50 44
-0.235378 0.0429756 0.0532408 70 64 57
-0.235139 0.0441033 0.0536143 89 81 75
-0.234751 0.0451416 0.0542576 109 102 93
-0.234513 0.0462648 0.0546288 108 104 98
-0.234129 0.0472967 0.0552679 90 85 83
-0.233892 0.0484155 0.055637 70 65 61
-0.233656 0.0495328 0.0560053 63 52 46
-0.233566 0.0507417 0.0561065 61 41 36
-0.233915 0.052236 0.055405 55 38 29
-0.234414 0.0538382 0.0544286 50 37 27
-0.235366 0.0557552 0.0526221 52 33 30
-0.235726 0.057292 0.0518984 80 57 43
-0.235937 0.0587357 0.0514477 83 59 51
-0.236301 0.0602927 0.0507162 76 37 27
-0.253374 0.0736479 0.0193887 76 29 26
-0.25327 0.0750498 0.019506 79 28 25
-0.253747 0.0768737 0.0185588 81 33 27
-0.254031 0.0785689 0.0179628 89 44 34
-0.253537 0.0796929 0.0187946 104 59 51
-0.253044 0.0808123 0.0196223 123 74 65
-0.252555 0.0819269 0.020446 142 85 75
-0.252067 0.083037 0.0212656 161 96 83
-0.251772 0.0842913 0.0217326 179 107 93
-0.251289 0.0853933 0.0225461 196 117 104
-0.243918 -0.0447897 0.0399076 129 132 121
-0.243668 -0.0436018 0.0402981 124 124 119
-0.243581 -0.0424242 0.0403964 122 125 119
-0.243492 -0.0412459 0.0404946 121 126 119
-0.243404 -0.0400667 0.040593 113 119 110
-0.243477 -0.0388913 0.0403996 102 106 97
-0.243389 -0.0377092 0.0404981 95 93 87
-0.243301 -0.0365264 0.0405968 94 88 85
-0.243051 -0.0353422 0.040987 100 93 88
-0.242643 -0.0341607 0.0416666 96 78 77
-0.242395 -0.0329815 0.0420544 107 89 84
-0.242306 -0.0318007 0.0421529 124 101 92
-0.2419 -0.0306286 0.0428278 141 135 114
-0.241496 -0.0294609 0.0434997 157 131 121
-0.241094 -0.0282976 0.0441687 173 142 116
-0.240226 -0.0271642 0.0456822 193 160 135
-0.239829 -0.0260134 0.0463414 213 177 148
-0.239588 -0.0248558 0.0467186 233 195 163
-0.239347 -0.0237 0.0470951 242 204 169
-0.239107 -0.0225459 0.0474708 238 204 167
-0.23902 -0.0213787 0.0475681 216 186 154
-0.238932 -0.0202108 0.0476655 176 155 131
-0.238845 -0.0190421 0.047763 132 123 108
-0.238758 -0.0178726 0.0478605 95 87 81
-0.23867 -0.0167023 0.0479581 74 63 60
-0.238735 -0.01551 0.0477781 70 58 47
-0.238648 -0.0143368 0.047876 57 41 34
-0.23856 -0.0131629 0.0479739 63 38 34
-0.238472 -0.0119881 0.0480719 78 61 52
-0.238384 -0.0108125 0.0481699 52 41 37
-0.238449 -0.00960845 0.0479903 35 26 25
-0.238361 -0.00842999 0.0480886 36 27 23
-0.238273 -0.00725073 0.048187 35 25 21
-0.238185 -0.00607068 0.0482854 39 26 22
-0.237944 -0.00492272 0.0486612 44 27 23
-0.237704 -0.00377646 0.0490362 49 28 24
-0.237164 -0.00270239 0.0499605 50 30 25
-0.237076 -0.00152556 0.0500586 48 31 25
-0.23639 -0.000498187 0.0512487 48 32 26
-0.236005 0.000597941 0.0518888 53 34 25
-0.235917 0.00176948 0.0519865 58 36 28
-0.235682 0.00290081 0.0523542 58 37 31
-0.235595 0.00407268 0.052452 56 35 31
-0.236248 0.00546404 0.051195 51 35 29
-0.236909 0.00687148 0.0499243 47 36 28
-0.23682 0.00805862 0.0500233 47 34 26
-0.236731 0.00924659 0.0501224 46 29 23
-0.236944 0.0105349 0.0496704 37 24 22
-0.236855 0.0117271 0.0497698 28 22 20
-0.236465 0.0128153 0.0504201 26 19 18
-0.236226 0.013953 0.0507938 23 15 15
-0.235838 0.0150344 0.0514398 17 14 14
-0.235601 0.0161676 0.0518113 24 17 18
-0.235364 0.0172991 0.0521821 63 40 42
-0.235127 0.018429 0.0525522 125 93 79
-0.234305 0.0193213 0.0539966 72 61 65
-0.234071 0.0204433 0.0543624 21 15 16
-0.233837 0.0215636 0.0547275 32 18 13
-0.233604 0.0226823 0.0550918 28 22 16
-0.233516 0.0238628 0.0551903 28 18 16
-0.233427 0.0250441 0.0552888 47 29 24
-0.233051 0.0260945 0.0559168 50 39 36
-0.232819 0.0272079 0.056279 54 43 38
-0.232302 0.0281842 0.0571648 53 47 35
-0.23193 0.0292236 0.0577849 50 46 32
-0.23156 0.0302593 0.0584025 51 43 35
-0.231191 0.0312915 0.0590174 56 48 36
-0.231103 0.0324633 0.0591152 63 47 37
-0.231156 0.033709 0.0589549 66 51 41
-0.231632 0.0351827 0.0580155 50 35 36
-0.23197 0.0365929 0.0573304 41 35 34
-0.232309 0.0380131 0.056641 48 43 37
-0.233667 0.0400106 0.0540764 57 42 38
-0.234164 0.0415475 0.0530953 61 45 43
-0.234074 0.0427572 0.0531962 66 54 54
-0.233983 0.0439677 0.0532972 81 71 68
-0.233599 0.0450042 0.0539395 110 100 91
-0.233217 0.0460369 0.054579 127 120 110
-0.232836 0.0470659 0.0552158 115 108 101
-0.232456 0.0480914 0.0558499 89 81 79
-0.232079 0.0491132 0.0564814 69 61 57
-0.231989 0.0503156 0.0565817 63 49 38
-0.232475 0.0518948 0.0556186 55 39 31
-0.232965 0.0534886 0.0546471 53 36 29
-0.23346 0.0550973 0.0536672 54 35 29
-0.234256 0.0569235 0.0521299 60 43 40
-0.234761 0.058567 0.051128 87 55 50
-0.235271 0.060226 0.0501173 78 41 30
-0.252385 0.0736924 0.018399 74 27 25
-0.253246 0.0757894 0.0167303 73 23 23
-0.25314 0.0772012 0.016848 79 32 25
-0.253035 0.078614 0.0169659 94 51 42
-0.252929 0.0800278 0.0170838 115 70 61
-0.252052 0.0808574 0.0186298 134 82 72
-0.251374 0.0818257 0.0198084 153 90 79
-0.25089 0.0829348 0.0206283 169 99 87
-0.250597 0.0841877 0.0210951 185 109 96
-0.250116 0.0852887 0.0219088 200 119 105
-0.243192 -0.040059 0.0385594 130 133 123
-0.243426 -0.0388827 0.0380664 114 121 114
-0.243337 -0.0376939 0.0381653 104 106 98
-0.242764 -0.0364987 0.0391499 103 97 90
-0.242354 -0.0353113 0.0398355 97 90 91
-0.242105 -0.0341276 0.0402264 102 80 80
-0.241698 -0.0329478 0.0409074 92 80 75
-0.241451 -0.0317691 0.0412959 88 73 75
-0.240889 -0.0306017 0.0422605 99 84 77
-0.240487 -0.0294353 0.0429327 123 98 90
-0.239622 -0.0282951 0.0444543 146 128 111
-0.239226 -0.0271411 0.0451166 161 139 122
-0.238832 -0.0259915 0.045776 174 147 127
-0.238591 -0.0248351 0.0461531 194 154 134
-0.238351 -0.0236804 0.0465295 208 166 142
-0.238264 -0.022514 0.0466265 220 180 153
-0.238177 -0.0213468 0.0467236 224 186 156
-0.238089 -0.0201788 0.0468207 208 179 149
-0.238001 -0.01901 0.0469179 173 159 136
-0.237914 -0.0178404 0.0470152 123 117 110
-0.237826 -0.01667 0.0471125 82 66 78
-0.23789 -0.0154775 0.0469313 67 61 54
-0.237802 -0.0143043 0.0470289 59 53 44
-0.237714 -0.0131302 0.0471265 79 55 50
-0.237778 -0.0119302 0.0469453 133 76 62
-0.237689 -0.0107532 0.0470432 99 80 59
-0.237601 -0.00957547 0.0471411 58 34 28
-0.237513 -0.00839691 0.0472391 36 27 23
-0.237424 -0.00721755 0.0473372 36 25 18
-0.237487 -0.00600568 0.0471564 39 25 20
-0.237399 -0.00482342 0.0472547 41 26 24
-0.237008 -0.00370889 0.04791 43 27 27
-0.236919 -0.00252762 0.0480082 43 30 27
-0.23653 -0.00141898 0.0486605 43 32 25
-0.236292 -0.000276564 0.0490347 46 35 30
-0.236054 0.000864158 0.0494081 50 35 33
-0.235965 0.00204348 0.0495062 54 37 32
-0.235877 0.00322361 0.0496043 58 40 31
-0.235788 0.00440455 0.0497025 58 40 28
-0.235998 0.00567489 0.0492505 54 37 28
-0.236059 0.00690578 0.0490731 49 34 30
-0.23597 0.00809302 0.0491718 46 33 29
-0.235881 0.00928107 0.0492706 43 30 25
-0.235792 0.0104699 0.0493694 36 26 22
-0.235702 0.0116596 0.0494684 32 21 18
-0.235464 0.0127979 0.0498428 30 17 16
-0.235078 0.0138811 0.0504906 24 16 15
-0.234841 0.0150148 0.0508628 18 18 15
-0.234605 0.0161469 0.0512342 17 16 14
-0.233639 0.0169948 0.052956 32 24 25
-0.23326 0.0180605 0.0535903 92 72 68
-0.233028 0.0191807 0.0539554 98 92 96
