ply
format ascii 1.0
element vertex 1154
property float x
property float y
property float z
property uchar diffuse_red
property uchar diffuse_green
property uchar diffuse_blue
end_header
-0.354339 -0.00964769 0.0889126 164 238 121
-0.354265 -0.00825535 0.089059 164 239 122
-0.353526 -0.00693517 0.0897585 163 239 122
-0.353121 -0.00558282 0.09018 162 236 121
-0.352388 -0.0042729 0.0908741 158 232 118
-0.351659 -0.00296883 0.0915647 151 225 112
-0.350933 -0.00167055 0.0922518 144 220 109
-0.350212 -0.000378071 0.0929355 142 219 111
-0.348852 0.000816862 0.0941482 143 222 114
-0.348141 0.00209492 0.0948219 151 231 121
-0.347117 0.00331858 0.0957545 161 234 124
-0.346729 0.00463424 0.0961594 167 233 123
-0.346029 0.0058956 0.0968233 165 223 129
-0.346584 0.00736559 0.0964467 160 205 141
-0.346197 0.00867719 0.0968505 157 188 147
-0.345811 0.00998636 0.0972534 162 174 154
-0.345426 0.0112932 0.0976554 166 174 159
-0.344732 0.0125375 0.0983134 165 174 164
-0.329953 -0.0295666 0.106502 148 218 109
-0.329071 -0.0283426 0.107321 130 202 100
-0.328735 -0.0271082 0.107679 125 196 94
-0.327861 -0.0258969 0.10849 140 208 100
-0.326464 -0.0247171 0.109742 155 221 110
-0.325607 -0.0235238 0.110539 161 226 114
-0.325541 -0.0222942 0.110668 161 225 113
-0.353824 -0.0123617 0.0873431 161 227 115
-0.353417 -0.0110005 0.0877687 161 227 114
-0.353343 -0.00960903 0.0879147 160 228 116
-0.352937 -0.00825141 0.0883391 161 233 118
-0.352202 -0.00693286 0.0890393 162 235 120
-0.351471 -0.00562024 0.0897359 163 236 120
-0.350744 -0.00431348 0.0904291 162 239 122
-0.35002 -0.00301255 0.0911187 160 238 121
-0.349623 -0.0016746 0.0915346 158 233 118
-0.349227 -0.000339156 0.0919495 152 225 115
-0.347236 0.000764218 0.0936992 143 217 110
-0.346216 0.00199218 0.0946357 138 216 109
-0.345515 0.00326015 0.0953037 142 218 112
-0.344508 0.00447266 0.0962282 150 226 117
-0.344125 0.00577955 0.0966298 158 231 122
-0.344363 0.00719039 0.0965134 168 231 123
-0.34398 0.00849568 0.0969148 166 224 127
-0.343599 0.00979859 0.0973153 159 205 140
-0.343218 0.0110992 0.0977148 162 188 150
-0.342839 0.0123973 0.0981134 162 178 158
-0.34246 0.0136932 0.0985112 161 177 163
-0.328244 -0.029552 0.106295 154 224 111
-0.327908 -0.0283169 0.106655 137 208 104
-0.326771 -0.0271112 0.107695 125 196 96
-0.325645 -0.0259159 0.108727 133 201 97
-0.325052 -0.0247073 0.109303 152 216 107
-0.324986 -0.0234771 0.109432 162 224 113
-0.32492 -0.022246 0.109561 163 225 113
-0.351942 -0.00821268 0.0873421 161 227 114
-0.351209 -0.00689411 0.0880445 161 228 115
-0.350807 -0.00554335 0.088467 160 230 117
-0.349755 -0.00427472 0.0894388 160 234 120
-0.349357 -0.00293247 0.0898575 163 236 118
-0.348638 -0.00163576 0.0905475 165 238 119
-0.348242 -0.000300239 0.0909633 164 239 121
-0.346892 0.000894513 0.0921856 159 232 117
-0.345555 0.00207799 0.0933954 152 225 114
-0.344543 0.00329884 0.0943304 144 215 109
-0.343539 0.00451133 0.0952583 137 213 106
-0.34285 0.00576686 0.0959204 138 217 108
-0.342777 0.00712287 0.0960624 149 225 114
-0.341481 0.00826171 0.0972349 158 231 120
-0.340802 0.0095011 0.0978873 164 230 122
-0.340729 0.0108496 0.0980285 165 221 128
-0.340657 0.0121991 0.0981697 160 203 145
-0.340584 0.0135495 0.0983111 163 181 153
-0.340512 0.0149008 0.0984525 162 173 159
-0.34044 0.016253 0.098594 162 171 160
-0.326481 -0.0282989 0.106219 145 216 111
-0.32326 -0.027168 0.109055 128 199 101
-0.322935 -0.0259553 0.109405 127 198 97
-0.322869 -0.0247329 0.109533 145 211 102
-0.349239 -0.0069645 0.0878832 160 229 115
-0.348841 -0.00561878 0.088304 160 229 114
-0.347801 -0.00435466 0.0892723 161 229 116
-0.347726 -0.00297625 0.0894162 160 229 116
-0.347332 -0.00163982 0.0898331 161 232 117
-0.347258 -0.000261321 0.0899771 164 235 118
-0.341883 0.00580557 0.0949525 140 213 105
-0.340591 0.00695023 0.0961302 132 207 104
-0.339914 0.00819212 0.096785 136 212 106
-0.33924 0.00942871 0.0974366 147 220 112
-0.338868 0.0107169 0.0978314 161 228 118
-0.338796 0.0120614 0.0979718 163 226 123
-0.338723 0.0134068 0.0981123 163 213 131
-0.338651 0.0147532 0.0982529 157 192 150
-0.338877 0.0161642 0.09814 160 176 158
-0.339104 0.0175797 0.0980269 163 174 161
-0.339031 0.0189322 0.0981681 165 177 162
-0.322381 -0.027135 0.108175 135 205 104
-0.322057 -0.0259222 0.108525 125 197 95
-0.321991 -0.0246998 0.108653 137 206 98
-0.329097 -0.00779216 0.103457 160 228 114
-0.326578 -0.00681633 0.105698 161 227 116
-0.325705 -0.00565459 0.106522 160 227 116
-0.32537 -0.0044285 0.106883 160 226 117
-0.325301 -0.00316708 0.107014 161 227 116
-0.340916 0.00584425 0.0939845 159 228 117
-0.339027 0.00688382 0.0956833 148 215 109
-0.338056 0.00806915 0.0965931 134 205 105
-0.337389 0.00930153 0.0972424 133 201 108
-0.33702 0.0105852 0.0976356 151 213 109
-0.336948 0.0119248 0.0977752 159 224 117
-0.336875 0.0132653 0.0979149 160 227 120
-0.336803 0.0146067 0.0980546 160 222 125
-0.33762 0.0161396 0.0974339 159 204 141
-0.337844 0.0175534 0.0973197 161 186 153
-0.33807 0.0189717 0.0972054 167 181 159
-0.337997 0.0203252 0.0973464 167 179 162
-0.328252 -0.00903412 0.102408 161 229 115
-0.325742 -0.00804579 0.10466 160 229 116
-0.324872 -0.00688043 0.105487 161 228 117
-0.324537 -0.00565366 0.105849 161 229 116
-0.324469 -0.00439299 0.10598 162 228 115
-0.3244 -0.00313145 0.106111 161 228 113
-0.324331 -0.00186907 0.106243 159 227 115
-0.324263 -0.000605832 0.106374 157 225 115
-0.324194 0.000658242 0.106505 157 226 115
-0.324391 0.00196668 0.106407 158 226 119
-0.33747 0.00681775 0.0952384 162 223 112
-0.335331 0.00778778 0.097164 157 225 113
-0.334967 0.00906617 0.097555 155 227 116
-0.334313 0.0102864 0.0981961 159 228 116
-0.333951 0.0115588 0.0985846 161 230 119
-0.333878 0.0128879 0.0987227 161 229 120
-0.333806 0.0142178 0.0988609 164 230 119
-0.333734 0.0155486 0.0989993 164 229 122
-0.335409 0.0172665 0.0976312 165 219 130
-0.336219 0.0188094 0.0970095 163 207 149
-0.336441 0.0202267 0.0968948 165 193 153
-0.336961 0.0217193 0.096524 171 186 157
-0.326793 -0.00906036 0.10197 161 228 113
-0.324838 -0.00801043 0.103754 161 228 114
-0.324502 -0.0067787 0.104119 161 229 114
-0.323636 -0.00561824 0.104947 162 227 114
-0.323567 -0.00435746 0.105078 162 227 115
-0.323499 -0.00309584 0.105208 158 228 114
-0.32343 -0.00183336 0.105339 153 223 114
-0.323361 -0.000569999 0.10547 143 214 111
-0.323292 0.000694195 0.105601 149 213 108
-0.323223 0.00195925 0.105733 159 229 115
-0.334527 0.00516266 0.0959369 160 228 114
-0.334454 0.00649388 0.0960749 162 226 116
-0.331504 0.00730283 0.0987229 162 227 114
-0.331432 0.00861952 0.0988595 166 229 116
-0.33136 0.0099371 0.0989961 171 232 118
-0.331288 0.0112556 0.0991328 174 241 124
-0.331216 0.0125749 0.0992696 175 239 129
-0.331144 0.0138952 0.0994065 178 236 126
-0.331072 0.0152164 0.0995435 178 238 127
-0.332714 0.0169192 0.0981892 174 233 124
-0.334673 0.018715 0.0965606 171 231 124
-0.335481 0.0202662 0.0959339 170 226 127
-0.325611 -0.00905565 0.101296 161 229 116
-0.323933 -0.00797505 0.102848 161 229 116
-0.323864 -0.00670988 0.102979 163 228 115
-0.323528 -0.00547874 0.103344 162 227 114
-0.322666 -0.00432194 0.104175 162 228 117
-0.322597 -0.0030602 0.104305 157 222 114
-0.322528 -0.0017976 0.104436 144 209 107
-0.322459 -0.000534164 0.104567 129 200 102
-0.322389 0.00073015 0.104698 142 213 104
-0.32232 0.0019953 0.104829 162 232 118
-0.322514 0.00330639 0.104728 164 230 118
-0.324572 0.00495125 0.102986 163 227 117
-0.325852 0.00647928 0.101931 163 229 116
-0.326873 0.00797491 0.101105 165 230 116
-0.327627 0.00943223 0.100513 166 234 119
-0.328386 0.0109011 0.0999175 166 243 128
-0.328315 0.0122093 0.100053 178 253 140
-0.327965 0.0134597 0.100432 184 254 136
-0.327894 0.0147682 0.100567 184 251 135
-0.33006 0.016577 0.098739 180 251 133
-0.333717 0.0187542 0.0956034 179 248 134
-0.34697 0.0703222 0.0866314 176 185 173
-0.346889 0.0717917 0.0867834 175 186 172
-0.32477 -0.0102927 0.100252 159 227 114
-0.323098 -0.00920407 0.101811 160 227 114
-0.323028 -0.00793967 0.101942 161 227 115
-0.322959 -0.0066744 0.102072 162 227 114
-0.322624 -0.00544319 0.102439 162 228 114
-0.321765 -0.00428641 0.103272 162 228 118
-0.321695 -0.00302457 0.103402 158 224 116
-0.321364 -0.0018009 0.103766 143 211 107
-0.321294 -0.000538837 0.103896 124 196 97
-0.321487 0.000766086 0.103794 132 206 98
-0.321417 0.00203136 0.103924 154 226 111
-0.321347 0.00329748 0.104055 168 233 118
-0.321539 0.00461107 0.103953 168 230 117
-0.321995 0.00597696 0.103617 165 228 115
-0.322189 0.00730013 0.103515 162 227 113
-0.322383 0.00862732 0.103412 161 226 115
-0.323109 0.0100654 0.102838 167 230 117
-0.323841 0.0115146 0.10226 171 244 127
-0.324847 0.0130327 0.101438 174 238 125
-0.326963 0.0148063 0.0996351 178 237 128
-0.344958 0.0699501 0.0864539 187 195 176
-0.344877 0.0714139 0.0866049 183 190 175
-0.345122 0.0730215 0.086472 179 187 170
-0.322333 -0.0116952 0.100645 161 229 114
-0.322263 -0.0104324 0.100775 161 227 115
-0.322193 -0.00916877 0.100905 161 229 115
-0.322123 -0.00790427 0.101035 160 228 117
-0.32179 -0.00667236 0.101403 159 229 115
-0.321195 -0.00547726 0.102004 161 230 115
-0.320863 -0.00425087 0.102369 161 228 115
-0.320533 -0.00302652 0.102733 162 229 117
-0.320463 -0.00176521 0.102863 158 221 113
-0.320393 -0.000503022 0.102993 138 207 105
-0.320323 0.000760001 0.103123 128 201 99
-0.320514 0.00206743 0.10302 136 213 102
-0.320444 0.00333366 0.10315 154 229 111
-0.320374 0.00460075 0.103281 167 237 120
-0.320304 0.00586869 0.103411 174 239 124
-0.320233 0.00713751 0.103542 172 233 119
-0.320163 0.00840718 0.103673 167 228 120
-0.320093 0.00967771 0.103803 163 230 120
-0.320283 0.0110033 0.103701 160 229 122
-0.320474 0.0123328 0.103599 161 230 122
-0.323316 0.0142483 0.101129 162 236 126
-0.324052 0.0157241 0.100541 145 225 119
-0.343284 0.0697189 0.0859939 192 208 175
-0.343203 0.0711789 0.0861443 195 208 182
-0.343122 0.0726399 0.0862947 196 206 180
-0.321499 -0.0129222 0.0996099 162 228 114
-0.320642 -0.0117424 0.100453 163 229 115
-0.320572 -0.010484 0.100583 164 227 114
-0.320764 -0.00919439 0.100475 161 228 115
-0.320956 -0.00790087 0.100367 161 229 116
-0.320362 -0.00670362 0.100971 161 227 115
-0.320032 -0.00547652 0.101337 161 228 113
-0.319702 -0.00425148 0.101701 162 227 115
-0.319632 -0.0029909 0.101831 163 231 117
-0.319562 -0.00172949 0.101961 166 231 116
-0.319491 -0.000467206 0.10209 161 227 116
-0.319421 0.000795917 0.10222 146 217 108
-0.319351 0.0020599 0.10235 134 210 102
-0.319281 0.00332475 0.10248 135 215 103
-0.31921 0.00459044 0.10261 145 227 112
-0.31914 0.00585701 0.10274 161 240 122
-0.318811 0.00707498 0.103103 188 246 130
-0.318226 0.00824022 0.103698 198 251 136
-0.317133 0.00929733 0.104751 186 243 134
-0.316809 0.0105039 0.105109 174 235 128
-0.31598 0.0116 0.105922 167 229 120
-0.315659 0.0128 0.106278 164 222 113
-0.315339 0.013998 0.106633 158 222 112
-0.315269 0.0152523 0.106762 157 221 114
-0.315953 0.016687 0.106212 159 218 110
-0.315883 0.0179473 0.106342 158 216 107
-0.31531 0.0190828 0.106924 156 212 105
-0.31524 0.0203419 0.107053 152 210 105
-0.31492 0.0215363 0.107407 146 210 104
-0.3146 0.0227288 0.107761 141 208 104
-0.31453 0.0239876 0.107891 135 207 107
-0.31446 0.0252472 0.10802 135 206 108
-0.341937 0.0696266 0.085252 180 227 151
-0.340584 0.0705286 0.0865337 177 234 168
-0.340504 0.0719802 0.0866828 170 219 175
-0.340423 0.0734328 0.086832 164 184 112
-0.320072 -0.0129392 0.0991833 163 228 113
-0.319222 -0.0117621 0.100026 163 228 114
-0.319152 -0.0105065 0.100155 164 229 115
-0.318823 -0.00928029 0.10052 161 228 113
-0.318753 -0.0080245 0.100649 160 229 114
-0.318941 -0.00673474 0.100541 160 229 115
-0.318871 -0.00547578 0.10067 161 228 116
-0.318801 -0.00421596 0.100799 163 226 114
-0.318731 -0.00295529 0.100929 165 226 113
-0.31866 -0.00169378 0.101058 166 228 115
-0.31859 -0.000431389 0.101187 165 232 115
-0.318519 0.000831834 0.101317 162 235 118
-0.318449 0.00209593 0.101446 158 228 116
-0.318378 0.00336089 0.101576 149 218 108
-0.31805 0.00458019 0.10194 142 218 107
-0.317722 0.00579747 0.102304 142 223 109
-0.317396 0.00701274 0.102667 155 232 118
-0.316306 0.00807482 0.103724 169 248 141
-0.315479 0.00917915 0.104542 180 254 150
-0.314656 0.0102766 0.105355 189 254 151
-0.314337 0.0114746 0.10571 185 250 139
-0.314019 0.0126706 0.106064 176 236 122
-0.313701 0.0138648 0.106418 172 232 118
-0.313631 0.0151148 0.106546 165 225 117
-0.313561 0.0163656 0.106674 164 224 116
-0.313491 0.0176173 0.106803 162 224 114
-0.313669 0.0189321 0.106706 161 224 115
-0.313599 0.020187 0.106835 164 228 115
-0.313529 0.0214427 0.106963 167 234 121
-0.313459 0.0226992 0.107092 167 234 119
-0.313389 0.0239567 0.107221 170 240 125
-0.313319 0.0252149 0.10735 172 239 124
-0.313496 0.0265452 0.107255 172 237 126
-0.339017 0.0688513 0.0859288 192 250 139
-0.338 0.0698868 0.0869178 198 251 137
-0.337609 0.0711908 0.0873442 196 247 136
-0.337529 0.0726322 0.0874919 193 248 138
-0.337139 0.0739328 0.0879172 190 251 139
-0.33522 0.0745208 0.0897136 181 244 138
-0.33393 0.0753831 0.0909445 163 228 129
-0.33206 0.0759545 0.092695 148 208 112
-0.33051 0.0766591 0.0941576 135 176 94
-0.300041 -0.0240137 0.115478 136 207 105
-0.318323 -0.0117272 0.0991255 162 229 116
-0.318252 -0.0104715 0.0992538 164 228 114
-0.317668 -0.00927537 0.0998567 162 227 115
-0.317597 -0.00802096 0.099985 163 226 116
-0.317784 -0.00673262 0.0998767 162 227 114
-0.317971 -0.00544038 0.0997682 160 227 114
-0.3179 -0.00418046 0.099897 163 226 114
-0.317829 -0.00291969 0.100026 166 228 112
-0.317759 -0.00165806 0.100155 165 229 115
-0.317688 -0.000395571 0.100284 163 230 116
-0.317617 0.000867771 0.100413 167 234 115
-0.317546 0.00213197 0.100542 166 240 120
-0.317219 0.00335196 0.100908 163 238 122
-0.316892 0.00456993 0.101272 162 235 120
-0.316566 0.00578592 0.101636 175 235 117
-0.315986 0.0069508 0.102232 172 231 117
-0.314655 0.00796084 0.103519 161 227 121
-0.313836 0.00906181 0.104335 154 223 123
-0.313269 0.0102082 0.104918 153 221 115
-0.312952 0.0114036 0.105273 149 218 111
-0.312635 0.012597 0.105627 147 221 110
-0.312319 0.0137886 0.10598 159 226 114
-0.311759 0.0149208 0.106556 164 229 117
-0.31169 0.016166 0.106684 163 225 114
-0.31162 0.017412 0.106811 165 225 116
-0.311795 0.0187206 0.106715 165 227 117
-0.312461 0.0201602 0.106168 168 236 121
-0.312638 0.0214798 0.106071 167 239 124
-0.312567 0.0227364 0.106199 165 237 122
-0.312497 0.023994 0.106328 163 238 127
-0.312426 0.0252523 0.106456 165 244 138
-0.312602 0.0265828 0.10636 173 251 145
-0.337377 0.0686257 0.0854752 147 213 111
-0.335755 0.0693884 0.0870196 150 218 119
-0.335369 0.0706864 0.0874433 149 224 127
-0.334679 0.0718439 0.0881414 150 230 135
-0.333993 0.0729965 0.088836 153 235 135
-0.333011 0.0740042 0.0897987 151 232 135
-0.331443 0.0747249 0.0912904 141 218 124
-0.329603 0.0752978 0.0930269 132 203 105
-0.328078 0.0760022 0.0944778 132 196 100
-0.299286 -0.0251225 0.114541 162 227 116
-0.299222 -0.0239827 0.114657 144 213 109
-0.299158 -0.0228421 0.114773 125 198 97
-0.316955 -0.00795418 0.0988477 161 228 115
-0.316884 -0.00669736 0.0989759 162 228 113
-0.316814 -0.00543966 0.0991042 160 227 114
-0.316743 -0.00418112 0.0992326 161 226 115
-0.316928 -0.00288405 0.0991232 165 226 114
-0.316857 -0.00162232 0.0992519 164 229 116
-0.316786 -0.000359732 0.0993807 163 228 115
-0.316459 0.000861586 0.0997469 163 228 114
-0.316388 0.0021244 0.0998757 163 234 117
-0.316317 0.00338808 0.100005 167 238 119
-0.315737 0.00455973 0.100606 168 239 121
-0.315666 0.00582215 0.100734 170 245 125
-0.315088 0.00698707 0.101333 172 248 136
-0.313263 0.00789732 0.103086 173 255 150
-0.31245 0.00899606 0.103901 170 249 145
-0.312134 0.0101921 0.104256 171 232 121
-0.311818 0.0113862 0.104611 141 208 100
-0.311258 0.0125237 0.105191 125 198 98
-0.310944 0.0137127 0.105543 143 205 104
-0.310147 0.0147856 0.106343 157 220 113
-0.310077 0.0160266 0.106469 163 227 116
-0.310007 0.0172684 0.106596 167 230 117
-0.310421 0.0186339 0.106276 167 233 122
-0.310837 0.0200066 0.105954 157 225 117
-0.3115 0.0214516 0.105405 145 211 111
-0.31143 0.0227069 0.105533 141 205 106
-0.311604 0.0240313 0.105434 139 205 107
-0.311779 0.0253595 0.105336 139 205 109
-0.311955 0.0266918 0.105237 144 204 113
-0.334746 0.0694335 0.0860105 143 206 108
-0.33255 0.0699171 0.0880901 136 203 106
-0.331873 0.0710679 0.0887808 131 201 107
-0.331199 0.0722137 0.0894681 130 202 105
-0.330529 0.0733547 0.090152 127 197 99
-0.328986 0.074075 0.0916317 122 187 95
-0.327176 0.0746493 0.0933544 117 180 89
-0.326812 0.0759074 0.0937576 115 174 86
-0.326448 0.0771633 0.0941599 103 156 82
-0.298532 -0.0262306 0.113604 166 229 115
-0.298467 -0.0250915 0.11372 167 229 117
-0.295448 -0.0241138 0.116618 152 217 111
-0.295177 -0.0230027 0.116928 129 201 101
-0.295321 -0.0218656 0.116847 124 196 94
-0.315914 -0.00540428 0.098203 163 228 115
-0.315843 -0.00414564 0.0983311 163 227 115
-0.316027 -0.00284843 0.0982204 163 225 114
-0.315955 -0.0015866 0.0983488 165 227 114
-0.315884 -0.000323892 0.0984773 164 227 113
-0.315558 0.000897484 0.0988442 164 229 114
-0.315486 0.00216041 0.0989727 163 227 116
-0.314908 0.00333419 0.0995759 164 233 114
-0.314836 0.00459586 0.0997043 165 237 118
-0.314261 0.0057629 0.100304 174 240 121
-0.312939 0.00677922 0.101602 180 248 125
-0.311878 0.00783409 0.102654 178 246 124
-0.311316 0.00898132 0.10324 174 243 126
-0.311001 0.0101761 0.103595 166 243 129
-0.310686 0.011369 0.10395 148 216 112
-0.31013 0.0125053 0.10453 140 195 101
-0.309334 0.0135815 0.105333 154 214 106
-0.308306 0.0145947 0.106353 164 223 113
-0.308236 0.0158301 0.106479 167 231 116
-0.308405 0.0171258 0.106383 170 233 118
-0.309054 0.0185476 0.105839 168 231 117
-0.309465 0.0199171 0.105516 141 200 105
-0.309879 0.0212937 0.105192 128 186 100
-0.310538 0.0227441 0.10464 128 186 98
-0.310467 0.0240004 0.104768 128 188 97
-0.310885 0.025397 0.104441 130 190 97
-0.31106 0.0267294 0.104341 133 195 101
-0.331631 0.0685397 0.0869448 180 243 133
-0.330364 0.0694257 0.0881838 177 239 129
-0.329989 0.0707066 0.0885995 174 235 126
-0.329616 0.0719852 0.0890143 170 228 121
-0.32895 0.073124 0.0896973 166 220 114
-0.327421 0.0738441 0.0911758 164 212 109
-0.326196 0.0746937 0.0923736 159 202 103
-0.325832 0.0759519 0.0927778 148 189 97
-0.32547 0.0772079 0.093181 131 170 91
-0.324825 0.0783198 0.093843 107 140 84
-0.324465 0.0795701 0.0942435 84 111 77
-0.324387 0.0809627 0.0943852 62 87 65
-0.294291 -0.0252267 0.116088 168 233 118
-0.294227 -0.0241061 0.116202 160 224 115
-0.293958 -0.0229972 0.116511 137 208 106
-0.293894 -0.0218762 0.116625 123 196 95
-0.29383 -0.0207545 0.116739 134 201 96
-0.293767 -0.019632 0.116853 155 216 107
-0.314656 0.000933383 0.0979414 162 230 114
-0.314585 0.00219641 0.0980696 162 229 115
-0.31426 0.00341521 0.0984366 163 230 114
-0.313936 0.00463199 0.0988027 162 228 116
-0.313613 0.0058468 0.099168 166 228 117
-0.31304 0.00701049 0.0997686 167 232 117
-0.310988 0.00787008 0.101763 166 233 120
-0.310428 0.00901732 0.102351 166 236 125
-0.310114 0.0102122 0.102707 160 231 119
-0.3098 0.0114051 0.103062 156 216 109
-0.309245 0.0125414 0.103644 155 218 108
-0.307497 0.013396 0.105349 162 226 114
-0.30719 0.0145742 0.105697 170 232 117
-0.30712 0.0158084 0.105823 172 232 117
-0.30705 0.0170433 0.105948 173 235 122
-0.307454 0.0184007 0.105627 159 219 114
-0.3081 0.0198279 0.105081 131 181 97
-0.30875 0.0212659 0.10453 123 180 95
-0.309404 0.0227146 0.103976 125 182 95
-0.309576 0.0240377 0.103875 126 186 96
-0.310236 0.0255045 0.103317 128 190 97
-0.310409 0.0268387 0.103215 129 189 97
-0.310583 0.0281768 0.103113 129 191 99
-0.329449 0.0680552 0.0870446 154 231 133
-0.328783 0.0692041 0.0877338 160 237 137
-0.328703 0.0706165 0.0878772 165 241 139
-0.328623 0.0720299 0.0880206 175 246 138
-0.32738 0.0728945 0.0892447 182 248 136
-0.326436 0.0738886 0.0901902 188 250 134
-0.3255 0.0748762 0.0911288 190 247 131
-0.325136 0.0761358 0.0915346 189 243 130
-0.324491 0.0772524 0.0922019 184 240 131
-0.323849 0.0783644 0.092866 172 230 128
-0.32349 0.0796147 0.0932675 154 211 116
-0.323411 0.0810075 0.0934088 133 175 98
-0.323052 0.0822548 0.0938093 99 102 64
-0.29328 -0.0252065 0.115478 168 230 117
-0.290589 -0.0242332 0.118107 166 228 115
-0.290526 -0.0231281 0.118219 149 215 108
-0.290463 -0.0220222 0.118331 126 198 96
-0.290002 -0.0209447 0.118824 127 198 93
-0.289939 -0.0198396 0.118936 146 212 103
-0.289876 -0.0187338 0.119048 164 227 116
-0.289813 -0.0176273 0.11916 170 231 119
-0.28975 -0.01652 0.119272 168 229 116
-0.290283 -0.0153509 0.118815 162 225 113
-0.30836 0.0125776 0.102758 166 228 116
-0.306147 0.0133219 0.104918 167 231 120
-0.305607 0.0144414 0.105488 172 236 120
-0.305772 0.015729 0.10539 171 236 121
-0.306172 0.0170796 0.105069 161 224 118
-0.306338 0.0183763 0.10497 136 194 104
-0.307216 0.0198646 0.104196 125 176 92
-0.307863 0.0213028 0.103642 123 178 95
-0.308514 0.0227518 0.103084 125 185 96
-0.308684 0.0240749 0.102983 126 186 97
-0.309341 0.025542 0.10242 126 192 98
-0.309512 0.0268763 0.102317 126 190 98
-0.309685 0.0282146 0.102214 129 190 97
-0.32779 0.0692485 0.0867406 135 193 99
-0.32771 0.070661 0.0868837 138 194 101
-0.326472 0.0715317 0.0881131 141 196 102
-0.325817 0.0726661 0.0887942 144 199 103
-0.325451 0.0739331 0.0892046 145 201 107
-0.324518 0.0749206 0.0901465 146 205 112
-0.324156 0.0761804 0.0905533 146 210 117
-0.323512 0.077297 0.0912227 148 217 125
-0.322593 0.0782674 0.0921503 147 217 124
-0.322514 0.0796593 0.0922913 138 203 111
-0.322435 0.0810522 0.0924323 130 185 100
-0.322077 0.0822996 0.0928337 103 124 75
-0.321998 0.0836927 0.0929748 58 59 45
-0.321957 0.08943 0.0932807 71 79 67
-0.321877 0.0908297 0.0934224 74 82 66
-0.321798 0.0922303 0.0935643 64 73 56
-0.289858 -0.0253076 0.117201 169 231 116
-0.289398 -0.0242253 0.117695 171 231 117
-0.289335 -0.0231224 0.117806 158 221 112
-0.289272 -0.0220188 0.117918 133 202 101
-0.289209 -0.0209144 0.118029 122 194 93
-0.288948 -0.0198249 0.118331 138 205 99
-0.288688 -0.0187369 0.118633 158 223 112
-0.288625 -0.0176326 0.118744 168 230 119
-0.288562 -0.0165275 0.118856 168 229 118
-0.288499 -0.0154217 0.118968 164 225 116
-0.304337 0.0131389 0.104935 170 237 122
-0.304499 0.0144213 0.104836 165 231 119
-0.304429 0.01565 0.10496 155 221 113
-0.305059 0.0170566 0.104414 137 199 107
-0.305458 0.0184127 0.104089 125 175 96
-0.30657 0.0199642 0.103084 124 178 92
-0.306975 0.0213397 0.102754 125 182 94
-0.307623 0.0227889 0.102193 126 184 96
-0.307792 0.0241122 0.10209 129 190 96
-0.308688 0.0256498 0.101292 128 190 95
-0.308859 0.0269859 0.101187 127 189 97
-0.308787 0.0282525 0.101315 129 190 97
-0.308714 0.0295198 0.101443 128 185 98
-0.326508 0.0691603 0.0860216 125 183 96
-0.326139 0.070437 0.0864375 124 183 94
-0.324912 0.0713067 0.0876657 124 183 93
-0.324546 0.0725746 0.088077 124 183 93
-0.323899 0.0737031 0.0887554 124 184 94
-0.323255 0.074827 0.0894305 124 183 94
-0.322894 0.0760853 0.0898374 124 184 95
-0.322254 0.0772009 0.0905075 124 184 94
-0.321618 0.0783118 0.0911743 122 179 91
-0.321538 0.0797039 0.0913149 117 171 88
-0.321458 0.081097 0.0914556 111 160 83
-0.321379 0.082491 0.0915965 93 126 68
-0.321022 0.0837377 0.0919987 69 89 52
-0.320942 0.0851319 0.0921395 63 82 48
-0.321139 0.0866788 0.0920195 66 89 50
-0.321059 0.0880766 0.0921607 74 103 58
-0.320979 0.0894755 0.092302 87 123 70
-0.320899 0.0908753 0.0924435 91 134 80
-0.320819 0.092276 0.092585 88 128 78
-0.321015 0.0938386 0.0924659 84 116 70
-0.288669 -0.0252976 0.11679 169 229 115
-0.286657 -0.0243053 0.118799 172 234 119
-0.28621 -0.0232376 0.119284 163 228 118
-0.286147 -0.0221475 0.119394 140 211 108
-0.286084 -0.0210567 0.119504 122 195 95
-0.28583 -0.0199804 0.1198 130 199 97
-0.285576 -0.0189056 0.120096 151 216 108
-0.285513 -0.0178148 0.120206 168 228 117
-0.285451 -0.0167232 0.120316 171 231 118
-0.285388 -0.0156309 0.120426 170 229 116
-0.287057 -0.0143483 0.118853 166 227 115
-0.303535 0.0119488 0.103937 167 234 121
-0.303003 0.0130658 0.104507 158 221 115
-0.303394 0.0144012 0.104185 145 206 110
-0.303555 0.015686 0.104085 136 190 102
-0.304182 0.0170928 0.103535 126 175 95
-0.305284 0.0186325 0.102528 120 173 93
-0.305922 0.0200641 0.101969 123 179 96
-0.306088 0.0213766 0.101865 127 183 96
-0.306732 0.022826 0.101301 127 184 97
-0.3069 0.0241495 0.101197 128 189 96
-0.307792 0.0256874 0.100394 129 188 97
-0.307961 0.0270237 0.100288 130 188 96
-0.307888 0.0282903 0.100416 131 189 96
-0.307573 0.0294829 0.100777 131 186 95
-0.306538 0.030446 0.101831 131 186 95
-0.306465 0.0317078 0.101958 127 188 95
-0.321083 0.065744 0.0892045 120 180 94
-0.32128 0.0672534 0.0890792 122 179 94
-0.322876 0.06942 0.0876182 121 179 94
-0.323642 0.0712168 0.0869501 121 180 92
-0.323561 0.072619 0.0870914 121 179 93
-0.322916 0.0737476 0.087772 121 179 92
-0.322554 0.0750096 0.0881815 121 178 90
-0.321914 0.0761298 0.088857 120 176 90
-0.321555 0.0773861 0.0892638 118 173 88
-0.320919 0.0784981 0.0899343 115 170 87
-0.320562 0.0797486 0.0903384 112 166 86
-0.320482 0.0811417 0.0904788 108 156 82
-0.320402 0.0825358 0.0906193 99 137 71
-0.320322 0.0839309 0.0907599 90 122 63
-0.320242 0.085327 0.0909006 88 119 61
-0.320161 0.086724 0.0910414 87 121 62
-0.320357 0.0882759 0.0909197 87 124 65
-0.320276 0.0896766 0.0910608 88 128 68
-0.320196 0.0910783 0.0912021 88 126 67
-0.320115 0.0924809 0.0913434 85 116 65
-0.320311 0.0940459 0.0912223 79 101 63
-0.285552 -0.0253861 0.11828 166 227 114
-0.284728 -0.0243407 0.119138 171 234 118
-0.284665 -0.0232557 0.119247 167 231 119
-0.284602 -0.0221699 0.119357 151 217 110
-0.28454 -0.0210834 0.119466 127 196 97
-0.284477 -0.0199962 0.119575 125 195 93
-0.284414 -0.0189083 0.119685 144 209 103
-0.283973 -0.0178545 0.120165 163 225 114
-0.283911 -0.0167673 0.120274 171 231 117
-0.283472 -0.0157185 0.120752 172 230 116
-0.282105 -0.0147756 0.122139 169 229 115
-0.281858 -0.0137175 0.122428 168 228 116
-0.281612 -0.0126609 0.122717 168 225 115
-0.281549 -0.0115822 0.122826 168 225 114
-0.302893 0.0120377 0.102839 143 206 109
-0.302132 0.0131015 0.103635 136 193 106
-0.302752 0.0144931 0.103086 130 181 108
-0.303376 0.015895 0.102533 125 175 106
-0.304473 0.0174271 0.10152 125 172 92
-0.305108 0.0188538 0.100956 121 176 93
-0.305273 0.0201642 0.100851 123 180 97
-0.305438 0.0214784 0.100746 126 183 98
-0.305841 0.0228632 0.100409 126 185 97
-0.306247 0.0242553 0.100071 127 187 98
-0.306654 0.0256546 0.0997308 129 187 97
-0.306822 0.0269894 0.0996239 130 186 95
-0.306508 0.0281813 0.0999849 129 186 95
-0.305717 0.0292227 0.10081 128 186 95
-0.305168 0.0303329 0.101398 125 185 95
-0.304859 0.0315153 0.101755 125 185 96
-0.305023 0.0328519 0.101652 125 188 98
-0.320467 0.0645305 0.0878273 121 177 94
-0.320112 0.0657874 0.0882323 121 177 94
-0.320307 0.0672969 0.0881054 122 177 92
-0.32078 0.0689411 0.0877114 120 176 92
-0.322657 0.0712611 0.0859646 118 175 92
-0.322576 0.0726634 0.0861056 119 176 92
-0.322214 0.0739292 0.0865179 118 177 92
-0.321852 0.0751927 0.0869292 119 176 89
-0.321491 0.076454 0.0873396 119 173 88
-0.320853 0.0775717 0.0880169 115 168 87
-0.320495 0.0788272 0.0884246 112 165 85
-0.319861 0.0799367 0.0890969 111 161 84
-0.319781 0.0813317 0.0892371 108 156 80
-0.3197 0.0827277 0.0893775 101 147 75
-0.31962 0.0841247 0.0895179 96 140 72
-0.319539 0.0855226 0.0896584 95 138 72
-0.319734 0.0870741 0.0895344 92 135 71
-0.319929 0.0886304 0.0894101 91 131 68
-0.319848 0.0900348 0.0895513 89 127 68
-0.319767 0.0914401 0.0896926 85 118 65
-0.319686 0.0928464 0.089834 77 100 62
-0.284011 -0.0253955 0.118249 164 225 114
-0.283383 -0.0243435 0.118917 172 231 116
-0.28332 -0.0232617 0.119026 173 232 119
-0.283258 -0.0221792 0.119134 161 224 114
-0.283007 -0.02111 0.119428 134 204 100
-0.282571 -0.0200574 0.119906 122 195 91
-0.282508 -0.018976 0.120015 137 204 98
-0.281519 -0.0179798 0.12104 158 221 111
-0.281089 -0.0169388 0.121512 170 228 118
-0.281027 -0.0158629 0.12162 172 229 118
-0.280598 -0.0148268 0.122089 171 228 117
-0.279627 -0.0138576 0.123095 171 230 119
-0.279385 -0.0128092 0.123381 168 231 121
-0.278604 -0.0118314 0.124197 167 232 120
-0.278543 -0.0107648 0.124304 168 233 119
-0.278302 -0.00972258 0.124588 170 236 121
-0.27824 -0.00865559 0.124695 171 236 120
-0.278178 -0.00758788 0.124802 172 239 123
-0.279012 -0.0063773 0.124026 174 237 124
-0.30404 0.0137985 0.100032 128 175 104
-0.303968 0.0150393 0.100157 130 174 103
-0.304131 0.0163399 0.10005 126 174 104
-0.304294 0.0176442 0.0999441 122 174 92
-0.304458 0.0189524 0.0998376 126 176 92
-0.304622 0.0202645 0.0997309 125 181 96
-0.305023 0.0216457 0.0993912 126 185 98
-0.305188 0.0229672 0.0992839 126 186 97
-0.305592 0.0243612 0.0989421 126 188 99
-0.305758 0.0256922 0.0988341 128 185 97
-0.305685 0.0269552 0.0989607 127 189 97
-0.305134 0.0280729 0.0995554 127 187 98
-0.304586 0.0291863 0.100148 126 185 97
-0.304276 0.0303706 0.100506 127 187 98
-0.303497 0.0314003 0.101324 126 185 99
-0.303424 0.032656 0.10145 127 183 98
-0.319965 0.0662094 0.0864564 121 176 92
-0.319885 0.0675967 0.0865955 121 176 93
-0.322035 0.0700365 0.0845648 119 175 92
-0.322518 0.0717096 0.0841566 119 175 92
-0.322436 0.0731174 0.0842977 119 175 91
-0.322072 0.0743875 0.0847135 118 174 90
-0.321991 0.0757954 0.0848547 117 172 87
-0.321628 0.0770625 0.0852695 116 169 86
-0.320985 0.0781844 0.0859551 114 166 85
-0.320346 0.0793016 0.0866375 114 164 84
-0.319987 0.0805592 0.0870477 112 160 82
-0.319353 0.0816682 0.0877249 108 154 80
-0.319272 0.0830678 0.0878652 103 146 76
-0.319191 0.0844684 0.0880057 97 141 73
-0.319386 0.0860216 0.0878788 92 136 72
-0.319581 0.0875797 0.0877518 89 129 71
-0.319776 0.0891428 0.0876245 88 124 66
-0.319972 0.0907107 0.0874969 84 117 61
-0.31989 0.0921232 0.0876386 76 99 58
-0.282232 -0.0243355 0.118511 170 228 115
-0.281244 -0.0233147 0.119544 172 233 120
-0.280997 -0.0222526 0.119835 164 226 117
-0.280751 -0.0211919 0.120126 143 209 107
-0.280323 -0.0201475 0.120599 125 193 94
-0.279896 -0.0191066 0.12107 130 198 94
-0.279833 -0.0180353 0.121177 150 214 105
-0.27959 -0.0169814 0.121465 167 228 115
-0.279346 -0.0159288 0.121753 171 230 118
-0.278743 -0.0149176 0.122399 171 228 118
-0.277609 -0.0139745 0.123574 172 229 118
-0.27737 -0.0129333 0.123857 170 232 118
-0.277131 -0.0118933 0.124139 171 237 120
-0.27707 -0.0108309 0.124246 169 240 122
-0.277008 -0.00976772 0.124352 170 241 125
-0.276946 -0.00870383 0.124459 170 240 125
-0.27706 -0.00761209 0.124389 168 238 123
-0.277353 -0.00648917 0.124144 168 237 123
-0.278361 -0.00524255 0.123186 167 234 119
-0.304097 0.0140593 0.0982169 127 171 106
-0.303789 0.0152482 0.0985751 129 171 108
-0.303951 0.0165536 0.0984664 127 173 108
-0.304115 0.0178628 0.0983576 123 174 95
-0.304042 0.0191135 0.0984827 126 179 97
-0.304442 0.0204929 0.0981394 126 181 97
-0.304369 0.0217482 0.098265 125 184 97
-0.304533 0.0230715 0.0981559 129 186 97
-0.304698 0.0243986 0.0980466 129 186 98
-0.304624 0.0256594 0.0981727 129 184 97
-0.304313 0.0268495 0.0985338 125 185 97
-0.304003 0.0280377 0.0988942 129 185 96
-0.303694 0.029224 0.0992538 130 186 98
-0.30362 0.0304839 0.0993799 129 185 98
-0.303076 0.0315909 0.0999709 127 184 100
-0.322908 0.0680586 0.0816314 122 176 93
-0.321975 0.069073 0.0826085 120 176 93
-0.321893 0.0704808 0.0827493 120 175 93
-0.321811 0.0718895 0.0828903 120 175 94
-0.321729 0.0732992 0.0830313 121 174 92
-0.321365 0.0745708 0.0834489 120 173 89
-0.321002 0.0758402 0.0838655 116 171 87
-0.32092 0.0772493 0.0840065 113 168 86
-0.320558 0.0785156 0.0844221 114 165 84
-0.319918 0.0796349 0.0851096 113 163 83
-0.319558 0.0808954 0.0855225 109 158 82
-0.318923 0.0820064 0.0862049 106 152 79
-0.318566 0.0832611 0.0866149 101 144 75
-0.318485 0.0846636 0.0867553 94 139 73
-0.318954 0.0863716 0.0863563 89 132 71
-0.319426 0.0880893 0.0859555 86 125 67
-0.3199 0.0898166 0.0855527 80 116 62
-0.320377 0.0915537 0.085148 70 100 55
-0.275955 -0.0288152 0.123107 162 221 115
-0.275894 -0.0277723 0.123211 167 224 116
-0.280351 -0.0243703 0.118848 165 227 116
-0.27974 -0.0233322 0.119507 167 234 121
-0.279678 -0.0222615 0.119614 165 230 119
-0.279434 -0.021204 0.119904 152 216 112
-0.279009 -0.0201626 0.120375 130 195 98
-0.278586 -0.0191247 0.120845 125 194 92
-0.277985 -0.0181071 0.121493 141 206 98
-0.277745 -0.0170593 0.121779 161 223 109
-0.277682 -0.015994 0.121885 172 232 118
-0.27691 -0.0150074 0.122705 170 230 116
-0.276319 -0.0140073 0.123343 170 231 116
-0.275907 -0.0129907 0.123801 170 233 116
-0.275845 -0.0119321 0.123906 166 231 117
-0.275783 -0.0108727 0.124012 156 225 113
-0.275721 -0.00981259 0.124118 151 219 109
-0.275659 -0.00875176 0.124224 148 214 107
-0.275947 -0.0076362 0.123979 144 212 109
-0.276236 -0.00651548 0.123732 140 206 107
-0.276526 -0.00538955 0.123485 139 198 104
-0.277351 -0.0041663 0.122702 137 194 101
-0.30399 0.0130153 0.0964966 126 169 104
-0.303917 0.0142656 0.0966214 127 169 107
-0.303844 0.0155168 0.0967463 132 172 113
-0.30377 0.0167688 0.0968713 128 174 116
-0.303697 0.0180217 0.0969963 130 175 100
-0.303624 0.0192754 0.0971214 128 182 100
-0.303787 0.0205941 0.0970105 126 183 97
-0.303714 0.021851 0.097136 126 185 98
-0.30364 0.0231087 0.0972615 128 186 100
-0.303566 0.0243673 0.0973871 129 185 98
-0.303493 0.0256268 0.0975128 130 185 99
-0.303419 0.0268871 0.0976386 129 183 99
-0.303345 0.0281483 0.0977645 126 185 101
-0.303272 0.0294103 0.0978904 129 184 101
-0.322484 0.0683663 0.0800741 125 175 93
-0.321833 0.0695152 0.0807787 123 175 94
-0.321467 0.0707937 0.0812001 123 174 94
-0.321102 0.07207 0.0816206 120 175 93
-0.320738 0.0733439 0.0820401 119 174 91
-0.320375 0.0746156 0.0824586 120 172 89
-0.320013 0.075885 0.0828761 119 171 88
-0.319931 0.0772942 0.0830168 115 170 89
-0.319848 0.0787043 0.0831575 114 167 89
-0.319487 0.0799699 0.0835739 113 163 87
-0.319127 0.0812332 0.0839894 109 158 83
-0.318767 0.0824944 0.0844039 103 150 78
-0.318409 0.0837533 0.0848175 96 140 75
-0.318327 0.0851612 0.084958 91 131 71
-0.318797 0.0868771 0.0845527 88 126 66
-0.318992 0.0884464 0.0844199 83 119 64
-0.319187 0.0900206 0.0842869 72 104 60
-0.273609 -0.0309098 0.123896 110 153 76
-0.273718 -0.0298736 0.123826 142 193 95
-0.273658 -0.0288406 0.123928 161 217 111
-0.273088 -0.0278275 0.124549 168 223 115
-0.273366 -0.0267803 0.124307 169 224 115
-0.278015 -0.0254991 0.119623 167 224 116
-0.278132 -0.0244257 0.119546 166 224 117
-0.27807 -0.0233611 0.119652 168 229 118
-0.278007 -0.0222957 0.119758 171 232 119
-0.277945 -0.0212296 0.119864 161 222 115
-0.277703 -0.0201776 0.120152 135 201 102
-0.276928 -0.0191741 0.120982 123 190 92
-0.276159 -0.018178 0.121804 135 199 98
-0.275922 -0.0171363 0.122088 158 216 109
-0.275509 -0.0161145 0.122549 168 230 118
-0.275447 -0.0150569 0.122654 170 230 116
-0.274863 -0.0140605 0.123289 168 229 116
-0.274628 -0.0130262 0.12357 162 225 114
-0.274566 -0.0119705 0.123675 150 212 109
-0.274677 -0.0108905 0.123604 138 200 104
-0.274615 -0.00983241 0.12371 129 189 101
-0.2749 -0.00872184 0.123464 127 184 94
-0.274837 -0.00766021 0.123569 125 181 93
-0.275473 -0.00648525 0.122968 125 178 94
-0.275411 -0.00541795 0.123075 125 177 93
-0.275348 -0.00434992 0.123181 122 177 94
-0.303173 0.0118022 0.0954811 124 167 105
-0.3031 0.0130517 0.0956055 126 169 105
-0.303026 0.0143021 0.09573 126 168 110
-0.302953 0.0155534 0.0958546 135 172 115
-0.303115 0.0168654 0.0957417 131 176 116
-0.303042 0.0181198 0.0958666 130 178 106
-0.303204 0.0194379 0.0957537 129 180 105
-0.302894 0.0206312 0.0961166 129 179 109
-0.30282 0.0218881 0.0962417 131 182 113
-0.302747 0.023146 0.096367 130 181 114
-0.302438 0.0243361 0.096729 128 179 116
-0.302364 0.0255942 0.0968543 130 179 118
-0.302525 0.0269246 0.0967432 134 178 119
-0.321488 0.0684107 0.0790777 128 178 99
-0.320839 0.0695597 0.0797845 124 178 97
-0.320475 0.0708383 0.0802069 123 178 95
-0.320111 0.0721146 0.0806283 122 175 91
-0.319748 0.0733886 0.0810487 121 174 90
-0.319107 0.0745215 0.0817464 120 172 90
-0.319024 0.0759298 0.0818866 119 170 89
-0.318664 0.0771971 0.0823041 116 169 90
-0.318581 0.0786056 0.0824443 114 166 91
-0.318222 0.0798698 0.0828608 113 162 87
-0.318139 0.0812784 0.083001 110 156 82
-0.318056 0.082688 0.0831414 103 146 76
-0.317974 0.0840986 0.0832818 96 137 72
-0.318167 0.0856626 0.0831469 90 128 71
-0.318084 0.0870769 0.0832877 85 119 69
-0.318001 0.0884922 0.0834287 75 105 65
-0.272927 -0.0319128 0.12305 78 111 63
-0.272359 -0.0308937 0.123672 102 141 72
-0.27213 -0.0298702 0.123947 133 182 88
-0.27207 -0.0288421 0.124049 156 211 105
-0.271008 -0.0278543 0.125178 164 222 114
-0.271613 -0.0267996 0.124597 164 225 116
-0.272562 -0.0257181 0.123665 167 226 115
-0.275248 -0.0245215 0.120951 169 224 113
-0.276063 -0.0234126 0.120158 169 224 114
-0.276 -0.0223546 0.120263 166 226 116
-0.275938 -0.0212958 0.120368 159 221 115
-0.275349 -0.0202801 0.121012 145 208 108
-0.274938 -0.0192541 0.121474 139 196 101
-0.274528 -0.0182316 0.121935 150 203 102
-0.274293 -0.0171949 0.122217 164 219 112
-0.274231 -0.016141 0.122322 170 230 117
-0.273652 -0.0151449 0.122955 168 230 115
-0.27359 -0.0140927 0.12306 167 229 116
-0.273528 -0.0130398 0.123164 157 219 114
-0.273465 -0.0119862 0.123269 138 188 106
-0.273575 -0.0109083 0.123198 125 176 101
-0.273685 -0.00982742 0.123127 118 171 96
-0.273795 -0.00874374 0.123056 118 172 93
-0.274078 -0.0076302 0.122809 118 171 93
-0.27471 -0.00645504 0.122205 117 170 92
-0.274648 -0.00538763 0.122311 121 169 93
-0.274585 -0.00431952 0.122417 120 169 94
-0.301496 0.00913797 0.0952946 122 168 99
-0.301422 0.0103802 0.095418 125 168 100
-0.301815 0.0117306 0.0950669 125 169 103
-0.30221 0.0130881 0.0947143 126 172 105
-0.302136 0.0143386 0.0948385 131 168 110
-0.302062 0.01559 0.0949628 138 170 117
-0.302223 0.0169021 0.0948485 136 175 128
-0.302149 0.0181566 0.0949731 156 172 125
-0.30231 0.0194749 0.0948589 172 181 133
-0.302001 0.0206682 0.0952226 169 186 147
-0.301927 0.0219253 0.0953474 168 186 154
-0.301619 0.0231161 0.0957102 169 186 157
-0.301311 0.0243049 0.0960723 169 187 159
-0.301237 0.0255617 0.0961971 168 190 165
-0.320492 0.0684552 0.0780812 215 201 140
-0.271679 -0.0318939 0.122828 75 108 63
-0.270287 -0.0308971 0.124308 92 130 71
-0.270227 -0.0298766 0.124409 126 174 87
-0.270167 -0.0288553 0.12451 156 210 105
-0.269941 -0.0278402 0.124782 166 221 114
-0.270046 -0.0268108 0.124713 166 227 117
-0.27098 -0.0257346 0.123786 168 230 117
-0.271756 -0.024655 0.123022 168 229 117
-0.273738 -0.0234859 0.121013 165 228 118
-0.274194 -0.0224002 0.120582 164 226 117
-0.274132 -0.0213477 0.120686 164 225 115
-0.273724 -0.0203233 0.121147 162 227 116
-0.273318 -0.0193023 0.121607 161 228 118
-0.273255 -0.0182518 0.121711 164 228 118
-0.273022 -0.0172181 0.121992 166 228 120
-0.27296 -0.0161672 0.122096 168 230 119
-0.272556 -0.0151546 0.122552 168 232 116
-0.272494 -0.0141044 0.122656 168 229 119
-0.272602 -0.013032 0.122585 153 214 114
-0.27254 -0.0119793 0.122689 129 173 103
-0.272648 -0.0109023 0.122617 120 169 99
-0.272757 -0.00982243 0.122546 118 167 92
-0.272865 -0.00873974 0.122474 117 165 91
-0.273318 -0.00760018 0.122048 118 170 91
-0.273948 -0.00642481 0.12144 115 169 92
-0.274058 -0.0053279 0.121367 117 166 92
-0.29862 0.00749322 0.0964068 122 169 98
-0.299459 0.00892164 0.0955916 123 170 100
-0.300306 0.0103641 0.0947689 125 169 102
-0.300695 0.011713 0.0944165 127 170 103
-0.300854 0.0130136 0.0943014 126 173 109
-0.301246 0.0143751 0.0939468 131 168 112
-0.301172 0.0156265 0.0940708 140 170 125
-0.301097 0.0168789 0.0941949 161 180 152
-0.301257 0.0181934 0.0940795 168 185 168
-0.318852 0.0696487 0.0777957 189 204 188
-0.269613 -0.0318896 0.123471 74 106 64
-0.268572 -0.0308927 0.124595 87 122 69
-0.268511 -0.029878 0.124695 121 169 86
-0.268776 -0.028851 0.124456 158 214 110
-0.268716 -0.027833 0.124557 174 233 125
-0.268655 -0.0268143 0.124657 176 237 128
-0.269413 -0.0257509 0.123905 177 237 126
-0.270677 -0.0246468 0.122625 178 238 126
-0.27095 -0.0235911 0.122378 175 235 124
-0.271224 -0.0225305 0.122131 175 235 123
-0.271162 -0.0214913 0.122234 177 236 123
-0.271101 -0.0204514 0.122337 172 236 122
-0.271039 -0.0194108 0.122439 170 235 120
-0.270977 -0.0183695 0.122542 172 234 122
-0.271083 -0.0173103 0.122471 171 236 123
-0.271021 -0.0162666 0.122574 170 234 121
-0.270791 -0.0152414 0.122852 169 235 122
-0.270729 -0.0141973 0.122955 162 227 120
-0.271003 -0.0131098 0.122709 145 201 111
-0.271278 -0.0120174 0.122462 126 166 101
-0.271384 -0.0109435 0.12239 118 168 97
-0.271322 -0.00989141 0.122494 117 165 92
-0.271938 -0.00873573 0.121893 115 167 91
-0.272559 -0.00757015 0.121287 115 164 92
-0.273185 -0.00639457 0.120676 117 165 91
-0.273467 -0.00526805 0.120422 118 165 92
-0.29699 0.00489218 0.0962211 120 167 96
-0.297591 0.00625378 0.0956424 121 164 100
-0.297744 0.00752864 0.0955296 122 167 102
-0.298124 0.00885718 0.0951817 125 170 102
-0.298505 0.0101926 0.0948322 124 170 104
-0.299347 0.0116419 0.0940059 128 170 107
-0.299734 0.0129947 0.0936514 128 173 112
-0.299891 0.0142978 0.0935353 133 169 119
-0.300281 0.0156631 0.0931787 154 171 138
-0.300206 0.0169156 0.0933025 171 178 164
-0.266936 -0.0318967 0.12478 74 105 67
-0.266875 -0.0308884 0.124879 89 119 70
-0.267136 -0.0298699 0.124641 123 165 88
-0.267558 -0.028841 0.124233 146 203 105
-0.267497 -0.0278258 0.124333 149 214 111
-0.267598 -0.0268022 0.124263 153 219 117
-0.268676 -0.0257231 0.123167 159 223 120
-0.269934 -0.0246186 0.12188 163 227 122
-0.269872 -0.0235848 0.121982 166 230 123
-0.269977 -0.0225383 0.12191 169 233 124
-0.269915 -0.021502 0.122012 170 235 125
-0.269853 -0.0204651 0.122114 171 238 126
-0.269791 -0.0194275 0.122216 177 240 126
-0.269896 -0.018373 0.122144 180 240 127
-0.269834 -0.017333 0.122246 174 237 126
-0.269772 -0.0162922 0.122349 167 231 122
-0.26971 -0.0152508 0.122452 158 222 117
-0.269814 -0.0141884 0.12238 145 205 111
-0.269918 -0.0131232 0.122308 129 181 104
-0.27019 -0.0120329 0.12206 120 166 98
-0.270463 -0.0109375 0.121812 116 165 96
-0.271584 -0.00971326 0.120674 115 164 92
-0.272766 -0.00630744 0.119551 118 163 93
-0.292969 -0.00176977 0.0984266 116 167 94
-0.295302 0.00353207 0.0961581 120 166 94
-0.29523 0.00474741 0.0962779 121 164 97
-0.296268 0.00619553 0.0952352 123 165 99
-0.296419 0.00746755 0.0951219 124 164 103
-0.296795 0.00879303 0.0947735 125 169 103
-0.297625 0.0102284 0.0939503 126 170 104
-0.297551 0.0114647 0.0940722 128 170 108
-0.29816 0.0128658 0.093481 129 169 115
-0.298543 0.0142208 0.0931256 150 169 133
-0.298698 0.0155248 0.0930087 165 179 158
-0.266269 -0.0328774 0.123953 77 107 67
-0.265416 -0.031884 0.124894 75 104 67
-0.265356 -0.0308804 0.124992 89 117 68
-0.26577 -0.0298618 0.124587 113 152 79
-0.266187 -0.0288368 0.12418 124 177 90
-0.266286 -0.0278186 0.12411 124 181 92
-0.266706 -0.0267824 0.123701 127 183 93
-0.267776 -0.0257041 0.122601 132 187 96
-0.269026 -0.0246005 0.121311 135 191 100
-0.268964 -0.0235676 0.121413 137 195 102
-0.268902 -0.022534 0.121514 140 200 102
-0.26884 -0.0214997 0.121616 142 204 103
-0.268943 -0.0204507 0.121543 144 208 107
-0.269046 -0.0193989 0.12147 149 212 112
-0.268984 -0.0183604 0.121572 150 210 113
-0.268922 -0.0173213 0.121674 148 207 110
-0.269025 -0.0162633 0.121601 141 203 107
-0.268797 -0.015241 0.121879 137 194 103
-0.268735 -0.0141997 0.121981 135 181 101
-0.269003 -0.0131153 0.121733 123 168 103
-0.269439 -0.0120035 0.121309 120 164 98
-0.292186 -0.00293094 0.0974533 119 164 94
-0.292115 -0.00173581 0.0975708 117 165 95
-0.294215 0.00352351 0.0955217 120 167 96
-0.294142 0.00473757 0.0956411 120 166 99
-0.294951 0.00613758 0.0948297 123 168 100
-0.295322 0.00745477 0.0944815 122 169 102
-0.295471 0.00872916 0.0943671 125 167 104
-0.295845 0.0100584 0.0940168 126 167 107
-0.295995 0.0113418 0.0939017 129 171 117
-0.296145 0.012629 0.0937863 155 167 133
-0.296522 0.0139758 0.0934333 165 179 160
-0.264753 -0.0328601 0.124071 75 106 65
-0.264379 -0.0318628 0.124505 74 106 64
-0.264476 -0.0308572 0.124435 85 121 65
-0.264572 -0.0298491 0.124366 102 145 73
-0.264984 -0.0288268 0.123959 111 159 80
-0.265398 -0.027798 0.12355 112 163 83
-0.265496 -0.0267781 0.123479 112 165 84
-0.267039 -0.0256763 0.121863 113 165 85
-0.268119 -0.0245824 0.120743 116 167 85
-0.268057 -0.0235504 0.120844 117 169 86
-0.267994 -0.0225177 0.120945 117 172 87
-0.267932 -0.0214844 0.121047 119 175 89
-0.268034 -0.0204362 0.120973 122 176 91
-0.268301 -0.0193702 0.120723 126 178 91
-0.268238 -0.0183317 0.120825 128 180 93
-0.268176 -0.0172925 0.120927 128 179 95
-0.268113 -0.0162526 0.121029 125 177 96
-0.268051 -0.015212 0.121131 127 174 97
-0.267988 -0.0141707 0.121233 131 170 103
-0.26842 -0.0130648 0.120807 123 165 101
-0.29176 -0.00282565 0.0961408 120 164 93
-0.291688 -0.00162776 0.0962583 116 164 96
-0.293567 0.00360171 0.0944208 121 167 97
-0.293494 0.00481725 0.09454 122 166 100
-0.29386 0.00612625 0.0941919 124 167 101
-0.294007 0.00739405 0.0940773 123 168 105
-0.294154 0.00866557 0.0939624 127 169 115
-0.294302 0.00994083 0.0938474 150 165 127
-0.294228 0.0111674 0.0939677 163 177 145
-0.294375 0.0124487 0.0938527 166 184 169
-0.263874 -0.0328352 0.123515 73 105 65
-0.263657 -0.031836 0.123781 75 107 65
-0.263597 -0.0308341 0.12388 88 126 68
-0.263848 -0.029822 0.123641 102 148 75
-0.264258 -0.0287996 0.123232 108 155 80
-0.264512 -0.0277774 0.122991 108 155 81
-0.264608 -0.0267584 0.122919 108 157 82
-0.265981 -0.0256663 0.121472 109 159 81
-0.266888 -0.0245843 0.120527 111 160 81
-0.267151 -0.0235332 0.120277 112 160 81
-0.267089 -0.0225015 0.120378 111 161 82
-0.267026 -0.021469 0.120479 112 162 82
-0.267127 -0.0204218 0.120404 113 164 84
-0.267391 -0.0193568 0.120153 116 167 87
-0.267493 -0.018303 0.120078 118 168 90
-0.26743 -0.0172637 0.12018 119 171 91
-0.267367 -0.0162237 0.120281 121 170 94
-0.267304 -0.015183 0.120383 124 167 99
-0.29343 0.00254854 0.092727 121 166 97
-0.293137 0.00372373 0.093082 119 166 102
-0.293064 0.00494214 0.0932012 121 165 106
-0.29299 0.00616136 0.0933205 131 165 117
-0.292916 0.00738142 0.0934399 154 163 125
-0.293062 0.00865158 0.0933242 163 180 148
-0.292988 0.00987469 0.0934439 164 181 168
-0.292914 0.0110986 0.0935636 167 178 167
-0.262935 -0.0318091 0.123058 79 108 65
-0.26303 -0.0308033 0.122987 92 129 69
-0.26328 -0.0297901 0.122746 102 147 76
-0.263688 -0.0287666 0.122334 105 151 78
-0.263941 -0.0277433 0.12209 106 152 77
-0.264037 -0.0267231 0.122018 107 154 79
-0.264767 -0.0256651 0.121256 107 156 80
-0.265986 -0.0245663 0.119961 108 157 81
-0.266086 -0.0235271 0.119886 109 158 82
-0.266185 -0.0224853 0.119811 108 159 81
-0.266284 -0.0214407 0.119735 110 159 81
-0.266384 -0.0203934 0.11966 112 160 83
-0.266484 -0.0193433 0.119584 114 164 86
-0.266747 -0.0182743 0.119331 116 167 90
-0.266684 -0.0172349 0.119432 117 167 92
-0.292998 0.00266849 0.09138 125 164 115
-0.292486 0.00380243 0.0919743 140 164 121
-0.292194 0.00497716 0.09233 154 171 131
-0.29212 0.00619647 0.092449 158 178 157
-0.291828 0.00736882 0.0928039 166 183 170
-0.263554 -0.0307451 0.120893 101 132 70
-0.263492 -0.0297337 0.120991 103 146 76
-0.263431 -0.0287217 0.12109 103 150 77
-0.263369 -0.027709 0.121188 103 151 77
-0.263622 -0.02668 0.120942 104 153 77
-0.264033 -0.0256374 0.120521 106 155 77
-0.264926 -0.0245583 0.119573 107 156 79
-0.265345 -0.023499 0.119144 107 156 80
-0.265283 -0.0224691 0.119245 108 158 81
-0.265381 -0.0214254 0.119168 109 157 82
-0.265479 -0.020379 0.119092 110 159 83
-0.265578 -0.0193299 0.119016 113 162 86
-0.265838 -0.0182618 0.118762 117 164 90
-0.291833 0.00388132 0.090864 163 179 164
-0.291323 0.00501217 0.0914586 170 176 160
-0.263077 -0.0296966 0.119914 105 150 77
-0.263015 -0.0286826 0.120012 103 151 78
-0.262953 -0.0276678 0.120111 103 152 79
-0.263047 -0.0266445 0.120036 103 153 79
-0.2633 -0.0256097 0.119786 105 153 79
-0.264188 -0.0245303 0.118833 107 154 79
-0.264605 -0.0234709 0.118403 110 154 80
-0.264542 -0.0224409 0.118503 110 154 81
-0.264479 -0.0214102 0.118603 108 156 81
-0.264737 -0.0203506 0.118348 108 158 82
-0.264834 -0.0193013 0.118271 113 162 86
