ply
format ascii 1.0
element vertex 1184
property float x
property float y
property float z
property uchar diffuse_red
property uchar diffuse_green
property uchar diffuse_blue
end_header
-0.275653 0.0668605 0.0635106 55 112 115
-0.275564 0.0681884 0.0636321 56 117 121
-0.275475 0.0695173 0.0637537 59 117 122
-0.275387 0.070847 0.0638754 69 121 130
-0.275298 0.0721777 0.0639971 111 150 153
-0.275209 0.0735093 0.064119 162 181 173
-0.275703 0.0619462 0.0612328 76 92 99
-0.275404 0.0631579 0.0616407 53 88 93
-0.275105 0.0643677 0.0620478 49 93 98
-0.275016 0.0656955 0.062169 50 99 103
-0.275137 0.067146 0.0620047 51 106 110
-0.275048 0.0684772 0.0621261 55 112 116
-0.274959 0.0698094 0.0622477 61 116 121
-0.274869 0.0711424 0.0623694 84 127 133
-0.274571 0.0723481 0.0627761 131 159 159
-0.274481 0.0736815 0.0628977 168 187 179
-0.274766 0.061988 0.060295 63 87 91
-0.274677 0.0633172 0.060416 50 91 94
-0.274378 0.0645283 0.0608247 48 96 100
-0.274289 0.0658578 0.0609457 49 101 105
-0.274409 0.0673104 0.0607794 51 106 110
-0.274319 0.0686433 0.0609007 56 112 116
-0.274229 0.0699772 0.0610221 67 119 124
-0.27414 0.0713119 0.0611436 105 141 144
-0.273841 0.072519 0.0615519 154 173 168
-0.274337 0.0609307 0.058656 76 90 96
-0.274038 0.0621459 0.0590674 52 88 91
-0.273739 0.0633591 0.0594777 48 93 97
-0.27365 0.0646893 0.0595985 48 98 102
-0.27356 0.0660205 0.0597193 49 104 107
-0.273679 0.0674752 0.0595511 52 108 112
-0.273798 0.0689343 0.0593825 57 114 119
-0.273707 0.0702714 0.0595038 77 125 130
-0.273408 0.0714818 0.0599147 123 154 153
-0.27311 0.0726903 0.0603247 161 183 174
-0.324538 -0.00140873 -0.0134976 107 104 98
-0.322406 -0.000105779 -0.0105231 96 83 81
-0.320424 0.004418 -0.00777226 127 83 73
-0.273488 0.0596417 0.0575956 100 102 104
-0.273398 0.0609725 0.057716 62 85 89
-0.273099 0.0621877 0.0581282 49 91 92
-0.273009 0.0635188 0.0582487 48 96 99
-0.272919 0.0648507 0.0583692 48 101 105
-0.273037 0.0663049 0.0581987 50 106 110
-0.273155 0.0677636 0.0580279 54 111 115
-0.273065 0.0691015 0.058149 63 118 123
-0.272974 0.0704404 0.0582702 97 138 141
-0.272675 0.0716522 0.0586828 145 167 163
-0.272377 0.072862 0.0590944 167 182 175
-0.321363 -0.00166488 -0.0118219 129 132 124
-0.319932 -0.000268296 -0.00981307 111 104 102
-0.319496 0.00127339 -0.0092067 97 70 71
-0.317549 0.00575718 -0.00648666 121 84 78
-0.312922 0.00804242 2.4069e-05 152 100 86
-0.272639 0.0583533 0.0565357 85 90 97
-0.272549 0.0596833 0.0566558 66 83 91
-0.272458 0.0610142 0.0567759 51 85 91
-0.272368 0.0623461 0.0568962 49 92 96
-0.272277 0.0636788 0.0570165 50 99 102
-0.272187 0.0650126 0.0571369 50 105 108
-0.272304 0.0664688 0.0569644 52 108 113
-0.272213 0.067806 0.0570851 56 113 118
-0.272122 0.069144 0.0572059 79 125 130
-0.272031 0.070483 0.0573268 125 154 154
-0.27194 0.0718229 0.0574477 162 180 174
-0.319551 -0.00171944 -0.0120369 142 146 141
-0.318461 -0.000275161 -0.0104961 126 126 124
-0.317703 0.00121076 -0.00942864 99 84 87
-0.313461 0.00683352 -0.00343511 122 80 70
-0.311501 0.0080245 -0.000655593 145 95 80
-0.309273 0.00913303 0.00250388 163 105 92
-0.271998 0.0571761 0.0551813 71 65 72
-0.2717 0.0583948 0.0555961 58 70 72
-0.271609 0.059725 0.0557158 51 81 85
-0.271519 0.061056 0.0558357 47 89 94
-0.271428 0.062388 0.0559556 48 93 99
-0.271337 0.0637208 0.0560756 50 100 106
-0.271246 0.0650546 0.0561957 52 106 111
-0.271362 0.0665111 0.0560217 55 110 115
-0.27127 0.0678483 0.0561421 63 116 125
-0.271179 0.0691865 0.0562626 104 141 144
-0.271088 0.0705256 0.0563831 156 175 168
-0.316671 -0.000333319 -0.010714 137 141 138
-0.31592 0.00114854 -0.00964947 112 108 107
-0.313909 0.00240287 -0.0067753 101 73 70
-0.30978 0.00794488 -0.000897804 139 89 75
-0.308171 0.00917682 0.00139988 159 102 88
-0.305009 0.0334418 0.00573459 209 125 103
-0.304903 0.0349868 0.00587332 189 107 92
-0.271149 0.0558876 0.0541213 66 53 53
-0.271058 0.0572176 0.0542407 58 56 52
-0.270761 0.0584364 0.0546563 55 66 64
-0.27067 0.0597666 0.0547757 51 79 81
-0.270579 0.0610978 0.0548952 48 90 92
-0.270488 0.0624298 0.0550148 48 95 99
-0.270397 0.0637628 0.0551345 50 100 106
-0.270306 0.0650968 0.0552543 52 106 112
-0.270214 0.0664316 0.0553742 56 111 116
-0.270328 0.0678907 0.055199 78 121 127
-0.270236 0.069229 0.0553191 126 154 153
-0.270145 0.0705683 0.0554394 168 188 177
-0.312889 0.000875809 -0.00804582 133 131 128
-0.312158 0.00233798 -0.00700182 108 91 92
-0.311122 0.00373644 -0.00551701 100 69 67
-0.308369 0.00792721 -0.00157357 135 86 73
-0.307069 0.00922064 0.00029572 155 100 86
-0.304118 0.0132226 0.00452696 198 124 107
-0.303908 0.0334873 0.00463244 199 112 96
-0.303802 0.0350325 0.00477078 188 104 91
-0.270506 0.0547074 0.0527634 60 51 50
-0.270209 0.0559289 0.0531808 53 50 44
-0.269913 0.0571485 0.0535973 54 52 44
-0.269822 0.0584779 0.0537164 57 59 54
-0.269527 0.0596947 0.0541319 57 70 70
-0.269435 0.0610244 0.0542509 55 85 86
-0.269548 0.0624717 0.054074 53 96 97
-0.269456 0.0638048 0.0541934 53 101 105
-0.269365 0.0651389 0.0543128 55 108 111
-0.269273 0.0664738 0.0544323 59 112 116
-0.269385 0.0679331 0.0542557 89 122 122
-0.269293 0.0692716 0.0543755 139 156 150
-0.269202 0.0706109 0.0544955 165 187 177
-0.311141 0.00081529 -0.00826842 146 148 145
-0.310109 0.00221944 -0.00677854 123 117 118
-0.309391 0.00366831 -0.00574609 99 79 79
-0.30726 0.00797113 -0.00268388 130 83 71
-0.305671 0.00920139 -0.000377398 151 99 85
-0.302741 0.0131984 0.00385532 193 122 106
-0.302913 0.0319887 0.00339221 207 131 114
-0.302807 0.0335329 0.00353011 196 116 99
-0.302701 0.0350782 0.0036681 190 107 94
-0.269862 0.0535251 0.0514029 72 50 52
-0.269361 0.054641 0.0521216 49 48 47
-0.269269 0.0559703 0.0522403 48 47 44
-0.268974 0.0571899 0.0526576 51 49 45
-0.26868 0.0584075 0.053074 56 55 49
-0.268588 0.0597364 0.0531926 62 62 58
-0.268496 0.0610661 0.0533114 64 77 73
-0.268405 0.0623969 0.0534302 61 88 87
-0.268516 0.0638469 0.053252 58 95 96
-0.268424 0.065181 0.0533712 59 101 104
-0.268332 0.0665161 0.0534904 61 104 107
-0.268443 0.0679755 0.0533123 77 107 108
-0.26835 0.0693141 0.0534318 119 140 138
-0.268258 0.0706535 0.0535514 159 186 178
-0.308381 0.00215562 -0.00700376 139 145 136
-0.30767 0.0036006 -0.00597405 109 103 101
-0.306663 0.00498078 -0.00450926 94 68 68
-0.304969 0.00776971 -0.0020501 126 82 71
-0.304277 0.00918222 -0.00104881 149 100 84
-0.301368 0.0131742 0.00318539 191 120 106
-0.301346 0.0303056 0.00299929 226 143 120
-0.301526 0.0319392 0.0027138 200 121 106
-0.301419 0.0334814 0.00285113 188 114 97
-0.26892 0.0535663 0.0504606 60 45 46
-0.268421 0.0546823 0.0511812 45 46 41
-0.268127 0.0559026 0.0515994 44 45 41
-0.267833 0.0571209 0.0520166 47 47 44
-0.267741 0.058449 0.0521349 51 53 47
-0.267649 0.059778 0.0522532 59 59 54
-0.267557 0.0611079 0.0523717 64 66 64
-0.267465 0.0624387 0.0524902 66 73 72
-0.267373 0.0637705 0.0526088 69 79 79
-0.267281 0.0651031 0.0527274 67 82 86
-0.26739 0.0665583 0.0525483 62 80 86
-0.2675 0.068018 0.0523687 72 83 93
-0.267407 0.0693566 0.052488 111 125 131
-0.267315 0.0706962 0.0526072 162 186 177
-0.305661 0.00347792 -0.00575811 133 130 129
-0.303788 0.00468263 -0.00299245 106 87 93
-0.303973 0.00627579 -0.00329094 101 68 69
-0.303284 0.00769165 -0.00228657 122 83 70
-0.302598 0.00910048 -0.00128781 148 100 82
-0.299156 0.0129484 0.00377139 188 118 103
-0.299965 0.0302586 0.00232357 211 137 115
-0.300142 0.0318899 0.00203717 187 102 88
-0.267776 0.0535011 0.0498208 53 42 37
-0.267482 0.0547236 0.0502407 44 42 35
-0.267188 0.0559439 0.0506597 44 42 38
-0.266895 0.0571623 0.0510777 45 45 42
-0.266803 0.0584905 0.0511957 48 49 44
-0.266711 0.0598196 0.0513137 56 57 52
-0.266618 0.0611496 0.0514318 63 63 60
-0.266526 0.0624806 0.05155 65 65 64
-0.266434 0.0638124 0.0516683 66 67 65
-0.266341 0.0651452 0.0517866 66 68 67
-0.266449 0.0666006 0.051606 65 68 70
-0.266557 0.0680604 0.0514251 71 77 85
-0.266464 0.0693991 0.0515439 111 123 131
-0.266371 0.0707388 0.0516629 165 185 173
-0.301533 0.00450106 -0.00236103 128 119 125
-0.302291 0.00620185 -0.00352367 107 81 86
-0.301608 0.00761403 -0.00252183 119 80 71
-0.301214 0.00908155 -0.00195538 144 97 83
-0.297521 0.012858 0.00352202 188 118 102
-0.298413 0.0285882 0.00193619 224 143 118
-0.298587 0.0302117 0.0016496 190 125 110
-0.268331 0.0501708 0.04669 178 111 100
-0.267332 0.052423 0.048153 64 41 41
-0.266634 0.0534361 0.0491823 48 39 35
-0.266542 0.0547648 0.0493 46 39 33
-0.266249 0.0559853 0.0497198 43 39 36
-0.266156 0.0573143 0.0498375 43 43 39
-0.265864 0.058532 0.0502563 46 45 42
-0.265772 0.0598613 0.050374 53 52 48
-0.265679 0.0611914 0.0504918 60 60 56
-0.265786 0.0626393 0.0503091 62 62 60
-0.265693 0.0639729 0.0504272 62 62 61
-0.2656 0.0653074 0.0505454 63 64 61
-0.265706 0.0667649 0.0503627 64 65 64
-0.265613 0.0681028 0.0504812 65 72 81
-0.26552 0.0694417 0.0505998 95 111 123
-0.265427 0.0707815 0.0507184 162 177 165
-0.300154 0.00448832 -0.00302522 144 153 146
-0.299764 0.00595416 -0.00246017 121 114 113
-0.299941 0.00753686 -0.00275599 119 81 79
-0.298986 0.00887656 -0.00133461 138 94 82
-0.295894 0.0127681 0.00327386 188 119 101
-0.296764 0.0284545 0.00168648 219 141 116
-0.297213 0.0301649 0.000977358 182 109 102
-0.298143 0.0415636 -0.000625752 141 81 71
-0.298035 0.0431169 -0.000488572 134 79 70
-0.297644 0.0445583 7.67853e-05 128 71 65
-0.297255 0.0459967 0.000640616 122 66 58
-0.297147 0.0475489 0.000777691 121 64 59
-0.267682 0.0489772 0.0453145 201 120 103
-0.266776 0.0499037 0.0466674 147 83 84
-0.266482 0.0511324 0.0470918 85 46 50
-0.265987 0.052254 0.0478202 51 37 36
-0.265694 0.0534773 0.0482418 44 37 32
-0.265402 0.0546985 0.0486625 43 35 31
-0.26531 0.0560266 0.0487798 40 36 33
-0.265217 0.0573557 0.0488972 41 39 36
-0.265323 0.0587982 0.0487118 46 42 38
-0.26523 0.0601307 0.0488294 51 48 44
-0.265137 0.0614641 0.0489472 56 55 52
-0.265043 0.0627985 0.049065 60 59 56
-0.26495 0.0641338 0.049183 59 59 58
-0.264857 0.06547 0.049301 59 61 60
-0.264763 0.0668072 0.0494191 62 64 62
-0.26467 0.0681452 0.0495372 66 74 80
-0.264576 0.0694842 0.0496555 95 115 127
-0.264483 0.0708242 0.0497738 158 181 172
-0.296441 0.00553949 -0.000141097 140 138 131
-0.297723 0.00734073 -0.00213138 120 94 94
-0.296782 0.00867385 -0.000720998 132 92 79
-0.294276 0.0126787 0.00302695 185 118 101
-0.294577 0.0281448 0.00227592 216 140 117
-0.295567 0.0300269 0.000729816 182 98 93
-0.29674 0.0335665 -0.00112563 171 99 89
-0.296911 0.0352073 -0.00141825 163 92 84
-0.297083 0.0368538 -0.00171157 153 85 73
-0.297255 0.0385061 -0.00200567 140 81 71
-0.29771 0.0402712 -0.0027332 128 72 65
-0.297319 0.0417188 -0.00216359 116 63 55
-0.29721 0.0432745 -0.00202659 106 59 53
-0.29682 0.0447179 -0.00145859 99 56 49
-0.296152 0.0460433 -0.000463919 100 52 46
-0.265926 0.048613 0.0456059 194 118 99
-0.265632 0.0498424 0.0460311 137 80 76
-0.265339 0.0510698 0.0464554 69 48 47
-0.265047 0.0522951 0.0468788 45 41 35
-0.264755 0.0535184 0.0473012 40 38 32
-0.264463 0.0547397 0.0477227 38 37 32
-0.26437 0.056068 0.0478397 39 37 32
-0.264475 0.0575081 0.0476526 41 36 31
-0.264382 0.0588398 0.0477698 44 41 35
-0.264486 0.0602868 0.0475826 45 46 42
-0.264393 0.061622 0.0477002 48 49 47
-0.264498 0.0630759 0.0475128 54 52 50
-0.264404 0.0644145 0.0476307 58 55 53
-0.264112 0.065633 0.0480535 59 61 59
-0.26382 0.0668495 0.0484753 63 67 65
-0.263727 0.0681877 0.0485931 80 82 82
-0.263633 0.0695268 0.048711 123 125 126
-0.263539 0.0708668 0.0488291 164 185 172
-0.29427 0.00535684 0.000461302 148 149 145
-0.293894 0.00679624 0.00101064 118 109 112
-0.294331 0.00841299 0.000305618 127 86 77
-0.292667 0.0125899 0.00278123 182 117 99
-0.292953 0.0280135 0.00202702 212 139 116
-0.293387 0.0297085 0.00132408 176 91 85
-0.294644 0.0316942 -0.000651946 160 90 80
-0.295641 0.0336119 -0.00222581 148 83 77
-0.29581 0.035253 -0.00252036 133 73 69
-0.29626 0.0370018 -0.0032478 118 64 54
-0.296711 0.0387617 -0.00397935 100 60 52
-0.297166 0.0405327 -0.00471498 91 52 50
-0.296493 0.0418745 -0.00370596 88 45 37
-0.296383 0.0434326 -0.00356914 85 47 35
-0.295157 0.0445386 -0.00170484 84 51 39
-0.295048 0.0460899 -0.0015686 89 53 44
-0.266896 0.0482262 0.0417266 170 105 93
-0.264784 0.0485532 0.0449711 182 111 94
-0.26469 0.0498834 0.0450879 136 91 84
-0.264398 0.0511109 0.045513 73 50 47
-0.264106 0.0523363 0.0459372 46 37 32
-0.263815 0.0535596 0.0463604 38 37 33
-0.263721 0.0548887 0.0464771 36 35 32
-0.263628 0.0562187 0.046594 36 35 32
-0.263731 0.0576608 0.0464048 39 36 31
-0.263835 0.0591073 0.0462153 41 38 35
-0.263939 0.0605583 0.0460254 41 41 41
-0.264044 0.0620136 0.0458352 45 45 44
-0.263949 0.0633547 0.045953 50 50 48
-0.263657 0.0645766 0.0463783 55 55 56
-0.263365 0.0657964 0.0468028 61 62 64
-0.263074 0.0670143 0.0472263 69 73 79
-0.262783 0.0682301 0.0476489 100 109 107
-0.262689 0.0695693 0.0477665 151 161 146
-0.292659 0.00528742 0.000223663 147 157 154
-0.292553 0.00678083 0.000354463 120 117 119
-0.292716 0.00833525 6.73402e-05 123 81 73
-0.291332 0.012567 0.00212388 183 115 98
-0.291604 0.0279702 0.00136253 206 137 112
-0.291765 0.0295729 0.00107733 156 76 73
-0.292465 0.0313662 -4.95934e-05 130 71 61
-0.293991 0.0334639 -0.00246644 112 61 56
-0.294709 0.0352986 -0.00362264 94 49 50
-0.295155 0.0370477 -0.0043536 87 46 37
-0.296164 0.0390187 -0.0059645 79 51 36
-0.296618 0.0407956 -0.00670827 78 49 40
-0.295663 0.0420307 -0.00525291 78 48 40
-0.295274 0.0434792 -0.00467954 77 48 40
-0.29433 0.0446979 -0.00324089 80 47 42
-0.294221 0.0462516 -0.00310481 85 51 44
-0.265537 0.048065 0.0414063 157 95 84
-0.26404 0.0486949 0.0437177 168 100 87
-0.263748 0.0499244 0.0441445 124 81 78
-0.263456 0.0511519 0.0445705 69 47 45
-0.263165 0.0523774 0.0449955 44 34 32
-0.262875 0.0536008 0.0454195 38 34 32
-0.262781 0.05493 0.0455359 36 33 32
-0.262883 0.0563697 0.0453451 33 34 32
-0.263183 0.0579257 0.0448453 37 35 33
-0.263286 0.0593762 0.0446531 41 37 35
-0.263588 0.0609469 0.04415 42 39 39
-0.263692 0.0624081 0.0439564 47 45 44
-0.263597 0.0637542 0.0440743 51 53 50
-0.263105 0.0648594 0.0448134 54 58 58
-0.262813 0.066082 0.0452404 62 70 71
-0.262325 0.0671794 0.0459742 89 112 107
-0.262034 0.0683967 0.0463984 148 169 151
-0.26194 0.0697376 0.0465159 166 178 172
-0.291588 0.00532976 -0.000849018 149 160 153
-0.291482 0.00682329 -0.000718583 124 121 117
-0.29111 0.00825793 -0.00016974 121 77 70
-0.29 0.0125442 0.0014682 180 113 98
-0.290258 0.0279271 0.000699777 195 130 105
-0.290417 0.0295277 0.000413646 126 56 59
-0.290842 0.0312259 -0.000293399 91 50 42
-0.291539 0.0330297 -0.00142793 84 43 33
-0.292786 0.0350468 -0.00342956 79 38 29
-0.295725 0.0377131 -0.00809778 76 37 32
-0.296461 0.0395976 -0.00929682 74 40 31
-0.29635 0.0411695 -0.00915955 75 43 35
-0.295956 0.0426308 -0.0085761 78 46 38
-0.294442 0.0436378 -0.00622841 78 49 43
-0.293501 0.0448577 -0.00478147 80 46 43
-0.293391 0.0464137 -0.00464557 85 47 37
-0.265788 0.0459159 0.038622 128 74 65
-0.265489 0.0471642 0.0390608 138 81 70
-0.264586 0.0481061 0.0404542 147 85 76
-0.263294 0.0488369 0.042461 142 88 76
-0.263002 0.0500679 0.0428897 101 61 51
-0.262711 0.0512968 0.0433173 57 39 34
-0.26242 0.0525237 0.043744 36 34 32
-0.26213 0.0537485 0.0441697 35 33 30
-0.262035 0.0550794 0.044286 38 33 29
-0.262333 0.0566314 0.0437832 38 34 32
-0.262632 0.0581919 0.043278 38 35 36
-0.263728 0.0602219 0.0415124 40 37 38
-0.264033 0.0618082 0.0409969 45 41 39
-0.263937 0.0631633 0.0411153 50 47 41
-0.263441 0.0642772 0.0418665 53 56 49
-0.262947 0.0653867 0.0426142 57 62 61
-0.262061 0.0662465 0.0439815 78 78 82
-0.26177 0.0674685 0.0444093 124 128 127
-0.261479 0.0686884 0.0448362 157 178 171
-0.290516 0.0053721 -0.00192186 153 162 148
-0.290146 0.00680787 -0.00137179 134 122 111
-0.29004 0.00830047 -0.0012418 123 74 71
-0.288672 0.0125215 0.000814137 177 116 98
-0.289024 0.0263761 -9.26385e-05 214 133 113
-0.28918 0.0279714 -0.000379924 187 123 100
-0.289601 0.029662 -0.00108865 114 44 50
-0.290292 0.0314559 -0.0022254 78 45 42
-0.290719 0.0331702 -0.00294413 78 44 33
-0.292507 0.03539 -0.00582769 78 42 30
-0.295454 0.0380734 -0.0105545 77 42 34
-0.296192 0.0399678 -0.0117698 76 43 34
-0.296364 0.0416574 -0.0120854 75 41 31
-0.296252 0.0432395 -0.0119476 77 40 30
-0.294725 0.0442495 -0.00955917 78 47 38
-0.293497 0.0453608 -0.00764571 80 49 40
-0.294502 0.0473966 -0.00928509 84 49 37
-0.26513 0.0447066 0.0372239 105 61 55
-0.264831 0.0459571 0.0376646 116 68 59
-0.264332 0.0471051 0.0384257 129 76 65
-0.263634 0.0481473 0.039502 141 82 69
-0.263141 0.0492849 0.0402542 115 67 62
-0.262255 0.0502117 0.0416316 75 41 42
-0.26216 0.0515464 0.0417478 46 31 30
-0.261673 0.0526703 0.0424893 33 29 28
-0.261578 0.0540036 0.0426055 32 30 26
-0.261483 0.0553379 0.0427217 36 33 27
-0.261976 0.0570055 0.0419002 38 35 30
-0.262869 0.0589141 0.0404397 39 36 33
-0.263372 0.060613 0.0396021 42 40 40
-0.263677 0.0622062 0.0390797 46 45 46
-0.26358 0.0635664 0.0391982 51 49 48
-0.263083 0.0646835 0.0399566 56 55 52
-0.262389 0.0656735 0.0410284 66 67 66
-0.262095 0.0669043 0.0414625 100 97 97
-0.261801 0.068133 0.0418956 152 150 139
-0.287347 0.0124988 0.000161763 175 114 98
-0.287947 0.0264203 -0.00117064 210 128 106
-0.288102 0.0280157 -0.00145979 184 118 96
-0.288519 0.0297066 -0.00217189 113 47 51
-0.289205 0.0315007 -0.00331354 80 50 43
-0.289362 0.0331199 -0.00360784 80 47 40
-0.290863 0.0352369 -0.0060593 81 40 33
-0.29518 0.0384368 -0.0130327 78 42 33
-0.295351 0.0401232 -0.0133506 76 41 37
-0.296379 0.0421509 -0.0150455 76 42 33
-0.296265 0.0437425 -0.0149072 75 43 32
-0.295296 0.0449859 -0.013394 76 45 36
-0.295183 0.0465727 -0.0132562 79 52 36
-0.263971 0.0446501 0.03659 76 53 44
-0.263674 0.0458993 0.0370305 94 59 52
-0.263377 0.0471464 0.0374701 116 68 58
-0.262882 0.0482898 0.0382296 119 73 61
-0.262389 0.0494285 0.0389854 89 50 45
-0.262095 0.0506665 0.0394202 53 31 30
-0.261803 0.0519024 0.039854 37 27 26
-0.261315 0.0530296 0.0406025 31 30 27
-0.261219 0.0543679 0.0407187 30 29 28
-0.261124 0.0557071 0.040835 33 27 28
-0.262011 0.0576069 0.0393676 33 30 29
-0.26271 0.0594155 0.0382043 37 34 29
-0.262813 0.0608895 0.0380002 43 37 34
-0.262916 0.062368 0.0377957 49 43 42
-0.262819 0.0637299 0.037914 56 50 50
-0.262522 0.0649703 0.0383546 62 61 63
-0.262226 0.0662087 0.0387943 88 81 77
-0.26193 0.0674449 0.0392329 147 112 102
-0.287131 0.0265497 -0.0026706 205 127 103
-0.287284 0.0281477 -0.00296258 180 118 93
-0.2877 0.0298414 -0.00368025 113 51 51
-0.288118 0.0315456 -0.00440186 81 55 45
-0.289338 0.0335487 -0.00642281 83 53 37
-0.289764 0.0352824 -0.00715912 80 44 31
-0.294056 0.0384836 -0.0141583 75 39 33
-0.295359 0.0406077 -0.0163178 76 38 34
-0.296393 0.0426503 -0.0180405 77 37 31
-0.297148 0.0446008 -0.0193109 73 39 33
-0.297033 0.04621 -0.0191716 75 40 35
-0.264623 0.0426625 0.033101 52 34 30
-0.263312 0.0434398 0.0351901 54 35 27
-0.263015 0.0446912 0.0356326 56 37 27
-0.262718 0.0459405 0.036074 68 36 28
-0.262224 0.0470874 0.0368374 81 51 40
-0.261929 0.048331 0.0372759 82 56 48
-0.261438 0.0494698 0.0380338 63 38 38
-0.261342 0.0508119 0.03815 45 28 29
-0.26105 0.0520492 0.0385856 35 28 25
-0.260953 0.0533916 0.0387018 32 30 26
-0.260857 0.0547348 0.0388181 32 29 29
-0.261154 0.0563005 0.0382961 34 27 29
-0.261848 0.0581019 0.0371272 35 29 29
-0.26195 0.0595734 0.0369213 38 33 29
-0.262052 0.0610495 0.0367151 45 39 33
-0.262154 0.0625301 0.0365084 56 51 46
-0.262056 0.0638939 0.0366265 91 68 64
-0.261959 0.0652586 0.0367447 139 92 82
-0.261861 0.0666242 0.036863 163 116 99
-0.286053 0.0265939 -0.00375043 200 123 103
-0.286464 0.02828 -0.00446973 174 111 90
-0.286878 0.0299766 -0.00519301 113 52 52
-0.288087 0.0319649 -0.00721711 85 55 46
-0.288776 0.0337877 -0.00839212 84 55 42
-0.289202 0.0355271 -0.00913649 82 48 35
-0.293211 0.0386367 -0.0157425 79 41 31
-0.296233 0.0414335 -0.0207354 76 43 29
-0.264261 0.0401757 0.0312346 54 41 35
-0.263756 0.0413465 0.0320186 47 36 32
-0.263053 0.0424172 0.0331293 50 36 27
-0.262155 0.0433849 0.0345587 49 36 30
-0.261859 0.0446349 0.0350011 48 36 30
-0.261762 0.0459816 0.0351174 53 34 26
-0.26127 0.0471286 0.0358828 55 34 30
-0.260976 0.0483722 0.0363221 54 34 35
-0.260487 0.049511 0.037082 47 30 30
-0.260391 0.0508533 0.0371979 40 28 25
-0.260294 0.0521964 0.0373139 36 27 24
-0.260394 0.0536482 0.0371089 34 29 25
-0.260493 0.0551044 0.0369035 35 28 27
-0.260987 0.056789 0.0360506 34 28 30
-0.261087 0.0582581 0.0358431 35 32 33
-0.261188 0.0597317 0.0356351 39 37 37
-0.261487 0.0613281 0.0351 47 46 45
-0.261589 0.0628128 0.0348905 75 63 62
-0.26169 0.0643022 0.0346806 132 91 85
-0.261592 0.065672 0.0347988 183 120 105
-0.2627 0.0678024 0.0329339 199 128 111
-0.281515 0.0861097 0.00181961 179 148 141
-0.281404 0.0876591 0.0019534 170 167 164
-0.285232 0.0267237 -0.00525637 195 123 101
-0.285902 0.0285012 -0.00641064 171 110 88
-0.287104 0.0304782 -0.00844379 109 52 53
-0.287789 0.0322938 -0.00962445 82 54 48
-0.288212 0.0340281 -0.0103728 84 53 42
-0.288637 0.0357733 -0.0111252 84 51 37
-0.263393 0.0388579 0.0301505 61 42 33
-0.262287 0.0397545 0.0319347 53 46 35
-0.262189 0.0411059 0.0320511 45 39 35
-0.261494 0.0421736 0.0331571 49 33 31
-0.261198 0.0434259 0.0336014 44 36 29
-0.260904 0.044676 0.0340446 40 33 28
-0.260413 0.0458253 0.0348122 40 30 28
-0.26012 0.0470697 0.0352525 39 30 26
-0.259633 0.0482109 0.0360145 40 30 27
-0.259342 0.0494497 0.0364519 36 26 27
-0.259439 0.0508947 0.0362456 32 27 26
-0.259537 0.052344 0.0360389 37 26 27
-0.259635 0.0537978 0.0358318 39 28 27
-0.259929 0.0553663 0.0352998 37 29 27
-0.260225 0.0569434 0.0347653 36 31 32
-0.260324 0.0584146 0.0345556 37 34 38
-0.260423 0.0598904 0.0343455 43 39 44
-0.260721 0.0614893 0.0338062 54 52 55
-0.260821 0.0629761 0.0335946 98 79 74
-0.261121 0.0645904 0.0330516 169 112 96
-0.262026 0.0665909 0.0315042 197 125 109
-0.280423 0.0861589 0.000726931 193 135 122
-0.280311 0.0877085 0.000860359 179 151 147
-0.2802 0.0892591 0.000993876 173 176 169
-0.263229 0.00214385 0.0290958 183 178 161
-0.263133 0.00346322 0.0292091 201 199 179
-0.263238 0.00483216 0.0289891 218 213 193
-0.263143 0.00615497 0.0291027 223 217 199
-0.262847 0.00742676 0.0295494 208 202 188
-0.262751 0.00874975 0.029663 193 172 157
-0.262655 0.0100736 0.0297767 185 140 125
-0.284927 0.0270266 -0.00762763 192 118 99
-0.286121 0.0289923 -0.0096698 168 105 84
-0.287867 0.0311743 -0.0126306 109 52 54
-0.287755 0.0327215 -0.0124978 83 55 46
-0.287911 0.0343683 -0.0128113 86 54 41
-0.262525 0.0375409 0.0290671 60 36 31
-0.261424 0.0384447 0.0308575 45 31 28
-0.260929 0.0396119 0.031637 52 40 29
-0.260634 0.0408671 0.0320831 49 38 33
-0.260142 0.0420259 0.0328569 43 37 32
-0.259653 0.0431799 0.0336269 33 28 25
-0.259361 0.0444259 0.0340682 31 25 24
-0.259264 0.0457679 0.0341834 31 23 23
-0.258779 0.0469114 0.0349476 36 25 21
-0.258489 0.048151 0.0353859 39 29 24
-0.258199 0.0493886 0.0358232 36 26 24
-0.258295 0.0508318 0.0356161 31 25 24
-0.258778 0.052492 0.0347607 34 27 26
-0.258875 0.0539479 0.0345515 37 32 29
-0.258972 0.0554083 0.0343418 38 33 30
-0.259265 0.0569856 0.0338046 38 33 33
-0.259362 0.058457 0.0335934 39 36 37
-0.25946 0.0599329 0.0333818 47 44 44
-0.259755 0.061532 0.0328398 67 61 59
-0.260052 0.0631399 0.0322953 115 87 78
-0.26115 0.0652523 0.0304085 180 117 98
-0.262878 0.0677834 0.027465 197 123 107
-0.279443 0.0846595 -0.000498871 206 132 115
-0.279331 0.0862082 -0.000365912 202 132 116
-0.279219 0.0877578 -0.000232849 191 136 124
-0.279107 0.0893086 -9.96998e-05 181 163 151
-0.278994 0.0908605 3.35429e-05 176 182 170
-0.262274 -0.000497054 0.0282566 156 150 141
-0.262083 0.00213602 0.028482 188 182 165
-0.262187 0.00350084 0.028261 200 193 176
-0.262091 0.00482122 0.028374 213 206 188
-0.261995 0.00614252 0.0284872 230 220 204
-0.261899 0.0074647 0.0286004 232 224 208
-0.261803 0.0087878 0.0287137 211 207 187
-0.261707 0.0101118 0.028827 181 167 153
-0.261611 0.0114367 0.0289404 152 120 111
-0.292527 0.0332546 -0.0234281 106 52 55
-0.2899 0.0339416 -0.0190675 83 54 44
-0.292296 0.0364457 -0.0231548 87 53 38
-0.26156 0.0375818 0.0281004 50 35 33
-0.260069 0.0383053 0.0305626 47 32 25
-0.259774 0.0395612 0.0310096 49 34 25
-0.25948 0.040815 0.0314557 51 40 33
-0.258797 0.0418788 0.0325579 38 39 31
-0.258119 0.0429358 0.0336521 32 28 22
-0.257446 0.043986 0.0347385 32 24 21
-0.257158 0.0452229 0.035175 32 21 20
-0.256871 0.0464578 0.0356104 35 26 20
-0.256775 0.0477904 0.0357245 35 33 24
-0.256678 0.049124 0.0358387 33 33 27
-0.257153 0.0507691 0.0349879 32 28 24
-0.257631 0.0524271 0.034131 34 26 26
-0.257919 0.0539896 0.0335948 36 28 27
-0.258015 0.0554502 0.0333836 36 31 27
-0.258305 0.0570278 0.0328438 36 34 32
-0.258206 0.0583849 0.03296 41 40 36
-0.258302 0.059859 0.0327475 58 51 47
-0.258594 0.0614561 0.0322043 90 74 69
-0.258887 0.0630619 0.0316586 137 96 85
-0.261179 0.0659225 0.0277321 177 110 97
-0.263958 0.0691356 0.0229795 190 115 103
-0.277856 0.0843774 -0.000753273 207 127 112
-0.277991 0.0860894 -0.00103939 205 130 115
-0.277878 0.0876371 -0.000906881 201 130 113
-0.278014 0.0893582 -0.00119343 186 143 131
-0.277901 0.0909101 -0.00106055 178 176 163
-0.261329 -0.000459817 0.0273104 152 144 130
-0.261234 0.00085639 0.0274228 171 157 139
-0.261138 0.00217347 0.0275353 185 177 161
-0.26124 0.00353845 0.0273128 193 181 166
-0.261144 0.00485896 0.0274255 202 190 173
-0.261047 0.00618036 0.0275383 218 203 186
-0.260951 0.00750265 0.0276512 229 217 199
-0.260855 0.00882587 0.0277642 222 222 202
-0.260759 0.01015 0.0278772 197 199 181
-0.260662 0.011475 0.0279903 156 145 135
-0.260566 0.0128009 0.0281035 143 104 93
-0.294942 0.0328997 -0.0305377 159 98 82
-0.294243 0.0343158 -0.0294129 103 53 54
-0.292974 0.0355157 -0.0273203 83 55 42
-0.294007 0.0375546 -0.0291364 87 54 43
-0.294761 0.0395078 -0.0304779 89 53 46
-0.259111 0.0383459 0.0296038 44 31 23
-0.258622 0.0395107 0.0303837 44 33 24
-0.257942 0.0405785 0.0314895 50 39 29
-0.257267 0.0416394 0.0325872 42 41 33
-0.256217 0.0425059 0.0343236 36 32 23
-0.255554 0.0435514 0.0354007 32 23 19
-0.25527 0.0447816 0.0358334 31 20 20
-0.255174 0.046107 0.0359465 32 21 21
-0.255077 0.0474333 0.0360598 32 28 24
-0.25498 0.0487605 0.0361731 36 33 28
-0.255446 0.0503965 0.0353273 39 34 26
-0.256296 0.0522565 0.0338277 41 30 24
-0.256771 0.053923 0.0329653 40 28 23
-0.256865 0.0553818 0.0327532 36 29 24
-0.257151 0.0569574 0.0322122 33 33 30
-0.257246 0.0584272 0.0319987 43 44 41
-0.257147 0.0597854 0.0321146 72 64 58
-0.257435 0.0613804 0.0315702 111 85 76
-0.257919 0.0631048 0.0306903 151 99 87
-0.263061 0.0677644 0.0218576 168 100 92
-0.276879 0.0828829 -0.00197482 202 122 108
-0.276766 0.0844264 -0.00184305 203 121 107
-0.276654 0.085971 -0.00171119 205 128 113
-0.276787 0.0876864 -0.0019989 203 128 111
-0.27692 0.0894077 -0.00228735 192 128 122
-0.276807 0.0909598 -0.00215484 181 159 146
-0.276694 0.092513 -0.00202223 177 179 170
-0.260385 -0.000422559 0.0263642 148 137 124
-0.260288 0.000893733 0.0264762 166 149 133
-0.260192 0.00221093 0.0265883 179 170 154
-0.260293 0.00357607 0.0263644 187 175 160
-0.260196 0.00489668 0.0264768 193 181 164
-0.2601 0.00621821 0.0265893 202 188 169
-0.260003 0.0075406 0.0267019 211 200 181
-0.259907 0.00886393 0.0268145 219 216 197
-0.25981 0.0101881 0.0269272 214 220 197
-0.259713 0.0115133 0.02704 172 172 164
-0.259616 0.0128393 0.0271529 132 98 110
-0.294365 0.0331503 -0.032694 155 96 80
-0.293665 0.03457 -0.0315597 102 53 53
-0.293547 0.0361939 -0.0314214 85 56 41
-0.293718 0.0379275 -0.0317798 88 54 42
-0.293889 0.0396674 -0.0321392 89 52 46
-0.258153 0.0383866 0.0286448 41 30 24
-0.257473 0.0394603 0.0297592 39 30 29
-0.256415 0.0403436 0.0315228 46 34 33
-0.255369 0.0412172 0.0332653 51 39 35
-0.25471 0.0422666 0.0343458 42 32 27
-0.25424 0.0434033 0.0350993 31 23 19
-0.254144 0.0447263 0.035212 26 19 22
-0.254047 0.0460502 0.0353247 27 20 22
-0.25395 0.0473751 0.0354374 28 25 22
-0.253853 0.0487008 0.0355503 35 34 28
-0.253942 0.0501296 0.0353439 40 38 30
-0.255345 0.0522979 0.0328757 43 35 29
-0.255816 0.0539648 0.0320095 43 33 29
-0.255908 0.0554237 0.0317959 37 31 28
-0.256001 0.0568872 0.031582 36 35 33
-0.256285 0.0584695 0.0310372 51 52 47
-0.256186 0.0598278 0.0311528 84 73 65
-0.256279 0.0613049 0.0309375 119 83 74
-0.262164 0.066394 0.0207364 143 87 76
-0.275546 0.0827688 -0.00264382 188 110 97
-0.275434 0.0843104 -0.0025126 195 114 103
-0.275564 0.0860201 -0.00280149 203 129 112
-0.275696 0.0877357 -0.00309109 203 129 113
-0.275582 0.0892848 -0.00295922 197 128 116
-0.275714 0.0910095 -0.00324928 185 145 131
-0.2756 0.0925628 -0.00311706 178 177 166
-0.259343 0.000931097 0.0255295 156 141 127
-0.259247 0.0022484 0.0256413 173 164 148
-0.25915 0.00356661 0.0257532 181 173 159
-0.259249 0.00493443 0.025528 186 176 161
-0.259152 0.00625606 0.0256401 190 178 160
-0.259055 0.00757857 0.0257524 195 183 165
-0.258958 0.008902 0.0258647 204 197 179
-0.258861 0.0102263 0.0259771 213 213 192
-0.258764 0.0115516 0.0260896 186 186 177
-0.258667 0.0128777 0.0262022 136 114 126
-0.25857 0.0142047 0.0263148 156 98 93
-0.293203 0.0331981 -0.0338577 146 91 78
-0.292795 0.0347216 -0.0332191 100 53 47
-0.292675 0.036348 -0.0330811 85 55 39
-0.292845 0.0380846 -0.0334429 87 54 40
-0.256135 0.0393193 0.029468 37 30 32
-0.254898 0.0401105 0.0315558 42 31 34
-0.254238 0.0411656 0.0326448 52 36 35
-0.253398 0.0421214 0.0340472 43 36 36
-0.253117 0.0433496 0.0344798 32 26 23
-0.252836 0.0445758 0.0349114 25 21 20
-0.252739 0.0458967 0.0350235 24 21 20
-0.252642 0.0472184 0.0351357 25 23 20
-0.252913 0.0487416 0.0346091 29 29 25
-0.252816 0.0500684 0.0347217 34 33 30
-0.254393 0.0523394 0.0319235 39 36 34
-0.254861 0.0540065 0.0310535 42 37 36
-0.254762 0.0553555 0.031168 39 34 35
-0.254853 0.0568172 0.0309532 44 41 39
-0.255324 0.0585118 0.0300756 64 60 52
-0.255225 0.0598702 0.0301909 87 71 62
-0.255316 0.0613474 0.0299741 106 67 59
-0.274572 0.081277 -0.00386281 162 89 81
-0.274217 0.0826551 -0.00331112 178 98 89
-0.274104 0.0841946 -0.00318044 189 113 101
-0.274233 0.085902 -0.00347024 201 125 110
-0.274361 0.0876152 -0.00376074 204 130 115
-0.27449 0.0893342 -0.00405194 201 128 115
-0.27462 0.0910591 -0.00434389 188 133 128
-0.274506 0.0926126 -0.00421203 180 170 162
-0.258592 0.00101237 0.0242439 146 137 124
-0.258301 0.00228587 0.0246941 167 157 140
-0.258204 0.00360419 0.0248057 178 171 157
-0.258107 0.00492341 0.0249173 180 171 158
-0.25801 0.00624353 0.0250291 179 169 152
-0.258107 0.00761654 0.0248028 180 170 151
-0.25801 0.00894008 0.0249148 188 178 160
-0.257912 0.0102645 0.0250269 199 192 176
-0.257815 0.0115899 0.0251391 194 191 177
-0.257717 0.0129161 0.0252513 156 144 140
-0.25762 0.0142433 0.0253636 138 91 93
-0.259882 0.0359079 0.0205267 51 33 28
-0.25958 0.0371912 0.0209943 38 31 26
-0.25888 0.0382892 0.0221589 37 34 24
-0.256429 0.0385581 0.026389 36 32 25
-0.254614 0.0390889 0.0295088 36 30 30
-0.253207 0.0397889 0.0319135 40 31 29
-0.252556 0.0408402 0.0329956 46 36 31
-0.251728 0.0417931 0.0343892 47 43 38
-0.251268 0.042923 0.0351367 38 33 27
-0.250631 0.0439546 0.036196 33 26 20
-0.250355 0.0451694 0.0366212 29 22 19
-0.251159 0.0469647 0.0351532 26 20 19
-0.251607 0.0485818 0.0343089 27 23 21
-0.251875 0.0501093 0.03378 29 28 24
-0.253442 0.0523809 0.0309713 33 33 29
-0.253718 0.0539399 0.0304274 38 34 34
-0.253807 0.0553973 0.0302116 40 36 36
-0.253707 0.0567474 0.0303258 51 47 44
-0.254174 0.0584397 0.0294466 68 63 55
-0.254263 0.0599126 0.0292288 76 64 54
-0.254163 0.0612721 0.0293439 80 51 45
-0.275168 0.079194 -0.00777392 121 69 61
-0.274323 0.0802637 -0.00635652 133 73 66
-0.273484 0.0813257 -0.00495084 152 83 79
-0.273131 0.0827038 -0.00439801 172 99 88
-0.273018 0.0842435 -0.00426769 184 108 99
-0.272905 0.0857842 -0.0041373 196 116 103
-0.273031 0.087495 -0.0044287 204 124 107
-0.273157 0.0892117 -0.0047208 204 128 113
-0.273284 0.0909341 -0.00501363 193 130 123
-0.273411 0.0926624 -0.00530718 182 163 152
-0.273056 0.0940381 -0.00475092 172 177 171
-0.257548 0.00236893 0.023407 160 144 129
-0.257258 0.00364178 0.0238581 173 167 152
-0.25716 0.00496111 0.0239694 177 172 157
-0.257063 0.00628133 0.0240808 169 159 145
-0.257159 0.0076545 0.023853 171 150 133
-0.257061 0.00897815 0.0239647 187 160 140
-0.256963 0.0103027 0.0240765 194 174 162
-0.256866 0.0116282 0.0241884 211 189 172
-0.256768 0.0129545 0.0243003 195 168 151
-0.25667 0.0142818 0.0244123 151 114 108
-0.256572 0.01561 0.0245244 156 122 95
-0.259106 0.0332041 0.0193162 83 53 41
-0.259005 0.0345761 0.019432 65 38 34
-0.258704 0.0358603 0.0199005 45 33 27
-0.258205 0.0370523 0.0207188 37 29 27
-0.25712 0.0379668 0.0225747 37 31 26
-0.25547 0.0385988 0.0254284 35 32 27
-0.253664 0.0391293 0.0285584 36 29 26
-0.252082 0.039739 0.0312962 38 30 26
-0.25089 0.0405179 0.0333428 42 34 28
-0.250432 0.0416501 0.0340924 50 40 32
-0.249264 0.0424098 0.0361 46 39 30
-0.248814 0.0435286 0.0368361 44 33 24
-0.248718 0.0448309 0.036946 37 26 22
-0.248622 0.0461342 0.037056 30 22 21
-0.249233 0.0478293 0.0359126 28 22 21
-0.25003 0.0496424 0.0344402 27 26 21
-0.251935 0.0521054 0.0310031 30 28 22
-0.252764 0.0539817 0.0294723 33 28 25
-0.252664 0.0553292 0.029586 40 36 32
-0.252751 0.0567894 0.029369 55 52 46
-0.252652 0.0581405 0.029483 61 60 56
-0.252739 0.0596077 0.0292656 59 51 48
-0.252826 0.0610795 0.0290479 58 43 41
-0.253101 0.0626751 0.0284961 76 56 45
-0.276656 0.0792843 -0.0133863 92 57 53
-0.275793 0.0803678 -0.0119257 107 62 58
-0.273231 0.0803125 -0.00744888 124 74 68
-0.272636 0.0815354 -0.0064643 149 86 82
-0.272283 0.0829152 -0.005909 169 97 89
-0.271693 0.084128 -0.00493256 182 105 96
-0.27158 0.0856668 -0.0048027 194 113 100
-0.271704 0.0873752 -0.00509496 202 120 105
-0.272067 0.0892611 -0.00581235 204 125 113
-0.271952 0.0908094 -0.00568168 200 129 117
-0.272077 0.0925353 -0.0059761 189 153 137
-0.271963 0.094088 -0.00584508 173 173 164
-0.256503 0.00372661 0.0225695 164 159 143
-0.256406 0.00504766 0.0226806 175 173 156
-0.256308 0.00636962 0.0227918 161 148 141
-0.25621 0.00769249 0.0229032 164 123 117
-0.256112 0.00901625 0.0230145 189 138 124
-0.256014 0.0103409 0.023126 199 167 161
-0.255725 0.0116095 0.0235775 235 202 184
-0.255818 0.0129929 0.0233491 230 199 175
-0.25572 0.0143203 0.0234608 182 162 145
-0.255621 0.0156486 0.0235726 153 124 108
-0.25843 0.0319577 0.0178671 87 52 44
-0.258129 0.0332451 0.0183378 74 44 31
-0.258027 0.0346172 0.0184533 55 32 28
-0.257727 0.0359015 0.0189227 42 32 28
-0.257231 0.0370934 0.0197431 38 29 27
-0.256345 0.0380984 0.0212572 38 29 27
-0.254892 0.0388208 0.0237857 36 29 25
-0.252715 0.0391697 0.0276079 37 30 24
-0.250959 0.0396894 0.0306802 36 29 28
-0.249597 0.0403779 0.0330487 39 29 27
-0.248434 0.0411458 0.0350633 46 31 27
-0.247811 0.0421758 0.0361146 47 37 30
-0.24754 0.0433834 0.0365362 48 38 29
-0.247444 0.0446828 0.0366456 40 32 27
-0.247522 0.0460786 0.036443 33 28 24
-0.2476 0.0474785 0.03624 32 25 22
-0.248383 0.049281 0.0347763 30 25 23
-0.250621 0.0519365 0.0307085 30 26 23
-0.251624 0.0539152 0.0288486 32 28 24
-0.251709 0.0553711 0.0286305 42 40 34
-0.25161 0.0567197 0.028744 56 54 48
-0.251695 0.0581826 0.0285256 56 55 51
-0.251595 0.0595347 0.0286394 51 49 42
-0.251681 0.0610047 0.0284208 53 49 41
-0.251766 0.0624792 0.0282018 68 52 44
-0.275545 0.0793337 -0.0144982 79 54 47
-0.275429 0.0809062 -0.0143658 96 59 56
-0.273589 0.0813295 -0.0111427 121 71 67
-0.272265 0.08207 -0.00884167 148 89 81
-0.271671 0.0832909 -0.0078521 166 96 90
-0.270372 0.0840129 -0.00559571 181 103 93
-0.270259 0.0855496 -0.00546641 190 111 99
-0.27038 0.0872557 -0.00575958 202 117 104
-0.270502 0.0889675 -0.00605344 208 126 109
-0.270388 0.0905117 -0.00592351 205 130 114
-0.270273 0.092057 -0.00579348 191 142 128
-0.270159 0.0936033 -0.00566336 176 168 158
-0.255556 0.00376425 0.0216204 152 142 126
-0.255458 0.00508543 0.0217312 168 165 150
-0.25536 0.00640749 0.0218421 157 157 146
-0.255261 0.00773047 0.0219531 146 123 121
-0.255163 0.00905433 0.0220642 154 114 120
-0.254874 0.0103237 0.0225166 189 174 167
-0.254776 0.0116478 0.0226277 237 243 217
-0.254678 0.0129728 0.0227389 235 244 229
-0.25439 0.0142385 0.0231902 197 201 184
-0.254671 0.0156873 0.0226207 162 139 123
-0.254572 0.0170166 0.0227322 128 112 99
-0.257951 0.0307915 0.0160566 90 65 62
-0.25765 0.0320828 0.0165303 76 47 47
-0.25735 0.0333717 0.0170029 60 35 30
-0.25705 0.0346583 0.0174744 46 32 28
-0.256948 0.0360315 0.0175896 39 31 29
-0.256256 0.0371346 0.0187673 36 29 28
-0.255375 0.0381395 0.0202859 37 29 29
-0.255274 0.0395035 0.0204003 37 28 25
-0.25364 0.0401224 0.0232784 35 31 25
-0.249838 0.0396398 0.0300655 35 31 30
-0.247956 0.0400601 0.0333929 37 30 28
-0.246984 0.0409162 0.0350817 39 31 27
-0.246714 0.0421245 0.0355042 44 35 29
-0.246271 0.0432389 0.0362376 51 41 32
-0.246175 0.0445354 0.0363464 45 36 34
-0.246424 0.046023 0.0358313 38 30 27
-0.246501 0.0474214 0.0356275 37 29 24
-0.247101 0.0491217 0.0344781 35 32 27
-0.249313 0.0517685 0.0304151 33 33 29
-0.250487 0.053849 0.0282262 34 32 31
-0.250571 0.0553031 0.0280073 43 43 40
-0.250654 0.0567616 0.027788 50 48 46
-0.250738 0.0582247 0.0275681 42 38 39
-0.250638 0.059577 0.0276816 44 37 38
-0.250538 0.0609302 0.0277951 49 45 45
-0.250621 0.0624029 0.0275752 63 52 46
-0.275179 0.0798699 -0.0169594 73 53 49
-0.275062 0.0814493 -0.0168269 92 55 49
-0.272731 0.0815417 -0.012684 116 69 64
-0.27141 0.0822819 -0.0103693 140 85 76
-0.27058 0.0833399 -0.00894402 161 91 84
-0.269288 0.0840616 -0.00668047 175 102 91
-0.268941 0.0854328 -0.00612846 186 112 97
-0.268827 0.0869687 -0.00599961 200 117 101
-0.268713 0.0885056 -0.00587066 208 122 108
-0.268599 0.0900435 -0.00574163 208 129 114
-0.268485 0.0915826 -0.00561252 196 136 126
-0.26837 0.0931227 -0.00548331 180 162 153
-0.254608 0.00380192 0.0206711 134 118 105
-0.25451 0.0051232 0.0207817 154 148 135
-0.254411 0.00644537 0.0208923 150 155 141
-0.254313 0.00776844 0.021003 127 126 120
-0.254214 0.00909243 0.0211137 123 111 111
-0.253926 0.0103619 0.021567 159 157 141
-0.253828 0.0116861 0.0216778 207 213 186
-0.25354 0.0129526 0.02213 218 228 203
-0.253442 0.014277 0.0222407 184 195 170
-0.253343 0.0156022 0.0223516 164 138 118
-0.253432 0.0169918 0.0221216 133 116 99
-0.253522 0.0183857 0.0218911 124 102 91
-0.257073 0.0294577 0.0149599 112 104 92
-0.256971 0.0308324 0.0150749 104 92 85
-0.25667 0.0321237 0.0155495 70 44 51
-0.256568 0.0334986 0.0156645 45 34 32
-0.256268 0.0347868 0.0161379 41 35 27
-0.255969 0.0360727 0.0166103 40 30 26
-0.255281 0.0371758 0.0177913 38 30 26
-0.254405 0.0381806 0.0193144 37 28 28
-0.254303 0.0395447 0.0194286 37 29 26
-0.252678 0.0401633 0.0223159 34 32 26
-0.248185 0.0393231 0.0304267 35 31 27
-0.246679 0.0399221 0.0331005 38 32 26
-0.245889 0.0408663 0.0344727 37 31 27
-0.245448 0.0419829 0.0352082 41 31 29
-0.245351 0.0432786 0.0353166 53 44 35
-0.245084 0.0444818 0.0357371 55 48 41
-0.245158 0.0458726 0.0355335 41 35 31
-0.245405 0.0473644 0.0350163 30 26 21
-0.246172 0.0491621 0.0335482 29 29 23
-0.24819 0.0517054 0.0297971 32 33 31
-0.249535 0.0538906 0.0272731 35 37 38
-0.249617 0.0553449 0.0270527 48 47 44
-0.249699 0.0568036 0.0268318 53 45 38
-0.249782 0.0582668 0.0266105 42 26 24
-0.249681 0.0596192 0.0267236 45 28 30
-0.24958 0.0609725 0.0268368 42 36 34
-0.249662 0.0624454 0.0266155 54 44 40
-0.271628 0.081591 -0.0137875 113 65 60
-0.270314 0.0823309 -0.0114656 134 78 72
-0.269254 0.083225 -0.00960528 153 87 81
-0.267741 0.0837836 -0.00691711 170 99 88
-0.267166 0.0849871 -0.00594555 183 108 96
-0.266823 0.0863507 -0.00539786 198 113 100
-0.266709 0.0878793 -0.00526999 209 122 106
-0.266824 0.0895793 -0.0055614 210 130 113
-0.26671 0.0911121 -0.00543319 202 135 122
-0.266596 0.092646 -0.00530487 184 154 144
-0.266253 0.0940045 -0.00475761 171 170 163
-0.253849 0.00388706 0.0193766 114 88 80
-0.253561 0.00516097 0.019832 126 111 102
-0.253463 0.00648326 0.0199423 112 100 92
-0.253364 0.00780644 0.0200526 97 81 72
-0.253265 0.00913054 0.0201631 102 88 78
-0.252978 0.0104001 0.0206172 125 112 99
-0.252691 0.0116674 0.0210703 149 124 118
-0.252406 0.0129325 0.0215224 157 115 118
-0.252307 0.0142554 0.0216327 144 109 102
-0.252208 0.0155792 0.0217431 144 126 105
-0.252109 0.0169038 0.0218536 154 130 114
-0.252383 0.0183594 0.0212811 127 119 102
-0.255998 0.0280454 0.014225 129 117 100
-0.256093 0.0294985 0.0139784 128 111 98
-0.25599 0.0308733 0.014093 98 96 84
-0.255887 0.0322491 0.0142078 61 37 36
-0.255588 0.0335396 0.0146832 40 37 34
-0.255289 0.0348279 0.0151576 41 37 26
-0.254991 0.0361139 0.0156308 38 34 26
-0.254306 0.0372169 0.0168152 38 33 27
-0.253243 0.0381309 0.018694 35 31 28
-0.252193 0.0390344 0.0205496 33 29 26
-0.2506 0.0396536 0.0234045 35 31 27
-0.246898 0.0391858 0.0301394 36 32 27
-0.24558 0.0398732 0.0324918 38 31 25
-0.244967 0.0409058 0.03355 36 31 27
-0.244528 0.0420224 0.0342873 38 31 27
-0.244091 0.0431347 0.0350212 42 37 29
-0.243994 0.0444283 0.0351291 51 49 37
-0.244067 0.0458175 0.0349248 51 44 37
-0.244481 0.0474045 0.034092 36 31 27
-0.24507 0.049103 0.0329361 26 28 19
-0.247247 0.0517465 0.0288532 27 29 20
-0.248763 0.0540403 0.0259856 33 35 32
-0.249026 0.0556068 0.0254273 41 39 41
-0.248926 0.0569574 0.02554 40 31 35
-0.248825 0.0583089 0.0256527 36 26 23
-0.248724 0.0596614 0.0257655 45 33 31
-0.248804 0.0611319 0.0255424 48 33 33
-0.269809 0.0811521 -0.0135676 106 63 58
-0.268983 0.0822169 -0.0121259 127 76 69
-0.268164 0.083274 -0.010696 148 84 77
-0.266202 0.083507 -0.00715256 165 96 86
-0.265633 0.0847081 -0.00618343 179 105 95
-0.265519 0.0862338 -0.00605619 195 111 100
-0.265405 0.0877604 -0.00592886 207 122 106
-0.26529 0.0892882 -0.00580145 212 129 111
-0.265176 0.090817 -0.00567392 207 132 115
-0.265062 0.0923468 -0.00554633 190 147 131
-0.264722 0.0937021 -0.00500058 173 165 155
-0.258362 -0.000254615 0.00865989 138 151 144
-0.258059 0.00106286 0.00914318 111 93 91
-0.256566 0.00209756 0.011819 91 64 63
-0.255486 0.00320985 0.0137336 85 58 52
-0.253277 0.00402019 0.0177308 94 58 53
-0.252801 0.0052479 0.018536 94 58 59
-0.252701 0.00657192 0.0186461 90 70 68
-0.252415 0.00784444 0.0191022 82 75 72
-0.252315 0.00916866 0.0192123 87 78 77
-0.252029 0.0104382 0.0196673 106 88 83
-0.251744 0.0117056 0.0201212 115 90 81
-0.251273 0.0129125 0.0209162 112 89 80
-0.25099 0.0141741 0.0213671 110 95 97
-0.250891 0.0154947 0.0214769 126 135 134
-0.250608 0.0167534 0.0219267 152 163 155
-0.250509 0.0180742 0.0220365 153 122 121
-0.254927 0.0266373 0.0134925 116 88 89
-0.254824 0.0280069 0.0136064 108 86 86
-0.254917 0.0294583 0.013359 108 88 79
-0.254814 0.0308315 0.0134732 74 56 54
-0.254711 0.0322056 0.0135874 48 36 33
-0.254413 0.0334947 0.0140627 39 39 30
-0.254116 0.0347816 0.0145369 37 34 29
-0.253433 0.0358888 0.015725 37 36 26
-0.252947 0.0370783 0.01655 38 33 25
-0.251331 0.0377211 0.0194721 37 34 24
-0.250114 0.0385317 0.0216541 35 31 26
-0.247833 0.0387937 0.0258131 32 30 30
-0.245966 0.0392256 0.0292061 33 30 30
-0.244655 0.0399127 0.031566 35 29 29
-0.244045 0.0409453 0.0326271 34 30 29
-0.243608 0.042062 0.0333663 34 29 28
-0.243173 0.0431742 0.0341021 36 34 29
-0.243076 0.044468 0.0342096 46 39 31
-0.243147 0.0458573 0.0340039 56 43 37
-0.243558 0.0474445 0.0331676 48 37 37
-0.243971 0.0490439 0.0323253 33 26 28
-0.246481 0.051892 0.0275802 30 27 25
-0.248171 0.0542989 0.0243578 36 35 30
-0.248251 0.0557592 0.0241324 45 37 32
-0.248332 0.057224 0.0239065 40 31 28
-0.24823 0.058579 0.0240192 37 28 26
-0.24831 0.0600509 0.023793 40 34 30
-0.268474 0.0810393 -0.0142267 99 59 51
-0.267655 0.0821032 -0.0127845 119 69 63
-0.265693 0.0823488 -0.00920887 142 81 74
-0.264671 0.083232 -0.00738695 160 92 83
-0.264331 0.0845935 -0.00683958 176 103 92
-0.264217 0.0861171 -0.00671287 191 108 98
-0.264103 0.0876419 -0.00658608 204 121 105
-0.263989 0.0891676 -0.00645919 211 128 109
-0.26365 0.0905234 -0.00591348 210 130 111
-0.263536 0.0920493 -0.00578659 195 142 122
-0.263421 0.0935761 -0.00565962 176 162 148
-0.257183 -0.000259968 0.00805038 123 133 138
-0.25609 0.000875232 0.0100051 101 79 77
-0.2554 0.00208953 0.0112109 93 62 57
-0.254522 0.00324807 0.0127677 88 59 54
-0.252891 0.00420215 0.0157249 84 56 52
-0.252226 0.00538448 0.0168876 80 51 55
-0.251751 0.00660986 0.0176946 88 68 67
-0.251652 0.0079349 0.0178045 91 92 84
-0.251366 0.00920677 0.0182614 98 103 95
-0.250895 0.010421 0.0190623 114 97 90
-0.250427 0.0116302 0.0198594 115 88 85
-0.249961 0.0128344 0.0206527 106 91 87
-0.248953 0.0138563 0.0224564 114 96 107
-0.248494 0.0150468 0.0232369 161 157 178
-0.248396 0.0163557 0.0233454 197 232 209
-0.248118 0.0176022 0.0237885 159 166 141
-0.24802 0.0189114 0.023897 141 105 105
-0.252896 0.0248588 0.0145595 109 115 98
-0.252986 0.0262936 0.0143146 153 135 107
-0.253075 0.0277329 0.0140693 123 98 90
-0.25355 0.0293375 0.0131027 91 82 74
-0.253447 0.0307074 0.0132163 61 40 39
-0.253344 0.0320782 0.0133299 45 37 35
-0.252856 0.033279 0.0141635 38 38 34
-0.252561 0.0345614 0.0146355 39 35 32
-0.252077 0.0357533 0.0154628 41 33 29
-0.251218 0.0367621 0.0169926 42 33 27
-0.249996 0.037583 0.0192033 39 32 28
-0.247885 0.0379477 0.0230804 36 32 28
-0.246358 0.0385678 0.0258656 32 31 28
-0.245033 0.0392654 0.0282727 32 32 28
-0.243901 0.0400409 0.0303196 34 31 27
-0.243123 0.0409848 0.0317041 34 30 26
-0.242687 0.0421015 0.0324451 33 30 27
-0.242422 0.0433055 0.0328681 36 35 28
-0.242325 0.0446009 0.0329755 41 37 27
-0.242227 0.0458972 0.0330829 48 37 31
-0.242634 0.0474846 0.032243 53 39 37
-0.243043 0.0490842 0.0313971 47 39 36
-0.245712 0.0520379 0.026304 40 39 35
-0.247395 0.0544496 0.0230617 41 43 42
-0.247655 0.0560231 0.0224936 44 43 42
-0.247735 0.0574919 0.0222649 43 32 28
-0.247632 0.0588504 0.0223775 37 30 28
-0.247894 0.0604433 0.0218059 43 35 29
-0.266911 0.0807658 -0.0144446 94 57 46
-0.265869 0.0816666 -0.0125716 113 67 59
-0.264385 0.0822365 -0.00986389 135 80 72
-0.263148 0.0829584 -0.00762017 156 89 81
-0.262811 0.0843167 -0.00707436 173 98 89
-0.262697 0.0858364 -0.00694837 187 103 96
-0.262805 0.0875236 -0.00724166 202 117 103
-0.26269 0.0890474 -0.00711532 211 126 109
-0.262133 0.0902315 -0.00615192 210 129 111
-0.262018 0.0917533 -0.00602575 199 137 119
-0.262124 0.0934505 -0.00631705 180 157 144
-0.256204 -0.000221509 0.00707063 114 124 132
-0.255117 0.000913556 0.00903116 96 75 72
-0.254625 0.00217425 0.00987551 95 64 58
-0.253942 0.00338167 0.0110786 92 63 59
-0.252882 0.004483 0.0129901 85 59 57
-0.251648 0.00552176 0.015231 80 54 55
-0.251173 0.00674992 0.0160437 82 66 64
-0.250701 0.00797297 0.0168526 92 86 79
-0.250416 0.00924489 0.0173103 102 103 88
-0.249581 0.0103486 0.0188033 112 112 89
-0.249116 0.0115552 0.0195987 121 111 92
-0.248113 0.012584 0.0214084 126 111 96
-0.247478 0.0137182 0.022527 128 117 111
-0.247202 0.0149647 0.02297 161 166 176
-0.246926 0.0162091 0.023412 229 231 235
-0.246827 0.0175143 0.0235199 209 191 202
-0.246729 0.0188204 0.0236279 139 112 124
-0.246807 0.0201935 0.0234023 108 88 79
-0.247599 0.0218442 0.0218307 138 104 95
-0.249496 0.0239456 0.018173 122 124 121
-0.25032 0.0256539 0.0165383 121 108 103
-0.251721 0.0276171 0.013813 105 89 77
-0.251999 0.0291372 0.0132077 70 63 61
-0.251896 0.0305021 0.0133206 49 40 38
-0.251793 0.0318679 0.0134335 43 39 34
-0.2515 0.0331496 0.0139053 44 38 33
-0.25083 0.0342567 0.0150892 43 35 31
-0.250352 0.0354436 0.015911 41 35 33
-0.249136 0.0362734 0.0181292 41 32 27
-0.248484 0.0373569 0.0192817 39 33 28
-0.246223 0.0376356 0.0234794 36 32 28
-0.245242 0.0385195 0.0252564 35 29 26
-0.244273 0.0393937 0.0270122 35 29 27
-0.243145 0.0401694 0.0290702 35 28 26
-0.242369 0.041114 0.0304619 35 27 25
-0.241935 0.0422317 0.0312064 35 30 25
-0.241502 0.0433451 0.0319475 36 35 26
-0.241405 0.0446406 0.0320546 38 36 26
-0.241307 0.045937 0.0321618 42 35 28
-0.24171 0.0475247 0.0313183 48 37 36
-0.242116 0.0491246 0.0304688 52 43 40
-0.24654 0.0531407 0.0219916 51 50 39
-0.246797 0.0547102 0.0214205 52 53 49
-0.247056 0.0562883 0.0208467 56 52 51
-0.247134 0.0577612 0.020615 49 35 32
-0.247032 0.0591231 0.0207276 44 35 29
-0.264897 0.0801746 -0.0137883 89 55 43
-0.264098 0.0812336 -0.0123606 107 64 56
