ply
format ascii 1.0
element vertex 1119
property float x
property float y
property float z
property uchar diffuse_red
property uchar diffuse_green
property uchar diffuse_blue
end_header
-0.461343 0.0512434 0.159468 92 90 87
-0.458193 0.0520555 0.160872 86 86 80
-0.457628 0.0534797 0.161263 86 94 88
-0.457065 0.0549009 0.161653 84 96 89
-0.457011 0.0564488 0.161845 80 98 91
-0.456958 0.0579977 0.162037 79 100 93
-0.456397 0.0594136 0.162426 95 116 101
-0.456343 0.0609625 0.162617 101 119 106
-0.46145 0.046844 0.157378 94 107 96
-0.461918 0.0485284 0.157364 88 107 96
-0.461863 0.0500956 0.157557 82 106 97
-0.461809 0.051664 0.157751 74 101 96
-0.458127 0.0523512 0.159378 65 95 94
-0.45705 0.0536527 0.159974 66 96 98
-0.456486 0.0550758 0.160366 64 93 97
-0.456432 0.0566261 0.160557 58 89 97
-0.455871 0.058045 0.160949 56 88 99
-0.455817 0.0595952 0.16114 64 107 112
-0.455762 0.0611464 0.161332 71 117 123
-0.455708 0.0626986 0.161523 84 109 110
-0.457929 0.0416529 0.15674 91 110 110
-0.458389 0.0433147 0.156724 84 108 109
-0.460926 0.0454438 0.155875 78 105 105
-0.460871 0.0470091 0.156068 72 102 99
-0.461339 0.0486962 0.156051 66 100 97
-0.460761 0.0501429 0.156454 61 100 96
-0.460706 0.0517114 0.156648 54 93 92
-0.458061 0.0526486 0.157875 47 89 91
-0.45698 0.0539532 0.158477 49 85 90
-0.455906 0.0552513 0.159075 46 83 88
-0.455344 0.0566733 0.159468 43 79 87
-0.455289 0.0582247 0.159659 40 78 87
-0.454729 0.0596426 0.160051 44 87 95
-0.454674 0.0611939 0.160243 53 101 105
-0.455126 0.0628854 0.160234 74 109 108
-0.455071 0.064441 0.160426 94 106 102
-0.471285 0.0270251 0.147853 121 128 122
-0.470676 0.0285286 0.148277 117 127 120
-0.46952 0.0299327 0.148926 116 123 117
-0.468371 0.0313294 0.14957 115 122 118
-0.467229 0.0327191 0.150211 112 123 119
-0.462364 0.0334 0.152377 105 125 121
-0.460733 0.0346628 0.153214 99 125 118
-0.458084 0.0357124 0.154466 88 127 116
-0.457515 0.037159 0.154867 78 120 113
-0.456436 0.0384974 0.155475 68 115 111
-0.456893 0.0401503 0.155457 63 110 112
-0.457864 0.0419191 0.15523 59 103 111
-0.45988 0.0439263 0.15458 53 95 109
-0.460869 0.0457236 0.154348 48 87 101
-0.460814 0.0472935 0.154542 46 80 93
-0.460758 0.0488646 0.154735 44 76 88
-0.46018 0.0503132 0.15514 41 74 83
-0.459603 0.0517588 0.155544 40 73 77
-0.457994 0.0529478 0.156364 38 72 76
-0.45691 0.0542553 0.156971 40 72 74
-0.455833 0.0555564 0.157574 37 73 74
-0.454761 0.0568512 0.158175 35 73 73
-0.454706 0.0584049 0.158366 35 73 73
-0.454146 0.0598247 0.15876 37 73 75
-0.454091 0.0613784 0.158951 45 84 86
-0.454541 0.0630726 0.15894 63 104 105
-0.454486 0.0646307 0.159132 87 113 112
-0.454938 0.0663341 0.159122 101 107 105
-0.471319 0.0256548 0.146065 121 132 124
-0.471262 0.0272565 0.146262 111 133 124
-0.470098 0.0286696 0.146919 97 132 123
-0.469491 0.0301719 0.147344 87 130 120
-0.468338 0.0315723 0.147995 78 124 120
-0.467192 0.0329654 0.148642 75 115 121
-0.463907 0.0339461 0.150174 64 105 121
-0.461729 0.0351139 0.151245 59 95 112
-0.459577 0.0362692 0.152304 56 87 102
-0.45745 0.0374123 0.15335 54 82 90
-0.456881 0.0388597 0.153753 49 80 85
-0.457339 0.0405204 0.153732 44 78 82
-0.459355 0.0425214 0.153072 42 75 79
-0.460343 0.0443163 0.152835 41 75 77
-0.460287 0.0458876 0.153028 39 74 76
-0.460231 0.04746 0.153221 37 74 75
-0.460175 0.0490334 0.153414 37 72 75
-0.459597 0.0504841 0.153821 35 73 77
-0.459541 0.0520574 0.154015 34 73 76
-0.458444 0.053376 0.154632 33 72 76
-0.45684 0.0545592 0.155456 36 75 74
-0.45627 0.0559937 0.155857 37 73 73
-0.455703 0.0574251 0.156257 36 72 74
-0.455137 0.0588535 0.156656 37 73 73
-0.45356 0.0600074 0.157465 38 73 74
-0.453505 0.0615634 0.157656 41 76 83
-0.453955 0.0632605 0.157643 52 97 103
-0.454406 0.0649634 0.15763 77 115 115
-0.454859 0.0666724 0.157617 101 115 114
-0.454803 0.0682394 0.157809 108 112 109
-0.47074 0.0257918 0.144698 109 123 123
-0.470683 0.0273961 0.144895 81 105 117
-0.470071 0.028906 0.145324 66 99 108
-0.469462 0.0304126 0.145753 62 92 99
-0.468854 0.0319158 0.14618 56 89 93
-0.46607 0.0330121 0.147518 53 86 91
-0.465472 0.0345003 0.147939 49 82 92
-0.463269 0.0356736 0.149031 47 78 87
-0.461092 0.0368341 0.15011 43 76 82
-0.459985 0.0381941 0.150741 43 74 79
-0.459929 0.0397636 0.150933 43 73 76
-0.459873 0.0413341 0.151125 39 73 75
-0.460341 0.0430189 0.1511 38 73 74
-0.460284 0.0445938 0.151293 39 72 73
-0.460228 0.0461699 0.151486 38 72 73
-0.460171 0.047747 0.15168 39 72 74
-0.460115 0.0493251 0.151873 41 71 73
-0.459534 0.0507797 0.152283 39 72 74
-0.459477 0.0523577 0.152477 38 73 74
-0.458378 0.0536794 0.1531 43 71 74
-0.457284 0.0549946 0.15372 44 72 73
-0.456712 0.0564347 0.154125 37 73 72
-0.456141 0.0578718 0.154529 38 72 73
-0.456085 0.0594415 0.154722 39 73 75
-0.453986 0.0604629 0.155751 38 75 76
-0.45393 0.0620257 0.155943 40 77 79
-0.454892 0.0638726 0.155718 46 90 92
-0.455347 0.0655864 0.155702 63 112 113
-0.455803 0.0673062 0.155686 92 124 123
-0.455746 0.0688823 0.155879 110 122 117
-0.470716 0.0260204 0.14309 106 117 118
-0.470102 0.0275361 0.143523 71 91 102
-0.470044 0.0291439 0.14372 53 78 89
-0.469986 0.0307528 0.143917 51 75 82
-0.469374 0.0322624 0.144348 48 75 78
-0.466573 0.0333611 0.145706 45 74 76
-0.466516 0.034959 0.145901 45 73 77
-0.465372 0.0363467 0.146555 42 71 77
-0.463163 0.0375137 0.147658 39 72 75
-0.461509 0.0387758 0.148525 43 72 74
-0.460923 0.0402469 0.148941 44 72 73
-0.460866 0.0418267 0.149134 42 73 74
-0.460809 0.0434076 0.149328 42 72 73
-0.459699 0.0447568 0.149963 42 72 72
-0.459642 0.0463353 0.150156 40 72 72
-0.459585 0.0479148 0.150349 40 72 73
-0.459528 0.0494954 0.150542 43 72 73
-0.459471 0.0510771 0.150736 42 73 75
-0.45889 0.0525324 0.151148 39 74 74
-0.458311 0.0539846 0.151559 44 72 74
-0.457214 0.0553028 0.152185 44 74 75
-0.456124 0.0566145 0.152807 37 74 75
-0.456067 0.0581878 0.153 39 73 76
-0.45601 0.0597622 0.153193 38 74 78
-0.454926 0.0610604 0.153811 34 76 78
-0.454869 0.0626324 0.154003 36 76 78
-0.455325 0.0643484 0.153984 38 80 86
-0.455782 0.0660704 0.153964 50 99 105
-0.456241 0.0677986 0.153945 78 119 120
-0.456184 0.0693817 0.154139 105 124 120
-0.470133 0.0261587 0.141712 114 120 116
-0.470075 0.0277704 0.141909 84 96 97
-0.470016 0.0293832 0.142106 58 74 80
-0.470515 0.0310961 0.142064 50 71 74
-0.470456 0.0327135 0.142262 47 74 73
-0.46763 0.0338157 0.143643 47 74 73
-0.467023 0.0353185 0.144073 46 73 75
-0.466964 0.0369247 0.144269 44 71 77
-0.466359 0.0384228 0.144698 43 70 74
-0.465213 0.0398065 0.145358 47 71 73
-0.462463 0.0408472 0.146698 47 71 73
-0.460809 0.0420988 0.147571 45 72 74
-0.460222 0.0435695 0.147988 47 71 74
-0.460165 0.0451539 0.148182 46 71 73
-0.45958 0.0466201 0.148599 42 72 73
-0.459522 0.0482044 0.148792 41 73 74
-0.459465 0.0497898 0.148986 42 73 74
-0.459407 0.0513762 0.149179 43 73 76
-0.458824 0.0528355 0.149595 40 74 77
-0.458243 0.0542916 0.150009 42 74 77
-0.457143 0.0556129 0.150641 43 75 77
-0.456049 0.0569275 0.151269 39 74 77
-0.455992 0.0585056 0.151462 40 75 78
-0.454905 0.0598102 0.152086 36 76 79
-0.454847 0.0613858 0.152279 30 76 78
-0.455304 0.0631041 0.152256 33 75 78
-0.455247 0.0646841 0.152449 35 77 82
-0.455705 0.0664118 0.152427 42 89 95
-0.456164 0.0681455 0.152405 64 110 114
-0.456625 0.0698854 0.152383 94 124 123
-0.471788 0.0266674 0.139357 129 129 123
-0.471729 0.0282915 0.139555 110 112 111
-0.471669 0.0299166 0.139753 73 82 87
-0.472174 0.0316435 0.139707 55 71 75
-0.472679 0.0333767 0.139662 52 72 72
-0.469254 0.0343796 0.141315 53 73 72
-0.469195 0.0359994 0.141512 51 71 74
-0.469692 0.0377294 0.14147 53 73 76
-0.469632 0.0393538 0.141668 50 72 73
-0.469017 0.0408652 0.142105 49 70 72
-0.466749 0.0420269 0.143252 48 72 73
-0.465051 0.0432919 0.144152 47 72 74
-0.464992 0.0449014 0.144348 51 71 75
-0.462059 0.0507133 0.146285 42 74 75
-0.461466 0.0521876 0.146708 42 73 77
-0.458758 0.0531403 0.148032 41 74 78
-0.458175 0.0546004 0.148449 41 74 78
-0.457071 0.0559248 0.149087 42 75 77
-0.455974 0.0572425 0.149721 41 75 77
-0.455916 0.0588252 0.149914 42 75 78
-0.454826 0.0601329 0.150545 34 77 79
-0.455284 0.0618533 0.150519 29 76 78
-0.455226 0.063437 0.150712 33 75 78
-0.455685 0.0651669 0.150687 34 76 80
-0.455627 0.0667551 0.150881 38 81 88
-0.456087 0.0684945 0.150856 53 99 105
-0.456548 0.0702401 0.150831 80 120 121
-0.45649 0.0718362 0.151026 108 128 124
-0.472272 0.0286269 0.137664 127 128 121
-0.472211 0.0302596 0.137862 106 105 105
-0.472718 0.031995 0.137813 67 77 82
-0.472658 0.0336324 0.138012 54 75 73
-0.471466 0.0350581 0.138705 54 72 74
-0.471406 0.0366927 0.138904 55 71 76
-0.47191 0.0384397 0.138857 53 71 74
-0.47185 0.040079 0.139056 50 73 72
-0.47179 0.0417195 0.139256 51 72 73
-0.471164 0.0432423 0.139701 52 72 74
-0.471104 0.0448825 0.1399 50 71 74
-0.471608 0.0466475 0.139855 50 71 74
-0.466289 0.0536723 0.143018 42 74 76
-0.464587 0.0548969 0.143922 43 73 76
-0.462901 0.0561116 0.144819 40 74 77
-0.456999 0.0562385 0.147524 41 76 77
-0.455899 0.0575593 0.148165 45 76 76
-0.45584 0.0591467 0.148358 44 74 76
-0.454746 0.0604574 0.148994 34 77 79
-0.454688 0.0620424 0.149187 31 76 79
-0.455147 0.0637719 0.149159 33 76 79
-0.455606 0.0655075 0.149131 34 76 80
-0.455548 0.0671004 0.149325 37 77 84
-0.456009 0.0688455 0.149298 44 88 96
-0.456471 0.0705969 0.14927 64 112 116
-0.456934 0.0723545 0.149243 94 127 127
-0.472189 0.030506 0.136205 123 126 120
-0.472129 0.0321449 0.136404 100 99 99
-0.471501 0.0336804 0.136853 66 75 79
-0.472007 0.035426 0.136802 54 73 73
-0.471946 0.0370683 0.137002 54 71 74
-0.471885 0.0387117 0.137201 52 72 73
-0.472393 0.040471 0.137151 52 70 75
-0.472332 0.0421191 0.137351 53 71 72
-0.472271 0.0437683 0.137551 53 72 73
-0.472209 0.0454186 0.137751 50 72 73
-0.47158 0.0469452 0.1382 49 71 73
-0.472657 0.0488505 0.137903 46 72 74
-0.471458 0.0502465 0.138601 42 73 74
-0.468523 0.0528835 0.140228 45 73 75
-0.463931 0.0567047 0.142742 44 76 76
-0.463327 0.0581914 0.143175 43 76 78
-0.459506 0.0588368 0.145002 41 75 74
-0.458387 0.0601648 0.145656 41 74 76
-0.454666 0.0607838 0.147434 37 73 79
-0.455126 0.0625155 0.147403 33 75 80
-0.456108 0.0643985 0.147148 30 77 80
-0.456571 0.0661454 0.147116 32 78 80
-0.456512 0.0677477 0.147311 35 79 82
-0.456452 0.0693512 0.147505 38 82 90
-0.456917 0.0711112 0.147475 49 99 108
-0.45791 0.0730361 0.147218 78 120 124
-0.45785 0.07465 0.147414 108 127 126
-0.472106 0.0323979 0.134737 122 123 116
-0.471476 0.0339379 0.13519 96 94 95
-0.471414 0.0355817 0.135389 64 75 80
-0.471922 0.0373368 0.135335 54 73 75
-0.47243 0.0390984 0.135281 48 74 73
-0.47294 0.0408665 0.135228 49 72 77
-0.472879 0.0425224 0.135428 51 72 75
-0.472817 0.0441793 0.135629 52 71 75
-0.472184 0.0457138 0.136083 49 72 75
-0.471552 0.0472448 0.136535 47 72 75
-0.47149 0.0489 0.136736 46 72 75
-0.471429 0.0505564 0.136936 45 72 75
-0.471367 0.0522139 0.137137 45 71 74
-0.470737 0.0537371 0.137588 46 72 75
-0.47011 0.0552567 0.138038 49 74 76
-0.470048 0.0569125 0.138238 49 75 76
-0.469423 0.0584273 0.138686 45 76 76
-0.462728 0.0583798 0.141795 47 75 76
-0.462125 0.0598652 0.142229 44 76 75
-0.460986 0.0612041 0.142898 45 73 75
-0.4572 0.0618189 0.144723 38 74 75
-0.45714 0.0634252 0.144917 31 76 78
-0.458136 0.0653277 0.144652 31 78 79
-0.458076 0.0669409 0.144847 34 77 79
-0.458016 0.0685553 0.145042 36 76 81
-0.457956 0.0701708 0.145238 39 78 84
-0.458426 0.0719451 0.145204 45 91 95
-0.458897 0.0737258 0.14517 63 113 116
-0.458836 0.0753494 0.145366 94 131 129
-0.47202 0.0343029 0.133259 121 119 114
-0.471958 0.0359543 0.133459 89 89 95
-0.472468 0.0377183 0.133401 62 75 78
-0.47298 0.0394887 0.133344 50 75 75
-0.474649 0.0415011 0.132768 49 73 78
-0.474586 0.0431699 0.13297 51 73 77
-0.474523 0.0448398 0.133172 52 72 77
-0.475041 0.0466368 0.133114 49 73 78
-0.474978 0.0483116 0.133317 47 73 76
-0.473757 0.0497256 0.134036 47 73 75
-0.47197 0.0509999 0.135007 48 72 75
-0.471908 0.0526652 0.135208 47 72 75
-0.475308 0.0551613 0.133869 47 73 76
-0.475245 0.0568444 0.134073 50 74 76
-0.475765 0.0586736 0.134017 49 75 76
-0.474992 0.0635882 0.134888 45 74 78
-0.467513 0.0632985 0.13837 44 74 75
-0.459786 0.0628755 0.141955 34 75 74
-0.459725 0.0644987 0.142151 29 77 76
-0.459664 0.066123 0.142347 28 77 79
-0.459603 0.0677484 0.142544 32 77 78
-0.459542 0.0693749 0.14274 38 76 80
-0.458946 0.0708452 0.143172 43 78 81
-0.458885 0.0724715 0.143369 46 83 89
-0.459359 0.0742611 0.143331 54 101 106
-0.459298 0.075892 0.143528 77 123 123
-0.459237 0.0775241 0.143725 110 131 128
-0.472507 0.0363305 0.13151 119 116 113
-0.473597 0.0382161 0.131187 84 85 88
-0.474694 0.0401145 0.130862 61 74 78
-0.475213 0.0419064 0.1308 54 72 79
-0.47632 0.0438275 0.130473 54 72 78
-0.476844 0.0456359 0.13041 53 73 78
-0.47737 0.0474512 0.130347 51 73 78
-0.477306 0.0491418 0.130551 49 73 76
-0.477242 0.0508335 0.130756 49 73 75
-0.477178 0.0525264 0.13096 50 74 75
-0.475938 0.053943 0.131693 49 74 76
-0.474706 0.0553518 0.132422 48 74 76
-0.47406 0.0568952 0.132887 49 74 76
-0.474578 0.0587246 0.132829 49 75 77
-0.476858 0.0610082 0.131983 50 75 78
-0.477384 0.0628608 0.131924 50 74 78
-0.476729 0.064409 0.132393 48 74 79
-0.47549 0.0657966 0.133123 42 74 76
-0.46573 0.0648541 0.137654 29 75 75
-0.46456 0.0662028 0.138347 27 76 76
-0.463397 0.0675443 0.139037 27 76 79
-0.461696 0.0687232 0.139964 30 78 78
-0.461091 0.0702068 0.140403 36 77 80
-0.459949 0.0715277 0.141081 42 79 81
-0.459887 0.0731639 0.141278 46 81 86
-0.459287 0.0746375 0.141714 49 91 97
-0.459226 0.0762734 0.141911 63 112 115
-0.459701 0.0780791 0.141871 94 128 127
-0.460719 0.0800633 0.141593 120 130 125
-0.473577 0.0384919 0.129479 118 115 108
-0.474677 0.0403972 0.129147 77 80 87
-0.475783 0.0423155 0.128814 58 73 82
-0.476307 0.0441234 0.128748 54 73 78
-0.476243 0.0458119 0.128951 54 73 77
-0.477359 0.0477597 0.128616 52 73 76
-0.477887 0.0495881 0.12855 52 74 76
-0.478418 0.0514234 0.128484 51 73 76
-0.478353 0.0531271 0.128689 49 75 76
-0.477694 0.0546911 0.129164 49 76 77
-0.475857 0.0559667 0.130174 49 75 77
-0.47462 0.057375 0.13091 48 75 77
-0.474556 0.0590673 0.131114 48 76 78
-0.475663 0.0610597 0.130787 48 76 79
-0.476187 0.0629124 0.130726 51 75 78
-0.476122 0.0646162 0.130931 51 75 78
-0.474883 0.0660055 0.131666 42 73 75
-0.471914 0.0669124 0.13318 27 74 78
-0.47185 0.0686012 0.133383 26 75 77
-0.47121 0.0701286 0.133846 26 76 78
-0.466048 0.0703535 0.13634 27 79 79
-0.462664 0.0710512 0.138031 33 79 81
-0.460963 0.0722184 0.138964 40 80 82
-0.460358 0.0737013 0.139406 46 80 84
-0.459755 0.0751809 0.139846 48 84 89
-0.459692 0.0768243 0.140044 55 101 104
-0.46017 0.0786391 0.14 78 122 122
-0.460108 0.0802873 0.140199 111 132 128
-0.474659 0.0406817 0.127421 107 107 103
-0.47518 0.042486 0.127353 70 80 85
-0.475704 0.0442972 0.127284 56 75 77
-0.476228 0.0461151 0.127215 53 75 76
-0.477348 0.0480701 0.126873 51 74 77
-0.478474 0.0500386 0.126529 50 74 78
-0.479007 0.0518835 0.126459 51 74 78
-0.478942 0.0535954 0.126665 52 75 78
-0.478278 0.0551663 0.127145 52 75 78
-0.477022 0.0565893 0.127897 51 74 79
-0.475185 0.0578593 0.128914 50 75 80
-0.47512 0.0595597 0.129118 49 77 79
-0.475055 0.0612613 0.129323 47 77 79
-0.475578 0.0631175 0.129259 50 75 80
-0.475513 0.0648241 0.129464 51 75 78
-0.474859 0.0663732 0.129937 42 74 76
-0.473041 0.0675984 0.13094 27 74 77
-0.472976 0.0692979 0.131145 24 77 75
-0.471751 0.0706697 0.131876 24 76 77
-0.470534 0.0720342 0.132603 26 79 79
-0.467621 0.0728926 0.134098 33 80 81
-0.463642 0.0734089 0.136074 41 80 82
-0.461926 0.0745738 0.137021 47 79 83
-0.461315 0.0760633 0.137468 50 81 85
-0.461252 0.0777193 0.137667 51 91 95
-0.461189 0.0793765 0.137866 65 112 114
-0.461672 0.0812101 0.137819 97 129 129
-0.462157 0.0830504 0.137772 122 132 130
-0.475163 0.0427786 0.125613 101 103 101
-0.475688 0.044596 0.125541 70 80 83
-0.476807 0.0465483 0.125192 55 76 79
-0.477336 0.0483826 0.125119 52 76 79
-0.479066 0.0504935 0.124489 53 76 78
-0.479 0.0522098 0.124695 54 75 78
-0.479536 0.0540682 0.124621 54 76 77
-0.47947 0.0557896 0.124828 54 76 77
-0.478802 0.0573657 0.125313 55 76 79
-0.476942 0.0586422 0.12635 55 78 80
-0.475689 0.0600568 0.127104 54 77 78
-0.475623 0.0617666 0.127309 53 76 78
-0.475557 0.0634775 0.127514 52 75 78
-0.475492 0.0651896 0.12772 50 75 79
-0.474836 0.0667432 0.128197 43 74 76
-0.473011 0.0679706 0.129211 28 74 75
-0.472945 0.0696755 0.129416 26 75 77
-0.472297 0.0712159 0.129888 27 76 77
-0.469347 0.0720862 0.131415 30 75 77
-0.467007 0.0731102 0.13266 36 77 80
-0.464695 0.0741228 0.133891 44 78 82
-0.462964 0.0752916 0.134854 49 79 84
-0.461797 0.0766198 0.135557 51 81 85
-0.461184 0.0781121 0.136007 50 84 91
-0.46112 0.0797744 0.136207 56 99 107
-0.461605 0.0816144 0.136156 82 122 124
-0.462091 0.083461 0.136106 113 132 131
-0.476265 0.0450225 0.123507 97 100 98
-0.477391 0.0469856 0.123149 69 80 85
-0.478524 0.0489622 0.12279 56 77 80
-0.47906 0.0508162 0.122713 54 76 80
-0.479597 0.0526773 0.122635 55 78 79
-0.480136 0.0545455 0.122558 54 79 78
-0.480069 0.0562753 0.122765 55 77 78
-0.480002 0.0580062 0.122972 56 77 80
-0.47933 0.0595877 0.123462 56 78 80
-0.478659 0.0611653 0.123952 55 78 79
-0.477991 0.0627391 0.124439 54 77 78
-0.477324 0.0643091 0.124925 53 75 78
-0.474878 0.0653994 0.12624 50 74 78
-0.474812 0.0671155 0.126445 38 72 77
-0.473567 0.0685072 0.127198 27 73 74
-0.472915 0.0700556 0.127675 26 75 77
-0.471682 0.071434 0.128421 26 74 79
-0.470457 0.0728049 0.129163 30 76 80
-0.468666 0.0739994 0.130165 34 76 81
-0.466326 0.0750145 0.13142 44 79 84
-0.464573 0.0761883 0.132401 49 81 84
-0.462837 0.0773525 0.133374 50 81 85
-0.462218 0.0788529 0.133829 50 82 89
-0.462154 0.0805255 0.134029 50 91 98
-0.462089 0.0821992 0.13423 65 113 116
-0.462024 0.0838741 0.13443 97 132 131
-0.462512 0.085734 0.134377 122 132 131
-0.47738 0.0472964 0.121373 94 98 96
-0.477913 0.0491467 0.121293 68 81 84
-0.478449 0.0510041 0.121212 57 77 81
-0.478986 0.0528686 0.121132 55 79 80
-0.479524 0.0547403 0.121051 55 79 80
-0.480065 0.0566191 0.120971 55 78 81
-0.479997 0.0583557 0.121178 56 78 81
-0.479929 0.0600935 0.121386 56 78 80
-0.479254 0.061678 0.12188 55 78 79
-0.477376 0.0629467 0.122941 55 78 79
-0.476111 0.0643615 0.123711 55 75 79
-0.473672 0.0654516 0.125033 50 74 78
-0.473605 0.0671679 0.125238 35 72 77
-0.473539 0.0688853 0.125443 25 72 75
-0.472884 0.0704381 0.125924 25 75 76
-0.472231 0.0719872 0.126404 27 78 79
-0.470998 0.073363 0.127155 27 77 81
-0.469772 0.0747313 0.127901 32 77 82
-0.467411 0.0757483 0.129177 45 79 84
-0.466207 0.0770989 0.12991 50 81 85
-0.46445 0.078268 0.130902 51 81 86
-0.463265 0.0796028 0.131624 53 82 86
-0.463199 0.0812858 0.131825 52 85 91
-0.463134 0.08297 0.132026 57 101 106
-0.463068 0.0846552 0.132228 82 123 121
-0.463002 0.0863417 0.132429 115 131 127
-0.477903 0.0494661 0.119501 90 95 94
-0.479046 0.051468 0.119126 65 80 82
-0.478978 0.0532012 0.119333 57 78 80
-0.479518 0.0550796 0.119249 56 78 80
-0.47945 0.0568179 0.119456 56 78 80
-0.479382 0.0585575 0.119664 55 77 80
-0.478706 0.060146 0.120161 55 78 80
-0.478032 0.0617305 0.120657 55 78 80
-0.476159 0.0629991 0.121723 55 78 80
-0.475494 0.0645715 0.122214 56 77 79
-0.473055 0.0656621 0.123547 52 76 77
-0.472399 0.0672202 0.124031 32 72 76
-0.472332 0.0689378 0.124235 23 71 75
-0.472264 0.0706566 0.12444 22 74 75
-0.471027 0.0720398 0.125199 26 77 78
-0.47096 0.0737555 0.125403 25 78 82
-0.47031 0.0752995 0.125883 32 78 83
-0.469085 0.0766652 0.126634 46 80 85
-0.469018 0.0783764 0.126838 52 81 86
-0.4678 0.0797307 0.127584 52 81 86
-0.466021 0.0808979 0.128594 52 82 85
-0.465954 0.0825993 0.128796 52 83 87
-0.465887 0.0843019 0.128999 53 91 97
-0.46582 0.0860056 0.129202 78 111 114
-0.465187 0.0875208 0.129671 115 130 127
-0.47843 0.0516581 0.11761 84 90 90
-0.478362 0.0533943 0.117817 65 78 80
-0.478293 0.0551316 0.118023 60 77 77
-0.478225 0.0568702 0.11823 58 76 77
-0.478156 0.0586099 0.118437 56 77 79
-0.478088 0.0603507 0.118644 54 78 81
-0.477413 0.0619377 0.119143 54 78 81
-0.47554 0.0632074 0.120218 54 79 81
-0.474874 0.0647821 0.120711 56 79 79
-0.471846 0.0657143 0.122337 51 77 76
-0.471193 0.0672726 0.122823 28 70 73
-0.471125 0.0689903 0.123027 22 70 72
-0.470473 0.0705432 0.123511 20 72 73
-0.469823 0.0720924 0.123994 28 74 79
-0.469755 0.0738083 0.124198 26 78 82
-0.469688 0.0755253 0.124402 32 79 84
-0.46904 0.0770678 0.124883 46 82 86
-0.468972 0.0787845 0.125087 53 81 86
-0.468904 0.0805024 0.125292 53 81 85
-0.467683 0.0818555 0.126045 52 83 86
-0.467041 0.0833856 0.126521 52 83 87
-0.466401 0.0849121 0.126997 56 88 95
-0.466334 0.0866239 0.1272 84 109 111
-0.465696 0.0881454 0.127674 120 131 125
-0.477275 0.0499748 0.116179 128 137 130
-0.477207 0.05171 0.116385 104 108 101
-0.477138 0.0534463 0.116591 78 81 80
-0.477069 0.0551837 0.116797 66 74 73
-0.477 0.0569224 0.117004 61 75 73
-0.476931 0.0586622 0.11721 57 78 78
-0.476862 0.0604033 0.117417 55 80 82
-0.476189 0.0619903 0.117917 57 79 81
-0.475518 0.0635734 0.118416 57 78 81
-0.474252 0.0649934 0.119203 57 78 80
-0.470638 0.0657666 0.121128 50 76 77
-0.469986 0.0673249 0.121615 29 70 71
-0.469918 0.0690428 0.121819 23 71 71
-0.468687 0.0704302 0.122585 25 74 77
-0.468619 0.072145 0.122789 39 80 86
-0.468551 0.0738611 0.122992 29 78 84
-0.468483 0.0755782 0.123196 33 79 85
-0.468414 0.0772966 0.1234 48 84 88
-0.468926 0.0791952 0.123325 53 83 86
-0.469439 0.0811009 0.123251 54 83 86
-0.469371 0.0828283 0.123456 57 89 92
-0.468141 0.0841818 0.124218 70 94 96
-0.467495 0.0857168 0.124699 85 104 102
-0.466851 0.0872481 0.125179 106 121 116
-0.466209 0.0887758 0.125658 126 134 127
-0.476587 0.0519008 0.114861 120 119 109
-0.475913 0.0534982 0.115365 104 108 97
-0.475844 0.0552358 0.115571 79 89 90
-0.475775 0.0569747 0.115777 62 81 86
-0.475705 0.0587146 0.115983 57 82 84
-0.475636 0.0604558 0.11619 55 81 84
-0.474965 0.0620429 0.116692 57 79 84
-0.474296 0.0636261 0.117192 58 78 81
-0.473033 0.0650461 0.117983 57 77 80
-0.46943 0.0658189 0.119919 49 77 79
-0.468779 0.0673772 0.120407 37 80 79
-0.46813 0.0689318 0.120894 35 85 84
-0.467483 0.0704827 0.12138 37 89 95
-0.467414 0.0721977 0.121583 52 103 103
-0.467346 0.0739138 0.121787 31 78 87
-0.467277 0.0756312 0.12199 36 76 84
-0.467787 0.0775261 0.121913 48 81 86
-0.468298 0.0794282 0.121835 52 83 85
-0.469394 0.081521 0.121474 52 86 89
-0.470497 0.0836284 0.121111 62 99 106
-0.469255 0.0849881 0.121885 96 116 117
-0.468603 0.0865316 0.122372 119 129 121
-0.468534 0.0882653 0.122578 126 133 127
-0.475361 0.0519527 0.113634 125 120 114
-0.474689 0.0535502 0.11414 120 121 111
-0.474619 0.0552879 0.114345 118 111 102
-0.474549 0.0570269 0.114551 104 95 93
-0.474479 0.058767 0.114756 85 86 91
-0.47381 0.0603558 0.11526 74 82 90
-0.473142 0.0619406 0.115762 71 80 90
-0.471883 0.0633649 0.116557 68 78 88
-0.470632 0.0647814 0.117347 58 78 85
-0.467641 0.0657126 0.118996 48 79 87
-0.467572 0.0674296 0.119199 37 87 95
-0.466348 0.0688212 0.119972 35 89 96
-0.466279 0.0705352 0.120175 38 94 103
-0.46621 0.0722503 0.120378 53 110 109
-0.466141 0.0739666 0.120581 47 82 91
-0.466072 0.0756841 0.120784 34 79 85
-0.467157 0.0777563 0.12042 34 74 82
-0.468249 0.0798429 0.120054 42 74 81
-0.469348 0.0819438 0.119686 47 82 91
-0.471044 0.0842487 0.119026 50 101 123
-0.470974 0.0859967 0.119233 96 137 143
-0.470313 0.0875511 0.119728 122 141 140
-0.473464 0.0536021 0.112914 129 123 114
-0.472796 0.0551958 0.113419 131 120 112
-0.47213 0.0567854 0.113923 124 117 113
-0.47206 0.0585202 0.114128 112 115 112
-0.471395 0.0601044 0.114631 106 113 108
-0.470733 0.0616847 0.115132 102 112 105
-0.469485 0.0631055 0.115926 84 96 99
-0.467663 0.0643614 0.117006 56 73 87
-0.465857 0.0656066 0.118076 44 78 86
-0.465788 0.0673211 0.118278 40 90 97
-0.465144 0.0688736 0.118767 36 92 99
-0.465075 0.0705877 0.11897 41 99 108
-0.465005 0.072303 0.119172 51 114 118
-0.464936 0.0740194 0.119375 51 99 106
-0.464867 0.075737 0.119577 62 88 104
-0.465947 0.0778096 0.119209 80 85 94
-0.467035 0.0798964 0.118839 92 86 94
-0.46989 0.082556 0.117595 93 87 98
-0.46982 0.084303 0.117801 90 93 109
-0.470932 0.0864375 0.117422 111 117 125
-0.46841 0.0597042 0.114302 126 132 123
-0.467755 0.0612778 0.114801 124 129 119
-0.466522 0.0626933 0.115592 108 111 105
-0.465297 0.064101 0.116378 77 84 88
-0.464079 0.065501 0.117159 50 83 87
-0.464009 0.0672129 0.117361 42 91 99
-0.46394 0.068926 0.117562 40 95 103
-0.463299 0.0704749 0.118051 45 106 114
-0.46323 0.0721876 0.118253 52 118 127
-0.46316 0.0739015 0.118455 55 110 114
-0.463661 0.07579 0.11837 100 123 123
-0.464738 0.0778629 0.117998 118 129 124
-0.465243 0.0797689 0.117913 125 132 126
-0.468666 0.0826101 0.116369 127 133 129
-0.469774 0.0847382 0.115986 124 135 132
-0.46423 0.060724 0.114767 131 133 128
-0.463587 0.062285 0.115261 128 126 118
-0.462945 0.0638422 0.115753 103 108 103
-0.462306 0.0653957 0.116244 58 89 95
-0.462236 0.0671051 0.116445 42 92 98
-0.462166 0.0688156 0.116646 42 98 104
-0.462096 0.0705273 0.116847 51 112 119
-0.462026 0.0722402 0.117049 54 123 133
-0.461956 0.0739542 0.11725 63 117 122
-0.462455 0.075843 0.117164 123 141 132
-0.463527 0.0779162 0.116787 137 142 136
-0.461245 0.0620321 0.114641 134 137 131
-0.461175 0.0637394 0.114841 112 123 120
-0.460539 0.0652907 0.115333 62 91 101
-0.460468 0.0669976 0.115533 41 94 99
-0.460398 0.0687055 0.115733 45 100 106
-0.460328 0.0704147 0.115934 62 118 124
-0.460823 0.0722928 0.115844 55 125 136
-0.460753 0.074007 0.116045 75 125 130
-0.460682 0.0757223 0.116247 128 145 136
-0.458917 0.0617809 0.114025 133 138 132
-0.458847 0.0634829 0.114224 109 122 118
-0.458776 0.0651861 0.114424 61 91 101
-0.458706 0.0668904 0.114623 42 95 104
-0.458635 0.0685959 0.114823 51 106 114
-0.459127 0.0704671 0.114731 75 128 132
-0.459056 0.0721776 0.114931 60 124 135
-0.459549 0.0740597 0.11484 89 132 136
-0.459478 0.0757752 0.115041 129 146 139
-0.45772 0.0618325 0.112826 126 137 131
-0.457649 0.0635346 0.113025 95 117 117
-0.457578 0.0652379 0.113224 56 93 103
-0.457507 0.0669424 0.113423 43 99 110
-0.457436 0.068648 0.113622 57 119 127
-0.457365 0.0703548 0.113822 84 145 144
-0.457854 0.0722301 0.113729 73 123 135
-0.457783 0.0739419 0.113929 107 136 140
-0.458273 0.0758281 0.113836 135 146 138
-0.455965 0.0617332 0.111923 120 135 134
-0.455894 0.0634328 0.112121 82 117 122
-0.455823 0.0651336 0.112319 51 100 107
-0.456308 0.0669944 0.112223 46 109 116
-0.456237 0.0687002 0.112422 57 130 138
-0.456166 0.0704071 0.112621 80 152 154
-0.456094 0.0721152 0.11282 88 129 138
-0.45658 0.0739946 0.112725 125 139 142
-0.454216 0.0616341 0.111022 111 134 135
-0.454145 0.0633312 0.11122 71 117 125
-0.454626 0.0651853 0.111122 51 107 114
-0.454555 0.0668875 0.111319 54 116 124
-0.455038 0.0687524 0.111221 67 140 150
-0.454966 0.0704594 0.11142 79 159 165
-0.454894 0.0721677 0.111619 101 143 143
-0.454822 0.0738771 0.111818 127 139 141
-0.452472 0.0615354 0.110124 108 130 130
-0.4524 0.06323 0.110321 66 114 121
-0.452878 0.0650812 0.110221 49 112 120
-0.453357 0.0669394 0.110121 64 124 132
-0.453285 0.0686428 0.110319 84 144 153
-0.453766 0.0705117 0.110219 78 158 169
-0.453693 0.0722201 0.110417 105 159 155
-0.453621 0.0739297 0.110616 127 137 140
-0.450733 0.061437 0.109229 110 127 127
-0.450661 0.0631291 0.109425 66 113 119
-0.451135 0.0649775 0.109323 50 119 125
-0.451611 0.0668327 0.109222 73 136 140
-0.452087 0.0686949 0.10912 99 156 160
-0.452015 0.0703996 0.109317 78 156 174
-0.452493 0.0722726 0.109215 101 169 169
-0.45242 0.0739823 0.109413 128 145 140
-0.448459 0.06119 0.108634 108 128 130
-0.448387 0.062877 0.108829 66 114 123
-0.449398 0.064874 0.108428 51 124 132
-0.449869 0.0667263 0.108325 78 145 148
-0.450342 0.0685856 0.108221 108 162 163
-0.450816 0.0704519 0.108117 91 155 175
-0.450743 0.0721579 0.108315 106 164 175
-0.451219 0.074035 0.108211 131 147 141
-0.446807 0.0594092 0.107551 131 147 145
-0.446734 0.0610926 0.107745 97 130 135
-0.446662 0.0627772 0.107939 63 120 131
-0.447126 0.0646167 0.107835 53 128 140
-0.448133 0.0666203 0.107431 75 150 157
-0.448602 0.0684767 0.107325 108 167 169
-0.449072 0.07034 0.10722 109 156 170
-0.449544 0.0722103 0.107114 117 156 169
-0.450017 0.0740876 0.107009 135 148 142
-0.444024 0.0590248 0.107263 124 148 146
-0.443952 0.0607005 0.107455 85 133 140
-0.443879 0.0623775 0.107648 60 125 136
-0.444337 0.064208 0.107544 56 132 146
-0.446402 0.0665147 0.106539 73 157 167
-0.446867 0.0683681 0.106432 103 175 176
-0.447333 0.0702285 0.106325 121 158 163
-0.447801 0.0720958 0.106218 130 150 157
-0.441791 0.0587873 0.106679 115 146 146
-0.441194 0.0603121 0.107169 74 133 141
-0.441122 0.0619815 0.10736 57 129 137
-0.443154 0.0642592 0.10636 62 135 147
-0.443081 0.0659412 0.106553 76 159 170
-0.444602 0.0681003 0.105844 96 176 178
-0.4456 0.0701173 0.105433 123 160 160
-0.439571 0.0585513 0.106099 112 141 142
-0.43898 0.060072 0.106588 71 130 139
-0.438907 0.0617364 0.106778 56 130 139
-0.440395 0.0638541 0.106077 76 139 148
-0.440845 0.0656827 0.105969 88 157 171
-0.441823 0.0676758 0.105561 89 170 182
-0.442807 0.0696824 0.105151 118 165 165
-0.437881 0.058459 0.105225 109 135 136
-0.437808 0.0601224 0.105415 68 127 135
-0.437735 0.061787 0.105605 55 130 140
-0.438178 0.063603 0.105497 91 146 149
-0.438623 0.0654258 0.105389 106 160 169
-0.43907 0.0672553 0.105281 89 171 187
-0.44004 0.0692514 0.104871 113 173 174
-0.436195 0.058367 0.104352 104 131 137
-0.436122 0.060028 0.104542 67 125 136
-0.436049 0.0616902 0.104731 56 131 141
-0.436489 0.0635035 0.104622 93 146 151
-0.43693 0.0653234 0.104512 107 157 170
-0.437373 0.0671501 0.104402 89 166 193
-0.437816 0.0689835 0.104292 110 171 182
-0.435099 0.0567572 0.102992 130 152 150
-0.435026 0.0584173 0.103181 93 134 141
-0.434952 0.0600784 0.10337 64 128 138
-0.434878 0.0617408 0.103559 58 132 144
-0.435316 0.0635542 0.103448 93 157 160
-0.435241 0.0652214 0.103638 117 167 172
-0.43568 0.0670452 0.103526 108 163 184
-0.436121 0.0688758 0.103414 118 164 174
-0.43393 0.0568073 0.101821 116 150 152
-0.433855 0.0584675 0.10201 81 136 143
-0.433781 0.0601289 0.102199 62 131 139
-0.433707 0.0617913 0.102387 59 134 148
-0.433632 0.0634549 0.102576 85 164 173
-0.434068 0.0652723 0.102463 125 175 178
-0.433993 0.0669407 0.102653 134 164 173
-0.43443 0.0687684 0.102539 128 157 163
-0.43276 0.0568575 0.10065 107 144 149
-0.432178 0.0583757 0.101143 73 135 142
-0.432104 0.0600346 0.101331 58 132 139
-0.432536 0.0618419 0.101215 61 137 150
-0.432461 0.0635056 0.101404 79 166 178
-0.432386 0.0651705 0.101593 126 178 179
-0.432819 0.0669918 0.101477 150 161 164
-0.431084 0.0567679 0.0997855 105 139 142
-0.431009 0.0584259 0.0999731 68 132 140
-0.430934 0.060085 0.100161 55 132 140
-0.430859 0.0617452 0.100349 73 140 150
-0.431289 0.0635563 0.100231 85 162 177
-0.431214 0.0652213 0.10042 120 181 184
-0.431139 0.0668875 0.100608 150 166 166
-0.429916 0.056818 0.0986159 103 134 137
-0.429841 0.0584761 0.0988031 65 130 139
-0.429765 0.0601353 0.0989905 54 132 142
-0.42969 0.0617957 0.0991779 94 150 153
-0.430117 0.063607 0.0990582 98 163 177
-0.430042 0.0652722 0.0992462 109 181 191
-0.429966 0.0669385 0.0994343 137 169 170
-0.428747 0.0568681 0.0974461 98 132 138
-0.428171 0.0583844 0.097942 63 129 138
-0.428096 0.0600412 0.0981287 56 132 143
-0.42802 0.0616992 0.0983155 103 155 156
-0.428444 0.0635078 0.0981942 106 161 174
-0.428368 0.0651706 0.0983816 98 178 194
-0.428793 0.0669895 0.0982604 124 171 174
-0.426659 0.0549874 0.0967117 128 150 151
-0.426583 0.0566397 0.0968975 87 133 142
-0.426507 0.058293 0.0970833 61 130 139
-0.426431 0.0599474 0.0972694 56 133 146
-0.426355 0.061603 0.0974555 100 158 162
-0.427274 0.0635585 0.0970227 110 160 174
-0.427197 0.0652214 0.0972097 102 173 192
-0.427121 0.0668854 0.0973968 123 167 173
-0.425494 0.0550373 0.0955455 115 148 153
-0.424924 0.0565509 0.0960419 78 135 144
-0.424848 0.0582019 0.0962271 59 131 139
-0.424771 0.059854 0.0964125 58 136 150
-0.424695 0.0615072 0.096598 93 169 173
-0.425607 0.0634595 0.0961628 121 169 176
-0.42553 0.06512 0.0963491 123 165 182
-0.424959 0.0666274 0.0968458 132 161 167
-0.423837 0.0549508 0.0946922 105 144 150
-0.42327 0.0564624 0.0951887 70 134 144
-0.423193 0.058111 0.0953733 58 131 140
-0.423117 0.0597607 0.095558 63 137 154
-0.42304 0.0614116 0.0957428 80 170 182
-0.423945 0.0633608 0.0953053 128 174 178
-0.423868 0.0650189 0.095491 145 163 168
-0.4233 0.0665243 0.0959878 143 156 156
-0.421211 0.0545939 0.0944662 101 138 143
-0.420167 0.0559626 0.0952704 66 134 142
-0.420091 0.0576014 0.0954534 57 132 142
-0.420497 0.0593831 0.0953274 70 141 154
-0.42042 0.0610266 0.095511 79 167 184
-0.421799 0.063114 0.0947628 126 173 179
-0.421722 0.0647672 0.0949475 152 159 164
-0.41813 0.0541067 0.0945522 102 134 139
-0.417577 0.055604 0.095043 65 131 141
-0.417501 0.0572356 0.0952249 56 131 145
-0.417424 0.0588683 0.0954069 86 146 156
-0.417824 0.0606451 0.095281 87 159 178
-0.419667 0.0628686 0.0942234 115 179 183
-0.41959 0.064517 0.0944071 144 167 168
-0.416106 0.0522627 0.093839 144 156 155
-0.41603 0.0538898 0.0940199 98 132 141
-0.415953 0.055518 0.094201 63 131 143
-0.415876 0.0571473 0.0943823 55 133 147
-0.4158 0.0587777 0.0945636 102 154 159
-0.416196 0.0605519 0.0944363 97 158 177
-0.416593 0.0623325 0.0943087 105 180 191
-0.416516 0.0639711 0.094491 135 171 169
-0.414018 0.0520518 0.0933106 130 156 156
-0.413942 0.0536742 0.0934907 86 133 141
-0.413865 0.0552977 0.0936709 64 131 140
-0.413788 0.0569223 0.0938512 58 134 147
-0.41418 0.0586874 0.0937227 102 156 161
-0.414573 0.0604589 0.0935939 99 156 174
-0.41544 0.0623824 0.0931537 100 174 193
-0.415362 0.0640212 0.0933356 132 171 172
-0.412407 0.0519712 0.0924754 115 152 156
-0.41233 0.0535914 0.0926548 74 136 143
-0.412253 0.0552125 0.0928344 63 131 140
-0.412176 0.0568349 0.093014 61 134 151
-0.412099 0.0584583 0.0931938 95 167 174
-0.412487 0.0602243 0.0930642 106 162 173
-0.413814 0.0622867 0.0923114 110 165 185
-0.413736 0.0639232 0.0924927 138 166 168
-0.411264 0.05202 0.091331 102 144 149
-0.411187 0.0536402 0.09151 70 135 142
-0.411109 0.0552616 0.0916891 61 131 142
-0.411031 0.056884 0.0918684 63 137 153
-0.410954 0.0585076 0.0920478 84 171 181
-0.410876 0.0601323 0.0922273 114 173 176
-0.411262 0.061902 0.0920961 128 166 174
-0.412116 0.0638255 0.0916521 146 162 164
-0.409659 0.0519396 0.0904996 101 136 140
-0.409581 0.0535576 0.090678 67 134 141
-0.409503 0.0551766 0.0908565 58 132 143
-0.409426 0.0567968 0.0910351 69 143 154
-0.409809 0.0585569 0.0909017 79 169 181
-0.409731 0.0601817 0.0910808 118 176 175
-0.409652 0.0618076 0.0912601 139 165 166
-0.408517 0.0519883 0.0893565 101 130 138
-0.408439 0.0536064 0.0895345 66 133 141
-0.408361 0.0552256 0.0897126 58 134 144
-0.408282 0.0568459 0.0898909 83 151 155
-0.408204 0.0584673 0.0900693 79 165 177
-0.408585 0.0602312 0.0899341 111 174 176
-0.408506 0.0618572 0.090113 140 162 163
-0.406997 0.0502933 0.0883517 142 160 156
-0.406918 0.0519081 0.088529 93 131 139
-0.40684 0.0535239 0.0887063 63 133 141
-0.406761 0.0551408 0.0888838 59 133 144
-0.406683 0.0567589 0.0890614 95 159 156
-0.40706 0.0585166 0.0889245 84 160 173
-0.406982 0.0601393 0.0891026 100 173 180
-0.40736 0.0619068 0.0889657 136 165 163
-0.405857 0.0503419 0.0872103 126 156 158
-0.405778 0.0519567 0.0873872 84 132 141
-0.405699 0.0535727 0.0875642 62 134 141
-0.405167 0.0550564 0.0880573 60 135 144
-0.405088 0.0566721 0.0882342 98 160 160
-0.405462 0.0584272 0.0880959 88 157 173
-0.405837 0.0601887 0.0879573 98 174 185
-0.405758 0.0618126 0.0881351 133 165 162
-0.404264 0.0502641 0.0863872 110 151 156
-0.404185 0.0518767 0.0865634 72 135 142
-0.404106 0.0534904 0.0867398 60 133 142
-0.403576 0.0549721 0.087233 60 135 148
-0.403497 0.0565857 0.0874093 93 166 170
-0.403868 0.0583382 0.0872696 93 159 172
-0.40424 0.060097 0.0871296 103 167 181
-0.404161 0.0617186 0.0873068 133 162 162
-0.402676 0.0501865 0.0855664 101 142 148
-0.402597 0.0517969 0.085742 66 136 142
-0.402518 0.0534083 0.0859177 61 132 140
-0.402438 0.0550209 0.0860935 62 137 152
-0.402359 0.0566346 0.0862695 84 168 176
-0.402279 0.0582494 0.0864456 100 165 170
-0.402648 0.0600056 0.0863041 116 162 172
-0.402568 0.061625 0.0864807 141 160 159
-0.400648 0.0499839 0.0850668 98 134 139
-0.400569 0.0515896 0.0852415 65 134 141
-0.400489 0.0531965 0.0854163 62 130 140
-0.400854 0.0549368 0.085273 68 141 153
-0.400774 0.0565483 0.0854484 79 165 179
-0.400694 0.0581608 0.0856238 104 169 171
-0.40106 0.0599144 0.085481 129 161 165
-0.397318 0.0494106 0.0855206 94 129 134
-0.397239 0.0510047 0.0856937 65 132 140
-0.39716 0.0526 0.0858669 62 130 142
-0.397954 0.0544578 0.0854088 81 145 154
-0.398753 0.0563278 0.0849482 81 161 178
-0.398673 0.0579357 0.0851227 103 172 174
-0.399034 0.0596839 0.0849792 135 159 160
-0.395838 0.0477444 0.0845379 135 153 154
-0.395326 0.0492123 0.085026 87 129 137
-0.395247 0.050802 0.0851981 64 131 142
-0.395167 0.0523926 0.0853704 61 131 144
-0.395953 0.0542446 0.0849119 91 151 157
-0.396308 0.0559751 0.0847683 84 158 173
-0.396663 0.0577119 0.0846244 98 173 175
-0.39702 0.0594548 0.0844802 135 162 160
-0.393854 0.0475511 0.084047 120 152 158
-0.393774 0.0491375 0.0842184 77 131 142
-0.393694 0.0507249 0.08439 61 132 145
-0.393614 0.0523134 0.0845616 61 133 145
-0.393964 0.0540326 0.0844177 95 161 161
-0.394745 0.0558906 0.0839561 86 157 170
-0.395098 0.0576248 0.0838108 97 174 179
-0.395451 0.0593652 0.0836653 135 167 160
-0.392306 0.0474787 0.0832422 107 149 157
-0.392226 0.0490628 0.083413 70 134 142
-0.392146 0.0506481 0.083584 59 133 143
-0.392066 0.0522344 0.083755 61 135 147
-0.392412 0.0539511 0.0836097 91 168 167
-0.392759 0.0556739 0.0834641 91 159 168
-0.393537 0.0575379 0.0829995 104 170 177
-0.393887 0.0592758 0.0828526 141 167 160
-0.390762 0.0474064 0.0824396 99 139 147
-0.390682 0.0489884 0.0826098 69 135 141
-0.390602 0.0505715 0.0827801 61 132 141
-0.390522 0.0521557 0.0829506 63 138 151
-0.390865 0.0538699 0.082804 84 169 175
-0.391208 0.0555902 0.082657 98 161 166
-0.39198 0.0574514 0.0821903 117 161 169
-0.392327 0.0591867 0.0820421 145 164 158
-0.389644 0.0474539 0.0813203 98 129 136
-0.389564 0.049036 0.0814902 68 134 141
-0.389483 0.0506192 0.0816601 62 131 141
-0.389402 0.0522035 0.0818302 70 143 153
-0.389322 0.0537889 0.0820004 79 165 177
-0.389662 0.0555067 0.0818521 103 164 167
-0.390428 0.0573651 0.0813834 133 162 164
-0.388526 0.0475013 0.0802009 94 126 135
-0.388026 0.0489618 0.0806906 65 134 143
-0.387945 0.0505428 0.0808599 61 130 141
-0.388283 0.0522514 0.0807096 83 150 154
-0.388202 0.0538369 0.0808794 81 161 175
-0.38812 0.0554235 0.0810493 101 168 169
-0.38888 0.0572791 0.0805786 141 165 162
-0.387489 0.0459675 0.0789123 136 162 157
-0.38699 0.0474292 0.0794034 84 130 137
-0.386909 0.0490093 0.0795722 63 134 141
-0.386827 0.0505905 0.0797412 59 132 142
-0.386746 0.0521727 0.0799103 94 156 155
-0.387082 0.0538849 0.0797583 85 160 170
-0.387 0.0554716 0.0799279 96 170 174
-0.387337 0.0571933 0.079776 141 166 163
-0.386371 0.0460148 0.0777929 117 157 158
-0.385873 0.0474766 0.0782852 74 132 139
-0.385376 0.0489352 0.0787763 62 132 138
-0.385295 0.0505142 0.0789446 62 131 144
-0.385628 0.0522205 0.078791 95 160 161
-0.385962 0.0539329 0.0786371 89 157 169
-0.38588 0.0555198 0.0788062 95 169 179
-0.385798 0.0571077 0.0789756 143 167 164
-0.385335 0.0444816 0.0765052 156 162 156
-0.384838 0.0459447 0.0769989 102 151 154
-0.384756 0.047524 0.0771669 69 136 143
-0.384261 0.0489827 0.0776592 61 130 140
-0.384179 0.0505618 0.0778272 61 133 148
-0.384097 0.0521421 0.0779953 91 166 169
-0.384427 0.053852 0.07784 92 159 167
-0.384759 0.0555679 0.0776844 103 167 177
-0.384676 0.057156 0.0778534 149 171 165
-0.384216 0.0445289 0.0753858 152 159 153
-0.383721 0.045992 0.0758808 92 135 141
-0.383227 0.0474519 0.0763745 67 135 143
-0.382734 0.0489088 0.0768668 61 130 139
-0.382652 0.0504858 0.0770342 61 137 152
-0.38257 0.0520639 0.0772016 84 171 179
-0.382897 0.0537713 0.0770451 97 164 168
-0.383638 0.0556161 0.0765625 120 161 171
-0.383098 0.0445761 0.0742663 150 157 151
-0.382604 0.0460393 0.0747625 93 126 134
-0.381702 0.0473801 0.0755841 65 133 143
-0.381212 0.0488351 0.0760765 59 129 140
-0.381129 0.0504099 0.0762433 69 143 151
-0.381047 0.0519859 0.0764102 82 172 182
-0.38178 0.0538192 0.0759266 99 165 170
-0.382106 0.0555329 0.0757677 136 162 166
-0.38198 0.0446233 0.0731465 146 162 157
-0.381078 0.0459692 0.0739736 91 125 134
-0.380182 0.0473085 0.0747959 62 133 142
-0.379694 0.0487616 0.0752884 59 129 141
-0.379611 0.0503343 0.0754546 88 153 153
-0.379933 0.0520335 0.0752951 82 164 176
-0.380255 0.0537387 0.0751353 98 167 172
-0.380579 0.0554499 0.0749751 145 166 165
-0.380861 0.0446706 0.0720267 127 161 163
-0.379962 0.0460165 0.0728566 81 129 137
-0.378263 0.0471188 0.0743369 60 132 142
-0.377779 0.0485681 0.0748283 60 131 143
-0.377696 0.0501364 0.0749936 100 159 156
-0.378416 0.0519556 0.0745072 86 158 170
-0.379139 0.0537865 0.0740181 91 169 175
-0.379461 0.0554979 0.0738559 141 167 164
-0.379742 0.0447178 0.0709066 110 154 161
-0.378846 0.0460637 0.0717394 72 133 141
-0.376754 0.0470478 0.0735536 60 130 141
-0.37548 0.0482564 0.0746953 62 133 145
-0.375397 0.0498182 0.0748595 99 161 161
-0.376504 0.0517533 0.0740484 88 155 166
-0.377219 0.0535784 0.073559 92 168 178
-0.377939 0.0554151 0.0730669 144 173 168
-0.37773 0.046111 0.0706221 69 136 140
-0.374066 0.0466259 0.0737519 61 129 138
-0.37359 0.0480658 0.0742399 64 134 147
-0.373899 0.0497441 0.074079 89 168 170
-0.374209 0.0514282 0.0739179 89 155 165
-0.37531 0.0533714 0.0731024 104 169 178
-0.376422 0.0553326 0.07228 151 177 171
-0.372183 0.04644 0.0733 59 129 137
-0.371712 0.0478762 0.0737868 67 138 150
-0.372017 0.0495496 0.0736255 82 170 177
-0.372712 0.0513519 0.0731382 94 159 166
-0.37302 0.0530396 0.0729755 124 163 171
-0.374908 0.0552503 0.0714952 165 177 170
-0.370697 0.0463708 0.0725254 59 127 139
-0.370228 0.0478052 0.0730123 74 145 151
-0.37053 0.0494762 0.0728497 80 166 180
-0.370833 0.051153 0.0726868 99 165 169
-0.371525 0.0529611 0.0721966 142 164 167
-0.373005 0.0550387 0.0710438 167 180 169
-0.369215 0.0463018 0.071753 62 129 141
-0.369131 0.0478519 0.0719144 89 154 156
-0.369047 0.049403 0.0720761 80 162 175
-0.369347 0.0510775 0.0719119 95 168 169
-0.370034 0.0528829 0.0714198 153 168 166
-0.370724 0.0546998 0.070925 170 178 170
-0.367737 0.046233 0.0709825 59 134 144
-0.367653 0.0477809 0.0711434 94 159 163
-0.36795 0.0494498 0.0709777 82 157 171
-0.368248 0.0511245 0.0708115 91 169 175
-0.368547 0.0528049 0.0706451 154 177 170
-0.366642 0.0462794 0.0698862 66 140 152
-0.366558 0.0478276 0.0700467 98 174 172
-0.366473 0.0493768 0.0702074 83 156 169
-0.366388 0.050927 0.0703681 92 171 180
-0.367064 0.0527272 0.0698723 160 185 176
-0.365547 0.0463259 0.0687897 108 150 163
-0.365462 0.0478742 0.0689499 104 176 180
-0.365377 0.0494235 0.0691102 93 158 167
-0.365292 0.0509739 0.0692706 110 169 177
-0.365207 0.0525254 0.0694311 160 185 175
-0.364451 0.0463724 0.0676931 111 181 181
-0.364366 0.0479208 0.0678529 102 175 180
-0.364281 0.0494703 0.0680128 89 159 171
-0.364195 0.0510208 0.0681729 128 167 172
-0.36411 0.0525724 0.068333 163 187 178
-0.363356 0.0464189 0.0665963 99 173 179
-0.36327 0.0479674 0.0667558 103 174 175
-0.363184 0.049517 0.0669153 87 159 170
-0.363099 0.0510677 0.067075 159 169 166
-0.36226 0.0464654 0.0654994 96 174 178
-0.362174 0.048014 0.0656585 98 175 175
-0.362088 0.0495638 0.0658177 86 159 170
-0.361164 0.0465119 0.0644023 93 174 177
-0.361078 0.0480607 0.064561 90 169 176
-0.360991 0.0496105 0.0647198 85 158 176
-0.360068 0.0465584 0.063305 93 172 179
-0.359981 0.0481073 0.0634634 86 167 176
-0.359894 0.0496573 0.0636218 91 158 183
-0.358972 0.0466049 0.0622076 98 170 176
-0.358884 0.048154 0.0623656 88 166 171
-0.357963 0.0451033 0.0609524 94 172 175
-0.357875 0.0466515 0.06111 96 174 178
-0.357788 0.0482007 0.0612676 85 165 173
-0.35264 0.0422874 0.0637424 85 154 158
-0.352554 0.0438087 0.0638968 96 171 176
-0.354246 0.045895 0.062385 95 172 176
-0.355962 0.0480119 0.0608517 86 162 171
-0.350163 0.0419041 0.0639878 87 150 150
-0.350774 0.0436351 0.0634812 104 173 168
-0.351389 0.0453768 0.0629718 96 169 173
-0.351303 0.0469003 0.0631261 87 160 173
