ply
format ascii 1.0
element vertex 1199
property float x
property float y
property float z
property uchar diffuse_red
property uchar diffuse_green
property uchar diffuse_blue
end_header
-0.342827 -0.0808038 0.15537 108 24 21
-0.342008 -0.0795795 0.155957 153 31 16
-0.341962 -0.0785003 0.156081 182 34 12
-0.342687 -0.0775559 0.155745 188 31 9
-0.353702 -0.0783653 0.149265 190 29 9
-0.353935 -0.0772782 0.149227 193 28 11
-0.353604 -0.0760963 0.149527 197 29 12
-0.353837 -0.0750052 0.149489 202 28 9
-0.353788 -0.0738675 0.149621 211 32 10
-0.354022 -0.0727712 0.149584 232 34 13
-0.353973 -0.0716308 0.149715 249 53 38
-0.353641 -0.0704501 0.150015 255 77 63
-0.353875 -0.0693477 0.149979 255 84 69
-0.353826 -0.068205 0.15011 255 73 58
-0.354059 -0.0670974 0.150074 255 67 51
-0.35401 -0.0659519 0.150206 255 68 48
-0.353961 -0.0648057 0.150339 255 70 54
-0.354195 -0.0636908 0.150303 255 67 53
-0.354146 -0.0625417 0.150436 255 67 50
-0.353813 -0.0613624 0.150736 255 73 53
-0.353763 -0.0602131 0.150868 255 76 59
-0.353149 -0.0590093 0.151334 255 73 57
-0.3531 -0.057861 0.151467 255 68 52
-0.35305 -0.056712 0.151599 255 66 52
-0.353001 -0.0555622 0.151732 255 64 51
-0.454838 -0.0379537 0.0940862 255 61 46
-0.454768 -0.0363184 0.0942748 255 63 45
-0.454698 -0.0346819 0.0944635 255 64 44
-0.452422 -0.0330557 0.0959342 255 62 44
-0.450716 -0.0314432 0.097072 255 65 45
-0.450646 -0.0298212 0.0972591 255 69 47
-0.450035 -0.0282084 0.0977604 255 72 51
-0.447282 -0.0266501 0.0995024 255 67 51
-0.445623 -0.0250848 0.100609 255 67 50
-0.445554 -0.0234807 0.100794 255 59 43
-0.44391 -0.0219348 0.10189 255 57 39
-0.441764 -0.0204235 0.103274 255 59 39
-0.438627 -0.018977 0.105229 255 61 40
-0.437046 -0.0174779 0.106285 255 62 42
-0.435479 -0.0159911 0.10733 255 63 45
-0.433925 -0.0145163 0.108367 255 67 48
-0.433366 -0.0129893 0.108831 255 68 50
-0.433299 -0.0114313 0.10901 255 67 50
-0.433232 -0.00987218 0.10919 255 64 51
-0.433165 -0.00831205 0.10937 253 65 52
-0.433098 -0.00675086 0.10955 233 70 72
-0.343168 -0.0831448 0.153707 67 25 21
-0.342344 -0.0819092 0.154301 104 23 17
-0.342297 -0.0808267 0.154425 146 25 15
-0.341736 -0.0796484 0.154861 175 34 15
-0.341433 -0.0785206 0.15514 184 31 12
-0.342157 -0.0775752 0.1548 184 29 9
-0.353159 -0.0783862 0.148269 183 29 9
-0.35311 -0.0772507 0.1484 185 29 11
-0.353061 -0.0761145 0.148531 189 30 13
-0.353011 -0.0749775 0.148661 193 32 13
-0.353244 -0.0738831 0.148623 199 31 8
-0.353195 -0.0727433 0.148754 213 27 7
-0.353145 -0.0716028 0.148886 232 33 18
-0.353096 -0.0704615 0.149017 248 54 40
-0.353047 -0.0693195 0.149148 255 77 61
-0.352997 -0.0681767 0.14928 255 82 65
-0.352948 -0.0670332 0.149412 255 68 53
-0.352898 -0.0658889 0.149543 255 64 49
-0.352849 -0.0647438 0.149675 255 66 50
-0.353081 -0.06363 0.149639 255 65 50
-0.353031 -0.0624821 0.149771 255 66 48
-0.352982 -0.0613335 0.149903 255 71 51
-0.35265 -0.060156 0.150203 255 78 60
-0.352319 -0.0589803 0.150503 255 82 64
-0.35227 -0.0578319 0.150635 255 80 64
-0.35222 -0.0566828 0.150767 255 67 54
-0.35217 -0.0555329 0.150899 255 65 48
-0.453593 -0.0362749 0.0930978 255 62 46
-0.45297 -0.0346387 0.0936102 255 62 45
-0.450708 -0.0330151 0.0950835 255 64 45
-0.449553 -0.0313998 0.0959066 255 66 49
-0.446799 -0.0298167 0.0976648 255 71 48
-0.446729 -0.028206 0.0978502 255 66 50
-0.445598 -0.0266194 0.0986564 255 67 51
-0.444474 -0.0250415 0.0994579 255 68 51
-0.442835 -0.0234893 0.100559 255 63 45
-0.440695 -0.0219697 0.101951 255 57 39
-0.438581 -0.0204672 0.103327 255 55 37
-0.435991 -0.0190052 0.104979 255 57 37
-0.434925 -0.0174867 0.10574 255 59 39
-0.433371 -0.0160041 0.106785 255 62 42
-0.432811 -0.0144736 0.107251 255 66 47
-0.430305 -0.0130748 0.108848 255 67 51
-0.430238 -0.0115258 0.109026 255 69 51
-0.430171 -0.00997571 0.109204 255 67 52
-0.430103 -0.00842457 0.109383 254 66 52
-0.430036 -0.00687239 0.109562 240 65 61
-0.343465 -0.0844149 0.152155 60 25 23
-0.342378 -0.083119 0.152914 95 24 17
-0.341814 -0.0819334 0.153354 136 25 12
-0.341767 -0.0808497 0.153478 169 27 11
-0.341462 -0.0797176 0.15376 182 29 10
-0.341415 -0.0786337 0.153884 179 29 10
-0.352284 -0.0772232 0.147572 176 30 11
-0.352235 -0.0760868 0.147703 179 31 11
-0.352466 -0.0749943 0.147663 185 29 11
-0.352417 -0.0738553 0.147794 191 32 9
-0.352367 -0.0727154 0.147925 198 30 9
-0.352318 -0.0715748 0.148056 211 31 12
-0.352268 -0.0704334 0.148187 231 38 22
-0.352218 -0.0692913 0.148318 250 57 41
-0.352169 -0.0681484 0.148449 255 80 62
-0.352119 -0.0670048 0.148581 255 79 63
-0.352069 -0.0658604 0.148712 255 67 53
-0.352019 -0.0647152 0.148844 255 65 48
-0.351969 -0.0635693 0.148975 255 64 46
-0.3522 -0.0624533 0.148938 255 64 44
-0.35215 -0.0613046 0.14907 255 63 43
-0.35182 -0.060127 0.149371 255 61 46
-0.351489 -0.0589513 0.149671 255 66 56
-0.351439 -0.0578028 0.149803 255 70 65
-0.351389 -0.0566536 0.149935 255 66 57
-0.351339 -0.0555036 0.150067 255 63 48
-0.452418 -0.0362315 0.0919206 255 60 43
-0.450701 -0.0345961 0.0930832 255 62 43
-0.44846 -0.0329777 0.0945548 255 63 45
-0.446779 -0.0313727 0.0956931 255 63 52
-0.444586 -0.0297891 0.0971332 255 63 47
-0.444516 -0.0281832 0.0973176 255 66 49
-0.443395 -0.0266014 0.0981227 255 67 50
-0.44176 -0.0250431 0.0992296 255 66 49
-0.439626 -0.023515 0.100629 255 65 47
-0.437518 -0.0220042 0.102012 255 62 43
-0.435436 -0.0205103 0.103379 255 58 37
-0.433872 -0.0190096 0.104438 255 54 37
-0.433804 -0.017444 0.104618 255 54 39
-0.432255 -0.0159614 0.105668 255 59 42
-0.431697 -0.0144308 0.106135 255 65 48
-0.428236 -0.013096 0.108304 255 67 51
-0.428168 -0.0115513 0.108481 255 69 49
-0.428101 -0.0100056 0.108659 255 67 50
-0.428034 -0.00845891 0.108836 255 66 52
-0.427967 -0.00691116 0.109014 243 65 55
-0.343241 -0.0855862 0.150913 55 24 22
-0.342671 -0.0843891 0.15136 83 22 19
-0.341846 -0.0831447 0.151963 124 25 14
-0.34154 -0.0820079 0.152246 162 28 10
-0.341492 -0.0809218 0.152371 178 28 8
-0.34093 -0.0797393 0.152811 181 25 3
-0.341655 -0.0787943 0.152462 176 24 4
-0.351459 -0.0771956 0.146745 168 31 10
-0.351409 -0.0760592 0.146875 168 31 10
-0.351639 -0.0749666 0.146834 172 27 7
-0.35159 -0.0738274 0.146965 183 30 7
-0.35154 -0.0726875 0.147095 189 30 11
-0.35149 -0.0715468 0.147226 198 30 11
-0.35144 -0.0704053 0.147357 213 31 11
-0.35139 -0.0692631 0.147488 235 38 20
-0.35134 -0.0681201 0.147619 254 61 47
-0.35129 -0.0669764 0.14775 255 81 66
-0.35124 -0.0658319 0.147881 255 76 62
-0.35119 -0.0646867 0.148012 255 67 50
-0.35142 -0.0635726 0.147973 255 63 45
-0.351369 -0.0624246 0.148105 255 61 43
-0.351039 -0.0612464 0.148407 255 61 42
-0.350989 -0.0600981 0.148538 255 59 42
-0.350939 -0.058949 0.14867 255 64 45
-0.350609 -0.0577737 0.148971 255 60 45
-0.350559 -0.0566244 0.149102 255 57 45
-0.350508 -0.0554743 0.149234 255 56 43
-0.350458 -0.0543235 0.149366 255 58 42
-0.449531 -0.0345527 0.091911 255 64 40
-0.445692 -0.0329433 0.0943477 255 60 43
-0.44456 -0.0313404 0.0951661 255 64 48
-0.44291 -0.0297539 0.0962926 255 66 47
-0.442316 -0.0281605 0.0967882 255 64 45
-0.442246 -0.0265582 0.0969718 255 65 48
-0.438559 -0.0250595 0.0993079 255 69 50
-0.436962 -0.0235233 0.100398 255 69 50
-0.434879 -0.0220191 0.101776 255 66 47
-0.434311 -0.0204676 0.102252 255 61 40
-0.434242 -0.0188959 0.102433 255 55 37
-0.430582 -0.014388 0.105018 255 64 46
-0.427132 -0.0130535 0.107198 255 67 52
-0.426111 -0.0115767 0.107939 255 67 49
-0.426044 -0.0100354 0.108116 255 66 48
-0.425976 -0.00849304 0.108292 255 64 49
-0.425909 -0.00694965 0.108469 245 64 52
-0.342707 -0.0856149 0.149954 67 24 22
-0.341878 -0.0843632 0.150564 105 25 19
-0.341571 -0.0832221 0.150849 146 28 14
-0.341007 -0.0820323 0.151294 172 31 8
-0.340959 -0.0809449 0.151418 177 24 4
-0.341169 -0.079905 0.151383 175 28 3
-0.341897 -0.0789564 0.151027 172 30 4
-0.350454 -0.0793894 0.14583 170 28 4
-0.351242 -0.0784006 0.145441 166 26 7
-0.350633 -0.0771681 0.145917 161 27 11
-0.350862 -0.0760774 0.145875 163 28 11
-0.350812 -0.0749389 0.146005 165 32 16
-0.350762 -0.0737996 0.146135 174 28 8
-0.350992 -0.0727016 0.146093 183 32 11
-0.350941 -0.0715596 0.146224 191 33 13
-0.350891 -0.0704167 0.146355 201 29 9
-0.350841 -0.0692732 0.146485 216 30 9
-0.350511 -0.0680918 0.146788 243 40 25
-0.350461 -0.066948 0.146919 253 66 54
-0.35041 -0.0658034 0.14705 255 81 69
-0.350639 -0.0646913 0.147009 255 74 61
-0.350589 -0.0635439 0.147141 255 66 50
-0.350538 -0.0623958 0.147272 255 64 45
-0.350488 -0.0612469 0.147403 255 59 39
-0.350437 -0.0600972 0.147535 255 60 40
-0.350108 -0.05892 0.147837 255 58 41
-0.350057 -0.0577701 0.147968 255 57 40
-0.350006 -0.0566194 0.1481 255 57 41
-0.349678 -0.055445 0.148401 255 58 41
-0.349627 -0.0542941 0.148533 255 59 40
-0.447748 -0.032882 0.0912513 255 60 43
-0.444463 -0.0312863 0.0933722 255 62 46
-0.435969 -0.0266404 0.0989018 255 65 47
-0.435899 -0.025061 0.0990824 255 69 50
-0.433822 -0.0235485 0.100468 255 69 50
-0.433753 -0.0219765 0.100647 255 67 48
-0.425078 -0.0130746 0.10666 255 67 50
-0.424066 -0.0116019 0.1074 255 66 49
-0.423998 -0.010065 0.107576 255 65 47
-0.42393 -0.00852697 0.107752 255 63 46
-0.424334 -0.00694743 0.107647 246 64 49
-0.343005 -0.0869042 0.148376 57 27 25
-0.342172 -0.0856436 0.148993 90 24 22
-0.341343 -0.0843904 0.149606 129 29 20
-0.341036 -0.0832479 0.149893 161 33 15
-0.34073 -0.0821072 0.150179 176 28 7
-0.341198 -0.0811164 0.14998 175 23 5
-0.34115 -0.0800236 0.150105 173 23 5
-0.342665 -0.0792153 0.149253 171 28 6
-0.350465 -0.0795107 0.144482 165 32 7
-0.350415 -0.0783731 0.144612 159 28 9
-0.350365 -0.0772347 0.144742 157 24 13
-0.350314 -0.0760956 0.144872 159 39 23
-0.349985 -0.0749111 0.145176 162 28 21
-0.350213 -0.0738151 0.145132 167 22 12
-0.350442 -0.0727158 0.145089 176 28 12
-0.350392 -0.0715724 0.145219 186 35 14
-0.350062 -0.0703886 0.145523 193 31 10
-0.350011 -0.0692449 0.145654 201 28 7
-0.349961 -0.0681005 0.145784 221 29 8
-0.34991 -0.0669553 0.145915 246 44 32
-0.349859 -0.0658094 0.146046 254 68 62
-0.349809 -0.0646627 0.146177 255 77 72
-0.349758 -0.0635152 0.146308 255 69 59
-0.349707 -0.062367 0.146439 255 62 45
-0.349656 -0.061218 0.14657 255 61 40
-0.349605 -0.0600682 0.146701 255 58 39
-0.349555 -0.0589177 0.146832 255 56 40
-0.349504 -0.0577664 0.146964 255 58 40
-0.349453 -0.0566144 0.147095 255 57 39
-0.349402 -0.0554615 0.147227 255 59 39
-0.349351 -0.0543079 0.147358 255 60 39
-0.3493 -0.0531536 0.14749 255 59 38
-0.423036 -0.0130956 0.106125 255 65 46
-0.422032 -0.011627 0.106864 255 65 47
-0.421964 -0.0100944 0.107039 255 63 46
-0.422363 -0.00852259 0.106933 255 64 46
-0.422295 -0.00698564 0.107108 248 65 47
-0.343571 -0.0882619 0.146617 57 29 23
-0.342468 -0.0869345 0.147409 69 27 24
-0.341635 -0.0856724 0.148029 118 24 17
-0.340807 -0.0844177 0.148646 155 26 13
-0.3405 -0.0832738 0.148934 170 29 10
-0.340452 -0.0821824 0.149058 174 26 3
-0.340661 -0.0811398 0.149019 175 23 1
-0.340613 -0.0800458 0.149144 172 26 4
-0.350146 -0.0784426 0.143431 154 23 16
-0.350095 -0.0773016 0.143561 154 33 22
-0.349486 -0.0760679 0.144042 157 34 27
-0.349714 -0.0749726 0.143997 162 21 16
-0.349663 -0.0738306 0.144127 165 17 11
-0.349892 -0.07273 0.144082 171 24 13
-0.349841 -0.0715852 0.144212 180 33 15
-0.349511 -0.0704 0.144518 188 34 13
-0.34946 -0.069255 0.144648 194 29 5
-0.349131 -0.0680721 0.144952 203 27 9
-0.34908 -0.0669269 0.145083 226 32 12
-0.349029 -0.0657808 0.145213 247 51 32
-0.348978 -0.064634 0.145344 255 71 59
-0.348927 -0.0634865 0.145475 255 78 68
-0.348876 -0.0623382 0.145605 255 70 55
-0.348825 -0.0611891 0.145736 255 60 42
-0.348773 -0.0600392 0.145867 255 58 40
-0.348722 -0.0588886 0.145998 255 62 41
-0.348671 -0.0577372 0.146129 255 59 40
-0.348898 -0.0566093 0.146088 255 57 39
-0.348846 -0.0554551 0.14622 255 59 38
-0.348517 -0.0542785 0.146523 255 60 37
-0.348743 -0.0531444 0.146483 255 59 38
-0.34897 -0.052007 0.146442 255 58 38
-0.349476 -0.0508842 0.146229 255 58 39
-0.349425 -0.0497223 0.146361 255 60 38
-0.420078 -0.0131793 0.106157 255 65 45
-0.42001 -0.011652 0.106331 255 67 48
-0.419942 -0.0101236 0.106505 255 61 48
-0.419874 -0.00859423 0.106679 255 63 48
-0.420268 -0.00702366 0.106573 247 60 48
-0.343031 -0.0882939 0.145643 62 29 22
-0.34193 -0.0869648 0.14644 93 26 20
-0.341097 -0.0857012 0.147064 134 31 14
-0.340529 -0.0844982 0.147519 164 31 9
-0.339963 -0.0832998 0.147973 172 24 7
-0.339914 -0.0822071 0.148097 171 21 6
-0.349595 -0.0784637 0.142423 152 26 21
-0.349265 -0.077274 0.14273 152 39 31
-0.349214 -0.0761321 0.142859 158 21 18
-0.349163 -0.0749895 0.142989 163 15 6
-0.349112 -0.0738461 0.143119 164 20 5
-0.349061 -0.072702 0.143249 165 28 13
-0.34901 -0.0715571 0.143379 169 35 20
-0.348958 -0.0704114 0.143509 180 37 18
-0.348629 -0.0692267 0.143815 190 32 8
-0.348578 -0.0680808 0.143945 195 29 9
-0.348249 -0.0668984 0.144251 208 28 9
-0.348198 -0.0657523 0.144381 230 35 17
-0.348147 -0.0646054 0.144511 249 54 36
-0.348096 -0.0634578 0.144642 255 74 55
-0.348044 -0.0623093 0.144772 255 79 60
-0.347993 -0.0611602 0.144903 255 69 51
-0.347941 -0.0600102 0.145033 255 62 42
-0.34789 -0.0588595 0.145164 255 62 40
-0.348115 -0.0577335 0.145121 255 60 40
-0.348064 -0.05658 0.145252 255 59 39
-0.348012 -0.0554257 0.145384 255 60 37
-0.34796 -0.0542706 0.145515 255 60 36
-0.347909 -0.0531148 0.145646 255 60 37
-0.348134 -0.0519773 0.145604 255 58 38
-0.348082 -0.0508186 0.145736 255 59 40
-0.348308 -0.0496757 0.145695 255 62 40
-0.415792 -0.0133545 0.107023 255 65 47
-0.414824 -0.0119079 0.107747 255 65 46
-0.416562 -0.0102589 0.106812 255 61 47
-0.417863 -0.00862757 0.106147 252 59 48
-0.418253 -0.00706143 0.10604 243 60 49
-0.343335 -0.0896079 0.14403 57 31 28
-0.342755 -0.0883842 0.144497 71 27 23
-0.341652 -0.0870517 0.1453 121 25 15
-0.341079 -0.08584 0.145761 156 24 8
-0.340249 -0.0845792 0.146387 170 24 5
-0.339941 -0.0834301 0.146678 171 21 6
-0.34067 -0.0824876 0.146303 170 27 7
-0.348435 -0.0772463 0.141898 154 26 23
-0.348384 -0.0761043 0.142027 161 14 7
-0.348333 -0.0749616 0.142157 162 16 3
-0.348281 -0.0738182 0.142286 160 27 8
-0.34823 -0.0726739 0.142416 158 37 15
-0.348178 -0.071529 0.142546 161 35 17
-0.348127 -0.0703832 0.142676 165 46 32
-0.347798 -0.0691984 0.142982 183 34 12
-0.347747 -0.0680524 0.143112 190 33 12
-0.347695 -0.0669057 0.143242 197 32 10
-0.347367 -0.0657238 0.143548 212 32 10
-0.347316 -0.0645768 0.143678 236 38 19
-0.347264 -0.0634291 0.143808 255 55 37
-0.347489 -0.0623111 0.143763 255 72 53
-0.347437 -0.0611605 0.143894 255 78 60
-0.347385 -0.0600092 0.144024 255 66 48
-0.347333 -0.0588571 0.144155 255 62 42
-0.347282 -0.0577043 0.144286 255 61 40
-0.34723 -0.0565507 0.144417 255 61 39
-0.347178 -0.0553963 0.144548 255 61 38
-0.347126 -0.0542411 0.144679 255 60 38
-0.34735 -0.0531056 0.144635 255 59 39
-0.347298 -0.0519476 0.144767 255 56 39
-0.347523 -0.0508066 0.144724 255 58 37
-0.347748 -0.0496623 0.144681 255 61 40
-0.347142 -0.048469 0.145161 255 62 41
-0.41115 -0.0135564 0.108145 255 65 47
-0.411083 -0.0120612 0.108314 255 66 47
-0.413678 -0.0103573 0.106839 255 60 47
-0.414958 -0.00873567 0.106177 251 61 46
-0.415341 -0.00717854 0.10607 241 58 47
-0.342793 -0.0896417 0.143048 54 32 33
-0.342213 -0.0884165 0.143517 100 21 26
-0.341899 -0.0872528 0.143813 139 27 15
-0.340799 -0.0859244 0.144619 163 28 7
-0.340228 -0.0847143 0.145082 171 24 3
-0.340178 -0.0836139 0.145206 172 23 3
-0.347883 -0.0772659 0.140887 158 12 5
-0.347831 -0.0761226 0.141016 160 14 4
-0.347347 -0.0715008 0.141713 157 43 28
-0.347295 -0.070355 0.141842 164 29 13
-0.346967 -0.0691701 0.142149 175 30 7
-0.346916 -0.068024 0.142279 183 34 11
-0.346864 -0.0668772 0.142409 190 33 11
-0.346812 -0.0657296 0.142539 200 30 9
-0.34676 -0.0645813 0.142669 218 30 11
-0.346708 -0.0634321 0.142799 243 39 21
-0.346656 -0.0622823 0.142929 255 58 42
-0.346604 -0.0611316 0.143059 255 76 60
-0.346552 -0.0599802 0.143189 255 72 60
-0.3465 -0.058828 0.14332 255 65 48
-0.346448 -0.0576751 0.14345 255 62 43
-0.346396 -0.0565214 0.143581 255 59 40
-0.346619 -0.0553898 0.143536 255 58 38
-0.346567 -0.0542332 0.143667 255 58 38
-0.346514 -0.0530759 0.143798 255 61 41
-0.346738 -0.0519369 0.143753 255 60 41
-0.347239 -0.0508124 0.143533 255 58 40
-0.346909 -0.0496323 0.14384 255 57 38
-0.346581 -0.0484541 0.144147 255 58 39
-0.350577 -0.0439519 0.142009 255 58 38
-0.350809 -0.0427755 0.141963 255 58 39
-0.407472 -0.0136947 0.108704 255 65 51
-0.407405 -0.0122119 0.108872 255 63 45
-0.41171 -0.0103853 0.106313 255 60 46
-0.412531 -0.00880545 0.105929 249 58 46
-0.413357 -0.00721552 0.105543 237 57 45
-0.342831 -0.0909069 0.141589 52 30 27
-0.342515 -0.0897355 0.141889 67 26 33
-0.341934 -0.0885073 0.142362 120 24 28
-0.341356 -0.0872837 0.142832 153 22 16
-0.341305 -0.0861763 0.142958 168 22 7
-0.341255 -0.0850682 0.143083 171 22 4
-0.346411 -0.0691801 0.141138 163 33 10
-0.346084 -0.0679957 0.141446 172 34 13
-0.346032 -0.0668487 0.141575 183 33 12
-0.34598 -0.065701 0.141705 192 32 11
-0.345928 -0.0645526 0.141835 203 30 10
-0.345876 -0.0634034 0.141964 223 33 12
-0.345823 -0.0622534 0.142094 248 45 29
-0.345771 -0.0611027 0.142224 254 64 49
-0.345719 -0.0599512 0.142354 255 75 63
-0.345666 -0.0587989 0.142484 255 69 55
-0.345614 -0.0576458 0.142614 255 62 46
-0.345836 -0.0565162 0.142568 255 62 43
-0.345784 -0.0553603 0.142699 255 61 41
-0.345731 -0.0542037 0.142829 255 58 40
-0.345678 -0.0530463 0.14296 255 55 38
-0.345901 -0.0519071 0.142914 255 58 39
-0.346676 -0.0508003 0.142514 255 58 38
-0.346623 -0.0496354 0.142645 255 57 36
-0.348524 -0.0485773 0.141525 255 56 36
-0.350062 -0.0451174 0.140838 255 61 39
-0.349724 -0.043921 0.141154 255 61 39
-0.34967 -0.0427354 0.141288 255 58 38
-0.349616 -0.0415491 0.141422 255 59 39
-0.349846 -0.0403682 0.141374 255 61 40
-0.402593 -0.0139179 0.11005 255 64 47
-0.402526 -0.0124535 0.110215 255 62 45
-0.409753 -0.0104132 0.10579 255 61 45
-0.410566 -0.00883774 0.105406 246 61 47
-0.41094 -0.00729159 0.105298 232 57 47
-0.342286 -0.0909423 0.1406 64 31 28
-0.341969 -0.0897695 0.140901 95 31 26
-0.341653 -0.0885985 0.141202 135 28 19
-0.341074 -0.087372 0.141676 160 23 12
-0.341024 -0.0862621 0.141801 169 21 8
-0.342032 -0.085372 0.141228 168 23 8
-0.345579 -0.0691517 0.140304 151 32 19
-0.345527 -0.0680042 0.140433 146 30 19
-0.345474 -0.0668559 0.140563 162 30 13
-0.345148 -0.0656725 0.140871 184 33 10
-0.345095 -0.0645239 0.141 195 31 11
-0.345043 -0.0633746 0.14113 207 31 8
-0.34499 -0.0622245 0.141259 229 34 14
-0.344938 -0.0610737 0.141389 250 50 29
-0.344885 -0.0599221 0.141519 255 69 46
-0.345106 -0.0587964 0.141471 255 77 56
-0.345054 -0.057642 0.141601 255 70 51
-0.345001 -0.0564868 0.141731 255 63 43
-0.344948 -0.0553309 0.141861 255 63 41
-0.345169 -0.0541957 0.141814 255 58 40
-0.345116 -0.0530369 0.141944 255 60 40
-0.345338 -0.0518964 0.141897 255 56 38
-0.345836 -0.0507704 0.141672 255 54 35
-0.346336 -0.0496385 0.141445 255 58 36
-0.348239 -0.0485779 0.140313 255 57 36
-0.349831 -0.0462979 0.139481 255 57 39
-0.349492 -0.0450981 0.139799 255 57 39
-0.349154 -0.0439003 0.140116 255 61 39
-0.348816 -0.0427044 0.140432 255 60 39
-0.348762 -0.041518 0.140566 255 58 38
-0.348425 -0.0403245 0.140882 255 60 39
-0.348937 -0.0391476 0.140651 255 60 39
-0.397833 -0.0141356 0.111362 255 62 47
-0.397767 -0.0126891 0.111525 255 63 46
-0.407807 -0.0104409 0.10527 255 59 44
-0.408612 -0.00886982 0.104885 245 60 47
-0.408543 -0.00736699 0.105054 231 60 50
-0.342057 -0.0921538 0.139306 65 37 31
-0.341739 -0.0909778 0.139609 69 39 33
-0.341423 -0.0898036 0.139911 118 31 23
-0.341372 -0.0886901 0.140036 149 29 12
-0.34132 -0.087576 0.140162 164 27 7
-0.341269 -0.0864611 0.140287 168 24 8
-0.344694 -0.0679758 0.139599 110 23 21
-0.344642 -0.0668274 0.139728 122 20 14
-0.344589 -0.0656782 0.139857 164 28 9
-0.344536 -0.0645283 0.139986 187 32 12
-0.344483 -0.0633776 0.140116 198 32 9
-0.34443 -0.0622262 0.140245 210 29 7
-0.344378 -0.061074 0.140375 241 36 14
-0.344325 -0.059921 0.140504 254 54 33
-0.344272 -0.0587673 0.140634 255 76 54
-0.344219 -0.0576128 0.140764 255 79 59
-0.344166 -0.0564575 0.140894 255 65 48
-0.344386 -0.0553242 0.140845 255 62 42
-0.344333 -0.0541661 0.140975 255 60 42
-0.344553 -0.0530276 0.140927 255 61 41
-0.3445 -0.0518666 0.141057 255 56 38
-0.345547 -0.0507761 0.140469 255 57 36
-0.346604 -0.0496749 0.139877 255 58 36
-0.347389 -0.0485475 0.139461 255 58 38
-0.347335 -0.0473689 0.139594 255 57 38
-0.348975 -0.0462671 0.138623 255 56 37
-0.348921 -0.0450789 0.138757 255 57 38
-0.348299 -0.0438693 0.139259 255 60 38
-0.347962 -0.0426734 0.139576 255 60 39
-0.347907 -0.0414868 0.13971 255 57 37
-0.347571 -0.0402933 0.140026 255 60 39
-0.347798 -0.0391114 0.139977 255 58 38
-0.362748 -0.0254322 0.131431 255 58 42
-0.395586 -0.0141806 0.111105 255 66 48
-0.39552 -0.0127398 0.111267 255 65 47
-0.39871 -0.0110388 0.109343 252 58 43
-0.405373 -0.00901129 0.105197 241 60 49
-0.405305 -0.00751888 0.105365 227 72 62
-0.341827 -0.0933702 0.138007 63 42 33
-0.341775 -0.0922539 0.138132 71 37 31
-0.341724 -0.091137 0.138258 99 32 30
-0.341406 -0.0899587 0.138562 138 33 23
-0.341088 -0.0887822 0.138866 159 29 11
-0.341037 -0.0876655 0.138991 167 28 4
-0.342588 -0.0868911 0.138042 166 29 8
-0.343862 -0.0679474 0.138764 76 18 16
-0.343809 -0.0667989 0.138893 86 10 11
-0.343756 -0.0656496 0.139022 128 16 10
-0.343703 -0.0644996 0.139151 173 32 12
-0.343649 -0.0633488 0.13928 188 34 13
-0.343596 -0.0621973 0.139409 195 31 10
-0.343543 -0.061045 0.139538 217 30 10
-0.34349 -0.0598919 0.139668 243 40 22
-0.343437 -0.0587381 0.139797 255 58 42
-0.343656 -0.0576089 0.139747 255 71 58
-0.343875 -0.0564764 0.139696 255 69 58
-0.343822 -0.0553176 0.139826 255 58 40
-0.344042 -0.0541797 0.139776 255 57 40
-0.344262 -0.0530385 0.139726 255 60 41
-0.344209 -0.0518748 0.139856 255 59 39
-0.345534 -0.0507998 0.139079 255 59 39
-0.346593 -0.0496949 0.138478 255 57 38
-0.346539 -0.048517 0.13861 255 56 38
-0.347045 -0.0473667 0.138374 255 56 38
-0.348403 -0.0462492 0.137579 255 56 36
-0.348917 -0.0450829 0.137339 255 58 37
-0.347727 -0.0438486 0.138218 255 61 38
-0.347389 -0.0426511 0.138536 255 58 37
-0.347053 -0.0414557 0.138854 255 57 38
-0.346998 -0.0402683 0.138987 255 57 41
-0.362211 -0.02666 0.130169 255 57 38
-0.361203 -0.0254205 0.130929 255 58 41
-0.361145 -0.0241506 0.131071 255 57 42
-0.360772 -0.0228942 0.131418 255 56 42
-0.394155 -0.0141691 0.110332 255 68 47
-0.394089 -0.0127302 0.110494 255 65 48
-0.394825 -0.0112261 0.110137 248 60 45
-0.3976 -0.0095398 0.108462 235 61 53
-0.40043 -0.00781973 0.106756 219 82 76
-0.342617 -0.0937332 0.1361 60 39 33
-0.342296 -0.0925455 0.136408 64 32 28
-0.341975 -0.0913597 0.136716 121 25 25
-0.341656 -0.0901758 0.137023 150 31 21
-0.341603 -0.0890536 0.137148 165 30 11
-0.341819 -0.0879894 0.137093 167 27 4
-0.343385 -0.0872119 0.136124 162 35 11
-0.343029 -0.0679189 0.137929 54 11 11
-0.342976 -0.0667703 0.138058 62 11 11
-0.343194 -0.0656554 0.138005 89 9 11
-0.343141 -0.064504 0.138134 146 21 10
-0.34336 -0.0633837 0.13808 176 35 15
-0.343034 -0.0621989 0.138392 189 32 12
-0.34298 -0.0610452 0.138521 202 32 9
-0.342927 -0.0598908 0.13865 226 35 12
-0.343145 -0.0587623 0.138598 248 45 26
-0.343364 -0.0576304 0.138546 255 58 45
-0.343311 -0.0564711 0.138675 255 66 53
-0.343257 -0.055311 0.138805 255 62 44
-0.343476 -0.0541717 0.138754 255 58 38
-0.343422 -0.0530087 0.138884 255 58 42
-0.343916 -0.0518831 0.13865 255 60 41
-0.345242 -0.0508056 0.137864 255 58 40
-0.346303 -0.0496981 0.137255 255 56 38
-0.346248 -0.0485175 0.137388 255 55 38
-0.346754 -0.0473644 0.137148 255 56 38
-0.349543 -0.0463097 0.135396 255 58 38
-0.349488 -0.0451104 0.135531 255 58 37
-0.348002 -0.0438585 0.136611 255 58 38
-0.347947 -0.0426644 0.136745 255 57 39
-0.347892 -0.0414696 0.136878 255 59 41
-0.361298 -0.0266256 0.129254 255 55 38
-0.360293 -0.0253862 0.130017 255 55 40
-0.360235 -0.0241161 0.130159 255 56 42
-0.359862 -0.0228596 0.130507 255 59 43
-0.359803 -0.0215894 0.130649 255 60 41
-0.359744 -0.0203183 0.130791 255 61 41
-0.392464 -0.0170531 0.109501 255 63 44
-0.392795 -0.0155938 0.109401 255 67 46
-0.392728 -0.0141577 0.109562 255 67 47
-0.392265 -0.0127506 0.109982 255 65 47
-0.392993 -0.0112505 0.109624 247 67 51
-0.393726 -0.00974125 0.109265 231 71 62
-0.342605 -0.0939034 0.134723 53 31 31
-0.342552 -0.0927758 0.134849 61 29 26
-0.342229 -0.0915844 0.13516 125 27 23
-0.342447 -0.0905185 0.135101 154 27 17
-0.342394 -0.0893887 0.135228 164 28 10
-0.342612 -0.0883176 0.135169 163 30 8
-0.343011 -0.0680014 0.136544 48 11 10
-0.342413 -0.0667774 0.13704 56 10 11
-0.342631 -0.0656611 0.136985 62 10 14
-0.342578 -0.0645083 0.137114 93 15 14
-0.342524 -0.0633548 0.137243 153 25 9
-0.342742 -0.0622311 0.137188 183 32 12
-0.342688 -0.0610748 0.137318 197 31 9
-0.342634 -0.0599176 0.137447 210 30 7
-0.342853 -0.0587865 0.137393 232 36 14
-0.343071 -0.0576521 0.137339 252 47 30
-0.343017 -0.05649 0.137469 255 59 47
-0.343237 -0.0553502 0.137415 255 66 51
-0.342636 -0.054142 0.137912 255 60 40
-0.343128 -0.0530197 0.137675 255 56 40
-0.343897 -0.0519107 0.137254 255 56 41
-0.345506 -0.0508476 0.13627 255 56 39
-0.34573 -0.0496845 0.136215 255 56 38
-0.345955 -0.0485179 0.13616 255 56 38
-0.346744 -0.0473764 0.135728 255 57 39
-0.348107 -0.0462524 0.134913 255 58 40
-0.348623 -0.0450791 0.134664 255 59 38
-0.347426 -0.0438376 0.13556 255 57 38
-0.34737 -0.0426421 0.135693 255 55 40
-0.360701 -0.0265812 0.12813 255 54 37
-0.360011 -0.0253288 0.12869 255 57 39
-0.359637 -0.0240686 0.12904 255 57 39
-0.359578 -0.022796 0.129182 255 58 41
-0.358893 -0.0215547 0.129737 255 59 41
-0.358834 -0.0202835 0.129879 255 65 43
-0.389865 -0.0171101 0.109511 255 66 46
-0.390583 -0.0156326 0.109153 255 64 44
-0.390517 -0.0142022 0.109313 255 69 47
-0.39045 -0.0127708 0.109473 255 67 47
-0.390777 -0.0113067 0.109374 251 73 57
-0.39071 -0.00987141 0.109535 230 85 77
-0.342539 -0.0929433 0.133464 74 27 29
-0.342486 -0.0918111 0.13359 126 31 23
-0.342704 -0.0907406 0.133529 155 29 14
-0.342121 -0.0668203 0.135834 50 13 12
-0.342067 -0.0656669 0.135963 53 14 12
-0.342285 -0.064546 0.135907 67 17 15
-0.342503 -0.0634218 0.13585 108 19 12
-0.342449 -0.0622635 0.13598 159 29 11
-0.342667 -0.0611339 0.135923 187 32 13
-0.342613 -0.0599728 0.136053 199 31 10
-0.342832 -0.0588378 0.135997 214 32 9
-0.343051 -0.0576995 0.135941 238 38 17
-0.343546 -0.0565824 0.135699 254 50 35
-0.343767 -0.0554361 0.135642 255 62 45
-0.34234 -0.0541556 0.136701 255 61 44
-0.343106 -0.0530511 0.136276 255 56 40
-0.344155 -0.0519577 0.135661 255 55 40
-0.344933 -0.0508354 0.135229 255 56 39
-0.345717 -0.0497046 0.134794 255 57 39
-0.345942 -0.048534 0.134736 255 58 38
-0.345886 -0.0473456 0.134869 255 57 38
-0.346112 -0.0461694 0.134812 255 56 40
-0.346621 -0.0450012 0.134564 255 58 41
-0.346282 -0.0437962 0.134887 255 56 40
-0.346509 -0.0426108 0.13483 255 53 41
-0.359787 -0.0265467 0.127214 255 55 39
-0.359098 -0.0252943 0.127776 255 57 39
-0.359039 -0.024021 0.127918 255 59 40
-0.358666 -0.0227614 0.128268 255 57 41
-0.358606 -0.0214879 0.12841 255 60 42
-0.358859 -0.0201958 0.128344 255 66 45
-0.359427 -0.0188804 0.128069 255 66 47
-0.388779 -0.0156453 0.108649 255 65 47
-0.388712 -0.0142186 0.108808 255 72 48
-0.388256 -0.0128207 0.109225 255 69 49
-0.388189 -0.011394 0.109384 255 72 57
-0.388122 -0.00996638 0.109543 240 84 80
-0.341556 -0.0668274 0.13481 48 13 14
-0.341502 -0.0656726 0.134939 51 16 13
-0.341719 -0.0645504 0.134881 58 18 16
-0.341936 -0.0634248 0.134823 78 16 17
-0.341882 -0.0622652 0.134952 120 23 15
-0.342646 -0.0611935 0.13452 164 32 16
-0.342591 -0.0600283 0.134649 190 34 14
-0.342811 -0.0588895 0.134592 201 33 11
-0.343306 -0.0577732 0.134345 219 34 13
-0.343803 -0.056651 0.134098 244 40 20
-0.34292 -0.0554063 0.134794 255 52 32
-0.342865 -0.0542346 0.134924 255 59 43
-0.343361 -0.0531034 0.134679 255 59 42
-0.344136 -0.0519857 0.134243 255 58 40
-0.344917 -0.0508595 0.133804 255 57 38
-0.345703 -0.0497248 0.133363 255 57 38
-0.345647 -0.0485345 0.133495 255 59 39
-0.34531 -0.047329 0.133819 255 57 40
-0.345254 -0.0461384 0.133951 255 55 42
-0.345197 -0.044947 0.134084 255 57 42
-0.345141 -0.0437548 0.134216 255 61 42
-0.345085 -0.0425618 0.134349 255 58 42
-0.358246 -0.0265324 0.12672 255 56 41
-0.358186 -0.0252598 0.126861 255 57 41
-0.358126 -0.0239864 0.127003 255 56 42
-0.358066 -0.0227121 0.127145 255 61 43
-0.357694 -0.0214531 0.127496 255 60 42
-0.357946 -0.0201609 0.127429 255 67 47
-0.358511 -0.0188453 0.127151 255 67 50
-0.387758 -0.0156061 0.107626 255 68 51
-0.387303 -0.0142072 0.108045 255 70 51
-0.384931 -0.0129582 0.109748 255 69 52
-0.384865 -0.0115428 0.109906 255 72 55
-0.384798 -0.0101265 0.110063 255 77 66
-0.340935 -0.0656784 0.133912 51 17 14
-0.341151 -0.0645548 0.133852 57 18 16
-0.341368 -0.0634279 0.133793 66 18 19
-0.341858 -0.0623286 0.133545 88 20 19
-0.342076 -0.0611938 0.133486 129 25 16
-0.342295 -0.0600557 0.133426 171 31 14
-0.342789 -0.0589415 0.133176 192 34 14
-0.343286 -0.0578214 0.132926 203 34 14
-0.342954 -0.0566212 0.133247 224 33 11
-0.343451 -0.055493 0.132996 247 40 20
-0.343395 -0.0543146 0.133127 254 52 32
-0.34334 -0.0531354 0.133258 255 57 40
-0.344117 -0.0520138 0.132815 255 56 38
-0.34462 -0.0508655 0.132563 255 57 36
-0.345407 -0.0497281 0.132115 255 57 37
-0.34535 -0.0485349 0.132248 255 57 39
-0.345012 -0.0473266 0.132573 255 60 41
-0.344675 -0.0461203 0.132898 255 59 42
-0.344338 -0.0449159 0.133223 255 59 41
-0.344003 -0.0437135 0.133547 255 56 40
-0.343946 -0.0425218 0.133679 255 54 42
-0.357333 -0.0264981 0.125806 255 58 42
-0.357273 -0.0252254 0.125947 255 58 41
-0.357213 -0.0239518 0.126088 255 55 42
-0.357152 -0.0226774 0.12623 255 60 45
-0.357092 -0.0214021 0.126371 255 62 45
-0.357032 -0.020126 0.126513 255 72 52
-0.383607 -0.0143611 0.108834 255 69 54
-0.382785 -0.0130067 0.109502 255 70 52
-0.383096 -0.0115659 0.109404 255 73 54
-0.383029 -0.0101532 0.10956 255 74 57
-0.340311 -0.0645259 0.133011 55 17 15
-0.340527 -0.0633989 0.13295 62 19 17
-0.341287 -0.0623304 0.13251 70 20 20
-0.341505 -0.0611942 0.132449 96 21 18
-0.341997 -0.0600833 0.132197 138 24 14
-0.342492 -0.0589665 0.131944 175 31 13
-0.342712 -0.0578177 0.131882 192 35 14
-0.342656 -0.0566407 0.132012 205 30 12
-0.342876 -0.0554864 0.13195 228 33 11
-0.343097 -0.0543287 0.131889 246 43 20
-0.343041 -0.0531467 0.132019 254 51 35
-0.34354 -0.052003 0.131765 255 56 41
-0.344042 -0.0508532 0.131509 255 59 40
-0.344546 -0.0496974 0.131253 255 59 40
-0.345052 -0.0485354 0.130995 255 57 41
-0.344995 -0.0473386 0.131127 255 57 43
-0.344095 -0.0461022 0.131843 255 59 43
-0.343758 -0.0448963 0.132169 255 59 41
-0.343144 -0.0436824 0.132686 255 55 40
-0.343087 -0.0424906 0.132818 255 55 40
-0.357728 -0.027701 0.123895 255 59 43
-0.356731 -0.0264535 0.124679 255 58 43
-0.356982 -0.0251674 0.124606 255 60 40
-0.35661 -0.023904 0.124961 255 58 42
-0.356549 -0.0226279 0.125102 255 56 46
-0.356178 -0.0213673 0.125456 255 65 51
-0.356117 -0.0200911 0.125597 255 84 63
-0.381844 -0.0143768 0.108336 255 74 58
-0.381029 -0.0130259 0.109003 255 68 52
-0.381336 -0.0115888 0.108904 255 67 51
-0.381269 -0.0101798 0.10906 255 72 53
-0.381201 -0.00876981 0.109216 255 74 56
-0.339741 -0.0645303 0.131979 53 17 15
-0.339686 -0.0633698 0.132107 57 19 16
-0.340715 -0.0623321 0.131472 62 22 19
-0.341205 -0.0612244 0.131218 72 23 20
-0.341698 -0.0601109 0.130962 98 21 18
-0.341917 -0.0589641 0.130899 143 24 13
-0.34186 -0.0577878 0.131029 177 33 13
-0.34208 -0.0566355 0.130965 191 31 15
-0.342299 -0.0554798 0.130902 206 32 13
-0.34252 -0.0543207 0.130839 227 36 17
-0.343018 -0.053179 0.130581 246 44 29
-0.342961 -0.0519921 0.130712 254 52 38
-0.343462 -0.0508409 0.130453 255 57 41
-0.344246 -0.0497006 0.129997 255 59 41
-0.34447 -0.0485202 0.129933 255 59 43
-0.344695 -0.0473362 0.129868 255 56 42
-0.344356 -0.0461227 0.130198 255 59 40
-0.344017 -0.0449112 0.130527 255 61 41
-0.342841 -0.0436714 0.131439 255 54 42
-0.342784 -0.0424767 0.131571 255 58 41
-0.342727 -0.0412813 0.131703 255 59 41
-0.358066 -0.0276315 0.122108 255 57 43
-0.35675 -0.0263884 0.123118 255 56 43
-0.356067 -0.0251329 0.123689 255 63 42
-0.356628 -0.0238293 0.1234 255 58 41
-0.356567 -0.0225485 0.123542 255 57 46
-0.356194 -0.0212833 0.123899 255 65 53
-0.357069 -0.0199481 0.123394 255 96 74
-0.378979 -0.0144736 0.108606 255 81 67
-0.378912 -0.0130738 0.108761 255 74 57
-0.379214 -0.0116423 0.108661 255 68 54
-0.379147 -0.0102388 0.108817 255 68 52
-0.37908 -0.00883429 0.108972 255 75 52
-0.379013 -0.00742884 0.109127 255 76 56
-0.34047 -0.0635342 0.13011 55 19 17
-0.340414 -0.062365 0.130239 59 23 18
-0.340904 -0.0612547 0.129981 63 25 21
-0.341066 -0.0589344 0.130046 98 22 17
-0.341284 -0.0577841 0.129981 142 28 15
-0.341502 -0.0566303 0.129916 174 30 17
-0.341721 -0.0554732 0.129851 191 31 18
-0.342218 -0.0543349 0.129591 206 31 17
-0.342438 -0.0531695 0.129526 225 37 23
-0.342381 -0.0519812 0.129657 245 45 28
-0.342881 -0.0508285 0.129395 255 52 34
-0.343383 -0.0496698 0.129132 255 57 40
-0.343606 -0.0484892 0.129067 255 56 43
-0.343829 -0.0473051 0.129001 255 53 42
-0.343771 -0.0461045 0.129133 255 57 42
-0.343433 -0.0448915 0.129463 255 58 43
-0.343095 -0.0436805 0.129793 255 56 42
-0.341923 -0.0424454 0.130708 255 58 41
-0.341865 -0.0412499 0.13084 255 60 42
-0.341808 -0.0400535 0.130972 255 59 42
-0.34175 -0.0388564 0.131104 255 58 42
-0.357083 -0.0263123 0.121326 255 57 42
-0.356083 -0.0250627 0.122123 255 60 43
-0.356333 -0.0237676 0.122047 255 56 42
-0.356272 -0.0224836 0.122188 255 61 44
-0.356522 -0.021182 0.122112 255 63 50
-0.373699 -0.016131 0.11047 255 81 70
-0.373633 -0.0147538 0.110621 255 83 68
-0.37536 -0.0132351 0.109528 255 80 67
-0.37638 -0.0117564 0.108927 255 77 61
-0.376678 -0.0103297 0.108828 255 72 53
-0.376975 -0.00889827 0.108729 255 72 52
-0.376908 -0.00749826 0.108884 255 72 53
-0.376841 -0.00609731 0.109038 255 73 56
-0.342635 -0.0520292 0.128004 225 37 18
-0.342577 -0.0508344 0.128136 245 44 26
-0.342519 -0.0496389 0.128267 255 53 36
-0.342741 -0.0484582 0.1282 255 57 41
-0.342963 -0.0472739 0.128133 255 59 42
-0.343186 -0.0460862 0.128066 255 59 41
-0.343128 -0.0448833 0.128198 255 59 42
-0.342509 -0.0436593 0.128728 255 56 40
-0.341893 -0.0424401 0.129256 255 57 40
-0.341004 -0.0412185 0.129977 255 59 42
-0.340946 -0.040022 0.130108 255 57 42
-0.340337 -0.0388157 0.13063 255 56 41
-0.339458 -0.037611 0.131343 255 55 39
-0.3394 -0.036419 0.131474 255 55 40
-0.356161 -0.0262776 0.120403 255 56 40
-0.357041 -0.0249558 0.119882 255 55 41
-0.357294 -0.0236509 0.119802 255 59 43
-0.357232 -0.0223573 0.119944 255 61 46
-0.373269 -0.0202003 0.108779 255 63 52
-0.373203 -0.0188241 0.10893 255 95 75
-0.371367 -0.0175595 0.110323 255 104 93
-0.370599 -0.0162385 0.110965 255 82 71
-0.371234 -0.0148202 0.110624 255 79 66
-0.372581 -0.0133377 0.109786 255 79 69
-0.37287 -0.0119287 0.109689 255 85 71
-0.373875 -0.0104515 0.109091 255 83 66
-0.374526 -0.00899569 0.108741 255 73 57
-0.37482 -0.00756713 0.108642 255 68 53
-0.374752 -0.00617159 0.108796 255 70 53
-0.374685 -0.00477507 0.108949 255 74 57
-0.538564 -0.0659209 -0.0141348 203 36 20
-0.538458 -0.0637552 -0.013897 222 38 24
-0.342214 -0.049642 0.127002 242 45 29
-0.342156 -0.0484428 0.127134 253 54 39
-0.342097 -0.0472428 0.127265 255 55 43
-0.342599 -0.0460678 0.126996 255 55 41
-0.34254 -0.0448635 0.127128 255 62 42
-0.342202 -0.0436481 0.127461 255 58 41
-0.341585 -0.0424261 0.127992 255 59 41
-0.340971 -0.0412089 0.128521 255 58 43
-0.340084 -0.0399905 0.129245 255 57 42
-0.339477 -0.0387842 0.129768 255 55 40
-0.338601 -0.0375795 0.130483 255 53 39
-0.338543 -0.0363873 0.130614 255 54 39
-0.371289 -0.0215901 0.108392 255 58 44
-0.371222 -0.02022 0.108543 255 61 53
-0.370453 -0.0188904 0.109191 255 95 83
-0.36934 -0.017589 0.110082 255 105 102
-0.36858 -0.0162729 0.110722 255 83 76
-0.369207 -0.01486 0.110382 255 85 72
-0.370187 -0.0134112 0.109792 255 83 72
-0.371528 -0.0119204 0.108949 255 82 70
-0.371815 -0.0105086 0.108851 255 82 69
-0.372815 -0.00902472 0.10825 255 78 64
-0.373464 -0.00756409 0.107897 255 73 57
-0.373396 -0.00617025 0.10805 255 72 53
-0.373328 -0.00477547 0.108203 255 73 55
-0.37326 -0.00337975 0.108357 255 75 59
-0.537105 -0.0680297 -0.0159394 164 62 65
-0.536999 -0.0658653 -0.0157023 181 39 38
-0.534177 -0.0635203 -0.0134994 199 35 24
-0.534072 -0.0613665 -0.0132635 216 37 26
-0.533967 -0.0592113 -0.0130274 236 46 31
-0.535668 -0.0571469 -0.014096 249 49 35
-0.342232 -0.0448551 0.125853 255 57 42
-0.341893 -0.0436369 0.126188 255 56 42
-0.341554 -0.0424207 0.126522 255 59 43
-0.34066 -0.0411919 0.127256 255 57 44
-0.340324 -0.0399824 0.127587 255 55 42
-0.340543 -0.038784 0.12752 255 56 40
-0.370023 -0.0229376 0.10751 255 57 42
-0.369957 -0.0215701 0.10766 255 56 44
-0.36954 -0.0202206 0.10806 255 61 46
-0.368777 -0.0188943 0.108707 255 71 59
-0.368017 -0.0175739 0.109351 255 74 66
-0.367262 -0.0162594 0.109992 255 73 64
-0.367884 -0.0148482 0.10965 255 85 71
-0.367818 -0.013484 0.109799 255 95 81
-0.369139 -0.0120011 0.10896 255 90 81
-0.370474 -0.0105019 0.108112 255 86 75
-0.370759 -0.0090872 0.108012 255 84 70
-0.371755 -0.00759673 0.107408 255 81 66
-0.371687 -0.00620641 0.10756 255 77 60
-0.371975 -0.00477584 0.107459 255 72 56
-0.371907 -0.00338181 0.107612 255 73 57
-0.371839 -0.00198687 0.107765 255 75 61
-0.534635 -0.0679054 -0.0168444 152 110 107
-0.532728 -0.0656175 -0.0152932 163 82 79
-0.532622 -0.0634649 -0.0150579 174 57 50
-0.532517 -0.0613109 -0.0148225 186 37 39
-0.534211 -0.0592565 -0.0158992 208 39 24
-0.366004 -0.0243893 0.108621 248 45 33
-0.365938 -0.0230383 0.108769 254 54 40
-0.367933 -0.0215844 0.10743 255 52 41
-0.367866 -0.0202212 0.107579 255 59 43
-0.366422 -0.0189392 0.10872 255 59 47
-0.366355 -0.0175811 0.108869 255 62 51
-0.366289 -0.0162221 0.109017 255 61 52
-0.366565 -0.0148364 0.108919 255 67 58
-0.366841 -0.0134463 0.108821 255 90 76
-0.367464 -0.0120222 0.108475 255 108 93
-0.368438 -0.0105584 0.107877 255 106 89
-0.369068 -0.00911577 0.107526 255 89 76
-0.369702 -0.00766465 0.107173 255 85 73
-0.37034 -0.00620503 0.106819 255 85 69
-0.370271 -0.00481547 0.106971 255 77 61
-0.370557 -0.00338389 0.106869 255 72 57
-0.370489 -0.00199064 0.107021 255 70 56
-0.370067 -0.000641183 0.107427 255 72 61
-0.536222 -0.0767378 -0.02136 70 38 45
-0.531173 -0.0655622 -0.0168514 151 125 117
-0.530175 -0.0633505 -0.0159604 156 105 98
-0.530069 -0.0612008 -0.015726 165 71 74
-0.529963 -0.0590496 -0.0154914 179 53 46
-0.365102 -0.0257029 0.107504 205 45 44
-0.365035 -0.0243527 0.107651 221 44 35
-0.364968 -0.0230016 0.107798 234 49 41
-0.364902 -0.0216496 0.107946 248 49 40
-0.365516 -0.0202593 0.107598 254 52 42
-0.365108 -0.0189225 0.107994 255 56 43
-0.365382 -0.0175438 0.107894 255 59 46
-0.365315 -0.0161847 0.108042 255 60 47
-0.365248 -0.0148247 0.10819 255 60 49
-0.365865 -0.0134086 0.107843 255 67 56
-0.366485 -0.0119843 0.107494 255 84 70
-0.367108 -0.0105518 0.107143 255 109 90
-0.367386 -0.0091442 0.107042 255 112 91
-0.368014 -0.00769681 0.106688 255 94 80
-0.368645 -0.00624096 0.106333 255 87 75
-0.368577 -0.00485491 0.106485 255 84 69
-0.368859 -0.00342699 0.106382 255 80 64
-0.36879 -0.00203726 0.106534 255 73 58
-0.368722 -0.00064659 0.106685 255 71 57
-0.368653 0.000745007 0.106837 255 74 61
-0.535673 -0.0789418 -0.0238476 61 31 31
-0.534654 -0.0766828 -0.0229322 71 48 55
-0.532627 -0.0721888 -0.0211124 141 129 116
-0.53162 -0.0699537 -0.020208 142 132 125
-0.529724 -0.0676584 -0.018644 144 136 127
-0.527738 -0.0632365 -0.0168594 148 135 127
-0.527632 -0.061091 -0.016626 154 119 114
-0.527526 -0.0589441 -0.0163924 158 101 98
-0.364133 -0.0256664 0.106533 174 62 76
-0.363728 -0.0243296 0.106929 187 49 52
-0.363999 -0.0229649 0.106827 204 44 39
-0.363594 -0.0216297 0.107222 221 43 35
-0.363527 -0.0202784 0.107369 237 45 37
-0.363798 -0.0189059 0.107269 248 48 40
-0.363731 -0.017551 0.107416 254 51 42
-0.364342 -0.0161473 0.107067 255 51 43
-0.364275 -0.0147872 0.107215 255 52 42
-0.36523 -0.0133432 0.106615 255 56 44
-0.365849 -0.0119168 0.106261 255 61 52
-0.366125 -0.0105137 0.106159 255 79 68
-0.366057 -0.00913924 0.106308 255 98 82
-0.366334 -0.0077288 0.106206 255 109 87
-0.366959 -0.00627671 0.10585 255 102 84
-0.367238 -0.00485516 0.105747 255 87 75
-0.367518 -0.003429 0.105644 255 87 70
-0.367449 -0.00204095 0.105795 255 84 66
-0.36738 -0.00065198 0.105946 255 76 61
-0.367661 0.000784353 0.105843 255 72 59
-0.367592 0.00217703 0.105995 255 76 62
-0.533193 -0.0787947 -0.0247399 60 34 34
-0.533085 -0.0766278 -0.0245047 82 53 60
-0.531063 -0.0721337 -0.0226793 141 137 124
-0.530059 -0.0698985 -0.0217722 143 136 128
-0.529059 -0.0676712 -0.0208686 143 136 129
-0.527177 -0.0653884 -0.0193054 144 138 130
-0.526189 -0.0631813 -0.0184122 146 139 130
-0.526082 -0.0610356 -0.0181793 148 139 131
-0.363164 -0.0256299 0.105563 154 130 127
-0.36276 -0.024293 0.105959 168 100 92
-0.362693 -0.0229435 0.106106 178 57 64
-0.362626 -0.021593 0.106252 196 42 40
-0.362222 -0.0202602 0.106647 213 44 33
-0.362155 -0.0189096 0.106794 228 45 33
-0.36276 -0.0175138 0.106444 242 45 33
-0.36303 -0.016134 0.106342 252 45 37
-0.363301 -0.0147497 0.10624 255 48 39
-0.364252 -0.0133055 0.105635 255 51 40
-0.364868 -0.0118789 0.105279 255 54 44
-0.3648 -0.010507 0.105428 255 62 49
-0.365074 -0.00910101 0.105324 255 73 60
-0.365006 -0.00772556 0.105473 255 97 78
-0.365281 -0.00631224 0.10537 255 115 94
-0.365557 -0.00489434 0.105266 255 101 91
-0.365834 -0.00347181 0.105162 255 92 78
-0.366111 -0.00204463 0.105057 255 89 73
-0.366389 -0.000612794 0.104953 255 86 70
-0.36632 0.000777233 0.105104 255 78 63
-0.366251 0.00216821 0.105255 255 74 59
-0.366181 0.0035601 0.105406 255 76 63
-0.531624 -0.0787399 -0.0263121 61 37 37
-0.531516 -0.0765728 -0.0260774 97 62 65
-0.523764 -0.0630679 -0.0193047 145 140 130
-0.523657 -0.0609265 -0.0190728 147 138 132
-0.361859 -0.0256053 0.104843 147 146 140
-0.361792 -0.0242565 0.104989 150 136 131
-0.361724 -0.0229068 0.105136 161 110 114
-0.361322 -0.0215732 0.105532 174 78 75
-0.361255 -0.0202234 0.105678 194 49 44
-0.361187 -0.0188727 0.105824 210 41 33
-0.36112 -0.0175211 0.105971 224 41 29
-0.361722 -0.0161207 0.105618 237 43 31
-0.362327 -0.0147122 0.105264 247 46 35
-0.363274 -0.0132677 0.104655 253 51 40
-0.363206 -0.0119003 0.104803 255 54 43
-0.363818 -0.010469 0.104445 255 54 43
-0.36375 -0.00909611 0.104593 255 58 46
-0.363681 -0.00772231 0.104742 255 71 59
-0.363612 -0.0063476 0.104891 255 94 81
-0.363885 -0.00493329 0.104787 255 109 99
-0.364158 -0.00351437 0.104682 255 110 99
-0.364432 -0.00209084 0.104577 255 101 84
-0.364707 -0.000662693 0.104472 255 87 74
-0.364983 0.000770132 0.104367 255 85 69
-0.364913 0.00215941 0.104517 255 78 63
-0.365189 0.00359964 0.104412 255 73 59
-0.365119 0.00499261 0.104563 255 75 62
-0.530055 -0.0786851 -0.0278845 62 42 44
-0.529946 -0.0765178 -0.0276503 107 79 72
-0.360892 -0.0255688 0.103874 152 146 140
-0.360824 -0.0242199 0.104019 153 146 138
-0.360422 -0.0228854 0.104417 157 141 137
-0.360022 -0.0215534 0.104813 162 125 123
-0.359954 -0.0202052 0.104959 175 88 81
-0.359886 -0.0188561 0.105105 194 52 46
-0.360151 -0.017484 0.105 211 41 32
-0.360416 -0.0161074 0.104896 222 41 30
-0.360682 -0.0147264 0.104792 233 41 33
-0.36162 -0.0132856 0.104182 245 47 38
-0.362227 -0.0118624 0.103823 252 53 42
-0.362158 -0.0104939 0.103971 255 53 42
-0.362428 -0.0090912 0.103865 255 54 44
-0.362359 -0.00771909 0.104013 255 57 48
-0.36229 -0.00634601 0.104161 255 66 57
-0.362221 -0.00497203 0.10431 255 88 78
-0.362492 -0.00355673 0.104205 255 109 102
-0.362762 -0.00213683 0.104099 255 119 101
-0.362693 -0.000756491 0.104248 255 101 80
-0.363306 0.000716842 0.103887 255 87 73
-0.363579 0.00215063 0.103781 255 84 71
-0.363509 0.00353918 0.103931 255 79 64
-0.363439 0.00492864 0.104082 255 72 57
-0.363369 0.00631905 0.104232 255 75 62
-0.528486 -0.0786303 -0.0294572 64 48 51
-0.528377 -0.0764628 -0.0292235 111 94 82
-0.359523 -0.024197 0.103302 154 146 139
-0.359124 -0.0228641 0.1037 156 147 141
-0.359056 -0.0215167 0.103845 158 144 140
-0.358987 -0.0201684 0.10399 162 130 124
-0.358919 -0.0188192 0.104136 176 90 82
-0.358851 -0.0174691 0.104281 196 53 47
-0.359114 -0.0160942 0.104176 212 39 33
-0.359378 -0.0147148 0.10407 222 41 32
-0.359975 -0.0133033 0.103712 232 44 35
-0.360576 -0.0118837 0.103352 242 48 38
-0.360843 -0.0104873 0.103245 251 52 43
-0.360774 -0.0091195 0.103392 255 54 45
-0.361041 -0.00771585 0.103286 255 54 44
-0.361309 -0.00630764 0.103178 255 59 46
-0.36124 -0.00493354 0.103327 255 67 54
-0.36117 -0.00355851 0.103475 255 82 75
-0.361101 -0.00218256 0.103623 255 108 98
-0.361031 -0.000805671 0.103772 255 117 93
-0.361299 0.00061793 0.103666 255 96 80
-0.361568 0.00204616 0.103559 255 87 75
-0.361838 0.00347903 0.103453 255 90 73
-0.361768 0.004865 0.103602 255 84 67
-0.362038 0.00630524 0.103496 255 72 59
-0.362308 0.00775019 0.10339 254 76 65
-0.526917 -0.0785754 -0.0310301 73 53 59
-0.527702 -0.0764949 -0.0314925 115 105 96
-0.358157 -0.0228275 0.102732 153 148 142
-0.358089 -0.02148 0.102877 155 148 144
-0.358021 -0.0201316 0.103022 158 148 141
-0.357952 -0.0187823 0.103167 164 128 121
-0.357884 -0.0174321 0.103312 181 82 79
-0.357815 -0.0160809 0.103457 200 48 42
-0.358076 -0.0147032 0.103351 213 41 30
-0.358338 -0.013321 0.103244 221 41 31
-0.358932 -0.011905 0.102883 230 43 33
-0.35953 -0.0104807 0.102521 240 47 36
-0.359461 -0.00911458 0.102668 249 50 41
-0.359726 -0.0077126 0.10256 253 53 44
-0.359991 -0.00630611 0.102452 255 57 44
-0.359922 -0.00493365 0.102599 255 57 45
-0.359852 -0.00356028 0.102747 255 62 52
-0.359448 -0.00222805 0.10315 255 77 70
-0.359044 -0.000898289 0.103552 255 100 86
-0.358974 0.00047433 0.103699 255 101 84
-0.359573 0.00194249 0.103339 255 89 77
-0.360175 0.00341918 0.102977 255 92 77
-0.360105 0.00480169 0.103126 255 103 81
-0.360372 0.00623826 0.103019 255 88 71
-0.360639 0.00767948 0.102911 255 72 59
-0.360907 0.00912539 0.102804 253 74 67
-0.525347 -0.0785206 -0.0326032 88 60 64
-0.526129 -0.0764398 -0.0330694 123 114 108
-0.357122 -0.0214433 0.101908 154 150 143
-0.357053 -0.0200948 0.102053 156 150 143
-0.356985 -0.0187453 0.102198 159 146 139
-0.356916 -0.017395 0.102343 169 116 116
-0.356847 -0.0160438 0.102488 186 71 72
-0.356778 -0.0146916 0.102633 203 44 36
-0.357038 -0.0133111 0.102525 214 41 30
-0.357298 -0.0119261 0.102417 221 41 32
-0.357558 -0.0105366 0.102308 227 42 32
-0.35782 -0.00914267 0.1022 236 46 35
-0.358082 -0.00774423 0.102091 247 48 40
-0.358012 -0.00637788 0.102238 253 53 43
-0.358274 -0.00497223 0.102129 255 53 43
-0.358205 -0.00360228 0.102277 255 55 44
-0.357803 -0.00227329 0.102679 255 60 51
-0.357402 -0.000946792 0.10308 255 72 62
-0.357332 0.000422436 0.103227 255 86 73
-0.357262 0.00179257 0.103374 255 88 76
-0.357523 0.00321246 0.103268 255 87 76
-0.357785 0.00463693 0.103161 255 102 84
-0.358714 0.00617162 0.102543 255 112 86
-0.359314 0.00766409 0.102179 255 87 70
-0.359579 0.00910821 0.10207 255 71 57
-0.360184 0.010616 0.101703 252 77 70
-0.523777 -0.0784657 -0.0341765 102 74 69
-0.524555 -0.0763846 -0.0346465 132 120 111
-0.356086 -0.0200579 0.101084 155 150 144
-0.356017 -0.0187084 0.101228 157 150 144
-0.355948 -0.0173579 0.101373 162 142 139
-0.355879 -0.0160066 0.101518 171 111 112
-0.35581 -0.0146544 0.101663 188 65 65
-0.35574 -0.0133012 0.101808 204 43 37
-0.355671 -0.0119471 0.101953 213 40 34
-0.355928 -0.0105611 0.101844 218 40 35
-0.356187 -0.00917062 0.101735 225 44 34
-0.356446 -0.00777568 0.101625 235 44 34
-0.356376 -0.00641272 0.101771 244 48 39
-0.356635 -0.00501061 0.101662 250 52 42
-0.356565 -0.00364406 0.101808 255 52 42
-0.356495 -0.00227659 0.101955 255 55 45
-0.355768 -0.000995019 0.10261 255 59 48
-0.355371 0.000325815 0.10301 255 68 57
-0.354975 0.00164419 0.103408 255 79 67
-0.355231 0.00305676 0.103302 255 85 72
-0.355488 0.00447385 0.103196 255 90 79
-0.356074 0.00594775 0.102836 255 111 88
-0.357658 0.00759388 0.101705 255 111 87
-0.35859 0.00914804 0.101079 255 84 68
-0.358855 0.010597 0.100969 255 72 58
-0.358783 0.0119899 0.101118 251 83 79
