# .PCD v0.7 - Point Cloud Data file format
VERSION 0.7
FIELDS x y z rgb
SIZE 4 4 4 4
TYPE F F F F
COUNT 1 1 1 1
WIDTH 1028
HEIGHT 1
VIEWPOINT 0 0 0 1 0 0 0
POINTS 1028
DATA ascii
-0.31459001 0.079166301 0.20006099 1.0426747e-38
-0.31560799 0.071511596 0.197675 8.873113e-39
-0.31496099 0.072263099 0.19808801 8.2345861e-39
-0.31471801 0.073212102 0.19830699 8.0530731e-39
-0.31447601 0.074160099 0.19852699 8.0534318e-39
-0.31443301 0.075209498 0.19865 7.9605159e-39
-0.31459099 0.076363102 0.198679 7.497384e-39
-0.314549 0.077414997 0.19880299 6.8491419e-39
-0.31450599 0.078467503 0.198927 7.030285e-39
-0.314464 0.079520799 0.19905201 8.3152546e-39
-0.314421 0.080574699 0.199176 9.9672118e-39
-0.314035 0.072198197 0.197458 7.3173157e-39
-0.31399199 0.073247202 0.19758099 7.1332818e-39
-0.31395 0.074296899 0.197705 7.4055499e-39
-0.314107 0.075450197 0.197732 7.3997934e-39
-0.314064 0.076502301 0.19785599 6.290206e-39
-0.31402099 0.077555202 0.19798 5.2760513e-39
-0.313979 0.078608803 0.19810399 5.2774876e-39
-0.313936 0.079663098 0.198228 6.383831e-39
-0.31389299 0.080718197 0.19835199 8.497125e-39
-0.31384999 0.081773996 0.198477 1.0241995e-38
-0.31326601 0.073282301 0.19685499 7.0349681e-39
-0.31342199 0.074433997 0.196881 8.3163406e-39
-0.31357899 0.075588502 0.196908 8.4935306e-39
-0.31373599 0.076745898 0.196934 6.7414549e-39
-0.31369299 0.0778009 0.19705801 5.2681255e-39
-0.31345001 0.078750297 0.19727901 5.0866139e-39
-0.313207 0.079698801 0.19750001 5.4597181e-39
-0.313164 0.080753997 0.197624 7.3021817e-39
-0.31312099 0.081809901 0.19774801 9.6913423e-39
-0.312879 0.082756802 0.19796801 1.116035e-38
-0.308424 0.084538601 0.200526 1.1254344e-38
-0.30667901 0.084594801 0.20146599 1.1071754e-38
-0.306449 0.085516103 0.20167699 1.079661e-38
-0.306407 0.086546101 0.20179801 1.0795889e-38
-0.306178 0.087466203 0.20200901 1.0886646e-38
-0.30613601 0.088496797 0.20213 1.1069234e-38
-0.312877 0.079948701 0.196576 4.9958588e-39
-0.312435 0.0807897 0.196895 6.1976348e-39
-0.312392 0.081845701 0.197019 8.8637453e-39
-0.31234801 0.082902499 0.197143 1.0885205e-38
-0.31190899 0.0837387 0.19746 1.1620246e-38
-0.30932599 0.083363801 0.19882099 1.13451e-38
-0.307942 0.083645001 0.199596 1.0428549e-38
-0.30657399 0.083923303 0.200362 9.6981835e-39
-0.30615699 0.0847385 0.200666 9.5173894e-39
-0.30592701 0.085660599 0.200877 9.3337226e-39
-0.30569801 0.0865817 0.20108899 9.3319247e-39
-0.30546901 0.087501802 0.2013 9.3297639e-39
-0.30542701 0.0885325 0.20142099 9.5101937e-39
-0.30538499 0.089563899 0.201542 9.8760923e-39
-0.30515599 0.090482697 0.20175201 1.0793724e-38
-0.309185 0.083726801 0.197816 9.0556951e-39
-0.30647001 0.0832486 0.19925299 8.2335001e-39
-0.30567601 0.083850801 0.199743 7.6853724e-39
-0.30563301 0.084882498 0.199864 7.594976e-39
-0.30540401 0.085805297 0.200076 7.8694007e-39
-0.30517501 0.086727202 0.200288 7.8658008e-39
-0.30494601 0.087648198 0.2005 7.5848937e-39
-0.304903 0.088679902 0.20062099 7.4887366e-39
-0.30486101 0.089712299 0.20074201 7.8549954e-39
-0.30463201 0.090631902 0.20095301 9.4169135e-39
-0.30458999 0.091664799 0.201074 1.0793724e-38
-0.304822 0.082748502 0.19900499 7.4080652e-39
-0.30496499 0.083886199 0.19903199 7.2247544e-39
-0.30492201 0.084917903 0.19915301 6.9467325e-39
-0.30506599 0.086060099 0.19918101 7.5841832e-39
-0.30465001 0.086873099 0.199486 7.2110805e-39
-0.304607 0.087906003 0.199607 6.4724323e-39
-0.304564 0.088939697 0.199728 5.9203361e-39
-0.30433601 0.089860998 0.19994 6.3820303e-39
-0.30429301 0.090895198 0.20006099 7.8549954e-39
-0.30425 0.091930099 0.20018201 1.0059043e-38
-0.304207 0.0929657 0.200303 1.1345097e-38
-0.29096401 0.066384599 0.204073 3.699711e-39
-0.29092401 0.067340702 0.20418499 4.0674145e-39
-0.303927 0.082677104 0.198388 6.9445745e-39
-0.30425501 0.083921596 0.198322 7.8589708e-39
-0.30439699 0.085062198 0.198349 9.4208735e-39
-0.304914 0.086426198 0.19818901 1.0428182e-38
-0.30580899 0.088022798 0.19784001 9.6859431e-39
-0.304454 0.088276602 0.198617 7.6587267e-39
-0.30441001 0.089313202 0.19873799 5.9120544e-39
-0.30418101 0.090236798 0.198952 5.5497515e-39
-0.30413699 0.091273896 0.199073 6.7497338e-39
-0.30428001 0.092427298 0.199101 9.0481365e-39
-0.30423599 0.093466803 0.199222 1.0977757e-38
-0.290667 0.065631397 0.203135 3.6989949e-39
-0.29030299 0.066416703 0.203412 4.0674229e-39
-0.29026201 0.067372903 0.20352399 4.9893848e-39
-0.290546 0.0685049 0.20347001 6.2847956e-39
-0.29396799 0.071355999 0.201814 7.0327877e-39
-0.30326101 0.0816838 0.197559 6.2995597e-39
-0.30321699 0.082712397 0.197678 6.7565791e-39
-0.303729 0.084064901 0.19751699 7.9490001e-39
-0.304243 0.085425504 0.197355 9.4190729e-39
-0.305136 0.087016903 0.19700199 1.0520016e-38
-0.306036 0.088623598 0.19664501 1.014656e-38
-0.30523601 0.089214802 0.19714899 7.9331528e-39
-0.30519199 0.090259098 0.19727001 6.0932031e-39
-0.30496001 0.091188699 0.197487 5.4535944e-39
-0.30491599 0.092233397 0.19760799 6.1022036e-39
-0.30506 0.093396299 0.19763499 7.7610019e-39
-0.30501601 0.0944435 0.19775701 1.0333829e-38
-0.29150999 0.065472901 0.201603 3.2398147e-39
-0.290005 0.065663502 0.202473 4.8964591e-39
-0.28996399 0.066620797 0.202584 6.1011176e-39
-0.289924 0.067578703 0.202696 6.7533323e-39
-0.28988299 0.068537302 0.20280699 7.0346052e-39
-0.29065299 0.069940999 0.2025 7.3129913e-39
-0.29375499 0.072644897 0.200994 7.3140731e-39
-0.29540899 0.074572898 0.20023499 7.0371247e-39
-0.30241099 0.080586299 0.196825 5.2803729e-39
-0.30236799 0.081613399 0.196944 5.3729216e-39
-0.302508 0.082747601 0.196969 6.0190085e-39
-0.303202 0.084208399 0.196711 6.7551344e-39
-0.30465001 0.0861222 0.19606701 7.5820084e-39
-0.30535999 0.087613001 0.195803 8.5918359e-39
-0.305884 0.089001298 0.19563399 8.2176584e-39
-0.30546001 0.089821801 0.195949 6.5538183e-39
-0.30541599 0.090870999 0.196071 5.3563569e-39
-0.30518201 0.091804303 0.196289 5.175567e-39
-0.30513799 0.092854001 0.196411 5.7316204e-39
-0.30547199 0.094141498 0.19634099 7.3000223e-39
-0.30542701 0.095194601 0.196463 1.0057601e-38
-0.33255899 0.0671864 0.17726099 1.0509937e-38
-0.329882 0.067178302 0.178789 8.9454956e-39
-0.29121199 0.0647121 0.200653 3.1468974e-39
-0.29067999 0.065419503 0.201022 3.5160498e-39
-0.28934199 0.065695703 0.201811 5.7327036e-39
-0.28930199 0.066652998 0.201922 6.9384425e-39
-0.28926101 0.067611001 0.202033 7.5874146e-39
-0.289866 0.068921797 0.20180701 7.6810522e-39
-0.29096499 0.070512101 0.201325 7.2200754e-39
-0.29307801 0.072678097 0.200317 6.2963227e-39
-0.293708 0.074035898 0.20008101 5.2774946e-39
-0.29553899 0.076080903 0.199222 4.716765e-39
-0.30170301 0.080621302 0.196116 4.1653835e-39
-0.30165899 0.081648499 0.196235 4.077871e-39
-0.30179799 0.082782798 0.19626001 4.3576977e-39
-0.30378899 0.085006699 0.195326 4.9115876e-39
-0.30563 0.087163702 0.194471 5.5551549e-39
-0.305967 0.088442303 0.194396 5.9206962e-39
-0.30668801 0.089957803 0.194123 5.6379898e-39
-0.30664301 0.091016099 0.194245 4.9882946e-39
-0.30526099 0.091255397 0.195057 4.8035418e-39
-0.30502701 0.092191003 0.19527601 4.8978983e-39
-0.30498201 0.093243703 0.195398 5.4546734e-39
-0.30531701 0.094535597 0.195325 6.9323188e-39
-0.30527201 0.095591702 0.195448 1.0058683e-38
-0.33084401 0.065651201 0.176837 1.2356009e-38
-0.328899 0.0659687 0.17798699 1.2172696e-38
-0.32885 0.067110904 0.178119 1.0515339e-38
-0.32880101 0.068253897 0.178251 7.1091514e-39
-0.328518 0.069291003 0.178509 4.1650178e-39
-0.328235 0.070326701 0.178766 3.3392172e-39
-0.32818601 0.071469799 0.17889801 3.4317743e-39
-0.32860601 0.072833903 0.178781 3.5250518e-39
-0.29070801 0.0648297 0.199899 3.1468988e-39
-0.290503 0.065709397 0.20009699 3.7008054e-39
-0.28916299 0.065984398 0.200894 5.093818e-39
-0.28863901 0.0666852 0.20126 6.0190141e-39
-0.28875899 0.0677303 0.201286 6.7562204e-39
-0.28920099 0.068954296 0.201142 6.5703886e-39
-0.29029599 0.070544899 0.200656 5.8285048e-39
-0.293071 0.073085196 0.199287 5.085179e-39
-0.29404199 0.074640103 0.19886801 4.4369215e-39
-0.30031201 0.079216897 0.19567101 3.975579e-39
-0.30099401 0.080656402 0.195408 3.6085958e-39
-0.30113301 0.081789203 0.19543099 3.4256521e-39
-0.303303 0.084111303 0.194391 3.6096902e-39
-0.30609599 0.086823702 0.193028 3.8862799e-39
-0.30624199 0.087993897 0.19305 4.0703138e-39
-0.306389 0.089166999 0.19307201 4.0695921e-39
-0.306923 0.090576701 0.192892 4.3425763e-39
-0.30687699 0.091640003 0.19301499 4.2507268e-39
-0.30586901 0.092111804 0.193639 4.435474e-39
-0.30582401 0.093171597 0.193762 4.5294745e-39
-0.30577901 0.094232202 0.193884 5.1784452e-39
-0.30592501 0.0954144 0.19390699 7.0241515e-39
-0.305879 0.096477501 0.19403 1.0518581e-38
-0.32810399 0.066005804 0.177192 1.235673e-38
-0.32805499 0.067148097 0.177324 9.3196844e-39
-0.32777199 0.068185598 0.177582 5.5457914e-39
-0.32725701 0.069115497 0.177966 3.7058403e-39
-0.32720801 0.070256598 0.17809699 3.5225308e-39
-0.32715899 0.071398601 0.178229 3.7072822e-39
-0.327342 0.0726512 0.17823499 3.8927525e-39
-0.327759 0.074018501 0.17811599 4.0778654e-39
-0.32771 0.075166397 0.178248 4.5381233e-39
-0.32766101 0.076315098 0.178381 3.521812e-39
-0.288618 0.067063302 0.20025501 4.3544551e-39
-0.28857699 0.068024702 0.20036601 5.0898635e-39
-0.28966799 0.069609202 0.199874 4.993705e-39
-0.306566 0.086480401 0.191569 3.6989907e-39
-0.306328 0.087427601 0.19179299 3.6989921e-39
-0.30647501 0.088603899 0.19181401 3.6071538e-39
-0.30662301 0.089783199 0.191834 3.8826603e-39
-0.30696499 0.091083303 0.191753 4.4326013e-39
-0.30691901 0.092150599 0.19187599 4.3414805e-39
-0.30667901 0.093098901 0.192101 4.0674103e-39
-0.30605301 0.093805701 0.19252899 4.1614122e-39
-0.306007 0.094871297 0.192652 4.994054e-39
-0.305962 0.095937699 0.192775 7.2071036e-39
-0.30591601 0.097004801 0.19289801 1.0886281e-38
-0.32730901 0.066042803 0.176396 1.1896829e-38
-0.32702699 0.067080803 0.17665499 7.8438368e-39
-0.326745 0.068117402 0.17691401 4.4405243e-39
-0.32646301 0.069152698 0.17717201 3.4303324e-39
-0.32641399 0.070294 0.177303 3.7065606e-39
-0.32636499 0.071436003 0.177435 3.9835076e-39
-0.32631499 0.0725789 0.17756601 4.1686177e-39
-0.32649699 0.073833503 0.177572 4.3540894e-39
-0.32668 0.0750916 0.177577 4.5374002e-39
-0.32686299 0.076352999 0.17758299 3.4256549e-39
-0.32681301 0.077502497 0.177715 4.4354796e-39
-0.32676399 0.078652903 0.177848 7.3788888e-39
-0.32671401 0.079804003 0.17798001 7.6515198e-39
-0.30738699 0.087430201 0.190008 3.6982663e-39
-0.30675599 0.088152498 0.19044299 3.6982677e-39
-0.30671 0.089219801 0.190566 3.6986278e-39
-0.30744401 0.090759099 0.190273 3.8823016e-39
-0.30759299 0.091951303 0.190292 4.2492877e-39
-0.307547 0.093025804 0.19041599 4.1574508e-39
-0.3075 0.094100997 0.19054 3.6989907e-39
-0.30589801 0.0942038 0.19148999 3.9766636e-39
-0.306045 0.095394403 0.19151001 5.0858909e-39
-0.305998 0.096464798 0.191633 7.4822514e-39
-0.30595201 0.097535998 0.19175699 1.088628e-38
-0.32656401 0.064938098 0.17546999 1.2725148e-38
-0.32651401 0.066079803 0.17560101 1.0149439e-38
-0.32623199 0.0671179 0.17586 6.2793964e-39
-0.32595101 0.068154603 0.176119 3.9802678e-39
-0.32567 0.069189899 0.176378 3.6140048e-39
-0.32562 0.070331298 0.17650899 3.8909518e-39
-0.32556999 0.071473397 0.17664 4.0764221e-39
-0.32552099 0.072616398 0.176771 4.2622525e-39
-0.32547101 0.073760197 0.17690299 4.7232292e-39
-0.325652 0.075016901 0.176908 4.4437655e-39
-0.32583299 0.0762771 0.17691199 3.5153296e-39
-0.32578301 0.077425502 0.177044 7.1952248e-39
-0.32573301 0.078574799 0.177176 1.0605013e-38
-0.325683 0.0797249 0.17730799 1.0880158e-38
-0.32540199 0.080757402 0.17756701 1.0141871e-38
-0.30689099 0.086512201 0.189042 4.0641747e-39
-0.30665001 0.087466799 0.189271 3.9734126e-39
-0.306409 0.088420399 0.18949801 3.8815799e-39
-0.30675101 0.0897239 0.189411 3.6982691e-39
-0.307096 0.091033101 0.18932401 3.6982705e-39
-0.30763799 0.092468403 0.18913101 3.7901046e-39
-0.30759099 0.093547001 0.189255 4.0656097e-39
-0.30774099 0.094749101 0.189273 3.790106e-39
-0.30769399 0.095830299 0.18939701 3.9759434e-39
-0.306862 0.096414901 0.189942 5.0855321e-39
-0.306815 0.097493596 0.19006599 7.758118e-39
-0.306768 0.098572902 0.19019 1.0702609e-38
-0.32576901 0.064975098 0.174674 1.3000649e-38
-0.325719 0.066116899 0.174805 8.1189958e-39
-0.32543701 0.067155004 0.175065 4.8075089e-39
-0.325156 0.0681917 0.17532501 3.9817041e-39
-0.32487601 0.069227196 0.175584 3.8913091e-39
-0.324826 0.070368603 0.175715 4.0757032e-39
-0.32477599 0.071510904 0.175846 4.1693408e-39
-0.32472599 0.072653897 0.17597701 4.5399212e-39
-0.32467601 0.0737978 0.176108 4.999456e-39
-0.32485601 0.075054698 0.176111 4.3490517e-39
-0.32503599 0.076315001 0.17611501 4.4365656e-39
-0.32498601 0.0774635 0.176247 1.0143676e-38
-0.324936 0.078612901 0.176378 1.2266329e-38
-0.324655 0.079645902 0.17663801 1.2449639e-38
-0.324375 0.080677502 0.17689601 1.2356002e-38
-0.30653501 0.082386799 0.18770801 3.4213277e-39
-0.30629399 0.083343402 0.18793701 3.1461785e-39
-0.306052 0.084298901 0.18816601 3.0550605e-39
-0.30600601 0.085366301 0.188288 3.4224024e-39
-0.30595899 0.086434498 0.188411 3.8805051e-39
-0.30591199 0.087503403 0.18853299 3.8815771e-39
-0.30586499 0.088573098 0.188656 3.6979075e-39
-0.306402 0.089995898 0.18846101 3.6060748e-39
-0.30694199 0.091427602 0.188265 3.6057161e-39
-0.30728799 0.092747003 0.18817499 3.7897444e-39
-0.30743799 0.093949899 0.188192 4.1570864e-39
-0.30778599 0.095279403 0.18810201 4.1578067e-39
-0.30773801 0.096364804 0.188226 4.342212e-39
-0.30690199 0.096949801 0.188777 5.4543132e-39
-0.30685499 0.098032601 0.18890101 8.1268991e-39
-0.30680701 0.099116199 0.189025 1.0886643e-38
-0.32497299 0.065012097 0.173879 1.1806427e-38
-0.32492301 0.066154003 0.174009 6.8286087e-39
-0.324642 0.0671921 0.17427 4.5323584e-39
-0.32436201 0.0682289 0.17453 3.9831446e-39
-0.32408199 0.069264397 0.17478999 3.8927497e-39
-0.32403201 0.070405997 0.17491999 3.8934756e-39
-0.323982 0.071548298 0.175051 4.1711456e-39
-0.32393101 0.0726915 0.175182 4.7250341e-39
-0.32411 0.073946603 0.175184 4.998377e-39
-0.32429001 0.075204998 0.17518599 4.6227617e-39
-0.324469 0.076466799 0.175189 6.3708717e-39
-0.32441899 0.077616699 0.17532 1.1712072e-38
-0.324368 0.0787673 0.17545199 1.2817339e-38
-0.31344301 0.082241997 0.182344 1.0602122e-38
-0.31051099 0.081751198 0.18406899 9.9535169e-39
-0.30805299 0.081495501 0.18552899 7.8341174e-39
-0.30584401 0.081355698 0.186848 5.9016175e-39
-0.30540901 0.0822023 0.187185 4.4326013e-39
-0.30478299 0.082935996 0.187627 3.698632e-39
-0.304544 0.0838883 0.18785501 3.3312886e-39
-0.304497 0.0849519 0.187976 3.2390916e-39
-0.30464301 0.086129598 0.18799201 3.4220437e-39
-0.30459601 0.087195598 0.188114 3.4220395e-39
-0.30512801 0.0886098 0.18791801 3.5142351e-39
-0.306247 0.0903873 0.187399 3.5138792e-39
-0.306591 0.0917041 0.187307 3.5138792e-39
-0.307529 0.093392096 0.18689001 3.6057147e-39
-0.308476 0.095096998 0.186469 3.7897458e-39
-0.30862799 0.096314602 0.18648399 3.8815855e-39
-0.30858001 0.097408399 0.186609 4.5258816e-39
-0.306943 0.097488798 0.187603 6.0975177e-39
-0.30709299 0.098702803 0.18762 9.0452527e-39
-0.30704501 0.099791601 0.18774401 1.1436578e-38
-0.32445899 0.0640091 0.172822 1.2909541e-38
-0.32417801 0.065049 0.17308301 8.9523466e-39
-0.32412699 0.066191003 0.17321301 5.0826539e-39
-0.323847 0.067229196 0.173475 4.1653779e-39
-0.323567 0.068266101 0.17373499 4.0757018e-39
-0.32351699 0.069408201 0.173866 4.0771437e-39
-0.32323799 0.070443302 0.174126 4.2622567e-39
-0.32318699 0.071585797 0.174256 4.4484486e-39
-0.323365 0.072839104 0.174257 4.6328399e-39
-0.32354301 0.074095704 0.17425799 4.721074e-39
-0.323722 0.075355701 0.17425901 5.7283806e-39
-0.32367101 0.076504797 0.174391 9.1324092e-39
-0.32361999 0.077654697 0.174522 1.2171973e-38
-0.30980599 0.080699198 0.183192 1.1895026e-38
-0.30735499 0.080454797 0.184661 1.1894303e-38
-0.306519 0.081090197 0.185225 1.1432967e-38
-0.30491301 0.0812824 0.18621901 1.0784721e-38
-0.30409601 0.081909001 0.18677101 9.768055e-39
-0.303666 0.082751401 0.187106 7.7422819e-39
-0.30342799 0.083702303 0.187334 5.4445938e-39
-0.30319101 0.0846522 0.18756101 4.3425581e-39
-0.30314401 0.085713498 0.187682 4.1578053e-39
-0.303287 0.086889498 0.18769801 3.7893857e-39
-0.30381301 0.088298999 0.1875 3.6975474e-39
-0.30550501 0.090424299 0.186657 3.6057147e-39
-0.30682999 0.092344202 0.18601801 3.4220451e-39
-0.30837199 0.094414599 0.18526 3.4224039e-39
-0.30872601 0.095759802 0.18516301 3.6060748e-39
-0.30908 0.097110897 0.185065 3.8819443e-39
-0.30923301 0.098339498 0.18507899 4.5266046e-39
-0.30918401 0.099441499 0.185204 7.6608847e-39
-0.30792999 0.099765398 0.185996 1.051714e-38
-0.30788201 0.100863 0.186121 1.1990108e-38
-0.323663 0.064046003 0.172025 1.226525e-38
-0.323383 0.065086 0.172287 7.3835845e-39
-0.32333201 0.066228099 0.172417 4.2579323e-39
-0.32305199 0.067266397 0.17267901 4.1675359e-39
-0.32277301 0.068303302 0.17294 4.0771437e-39
-0.32272199 0.069445401 0.17307 4.0785857e-39
-0.322671 0.070588402 0.17320099 4.0796675e-39
-0.32262 0.071732096 0.17333101 4.4491675e-39
-0.32256901 0.072876602 0.17346101 4.5395652e-39
-0.32297501 0.074245103 0.17332999 4.536687e-39
-0.32315299 0.075506598 0.17332999 6.6524963e-39
-0.32333201 0.076771498 0.17332999 1.0885197e-38
-0.32328001 0.077923998 0.173462 1.2173776e-38
-0.30340901 0.080882497 0.18591601 1.2354565e-38
-0.30317 0.081835501 0.18614399 1.1986502e-38
-0.302742 0.082677498 0.18648 1.1433327e-38
-0.30250499 0.083627596 0.186708 1.0693603e-38
-0.30208001 0.084465303 0.187042 9.6769356e-39
-0.30203199 0.085524797 0.187162 7.8351936e-39
-0.302174 0.086698502 0.187177 6.1789177e-39
-0.302506 0.0879898 0.187085 5.2605543e-39
-0.30495599 0.090580001 0.18580499 4.5244354e-39
-0.30766699 0.093358502 0.18438201 3.8815855e-39
-0.30801901 0.094701 0.184282 3.6975544e-39
-0.30877501 0.096302196 0.183957 3.7897472e-39
-0.30953601 0.097916499 0.18362901 4.1585326e-39
-0.30948699 0.099023297 0.183755 5.6318732e-39
-0.30903199 0.099869601 0.184108 9.9632489e-39
-0.30817601 0.100452 0.18468399 1.1804996e-38
-0.323147 0.063041501 0.170966 1.2727307e-38
-0.32286701 0.064082898 0.171229 1.0426021e-38
-0.32258701 0.065122999 0.171491 5.9102551e-39
-0.32253599 0.066265203 0.17162099 4.0753417e-39
-0.32225701 0.067303501 0.171883 4.2604532e-39
-0.321978 0.068340503 0.17214499 3.98639e-39
-0.32192701 0.069482803 0.17227501 4.1711414e-39
-0.32187599 0.070625797 0.172405 4.5402799e-39
-0.321825 0.071769603 0.172535 4.7243138e-39
-0.32200101 0.073024496 0.172534 4.7217957e-39
-0.32217699 0.074282803 0.17253201 5.4564783e-39
-0.32258299 0.075657897 0.172399 8.4938866e-39
-0.322761 0.076924399 0.172398 1.2175577e-38
-0.30139601 0.083442599 0.18618999 1.226453e-38
-0.301348 0.084501497 0.18630999 1.1988302e-38
-0.301301 0.085561 0.18643101 1.1710992e-38
-0.301254 0.086621404 0.186551 1.133717e-38
-0.30139399 0.087796897 0.186565 9.9520848e-39
-0.306963 0.092303 0.183504 7.7437225e-39
-0.30811501 0.094139002 0.18294799 6.1810757e-39
-0.308267 0.095364898 0.18296 5.8130106e-39
-0.308824 0.096848801 0.182742 6.089236e-39
-0.309589 0.098471597 0.182408 7.0119111e-39
-0.30953899 0.099582799 0.18253399 9.1327694e-39
-0.30928501 0.100563 0.182776 1.1805354e-38
-0.32235 0.063078403 0.170168 1.2174138e-38
-0.32207099 0.064119801 0.170432 8.1229446e-39
-0.32179099 0.065159999 0.17069501 4.8085879e-39
-0.321513 0.066198699 0.170958 4.3530062e-39
-0.32123399 0.0672362 0.171221 4.9980154e-39
-0.321183 0.068377703 0.17135 4.537766e-39
-0.321132 0.069520101 0.17148 4.5392051e-39
-0.32108 0.070663199 0.171609 5.0923733e-39
-0.32125601 0.071916297 0.171607 4.9076233e-39
-0.32143101 0.0731728 0.17160399 4.7225146e-39
-0.32183501 0.074544802 0.171469 7.204947e-39
-0.32201201 0.075809501 0.17146599 1.0793008e-38
-0.32196 0.076962501 0.171597 1.2634759e-38
-0.30033401 0.086544499 0.185927 1.2174136e-38
-0.30047399 0.087718897 0.18594 1.2450355e-38
-0.30912799 0.096417703 0.181275 1.1059507e-38
-0.30907801 0.097528398 0.181401 1.0968036e-38
-0.30943599 0.098900497 0.18129399 1.1524087e-38
-0.30938599 0.100015 0.18142 1.2265246e-38
-0.321605 0.061972901 0.16924199 1.2726593e-38
-0.32132599 0.063014798 0.169506 1.060862e-38
-0.32104701 0.064055301 0.16977 6.1872064e-39
-0.32099599 0.065196998 0.169899 4.1671772e-39
-0.32071701 0.066235803 0.17016301 4.4462822e-39
-0.32043999 0.067273296 0.170426 5.6444582e-39
-0.32038799 0.068414897 0.170555 4.9058296e-39
-0.32033601 0.069557399 0.17068399 5.0001832e-39
-0.32051101 0.070808701 0.17068 5.3689616e-39
-0.32045901 0.0719539 0.17081 4.9069044e-39
-0.32086 0.073321298 0.170673 5.0912971e-39
-0.32126299 0.0746952 0.170535 8.4960418e-39
-0.321439 0.075961404 0.170531 1.2083021e-38
-0.32086 0.060867999 0.16831601 1.2909899e-38
-0.320582 0.061910301 0.16858099 1.1438378e-38
-0.32053 0.063051596 0.16870999 7.9403569e-39
-0.32025099 0.064092197 0.168974 4.8093082e-39
-0.31997401 0.0651315 0.169238 3.9842292e-39
-0.31969699 0.066169403 0.169502 4.3537334e-39
-0.31964499 0.0673104 0.16963001 5.2767589e-39
-0.31959301 0.068452097 0.16975901 4.8154347e-39
-0.31976601 0.069701597 0.169754 5.3704035e-39
-0.31971401 0.070846103 0.169883 5.2774876e-39
-0.319888 0.0721009 0.16987801 4.9990986e-39
-0.320288 0.073470198 0.16973899 6.7457751e-39
-0.32046199 0.074733101 0.169734 1.0519301e-38
-0.32063699 0.075999402 0.16972899 1.2727669e-38
-0.31983799 0.060806401 0.167656 1.3369431e-38
-0.31978601 0.061946999 0.16778401 1.0699013e-38
-0.31973299 0.063088499 0.167913 6.1893672e-39
-0.31945601 0.064129099 0.16817801 4.0764221e-39
-0.319179 0.0651685 0.168442 3.9849495e-39
-0.31890199 0.0662065 0.168707 4.1697023e-39
-0.31885001 0.067347497 0.168835 4.4470095e-39
-0.319022 0.068595201 0.16882899 4.7261145e-39
-0.31896999 0.069738999 0.168957 5.4636767e-39
-0.31891799 0.070883602 0.16908599 5.0005434e-39
-0.31909001 0.072138503 0.16908 5.0920173e-39
-0.31948799 0.073507898 0.16893899 8.9534214e-39
-0.319662 0.074771002 0.168933 1.1990108e-38
-0.319042 0.060843099 0.16686 1.2359604e-38
-0.31898901 0.061983801 0.166988 9.4111555e-39
-0.318937 0.063125297 0.167116 5.6365493e-39
-0.31865999 0.064166099 0.167382 4.0767836e-39
-0.31815901 0.065103099 0.16778301 4.0764277e-39
-0.31810701 0.0662435 0.16791099 4.2618993e-39
-0.318055 0.067384697 0.16804001 4.4480885e-39
-0.31822601 0.068632402 0.16803201 4.7271935e-39
-0.31817299 0.069776297 0.168161 5.1870926e-39
-0.31834501 0.071029402 0.168153 4.9072687e-39
-0.31851599 0.072285898 0.168146 5.9196214e-39
-0.318914 0.073657103 0.16800299 1.0611138e-38
-0.31908599 0.074921697 0.16799501 1.2726593e-38
-0.31824601 0.0608797 0.166063 1.0976326e-38
-0.31819299 0.0620206 0.166191 6.9269294e-39
-0.31791699 0.063061699 0.166457 4.7199922e-39
-0.31764001 0.064101599 0.166723 4.3530104e-39
-0.31736499 0.065140098 0.166988 4.2611763e-39
-0.317312 0.066280499 0.167116 4.2629797e-39
-0.31726 0.067421801 0.167244 4.4495276e-39
-0.31742999 0.068669699 0.167236 5.0027014e-39
-0.317377 0.069813699 0.167364 5.0930977e-39
-0.31754699 0.071066901 0.167356 5.0916586e-39
-0.31794199 0.072433598 0.16721 8.309861e-39
-0.31833801 0.073806599 0.167064 1.1716045e-38
-0.31772599 0.059873398 0.16500001 1.3003174e-38
-0.31744999 0.060916401 0.16526701 9.5951908e-39
-0.317397 0.062057301 0.16539501 5.6390688e-39
-0.317121 0.063098498 0.16566101 4.0778626e-39
-0.316845 0.064138398 0.16592699 3.9863886e-39
-0.31679201 0.065279402 0.16605499 4.1707813e-39
-0.316517 0.066317603 0.16632099 4.1722232e-39
-0.316686 0.067563698 0.166311 4.634279e-39
-0.31663299 0.068706997 0.166439 5.1870926e-39
-0.316802 0.069958404 0.166429 4.9083492e-39
-0.317195 0.071322002 0.166281 5.3693259e-39
-0.31759 0.072692104 0.166133 1.0704048e-38
-0.317761 0.073956497 0.166123 1.2267775e-38
-0.31698301 0.058769401 0.164075 1.3003534e-38
-0.31670699 0.059812799 0.164343 1.1347618e-38
-0.31665301 0.060953099 0.16447 7.5715715e-39
-0.316378 0.061994702 0.164737 4.9036646e-39
-0.31632501 0.0631354 0.164865 4.261535e-39
-0.31604999 0.0641753 0.165132 4.2618965e-39
-0.31599599 0.065316401 0.165259 4.2629769e-39
-0.315943 0.066458203 0.165387 4.5402841e-39
-0.31589001 0.067600802 0.16551401 4.9105057e-39
-0.31605801 0.068850398 0.165503 5.093818e-39
-0.31622699 0.070103399 0.165492 5.1845689e-39
-0.31661901 0.0714688 0.165342 7.1156423e-39
-0.31701201 0.072840698 0.16519199 1.1809314e-38
-0.31618601 0.058805902 0.163278 1.309249e-38
-0.315911 0.0598494 0.163546 9.5026379e-39
-0.31585699 0.0609897 0.163673 5.7309057e-39
-0.31558201 0.0620315 0.163941 4.3522929e-39
-0.31552899 0.063172199 0.164068 4.2611777e-39
-0.315254 0.064212203 0.164336 4.2618979e-39
-0.31520101 0.065353401 0.164463 4.3551754e-39
-0.31514701 0.066495299 0.16459 4.6339189e-39
-0.31531399 0.0677431 0.16457801 5.0945355e-39
-0.31526101 0.068887703 0.16470499 5.000542e-39
-0.31587201 0.070356697 0.16441301 5.7359448e-39
-0.31626299 0.071725503 0.16426 1.0515709e-38
-0.31643301 0.072989598 0.164248 1.2819869e-38
-0.31538901 0.058842398 0.162481 1.2174136e-38
-0.31511399 0.059886001 0.16275001 7.8452788e-39
-0.315061 0.061026402 0.16287699 4.9036646e-39
-0.31478599 0.062068202 0.16314501 4.0775053e-39
-0.31473199 0.063208997 0.16327199 4.0778668e-39
-0.31445801 0.064249098 0.16354001 4.2622595e-39
-0.31462499 0.065493099 0.163526 4.539924e-39
-0.31457099 0.066636302 0.163653 4.9101442e-39
-0.31451699 0.067780301 0.16378 5.0934565e-39
-0.314904 0.069138199 0.163626 4.9994644e-39
-0.31551501 0.070611 0.16333 6.749738e-39
-0.31568399 0.071873203 0.163316 1.2084825e-38
-0.31459299 0.058878999 0.16168401 1.0149807e-38
-0.314318 0.059922501 0.161953 6.0989652e-39
-0.314044 0.0609648 0.162222 4.3530118e-39
-0.31399 0.062105 0.162349 4.0782241e-39
-0.313936 0.0632459 0.162475 4.0785857e-39
-0.31388199 0.064387597 0.16260201 4.2633371e-39
-0.31382799 0.065530099 0.162729 4.8168696e-39
-0.31377399 0.066673502 0.162856 5.0945341e-39
-0.31393901 0.067922898 0.16284101 5.0016196e-39
-0.31454599 0.069389701 0.162542 5.9196144e-39
-0.314935 0.070757397 0.162384 9.2303754e-39
-0.31554899 0.0722422 0.162083 1.2361053e-38
-0.31406999 0.0578705 0.160616 1.3373033e-38
-0.31379601 0.0589155 0.160886 8.2137081e-39
-0.31352201 0.059959099 0.161156 4.904745e-39
-0.31324801 0.061001498 0.16142599 4.1697009e-39
-0.31319401 0.062141702 0.161552 4.1700624e-39
-0.31314 0.063282698 0.161678 4.0793059e-39
-0.31308499 0.064424597 0.161805 4.356253e-39
-0.31303099 0.065567203 0.16193099 5.001621e-39
-0.31319499 0.066814803 0.161915 5.0938152e-39
-0.31358001 0.068171501 0.16175701 4.8172297e-39
-0.31418699 0.069642201 0.16145299 6.8408504e-39
-0.314798 0.0711229 0.161149 1.1531292e-38
-0.31496501 0.072391003 0.16113199 1.318793e-38
-0.31354699 0.056860499 0.159546 1.3279405e-38
-0.31327301 0.0579069 0.15981799 1.1164307e-38
-0.31299901 0.058952 0.160089 6.557428e-39
-0.312507 0.0598986 0.160503 4.5374044e-39
-0.31245199 0.061038099 0.160629 4.2622539e-39
-0.31239799 0.0621785 0.16075499 4.1707813e-39
-0.312343 0.063319601 0.160881 4.0800276e-39
-0.31228799 0.064461499 0.161008 4.5413631e-39
-0.31245199 0.065707304 0.16099 5.1856521e-39
-0.31261599 0.066956401 0.160973 5.0930949e-39
-0.31321901 0.0684212 0.160668 5.5522738e-39
-0.31360501 0.069787703 0.160505 8.5886059e-39
-0.31421399 0.071270399 0.160197 1.2637278e-38
-0.31253001 0.056802601 0.158894 1.3095011e-38
-0.312475 0.0579434 0.15902001 8.0307616e-39
-0.31198299 0.058892298 0.159437 5.0880615e-39
-0.31171101 0.0599351 0.15970699 4.3540936e-39
-0.311656 0.061074801 0.159833 4.3544523e-39
-0.31160101 0.062215202 0.159959 4.1715002e-39
-0.311546 0.063356496 0.16008399 4.3562558e-39
-0.311492 0.064498499 0.16021 5.0016224e-39
-0.311654 0.0657444 0.160192 5.2774876e-39
-0.31203499 0.067098297 0.16002899 5.0927348e-39
-0.31263599 0.0685651 0.15972 7.0245172e-39
-0.31324199 0.070041798 0.159409 1.116431e-38
-0.313629 0.0714183 0.159243 1.3464516e-38
-0.31173199 0.056839 0.158096 1.2267412e-38
-0.31167701 0.0579799 0.15822101 6.8318569e-39
-0.311187 0.058928799 0.15864 4.6303175e-39
-0.31091499 0.059971701 0.158911 4.2626168e-39
-0.31086001 0.061111499 0.159036 4.2633357e-39
-0.31080499 0.062252 0.159162 4.2636972e-39
-0.31075001 0.063393302 0.15928701 4.5406484e-39
-0.310911 0.0646374 0.15926801 5.1863738e-39
-0.31107301 0.065884799 0.15924799 5.0930977e-39
-0.31167099 0.067345701 0.15893701 5.3686042e-39
-0.31227201 0.068816401 0.158623 8.8651858e-39
-0.312657 0.070188202 0.158456 1.3004614e-38
-0.311207 0.0558284 0.15702499 1.300354e-38
-0.31115201 0.056969799 0.15715 9.1389e-39
-0.31087899 0.058016401 0.157423 5.3621274e-39
-0.31039 0.058965299 0.15784299 4.5388408e-39
-0.310119 0.060008299 0.158114 4.3548096e-39
-0.31006399 0.0611481 0.15823901 4.2640545e-39
-0.31000799 0.062288798 0.158365 4.2644189e-39
-0.309953 0.063430198 0.15849 4.9101484e-39
-0.31011301 0.0646744 0.15846901 5.1860164e-39
-0.310707 0.066129297 0.15815499 5.0005434e-39
-0.31130499 0.067594104 0.157839 6.8397714e-39
-0.31190601 0.0690687 0.15752199 1.079697e-38
-0.31207001 0.0703348 0.1575 1.3557069e-38
-0.31089899 0.0549087 0.155802 1.291278e-38
-0.310626 0.0559582 0.156077 1.1989751e-38
-0.31035301 0.057006199 0.156351 6.9251343e-39
-0.31008101 0.058052901 0.156624 4.4455689e-39
-0.30959299 0.0590019 0.15704501 4.354811e-39
-0.30932301 0.0600449 0.157318 4.3551712e-39
-0.30926701 0.061184801 0.157443 4.3562502e-39
-0.30921099 0.0623255 0.15756699 4.4498877e-39
-0.309156 0.0634671 0.157693 5.279647e-39
-0.309746 0.064916097 0.15737601 5.0016238e-39
-0.310123 0.066270597 0.157206 5.0930991e-39
-0.31093699 0.067843497 0.156738 8.8637481e-39
-0.31131899 0.069214098 0.156565 1.2544001e-38
-0.31148201 0.0704818 0.156543 1.3740382e-38
-0.31009999 0.0549451 0.155002 1.3004612e-38
-0.31004301 0.056088202 0.155127 9.6927815e-39
-0.30955401 0.057042699 0.155552 5.6383542e-39
-0.30906701 0.057994001 0.155975 4.1715016e-39
-0.30858201 0.058942199 0.156396 4.4477255e-39
-0.30852601 0.0600814 0.15652101 4.446292e-39
-0.30847001 0.061221499 0.156646 4.3562544e-39
-0.308415 0.062362298 0.15677001 4.6353608e-39
-0.30857301 0.063604802 0.156747 5.2796484e-39
-0.30894601 0.064953201 0.15657599 5.1838542e-39
-0.30953699 0.066412203 0.15625501 6.2884011e-39
-0.31035 0.067987397 0.155782 1.0521465e-38
-0.31073001 0.069359802 0.155607 1.3188648e-38
-0.30930001 0.054981399 0.154201 1.3093933e-38
-0.30924299 0.056124602 0.15432601 7.5705051e-39
-0.30875599 0.057079099 0.154752 4.4462906e-39
-0.30827001 0.0580304 0.155177 4.2633399e-39
-0.30778599 0.058978699 0.1556 4.4477255e-39
-0.30772999 0.060118001 0.155724 4.3558928e-39
-0.30767399 0.061258201 0.155848 4.4495304e-39
-0.30783099 0.062498901 0.15582401 5.0956159e-39
-0.30798799 0.063742898 0.1558 5.0027014e-39
-0.30836099 0.065093003 0.155626 5.1852892e-39
-0.309383 0.066763803 0.155 8.5871654e-39
-0.30976099 0.068131603 0.154824 1.2177382e-38
-0.30855599 0.0538752 0.153276 1.3555989e-38
-0.30849901 0.055017699 0.153401 1.125542e-38
-0.30844301 0.056161098 0.15352499 6.5570679e-39
-0.307742 0.057020999 0.15410399 4.3562516e-39
-0.30725899 0.0579716 0.15452901 4.3555355e-39
-0.30699 0.0590152 0.15480299 4.4477311e-39
-0.30693299 0.060154598 0.154927 4.4480913e-39
-0.30709001 0.061393499 0.154901 4.7271935e-39
-0.307246 0.062635697 0.15487599 5.5562311e-39
-0.307403 0.0638813 0.15485001 5.000186e-39
-0.307989 0.065336399 0.154523 5.7373882e-39
-0.30879399 0.066906497 0.15404201 1.070621e-38
-0.30917099 0.0682761 0.153864 1.3464877e-38
-0.30775601 0.053911399 0.152476 1.2910266e-38
-0.30769899 0.055054002 0.15260001 8.2162291e-39
-0.307428 0.056103699 0.152877 5.0894964e-39
-0.30673099 0.056963101 0.153457 4.5402799e-39
-0.30625001 0.057912901 0.153883 4.4480871e-39
-0.30619299 0.0590517 0.154006 4.6321196e-39
-0.306137 0.060191199 0.15413 4.7250383e-39
-0.306292 0.061430201 0.154103 5.1881744e-39
-0.30666 0.062772803 0.153926 5.6480638e-39
-0.30702901 0.064121701 0.15374701 5.2756911e-39
-0.30761501 0.065580703 0.15341599 8.0354336e-39
-0.30842 0.067155197 0.15292899 1.2269936e-38
-0.30722699 0.052896101 0.151397 1.3923691e-38
-0.30695599 0.053947601 0.151675 1.171388e-38
-0.30689901 0.055090401 0.15179899 6.6514201e-39
-0.30641499 0.056046501 0.15222999 4.4477283e-39
-0.30593401 0.056999501 0.152659 4.356253e-39
-0.30545399 0.057949301 0.15308601 4.4480913e-39
-0.305397 0.0590882 0.153209 4.724318e-39
-0.30555099 0.060325399 0.153181 5.0023412e-39
-0.30570501 0.061565898 0.153153 5.4651187e-39
-0.306072 0.062910199 0.152973 5.0941767e-39
-0.30686799 0.064465702 0.152486 5.1867367e-39
-0.307239 0.065825999 0.15230399 1.0888439e-38
-0.30782801 0.067298703 0.15196601 1.3187569e-38
-0.306427 0.0529323 0.15059599 1.2910985e-38
-0.30615601 0.053983901 0.150875 9.1367406e-39
-0.305886 0.055034101 0.151153 5.4571999e-39
-0.30540401 0.0559894 0.151584 4.4484486e-39
-0.30492499 0.056941599 0.152014 4.539924e-39
-0.30465701 0.057985701 0.152289 4.5399268e-39
-0.3046 0.059124701 0.152412 4.8175885e-39
-0.30475301 0.060362 0.152383 5.4636781e-39
-0.30511701 0.061701801 0.152201 5.6477135e-39
-0.30548301 0.063047901 0.15201899 5.3682427e-39
-0.30649099 0.064708702 0.151372 7.0252487e-39
-0.307293 0.066282198 0.150875 1.1992988e-38
-0.30589601 0.0519155 0.149515 1.4200275e-38
-0.30541301 0.052878 0.149951 1.1990111e-38
-0.305356 0.054020099 0.15007401 7.1113235e-39
-0.30487499 0.054977901 0.150508 4.7228775e-39
-0.304396 0.055932399 0.150939 4.6317595e-39
-0.30412799 0.056977998 0.151216 4.6317581e-39
-0.30386099 0.0580221 0.151492 4.541003e-39
-0.30401301 0.059257701 0.151462 4.9108659e-39
-0.30416501 0.060496502 0.15143199 5.5569528e-39
-0.304528 0.061838001 0.15124699 5.0956187e-39
-0.30531701 0.063388497 0.15075199 5.462239e-39
-0.306113 0.064952597 0.150254 1.107068e-38
-0.30669901 0.0664251 0.14990801 1.3647829e-38
-0.304883 0.051862001 0.14887001 1.3372318e-38
-0.30461299 0.052914102 0.14915 9.8742959e-39
-0.304555 0.054056399 0.14927299 5.9160187e-39
-0.30407599 0.0550141 0.149708 4.6313993e-39
-0.30338901 0.055875599 0.150296 4.6314007e-39
-0.30333099 0.057014301 0.150419 4.5402841e-39
-0.30327299 0.058153901 0.15054099 4.6339189e-39
-0.303424 0.059390899 0.150509 5.1878129e-39
-0.30357599 0.060631201 0.15047801 5.5565926e-39
-0.304149 0.0620744 0.15013599 5.184936e-39
-0.30515 0.063731201 0.149478 6.3834778e-39
-0.30573201 0.065197602 0.14913 1.2637993e-38
-0.30610299 0.066568203 0.148939 1.401625e-38
-0.303929 0.050667901 0.148104 1.4291753e-38
-0.30387101 0.0518087 0.14822701 1.2081946e-38
-0.30381301 0.0529503 0.148349 7.6644916e-39
-0.30354401 0.054001 0.14862899 5.0898579e-39
-0.303067 0.054958001 0.149065 4.6314007e-39
-0.30259201 0.055911802 0.149499 4.5395652e-39
-0.30253401 0.057050701 0.14962099 4.6328385e-39
-0.30268401 0.058285899 0.149588 5.0023412e-39
-0.302834 0.059524398 0.149555 5.5562353e-39
-0.30298501 0.060766298 0.14952201 5.2800071e-39
-0.303767 0.062311701 0.149019 5.6459086e-39
-0.304555 0.063870803 0.148513 9.5080399e-39
-0.30535001 0.065443598 0.148002 1.3650338e-38
-0.30312899 0.050703902 0.147304 1.3648545e-38
-0.30307099 0.051844802 0.14742599 1.0149804e-38
-0.303013 0.052986499 0.147549 6.1918853e-39
-0.30274501 0.054037299 0.147829 4.8150703e-39
-0.30206001 0.054901998 0.148423 4.6317581e-39
-0.30200201 0.056041401 0.148545 4.5402841e-39
-0.30194399 0.0571815 0.14866699 4.725753e-39
-0.302093 0.058418199 0.148632 5.3714839e-39
-0.30224299 0.0596582 0.148598 5.6484323e-39
-0.30260199 0.061000299 0.148407 5.002707e-39
-0.30359501 0.062651001 0.14774001 6.3838352e-39
-0.30438501 0.064216398 0.14722601 1.2084464e-38
-0.304539 0.065481201 0.14719 1.4199559e-38
-0.30212101 0.050651699 0.146663 1.2359972e-38
-0.30227101 0.0518809 0.146626 7.9417974e-39
-0.302003 0.052932099 0.146906 5.1820522e-39
-0.301736 0.053982001 0.14718699 4.7235936e-39
-0.30147001 0.055030499 0.147467 4.7235936e-39
-0.301204 0.0560777 0.147746 4.6324811e-39
-0.30135301 0.0573126 0.14771099 4.910147e-39
-0.30150101 0.058550701 0.14767499 5.6480708e-39
-0.30164999 0.059792299 0.14763901 5.5562381e-39
-0.30242699 0.061334699 0.147128 5.6455555e-39
-0.30320999 0.062890701 0.146612 8.5893304e-39
-0.30378699 0.064356998 0.146254 1.3374835e-38
-0.30138001 0.049548499 0.145742 1.4293191e-38
-0.301321 0.050687701 0.145863 1.0794091e-38
-0.301263 0.051827598 0.14598501 6.2851613e-39
-0.30099601 0.052877899 0.146265 4.7239537e-39
-0.30072999 0.0539269 0.14654601 4.6321182e-39
-0.30067101 0.055066802 0.146668 4.7243124e-39
-0.300612 0.0562075 0.146789 4.7253942e-39
-0.30076 0.057443898 0.146752 5.0956173e-39
-0.300908 0.0586836 0.146715 5.7406266e-39
-0.30147299 0.060122501 0.14636 5.1878185e-39
-0.30225101 0.061671201 0.145841 6.2916381e-39
-0.30282399 0.063131496 0.14548001 1.0797334e-38
-0.302975 0.064394496 0.14544199 1.3650345e-38
-0.30078799 0.0496714 0.14478099 1.2912783e-38
-0.300522 0.050723601 0.145063 8.8619488e-39
-0.30046299 0.0518636 0.145184 5.550113e-39
-0.30019701 0.052914001 0.145466 4.6321196e-39
-0.299932 0.053963099 0.14574701 4.6317609e-39
-0.29987201 0.055103101 0.145868 4.6328385e-39
-0.300019 0.056337599 0.14583001 4.9105057e-39
-0.30016601 0.057575502 0.14579201 5.4640411e-39
-0.30072799 0.059010301 0.14543299 5.7399077e-39
-0.301085 0.060356099 0.14523301 5.8303054e-39
-0.30186301 0.061909098 0.14470901 8.1308718e-39
-0.30222401 0.063270897 0.14450701 1.2086625e-38
-0.30216399 0.064432003 0.14463 1.3740742e-38
-0.300255 0.048653699 0.14369699 1.4753448e-38
-0.299988 0.049707402 0.14398 1.1162515e-38
-0.299723 0.050759599 0.144263 6.7454178e-39
-0.29966301 0.051899701 0.144384 4.9076233e-39
-0.29939801 0.0529502 0.144666 4.7239537e-39
-0.29933801 0.054090701 0.144787 4.7235964e-39
-0.299279 0.055232 0.144908 4.7250369e-39
-0.29942501 0.056467999 0.144869 5.1878115e-39
-0.29998401 0.0578986 0.14450701 5.5565968e-39
-0.30033901 0.0592415 0.14430501 5.3714895e-39
-0.30069599 0.060590599 0.14410201 7.0263235e-39
-0.301263 0.062047001 0.14373501 1.1256874e-38
-0.301413 0.063308299 0.143695 1.3373044e-38
-0.40577999 0.0235015 0.054397698 1.5123309e-38
-0.29966101 0.0487759 0.14273299 1.3189732e-38
-0.29918799 0.049743202 0.14318 9.2296495e-39
-0.29912901 0.0508838 0.143301 5.8256181e-39
-0.29886299 0.051935799 0.143584 4.7243124e-39
-0.298599 0.052986301 0.143866 4.7239537e-39
-0.29853901 0.0541269 0.143987 4.8154333e-39
-0.298684 0.0553611 0.14394601 4.8179528e-39
-0.29924101 0.056787599 0.143581 5.2807274e-39
-0.29938701 0.058031298 0.14353999 5.5565954e-39
-0.29994801 0.0594736 0.143172 5.5551591e-39
-0.300304 0.060826201 0.142966 8.5914842e-39
-0.30066201 0.062185202 0.14275999 1.3373761e-38
-0.40316099 0.023277501 0.054356501 1.5117188e-38
-0.40402001 0.0251374 0.053764202 1.5489218e-38
-0.299539 0.047926899 0.141315 1.420136e-38
-0.29906499 0.048898298 0.141766 1.1163241e-38
-0.298388 0.049779199 0.142379 6.9298091e-39
-0.29832801 0.050919902 0.142499 5.0912943e-39
-0.29806301 0.051971801 0.142783 4.7246712e-39
-0.29800299 0.053112902 0.142904 4.8157906e-39
-0.297943 0.0542548 0.143024 4.9083477e-39
-0.29829201 0.055583801 0.142819 5.1867339e-39
-0.29864299 0.056919001 0.14261299 5.4647613e-39
-0.29899499 0.058260601 0.142407 5.4644012e-39
-0.29955599 0.0597068 0.14203399 6.6589815e-39
-0.29991099 0.061062701 0.14182501 1.0799133e-38
-0.29984999 0.062222499 0.141948 1.4295355e-38
-0.40056601 0.023055499 0.054315601 1.4285621e-38
-0.40141299 0.024906199 0.0537255 1.5305902e-38
-0.29873499 0.0479628 0.14050999 1.3281922e-38
-0.29867399 0.049107902 0.14063101 9.3218452e-39
-0.29779199 0.049902499 0.141414 5.7345057e-39
-0.29732299 0.050867502 0.141862 4.7246726e-39
-0.297263 0.052007899 0.141983 4.7243124e-39
-0.297203 0.0531491 0.142103 4.7243152e-39
-0.29754999 0.054475099 0.141895 5.0016238e-39
-0.29789901 0.0558074 0.14168701 5.5558752e-39
-0.29824901 0.057145901 0.141478 5.5565968e-39
-0.298601 0.058490898 0.141269 5.3722084e-39
-0.299162 0.059940901 0.140892 8.1319466e-39
-0.29910001 0.061099902 0.14101399 1.3098615e-38
-0.29903901 0.062259801 0.14113601 1.4847088e-38
-0.39753601 0.0227469 0.054654501 1.2994171e-38
-0.398368 0.024585299 0.054068699 1.5030393e-38
-0.29840401 0.047024 0.13925 1.401589e-38
-0.298343 0.048170801 0.13937099 1.1257583e-38
-0.29787001 0.049143899 0.139826 7.2989447e-39
-0.29719499 0.050026 0.14044601 5.1834913e-39
-0.29652399 0.050903499 0.14106201 4.724674e-39
-0.29646301 0.052044 0.14118201 4.7239551e-39
-0.29660499 0.053276099 0.141137 4.7250355e-39
-0.29715601 0.054696299 0.140762 5.0952585e-39
-0.297299 0.055937801 0.140717 5.6487897e-39
-0.29764801 0.0572781 0.140505 5.5558766e-39
-0.29820499 0.058722101 0.140126 6.382759e-39
-0.29835001 0.059978001 0.14008 1.0155207e-38
-0.298289 0.061137099 0.140202 1.4202798e-38
-0.394995 0.022529799 0.054612201 1.2530672e-38
-0.395814 0.0243592 0.054028701 1.4567251e-38
-0.297804 0.047145002 0.138275 1.3649982e-38
-0.297537 0.048206799 0.13856401 9.5969943e-39
-0.29706499 0.0491799 0.13902099 6.1018491e-39
-0.29639199 0.050062001 0.139643 4.9083463e-39
-0.295926 0.051027901 0.14009599 4.8161521e-39
-0.295865 0.052169699 0.14021499 4.7239579e-39
-0.29620901 0.053494401 0.140003 4.8175941e-39
-0.29635099 0.054732699 0.139957 5.3722042e-39
-0.296902 0.056162801 0.139577 5.5565968e-39
-0.29725099 0.057506502 0.13936201 5.5558766e-39
-0.29760101 0.058856599 0.139147 8.4067342e-39
-0.297539 0.060015101 0.139268 1.3097898e-38
-0.29747701 0.0611743 0.13939001 1.5030756e-38
-0.39292401 0.022401899 0.054194 1.1976059e-38
-0.39328399 0.0241351 0.053988799 1.4195231e-38
-0.39364499 0.025874799 0.0537831 1.49382e-38
-0.29726401 0.046117701 0.13717701 1.4478305e-38
-0.29699701 0.047180999 0.137468 1.1902235e-38
-0.29652601 0.0481566 0.137927 7.7574061e-39
-0.29626101 0.049215999 0.138216 5.5511906e-39
-0.29538801 0.050010402 0.139008 5.0001804e-39
-0.29532701 0.051152602 0.139127 4.9079862e-39
-0.29526499 0.0522957 0.139247 4.7246782e-39
-0.295609 0.053622201 0.13903201 5.0027042e-39
-0.29595301 0.054954901 0.138817 5.5569556e-39
-0.29629901 0.056294002 0.13860101 5.5558766e-39
-0.29685199 0.057735801 0.13821401 6.199088e-39
-0.29679 0.058893599 0.138335 1.0248122e-38
-0.296933 0.0601511 0.13828699 1.475525e-38
-0.39122099 0.024002699 0.053572599 1.3362592e-38
-0.391132 0.0256446 0.053743999 1.4567265e-38
-0.296253 0.046069399 0.13654099 1.4295712e-38
-0.29598701 0.047131699 0.136831 9.7810353e-39
-0.29572099 0.048192501 0.13712101 6.1022134e-39
-0.29525301 0.049164899 0.13758001 5.1845689e-39
-0.294586 0.050046299 0.13820501 5.0920159e-39
-0.294525 0.0511887 0.13832501 4.9083463e-39
-0.294866 0.052512199 0.138108 4.8175927e-39
-0.29500601 0.053750101 0.13805901 5.3722056e-39
-0.29534999 0.055084601 0.137841 5.5569556e-39
-0.295899 0.056520499 0.13745201 5.5558752e-39
-0.29604101 0.0577728 0.137403 8.2230618e-39
-0.296184 0.059028398 0.137353 1.2823111e-38
-0.296121 0.060188301 0.137474 1.5123673e-38
-0.38916999 0.0238712 0.0531586 1.2440272e-38
-0.38952199 0.0256001 0.0529522 1.4476135e-38
-0.29544601 0.046105199 0.13573401 1.3007857e-38
-0.29518101 0.047167599 0.136025 8.4920929e-39
-0.29471299 0.0481424 0.13648599 5.6423115e-39
-0.29424801 0.049114 0.13694499 5.0005406e-39
-0.29398501 0.050170101 0.137234 4.8165109e-39
-0.29392299 0.051313698 0.137353 4.816871e-39
-0.29426301 0.0526389 0.137134 5.0945369e-39
-0.29460499 0.0539704 0.136914 5.6487911e-39
-0.29515201 0.0554021 0.136522 5.4640425e-39
-0.295293 0.056652501 0.136471 5.8317474e-39
-0.295434 0.0579063 0.13642 1.0157004e-38
-0.295371 0.059065498 0.13654099 1.4573018e-38
-0.38713101 0.0237404 0.052747101 1.2252645e-38
-0.38747901 0.025464 0.052540202 1.3919728e-38
-0.38782701 0.0271939 0.0523329 1.5582132e-38
-0.29443699 0.046057001 0.13509899 1.0979571e-38
-0.294173 0.047118399 0.13539 6.837975e-39
-0.29370701 0.048092399 0.13585199 5.3682413e-39
-0.29344499 0.049149901 0.136142 5.0008979e-39
-0.29338199 0.050294101 0.13626 4.8168682e-39
-0.29332 0.051438998 0.136379 4.8179486e-39
-0.293659 0.052765898 0.136158 5.5558724e-39
-0.294202 0.054191701 0.135763 5.9242975e-39
-0.29454499 0.055532899 0.135539 5.6473519e-39
-0.29468501 0.056784801 0.13548701 7.9468407e-39
-0.294826 0.058040101 0.135435 1.2365016e-38
-0.294763 0.0592006 0.135555 1.521731e-38
-0.38588101 0.0254199 0.051753499 1.3180718e-38
-0.38579199 0.027053401 0.051922899 1.5026439e-38
-0.38570201 0.0286879 0.052092399 1.5305191e-38
-0.29369399 0.044946998 0.134174 1.48496e-38
-0.29343 0.046008799 0.13446499 9.6888242e-39
-0.29316601 0.047069199 0.134757 6.1025665e-39
-0.29290301 0.048128299 0.135047 5.2764058e-39
-0.29264101 0.049185898 0.13533799 4.9090652e-39
-0.292579 0.050330099 0.135456 4.8172297e-39
-0.292716 0.0515645 0.13540401 4.9108645e-39
-0.293255 0.052984301 0.13500699 5.7409825e-39
-0.29379699 0.054413799 0.134608 5.6477135e-39
-0.29393601 0.055663899 0.134555 5.9232227e-39
-0.294076 0.056917399 0.134501 1.0432509e-38
-0.29421601 0.058174301 0.13444699 1.4664856e-38
-0.38342899 0.0251943 0.051723201 1.3727417e-38
-0.38333899 0.026820499 0.051891498 1.5025349e-38
-0.38325 0.028447799 0.052059799 1.5491734e-38
-0.292687 0.0448999 0.133541 1.1903321e-38
-0.29242399 0.045960799 0.13383301 7.3904271e-39
-0.292162 0.047020201 0.134124 5.4597195e-39
-0.29190001 0.048078299 0.134415 5.0930949e-39
-0.29183799 0.049221899 0.134533 5.0001832e-39
-0.29177499 0.050366201 0.134652 4.9094267e-39
-0.29231 0.051780101 0.134253 5.2792883e-39
-0.292849 0.053203698 0.13385201 5.9246549e-39
-0.29318801 0.054543599 0.133623 5.9224997e-39
-0.293327 0.0557952 0.133568 7.6702552e-39
-0.293466 0.057050198 0.133513 1.2549404e-38
-0.29340199 0.058211301 0.133633 1.5862315e-38
-0.38057601 0.024881 0.0520669 1.3082755e-38
-0.38048699 0.026497601 0.0522337 1.4470741e-38
-0.38039801 0.0281152 0.052400701 1.5492452e-38
-0.29188201 0.044935599 0.132736 1.0516072e-38
-0.29161999 0.045996498 0.133028 6.0121716e-39
-0.29115999 0.046971299 0.13349301 5.2767673e-39
-0.29109699 0.048114199 0.13361099 5.0927376e-39
-0.29103401 0.0492578 0.133729 5.000542e-39
-0.29116899 0.050490599 0.133674 5.1852962e-39
-0.29190201 0.0519966 0.13309699 5.7399077e-39
-0.29223999 0.0533319 0.13286699 5.8313844e-39
-0.29257801 0.054673601 0.132635 5.9235801e-39
-0.292716 0.0559268 0.132579 1.0798772e-38
-0.29265201 0.057087202 0.132699 1.5769396e-38
-0.37858999 0.0247491 0.051663 1.2343391e-38
-0.378501 0.026361 0.051828999 1.363882e-38
-0.378411 0.027974 0.051995099 1.5122953e-38
-0.29087901 0.0448885 0.13210499 8.0336371e-39
-0.29061699 0.045948502 0.132397 5.4604383e-39
-0.29016 0.046922501 0.132863 5.184929e-39
-0.29009601 0.048064299 0.132981 5.1845703e-39
-0.29023001 0.049293801 0.132925 5.1852906e-39
-0.29076001 0.050703801 0.13252001 5.6459114e-39
-0.291493 0.052214 0.131937 6.016133e-39
-0.29183 0.053552698 0.131703 5.6473519e-39
-0.29216799 0.0548978 0.131468 7.1196037e-39
-0.29210299 0.056058701 0.131588 1.2641601e-38
-0.29183799 0.057124101 0.13188399 1.6047066e-38
-0.376939 0.026316499 0.051054001 1.3082762e-38
-0.376849 0.027927101 0.051219501 1.5213697e-38
-0.289877 0.044841599 0.131476 6.5631845e-39
-0.28942001 0.0458172 0.131943 5.2774848e-39
-0.289161 0.046873901 0.13223501 5.0934523e-39
-0.28909799 0.0480146 0.13235199 5.1849318e-39
-0.289426 0.049329799 0.13212 5.2774918e-39
-0.290151 0.0508289 0.13153701 6.0157715e-39
-0.29088199 0.052341301 0.13094901 5.9242975e-39
-0.291619 0.053867199 0.130356 5.8313844e-39
-0.291554 0.055028599 0.130475 9.9700984e-39
-0.29148999 0.0561908 0.130594 1.4758489e-38
-0.291224 0.057257399 0.13089199 1.6690992e-38
-0.374971 0.026180999 0.0506543 1.2620702e-38
-0.37488201 0.027787101 0.050818902 1.4377109e-38
-0.37479201 0.0293942 0.0509836 1.6043105e-38
-0.28887701 0.044794802 0.13084701 5.9196158e-39
-0.28822801 0.045686498 0.13149001 5.1856493e-39
-0.288165 0.046825301 0.131607 5.184929e-39
-0.28829601 0.0480504 0.131549 5.0930977e-39
-0.28901401 0.049540401 0.130964 5.2789295e-39
-0.28993601 0.0511331 0.130197 6.108686e-39
-0.29086801 0.0527432 0.129421 5.8303054e-39
-0.29120499 0.054090202 0.12918 6.5678691e-39
-0.29113999 0.055254199 0.1293 1.1906912e-38
-0.290874 0.0563232 0.129599 1.5863392e-38
-0.37333199 0.0277407 0.050048102 1.2717951e-38
