# .PCD v0.7 - Point Cloud Data file format
VERSION 0.7
FIELDS x y z rgb
SIZE 4 4 4 4
TYPE F F F F
COUNT 1 1 1 1
WIDTH 987
HEIGHT 1
VIEWPOINT 0 0 0 1 0 0 0
POINTS 987
DATA ascii
-0.53226298 -0.0799812 -0.00205675 6.9197183e-39
-0.53481299 -0.078146398 -0.00368015 6.0006431e-39
-0.54011202 -0.0765443 -0.0072230902 5.906651e-39
-0.541839 -0.074568301 -0.0082654199 5.8144554e-39
-0.542656 -0.0724959 -0.0086707696 6.368341e-39
-0.54347599 -0.070413597 -0.0090776598 5.6307872e-39
-0.54523098 -0.068391003 -0.010136 5.2612886e-39
-0.54512697 -0.066218302 -0.0098960996 5.444598e-39
-0.54595703 -0.064105302 -0.0103076 5.3520423e-39
-0.544918 -0.061868399 -0.0094157802 4.7999447e-39
-0.545748 -0.059743401 -0.0098260101 4.0648964e-39
-0.54752302 -0.057655901 -0.0108934 3.1454652e-39
-0.55122501 -0.055637099 -0.0132993 2.8685182e-39
-0.55401701 -0.0535422 -0.0150691 2.9592775e-39
-0.556844 -0.051418699 -0.0168615 2.5912167e-39
-0.55871302 -0.049235102 -0.017986299 2.2224397e-39
-0.55959898 -0.0470047 -0.018427299 2.3153514e-39
-0.560489 -0.044763099 -0.018870199 2.1306043e-39
-0.56239003 -0.0425268 -0.020013001 1.7621805e-39
-0.56329203 -0.0402577 -0.0204618 1.8540146e-39
-0.56624198 -0.037990801 -0.0223282 1.946206e-39
-0.56819302 -0.035690401 -0.023500901 1.9454843e-39
-0.56911999 -0.0333714 -0.0239629 1.7607329e-39
-0.57214803 -0.0310234 -0.025877099 1.6692506e-39
-0.57415199 -0.0286563 -0.027080899 1.668889e-39
-0.578327 -0.0262274 -0.0297828 1.8529187e-39
-0.57929701 -0.0238281 -0.0302688 1.6681702e-39
-0.58246303 -0.0213551 -0.032269001 1.6652975e-39
-0.58345199 -0.0189196 -0.032764699 1.4798216e-39
-0.58779901 -0.0163441 -0.035574201 1.1128342e-39
-0.58994401 -0.013817 -0.0368637 1.2035921e-39
-0.589827 -0.011374 -0.036593899 1.3861883e-39
-0.59084803 -0.0088691004 -0.037106998 1.4801762e-39
-0.591874 -0.0063509801 -0.037622299 1.2025103e-39
-0.59405798 -0.00374688 -0.038932599 1.1110279e-39
-0.59509802 -0.00119571 -0.039455399 1.0173959e-39
-0.59497899 0.0012842499 -0.039181601 8.3264734e-40
-0.59486002 0.0037658799 -0.038907502 9.2376537e-40
-0.59590399 0.00634572 -0.039430998 8.3192848e-40
-0.594621 0.0087341899 -0.038358901 8.3120961e-40
-0.59450197 0.0112208 -0.038084298 9.2268497e-40
-0.593225 0.0135957 -0.037017599 1.014882e-39
-0.59195399 0.015961099 -0.0359556 1.5687676e-39
-0.59183502 0.0184412 -0.035681698 1.7535162e-39
-0.59171599 0.020923 -0.0354077 1.4765748e-39
-0.59045202 0.023270899 -0.0343513 1.3854596e-39
-0.58919299 0.025609599 -0.0332998 1.3865358e-39
-0.58907402 0.0280848 -0.033026401 1.4776524e-39
-0.58782101 0.030410299 -0.0319799 1.4772951e-39
-0.58770299 0.032883201 -0.031706899 1.4776594e-39
-0.58758402 0.035357699 -0.031433601 1.7542463e-39
-0.58746499 0.037833899 -0.0311602 1.7556854e-39
-0.58734602 0.040311798 -0.0308866 1.848244e-39
-0.58722699 0.0427914 -0.0306128 2.1244708e-39
-0.58710802 0.0452726 -0.0303388 2.2166636e-39
-0.58698899 0.047755498 -0.0300646 2.034073e-39
-0.586869 0.0502402 -0.029790301 1.8496845e-39
-0.58674997 0.052726399 -0.0295157 1.8493188e-39
-0.58550501 0.0550064 -0.0284779 1.9393564e-39
-0.57983398 0.056436099 -0.024443701 1.8471566e-39
-0.57971603 0.058893301 -0.0241723 1.7560484e-39
-0.397715 0.049858 0.101074 2.2137699e-39
-0.39721599 0.051287401 0.101529 2.1208568e-39
-0.39629599 0.052589498 0.102266 2.5818336e-39
-0.395381 0.0538853 0.103 5.8961791e-39
-0.395307 0.0554295 0.10317 8.3800647e-39
-1.00511 -0.52829599 -0.36900499 6.0831067e-39
-0.993729 -0.51820701 -0.360291 6.7273915e-39
-0.96849197 -0.50078499 -0.34134099 7.7422595e-39
-0.96830398 -0.496894 -0.340913 8.296871e-39
-0.96121901 -0.48936501 -0.33539101 8.574181e-39
-0.95089298 -0.480198 -0.32748201 8.5745425e-39
-0.95070797 -0.476376 -0.32706001 8.5745439e-39
-0.94719797 -0.470842 -0.32418701 8.7582163e-39
-0.94701397 -0.46702999 -0.32376701 8.9426062e-39
-0.94353199 -0.46154901 -0.320916 9.0348004e-39
-0.24618199 -0.102034 0.19336399 9.8642009e-39
-0.244765 -0.100739 0.194453 9.8645611e-39
-0.24318101 -0.099381402 0.19566201 9.6808901e-39
-0.24144401 -0.0979691 0.196982 9.6805299e-39
-0.241413 -0.0973204 0.197054 9.772364e-39
-0.241381 -0.096671298 0.197125 9.6808873e-39
-0.24135 -0.096021801 0.19719701 9.6808873e-39
-0.50755298 -0.20498601 0.0030410099 9.6808887e-39
-0.505925 -0.202481 0.0043692901 9.681246e-39
-0.50354999 -0.19968501 0.0062410799 9.5886944e-39
-0.50270402 -0.197524 0.00699645 9.6812502e-39
-0.50261497 -0.19566999 0.00720071 9.7734458e-39
-0.501773 -0.193519 0.00795318 9.5894161e-39
-0.50018698 -0.191083 0.0092465701 8.5777851e-39
-0.50009799 -0.189236 0.0094500901 7.7483874e-39
-0.49926499 -0.187105 0.0101946 7.1019432e-39
-0.49843499 -0.18498001 0.0109365 7.0097475e-39
-0.49760801 -0.182862 0.0116757 7.1944961e-39
-0.496784 -0.180751 0.0124124 7.4714403e-39
-0.49816799 -0.179445 0.0115463 7.7480286e-39
-0.498079 -0.177597 0.0117499 7.7476741e-39
-0.49651799 -0.175229 0.0130208 7.7476755e-39
-0.49569699 -0.17313001 0.0137542 8.0228205e-39
-0.49487901 -0.171039 0.014485 8.2082879e-39
-0.494791 -0.1692 0.0146876 8.3937568e-39
-0.49470201 -0.16735999 0.0148903 8.6696262e-39
-0.49388701 -0.165279 0.015618 9.0355361e-39
-0.493076 -0.163205 0.016343299 9.1298827e-39
-0.49298701 -0.161368 0.016545599 9.2220769e-39
-0.49289799 -0.15953 0.016748199 9.3142711e-39
-0.49281001 -0.157691 0.016950799 9.6816145e-39
-0.492001 -0.15562899 0.0176728 9.221721e-39
-0.49119601 -0.153574 0.0183923 8.7618246e-39
-0.49110699 -0.151738 0.0185946 8.4855979e-39
-0.49030501 -0.149691 0.0193114 8.3937624e-39
-0.49092999 -0.14806201 0.018999601 8.2086537e-39
-0.490841 -0.146222 0.019202299 8.2090124e-39
-0.49075201 -0.144381 0.0194051 8.2097313e-39
-0.49137899 -0.142736 0.0190934 8.302287e-39
-0.49272901 -0.141278 0.0182625 8.0264204e-39
-0.49408901 -0.139809 0.0174256 8.1175384e-39
-0.49545899 -0.138327 0.016582601 8.5774348e-39
-0.49536899 -0.136456 0.016788799 8.7621862e-39
-0.49674901 -0.13495401 0.015940599 8.3955673e-39
-0.49963099 -0.133808 0.0140168 8.3934107e-39
-0.50179702 -0.13246 0.0126075 8.3019311e-39
-0.50398803 -0.13109501 0.0111825 8.3015696e-39
-0.51090199 -0.130807 0.00637864 8.3934037e-39
-0.51001698 -0.128673 0.0071593602 8.3948414e-39
-0.50913602 -0.126545 0.0079372004 7.9345891e-39
-0.50904202 -0.124596 0.0081519699 7.8427536e-39
-0.50894803 -0.122645 0.0083668903 8.1186188e-39
-0.50885397 -0.120693 0.0085819401 8.3037276e-39
-0.50954598 -0.118901 0.0082359696 8.3966421e-39
-0.511033 -0.117259 0.0073237098 8.3037318e-39
-0.511733 -0.115448 0.0069735898 9.3128432e-39
-0.51243597 -0.113628 0.0066222502 9.5915811e-39
-0.51314098 -0.111799 0.0062697199 9.2245979e-39
-0.51465601 -0.110109 0.0053415298 8.8551021e-39
-0.51455998 -0.108117 0.0055609401 8.7625477e-39
-0.51608598 -0.106403 0.0046266401 8.5810305e-39
-0.51599002 -0.104401 0.0048472099 8.3055212e-39
-0.51589298 -0.102398 0.0050679101 8.3026514e-39
-0.51661199 -0.100522 0.0047097299 8.3948456e-39
-0.51898003 -0.098887697 0.0031817399 8.2111718e-39
-0.52054203 -0.097109802 0.0022277101 7.8427494e-39
-0.52380103 -0.095557302 7.1403701e-05 7.5661653e-39
-0.52539998 -0.093741998 -0.00090621301 7.56688e-39
-0.52530098 -0.091682598 -0.00067930302 7.3803363e-39
-0.52691299 -0.089841798 -0.00166361 6.92044e-39
-0.52767301 -0.087877803 -0.0020443101 6.3694256e-39
-0.52843702 -0.085904501 -0.0024264399 6.7364075e-39
-0.52920401 -0.083921902 -0.0028099699 7.1963038e-39
-0.52997398 -0.081929803 -0.0031948499 7.0126328e-39
-0.53162402 -0.080019899 -0.0042006001 6.3679865e-39
-0.53328699 -0.078093 -0.0052144001 5.8162504e-39
-0.53856701 -0.07649 -0.0087768603 5.6297068e-39
-0.53937298 -0.074431501 -0.0091822604 5.9062937e-39
-0.54110003 -0.072440997 -0.0102352 6.0010004e-39
-0.54191601 -0.070358299 -0.0106459 5.906651e-39
-0.54273599 -0.068265498 -0.0110581 5.6289865e-39
-0.54263097 -0.066097103 -0.0108192 5.2609257e-39
-0.54345399 -0.063988097 -0.0112323 4.9846975e-39
-0.54334903 -0.0618123 -0.0109926 4.7084665e-39
-0.543244 -0.059634998 -0.0107527 4.1567319e-39
-0.54313898 -0.0574563 -0.0105127 3.4224081e-39
-0.54963201 -0.055579498 -0.0149011 3.2376581e-39
-0.55144602 -0.0534444 -0.016003899 3.5128044e-39
-0.55425 -0.051324699 -0.0177991 2.9592775e-39
-0.55610299 -0.049145199 -0.018926 2.5904978e-39
-0.55698103 -0.046919201 -0.019368701 2.6837696e-39
-0.557863 -0.0446821 -0.0198131 2.4071855e-39
-0.56075102 -0.0424667 -0.0216599 2.3131962e-39
-0.56064099 -0.040185601 -0.0214085 2.3128389e-39
-0.56458801 -0.037929699 -0.0239907 2.1302427e-39
-0.566531 -0.0356289 -0.0251713 1.8543719e-39
-0.56745303 -0.033309501 -0.0256375 1.7618161e-39
-0.57046998 -0.030960999 -0.027563401 1.855804e-39
-0.57140899 -0.0286073 -0.0280388 2.0398295e-39
-0.57447898 -0.0262029 -0.0299979 1.9461934e-39
-0.57651103 -0.023789199 -0.0312314 1.4827055e-39
-0.57747602 -0.0213826 -0.031721 1.756054e-39
-0.58062899 -0.018890999 -0.033731502 1.2961562e-39
-0.58382601 -0.0163636 -0.0357695 1.2025173e-39
-0.58706701 -0.0137994 -0.037835501 1.1106776e-39
-0.58807802 -0.0113074 -0.0383511 1.1103174e-39
-0.58796 -0.0088625699 -0.038081702 1.2032333e-39
-0.59011501 -0.0062837298 -0.039388798 1.3858281e-39
-0.592291 -0.00367912 -0.040707901 1.3861841e-39
-0.59332597 -0.00112759 -0.041235499 1.2017914e-39
-0.59436601 0.00143759 -0.041765399 8.3337462e-40
-0.59424597 0.0039252401 -0.0414913 9.2484718e-40
-0.596461 0.0066093002 -0.042831998 8.3264594e-40
-0.59634101 0.0091120601 -0.0425562 6.4825188e-40
-0.59504998 0.0115072 -0.0414722 8.3156414e-40
-0.59376597 0.0138927 -0.040393099 9.230423e-40
-0.59248698 0.0162687 -0.0393188 1.2003481e-39
-0.591214 0.0186354 -0.038249299 1.477651e-39
-0.59109402 0.0211231 -0.0379752 1.3850953e-39
-0.58982801 0.023476301 -0.036911 1.2932626e-39
-0.58856702 0.025820101 -0.035851602 1.1103118e-39
-0.58731198 0.0281548 -0.034796901 1.2021515e-39
-0.587192 0.0306319 -0.034524001 1.4780168e-39
-0.58707303 0.033110701 -0.0342509 1.3865414e-39
-0.58582401 0.035428099 -0.033201799 1.5698579e-39
-0.58570403 0.037904501 -0.032928899 1.938639e-39
-0.585585 0.040382601 -0.032655898 2.1248239e-39
-0.58659297 0.043042701 -0.033156499 2.3084991e-39
-0.58647299 0.045529898 -0.0328825 2.2177426e-39
-0.58522499 0.047827002 -0.031835601 1.9422417e-39
-0.58510602 0.0503118 -0.0315619 1.6652933e-39
-0.58498597 0.052798301 -0.031287901 1.4812608e-39
-0.58374399 0.055078302 -0.030246601 1.5734536e-39
-0.57809299 0.056507301 -0.0261927 1.7564057e-39
-0.57797402 0.0589648 -0.025922 1.8486013e-39
-0.396198 0.049784299 0.100262 1.9368299e-39
-0.39612401 0.051334199 0.100433 2.0286626e-39
-0.395206 0.0526364 0.101173 2.5811161e-39
-0.39429399 0.053932101 0.101908 5.8039905e-39
-0.39421999 0.055476502 0.102079 8.3811437e-39
-0.99074799 -0.51813 -0.36329201 6.3582559e-39
-0.96559298 -0.50071001 -0.34426001 7.4649579e-39
-0.96540499 -0.49681899 -0.34383199 8.2954347e-39
-0.95834202 -0.48929 -0.33828801 8.574181e-39
-0.948048 -0.480124 -0.330345 8.6667381e-39
-0.944547 -0.47457701 -0.32745999 8.5749026e-39
-0.944363 -0.470768 -0.327041 8.6667395e-39
-0.94089001 -0.46527401 -0.32417899 8.8504119e-39
-0.940705 -0.461474 -0.32376099 9.0348018e-39
-0.24568699 -0.10202 0.192866 9.8649212e-39
-0.24427401 -0.100725 0.193959 9.8645625e-39
-0.242505 -0.099282198 0.19531401 9.6812502e-39
-0.240964 -0.097955801 0.196499 9.6805299e-39
-0.240932 -0.097307101 0.19657101 9.772364e-39
-0.24090099 -0.096657902 0.196642 9.9563951e-39
-0.240869 -0.096008301 0.196713 9.864917e-39
-0.50617099 -0.20494699 0.00165011 9.6805313e-39
-0.504547 -0.20244201 0.0029831801 9.6805313e-39
-0.50142598 -0.199338 0.0054161502 9.4975778e-39
-0.50133699 -0.197485 0.00561985 9.4972205e-39
-0.50049597 -0.19533101 0.0063746902 9.3135495e-39
-0.49891499 -0.19289 0.0076734 8.762175e-39
-0.497345 -0.190465 0.0089626098 7.8402257e-39
-0.49652001 -0.18833999 0.0097046997 7.2870519e-39
-0.49643001 -0.18650199 0.0099067902 7.1022963e-39
-0.495608 -0.184386 0.010646 6.9186309e-39
-0.496252 -0.182822 0.0103114 7.1948591e-39
-0.49542999 -0.180711 0.0110501 7.4718019e-39
-0.495341 -0.17887101 0.0112523 7.6576323e-39
-0.49452201 -0.176769 0.0119883 7.6572763e-39
-0.49370599 -0.17467199 0.0127216 7.5647248e-39
-0.49145401 -0.172079 0.0145044 7.7487503e-39
-0.49064901 -0.17000499 0.0152281 7.933859e-39
-0.49056101 -0.16817901 0.0154287 8.3015626e-39
-0.49118799 -0.166593 0.0151075 8.761103e-39
-0.491099 -0.16476201 0.0153088 9.6816131e-39
-0.49101001 -0.162929 0.0155103 9.4979421e-39
-0.49092099 -0.16109601 0.0157119 9.4983009e-39
-0.490832 -0.159261 0.0159136 9.5904965e-39
-0.49074301 -0.157425 0.016115399 9.407187e-39
-0.48993999 -0.155367 0.0168372 9.2217196e-39
-0.489851 -0.153532 0.017038999 8.8529413e-39
-0.48905 -0.151483 0.017758001 8.3934023e-39
-0.48896101 -0.14964899 0.017959701 7.9335073e-39
-0.48887199 -0.14781401 0.018161399 8.0246225e-39
-0.489494 -0.14618 0.0178473 8.3008479e-39
-0.48940501 -0.144339 0.0180497 8.577076e-39
-0.49002901 -0.142694 0.017735001 8.3022912e-39
-0.49137399 -0.14123601 0.0168986 8.301208e-39
-0.49272799 -0.13976599 0.016056299 8.2097341e-39
-0.49263799 -0.137903 0.016261101 8.2108131e-39
-0.49400201 -0.13641299 0.0154135 8.3955589e-39
-0.493911 -0.13454001 0.0156194 8.2104557e-39
-0.495285 -0.13303 0.0147666 8.2108145e-39
-0.49592999 -0.131327 0.0144415 8.3944855e-39
-0.50258797 -0.13105001 0.0097742602 8.3948428e-39
-0.503259 -0.129308 0.0094338097 8.3033646e-39
-0.50470197 -0.127735 0.0085369796 8.0267819e-39
-0.50538099 -0.125975 0.0081925299 7.9345877e-39
-0.50528699 -0.124037 0.0084056202 7.9342276e-39
-0.50596797 -0.122264 0.0080605401 8.2100956e-39
-0.50587398 -0.120319 0.0082743196 8.4874e-39
-0.50655699 -0.118533 0.0079286201 8.3048066e-39
-0.508026 -0.116896 0.0070182402 8.2133312e-39
-0.508717 -0.115091 0.00666842 8.3955645e-39
-0.50941098 -0.113277 0.0063173799 9.0384129e-39
-0.51010698 -0.111455 0.0059651402 9.2228042e-39
-0.51160401 -0.109769 0.0050389101 8.9476564e-39
-0.51311302 -0.108069 0.0041056001 8.6710709e-39
-0.51301599 -0.106076 0.0043247002 8.6721485e-39
-0.51291901 -0.104082 0.0045439401 8.6721443e-39
-0.51282299 -0.102086 0.0047633201 8.8576118e-39
-0.51434201 -0.100344 0.0038258799 8.5806704e-39
-0.51505703 -0.098462403 0.00346495 8.3030073e-39
-0.51741499 -0.096814901 0.00192927 8.0264218e-39
-0.521474 -0.095386103 -0.00082052598 7.6587211e-39
-0.52306098 -0.0935736 -0.0018002 7.291019e-39
-0.52380902 -0.091631398 -0.00217971 6.9215148e-39
-0.52455997 -0.089680098 -0.0025605899 6.7367648e-39
-0.52617103 -0.087825999 -0.00355474 6.5523763e-39
-0.52693099 -0.085852399 -0.00394039 6.7367662e-39
-0.52769399 -0.083869502 -0.00432747 7.104827e-39
-0.52846098 -0.081877202 -0.0047159302 6.8282444e-39
-0.53010398 -0.079966903 -0.0057283398 6.1832407e-39
-0.53353399 -0.078216501 -0.0080108298 5.8151742e-39
-0.53702098 -0.076435797 -0.0103309 5.53823e-39
-0.53782302 -0.074377 -0.01074 5.7222639e-39
-0.538629 -0.072308198 -0.0111506 5.8155372e-39
-0.54035598 -0.070303097 -0.0122144 5.3556366e-39
-0.54025102 -0.068140499 -0.0119766 5.0790483e-39
-0.541067 -0.066041403 -0.012392 4.986131e-39
-0.54096198 -0.063871399 -0.0121534 4.9839758e-39
-0.540856 -0.061700001 -0.0119147 4.7077519e-39
-0.54075098 -0.059527099 -0.0116758 4.0656195e-39
-0.54156899 -0.057399798 -0.0120908 3.3309341e-39
-0.54803801 -0.055521999 -0.016503099 3.3305726e-39
-0.54984498 -0.053386401 -0.017613299 3.7901088e-39
-0.55166698 -0.051231001 -0.0187329 2.5001042e-39
-0.55448401 -0.049086198 -0.020553701 3.0514703e-39
-0.55535799 -0.046859901 -0.021000501 2.7770414e-39
-0.55623502 -0.044622499 -0.021449 2.6834095e-39
-0.55911303 -0.042406499 -0.023306999 3.0485977e-39
-0.56000602 -0.040136699 -0.0237641 2.7723723e-39
-0.56293398 -0.0378686 -0.025653301 2.1295196e-39
-0.56486899 -0.035567299 -0.026841801 1.7614574e-39
-0.56578702 -0.033247601 -0.027312299 1.8532943e-39
-0.56879199 -0.0308985 -0.029249899 2.039482e-39
-0.569727 -0.028544599 -0.0297297 2.0394792e-39
-0.57172298 -0.026159 -0.0309544 1.8511279e-39
-0.57373703 -0.0237504 -0.032189898 1.758212e-39
-0.57469302 -0.021348899 -0.032681201 1.6660178e-39
-0.57890999 -0.018826099 -0.035459299 1.1132083e-39
-0.58209401 -0.016298 -0.037509698 1.1121237e-39
-0.58532202 -0.0137333 -0.039588399 9.2772965e-40
-0.58632898 -0.0112409 -0.040108599 1.0181246e-39
-0.58621103 -0.0087958202 -0.0398398 9.2592758e-40
-0.58835697 -0.0062164702 -0.041155599 1.1085266e-39
-0.59052402 -0.00361135 -0.042483602 1.3851051e-39
-0.59271002 -0.00098010898 -0.043823801 1.1103202e-39
-0.59375101 0.0015916399 -0.044361599 9.2772965e-40
-0.59596801 0.0042695398 -0.045719799 1.0206413e-39
-0.59702402 0.00687542 -0.046265502 1.3861813e-39
-0.59690201 0.0093902498 -0.045988999 1.475493e-39
-0.59678 0.0119068 -0.0457124 1.0159526e-39
-0.59548098 0.0143085 -0.0446162 6.4825468e-40
-0.59418899 0.016700599 -0.043524899 1.0166785e-39
-0.59174401 0.018956499 -0.041632 1.2925423e-39
-0.590469 0.021324201 -0.040555 1.1085084e-39
-0.58805799 0.0235461 -0.038688902 1.1092328e-39
-0.587937 0.026031701 -0.0384156 1.0174001e-39
-0.58668 0.028371399 -0.037353002 1.2014285e-39
-0.58542901 0.030702099 -0.036295298 1.2939842e-39
-0.58530903 0.033181101 -0.036022801 1.2025131e-39
-0.58518797 0.035661802 -0.035750002 1.2943514e-39
-0.58506799 0.0381441 -0.035477102 1.4787426e-39
-0.584948 0.040628199 -0.035204001 1.7564057e-39
-0.58482701 0.043113898 -0.034930799 1.8489615e-39
-0.58470702 0.045601401 -0.0346573 1.8500419e-39
-0.583462 0.047898401 -0.033606902 1.7578533e-39
-0.58334202 0.0503834 -0.0333337 2.1259071e-39
-0.58322102 0.052870199 -0.033060301 1.8500433e-39
-0.58086997 0.054942802 -0.0312478 2.1269847e-39
-0.57635099 0.056578599 -0.027942 2.3113774e-39
-0.57623202 0.059036199 -0.027671801 1.9422403e-39
-0.39645001 0.048638299 0.0981289 1.7531617e-39
-0.39552799 0.049951699 0.098877899 2.0286696e-39
-0.39503101 0.0513811 0.099336103 2.2126923e-39
-0.394117 0.052683201 0.100079 2.856624e-39
-0.39320701 0.053978998 0.100817 6.0798585e-39
-0.39313301 0.0555235 0.100987 8.5655336e-39
-0.95583999 -0.496939 -0.342033 7.0954538e-39
-0.955652 -0.49307799 -0.341609 8.1099616e-39
-0.952079 -0.48741901 -0.33864701 8.5734593e-39
-0.94520301 -0.48005 -0.33320999 8.7589324e-39
-0.94171298 -0.47450301 -0.33031401 8.6667381e-39
-0.94152701 -0.47069299 -0.329896 8.7585764e-39
-0.93806398 -0.46520001 -0.32702401 8.8504133e-39
-0.93787903 -0.4614 -0.32660699 9.0344431e-39
-0.24683 -0.10342 0.19109701 9.7730857e-39
-0.24519201 -0.102007 0.192367 9.8649226e-39
-0.24368601 -0.100667 0.193537 9.8649226e-39
-0.241925 -0.099225998 0.194896 9.5894133e-39
-0.240484 -0.097942501 0.196016 9.4972191e-39
-0.24045201 -0.097293697 0.196087 9.4968589e-39
-0.24042 -0.096644498 0.19615801 9.7730843e-39
-0.240389 -0.0959948 0.19622999 9.957114e-39
-0.240357 -0.095344797 0.196301 1.0049307e-38
-0.50488001 -0.206778 5.38362e-05 1.0140428e-38
-0.50478899 -0.204908 0.000258999 9.8649212e-39
-0.50240999 -0.202088 0.0021599701 9.6812516e-39
-0.50005901 -0.19929899 0.0040397798 9.4972219e-39
-0.49847499 -0.19684 0.0053488999 9.4972205e-39
-0.49764299 -0.194695 0.0061010099 9.0373227e-39
-0.49607801 -0.192265 0.0073954999 7.8416634e-39
-0.49525401 -0.190138 0.0081399102 7.2874106e-39
-0.494434 -0.18801799 0.0088817002 7.1934171e-39
-0.49434501 -0.18618301 0.0090829898 7.4707173e-39
-0.49425501 -0.184347 0.0092844097 7.1955737e-39
-0.49343801 -0.182238 0.0100231 7.2877722e-39
-0.49262401 -0.180135 0.0107593 7.6561945e-39
-0.492535 -0.178302 0.0109604 7.5661583e-39
-0.49172401 -0.176208 0.0116937 7.5661569e-39
-0.48948601 -0.173612 0.0134782 7.4736026e-39
-0.48727199 -0.17104299 0.0152435 7.3806923e-39
-0.487183 -0.169229 0.0154426 7.7501866e-39
-0.487095 -0.167413 0.015641799 8.3022786e-39
-0.487712 -0.16583399 0.0153223 8.8532958e-39
-0.48762301 -0.164013 0.015522 9.2213623e-39
-0.488242 -0.162422 0.015202 9.4053906e-39
-0.48815301 -0.160595 0.0154025 9.6816145e-39
-0.48877299 -0.15899301 0.0150819 9.8663645e-39
-0.488684 -0.15716 0.0152829 9.0394877e-39
-0.48859501 -0.15532599 0.0154841 9.0380486e-39
-0.48779601 -0.153275 0.0162054 8.9447754e-39
-0.48770699 -0.15144201 0.016406501 8.5763572e-39
-0.48761699 -0.149608 0.0166077 8.2093711e-39
-0.487528 -0.147772 0.0168091 8.2093697e-39
-0.48814699 -0.146138 0.016492 8.2100914e-39
-0.48876801 -0.14449701 0.016173899 8.3026486e-39
-0.48867801 -0.14265101 0.0163764 8.3008563e-39
-0.49001801 -0.141193 0.0155346 8.762182e-39
-0.490646 -0.13953 0.0152134 8.7621834e-39
-0.491276 -0.13786 0.0148912 8.4863182e-39
-0.49118501 -0.135995 0.0150957 8.211169e-39
-0.49109399 -0.13413 0.0153003 8.2104529e-39
-0.492452 -0.132623 0.0144491 8.3030087e-39
-0.49455401 -0.131283 0.0130571 8.6707094e-39
-0.49667901 -0.129926 0.0116496 8.7625435e-39
-0.49882799 -0.128553 0.0102264 8.3040849e-39
-0.50176197 -0.12733801 0.0082334299 7.8427536e-39
-0.50166798 -0.125412 0.0084447097 7.8445473e-39
-0.50310498 -0.123822 0.0075439601 8.0271421e-39
-0.50378001 -0.122051 0.0071974499 8.3015724e-39
-0.503685 -0.12011 0.00741036 8.4866811e-39
-0.50436199 -0.118327 0.0070632198 8.121137e-39
-0.50426698 -0.11638 0.00727682 8.5799501e-39
-0.50572401 -0.114736 0.00636535 8.6721471e-39
-0.505629 -0.112779 0.0065800599 8.8568999e-39
-0.50631398 -0.110966 0.0062299101 9.0405723e-39
-0.50857598 -0.109432 0.00473841 9.0398535e-39
-0.50927103 -0.107596 0.0043822601 8.8572587e-39
-0.509175 -0.105614 0.0045996099 8.8558195e-39
-0.50907803 -0.103632 0.0048171198 9.5894273e-39
-0.509776 -0.101777 0.0044608801 9.131689e-39
-0.51047599 -0.099913798 0.0041033798 8.6728688e-39
-0.51198202 -0.098165199 0.0031648399 8.3037262e-39
-0.51349998 -0.096401498 0.0022191501 8.1189748e-39
-0.51915598 -0.095215604 -0.00170904 7.7512769e-39
-0.52073002 -0.093405798 -0.0026908501 7.0147964e-39
-0.52147102 -0.091467001 -0.0030718599 6.6463698e-39
-0.52306402 -0.089628696 -0.0040647099 6.6452894e-39
-0.52466899 -0.087774098 -0.0050654002 6.8286017e-39
-0.52542502 -0.085800298 -0.0054545798 7.0133517e-39
-0.52618498 -0.083817102 -0.00584521 6.9225952e-39
-0.52694702 -0.081824496 -0.0062372298 6.4626988e-39
-0.528584 -0.079913802 -0.00725631 5.9080915e-39
-0.53200102 -0.078162797 -0.0095518101 5.7233317e-39
-0.53547502 -0.076381497 -0.0118851 5.7229772e-39
-0.53627402 -0.074322402 -0.0122979 5.5371538e-39
-0.537076 -0.072253399 -0.0127123 5.6300711e-39
-0.53879499 -0.070247903 -0.013783 5.7215437e-39
-0.53868997 -0.068085097 -0.0135458 5.2616445e-39
-0.53858501 -0.065920897 -0.0133084 4.9857751e-39
-0.53847897 -0.063755199 -0.0130708 5.0765302e-39
-0.53929102 -0.061643898 -0.0134887 4.8910655e-39
-0.53918499 -0.059470899 -0.0132503 4.1574564e-39
-0.53999901 -0.0573433 -0.013669 3.3309327e-39
-0.546444 -0.055464402 -0.018105401 3.0554248e-39
-0.54824299 -0.053328399 -0.019223001 2.7781204e-39
-0.55005801 -0.051172599 -0.020349899 2.0402079e-39
-0.55188799 -0.048996799 -0.0214864 2.776324e-39
-0.553734 -0.046800599 -0.022632601 2.6855647e-39
-0.55559599 -0.044583902 -0.023788501 2.7759653e-39
-0.55747402 -0.042346299 -0.0249543 3.1422296e-39
-0.55836302 -0.040076301 -0.025415599 2.8656427e-39
-0.56229699 -0.037813999 -0.0280398 2.1295182e-39
-0.56320697 -0.035505801 -0.028512601 1.9454829e-39
-0.56411999 -0.033185799 -0.0289873 2.2220698e-39
-0.56711298 -0.030835999 -0.030936699 2.2231544e-39
-0.56804401 -0.0284818 -0.031420801 1.6685485e-39
-0.570032 -0.0260957 -0.0326536 1.5752627e-39
-0.57097501 -0.0237117 -0.0331444 1.5763375e-39
-0.57298899 -0.0212848 -0.034393001 1.481995e-39
-0.57718998 -0.0187613 -0.037187301 1.6645828e-39
-0.58036202 -0.0162325 -0.039250199 1.297594e-39
-0.58357799 -0.0136671 -0.041341498 1.0206455e-39
-0.58458 -0.0111744 -0.041866299 1.2028788e-39
-0.58446097 -0.0087290704 -0.041598 1.5687803e-39
-0.587735 -0.0060822801 -0.043724701 1.4755084e-39
-0.589903 -0.0034702399 -0.045068402 1.1992831e-39
-0.59093398 -0.00091182301 -0.045608599 1.2003621e-39
-0.59429997 0.00183302 -0.047793299 1.5702208e-39
-0.59535098 0.00443161 -0.048344702 1.6642115e-39
-0.596407 0.0070442702 -0.0488986 1.7556826e-39
-0.59628397 0.0095653199 -0.048622001 1.4780111e-39
-0.59616101 0.012088 -0.048345301 9.251989e-40
-0.59603798 0.0146125 -0.0480684 7.4081185e-40
-0.59591502 0.0171386 -0.047791298 1.7510037e-39
-0.59461498 0.019537199 -0.0466877 2.210177e-39
-0.58984101 0.021526299 -0.043147299 1.6591598e-39
-0.58857 0.023889899 -0.042067099 1.475493e-39
-0.58616698 0.026101699 -0.040194299 1.2918262e-39
-0.58604598 0.0285891 -0.039921399 1.2007096e-39
-0.58479202 0.0309249 -0.038855799 1.2017886e-39
-0.58467102 0.0334098 -0.0385832 1.1103174e-39
-0.58455002 0.035896499 -0.038310401 1.1103216e-39
-0.58442903 0.038384899 -0.038037401 1.2936353e-39
-0.58430701 0.040874898 -0.0377643 1.6627723e-39
-0.58418602 0.0433666 -0.037491001 1.7560456e-39
-0.58406502 0.04586 -0.037217502 1.9425962e-39
-0.58281797 0.048161998 -0.036159299 1.8507677e-39
-0.581577 0.050455101 -0.035105798 2.3106613e-39
-0.58145601 0.052942 -0.034832999 2.3113732e-39
-0.57911301 0.055014499 -0.033012901 2.5865223e-39
-0.57899201 0.0574934 -0.032740999 2.3135368e-39
-0.395354 0.0486851 0.097028002 2.0301059e-39
-0.39443401 0.049998499 0.097779803 2.3967304e-39
-0.39435899 0.051550899 0.097950101 2.2141328e-39
-0.39302701 0.052730098 0.098984502 2.949184e-39
-0.392535 0.0541518 0.0994405 6.1724143e-39
-0.39204499 0.055570502 0.099895298 8.565535e-39
-0.95296401 -0.496865 -0.34492901 6.634477e-39
-0.94605303 -0.48939601 -0.33942199 7.5564305e-39
-0.94586599 -0.48556399 -0.339003 8.2965123e-39
-0.94235802 -0.479976 -0.33607399 8.7585708e-39
-0.93887699 -0.47442901 -0.333168 8.8504091e-39
-0.93869102 -0.47061899 -0.33275101 8.9422474e-39
-0.935238 -0.46512499 -0.329869 8.9426104e-39
-0.93505198 -0.46132499 -0.32945299 8.9429691e-39
-0.24592599 -0.103219 0.190896 9.8645611e-39
-0.24469601 -0.101993 0.19186801 9.9567581e-39
-0.24309801 -0.10061 0.19311599 9.8652813e-39
-0.24125101 -0.099127203 0.19454999 9.6808915e-39
-0.240003 -0.097929202 0.19553301 9.589056e-39
-0.239972 -0.097280301 0.195604 9.5890574e-39
-0.23994 -0.096630998 0.195675 9.9563979e-39
-0.23990799 -0.0959813 0.195746 1.0140786e-38
-0.239876 -0.095331199 0.19581699 1.0233339e-38
-0.50349802 -0.20673899 -0.00133703 1.0140786e-38
-0.50340599 -0.204869 -0.0011323 1.0048952e-38
-0.50028098 -0.201735 0.00133966 9.8652827e-39
-0.49720299 -0.19864701 0.0037749601 9.7730885e-39
-0.495635 -0.1962 0.0050797998 9.3139068e-39
-0.494811 -0.194065 0.0058291801 8.6699765e-39
-0.49326101 -0.19164599 0.00711944 7.4721606e-39
-0.49244601 -0.189527 0.0078611998 7.1948535e-39
-0.491633 -0.187416 0.00860037 7.3778028e-39
-0.49299201 -0.18614399 0.0077216299 7.5632744e-39
-0.49145401 -0.18375801 0.00900074 7.4714418e-39
-0.49064499 -0.181657 0.0097368304 7.5636388e-39
-0.489124 -0.179299 0.0110018 7.9316996e-39
-0.48903501 -0.177476 0.0112013 7.7487531e-39
-0.486819 -0.17488299 0.0129816 7.7480342e-39
-0.48393101 -0.17207 0.0152596 7.7469524e-39
-0.48315001 -0.170022 0.0159718 7.747314e-39
-0.483062 -0.168221 0.016169 8.2090054e-39
-0.48297301 -0.166418 0.016366299 8.6699821e-39
-0.483578 -0.164849 0.01605 9.1298813e-39
-0.48348901 -0.16304 0.016248001 9.1295254e-39
-0.48479301 -0.161689 0.0154144 9.1298827e-39
-0.48470399 -0.159871 0.0156133 9.3142711e-39
-0.48601699 -0.158501 0.0147747 9.6826949e-39
-0.48592699 -0.156675 0.0149746 8.8547391e-39
-0.485838 -0.154847 0.0151746 8.5788711e-39
-0.48574799 -0.153018 0.0153747 8.5781494e-39
-0.485659 -0.151189 0.015575 8.4845189e-39
-0.485569 -0.14935701 0.015775399 8.4852377e-39
-0.48618299 -0.14772999 0.0154565 8.9451341e-39
-0.486799 -0.14609601 0.0151366 9.0376899e-39
-0.487418 -0.144455 0.0148155 8.6710695e-39
-0.48732799 -0.142609 0.0150176 8.5767229e-39
-0.48866099 -0.14115 0.0141704 8.5785124e-39
-0.48928601 -0.139487 0.0138463 8.4877545e-39
-0.48919499 -0.13762701 0.0140499 8.3955617e-39
-0.489104 -0.135766 0.0142535 8.0264232e-39
-0.48901299 -0.133904 0.0144574 8.1193363e-39
-0.49108401 -0.132579 0.0130726 8.3948442e-39
-0.49171701 -0.13088199 0.0127447 8.7625435e-39
-0.49235401 -0.129177 0.0124157 8.8540203e-39
-0.49520099 -0.127983 0.0104646 8.3937666e-39
-0.49734101 -0.126598 0.0090343896 8.2111746e-39
-0.49950501 -0.12519599 0.0075881402 8.0285798e-39
-0.50016898 -0.123439 0.00724306 8.2118921e-39
-0.50083601 -0.121675 0.0068968502 8.4870426e-39
-0.501504 -0.119902 0.0065494799 8.6710737e-39
-0.50141001 -0.117964 0.0067616799 8.2129697e-39
-0.50208098 -0.116178 0.00641364 8.7621848e-39
-0.50198501 -0.114233 0.0066265198 9.0394905e-39
-0.50189 -0.112287 0.0068395501 9.131689e-39
-0.50179499 -0.110339 0.0070527098 9.3150012e-39
-0.50246799 -0.108531 0.00670513 9.4071926e-39
-0.50391698 -0.106852 0.0057915901 9.0409325e-39
-0.50382102 -0.104889 0.0060064001 9.2231643e-39
-0.506064 -0.103318 0.00451648 9.5908664e-39
-0.50596702 -0.101342 0.0047328202 9.2231657e-39
-0.50744402 -0.099613398 0.0038034001 8.5803159e-39
-0.50893199 -0.097870298 0.0028669001 8.3051625e-39
-0.51043099 -0.096112199 0.00192323 8.0285742e-39
-0.51438099 -0.094690301 -0.00080046599 7.6590798e-39
-0.51924402 -0.093355 -0.00418523 7.2906644e-39
-0.51998198 -0.091415897 -0.0045697 6.9229581e-39
-0.52156699 -0.089577198 -0.0055690398 6.9211603e-39
-0.523166 -0.087722301 -0.0065762601 7.2881421e-39
-0.52391899 -0.085748203 -0.0069689802 7.5643661e-39
-0.52467501 -0.083764702 -0.0073631499 7.1977415e-39
-0.52543402 -0.081771903 -0.0077587301 6.3697857e-39
-0.52706403 -0.079860799 -0.0087845 5.9995683e-39
-0.53046799 -0.078109197 -0.011093 5.4481938e-39
-0.533032 -0.076241702 -0.0127909 5.5393062e-39
-0.53382403 -0.074186496 -0.0132052 5.4456756e-39
-0.53461897 -0.072121203 -0.0136211 5.8158903e-39
-0.53632402 -0.070119098 -0.0146939 5.6304214e-39
-0.53712898 -0.068029702 -0.0151152 5.3531199e-39
-0.53702301 -0.065865301 -0.0148783 5.1698062e-39
-0.53691697 -0.063699499 -0.0146413 4.9857723e-39
-0.53681099 -0.061532199 -0.0144041 4.5247997e-39
-0.53761798 -0.059414599 -0.014825 4.1578109e-39
-0.537512 -0.057239901 -0.014587 3.2387385e-39
-0.54484999 -0.055406898 -0.0197079 2.8706748e-39
-0.54664201 -0.0532704 -0.020832799 2.2245935e-39
-0.54844898 -0.051114202 -0.021967201 1.9480067e-39
-0.549303 -0.048907701 -0.022415301 2.3157074e-39
-0.55113298 -0.046715699 -0.0235635 2.5000986e-39
-0.55396402 -0.0445242 -0.025428399 2.5915754e-39
-0.55683202 -0.0423024 -0.0273176 2.5908593e-39
-0.55672002 -0.040015701 -0.0270673 2.405752e-39
-0.56063801 -0.0377528 -0.029706599 2.0376856e-39
-0.561544 -0.0354442 -0.030183701 2.1302357e-39
-0.56245297 -0.033123899 -0.0306626 2.5912083e-39
-0.56543499 -0.0307735 -0.032623701 2.2231502e-39
-0.56636101 -0.0284189 -0.033112101 2.0340842e-39
-0.56834102 -0.026032399 -0.0343531 1.7589351e-39
-0.56927902 -0.0236481 -0.034848299 1.5763403e-39
-0.57128602 -0.021220701 -0.0361051 1.5749039e-39
-0.57546997 -0.018696399 -0.038915601 1.7560526e-39
-0.57753301 -0.0162098 -0.0402079 1.4801818e-39
-0.58072102 -0.0136499 -0.042301599 1.2954318e-39
-0.58283103 -0.0111078 -0.043624301 1.3876274e-39
-0.58271098 -0.0086623197 -0.043356601 1.5712998e-39
-0.58597201 -0.0060148598 -0.045496099 1.2954304e-39
-0.58813101 -0.00340231 -0.046848699 1.5709369e-39
-0.59263301 -0.00060225901 -0.0498657 1.5705781e-39
-0.59368002 0.0019891099 -0.050422799 1.2950702e-39
-0.59473097 0.0045944899 -0.050982401 1.2035963e-39
-0.59578699 0.0072139599 -0.051544402 1.2965108e-39
-0.59566402 0.0097412104 -0.051267799 1.2950674e-39
-0.59553999 0.0122701 -0.050990999 1.2010683e-39
-0.59541601 0.0148008 -0.050714001 9.2520171e-40
-0.59529197 0.0173332 -0.050436798 1.754598e-39
-0.59399003 0.019737201 -0.049325 2.3981654e-39
-0.59269297 0.022131599 -0.048218101 2.1215757e-39
-0.58793598 0.024098201 -0.044663701 2.3967234e-39
-0.58666903 0.026457701 -0.043580402 2.2105413e-39
-0.58540797 0.0288078 -0.042502001 1.3843834e-39
-0.58415198 0.0311487 -0.041428499 1.2017914e-39
-0.58402997 0.033639699 -0.041155901 1.2028704e-39
-0.58390802 0.036132399 -0.040883001 1.2954276e-39
-0.58378601 0.038626801 -0.04061 1.2961492e-39
-0.582537 0.0409461 -0.039542601 1.6638499e-39
-0.58241498 0.043437999 -0.039269801 1.9411543e-39
-0.58341902 0.046119999 -0.0397899 1.9429536e-39
-0.58104998 0.048233699 -0.037935201 2.1280637e-39
-0.579813 0.050526801 -0.036878198 2.1284266e-39
-0.57969099 0.053013898 -0.036605999 2.0369415e-39
-0.57735503 0.0550863 -0.0347782 2.0347905e-39
-0.57723403 0.057565302 -0.034506898 1.8518425e-39
-0.39425799 0.048732001 0.095927 1.8464349e-39
-0.39418101 0.050287899 0.096097298 2.0290297e-39
-0.39326501 0.051597901 0.096851498 1.9375544e-39
-0.39152199 0.052652899 0.0981782 2.8569925e-39
-0.39144701 0.054198802 0.098347403 6.2642497e-39
-0.39095801 0.055617601 0.098803297 8.7488486e-39
-0.94338697 -0.49315301 -0.342715 6.1749422e-39
-0.939888 -0.48754001 -0.339773 6.9114226e-39
-0.93970001 -0.483722 -0.33935601 7.8351754e-39
-0.93951201 -0.479902 -0.33893901 8.5738194e-39
-0.93604201 -0.47435501 -0.336023 8.7582149e-39
-0.93585402 -0.47054401 -0.33560699 8.9429635e-39
-0.93241203 -0.465051 -0.33271399 9.1273519e-39
-0.245226 -0.103111 0.19054499 9.9563951e-39
-0.244004 -0.101888 0.19151901 9.9571154e-39
-0.242512 -0.100552 0.19269601 9.8660016e-39
-0.24057899 -0.099028699 0.194204 9.6816131e-39
-0.23952299 -0.097915798 0.195049 9.5894189e-39
-0.239491 -0.097266898 0.19512001 9.5894203e-39
-0.23945899 -0.096617602 0.195191 9.864924e-39
-0.239427 -0.095967896 0.195262 1.0141148e-38
-0.23939499 -0.095317699 0.195333 1.0233702e-38
-0.49890801 -0.20169599 -4.1831499e-05 9.9571196e-39
-0.49436799 -0.198001 0.0035119399 9.681253e-39
-0.492816 -0.195565 0.0048124702 8.9454886e-39
-0.49200001 -0.19343799 0.0055591399 7.8416606e-39
-0.49046499 -0.19103 0.00684526 7.3792419e-39
-0.49109599 -0.18948799 0.0065030102 7.3785231e-39
-0.49028599 -0.18737701 0.0072442601 7.6551113e-39
-0.49019599 -0.18554799 0.0074439398 7.7476657e-39
-0.48938799 -0.183446 0.0081823301 7.8395012e-39
-0.487872 -0.181081 0.0094524296 7.7480272e-39
-0.486366 -0.17873301 0.0107134 7.6569148e-39
-0.484871 -0.176401 0.0119654 7.3806909e-39
-0.481314 -0.173333 0.0147621 7.3803307e-39
-0.47985601 -0.171047 0.015984099 7.6554757e-39
-0.47976801 -0.169257 0.016179699 7.74803e-39
-0.47968 -0.167465 0.0163754 8.4848706e-39
-0.47959101 -0.16567101 0.0165712 9.0376843e-39
-0.48018599 -0.16410901 0.016256601 9.1309617e-39
-0.48078299 -0.16253901 0.015940901 9.13024e-39
-0.48138201 -0.160963 0.0156243 9.1302386e-39
-0.48129299 -0.159155 0.015821701 9.039122e-39
-0.481893 -0.15756799 0.0155045 9.1320393e-39
-0.48319101 -0.156192 0.0146683 8.6710667e-39
-0.48310101 -0.15437099 0.0148671 8.4866755e-39
-0.48301101 -0.152549 0.0150661 8.4863139e-39
-0.48292199 -0.15072601 0.0152653 8.3923289e-39
-0.484227 -0.149316 0.0144256 8.577432e-39
-0.484137 -0.147484 0.0146257 8.3955575e-39
-0.48474801 -0.145852 0.0143044 8.3040835e-39
-0.48536101 -0.14421301 0.013982 8.3948456e-39
-0.48597699 -0.14256699 0.0136586 8.669636e-39
-0.48730499 -0.14110801 0.012806 8.3944841e-39
-0.48792699 -0.13944399 0.012479 8.2115291e-39
-0.487836 -0.137584 0.0126821 8.1196936e-39
-0.487744 -0.13572299 0.0128853 8.3941225e-39
-0.487652 -0.13386101 0.0130887 8.2111732e-39
-0.488276 -0.132176 0.0127621 8.6703507e-39
-0.488902 -0.130484 0.0124344 8.8540203e-39
-0.48953 -0.128784 0.0121056 8.5788725e-39
-0.490886 -0.127248 0.0112388 8.485958e-39
-0.49372199 -0.126039 0.0092786197 8.3959204e-39
-0.49585301 -0.124641 0.0078414297 8.5810291e-39
-0.49800801 -0.123226 0.0063880999 8.7639854e-39
-0.498669 -0.121464 0.0060404502 8.9462243e-39
-0.49857399 -0.119534 0.0062512401 9.2220923e-39
-0.49847901 -0.117603 0.0064621898 8.5795984e-39
-0.498384 -0.11567 0.0066732801 8.947655e-39
-0.49828899 -0.113736 0.0068844999 9.2245993e-39
-0.49819401 -0.1118 0.0070958599 9.3171564e-39
-0.49809799 -0.109864 0.0073073599 9.2249636e-39
-0.49800301 -0.107926 0.00751899 9.2242433e-39
-0.49866399 -0.106121 0.0071739699 9.4082744e-39
-0.50009 -0.104441 0.0062671402 9.7759766e-39
-0.49999401 -0.102488 0.00648042 9.7770542e-39
-0.50143099 -0.100785 0.0055677299 9.316439e-39
-0.50443399 -0.099315397 0.0035055201 8.7639868e-39
-0.50590402 -0.097577699 0.0025710301 8.213327e-39
-0.50818002 -0.095943697 0.00104667 7.7534264e-39
-0.51129001 -0.0944058 -0.00108695 7.7498349e-39
-0.516096 -0.093072303 -0.0044621602 7.7505594e-39
-0.51765603 -0.091252297 -0.00545575 7.4754088e-39
-0.52007103 -0.0895257 -0.0070735798 7.3828545e-39
-0.52166301 -0.087670498 -0.0080873603 7.656926e-39
-0.52326798 -0.0857988 -0.0091091897 7.564729e-39
-0.52316499 -0.083712302 -0.0088813202 7.1981003e-39
-0.52392 -0.081719197 -0.00928046 7.0129901e-39
-0.52554399 -0.079807699 -0.0103129 6.4605408e-39
-0.52893502 -0.078055501 -0.0126345 5.999211e-39
-0.53148901 -0.076187603 -0.0143423 5.999204e-39
-0.53138399 -0.074051097 -0.014109 5.9981264e-39
-0.53217101 -0.071989603 -0.0145264 6.0913968e-39
-0.53386199 -0.069991 -0.0156013 5.8144526e-39
-0.53465998 -0.067905404 -0.0160241 5.5375111e-39
-0.53546101 -0.065809697 -0.0164485 5.4463917e-39
-0.53535402 -0.063643701 -0.016211901 4.9861324e-39
-0.53524798 -0.061476201 -0.0159752 4.5244396e-39
-0.53514099 -0.0593073 -0.0157384 4.6166296e-39
-0.53594398 -0.0571835 -0.0161625 3.5135289e-39
-0.54325497 -0.055349302 -0.0213107 2.9617942e-39
-0.54504001 -0.053212401 -0.0224429 2.4089834e-39
-0.54684001 -0.0510557 -0.023584699 2.3167836e-39
-0.54768997 -0.048849002 -0.0240368 2.4075415e-39
-0.54951298 -0.046656601 -0.025192499 2.4057478e-39
-0.55233198 -0.044464398 -0.0270686 2.4053863e-39
-0.55419499 -0.042226002 -0.0282498 2.1298798e-39
-0.555076 -0.039955199 -0.0287193 1.8529356e-39
-0.55897999 -0.037691601 -0.031373698 1.8532929e-39
-0.55886602 -0.0353815 -0.031121399 2.1313147e-39
-0.56078601 -0.033062 -0.032338101 2.4997357e-39
-0.56272298 -0.030720299 -0.033565499 2.2213565e-39
-0.56364101 -0.0283706 -0.034055401 2.1269917e-39
-0.56560302 -0.025989 -0.0352984 1.942599e-39
-0.56758398 -0.023584399 -0.036552399 1.9429648e-39
-0.56958199 -0.0211566 -0.037817501 1.4827041e-39
-0.57375002 -0.018631499 -0.040644102 1.6656534e-39
-0.575804 -0.0161444 -0.041944899 1.2961548e-39
-0.57897902 -0.0135838 -0.0440512 1.1124838e-39
-0.57996798 -0.0110963 -0.044582099 1.4805391e-39
-0.58096099 -0.00859557 -0.0451154 1.3894211e-39
-0.58420902 -0.0059474502 -0.047267798 1.3890651e-39
-0.58635902 -0.00333437 -0.048629198 1.1121223e-39
-0.59084398 -0.00053344498 -0.0516637 1.1124796e-39
-0.59188497 0.0020582899 -0.052225601 1.0199197e-39
-0.59410799 0.0047581499 -0.0536328 1.4783727e-39
-0.59516501 0.0073845 -0.054203101 1.6623996e-39
-0.59504002 0.0099179801 -0.053926401 1.295059e-39
-0.59491497 0.0124532 -0.0536495 1.0184735e-39
-0.59360999 0.0148714 -0.0525284 1.1092286e-39
-0.593485 0.017403901 -0.052251801 1.8457119e-39
-0.59336102 0.019938201 -0.051975001 2.2148545e-39
-0.592062 0.022337999 -0.050859898 1.754961e-39
-0.59077001 0.024728101 -0.0497499 1.939348e-39
-0.58603001 0.026672199 -0.0461815 1.938269e-39
-0.58476698 0.0290276 -0.045095 1.5712858e-39
-0.58464402 0.031528801 -0.044821899 1.570211e-39
-0.583386 0.0338706 -0.043740802 1.2943472e-39
-0.58326399 0.036369398 -0.043467902 1.202876e-39
-0.58314002 0.038869798 -0.043194801 1.111402e-39
-0.58188897 0.041194201 -0.042119499 1.295429e-39
-0.58176601 0.043692101 -0.0418467 1.4794615e-39
-0.582771 0.046381101 -0.042374499 1.480179e-39
-0.58039802 0.048498701 -0.040504102 1.4805363e-39
-0.57915902 0.050796799 -0.039439298 1.296508e-39
-0.57792598 0.0530858 -0.0383792 1.2968625e-39
-0.57780302 0.055574801 -0.038107399 1.295066e-39
-0.57768101 0.0580655 -0.037835401 1.2947115e-39
-0.393161 0.048778798 0.094825797 1.8449958e-39
-0.392665 0.0502134 0.095289901 1.8453559e-39
-0.39175299 0.0515218 0.096044898 2.0293899e-39
-0.390434 0.0526997 0.097085297 3.2246932e-39
-0.38953501 0.053994 0.097830102 6.2642554e-39
-0.38986999 0.055664599 0.097711198 8.7488528e-39
-0.93723202 -0.491283 -0.34305301 5.8083191e-39
-0.93704402 -0.48746699 -0.342637 6.3593307e-39
-0.93685502 -0.483648 -0.34222099 7.5575067e-39
-0.93666601 -0.47982699 -0.34180501 8.4805378e-39
-0.93320602 -0.47428101 -0.33887801 8.6663738e-39
-0.93301702 -0.47047001 -0.33846301 8.8514867e-39
-0.24433 -0.102912 0.190346 1.0049667e-38
-0.243314 -0.101784 0.19117001 1.004967e-38
-0.241926 -0.100494 0.192275 9.7738074e-39
-0.24000201 -0.098972797 0.19378901 9.6816159e-39
-0.239043 -0.097902499 0.194566 9.6812572e-39
-0.239011 -0.097253598 0.194637 9.7734514e-39
-0.238979 -0.096604198 0.19470701 9.9574812e-39
-0.238947 -0.095954403 0.194778 1.0049675e-38
-0.238914 -0.095304199 0.194849 1.0141511e-38
-0.497536 -0.201657 -0.00142352 9.866003e-39
-0.49155301 -0.197359 0.0032506301 9.2217154e-39
-0.49073899 -0.19523001 0.0039996398 8.3004836e-39
-0.489209 -0.192817 0.0052909199 7.1015914e-39
-0.48911801 -0.190992 0.0054898001 7.1948549e-39
-0.48902801 -0.189165 0.0056888098 7.4717977e-39
-0.48822299 -0.187058 0.0064297202 7.7487447e-39
-0.488132 -0.185233 0.00662862 7.6558358e-39
-0.48662001 -0.182863 0.0079038404 7.7476713e-39
-0.485118 -0.18051 0.0091699101 7.8398655e-39
-0.483628 -0.17817201 0.0104269 7.7476741e-39
-0.48008099 -0.175089 0.013237 7.4718061e-39
-0.47794801 -0.17255101 0.0149768 7.3796105e-39
-0.477184 -0.170522 0.0156822 7.6558358e-39
-0.47709501 -0.16873799 0.015876601 7.9320612e-39
-0.477007 -0.166952 0.0160712 8.6689017e-39
-0.476919 -0.16516501 0.016265901 9.1302372e-39
-0.47683001 -0.163377 0.016460801 8.6714255e-39
-0.478095 -0.16204201 0.015636001 8.7621806e-39
-0.47868699 -0.16046999 0.0153195 9.0376857e-39
-0.47927999 -0.15889201 0.015002 9.3142683e-39
-0.47919101 -0.157086 0.0151987 9.3167865e-39
-0.47978601 -0.155496 0.0148807 8.8547349e-39
-0.48038399 -0.153899 0.0145617 8.5770704e-39
-0.48098299 -0.15229499 0.0142416 8.3926806e-39
-0.48089299 -0.150475 0.0144399 8.2090138e-39
-0.48149499 -0.14885999 0.0141194 8.4845203e-39
-0.482795 -0.147442 0.0132752 8.3026444e-39
-0.483403 -0.14580999 0.012951 8.1207684e-39
-0.48401299 -0.144171 0.0126258 8.6714227e-39
-0.48462501 -0.142524 0.0122994 8.854379e-39
-0.485948 -0.141065 0.0114414 8.6707066e-39
-0.486568 -0.139401 0.0111114 8.39484e-39
-0.486476 -0.137541 0.0113141 8.3026444e-39
-0.486384 -0.13568 0.0115169 8.9462117e-39
-0.487005 -0.134 0.0111868 8.6703535e-39
-0.48691201 -0.13213301 0.0113903 8.9462187e-39
-0.48682001 -0.130264 0.0115939 9.0376955e-39
-0.487443 -0.128567 0.0112637 8.5770817e-39
-0.48806801 -0.126862 0.0109325 8.8529427e-39
-0.490143 -0.125486 0.00951993 9.3149928e-39
-0.49297801 -0.12426 0.0075428998 9.1324008e-39
-0.49585599 -0.123014 0.0055361101 9.1327596e-39
-0.49726301 -0.121419 0.0046265102 9.2242391e-39
-0.497168 -0.119488 0.0048368601 8.7647099e-39
-0.49707201 -0.117556 0.0050473502 8.5824682e-39
-0.496977 -0.115623 0.00525798 9.13384e-39
-0.49538001 -0.113392 0.0065846001 9.4089905e-39
-0.49453801 -0.111319 0.0073491 9.4082744e-39
-0.494443 -0.109393 0.0075589502 9.4079171e-39
-0.49434799 -0.107466 0.0077689402 9.2246063e-39
-0.49499801 -0.105671 0.0074258801 9.6852187e-39
-0.496402 -0.103999 0.00652469 1.0145477e-38
-0.496306 -0.102057 0.0067363 1.0054359e-38
-0.49847901 -0.100486 0.0052668001 9.5933846e-39
-0.49990901 -0.098774299 0.00434916 8.8561853e-39
-0.5029 -0.097287297 0.0022772299 8.2126137e-39
-0.50514901 -0.095657803 0.00075661298 7.8441885e-39
-0.50822198 -0.094123498 -0.00137141 8.0257029e-39
-0.51053399 -0.092450298 -0.00293417 7.7509139e-39
-0.51451403 -0.090977699 -0.0057283202 7.56688e-39
-0.517735 -0.089364998 -0.0079588601 7.6587169e-39
-0.52016002 -0.087618597 -0.0095986696 7.5668814e-39
-0.52175802 -0.085746497 -0.0106271 7.3824915e-39
-0.52250999 -0.083758697 -0.0110304 7.0137118e-39
-0.522407 -0.081666499 -0.0108024 6.7374865e-39
-0.524023 -0.079754703 -0.0118415 6.829322e-39
-0.52828097 -0.0780904 -0.0148236 6.6442104e-39
-0.52994502 -0.0761334 -0.015893999 6.0924786e-39
-0.52983999 -0.0739967 -0.015661201 5.9084475e-39
-0.53062397 -0.071934998 -0.0160823 6.0006389e-39
-0.53230798 -0.069935903 -0.0171641 5.8151714e-39
-0.53310198 -0.067850098 -0.0175907 5.6300641e-39
-0.53299499 -0.065689802 -0.0173553 5.4463931e-39
-0.53379202 -0.063587897 -0.0177828 4.9857751e-39
-0.53368402 -0.061420199 -0.0175466 4.7999461e-39
-0.53357702 -0.0592512 -0.017310301 4.9839744e-39
-0.53437698 -0.057126999 -0.017738201 4.4318824e-39
-0.54166001 -0.055291701 -0.0229137 3.2376595e-39
-0.54438698 -0.053193498 -0.024748201 2.9614299e-39
-0.54522997 -0.050997298 -0.0252025 3.0525451e-39
-0.54607701 -0.048790202 -0.0256586 3.0518263e-39
-0.54789197 -0.046597399 -0.0268218 2.7745219e-39
-0.54972303 -0.044383999 -0.027995 2.4060995e-39
-0.55255502 -0.0421657 -0.0298979 1.9454815e-39
-0.55343199 -0.0398947 -0.0303715 1.6685373e-39
-0.55631399 -0.0376243 -0.0323065 1.8532887e-39
-0.55720699 -0.035320099 -0.032789301 2.0380443e-39
-0.55810302 -0.033004198 -0.033273999 1.9447767e-39
-0.56002402 -0.030667299 -0.0345034 2.0369639e-39
-0.56093198 -0.028322499 -0.0349948 2.1302287e-39
-0.56287801 -0.025945799 -0.036239799 1.7585735e-39
-0.56588799 -0.023520799 -0.038256701 2.4939778e-39
-0.56787699 -0.0210924 -0.039530098 1.9422417e-39
-0.57310998 -0.0185294 -0.043157201 1.3908672e-39
-0.57407498 -0.016078999 -0.043682199 1.2972324e-39
-0.57723802 -0.0135178 -0.045800999 1.4805433e-39
-0.57822198 -0.0110299 -0.046336599 1.6624192e-39
-0.57920998 -0.00852881 -0.046874501 1.7556826e-39
-0.581321 -0.0059474302 -0.048225299 1.2032375e-39
-0.58458698 -0.0032664 -0.050410099 1.2010823e-39
-0.586748 -0.00062650902 -0.051793098 1.2939898e-39
-0.58893001 0.00204003 -0.053188998 1.1113908e-39
-0.59230399 0.0048278598 -0.055445101 1.0181218e-39
-0.59335601 0.0074545802 -0.056020301 1.108514e-39
-0.59441298 0.0100956 -0.056598101 9.241185e-40
-0.59310502 0.0125237 -0.0554679 7.3936991e-40
-0.59298003 0.0150608 -0.055191498 8.3084668e-40
-0.59285402 0.017599599 -0.054914799 1.291822e-39
-0.59155297 0.020009199 -0.0537908 1.7535162e-39
-0.59142798 0.022545399 -0.053514499 1.570204e-39
-0.59013301 0.024940901 -0.0523961 1.5702026e-39
-0.58884501 0.0273268 -0.051282801 1.3861771e-39
-0.58756202 0.029703099 -0.050174698 1.2028676e-39
-0.58513898 0.031912401 -0.048247401 1.5694935e-39
-0.582739 0.034102701 -0.0463381 1.7531659e-39
-0.58261502 0.0366074 -0.0460652 1.6620507e-39
-0.58249098 0.039113902 -0.045791999 1.385468e-39
-0.582367 0.041622099 -0.0455187 1.2932696e-39
-0.58224303 0.044131901 -0.0452452 1.3843862e-39
-0.58211899 0.046643499 -0.0449716 1.2925493e-39
-0.57974398 0.048765 -0.043085299 1.108158e-39
-0.578502 0.051068 -0.042012502 8.3336761e-40
-0.57726699 0.0533619 -0.040944599 9.2556044e-40
-0.57603699 0.0556469 -0.039881501 1.0170372e-39
-0.39206401 0.0488257 0.093724497 1.9371886e-39
-0.39115301 0.050138999 0.094484597 1.7531631e-39
-0.389011 0.051079702 0.0961143 2.3056138e-39
-0.38852501 0.052499101 0.096571803 3.5927527e-39
-0.38804099 0.053915501 0.097028099 6.4490039e-39
-0.38837299 0.055583701 0.096907899 8.8414044e-39
-0.934389 -0.49121001 -0.345916 5.7171996e-39
-0.93093699 -0.48562601 -0.34297499 6.082741e-39
-0.93074799 -0.48182201 -0.34256101 7.0961712e-39
-0.93055898 -0.47801501 -0.34214801 8.2943515e-39
-0.93036902 -0.47420701 -0.34173301 8.6652948e-39
-0.93018001 -0.47039601 -0.34131899 8.8511266e-39
-0.24324299 -0.102621 0.1903 1.004967e-38
-0.242237 -0.1015 0.19112 1.004967e-38
-0.241245 -0.100393 0.191929 9.9571168e-39
-0.239519 -0.098959401 0.19330201 9.957121e-39
-0.238563 -0.0978892 0.19408201 9.9574826e-39
-0.23853 -0.097240202 0.194153 1.0049677e-38
-0.238498 -0.096590698 0.194224 1.0050034e-38
-0.23846599 -0.095940903 0.19429401 1.0141871e-38
-0.238433 -0.095290601 0.19436499 1.0141512e-38
-0.48947799 -0.19702099 0.0024409201 8.4855923e-39
-0.48795301 -0.194602 0.00373738 7.5636388e-39
-0.48786199 -0.19277801 0.0039356998 7.009386e-39
-0.487771 -0.190953 0.0041341502 7.0104636e-39
-0.48696801 -0.188843 0.0048773601 7.1955737e-39
-0.485459 -0.186463 0.0061583002 7.3803251e-39
-0.48466399 -0.18437099 0.0068940301 7.2884938e-39
-0.48457399 -0.18255401 0.0070915399 7.4721648e-39
-0.483082 -0.180206 0.0083578303 7.7480286e-39
-0.47884899 -0.176844 0.0117126 7.7476713e-39
