# .PCD v0.7 - Point Cloud Data file format
VERSION 0.7
FIELDS x y z rgb
SIZE 4 4 4 4
TYPE F F F F
COUNT 1 1 1 1
WIDTH 1057
HEIGHT 1
VIEWPOINT 0 0 0 1 0 0 0
POINTS 1057
DATA ascii
-0.35511401 0.113514 0.144733 4.4380131e-39
-0.35412601 0.114343 0.14545199 3.700081e-39
-0.354063 0.11571 0.145605 2.8713937e-39
-0.30818799 0.103661 0.17484701 5.1834899e-39
-0.30813599 0.104796 0.17497399 6.2920053e-39
-0.34283501 0.129398 0.154116 7.4876716e-39
-0.342774 0.130725 0.154264 8.1290851e-39
-0.340206 0.13033099 0.15592401 8.3123988e-39
-0.33986899 0.131456 0.15623701 8.1290879e-39
-0.33980799 0.13277 0.15638401 8.1305229e-39
-0.30130801 0.109331 0.179841 7.7624494e-39
-0.301063 0.110299 0.18008199 7.9468323e-39
-0.30101201 0.111406 0.180206 9.4179939e-39
-0.30096 0.112514 0.18032999 1.1439454e-38
-0.30071601 0.11348 0.18056899 1.2173778e-38
-0.30105099 0.114876 0.180462 1.2265256e-38
-0.37165299 0.099905498 0.131061 4.4340362e-39
-0.36984399 0.100477 0.132309 3.0561437e-39
-0.36874399 0.101389 0.133114 2.6888017e-39
-0.36765099 0.102295 0.133913 2.6891604e-39
-0.36522201 0.1025 0.135544 2.8728314e-39
-0.36349401 0.103046 0.136737 2.689159e-39
-0.362441 0.103932 0.137508 2.5973221e-39
-0.360102 0.104121 0.13907801 2.5969634e-39
-0.358437 0.10465 0.140227 2.5047706e-39
-0.358055 0.105861 0.140579 2.504409e-39
-0.35767299 0.10707 0.14093 2.319659e-39
-0.356978 0.108102 0.14147501 2.3203737e-39
-0.35691401 0.109482 0.14162999 2.5944439e-39
-0.35653499 0.110685 0.141978 2.6866409e-39
-0.355845 0.111707 0.14252 2.778482e-39
-0.35578099 0.113085 0.142673 3.3312942e-39
-0.35571599 0.114464 0.142827 4.1599717e-39
-0.35503 0.115477 0.14336599 4.3443644e-39
-0.35465601 0.116671 0.143711 3.8837477e-39
-0.35459101 0.118047 0.14386401 3.0565094e-39
-0.34668499 0.12849499 0.14996301 3.8859113e-39
-0.30740699 0.1037 0.17406601 4.444127e-39
-0.34198499 0.12811901 0.153056 6.5664187e-39
-0.341923 0.129444 0.15320399 9.786419e-39
-0.34186101 0.130771 0.15335201 1.0888446e-38
-0.34012899 0.13094699 0.15451799 1.1255786e-38
-0.339241 0.13169201 0.155168 1.1163947e-38
-0.33754399 0.131862 0.15631001 1.1072109e-38
-0.33748299 0.13316999 0.15645599 1.1070671e-38
-0.337152 0.134286 0.156766 1.0055093e-38
-0.300549 0.10937 0.17908201 7.2928294e-39
-0.300497 0.110478 0.179206 6.1940405e-39
-0.30044499 0.111586 0.17932899 7.8531933e-39
-0.300394 0.112695 0.179453 1.0612933e-38
-0.30034199 0.113805 0.17957699 1.208266e-38
-0.367816 0.100006 0.13196 4.8943039e-39
-0.36604899 0.100572 0.13319001 3.9762993e-39
-0.36397201 0.100961 0.13461301 3.6082356e-39
-0.36258301 0.101686 0.135603 3.1486994e-39
-0.36120701 0.102405 0.136583 2.7817148e-39
-0.35856101 0.102437 0.13835999 2.7813532e-39
-0.357225 0.103144 0.139312 2.6891576e-39
-0.35653001 0.104184 0.139861 2.5047678e-39
-0.35615101 0.105391 0.140212 2.412212e-39
-0.356087 0.106769 0.140365 2.1352706e-39
-0.356022 0.108148 0.14051899 2.136344e-39
-0.355957 0.109528 0.140673 2.2263858e-39
-0.355892 0.11091 0.140827 2.4100568e-39
-0.355203 0.111933 0.141371 2.3196604e-39
-0.355138 0.113312 0.141525 3.4263639e-39
-0.355073 0.114693 0.141679 4.2572036e-39
-0.35500899 0.116074 0.14183301 4.349765e-39
-0.35494399 0.117457 0.141987 4.3490475e-39
-0.354568 0.118653 0.142335 3.9802692e-39
-0.347177 0.123904 0.14771099 1.0061923e-38
-0.34588301 0.125847 0.148734 6.9211589e-39
-0.345819 0.127194 0.148884 4.4347593e-39
-0.34575599 0.12854201 0.14903399 3.4242157e-39
-0.344825 0.12931 0.14972 4.2582952e-39
-0.34418699 0.13026699 0.150224 7.1167086e-39
-0.34101099 0.129491 0.152292 1.1072475e-38
-0.340949 0.13081799 0.15244 1.2267054e-38
-0.33922201 0.13099401 0.153611 1.2082664e-38
-0.33861101 0.13192999 0.15409601 1.1990111e-38
-0.33664599 0.131908 0.155412 1.2081585e-38
-0.33631501 0.13302501 0.15572301 1.1896831e-38
-0.336254 0.134332 0.15586901 1.0881605e-38
-0.29973701 0.110517 0.17844599 5.8202231e-39
-0.299685 0.111625 0.178569 7.2071064e-39
-0.299633 0.112735 0.178693 9.8778874e-39
-0.29958099 0.113845 0.178817 1.19919e-38
-0.36134499 0.100159 0.13467801 6.5487876e-39
-0.35868701 0.100211 0.13648 4.6198722e-39
-0.35766301 0.101097 0.137242 3.9762993e-39
-0.35601699 0.101642 0.138399 3.51604e-39
-0.35532501 0.102683 0.13895001 2.8724699e-39
-0.35432601 0.103552 0.13969401 2.4125707e-39
-0.35426101 0.104924 0.139847 2.2278207e-39
-0.354819 0.106642 0.139607 2.134909e-39
-0.355066 0.108195 0.13956299 2.2278207e-39
-0.355001 0.109575 0.139716 2.2271047e-39
-0.35493499 0.110956 0.13987 2.22639e-39
-0.354559 0.112158 0.14022 2.5051335e-39
-0.35449401 0.11354 0.140374 3.7051144e-39
-0.35442799 0.114922 0.140527 4.1675345e-39
-0.35436299 0.116305 0.140681 4.1678974e-39
-0.354298 0.11769 0.140835 4.3526502e-39
-0.35392201 0.118887 0.141184 4.7235908e-39
-0.35447901 0.120651 0.140948 5.4604397e-39
-0.348968 0.124297 0.14496499 5.18422e-39
-0.34624499 0.123951 0.146779 6.1043686e-39
-0.34530801 0.124735 0.147475 6.007487e-39
-0.34495401 0.125893 0.147806 4.3432882e-39
-0.34489101 0.127241 0.147956 3.6064392e-39
-0.344827 0.128589 0.14810599 3.2398259e-39
-0.34389901 0.129357 0.148794 4.2586567e-39
-0.34354901 0.13050801 0.149122 6.933402e-39
-0.34009799 0.129537 0.151379 1.0522185e-38
-0.33975801 0.13067199 0.1517 1.2266339e-38
-0.33831501 0.13104001 0.152705 1.235853e-38
-0.33825299 0.132359 0.152851 1.2357813e-38
-0.33574799 0.131954 0.154514 1.2357453e-38
-0.33541799 0.13307101 0.154826 1.2356728e-38
-0.335356 0.134379 0.154971 1.1341859e-38
-0.298924 0.111665 0.177809 6.6542942e-39
-0.29887199 0.112774 0.17793199 9.2336012e-39
-0.333453 0.13973901 0.156684 1.1715678e-38
-0.33234 0.14025199 0.15747701 1.2633674e-38
-0.35381401 0.101021 0.13823999 5.997053e-39
-0.353439 0.102226 0.13858999 4.2507268e-39
-0.35275701 0.103261 0.139137 3.4231213e-39
-0.35299999 0.1048 0.139092 2.7791952e-39
-0.353553 0.106516 0.13884901 2.2278235e-39
-0.35410899 0.108241 0.138606 2.5040475e-39
-0.35404399 0.109621 0.138759 2.5958816e-39
-0.35397801 0.111002 0.13891201 2.2274746e-39
-0.35391301 0.112385 0.139066 3.0590303e-39
-0.353847 0.113768 0.139219 3.7983946e-39
-0.353782 0.115152 0.139373 4.0753417e-39
-0.35371599 0.116537 0.13952699 4.2604532e-39
-0.35365099 0.117923 0.139681 4.4470081e-39
-0.353585 0.11931 0.139835 4.8175913e-39
-0.35383001 0.120889 0.139791 5.3696804e-39
-0.34809101 0.12298 0.14387199 2.4140169e-39
-0.347433 0.123964 0.144398 2.8739188e-39
-0.34677699 0.124944 0.144922 3.0568737e-39
-0.344668 0.124971 0.146364 2.9646725e-39
-0.34431499 0.12613 0.146696 2.780277e-39
-0.34396201 0.127287 0.147027 3.3305698e-39
-0.34332401 0.128251 0.147539 3.2398245e-39
-0.34297401 0.12940399 0.14786801 4.0749857e-39
-0.34233901 0.13036101 0.148376 6.2912766e-39
-0.33918601 0.129583 0.15046699 9.0546189e-39
-0.338846 0.13071901 0.15078799 1.0889887e-38
-0.33768201 0.13127699 0.15162601 1.1716404e-38
-0.33734599 0.132406 0.151944 1.2174502e-38
-0.33538601 0.13238101 0.15328 1.2173782e-38
-0.33478701 0.13330799 0.153761 1.2080863e-38
-0.33445799 0.134425 0.154073 1.0881241e-38
-0.334396 0.13573299 0.154219 6.7310223e-39
-0.33414799 0.140976 0.1548 1.199047e-38
-0.33223501 0.140891 0.15609901 1.2633318e-38
-0.35150099 0.103139 0.138384 8.0199478e-39
-0.351742 0.104676 0.138338 5.2612858e-39
-0.35290799 0.106735 0.137696 3.7922668e-39
-0.35346299 0.108462 0.137449 3.4238458e-39
-0.353708 0.110022 0.137402 2.9635879e-39
-0.35364199 0.111407 0.137555 2.5973319e-39
-0.353576 0.112792 0.13770901 3.70512e-39
-0.35319901 0.113997 0.138062 3.8905945e-39
-0.35344401 0.115567 0.138016 4.168259e-39
-0.35306701 0.116769 0.13836899 4.4466465e-39
-0.353001 0.118157 0.138523 4.816871e-39
-0.35293499 0.119546 0.138677 5.185292e-39
-0.352869 0.120936 0.138831 4.628877e-39
-0.34810701 0.122227 0.14220899 2.0430749e-39
-0.34714901 0.123027 0.14293 1.9530345e-39
-0.34649301 0.124011 0.14345901 2.045949e-39
-0.34613401 0.125182 0.143797 2.1377873e-39
-0.34431601 0.125396 0.14506499 2.5051307e-39
-0.34338501 0.126176 0.145766 2.6880814e-39
-0.343034 0.127334 0.146099 3.2390944e-39
-0.342397 0.128298 0.146612 3.2394629e-39
-0.34176299 0.12925801 0.14712299 3.7058445e-39
-0.34084901 0.13002101 0.14781199 5.2782107e-39
-0.33827299 0.12963 0.149554 7.1231981e-39
-0.337659 0.130574 0.150051 8.2263002e-39
-0.33677399 0.13132299 0.150718 9.6963842e-39
-0.336438 0.132452 0.15103699 1.0798047e-38
-0.336375 0.133773 0.15118299 1.1256503e-38
-0.33442301 0.133738 0.15252499 1.143801e-38
-0.334093 0.134857 0.152839 1.005184e-38
-0.333498 0.13577899 0.15332 6.2704e-39
-0.333435 0.137089 0.153465 4.1610633e-39
-0.33324799 0.141023 0.153901 1.180608e-38
-0.332656 0.14193401 0.15437999 1.2448209e-38
-0.352815 0.108684 0.13629 6.9168513e-39
-0.35305899 0.110246 0.136241 4.8950186e-39
-0.35268199 0.111453 0.13659599 3.9781e-39
-0.35261601 0.112839 0.136749 4.0739039e-39
-0.35255 0.114226 0.136902 4.0767864e-39
-0.352483 0.115614 0.13705499 4.3551726e-39
-0.35241699 0.117002 0.137209 4.6339203e-39
-0.35204101 0.118204 0.13756301 5.4636781e-39
-0.35197499 0.119594 0.137716 5.8284978e-39
-0.351908 0.120983 0.13787 4.2539792e-39
-0.35184199 0.122374 0.138023 2.3171451e-39
-0.35085201 0.123186 0.13877299 2.1341902e-39
-0.34716299 0.122274 0.14126401 2.0441497e-39
-0.34650299 0.123263 0.141798 2.1374244e-39
-0.34584799 0.124248 0.14233001 2.3214569e-39
-0.34548801 0.12542 0.14267001 2.5051279e-39
-0.343384 0.125443 0.144132 2.5962473e-39
-0.34216899 0.12603299 0.14502101 2.7802784e-39
-0.34181899 0.12718999 0.145354 2.9632292e-39
-0.340902 0.12796099 0.14605001 2.8713951e-39
-0.339991 0.128728 0.146742 2.9657543e-39
-0.338808 0.1293 0.147607 3.706206e-39
-0.33735999 0.129676 0.148642 4.5392093e-39
-0.336474 0.130429 0.149315 5.4626033e-39
-0.33586499 0.13136999 0.14981 6.4756693e-39
-0.33580199 0.132691 0.149956 7.7631585e-39
-0.33601099 0.13420799 0.149928 8.4049279e-39
-0.33594799 0.135533 0.150075 8.6761156e-39
-0.33615699 0.13705701 0.150047 7.3806993e-39
-0.33609301 0.138385 0.150194 5.2598424e-39
-0.332537 0.137135 0.152567 3.7008096e-39
-0.33380499 0.13943601 0.15186401 6.0096478e-39
-0.33347401 0.140554 0.15218 9.5995068e-39
-0.33234799 0.14106899 0.15300199 1.1897915e-38
-0.332286 0.14238299 0.153147 1.2356375e-38
-0.35209799 0.110293 0.13528 9.8652911e-39
-0.35203201 0.111679 0.135433 5.4514336e-39
-0.35196501 0.113067 0.13558599 4.3537306e-39
-0.35189801 0.114456 0.135739 4.4480885e-39
-0.351522 0.115661 0.136094 4.7261159e-39
-0.35145599 0.117049 0.13624699 5.3722056e-39
-0.35108101 0.118252 0.136602 6.0175694e-39
-0.35101399 0.119641 0.136755 5.734863e-39
-0.35064 0.12084 0.137109 4.2528932e-39
-0.34996101 0.121847 0.13766199 2.3196604e-39
-0.34747499 0.121706 0.13939101 2.2278221e-39
-0.346515 0.12251 0.140126 2.1374244e-39
-0.345561 0.12331 0.140855 2.2296228e-39
-0.34490699 0.124295 0.141389 2.4132938e-39
-0.34454799 0.125467 0.14173 2.5051293e-39
-0.34130499 0.124733 0.143944 2.688443e-39
-0.340956 0.12589 0.14427701 2.5962473e-39
-0.340042 0.12666599 0.144977 2.68808e-39
-0.338296 0.12686899 0.14621501 2.504765e-39
-0.33795401 0.128013 0.146543 2.8717482e-39
-0.33651099 0.128396 0.14758299 3.2383755e-39
-0.336173 0.12953199 0.14790601 3.4231339e-39
-0.33556399 0.130476 0.148405 3.4256619e-39
-0.3355 0.131799 0.148551 3.7969653e-39
-0.33516499 0.13293099 0.148873 4.5356066e-39
-0.33564499 0.134645 0.14866801 4.9955029e-39
-0.33585399 0.136171 0.148638 4.9908226e-39
-0.336063 0.137701 0.148609 4.6187946e-39
-0.33572599 0.138833 0.148932 4.0663369e-39
-0.33538899 0.139963 0.14925399 3.7015285e-39
-0.33289999 0.139483 0.15096 6.5617412e-39
-0.332571 0.14060099 0.15127701 1.0243436e-38
-0.33224201 0.141718 0.151593 1.2174501e-38
-0.332178 0.14303599 0.151738 1.2633318e-38
-0.35144699 0.110518 0.134114 7.2942798e-39
-0.351071 0.111726 0.134471 4.813271e-39
-0.35100299 0.113114 0.134624 4.6324825e-39
-0.350936 0.114503 0.13477699 4.8190318e-39
-0.35056099 0.115708 0.135133 5.1881744e-39
-0.350494 0.117097 0.135286 6.2937975e-39
-0.35012001 0.118299 0.13564099 6.2912794e-39
-0.349747 0.119499 0.135996 5.3660805e-39
-0.34907001 0.120508 0.13655099 4.1646506e-39
-0.348396 0.121512 0.13710301 2.6880842e-39
-0.346526 0.121753 0.13844199 2.4125735e-39
-0.345568 0.122557 0.13918 2.321817e-39
-0.34461799 0.123357 0.13991199 2.3218184e-39
-0.34367299 0.124151 0.14063901 2.4132952e-39
-0.34072599 0.12362 0.142681 2.5047734e-39
-0.339246 0.12403 0.143758 2.4129379e-39
-0.33806199 0.124622 0.144639 2.4129351e-39
-0.33688799 0.125209 0.145513 2.596962e-39
-0.33599901 0.12597799 0.146199 2.5962417e-39
-0.33566201 0.12711699 0.146524 2.5044048e-39
-0.335325 0.128253 0.14684799 2.5948054e-39
-0.33471701 0.129199 0.147349 2.6866423e-39
-0.334382 0.13033099 0.147672 2.7799141e-39
-0.334589 0.131846 0.147641 2.8721083e-39
-0.33479699 0.13336501 0.147609 3.4231283e-39
-0.33527699 0.135084 0.14740101 3.2398189e-39
-0.33548599 0.13661399 0.147369 3.3312928e-39
-0.335421 0.13794801 0.147516 3.5149596e-39
-0.33508399 0.139081 0.14783999 3.6993537e-39
-0.33501899 0.140415 0.14798699 4.1625024e-39
-0.33414 0.141139 0.148663 7.3904187e-39
-0.33299899 0.141656 0.149508 1.0703694e-38
-0.33213401 0.142371 0.15017401 1.2267055e-38
-0.33206999 0.143694 0.150319 1.2633678e-38
-0.35086 0.109354 0.132792 9.7831722e-39
-0.350793 0.110743 0.132945 5.7323463e-39
-0.35041699 0.111953 0.133304 4.4495304e-39
-0.35034901 0.113342 0.13345601 5.0952557e-39
-0.34997401 0.114549 0.13381401 5.0956215e-39
-0.34959999 0.115755 0.13417201 5.833541e-39
-0.34953299 0.117144 0.134324 6.1101307e-39
-0.349159 0.118346 0.134681 6.2905563e-39
-0.34878701 0.119546 0.13503601 6.378066e-39
-0.34811199 0.120555 0.135593 6.0964373e-39
-0.347139 0.12137 0.13634799 5.1708824e-39
-0.34498399 0.121422 0.137887 3.7904773e-39
-0.34432799 0.122415 0.138429 2.7809987e-39
-0.343674 0.123404 0.138969 2.6895191e-39
-0.34302399 0.124388 0.139506 2.5054894e-39
-0.33838701 0.122737 0.14268599 2.5051321e-39
-0.33555201 0.122232 0.144669 2.4129365e-39
-0.333857 0.122463 0.14589401 2.2292613e-39
-0.33298701 0.123233 0.14657199 2.4125721e-39
-0.33265501 0.124363 0.14689299 2.6862821e-39
-0.33205801 0.12530901 0.14738999 2.778475e-39
-0.33146399 0.126251 0.147884 2.6869982e-39
-0.33326799 0.128868 0.146795 2.6873583e-39
-0.333473 0.13037799 0.146763 2.7799099e-39
-0.333949 0.132085 0.146552 2.9639396e-39
-0.334427 0.133801 0.14634 3.1476148e-39
-0.334907 0.135526 0.146128 2.780277e-39
-0.33538899 0.13725901 0.145914 3.0557835e-39
-0.33532399 0.138598 0.146061 3.3309313e-39
-0.33525899 0.139937 0.146208 3.6997166e-39
-0.33491999 0.141073 0.14653499 4.6238365e-39
-0.33431 0.142002 0.14703999 8.2194549e-39
-0.33316299 0.142517 0.14789601 1.1072472e-38
-0.33202499 0.143029 0.148745 1.2451085e-38
-0.331429 0.14394601 0.149239 1.2817706e-38
-0.35027301 0.108188 0.131468 1.143694e-38
-0.35051501 0.109756 0.131412 7.2957133e-39
-0.35013801 0.110969 0.13177299 4.9072687e-39
-0.34976101 0.11218 0.13213401 4.9097897e-39
-0.34969401 0.113572 0.132286 5.0030657e-39
-0.349318 0.11478 0.13264599 5.0052265e-39
-0.34894401 0.115986 0.13300399 6.7547729e-39
-0.348571 0.117191 0.133362 6.4738756e-39
-0.348198 0.118393 0.13372 6.5667831e-39
-0.34782699 0.119594 0.134076 9.231439e-39
-0.34775901 0.120982 0.13422801 1.1616637e-38
-0.34708601 0.121989 0.13478699 1.0601053e-38
-0.34462699 0.121847 0.136544 7.7473238e-39
-0.34397 0.122841 0.13709 6.2761454e-39
-0.34150401 0.124055 0.138953 3.791192e-39
-0.334703 0.120954 0.14361 2.7806386e-39
-0.332477 0.120833 0.145201 2.3214569e-39
-0.32976699 0.120362 0.14711399 2.2292599e-39
-0.32763001 0.120251 0.14864101 2.228541e-39
-0.326545 0.120838 0.14946499 2.4118533e-39
-0.32622799 0.121945 0.149775 2.5955229e-39
-0.326166 0.123228 0.14991599 2.5044076e-39
-0.33023599 0.12741999 0.147302 2.4129309e-39
-0.33256301 0.13042399 0.145853 2.5051251e-39
-0.33569899 0.135424 0.14397199 3.0561395e-39
-0.33563301 0.136767 0.14411899 2.5973235e-39
-0.33612001 0.13851599 0.14389899 2.8728286e-39
-0.33605501 0.139864 0.14404701 2.9643068e-39
-0.33571199 0.14100701 0.14437801 3.5174848e-39
-0.33537099 0.142149 0.14470799 5.2695633e-39
-0.33420801 0.142667 0.14558201 9.4165547e-39
-0.333599 0.143594 0.14609 1.1716399e-38
-0.33218399 0.143897 0.147129 1.2726591e-38
-0.33158401 0.144816 0.14762899 1.3002096e-38
-0.349309 0.108234 0.130504 9.0459813e-39
-0.349549 0.109803 0.130446 5.917462e-39
-0.34917301 0.111016 0.130808 4.9101498e-39
-0.34879699 0.112227 0.13116901 5.003786e-39
-0.34872901 0.113619 0.131321 5.2807316e-39
-0.34866101 0.115011 0.131474 6.292364e-39
-0.34798101 0.116033 0.13204201 5.9246675e-39
-0.34760901 0.117238 0.13240001 6.5667831e-39
-0.347541 0.118628 0.132552 8.863032e-39
-0.34716901 0.11983 0.132911 1.1715688e-38
-0.347404 0.121412 0.13285699 1.3281201e-38
-0.33163601 0.119566 0.144152 5.9988396e-39
-0.328935 0.119109 0.14607701 4.7099071e-39
-0.32680601 0.119008 0.147613 3.2387385e-39
-0.32521799 0.119254 0.148783 2.504409e-39
-0.32365099 0.119498 0.14993601 2.5044076e-39
-0.32284501 0.120253 0.15057699 2.5966033e-39
-0.322043 0.121004 0.15121301 2.5051293e-39
-0.32198101 0.122269 0.151351 2.505488e-39
-0.33699399 0.137078 0.141559 2.5976837e-39
-0.33664799 0.13823 0.141895 2.5051279e-39
-0.336303 0.13937999 0.14223 2.7799141e-39
-0.33623701 0.140734 0.142378 2.9639494e-39
-0.33561501 0.141674 0.14289799 3.7025977e-39
-0.33499601 0.142611 0.143416 5.9152928e-39
-0.333832 0.14312799 0.144297 1.0520021e-38
-0.33349401 0.144265 0.144627 1.2267412e-38
-0.33315599 0.1454 0.14495499 1.2910622e-38
-0.34810701 0.106717 0.129599 1.0426392e-38
-0.34834501 0.108281 0.129539 6.7464996e-39
-0.34827599 0.109671 0.129691 5.3700448e-39
-0.347902 0.110883 0.130053 5.6487883e-39
-0.34783301 0.112274 0.13020501 5.5569584e-39
-0.347765 0.113665 0.130357 6.2937975e-39
-0.34769601 0.115058 0.130509 7.2153839e-39
-0.347323 0.116266 0.13087 6.0128974e-39
-0.34664699 0.117285 0.131438 6.1980104e-39
-0.346578 0.118675 0.13158999 1.0522539e-38
-0.34650999 0.120067 0.131742 1.3188646e-38
-0.326493 0.118111 0.146237 9.3114013e-39
-0.32439899 0.11802 0.147761 7.6551212e-39
-0.32283801 0.118271 0.148922 6.1825106e-39
-0.322034 0.119029 0.149565 4.5255214e-39
-0.32099 0.119613 0.150371 3.1483421e-39
-0.32068399 0.120705 0.150674 2.8731915e-39
-0.32013601 0.121623 0.151142 2.8728314e-39
-0.32056001 0.123231 0.15095 2.9650256e-39
-0.335996 0.138482 0.140775 2.5973235e-39
-0.33592901 0.13983899 0.14092299 3.0557835e-39
-0.33586201 0.141196 0.14107101 3.0561479e-39
-0.33551699 0.14234599 0.141407 3.7962352e-39
-0.335172 0.143494 0.141743 6.6535739e-39
-0.334277 0.14421999 0.142451 1.1256502e-38
-0.33366099 0.145151 0.142969 1.2542917e-38
-0.333049 0.146079 0.14348499 1.2818069e-38
-0.347213 0.105376 0.12848499 1.1899e-38
-0.34714401 0.106763 0.128636 8.0336371e-39
-0.346771 0.107975 0.128998 5.4604439e-39
-0.34670299 0.109362 0.129149 5.4651159e-39
-0.346634 0.110751 0.1293 6.1104839e-39
-0.34656501 0.11214 0.12945201 6.2016075e-39
-0.3468 0.113712 0.129392 7.2143119e-39
-0.34673101 0.115105 0.129544 6.4753105e-39
-0.34666201 0.116499 0.129695 6.1972761e-39
-0.34628901 0.117706 0.13005701 9.5973502e-39
-0.34561601 0.118723 0.130628 1.2909904e-38
-0.34554699 0.120114 0.130779 1.4105566e-38
-0.32018301 0.118394 0.149363 8.76111e-39
-0.319877 0.119487 0.14966799 7.2877736e-39
-0.31909001 0.120236 0.15030301 5.998125e-39
-0.31878701 0.121324 0.15060499 4.5258816e-39
-0.31872401 0.122582 0.15074199 3.6075224e-39
-0.33506301 0.13853 0.139843 2.7813574e-39
-0.33499601 0.13988701 0.13999 2.965027e-39
-0.33520699 0.141452 0.139948 3.0572297e-39
-0.33486101 0.142603 0.140286 5.0848147e-39
-0.33479401 0.14396299 0.140434 8.6775534e-39
-0.33445001 0.14511199 0.140771 1.20841e-38
-0.33383101 0.146046 0.141295 1.2909182e-38
-0.34625 0.105422 0.12752201 9.4140464e-39
-0.34587801 0.106635 0.127886 6.195488e-39
-0.345507 0.107846 0.12824801 5.0023454e-39
-0.345438 0.109232 0.128399 5.4647585e-39
-0.34536901 0.110619 0.12854899 6.1097678e-39
-0.34560201 0.112187 0.128488 6.5703872e-39
-0.345532 0.113577 0.128639 6.9377292e-39
-0.34576601 0.115152 0.12857801 6.3791604e-39
-0.345696 0.116546 0.12873 6.8404973e-39
-0.34562701 0.117941 0.12888101 1.1532371e-38
-0.34525499 0.119147 0.129244 1.3554909e-38
-0.34609401 0.121117 0.12876 1.3646028e-38
-0.31720501 0.120855 0.150235 8.9436992e-39
-0.31738001 0.122281 0.150207 7.4703712e-39
-0.334896 0.14055499 0.138483 3.4242101e-39
-0.33454999 0.141709 0.138823 4.3465294e-39
-0.33448201 0.143071 0.138971 7.8477927e-39
-0.33441401 0.14443401 0.139119 1.125542e-38
-0.33406901 0.145585 0.139458 1.2451085e-38
-0.34535599 0.104082 0.12640899 1.1439459e-38
-0.34498501 0.105296 0.126773 7.2993076e-39
-0.34461501 0.106508 0.12713701 5.2782093e-39
-0.34424499 0.107718 0.1275 5.0037818e-39
-0.34417599 0.109102 0.12764999 5.3725643e-39
-0.34440699 0.110665 0.12758701 6.201246e-39
-0.34433699 0.112053 0.127737 6.7533393e-39
-0.34487 0.113806 0.127462 6.2912836e-39
-0.34510201 0.115384 0.127399 6.8415665e-39
-0.34533501 0.116967 0.12733699 1.0058687e-38
-0.34556901 0.118555 0.12727401 1.2819506e-38
-0.34549901 0.119956 0.127426 1.3462713e-38
-0.334169 0.142175 0.137501 9.9632391e-39
-0.33410001 0.14354099 0.137649 1.16224e-38
-0.334589 0.145335 0.137409 1.2727667e-38
-0.34416199 0.102574 0.125512 1.2453241e-38
-0.34409299 0.103958 0.125661 8.3095065e-39
-0.343723 0.10517 0.126026 5.8299425e-39
-0.34335399 0.106381 0.12639 5.1878143e-39
-0.34328499 0.107764 0.12653901 5.1888919e-39
-0.34321499 0.109148 0.126689 5.6495113e-39
-0.343146 0.110533 0.126839 6.3867176e-39
-0.343375 0.1121 0.126775 6.7522631e-39
-0.343905 0.113853 0.126497 6.9316167e-39
-0.344437 0.115617 0.12621699 8.4045762e-39
-0.34466901 0.117202 0.12615301 1.2176297e-38
-0.34551001 0.119173 0.125655 1.3462713e-38
-0.34320101 0.10262 0.12455 9.6935045e-39
-0.34313101 0.104004 0.124699 6.3805954e-39
-0.34276199 0.105216 0.125065 5.4644026e-39
-0.34239399 0.106427 0.12543 5.3729272e-39
-0.342325 0.10781 0.125579 5.4658417e-39
-0.342255 0.109195 0.125728 6.3870764e-39
-0.34218499 0.11058 0.12587699 6.75514e-39
-0.34241199 0.112146 0.12581199 6.6600675e-39
-0.34294 0.1139 0.125531 7.9457575e-39
-0.34377 0.11585 0.12503199 1.0796251e-38
-0.344607 0.117815 0.124529 1.3004259e-38
-0.34223899 0.102666 0.123588 7.5741051e-39
-0.34187099 0.103879 0.123955 5.3725699e-39
-0.34150401 0.105091 0.124321 5.2818148e-39
-0.341434 0.106473 0.124469 5.1903394e-39
-0.341364 0.107857 0.124618 5.8346285e-39
-0.34129399 0.109241 0.124767 7.0320856e-39
-0.34152001 0.110805 0.1247 7.2132371e-39
-0.34174699 0.112374 0.124633 7.4865842e-39
-0.342273 0.114131 0.124348 9.6020348e-39
-0.343705 0.116457 0.123405 1.2636914e-38
-0.34424001 0.118242 0.123115 1.3463796e-38
-0.34105101 0.101161 0.122697 8.9573871e-39
-0.34098101 0.102543 0.122845 6.1987278e-39
-0.340615 0.103755 0.123212 5.1903394e-39
-0.34054399 0.105137 0.12336 5.2828938e-39
-0.34047401 0.106519 0.123509 5.3750908e-39
-0.34040299 0.107903 0.123657 6.7558603e-39
-0.340628 0.109464 0.123588 7.0310066e-39
-0.34085399 0.111031 0.12352 7.3047097e-39
-0.341079 0.112602 0.123451 9.0495841e-39
-0.34160399 0.114361 0.123163 1.1531662e-38
-0.343034 0.116693 0.12221 1.3280127e-38
-0.34016201 0.099826597 0.121589 1.1255788e-38
-0.33979601 0.10104 0.121956 7.116001e-39
-0.339726 0.10242 0.122104 5.5580374e-39
-0.33965501 0.103801 0.122252 5.3732902e-39
-0.33958399 0.105183 0.1224 5.2825337e-39
-0.339513 0.106566 0.122548 6.0190197e-39
-0.339443 0.107949 0.122696 7.1253589e-39
-0.33966601 0.109511 0.122626 7.1214002e-39
-0.33989 0.111077 0.122556 7.7649661e-39
-0.34040999 0.11283 0.122265 1.0338875e-38
-0.340933 0.114593 0.121974 1.2911704e-38
-0.33927301 0.098492503 0.120481 1.1806448e-38
-0.33890799 0.099707097 0.120849 7.9432491e-39
-0.338837 0.101086 0.120997 5.7399119e-39
-0.33876601 0.102466 0.121144 5.2825309e-39
-0.33869499 0.103847 0.121292 5.374009e-39
-0.338624 0.105229 0.12144 5.558043e-39
-0.33855301 0.106612 0.121587 7.3075907e-39
-0.33877501 0.108171 0.121515 6.6618696e-39
-0.33899701 0.109735 0.121443 7.6727719e-39
-0.339515 0.111484 0.12115 1.0153765e-38
-0.340036 0.113242 0.120855 1.2452169e-38
-0.338384 0.097159103 0.119374 1.2452522e-38
-0.33831301 0.098537996 0.119521 9.6931416e-39
-0.33794901 0.099752702 0.11989 6.4742315e-39
-0.33787799 0.101132 0.120037 5.4662047e-39
-0.33780599 0.102512 0.120184 5.3732916e-39
-0.337735 0.103893 0.120332 5.6484393e-39
-0.33766299 0.105275 0.120479 6.1112125e-39
-0.33759201 0.106658 0.120626 7.1260749e-39
-0.33781201 0.108217 0.120553 7.1196037e-39
-0.33832699 0.109959 0.120257 8.2237919e-39
-0.33884299 0.111711 0.11996 1.162673e-38
-0.33965901 0.113656 0.119437 1.337304e-38
-0.33742401 0.097204603 0.118414 1.0794457e-38
-0.33706099 0.098420098 0.118784 7.2089197e-39
-0.33699 0.099798404 0.118931 5.649154e-39
-0.336918 0.101178 0.119077 5.3740076e-39
-0.33684599 0.102558 0.119224 5.3740076e-39
-0.336775 0.103939 0.119371 5.9264569e-39
-0.336703 0.105321 0.119518 8.0426292e-39
-0.336631 0.106704 0.119665 6.5675146e-39
-0.33714101 0.10844 0.119367 7.9533035e-39
-0.33794799 0.110363 0.118844 1.1257946e-38
-0.33846501 0.11212 0.118542 1.318901e-38
-0.33653599 0.095871799 0.117307 1.2084829e-38
-0.33617401 0.097088099 0.117679 8.4056566e-39
-0.33610201 0.098465599 0.117825 6.0157785e-39
-0.33603001 0.099844001 0.117971 5.3740104e-39
-0.33566901 0.101057 0.118341 5.4658417e-39
-0.33559701 0.102435 0.118488 5.5580374e-39
-0.335814 0.103985 0.118411 6.5707502e-39
-0.335742 0.105367 0.118557 6.8473412e-39
-0.33596 0.106924 0.11848 7.9436065e-39
-0.33646899 0.108662 0.118179 9.0488792e-39
-0.337273 0.110589 0.11765 1.2729835e-38
-0.335287 0.095756903 0.116574 1.0336357e-38
-0.335215 0.097133502 0.116719 6.9348509e-39
-0.335143 0.0985111 0.116865 5.4658445e-39
-0.334782 0.099724703 0.117236 5.2818162e-39
-0.33471 0.101103 0.117382 5.3736517e-39
-0.334638 0.102481 0.117528 6.2945206e-39
-0.334566 0.103861 0.117674 7.8596771e-39
-0.33478099 0.105413 0.117596 6.6611451e-39
-0.334997 0.106971 0.117518 7.5870433e-39
-0.335504 0.108709 0.117213 1.1444131e-38
-0.33630401 0.110636 0.11668 1.3925493e-38
-0.33411399 0.094268098 0.115696 1.2084471e-38
-0.334041 0.095642202 0.115842 8.2219856e-39
-0.333969 0.097017303 0.115987 6.0164974e-39
-0.33389601 0.098393299 0.116132 5.4662033e-39
-0.333538 0.099605702 0.116504 5.3743664e-39
-0.33346501 0.100982 0.116649 6.0179351e-39
-0.33367899 0.102527 0.116569 7.1217645e-39
-0.333606 0.103907 0.116715 7.3976298e-39
-0.33381999 0.10546 0.116635 8.7729986e-39
-0.33403501 0.107017 0.116555 9.9686663e-39
-0.33453801 0.108755 0.116248 1.2637641e-38
-0.33475399 0.110325 0.116168 1.4108447e-38
-0.33287099 0.094155297 0.114967 9.6935059e-39
-0.332798 0.095527902 0.115111 6.6597018e-39
-0.332726 0.096901402 0.115256 5.7413482e-39
-0.33265299 0.098275803 0.115401 5.5573171e-39
-0.33258 0.099651299 0.115546 5.650233e-39
-0.33250701 0.101028 0.115691 6.6643807e-39
-0.332434 0.102405 0.115836 7.5838175e-39
-0.332647 0.103953 0.115755 7.3029188e-39
-0.33285901 0.105506 0.115674 8.4096181e-39
-0.33307201 0.107063 0.115592 1.2454688e-38
-0.333285 0.108626 0.115511 1.3741462e-38
-0.33170399 0.092672698 0.114094 1.0981367e-38
-0.331631 0.0940428 0.114238 7.3947459e-39
-0.33155799 0.095413797 0.114382 5.7413468e-39
-0.331485 0.096785702 0.114527 5.5573185e-39
-0.33141199 0.098158702 0.114671 5.6491554e-39
-0.331339 0.0995325 0.114816 6.5707474e-39
-0.33154899 0.101073 0.114733 7.399429e-39
-0.331476 0.102451 0.114878 7.39835e-39
-0.331687 0.103999 0.114795 8.9609786e-39
-0.331898 0.105552 0.114712 1.1257233e-38
-0.332109 0.10711 0.114629 1.3834016e-38
-0.33203599 0.108496 0.114775 1.4109882e-38
-0.33082199 0.091348402 0.112995 1.2455405e-38
-0.33074901 0.0927177 0.113139 8.3138239e-39
-0.330394 0.093930602 0.113512 6.108693e-39
-0.33032101 0.095299996 0.113655 5.6502316e-39
-0.32996699 0.096510202 0.114027 5.6495141e-39
-0.330174 0.098041803 0.113943 5.9264625e-39
-0.33010101 0.099414103 0.114087 6.9402529e-39
-0.33059099 0.101119 0.113774 7.582384e-39
-0.33051801 0.102497 0.113919 7.9468491e-39
-0.33072701 0.104045 0.113835 9.6960353e-39
-0.33093601 0.105598 0.11375 1.3097896e-38
-0.331146 0.107156 0.113666 1.4293557e-38
-0.329586 0.091239303 0.112271 9.6942262e-39
-0.32923299 0.092451699 0.112644 6.568588e-39
-0.32916 0.093818597 0.112787 5.6498743e-39
-0.32908601 0.095186502 0.11293 5.6498729e-39
-0.32901299 0.096555397 0.113073 5.7424286e-39
-0.32893899 0.097925201 0.113217 6.8480531e-39
-0.329146 0.099459499 0.113131 7.3083138e-39
-0.329633 0.101165 0.112816 7.3997878e-39
-0.32984099 0.102711 0.11273 9.2382899e-39
-0.33004901 0.104261 0.112644 1.1994435e-38
-0.32997501 0.105644 0.112789 1.3833659e-38
-0.32898599 0.090069503 0.110942 1.1532381e-38
-0.32863301 0.091283999 0.111317 7.4862226e-39
-0.32800201 0.092341498 0.111921 5.9257423e-39
-0.32792801 0.093706898 0.112063 5.6502344e-39
-0.32785499 0.095073298 0.112206 5.6502316e-39
-0.32778099 0.096440598 0.112349 6.3870764e-39
-0.32798499 0.097970396 0.112262 7.2171958e-39
-0.32819 0.099505 0.112175 7.6749369e-39
-0.328675 0.10121 0.111857 8.5010948e-39
-0.328881 0.102756 0.11177 1.0892771e-38
-0.32908699 0.104307 0.111682 1.3742544e-38
-0.328105 0.088746503 0.109845 1.4019485e-38
-0.32775301 0.089961797 0.11022 8.8644768e-39
-0.327124 0.091021702 0.110826 6.1101307e-39
-0.32677299 0.092231698 0.1112 5.7427902e-39
-0.32614899 0.0932841 0.111801 5.7427874e-39
-0.326626 0.094960302 0.111484 5.9271786e-39
-0.326828 0.096485697 0.111396 7.4019416e-39
-0.32703099 0.098015703 0.111307 7.4005108e-39
-0.327512 0.0997146 0.110987 7.4916261e-39
-0.327995 0.101423 0.110666 9.6978304e-39
-0.328201 0.102971 0.110576 1.300714e-38
-0.32631999 0.088339798 0.109591 1.1166835e-38
-0.32624599 0.089702599 0.109733 6.8437329e-39
-0.32562199 0.0907607 0.110338 5.7435104e-39
-0.325001 0.0918146 0.110941 5.5598394e-39
-0.324927 0.093173698 0.111082 5.7431517e-39
-0.32512599 0.094690502 0.110994 6.8480559e-39
-0.3256 0.096371204 0.110674 7.4945015e-39
-0.326076 0.098061003 0.110353 7.6763718e-39
-0.32655501 0.0997601 0.11003 8.8702347e-39
-0.32703501 0.101468 0.109706 1.1812562e-38
-0.32723901 0.103017 0.109615 1.4203159e-38
-0.325169 0.086874098 0.108732 1.3283728e-38
-0.32454801 0.087936103 0.109339 8.3127491e-39
-0.324202 0.089143701 0.109712 5.9268213e-39
-0.323856 0.090349399 0.110084 5.7438692e-39
-0.323511 0.091553099 0.110455 5.4680067e-39
-0.32343701 0.092909001 0.110595 6.1122943e-39
-0.323634 0.094421901 0.110506 7.586337e-39
-0.32464799 0.096416302 0.109722 7.4909114e-39
-0.325122 0.098106302 0.109398 8.0430006e-39
-0.32559699 0.099805601 0.109072 1.0893491e-38
-0.32607499 0.101514 0.108746 1.3835101e-38
-0.326278 0.103063 0.108653 1.4754534e-38
-0.32402101 0.085412703 0.107876 1.4387906e-38
-0.323403 0.086476102 0.108484 1.0156642e-38
-0.32305801 0.087683201 0.108857 6.6600675e-39
-0.322714 0.088888399 0.109229 5.8353473e-39
-0.32237101 0.090091601 0.1096 5.7442293e-39
-0.32229701 0.091444999 0.10974 5.8357089e-39
-0.32249099 0.092953503 0.109649 7.4019472e-39
-0.32241699 0.094310403 0.10979 7.4026702e-39
-0.32369599 0.096461304 0.108769 7.8596869e-39
-0.32416701 0.098151699 0.108443 9.5134461e-39
-0.32464001 0.099851198 0.108115 1.2732718e-38
-0.32539201 0.101727 0.107548 1.4847448e-38
-0.323147 0.084099799 0.106787 1.4939284e-38
-0.32253101 0.085165501 0.107397 1.2270302e-38
-0.32191801 0.086227 0.108004 7.5791385e-39
-0.321576 0.087431602 0.108377 6.1115699e-39
-0.32123399 0.088634297 0.108748 5.9271814e-39
-0.32115999 0.089985304 0.108887 5.6523938e-39
-0.32135201 0.091489397 0.108795 6.5721935e-39
-0.32127801 0.092843898 0.108935 8.1391521e-39
-0.32147101 0.094355203 0.108843 7.7674941e-39
-0.32274401 0.096506402 0.107817 8.5039745e-39
-0.32348499 0.098359302 0.107252 1.1904042e-38
-0.32395601 0.100061 0.10692 1.4386833e-38
-0.32166001 0.083855599 0.106311 1.3467758e-38
-0.321049 0.084919497 0.10692 8.590415e-39
-0.32070699 0.086124897 0.107294 6.2030466e-39
-0.320366 0.0873283 0.107666 6.0204518e-39
-0.32002601 0.088529803 0.108037 5.8360634e-39
-0.319951 0.0898792 0.108176 5.7453097e-39
-0.320142 0.091381498 0.108083 7.9540377e-39
-0.320333 0.0928884 0.10799 7.4012353e-39
-0.32052401 0.094399802 0.107897 8.1355521e-39
-0.32206199 0.096711397 0.106628 1.0248849e-38
-0.32307401 0.098730497 0.105819 1.3468121e-38
-0.32327101 0.100272 0.105722 1.5122956e-38
-0.32078901 0.082546502 0.105226 1.4295716e-38
-0.32018 0.083612598 0.105837 1.0800209e-38
-0.319839 0.084818803 0.106211 6.9370061e-39
-0.319498 0.086023003 0.106584 5.8364235e-39
-0.319159 0.087225199 0.106957 5.9275401e-39
-0.31882 0.088425502 0.107328 5.8357061e-39
-0.31874499 0.089773402 0.107467 6.5736284e-39
-0.31893399 0.091273896 0.107373 7.8643588e-39
-0.319123 0.092779003 0.107278 7.6752956e-39
-0.31957799 0.094444603 0.10695 8.6876455e-39
-0.321648 0.097077601 0.105197 1.2457207e-38
-0.32238701 0.098939501 0.10462 1.4571581e-38
-0.31931099 0.082306497 0.104754 1.2730198e-38
-0.31897101 0.083513498 0.105129 8.0379629e-39
-0.31863099 0.084718399 0.105503 6.1112153e-39
-0.31829199 0.085921399 0.105877 5.9279017e-39
-0.317954 0.087122403 0.106249 5.8357061e-39
-0.31787899 0.088469498 0.106387 6.1130118e-39
-0.31780401 0.089817598 0.106525 7.7692905e-39
-0.31799099 0.091318302 0.10643 7.1228519e-39
-0.31817901 0.092823498 0.106334 8.4121348e-39
-0.31863099 0.094489299 0.106003 1.1443428e-38
-0.320692 0.0971229 0.104241 1.4111328e-38
-0.32169899 0.0991491 0.103418 1.50304e-38
-0.31817901 0.0808613 0.10391 1.4020922e-38
-0.31810299 0.082208797 0.104048 9.7893015e-39
-0.31776401 0.083414502 0.104423 6.5700299e-39
-0.31742701 0.084618203 0.104797 5.9279031e-39
-0.31708899 0.085819997 0.105171 5.8360648e-39
-0.31701401 0.087166302 0.105308 5.9282604e-39
-0.31693801 0.088513598 0.105446 6.8502167e-39
-0.316863 0.089861803 0.105584 7.4945043e-39
-0.316787 0.091210902 0.105722 8.0419174e-39
-0.316973 0.092714302 0.105625 9.0539155e-39
-0.31768501 0.094534002 0.105056 1.3377001e-38
-0.320815 0.097815402 0.102315 1.5122955e-38
-0.31705001 0.079420403 0.103069 1.4940001e-38
-0.31697401 0.080765396 0.103206 1.1811838e-38
-0.31663701 0.081970602 0.103581 7.5794973e-39
-0.31656101 0.083315797 0.103718 6.0193798e-39
-0.31622499 0.084518299 0.104093 5.8360676e-39
-0.316149 0.085863799 0.10423 5.927543e-39
-0.316073 0.087210298 0.104367 6.5725508e-39
-0.315997 0.088557601 0.104505 7.7707283e-39
-0.31592101 0.089905903 0.104642 7.3068789e-39
-0.315846 0.091255203 0.10478 8.5976037e-39
-0.31577 0.0926053 0.104918 1.2454695e-38
-0.31584799 0.079326101 0.102367 1.2914591e-38
-0.315512 0.0805308 0.102742 8.406744e-39
-0.31543601 0.081873603 0.102879 6.294522e-39
-0.31536001 0.0832173 0.103015 5.927543e-39
-0.31528401 0.084562004 0.103152 5.8360676e-39
-0.31494999 0.085762702 0.103526 6.4799951e-39
-0.31487399 0.087107599 0.103663 7.4012325e-39
-0.31479701 0.088453501 0.1038 7.217923e-39
-0.31498 0.0899501 0.1037 8.4099796e-39
-0.314904 0.091299497 0.103838 1.0708033e-38
-0.314827 0.092649698 0.103975 1.4297515e-38
-0.31498399 0.078026697 0.10129 1.4482619e-38
-0.31464899 0.079232097 0.101666 1.0434305e-38
-0.31457299 0.080574103 0.101802 7.0292046e-39
-0.31449699 0.0819171 0.101938 6.1115727e-39
-0.314163 0.083119102 0.102314 6.019377e-39
-0.31408599 0.0844623 0.10245 6.1115755e-39
-0.31400999 0.0858064 0.102586 6.9416907e-39
-0.313934 0.087151498 0.102723 7.9554783e-39
-0.31385699 0.088497497 0.10286 7.5834644e-39
-0.31403801 0.089994296 0.102758 8.5986855e-39
-0.31396201 0.091343701 0.102895 1.3930525e-38
-0.313786 0.077934198 0.10059 1.254617e-38
-0.31371 0.079275399 0.100726 8.0390405e-39
-0.31363299 0.080617502 0.100862 6.3870778e-39
-0.31330001 0.081820302 0.101238 6.1112125e-39
-0.31322399 0.083162703 0.101374 5.9279017e-39
-0.31289101 0.084362902 0.10175 6.6643877e-39
-0.312814 0.085705496 0.101885 7.9529615e-39
-0.312994 0.087195396 0.101783 7.6753027e-39
-0.31291699 0.0885415 0.101919 9.0549847e-39
-0.313097 0.090038501 0.101816 1.1811852e-38
-0.312924 0.076636903 0.099515602 1.3561034e-38
-0.31284699 0.0779773 0.099651001 9.3283318e-39
-0.31251499 0.079181597 0.100028 6.845535e-39
-0.31243801 0.080522202 0.100164 6.2034054e-39
-0.31210601 0.081723802 0.10054 6.1108524e-39
-0.311775 0.082923397 0.100915 6.2959625e-39
-0.31169799 0.084263697 0.101051 7.1260805e-39
-0.311876 0.085749201 0.100946 7.7700094e-39
-0.31205401 0.087239303 0.100842 8.2259499e-39
-0.312062 0.075340398 0.0984414 1.5125471e-38
-0.31198499 0.076679997 0.098576397 1.1260106e-38
-0.31165299 0.077885002 0.098954298 7.212877e-39
-0.31157601 0.079224803 0.099089399 6.0200959e-39
-0.31124499 0.080427103 0.099466398 6.0197344e-39
-0.31091499 0.081627503 0.099842697 6.1115713e-39
-0.31083801 0.082966901 0.099977702 6.8487762e-39
-0.310761 0.084307201 0.100113 7.9536776e-39
-0.31093699 0.085793003 0.100007 7.4923421e-39
-0.311124 0.075383298 0.097502299 1.2729846e-38
-0.31079301 0.0765891 0.097881101 8.3149071e-39
-0.31071499 0.077928104 0.0980158 6.3867162e-39
-0.310132 0.078994602 0.098636404 5.9275444e-39
-0.31005499 0.080332302 0.098770797 5.9279045e-39
-0.309726 0.081531502 0.099147201 6.5721907e-39
-0.309901 0.083010398 0.099040098 7.125726e-39
-0.30982301 0.084350802 0.099174798 7.4934267e-39
-0.31025001 0.0859816 0.098825403 8.6862022e-39
-0.31026301 0.074087404 0.096428797 1.4391506e-38
-0.31018499 0.075426303 0.096563101 9.8814957e-39
-0.30985501 0.076632001 0.0969427 6.845172e-39
-0.30927399 0.077700898 0.097565502 6.1119272e-39
-0.308945 0.0789015 0.097942799 5.9275415e-39
-0.30886799 0.080237702 0.098076798 6.0201001e-39
-0.30879 0.081574798 0.098210901 7.0338863e-39
-0.308963 0.083053797 0.098102301 7.7703667e-39
-0.30913699 0.084537402 0.097993702 7.5838245e-39
-1.01842 0.43655401 -0.599558 1.6414408e-38
-0.309324 0.0741302 0.095489703 1.2178469e-38
-0.30899501 0.075336799 0.095870301 7.7638927e-39
-0.308415 0.076407902 0.096495204 6.2030452e-39
-0.308088 0.077609196 0.096873403 6.0190169e-39
-0.30801001 0.078944601 0.097006902 6.0190211e-39
-0.30793199 0.0802809 0.097140603 6.6643877e-39
-0.307854 0.0816181 0.0972744 7.4005122e-39
-0.30802599 0.083097301 0.097164497 7.4919848e-39
-0.30844799 0.084724396 0.096809499 9.2393703e-39
-0.308135 0.074042097 0.094798401 8.6840498e-39
-0.307309 0.074983999 0.0956714 6.4778343e-39
-0.30698201 0.076184802 0.096049704 6.0193742e-39
-0.306905 0.0775178 0.096182697 5.9271814e-39
-0.30682701 0.078851603 0.096315898 6.2041298e-39
-0.30699599 0.080324098 0.0962044 6.9427711e-39
-0.30716699 0.0818009 0.096092701 7.4934253e-39
-0.30733699 0.083282299 0.095980898 7.9497273e-39
-0.307758 0.084911898 0.095622301 9.8847426e-39
-0.30645201 0.073693901 0.094603598 7.0295619e-39
-0.30588001 0.074764498 0.095228598 6.0186568e-39
-0.30580199 0.076095097 0.095361099 5.9268199e-39
-0.30597001 0.0775607 0.095248103 6.0197358e-39
-0.30589199 0.078894697 0.095380902 6.9416893e-39
-0.30605999 0.080367297 0.095268004 7.4930666e-39
-0.30647701 0.0819842 0.094908103 7.3090341e-39
-0.306647 0.0834677 0.0947944 9.4244833e-39
-0.30681601 0.0849557 0.094680503 1.3191538e-38
-0.30559599 0.072404601 0.093536302 8.3149099e-39
-0.30380699 0.072834797 0.095390297 6.2948821e-39
-0.30397201 0.0742862 0.095277503 6.0190141e-39
-0.304625 0.076005504 0.094673902 6.0193742e-39
-0.304546 0.077335499 0.094806001 6.572548e-39
-0.304957 0.078937702 0.094445802 7.1253645e-39
-0.30537099 0.080548503 0.094083898 7.5838217e-39
-0.30578601 0.082167998 0.093720399 8.7766055e-39
-0.30595401 0.083653599 0.093604803 1.1260124e-38
-0.305875 0.084999397 0.093738496 1.466522e-38
-0.302477 0.071304098 0.094821297 6.8458937e-39
-0.30239901 0.072622098 0.094951898 6.0186568e-39
-0.302802 0.074199103 0.094593897 6.0179393e-39
-0.302724 0.075521998 0.094724998 6.1115741e-39
-0.30361399 0.0773784 0.0938733 6.9427683e-39
-0.304023 0.078980803 0.093510501 7.5848993e-39
-0.30443299 0.080591798 0.093146101 7.3994332e-39
-0.30484599 0.082211502 0.092780001 9.5170348e-39
-0.305013 0.083697297 0.092662998 1.3561746e-38
-0.30493301 0.085043199 0.092796303 1.4757053e-38
-0.30139199 0.069905102 0.094011098 7.5816595e-39
-0.301314 0.071220703 0.094141103 6.1115713e-39
-0.301236 0.072537199 0.094271198 5.9264625e-39
-0.30139601 0.0739832 0.094156899 5.83499e-39
-0.301797 0.075564504 0.093796901 6.6643877e-39
-0.30268201 0.077421203 0.092940398 7.1242855e-39
-0.30333099 0.079160102 0.092325799 7.4916218e-39
-0.303985 0.080912396 0.091706797 9.4212449e-39
-0.304151 0.082395799 0.091588102 1.2455778e-38
-0.30407101 0.083740897 0.091720998 1.4574461e-38
-0.30399099 0.085087001 0.091853999 1.4757053e-38
-0.30007401 0.068388097 0.093448497 8.3159889e-39
-0.29999501 0.069699802 0.093577802 6.386719e-39
-0.300154 0.071137398 0.0934624 6.1108496e-39
-0.30031201 0.072579302 0.093346901 6.0182994e-39
-0.30047101 0.074025601 0.093231097 6.2952493e-39
-0.30086899 0.075607002 0.092868596 6.8502181e-39
-0.30199 0.077598102 0.091757998 7.4005066e-39
-0.30263799 0.079339802 0.091137998 7.9500819e-39
-0.30329001 0.081095003 0.090513699 1.0527948e-38
-0.30320999 0.082439303 0.090646297 1.4023807e-38
-0.30312899 0.083784603 0.090778902 1.4942166e-38
-0.29923099 0.067119002 0.092398196 9.9726138e-39
-0.299153 0.068429798 0.092527099 7.0299248e-39
-0.29907399 0.069741599 0.092656098 6.1101349e-39
-0.29923099 0.071179397 0.092539303 5.9264625e-39
-0.29938799 0.072621502 0.092422403 6.0190197e-39
-0.299546 0.074067898 0.092305303 6.9409732e-39
-0.300179 0.075780801 0.091691896 7.3086739e-39
-0.30129701 0.077775396 0.090572603 7.0328045e-39
-0.30218601 0.079657301 0.089694001 9.9758494e-39
-0.302349 0.081138402 0.089572102 1.4205679e-38
-0.302268 0.082482897 0.089704297 1.5402421e-38
-0.29838899 0.065850496 0.091348402 1.190117e-38
-0.298311 0.067160599 0.091476999 7.7638955e-39
-0.29823199 0.068471603 0.091605604 6.386719e-39
-0.29815301 0.069783501 0.091734298 6.1094133e-39
-0.29830801 0.071221396 0.091616102 5.9264611e-39
-0.298464 0.072663598 0.091497697 6.5718306e-39
-0.29885599 0.074239299 0.091130801 6.9402571e-39
-0.29948699 0.075955003 0.090512298 7.307232e-39
-0.30060199 0.077953197 0.089384302 8.7769629e-39
-0.30124599 0.079700597 0.0887537 1.2549775e-38
-0.30140701 0.081181899 0.088630296 1.5863755e-38
-0.297782 0.064700097 0.090050504 1.28242e-38
-0.29746899 0.065892003 0.090427399 8.5000144e-39
-0.29739001 0.067202203 0.090555601 6.6629444e-39
-0.29731101 0.068513297 0.0906839 6.0186554e-39
-0.29723099 0.069825299 0.090812303 5.9250248e-39
-0.29738599 0.071263403 0.090692699 6.1108538e-39
-0.29754001 0.072705798 0.090572998 6.8502125e-39
-0.29792899 0.0742817 0.090203598 7.215758e-39
-0.298794 0.0761296 0.089329697 7.1239239e-39
-0.29966599 0.077996202 0.088447496 1.0621576e-38
-0.30006501 0.079606399 0.088068798 1.5220182e-38
-0.29694 0.063431397 0.089000598 1.4944314e-38
-0.296628 0.064623997 0.089378402 1.0247399e-38
-0.29654801 0.065933503 0.089506201 6.937732e-39
-0.296469 0.0672438 0.089634098 6.2023278e-39
-0.29638901 0.068554997 0.089762099 6.017575e-39
-0.29631001 0.069867201 0.089890197 5.9264611e-39
-0.29669499 0.071430899 0.089519501 6.8487734e-39
-0.29684901 0.072875299 0.0893979 7.0328073e-39
-0.29723701 0.0744536 0.089024998 7.0324458e-39
-0.29786199 0.0761723 0.088397503 9.696757e-39
-0.29872999 0.078039199 0.087510601 1.3836904e-38
-0.29864901 0.079375699 0.087641001 1.6231816e-38
-0.295867 0.062049098 0.0882027 1.5583936e-38
-0.29578701 0.063356802 0.088330001 1.1440555e-38
-0.29570699 0.064665399 0.088457398 7.6727761e-39
-0.29562801 0.065975003 0.0885849 6.2952423e-39
-0.29554799 0.067285404 0.088712499 5.9264597e-39
-0.295468 0.068596803 0.088840201 5.74243e-39
-0.29538801 0.069908999 0.088967897 6.2041284e-39
-0.295771 0.071473002 0.088594802 6.7573036e-39
-0.29592299 0.072917603 0.0884718 7.1232051e-39
-0.29630801 0.074496098 0.088096298 7.9497287e-39
-0.29692999 0.076214999 0.087465301 1.1723253e-38
-0.297084 0.077678397 0.087340303 1.5587528e-38
-0.297712 0.079418898 0.086703703 1.641477e-38
-0.294947 0.0620903 0.087282099 1.301182e-38
-0.29486701 0.0633981 0.087409101 8.4088922e-39
-0.29478699 0.064706802 0.087536201 6.4792692e-39
-0.294707 0.066016503 0.087663397 6.0193742e-39
-0.29462701 0.067327097 0.087790698 5.8346243e-39
-0.29454699 0.068638504 0.087918103 6.0193742e-39
-0.29469699 0.070074603 0.087794103 7.0342422e-39
-0.29484701 0.071515098 0.087669902 7.1239225e-39
-0.29499701 0.072959803 0.087545499 6.7562204e-39
-0.29514799 0.074408904 0.087420903 9.7918225e-39
-0.29553199 0.075993799 0.087042302 1.420676e-38
-0.295917 0.077587202 0.086661898 1.6230381e-38
-0.29410699 0.060824402 0.086234801 1.5309144e-38
-0.294027 0.062131502 0.086361401 1.0521113e-38
-0.29371801 0.063323602 0.086740799 6.7533407e-39
-0.29363701 0.064630903 0.086867496 6.0190183e-39
-0.29378599 0.066058002 0.086741798 5.9264597e-39
-0.29370499 0.067368701 0.0868688 5.8346243e-39
-0.293625 0.068680301 0.0869959 6.7555015e-39
-0.293773 0.070116602 0.086870499 6.9395383e-39
-0.29392201 0.071557097 0.086744897 7.1228435e-39
-0.29407099 0.073002003 0.086619101 9.0524722e-39
-0.29422101 0.074451298 0.086493097 1.2826001e-38
-0.29437 0.075904898 0.086366899 1.5679371e-38
-0.29451999 0.077362902 0.086240403 1.6322218e-38
-0.293268 0.0595592 0.085188098 1.5677567e-38
-0.292959 0.060752701 0.085568398 1.1533475e-38
-0.29287899 0.0620583 0.085694499 7.6720558e-39
-0.29279801 0.063364901 0.085820802 6.2026865e-39
-0.29271799 0.064672299 0.085947096 5.9268185e-39
-0.29263699 0.065980703 0.086073503 5.8342627e-39
-0.29278401 0.067410298 0.085946798 6.019377e-39
-0.29293099 0.068844303 0.085819699 6.9413305e-39
-0.29307899 0.070282601 0.085692503 7.1224834e-39
-0.29322699 0.071725197 0.085565098 7.3068775e-39
-0.293145 0.0730443 0.085692503 1.1448101e-38
-0.293293 0.074493699 0.085565098 1.540314e-38
-0.29344201 0.075947501 0.085437499 1.6322578e-38
-0.29212099 0.0594889 0.084523 1.3564625e-38
-0.29203999 0.060793798 0.084648803 9.0510176e-39
-0.291733 0.0619854 0.085029103 6.5696684e-39
-0.291879 0.063406102 0.084900603 6.0186568e-39
-0.291798 0.064713702 0.085026599 5.6505917e-39
-0.29194301 0.066141099 0.084898204 5.8349858e-39
-0.29186201 0.067451999 0.085024603 6.8491335e-39
-0.292236 0.069008797 0.084640697 7.0313682e-39
-0.292382 0.070449099 0.0845116 7.0313654e-39
-0.292301 0.071767397 0.0846387 1.0157011e-38
-0.29221901 0.073086597 0.084765799 1.4205327e-38
-0.292366 0.0745361 0.084637001 1.6138187e-38
-0.29105699 0.058116298 0.083734199 1.5493898e-38
-0.290977 0.059418801 0.083859399 1.0796628e-38
-0.290896 0.060722198 0.0839848 7.1206827e-39
-0.290815 0.062026501 0.084110104 6.2023278e-39
-0.29073399 0.063331798 0.084235601 6.0179365e-39
-0.290878 0.064755097 0.084105998 5.7424272e-39
-0.291022 0.066182598 0.083976202 6.2952423e-39
-0.290941 0.067493699 0.084102303 6.7569393e-39
-0.291311 0.069050699 0.083715901 6.938811e-39
-0.291457 0.070491098 0.083585396 8.2248737e-39
-0.29137501 0.0718095 0.083712101 1.2457937e-38
-0.29152 0.073256798 0.083581701 1.5586095e-38
-0.29143801 0.074578598 0.0837088 1.6138185e-38
-0.28999701 0.0567476 0.082947798 1.5770123e-38
-0.28991601 0.058047801 0.083072498 1.1995886e-38
-0.28983501 0.0593489 0.083197303 7.947205e-39
-0.289754 0.0606509 0.0833221 6.3856386e-39
-0.28989601 0.062067699 0.083191097 6.1101307e-39
-0.28981501 0.063372999 0.083316296 6.0168575e-39
-0.289958 0.0647965 0.0831853 5.9271814e-39
-0.29010001 0.066224203 0.083054103 6.66618e-39
-0.29001901 0.067535304 0.083179802 6.7558603e-39
-0.290387 0.069092497 0.082790896 6.7562204e-39
-0.29030499 0.070408598 0.082917102 1.0803809e-38
-0.29044899 0.071851701 0.082785502 1.4759211e-38
-0.29036599 0.073171102 0.082911998 1.5954513e-38
-0.28908101 0.056788199 0.0820309 1.4392226e-38
-0.289 0.0580885 0.082155302 9.694229e-39
-0.28891799 0.059389699 0.082279801 6.6615039e-39
-0.28883699 0.0606918 0.082404301 6.0179379e-39
-0.288755 0.061994798 0.082528897 5.8335467e-39
-0.28889599 0.063414201 0.082396798 5.8342655e-39
-0.28903699 0.064837903 0.082264401 6.5725494e-39
-0.289179 0.066265702 0.082131803 6.664029e-39
-0.28909701 0.067576997 0.082257196 6.6633059e-39
-0.28923801 0.069011599 0.082124598 9.4201729e-39
