# .PCD v0.7 - Point Cloud Data file format
VERSION 0.7
FIELDS x y z rgb
SIZE 4 4 4 4
TYPE F F F F
COUNT 1 1 1 1
WIDTH 1066
HEIGHT 1
VIEWPOINT 0 0 0 1 0 0 0
POINTS 1066
DATA ascii
-0.39114401 0.098855801 0.136953 1.5154295e-38
-0.39069301 0.100158 0.13733999 1.5063177e-38
-0.39062801 0.101638 0.137509 1.5249363e-38
-0.39017799 0.102937 0.137895 1.5250442e-38
-0.390113 0.104417 0.138064 1.5066053e-38
-0.38966399 0.105713 0.138448 1.4973502e-38
-0.38731799 0.106076 0.13989501 1.488023e-38
-0.38353199 0.105704 0.14214499 1.4973496e-38
-0.37252101 0.10168 0.14843 1.5066409e-38
-0.37077299 0.102224 0.14953201 1.515645e-38
-0.36971101 0.103101 0.15025 1.515645e-38
-0.369317 0.104315 0.150594 1.5064257e-38
-0.368595 0.105354 0.15112101 1.5340841e-38
-0.368204 0.106562 0.151462 1.5432675e-38
-0.36814401 0.107943 0.15162 1.5339043e-38
-0.36775401 0.109149 0.151961 1.5337966e-38
-0.36736599 0.110353 0.152301 1.5339046e-38
-0.36665201 0.111375 0.152821 1.5246487e-38
-0.36626601 0.112574 0.15315901 1.5248638e-38
-0.36555699 0.11359 0.153676 1.5798934e-38
-0.36421099 0.11424 0.15454499 1.5340838e-38
-0.36319399 0.115065 0.15523 1.5340482e-38
-0.363134 0.116431 0.155386 1.5433038e-38
-0.35253099 0.115733 0.161718 1.5709974e-38
-0.346751 0.113612 0.16501699 1.6169153e-38
-0.34257099 0.1124 0.167431 1.6354982e-38
-0.34037301 0.112357 0.168753 1.6447177e-38
-0.33795199 0.112154 0.170195 1.6446817e-38
-0.33763701 0.113238 0.170479 1.6447173e-38
-0.33706501 0.114157 0.17090601 1.6263504e-38
-0.33701 0.1154 0.171048 1.589544e-38
-0.33618301 0.11615 0.17161199 1.5527385e-38
-0.33587199 0.117225 0.171894 1.6814882e-38
-0.33607399 0.118632 0.171896 1.9667542e-38
-0.33627599 0.120042 0.17189801 2.2337611e-38
-0.33673599 0.121626 0.17175999 2.3347802e-38
-0.33668101 0.122873 0.171902 2.3438562e-38
-0.33688399 0.124295 0.171905 2.2522378e-38
-0.417844 0.072483599 0.116748 1.7828673e-38
-0.41777399 0.074071199 0.116929 1.8468274e-38
-0.417245 0.075500399 0.117376 1.856047e-38
-0.41717401 0.077087902 0.117557 1.8379314e-38
-0.41710401 0.078676499 0.117738 1.7459167e-38
-0.416576 0.080100298 0.118183 1.6631927e-38
-0.41604999 0.081520997 0.118627 1.5989079e-38
-0.41416901 0.082433201 0.119851 1.5529903e-38
-0.41320199 0.083673298 0.120548 1.5343715e-38
-0.41268599 0.085078098 0.120985 1.5343352e-38
-0.41172701 0.0863076 0.121675 1.5618856e-38
-0.41077301 0.087531202 0.122362 1.6170946e-38
-0.40895101 0.088400699 0.123547 1.6355696e-38
-0.406719 0.089088 0.124964 1.5987996e-38
-0.40494201 0.089940101 0.12612 1.5251158e-38
-0.40360501 0.090957902 0.127022 1.469835e-38
-0.39938399 0.090755403 0.129572 1.4422486e-38
-0.398094 0.0917539 0.13044401 1.442177e-38
-0.39323199 0.091207899 0.13335399 1.4696555e-38
-0.39277399 0.092526399 0.13374799 1.479162e-38
-0.392317 0.093842402 0.134141 1.515825e-38
-0.39186099 0.095155902 0.134533 1.5343717e-38
-0.391406 0.096467003 0.13492399 1.5431236e-38
-0.39095199 0.097775601 0.135314 1.5063178e-38
-0.39011401 0.098903999 0.135922 1.5063177e-38
-0.390048 0.100385 0.13609201 1.4970985e-38
-0.38959801 0.101687 0.13647901 1.4883817e-38
-0.38953301 0.103168 0.136648 1.5067848e-38
-0.37263301 0.100836 0.146726 1.5066408e-38
-0.36987099 0.100882 0.14841001 1.5156807e-38
-0.36914301 0.101932 0.14894401 1.5247924e-38
-0.36875001 0.103147 0.14929 1.5248281e-38
-0.36835799 0.104361 0.149634 1.5615624e-38
-0.36763701 0.1054 0.15016299 1.607696e-38
-0.367248 0.106609 0.150506 1.5892213e-38
-0.36718699 0.10799 0.150663 1.5523074e-38
-0.36679801 0.109195 0.151005 1.5338686e-38
-0.36640999 0.110399 0.151346 1.5339403e-38
-0.365374 0.111244 0.15205 1.5339758e-38
-0.36499 0.112441 0.15238801 1.5250076e-38
-0.36428499 0.113456 0.152905 1.5800369e-38
-0.36262801 0.113926 0.153954 1.543411e-38
-0.36225101 0.115112 0.154287 1.5249367e-38
-0.361559 0.116113 0.15479501 1.534192e-38
-0.36087099 0.117111 0.155301 1.5435189e-38
-0.35863599 0.117196 0.15666801 1.5527383e-38
-0.35493299 0.116388 0.158851 1.5711053e-38
-0.351623 0.115778 0.16081101 1.6261706e-38
-0.345864 0.113656 0.16413 1.6721602e-38
-0.342509 0.112937 0.166108 1.6907072e-38
-0.34003699 0.112726 0.167593 1.6723404e-38
-0.33787501 0.112681 0.168905 1.6539013e-38
-0.33704001 0.113442 0.169479 1.6447533e-38
-0.33672601 0.114525 0.169765 1.6356058e-38
-0.33641201 0.115607 0.17005 1.5894725e-38
-0.336099 0.116686 0.170334 1.57107e-38
-0.33527499 0.117434 0.170901 1.7919072e-38
-0.33547601 0.118842 0.170902 2.0772452e-38
-0.33593401 0.120422 0.170761 2.279751e-38
-0.33613601 0.12184 0.170761 2.3439278e-38
-0.336339 0.123261 0.170762 2.3437846e-38
-0.41672999 0.0725329 0.115633 1.7552091e-38
-0.41666001 0.074120604 0.115814 1.8102011e-38
-0.416132 0.075549901 0.116262 1.7919058e-38
-0.41606101 0.0771375 0.116443 1.7551003e-38
-0.41599 0.078726202 0.116624 1.6815597e-38
-0.41591999 0.080316 0.116805 1.6357137e-38
-0.41493899 0.081570901 0.117515 1.5897961e-38
-0.413064 0.082483001 0.118745 1.5529184e-38
-0.41209999 0.083723098 0.119445 1.561994e-38
-0.41113999 0.084957197 0.12014 1.598692e-38
-0.41062799 0.086357303 0.120576 1.6539726e-38
-0.409677 0.087580897 0.121266 1.6908146e-38
-0.40786099 0.088450298 0.122456 1.6723396e-38
-0.40563601 0.089137398 0.123881 1.5802888e-38
-0.40386501 0.089989401 0.12504201 1.4975293e-38
-0.40211299 0.090833001 0.12619001 1.4607233e-38
-0.398734 0.090976 0.128277 1.4331371e-38
-0.39173701 0.092574403 0.13270999 1.5344065e-38
-0.39128101 0.093890503 0.133104 1.5619223e-38
-0.39082599 0.095204003 0.133497 1.5434123e-38
-0.39037201 0.096515097 0.133889 1.5248288e-38
-0.38991901 0.097823799 0.13428099 1.4971701e-38
-0.389853 0.0993082 0.13445 1.5245413e-38
-0.38901699 0.100434 0.13506 1.5155016e-38
-0.388951 0.101916 0.13522901 1.4976014e-38
-0.37165999 0.100882 0.145753 1.5341919e-38
-0.36824399 0.100593 0.147825 1.5248648e-38
-0.36785099 0.101809 0.14817099 1.5156807e-38
-0.36779001 0.103193 0.148329 1.5340115e-38
-0.36706901 0.104236 0.14886101 1.653613e-38
-0.36668 0.105446 0.149205 1.6905991e-38
-0.36629099 0.106655 0.14954901 1.6444659e-38
-0.366229 0.108036 0.14970601 1.5799298e-38
-0.36584201 0.109242 0.150048 1.5431956e-38
-0.365455 0.110445 0.15039 1.5432315e-38
-0.36442199 0.11129 0.151097 1.5431958e-38
-0.364039 0.112487 0.151436 1.5431956e-38
-0.36206099 0.112785 0.152676 1.5710335e-38
-0.361368 0.113793 0.15318801 1.5434469e-38
-0.360993 0.114977 0.153522 1.5342276e-38
-0.359992 0.115797 0.15420701 1.5343712e-38
-0.35776401 0.115892 0.155582 1.5436627e-38
-0.35407299 0.115102 0.15778001 1.5712854e-38
-0.353122 0.115903 0.15843301 1.6080907e-38
-0.35071599 0.115823 0.159903 1.6906346e-38
-0.344699 0.113532 0.163398 1.7274412e-38
-0.34190401 0.113146 0.16508 1.7182938e-38
-0.33970001 0.113096 0.166428 1.6815238e-38
-0.33753601 0.113048 0.167753 1.6447538e-38
-0.336959 0.113973 0.16818701 1.6264225e-38
-0.336126 0.114731 0.168764 1.6264947e-38
-0.33581299 0.115814 0.16904999 1.5804329e-38
-0.3355 0.116895 0.16933499 1.6447538e-38
-0.335188 0.117974 0.16962001 1.9391318e-38
-0.33513299 0.11922 0.169762 2.1876637e-38
-0.335334 0.120635 0.169761 2.3164854e-38
-0.33579299 0.122226 0.169617 2.3439285e-38
-0.33599499 0.123651 0.169616 2.3254905e-38
-0.41516101 0.072427101 0.114788 1.7368055e-38
-0.41508999 0.074012697 0.114968 1.7642841e-38
-0.41501901 0.075599402 0.115148 1.7367695e-38
-0.41494799 0.077187099 0.115329 1.6815601e-38
-0.414877 0.078776002 0.115509 1.6357496e-38
-0.41480601 0.080365904 0.11569 1.6081268e-38
-0.413827 0.081620798 0.116403 1.5712856e-38
-0.41195899 0.082532696 0.117639 1.5712135e-38
-0.410997 0.083772801 0.118341 1.6263505e-38
-0.40959999 0.084836602 0.119298 1.7091461e-38
-0.40909001 0.086235099 0.119734 1.745952e-38
-0.408144 0.087457404 0.120425 1.7092537e-38
-0.40633801 0.088326402 0.121618 1.6263861e-38
-0.404127 0.089013502 0.123046 1.5342636e-38
-0.402787 0.090038598 0.123964 1.4791263e-38
-0.401041 0.0908821 0.125118 1.4607592e-38
-0.39024401 0.0939385 0.13206699 1.5895807e-38
-0.38979 0.095252201 0.13246199 1.5617069e-38
-0.389337 0.096563302 0.132855 1.5431599e-38
-0.38927099 0.098048799 0.13302299 1.5154655e-38
-0.38881901 0.099356502 0.133416 1.5245413e-38
-0.36695299 0.100472 0.147054 1.5249361e-38
-0.366891 0.101855 0.147211 1.4974572e-38
-0.36649999 0.103069 0.14755701 1.571033e-38
-0.36611101 0.104282 0.147903 1.7550634e-38
-0.365722 0.105492 0.148248 1.7457362e-38
-0.365334 0.106701 0.148592 1.6720164e-38
-0.36527199 0.108082 0.14874899 1.6075522e-38
-0.36456099 0.109112 0.149278 1.570818e-38
-0.36417601 0.110314 0.14962 1.5616705e-38
-0.36314899 0.111159 0.150328 1.561599e-38
-0.361494 0.111643 0.15139499 1.5615986e-38
-0.36080101 0.112654 0.15191101 1.5710696e-38
-0.360111 0.113661 0.15242399 1.5618141e-38
-0.35973701 0.114844 0.152758 1.5618143e-38
-0.35843199 0.115483 0.153621 1.5803607e-38
-0.35531199 0.115047 0.155516 1.6080551e-38
-0.352265 0.114622 0.15736599 1.6357137e-38
-0.35161701 0.115597 0.157851 1.6724839e-38
-0.34980801 0.115868 0.158995 1.7091459e-38
-0.34381199 0.113576 0.16251101 1.727513e-38
-0.34102601 0.11319 0.164203 1.7091105e-38
-0.33909601 0.113303 0.165409 1.6631926e-38
-0.33719599 0.113416 0.166595 1.6263868e-38
-0.33635801 0.114179 0.16718 1.6081279e-38
-0.33578399 0.115102 0.167614 1.6083075e-38
-0.33521199 0.116022 0.168047 1.5990519e-38
-0.33489999 0.117104 0.16833401 1.7735754e-38
-0.33484399 0.118351 0.168476 2.0864646e-38
-0.33478799 0.119599 0.16861799 2.2612763e-38
-0.335246 0.121189 0.16847099 2.325633e-38
-0.33519 0.122441 0.168613 2.3164142e-38
-0.41359499 0.072321601 0.113944 1.6908157e-38
-0.413524 0.073905103 0.114124 1.6815964e-38
-0.41345301 0.075489603 0.114303 1.6723766e-38
-0.41383401 0.077236697 0.114214 1.6265669e-38
-0.41376299 0.078825697 0.114394 1.5714294e-38
-0.413239 0.080249697 0.114843 1.5806843e-38
-0.412716 0.081670702 0.115291 1.5897965e-38
-0.410853 0.082582399 0.116533 1.690707e-38
-0.40945199 0.083653398 0.1175 1.7827583e-38
-0.408501 0.084886298 0.118199 1.8103089e-38
-0.40799201 0.086284801 0.118636 1.7735744e-38
-0.40661499 0.087334298 0.119586 1.681631e-38
-0.40482 0.088202901 0.120782 1.5712492e-38
-0.401779 0.088545799 0.122711 1.4974937e-38
-0.40045401 0.089568697 0.123626 1.4607235e-38
-0.40038499 0.091105402 0.123801 1.4607592e-38
-0.38920799 0.093986601 0.13102999 1.5895446e-38
-0.38837001 0.095127001 0.131651 1.5707823e-38
-0.38830301 0.0966115 0.13181999 1.5430886e-38
-0.38823599 0.098097101 0.131988 1.5247571e-38
-0.36599299 0.100517 0.146093 1.5066771e-38
-0.365603 0.101733 0.146441 1.506749e-38
-0.36521399 0.102946 0.146787 1.7366603e-38
-0.36482599 0.104157 0.14713299 1.8286041e-38
-0.36443901 0.105366 0.147478 1.773287e-38
-0.36437699 0.106747 0.147634 1.690384e-38
-0.36399099 0.107953 0.14797901 1.6259912e-38
-0.36360601 0.109158 0.148322 1.5984045e-38
-0.36289999 0.110183 0.14885101 1.5984764e-38
-0.36219701 0.111205 0.149377 1.5984764e-38
-0.36023301 0.111512 0.15063 1.5800733e-38
-0.35923001 0.112345 0.151328 1.5893648e-38
-0.35885701 0.113528 0.15166201 1.6077683e-38
-0.358174 0.114531 0.152174 1.6078759e-38
-0.35626599 0.114813 0.15339001 1.6446814e-38
-0.35378501 0.114739 0.154935 1.6723756e-38
-0.35076201 0.114318 0.15678699 1.7000341e-38
-0.348959 0.114597 0.157938 1.7367685e-38
-0.34576499 0.114017 0.15988401 1.7275489e-38
-0.342926 0.11362 0.161624 1.690815e-38
-0.34014899 0.113233 0.163326 1.6723403e-38
-0.33849001 0.113511 0.164386 1.6355702e-38
-0.33659199 0.113623 0.165582 1.6081276e-38
-0.33549601 0.114223 0.166318 1.5899043e-38
-0.33518201 0.11531 0.16660701 1.5991959e-38
-0.33486801 0.116395 0.166896 1.6544056e-38
-0.33455399 0.117479 0.167184 1.9299121e-38
-0.33449799 0.118729 0.167326 2.1786241e-38
-0.33444199 0.11998 0.167468 2.2888988e-38
-0.33438599 0.121232 0.16761 2.3163778e-38
-0.33458599 0.122657 0.167606 2.2156472e-38
-0.411585 0.072062597 0.113373 1.6356422e-38
-0.411513 0.073641703 0.113552 1.6172032e-38
-0.41189101 0.075380199 0.113461 1.6171674e-38
-0.412269 0.077124797 0.11337 1.5989079e-38
-0.41219699 0.078711599 0.11355 1.608091e-38
-0.41167599 0.080133803 0.113999 1.6816677e-38
-0.410263 0.081219502 0.114982 1.7551719e-38
-0.40930399 0.0824643 0.115692 1.8654828e-38
-0.408351 0.083703101 0.116398 1.8930694e-38
-0.40740201 0.084935904 0.1171 1.8287483e-38
-0.40645999 0.086162902 0.117798 1.7368042e-38
-0.40509099 0.087211497 0.11875 1.617023e-38
-0.40161201 0.087393798 0.120958 1.5250802e-38
-0.40028399 0.088423498 0.121883 1.4607596e-38
-0.39938101 0.089617804 0.122553 1.4423922e-38
-0.39931199 0.091154702 0.122727 1.4791976e-38
-0.38823801 0.092548102 0.129825 1.5988712e-38
-0.38740301 0.093691401 0.130449 1.5709617e-38
-0.38733599 0.095175102 0.13061699 1.5523434e-38
-0.386886 0.096484803 0.13101099 1.5247576e-38
-0.38681901 0.097968601 0.131179 1.5249007e-38
-0.36470601 0.100397 0.14532501 1.5252594e-38
-0.36464399 0.101779 0.14548101 1.6170951e-38
-0.36425599 0.102992 0.14582799 1.8746299e-38
-0.363868 0.104203 0.146175 1.9202595e-38
-0.363482 0.105412 0.146521 1.8192409e-38
-0.36342001 0.106793 0.146677 1.727154e-38
-0.36303401 0.108 0.14702199 1.6719808e-38
-0.36232901 0.109028 0.147554 1.6536853e-38
-0.36194599 0.11023 0.14789701 1.6537211e-38
-0.35997799 0.110544 0.14916401 1.6353181e-38
-0.35897401 0.111381 0.149868 1.6076957e-38
-0.35797799 0.112214 0.150567 1.6168795e-38
-0.357297 0.113218 0.151081 1.6354982e-38
-0.356619 0.114219 0.151593 1.6356058e-38
-0.35472599 0.114503 0.15281001 1.6814154e-38
-0.35226399 0.114432 0.154356 1.7274769e-38
-0.34926599 0.114016 0.156211 1.7551714e-38
-0.34719101 0.114125 0.157528 1.7551716e-38
-0.344309 0.113722 0.159311 1.7000344e-38
-0.341492 0.11333 0.161054 1.6540445e-38
-0.33927199 0.113277 0.162449 1.6357133e-38
-0.33761799 0.113555 0.163515 1.5898324e-38
-0.335987 0.11383 0.16456699 1.5715016e-38
-0.334892 0.11443 0.165307 1.5622461e-38
-0.33457801 0.115518 0.16559801 1.6082362e-38
-0.33426401 0.116604 0.165888 1.7646448e-38
-0.33395001 0.117689 0.166177 2.0679536e-38
-0.33389401 0.118941 0.166319 2.2521289e-38
-0.333837 0.120194 0.16646101 2.2980465e-38
-0.333781 0.121447 0.166602 2.2705324e-38
-0.40914199 0.071652502 0.113074 1.6540814e-38
-0.409071 0.073224902 0.113252 1.6264229e-38
-0.40944299 0.074955501 0.113161 1.6448619e-38
-0.409816 0.076692097 0.11307 1.7000346e-38
-0.40974399 0.078272201 0.113248 1.78283e-38
-0.409228 0.0796891 0.113695 1.8747744e-38
-0.40827101 0.080937304 0.114408 1.9115087e-38
-0.40775999 0.082346499 0.114852 1.9206567e-38
-0.407249 0.083752804 0.115295 1.8564434e-38
-0.406304 0.084985599 0.116 1.7460606e-38
-0.40536401 0.086212501 0.116701 1.6356417e-38
-0.40314201 0.086917497 0.118173 1.5343355e-38
-0.40053201 0.087443002 0.119878 1.4790548e-38
-0.40004301 0.088816099 0.120304 1.451648e-38
-0.399138 0.090012804 0.12098 1.4700865e-38
-0.398238 0.091203898 0.121652 1.543626e-38
-0.394896 0.0913435 0.12379 1.6264936e-38
-0.38726899 0.091110297 0.128621 1.6356774e-38
-0.38643599 0.092256598 0.12924699 1.5711053e-38
-0.38598701 0.093568303 0.12964299 1.5523789e-38
-0.38591999 0.095050201 0.12981001 1.5431955e-38
-0.38585299 0.096533 0.129977 1.5155734e-38
-0.38578501 0.098016903 0.130145 1.5156809e-38
-0.363747 0.100442 0.144365 1.5894008e-38
-0.36335999 0.101656 0.144713 1.8193125e-38
-0.36329699 0.103038 0.144869 1.9756139e-38
-0.36291099 0.104249 0.145217 1.9662493e-38
-0.36252499 0.105458 0.145564 1.8835969e-38
-0.36246201 0.106839 0.14572001 1.8099133e-38
-0.36175701 0.107871 0.146255 1.7547761e-38
-0.36137399 0.109075 0.14659899 1.7271537e-38
-0.36004001 0.109747 0.147505 1.6903834e-38
-0.35903099 0.11059 0.14821699 1.6537209e-38
-0.35802999 0.111427 0.14892399 1.6354259e-38
-0.35703701 0.11226 0.149626 1.6353903e-38
-0.35635799 0.113264 0.150142 1.6540804e-38
-0.35568199 0.114265 0.150656 1.6540446e-38
-0.35379499 0.114549 0.15188 1.7182216e-38
-0.35373399 0.115897 0.152032 1.7642831e-38
-0.35069099 0.11546 0.15393101 1.7735388e-38
-0.34771699 0.115034 0.15578599 1.7367689e-38
-0.34341401 0.113767 0.158416 1.6631927e-38
-0.33979401 0.112874 0.16064399 1.617239e-38
-0.338128 0.113155 0.161727 1.6080912e-38
-0.33674699 0.113599 0.162643 1.5804693e-38
-0.33511999 0.113874 0.1637 1.5714293e-38
-0.33454499 0.114801 0.16414399 1.5897965e-38
-0.33397201 0.115726 0.16458599 1.7000357e-38
-0.33365801 0.116814 0.164877 1.9207651e-38
-0.333345 0.1179 0.165168 2.1692612e-38
-0.33328801 0.119153 0.165309 2.2886835e-38
-0.333231 0.120407 0.16545101 2.2980108e-38
-0.33317399 0.121662 0.165593 2.1605465e-38
-0.407159 0.071397297 0.112509 1.7919428e-38
-0.407087 0.072965398 0.112686 1.7643919e-38
-0.40701601 0.074534401 0.112863 1.819529e-38
-0.407823 0.076422103 0.112502 1.9115086e-38
-0.40775201 0.077997901 0.11268 1.9851207e-38
-0.40723899 0.079411201 0.113126 1.9943406e-38
-0.40672901 0.080821604 0.113571 1.9574988e-38
-0.40621901 0.0822291 0.114016 1.8839583e-38
-0.405276 0.083465301 0.114724 1.7460608e-38
-0.404771 0.084865198 0.115164 1.6264584e-38
-0.402978 0.085749596 0.116389 1.5710338e-38
-0.402053 0.086966999 0.117084 1.5158246e-38
-0.40113401 0.088178597 0.117774 1.4791982e-38
-0.39938101 0.089037903 0.118971 1.4977088e-38
-0.39757699 0.091427997 0.120328 1.6724476e-38
-0.39383399 0.091392301 0.122727 1.7275492e-38
-0.387454 0.090174198 0.126718 1.6817033e-38
-0.38547 0.090822503 0.12804601 1.6079835e-38
-0.38502201 0.092135303 0.128442 1.5800733e-38
-0.384197 0.093275398 0.129067 1.5707459e-38
-0.38413 0.094753399 0.129233 1.5430876e-38
-0.384819 0.096581198 0.128943 1.4971698e-38
-0.36278799 0.100488 0.143406 1.7089664e-38
-0.36240101 0.101702 0.143755 1.9940877e-38
-0.36201599 0.102914 0.14410301 2.058337e-38
-0.36163101 0.104125 0.14445101 2.0030558e-38
-0.361568 0.105505 0.14460599 1.9386984e-38
-0.361505 0.106885 0.14476199 1.8560107e-38
-0.36080199 0.107917 0.145299 1.8099851e-38
-0.36010101 0.108945 0.145834 1.7640316e-38
-0.35908899 0.109793 0.14655399 1.7088944e-38
-0.35808399 0.110636 0.14726999 1.6721962e-38
-0.357086 0.111473 0.14798 1.6447177e-38
-0.356096 0.112306 0.14868499 1.6539732e-38
-0.355418 0.11331 0.149203 1.6815954e-38
-0.35505 0.11449 0.149538 1.7183659e-38
-0.35498801 0.115848 0.149691 1.7642834e-38
-0.34447399 0.115007 0.156367 1.635642e-38
-0.338375 0.112587 0.160078 1.5989076e-38
-0.33698601 0.113034 0.161007 1.5805409e-38
-0.33561301 0.113478 0.161925 1.5620305e-38
-0.334254 0.113917 0.162834 1.5897241e-38
-0.333938 0.11501 0.163128 1.6448978e-38
-0.33336601 0.115935 0.163572 1.8012349e-38
-0.33279601 0.116857 0.164015 2.022108e-38
-0.33273801 0.118111 0.164156 2.2154663e-38
-0.33242601 0.119197 0.16444699 2.2980104e-38
-0.33236799 0.120451 0.164588 2.2520576e-38
-0.332311 0.121706 0.16473 1.9406815e-38
-0.40569401 0.069729701 0.111502 1.9576435e-38
-0.40475199 0.070992999 0.112216 2.0126362e-38
-0.404681 0.072554402 0.112392 1.9850493e-38
-0.40504301 0.074271999 0.112299 2.0310389e-38
-0.405406 0.075995497 0.112207 2.0678814e-38
-0.40577 0.077725098 0.112114 2.0770646e-38
-0.405698 0.079297602 0.112291 2.0035603e-38
-0.40518999 0.080706298 0.112737 1.8931787e-38
-0.40468299 0.082111999 0.113181 1.7735762e-38
-0.40417799 0.083514802 0.113624 1.6356424e-38
-0.40281299 0.084576003 0.114595 1.5711417e-38
-0.40188599 0.085799098 0.115296 1.5436268e-38
-0.40096399 0.087016501 0.115994 1.5344435e-38
-0.400893 0.088574298 0.116169 1.5619936e-38
-0.38959301 0.090071999 0.123608 1.773503e-38
-0.38450399 0.089389302 0.126845 1.70007e-38
-0.38367999 0.090536296 0.127474 1.6539726e-38
-0.382485 0.091510899 0.128328 1.6443942e-38
-0.38241699 0.092984103 0.12849399 1.6074089e-38
-0.38234901 0.094458297 0.128659 1.5522716e-38
-0.38303101 0.0962805 0.128369 1.5156091e-38
-0.361828 0.100534 0.142446 1.8929253e-38
-0.361442 0.101748 0.14279599 2.0953231e-38
-0.361058 0.10296 0.14314499 2.131841e-38
-0.36067399 0.104171 0.143494 2.0858154e-38
-0.36061099 0.105551 0.143649 2.0030911e-38
-0.36054701 0.106932 0.143804 1.9020365e-38
-0.359846 0.107964 0.144344 1.8467557e-38
-0.358832 0.108816 0.145071 1.7733233e-38
-0.35813901 0.109839 0.145604 1.6906709e-38
-0.35713699 0.110682 0.146322 1.672304e-38
-0.35645199 0.111696 0.14684901 1.6723043e-38
-0.35546201 0.112529 0.147559 1.6906712e-38
-0.354785 0.113534 0.14808001 1.7366967e-38
-0.354417 0.114715 0.148416 1.7734315e-38
-0.336963 0.1123 0.15951499 1.5896164e-38
-0.33584699 0.112913 0.16028801 1.5621381e-38
-0.334741 0.113521 0.161054 1.580469e-38
-0.33364499 0.114125 0.161814 1.6356777e-38
-0.33307201 0.115053 0.16226199 1.7276938e-38
-0.332757 0.116145 0.16255499 1.9208727e-38
-0.33218801 0.117067 0.163 2.104904e-38
-0.331875 0.118155 0.163293 2.2060674e-38
-0.33181801 0.11941 0.163434 2.2426581e-38
-0.33175999 0.120665 0.16357499 2.0962977e-38
-0.40372899 0.069480903 0.110944 2.1231996e-38
-0.403225 0.070891201 0.111389 2.1873762e-38
-0.403153 0.072450601 0.111564 2.1597894e-38
-0.403081 0.074011102 0.111739 2.1414224e-38
-0.40344 0.075729497 0.111645 2.0954688e-38
-0.40380001 0.077453896 0.111552 2.0310392e-38
-0.40372801 0.079021998 0.111728 1.9115454e-38
-0.40365499 0.080591202 0.111904 1.7828321e-38
-0.40315101 0.081995197 0.112348 1.6632656e-38
-0.40179101 0.083061904 0.113324 1.5896887e-38
-0.400866 0.084288403 0.114029 1.5805405e-38
-0.40037 0.0856786 0.114467 1.5806118e-38
-0.400298 0.087237597 0.114642 1.6448975e-38
-0.38271701 0.089106701 0.126277 1.7367685e-38
-0.38078099 0.089756399 0.12759399 1.7826139e-38
-0.380714 0.091224797 0.12775899 1.7548477e-38
-0.38064599 0.092694297 0.127923 1.671909e-38
-0.38057801 0.094164804 0.128088 1.5982969e-38
-0.381253 0.095981501 0.12779599 1.5708182e-38
-0.36086801 0.10058 0.141486 2.0492617e-38
-0.360484 0.101794 0.141837 2.1503166e-38
-0.3601 0.103006 0.142187 2.1777586e-38
-0.36003599 0.104387 0.142342 2.1501e-38
-0.359653 0.105597 0.142691 2.0491172e-38
-0.35958901 0.106978 0.142846 1.9387348e-38
-0.35889 0.10801 0.143388 1.8468993e-38
-0.35787901 0.108862 0.144118 1.7642472e-38
-0.35718799 0.109885 0.14465301 1.7091101e-38
-0.3565 0.110904 0.14518601 1.6998908e-38
-0.35581601 0.111919 0.145716 1.7091105e-38
-0.35482699 0.112752 0.14643 1.736733e-38
-0.35415 0.113759 0.146955 1.7917984e-38
-0.354087 0.115121 0.147108 1.8102018e-38
-0.33608401 0.112344 0.158637 1.5804692e-38
-0.33497199 0.112957 0.15941299 1.5805408e-38
-0.33412999 0.113729 0.160027 1.617275e-38
-0.33277699 0.114168 0.160946 1.6816683e-38
-0.33246201 0.115262 0.16124199 1.8196739e-38
-0.33214799 0.116354 0.16153701 1.9945574e-38
-0.33157799 0.117278 0.161984 2.1233073e-38
-0.33101201 0.118198 0.16243 2.1600062e-38
-0.33095399 0.119453 0.16257 2.114449e-38
-0.40220299 0.0693812 0.110119 2.1875564e-38
-0.40127501 0.070640303 0.110833 2.2518411e-38
-0.40077701 0.072044201 0.111275 2.1874842e-38
-0.40070501 0.073598199 0.111449 2.1047246e-38
-0.40105799 0.075308897 0.111356 2.0127092e-38
-0.40226999 0.0773433 0.110723 1.9115456e-38
-0.40219799 0.078909397 0.110898 1.7921233e-38
-0.402125 0.0804765 0.111073 1.7093631e-38
-0.400343 0.081384197 0.112321 1.6357866e-38
-0.39942399 0.082612701 0.113027 1.644934e-38
-0.39935201 0.084169798 0.113201 1.6633724e-38
-0.399279 0.085727997 0.113376 1.7276209e-38
-0.379825 0.0883362 0.126405 1.856155e-38
-0.37792099 0.088986799 0.127712 1.9204037e-38
-0.37785301 0.090445697 0.127875 1.8743418e-38
-0.378151 0.092072003 0.127812 1.7731431e-38
-0.37808299 0.093534902 0.127976 1.6811284e-38
-0.379484 0.095683999 0.12722699 1.671981e-38
-0.36061499 0.099574402 0.139975 1.9297675e-38
-0.359909 0.100625 0.140526 2.1227304e-38
-0.359525 0.10184 0.14087801 2.1777232e-38
-0.35946101 0.103221 0.14103299 2.1869426e-38
-0.35907799 0.104433 0.14138301 2.1593199e-38
-0.359014 0.105815 0.14153799 2.0490815e-38
-0.358632 0.107024 0.14188799 1.9387706e-38
-0.35761899 0.107881 0.142625 1.8376798e-38
-0.35723999 0.109084 0.14297301 1.7733589e-38
-0.35655001 0.110108 0.143511 1.7274773e-38
-0.35617399 0.111305 0.143856 1.7275132e-38
-0.35486901 0.111966 0.144769 1.7459527e-38
-0.35418999 0.112977 0.145299 1.7827231e-38
-0.35382 0.114163 0.145639 1.8194569e-38
-0.33494201 0.112223 0.15791801 1.6082355e-38
-0.334097 0.113 0.158538 1.6448974e-38
-0.33325699 0.113773 0.159154 1.6999994e-38
-0.332681 0.114707 0.15961 1.7644287e-38
-0.33185101 0.115471 0.160219 1.9208729e-38
-0.331536 0.116565 0.160515 2.0405113e-38
-0.33122301 0.117657 0.16081101 2.0956847e-38
-0.330401 0.11841 0.161413 2.0591314e-38
-0.399831 0.068987504 0.109837 2.1047967e-38
-0.399335 0.070390902 0.11028 2.1691891e-38
-0.39842001 0.071641304 0.110989 2.1140518e-38
-0.398348 0.073188901 0.111162 2.0037053e-38
-0.39869601 0.074891798 0.111068 1.9024342e-38
-0.39946899 0.076758102 0.110705 1.8013786e-38
-0.39982 0.078475602 0.11061 1.7278381e-38
-0.39932299 0.079873897 0.111054 1.7002153e-38
-0.39840701 0.081105702 0.111762 1.709327e-38
-0.396245 0.081840001 0.113258 1.7736118e-38
-0.396588 0.083552003 0.113168 1.8380043e-38
-0.37588501 0.087096199 0.127214 1.9757568e-38
-0.37545699 0.088387601 0.12760299 2.0031996e-38
-0.37538901 0.089838997 0.127765 1.9479182e-38
-0.375321 0.091291502 0.12792701 1.8560107e-38
-0.376699 0.093413897 0.12718301 1.7917259e-38
-0.359653 0.099620201 0.13901301 2.049262e-38
-0.35894901 0.100671 0.139566 2.1594284e-38
-0.35888401 0.102054 0.13971999 2.1960544e-38
-0.35850099 0.103267 0.140073 2.1868711e-38
-0.358437 0.10465 0.140227 2.122586e-38
-0.358055 0.105861 0.140579 2.0123113e-38
-0.35735801 0.106896 0.14112601 1.9203676e-38
-0.356664 0.107928 0.14167 1.8285324e-38
-0.35659999 0.109306 0.14182401 1.7734312e-38
-0.35590899 0.110331 0.14236601 1.7551001e-38
-0.35522199 0.111351 0.142905 1.7918703e-38
-0.35392201 0.112012 0.143822 1.8286764e-38
-0.35324499 0.113023 0.144354 1.8562268e-38
-0.35287499 0.114209 0.144695 1.8470431e-38
-0.352507 0.115394 0.145036 1.7552082e-38
-0.33432701 0.112432 0.15687899 1.7093264e-38
-0.333482 0.113209 0.15750299 1.7459887e-38
-0.332385 0.113817 0.158282 1.7827236e-38
-0.33232599 0.115083 0.15842301 1.8748112e-38
-0.33175099 0.116014 0.15888 1.9945572e-38
-0.330924 0.116776 0.159492 2.0404748e-38
-0.330102 0.117533 0.160099 2.0314e-38
-0.396155 0.069701597 0.110534 1.9946298e-38
-0.395255 0.070945397 0.111237 1.9763346e-38
-0.395183 0.072482198 0.111409 1.8935746e-38
-0.39511099 0.074020199 0.11158 1.8198538e-38
-0.39545199 0.075713597 0.111487 1.7738278e-38
-0.395794 0.077412903 0.111394 1.7461691e-38
-0.39572099 0.078958303 0.111566 1.7920512e-38
-0.394822 0.0801825 0.112267 1.8655915e-38
-0.39474899 0.081725799 0.112439 1.9391677e-38
-0.39509001 0.083435297 0.112348 2.0126364e-38
-0.37428999 0.083930701 0.126333 1.7643551e-38
-0.37422201 0.085377403 0.12649401 1.9575346e-38
-0.374154 0.086825103 0.126655 2.0587343e-38
-0.37372899 0.088113703 0.12704299 2.0676652e-38
-0.37366101 0.0895615 0.127205 2.012311e-38
-0.37430799 0.0913385 0.12691399 1.9204033e-38
-0.36029801 0.100501 0.13704 2.1319135e-38
-0.358307 0.100884 0.13840599 2.19609e-38
-0.35792401 0.1021 0.13876 2.2143852e-38
-0.35785899 0.103483 0.138914 2.1776513e-38
-0.35779399 0.104868 0.13906799 2.076668e-38
-0.35741201 0.10608 0.139422 1.9663575e-38
-0.356401 0.106943 0.14016899 1.8928531e-38
-0.356022 0.108148 0.14051899 1.8102736e-38
-0.35564399 0.109352 0.14086901 1.7735754e-38
-0.354956 0.110377 0.141412 1.7919068e-38
-0.35427099 0.111397 0.14195301 1.8562276e-38
-0.35297501 0.112058 0.142875 1.8930327e-38
-0.352299 0.113069 0.143409 1.8930683e-38
-0.35193101 0.114256 0.143751 1.8195645e-38
-0.35126001 0.11526 0.144281 1.718438e-38
-0.33344799 0.112475 0.156001 1.8104898e-38
-0.33286601 0.113418 0.15646601 1.8196378e-38
-0.33228701 0.114357 0.156929 1.8471886e-38
-0.33171001 0.115293 0.157391 1.9301287e-38
-0.331393 0.116393 0.157692 1.9671148e-38
-0.33107701 0.117492 0.15799201 1.9762261e-38
-0.39383799 0.069311701 0.110254 1.8015596e-38
-0.39294699 0.0705515 0.110954 1.8384017e-38
-0.39246699 0.071933597 0.111388 1.8384377e-38
-0.39239499 0.073463097 0.111558 1.8200702e-38
-0.39232299 0.0749937 0.111729 1.8382931e-38
-0.39225101 0.076525301 0.111899 1.8749193e-38
-0.39217901 0.078057997 0.112069 1.9667909e-38
-0.39251399 0.079750903 0.111977 2.040295e-38
-0.392441 0.081287898 0.112148 2.0954682e-38
-0.37334701 0.082531199 0.12516101 1.7368048e-38
-0.37327901 0.083977103 0.125322 1.9022533e-38
-0.373211 0.085423797 0.12548301 2.1323468e-38
-0.372787 0.086713403 0.125872 2.2059602e-38
-0.37271899 0.088160299 0.12603299 2.168829e-38
-0.37265101 0.0896082 0.126194 2.0858878e-38
-0.36069199 0.099822 0.135093 2.0585894e-38
-0.359653 0.100715 0.135866 2.1686477e-38
-0.35766301 0.101097 0.137242 2.2052017e-38
-0.35727999 0.102314 0.13759799 2.196054e-38
-0.35721499 0.1037 0.137752 2.1226219e-38
-0.35714999 0.105086 0.137906 2.0123476e-38
-0.35613599 0.105954 0.13866 1.9387713e-38
-0.355443 0.106989 0.139211 1.8745224e-38
-0.355066 0.108195 0.13956299 1.81031e-38
-0.35437801 0.109223 0.14011 1.828749e-38
-0.35369301 0.110246 0.140654 1.874631e-38
-0.35331899 0.111444 0.141002 1.9206208e-38
-0.35202801 0.112104 0.141928 1.9298757e-38
-0.351051 0.112937 0.142654 1.865555e-38
-0.350382 0.113943 0.143187 1.7643921e-38
-0.34971699 0.114946 0.14371599 1.6908156e-38
-0.34935299 0.116125 0.14405601 1.6541545e-38
-0.33250901 0.113793 0.15526301 1.8566249e-38
-0.331929 0.114734 0.15572999 1.8841753e-38
-0.33160999 0.115839 0.15603399 1.8935746e-38
-0.33155 0.117112 0.156175 1.8843912e-38
-0.39065799 0.070160903 0.110673 1.7739009e-38
-0.389382 0.071244404 0.11163 1.8842114e-38
-0.38931 0.072763503 0.111798 1.9304171e-38
-0.389238 0.074283697 0.111967 2.0039214e-38
-0.390369 0.076264702 0.111351 2.0865731e-38
-0.39110401 0.078106202 0.110994 2.1508937e-38
-0.39143699 0.079799302 0.1109 2.1690808e-38
-0.37240601 0.081132501 0.12399 1.7829392e-38
-0.37233701 0.0825774 0.12415 1.7918712e-38
-0.372269 0.084023401 0.124311 2.0404034e-38
-0.37220001 0.085470296 0.124471 2.2336906e-38
-0.372132 0.086918198 0.124632 2.307591e-38
-0.37170899 0.088206902 0.12502199 2.2335462e-38
-0.36043599 0.098802403 0.13354699 1.9851572e-38
-0.359072 0.099532999 0.134535 2.1502814e-38
-0.35868299 0.100761 0.13489699 2.1962698e-38
-0.35701799 0.101311 0.136076 2.1962698e-38
-0.356318 0.10236 0.136636 2.1411692e-38
-0.356253 0.103746 0.13679001 2.0399708e-38
-0.35618699 0.105133 0.136944 1.9571748e-38
-0.35517699 0.106 0.137701 1.9112569e-38
-0.35448599 0.107035 0.138254 1.8653392e-38
-0.353798 0.108066 0.138804 1.8471523e-38
-0.35311401 0.109093 0.13935199 1.9115451e-38
-0.352433 0.110116 0.139897 1.966647e-38
-0.35144901 0.110959 0.140634 1.9670064e-38
-0.35047299 0.111796 0.141366 1.8934308e-38
-0.349805 0.112805 0.141902 1.8012709e-38
-0.34913999 0.113811 0.142435 1.7184022e-38
-0.34847799 0.114813 0.142965 1.6724845e-38
-0.34811601 0.115991 0.143305 1.6817409e-38
-0.348349 0.117531 0.14326701 1.7279837e-38
-0.33919501 0.117329 0.149497 1.8748115e-38
-0.333197 0.114842 0.153393 1.8658443e-38
-0.33208901 0.115449 0.15419701 1.8477653e-38
-0.33150801 0.116389 0.154667 1.8109957e-38
-0.385555 0.070276603 0.112384 1.9302369e-38
-0.385483 0.071781397 0.112551 2.0773178e-38
-0.385021 0.0731396 0.112974 2.1600417e-38
-0.38809901 0.075852603 0.111068 2.196848e-38
-0.38922501 0.077841401 0.110448 2.2059955e-38
-0.37217399 0.080033697 0.122354 1.8472264e-38
-0.37139601 0.081178501 0.122979 1.7554971e-38
-0.37132701 0.082623601 0.123139 1.938988e-38
-0.37125799 0.084069699 0.1233 2.1508226e-38
-0.371189 0.085516803 0.12346 2.2709285e-38
-0.37112001 0.086964801 0.12362 2.3357529e-38
-0.35952699 0.097446904 0.132416 1.8654105e-38
-0.35848999 0.098348998 0.133201 2.0678821e-38
-0.35778001 0.099412099 0.133772 2.1779391e-38
-0.357714 0.100807 0.133927 2.2054175e-38
-0.35605401 0.101357 0.135112 2.1777236e-38
-0.35535601 0.102406 0.135674 2.0768139e-38
-0.35529 0.103792 0.135827 1.9757225e-38
-0.35490999 0.105006 0.13618401 1.9204767e-38
-0.35390601 0.105873 0.136943 1.8929262e-38
-0.35290799 0.106735 0.137696 1.8929981e-38
-0.35222599 0.107764 0.138246 1.9391318e-38
-0.351547 0.108789 0.138794 1.9760822e-38
-0.350566 0.109636 0.139534 1.9945944e-38
-0.34899101 0.110127 0.14065699 1.9488557e-38
-0.34892601 0.111489 0.140807 1.8198908e-38
-0.348263 0.112497 0.141343 1.7460615e-38
-0.34760299 0.113501 0.141875 1.700035e-38
-0.347242 0.11468 0.142216 1.700107e-38
-0.34658599 0.115677 0.142745 1.7645722e-38
-0.345348 0.11631 0.143646 1.8382577e-38
-0.34470201 0.117298 0.144168 1.8845353e-38
-0.34001499 0.117113 0.147379 1.8565163e-38
-0.33448899 0.114953 0.151014 1.8382933e-38
-0.33283699 0.115224 0.152172 1.8108512e-38
-0.331727 0.115831 0.15298299 1.7557869e-38
-0.381347 0.070675001 0.113543 1.9395645e-38
-0.38051701 0.071876101 0.114212 2.0405121e-38
-0.38044599 0.073362701 0.114377 2.1047249e-38
-0.38343501 0.076046102 0.112508 2.0954695e-38
-0.37165499 0.077333301 0.120786 1.948424e-38
-0.37123099 0.078632802 0.121181 1.9026515e-38
-0.370455 0.0797804 0.121809 1.810708e-38
-0.37038499 0.081224598 0.121969 1.7921589e-38
-0.370316 0.082669802 0.122128 2.1047237e-38
-0.37024701 0.084115997 0.122288 2.2516982e-38
-0.37017801 0.085563198 0.122448 2.2891155e-38
-0.37010899 0.087011397 0.122608 2.2986595e-38
-0.35881999 0.0918952 0.130823 1.7275495e-38
-0.358753 0.093293197 0.130977 1.6815594e-38
-0.358686 0.094692104 0.13113201 1.6907427e-38
-0.358619 0.096092001 0.131286 1.7643551e-38
-0.35758501 0.096998401 0.132075 2.0219624e-38
-0.356877 0.098063998 0.13264801 2.1686488e-38
-0.35681099 0.099458098 0.13280199 2.2051668e-38
-0.35642499 0.100685 0.133165 2.1868711e-38
-0.35508999 0.101403 0.134147 2.1044356e-38
-0.35439399 0.102452 0.134711 1.9941259e-38
-0.35432801 0.103838 0.134864 1.9205851e-38
-0.353636 0.104881 0.135426 1.9022537e-38
-0.35263699 0.105747 0.136186 1.9206572e-38
-0.351338 0.106436 0.137141 1.9758304e-38
-0.35066101 0.107463 0.13769101 2.0218925e-38
-0.34907901 0.107968 0.13882799 1.9854464e-38
-0.34811401 0.108812 0.13956299 1.939601e-38
-0.347155 0.109651 0.140294 1.8657364e-38
-0.346203 0.110485 0.141019 1.7643927e-38
-0.346728 0.11219 0.14078601 1.7183666e-38
-0.34636801 0.113369 0.14112701 1.7275859e-38
-0.345714 0.114369 0.14165901 1.7736476e-38
-0.34419 0.11483 0.14275301 1.8472962e-38
-0.34268299 0.115286 0.14383399 1.8933225e-38
-0.34176201 0.116092 0.14453501 1.8842109e-38
-0.339165 0.115835 0.146319 1.8473327e-38
-0.33662099 0.115584 0.148066 1.7923398e-38
-0.33359501 0.114997 0.150121 1.7466025e-38
-0.33247501 0.115608 0.15094601 1.68257e-38
-0.375682 0.071969599 0.115829 1.8840675e-38
-0.374879 0.073150299 0.116481 1.9207294e-38
-0.37371799 0.074181497 0.117374 1.9482075e-38
-0.37220699 0.075060897 0.118499 1.9573191e-38
-0.37071201 0.075932197 0.119613 1.9665032e-38
-0.37028801 0.077232599 0.120009 1.994523e-38
-0.36986601 0.078530699 0.120404 1.9487132e-38
-0.369445 0.0798264 0.120798 1.9025778e-38
-0.36937499 0.081270702 0.120958 1.9483152e-38
-0.369306 0.0827161 0.121117 2.1785165e-38
-0.36923599 0.084162399 0.121277 2.2791762e-38
-0.36881599 0.085453004 0.12167 2.2882521e-38
-0.36874601 0.086899497 0.121829 2.2609533e-38
-0.36902699 0.088507302 0.121756 2.2424408e-38
-0.357914 0.090543702 0.129695 1.7735034e-38
-0.35752401 0.091782503 0.130062 1.7275493e-38
-0.357135 0.093019202 0.130429 1.7091462e-38
-0.357068 0.094414704 0.130583 1.7551e-38
-0.356361 0.095486201 0.131161 1.9206201e-38
-0.355975 0.096716598 0.13152499 2.1046518e-38
-0.35527301 0.097780302 0.132098 2.2328967e-38
-0.35520601 0.099171102 0.13225199 2.2144218e-38
-0.35482299 0.100395 0.132614 2.140954e-38
-0.35412601 0.101449 0.133183 2.0124936e-38
-0.353432 0.102498 0.13374899 1.9480997e-38
-0.353053 0.103714 0.13410699 1.9389156e-38
-0.35236499 0.104755 0.13466901 1.9665744e-38
-0.35137099 0.105621 0.13543101 2.0126003e-38
-0.349776 0.106138 0.13658801 2.0402952e-38
-0.34819901 0.10665 0.137731 2.0037052e-38
-0.34723601 0.107498 0.13847101 1.9394924e-38
-0.34628001 0.108341 0.13920499 1.9115454e-38
-0.345038 0.109007 0.140126 1.7736484e-38
-0.34380701 0.109668 0.141038 1.7275862e-38
-0.34520099 0.111884 0.140232 1.7459533e-38
-0.34425899 0.112709 0.140955 1.8102743e-38
-0.34332299 0.113529 0.141673 1.874703e-38
-0.341822 0.113993 0.14275999 1.9116172e-38
-0.34062001 0.114627 0.14365 1.8841028e-38
-0.338871 0.114906 0.144896 1.8290021e-38
-0.337421 0.115356 0.145946 1.7556419e-38
-0.33517399 0.115283 0.147515 1.7006852e-38
-0.33270201 0.115042 0.14922699 1.6275775e-38
-0.37204501 0.072484501 0.116676 1.7004706e-38
-0.370902 0.073511697 0.117562 1.8841024e-38
-0.36976901 0.074531801 0.11844 2.0218918e-38
-0.36934599 0.075833298 0.118837 2.0677748e-38
-0.36892501 0.0771323 0.119234 2.1050128e-38
-0.36850399 0.078428902 0.119629 2.1049042e-38
-0.36843401 0.0798724 0.119788 2.0220003e-38
-0.36836499 0.081316799 0.119947 2.0953601e-38
-0.36829501 0.082762301 0.120106 2.20578e-38
-0.36787599 0.084053896 0.1205 2.2790669e-38
-0.36780599 0.085499398 0.120659 2.3064731e-38
-0.36738801 0.086787798 0.121052 2.2697392e-38
-0.367318 0.088233501 0.121211 2.2147098e-38
-0.36690101 0.089518599 0.121603 2.1319136e-38
-0.357977 0.089659803 0.127918 1.8010905e-38
-0.356619 0.090432502 0.12893599 1.7643197e-38
-0.355593 0.091355301 0.129731 1.7367326e-38
-0.35552499 0.092746504 0.129884 1.7367327e-38
-0.35545799 0.094138697 0.13003699 1.8470795e-38
-0.355073 0.095370002 0.130403 2.0585897e-38
-0.35437301 0.096436203 0.130978 2.1870875e-38
-0.35336199 0.097334698 0.13176 2.2236411e-38
-0.353295 0.098720402 0.13191301 2.1870148e-38
-0.353228 0.100107 0.132065 2.0492622e-38
-0.35284799 0.101327 0.13242599 1.9664667e-38
-0.35215801 0.102375 0.132993 1.9665023e-38
-0.35178101 0.103589 0.133352 2.0033806e-38
-0.35140499 0.104801 0.133709 2.040187e-38
-0.35010901 0.105496 0.13467801 2.0402953e-38
-0.34852201 0.106013 0.135838 1.9944499e-38
-0.346955 0.106525 0.13698401 1.9300574e-38
-0.34570101 0.107202 0.13792101 1.8656647e-38
-0.34416801 0.107703 0.139042 1.8196734e-38
-0.34294099 0.108369 0.13995899 1.7735753e-38
-0.34201199 0.1092 0.140679 1.8010906e-38
-0.34108999 0.110026 0.14139301 1.8654835e-38
-0.34130999 0.111535 0.141352 1.920693e-38
-0.34067601 0.112526 0.141875 1.9300206e-38
-0.33976299 0.113339 0.142582 1.884175e-38
-0.33829799 0.1138 0.14365201 1.8015235e-38
-0.337125 0.114429 0.144528 1.7189803e-38
-0.33596301 0.115054 0.14539599 1.6273973e-38
-0.33373299 0.114984 0.146966 1.5727648e-38
-0.368826 0.073132202 0.117268 1.7932751e-38
-0.368404 0.074434601 0.117666 2.0771367e-38
-0.367984 0.0757346 0.118064 2.2334377e-38
-0.36756399 0.077032201 0.11846 2.2976509e-38
-0.36749399 0.078474797 0.118618 2.2425498e-38
-0.36742401 0.079918399 0.118777 2.1138352e-38
-0.36735401 0.081362903 0.118935 2.178336e-38
-0.366936 0.082655497 0.119331 2.2330068e-38
-0.36686599 0.084100202 0.119489 2.2696318e-38
-0.366795 0.085545897 0.119648 2.2604839e-38
-0.36637801 0.086834297 0.120042 2.1872314e-38
-0.36561701 0.0879611 0.120669 2.1411691e-38
-0.363157 0.088287503 0.122447 2.0491538e-38
-0.36241201 0.089399502 0.123061 1.9388796e-38
-0.35804099 0.088770002 0.126129 1.8378247e-38
-0.35699999 0.089705303 0.126941 1.7827591e-38
-0.355647 0.090477899 0.12796301 1.755172e-38
-0.354307 0.091243804 0.128975 1.7459163e-38
-0.35423899 0.092633396 0.12912799 1.801054e-38
-0.35417199 0.094024003 0.129281 1.9665743e-38
-0.35347301 0.095092803 0.129859 2.1688286e-38
-0.35246599 0.095995396 0.13064399 2.2236772e-38
-0.35208699 0.097217202 0.131006 2.1777956e-38
-0.35201901 0.098601401 0.13115799 2.0678447e-38
-0.35195199 0.099986501 0.13131 1.9849412e-38
-0.351264 0.101037 0.13188 2.0032723e-38
-0.35088801 0.102252 0.132239 2.0493338e-38
-0.350512 0.103465 0.132598 2.0769209e-38
-0.35013801 0.104676 0.132956 2.0585185e-38
-0.34915301 0.105542 0.13372201 2.0034532e-38
-0.347572 0.106058 0.13488799 1.9299129e-38
-0.34601 0.10657 0.136039 1.8655921e-38
-0.34476101 0.107247 0.13698 1.8105269e-38
-0.34323299 0.107748 0.138107 1.8197454e-38
-0.34172201 0.108244 0.139221 1.8840304e-38
-0.340514 0.108905 0.140131 1.9483515e-38
-0.339881 0.1099 0.14065699 1.9759383e-38
-0.33981699 0.111235 0.14080299 1.9301649e-38
-0.33890599 0.112052 0.141514 1.8475494e-38
-0.33744499 0.11252 0.14259 1.746495e-38
-0.33627599 0.113154 0.14347 1.6548397e-38
-0.33539 0.113956 0.144162 1.5818757e-38
-0.36704299 0.074337699 0.116894 1.9766228e-38
-0.36662501 0.075636201 0.117292 2.2516961e-38
-0.36655501 0.077077903 0.11745 2.3343844e-38
-0.36648399 0.078520603 0.117608 2.2884663e-38
-0.36641401 0.079964302 0.117766 2.1323458e-38
-0.365996 0.081257798 0.118162 2.1781932e-38
-0.365926 0.082701698 0.11832 2.232862e-38
-0.36585501 0.0841465 0.118479 2.2419013e-38
-0.365439 0.085435897 0.118874 2.1964867e-38
-0.365024 0.086722903 0.119268 2.1504251e-38
-0.36426699 0.087848596 0.119896 2.0584092e-38
-0.362158 0.088333704 0.121448 1.9665381e-38
-0.35975 0.088655002 0.123202 1.8837784e-38
-0.35705999 0.0888156 0.125148 1.8286052e-38
-0.355701 0.089594699 0.126183 1.7827591e-38
-0.35467401 0.090523303 0.12699001 1.755208e-38
-0.35333899 0.091289103 0.12800699 1.7735032e-38
-0.35327101 0.092678897 0.128159 1.892998e-38
-0.35288799 0.093909703 0.128526 2.0952882e-38
-0.351881 0.094816901 0.129317 2.2238218e-38
-0.351192 0.095879503 0.12989201 2.2145298e-38
-0.35081401 0.097100101 0.130254 2.1226948e-38
-0.35074699 0.098482698 0.13040499 2.0125643e-38
-0.35036999 0.099700503 0.130767 2.0217116e-38
-0.34999499 0.100916 0.131127 2.0585538e-38
-0.34962001 0.10213 0.131487 2.0863199e-38
-0.34955299 0.103511 0.13163801 2.0495141e-38
-0.349179 0.104722 0.131997 1.994341e-38
-0.348198 0.105587 0.13276701 1.9484233e-38
-0.34692201 0.106276 0.133735 1.9208367e-38
-0.34625599 0.107302 0.13428999 1.9299487e-38
-0.34411401 0.107464 0.135841 1.9576434e-38
-0.34258699 0.107964 0.136976 1.9670785e-38
-0.340792 0.108289 0.138291 1.976155e-38
-0.33958799 0.10895 0.13920499 1.9577874e-38
-0.33895701 0.109945 0.139733 1.8843185e-38
-0.33805001 0.110766 0.14044601 1.7924842e-38
-0.33742601 0.111753 0.14096799 1.6731712e-38
-0.36561501 0.075681798 0.116282 2.1413856e-38
-0.365545 0.077123702 0.116439 2.2609162e-38
-0.36512801 0.078419 0.116837 2.1965594e-38
-0.36505699 0.079861 0.116994 2.1781555e-38
-0.36498699 0.081303902 0.117152 2.1963429e-38
-0.364916 0.082747899 0.11731 2.2327537e-38
-0.364501 0.084038198 0.117706 2.1961989e-38
-0.364086 0.085326098 0.118102 2.1412782e-38
-0.36333099 0.0864546 0.118732 2.1044354e-38
-0.36190301 0.0872631 0.119827 2.0033082e-38
-0.36048999 0.088064298 0.120911 1.9114728e-38
-0.35810199 0.088387303 0.122666 1.8470802e-38
-0.355757 0.088705502 0.124389 1.8194939e-38
-0.354406 0.089484297 0.12542599 1.7827952e-38
-0.35338399 0.090412401 0.12623499 1.7735751e-38
-0.35236999 0.091334403 0.127038 1.8562271e-38
-0.351989 0.092565998 0.127406 2.0125282e-38
-0.35160801 0.093795501 0.127773 2.1871597e-38
-0.35060701 0.094702199 0.128566 2.2513362e-38
-0.350229 0.095924899 0.128929 2.159501e-38
-0.34985301 0.097145602 0.129292 2.0310036e-38
-0.349785 0.098528303 0.129443 1.9482439e-38
-0.34910199 0.099580802 0.130016 1.9208011e-38
-0.34872901 0.100795 0.130376 1.9024339e-38
-0.34866101 0.102176 0.130527 1.8748831e-38
-0.348593 0.103557 0.130678 1.8290015e-38
-0.34821999 0.104768 0.131038 1.8013431e-38
-0.347545 0.105805 0.131604 1.8014149e-38
-0.34717399 0.107011 0.131961 1.8198897e-38
-0.346504 0.108041 0.132523 1.8474764e-38
-0.34405401 0.108024 0.134298 1.8566601e-38
-0.342522 0.108523 0.135446 1.8291459e-38
-0.34129599 0.109189 0.136384 1.7831566e-38
-0.33951199 0.109506 0.137701 1.700506e-38
-0.338314 0.110161 0.13861699 1.6181425e-38
-0.36460599 0.0757275 0.115271 1.9853747e-38
-0.364535 0.077169403 0.115429 2.1597897e-38
-0.363776 0.078317702 0.116068 2.1046169e-38
-0.36370501 0.079757899 0.116225 2.1507506e-38
-0.36363399 0.081199102 0.116382 2.2144938e-38
-0.36322001 0.082488798 0.116778 2.2143866e-38
-0.36246699 0.083622798 0.117412 2.1779041e-38
-0.361718 0.084751897 0.118042 2.1228388e-38
-0.360973 0.085876197 0.118669 2.0584817e-38
-0.359231 0.086528197 0.11999 1.9666096e-38
-0.35882899 0.087796301 0.120377 1.8839219e-38
-0.356462 0.0881209 0.122131 1.8470445e-38
-0.35445699 0.0885958 0.123632 1.8012711e-38
-0.35311401 0.089374296 0.124672 1.7828315e-38
-0.352413 0.0904577 0.12526301 1.8103093e-38
-0.35140201 0.091379702 0.12606999 1.9665377e-38
-0.35102099 0.092611402 0.12643801 2.1319862e-38
-0.35064101 0.093841001 0.12680601 2.1962713e-38
-0.34964299 0.094747603 0.127602 2.141134e-38
-0.34926701 0.0959704 0.127966 2.0034169e-38
-0.34889099 0.0971912 0.12833001 1.8658083e-38
-0.34882301 0.098573998 0.128481 1.7738658e-38
-0.34814301 0.099626496 0.12905499 1.7004339e-38
-0.34746501 0.100675 0.129627 1.6545165e-38
-0.347397 0.102054 0.129778 1.608635e-38
-0.347633 0.103603 0.12971801 1.5995956e-38
-0.347565 0.104986 0.129869 1.6088871e-38
-0.347193 0.106196 0.130229 1.6182506e-38
-0.34712499 0.107579 0.13038 1.6368692e-38
-0.34333599 0.109608 0.13329899 1.6470233e-38
-0.341515 0.109926 0.134654 1.6107206e-38
-0.34000701 0.110412 0.135793 1.5743465e-38
-0.338516 0.110894 0.13691799 1.5107816e-38
-0.36359599 0.075773098 0.114261 1.8754251e-38
-0.36283901 0.076924101 0.114903 2.1046884e-38
-0.362086 0.078070097 0.115541 2.1412428e-38
-0.36167499 0.079358697 0.115937 2.1686141e-38
-0.36160401 0.080794498 0.116093 2.1869079e-38
-0.36119401 0.082079902 0.116488 2.1870158e-38
-0.359779 0.082907103 0.117592 2.1505337e-38
-0.35904101 0.084030896 0.118218 2.0952883e-38
-0.358307 0.085150003 0.11884 2.0492627e-38
-0.35724801 0.086110003 0.119691 1.9573184e-38
-0.35652301 0.087218598 0.120306 1.893034e-38
-0.354188 0.087546803 0.122051 1.838113e-38
-0.35315999 0.088486299 0.122877 1.792268e-38
-0.35214001 0.089419603 0.123697 1.7828678e-38
-0.351441 0.090503097 0.124291 1.8655187e-38
-0.35074601 0.091582097 0.124882 2.0126358e-38
-0.350054 0.092656799 0.12547 2.0769572e-38
-0.34967399 0.093886398 0.12583899 2.0126005e-38
-0.34837201 0.094633199 0.126853 1.8841031e-38
-0.34799799 0.0958547 0.12721799 1.7648617e-38
-0.36190301 0.075531296 0.113738 1.8205403e-38
-0.36115199 0.076679997 0.114379 2.095721e-38
-0.360742 0.077969603 0.114776 2.1690452e-38
-0.359997 0.079109602 0.115412 2.2053831e-38
-0.358922 0.080096699 0.116283 2.2054189e-38
-0.35818601 0.081225902 0.116911 2.1963799e-38
-0.357784 0.082500301 0.117301 2.1598254e-38
-0.35672501 0.083469898 0.118158 2.0953966e-38
-0.356327 0.084737003 0.118545 2.0400795e-38
-0.355279 0.085694999 0.119393 1.9756866e-38
-0.35391799 0.086493403 0.120463 1.8930701e-38
-0.35320699 0.087592296 0.12107 1.8107069e-38
-0.35218301 0.088531703 0.1219 1.7738651e-38
-0.35116601 0.089465 0.122723 1.7827959e-38
-0.35046899 0.0905485 0.123319 1.9023256e-38
-0.349776 0.091627598 0.123912 1.939168e-38
-0.34939599 0.092860699 0.124283 1.8748477e-38
-0.348708 0.093931898 0.124871 1.7647895e-38
-0.34740999 0.094678499 0.12589 1.664275e-38
-0.36055601 0.075433597 0.112974 1.8571666e-38
-0.35980901 0.076581202 0.113616 2.1416033e-38
-0.35906601 0.077723898 0.114254 2.2056721e-38
-0.35766301 0.078569703 0.115368 2.2146753e-38
-0.356931 0.0797005 0.115997 2.1966343e-38
-0.35653099 0.0809744 0.116387 2.2156158e-38
-0.355804 0.082096703 0.117012 2.3169566e-38
-0.355407 0.083364703 0.1174 2.288288e-38
-0.35468599 0.084478498 0.11802 2.0493354e-38
-0.35364699 0.085435301 0.118867 1.9666464e-38
-0.35293499 0.086538903 0.11948 1.9114012e-38
-0.35222599 0.087637797 0.120089 1.819638e-38
-0.35089001 0.0884225 0.121148 1.7737559e-38
-0.35019201 0.089510404 0.121748 1.8104181e-38
-0.34949699 0.090593897 0.122346 1.8381493e-38
-0.349116 0.091830499 0.12272 1.7923036e-38
-0.34873599 0.093065098 0.123092 1.7006129e-38
-0.348048 0.094137199 0.123684 1.6094978e-38
-0.35921299 0.075336099 0.112212 1.9488937e-38
-0.358136 0.076338999 0.113097 2.1969197e-38
-0.35673699 0.077191003 0.114216 2.2607011e-38
-0.35600701 0.078324497 0.114848 2.279321e-38
-0.355281 0.079453103 0.115477 2.2993452e-38
-0.354884 0.080724299 0.115866 2.2287192e-38
-0.354487 0.081993103 0.116255 2.2443933e-38
-0.35376799 0.083109602 0.116878 2.1780861e-38
-0.353053 0.0842214 0.117497 2.0402595e-38
-0.35202199 0.0851769 0.118344 1.9482792e-38
-0.35163301 0.086431198 0.118726 1.8839579e-38
