ply
format ascii 1.0
element vertex 1163
property float x
property float y
property float z
property uchar diffuse_red
property uchar diffuse_green
property uchar diffuse_blue
end_header
0.0192402 -0.243322 -0.0141993 66 127 59
0.0161662 -0.241944 -0.0124562 70 134 65
0.0127729 -0.240067 -0.0102667 75 144 74
0.011273 -0.240816 -0.0104758 82 151 80
0.00977831 -0.241562 -0.0106841 88 158 82
0.00865108 -0.242829 -0.0113664 94 163 83
0.00897799 -0.246217 -0.0139686 100 168 85
0.0119245 -0.253501 -0.0200865 109 173 91
0.0126653 -0.257621 -0.0233307 108 175 92
0.0122629 -0.260078 -0.0250695 97 143 81
0.0110923 -0.261394 -0.0257781 79 86 59
0.00992186 -0.262709 -0.0264866 69 47 34
0.0087515 -0.264025 -0.027195 60 48 35
0.0580503 -0.203009 0.00442068 63 63 45
0.0568845 -0.204319 0.00371502 75 91 57
0.0557187 -0.20563 0.00300945 109 159 82
0.054553 -0.20694 0.00230391 125 188 92
0.0533874 -0.20825 0.00159843 127 188 91
0.0508769 -0.20812 0.00229289 129 189 91
0.0497176 -0.209423 0.0015912 130 190 91
0.0476775 -0.209765 0.00181959 129 191 91
0.0447868 -0.209152 0.00296613 129 191 90
0.0427849 -0.209491 0.00318756 128 192 91
0.0399574 -0.208886 0.00431307 132 195 92
0.0379924 -0.209222 0.00452777 134 193 97
0.0364503 -0.210024 0.00429279 121 172 89
0.0353211 -0.211293 0.00360932 104 151 76
0.0578278 -0.245813 -0.0276249 81 137 64
0.0560836 -0.246632 -0.0278243 93 150 72
0.0553234 -0.248628 -0.0291407 84 134 63
0.0540714 -0.250036 -0.0298985 71 123 55
0.0537946 -0.252643 -0.0317882 59 119 51
0.052538 -0.254056 -0.0325488 51 115 49
0.0512815 -0.255468 -0.0333093 58 121 47
0.0500251 -0.25688 -0.0340698 65 122 46
0.0487687 -0.258292 -0.0348302 68 119 45
0.0475125 -0.259705 -0.0355906 68 118 46
0.0457821 -0.260499 -0.0357753 64 114 44
0.0440581 -0.261291 -0.0359592 58 109 43
0.0428069 -0.262697 -0.0367165 48 107 44
0.0415557 -0.264103 -0.0374738 43 109 44
0.0169031 -0.245329 -0.0175373 47 112 42
0.011602 -0.240758 -0.0128494 54 113 39
0.0101015 -0.241507 -0.0130544 57 113 40
0.00970235 -0.243834 -0.0147048 60 114 45
0.0138069 -0.252739 -0.0223582 66 115 48
0.0134097 -0.255172 -0.0240877 72 118 50
0.0130097 -0.257621 -0.0258292 78 130 51
0.0122224 -0.259511 -0.0270595 84 127 62
0.0114322 -0.261408 -0.0282941 84 101 67
0.0102576 -0.262728 -0.0290051 71 46 34
0.00908296 -0.264048 -0.0297161 61 47 33
0.0587988 -0.200558 0.00366846 62 62 46
0.0571734 -0.201401 0.00342741 61 63 49
0.0560096 -0.202709 0.00272302 91 116 64
0.0548458 -0.204017 0.00201865 115 169 82
0.0541353 -0.2058 0.000846006 124 185 88
0.0525184 -0.206633 0.000610076 125 186 88
0.0500167 -0.206511 0.00130851 127 188 89
0.047541 -0.206391 0.00199973 128 189 90
0.045091 -0.206271 0.00268386 128 189 90
0.0422426 -0.205688 0.00381466 128 190 90
0.0411053 -0.206966 0.00312627 127 190 90
0.0387175 -0.206845 0.00379669 138 196 94
0.037174 -0.207651 0.00356292 129 183 93
0.0352284 -0.20799 0.00377906 116 164 84
0.0349153 -0.21019 0.00219586 109 152 77
0.0578727 -0.245176 -0.0297549 78 136 62
0.056125 -0.245998 -0.0299507 91 148 72
0.0553634 -0.247997 -0.0312736 86 135 62
0.0545989 -0.250003 -0.0326014 73 115 43
0.0533422 -0.251416 -0.0333621 58 104 33
0.0525726 -0.253433 -0.0346963 48 105 34
0.0513137 -0.254848 -0.0354582 51 111 40
0.0500547 -0.256263 -0.0362202 57 113 43
0.0487959 -0.257678 -0.036982 59 116 47
0.0475372 -0.259093 -0.0377438 67 121 52
0.0458033 -0.25989 -0.0379248 68 117 57
0.0440761 -0.260685 -0.038105 65 109 62
0.0423555 -0.261476 -0.0382844 65 114 66
0.0406414 -0.262264 -0.0384632 66 120 63
0.0389337 -0.263049 -0.0386412 68 122 58
0.0354307 -0.261378 -0.0365319 74 123 55
0.0248862 -0.255964 -0.0298921 71 115 47
0.0184412 -0.249897 -0.023754 66 113 46
0.0141757 -0.246799 -0.0203834 59 113 46
0.0164897 -0.253093 -0.025691 55 115 47
0.0153165 -0.254412 -0.0264009 56 117 51
0.0141435 -0.25573 -0.0271109 66 125 54
0.0129706 -0.257049 -0.0278208 77 131 58
0.0121816 -0.258941 -0.0290568 83 123 65
0.0113899 -0.260841 -0.0302972 81 93 63
0.0102131 -0.262164 -0.0310095 68 45 35
0.00903629 -0.263486 -0.0317217 60 48 32
0.0574616 -0.198491 0.00314064 62 62 43
0.0562996 -0.199798 0.00243741 61 66 56
0.0551376 -0.201104 0.0017342 102 142 77
0.0539758 -0.20241 0.00103108 119 175 84
0.053265 -0.204187 -0.000141285 122 182 87
0.051205 -0.204549 9.37954e-05 123 183 87
0.0491595 -0.204909 0.000327267 125 184 87
0.0462582 -0.20433 0.001484 126 186 88
0.0438231 -0.204221 0.00216841 126 187 89
0.040993 -0.203654 0.00329886 126 188 89
0.0390275 -0.204008 0.0035165 127 187 89
0.0370755 -0.204359 0.00373273 140 194 93
0.0359497 -0.205625 0.00305144 126 175 86
0.0348241 -0.20689 0.00237019 112 159 79
0.0579176 -0.244537 -0.0318932 74 133 60
0.0561666 -0.245361 -0.0320854 88 144 69
0.0549119 -0.246771 -0.0328447 87 137 63
0.0541465 -0.248776 -0.0341755 70 114 47
0.0533783 -0.250788 -0.0355113 49 99 31
0.0521192 -0.252203 -0.0362734 38 102 27
0.05086 -0.253619 -0.0370354 41 109 36
0.0496011 -0.255034 -0.0377973 45 113 42
0.0483422 -0.256449 -0.0385591 52 115 47
0.0470834 -0.257864 -0.039321 73 123 57
0.0458247 -0.259279 -0.0400827 77 102 55
0.0436238 -0.259461 -0.0396762 67 69 44
0.0419038 -0.260254 -0.0398527 62 70 41
0.0397302 -0.260431 -0.0394492 61 67 38
0.0362196 -0.258785 -0.0373323 63 65 40
0.0327737 -0.257169 -0.0352544 67 66 42
0.0311152 -0.257948 -0.0354346 68 72 43
0.0277537 -0.256357 -0.0333966 66 78 45
0.0223994 -0.251924 -0.0287107 64 89 54
0.0200029 -0.251555 -0.0278381 62 98 62
0.0176321 -0.25119 -0.0269747 62 108 65
0.0164567 -0.252511 -0.027686 63 117 68
0.0152815 -0.253832 -0.0283973 66 127 71
0.0141062 -0.255154 -0.0291085 78 137 76
0.0129311 -0.256475 -0.0298197 84 141 83
0.0121407 -0.25837 -0.0310614 77 109 74
0.0109636 -0.259693 -0.0317738 63 65 53
0.0101684 -0.261597 -0.0330211 59 47 35
0.0570455 -0.197355 0.00168736 61 62 43
0.0554287 -0.1982 0.00145058 67 78 59
0.0542687 -0.199504 0.000748612 105 154 82
0.0535595 -0.201274 -0.000422232 119 179 86
0.051949 -0.202112 -0.000655182 120 180 86
0.0503442 -0.202947 -0.000887267 121 181 86
0.0478665 -0.202845 -0.000184707 122 182 87
0.0449841 -0.202283 0.000971533 123 184 88
0.0421411 -0.201727 0.00211199 123 186 89
0.0397518 -0.201634 0.0027863 123 186 89
0.037797 -0.201993 0.00300493 128 186 89
0.0362627 -0.202804 0.00277364 137 191 94
0.0351388 -0.204068 0.00209352 120 169 84
0.0592225 -0.242478 -0.0332776 85 140 69
0.0579628 -0.243894 -0.0340399 75 129 57
0.0557151 -0.244135 -0.0336568 86 142 65
0.0544603 -0.245546 -0.0344161 86 139 63
0.053694 -0.247548 -0.0357499 69 117 54
0.0529249 -0.249558 -0.0370887 48 102 39
0.0516656 -0.250973 -0.0378507 36 102 28
0.0504064 -0.252389 -0.0386127 40 109 33
0.0491473 -0.253804 -0.0393746 48 113 39
0.0478884 -0.25522 -0.0401365 51 116 47
0.0466294 -0.256635 -0.0408984 76 124 58
0.0448971 -0.257437 -0.0410733 81 96 56
0.0431713 -0.258237 -0.0412477 68 60 45
0.0409887 -0.258422 -0.0408382 59 60 36
0.0392802 -0.259214 -0.0410118 60 57 35
0.0353267 -0.256979 -0.0383097 62 56 41
0.0323318 -0.255975 -0.0367883 63 59 41
0.0289528 -0.254399 -0.0347343 60 61 38
0.0260531 -0.25343 -0.0332635 53 61 37
0.0219698 -0.250765 -0.0302007 54 63 42
0.0199761 -0.250966 -0.0298514 56 61 42
0.0183939 -0.251731 -0.0300353 56 61 42
0.0172121 -0.253059 -0.0307505 56 58 41
0.0152462 -0.253251 -0.030401 61 58 41
0.0140688 -0.254575 -0.0311135 68 54 36
0.0132788 -0.25647 -0.0323598 63 54 41
0.0120995 -0.257796 -0.0330735 60 55 42
0.0109203 -0.259121 -0.033787 58 57 41
0.0566294 -0.196218 0.000233822 57 62 43
0.0550132 -0.197065 -4.24683e-07 79 100 59
0.0538531 -0.19837 -0.000702418 107 162 82
0.0526931 -0.199674 -0.00140435 118 177 85
0.0510868 -0.200513 -0.00163519 119 177 84
0.0494862 -0.20135 -0.00186519 120 178 85
0.0465824 -0.200796 -0.000693403 121 180 86
0.0437186 -0.200249 0.000462331 121 181 87
0.0408938 -0.19971 0.00160239 121 184 87
0.0389318 -0.200077 0.00182535 122 185 87
0.0369831 -0.200442 0.00204686 132 189 90
0.035859 -0.201706 0.00136667 128 183 94
0.034735 -0.202969 0.000686489 116 165 84
0.0600293 -0.239831 -0.0340928 110 160 81
0.0587694 -0.241247 -0.0348552 94 147 75
0.0570131 -0.24208 -0.0350422 76 126 55
0.0557558 -0.243493 -0.035803 84 140 64
0.0544985 -0.244907 -0.0365638 86 140 63
0.0537307 -0.246912 -0.0379042 74 123 58
0.0524713 -0.248328 -0.0386663 54 105 42
0.0516984 -0.250343 -0.0400131 38 101 26
0.0504367 -0.251761 -0.0407766 39 109 30
0.0486935 -0.252575 -0.0409523 50 112 36
0.0474344 -0.25399 -0.0417142 50 117 46
0.0461754 -0.255406 -0.0424761 73 132 59
0.0444439 -0.25621 -0.0426481 83 121 64
0.0427189 -0.257012 -0.0428194 74 88 57
0.0405378 -0.257202 -0.042404 63 56 41
0.0383732 -0.25739 -0.0419918 58 56 36
0.0348815 -0.255776 -0.0398553 58 58 41
0.0318898 -0.25478 -0.0383224 59 56 39
0.0289419 -0.2538 -0.036812 58 57 36
0.0260369 -0.252833 -0.0353234 56 59 38
0.0227632 -0.251308 -0.033312 55 56 40
0.0203519 -0.250941 -0.03241 58 52 38
0.0187631 -0.251708 -0.03259 57 56 39
0.0171801 -0.252473 -0.0327693 57 55 39
0.0156028 -0.253235 -0.0329479 59 48 37
0.0144211 -0.254563 -0.0336629 56 47 36
0.0132395 -0.255891 -0.0343779 53 46 38
0.0573755 -0.193774 -0.000516675 64 61 45
0.0557579 -0.194626 -0.000749655 57 63 43
0.0545976 -0.195931 -0.00145171 97 125 66
0.0529877 -0.196777 -0.00168256 110 167 81
0.0518297 -0.198079 -0.00238327 115 173 83
0.0506717 -0.199381 -0.00308394 118 173 82
0.0486312 -0.199758 -0.00283993 119 174 83
0.0453072 -0.19876 -0.0011989 119 175 84
0.04204 -0.197779 0.00041426 119 178 85
0.039655 -0.197706 0.00109599 119 181 85
0.0381145 -0.198526 0.000867389 121 182 87
0.0365794 -0.199343 0.00063964 136 190 94
0.0354552 -0.200607 -4.05833e-05 121 173 89
0.0595763 -0.238599 -0.0356706 109 162 81
0.0578182 -0.239437 -0.0358561 99 151 77
0.0565607 -0.240851 -0.036617 76 123 56
0.0553033 -0.242265 -0.0373779 80 136 63
0.0545368 -0.244265 -0.0387199 86 139 63
0.0537675 -0.246273 -0.040067 79 129 58
0.0525056 -0.247692 -0.0408305 60 108 42
0.0512438 -0.24911 -0.0415941 40 98 26
0.049982 -0.250529 -0.0423575 36 106 28
0.0487204 -0.251947 -0.0431209 47 111 34
0.0469804 -0.25276 -0.0432921 48 116 42
0.0457213 -0.254176 -0.044054 62 131 55
0.0439905 -0.254983 -0.044223 83 136 71
0.0422663 -0.255788 -0.0443914 93 120 74
0.0400869 -0.255982 -0.0439702 75 83 55
0.0379239 -0.256175 -0.043552 63 60 45
0.0339926 -0.253978 -0.0408267 62 59 40
0.0310128 -0.252998 -0.0392896 60 55 36
0.028503 -0.252614 -0.0383352 58 54 35
0.025601 -0.251656 -0.0368356 55 57 38
0.0223312 -0.250142 -0.0348106 53 55 40
0.0207302 -0.250915 -0.0349873 54 55 37
0.0187338 -0.251117 -0.0346196 53 53 37
0.0565027 -0.192186 -0.00149907 64 62 49
0.0553423 -0.193491 -0.00220117 55 65 51
0.053731 -0.194342 -0.00243077 100 140 70
0.0525727 -0.195644 -0.00313156 109 166 77
0.0514146 -0.196946 -0.00383229 112 169 80
0.0498132 -0.197789 -0.00405855 114 170 80
0.0473422 -0.197715 -0.00334083 114 171 80
0.0436147 -0.196289 -0.00123885 114 172 81
0.0412133 -0.196223 -0.000546403 116 174 82
0.0388365 -0.196158 0.000139035 117 176 82
0.0373 -0.19698 -8.75667e-05 120 179 87
0.0361757 -0.198244 -0.000767834 134 190 96
0.0350514 -0.199508 -0.00144804 117 169 84
0.0586235 -0.236794 -0.0366703 109 165 80
0.0573658 -0.238208 -0.0374313 104 156 78
0.0561082 -0.239622 -0.0381922 76 121 57
0.055343 -0.241618 -0.0395358 77 133 62
0.0540833 -0.243034 -0.040298 85 139 63
0.0533131 -0.24504 -0.0416481 84 134 60
0.052051 -0.246459 -0.0424117 69 114 46
0.0507891 -0.247877 -0.0431752 49 98 31
0.0495273 -0.249296 -0.0439387 38 104 31
0.0482655 -0.250715 -0.0447021 43 109 34
0.0465263 -0.251531 -0.0448703 43 112 37
0.0452671 -0.252946 -0.0456322 47 122 48
0.0435371 -0.253756 -0.0457983 71 137 69
0.0413487 -0.253959 -0.045371 92 147 85
0.0391766 -0.25416 -0.0449469 94 140 83
0.0361191 -0.253166 -0.0433591 103 107 61
0.0331069 -0.252187 -0.0417948 99 94 55
0.0305715 -0.251806 -0.0408214 80 73 53
0.0272145 -0.250271 -0.0387344 62 60 51
0.024748 -0.249905 -0.0377917 52 57 50
0.0218991 -0.248976 -0.0363094 52 57 43
0.0202988 -0.249751 -0.0364834 51 58 38
0.0187042 -0.250524 -0.0366567 53 55 34
0.0167186 -0.250727 -0.0362837 52 53 34
0.0147472 -0.250928 -0.0359133 49 54 38
0.0135653 -0.252257 -0.0366284 48 51 41
0.0560872 -0.191051 -0.00295083 65 63 50
0.0549267 -0.192356 -0.00365294 61 70 58
0.053316 -0.193209 -0.00388003 99 149 75
0.0521577 -0.194511 -0.0045808 106 163 76
0.0505548 -0.195359 -0.00480586 109 164 76
0.0493986 -0.196659 -0.00550529 110 166 77
0.0464952 -0.196137 -0.0043085 110 168 78
0.0423603 -0.194286 -0.00173862 111 169 80
0.0399733 -0.194231 -0.00104601 114 170 80
0.0380207 -0.194616 -0.000814922 116 172 81
0.0368962 -0.19588 -0.00149526 120 178 85
0.0357718 -0.197144 -0.00217553 129 186 96
0.0346475 -0.198409 -0.00285574 113 168 83
0.059429 -0.23415 -0.0374847 110 167 79
0.0576743 -0.234996 -0.0376665 111 168 79
0.0569133 -0.236979 -0.0390067 105 158 76
0.0561496 -0.23897 -0.0403519 76 124 57
0.0548896 -0.240386 -0.0411142 75 132 60
0.0536297 -0.241803 -0.0418765 85 141 65
0.0528585 -0.243806 -0.0432295 89 142 64
0.0520844 -0.245817 -0.0445877 83 127 55
0.05082 -0.247239 -0.0453527 71 114 44
0.0495557 -0.248661 -0.0461176 60 115 43
0.0473316 -0.248884 -0.0456869 58 119 44
0.0460721 -0.2503 -0.0464488 56 120 44
0.0443404 -0.251116 -0.0466134 60 128 52
0.0430836 -0.252529 -0.0473738 74 143 65
0.0408968 -0.252736 -0.0469406 93 159 78
0.0382697 -0.252345 -0.0459202 109 166 83
0.0347786 -0.250778 -0.0437474 125 155 70
0.0317873 -0.24982 -0.042186 116 148 78
0.0296984 -0.250032 -0.0417827 100 138 85
0.0263553 -0.248517 -0.0396908 87 124 82
0.0234844 -0.247594 -0.0381895 87 114 71
0.021467 -0.247809 -0.0378085 100 105 60
0.019464 -0.248023 -0.0374301 90 90 54
0.0178738 -0.248797 -0.0376014 75 72 51
0.0162893 -0.249569 -0.0377721 59 61 51
0.0143193 -0.249775 -0.0373964 50 56 50
0.0131374 -0.251103 -0.0381115 50 52 43
0.0119555 -0.252432 -0.0388265 55 50 38
0.0107738 -0.253761 -0.0395415 55 52 36
0.00959212 -0.25509 -0.0402564 54 52 34
0.00841057 -0.256418 -0.0409712 53 47 30
0.0556716 -0.189915 -0.00440283 64 63 45
0.054511 -0.19122 -0.00510494 66 81 55
0.0529009 -0.192075 -0.00532951 98 151 75
0.0517425 -0.193378 -0.00603031 103 159 74
0.0501402 -0.194227 -0.00625282 105 160 75
0.0485436 -0.195074 -0.00647447 107 162 75
0.045651 -0.194565 -0.00527311 108 164 76
0.041533 -0.192735 -0.00269607 108 164 78
0.0391543 -0.192688 -0.00199982 109 165 80
0.037617 -0.193516 -0.00222286 111 169 82
0.0364924 -0.19478 -0.00290319 122 178 85
0.035368 -0.196045 -0.00358347 122 181 93
0.0342435 -0.197309 -0.00426371 112 167 82
0.0584783 -0.232357 -0.0384796 110 166 79
0.0572228 -0.233768 -0.0392392 108 164 77
0.0559673 -0.23518 -0.0399987 100 155 73
0.0556961 -0.237738 -0.0419306 76 128 61
0.054436 -0.239155 -0.0426929 75 130 58
0.053176 -0.240572 -0.0434552 86 143 65
0.0524039 -0.242573 -0.0448112 93 148 68
0.0516289 -0.244582 -0.0461724 88 136 63
0.050851 -0.246598 -0.0475387 78 122 55
0.0490999 -0.247425 -0.0477023 71 121 52
0.0473556 -0.248249 -0.0478653 69 128 57
0.0456179 -0.24907 -0.0480276 69 132 60
0.0443586 -0.250486 -0.0487894 76 142 66
0.0416969 -0.250106 -0.047753 85 152 71
0.0390652 -0.249729 -0.0467281 96 160 73
0.0355665 -0.248187 -0.0445478 108 164 72
0.0343332 -0.249573 -0.0452939 114 169 74
0.031345 -0.248624 -0.0437212 112 175 87
0.0292577 -0.248841 -0.0433123 112 182 94
0.0259185 -0.247337 -0.0412065 113 178 91
0.0230507 -0.246423 -0.0396943 118 166 82
0.0210348 -0.246642 -0.0393078 130 159 77
0.0190333 -0.24686 -0.0389241 122 150 79
0.0174437 -0.247637 -0.0390927 110 141 85
0.0158598 -0.248411 -0.0392608 101 131 84
0.0142817 -0.249182 -0.0394281 101 123 76
0.0127093 -0.24995 -0.0395949 106 113 65
0.0115274 -0.251279 -0.0403099 100 96 58
0.0103456 -0.252608 -0.0410249 86 79 55
0.00916384 -0.253936 -0.0417398 69 62 49
0.00798216 -0.255265 -0.0424546 58 49 41
0.00717837 -0.257169 -0.0437255 50 48 37
0.0552558 -0.188779 -0.00585508 63 65 49
0.0540952 -0.190084 -0.0065572 70 96 54
0.0524858 -0.190942 -0.00677925 97 152 72
0.0513273 -0.192244 -0.00748005 100 156 73
0.0497257 -0.193096 -0.00770006 102 156 72
0.0476915 -0.193495 -0.00744057 102 158 73
0.0443809 -0.192553 -0.00576296 103 159 74
0.0402919 -0.190754 -0.00318889 104 159 76
0.0383379 -0.191151 -0.00295063 104 161 77
0.0372132 -0.192416 -0.00363103 109 168 80
0.0360885 -0.193681 -0.00431138 125 178 86
0.034964 -0.194945 -0.00499166 116 173 87
0.0338395 -0.19621 -0.00567191 113 168 82
0.0615447 -0.22942 -0.0396971 114 173 84
0.0602841 -0.230837 -0.0404597 113 170 83
0.0580268 -0.231129 -0.0400526 111 166 81
0.0567711 -0.232541 -0.0408122 108 163 79
0.0555155 -0.233953 -0.0415717 99 154 73
0.0552425 -0.236506 -0.0435096 80 132 65
0.0539823 -0.237923 -0.0442719 75 128 57
0.0532116 -0.23992 -0.0456296 86 143 65
0.0519492 -0.241339 -0.0463932 92 148 69
0.0516614 -0.243935 -0.0483602 78 130 63
0.0503944 -0.24536 -0.0491267 55 107 51
0.0491274 -0.246785 -0.0498931 43 101 43
0.0473797 -0.247611 -0.0500522 43 112 50
0.0456386 -0.248435 -0.0502107 48 121 57
0.0443767 -0.249854 -0.050974 55 129 60
0.0421764 -0.250073 -0.0505256 64 138 62
0.039532 -0.249696 -0.0494813 74 142 63
0.0364658 -0.248734 -0.0478568 85 145 65
0.0330041 -0.247206 -0.0456741 92 150 68
0.0304689 -0.246853 -0.0446794 95 153 72
0.0275362 -0.245932 -0.0431254 96 158 74
0.0263233 -0.247296 -0.0438591 99 163 77
0.0226169 -0.245251 -0.0411992 102 166 79
0.0206024 -0.245475 -0.0408074 107 170 83
0.0186024 -0.245698 -0.0404183 112 181 92
0.0170135 -0.246477 -0.0405843 121 191 100
0.0154304 -0.247253 -0.0407497 129 192 99
0.014244 -0.248587 -0.0414674 137 186 93
0.0126688 -0.249357 -0.0416308 146 180 91
0.0118715 -0.251255 -0.0429026 143 168 92
0.0106853 -0.252588 -0.0436201 129 153 90
0.0094993 -0.253922 -0.0443376 107 124 81
0.00831331 -0.255256 -0.045055 83 86 64
0.00712745 -0.256589 -0.0457724 62 54 42
0.00594161 -0.257923 -0.0464898 54 46 33
0.0548401 -0.187643 -0.00730757 63 68 49
0.0536793 -0.188948 -0.00800969 77 100 57
0.0525187 -0.190254 -0.00871179 95 147 70
0.050912 -0.191111 -0.00893008 98 151 71
0.049311 -0.191965 -0.00914756 98 151 70
0.0468423 -0.191921 -0.00840355 99 153 70
0.0431194 -0.190555 -0.00624972 100 155 72
0.0394722 -0.189217 -0.00413955 101 155 71
0.0379341 -0.190051 -0.00435903 101 157 72
0.0364013 -0.190882 -0.00457772 107 164 77
0.0352785 -0.192144 -0.00525694 125 178 85
0.0345599 -0.193845 -0.00640009 116 169 85
0.0334354 -0.19511 -0.00708037 115 169 82
0.0610915 -0.228187 -0.0412763 114 167 82
0.058831 -0.228489 -0.0408661 112 167 80
0.0570804 -0.229343 -0.0410413 113 166 81
0.0558269 -0.230753 -0.0417995 112 162 81
0.0555554 -0.23329 -0.0437345 103 153 76
0.0547888 -0.235274 -0.0450888 85 136 68
0.0540194 -0.237266 -0.0464481 74 128 59
0.0527569 -0.238686 -0.0472118 85 144 66
0.052472 -0.241272 -0.049182 92 149 70
0.0512047 -0.242697 -0.0499485 79 131 62
0.0504244 -0.244714 -0.0513246 57 109 48
0.049155 -0.246141 -0.0520925 40 102 39
0.0478856 -0.247568 -0.0528603 36 106 39
0.0466164 -0.248996 -0.0536281 41 106 40
0.0448701 -0.24982 -0.0537803 44 107 37
0.0431306 -0.250641 -0.0539319 48 109 37
0.0404657 -0.250259 -0.0528623 54 110 39
0.037831 -0.24988 -0.0518047 58 109 42
0.0347774 -0.248917 -0.0501629 58 111 45
0.0313313 -0.247388 -0.0479588 59 115 47
0.0283761 -0.246459 -0.0463722 57 123 52
0.024627 -0.244412 -0.0436706 57 130 57
0.0217735 -0.243521 -0.0421433 62 137 63
0.020576 -0.244867 -0.0428677 71 144 70
0.0181715 -0.244535 -0.0419128 82 151 73
0.0165833 -0.245316 -0.0420761 91 155 74
0.0150008 -0.246094 -0.0422389 100 160 77
0.0138144 -0.247429 -0.0429565 108 165 79
0.0126279 -0.248763 -0.0436742 117 172 85
0.0118291 -0.250662 -0.044952 122 178 92
0.0110274 -0.252569 -0.0462342 126 182 93
0.00983702 -0.253907 -0.0469543 123 166 89
0.00903048 -0.255823 -0.0482424 105 121 77
0.00822118 -0.257745 -0.0495351 76 58 44
0.00702681 -0.259088 -0.0502576 60 47 34
0.0548772 -0.186948 -0.00924463 59 68 42
0.0532634 -0.187812 -0.00946247 80 108 57
0.0521027 -0.189118 -0.0101646 91 143 70
0.0504967 -0.189977 -0.0103803 93 148 69
0.0488963 -0.190833 -0.0105953 94 150 70
0.0464296 -0.190796 -0.00984379 96 151 71
0.042288 -0.189005 -0.00720349 97 153 71
0.0390678 -0.188115 -0.00555057 97 153 71
0.0375303 -0.18895 -0.0057677 98 154 72
0.0364054 -0.190215 -0.00644808 104 162 78
0.0352806 -0.19148 -0.00712845 123 179 89
0.0341559 -0.192745 -0.00780877 114 165 81
0.0578831 -0.226708 -0.0418536 114 168 83
0.0566295 -0.228118 -0.0426118 115 168 84
0.0558675 -0.230085 -0.0439589 114 163 85
0.0555956 -0.232624 -0.0459059 108 155 80
0.0548275 -0.234611 -0.0472668 92 141 71
0.0540565 -0.236606 -0.0486328 75 128 58
0.0532828 -0.238608 -0.0500039 84 143 66
0.0525061 -0.240617 -0.0513803 90 148 71
0.0512364 -0.242045 -0.0521483 86 138 64
0.0514357 -0.245255 -0.0547684 74 124 55
0.0506498 -0.247292 -0.0561643 61 121 52
0.0493705 -0.248731 -0.056938 58 123 51
0.0480915 -0.250169 -0.0577117 65 124 50
0.0463289 -0.250998 -0.0578573 68 123 48
0.0440956 -0.251216 -0.0573775 66 121 48
0.04141 -0.250828 -0.0562821 63 119 48
0.0392167 -0.251043 -0.0558127 60 115 47
0.0365841 -0.25066 -0.0547365 55 110 46
0.0339811 -0.250281 -0.0536722 52 110 43
0.0296584 -0.247569 -0.0502438 48 112 42
0.0258677 -0.245495 -0.0474799 47 115 43
0.0217492 -0.242908 -0.04421 50 115 43
0.0193339 -0.242586 -0.0432462 55 112 42
0.0173418 -0.242818 -0.0428491 60 112 40
0.0157578 -0.243601 -0.0430105 63 114 43
0.0145712 -0.244936 -0.0437283 64 117 47
0.0133846 -0.24627 -0.044446 65 120 52
0.0121982 -0.247604 -0.0451636 69 124 54
0.0117865 -0.250068 -0.0470089 73 128 58
0.0109832 -0.251976 -0.0482972 80 132 60
0.0101771 -0.253892 -0.0495901 90 132 67
0.00936823 -0.255815 -0.0508876 98 116 73
0.00855653 -0.257744 -0.0521897 76 59 46
0.0073577 -0.259092 -0.0529148 57 47 35
0.0544606 -0.185809 -0.0107002 65 69 43
0.0532977 -0.187117 -0.0114035 84 118 58
0.0516866 -0.187981 -0.0116176 94 146 70
0.0500811 -0.188843 -0.0118308 96 149 69
0.0484814 -0.189701 -0.0120433 94 149 70
0.0460168 -0.18967 -0.0112843 96 153 70
0.0418801 -0.187893 -0.00862679 97 153 70
0.0386633 -0.187012 -0.00696182 97 153 71
0.0375363 -0.188279 -0.00764344 99 156 72
0.0360014 -0.189115 -0.007857 106 162 76
0.0348765 -0.19038 -0.00853737 119 175 89
0.0569386 -0.224934 -0.0428376 114 168 84
0.0556873 -0.226341 -0.0435944 113 164 83
0.0554156 -0.228857 -0.0455327 111 159 81
0.0551418 -0.231392 -0.0474856 108 155 79
0.0548662 -0.233946 -0.0494533 101 148 75
0.0540937 -0.235943 -0.0508261 79 127 58
0.0533184 -0.237948 -0.0522041 82 139 64
0.0520485 -0.239376 -0.0529721 86 145 68
0.0522523 -0.242571 -0.055597 84 133 61
0.0519622 -0.245202 -0.0576223 71 112 43
0.0516699 -0.247853 -0.0596631 52 98 27
0.0503832 -0.2493 -0.0604413 43 108 32
0.0490966 -0.250747 -0.0612195 55 111 37
0.0473218 -0.25158 -0.0613591 56 118 42
0.0445915 -0.251186 -0.0602304 58 123 47
0.042365 -0.251403 -0.0597415 62 125 56
0.0396892 -0.251014 -0.0586327 68 120 63
0.0375025 -0.251229 -0.0581543 66 104 62
0.0353323 -0.251443 -0.0576795 67 109 59
0.032286 -0.250464 -0.0559874 72 113 57
0.0279853 -0.247751 -0.0525289 75 115 54
0.0225481 -0.243412 -0.0474279 74 114 52
0.0189021 -0.24142 -0.0447439 67 107 52
0.0169115 -0.241657 -0.0443415 65 113 52
0.0153282 -0.242442 -0.0445002 60 113 48
0.0141415 -0.243777 -0.045218 55 114 49
0.0129548 -0.245111 -0.0459357 52 117 52
0.0129364 -0.248129 -0.0483521 52 118 51
0.0117436 -0.249471 -0.0490735 61 127 56
0.0109387 -0.251382 -0.0503679 69 134 61
0.010131 -0.2533 -0.0516668 80 131 69
0.0104881 -0.256975 -0.054722 87 108 70
0.00928262 -0.25833 -0.0554511 71 56 44
0.00885388 -0.260873 -0.0573639 56 45 35
0.054497 -0.185109 -0.012647 64 71 49
0.0528808 -0.185979 -0.0128593 91 133 63
0.0512704 -0.186845 -0.0130709 100 154 71
0.0496656 -0.187708 -0.0132816 103 156 71
0.0480666 -0.188569 -0.0134915 102 157 71
0.045604 -0.188543 -0.0127251 100 158 73
0.0423166 -0.187646 -0.0110051 101 158 74
0.0390851 -0.186765 -0.00931434 102 157 74
0.0371316 -0.187176 -0.00905495 104 160 74
0.0355973 -0.188014 -0.00926615 109 167 79
0.0348778 -0.189711 -0.0104181 110 169 90
0.0564885 -0.22371 -0.0444057 114 169 84
0.0552371 -0.225117 -0.0451626 110 164 81
0.0549636 -0.227628 -0.0471068 108 159 79
0.0546881 -0.230159 -0.0490656 108 156 79
0.0544105 -0.232708 -0.0510393 105 154 78
0.054131 -0.235277 -0.053028 78 127 59
0.0528609 -0.236706 -0.0537962 80 137 61
0.0520817 -0.238716 -0.0551824 85 142 66
0.052782 -0.242507 -0.0584544 85 136 61
0.0524928 -0.245148 -0.0604985 71 116 48
0.0517026 -0.247201 -0.0619164 45 95 34
0.0509095 -0.249262 -0.0633397 33 107 33
0.0491241 -0.250101 -0.0634758 45 111 38
0.0473457 -0.250937 -0.0636114 50 117 46
0.0455742 -0.251769 -0.0637463 57 124 50
0.042379 -0.250766 -0.0619691 66 120 58
0.0401651 -0.250984 -0.0614744 70 98 62
0.0379682 -0.2512 -0.0609834 67 58 36
0.035788 -0.251415 -0.0604961 61 54 36
0.0336243 -0.251628 -0.0600124 61 58 40
0.0305908 -0.250648 -0.0583028 63 62 41
0.0246133 -0.245628 -0.0524396 62 67 44
0.0196811 -0.241913 -0.0479475 57 78 54
0.0168783 -0.241045 -0.0463978 60 94 60
0.0148985 -0.241283 -0.0459901 62 100 61
0.0133216 -0.242068 -0.0461456 64 106 61
0.012525 -0.243953 -0.0474256 66 111 60
0.0128956 -0.247527 -0.050423 72 117 59
0.0120912 -0.249439 -0.0517222 87 134 69
0.0124622 -0.253086 -0.0547779 97 140 76
0.0116499 -0.255024 -0.0560967 91 123 74
0.010442 -0.256383 -0.0568272 69 82 62
0.00962472 -0.258331 -0.058152 61 49 40
0.00958811 -0.261482 -0.0606839 55 43 36
0.0545334 -0.184406 -0.014601 67 84 64
0.0529144 -0.185279 -0.0148102 109 165 81
0.051301 -0.186148 -0.0150187 114 172 81
0.0492501 -0.186574 -0.0147326 114 171 79
0.0476517 -0.187436 -0.01494 114 169 78
0.0451911 -0.187417 -0.014166 112 170 80
0.0419072 -0.18653 -0.0124338 110 169 81
0.0399272 -0.186946 -0.0121616 111 169 81
0.0375481 -0.18693 -0.0114148 116 172 81
0.0360078 -0.187771 -0.0116227 119 176 85
0.0361056 -0.190344 -0.0137418 101 167 90
0.0555483 -0.221944 -0.0453836 114 168 81
0.0542992 -0.223349 -0.0461391 109 162 79
0.0545115 -0.2264 -0.0486811 107 157 78
0.0542342 -0.228926 -0.0506459 108 157 77
0.0544484 -0.232038 -0.0532378 107 159 77
0.0536735 -0.234035 -0.0546205 80 133 65
0.0528957 -0.23604 -0.0560083 76 135 63
0.052115 -0.238053 -0.0574015 82 140 64
0.0528168 -0.241846 -0.0606969 85 138 61
0.052527 -0.24449 -0.0627537 73 120 49
0.0517353 -0.246547 -0.0641787 47 98 33
0.0509406 -0.248611 -0.0656092 33 105 33
0.0496463 -0.250066 -0.066392 42 113 39
0.0478599 -0.250905 -0.0665224 49 118 46
0.0455946 -0.251126 -0.0660035 56 126 53
0.0423929 -0.250127 -0.0642055 69 127 62
0.0397066 -0.249744 -0.0630669 82 109 65
0.0379735 -0.250567 -0.063201 72 56 35
0.0353327 -0.250184 -0.0620766 58 58 38
0.0331707 -0.250402 -0.0615869 55 59 38
0.0301405 -0.249432 -0.0598655 55 55 37
0.0254412 -0.246155 -0.055757 56 52 36
0.0192469 -0.240741 -0.0494538 51 55 38
0.0164471 -0.239881 -0.0478933 50 53 36
0.0144688 -0.240124 -0.0474803 53 54 35
0.0125046 -0.240364 -0.0470701 57 51 34
0.0117078 -0.242243 -0.0483496 60 48 34
0.0124625 -0.24636 -0.051924 61 54 35
0.0116572 -0.24827 -0.0532258 66 55 37
0.0124199 -0.252486 -0.0568834 71 53 36
0.0120014 -0.255012 -0.0588051 68 49 35
0.0115799 -0.257557 -0.0607408 58 44 36
0.0552825 -0.18195 -0.0153564 70 72 49
0.0541151 -0.183263 -0.0160624 89 111 66
0.0524967 -0.184138 -0.0162691 122 184 92
0.0508839 -0.185009 -0.0164751 123 181 88
0.0488344 -0.185439 -0.0161838 123 184 89
0.0472366 -0.186304 -0.0163888 125 183 88
0.0452106 -0.186727 -0.0160993 126 185 89
0.0423452 -0.186277 -0.0148338 126 185 89
0.0403569 -0.186696 -0.0145525 125 185 89
0.0383822 -0.187112 -0.0142731 131 189 93
0.0376598 -0.188826 -0.0154455 134 185 92
0.0394477 -0.193209 -0.0195841 97 152 72
0.0553708 -0.218249 -0.0450165 113 173 83
0.0541261 -0.219649 -0.0457692 112 170 81
0.0543365 -0.222668 -0.0482996 108 165 79
0.0545493 -0.225722 -0.0508587 105 161 77
0.0542715 -0.22825 -0.0528355 104 161 76
0.0544862 -0.231364 -0.0554449 103 160 75
0.0537098 -0.233364 -0.0568344 86 145 74
0.0529305 -0.235372 -0.0582292 78 133 60
0.0531398 -0.238557 -0.0608947 83 139 63
0.0528516 -0.241183 -0.0629484 85 141 64
0.0525614 -0.24383 -0.0650179 74 125 54
0.051768 -0.245889 -0.0664501 51 103 38
0.0504736 -0.247345 -0.0672329 35 102 27
0.0491792 -0.248801 -0.0680157 39 110 36
0.0478848 -0.250257 -0.0687984 45 117 44
0.0461018 -0.251095 -0.068924 50 124 50
0.0428838 -0.250092 -0.0670966 71 133 61
0.0397152 -0.249105 -0.0652971 97 129 71
0.0375156 -0.249329 -0.0647907 71 80 57
0.0353328 -0.249551 -0.064288 58 56 40
0.0336179 -0.25037 -0.0644189 62 58 33
0.0301307 -0.248805 -0.0620479 64 59 30
0.0249973 -0.244956 -0.0572969 61 56 29
0.0188126 -0.239569 -0.0509604 57 57 30
0.010834 -0.246537 -0.0541479 50 52 33
0.0127741 -0.252465 -0.059595 52 54 31
0.0127544 -0.255589 -0.0621397 53 52 30
0.0560317 -0.179493 -0.0161121 55 68 48
0.0548642 -0.180807 -0.0168181 73 95 63
0.0532443 -0.181686 -0.0170236 119 167 82
0.0516301 -0.182562 -0.0172283 132 194 96
0.0504668 -0.18387 -0.0179316 134 193 93
0.0484187 -0.184305 -0.0176353 133 194 93
0.0468215 -0.185171 -0.0178378 135 194 94
0.0447968 -0.185599 -0.0175432 137 195 93
0.0423595 -0.185589 -0.0167585 136 196 93
0.0407894 -0.186444 -0.0169602 137 198 95
0.0396447 -0.187732 -0.0176523 140 200 98
0.0397624 -0.190341 -0.019832 130 187 94
0.0398814 -0.192978 -0.0220343 100 148 68
0.0461409 -0.202196 -0.0315978 98 163 76
0.0523182 -0.211481 -0.0411894 108 170 79
0.0515645 -0.213375 -0.0425042 109 169 78
0.0536783 -0.218432 -0.0473293 108 166 77
0.0543738 -0.221985 -0.0504685 105 163 77
0.0545872 -0.225041 -0.0530448 104 161 77
0.0543089 -0.227571 -0.0550338 106 162 76
0.0545241 -0.230688 -0.0576607 107 163 76
0.0537462 -0.232691 -0.0590571 94 153 79
0.05396 -0.23586 -0.0617275 79 132 60
0.0536749 -0.238476 -0.0637844 80 136 62
0.0528865 -0.240517 -0.0652088 84 140 64
0.0525958 -0.243167 -0.0672912 77 131 60
0.0518009 -0.245229 -0.0687306 57 111 50
0.0505037 -0.246688 -0.069515 36 99 27
0.0492067 -0.248147 -0.0702993 35 105 37
0.0474175 -0.248991 -0.0704224 38 112 41
0.0456353 -0.249833 -0.0705449 43 119 46
0.0433785 -0.250058 -0.0700104 60 136 58
0.0406655 -0.249673 -0.0688296 92 155 76
0.0375199 -0.24869 -0.0670202 122 143 88
0.0353328 -0.248916 -0.0665081 88 95 66
0.0331624 -0.249139 -0.0659999 68 66 54
0.0305637 -0.248767 -0.0648659 60 55 42
0.0284318 -0.248989 -0.0643684 57 55 32
0.0183782 -0.238396 -0.0524672 52 57 33
0.0144041 -0.23593 -0.0491758 49 57 34
0.0112902 -0.234583 -0.0470776 48 55 35
0.0567811 -0.177036 -0.0168679 63 64 45
0.0556134 -0.178349 -0.017574 70 77 56
0.053992 -0.179233 -0.0177782 104 127 79
0.0523763 -0.180114 -0.0179816 137 199 106
0.0507664 -0.180991 -0.0181843 140 203 99
0.0496051 -0.182298 -0.0188864 139 202 99
0.0480029 -0.18317 -0.0190871 141 202 97
0.0464064 -0.184038 -0.019287 141 204 98
0.0439521 -0.184037 -0.0184905 140 206 99
0.0423737 -0.184898 -0.0186899 141 208 101
0.0408009 -0.185756 -0.0188887 150 211 104
0.0400761 -0.187483 -0.0200792 145 197 103
0.0397719 -0.189657 -0.0217755 113 166 88
0.0394657 -0.191846 -0.0234836 98 158 71
0.0443735 -0.199604 -0.03148 106 168 80
0.0449684 -0.202851 -0.0343539 109 171 79
0.0506505 -0.21166 -0.0434684 108 169 78
0.0532304 -0.217214 -0.0488897 109 165 75
0.0539225 -0.220758 -0.0520407 107 162 73
0.0541332 -0.223807 -0.0546259 105 161 74
0.0543464 -0.22689 -0.0572406 105 163 76
0.0545621 -0.230008 -0.0598853 106 165 78
0.0547805 -0.233163 -0.0625605 100 156 77
0.0539971 -0.235186 -0.0639772 79 129 58
0.0537113 -0.237805 -0.0660468 79 134 59
0.0529215 -0.239849 -0.0674784 85 143 64
0.0521287 -0.241901 -0.0689154 85 139 65
0.0513328 -0.24396 -0.070358 75 124 59
0.0500356 -0.245419 -0.0711424 60 106 44
0.0487385 -0.246878 -0.0719267 55 108 44
0.0469501 -0.247726 -0.0720466 53 109 43
0.0456556 -0.249182 -0.0728293 52 113 47
0.0433943 -0.24941 -0.0722849 55 122 54
0.0406759 -0.249028 -0.0710887 68 138 64
0.0375241 -0.248049 -0.0692586 95 168 86
0.0353327 -0.248277 -0.068737 100 174 100
0.0327068 -0.247908 -0.0675812 114 159 87
0.0314473 -0.249325 -0.0683427 122 134 69
0.0297429 -0.250143 -0.0684656 110 102 57
0.0224627 -0.243367 -0.0605119 78 74 56
0.0135852 -0.234237 -0.0500958 59 59 61
0.00897343 -0.230813 -0.0457743 52 55 51
0.00706589 -0.231082 -0.0453781 48 54 42
0.0051717 -0.231348 -0.0449845 45 53 36
0.00365257 -0.23213 -0.0451376 46 49 35
0.00249864 -0.233428 -0.0458353 48 47 35
0.0575307 -0.174578 -0.0176239 59 65 43
0.0563629 -0.175892 -0.0183301 70 75 56
0.05474 -0.17678 -0.018533 98 122 79
0.0531228 -0.177665 -0.0187352 137 202 104
0.0515114 -0.178547 -0.0189366 146 214 108
0.0494629 -0.179 -0.0186375 147 213 104
0.0487463 -0.18073 -0.0198382 146 214 104
0.0471483 -0.181604 -0.0200369 148 213 104
0.0451222 -0.182044 -0.0197348 150 214 105
0.0435389 -0.18291 -0.0199325 151 218 106
0.0419612 -0.183773 -0.0201295 157 222 110
0.0408122 -0.185066 -0.0208241 154 216 112
0.0405104 -0.187232 -0.0225231 131 193 100
0.0402066 -0.189412 -0.0242338 106 166 80
0.0403284 -0.192058 -0.0264707 104 168 79
0.0439473 -0.198444 -0.0329656 116 178 85
0.044539 -0.201683 -0.0358502 111 171 82
0.0502092 -0.21046 -0.0450061 111 171 82
0.0527824 -0.215995 -0.0504504 111 167 79
0.053471 -0.219531 -0.0536132 109 165 76
0.0541702 -0.22312 -0.0568239 106 165 76
0.0543839 -0.226206 -0.0594562 105 165 78
0.0546002 -0.229326 -0.0621187 106 165 78
0.0543182 -0.231908 -0.0641693 100 156 73
0.0545364 -0.235092 -0.066885 77 129 58
0.053748 -0.237131 -0.0683182 77 134 60
0.0529565 -0.239177 -0.069757 84 145 65
0.0521621 -0.241232 -0.0712013 89 147 68
0.0513647 -0.243294 -0.0726512 87 141 66
0.0500648 -0.244757 -0.0734371 77 137 62
0.0487651 -0.246219 -0.074223 72 133 58
0.046973 -0.247069 -0.0743387 76 133 57
0.045188 -0.247916 -0.0744539 82 139 61
0.04341 -0.24876 -0.0745685 89 149 68
0.0411618 -0.248989 -0.0740184 96 160 74
0.0389308 -0.249217 -0.0734726 102 172 82
0.0357923 -0.248236 -0.0716242 108 170 81
0.0336076 -0.248464 -0.0710936 118 166 77
0.0332488 -0.251098 -0.073162 122 163 75
0.0131567 -0.23308 -0.0515817 95 147 88
0.00855169 -0.229675 -0.0472368 107 136 77
0.00627659 -0.229432 -0.0462857 110 119 67
0.0043883 -0.229705 -0.0458896 95 94 61
0.00323422 -0.231003 -0.0465874 68 69 62
0.05782 -0.171703 -0.0178782 62 66 52
0.0561972 -0.172598 -0.0180817 73 81 62
0.05458 -0.173489 -0.0182844 106 132 83
0.0529686 -0.174377 -0.0184864 137 200 104
0.0513629 -0.175262 -0.0186876 148 217 109
0.0502053 -0.176564 -0.0193874 151 216 109
0.0481683 -0.177022 -0.0190878 152 220 108
0.0478904 -0.179168 -0.0207869 153 219 108
0.0458616 -0.179617 -0.0204823 156 223 109
0.0442768 -0.180488 -0.0206788 157 225 111
0.0426977 -0.181355 -0.0208745 164 225 116
0.0415485 -0.182648 -0.0215692 159 222 116
0.0408236 -0.184373 -0.0227665 141 203 103
0.0409477 -0.186978 -0.0249842 122 180 88
0.0402168 -0.188722 -0.0261957 113 178 88
0.0412001 -0.192272 -0.0294895 121 189 94
0.0444091 -0.198224 -0.0355344 120 180 86
0.0450061 -0.201473 -0.0384478 113 172 83
0.051184 -0.210789 -0.0482956 111 170 83
0.0523344 -0.214777 -0.0520113 110 167 83
0.0530195 -0.218303 -0.0551859 109 166 81
0.0537152 -0.221884 -0.0584086 109 169 81
0.0544215 -0.225518 -0.0616805 110 169 81
0.0541397 -0.228076 -0.0637217 106 163 75
0.0538559 -0.230652 -0.0657784 100 156 71
0.0540713 -0.233829 -0.0685034 77 132 59
0.0537846 -0.236453 -0.0705988 74 135 60
0.0529916 -0.238503 -0.0720448 84 145 66
0.051694 -0.239963 -0.0728293 90 147 68
0.0508956 -0.242023 -0.0742824 83 131 59
0.0495956 -0.243485 -0.0750683 63 99 31
0.0482957 -0.244948 -0.0758541 48 103 33
0.046996 -0.24641 -0.0766399 52 112 42
0.0452074 -0.24726 -0.0767509 60 121 50
0.0434258 -0.248106 -0.0768613 69 134 61
0.0416513 -0.24895 -0.0769713 77 147 70
0.0394097 -0.249179 -0.0764119 83 156 79
0.0376534 -0.250015 -0.076522 88 159 78
0.0363693 -0.251459 -0.0772983 97 163 78
0.0127282 -0.231924 -0.0530678 117 178 88
0.00775699 -0.228022 -0.0481446 126 175 85
0.00585681 -0.2283 -0.0477407 129 172 87
0.00396997 -0.228577 -0.0473397 126 171 94
0.00281578 -0.229875 -0.0480375 118 170 102
0.00130324 -0.230658 -0.048185 110 152 94
0.000151202 -0.231954 -0.0488814 115 138 82
0.0560328 -0.169326 -0.0178352 84 89 62
0.0544214 -0.17022 -0.0180377 119 147 89
0.0532635 -0.171523 -0.0187377 142 207 110
0.0521057 -0.172825 -0.0194377 150 219 111
0.0505041 -0.173711 -0.0196369 154 220 109
0.0484694 -0.174179 -0.0193369 155 223 110
0.0464489 -0.174643 -0.019039 155 224 110
0.0461663 -0.17677 -0.0207292 155 227 110
0.0445837 -0.177644 -0.020925 158 229 113
0.0434343 -0.178937 -0.0216198 172 231 118
0.042285 -0.18023 -0.0223145 156 214 113
0.0411359 -0.181523 -0.0230092 132 192 99
0.0404101 -0.183245 -0.024209 119 178 88
0.040532 -0.185846 -0.0264343 116 179 87
0.040227 -0.188029 -0.0281646 119 190 90
0.0407798 -0.191128 -0.0309548 126 195 94
0.0453229 -0.198477 -0.0386727 116 177 84
0.0454766 -0.201262 -0.0410645 113 172 83
0.0526496 -0.211638 -0.0522199 111 170 83
0.0523676 -0.214082 -0.0541761 111 168 82
0.0530542 -0.21761 -0.057373 112 168 83
0.0537513 -0.221192 -0.0606185 113 169 84
0.0544592 -0.224828 -0.0639136 113 167 82
0.0546765 -0.227954 -0.0666122 107 163 78
0.0538926 -0.229968 -0.0680367 103 157 74
0.0541085 -0.233147 -0.0707802 81 135 62
0.0533175 -0.235186 -0.0722238 76 137 61
0.0525235 -0.237233 -0.073673 85 148 67
0.0517265 -0.239288 -0.0751278 92 149 68
0.0504263 -0.240751 -0.0759138 83 132 58
0.0491263 -0.242214 -0.0766997 70 107 40
0.0478263 -0.243676 -0.0774856 60 108 41
0.0465265 -0.245138 -0.0782714 56 108 41
0.0452268 -0.246601 -0.0790571 51 109 40
0.043927 -0.248063 -0.0798428 48 113 41
0.0426274 -0.249525 -0.0806285 47 119 46
0.0408475 -0.250369 -0.0807315 52 122 49
0.0390747 -0.251209 -0.080834 58 126 52
0.0377804 -0.252665 -0.0816165 66 130 54
0.00733578 -0.226886 -0.049605 96 158 76
0.005437 -0.227168 -0.0491961 102 168 84
0.00355151 -0.227449 -0.04879 108 178 94
0.00239725 -0.228747 -0.0494878 115 190 103
0.000885397 -0.229533 -0.0496328 122 189 100
-0.000266775 -0.230829 -0.0503293 134 186 98
0.05311 -0.168271 -0.0184905 148 210 111
0.051956 -0.16957 -0.0191881 152 222 109
0.0503601 -0.170459 -0.0193871 156 224 107
0.0483327 -0.170936 -0.0190892 158 225 108
0.0467514 -0.171818 -0.0192872 158 226 109
0.0451756 -0.172696 -0.0194846 157 228 110
0.0448897 -0.174809 -0.0211705 160 230 114
0.0437421 -0.1761 -0.0218642 172 231 122
0.0425947 -0.177391 -0.0225578 146 202 109
0.0414473 -0.178682 -0.0232514 114 170 84
0.0407231 -0.180397 -0.0244495 106 166 79
0.0399966 -0.182118 -0.0256517 112 177 86
0.0401162 -0.184712 -0.0278845 118 185 89
0.0402371 -0.187334 -0.0301406 128 191 93
0.0403595 -0.189983 -0.0324204 122 179 88
0.0448927 -0.197305 -0.0401725 113 173 84
0.0459503 -0.201049 -0.0437003 111 172 84
0.0526833 -0.210938 -0.0543813 111 171 84
0.0528849 -0.213909 -0.0569604 110 171 84
0.0535779 -0.21745 -0.0601905 111 171 85
0.0537875 -0.220497 -0.0628371 112 171 86
0.0554974 -0.225254 -0.0674461 112 168 85
0.0547148 -0.227263 -0.0688723 108 163 81
0.0539293 -0.22928 -0.070304 105 157 75
0.0541458 -0.232461 -0.0730661 85 140 65
0.0533532 -0.234503 -0.074517 77 138 60
0.0525576 -0.236553 -0.0759735 86 147 63
0.0512573 -0.238016 -0.0767595 92 149 66
0.049957 -0.239479 -0.0775456 81 134 59
0.0491536 -0.241543 -0.0790106 63 118 53
0.048347 -0.243614 -0.0804815 54 116 49
0.047042 -0.245082 -0.0812704 53 118 50
0.045737 -0.246551 -0.0820592 52 122 50
0.0439437 -0.247404 -0.0821599 51 124 50
0.0426415 -0.248869 -0.0829471 52 124 49
0.040858 -0.249716 -0.0830458 59 122 47
0.0390815 -0.25056 -0.0831441 65 121 46
0.0377847 -0.252019 -0.083928 66 119 46
0.0364879 -0.253478 -0.0847119 65 117 47
0.00501718 -0.226036 -0.0506517 68 133 59
0.00385867 -0.227339 -0.051352 74 139 64
0.00197868 -0.227619 -0.0509383 81 145 69
0.000824377 -0.228918 -0.0516361 88 149 71
0.0121166 -0.248223 -0.0718468 99 154 75
0.0116909 -0.250768 -0.0738487 112 162 81
0.0497784 -0.166827 -0.0186447 155 226 110
0.0481971 -0.167715 -0.0188433 157 228 109
0.0466213 -0.168599 -0.0190412 159 228 110
0.044624 -0.169079 -0.0187469 160 228 110
0.043486 -0.170359 -0.0194347 164 229 113
0.0436216 -0.172862 -0.021609 173 235 120
0.0429033 -0.174562 -0.0228003 139 187 106
0.0417577 -0.175851 -0.0234928 97 145 74
0.0406123 -0.17714 -0.0241852 79 138 61
0.0398879 -0.178849 -0.0253829 95 162 78
0.0395829 -0.18099 -0.0270948 115 183 92
0.0397004 -0.183579 -0.029335 122 185 91
0.039819 -0.186195 -0.0315987 121 184 93
0.0395098 -0.188392 -0.0333562 116 176 85
0.0444624 -0.196134 -0.0416726 113 177 85
0.0455161 -0.199867 -0.0452139 114 178 86
0.0522351 -0.209719 -0.055943 113 176 85
0.0529191 -0.213208 -0.0591473 111 174 84
0.0531236 -0.216215 -0.0617729 111 173 84
0.0533305 -0.219255 -0.0644285 112 172 85
0.055035 -0.223998 -0.0690561 109 168 84
0.0542514 -0.226005 -0.0704854 105 163 80
0.053966 -0.228589 -0.0725804 102 156 74
0.0541831 -0.231773 -0.0753611 89 146 69
0.053389 -0.233818 -0.0768194 79 139 61
0.0520884 -0.235281 -0.0776055 83 144 62
0.0507881 -0.236744 -0.0783915 88 146 64
0.049986 -0.238802 -0.0798584 79 134 58
0.0491809 -0.240869 -0.0813309 58 117 52
0.0478756 -0.242337 -0.0821199 42 112 40
0.0465705 -0.243806 -0.0829088 40 117 44
0.0452654 -0.245274 -0.0836977 46 122 50
0.0439605 -0.246742 -0.0844864 53 126 52
0.0421707 -0.247595 -0.0845824 60 128 53
0.0408684 -0.249061 -0.0853695 75 127 56
0.0390884 -0.249907 -0.0854634 74 104 46
0.0373154 -0.250751 -0.0855569 69 101 49
0.0355493 -0.25159 -0.08565 64 105 54
0.0342551 -0.253047 -0.0864323 62 112 56
0.032038 -0.25326 -0.0858349 58 116 55
0.0271478 -0.249813 -0.0811887 59 117 54
0.0232633 -0.247649 -0.0779858 63 120 52
0.016163 -0.24095 -0.0698015 66 121 49
0.0121448 -0.238408 -0.0662301 68 120 48
0.010938 -0.239765 -0.0669596 66 118 48
0.0124959 -0.245076 -0.0720181 66 119 50
0.0116723 -0.247027 -0.0733858 71 121 52
0.0108457 -0.248984 -0.0747584 79 125 55
0.0108144 -0.252126 -0.0774159 90 132 62
0.0440782 -0.165497 -0.0180168 159 230 111
0.0433677 -0.167167 -0.0191901 169 232 116
0.0430778 -0.169244 -0.0208607 169 234 122
0.0427859 -0.171334 -0.0225426 143 185 99
0.0420674 -0.173029 -0.0237336 101 142 71
0.0409237 -0.174315 -0.0244248 70 122 54
0.0402009 -0.176017 -0.025621 71 132 57
0.0390554 -0.177306 -0.0263133 96 162 77
0.0391692 -0.179863 -0.028538 118 187 93
0.0392845 -0.182446 -0.0307858 121 190 92
0.0385503 -0.184182 -0.0320074 112 179 85
0.0390901 -0.187249 -0.0348197 112 177 87
0.044032 -0.194962 -0.0431728 111 179 86
0.0437292 -0.197254 -0.0450226 112 179 84
0.0517869 -0.208499 -0.057505 113 178 84
0.053931 -0.213559 -0.062593 113 177 82
0.0526692 -0.214979 -0.0633557 112 174 83
0.0528734 -0.218013 -0.0660204 110 172 83
0.0550739 -0.223299 -0.0713215 107 169 81
0.0542888 -0.225308 -0.072758 104 163 77
0.0540029 -0.227895 -0.0748659 103 158 76
0.0537149 -0.230502 -0.0769902 95 152 75
0.0529198 -0.232545 -0.0784516 82 141 64
0.0516192 -0.234008 -0.0792378 79 140 62
0.0503187 -0.235471 -0.0800238 84 145 64
0.0495155 -0.237528 -0.0814939 80 137 58
0.0487094 -0.239592 -0.0829697 63 117 51
0.0474041 -0.24106 -0.0837586 43 108 32
0.0460989 -0.242529 -0.0845475 36 112 37
0.0447937 -0.243997 -0.0853364 41 118 42
0.0434886 -0.245466 -0.0861252 50 122 45
0.0416997 -0.246322 -0.0862179 58 125 51
0.0403974 -0.247787 -0.0870051 83 124 61
0.0386182 -0.248636 -0.0870958 74 77 42
0.036846 -0.249482 -0.0871861 60 68 41
0.0350808 -0.250325 -0.087276 54 74 46
0.0328604 -0.250549 -0.0866754 56 84 51
0.0279573 -0.247143 -0.0820165 58 91 53
0.0249317 -0.246188 -0.0801207 64 89 52
0.0219516 -0.245247 -0.0782533 69 96 50
0.0177685 -0.242592 -0.0744927 73 101 48
0.0149018 -0.241696 -0.0727045 74 104 49
0.0132748 -0.242506 -0.0728157 65 107 52
0.0124525 -0.244452 -0.074185 62 113 57
0.011228 -0.24583 -0.0749251 65 121 60
0.0107988 -0.248366 -0.0769384 73 129 64
0.0107671 -0.25151 -0.0796129 86 136 70
0.0418266 -0.167332 -0.021297 136 179 97
0.041953 -0.169812 -0.0234734 108 150 76
0.0416567 -0.171908 -0.0251672 85 136 61
0.040513 -0.173195 -0.0258584 64 121 51
0.0397894 -0.174895 -0.027057 63 129 54
0.0386439 -0.176184 -0.0277494 89 153 70
0.0387555 -0.178735 -0.0299815 109 171 84
0.0388684 -0.181312 -0.0322369 104 174 83
0.0377112 -0.182614 -0.0329363 105 176 81
0.0373961 -0.184787 -0.0346892 110 178 87
0.0427116 -0.192861 -0.0435521 110 181 87
0.0432971 -0.196078 -0.0465286 109 178 83
0.0532705 -0.209339 -0.0615367 110 177 82
0.0539674 -0.212852 -0.0648077 110 177 81
0.0531932 -0.214808 -0.0662074 110 176 81
0.0529077 -0.21731 -0.0682543 109 173 82
0.0551129 -0.222597 -0.073596 106 168 78
0.0543262 -0.224609 -0.0750396 104 163 74
0.0540399 -0.227199 -0.0771606 104 160 76
0.0537513 -0.229808 -0.079298 100 158 76
0.0524506 -0.231272 -0.0800842 83 143 64
0.0511499 -0.232735 -0.0808703 77 139 60
0.0503482 -0.234786 -0.0823421 81 144 63
0.0495435 -0.236845 -0.0838196 81 139 59
0.048238 -0.238314 -0.0846086 71 123 53
0.0469325 -0.239783 -0.0853976 47 106 32
0.0461199 -0.241856 -0.0868838 37 110 35
0.044322 -0.242721 -0.0869754 41 118 40
0.0430168 -0.244189 -0.0877642 49 123 44
0.0412286 -0.245048 -0.0878537 58 128 51
0.0394476 -0.245903 -0.0879429 90 135 65
0.0381479 -0.247365 -0.0887284 75 90 50
0.0363765 -0.248214 -0.0888156 59 63 39
0.0418396 -0.166616 -0.0232151 108 152 76
0.0415438 -0.168694 -0.0249023 99 148 73
0.0412461 -0.170787 -0.0266009 74 128 60
0.0405236 -0.172483 -0.0278009 60 117 48
0.0393779 -0.173772 -0.0284933 56 125 49
0.0390714 -0.175893 -0.030213 83 150 63
0.0383416 -0.177607 -0.0314252 99 163 73
0.0384523 -0.180178 -0.0336882 87 160 71
0.037295 -0.181481 -0.0343876 93 170 76
0.0361378 -0.182783 -0.0350869 103 177 84
0.0422827 -0.191693 -0.0450475 108 179 84
0.0547129 -0.21571 -0.0703756 108 177 79
0.0549311 -0.218783 -0.0731117 107 173 78
0.0546485 -0.221336 -0.0752129 104 167 76
0.0543637 -0.223907 -0.0773305 101 164 73
0.0540768 -0.226499 -0.0794645 101 164 73
0.0532821 -0.228534 -0.0809308 96 160 72
0.0519812 -0.229998 -0.081717 81 144 62
0.051181 -0.232044 -0.0831904 75 139 57
0.0503778 -0.234098 -0.0846697 80 143 60
0.0490721 -0.235567 -0.0854588 82 140 60
0.0477665 -0.237037 -0.0862479 78 130 56
0.0469552 -0.239104 -0.0877358 52 106 35
0.0456472 -0.240576 -0.0885263 37 108 33
0.0443393 -0.242048 -0.0893167 38 115 38
0.0425449 -0.242912 -0.0894035 46 121 43
0.0407576 -0.243773 -0.0894898 54 128 47
0.0389774 -0.244631 -0.0895758 82 150 65
0.0376775 -0.246094 -0.0903614 85 131 70
0.035438 -0.246336 -0.0897465 73 94 56
0.0336788 -0.247183 -0.0898313 61 65 42
0.0431235 -0.167091 -0.0266523 105 157 77
0.0419794 -0.168378 -0.0273437 85 131 68
0.0416821 -0.170477 -0.0290567 64 115 55
0.0405342 -0.171769 -0.0297503 57 116 49
0.039808 -0.173473 -0.0309597 59 127 50
0.0386583 -0.174766 -0.0316545 78 149 62
0.0383483 -0.176898 -0.0333911 98 167 74
0.0380362 -0.179044 -0.0351397 99 169 77
0.0368788 -0.180347 -0.0358391 93 167 74
0.0357214 -0.181649 -0.0365385 90 170 81
0.034981 -0.183384 -0.03777 99 176 79
0.0564848 -0.219729 -0.0773904 103 173 77
0.055191 -0.221185 -0.0781722 99 167 75
0.0549072 -0.223766 -0.0803096 92 163 73
0.0541138 -0.225797 -0.0817776 92 162 72
0.0528128 -0.227261 -0.0825639 90 158 71
0.052014 -0.229302 -0.0840391 78 143 63
0.0507106 -0.230768 -0.0848268 72 136 57
0.0499064 -0.23282 -0.0863092 77 141 59
0.0486005 -0.234289 -0.0870984 83 144 63
0.0472948 -0.235759 -0.0878874 86 139 61
0.0464825 -0.237824 -0.0893786 60 109 42
0.0451744 -0.239296 -0.0901691 43 106 34
0.0433782 -0.240166 -0.0902542 38 111 37
0.0420729 -0.241635 -0.0910431 41 115 42
0.0402864 -0.242499 -0.0911262 46 122 44
0.038507 -0.243359 -0.091209 58 140 58
0.0367346 -0.244216 -0.0912913 93 149 80
0.0349693 -0.245069 -0.0913734 93 138 81
0.0327489 -0.245314 -0.0907569 82 110 70
0.0424179 -0.16806 -0.0298022 80 132 62
0.042121 -0.170165 -0.0315295 75 135 61
0.0409691 -0.171461 -0.0322256 78 142 63
0.0398172 -0.172758 -0.0329216 80 148 63
0.0390873 -0.174469 -0.0341407 89 161 70
0.0383548 -0.176187 -0.035364 110 183 87
0.03762 -0.17791 -0.0365914 128 202 100
0.0364625 -0.179213 -0.0372909 123 199 95
0.035305 -0.180515 -0.0379903 117 196 95
0.0341477 -0.181817 -0.0386896 125 189 85
0.0562472 -0.221594 -0.0818383 87 156 70
