ply
format ascii 1.0
element vertex 1157
property float x
property float y
property float z
property uchar diffuse_red
property uchar diffuse_green
property uchar diffuse_blue
end_header
-0.315159 -0.0169006 0.195504 186 255 133
-0.315338 -0.0157635 0.195418 192 255 136
-0.315761 -0.0146042 0.195211 200 255 142
-0.316186 -0.0134406 0.195004 196 254 141
-0.316612 -0.0122728 0.194795 181 251 135
-0.317288 -0.0110763 0.194464 158 226 118
-0.318218 -0.00984719 0.194007 143 199 105
-0.318653 -0.00866251 0.193795 135 187 98
-0.318839 -0.00750179 0.193705 128 181 95
-0.319024 -0.00633921 0.193615 121 175 96
-0.318958 -0.0052056 0.193649 120 171 91
-0.31965 -0.00397635 0.19331 123 174 95
-0.306844 -0.0554605 0.198335 149 157 140
-0.30723 -0.0544099 0.198144 151 157 139
-0.309973 -0.0348525 0.196806 97 149 78
-0.309446 -0.0337536 0.19707 104 158 76
-0.308462 -0.0326631 0.197562 112 169 83
-0.307942 -0.0315764 0.197823 120 184 92
-0.307878 -0.0304869 0.197856 140 208 102
-0.307815 -0.029398 0.197889 169 238 122
-0.308209 -0.0282975 0.197694 178 252 128
-0.308374 -0.0272004 0.197613 179 252 127
-0.308541 -0.0261016 0.197532 179 253 129
-0.308707 -0.0250012 0.197451 180 253 128
-0.309105 -0.0238886 0.197254 183 252 129
-0.309504 -0.0227721 0.197057 183 255 132
-0.310138 -0.0216387 0.196743 181 255 132
-0.310775 -0.020499 0.196427 182 255 133
-0.311181 -0.0193683 0.196227 185 255 134
-0.312062 -0.0182004 0.195789 189 255 137
-0.31319 -0.0170057 0.195229 199 255 141
-0.314088 -0.0158184 0.194784 200 255 143
-0.31475 -0.0146423 0.194456 185 254 141
-0.315172 -0.0134811 0.194247 166 235 120
-0.315595 -0.0123157 0.194038 151 209 107
-0.316021 -0.0111461 0.193828 138 193 99
-0.31744 -0.00986969 0.193123 128 183 93
-0.318123 -0.00865918 0.192784 126 177 94
-0.318308 -0.00749838 0.192694 112 167 93
-0.318493 -0.00633573 0.192603 95 151 87
-0.318679 -0.00517123 0.192513 104 155 83
-0.318865 -0.00400486 0.192422 121 173 93
-0.319051 -0.00283661 0.19233 136 178 110
-0.306402 -0.0565515 0.19734 151 161 143
-0.306339 -0.0554604 0.197373 163 180 140
-0.306276 -0.05437 0.197406 180 219 142
-0.305989 -0.0532614 0.197552 184 226 141
-0.30946 -0.034851 0.195831 82 139 81
-0.308704 -0.0337527 0.196213 84 137 69
-0.307953 -0.0326615 0.196593 86 136 68
-0.307434 -0.0315747 0.196856 86 140 72
-0.307143 -0.0304891 0.197004 98 160 88
-0.30708 -0.0294011 0.197037 164 226 110
-0.307245 -0.0283078 0.196956 179 254 127
-0.307409 -0.0272128 0.196874 181 255 129
-0.307346 -0.0261244 0.196908 182 255 130
-0.307511 -0.0250273 0.196826 183 255 130
-0.307676 -0.0239285 0.196745 184 255 133
-0.307613 -0.0228397 0.196778 187 255 134
-0.308008 -0.0217261 0.196581 183 255 133
-0.308866 -0.0205807 0.196151 186 255 132
-0.309964 -0.0194114 0.1956 195 255 135
-0.310602 -0.0182637 0.19528 202 255 144
-0.311481 -0.0170918 0.194839 193 254 148
-0.312606 -0.0158919 0.194274 173 244 129
-0.313501 -0.0147005 0.193825 153 216 112
-0.314162 -0.0135214 0.193494 139 198 98
-0.314583 -0.0123585 0.193284 133 187 95
-0.315495 -0.0111429 0.192827 128 181 95
-0.31691 -0.00986644 0.192116 122 172 93
-0.317592 -0.00865586 0.191774 96 153 81
-0.318027 -0.00746661 0.191557 86 129 65
-0.317961 -0.00633225 0.191592 83 131 61
-0.318147 -0.00516765 0.1915 99 145 73
-0.318332 -0.0040012 0.191408 120 171 89
-0.318518 -0.00283287 0.191316 135 178 109
-0.30596 -0.0576432 0.196344 157 175 139
-0.305897 -0.0565515 0.196377 180 224 138
-0.30561 -0.0554395 0.196525 184 251 139
-0.305325 -0.0543303 0.196672 182 255 136
-0.304375 -0.053168 0.197156 180 253 131
-0.304313 -0.052085 0.19719 179 252 132
-0.308194 -0.0337511 0.195241 139 147 92
-0.307216 -0.0326616 0.19574 119 148 88
-0.306699 -0.0315759 0.196004 137 163 90
-0.306636 -0.0304873 0.196038 165 233 111
-0.306347 -0.0294043 0.196187 177 250 130
-0.306284 -0.0283179 0.19622 182 253 126
-0.306222 -0.0272322 0.196253 184 255 130
-0.306159 -0.026147 0.196287 185 255 132
-0.306096 -0.0250625 0.19632 189 255 132
-0.30626 -0.0239681 0.196239 187 255 133
-0.306423 -0.0228721 0.196157 186 255 133
-0.307042 -0.0217491 0.195844 189 255 136
-0.307436 -0.0206338 0.195645 199 255 141
-0.308291 -0.0194845 0.195211 196 255 142
-0.309386 -0.0183102 0.194656 181 252 138
-0.310493 -0.0171244 0.194094 160 228 116
-0.3109 -0.0159837 0.193889 144 203 103
-0.312261 -0.0147584 0.193198 135 188 97
-0.313156 -0.0135616 0.192744 129 182 93
-0.313816 -0.0123783 0.19241 125 178 92
-0.314969 -0.0111398 0.191825 113 166 93
-0.316878 -0.00981165 0.190856 101 143 83
-0.317311 -0.00862542 0.190637 86 135 65
-0.317746 -0.00743478 0.190417 76 128 60
-0.31768 -0.00629913 0.190452 84 137 64
-0.317865 -0.00513319 0.19036 102 156 76
-0.318051 -0.00396539 0.190267 120 174 90
-0.317986 -0.00282914 0.190302 131 179 110
-0.318424 -0.00162417 0.19008 149 166 144
-0.305454 -0.0576433 0.195381 137 185 135
-0.305391 -0.0565516 0.195415 149 213 120
-0.305106 -0.0554395 0.195563 163 235 124
-0.30482 -0.0543302 0.195712 178 245 127
-0.303653 -0.0531492 0.196314 184 251 128
-0.303371 -0.0520499 0.19646 184 251 130
-0.302001 -0.0508721 0.197166 181 250 131
-0.294977 -0.0451722 0.200787 180 251 126
-0.294309 -0.0441065 0.201132 179 252 132
-0.307391 -0.0326549 0.19442 176 254 137
-0.306192 -0.0315742 0.195038 177 255 136
-0.305228 -0.030501 0.195535 179 254 130
-0.304718 -0.0294271 0.195799 182 255 130
-0.304656 -0.0283461 0.195833 183 255 132
-0.304148 -0.0272798 0.196095 183 255 131
-0.304086 -0.0262021 0.196129 184 255 132
-0.304246 -0.0251158 0.196048 185 255 133
-0.304407 -0.0240279 0.195967 188 255 136
-0.305465 -0.0228928 0.195424 193 255 139
-0.305854 -0.0217847 0.195226 202 255 139
-0.306471 -0.020659 0.19491 191 255 144
-0.306864 -0.0195419 0.194709 169 238 122
-0.308178 -0.0183564 0.194035 152 212 109
-0.309275 -0.0171744 0.193473 136 196 97
-0.309913 -0.0160185 0.193146 130 184 94
-0.311503 -0.0147757 0.19233 128 179 93
-0.312634 -0.0135586 0.19175 121 169 91
-0.313777 -0.0123295 0.191164 104 159 86
-0.315917 -0.0109903 0.190065 103 149 80
-0.316845 -0.00975662 0.18959 105 153 78
-0.317279 -0.00856769 0.189368 97 153 75
-0.317213 -0.00743137 0.189404 92 145 74
-0.317398 -0.00626595 0.18931 99 158 76
-0.317584 -0.00509866 0.189217 112 175 88
-0.317769 -0.00392951 0.189123 123 179 95
-0.317704 -0.00279198 0.189158 136 178 114
-0.31789 -0.00162034 0.189064 147 170 149
-0.304949 -0.0576434 0.194418 134 157 127
-0.304663 -0.0565296 0.194568 112 149 87
-0.304601 -0.0554394 0.194602 111 160 84
-0.304316 -0.05433 0.194751 119 177 89
-0.302932 -0.0531306 0.195472 128 195 98
-0.301565 -0.0519457 0.196185 142 215 113
-0.300642 -0.0508073 0.196666 157 233 124
-0.298667 -0.0496043 0.197694 168 244 127
-0.297766 -0.0484903 0.198164 183 250 127
-0.296458 -0.0473604 0.198845 186 251 128
-0.294555 -0.0462102 0.199836 182 250 130
-0.293888 -0.0451409 0.200184 180 249 127
-0.293224 -0.0440782 0.20053 179 252 131
-0.293165 -0.0430465 0.200563 179 253 128
-0.293709 -0.0420372 0.200281 180 253 128
-0.3045 -0.030503 0.194689 183 255 132
-0.303106 -0.0294497 0.195415 185 255 131
-0.302824 -0.0283799 0.195563 190 255 134
-0.302762 -0.0273058 0.195597 188 255 133
-0.3027 -0.0262323 0.19563 186 255 133
-0.303079 -0.0251412 0.195435 192 255 137
-0.303238 -0.0240565 0.195354 206 255 146
-0.303842 -0.0229476 0.195042 194 255 148
-0.304897 -0.0218075 0.194495 175 247 132
-0.30551 -0.020684 0.194177 155 222 115
-0.306127 -0.0195543 0.193858 143 199 100
-0.306748 -0.0184184 0.193537 134 189 96
-0.308296 -0.0172067 0.192734 127 181 92
-0.309397 -0.0160157 0.192164 123 173 92
-0.310983 -0.0147728 0.191341 109 165 90
-0.312592 -0.0135125 0.190507 103 148 84
-0.314225 -0.0122344 0.18966 102 155 80
-0.315882 -0.010938 0.1888 104 160 83
-0.316812 -0.00970136 0.188319 109 164 83
-0.316996 -0.00853706 0.188225 125 170 85
-0.316931 -0.00739946 0.18826 122 184 94
-0.317116 -0.0062327 0.188166 140 188 97
-0.317301 -0.00506406 0.188071 137 194 104
-0.317487 -0.00389356 0.187976 131 182 100
-0.317673 -0.00272117 0.187881 142 173 115
-0.31786 -0.00154688 0.187785 152 163 147
-0.304443 -0.0576436 0.193455 152 163 141
-0.304158 -0.0565297 0.193606 132 149 115
-0.303875 -0.0554185 0.193757 103 143 92
-0.303371 -0.0542905 0.194023 90 142 83
-0.301778 -0.0530751 0.194861 92 145 75
-0.300207 -0.0518769 0.195688 99 150 76
-0.298236 -0.0506639 0.196725 107 158 81
-0.297129 -0.0495306 0.197308 114 174 87
-0.296032 -0.0484086 0.197885 125 191 96
-0.294335 -0.0472611 0.198778 139 210 106
-0.29387 -0.0461983 0.199024 151 226 118
-0.293407 -0.0451402 0.199269 165 237 122
-0.292946 -0.0440866 0.199512 175 248 127
-0.292886 -0.0430539 0.199545 185 253 129
-0.293028 -0.0420291 0.199472 185 255 127
-0.293371 -0.0410091 0.199293 180 254 130
-0.293311 -0.0399752 0.199326 180 255 130
-0.302384 -0.0294527 0.194575 183 255 134
-0.300363 -0.0284307 0.195638 186 255 134
-0.300302 -0.0273661 0.195672 193 255 134
-0.30089 -0.0262783 0.195364 200 255 140
-0.301481 -0.0251845 0.195055 196 255 141
-0.302076 -0.0240849 0.194744 182 255 141
-0.302674 -0.0229793 0.194432 162 231 117
-0.303498 -0.0218552 0.194 148 207 105
-0.304553 -0.020709 0.193448 137 191 95
-0.305619 -0.0195518 0.19289 131 183 93
-0.306238 -0.0184158 0.192566 129 177 93
-0.307783 -0.017204 0.191757 117 168 91
-0.309349 -0.0159753 0.190936 104 155 86
-0.311654 -0.0146686 0.189727 105 151 77
-0.313034 -0.0134227 0.189004 106 158 82
-0.314186 -0.012185 0.1884 106 162 84
-0.315599 -0.0109101 0.18766 113 170 85
-0.316528 -0.00967201 0.187174 128 180 93
-0.316713 -0.00850637 0.187078 134 196 98
-0.316648 -0.00736749 0.187114 144 212 109
-0.317083 -0.00616948 0.186887 181 237 130
-0.317018 -0.00502939 0.186923 157 207 116
-0.317456 -0.00382507 0.186695 133 182 109
-0.317895 -0.00261624 0.186465 147 169 130
-0.31783 -0.00147311 0.186501 154 166 151
-0.294381 -0.0670393 0.197551 153 159 147
-0.303653 -0.0565297 0.192644 149 160 142
-0.30337 -0.0554185 0.192796 145 162 134
-0.303087 -0.0543101 0.192948 145 157 114
-0.302367 -0.0531672 0.193331 131 144 96
-0.299711 -0.0518767 0.194743 102 139 87
-0.297325 -0.0506321 0.196011 86 139 84
-0.296432 -0.0495156 0.196486 89 139 72
-0.294521 -0.0483412 0.197502 90 142 72
-0.29365 -0.0472483 0.197966 93 146 75
-0.293187 -0.0461865 0.198213 99 155 78
-0.292926 -0.0451395 0.198353 111 165 80
-0.292666 -0.0440951 0.198492 121 180 90
-0.292607 -0.0430613 0.198525 132 201 99
-0.292548 -0.0420282 0.198558 153 227 115
-0.292689 -0.0410019 0.198484 174 247 127
-0.292831 -0.0399741 0.198411 181 254 131
-0.292772 -0.0389407 0.198443 183 254 128
-0.297585 -0.029546 0.195902 188 255 136
-0.297524 -0.0284921 0.195935 197 255 140
-0.29831 -0.0274118 0.19552 204 255 142
-0.299101 -0.0263236 0.195101 190 255 146
-0.300331 -0.0252095 0.19445 170 240 121
-0.300921 -0.0241131 0.194139 152 214 106
-0.301514 -0.0230108 0.193825 141 197 98
-0.302552 -0.0218777 0.193276 131 188 96
-0.304047 -0.0207065 0.192484 127 180 92
-0.30511 -0.0195493 0.191921 124 174 92
-0.306413 -0.0183648 0.191232 108 163 86
-0.308428 -0.0171136 0.190164 102 148 82
-0.309771 -0.0158969 0.189453 106 157 79
-0.31185 -0.0146044 0.188351 105 161 82
-0.31275 -0.0133979 0.187875 112 166 83
-0.313658 -0.0121819 0.187395 121 179 89
-0.315067 -0.0109069 0.186649 133 201 97
-0.315995 -0.00966875 0.186158 139 212 112
-0.316179 -0.00850303 0.186062 152 225 113
-0.316614 -0.00730676 0.185833 164 241 135
-0.316799 -0.00613603 0.185736 158 225 148
-0.316734 -0.00499464 0.185772 144 194 108
-0.317424 -0.00375632 0.185408 135 179 112
-0.317611 -0.00257862 0.18531 156 170 146
-0.318307 -0.00132845 0.184942 164 170 154
-0.293151 -0.0679615 0.197027 151 165 146
-0.293292 -0.0669476 0.196953 163 183 143
-0.293233 -0.0659025 0.196987 181 210 144
-0.292972 -0.0648292 0.197128 186 226 147
-0.292913 -0.0637862 0.197161 186 218 147
-0.292853 -0.0627438 0.197194 178 201 145
-0.298304 -0.0507425 0.194287 145 158 117
-0.295943 -0.0495152 0.195555 139 146 94
-0.293631 -0.0483142 0.196797 111 138 92
-0.292764 -0.0472233 0.197263 87 138 85
-0.292504 -0.0461747 0.197404 83 136 77
-0.292245 -0.0451287 0.197544 89 136 68
-0.292186 -0.0440943 0.197578 89 137 67
-0.292127 -0.0430605 0.197611 90 143 72
-0.292068 -0.0420273 0.197644 105 174 87
-0.292009 -0.0409946 0.197677 171 231 116
-0.29215 -0.0399678 0.197602 183 255 131
-0.292091 -0.0389352 0.197636 182 254 129
-0.292032 -0.0379032 0.197669 186 255 130
-0.291773 -0.0368694 0.197809 188 255 131
-0.291914 -0.0358409 0.197735 186 255 132
-0.29507 -0.0306349 0.196049 194 255 142
-0.295424 -0.0295813 0.195861 207 255 146
-0.296613 -0.0285016 0.195224 194 255 145
-0.296972 -0.0274368 0.195033 175 248 135
-0.297756 -0.0263529 0.194614 154 220 110
-0.298546 -0.0252611 0.194192 141 199 99
-0.299772 -0.0241412 0.193536 134 189 96
-0.301013 -0.0230085 0.192872 130 184 93
-0.302049 -0.0218754 0.192318 124 176 92
-0.303541 -0.0207041 0.19152 112 170 92
-0.305508 -0.0194869 0.190467 104 150 84
-0.307511 -0.0182479 0.189394 104 150 78
-0.30908 -0.0170223 0.188554 105 160 82
-0.30996 -0.015837 0.188084 108 165 85
-0.311566 -0.014581 0.187225 116 172 86
-0.312224 -0.0133949 0.186873 130 188 93
-0.312887 -0.012202 0.18652 135 207 102
-0.31429 -0.0109285 0.185769 144 219 106
-0.315461 -0.00966548 0.185142 159 230 119
-0.315645 -0.00849968 0.185045 161 232 126
-0.316079 -0.00730332 0.184814 154 219 117
-0.316264 -0.00613251 0.184717 142 195 104
-0.31645 -0.00495981 0.184619 133 180 103
-0.316887 -0.00375264 0.184386 147 170 121
-0.317834 -0.00247279 0.18388 159 170 154
-0.292529 -0.068975 0.196183 159 181 140
-0.292269 -0.0678991 0.196325 177 219 139
-0.29221 -0.0668563 0.196359 186 251 139
-0.291951 -0.0657845 0.1965 185 253 136
-0.291892 -0.0647439 0.196534 186 254 135
-0.291634 -0.0636762 0.196675 183 252 134
-0.291575 -0.0626376 0.196708 181 253 137
-0.291516 -0.0615996 0.196742 182 255 144
-0.293147 -0.0483137 0.195876 148 169 143
-0.292082 -0.0472106 0.196454 138 164 126
-0.291823 -0.046163 0.196596 142 150 102
-0.291764 -0.045128 0.196629 125 142 94
-0.291506 -0.0440844 0.196771 96 139 90
-0.291447 -0.0430515 0.196804 101 149 85
-0.291587 -0.0420264 0.196729 153 195 94
-0.291528 -0.0409937 0.196763 184 252 131
-0.29147 -0.0399615 0.196796 183 255 130
-0.291212 -0.0389255 0.196937 186 255 131
-0.291153 -0.0378954 0.19697 184 255 132
-0.290896 -0.0368634 0.197111 185 255 131
-0.290639 -0.035834 0.197252 186 255 130
-0.29058 -0.0348074 0.197285 186 255 132
-0.291316 -0.0337793 0.196887 189 255 134
-0.291857 -0.0327454 0.196595 195 255 137
-0.292806 -0.0317011 0.196083 208 255 147
-0.293559 -0.030651 0.195676 202 255 144
-0.293908 -0.0296024 0.195489 184 251 144
-0.294876 -0.0285336 0.194965 161 230 115
-0.296062 -0.0274483 0.194324 145 205 102
-0.296841 -0.0263665 0.193904 134 192 96
-0.297838 -0.0252679 0.193365 130 182 90
-0.299274 -0.024139 0.192588 126 178 91
-0.300731 -0.022995 0.191801 118 172 91
-0.302429 -0.0218231 0.190882 103 159 84
-0.30438 -0.0206191 0.189827 103 150 79
-0.306827 -0.0193632 0.188503 106 157 80
-0.308157 -0.0181627 0.187784 105 163 82
-0.309031 -0.0169839 0.187312 111 168 84
-0.309676 -0.015815 0.186964 124 181 93
-0.311041 -0.0145781 0.186226 137 202 100
-0.311457 -0.0134137 0.186002 142 213 108
-0.312359 -0.0121989 0.185515 155 225 112
-0.313759 -0.0109253 0.184758 162 235 120
-0.31468 -0.0096883 0.184261 158 228 123
-0.315111 -0.00849632 0.184029 149 209 111
-0.315544 -0.0072999 0.183796 137 193 103
-0.315729 -0.00612899 0.183697 132 183 99
-0.315914 -0.00495621 0.183599 132 171 114
-0.31635 -0.00374896 0.183364 151 169 145
-0.317295 -0.00246902 0.182854 158 167 157
-0.29145 -0.0688784 0.195591 146 203 136
-0.290995 -0.0677741 0.195842 164 231 128
-0.290739 -0.0667049 0.195984 180 248 131
-0.290483 -0.0656381 0.196125 184 253 133
-0.290032 -0.0645458 0.196374 183 255 136
-0.289582 -0.063458 0.196621 186 255 140
-0.289134 -0.0623748 0.196868 183 255 140
-0.288109 -0.0612213 0.19743 182 255 137
-0.288051 -0.0601982 0.197463 185 255 134
-0.292001 -0.0472345 0.195318 152 168 144
-0.291342 -0.0461624 0.19568 156 176 139
-0.291085 -0.0451171 0.195823 157 192 140
-0.291026 -0.0440836 0.195856 169 225 138
-0.290967 -0.0430507 0.19589 175 252 128
-0.290908 -0.0420183 0.195924 181 255 135
-0.29085 -0.0409864 0.195957 185 255 131
-0.290592 -0.0399498 0.196099 185 255 132
-0.290534 -0.0389201 0.196133 183 255 131
-0.290277 -0.0378875 0.196274 184 255 130
-0.290022 -0.0368575 0.196416 187 255 133
-0.289766 -0.0358299 0.196557 188 255 132
-0.289708 -0.0348052 0.19659 195 255 138
-0.289846 -0.0337805 0.196516 203 255 145
-0.290778 -0.0327484 0.196007 217 255 144
-0.291318 -0.0317121 0.195713 194 255 153
-0.292264 -0.0306634 0.195197 171 237 123
-0.293015 -0.0296097 0.194787 150 209 105
-0.293772 -0.0285485 0.194374 135 195 97
-0.294742 -0.0274731 0.193845 130 185 94
-0.296349 -0.0263645 0.192966 127 178 91
-0.297343 -0.0252658 0.192423 123 173 90
-0.299423 -0.0241066 0.191287 111 165 86
-0.301324 -0.0229362 0.190248 103 149 83
-0.303708 -0.0217198 0.188944 104 154 76
-0.305686 -0.020505 0.187863 107 160 79
-0.307237 -0.0192992 0.187016 108 163 83
-0.307639 -0.0181601 0.186797 116 178 86
-0.308511 -0.0169812 0.186321 134 190 98
-0.309154 -0.0158122 0.185971 139 213 111
-0.310516 -0.0145751 0.185227 147 223 109
-0.310931 -0.0134108 0.185001 160 230 120
-0.31159 -0.012219 0.184642 162 237 126
-0.312983 -0.0109467 0.183881 155 222 115
-0.3139 -0.0097111 0.183381 143 201 107
-0.314577 -0.00849297 0.183012 135 190 99
-0.315009 -0.00729647 0.182777 129 184 99
-0.315193 -0.00612548 0.182678 130 176 105
-0.315378 -0.00495262 0.182578 147 170 132
-0.315813 -0.00374528 0.182342 160 167 154
-0.290831 -0.069888 0.194751 147 158 138
-0.290574 -0.0688146 0.194894 128 159 115
-0.290122 -0.0677124 0.195145 119 162 86
-0.289867 -0.0666452 0.195288 127 186 94
-0.289418 -0.0655513 0.195538 143 209 106
-0.28897 -0.064462 0.195787 158 230 121
-0.288137 -0.0633235 0.196249 172 241 130
-0.28712 -0.0621682 0.196813 184 253 135
-0.286112 -0.061024 0.197372 187 255 134
-0.285488 -0.0599378 0.197718 188 255 132
-0.283753 -0.0587242 0.198679 187 255 131
-0.290604 -0.0451165 0.194908 185 255 135
-0.290546 -0.0440829 0.194942 182 255 130
-0.290487 -0.0430499 0.194976 184 255 129
-0.290428 -0.0420174 0.19501 185 255 130
-0.29037 -0.0409855 0.195044 185 255 130
-0.290113 -0.0399488 0.195187 185 255 130
-0.290055 -0.038919 0.19522 186 255 132
-0.289602 -0.037883 0.195472 186 255 133
-0.287981 -0.0368375 0.19637 190 255 138
-0.287923 -0.0358189 0.196403 199 255 144
-0.288059 -0.0348013 0.196329 224 255 145
-0.288585 -0.0337812 0.19604 201 255 150
-0.289508 -0.032753 0.195531 181 243 132
-0.29024 -0.031718 0.195127 161 219 105
-0.291178 -0.0306722 0.19461 142 199 99
-0.292327 -0.0296125 0.193976 133 184 94
-0.293285 -0.0285467 0.193447 124 181 94
-0.294253 -0.0274711 0.192914 125 174 92
-0.296909 -0.0263234 0.191447 117 169 91
-0.297911 -0.0252191 0.190894 104 155 84
-0.300225 -0.0240434 0.189616 104 151 75
-0.302812 -0.0228307 0.188187 106 159 78
-0.304099 -0.0216664 0.187477 105 163 83
-0.305401 -0.0204885 0.186758 111 167 87
-0.306719 -0.0192967 0.186031 131 183 96
-0.30712 -0.0181574 0.185811 143 217 106
-0.307757 -0.0169963 0.18546 144 217 114
-0.308397 -0.0158286 0.185108 156 228 112
-0.309515 -0.0146133 0.184491 166 239 123
-0.310166 -0.0134296 0.184132 159 229 125
-0.310581 -0.0122621 0.183904 149 210 108
-0.311723 -0.0110172 0.183275 140 192 98
-0.312877 -0.00975975 0.182638 132 184 96
-0.314043 -0.00848963 0.181995 130 180 95
-0.314474 -0.00729302 0.181758 126 180 102
-0.314658 -0.00612197 0.181658 147 171 126
-0.314842 -0.00494903 0.181558 159 171 158
-0.290153 -0.0698557 0.193945 149 160 142
-0.289506 -0.0687188 0.194308 135 156 122
-0.289057 -0.0676199 0.19456 108 147 96
-0.288804 -0.0665556 0.194703 97 143 80
-0.288552 -0.0654939 0.194846 101 150 78
-0.287721 -0.0643509 0.195311 109 162 84
-0.286705 -0.0631902 0.19588 122 177 90
-0.285699 -0.0620407 0.196443 134 197 101
-0.285077 -0.0609511 0.196792 149 219 112
-0.283345 -0.0597286 0.197761 162 235 124
-0.282736 -0.0586582 0.198103 176 247 129
-0.28268 -0.0576574 0.198136 187 252 130
-0.282074 -0.0565966 0.198476 190 255 132
-0.281291 -0.0555229 0.198914 190 255 133
-0.280155 -0.0544215 0.199551 192 255 136
-0.27992 -0.0534174 0.199683 190 255 131
-0.279686 -0.0524156 0.199815 192 255 132
-0.287758 -0.0378587 0.195325 193 255 138
-0.287506 -0.0368363 0.195467 209 255 146
-0.28687 -0.0358135 0.195823 204 255 148
-0.287005 -0.0347987 0.195749 187 253 149
-0.287527 -0.0337814 0.195459 163 227 115
-0.288833 -0.0327529 0.194731 145 204 101
-0.289168 -0.0317239 0.194545 136 190 96
-0.290696 -0.0306706 0.193693 130 184 92
-0.292654 -0.0295926 0.1926 126 178 93
-0.293618 -0.0285225 0.192064 118 170 92
-0.297109 -0.0273613 0.190115 107 160 85
-0.298976 -0.0262261 0.189073 104 148 79
-0.299348 -0.0251355 0.188867 105 157 80
-0.301477 -0.0239586 0.187679 106 160 82
-0.302975 -0.0227935 0.186844 110 165 82
-0.303587 -0.021664 0.186503 119 180 87
-0.304887 -0.020486 0.185779 148 196 105
-0.305971 -0.0193095 0.185175 146 221 121
-0.306602 -0.0181548 0.184824 150 226 110
-0.307004 -0.0170114 0.184601 166 234 120
-0.307641 -0.0158448 0.184246 166 238 127
-0.308518 -0.0146512 0.183758 153 221 115
-0.308928 -0.0134917 0.18353 140 203 102
-0.309577 -0.012305 0.183169 135 189 94
-0.310231 -0.0111115 0.182806 132 186 93
-0.311615 -0.00983401 0.182034 130 183 94
-0.313262 -0.00851366 0.181116 129 180 96
-0.313691 -0.00731829 0.180878 135 174 114
-0.313874 -0.00614842 0.180777 154 171 150
-0.289027 -0.0687198 0.193396 156 156 138
-0.28858 -0.0676208 0.19365 148 158 129
-0.288327 -0.0665565 0.193794 135 149 107
-0.288269 -0.0655237 0.193829 109 142 95
-0.287631 -0.0644074 0.19419 92 138 89
-0.286614 -0.0632442 0.194765 93 139 77
-0.285229 -0.0620413 0.195548 99 142 77
-0.283122 -0.0607577 0.196739 103 153 80
-0.28233 -0.0596599 0.197187 110 169 86
-0.281725 -0.0585925 0.19753 122 187 95
-0.280943 -0.0575106 0.197972 142 205 103
-0.280887 -0.0565165 0.198005 159 225 116
-0.279753 -0.0554091 0.198647 171 243 126
-0.279519 -0.0544035 0.19878 183 254 130
-0.279285 -0.0534003 0.198913 188 255 131
-0.279052 -0.0523993 0.199046 188 255 131
-0.278996 -0.051416 0.199079 183 255 135
-0.278941 -0.0504331 0.199112 185 255 134
-0.28569 -0.0368189 0.195321 190 255 159
-0.285823 -0.0358081 0.195247 170 235 118
-0.28634 -0.0347969 0.194956 150 210 102
-0.286474 -0.0337815 0.194882 136 196 97
-0.288356 -0.0327514 0.193822 130 187 94
-0.289875 -0.0317073 0.192966 126 179 93
-0.299402 -0.0272691 0.187595 105 149 76
-0.299341 -0.0261918 0.187631 106 160 80
-0.299716 -0.0250967 0.187421 107 163 80
-0.301192 -0.023946 0.18659 113 173 87
-0.302465 -0.0227912 0.185873 142 185 99
-0.303076 -0.0216616 0.185529 154 228 114
-0.303918 -0.0205117 0.185056 146 219 123
-0.305224 -0.0193223 0.18432 165 228 117
-0.305852 -0.0181688 0.183967 174 246 126
-0.306252 -0.0170265 0.183743 162 229 124
-0.306887 -0.0158611 0.183386 147 210 107
-0.30776 -0.0146687 0.182895 137 193 99
-0.307932 -0.0135319 0.1828 131 185 93
-0.308341 -0.0123705 0.18257 128 180 95
-0.308989 -0.0111809 0.182206 129 179 93
-0.31036 -0.0099078 0.181434 130 180 95
-0.312483 -0.00853762 0.180238 125 180 104
-0.31291 -0.00734349 0.179999 151 173 127
-0.313092 -0.00617483 0.179898 160 172 153
-0.278687 -0.0788348 0.198092 158 162 149
-0.282656 -0.0607582 0.195853 89 139 85
-0.28132 -0.0595916 0.196616 88 139 75
-0.28072 -0.0585272 0.196959 93 142 74
-0.280123 -0.0574691 0.197301 96 148 78
-0.279888 -0.0564569 0.197436 106 160 82
-0.279117 -0.0553904 0.197877 118 179 89
-0.278884 -0.0543856 0.198011 138 202 99
-0.278651 -0.0533832 0.198145 164 231 115
-0.278596 -0.0523992 0.198178 183 255 130
-0.278363 -0.0514005 0.198312 185 255 134
-0.278131 -0.0504042 0.198445 187 255 133
-0.278076 -0.0494235 0.198478 186 255 131
-0.278021 -0.0484434 0.198511 185 255 133
-0.283205 -0.0377952 0.195569 176 241 131
-0.284084 -0.036804 0.195069 155 216 109
-0.284593 -0.0358015 0.194781 141 198 98
-0.285485 -0.0347947 0.194274 132 190 93
-0.287546 -0.0337758 0.1931 127 185 91
-0.298899 -0.0272671 0.186638 106 162 82
-0.298838 -0.0261898 0.186674 110 166 85
-0.299648 -0.0250761 0.186214 121 181 91
-0.300685 -0.0239438 0.185624 154 204 110
-0.301732 -0.0228006 0.185029 148 226 125
-0.30234 -0.0216721 0.184683 154 233 117
-0.303178 -0.0205233 0.184207 201 235 135
-0.304479 -0.0193351 0.183467 180 246 142
-0.305104 -0.0181827 0.183112 155 221 115
-0.305503 -0.0170415 0.182887 142 202 104
-0.305902 -0.0158963 0.18266 134 187 93
-0.30677 -0.0147065 0.182167 128 176 93
-0.307175 -0.0135505 0.181938 121 171 90
-0.307347 -0.012413 0.181842 116 164 89
-0.30799 -0.0112259 0.181476 124 173 93
-0.309353 -0.00995565 0.180701 127 180 97
-0.311218 -0.0086159 0.17964 127 177 114
-0.311885 -0.00739717 0.179261 151 171 150
-0.277238 -0.0795869 0.197794 165 172 144
-0.277183 -0.0786007 0.197827 175 195 143
-0.277127 -0.0776152 0.19786 182 229 140
-0.27742 -0.076705 0.197693 183 245 140
-0.279122 -0.0760881 0.196714 180 246 141
-0.280857 -0.059592 0.195736 130 151 101
-0.279899 -0.058484 0.196289 103 143 89
-0.279127 -0.0574071 0.196734 85 137 87
-0.278894 -0.0563976 0.19687 86 138 76
-0.278483 -0.0553716 0.197108 90 140 72
-0.27825 -0.0543677 0.197243 101 153 82
-0.278018 -0.0533662 0.197378 155 198 104
-0.277963 -0.052383 0.197411 186 255 129
-0.277731 -0.0513852 0.197545 187 255 133
-0.277676 -0.0504039 0.197579 184 255 133
-0.27727 -0.0493964 0.197814 185 255 133
-0.277039 -0.0484054 0.197948 188 255 130
-0.276635 -0.0474051 0.198182 186 255 133
-0.27658 -0.0464304 0.198214 189 255 133
-0.2767 -0.045466 0.198147 190 255 131
-0.27682 -0.0445004 0.198079 187 255 133
-0.277996 -0.043583 0.197403 188 255 135
-0.278651 -0.0426322 0.197027 194 255 143
-0.278774 -0.0416552 0.196958 233 255 147
-0.279434 -0.0406941 0.196579 204 255 154
-0.280281 -0.0397315 0.196092 184 248 142
-0.28187 -0.0387768 0.195179 161 221 110
-0.282183 -0.0377846 0.195 141 201 100
-0.282682 -0.0367915 0.194714 132 192 95
-0.284123 -0.0358002 0.193886 128 185 91
-0.297594 -0.0283669 0.18614 105 165 81
-0.297534 -0.0272932 0.186176 113 174 91
-0.298335 -0.0261877 0.185716 153 185 106
-0.299143 -0.025074 0.185252 164 241 120
-0.299957 -0.023952 0.184785 149 223 130
-0.301 -0.0228099 0.184186 187 230 129
-0.301383 -0.0216952 0.183967 191 255 129
-0.302215 -0.0205488 0.183489 170 231 152
-0.303281 -0.0193784 0.182877 154 211 108
-0.303901 -0.0182296 0.182522 137 193 99
-0.304754 -0.0170566 0.182032 129 184 95
-0.305152 -0.0159124 0.181804 123 172 93
-0.306016 -0.0147238 0.181309 102 155 87
-0.306653 -0.0135475 0.180944 86 134 76
-0.306824 -0.01241 0.180847 89 139 76
-0.307231 -0.0112467 0.180614 111 164 88
-0.308826 -0.00995242 0.179697 124 177 97
-0.310202 -0.00866669 0.178906 138 174 116
-0.310622 -0.00747897 0.178666 154 171 155
-0.276149 -0.0804126 0.197298 170 178 136
-0.276093 -0.0794294 0.197331 184 227 139
-0.276038 -0.0784467 0.197365 185 243 136
-0.275983 -0.0774645 0.197398 183 249 133
-0.275928 -0.0764829 0.197431 181 250 131
-0.275873 -0.0755018 0.197464 181 250 129
-0.279978 -0.0585497 0.195099 148 170 143
-0.278491 -0.0573867 0.195965 143 160 125
-0.278081 -0.0563583 0.196204 133 153 97
-0.277849 -0.055353 0.19634 112 150 91
-0.277618 -0.0543499 0.196476 145 169 98
-0.277562 -0.0533662 0.19651 185 247 122
-0.277331 -0.0523668 0.196645 193 255 133
-0.277101 -0.0513698 0.196781 191 255 137
-0.276696 -0.0503608 0.197017 190 255 135
-0.276292 -0.0493559 0.197253 189 255 133
-0.275717 -0.0483428 0.197589 189 255 131
-0.275317 -0.0473469 0.197823 189 255 133
-0.275262 -0.0463764 0.197856 189 255 132
-0.27538 -0.0454162 0.197788 190 255 135
-0.275845 -0.0444727 0.197519 194 255 140
-0.276312 -0.0435248 0.197249 210 255 146
-0.276781 -0.0425722 0.196977 203 255 150
-0.27743 -0.0416216 0.196601 191 254 156
-0.278261 -0.0406704 0.196119 169 231 113
-0.27892 -0.0397062 0.195737 145 206 103
-0.279764 -0.0387396 0.195248 137 191 94
-0.281349 -0.0377772 0.194328 130 184 88
-0.283147 -0.0368016 0.193284 126 181 90
-0.295875 -0.0294684 0.185892 110 167 86
-0.29624 -0.0283886 0.185681 126 185 97
-0.297033 -0.0272912 0.185222 170 211 117
-0.297832 -0.0261857 0.184758 154 224 136
-0.298421 -0.0250811 0.184417 162 234 116
-0.299013 -0.0239705 0.184074 210 245 140
-0.300049 -0.0228308 0.183474 182 255 163
-0.300429 -0.0217183 0.183254 169 222 116
-0.301034 -0.0205881 0.182904 143 198 104
-0.301866 -0.0194365 0.182421 131 186 95
-0.302931 -0.0182598 0.181803 124 173 94
-0.303779 -0.0170892 0.181312 114 165 92
-0.304633 -0.0159096 0.180817 92 139 82
-0.305495 -0.0147209 0.180317 77 122 65
-0.30613 -0.0135445 0.179949 71 124 60
-0.306301 -0.0124069 0.179851 86 139 67
-0.306473 -0.0112675 0.179753 111 160 84
-0.30806 -0.00997466 0.178832 123 175 99
-0.308951 -0.00874413 0.178315 140 175 124
-0.309608 -0.00753208 0.177935 158 170 158
-0.275353 -0.0803336 0.196638 149 188 132
-0.275298 -0.079352 0.196671 162 219 121
-0.275072 -0.0783323 0.196805 176 238 125
-0.274676 -0.0772773 0.197039 182 245 129
-0.274452 -0.0762631 0.197172 180 248 129
-0.273889 -0.0751799 0.197504 181 249 129
-0.273835 -0.0742069 0.197537 182 250 128
-0.277978 -0.056398 0.195126 169 199 135
-0.277041 -0.0553156 0.195677 177 240 139
-0.276986 -0.0543321 0.195711 186 252 139
-0.276756 -0.0533322 0.195847 188 255 135
-0.276526 -0.0523346 0.195983 193 255 134
-0.276122 -0.0513242 0.196222 189 255 133
-0.275547 -0.0503038 0.196561 188 255 133
-0.274803 -0.0492761 0.196999 188 255 131
-0.274577 -0.0482929 0.197133 190 255 134
-0.274351 -0.0473121 0.197266 190 255 131
-0.274297 -0.0463441 0.1973 191 255 134
-0.274243 -0.0453766 0.197333 205 255 142
-0.274875 -0.0444452 0.196963 213 255 145
-0.275338 -0.0434996 0.196692 193 255 157
-0.275804 -0.0425495 0.196419 172 236 122
-0.276272 -0.0415948 0.196146 152 211 105
-0.277095 -0.0406468 0.195664 139 197 93
-0.278461 -0.0397053 0.194863 132 188 92
-0.28094 -0.0387747 0.193408 128 183 90
-0.294595 -0.0305502 0.185401 114 177 91
-0.294535 -0.0294857 0.185437 165 189 112
-0.295317 -0.0283984 0.184979 168 252 133
-0.296318 -0.0272962 0.184393 156 222 129
-0.297114 -0.0261917 0.183927 197 227 130
-0.297484 -0.0250974 0.183711 191 255 131
-0.298073 -0.023989 0.183366 175 228 147
-0.298447 -0.022886 0.183148 156 211 103
-0.29948 -0.0217413 0.182543 139 191 97
-0.299859 -0.0206272 0.182321 128 180 93
-0.300462 -0.0194942 0.181969 121 170 91
-0.301292 -0.0183387 0.181483 107 158 87
-0.303262 -0.0170865 0.180328 100 141 75
-0.304114 -0.0159069 0.179829 92 134 62
-0.304974 -0.0147181 0.179325 79 125 60
-0.305608 -0.0135416 0.178955 81 131 64
-0.305778 -0.0124039 0.178856 101 154 76
-0.305949 -0.0112644 0.178757 118 168 87
-0.307297 -0.00999686 0.177967 123 175 104
-0.308422 -0.00874082 0.177308 147 171 136
-0.308359 -0.00761303 0.177347 158 174 157
-0.27439 -0.0802145 0.19608 136 167 134
-0.274336 -0.0792355 0.196114 126 164 98
-0.274111 -0.0782185 0.196248 131 185 96
-0.273718 -0.0771664 0.196483 146 207 109
-0.272991 -0.0760457 0.196915 160 225 118
-0.272769 -0.0750392 0.197048 174 240 124
-0.272214 -0.0739662 0.197378 184 248 127
-0.27216 -0.0729996 0.197412 182 250 129
-0.271774 -0.0719682 0.197642 179 251 130
-0.269915 -0.0706583 0.198746 179 252 131
-0.269376 -0.0696133 0.199067 179 252 132
-0.269322 -0.068662 0.1991 180 253 131
-0.27653 -0.0543321 0.194843 188 255 139
-0.276301 -0.0533322 0.19498 186 255 135
-0.276071 -0.0523345 0.195118 188 255 132
-0.275669 -0.0513241 0.195358 188 255 134
-0.274406 -0.0502471 0.196107 189 255 134
-0.273669 -0.0492232 0.196546 189 255 134
-0.273445 -0.0482435 0.19668 193 255 132
-0.273391 -0.0472774 0.196713 200 255 138
-0.273337 -0.0463119 0.196746 213 255 143
-0.273283 -0.0453469 0.196779 197 255 148
-0.273739 -0.044409 0.19651 180 245 128
-0.27437 -0.0434746 0.196137 157 221 112
-0.275005 -0.0425342 0.195762 141 199 101
-0.27547 -0.0415811 0.195487 134 189 90
-0.275938 -0.0406234 0.195211 127 184 88
-0.278717 -0.0397237 0.193564 124 176 91
-0.293116 -0.0316269 0.185035 137 187 98
-0.293057 -0.030567 0.185072 180 232 124
-0.29383 -0.0294886 0.184615 161 231 149
-0.294608 -0.0284024 0.184155 167 235 121
-0.295605 -0.0273012 0.183565 215 251 137
-0.296184 -0.0262058 0.183223 185 253 165
-0.296551 -0.0251137 0.183006 166 223 114
-0.296921 -0.0240178 0.182789 142 200 104
-0.297507 -0.0229066 0.182442 133 185 93
-0.297663 -0.0218145 0.182351 126 175 92
-0.298692 -0.0206661 0.181743 115 166 91
-0.299289 -0.0195365 0.18139 105 149 85
-0.300334 -0.0183684 0.180771 105 145 74
-0.302745 -0.0170838 0.179344 103 151 78
-0.303825 -0.0158851 0.178705 98 149 71
-0.305148 -0.0146543 0.177922 89 144 71
-0.305318 -0.013517 0.177822 94 151 73
-0.305488 -0.0123781 0.177722 111 168 83
-0.305893 -0.0112133 0.177484 121 173 90
-0.30677 -0.00999363 0.176965 124 174 110
-0.307655 -0.00876432 0.176442 154 176 150
-0.273771 -0.0801763 0.195323 154 168 144
-0.273547 -0.0791587 0.195459 126 157 115
-0.273155 -0.0781053 0.195694 105 146 94
-0.272598 -0.0770189 0.19603 107 151 87
-0.27221 -0.0759747 0.196263 117 167 88
-0.271823 -0.0749348 0.196496 128 186 95
-0.271107 -0.0738306 0.196926 145 206 104
-0.270396 -0.0727344 0.197353 161 225 116
-0.269366 -0.0715824 0.197971 173 239 125
-0.26899 -0.0705663 0.198198 181 246 129
-0.268293 -0.0694941 0.198616 184 249 129
-0.267761 -0.0684587 0.198936 182 251 129
-0.266758 -0.067345 0.199538 181 253 130
-0.266548 -0.066378 0.199665 181 254 130
-0.266338 -0.0654132 0.199792 181 254 130
-0.266129 -0.0644505 0.199918 180 254 129
-0.266077 -0.0635145 0.199951 180 255 130
-0.273614 -0.0502188 0.195453 189 255 135
-0.272881 -0.0491967 0.195893 195 255 138
-0.272489 -0.0482066 0.196129 206 255 142
-0.272436 -0.047243 0.196162 198 255 146
-0.272382 -0.0462799 0.196196 181 254 143
-0.272666 -0.0453367 0.196027 162 229 113
-0.272781 -0.0443818 0.195959 146 207 103
-0.273406 -0.0434498 0.195586 135 193 94
-0.274552 -0.0425334 0.194901 128 184 95
-0.275364 -0.0415932 0.194416 123 181 88
-0.291243 -0.0326972 0.184918 169 193 111
-0.291185 -0.0316438 0.184954 168 251 136
-0.292356 -0.030569 0.184254 158 232 129
-0.293125 -0.0294916 0.183795 204 229 138
-0.2939 -0.0284064 0.183332 188 255 142
-0.294471 -0.0273201 0.182992 178 226 143
-0.295045 -0.0262279 0.182649 152 209 104
-0.295622 -0.0251299 0.182305 137 191 96
-0.295989 -0.0240361 0.182087 127 179 93
-0.296357 -0.0229385 0.181867 121 168 90
-0.296727 -0.0218371 0.181647 107 156 84
-0.297098 -0.0207319 0.181426 103 143 81
-0.298124 -0.0195786 0.180814 104 147 80
-0.299823 -0.0183658 0.179798 107 152 81
-0.302455 -0.0170634 0.178223 103 154 80
-0.303764 -0.0158442 0.177441 102 155 75
-0.304857 -0.014631 0.176788 98 160 79
-0.305027 -0.0134925 0.176687 102 164 78
-0.305431 -0.0123294 0.176447 117 175 87
-0.305836 -0.011162 0.176205 124 174 92
-0.306479 -0.00996499 0.175822 131 173 115
-0.307126 -0.00876102 0.175436 157 176 157
-0.272761 -0.0790823 0.194805 153 170 145
-0.272204 -0.0779927 0.195143 145 157 124
-0.271485 -0.0768724 0.195579 128 149 102
-0.271265 -0.075868 0.195713 104 143 93
-0.270717 -0.0747959 0.196046 97 146 86
-0.270007 -0.0736959 0.196477 103 153 84
-0.268979 -0.0725383 0.1971 114 168 89
-0.268603 -0.07152 0.197328 129 189 96
-0.267909 -0.0704439 0.197749 150 209 107
-0.266902 -0.0693162 0.19836 166 227 118
-0.266376 -0.0682865 0.198679 174 239 124
-0.265853 -0.0672624 0.198996 180 247 128
-0.265488 -0.066271 0.199218 183 252 130
-0.26528 -0.0653094 0.199345 183 254 129
-0.265073 -0.06435 0.199471 183 255 129
-0.264711 -0.0633683 0.199691 182 255 130
-0.264659 -0.0624374 0.199724 181 255 131
-0.272096 -0.0491704 0.195243 200 255 143
-0.270706 -0.0481096 0.196084 187 254 146
-0.271151 -0.0471862 0.195816 167 237 120
-0.271599 -0.0462585 0.195547 149 212 106
-0.271881 -0.0453168 0.195377 138 196 96
-0.272164 -0.0443723 0.195207 132 187 93
-0.272957 -0.0434491 0.194729 126 183 89
-0.289395 -0.0337537 0.184801 173 241 123
-0.289739 -0.0327036 0.184594 156 223 139
-0.290085 -0.03165 0.184387 175 230 122
-0.291451 -0.0305746 0.183562 204 255 140
-0.292216 -0.0294993 0.183101 183 242 170
-0.292778 -0.028422 0.182762 163 219 112
-0.293343 -0.0273388 0.182422 140 198 100
-0.293912 -0.0262499 0.182079 131 185 94
-0.294485 -0.0251551 0.181734 125 173 91
-0.29506 -0.0240543 0.181387 116 164 88
-0.295426 -0.0229589 0.181167 103 146 85
-0.295794 -0.0218597 0.180946 102 145 76
-0.296377 -0.0207431 0.180595 106 152 82
-0.297616 -0.0195761 0.179847 106 153 85
-0.299533 -0.0183471 0.17869 106 157 83
-0.302847 -0.0169896 0.176687 105 163 83
-0.303473 -0.0158224 0.17631 106 163 78
-0.304566 -0.0146076 0.175651 102 163 80
-0.304969 -0.0134462 0.175409 108 171 80
-0.305373 -0.0122805 0.175165 118 177 88
-0.30578 -0.0111105 0.174921 125 173 95
-0.306424 -0.00991073 0.174533 142 170 116
-0.306598 -0.0087577 0.174429 160 174 155
-0.271757 -0.0779944 0.19429 164 168 149
-0.271039 -0.076874 0.19473 155 167 145
-0.27082 -0.0758696 0.194865 145 161 134
-0.270272 -0.0747974 0.1952 137 153 111
-0.268753 -0.0735284 0.196129 114 146 97
-0.268217 -0.0724743 0.196458 97 143 89
-0.267524 -0.0713944 0.196882 97 144 82
-0.266519 -0.0702613 0.197497 106 155 81
-0.265994 -0.0692286 0.197819 117 169 86
-0.265472 -0.0682016 0.198139 129 186 92
-0.265108 -0.067208 0.198362 143 207 101
-0.264591 -0.0661914 0.198679 160 228 114
-0.264384 -0.0652323 0.198806 174 243 124
-0.264178 -0.0642752 0.198933 182 253 128
-0.263665 -0.0632718 0.199248 183 255 130
-0.26346 -0.0623206 0.199374 182 255 130
-0.263409 -0.0613941 0.199406 182 255 130
-0.270149 -0.0490539 0.195305 172 240 126
-0.269767 -0.0480733 0.19554 155 219 106
-0.270208 -0.0471522 0.195272 141 202 97
-0.270653 -0.0462268 0.195002 131 190 94
-0.271099 -0.045297 0.19473 128 183 90
-0.27138 -0.0443541 0.194559 125 179 89
-0.287968 -0.0347976 0.184444 159 236 141
-0.288707 -0.0337528 0.183994 157 234 120
-0.28925 -0.032702 0.183663 218 230 138
-0.290202 -0.0316405 0.183083 188 255 147
-0.290958 -0.0305729 0.182623 171 226 134
-0.291721 -0.0294975 0.182159 153 205 104
-0.292282 -0.0284201 0.181817 134 191 96
-0.292846 -0.0273369 0.181474 127 181 92
-0.293413 -0.0262479 0.181129 121 171 92
-0.293984 -0.0251529 0.180782 106 156 87
-0.294771 -0.0240419 0.180303 103 143 80
-0.29535 -0.0229339 0.17995 103 148 78
-0.296148 -0.0218074 0.179465 106 152 81
-0.297604 -0.0206312 0.178577 109 155 81
-0.297544 -0.0195438 0.178615 110 159 85
-0.301934 -0.018131 0.175936 111 161 83
-0.303013 -0.0169332 0.175279 110 165 82
-0.303411 -0.0157813 0.175037 110 166 78
-0.304506 -0.0145637 0.17437 106 167 82
-0.30491 -0.0133997 0.174125 113 173 84
-0.305315 -0.0122314 0.173879 121 179 90
-0.305723 -0.0110588 0.173632 124 176 97
-0.306131 -0.0098819 0.173383 152 170 122
-0.306305 -0.00872756 0.173279 162 175 159
-0.269448 -0.0737667 0.194589 152 169 142
-0.267778 -0.0724756 0.19562 143 160 124
-0.266451 -0.0712697 0.196439 125 149 101
-0.265612 -0.0701713 0.196958 103 144 90
-0.265247 -0.0691708 0.197184 93 143 82
-0.264883 -0.0681741 0.19741 95 145 76
-0.264211 -0.0671261 0.197825 101 155 79
-0.263851 -0.0661389 0.198048 118 176 90
-0.263339 -0.0651297 0.198365 152 213 107
-0.263135 -0.0641759 0.198492 178 249 125
-0.262931 -0.0632242 0.198619 182 255 130
-0.262727 -0.0622746 0.198746 182 255 130
-0.262524 -0.061327 0.198872 183 254 130
-0.262472 -0.0604033 0.198905 184 254 129
-0.262118 -0.0594382 0.199124 185 255 130
-0.262067 -0.058517 0.199157 186 255 129
-0.262319 -0.0576351 0.199003 188 255 129
-0.262572 -0.0567508 0.198848 187 255 131
-0.262826 -0.055864 0.198692 187 255 133
-0.263541 -0.0550267 0.198252 186 255 133
-0.263798 -0.0541328 0.198095 188 255 135
-0.26421 -0.0532523 0.197842 199 255 141
-0.268286 -0.049889 0.195333 156 224 111
-0.268559 -0.0489645 0.195166 142 203 100
-0.268506 -0.0480136 0.1952 134 192 94
-0.269435 -0.0471295 0.194628 128 186 89
-0.270706 -0.0462575 0.193846 125 179 89
-0.270987 -0.0453157 0.193674 121 174 88
-0.284724 -0.0378768 0.185214 154 186 106
-0.285246 -0.0368544 0.184893 169 247 128
-0.285383 -0.0358239 0.18481 155 218 136
-0.286104 -0.0347933 0.184367 183 229 122
-0.287424 -0.0337536 0.183555 200 255 132
-0.288361 -0.0327036 0.182978 181 238 163
-0.288904 -0.0316493 0.182645 160 218 108
-0.289652 -0.0305858 0.182185 139 197 98
-0.290203 -0.0295193 0.181847 131 185 91
-0.291167 -0.0284356 0.181253 124 177 92
-0.291726 -0.0273555 0.18091 117 166 91
-0.292289 -0.0262697 0.180564 104 150 84
-0.293274 -0.0251599 0.179958 102 144 80
-0.294057 -0.0240499 0.179477 107 150 80
-0.29506 -0.0229203 0.17886 107 152 81
-0.296288 -0.0217674 0.178104 107 156 83
-0.29775 -0.0205873 0.177204 111 159 83
-0.30193 -0.0192065 0.174629 114 164 86
-0.303012 -0.0180111 0.173964 114 167 85
-0.30318 -0.0168764 0.173861 110 169 83
-0.304275 -0.0156626 0.173188 114 172 84
-0.304213 -0.0145403 0.173227 110 170 83
-0.304617 -0.0133749 0.17298 116 176 88
-0.305022 -0.0122052 0.172731 124 179 92
-0.305665 -0.0110069 0.172336 124 175 102
-0.305838 -0.009853 0.172231 157 175 137
-0.306486 -0.00864338 0.171833 167 176 163
-0.266015 -0.071271 0.195608 152 167 141
-0.264865 -0.070112 0.196325 143 163 130
-0.264502 -0.0691131 0.196552 134 154 111
-0.263986 -0.0680898 0.196874 116 145 92
-0.263472 -0.067072 0.197195 96 144 86
-0.262961 -0.0660599 0.197514 112 159 91
-0.262605 -0.0650791 0.197737 161 206 109
-0.262553 -0.0641518 0.19777 181 254 130
-0.262198 -0.0631767 0.197992 180 255 130
-0.261845 -0.0622054 0.198214 183 255 130
-0.261794 -0.0612827 0.198247 187 255 130
-0.261743 -0.0603604 0.198279 187 255 130
-0.261692 -0.0594387 0.198312 188 255 131
-0.261339 -0.0584772 0.198532 190 255 130
-0.261289 -0.057558 0.198565 190 255 129
-0.261539 -0.0566764 0.19841 190 255 131
-0.261942 -0.0558103 0.198161 189 255 135
-0.262346 -0.0549403 0.19791 196 255 140
-0.26306 -0.0540996 0.197467 215 255 143
-0.263316 -0.0532045 0.197308 201 255 151
-0.263728 -0.0523221 0.197053 183 249 138
-0.265394 -0.0515522 0.196017 163 228 113
-0.265974 -0.0506699 0.195657 146 206 103
-0.266081 -0.0497425 0.195591 132 194 93
-0.267793 -0.0489389 0.194527 127 185 92
-0.26888 -0.0480726 0.193851 127 181 91
-0.282586 -0.0388675 0.185332 166 216 117
-0.283098 -0.0378558 0.185014 157 228 139
-0.283995 -0.0368437 0.184457 163 233 116
-0.284708 -0.0358212 0.184014 201 239 134
-0.285232 -0.034791 0.183689 183 255 153
-0.286543 -0.0337533 0.182874 169 225 121
-0.287276 -0.0327068 0.18242 147 204 102
-0.287814 -0.0316555 0.182086 132 190 95
-0.288356 -0.0305986 0.18175 126 180 92
-0.289103 -0.0295315 0.181287 120 168 89
-0.289652 -0.0284624 0.180946 106 158 86
-0.290613 -0.0273741 0.180349 105 143 79
-0.291791 -0.0262677 0.179617 104 147 77
-0.292774 -0.0251578 0.179007 103 152 83
-0.293555 -0.0240477 0.178522 106 154 82
-0.294556 -0.022918 0.1779 109 157 83
-0.2973 -0.0216762 0.176194 113 164 85
-0.300792 -0.0203592 0.174022 116 168 90
-0.301865 -0.0191727 0.173355 117 169 89
-0.30226 -0.0180253 0.173111 115 172 86
-0.302657 -0.0168737 0.172865 111 172 87
-0.304215 -0.0156208 0.171897 114 173 83
-0.304619 -0.0144546 0.171647 113 173 84
-0.305026 -0.0132841 0.171395 120 177 88
-0.30567 -0.0120859 0.170996 127 180 94
-0.306318 -0.0108808 0.170593 126 175 109
-0.306018 -0.00977247 0.170782 151 174 152
-0.306193 -0.008613 0.170674 162 174 165
-0.264431 -0.0701132 0.195498 159 168 145
-0.263914 -0.069085 0.195824 152 164 138
-0.2634 -0.0680625 0.196149 143 165 129
-0.262583 -0.0669908 0.196663 146 183 122
-0.262227 -0.0660079 0.196888 164 219 122
-0.262176 -0.06508 0.196921 180 246 129
-0.261973 -0.0641277 0.19705 182 254 132
-0.261771 -0.0631775 0.197178 184 253 131
-0.261418 -0.0622061 0.197401 187 255 132
-0.261367 -0.0612833 0.197434 188 255 131
-0.260964 -0.0593974 0.197689 188 255 131
-0.260614 -0.0584376 0.19791 190 255 132
-0.260563 -0.0575198 0.197943 191 255 133
-0.261113 -0.0566767 0.197599 197 255 139
-0.261515 -0.0558105 0.197347 214 255 144
-0.262223 -0.054975 0.196903 204 255 148
-0.262783 -0.0541163 0.196552 191 253 145
-0.263193 -0.0532364 0.196295 171 234 121
-0.263606 -0.0523525 0.196037 150 215 108
-0.26402 -0.0514646 0.195778 136 198 98
-0.26538 -0.0506558 0.194925 130 188 93
-0.26644 -0.0498084 0.194259 126 181 90
-0.281227 -0.0398627 0.184979 161 240 128
-0.281358 -0.0388495 0.184898 155 224 126
-0.281865 -0.0378416 0.184581 184 227 124
-0.282564 -0.0368308 0.184143 186 254 133
-0.283843 -0.0358171 0.18334 170 229 145
-0.284363 -0.0347888 0.183014 155 212 107
-0.285276 -0.0337541 0.182442 136 196 96
-0.286001 -0.0327116 0.181988 128 185 92
-0.286731 -0.0316616 0.18153 121 175 90
-0.287268 -0.0306078 0.181194 115 164 88
-0.287809 -0.0295484 0.180855 105 148 81
-0.288553 -0.0284777 0.180389 101 146 75
-0.28971 -0.0273857 0.179663 105 151 78
-0.291294 -0.0262656 0.178669 105 156 82
-0.292693 -0.0251375 0.177792 107 155 83
-0.293264 -0.0240353 0.177434 111 158 83
-0.301799 -0.0191388 0.172076 118 176 91
-0.302195 -0.0179888 0.171829 114 173 87
-0.302363 -0.0168528 0.171725 111 174 88
-0.303688 -0.015618 0.170894 113 174 87
-0.304325 -0.0144309 0.170495 116 176 85
-0.304731 -0.013259 0.170241 123 183 93
-0.305375 -0.0120595 0.169837 124 178 94
-0.306023 -0.0108529 0.169432 134 175 113
-0.305961 -0.00971741 0.169472 152 175 158
-0.306136 -0.00855535 0.169363 164 173 164
-0.259341 -0.0855244 0.197608 180 247 130
-0.263122 -0.0680919 0.195229 177 226 138
-0.262153 -0.0669919 0.195845 180 243 134
-0.261799 -0.0660088 0.196071 183 250 132
-0.261748 -0.0650809 0.196105 185 253 132
-0.260288 -0.0575394 0.197039 217 255 144
-0.264523 -0.051552 0.194359 127 182 91
-0.27847 -0.0418078 0.185523 160 224 118
-0.278962 -0.0408194 0.185212 152 224 135
-0.279273 -0.0398209 0.185016 162 229 115
-0.280511 -0.0388401 0.184232 189 245 132
-0.281015 -0.0378339 0.183913 174 245 148
-0.28171 -0.0368249 0.183474 163 222 114
-0.28279 -0.0358116 0.18279 144 202 104
-0.28369 -0.034787 0.18222 131 189 95
-0.284211 -0.0337543 0.18189 124 180 91
-0.28493 -0.0327147 0.181435 118 170 94
-0.285654 -0.0316677 0.180977 106 159 87
-0.286582 -0.0306096 0.18039 102 141 81
-0.28712 -0.0295512 0.18005 104 147 77
-0.287861 -0.0284815 0.179581 105 152 82
-0.289013 -0.0273905 0.178851 106 153 85
-0.291003 -0.0262557 0.177591 109 157 85
-0.292821 -0.025108 0.176438 113 161 86
-0.301733 -0.0191047 0.170792 120 175 90
-0.301901 -0.0179692 0.170687 116 173 86
-0.302298 -0.0168138 0.170436 113 175 89
-0.303393 -0.0155956 0.169743 114 178 87
-0.30403 -0.0144071 0.16934 116 181 84
-0.304202 -0.013256 0.169233 125 186 95
-0.304844 -0.0120564 0.168826 126 175 96
-0.305491 -0.0108497 0.168418 148 176 121
-0.305665 -0.00968816 0.168308 161 179 163
-0.257374 -0.0859824 0.197791 158 216 113
-0.256466 -0.0848235 0.198374 170 231 119
-0.256417 -0.0839155 0.198407 177 242 125
-0.255659 -0.0828121 0.198893 180 247 129
-0.254767 -0.0816801 0.199465 180 251 132
-0.254718 -0.0807815 0.199498 179 251 132
-0.254251 -0.0797743 0.199798 180 249 132
-0.277332 -0.0427829 0.185058 153 230 129
-0.277277 -0.0417796 0.185095 155 227 115
-0.277764 -0.0407947 0.184784 181 229 124
-0.278437 -0.0398098 0.184354 179 253 140
-0.279667 -0.0388307 0.183567 165 230 124
-0.280354 -0.0378295 0.183129 150 214 103
-0.280858 -0.0368191 0.182807 137 195 98
-0.281743 -0.0358062 0.182242 128 182 93
-0.282635 -0.0347844 0.181671 122 176 90
-0.283344 -0.033754 0.181219 115 165 87
-0.284252 -0.0327147 0.180638 103 149 84
-0.284973 -0.0316687 0.180178 103 145 77
-0.286094 -0.030608 0.179461 104 153 82
-0.286631 -0.0295494 0.179119 107 156 81
-0.287371 -0.0284797 0.178646 107 154 83
-0.28852 -0.0273886 0.177911 109 157 85
-0.292168 -0.0261895 0.175577 109 165 88
-0.3015 -0.0202067 0.169608 122 177 92
-0.301438 -0.0190863 0.169648 120 176 90
-0.301835 -0.0179325 0.169396 116 178 86
-0.302464 -0.0167563 0.168994 118 178 86
-0.303097 -0.0155732 0.16859 115 178 86
-0.303501 -0.0144042 0.168333 120 183 89
-0.303672 -0.013253 0.168224 127 188 97
-0.304313 -0.0120533 0.167815 127 173 101
-0.304958 -0.0108465 0.167403 157 175 131
-0.305132 -0.00968489 0.167293 167 180 167
-0.256669 -0.085901 0.197177 122 169 89
-0.255202 -0.0845821 0.198127 136 188 96
-0.254453 -0.0834808 0.198612 150 208 107
