# .PCD v0.7 - Point Cloud Data file format
VERSION 0.7
FIELDS x y z rgb
SIZE 4 4 4 4
TYPE F F F F
COUNT 1 1 1 1
WIDTH 979
HEIGHT 1
VIEWPOINT 0 0 0 1 0 0 0
POINTS 979
DATA ascii
-0.26971099 0.048623499 0.014106 5.0718513e-39
-0.26917699 0.0528193 0.0148486 1.5033997e-38
-0.268978 0.038451999 0.012982 4.4217945e-39
-0.268875 0.039877299 0.0131037 3.6871035e-39
-0.26877099 0.041303601 0.0132255 3.6881811e-39
-0.268888 0.042831998 0.0129723 3.8740101e-39
-0.26900399 0.044365399 0.0127185 4.5183033e-39
-0.26890001 0.045798302 0.0128408 5.0711184e-39
-0.268796 0.047232199 0.0129632 4.8885278e-39
-0.268691 0.0486672 0.0130857 5.3487955e-39
-0.26796401 0.038494799 0.0119666 3.6871049e-39
-0.26807901 0.040017702 0.0117113 3.7792964e-39
-0.267975 0.0414459 0.0118328 3.8722137e-39
-0.26809099 0.042976599 0.0115771 4.0569664e-39
-0.267986 0.044408701 0.011699 4.6101388e-39
-0.26788101 0.045841798 0.011821 4.9789213e-39
-0.267777 0.0472758 0.0119431 4.9796458e-39
-0.267672 0.048710801 0.0120653 5.6253838e-39
-0.26716799 0.038633201 0.0105729 3.3186811e-39
-0.26728201 0.040158398 0.010315 3.6870965e-39
-0.26717699 0.041588601 0.0104364 3.7807355e-39
-0.26707199 0.043019801 0.0105579 4.0573252e-39
-0.26696801 0.044452 0.0106795 4.5186607e-39
-0.26686299 0.045885202 0.0108011 4.7956049e-39
-0.26675701 0.047319401 0.0109229 4.9800045e-39
-0.26665199 0.048754498 0.0110447 5.7190213e-39
-0.26614401 0.0357319 0.0096942801 1.0677409e-38
-0.26625699 0.037249502 0.0094351303 5.0642744e-39
-0.26615199 0.038676001 0.0095558604 3.5009144e-39
-0.26626399 0.040201399 0.0092963297 3.5030626e-39
-0.266159 0.041631699 0.0094173802 3.5959827e-39
-0.266054 0.0430631 0.0095385201 3.9640477e-39
-0.26594901 0.0444954 0.0096597504 4.0580468e-39
-0.265627 0.045823298 0.0101608 4.4268266e-39
-0.26552099 0.047255799 0.010282 4.7963336e-39
-0.265416 0.048689201 0.0104033 6.8250074e-39
-0.265223 0.028504901 0.0088404603 1.3717327e-38
-0.26511899 0.0299202 0.0089598903 1.2244725e-38
-0.26501399 0.031336401 0.0090794004 1.1875946e-38
-0.26512501 0.0328415 0.0088195102 1.2335842e-38
-0.26523501 0.034351502 0.0085590398 1.4080355e-38
-0.26513001 0.035774399 0.0086791096 8.4665136e-39
-0.26502499 0.037198201 0.0087992698 4.331024e-39
-0.265136 0.038718801 0.0085386699 3.8693326e-39
-0.26503101 0.040146399 0.0086591505 3.5963372e-39
-0.264925 0.041575 0.0087796999 3.9626058e-39
-0.26482001 0.043004598 0.00890035 4.055163e-39
-0.264714 0.044435199 0.0090210699 4.0566077e-39
-0.26439399 0.0457616 0.00952191 4.3331946e-39
-0.26428899 0.047192302 0.0096426504 4.7956189e-39
-0.26439801 0.048732799 0.0093837399 8.666392e-39
-0.264213 0.0285467 0.0078294398 8.5597854e-39
-0.264108 0.0299621 0.0079485402 7.5474328e-39
-0.26400399 0.0313784 0.0080677103 7.1768552e-39
-0.263899 0.032795802 0.0081869699 7.2683291e-39
-0.264007 0.0343039 0.0079256697 7.6360355e-39
-0.26411599 0.0358169 0.0076637701 5.4312577e-39
-0.264011 0.0372408 0.0077835899 4.0555133e-39
-0.263906 0.038665701 0.0079034697 4.2384696e-39
-0.2638 0.0400916 0.0080234604 4.2417038e-39
-0.26369399 0.041518498 0.00814352 4.8834747e-39
-0.26358899 0.042946301 0.0082636699 4.5164971e-39
-0.26348299 0.0443752 0.0083838897 4.425386e-39
-0.26337701 0.045805 0.0085041998 4.60942e-39
-0.263271 0.047235802 0.00862459 5.1636825e-39
-0.26316601 0.048667599 0.0087450696 1.0232267e-38
-0.26352099 0.027254701 0.0063168998 9.1104467e-39
-0.263203 0.0285885 0.0068182899 5.8021968e-39
-0.263098 0.030004 0.0069370498 5.4362954e-39
-0.26299301 0.031420499 0.0070558698 4.8831202e-39
-0.26288801 0.032837901 0.0071748002 4.2373892e-39
-0.26278299 0.034256302 0.0072937999 3.6856588e-39
-0.26267701 0.035675701 0.0074128802 3.5009088e-39
-0.262784 0.037189599 0.0071504102 3.3179553e-39
-0.262678 0.038612802 0.00726981 4.0547972e-39
-0.26257199 0.040036999 0.0073892898 4.7012414e-39
-0.26267901 0.041561499 0.0071266801 5.253332e-39
-0.262573 0.0429895 0.0072464799 4.887076e-39
-0.262467 0.044418398 0.0073663602 4.3353512e-39
-0.26236099 0.045848399 0.0074863299 4.610499e-39
-0.262254 0.047279298 0.0076063802 5.3484367e-39
-0.26214799 0.048711199 0.0077265101 1.1154221e-38
-0.26251 0.0272964 0.0053046201 7.3598017e-39
-0.26219299 0.028630299 0.00580699 4.8806034e-39
-0.262088 0.0300459 0.0059254002 5.066438e-39
-0.26198199 0.031462502 0.0060438998 4.9763878e-39
-0.261666 0.032792199 0.0065449299 3.9604408e-39
-0.26156101 0.034208901 0.0066634398 3.4079901e-39
-0.26124501 0.035535298 0.0071631302 3.1328395e-39
-0.26134899 0.037045199 0.00690069 2.8576988e-39
-0.261244 0.0384648 0.0070194402 3.227196e-39
-0.26113799 0.039885402 0.00713827 3.8718465e-39
-0.261242 0.041405901 0.0068756598 4.423584e-39
-0.261136 0.0428303 0.00699483 4.3353526e-39
-0.26102999 0.044255599 0.0071140602 4.2424409e-39
-0.26113299 0.045786701 0.0068513402 4.5186621e-39
-0.261237 0.047322799 0.0065880199 5.532835e-39
-0.26113001 0.0487548 0.0067078001 1.1525166e-38
-0.28253999 0.019122399 -0.033415802 1.8685438e-38
-0.28268901 0.0207831 -0.0337728 1.7396144e-38
-0.26181599 0.026001699 0.0037875799 9.2066052e-39
-0.261289 0.0272574 0.0046775201 5.5220114e-39
-0.26118299 0.028672099 0.0047955299 4.5121797e-39
-0.26107699 0.030087899 0.0049136099 4.5128999e-39
-0.26076201 0.031418499 0.0054156701 4.6072465e-39
-0.26044801 0.032746602 0.00591648 4.0555133e-39
-0.25992599 0.033983301 0.00679676 3.1321277e-39
-0.25961399 0.0353049 0.0072940099 2.672946e-39
-0.259509 0.036716301 0.0074117202 2.8573401e-39
-0.25940299 0.0381287 0.00752954 3.225038e-39
-0.25950399 0.039638199 0.0072684102 3.3172378e-39
-0.25960499 0.0411526 0.0070066499 3.5941862e-39
-0.25949901 0.042571601 0.007125 3.8732955e-39
-0.25960001 0.044093698 0.00686289 4.5168572e-39
-0.25970101 0.045620698 0.00660021 4.8849222e-39
-0.26001099 0.047259402 0.0059536998 6.176045e-39
-0.26011199 0.048798401 0.00568895 1.1895747e-38
-0.28087899 0.0190106 -0.033571899 1.840993e-38
-0.28128999 0.0207475 -0.034417398 1.7028436e-38
-0.28331801 0.023003999 -0.038248099 1.509521e-38
-0.26059401 0.0259642 0.0031618499 7.7310996e-39
-0.260279 0.027299101 0.00366625 4.5118195e-39
-0.26017299 0.028713999 0.0037839101 4.3292303e-39
-0.25985801 0.0300455 0.0042870399 4.0537196e-39
-0.259545 0.0313746 0.0047888998 4.423214e-39
-0.25902599 0.0326139 0.0056716502 4.6994464e-39
-0.25830501 0.0337594 0.00692889 3.7778572e-39
-0.25738701 0.0348076 0.0085514896 3.1324864e-39
-0.25728199 0.036208399 0.0086679803 2.8576988e-39
-0.257177 0.037610002 0.0087845298 2.948814e-39
-0.25767899 0.039297499 0.00777474 3.2257624e-39
-0.258185 0.0409991 0.0067572598 3.5023507e-39
-0.258284 0.042514302 0.0064949701 3.596347e-39
-0.25838199 0.0440345 0.0062320498 4.0558804e-39
-0.25848201 0.0455596 0.0059685102 4.3328331e-39
-0.25858101 0.0470897 0.0057044099 5.6246593e-39
-0.27948901 0.018977599 -0.0342138 1.8041868e-38
-0.27963299 0.020631099 -0.0345711 1.6107567e-38
-0.28136599 0.0227948 -0.037893601 1.4265458e-38
-0.259583 0.026005801 0.0021494599 6.4389356e-39
-0.259269 0.0273408 0.00265483 3.9608051e-39
-0.25916201 0.028755801 0.0027721401 3.778216e-39
-0.25884899 0.0300874 0.0032762401 3.6863819e-39
-0.258331 0.031330802 0.0041636098 4.053005e-39
-0.25740799 0.032395199 0.0058083101 4.5146978e-39
-0.25649399 0.033449601 0.0074362298 4.6072451e-39
-0.25578901 0.034582701 0.0086752595 3.9679896e-39
-0.25568399 0.035978202 0.0087909698 3.410518e-39
-0.25557899 0.037374601 0.0089067398 3.8711276e-39
-0.25607201 0.0390549 0.0079009896 4.238827e-39
-0.25657001 0.040748999 0.00688755 5.9887349e-39
-0.25707099 0.042457301 0.0058663599 5.8958288e-39
-0.25716799 0.043975499 0.0056026499 4.7930825e-39
-0.257265 0.045498699 0.00533832 4.3339093e-39
-0.25756699 0.047132999 0.00468955 5.0711198e-39
-0.25766501 0.048668198 0.0044231601 6.4518948e-39
-0.27810299 0.0189448 -0.034853902 1.7398662e-38
-0.27824399 0.020595999 -0.0352121 1.5372167e-38
-0.28022599 0.022841001 -0.039035998 1.3989594e-38
-0.258885 0.024709901 0.00062929298 8.19497e-39
-0.25877801 0.0261268 0.00074641901 5.0621122e-39
-0.25846499 0.027463401 0.0012539499 3.9608037e-39
-0.25815099 0.0287976 0.0017602399 3.869327e-39
-0.25804499 0.030213701 0.00187731 3.870043e-39
-0.257323 0.0313727 0.00315496 4.1444803e-39
-0.25580201 0.0321781 0.0059437901 4.331024e-39
-0.254899 0.033229802 0.0075644501 4.3306653e-39
-0.254006 0.034271698 0.0091687497 4.7923595e-39
-0.25390199 0.0356602 0.0092835398 4.6069004e-39
-0.25418901 0.0372326 0.0086563798 3.6874651e-39
-0.25447801 0.038814001 0.0080260998 3.4130334e-39
-0.254967 0.040500902 0.0070167002 4.61265e-39
-0.25566101 0.042300899 0.0056199399 4.9810779e-39
-0.25595701 0.043916699 0.0049747098 4.6105018e-39
-0.25625399 0.045541801 0.0043262802 4.2420766e-39
-0.25635001 0.047070101 0.00405967 4.3346323e-39
-0.25644499 0.0486033 0.0037925099 5.2551495e-39
-0.25674501 0.050252002 0.0031378299 6.1753079e-39
-0.257027 -0.00257657 0.0028470401 1.9358177e-38
-0.25692299 -0.00120289 0.00296027 1.9174505e-38
-0.25702 0.00021659701 0.0026920999 1.8250754e-38
-0.27620801 0.0187566 -0.0345199 1.6938767e-38
-0.27685899 0.0205609 -0.0358514 1.5280333e-38
-0.25797999 0.0233355 -0.00050109997 1.1597188e-38
-0.257873 0.024751499 -0.00038437801 6.8131173e-39
-0.25776601 0.026168499 -0.000267597 3.9597261e-39
-0.25745299 0.0275052 0.00024091 3.6849413e-39
-0.257346 0.028922301 0.00035771399 3.9597289e-39
-0.25703299 0.0302557 0.00086489797 4.052635e-39
-0.25631499 0.031414598 0.00214614 3.8693354e-39
-0.25440601 0.032048199 0.00570087 4.055156e-39
-0.253122 0.032925501 0.0080637801 4.1462754e-39
-0.252049 0.033877 0.0100245 4.5146978e-39
-0.25194499 0.035256799 0.0101383 4.7930825e-39
-0.25241899 0.0369092 0.0091479197 4.5164971e-39
-0.25270101 0.038481899 0.0085217403 3.6885329e-39
-0.25337699 0.040254701 0.00714471 3.5974232e-39
-0.25405899 0.042046599 0.0057536298 4.0580398e-39
-0.25474799 0.043857999 0.0043482799 3.9651295e-39
-0.255243 0.045584898 0.0033140799 4.056965e-39
-0.255337 0.0471134 0.0030458199 3.6892629e-39
-0.255431 0.0486468 0.00277701 4.4250231e-39
-0.25552499 0.050185099 0.0025075199 5.1618693e-39
-0.25561899 0.051728498 0.0022374501 5.5310189e-39
-0.25604701 -0.0053204801 0.00201446 1.7789774e-38
-0.256143 -0.0039107902 0.00174482 1.8342948e-38
-0.25603899 -0.0025379299 0.00185765 1.8896476e-38
-0.255934 -0.00116412 0.00197054 1.9174141e-38
-0.25582999 0.000210595 0.0020834999 1.8991194e-38
-0.25572601 0.00158626 0.0021965499 1.7144769e-38
-0.27432999 0.01857 -0.0341889 1.666146e-38
-0.27496901 0.020365801 -0.035513502 1.5186337e-38
-0.25696799 0.023376901 -0.0015146 1.0677032e-38
-0.25685999 0.0247931 -0.00139822 6.2592177e-39
-0.256753 0.0262102 -0.0012817699 3.5931002e-39
-0.25664499 0.027628301 -0.00116525 3.5934618e-39
-0.25633299 0.028964199 -0.00065581902 3.7756978e-39
-0.25602201 0.0302976 -0.00014764701 3.7774915e-39
-0.25510699 0.031370901 0.00152463 3.777137e-39
-0.25301701 0.031918999 0.00545912 3.9622429e-39
-0.25097999 0.032454301 0.0092946002 3.9626016e-39
-0.25068501 0.033745099 0.0097745601 3.9622471e-39
-0.25001299 0.034858599 0.0109821 4.4246602e-39
-0.249908 0.036230799 0.0110949 4.5161369e-39
-0.250561 0.037969101 0.0097477902 4.6094045e-39
-0.251605 0.039915301 0.00764436 4.2399102e-39
-0.25227401 0.0416965 0.0062626 3.7796537e-39
-0.25314701 0.043597501 0.0044865599 3.5048675e-39
-0.25423199 0.045628101 0.00230173 4.2417094e-39
-0.25432399 0.047156699 0.0020318199 3.6889e-39
-0.25441599 0.0486903 0.00176135 3.7792992e-39
-0.254509 0.050228801 0.0014902001 4.4257462e-39
-0.254601 0.0517723 0.00121846 4.8881691e-39
-0.25516501 -0.0066514802 0.00091463397 1.6777064e-38
-0.25486299 -0.0053198501 0.00140947 1.732916e-38
-0.25495699 -0.0039118398 0.00113909 1.7974164e-38
-0.254852 -0.00254062 0.00125144 1.8065638e-38
-0.25494599 -0.00112537 0.00098065205 1.8434415e-38
-0.254841 0.00024947201 0.0010932999 1.8712805e-38
-0.25473699 0.00162525 0.00120601 1.7792292e-38
-0.254632 0.00300197 0.00131881 1.4105546e-38
-0.271483 0.0180817 -0.031952702 1.6107924e-38
-0.27284601 0.0200934 -0.0346957 1.4355138e-38
-0.25606301 0.022003099 -0.0026442001 1.1412438e-38
-0.25595599 0.0234184 -0.00252825 8.9285623e-39
-0.25584799 0.0248347 -0.0024122 5.4298186e-39
-0.25573999 0.026251899 -0.0022960899 3.593459e-39
-0.25563201 0.0276701 -0.00217992 3.5023409e-39
-0.25552401 0.0290893 -0.0020636399 3.6849385e-39
-0.25501099 0.030339601 -0.0011603601 3.5945436e-39
-0.25409999 0.031412698 0.00051682198 3.7774901e-39
-0.25182801 0.031875301 0.0048415898 3.7785691e-39
-0.249809 0.032410599 0.0086796796 3.9625988e-39
-0.249139 0.033528201 0.0098909698 3.7778558e-39
-0.24884801 0.034812301 0.0103676 4.1480733e-39
-0.248557 0.0360942 0.010843 4.3313855e-39
-0.248639 0.037554599 0.0105923 4.8841964e-39
-0.24947201 0.039391901 0.0088765398 4.9756759e-39
-0.25089201 0.041543901 0.0060175098 4.4239469e-39
-0.251753 0.043439198 0.0042441199 3.7810942e-39
-0.25321999 0.045671199 0.00128923 4.2424255e-39
-0.25331101 0.047200002 0.00101767 3.9644051e-39
-0.25340101 0.0487337 0.00074554398 3.7789404e-39
-0.253492 0.050272498 0.00047272799 4.2420738e-39
-0.25358301 0.051816199 0.00019932599 4.8881691e-39
-0.25398201 -0.0066492702 0.00031122699 1.6408998e-38
-0.253878 -0.0052815499 0.00042295101 1.7054011e-38
-0.253773 -0.0039128801 0.000534739 1.7236243e-38
-0.253865 -0.00250203 0.00026300299 1.723516e-38
-0.25376001 -0.0011297601 0.00037508601 1.6958207e-38
-0.25365499 0.000243434 0.00048725199 1.7332022e-38
-0.25354999 0.00161758 0.00059951202 1.7608618e-38
-0.25324899 0.00294437 0.00109487 1.6502272e-38
-0.253144 0.0043186299 0.00120713 1.4276985e-38
-0.27049601 0.0165851 -0.033185098 1.7216424e-38
-0.26892999 0.0176771 -0.030228101 1.5278527e-38
-0.26857501 0.0191299 -0.029636201 1.3709772e-38
-0.255362 0.020702399 -0.0041705598 1.1871617e-38
-0.25505099 0.0220445 -0.00365766 1.0675955e-38
-0.255146 0.0235359 -0.0039391099 7.2715661e-39
-0.25503701 0.024954099 -0.0038232701 4.6944101e-39
-0.25472701 0.0262936 -0.00331058 3.7764111e-39
-0.25461799 0.0277119 -0.00319472 3.593459e-39
-0.25450999 0.0291312 -0.0030787899 3.6849385e-39
-0.25379899 0.030296899 -0.00177995 3.593466e-39
-0.252895 0.031369001 -0.000102134 3.7774845e-39
-0.250451 0.031746998 0.0046026302 3.5938191e-39
-0.24864 0.032366998 0.0080661802 4.0537154e-39
-0.24797601 0.033483502 0.0092779296 3.7778544e-39
-0.247686 0.034766201 0.00975437 3.7796551e-39
-0.24758101 0.036135301 0.0098662004 4.238471e-39
-0.247476 0.037505299 0.0099780997 4.6983702e-39
-0.247557 0.0389686 0.0097259805 4.8834845e-39
-0.248759 0.0410069 0.0072646299 5.0682345e-39
-0.25017399 0.043182001 0.0043816199 4.4257434e-39
-0.252406 0.045818701 -0.000112995 4.7019645e-39
-0.25249499 0.047349799 -0.000387023 4.5150593e-39
-0.25258499 0.048885901 -0.00066172099 4.1473586e-39
-0.25267401 0.0504269 -0.00093703298 4.4260993e-39
-0.25276399 0.051973 -0.00121299 5.0718414e-39
-0.25299799 -0.0066110501 -0.000675113 1.5762189e-38
-0.252893 -0.0052432199 -0.00056372798 1.668559e-38
-0.25278801 -0.00387445 -0.00045224401 1.6777426e-38
-0.25268301 -0.0025047499 -0.000340698 1.5766149e-38
-0.25257799 -0.00113412 -0.00022908 1.3733179e-38
-0.252473 0.000237436 -0.000117395 1.5681486e-38
-0.25236699 0.00160994 -5.6157201e-06 1.6963235e-38
-0.252262 0.0029833801 0.000106243 1.7695048e-38
-0.252157 0.0043577598 0.000218163 1.6403216e-38
-0.252051 0.0057330602 0.000330154 1.5386565e-38
-0.26890799 0.0164831 -0.033338901 1.6572498e-38
-0.266655 0.0173524 -0.028994801 1.4726436e-38
-0.26630399 0.018795701 -0.028409099 1.3527181e-38
-0.266188 0.020313 -0.0282856 1.3437505e-38
-0.25588399 0.019827399 -0.0081217801 1.2331872e-38
-0.25434899 0.0207437 -0.0051851701 1.1504274e-38
-0.25424001 0.0221601 -0.0050698202 9.7561608e-39
-0.254132 0.0235775 -0.0049543902 6.3496112e-39
-0.25402299 0.0249958 -0.0048388802 4.1444719e-39
-0.25371301 0.026335301 -0.0043252101 3.8678878e-39
-0.25360501 0.0277538 -0.0042096898 3.6845784e-39
-0.25329599 0.0290899 -0.0036973299 3.7767726e-39
-0.25278801 0.0303389 -0.0027916599 3.4998312e-39
-0.251302 0.031155299 5.6052399e-05 3.776767e-39
-0.24927001 0.0317038 0.0039882399 3.5016221e-39
-0.24766 0.032407999 0.0070852698 3.869327e-39
-0.246999 0.033524401 0.0083003901 3.6856602e-39
-0.24671 0.034807201 0.0087777097 3.5034311e-39
-0.24660499 0.036176398 0.0088892197 4.1459167e-39
-0.2465 0.037546501 0.0090007996 4.5139789e-39
-0.24639501 0.038917601 0.0091124503 4.5154209e-39
-0.246474 0.0403837 0.0088589899 4.9763948e-39
-0.24898601 0.043124899 0.0037624999 4.7941643e-39
-0.25159001 0.045966599 -0.00151897 5.3466137e-39
-0.25167799 0.047499999 -0.00179557 5.3437382e-39
-0.251766 0.049038399 -0.0020727699 4.7008883e-39
-0.251854 0.050581802 -0.00235064 4.7948804e-39
-0.251744 0.052016899 -0.00223377 5.6246607e-39
-0.25190699 -0.0052049002 -0.00155054 1.6224248e-38
-0.251802 -0.0038360099 -0.0014394 1.6318607e-38
-0.251697 -0.0024661999 -0.00132817 1.4018048e-38
-0.251591 -0.00109544 -0.0012168901 1.1340067e-38
-0.251486 0.00027623901 -0.00110551 1.2818092e-38
-0.25138 0.00164885 -0.00099406601 1.8336451e-38
-0.251275 0.0030224 -0.000882547 1.7885556e-38
-0.251169 0.0043968898 -0.00077094598 2.0089239e-38
-0.25106299 0.0057723201 -0.00065928698 1.8153482e-38
-0.26556599 0.0173962 -0.030084601 1.4451293e-38
-0.264294 0.0185403 -0.027656499 1.3344948e-38
-0.26417801 0.020049401 -0.027534001 1.2977963e-38
-0.262925 0.021169299 -0.025140099 1.2700655e-38
-0.25486201 0.019869 -0.0091455299 1.1964529e-38
-0.25333601 0.020785 -0.0061999201 1.0401167e-38
-0.253227 0.022201501 -0.0060848999 8.283916e-39
-0.25311801 0.023619 -0.0059698098 5.5216526e-39
-0.25280899 0.024959501 -0.00545508 3.6860175e-39
-0.2527 0.0263771 -0.0053399899 3.5923842e-39
-0.25259101 0.0277956 -0.00522481 3.6849357e-39
-0.25208399 0.0290487 -0.0043144198 3.7782061e-39
-0.25118801 0.0301279 -0.00262203 3.5927429e-39
-0.24972101 0.0309432 0.00021290001 3.5012661e-39
-0.248092 0.031660601 0.0033752699 3.5948939e-39
-0.24649601 0.032364499 0.0064742598 3.3186713e-39
-0.246023 0.033565398 0.00732269 3.5012703e-39
-0.245735 0.034848198 0.0078009102 3.778932e-39
-0.245629 0.0362175 0.0079120798 4.1455565e-39
-0.245524 0.037587799 0.0080233496 4.3303065e-39
-0.245418 0.038959 0.0081346696 4.3317457e-39
-0.24567799 0.040519599 0.0075123101 4.7005268e-39
-0.24799 0.043167301 0.0027653601 4.7019673e-39
-0.250772 0.046114899 -0.0029287899 5.1629427e-39
-0.25085801 0.047650602 -0.0032079001 5.7143172e-39
-0.250945 0.0491913 -0.0034876601 5.6232033e-39
-0.250835 0.0506256 -0.0033712101 5.6232075e-39
-0.25071099 -0.0024276299 -0.0023157999 1.4847074e-38
-0.25060499 -0.00105677 -0.0022048301 1.2815534e-38
-0.25049901 0.000315023 -0.0020937901 1.2073297e-38
-0.250393 0.00168776 -0.00198266 1.4561488e-38
-0.250287 0.0030614301 -0.00187148 1.7514618e-38
-0.25018099 0.0044360398 -0.0017602 1.5474843e-38
-0.25007501 0.0058115702 -0.0016488601 1.3270022e-38
-0.24996901 0.0071880599 -0.00153744 1.3908567e-38
-0.26140201 0.0210582 -0.025313299 1.1043657e-38
-0.25383899 0.0199106 -0.0101694 1.0124223e-38
-0.25232199 0.020826301 -0.0072148 8.6519769e-39
-0.252213 0.022243001 -0.0071001402 6.3517678e-39
-0.25190499 0.023584399 -0.0065843598 4.5111021e-39
-0.25179601 0.025001099 -0.0064696702 3.6856644e-39
-0.25168601 0.0264188 -0.0063549099 3.5009116e-39
-0.25118199 0.0276746 -0.00544202 3.8682466e-39
-0.25087601 0.029007601 -0.0049300501 3.8696843e-39
-0.24959899 0.0299186 -0.0024538799 3.503064e-39
-0.248152 0.030732799 0.000368387 3.5949009e-39
-0.24617501 0.0312826 0.0042662499 3.6856588e-39
-0.245517 0.032405399 0.0054942998 3.5019822e-39
-0.24522801 0.033692099 0.0059755701 3.5938219e-39
-0.24494 0.034976501 0.00645576 3.9622373e-39
-0.244653 0.036258601 0.00693481 4.0540798e-39
-0.24454699 0.037629001 0.00704573 4.1469957e-39
-0.24480499 0.039185502 0.0064202398 4.331031e-39
-0.24542999 0.040941101 0.0050480701 4.6072578e-39
-0.247182 0.043309201 0.0013864 4.7008897e-39
-0.24975599 0.046158299 -0.0039458601 5.2533376e-39
-0.250036 0.047801599 -0.0046240799 5.8987098e-39
-0.249926 0.049235001 -0.0045080502 5.9005133e-39
-0.249815 0.050669398 -0.0043919398 5.623939e-39
-0.24961901 -0.0010180901 -0.00319292 1.1520485e-38
-0.249512 0.000353829 -0.0030822 9.9524281e-39
-0.249406 0.00172668 -0.0029714101 1.1334288e-38
-0.2493 0.0031004499 -0.0028605501 1.3170294e-38
-0.249193 0.0044751698 -0.00274961 1.0590973e-38
-0.24908701 0.0058508399 -0.0026386001 1.0040309e-38
-0.24879 0.0071738102 -0.0021408501 1.4180832e-38
-0.25221401 0.019736599 -0.0099659096 8.0105689e-39
-0.25130799 0.0208677 -0.0082298499 8.0102046e-39
-0.251001 0.02221 -0.0077130198 5.8018255e-39
-0.25089201 0.023625899 -0.0075987601 4.3285045e-39
-0.25058499 0.0249648 -0.0070832302 3.9618827e-39
-0.25027999 0.0263013 -0.006569 3.6845798e-39
-0.249975 0.0276352 -0.00605598 3.5012703e-39
-0.249283 0.028801801 -0.0047521 3.2271988e-39
-0.24821401 0.029793801 -0.00267651 2.9506147e-39
-0.24603701 0.030275701 0.00166365 3.5938275e-39
-0.244827 0.0311573 0.0040308302 3.9593702e-39
-0.24453799 0.032446399 0.0045141801 3.7764125e-39
-0.24425 0.0337331 0.0049963598 3.4105054e-39
-0.24414399 0.035105102 0.0051070899 3.5945309e-39
-0.244038 0.036478098 0.0052178702 3.7782117e-39
-0.24393199 0.037852 0.00532876 3.8711318e-39
-0.244552 0.039600201 0.0039506699 3.962973e-39
-0.245178 0.041366901 0.0025587101 4.0551686e-39
-0.246747 0.043652099 -0.000767096 4.4246658e-39
-0.24874 0.046201602 -0.0049630702 5.1611448e-39
-0.249017 0.0478452 -0.00564428 5.7128794e-39
-0.248906 0.049278699 -0.0055286 5.715043e-39
-0.248795 0.0507132 -0.00541283 5.6250152e-39
-0.24852499 0.00039263701 -0.0040707798 8.7535332e-39
-0.248419 0.00176559 -0.00396031 1.0507042e-38
-0.248312 0.00313949 -0.00384979 9.8577283e-39
-0.24820501 0.0045143198 -0.00373917 9.4857018e-39
-0.24790899 0.00583818 -0.00324042 9.398897e-39
-0.247614 0.0071596 -0.00274284 1.6667575e-38
-0.247319 0.0084786201 -0.0022464399 1.64922e-38
-0.25060099 0.019564001 -0.00976416 1.0315448e-38
-0.25009799 0.0208364 -0.0088410797 8.8424862e-39
-0.249598 0.022103 -0.0079227099 5.70749e-39
-0.249294 0.0234397 -0.00740851 4.051563e-39
-0.249184 0.024851101 -0.0072949501 3.7771327e-39
-0.248688 0.0261054 -0.0063839299 3.7778488e-39
-0.248386 0.0274345 -0.0058734999 3.5027067e-39
-0.24732199 0.0284345 -0.0037911099 3.3172434e-39
-0.246084 0.0293408 -0.00134957 3.3190329e-39
-0.244317 0.029988401 0.0021884099 3.5016305e-39
-0.24366599 0.031115299 0.0034235399 3.1346402e-39
-0.243379 0.032402899 0.0039066798 3.2253981e-39
-0.24327201 0.0337741 0.0040169898 3.5016207e-39
-0.24334601 0.035234101 0.0037549001 3.4097894e-39
-0.243239 0.036608901 0.00386551 3.410511e-39
-0.24367499 0.038259901 0.0028538799 3.4108754e-39
-0.244113 0.039924402 0.00183466 3.6871021e-39
-0.244372 0.041505601 0.00118822 4.0548028e-39
-0.245746 0.043694701 -0.0017698 4.2395542e-39
-0.247339 0.046034802 -0.00518511 4.7930853e-39
-0.247612 0.047673799 -0.0058654598 4.977478e-39
-0.247886 0.0493224 -0.0065493002 5.438459e-39
-0.247775 0.050756998 -0.0064338702 6.2693056e-39
-0.247431 0.00180451 -0.0049493699 1.0596365e-38
-0.247324 0.0031785199 -0.00483916 1.0042107e-38
-0.247217 0.0045534801 -0.00472887 1.0409455e-38
-0.24673399 0.0058255601 -0.0038408199 9.5847288e-39
-0.246254 0.0070921401 -0.00295722 1.4554288e-38
-0.245223 0.0081897397 -0.00093136798 1.8058451e-38
-0.244387 0.0093298797 0.000692837 1.8245703e-38
-0.2441 0.0106299 0.00117788 1.4285253e-38
-0.249586 0.019605299 -0.0107805 9.9488323e-39
-0.248697 0.0207329 -0.00904766 8.1027701e-39
-0.24781699 0.021849699 -0.00733261 5.2461504e-39
-0.247517 0.0231799 -0.0068222098 3.7771327e-39
-0.247217 0.024507601 -0.0063130101 3.7782117e-39
-0.246728 0.0257548 -0.0054107201 4.0533567e-39
-0.245867 0.026838399 -0.0037315399 3.7782117e-39
-0.24519999 0.0279918 -0.0024554699 3.6842295e-39
-0.243442 0.0286538 0.00109463 3.5023507e-39
-0.242973 0.0298662 0.00195823 3.4108754e-39
-0.242328 0.0309909 0.0031908101 3.5027039e-39
-0.242043 0.032275502 0.0036727199 3.5019808e-39
-0.241937 0.033643398 0.00378245 3.5012619e-39
-0.24183001 0.0350122 0.0038922401 3.5019836e-39
-0.242438 0.036740001 0.00250957 3.410511e-39
-0.24269 0.038301501 0.00186844 3.5023493e-39
-0.24330699 0.040061001 0.000465191 3.8704088e-39
-0.24338099 0.041547701 0.00019587899 4.0544427e-39
-0.244744 0.0437374 -0.00277265 4.14736e-39
-0.245381 0.045557201 -0.0042230398 4.6090528e-39
-0.246215 0.047503401 -0.0060856598 4.7938056e-39
-0.24629401 0.049038399 -0.0063693998 5.3466235e-39
-0.24618199 0.050467499 -0.0062547801 7.0961866e-39
-0.25953299 -0.0039786799 -0.032549702 1.2170173e-38
-0.25963801 -0.0024498601 -0.032892801 9.7648166e-39
-0.25996599 -0.00086862902 -0.033701099 9.3005833e-39
-0.246336 0.00321757 -0.00582868 1.0500924e-38
-0.24622899 0.0045926301 -0.0057187201 1.0503808e-38
-0.245377 0.0057613798 -0.0040522302 1.0227584e-38
-0.244352 0.0068665501 -0.0020198899 1.1978582e-38
-0.24351899 0.0080125201 -0.00039061499 1.5570256e-38
-0.243053 0.0092581501 0.00047201401 1.8796723e-38
-0.242768 0.0105552 0.00095581502 1.6867808e-38
-0.242662 0.0119083 0.00106401 1.5943339e-38
-0.24255601 0.0132623 0.00117229 1.5759308e-38
-0.242451 0.0146172 0.00128063 1.4103029e-38
-0.2481 0.018022399 -0.0106895 1.18907e-38
-0.24741299 0.0192229 -0.0093658203 9.6765727e-39
-0.24616399 0.020201899 -0.00686051 7.3680932e-39
-0.245492 0.021382101 -0.00556659 5.0624864e-39
-0.24463999 0.022481101 -0.0038936001 3.7774943e-39
-0.244164 0.0237184 -0.00300813 3.7778544e-39
-0.243689 0.024950299 -0.00212711 3.8696885e-39
-0.242855 0.026023 -0.000488116 3.5945436e-39
-0.242567 0.027319999 1.45151e-06 3.5934688e-39
-0.242101 0.0285349 0.00086738402 3.5949037e-39
-0.241459 0.029663701 0.00210366 3.5041472e-39
-0.241175 0.0309492 0.0025865401 4.0540784e-39
-0.240715 0.032148801 0.0034397901 3.9633177e-39
-0.24060801 0.033513401 0.0035488999 3.5030584e-39
-0.240502 0.034878898 0.00365809 3.594182e-39
-0.240747 0.036423199 0.00302424 3.5023493e-39
-0.241349 0.038159098 0.0016369499 3.6860189e-39
-0.24231701 0.040102899 -0.00052571099 3.8696871e-39
-0.24238899 0.0415898 -0.00079661299 3.9618841e-39
-0.24319001 0.043478999 -0.00260934 3.9626058e-39
-0.243632 0.045187999 -0.00366305 4.2402717e-39
-0.244077 0.046911199 -0.0047248299 4.6097745e-39
-0.244339 0.048541099 -0.00539931 5.3455431e-39
-0.244414 0.050070599 -0.00568101 7.2780556e-39
-0.25780699 -0.004065 -0.0322375 1.1989028e-38
-0.257909 -0.0025425099 -0.032579198 9.4957897e-39
-0.25845101 -0.00092102698 -0.033846799 9.0247152e-39
-0.24487001 0.0045313202 -0.0059257201 9.121601e-39
-0.244027 0.00569752 -0.00426271 1.0134311e-38
-0.243192 0.0068528899 -0.0026163999 1.1148103e-38
-0.24254601 0.0080514001 -0.00136543 1.1424692e-38
-0.242082 0.00929703 -0.00050067698 1.6487887e-38
-0.241798 0.0105941 -1.59964e-05 1.8893947e-38
-0.241514 0.0118889 0.000467559 1.9449992e-38
-0.24140801 0.0132413 0.00057537103 1.8434409e-38
-0.241302 0.0145947 0.00068325299 1.631464e-38
-0.24119601 0.015949 0.000791219 1.3827526e-38
-0.241267 0.017369401 0.00052409602 1.1062744e-38
-0.241872 0.0189966 -0.00087714102 8.3869226e-39
-0.24212299 0.020501301 -0.00152843 6.1727912e-39
-0.242015 0.0218713 -0.00141921 4.2399158e-39
-0.24155 0.0230962 -0.000550339 3.7774985e-39
-0.241265 0.0243902 -6.3006199e-05 3.6860189e-39
-0.24098 0.0256819 0.00042315299 3.5945422e-39
-0.240696 0.0269712 0.00090820302 3.5938233e-39
-0.240413 0.028258299 0.00139209 3.6860189e-39
-0.24013001 0.0295431 0.00187485 3.778932e-39
-0.239848 0.030825701 0.0023564801 4.054077e-39
-0.239567 0.032106001 0.0028369999 4.0558748e-39
-0.23946001 0.033468999 0.0029456599 4.1466313e-39
-0.239353 0.034832899 0.00305438 4.1455565e-39
-0.23942 0.036286499 0.0027917901 3.7789348e-39
-0.23966201 0.0378353 0.00215552 3.6867364e-39
-0.240613 0.0397669 7.3156698e-06 3.7782103e-39
-0.241218 0.041535001 -0.00140594 3.8704046e-39
-0.24182899 0.043322101 -0.0028335301 3.8700486e-39
-0.242082 0.0449243 -0.0034968201 3.8711333e-39
-0.242336 0.046535701 -0.0041634799 4.4246672e-39
-0.24240901 0.048050102 -0.0044418098 5.1607945e-39
-0.24229801 0.049461201 -0.0043293098 7.1851369e-39
-0.255667 -0.0042346301 -0.031017199 1.2267055e-38
-0.256843 -0.002501 -0.0336475 9.8667317e-39
-0.25694299 -0.000973113 -0.033991799 8.9296483e-39
-0.24333499 0.0044204602 -0.0057425098 8.1081722e-39
-0.242503 0.0055829198 -0.0040870602 8.8460903e-39
-0.242036 0.0068392898 -0.00321158 1.0317985e-38
-0.241394 0.0080364598 -0.0019602799 9.2148742e-39
-0.240933 0.0092806797 -0.00109543 1.3722015e-38
-0.240651 0.0105763 -0.00061091199 1.8063104e-38
-0.24054401 0.0119279 -0.00050349702 2.0279031e-38
-0.240087 0.0131606 0.000354697 2.0459831e-38
-0.239981 0.0145107 0.000461986 1.8800676e-38
-0.239875 0.015861699 0.00056935102 1.6130969e-38
-0.239768 0.0172137 0.00067677803 1.355166e-38
-0.23966201 0.018566599 0.00078430399 1.097091e-38
-0.24025699 0.0201947 -0.00061061198 8.2979626e-39
-0.24014901 0.0215562 -0.00050241401 5.9012364e-39
-0.239867 0.022846401 -1.7386201e-05 4.6994534e-39
-0.23976 0.024208101 9.08316e-05 3.961524e-39
-0.23965301 0.0255707 0.000199116 3.7789278e-39
-0.239371 0.0268571 0.00068289501 3.685656e-39
-0.239089 0.028141299 0.0011655299 3.5934646e-39
-0.238635 0.029343201 0.00201942 3.9622387e-39
-0.238528 0.0307028 0.00212746 3.9626016e-39
-0.238594 0.032146599 0.00186348 4.1473516e-39
-0.23848701 0.033509701 0.0019718001 4.7898441e-39
-0.23838 0.034873798 0.00208021 4.5139789e-39
-0.23827299 0.036238801 0.00218869 4.0558804e-39
-0.23833799 0.037695199 0.00192475 3.687814e-39
-0.23909999 0.039527498 0.000157854 3.687814e-39
-0.240227 0.041577 -0.00239749 3.7796481e-39
-0.24029601 0.043067001 -0.00267135 3.7782146e-39
-0.240723 0.0447638 -0.00371925 3.7782188e-39
-0.240793 0.046267301 -0.00399603 4.1473628e-39
-0.240683 0.047670402 -0.0038845299 4.7927336e-39
-0.24057201 0.0490744 -0.00377296 7.0947377e-39
-0.25461 -0.00419361 -0.0320765 1.2359607e-38
-0.25577599 -0.00245952 -0.034715898 1.0326262e-38
-0.256091 -0.00088449998 -0.035526901 8.6534244e-39
-0.241632 0.0042610401 -0.0051742299 7.6565393e-39
-0.24116801 0.0055199098 -0.0042964299 7.4656768e-39
-0.24088299 0.00682572 -0.0038054001 8.4787469e-39
-0.240422 0.0080752904 -0.00293417 9.4017864e-39
-0.239963 0.0093195196 -0.0020671999 1.4102651e-38
-0.23968101 0.0106152 -0.0015818001 1.7420613e-38
-0.239226 0.0118503 -0.00072131498 1.9541463e-38
-0.23894601 0.0131398 -0.00023925101 2.1472539e-38
-0.238839 0.0144884 -0.00013241101 2.1101967e-38
-0.23873299 0.0158378 -2.55042e-05 1.8708841e-38
-0.238454 0.0171236 0.00045529299 1.6038414e-38
-0.23852 0.0185396 0.000188536 1.355166e-38
-0.23841301 0.0198918 0.00029565801 1.0879795e-38
-0.238479 0.0213149 2.84781e-05 8.8500532e-39
-0.238372 0.022670699 0.00013589099 7.3713162e-39
-0.23826499 0.0240274 0.00024336499 5.158984e-39
-0.238158 0.025385 0.000350927 3.9626002e-39
-0.23787899 0.026667001 0.00083240197 3.6860147e-39
-0.2376 0.027946699 0.00131271 3.5945394e-39
-0.23749299 0.0293038 0.00142022 3.7789278e-39
-0.237386 0.030661801 0.00152781 4.1469929e-39
-0.23745 0.0321039 0.00126312 4.4225008e-39
-0.237514 0.033550501 0.00099781295 4.6987275e-39
-0.237407 0.034914698 0.00110588 4.2402717e-39
-0.237299 0.036279801 0.00121402 4.3321044e-39
-0.23719101 0.037645899 0.00132225 4.0569538e-39
-0.237599 0.03929 0.00030711101 3.9644037e-39
-0.23818401 0.0410426 -0.00109468 4.0558804e-39
-0.239127 0.043010499 -0.00327894 4.1466383e-39
-0.23919401 0.044503398 -0.00355418 4.0544441e-39
-0.23908401 0.0458984 -0.00344366 3.9640477e-39
-0.238974 0.047294501 -0.0033330501 4.5172243e-39
-0.23868699 0.048585799 -0.00283725 6.7291908e-39
-0.253342 -0.0041945102 -0.032679401 1.282022e-38
-0.254924 -0.0023731999 -0.0362496 1.0876555e-38
-0.240053 0.0027501199 -0.0047186599 7.4624342e-39
-0.23994599 0.0041032298 -0.0046118 8.0123766e-39
-0.239839 0.0054572402 -0.0045048599 7.0057735e-39
-0.239732 0.0068121701 -0.0043978598 7.2820058e-39
-0.239274 0.0080603398 -0.00352655 1.032265e-38
-0.23899201 0.00935838 -0.00303913 1.3363303e-38
-0.238538 0.0105974 -0.0021743199 1.5575273e-38
-0.238086 0.0118311 -0.00131374 1.7601413e-38
-0.23797899 0.0131788 -0.0012073 1.962971e-38
-0.237701 0.0144661 -0.000725505 2.1929568e-38
-0.23759399 0.015814099 -0.000619061 2.1285998e-38
-0.237487 0.0171629 -0.00051254098 1.8342215e-38
-0.23738 0.018512599 -0.000405939 1.5670354e-38
-0.237103 0.019795399 7.4579199e-05 1.3090684e-38
-0.236996 0.0211454 0.000181186 1.1612672e-38
-0.236889 0.022496199 0.00028787099 1.0778223e-38
-0.236782 0.023848001 0.000394631 7.1923129e-39
-0.236505 0.025126301 0.00087384903 4.1448447e-39
-0.236398 0.026478199 0.00098063005 3.8704102e-39
-0.23629101 0.0278311 0.00108748 3.8711276e-39
-0.236184 0.029185001 0.00119439 3.9629645e-39
-0.236246 0.030620901 0.00092951098 4.1459139e-39
-0.23630901 0.032061301 0.00066406198 4.2391913e-39
-0.236371 0.0335062 0.00039804899 4.4228651e-39
-0.23626301 0.034868799 0.00050567102 4.6094101e-39
-0.236155 0.0362323 0.00061335502 4.4250133e-39
-0.23621701 0.0376871 0.000347136 4.517569e-39
-0.236279 0.0391463 8.0329301e-05 4.7923623e-39
-0.236513 0.040704601 -0.00056354998 4.7001708e-39
-0.237092 0.0424654 -0.0019699601 4.6994548e-39
-0.23785099 0.044344898 -0.00377533 4.6998121e-39
-0.23791599 0.045838598 -0.00405108 4.9778311e-39
-0.23780499 0.047233101 -0.0039409702 5.3469724e-39
-0.23751999 0.048522901 -0.0034453699 5.8979882e-39
-0.236716 0.049490899 -0.00180392 6.8188837e-39
-0.243468 0.0706577 -0.018264299 7.7415532e-39
-0.25166199 -0.0042788601 -0.032371201 1.3187561e-38
-0.238838 0.00134542 -0.0050312201 8.0159751e-39
-0.238731 0.0026943199 -0.0049250298 6.2685742e-39
-0.23879901 0.0040929001 -0.0052020201 8.0105787e-39
-0.238691 0.0054453202 -0.0050955499 6.8177837e-39
-0.238584 0.0067986799 -0.004989 7.4635188e-39
-0.23830201 0.0080991304 -0.0044995202 9.5879686e-39
-0.238022 0.0093972497 -0.0040111998 1.1245692e-38
-0.237569 0.0106362 -0.0031443001 1.2996324e-38
-0.237119 0.01187 -0.0022816099 1.492991e-38
-0.237012 0.0132179 -0.0021754999 1.7232992e-38
-0.236735 0.0145052 -0.00169283 1.9810865e-38
-0.236628 0.015853301 -0.0015867 2.1744453e-38
-0.236351 0.0171376 -0.0011052 2.0827173e-38
-0.236074 0.0184197 -0.00062479998 1.7055075e-38
-0.235967 0.0197671 -0.00051871903 1.3829681e-38
-0.23586001 0.0211155 -0.000412553 1.1707381e-38
-0.235753 0.022464801 -0.00030632701 9.3124537e-39
-0.23564599 0.023815 -0.00020002401 5.9966774e-39
-0.235035 0.024943801 0.00102155 4.8838573e-39
-0.234928 0.026290899 0.00112761 4.1466509e-39
-0.234989 0.027716201 0.000863177 4.1462712e-39
-0.23504899 0.0291459 0.00059816102 4.3303051e-39
-0.235109 0.0305801 0.00033257401 4.3306639e-39
-0.235002 0.0319359 0.00043931499 4.3303135e-39
-0.23523 0.033461899 -0.000200389 4.607255e-39
-0.235122 0.034823 -9.3242197e-05 4.5172089e-39
-0.23501401 0.0361849 1.39784e-05 4.8863404e-39
-0.235074 0.037637901 -0.00025295001 4.884911e-39
-0.235135 0.039095402 -0.000520495 4.7920049e-39
-0.235364 0.040651701 -0.00116541 4.7934427e-39
-0.23576599 0.0423133 -0.0021929799 4.7008911e-39
-0.23616999 0.043988399 -0.0032282199 4.7016086e-39
-0.23675001 0.045779001 -0.0046571498 4.8867159e-39
-0.23663899 0.047171701 -0.00454748 5.2533376e-39
-0.236011 0.048250198 -0.0032836699 5.4362869e-39
-0.23573001 0.049533401 -0.0027916599 5.7114417e-39
-0.235791 0.051030099 -0.0030648101 6.907471e-39
-0.24253701 0.069223903 -0.0194303 6.083471e-39
-0.24223 0.070563696 -0.0188879 6.4518906e-39
-0.241923 0.071901001 -0.018346701 7.0983404e-39
-0.250404 -0.0042796698 -0.032970801 1.3279396e-38
-0.238497 0.000167096 -0.0072660302 9.4947009e-39
-0.237868 0.00138366 -0.00600272 6.8163543e-39
-0.23776101 0.0027326599 -0.00589685 5.2522656e-39
-0.237654 0.0040826099 -0.0057909 6.0748362e-39
-0.237719 0.00548395 -0.0060692201 5.1568358e-39
-0.23743799 0.00678524 -0.0055787801 8.0166828e-39
-0.237159 0.0080841798 -0.0050895102 9.0347962e-39
-0.237051 0.0094361203 -0.0049834098 9.9556763e-39
-0.23643 0.0106184 -0.0037344301 1.1152779e-38
-0.23615301 0.0119089 -0.0032496499 1.271938e-38
-0.23587599 0.0131971 -0.0027660299 1.4929907e-38
-0.23576801 0.0145443 -0.0026602999 1.7509216e-38
-0.235661 0.015892399 -0.00255449 1.9993818e-38
-0.235385 0.0171769 -0.0020721001 2.0545181e-38
-0.23511 0.018459 -0.0015908401 1.6491475e-38
-0.234835 0.0197389 -0.0011107 1.1058082e-38
-0.234228 0.020878799 0.000112229 1.0510282e-38
-0.23412099 0.0222215 0.00021760201 1.1337163e-38
-0.23384801 0.023493201 0.00069335499 9.4925401e-39
-0.233576 0.0247628 0.00116804 9.5847302e-39
-0.23346899 0.026105 0.00127338 7.6543911e-39
-0.233527 0.027524799 0.00100978 5.3387061e-39
-0.233585 0.028949101 0.00074561301 3.9636792e-39
-0.23347799 0.030297499 0.00085142301 4.056242e-39
-0.23337001 0.031646699 0.00095731003 4.2388382e-39
-0.233428 0.0330806 0.00069294602 4.8827558e-39
-0.23332 0.034433398 0.00079911703 4.7005226e-39
-0.23337799 0.0358744 0.000534394 5.0675058e-39
-0.233934 0.037588902 -0.00085170497 4.7927196e-39
-0.23416001 0.0391367 -0.00149623 4.8845593e-39
-0.234387 0.040693201 -0.0021439199 5.2515412e-39
-0.234446 0.042162001 -0.002415 5.06751e-39
-0.234844 0.0438325 -0.0034488 4.5168572e-39
-0.235759 0.045821302 -0.00564902 4.5175789e-39
-0.23582 0.047318101 -0.0059277499 5.0682303e-39
-0.23553699 0.048608098 -0.0054302998 5.0675044e-39
-0.23542599 0.050002899 -0.00532084 4.6990862e-39
-0.235659 0.051617298 -0.0059875501 5.2511824e-39
-0.24141701 0.067654297 -0.0201681 7.285254e-39
-0.24111199 0.068993598 -0.0196258 6.2682196e-39
-0.24099401 0.070469998 -0.0195099 6.0838256e-39
-0.24013001 0.071382999 -0.017700899 5.992353e-39
-0.23982701 0.072711498 -0.0171651 6.7292006e-39
-0.24754401 -0.00460883 -0.0299761 1.3187562e-38
-0.23974501 -0.00063093199 -0.0130819 1.1064539e-38
-0.237524 0.00020537199 -0.0082410099 8.0181331e-39
-0.23689801 0.0014219 -0.0069743502 5.8029227e-39
-0.236791 0.0027710299 -0.0068687899 4.3299562e-39
-0.236683 0.00412106 -0.00676317 4.7880547e-39
-0.23657501 0.00547203 -0.0066574798 3.6845938e-39
-0.236296 0.0067718099 -0.00616726 7.6479031e-39
-0.23618799 0.0081229499 -0.0060615502 8.7567674e-39
-0.23591 0.0094196303 -0.00557253 9.2184728e-39
-0.235462 0.0106573 -0.00470347 9.8631233e-39
-0.235186 0.0119478 -0.00421781 1.0969109e-38
-0.23491 0.0132361 -0.0037333199 1.2627545e-38
-0.23480199 0.0145834 -0.00362791 1.50221e-38
-0.234695 0.015931601 -0.0035224201 1.6311036e-38
-0.234419 0.017216099 -0.00303916 1.5845021e-38
-0.233978 0.018432301 -0.00218132 1.2063581e-38
-0.233374 0.019576199 -0.00095482898 8.6606327e-39
-0.23310199 0.020849399 -0.00047809401 1.004895e-38
-0.232831 0.0221205 -2.44083e-06 1.2166211e-38
-0.23255999 0.0233893 0.00047210499 1.253176e-38
-0.23229 0.024656 0.00094553898 1.3274341e-38
-0.232021 0.0259204 0.00141793 9.9625146e-39
-0.231914 0.0272587 0.00152263 5.9830077e-39
-0.231969 0.0286758 0.00126004 4.1477117e-39
-0.23186199 0.030017599 0.0013650201 4.2402731e-39
-0.23191699 0.0314417 0.00110209 4.3317499e-39
-0.23181 0.032786999 0.0012073501 5.0671443e-39
-0.231702 0.0341332 0.0013126601 5.1589826e-39
-0.231757 0.035566799 0.00104955 5.3426564e-39
-0.23213901 0.037182398 4.45431e-05 5.0685862e-39
-0.23301899 0.039085899 -0.0020946399 4.9760347e-39
-0.23324201 0.040640399 -0.0027433401 5.0682317e-39
-0.2333 0.0421075 -0.0030151799 4.8842006e-39
-0.234198 0.044072501 -0.0052014701 4.608334e-39
-0.23493899 0.045965899 -0.0070304899 4.8841992e-39
-0.234828 0.0473607 -0.00692137 5.1593469e-39
-0.234888 0.048862401 -0.00720233 4.6072521e-39
-0.23477601 0.050260901 -0.0070929201 3.9629645e-39
-0.235008 0.051880199 -0.0077661299 4.4243014e-39
-0.23506799 0.053396299 -0.0080490103 5.0696708e-39
-0.24048799 0.066224001 -0.021331299 7.466753e-39
-0.239811 0.067292899 -0.019935399 6.823557e-39
-0.239694 0.0687645 -0.019820301 6.0841857e-39
-0.239206 0.069959402 -0.018857701 5.7150444e-39
-0.238905 0.071288899 -0.018320899 5.6235719e-39
-0.23823901 0.0723335 -0.0169475 5.7157661e-39
-0.23721699 0.073088303 -0.0147583 6.3607754e-39
-0.245138 -0.0048505501 -0.027925501 1.2819143e-38
-0.245023 -0.00342284 -0.0278141 1.0229039e-38
-0.242513 -0.0011032 -0.0224298 1.1248922e-38
-0.238757 -0.00059219799 -0.0140716 9.2191916e-39
-0.23689499 0.00033207799 -0.0099975402 6.2635407e-39
-0.236099 0.00150566 -0.0083333096 4.7930924e-39
-0.23582 0.0028093699 -0.0078408904 3.9633401e-39
-0.23571201 0.0041595399 -0.00773559 4.6083396e-39
-0.235604 0.0055106301 -0.0076302201 3.4098034e-39
-0.23532499 0.00681047 -0.0071391002 6.1720639e-39
-0.235048 0.0081080003 -0.00664915 8.1092399e-39
-0.234771 0.0094032101 -0.0061603398 8.7571317e-39
-0.234495 0.0106961 -0.00567267 8.9426062e-39
-0.234387 0.0120451 -0.0055674599 9.6794551e-39
-0.234111 0.0133349 -0.00508097 1.0877633e-38
-0.233836 0.0146225 -0.0045956601 1.2259118e-38
-0.23372801 0.015970901 -0.0044905101 1.2165842e-38
-0.23345301 0.017255399 -0.00400637 1.0502373e-38
-0.23318 0.0185377 -0.00352335 8.1042163e-39
-0.23225001 0.019548399 -0.00154364 7.281294e-39
-0.231979 0.0208202 -0.0010670701 1.0786154e-38
-0.231709 0.0220898 -0.00059160998 1.5483078e-38
-0.231279 0.023285899 0.00025178399 1.4560786e-38
-0.23101 0.0245497 0.00072402699 1.3456595e-38
-0.23074301 0.0258113 0.00119519 1.0325538e-38
-0.230636 0.027146401 0.00129932 6.5397717e-39
-0.230529 0.0284825 0.00140352 4.4239413e-39
-0.23042201 0.0298195 0.0015077899 4.4232252e-39
-0.230315 0.0311574 0.00161213 4.3317499e-39
-0.230207 0.032496199 0.00171654 4.7930755e-39
-0.23026 0.033920102 0.00145482 4.8842006e-39
-0.230152 0.035262398 0.0015595 5.1604259e-39
-0.23036499 0.036781002 0.00092964002 5.1607819e-39
-0.231553 0.038851999 -0.00193904 4.9756745e-39
-0.23243099 0.040776201 -0.00410137 4.700531e-39
-0.23248699 0.042245299 -0.00437557 4.6086955e-39
-0.23321301 0.0441145 -0.00618832 4.701247e-39
-0.23394699 0.0460083 -0.0080239195 4.8849166e-39
-0.234005 0.047507498 -0.0083066896 4.9749557e-39
-0.234235 0.049118001 -0.0089834798 4.1466383e-39
-0.23412199 0.0505201 -0.0088741304 3.8700514e-39
-0.234181 0.0520337 -0.0091588302 5.0671527e-39
-0.23406801 0.053439599 -0.0090491902 5.7153976e-39
-0.238886 0.065868102 -0.021093801 6.1738604e-39
-0.237671 0.066532999 -0.018440399 5.9901936e-39
-0.237554 0.067993097 -0.0183265 5.715043e-39
-0.237075 0.069180802 -0.017375801 5.5317322e-39
-0.236959 0.070639104 -0.017262001 5.6235719e-39
-0.236304 0.071679503 -0.015902201 5.8068813e-39
-0.23583201 0.072852902 -0.0149637 5.7146857e-39
-0.234835 0.073598601 -0.0128073 6.1763869e-39
-0.243725 -0.0048903502 -0.028080801 1.1989753e-38
-0.24304 -0.00359073 -0.0266663 9.4010816e-39
-0.24236 -0.00230039 -0.0252629 9.9502799e-39
-0.240211 -0.00137044 -0.020499401 9.770569e-39
-0.23794501 -0.00050962297 -0.0154652 6.9110765e-39
-0.23643599 0.000504083 -0.0121585 4.972083e-39
-0.235468 0.00163544 -0.0100862 3.8725738e-39
-0.235019 0.0028949999 -0.0092014195 4.1477243e-39
-0.234741 0.0041980101 -0.0087081697 4.5172285e-39
-0.234632 0.0055492101 -0.0086031202 3.5005571e-39
-0.234355 0.0068491301 -0.0081111202 3.9600933e-39
-0.23390999 0.0080930898 -0.0072354302 6.5397618e-39
-0.23380201 0.0094419904 -0.00713056 8.202516e-39
-0.233527 0.010735 -0.0066419998 8.6652962e-39
-0.233418 0.012084 -0.0065371199 9.0340843e-39
-0.233143 0.013374 -0.0060497602 9.6798111e-39
-0.233035 0.0147232 -0.0059448699 1.0508483e-38
-0.232761 0.0160101 -0.0054587298 9.4932548e-39
-0.23265301 0.017359501 -0.0053538298 8.0177702e-39
-0.232214 0.018577 -0.00448982 7.3742028e-39
-0.23112801 0.019520599 -0.0021311501 7.6529547e-39
-0.230859 0.020791 -0.00165478 1.2075807e-38
-0.23043001 0.0219895 -0.00080915698 1.7881224e-38
-0.23016299 0.023254 -0.000336003 1.760323e-38
-0.22989599 0.0245164 0.000136066 1.4192009e-38
-0.229471 0.0257027 0.00097340002 1.0044996e-38
-0.22936399 0.0270347 0.00107695 7.1872963e-39
-0.22909901 0.0282906 0.00154579 5.4388163e-39
-0.228835 0.0295444 0.0020135201 4.6998233e-39
-0.228728 0.030875901 0.0021170401 4.2399144e-39
-0.22862101 0.032208301 0.0022206299 4.3342596e-39
-0.228513 0.033541601 0.0023242901 4.70161e-39
-0.228563 0.0349609 0.0020643501 4.9774766e-39
-0.22845601 0.036297701 0.0021682801 5.3448144e-39
-0.230745 0.0389846 -0.00328748 5.0685876e-39
-0.231289 0.040723301 -0.00469865 4.7927266e-39
-0.231508 0.042287 -0.0053560799 4.7008897e-39
-0.232897 0.044556201 -0.0087337997 4.7934399e-39
-0.233123 0.0461533 -0.0094104595 4.8849166e-39
-0.23334999 0.047759499 -0.0100905 4.6065361e-39
-0.233408 0.049267702 -0.0103772 3.8696927e-39
-0.233465 0.050780699 -0.0106646 4.3299478e-39
-0.23335201 0.052187599 -0.0105552 6.3546489e-39
-0.23341 0.053708199 -0.010843 6.4526011e-39
-0.234328 0.055812702 -0.0131376 5.9927103e-39
-0.236753 0.065119296 -0.0195894 5.9912656e-39
-0.235919 0.066048101 -0.017800201 5.6232132e-39
-0.23580299 0.0675008 -0.0176873 5.6232104e-39
-0.23550799 0.0688188 -0.0171584 5.6232075e-39
-0.235038 0.069997802 -0.0162172 5.715043e-39
-0.234395 0.071033999 -0.0148705 5.8065184e-39
-0.23393001 0.072201602 -0.0139411 5.7150416e-39
-0.23329499 0.073224701 -0.0126118 5.6235691e-39
-0.232665 0.074240901 -0.0112926 6.0845514e-39
-0.241944 -0.0050089001 -0.0273668 1.1251114e-38
-0.241455 -0.00367455 -0.026393101 8.9390202e-39
-0.24059901 -0.00243134 -0.024569901 9.3049049e-39
-0.239206 -0.00133113 -0.021505799 8.2932795e-39
-0.237307 -0.000382742 -0.017269401 5.3437522e-39
-0.235974 0.00067739998 -0.0143361 3.7782216e-39
-0.234833 0.00176586 -0.011848 3.8711347e-39
-0.234385 0.00302838 -0.0109569 4.6061746e-39
-0.23393799 0.0042855102 -0.0100702 4.3295919e-39
-0.233661 0.0055878102 -0.0095761605 3.4080041e-39
-0.233384 0.0068877898 -0.0090832599 2.9488168e-39
-0.232942 0.0081317797 -0.0082054697 4.2352354e-39
-0.232667 0.00942556 -0.0077159801 7.0925713e-39
-0.232559 0.0107738 -0.0076114801 8.3865485e-39
-0.23244999 0.012123 -0.00750692 8.9408041e-39
-0.23217601 0.013413 -0.00701869 9.1251981e-39
-0.232067 0.0147623 -0.0069141099 9.7687627e-39
-0.231794 0.016049299 -0.0064270901 9.0344262e-39
-0.231521 0.017333999 -0.0059412001 8.9447459e-39
-0.230924 0.018484199 -0.0046987799 9.1298645e-39
-0.23017 0.019559801 -0.00309094 9.4039444e-39
-0.22974101 0.0207619 -0.00224118 1.1799222e-38
-0.22947399 0.0220287 -0.00176607 1.6316425e-38
-0.229049 0.023222299 -0.000922493 2.0182172e-38
-0.228626 0.0244109 -8.2973398e-05 1.7788334e-38
-0.228205 0.0255946 0.00075252401 1.1707762e-38
-0.227942 0.026848501 0.00122023 9.1237716e-39
-0.227369 0.0279477 0.00241162 8.0217359e-39
-0.227108 0.0291944 0.0028752 6.6352253e-39
-0.227001 0.0305179 0.0029777701 4.8859998e-39
-0.226895 0.031842399 0.00308041 4.4253818e-39
-0.226788 0.033167802 0.0031831299 4.9771165e-39
-0.22652701 0.034410398 0.0036454999 5.1607889e-39
-0.22672801 0.0359069 0.00302843 5.5284854e-39
-0.22833499 0.0382098 -0.00088902999 5.3448158e-39
-0.229825 0.040482901 -0.00453358 5.5288511e-39
-0.230528 0.0423287 -0.0063367202 5.252623e-39
-0.23207401 0.044698998 -0.0101193 5.1597029e-39
-0.232298 0.046298701 -0.0108007 5.1589826e-39
-0.232522 0.047907401 -0.0114854 4.3303107e-39
-0.232748 0.049525399 -0.0121736 3.4101593e-39
-0.23263501 0.0509331 -0.0120645 4.607971e-39
-0.232521 0.0523418 -0.0119553 6.9110541e-39
-0.232747 0.053978201 -0.0126462 5.9912642e-39
-0.233317 0.0558565 -0.0141487 5.8079589e-39
-0.23489 0.066093497 -0.018830599 5.8068841e-39
-0.23442 0.067279197 -0.017884299 5.8065184e-39
-0.234128 0.068594202 -0.0173568 5.7143242e-39
-0.23401099 0.070043303 -0.017244499 5.6228502e-39
-0.233025 0.070805401 -0.0150743 5.6235663e-39
-0.231713 0.071285903 -0.0121269 5.6235663e-39
-0.23126 0.072440498 -0.0112155 5.5306602e-39
-0.230809 0.073590197 -0.0103086 5.4381086e-39
-0.230694 0.075014599 -0.0101982 6.0845514e-39
-0.24055099 -0.00504795 -0.027522599 1.0970927e-38
-0.24006701 -0.00371686 -0.0265515 8.8435806e-39
-0.239585 -0.00239179 -0.025585299 8.5658965e-39
-0.238381 -0.00124823 -0.0229325 7.0940146e-39
-0.23666599 -0.00025521099 -0.019083099 4.699459e-39
-0.235681 0.00089761801 -0.016935499 3.5019948e-39
-0.234708 0.0020367301 -0.0148151 3.7778572e-39
