# .PCD v0.7 - Point Cloud Data file format
VERSION 0.7
FIELDS x y z rgb
SIZE 4 4 4 4
TYPE F F F F
COUNT 1 1 1 1
WIDTH 1009
HEIGHT 1
VIEWPOINT 0 0 0 1 0 0 0
POINTS 1009
DATA ascii
-0.29109699 0.059746701 0.028004199 5.9894663e-39
-0.29150799 0.061472502 0.027407801 5.9901866e-39
-0.29140699 0.0629467 0.027540499 6.9128646e-39
-0.291051 0.064289503 0.0280378 7.0065063e-39
-0.29044199 0.065496199 0.0288962 5.6185314e-39
-0.290088 0.066832297 0.029389899 4.0530064e-39
-0.28873199 0.0676222 0.031313099 3.6870993e-39
-0.28617001 0.067730501 0.034954801 3.7778572e-39
-0.283438 0.067705102 0.038839899 3.8686137e-39
-0.28263599 0.068730399 0.039973401 3.9611639e-39
-0.28207299 0.069882303 0.040766802 4.0526392e-39
-0.28105 0.0707606 0.0422148 4.7869659e-39
-0.28026599 0.071765602 0.043322898 6.2577729e-39
-0.278586 0.072224498 0.045708898 8.2813909e-39
-0.27759901 0.073078699 0.047107201 1.0305373e-38
-0.27706099 0.074195899 0.047863599 1.251482e-38
-0.27674699 0.075445399 0.048302799 1.426617e-38
-0.28121501 0.093165196 0.041827101 7.7300178e-39
-0.28111699 0.094603702 0.0419566 6.6294337e-39
-0.281019 0.096043199 0.042086199 6.261733e-39
-0.28045699 0.097145602 0.042876899 6.2631693e-39
-0.279899 0.0982434 0.043663699 6.0795026e-39
-0.300078 0.13517401 0.0147144 1.0682451e-38
-0.29939699 0.136307 0.0156745 8.0091298e-39
-0.29872099 0.137435 0.016629299 7.0886084e-39
-0.29804701 0.138558 0.017578701 6.902778e-39
-0.29709899 0.13943 0.0189208 6.6254737e-39
-0.296159 0.140295 0.020251701 6.4407223e-39
-0.29605001 0.14189599 0.0203958 6.3499686e-39
-0.27067599 0.127993 0.056574199 7.3666288e-39
-0.26851001 0.12740999 0.059658501 7.6424969e-39
-0.267804 0.128206 0.060656499 8.1013184e-39
-0.26750699 0.129393 0.061070699 8.7456144e-39
-0.26701 0.13037901 0.061771799 1.0126385e-38
-0.26691499 0.131761 0.061896201 1.1781945e-38
-0.266821 0.13314401 0.0620207 1.30698e-38
-0.26632601 0.134121 0.062718101 1.4266178e-38
-0.26543599 0.134689 0.063979402 1.5371084e-38
-0.264359 0.135052 0.065508403 1.6384517e-38
-0.26368201 0.135813 0.066466302 1.7491581e-38
-0.26320201 0.13677201 0.067142099 1.8413894e-38
-0.29893899 0.0087207695 0.0146479 1.4563651e-38
-0.29856601 0.010132 0.0151712 1.5210101e-38
-0.297923 0.0114772 0.016081899 1.5487767e-38
-0.297553 0.012881 0.016601199 1.5488846e-38
-0.29745299 0.0143488 0.016733 1.4200265e-38
-0.29735199 0.015817599 0.0168649 9.9596462e-39
-0.297252 0.0172874 0.016996801 8.1103484e-39
-0.29688299 0.0186853 0.017514599 9.31176e-39
-0.29678199 0.020155201 0.0176466 1.1893948e-38
-0.29641399 0.021549299 0.018162999 1.3831138e-38
-0.29578099 0.0228625 0.019060099 1.3925849e-38
-0.295416 0.024249399 0.019572601 1.4660892e-38
-0.29501399 0.030118801 0.020099601 1.2819137e-38
-0.29491401 0.0315887 0.020231601 7.1858571e-39
-0.29481301 0.033059601 0.020363601 3.3201203e-39
-0.294449 0.034437802 0.0208744 3.3190371e-39
-0.29408601 0.035813399 0.0213838 3.3190385e-39
-0.29346299 0.0370894 0.0222672 3.1360891e-39
-0.29284301 0.0383595 0.0231458 3.5037913e-39
-0.291969 0.039524399 0.024389699 3.963689e-39
-0.29084799 0.040580701 0.025989501 4.6068962e-39
-0.289738 0.0416269 0.027572401 4.8852782e-39
-0.28814501 0.042459801 0.0298515 5.5288581e-39
-0.28780001 0.043791998 0.0303351 5.5270547e-39
-0.28770199 0.045226499 0.0304639 5.9894663e-39
-0.287604 0.046661999 0.030592799 6.0838242e-39
-0.287752 0.048207201 0.030367499 5.9927131e-39
-0.2879 0.049757399 0.030141801 6.6366322e-39
-0.28780201 0.0511996 0.0302712 6.9121457e-39
-0.28770301 0.0526428 0.0304008 6.8203102e-39
-0.28785101 0.054203901 0.030175099 6.8199487e-39
-0.288497 0.056009199 0.029233599 6.5437233e-39
-0.289148 0.057829902 0.028284701 6.0834612e-39
-0.28980401 0.059666101 0.027328299 5.9887433e-39
-0.28970399 0.0611335 0.0274601 5.6203181e-39
-0.28960299 0.062601998 0.027591901 5.4373716e-39
-0.28950301 0.064071499 0.027723899 5.5302917e-39
-0.28915 0.065408602 0.0282187 4.4217889e-39
-0.288048 0.066340499 0.0297914 3.4094348e-39
-0.28622201 0.066862598 0.032406501 3.4105138e-39
-0.28490999 0.067642197 0.034282401 3.8696927e-39
-0.28243399 0.067749798 0.037834302 3.8696899e-39
-0.28163499 0.068774998 0.038971301 3.8693256e-39
-0.28107399 0.069927 0.039767001 4.0529924e-39
-0.280056 0.070805103 0.0412197 4.0529952e-39
-0.27859601 0.071406998 0.043308601 4.2359501e-39
-0.27715799 0.072000898 0.045366298 5.4294528e-39
-0.27618 0.072854102 0.046762601 6.9931758e-39
-0.275866 0.074104503 0.047202699 8.8331255e-39
-0.27533501 0.0752161 0.0479558 1.0582317e-38
-0.27524 0.076598696 0.0480799 1.1780855e-38
-0.27558199 0.078262702 0.047575999 1.3070865e-38
-0.27614501 0.080078997 0.046753101 1.3899903e-38
-0.276712 0.081909999 0.045924 1.362368e-38
-0.27750701 0.0839049 0.044766899 1.2426229e-38
-0.278763 0.086227201 0.042945702 1.0585556e-38
-0.27980801 0.088428497 0.0414281 8.7427404e-39
-0.27994099 0.090017997 0.041225199 7.5452706e-39
-0.28007299 0.091612399 0.041021802 6.6294281e-39
-0.279975 0.0930482 0.0411507 6.446476e-39
-0.27987701 0.094485 0.0412797 6.6301484e-39
-0.27931899 0.095589101 0.0420711 6.6297925e-39
-0.27853599 0.096521497 0.043186501 6.5386758e-39
-0.27775899 0.097447701 0.044293601 6.2628106e-39
-0.27676401 0.098200202 0.0457143 5.9862307e-39
-0.29894701 0.13522799 0.0135836 9.8548501e-39
-0.29826999 0.136362 0.0145466 7.6410661e-39
-0.29759601 0.13749 0.0155041 6.9960526e-39
-0.29692501 0.138612 0.016456399 6.9935345e-39
-0.29625899 0.13973001 0.0174034 6.7162302e-39
-0.295046 0.14035 0.0191381 6.4403621e-39
-0.294936 0.14195 0.0192817 5.888996e-39
-0.269077 0.127445 0.056497801 7.1822404e-39
-0.26734301 0.127261 0.058987599 7.3666288e-39
-0.266642 0.128058 0.059986599 7.6414179e-39
-0.26634601 0.129243 0.060400601 8.3779053e-39
-0.26605201 0.130427 0.0608138 9.4806613e-39
-0.265957 0.131809 0.0609379 1.0769592e-38
-0.26586199 0.133192 0.061062101 1.1965253e-38
-0.26556799 0.134372 0.061474301 1.3161634e-38
-0.26468101 0.13494 0.062742598 1.4359093e-38
-0.263607 0.13530099 0.064280502 1.5649109e-38
-0.26293099 0.13606299 0.065243602 1.7123157e-38
-0.26225999 0.13682 0.066199899 1.8229503e-38
-0.29798499 0.0072908299 0.0134599 1.300174e-38
-0.29761299 0.0087031601 0.0139844 1.373245e-38
-0.29724199 0.0101127 0.0145075 1.4285986e-38
-0.29687199 0.0115193 0.0150293 1.47484e-38
-0.29650301 0.0129231 0.0155497 1.5210097e-38
-0.29613501 0.0143241 0.0160689 1.4935668e-38
-0.29603401 0.0157911 0.0162002 1.1804989e-38
-0.29593301 0.017259 0.0163316 7.9302773e-39
-0.29583299 0.0187279 0.0164632 7.7415616e-39
-0.29546499 0.0201231 0.0169807 1.060141e-38
-0.294835 0.021439301 0.0178806 1.1523003e-38
-0.29447001 0.022827201 0.018394301 1.2536064e-38
-0.29410699 0.024212399 0.018906699 1.3643853e-38
-0.294007 0.025676399 0.0190378 1.3741828e-38
-0.29396701 0.0301622 0.019051099 1.447829e-38
-0.29386601 0.0316322 0.019182701 7.8344775e-39
-0.29376501 0.033103202 0.019314401 3.5959841e-39
-0.29366401 0.034575202 0.0194462 3.4112341e-39
-0.29278001 0.0357619 0.020714501 3.2268442e-39
-0.29190299 0.036940102 0.0219726 3.4108754e-39
-0.29103199 0.038109802 0.023220699 3.6874553e-39
-0.29042199 0.0393699 0.0240908 3.7796523e-39
-0.28906101 0.0403248 0.026051801 4.3313869e-39
-0.28722399 0.041068502 0.028702701 4.6998093e-39
-0.28663501 0.042300701 0.0295428 5.1607931e-39
-0.28653699 0.043732502 0.029671 5.2515454e-39
-0.286439 0.0451652 0.029799201 5.8965504e-39
-0.28634 0.0465989 0.0299276 5.9909083e-39
-0.28624201 0.048033599 0.0300561 5.7161291e-39
-0.28638801 0.049579699 0.029830201 6.3600537e-39
-0.28628901 0.051018301 0.029959001 6.8206675e-39
-0.28619 0.052457798 0.030087899 6.8203088e-39
-0.286336 0.054014701 0.029862 6.8199473e-39
-0.28672701 0.0556955 0.0292789 6.7273915e-39
-0.287368 0.057507802 0.028333601 6.1752995e-39
-0.287765 0.059211001 0.0277429 5.7139584e-39
-0.28766501 0.060670801 0.0278736 5.2529747e-39
-0.28781301 0.062260099 0.0276428 4.8845537e-39
-0.28771299 0.063723803 0.027773799 4.2388326e-39
-0.28761199 0.065188497 0.027905 3.3168791e-39
-0.28701499 0.066386104 0.028757401 2.8580589e-39
-0.28423101 0.066377901 0.032786101 3.5016333e-39
-0.282702 0.067024797 0.0349936 4.5132643e-39
-0.280963 0.067531496 0.037505001 4.3299492e-39
-0.280402 0.068687201 0.038304999 3.7774943e-39
-0.27961501 0.069704898 0.039434299 3.8686081e-39
-0.27883399 0.070715703 0.040555 4.0537154e-39
-0.277385 0.071317598 0.042645901 3.7778502e-39
-0.275958 0.071911499 0.0447057 3.867892e-39
-0.274986 0.0727643 0.046103101 4.6022201e-39
-0.27402401 0.073609501 0.047486901 5.3369055e-39
-0.27371401 0.074852303 0.047923099 6.4414453e-39
-0.27362001 0.0762299 0.048046499 7.0882511e-39
-0.27417201 0.0780266 0.047230002 7.9165656e-39
-0.27451101 0.079695202 0.046723701 8.3764648e-39
-0.275069 0.081518002 0.045897398 8.2821083e-39
-0.27585301 0.083503596 0.0447441 7.6335173e-39
-0.277316 0.085966699 0.042603001 6.8073524e-39
-0.27812099 0.088004597 0.0414171 6.3499714e-39
-0.27870601 0.089905001 0.0405518 6.2610071e-39
-0.27860799 0.091336302 0.040679999 6.354279e-39
-0.27851 0.092768498 0.040808201 6.4486284e-39
-0.27795601 0.0938733 0.041598301 6.4489913e-39
-0.27717999 0.094809003 0.042712301 6.6312302e-39
-0.27663401 0.095903598 0.043492801 6.6319477e-39
-0.275424 0.096496798 0.045237001 6.6308659e-39
-0.27444801 0.097248502 0.046642099 6.1695332e-39
-0.27413401 0.098491304 0.047085699 5.5270476e-39
-0.29809999 0.135526 0.0120405 9.210917e-39
-0.297142 0.136416 0.0134185 7.4570322e-39
-0.29675001 0.137789 0.0139717 6.9956925e-39
-0.29580301 0.138667 0.0153339 6.9020578e-39
-0.29513901 0.13978501 0.0162837 6.7165889e-39
-0.29447901 0.14089701 0.017228199 6.4400048e-39
-0.29436901 0.14250199 0.0173719 5.9801113e-39
-0.26749 0.1269 0.056421801 6.9056591e-39
-0.26638001 0.12730899 0.058024701 6.9989337e-39
-0.26568201 0.128105 0.0590268 7.2730067e-39
-0.265387 0.129291 0.059441701 7.7336191e-39
-0.26529199 0.130674 0.059565499 8.6537803e-39
-0.26499799 0.13185699 0.059979498 9.6661288e-39
-0.26490399 0.13324 0.060103301 1.0861429e-38
-0.26480901 0.134624 0.060227301 1.2149284e-38
-0.26392299 0.13519099 0.061502799 1.3622248e-38
-0.26285201 0.135552 0.063049503 1.5096295e-38
-0.261985 0.13610999 0.064298302 1.6571419e-38
-0.26150799 0.13707 0.0649793 1.7677408e-38
-0.29666099 0.0072750701 0.0127982 1.2357091e-38
-0.29655999 0.0087451199 0.0129295 1.271866e-38
-0.29592201 0.0100933 0.0138455 1.3179635e-38
-0.29555401 0.0114982 0.0143671 1.3456582e-38
-0.295187 0.0129003 0.0148874 1.3916837e-38
-0.295086 0.0143663 0.0150183 1.4379253e-38
-0.294985 0.0158334 0.0151493 1.4014431e-38
-0.29461899 0.017230701 0.0156681 1.0329148e-38
-0.29425299 0.0186252 0.0161856 8.758945e-39
-0.29388899 0.020016899 0.0167017 1.0968388e-38
-0.29352599 0.021405799 0.0172166 9.9538742e-39
-0.292642 0.022636799 0.018492701 1.0963693e-38
-0.29254201 0.024095999 0.018623 1.1611945e-38
-0.29244101 0.025556199 0.0187534 1.5474093e-38
-0.29260001 0.0271008 0.018503601 1.4383206e-38
-0.29249901 0.028565001 0.018634399 1.4566547e-38
-0.29239899 0.0300301 0.0187652 1.2819141e-38
-0.29281801 0.0316756 0.0181337 7.5557327e-39
-0.29271701 0.033146799 0.018265 4.1484362e-39
-0.292355 0.034525201 0.018777899 3.5037857e-39
-0.291219 0.035615899 0.0204239 3.3190399e-39
-0.29034999 0.0367916 0.0216795 3.4108754e-39
-0.28948799 0.037958901 0.0229252 3.7785747e-39
-0.28888401 0.039216202 0.023793301 3.5956212e-39
-0.286549 0.0397758 0.0271957 3.872208e-39
-0.28571701 0.040913001 0.028397201 4.6065375e-39
-0.28537601 0.042243101 0.0288807 4.606899e-39
-0.28503501 0.043570701 0.029363001 4.6072564e-39
-0.28493699 0.044999801 0.029490599 4.8845607e-39
-0.28483799 0.046429899 0.0296183 5.6214041e-39
-0.28498101 0.047968999 0.029392 5.715406e-39
-0.28488299 0.0494029 0.029519999 6.2667819e-39
-0.28478399 0.0508378 0.0296482 6.3607712e-39
-0.28468499 0.052273799 0.0297764 6.4526067e-39
-0.28482801 0.053826399 0.029550301 6.7281118e-39
-0.284729 0.055266201 0.0296789 6.6359147e-39
-0.28462899 0.056706998 0.029807501 6.2674938e-39
-0.28453001 0.058148701 0.029936301 5.7146815e-39
-0.284915 0.0598391 0.0293549 5.2536978e-39
-0.28433099 0.061035201 0.030193999 4.7930783e-39
-0.28471601 0.062735103 0.0296135 3.7785761e-39
-0.28510201 0.0644449 0.029030001 3.0402922e-39
-0.28331199 0.064980902 0.031637698 2.6725901e-39
-0.281789 0.065637797 0.033853699 3.7767782e-39
-0.280058 0.066156097 0.0363749 5.7092823e-39
-0.27950001 0.067314401 0.037177399 5.4337758e-39
-0.278716 0.068336397 0.038310502 4.0533665e-39
-0.277937 0.069351599 0.039434999 3.5023521e-39
-0.27671799 0.070095003 0.041207299 3.8707675e-39
-0.27617601 0.0712284 0.0419848 3.9622415e-39
-0.27454099 0.071689501 0.044366602 3.9615268e-39
-0.27314901 0.072275802 0.046393 4.2370347e-39
-0.27262601 0.073385797 0.047143601 4.3288702e-39
-0.27253199 0.074760899 0.047266401 4.6969296e-39
-0.27243701 0.076136902 0.047389299 5.2490216e-39
-0.272342 0.077513903 0.0475123 6.0755383e-39
-0.273103 0.079455703 0.046379399 6.1680926e-39
-0.27343801 0.081129 0.0458708 5.9822595e-39
-0.27399299 0.082958199 0.045040999 5.2468566e-39
-0.27476999 0.084952101 0.043883201 5.4308947e-39
-0.276223 0.087429099 0.0417342 5.8907883e-39
-0.27702299 0.089475602 0.040543601 6.3535601e-39
-0.276925 0.090901501 0.040670998 5.8018297e-39
-0.276602 0.092166997 0.041128598 5.6177985e-39
-0.27561 0.092944302 0.042567801 5.8933078e-39
-0.27440801 0.093553498 0.0443152 6.2613701e-39
-0.27365601 0.0944786 0.045403499 6.5401094e-39
-0.27247801 0.095074102 0.047116 6.6326637e-39
-0.272167 0.096311003 0.047555901 6.4471935e-39
-0.272071 0.097710103 0.047680799 5.618516e-39
-0.272403 0.099443398 0.047176 5.1593455e-39
-0.296967 0.13558 0.0109077 8.9332483e-39
-0.29629299 0.13671499 0.0118789 7.2729997e-39
-0.295623 0.137844 0.0128446 6.9953324e-39
-0.29495701 0.13896701 0.013805 6.7187469e-39
-0.294294 0.140086 0.01476 6.5336368e-39
-0.29363501 0.14119899 0.015709801 6.2570541e-39
-0.293524 0.14280599 0.015853301 6.4410824e-39
-0.26631901 0.126752 0.055751599 6.8113041e-39
-0.26541701 0.12735701 0.057061698 6.9967673e-39
-0.26472199 0.128153 0.058066901 7.1797222e-39
-0.26462701 0.129537 0.058190499 7.1804453e-39
-0.26433301 0.130722 0.058606099 7.7321828e-39
-0.264238 0.13210601 0.058729701 8.8370898e-39
-0.26414201 0.13349 0.058853399 1.0401892e-38
-0.26384899 0.134672 0.059268001 1.2057809e-38
-0.26335999 0.135647 0.059971198 1.3622251e-38
-0.26209599 0.135802 0.0618155 1.4911906e-38
-0.26142299 0.136564 0.062789001 1.6202998e-38
-0.26037499 0.136915 0.064315297 1.7309345e-38
-0.29560801 0.0073169102 0.0117435 1.2542197e-38
-0.295239 0.00872753 0.0122689 1.2074732e-38
-0.294871 0.0101353 0.012793 1.2351315e-38
-0.29423901 0.0114772 0.0137066 1.225948e-38
-0.29413801 0.0129424 0.013837 1.2166921e-38
-0.293773 0.0143417 0.0143571 1.2533544e-38
-0.29340801 0.015738299 0.0148758 1.3090677e-38
-0.29304501 0.017131999 0.0153932 1.1615192e-38
-0.29268301 0.018523 0.015909299 1.0232975e-38
-0.292321 0.0199112 0.016424101 1.0138627e-38
-0.291186 0.021070501 0.018081499 1.0230464e-38
-0.29006201 0.022218401 0.0197214 9.4893045e-39
-0.28996199 0.023666101 0.019850301 9.9509903e-39
-0.290117 0.0251949 0.0196035 1.8681475e-38
-0.29052699 0.0268113 0.0189787 1.4194121e-38
-0.29042599 0.028267801 0.0191084 1.207187e-38
-0.29058099 0.0298119 0.018859999 1.0419185e-38
-0.29099399 0.031450301 0.0182309 7.924141e-39
-0.29089299 0.0329156 0.018361401 5.3469808e-39
-0.29079199 0.0343819 0.018492 3.5045129e-39
-0.28966701 0.035470601 0.020134799 3.3197615e-39
-0.28855401 0.0365487 0.021760199 3.3197573e-39
-0.28795201 0.037808899 0.022631001 3.6860217e-39
-0.28661001 0.038770702 0.0245956 3.6874567e-39
-0.285285 0.039721001 0.0265346 3.8711304e-39
-0.28445899 0.040856998 0.0277368 4.4225078e-39
-0.28411901 0.042185601 0.028220201 4.5157782e-39
-0.28402001 0.043613899 0.028347399 4.0551658e-39
-0.28392199 0.0450431 0.0284747 4.2417066e-39
-0.28382301 0.046473298 0.028602 5.345892e-39
-0.28372401 0.047904499 0.0287295 5.7154018e-39
-0.283865 0.049446601 0.028501701 6.1742247e-39
-0.283526 0.050769899 0.028984601 6.1763799e-39
-0.283427 0.052204002 0.0291123 6.2685742e-39
-0.283328 0.0536392 0.0292401 6.5444394e-39
-0.282989 0.054958198 0.0297217 6.3604083e-39
-0.28288999 0.0563935 0.029849499 6.2674924e-39
-0.282552 0.057709198 0.0303299 6.0827382e-39
-0.28174299 0.058779199 0.031509101 5.6217544e-39
-0.28117299 0.0599644 0.032332599 4.884195e-39
-0.28037399 0.061020799 0.0334967 3.9633233e-39
-0.278662 0.061575498 0.036010899 2.9491741e-39
-0.27856401 0.062987298 0.036136601 2.4878429e-39
-0.278467 0.064400002 0.0362624 3.5016305e-39
-0.27791399 0.065557599 0.037061598 7.2755164e-39
-0.27713901 0.066581503 0.038190398 8.1045582e-39
-0.276593 0.067728199 0.038979899 5.2511838e-39
-0.27582699 0.068739399 0.040094599 3.7800152e-39
-0.27528799 0.069875397 0.0408745 3.6878182e-39
-0.27453199 0.070874102 0.0419752 3.9615268e-39
-0.272917 0.071336702 0.044347901 4.6980114e-39
-0.27175301 0.072055303 0.046052601 4.8831202e-39
-0.271658 0.073429503 0.046174999 4.8838362e-39
-0.27135101 0.074669696 0.0466111 5.0667898e-39
-0.271256 0.076044202 0.046733499 5.1586197e-39
-0.27116099 0.077419601 0.046856001 5.5263218e-39
-0.27127799 0.0789361 0.0466654 6.0780648e-39
-0.27203301 0.080886103 0.045527998 6.2595624e-39
-0.272365 0.082563899 0.045017101 4.7901987e-39
-0.272484 0.084102899 0.0448227 4.9713599e-39
-0.27325201 0.086098701 0.043666501 5.249016e-39
-0.27359 0.087807201 0.0431467 5.5234435e-39
-0.274369 0.089838699 0.041973501 5.1557484e-39
-0.27427101 0.091253102 0.042099401 5.0642702e-39
-0.27286401 0.091712102 0.044166401 5.4319737e-39
-0.27126399 0.092007697 0.0465184 5.6170811e-39
-0.27053201 0.092927203 0.047584701 6.0769788e-39
-0.270015 0.093999401 0.048332501 6.4471963e-39
-0.26991901 0.095387302 0.048456099 6.4479137e-39
-0.26982301 0.096776202 0.0485797 5.7110746e-39
-0.26993701 0.098330103 0.0483924 4.9742368e-39
-0.27068499 0.10039 0.047264799 5.1586393e-39
-0.29611501 0.135879 0.0093581099 8.5626665e-39
-0.29516301 0.136769 0.0107488 7.0886098e-39
-0.294496 0.137898 0.0117174 6.9024193e-39
-0.294384 0.139516 0.0118614 6.8098635e-39
-0.29372099 0.140636 0.0128243 6.5339927e-39
-0.29306099 0.14175101 0.0137819 6.5343542e-39
-0.29295 0.143363 0.0139254 6.9956911e-39
-0.26515001 0.12660401 0.055082802 6.810581e-39
-0.264254 0.12720899 0.056394301 6.9949666e-39
-0.26396 0.128398 0.056812599 6.7194686e-39
-0.263666 0.129585 0.0572301 6.8109467e-39
-0.26357099 0.130969 0.0573534 7.2729969e-39
-0.263475 0.132355 0.0574768 8.5619392e-39
-0.26337901 0.133742 0.057600301 1.0402971e-38
-0.26308599 0.13492499 0.058016598 1.224292e-38
-0.26259801 0.135901 0.0587232 1.3715168e-38
-0.26133701 0.13605399 0.060578398 1.5004462e-38
-0.26047501 0.136612 0.061841201 1.6203e-38
-0.25943199 0.13696299 0.063372701 1.7308984e-38
-0.29455501 0.0073587499 0.0106887 1.4014448e-38
-0.29418701 0.0087694498 0.0112152 1.2536078e-38
-0.29381999 0.0101773 0.0117403 1.1982537e-38
-0.29319 0.0115192 0.0126564 1.1708108e-38
-0.292826 0.0129196 0.0131776 1.0878712e-38
-0.292463 0.0143172 0.0136975 1.0135754e-38
-0.292101 0.015712 0.0142161 1.0325175e-38
-0.29173899 0.017104 0.0147333 1.0416286e-38
-0.29111999 0.0184213 0.015634401 9.7694801e-39
-0.289992 0.0195862 0.017293399 8.6631466e-39
-0.28912899 0.020813899 0.0185582 1.1060218e-38
-0.28877601 0.0221845 0.0190631 9.1223269e-39
-0.28867599 0.023630301 0.0191915 9.3074328e-39
-0.28857601 0.025077101 0.01932 1.6849443e-38
-0.288728 0.026606901 0.0190726 1.4276622e-38
-0.28887999 0.0281417 0.0188247 1.1151706e-38
-0.28877899 0.029595399 0.0189538 9.8634905e-39
-0.28918499 0.031226801 0.018327201 8.6656633e-39
-0.28933799 0.032777 0.0180775 7.0086643e-39
-0.28872901 0.034054499 0.0189646 5.1651175e-39
-0.287871 0.0352326 0.0202219 4.7023373e-39
-0.28702101 0.0364023 0.0214692 3.9633359e-39
-0.28568399 0.0373726 0.0234411 3.6867462e-39
-0.284365 0.038331099 0.0253873 3.6878168e-39
-0.284024 0.039666399 0.025875101 3.9633233e-39
-0.28320399 0.040801302 0.027078001 4.2402689e-39
-0.282866 0.042128298 0.027561201 4.424663e-39
-0.282767 0.043554801 0.0276879 4.3306681e-39
-0.28266799 0.044982299 0.027814699 4.424656e-39
-0.28256899 0.046410799 0.027941599 4.7938e-39
-0.28246999 0.0478402 0.0280685 5.2540635e-39
-0.28260899 0.049380399 0.0278398 5.9909027e-39
-0.282509 0.050813701 0.027967099 6.08382e-39
-0.28217199 0.052134499 0.0284499 6.2682112e-39
-0.28207201 0.053567901 0.0285771 6.4522395e-39
-0.281973 0.055002298 0.0287045 6.3600481e-39
-0.281636 0.056318998 0.029185999 6.267135e-39
-0.28083 0.057393599 0.0303692 6.1742121e-39
-0.28026199 0.058581401 0.031195199 5.7128724e-39
-0.27877399 0.059278801 0.033396501 4.9756703e-39
-0.277762 0.060208499 0.034887102 4.1477117e-39
-0.27721101 0.061373901 0.035689302 2.9502517e-39
-0.276214 0.0622878 0.0371571 2.3963661e-39
-0.276117 0.063689999 0.037281599 3.5016319e-39
-0.27513099 0.0645895 0.038734201 8.3822199e-39
-0.274593 0.065733202 0.039517 9.3074188e-39
-0.27449599 0.0671276 0.039640799 5.8987126e-39
-0.27396101 0.068264 0.0404195 3.6860161e-39
-0.27364701 0.069526099 0.040869199 3.1335696e-39
-0.27268299 0.070391297 0.042288098 3.5009116e-39
-0.27130401 0.070986502 0.0443292 4.2370389e-39
-0.270785 0.072098903 0.045084201 4.7898511e-39
-0.27047899 0.073339902 0.0455212 4.9753116e-39
-0.270174 0.074578702 0.045957301 5.1586225e-39
-0.26966 0.075679697 0.0467049 5.0664268e-39
-0.26914901 0.076776199 0.047448799 5.0678632e-39
-0.26884699 0.078006104 0.047880098 5.8951057e-39
-0.26875201 0.079373501 0.048001599 5.7996745e-39
-0.269072 0.081025101 0.0475033 5.6167251e-39
-0.268976 0.082397699 0.047625199 4.877721e-39
-0.26888099 0.083771303 0.047747102 4.3295849e-39
-0.26961899 0.085736997 0.046622202 4.3288618e-39
-0.269943 0.087420501 0.046117101 4.4207015e-39
-0.26984701 0.088807099 0.046240199 4.6054529e-39
-0.269541 0.090040497 0.0466775 4.7891239e-39
-0.268819 0.090961799 0.047737502 5.1589756e-39
-0.26830801 0.092032798 0.048480801 5.526319e-39
-0.26821199 0.093413003 0.048603401 6.078055e-39
-0.26811701 0.094794303 0.048726 6.4468375e-39
-0.26802099 0.096176498 0.0488488 6.0787781e-39
-0.26813099 0.097722098 0.048662301 5.3419361e-39
-0.26865801 0.0996029 0.0478535 4.8813251e-39
-0.269398 0.101667 0.046724498 5.3441109e-39
-0.294981 0.135934 0.0082233902 8.0084109e-39
-0.29431099 0.137069 0.0092028603 6.8116642e-39
-0.29364401 0.138199 0.0101768 6.7180294e-39
-0.29325601 0.139571 0.0107336 6.7169504e-39
-0.29286999 0.14094 0.0112889 6.8094992e-39
-0.29248399 0.142306 0.0118428 7.1804397e-39
-0.264882 0.125846 0.053090099 6.8077013e-39
-0.26398399 0.12645601 0.054415599 6.7169476e-39
-0.26329201 0.12725601 0.0554321 6.6265513e-39
-0.262999 0.128445 0.055851299 6.6265541e-39
-0.26290199 0.129831 0.055974301 6.7180294e-39
-0.262806 0.131217 0.056097399 7.1815201e-39
-0.26271001 0.132605 0.056220699 8.655211e-39
-0.26261401 0.133993 0.056343999 1.0587362e-38
-0.262321 0.135178 0.056761999 1.2427673e-38
-0.261834 0.136154 0.057472199 1.3808444e-38
-0.26057699 0.136306 0.059338201 1.5005182e-38
-0.25971699 0.13686401 0.060608 1.6203001e-38
-0.25867701 0.137214 0.062148299 1.7308266e-38
-0.292871 0.0087518496 0.0105575 1.3736423e-38
-0.29276901 0.0102193 0.0106875 1.2258773e-38
-0.292142 0.0115612 0.0116061 1.1615558e-38
-0.291518 0.0128968 0.0125198 1.1154941e-38
-0.29115701 0.0142927 0.0130395 9.1230514e-39
-0.29079601 0.0156857 0.0135579 8.2958004e-39
-0.29017901 0.017006099 0.0144618 9.4010578e-39
-0.28880301 0.018106701 0.016508 8.3872744e-39
-0.28819701 0.0194101 0.017395601 7.2798604e-39
-0.28759399 0.0207076 0.018278699 1.0599237e-38
-0.28724399 0.0220748 0.018782301 9.8634764e-39
-0.28714299 0.023517 0.01891 1.0138993e-38
-0.28704301 0.02496 0.0190378 1.3178192e-38
-0.28719199 0.0264857 0.0187904 1.6212721e-38
-0.28709099 0.0279327 0.0189186 1.3182885e-38
-0.28724 0.029466299 0.018670799 1.1063469e-38
-0.28738999 0.031005001 0.018422499 9.7752507e-39
-0.28728899 0.032458901 0.018551201 8.9462103e-39
-0.286937 0.033822 0.0190566 8.2079236e-39
-0.28584301 0.034903798 0.0206804 7.4682005e-39
-0.28451499 0.035881799 0.0226545 6.2689469e-39
-0.28344601 0.036942001 0.024240499 5.8072401e-39
-0.283106 0.0382782 0.0247295 4.4243098e-39
-0.282289 0.039417598 0.025936401 3.963682e-39
-0.28195199 0.040745601 0.026420699 4.1491509e-39
-0.28185299 0.042171299 0.026546899 4.4239441e-39
-0.28151599 0.043495901 0.027030099 4.5136216e-39
-0.28141701 0.0449217 0.027156301 4.4232224e-39
-0.28131801 0.0463484 0.0272827 4.3324659e-39
-0.28145501 0.047883701 0.0270529 4.7001708e-39
-0.28135499 0.049314301 0.0271795 5.5302804e-39
-0.28125599 0.050745901 0.0273063 5.8987084e-39
-0.281156 0.052178401 0.0274332 6.0831011e-39
-0.28105599 0.053611901 0.0275601 6.2667707e-39
-0.28072101 0.054929499 0.0280426 6.267135e-39
-0.280386 0.056244701 0.0285239 6.2667763e-39
-0.279585 0.0573183 0.029707899 5.9898237e-39
-0.27787101 0.0579064 0.032267999 5.5288441e-39
-0.277089 0.058961801 0.0334226 4.9763906e-39
-0.27631399 0.060010199 0.0345686 4.2388298e-39
-0.27532101 0.0609302 0.036041699 3.3175951e-39
-0.27478001 0.062086102 0.036834601 2.5800343e-39
-0.273366 0.0627454 0.038943801 3.5009074e-39
-0.27305201 0.064010598 0.039394699 6.8174207e-39
-0.27273899 0.065273702 0.039844502 8.6660151e-39
-0.27264199 0.066661298 0.039967399 7.7408246e-39
-0.27211401 0.067793302 0.040741101 5.2479426e-39
-0.27180299 0.069049798 0.0411878 3.3168805e-39
-0.27043 0.069654197 0.043236598 3.2239674e-39
-0.26991299 0.070768997 0.043993901 3.6856616e-39
-0.26939899 0.071879297 0.044747502 4.5136202e-39
-0.26930299 0.073250398 0.044868901 5.0664254e-39
-0.26879099 0.074353799 0.045618702 5.342648e-39
-0.268282 0.075452797 0.046365 5.158984e-39
-0.26736501 0.0762759 0.047726098 5.1575505e-39
-0.266054 0.076821201 0.0496835 5.6163706e-39
-0.26596001 0.078173801 0.049803302 5.5263288e-39
-0.265865 0.079527304 0.0499231 5.7996703e-39
-0.265771 0.080881797 0.050043099 3.8686025e-39
-0.26587799 0.082378998 0.049859401 4.3281401e-39
-0.26578301 0.083736897 0.049979702 4.4196169e-39
-0.26731399 0.086269103 0.047646102 3.9611667e-39
-0.267629 0.087942503 0.047146998 4.0530036e-39
-0.267533 0.089319997 0.047269002 4.5132587e-39
-0.26702699 0.090391502 0.048011199 4.7902015e-39
-0.266523 0.091458701 0.048749801 5.1579022e-39
-0.26642701 0.092832401 0.048871499 5.7103543e-39
-0.26653501 0.094364598 0.048685499 6.1706122e-39
-0.26664299 0.095901497 0.0484992 6.2617302e-39
-0.26675099 0.097443096 0.0483124 5.7092767e-39
-0.26686001 0.098989502 0.048125301 4.9731536e-39
-0.26758701 0.101041 0.0470028 4.8816838e-39
-0.26832199 0.103114 0.045869298 5.8061723e-39
-0.29356799 0.13574401 0.0075084302 7.4559532e-39
-0.293455 0.13736901 0.00765234 6.8102237e-39
-0.29251501 0.138253 0.0090476302 6.6254737e-39
-0.29212901 0.139625 0.0096056396 6.7169476e-39
-0.29174301 0.140995 0.0101622 7.0871679e-39
-0.29163 0.14261299 0.0103054 7.2758793e-39
-0.263513 0.125503 0.052725099 6.9002543e-39
-0.26262301 0.126113 0.054048799 6.8098565e-39
-0.262133 0.12710901 0.054767098 6.716949e-39
-0.26203701 0.128493 0.054889798 6.7155113e-39
-0.26194099 0.129879 0.055012502 6.7165917e-39
-0.26184401 0.131265 0.055135299 7.4570308e-39
-0.261747 0.132653 0.0552582 8.9314364e-39
-0.26165101 0.13404199 0.055381101 1.0863229e-38
-0.26135901 0.135226 0.055799998 1.2519512e-38
-0.260874 0.13620301 0.056512199 1.3808806e-38
-0.25962299 0.136354 0.058384702 1.5098096e-38
-0.25839001 0.13650499 0.060230698 1.6387751e-38
-0.25791901 0.137465 0.060920801 1.7400463e-38
-0.29145601 0.0101999 0.0100309 1.3091417e-38
-0.29109299 0.0116032 0.0105556 1.1891431e-38
-0.290472 0.0129388 0.0114718 1.1247856e-38
-0.28985399 0.0142683 0.0123832 9.5883399e-39
-0.28949499 0.0156596 0.0129015 8.2010881e-39
-0.28786901 0.0167007 0.0153434 9.6751237e-39
-0.287265 0.0180071 0.016233699 8.6649361e-39
-0.28666401 0.0193075 0.017119501 7.0958251e-39
-0.28631499 0.0206757 0.017624199 9.031199e-39
-0.28596601 0.0220413 0.0181276 9.4968547e-39
-0.28561899 0.0234042 0.018629801 1.105914e-38
-0.28551799 0.024843501 0.018757001 1.3821761e-38
-0.28591201 0.026446501 0.0181338 1.85273e-38
-0.28581101 0.027891699 0.018261399 1.4285995e-38
-0.285216 0.0291676 0.0191388 1.2170894e-38
-0.285115 0.0306109 0.0192663 1.1710634e-38
-0.28501499 0.032055199 0.0193939 1.0973432e-38
-0.28491399 0.0335005 0.019521501 1.0420975e-38
-0.28359199 0.034487002 0.0215027 9.7756024e-39
-0.28228801 0.0354614 0.0234582 8.9451257e-39
-0.28171101 0.0367034 0.024308801 9.7683955e-39
-0.28137499 0.0380348 0.0247954 6.5440933e-39
-0.28103799 0.039363701 0.0252808 4.5150733e-39
-0.28070301 0.040690102 0.025765 4.0576923e-39
-0.28060299 0.042114101 0.025890701 4.2417122e-39
-0.280269 0.043437101 0.026373699 4.3303121e-39
-0.28016999 0.044861201 0.0264995 4.1469971e-39
-0.28007001 0.046286199 0.0266253 4.4232224e-39
-0.27996999 0.047712199 0.0267513 4.7920007e-39
-0.28010499 0.049248401 0.0265208 5.0707428e-39
-0.28000501 0.050678201 0.0266471 5.7128808e-39
-0.27990499 0.052108999 0.026773499 5.9909041e-39
-0.279805 0.0535408 0.0268999 5.8994301e-39
-0.27947101 0.0548569 0.027382299 6.0827452e-39
-0.279138 0.056170501 0.027863501 6.2667735e-39
-0.27834299 0.057243198 0.0290481 6.0827368e-39
-0.27641499 0.057712801 0.031955 5.438089e-39
-0.27564099 0.058766399 0.033107601 4.8845565e-39
-0.27487299 0.059813 0.0342515 4.3299492e-39
-0.27388999 0.060731798 0.035722099 3.6853001e-39
-0.27248201 0.061400399 0.037839301 2.764427e-39
-0.27195299 0.062544599 0.0386196 2.8569771e-39
-0.27164099 0.0638071 0.039069399 4.6987331e-39
-0.27133 0.065067403 0.0395182 8.3818836e-39
-0.27102 0.066325501 0.039965998 9.4846256e-39
-0.26986301 0.067074299 0.041702799 5.8933176e-39
-0.26955599 0.068322502 0.042144701 3.2246876e-39
-0.269041 0.069439799 0.042904299 2.9480966e-39
-0.26852801 0.070552602 0.043660101 3.3168777e-39
-0.26801801 0.071660802 0.044412401 3.8696857e-39
-0.267717 0.072896503 0.0448475 4.9731536e-39
-0.26721001 0.073996797 0.045594301 5.2504552e-39
-0.26650301 0.074958801 0.046647701 4.8834789e-39
-0.26519701 0.075512797 0.048612501 5.0657108e-39
-0.26450399 0.076460801 0.049643699 5.3419361e-39
-0.26421201 0.077673003 0.0500651 5.9840685e-39
-0.26411799 0.079020098 0.050184101 6.1734834e-39
-0.264222 0.080507003 0.0500011 4.2442248e-39
-0.26412699 0.081857599 0.050120398 3.9608009e-39
-0.264231 0.083351597 0.0499372 4.1437573e-39
-0.26453501 0.084994897 0.049449898 4.2370319e-39
-0.265241 0.086942501 0.048347801 3.8696885e-39
-0.26575199 0.088758998 0.047544502 4.3295807e-39
-0.26565599 0.090130799 0.0476656 4.6980016e-39
-0.265358 0.091349699 0.048095301 4.8820356e-39
-0.26506001 0.092566602 0.048524 5.3426536e-39
-0.264965 0.093938001 0.048645101 5.8032716e-39
-0.26506999 0.095468901 0.048459101 6.1706136e-39
-0.265176 0.097004503 0.048272699 5.8936666e-39
-0.26548401 0.098707899 0.047776699 5.1571833e-39
-0.26579401 0.100421 0.0472783 4.6061731e-39
-0.266516 0.10248 0.0461514 4.6987345e-39
-0.29282501 0.134417 0.00580983 8.1013254e-39
-0.29243499 0.13579901 0.0063749999 7.0882511e-39
-0.29204699 0.137178 0.0069386102 6.8098677e-39
-0.291659 0.13855501 0.00750073 6.7173092e-39
-0.29100099 0.13968 0.0084774904 6.8102237e-39
-0.29034501 0.1408 0.0094488095 7.2755122e-39
-0.26175699 0.124775 0.0529631 6.9016948e-39
-0.261269 0.125772 0.053683601 7.0871623e-39
-0.260977 0.12696099 0.054103699 6.9931758e-39
-0.26088101 0.128344 0.054225799 6.8080629e-39
-0.26097801 0.12992699 0.054050501 6.7173064e-39
-0.26088199 0.13131399 0.054173 7.5492278e-39
-0.26078501 0.13270099 0.054295499 9.2069457e-39
-0.26049399 0.13388599 0.054715302 1.1046898e-38
-0.26039699 0.13527399 0.054837901 1.2611704e-38
-0.259913 0.136251 0.055551998 1.3808804e-38
-0.25866899 0.136402 0.057431102 1.5098096e-38
-0.25762999 0.136756 0.0589968 1.6295916e-38
-0.25716001 0.13771699 0.059690401 1.740118e-38
-0.29004401 0.0116452 0.0095049404 1.2999219e-38
-0.28942499 0.0129809 0.0104237 1.1523368e-38
-0.28881001 0.0143103 0.0113375 1.0325541e-38
-0.28819701 0.0156336 0.0122466 9.1255569e-39
-0.28633299 0.0166048 0.0150724 1.0047868e-38
-0.28573501 0.0179081 0.0159608 9.3110271e-39
-0.28538701 0.019277301 0.016466601 8.1092498e-39
-0.28503901 0.0206438 0.016971201 8.2017999e-39
-0.28469199 0.0220077 0.0174745 7.8359041e-39
-0.28434601 0.023368999 0.017976601 9.6762083e-39
-0.28400099 0.0247277 0.018477401 1.5843938e-38
-0.28390101 0.026164399 0.0186039 1.6593742e-38
-0.28380001 0.027602 0.018730599 1.3549865e-38
-0.28297099 0.028788101 0.019972499 1.2631869e-38
-0.28287101 0.030222001 0.0200988 1.2724063e-38
-0.282529 0.031569399 0.020594601 1.226381e-38
-0.282188 0.032914199 0.0210892 1.1895745e-38
-0.281371 0.034075599 0.0223142 1.1434764e-38
-0.280797 0.035320301 0.023167299 1.0050038e-38
-0.28022501 0.0365595 0.024016101 1.0688557e-38
-0.28012499 0.037982501 0.024141399 8.0210212e-39
-0.279791 0.0393099 0.0246267 6.4522676e-39
-0.279457 0.0406348 0.0251108 6.7313712e-39
-0.279358 0.042057 0.0252361 5.4399051e-39
-0.27902499 0.043378498 0.025719 4.6072536e-39
-0.278925 0.044800799 0.0258442 4.1462754e-39
-0.27882501 0.046224099 0.0259696 4.3295891e-39
-0.278725 0.0476484 0.026094999 4.7005212e-39
-0.27862599 0.049073599 0.0262205 5.0700212e-39
-0.27852601 0.050499901 0.0263461 5.7114375e-39
-0.27842599 0.051927101 0.026471799 5.9894635e-39
-0.27855799 0.053469799 0.0262412 5.9905439e-39
-0.278225 0.054784399 0.0267235 5.9912614e-39
-0.27812499 0.056214601 0.0268494 6.1749366e-39
-0.27710399 0.057168301 0.028389901 6.0830997e-39
-0.27519101 0.057638202 0.031299502 5.6217614e-39
-0.27442199 0.058690902 0.032452799 4.9767507e-39
-0.27343899 0.0596168 0.0339358 4.422505e-39
-0.27181399 0.0601753 0.036403898 3.8693326e-39
-0.27107099 0.061202899 0.037517998 2.76515e-39
-0.27033401 0.0622238 0.038624 2.2126965e-39
-0.269813 0.063359998 0.039397199 3.6845826e-39
-0.26908499 0.064368501 0.040489499 7.3713078e-39
-0.26836199 0.065370403 0.0415738 9.1291288e-39
-0.26764399 0.066366002 0.0426502 6.7306229e-39
-0.26754799 0.067731798 0.042770501 3.9568521e-39
-0.26724601 0.068971097 0.0432075 2.8558967e-39
-0.267151 0.070337199 0.043327902 3.040288e-39
-0.26684999 0.071573697 0.043763898 3.224682e-39
-0.26634499 0.072676398 0.044512901 4.329945e-39
-0.265843 0.073774703 0.045258399 4.6994492e-39
-0.26514199 0.074735299 0.046310101 4.7912889e-39
-0.26365101 0.075157002 0.048576798 5.0660709e-39
-0.26316199 0.0762363 0.049302001 5.068582e-39
-0.26287201 0.077445999 0.0497224 5.8951001e-39
-0.26277801 0.078790002 0.0498408 5.1625769e-39
-0.26287901 0.080273204 0.049657501 5.4355877e-39
-0.26278499 0.081620701 0.0497762 4.0522791e-39
-0.262887 0.083110899 0.0495927 4.0529994e-39
-0.26318601 0.084749803 0.049105398 4.1451964e-39
-0.26328799 0.086251102 0.048920698 3.9608065e-39
-0.264588 0.088653103 0.046891902 4.1451936e-39
-0.264292 0.089871503 0.047321599 4.7894756e-39
-0.26399601 0.091087803 0.047750302 4.9742228e-39
-0.26390001 0.092456698 0.0478708 5.0667828e-39
-0.26360399 0.093670398 0.048298601 5.4352079e-39
-0.263708 0.095197298 0.048112199 5.8958246e-39
-0.26381099 0.096729003 0.047925498 5.9872999e-39
-0.26411501 0.098427698 0.047429599 5.5248882e-39
-0.26442099 0.100136 0.0469313 4.6983688e-39
-0.264727 0.101853 0.046430599 4.513623e-39
-0.291302 0.13585401 0.0052413899 6.9953366e-39
-0.29091501 0.137233 0.0058062398 6.7173134e-39
-0.29025701 0.138363 0.0067887199 6.7165917e-39
-0.28987199 0.139735 0.0073491698 6.9034997e-39
-0.28868401 0.140359 0.0091501204 7.0014519e-39
-0.26059899 0.12463 0.052300699 6.9928128e-39
-0.25992101 0.125433 0.053320099 7.1797208e-39
-0.25982401 0.12681399 0.0534417 7.1775642e-39
-0.259727 0.128196 0.053563301 6.9006158e-39
-0.25982299 0.129776 0.053387102 6.8098593e-39
-0.25972599 0.131161 0.053509101 7.5492264e-39
-0.25962901 0.132548 0.053631201 9.2065884e-39
-0.25953099 0.133935 0.053753302 1.1138374e-38
-0.259242 0.13511799 0.054173 1.2611702e-38
-0.25876099 0.136094 0.0548876 1.3993551e-38
-0.25715101 0.13584 0.0573497 1.5189571e-38
-0.256681 0.136804 0.058048401 1.6111166e-38
-0.25621301 0.13776501 0.058743902 1.7124237e-38
-0.288378 0.0130229 0.0093753897 1.3276165e-38
-0.287765 0.0143523 0.0102917 1.1800675e-38
-0.28715599 0.015675601 0.0112032 1.0421699e-38
-0.285301 0.016646599 0.0140385 1.1065265e-38
-0.28445899 0.0178796 0.0153097 1.050885e-38
-0.28435799 0.0193191 0.0154361 9.2191804e-39
-0.283766 0.0206121 0.0163198 8.4801819e-39
-0.28342101 0.021974299 0.016822999 7.2830918e-39
-0.283077 0.023334 0.0173249 7.9273822e-39
-0.28273401 0.024691001 0.0178256 1.4742985e-38
-0.282392 0.026045499 0.0183251 1.3642418e-38
-0.28205001 0.027397299 0.0188233 1.2538587e-38
-0.28123099 0.0285796 0.0200596 1.2354921e-38
-0.280893 0.029922999 0.0205532 1.2447119e-38
-0.28055501 0.031263899 0.0210455 1.2631152e-38
-0.27998301 0.032514099 0.021901401 1.2631869e-38
-0.27941301 0.0337588 0.022753 1.2907373e-38
-0.279313 0.035179999 0.022877799 1.1704881e-38
-0.27921301 0.036602098 0.023002701 1.0322297e-38
-0.27864599 0.037835799 0.0238495 8.2961648e-39
-0.27831399 0.039160099 0.0243336 9.0351633e-39
-0.27821499 0.040579598 0.0244583 1.3827142e-38
-0.278115 0.0420001 0.024583001 9.6740531e-39
-0.27801499 0.043421499 0.0247078 5.7107284e-39
-0.277684 0.044740699 0.025190501 4.2370403e-39
-0.27735299 0.046057399 0.025672 4.0540798e-39
-0.277253 0.047478098 0.025796801 4.2395458e-39
-0.27715299 0.0488998 0.0259216 4.7912805e-39
-0.277053 0.050322499 0.0260466 5.2515384e-39
-0.277183 0.051858298 0.025815601 5.8036359e-39
-0.27708301 0.053284802 0.025940901 5.8979868e-39
-0.27698201 0.054712199 0.026066201 6.0827354e-39
-0.27642399 0.055905499 0.0269018 5.9912642e-39
-0.276095 0.057212301 0.027380601 5.8990686e-39
-0.27419299 0.057681799 0.0303002 5.8057925e-39
-0.27298599 0.0584969 0.032141101 5.2533376e-39
-0.27136099 0.0590658 0.034630701 4.699445e-39
-0.27019 0.059861999 0.036417101 4.0540784e-39
-0.269456 0.060887098 0.037526701 3.133564e-39
-0.268727 0.0619055 0.038628198 2.4878387e-39
-0.26758799 0.062676102 0.040366001 2.8569743e-39
-0.26687199 0.063679799 0.041446298 4.5161397e-39
-0.26657099 0.064921401 0.0418844 8.2900509e-39
-0.266271 0.066160798 0.0423216 9.8516201e-39
-0.266175 0.067523398 0.042441301 5.2476021e-39
-0.26607901 0.068887003 0.042561099 2.3952815e-39
-0.265576 0.069994599 0.043312501 2.6711481e-39
-0.26527801 0.071226999 0.043746602 2.7640668e-39
-0.26497999 0.072457403 0.044179801 3.5016305e-39
-0.26428199 0.073422 0.045235101 4.6090514e-39
-0.263192 0.074116498 0.046898101 4.7927266e-39
-0.26231101 0.0749356 0.048237801 4.7005226e-39
-0.26202199 0.076145999 0.048659101 5.1593385e-39
-0.26173201 0.077354498 0.0490795 5.1586267e-39
-0.26163799 0.078697003 0.049197402 4.888518e-39
-0.26154301 0.0800405 0.0493154 6.26497e-39
-0.26164299 0.081524402 0.049131501 4.3277898e-39
-0.26174301 0.083012797 0.0489472 3.7764153e-39
-0.261843 0.084505796 0.0487625 4.0529994e-39
-0.26233599 0.086295202 0.047967698 3.9611611e-39
-0.26322901 0.088397503 0.0465503 3.9618813e-39
-0.26313299 0.089764602 0.0466704 4.5128943e-39
-0.26283801 0.090979703 0.047099099 4.9727893e-39
-0.26234701 0.092039101 0.0478337 4.8820328e-39
-0.26225099 0.093404002 0.047953501 5.0664268e-39
-0.262155 0.094769999 0.0480735 5.6195964e-39
-0.262651 0.096614398 0.047272 5.9883761e-39
-0.26275301 0.0981488 0.047084 5.709997e-39
-0.26305401 0.0998521 0.046585798 5.1575463e-39
-0.263356 0.101565 0.046085101 4.6972898e-39
-0.28978199 0.137288 0.0046736798 6.7169476e-39
-0.288858 0.138171 0.0060785501 6.6258338e-39
-0.28820801 0.139295 0.0070557902 7.0914783e-39
-0.28546101 0.138455 0.0113012 6.9078129e-39
-0.28665599 0.141279 0.0094048101 6.9967617e-39
-0.25944301 0.124485 0.051639698 7.2708333e-39
-0.25896201 0.12548099 0.052361101 7.4563021e-39
-0.25867301 0.12666699 0.052781101 7.3612338e-39
-0.25857601 0.128047 0.0529023 7.0846483e-39
-0.25867 0.12962601 0.052725099 6.9942492e-39
-0.258573 0.13101 0.0528467 7.549225e-39
-0.25866699 0.132596 0.052669398 9.0225572e-39
-0.258378 0.13378 0.053089999 1.0954703e-38
-0.25808999 0.13496201 0.0535096 1.2520226e-38
-0.25761199 0.13593701 0.054224499 1.3902076e-38
-0.25619999 0.135888 0.0563992 1.5005544e-38
-0.255732 0.136852 0.057099801 1.5926417e-38
-0.25526699 0.137813 0.057797201 1.6755815e-38
-0.28672099 0.0143944 0.0092457803 1.3557788e-38
-0.286365 0.015785901 0.0097672297 1.3280124e-38
-0.28451499 0.0167573 0.0126194 1.3001377e-38
-0.28343001 0.017921301 0.0142794 1.0972716e-38
-0.283328 0.019361001 0.0144055 9.0344417e-39
-0.28273901 0.0206539 0.0152916 8.114286e-39
-0.28239599 0.0220163 0.015795801 8.2972395e-39
-0.28205201 0.023375999 0.0162987 7.9288256e-39
-0.28171 0.0247331 0.0168004 1.2076162e-38
-0.281129 0.0260073 0.017674699 1.1522999e-38
-0.280314 0.0271942 0.0189151 1.1524798e-38
-0.27997601 0.0285386 0.019409699 1.1617716e-38
-0.27963901 0.029880401 0.019903099 1.1986142e-38
-0.27906901 0.0311334 0.0207616 1.2170892e-38
-0.278501 0.032380801 0.0216158 1.2998848e-38
-0.27840099 0.033801101 0.021740099 1.2262013e-38
-0.27806801 0.035131201 0.0222276 1.298985e-38
-0.27773601 0.036458898 0.0227139 1.2072563e-38
-0.27740499 0.037783999 0.0231991 8.9400768e-39
-0.27730501 0.039202701 0.023323299 1.0776802e-38
-0.27720499 0.040622301 0.023447599 1.5853627e-38
-0.277105 0.0420429 0.023572 1.1425036e-38
-0.276775 0.043363001 0.024055799 6.4497368e-39
-0.276445 0.0446807 0.024538299 4.9749641e-39
-0.276117 0.045995899 0.0250197 4.6083326e-39
-0.276016 0.047414899 0.025144 4.4253762e-39
-0.27568901 0.048726901 0.0256241 4.5161355e-39
-0.27581599 0.050255802 0.025392801 4.7927238e-39
-0.27571601 0.051677801 0.0255173 5.4370114e-39
-0.27561501 0.053100701 0.025642 5.5295686e-39
-0.27551499 0.0545245 0.0257666 5.8065142e-39
-0.27518699 0.0558322 0.026246401 5.7157563e-39
-0.27463499 0.0570191 0.0270781 5.6221257e-39
-0.27319399 0.0577255 0.029300701 5.4377345e-39
-0.271557 0.0583039 0.031830899 5.2526202e-39
-0.26994801 0.058873199 0.034316599 4.6990834e-39
-0.26899999 0.0597867 0.035769399 3.9622387e-39
-0.26785201 0.0605735 0.037535202 3.3175923e-39
-0.266718 0.061351601 0.039279301 2.6725831e-39
-0.26600599 0.0623593 0.040363301 2.2123266e-39
-0.26550201 0.063481003 0.0411212 2.7655032e-39
-0.26540601 0.064841896 0.041240402 5.5310021e-39
-0.26510701 0.066079997 0.041677501 9.2177413e-39
-0.264808 0.067316003 0.042113598 8.7506605e-39
-0.26471201 0.068676397 0.0422327 5.3325895e-39
-0.26421401 0.069781899 0.042982802 2.8562583e-39
-0.263917 0.0710117 0.043416001 2.6725887e-39
-0.26302499 0.071850002 0.044783302 3.4105082e-39
-0.26233801 0.072811 0.045829799 4.1477117e-39
-0.26204601 0.074028201 0.046255499 4.6076151e-39
-0.26136601 0.074978597 0.0472917 4.6068962e-39
-0.260883 0.076055899 0.048017599 4.7912833e-39
-0.26059499 0.077263199 0.048438001 4.7916462e-39
-0.260308 0.078468502 0.048857398 5.4355793e-39
-0.260214 0.079808898 0.048974801 6.1709737e-39
-0.26031101 0.081289098 0.0487906 4.4228693e-39
-0.260602 0.082915001 0.048303001 3.5920282e-39
-0.260894 0.084549703 0.047813099 4.0533539e-39
-0.261188 0.086193196 0.047320899 4.1459055e-39
-0.26148301 0.087845698 0.0468265 3.8700444e-39
-0.261583 0.089356497 0.046638101 3.961524e-39
-0.26148701 0.0907197 0.0467574 4.3292261e-39
-0.26139 0.092083797 0.0468769 4.6054515e-39
-0.261098 0.093293801 0.047303598 5.1575435e-39
-0.26080701 0.094501697 0.047729399 5.8025471e-39
-0.26110101 0.096182004 0.047235802 5.9880146e-39
-0.26159301 0.098032601 0.046431001 5.5263232e-39
-0.26188999 0.099733599 0.045931399 5.1579022e-39
-0.262189 0.101444 0.045429502 4.5139747e-39
-0.28773001 0.138226 0.0049502598 6.3496084e-39
-0.286026 0.138368 0.00759278 7.1829522e-39
-0.28332499 0.137546 0.0118068 7.180797e-39
-0.282451 0.138409 0.013145 6.9949652e-39
-0.28233901 0.13998801 0.0132834 6.9020535e-39
-0.25781199 0.12533601 0.051702 7.5488537e-39
-0.25771499 0.126715 0.0518228 7.3615912e-39
-0.257617 0.128095 0.051943701 7.1764838e-39
-0.25751999 0.129476 0.052064601 7.0860861e-39
-0.25761199 0.13105799 0.051886201 7.5488649e-39
-0.257514 0.132442 0.0520075 8.8388848e-39
-0.257227 0.133625 0.052428 1.0495168e-38
-0.25712901 0.13501 0.052549299 1.2152167e-38
-0.25571799 0.134967 0.054742701 1.3809882e-38
-0.25506499 0.13573299 0.0557402 1.5005904e-38
-0.254783 0.13689999 0.0561511 1.5927135e-38
-0.25432 0.137861 0.0568504 1.6755813e-38
-0.28372699 0.0168682 0.0111963 1.3557072e-38
-0.282644 0.0180334 0.0128658 1.1623125e-38
-0.28229901 0.0194028 0.0133747 1.1798137e-38
-0.282197 0.020843601 0.0135005 9.3153515e-39
-0.281611 0.022133701 0.0143888 8.9404468e-39
-0.281268 0.023495199 0.0148939 8.5749068e-39
-0.28092599 0.024854001 0.0153978 1.0235136e-38
-0.28010699 0.0260494 0.016651699 9.9571168e-39
-0.27929601 0.027236201 0.017895799 1.0050393e-38
-0.27872401 0.028497601 0.0187614 1.0512088e-38
-0.27815601 0.0297534 0.0196224 1.1247857e-38
-0.27759001 0.0310036 0.0204791 1.1341853e-38
-0.27725801 0.032335501 0.0209677 1.3546977e-38
-0.27715799 0.033754099 0.021091601 9.1234255e-39
-0.27682701 0.035082601 0.021578901 8.5612414e-39
-0.27649701 0.036408801 0.022065099 1.077968e-38
-0.27616701 0.0377324 0.0225501 9.4028584e-39
-0.27606699 0.039149299 0.022673899 1.1605841e-38
-0.275738 0.040469602 0.0231576 1.3087061e-38
-0.27563801 0.041886698 0.023281399 9.7680508e-39
-0.27508301 0.043102998 0.024121599 6.8217704e-39
-0.274757 0.044415999 0.024601899 6.084557e-39
-0.274432 0.045726601 0.025080999 7.8322957e-39
-0.27410701 0.047034901 0.025559001 6.8199431e-39
-0.273783 0.048340701 0.026035801 5.4377387e-39
-0.27368301 0.049752701 0.0261591 5.0703911e-39
-0.27336001 0.051055301 0.026634799 5.254781e-39
-0.27348301 0.052579399 0.026405999 5.3476969e-39
-0.27338299 0.053994302 0.026529601 5.6235607e-39
-0.27350599 0.055526201 0.0263006 5.7146745e-39
-0.272295 0.056358598 0.0281779 5.8039947e-39
-0.27197501 0.057650901 0.028649 5.8050709e-39
-0.27035001 0.058229499 0.0311813 5.4362869e-39
-0.26875401 0.058798801 0.0336693 4.5150551e-39
-0.26760301 0.059593901 0.0354544 3.962603e-39
-0.266054 0.060144901 0.037868701 3.5016277e-39
-0.26513901 0.061039601 0.039280798 2.7655018e-39
-0.26463699 0.062163599 0.040041 2.2123322e-39
-0.264339 0.063403301 0.040479001 2.3949256e-39
-0.26404199 0.064640798 0.0409161 3.1317703e-39
-0.26394501 0.065999404 0.041034799 6.1763673e-39
-0.263648 0.067234203 0.0414708 8.9468857e-39
-0.26335201 0.068466797 0.041905899 5.6282228e-39
-0.262858 0.069570199 0.0426546 2.8555408e-39
-0.26197201 0.070413701 0.044023599 2.7644242e-39
-0.261484 0.071506299 0.044762 3.2264785e-39
-0.26119301 0.072724096 0.045188598 3.5948967e-39
-0.260903 0.073940001 0.045614399 4.4246574e-39
-0.26041999 0.075021602 0.046345599 4.8838376e-39
-0.25974801 0.075966097 0.047377601 4.7923679e-39
-0.25946099 0.077172197 0.0477979 4.883839e-39
-0.259175 0.078376196 0.0482172 5.8047065e-39
-0.259271 0.079852201 0.0480319 5.5259672e-39
-0.25917599 0.081193604 0.048149101 4.7916504e-39
-0.25927201 0.0826765 0.047963601 3.7749804e-39
-0.25994501 0.084593602 0.046863601 3.7767698e-39
-0.260236 0.086237401 0.0463688 3.9618771e-39
-0.26052901 0.087889999 0.045871701 3.7774915e-39
-0.260432 0.089250699 0.045990601 3.6860175e-39
-0.26033601 0.090612397 0.046109501 4.054077e-39
-0.26023901 0.091975003 0.046228498 4.6065305e-39
-0.259949 0.093183801 0.0466552 5.1593469e-39
-0.25985199 0.094546601 0.046774201 5.6188845e-39
-0.259756 0.095910497 0.046893299 5.2508167e-39
-0.26004699 0.0975952 0.046397399 4.6987247e-39
-0.26092601 0.0997793 0.0449671 4.6987261e-39
-0.28233299 0.136016 0.0105643 6.9978491e-39
-0.281212 0.136647 0.0123066 6.9956911e-39
-0.28035101 0.137509 0.0136351 6.9020606e-39
-0.27851701 0.137421 0.0165116 6.9009802e-39
-0.25675601 0.126762 0.050864398 7.3615898e-39
-0.25665799 0.128143 0.0509849 7.1764838e-39
-0.25656101 0.12952401 0.051105499 7.0850085e-39
-0.25646299 0.130906 0.051226199 7.4563091e-39
-0.256365 0.13228901 0.051346999 8.5630196e-39
-0.25626701 0.133673 0.051467899 1.0126748e-38
-0.255981 0.134855 0.051888298 1.1691912e-38
-0.25421199 0.13440999 0.0546708 1.3532939e-38
