ply
format ascii 1.0
element vertex 1233
property float x
property float y
property float z
property uchar diffuse_red
property uchar diffuse_green
property uchar diffuse_blue
end_header
-0.413566 0.0562158 0.105289 182 26 12
-0.413493 0.0578063 0.105467 180 24 12
-0.387589 0.0560911 0.122094 171 23 15
-0.386753 0.0573098 0.122736 167 21 14
-0.385921 0.0585231 0.123375 176 24 12
-0.385094 0.059731 0.12401 197 30 14
-0.384648 0.0610604 0.124409 208 32 15
-0.384582 0.0625164 0.124572 206 27 10
-0.384515 0.0639733 0.124736 199 27 12
-0.357253 0.0666314 0.142603 186 36 24
-0.355653 0.0673466 0.143698 173 41 36
-0.414576 0.0504099 0.102296 212 49 38
-0.414041 0.0518782 0.102766 199 41 36
-0.413967 0.0534725 0.102944 189 33 23
-0.413434 0.0549364 0.103413 185 30 13
-0.412446 0.0562641 0.104167 182 28 12
-0.386559 0.056136 0.121062 173 24 13
-0.385725 0.0573548 0.121707 169 23 13
-0.384516 0.0584438 0.122586 182 28 14
-0.38407 0.0597759 0.122986 205 33 16
-0.383626 0.0611055 0.123385 214 32 15
-0.383183 0.0624325 0.123784 210 29 11
-0.383492 0.0640186 0.123712 200 28 12
-0.359509 0.0665638 0.139583 185 37 27
-0.356632 0.0667956 0.14148 173 46 41
-0.413065 0.0487407 0.101283 211 47 47
-0.412991 0.050333 0.101462 219 87 69
-0.412459 0.0517994 0.101932 205 49 44
-0.412385 0.0533915 0.10211 193 31 25
-0.411399 0.0547227 0.102868 188 30 15
-0.411325 0.0563123 0.103046 185 29 12
-0.385146 0.0560592 0.120273 174 28 13
-0.384697 0.0573997 0.120677 172 25 14
-0.383491 0.0584887 0.12156 187 30 19
-0.382671 0.0596953 0.122199 210 35 19
-0.382228 0.0610233 0.122598 217 32 13
-0.381414 0.0622204 0.123232 211 30 13
-0.381347 0.0636718 0.123395 201 29 16
-0.382026 0.0653891 0.123087 194 27 14
-0.361113 0.0676035 0.137045 174 44 38
-0.411029 0.0485443 0.100745 220 53 50
-0.410955 0.050132 0.100922 212 57 68
-0.410881 0.0517208 0.1011 202 39 35
-0.410353 0.0531822 0.101569 193 34 23
-0.409376 0.0545103 0.102325 192 31 17
-0.409753 0.0562278 0.102214 189 30 16
-0.384565 0.054761 0.118835 175 31 14
-0.384116 0.0561041 0.119242 173 29 12
-0.383289 0.0573216 0.11989 174 27 14
-0.382467 0.0585336 0.120534 191 33 22
-0.381275 0.0596149 0.121414 212 37 22
-0.380463 0.0608148 0.12205 217 32 14
-0.379655 0.0620094 0.122683 211 30 15
-0.37812 0.0629417 0.123779 203 29 18
-0.37624 0.0637367 0.125093 194 29 17
-0.36314 0.06742 0.134097 177 43 36
-0.409382 0.0500559 0.100094 208 36 43
-0.409307 0.0516425 0.100271 199 34 33
-0.408333 0.0529741 0.101031 192 31 24
-0.408258 0.0545583 0.101207 194 30 19
-0.408184 0.0561436 0.101384 194 32 20
-0.383155 0.0546859 0.118048 177 29 13
-0.382708 0.0560275 0.118455 177 28 11
-0.381885 0.0572437 0.119104 181 28 13
-0.381067 0.0584544 0.11975 197 35 22
-0.379512 0.05941 0.120869 212 39 20
-0.379075 0.0607334 0.121268 215 33 13
-0.377176 0.0615462 0.122606 210 29 14
-0.375301 0.0623494 0.123927 203 29 15
-0.374518 0.063525 0.124546 193 29 16
-0.374451 0.0649541 0.124706 186 29 17
-0.374741 0.0665159 0.124636 193 32 22
-0.365343 0.0644615 0.130773 215 42 33
-0.36428 0.0654686 0.131566 202 47 41
-0.363885 0.0667225 0.131932 183 42 35
-0.407365 0.0498566 0.0995604 203 37 31
-0.40729 0.0514388 0.0997364 197 35 30
-0.407216 0.053022 0.0999125 192 35 28
-0.40625 0.054347 0.100671 197 33 23
-0.406175 0.0559278 0.100847 196 34 22
-0.381748 0.0546111 0.117264 181 31 17
-0.381303 0.0559511 0.117671 181 29 14
-0.380485 0.057166 0.11832 187 29 13
-0.379672 0.0583755 0.118967 202 31 17
-0.378125 0.0593303 0.120088 211 34 17
-0.376959 0.0604012 0.120962 210 34 15
-0.374722 0.0610878 0.12253 205 30 14
-0.373583 0.0621412 0.123384 198 28 13
-0.372452 0.0631875 0.124232 189 28 16
-0.371681 0.0643544 0.124846 185 28 16
-0.364437 0.0631204 0.129647 194 34 25
-0.363708 0.0642558 0.13023 208 46 38
-0.363312 0.0655119 0.130598 191 39 37
-0.362918 0.0667659 0.130964 182 47 47
-0.405729 0.0513612 0.0989123 197 36 27
-0.404768 0.0526881 0.0996722 199 34 27
-0.404252 0.0541369 0.100138 198 36 26
-0.404177 0.0557133 0.100313 190 35 24
-0.381542 0.0534312 0.115577 181 34 19
-0.380345 0.0545364 0.116481 181 33 20
-0.380276 0.0559959 0.116643 176 33 20
-0.37946 0.0572108 0.117295 186 32 15
-0.377911 0.0581735 0.118428 203 31 14
-0.376377 0.059127 0.119549 209 30 14
-0.3745 0.0599474 0.120894 206 29 14
-0.373003 0.0608826 0.12199 198 29 16
-0.371873 0.0619342 0.122843 192 30 15
-0.370751 0.0629786 0.12369 187 29 14
-0.3652 0.0623909 0.127432 185 28 14
-0.363466 0.0631636 0.128676 190 36 23
-0.362739 0.064299 0.129261 194 47 35
-0.362344 0.0655553 0.129629 192 42 36
-0.361951 0.0668093 0.129996 191 51 56
-0.40373 0.0511592 0.098384 201 35 34
-0.402778 0.052483 0.0991429 193 37 34
-0.401396 0.0536729 0.100187 187 37 31
-0.403066 0.0557611 0.0992002 180 35 25
-0.380511 0.0534759 0.114545 181 36 23
-0.379318 0.0545811 0.115453 174 35 22
-0.378505 0.0557989 0.116107 169 33 24
-0.37696 0.0567682 0.117246 183 32 20
-0.375431 0.0577283 0.118373 200 33 16
-0.373919 0.0586793 0.119488 205 31 15
-0.372422 0.0596213 0.120592 202 27 10
-0.371292 0.0606783 0.121452 196 26 8
-0.367746 0.0608624 0.123907 189 29 10
-0.365297 0.061408 0.125635 185 29 12
-0.362892 0.0619448 0.127332 186 30 15
-0.361836 0.0629611 0.128138 193 33 16
-0.361442 0.0642182 0.128507 198 39 24
-0.361049 0.065473 0.128876 201 46 40
-0.360983 0.0668527 0.129028 204 57 60
-0.401744 0.0509583 0.0978587 195 40 45
-0.400366 0.0521538 0.0989073 183 38 42
-0.400291 0.0537203 0.0990804 178 39 41
-0.37948 0.0535206 0.113513 176 34 27
-0.377549 0.0543878 0.114921 170 35 27
-0.376375 0.0554832 0.11582 168 32 26
-0.374485 0.0563303 0.117198 186 33 25
-0.372977 0.0572877 0.118319 203 33 20
-0.371485 0.0582362 0.119428 206 31 14
-0.371063 0.0595426 0.119822 201 30 8
-0.369241 0.060352 0.12115 192 30 8
-0.36472 0.0601761 0.124275 186 30 13
-0.361986 0.0606034 0.126207 184 28 15
-0.360933 0.0616239 0.127016 187 30 15
-0.360214 0.0627596 0.127603 198 37 21
-0.360148 0.0641375 0.127756 208 44 33
-0.360082 0.0655163 0.127908 213 48 45
-0.360016 0.0668961 0.12806 214 62 63
-0.399412 0.0490711 0.0974563 198 44 46
-0.397624 0.050147 0.098791 186 41 47
-0.397975 0.0518275 0.0986736 180 38 42
-0.377704 0.0533293 0.112985 178 36 29
-0.37579 0.0541955 0.114392 176 38 27
-0.37354 0.054933 0.116024 177 37 26
-0.372394 0.0560159 0.116909 192 36 29
-0.370549 0.0568518 0.118265 206 33 23
-0.370128 0.0581592 0.11866 207 29 17
-0.368591 0.0605193 0.119917 191 29 17
-0.36141 0.0593812 0.12486 186 31 20
-0.360031 0.0602874 0.125895 183 31 17
-0.359314 0.0614256 0.126484 191 32 18
-0.359247 0.0628027 0.126636 208 40 28
-0.359181 0.0641807 0.126788 218 47 40
-0.359115 0.0655596 0.12694 221 51 47
-0.359048 0.0669395 0.127092 220 64 65
-0.396177 0.0485192 0.0978108 186 44 44
-0.396102 0.0500727 0.0979817 186 42 45
-0.39645 0.0517508 0.0978629 189 40 44
-0.376306 0.0532562 0.112207 185 35 34
-0.373316 0.0537697 0.114359 184 33 30
-0.371453 0.054624 0.11574 187 33 23
-0.369262 0.0553506 0.117342 200 37 27
-0.369193 0.0567764 0.117499 210 36 25
-0.359129 0.0589516 0.124774 185 31 17
-0.357768 0.0598556 0.125804 184 30 16
-0.35738 0.0611087 0.126173 199 37 23
-0.357314 0.0624807 0.126324 220 49 36
-0.357891 0.0641002 0.126039 229 49 44
-0.358147 0.0656029 0.125972 233 52 50
-0.358081 0.0669829 0.126124 230 65 67
-0.393821 0.0482104 0.0975838 170 46 50
-0.393329 0.0496374 0.0980419 177 43 43
-0.374616 0.0516121 0.111524 182 41 34
-0.37418 0.0529496 0.111935 188 37 30
-0.37194 0.0536971 0.113588 186 36 29
-0.368329 0.0539695 0.116182 195 34 23
-0.367562 0.0551603 0.116817 209 36 27
-0.355277 0.0579477 0.125781 182 30 17
-0.355211 0.0593112 0.125931 187 30 20
-0.355144 0.0606756 0.126081 211 41 32
-0.356031 0.0624025 0.125578 234 52 43
-0.356284 0.0638967 0.125511 242 50 43
-0.356858 0.0655208 0.125224 243 53 46
-0.357113 0.0670264 0.125155 240 63 63
-0.370637 0.0521847 0.112662 182 41 36
-0.368094 0.0528172 0.114537 187 38 31
-0.367326 0.0540132 0.115178 202 37 28
-0.367256 0.0554383 0.115334 215 36 27
-0.35407 0.0565142 0.124892 188 33 19
-0.352129 0.0571916 0.126338 182 31 20
-0.352373 0.0586583 0.126271 196 33 23
-0.353243 0.0603642 0.125773 227 45 33
-0.35412 0.0620836 0.125271 246 55 44
-0.355002 0.0638169 0.124766 252 53 43
-0.355572 0.0654388 0.124477 251 54 44
-0.355825 0.0669425 0.124407 248 60 58
-0.36674 0.0527466 0.113775 190 39 37
-0.36667 0.0541727 0.113931 206 40 34
-0.351245 0.0558825 0.12524 187 34 23
-0.35087 0.0571206 0.125603 181 32 24
-0.350804 0.0584709 0.125751 207 38 26
-0.351356 0.0600551 0.125468 242 51 36
-0.352222 0.0617671 0.124966 254 55 44
-0.353724 0.0637372 0.124022 255 53 44
-0.354289 0.0653571 0.123732 255 55 45
-0.354858 0.0669859 0.12344 252 61 56
-0.368044 0.0491741 0.110818 157 154 150
-0.365666 0.0542165 0.112926 208 42 38
-0.349681 0.0557019 0.124723 184 36 27
-0.349615 0.0570497 0.12487 183 32 27
-0.349549 0.0583985 0.125017 217 44 34
-0.349789 0.0598643 0.124949 250 58 43
-0.350956 0.0616905 0.124228 255 56 45
-0.352448 0.0636578 0.123281 255 55 45
-0.353325 0.0654002 0.122767 255 57 47
-0.353574 0.0669023 0.122695 254 60 58
-0.365913 0.050317 0.110712 161 154 143
-0.365843 0.051747 0.110867 163 106 114
-0.364732 0.052834 0.111765 189 54 52
-0.364661 0.0542603 0.11192 207 43 40
-0.348734 0.0557437 0.123775 181 35 26
-0.348363 0.0569791 0.124139 188 32 30
-0.348296 0.0583263 0.124285 228 52 45
-0.348534 0.0597904 0.124216 254 65 52
-0.349693 0.061614 0.123492 255 59 47
-0.351175 0.0635785 0.122541 255 55 46
-0.352361 0.0654434 0.121802 255 59 50
-0.352608 0.0669456 0.121728 255 65 61
-0.364214 0.0501384 0.110202 157 153 145
-0.364143 0.0515647 0.110357 160 123 133
-0.363384 0.0527636 0.111007 192 60 55
-0.347854 0.0544383 0.122681 193 35 23
-0.347787 0.0557855 0.122827 179 32 23
-0.347416 0.057021 0.123192 194 32 33
-0.347349 0.0583683 0.123338 234 57 54
-0.347586 0.0598325 0.123267 255 69 57
-0.34874 0.0616565 0.122538 255 61 48
-0.350216 0.0636214 0.121581 255 60 47
-0.351396 0.0654866 0.120836 255 64 49
-0.351641 0.066989 0.120761 255 66 59
-0.362523 0.0499607 0.109695 156 152 146
-0.362452 0.0513834 0.109849 161 130 140
-0.362381 0.0528072 0.110003 194 62 57
-0.346907 0.05448 0.121733 187 35 28
-0.34684 0.0558273 0.121879 177 32 25
-0.346168 0.0569505 0.122463 203 35 31
-0.346101 0.0582963 0.122609 241 61 53
-0.346637 0.0598747 0.122318 255 69 57
-0.347787 0.061699 0.121584 255 61 49
-0.349256 0.0636642 0.120621 255 60 48
-0.350431 0.0655298 0.119871 255 62 49
-0.350675 0.0670324 0.119794 255 64 56
-0.360841 0.0497839 0.10919 158 153 147
-0.360431 0.0510916 0.109592 162 132 141
-0.36036 0.05251 0.109745 199 60 55
-0.34596 0.0545217 0.120785 184 36 31
-0.345591 0.0557581 0.121151 177 33 28
-0.345222 0.0569923 0.121517 212 43 34
-0.345155 0.0583382 0.121662 246 63 53
-0.345689 0.0599168 0.121368 255 68 57
-0.346833 0.0617415 0.12063 255 63 50
-0.348296 0.0637071 0.11966 255 62 49
-0.349466 0.065573 0.118905 255 64 51
-0.349709 0.0670757 0.118827 255 66 58
-0.359167 0.0496081 0.108688 160 155 149
-0.358761 0.0509128 0.109089 163 125 137
-0.358689 0.0523276 0.109241 200 60 57
-0.345013 0.0545634 0.119837 185 35 31
-0.344644 0.0557998 0.120204 181 32 31
-0.344277 0.0570341 0.12057 222 50 39
-0.344209 0.0583802 0.120715 251 66 53
-0.34474 0.059959 0.120419 255 66 54
-0.345879 0.061784 0.119676 255 64 50
-0.347336 0.06375 0.1187 255 62 50
-0.348501 0.0656162 0.11794 255 65 52
-0.348742 0.0671191 0.11786 255 67 58
-0.357502 0.0494332 0.108188 163 158 150
-0.356436 0.0505148 0.109083 165 116 129
-0.356365 0.0519224 0.109235 202 60 59
-0.344133 0.0532585 0.118744 197 38 34
-0.344065 0.0546051 0.118889 189 33 28
-0.343698 0.0558416 0.119257 189 30 30
-0.343331 0.057076 0.119624 231 54 42
-0.343263 0.0584221 0.119768 254 68 52
-0.343791 0.0600012 0.119469 255 66 54
-0.344926 0.0618265 0.118721 255 64 50
-0.346683 0.0639153 0.117512 255 62 49
-0.347536 0.0656594 0.116974 255 63 50
-0.347775 0.0671625 0.116893 255 67 54
-0.355845 0.0492592 0.107691 166 160 148
-0.354788 0.0503388 0.108585 170 107 118
-0.354717 0.051743 0.108736 209 60 58
-0.343186 0.0533001 0.117796 201 35 32
-0.343117 0.0546469 0.117941 192 31 24
-0.343049 0.0559946 0.118085 197 30 29
-0.342682 0.0572304 0.118454 236 58 47
-0.342613 0.0585783 0.118598 255 71 56
-0.342842 0.0600433 0.11852 255 66 55
-0.343972 0.061869 0.117767 255 62 51
-0.345721 0.0639582 0.116549 255 62 49
-0.346571 0.0657026 0.116008 255 63 49
-0.346809 0.0672059 0.115925 255 66 54
-0.354524 0.049194 0.106947 168 160 146
-0.352825 0.0500551 0.108336 176 96 107
-0.353402 0.051675 0.107993 216 59 57
-0.342239 0.0533417 0.116848 204 33 29
-0.34217 0.0546886 0.116992 194 31 25
-0.342101 0.0560364 0.117136 205 32 34
-0.341735 0.0572723 0.117506 241 64 56
-0.341666 0.0586203 0.11765 255 73 59
-0.341893 0.0600855 0.11757 255 66 54
-0.343017 0.0619115 0.116812 255 62 52
-0.345064 0.0641239 0.115357 255 62 51
-0.345605 0.0657458 0.115042 255 63 50
-0.345841 0.0672493 0.114957 255 66 55
-0.353207 0.0491289 0.106204 171 163 147
-0.351517 0.0499895 0.107596 185 84 95
-0.351767 0.0514969 0.107499 222 60 57
-0.34136 0.0520372 0.115756 220 36 33
-0.341291 0.0533833 0.115899 206 33 29
-0.341222 0.0547303 0.116043 197 32 25
-0.340857 0.055967 0.116414 216 35 39
-0.340787 0.0573142 0.116558 246 69 61
-0.340718 0.0586624 0.116702 255 74 60
-0.340944 0.0601277 0.11662 255 66 53
-0.342362 0.0620734 0.115629 255 64 54
-0.344406 0.0642901 0.114161 255 62 52
-0.34464 0.065789 0.114075 255 62 49
-0.344569 0.0671654 0.114223 255 65 52
-0.351569 0.0489566 0.105714 174 165 147
-0.350213 0.0499241 0.106858 195 78 84
-0.35046 0.0514296 0.106759 227 59 56
-0.340413 0.0520787 0.114807 222 37 35
-0.340343 0.0534249 0.114951 209 35 30
-0.340274 0.054772 0.115094 198 33 26
-0.339909 0.0560088 0.115466 227 43 40
-0.33984 0.0573561 0.115609 250 71 61
-0.33977 0.0587044 0.115753 255 75 62
-0.339995 0.0601699 0.11567 255 68 55
-0.341407 0.0621159 0.114672 255 66 54
-0.343441 0.0643332 0.113196 255 63 52
-0.343674 0.0658323 0.113109 255 62 50
-0.343603 0.0672088 0.113256 255 64 52
-0.34994 0.0487852 0.105226 176 163 147
-0.349229 0.0499668 0.105874 203 73 77
-0.349157 0.0513625 0.106022 233 56 55
-0.339465 0.0521202 0.113859 222 40 39
-0.339395 0.0534665 0.114002 210 36 32
-0.339325 0.0548138 0.114146 199 34 28
-0.338962 0.0560506 0.114517 235 52 43
-0.338892 0.057398 0.114661 253 70 60
-0.338822 0.0587464 0.114804 255 74 63
-0.339045 0.0602121 0.11472 255 69 57
-0.340748 0.0622783 0.113485 255 69 55
-0.342477 0.0643763 0.112231 255 66 53
-0.342708 0.0658755 0.112142 255 64 53
-0.342637 0.0672521 0.112289 255 67 54
-0.348636 0.0487211 0.104491 172 161 145
-0.348246 0.0500095 0.104889 211 68 69
-0.348173 0.0514052 0.105037 238 54 52
-0.338518 0.0521617 0.112911 221 40 39
-0.338447 0.0535082 0.113053 209 35 29
-0.338377 0.0548556 0.113196 201 33 27
-0.337723 0.0559812 0.113798 240 59 45
-0.337653 0.0573271 0.113941 255 73 61
-0.337874 0.0587885 0.113855 255 72 61
-0.338096 0.0602543 0.113769 255 69 58
-0.339791 0.0623209 0.112527 255 69 56
-0.341512 0.0644193 0.111266 255 66 54
-0.341742 0.0659188 0.111176 255 63 54
-0.34167 0.0672955 0.111322 255 67 55
-0.347335 0.0486572 0.103756 170 158 143
-0.347262 0.0500522 0.103904 218 63 59
-0.337932 0.0509628 0.111587 232 45 39
-0.33757 0.0522032 0.111962 218 40 36
-0.337499 0.0535498 0.112104 207 35 28
-0.337429 0.0548973 0.112247 206 34 30
-0.336777 0.056023 0.112851 243 62 51
-0.336706 0.057369 0.112994 255 75 62
-0.336926 0.0588305 0.112906 255 72 61
-0.337146 0.0602965 0.112819 255 68 58
-0.33913 0.0624838 0.111335 255 67 56
-0.340548 0.0644624 0.110301 255 65 54
-0.340776 0.065962 0.110209 255 63 52
-0.340704 0.0673389 0.110355 255 65 55
-0.346037 0.0485935 0.103024 173 154 142
-0.345964 0.0499867 0.103171 222 63 58
-0.336693 0.050899 0.110871 231 41 35
-0.336622 0.0522448 0.111013 217 35 32
-0.336551 0.0535915 0.111155 206 32 28
-0.33619 0.0548291 0.11153 213 34 35
-0.335542 0.0559537 0.112135 246 67 58
-0.335471 0.0572982 0.112277 255 76 63
-0.335977 0.0588726 0.111957 255 72 62
-0.336196 0.0603388 0.111868 255 70 59
-0.338467 0.062647 0.11014 255 69 56
-0.339583 0.0645055 0.109335 255 66 53
-0.339809 0.0660053 0.109242 255 64 52
-0.339737 0.0673823 0.109387 255 66 55
-0.344431 0.0484241 0.102546 168 148 145
-0.344358 0.0498139 0.102692 225 61 58
-0.335745 0.0509404 0.109922 230 42 35
-0.335674 0.0522863 0.110064 215 34 32
-0.335603 0.0536331 0.110206 204 32 29
-0.335242 0.0548709 0.110582 221 38 40
-0.334596 0.0559954 0.111188 249 72 63
-0.334525 0.0573401 0.11133 255 77 63
-0.335029 0.0589146 0.111008 255 72 59
-0.335246 0.060381 0.110917 255 71 57
-0.337802 0.0628107 0.108941 255 69 55
-0.338618 0.0645486 0.10837 255 66 54
-0.338545 0.065923 0.108514 255 64 52
-0.33877 0.0674257 0.10842 255 66 55
-0.342526 0.0481504 0.102321 171 140 145
-0.34276 0.049642 0.102215 227 62 58
-0.341767 0.0507045 0.103113 244 49 44
-0.334797 0.0509819 0.108974 228 40 37
-0.334726 0.0523279 0.109115 212 35 34
-0.334654 0.0536748 0.109257 201 33 32
-0.334295 0.0549126 0.109633 232 43 39
-0.33365 0.0560372 0.110242 252 76 63
-0.333579 0.0573819 0.110383 255 76 63
-0.33408 0.0589567 0.110058 255 72 60
-0.334583 0.0605402 0.109732 255 72 57
-0.336841 0.0628535 0.10798 255 69 56
-0.337653 0.0645917 0.107404 255 66 55
-0.33758 0.0659663 0.107548 255 68 54
-0.337507 0.0673418 0.107693 255 69 56
-0.340332 0.0477748 0.102348 174 135 146
-0.340562 0.0492585 0.102243 227 61 58
-0.338681 0.0499978 0.103877 243 47 44
-0.335075 0.0500946 0.106932 236 43 41
-0.333849 0.0510233 0.108025 225 40 36
-0.333777 0.0523694 0.108166 209 36 32
-0.333419 0.053608 0.108543 201 30 30
-0.333061 0.0548445 0.10892 241 50 41
-0.332704 0.0560789 0.109295 254 77 62
-0.332632 0.0574238 0.109436 255 75 64
-0.333131 0.0589988 0.109109 255 74 62
-0.333632 0.0605824 0.10878 255 71 58
-0.335879 0.0628963 0.107018 255 70 57
-0.336688 0.0646348 0.106438 255 68 58
-0.336614 0.0660095 0.106582 255 67 54
-0.336541 0.0673851 0.106726 255 67 55
-0.338758 0.0476094 0.101876 179 133 151
-0.338086 0.0487741 0.102518 229 62 59
-0.337121 0.0498281 0.103404 241 50 45
-0.333834 0.0500316 0.106219 233 44 42
-0.332901 0.0510647 0.107076 222 39 36
-0.332829 0.052411 0.107217 208 35 31
-0.332471 0.0536496 0.107595 200 31 32
-0.33183 0.0547766 0.108208 244 57 45
-0.331758 0.0561207 0.108348 255 73 61
-0.331686 0.0574657 0.108489 255 72 62
-0.331898 0.0589261 0.108395 255 75 62
-0.33268 0.0606248 0.107827 255 74 60
-0.33521 0.0630605 0.105814 255 69 58
-0.335722 0.0646779 0.105472 255 69 58
-0.335649 0.0660527 0.105616 255 69 55
-0.335575 0.0674285 0.10576 255 69 58
-0.337193 0.0474448 0.101407 181 123 142
-0.336526 0.0486071 0.102048 227 65 62
-0.334982 0.0494495 0.103424 239 49 45
-0.332596 0.0499687 0.105507 231 41 40
-0.331952 0.0511062 0.106127 219 37 38
-0.331596 0.0523456 0.106506 207 34 32
-0.33124 0.053583 0.106884 204 33 36
-0.330884 0.0548183 0.107261 245 62 48
-0.33053 0.0560514 0.107637 255 74 61
-0.330458 0.0573949 0.107778 255 74 62
-0.330667 0.0588535 0.107682 255 73 61
-0.331728 0.0606671 0.106875 255 70 59
-0.334247 0.0631034 0.10485 255 70 57
-0.334757 0.064721 0.104506 255 69 56
-0.334683 0.066096 0.104649 255 67 56
-0.334609 0.0674718 0.104793 255 69 60
-0.335929 0.0473838 0.100689 187 107 124
-0.334973 0.048441 0.10158 229 67 64
-0.333442 0.0492825 0.102955 239 47 46
-0.331361 0.049906 0.104797 230 42 42
-0.331004 0.0511476 0.105177 217 37 39
-0.330365 0.0522805 0.105796 207 33 28
-0.330011 0.0535165 0.106174 211 35 39
-0.329377 0.0546413 0.106788 248 69 56
-0.329305 0.0559823 0.106928 255 76 62
-0.329232 0.0573243 0.107068 255 77 64
-0.32972 0.0588955 0.106735 255 75 61
-0.330776 0.0607094 0.105922 255 72 58
-0.333284 0.0631463 0.103886 255 70 57
-0.3335 0.0646404 0.103784 255 71 59
-0.333717 0.0661392 0.103682 255 68 58
-0.333352 0.067388 0.104071 255 68 63
-0.334669 0.0473228 0.0999732 194 93 109
-0.333718 0.0483791 0.100865 232 65 61
-0.331623 0.0490127 0.102733 240 47 43
-0.330128 0.0498434 0.104088 230 43 39
-0.329492 0.0509787 0.104709 216 36 38
-0.329138 0.0522155 0.105088 203 33 32
-0.328506 0.0533427 0.105705 220 37 44
-0.328155 0.054574 0.106081 250 73 63
-0.327804 0.0558031 0.106457 255 76 65
-0.327732 0.0571419 0.106596 255 76 63
-0.328215 0.058709 0.106262 255 74 61
-0.329824 0.0607517 0.104969 255 73 58
-0.332321 0.0631892 0.102923 255 69 57
-0.332536 0.0646835 0.102819 255 68 59
-0.332461 0.0660569 0.102962 255 68 57
-0.332386 0.0674313 0.103105 255 72 64
-0.333704 0.0473646 0.0990071 204 77 91
-0.332756 0.0484208 0.0999023 234 62 59
-0.330101 0.0488477 0.102268 239 47 43
-0.32918 0.0498848 0.103139 228 42 40
-0.328266 0.0509152 0.104002 213 38 39
-0.327636 0.0520447 0.104621 202 35 33
-0.327008 0.0531697 0.105237 231 44 43
-0.32611 0.0541821 0.106086 252 75 65
-0.326037 0.0555153 0.106224 255 80 66
-0.326239 0.0569605 0.106127 255 78 64
-0.326716 0.0585234 0.105792 255 75 63
-0.328872 0.060794 0.104016 255 74 61
-0.331071 0.0631106 0.102205 255 73 59
-0.331283 0.064603 0.102101 255 70 58
-0.331208 0.0659749 0.102243 255 70 57
-0.331133 0.0673477 0.102385 255 72 66
-0.332739 0.0474064 0.0980409 218 71 76
-0.332083 0.0485663 0.0986877 237 55 53
-0.328586 0.0486836 0.101806 238 46 45
-0.327952 0.0498224 0.102433 225 41 40
-0.326766 0.0507474 0.103538 211 35 33
-0.32614 0.0518748 0.104157 201 35 32
-0.324971 0.052785 0.105246 242 53 42
-0.324626 0.0540083 0.10562 254 76 64
-0.324553 0.0553383 0.105758 255 78 64
-0.324752 0.0567799 0.10566 255 75 64
-0.325225 0.0583387 0.105324 255 70 61
-0.32764 0.0607191 0.103306 255 73 59
-0.329538 0.0629111 0.101736 255 71 59
-0.330033 0.0645228 0.101384 255 71 58
-0.330244 0.066018 0.101278 255 71 56
-0.329883 0.0672642 0.101668 255 73 66
-0.331773 0.0474482 0.0970745 227 62 64
-0.33112 0.0486081 0.0977234 238 56 52
-0.327357 0.0486225 0.101101 236 46 45
-0.326726 0.0497601 0.101728 222 41 41
-0.325272 0.0505805 0.103077 209 37 37
-0.324108 0.0514963 0.104171 203 33 34
-0.323493 0.0526146 0.104783 248 60 45
-0.32342 0.0539422 0.10492 255 78 61
-0.323347 0.0552708 0.105057 255 78 62
-0.323544 0.0567107 0.104958 255 75 64
-0.323741 0.058155 0.104858 255 73 62
-0.326688 0.0607614 0.102354 255 71 60
-0.328296 0.0628331 0.101023 255 72 62
-0.328503 0.06432 0.100917 255 71 59
-0.328428 0.0656869 0.101058 255 70 55
-0.32807 0.0669291 0.101446 255 72 69
-0.330808 0.04749 0.096108 229 60 61
-0.330156 0.0486499 0.0967589 238 50 47
-0.326408 0.0486637 0.100151 233 45 44
-0.325228 0.0495949 0.101269 220 43 41
-0.322705 0.050003 0.103574 209 37 32
-0.322631 0.0513289 0.103711 205 33 36
-0.322558 0.0526557 0.103847 249 66 50
-0.322216 0.0538763 0.104221 255 78 63
-0.322142 0.0552034 0.104358 255 76 63
-0.322337 0.0566416 0.104258 255 73 63
-0.322802 0.0581966 0.103919 255 73 62
-0.325737 0.0608036 0.101401 255 71 60
-0.326776 0.0626351 0.100558 255 67 61
-0.327261 0.0642403 0.100204 255 68 60
-0.327186 0.0656058 0.100344 255 70 58
-0.32711 0.0669721 0.100485 255 75 77
-0.32546 0.048705 0.0992019 229 45 44
-0.323464 0.049328 0.101055 221 39 34
-0.321502 0.0499415 0.102878 210 35 27
-0.321429 0.0512659 0.103014 209 34 41
-0.321355 0.0525912 0.10315 249 69 57
-0.321282 0.0539175 0.103286 255 75 65
-0.321208 0.0552446 0.103423 255 74 66
-0.321134 0.0565727 0.103559 255 72 63
-0.321595 0.0581258 0.103219 255 75 63
-0.324785 0.0608459 0.100449 255 75 60
-0.325819 0.0626777 0.0996008 255 70 60
-0.326022 0.0641609 0.0994925 255 69 58
-0.325947 0.0655248 0.0996326 255 70 59
-0.325871 0.0668896 0.0997728 255 76 85
-0.323961 0.0485418 0.098748 228 47 45
-0.321445 0.0489617 0.101085 217 38 40
-0.320303 0.0498802 0.102183 205 37 28
-0.320229 0.0512031 0.102319 217 37 44
-0.320155 0.052527 0.102454 250 74 63
-0.320081 0.0538517 0.10259 255 75 65
-0.320007 0.0551774 0.102726 255 75 65
-0.320199 0.0566141 0.102623 255 76 62
-0.320658 0.0581673 0.102281 255 75 60
-0.323833 0.0608883 0.0994966 255 76 60
-0.324862 0.0627204 0.0986433 255 72 60
-0.324786 0.0640817 0.0987828 255 72 59
-0.32471 0.065444 0.0989224 255 69 60
-0.324912 0.0669326 0.0988131 254 80 93
-0.323014 0.048583 0.0978005 225 44 44
-0.319975 0.0488002 0.100632 214 38 38
-0.319371 0.049921 0.10125 201 36 38
-0.319296 0.051244 0.101385 228 43 44
-0.319222 0.052568 0.10152 253 78 64
-0.319148 0.0538928 0.101656 255 69 62
-0.319074 0.0552186 0.101791 255 73 64
-0.318999 0.0565453 0.101927 255 76 63
-0.319986 0.0583214 0.101101 255 74 60
-0.322881 0.0609306 0.0985439 255 75 61
-0.323629 0.0626429 0.0979357 255 74 62
-0.323829 0.0641245 0.0978248 255 70 60
-0.323753 0.0654869 0.0979641 255 73 61
-0.323953 0.0669757 0.0978533 250 91 98
-0.318289 0.052609 0.100586 254 79 64
-0.318214 0.0539339 0.100722 255 74 63
-0.31814 0.0552598 0.100857 255 75 65
-0.318065 0.0565866 0.100992 255 77 65
-0.319047 0.0583631 0.100161 255 73 62
-0.321929 0.0609729 0.0975911 255 74 61
-0.322673 0.0626855 0.0969791 255 72 60
-0.322872 0.0641672 0.0968667 255 70 58
-0.32307 0.0656536 0.0967541 255 74 61
-0.318372 0.0585177 0.0989765 255 76 64
-0.320706 0.0608979 0.0968883 255 73 61
-0.321444 0.0626082 0.0962742 255 72 62
-0.442819 0.0576548 0.116527 255 92 67
-0.442146 0.05908 0.115987 255 105 84
-0.441873 0.0599112 0.114951 255 104 94
-0.441403 0.0610318 0.114167 255 101 81
-0.441132 0.0618582 0.113135 255 73 63
-0.441056 0.062395 0.111852 255 74 58
-0.443101 0.0536739 0.118678 255 70 56
-0.443026 0.054218 0.117378 255 73 59
-0.441547 0.0568653 0.11783 255 83 65
-0.441075 0.0579978 0.117038 255 104 80
-0.440606 0.0591241 0.116248 255 106 89
-0.440138 0.060246 0.115462 255 91 86
-0.439868 0.0610734 0.11443 255 93 78
-0.439793 0.0616094 0.113147 255 71 49
-0.439717 0.0621463 0.111864 255 72 52
-0.439836 0.0623949 0.110324 255 74 58
-0.443391 0.0496258 0.120861 246 56 44
-0.442906 0.0507951 0.120051 254 73 54
-0.44202 0.0525723 0.119742 255 72 58
-0.440548 0.0552368 0.120175 255 78 64
-0.440275 0.056076 0.119132 255 79 63
-0.440001 0.0569124 0.11809 255 99 75
-0.439339 0.0583381 0.117546 255 104 79
-0.438875 0.0594614 0.116757 255 85 70
-0.438413 0.0605795 0.115972 255 75 64
-0.43853 0.0608249 0.114442 255 76 59
-0.438455 0.0613615 0.113159 255 72 50
-0.438571 0.0616089 0.111622 255 71 52
-0.438689 0.0618565 0.11008 255 69 52
-0.438807 0.0621063 0.108534 255 83 62
-0.43873 0.0626466 0.107243 234 117 90
-0.442427 0.048744 0.120375 255 74 60
-0.441741 0.0502302 0.119815 255 74 62
-0.440659 0.0523192 0.119755 255 82 65
-0.439003 0.0552863 0.120433 255 91 81
-0.438732 0.056124 0.11939 255 89 72
-0.438267 0.0572557 0.118596 255 99 76
-0.437804 0.058383 0.117805 255 88 68
-0.437153 0.0597964 0.117263 255 75 56
-0.437076 0.0603317 0.115984 255 72 53
-0.437 0.0608668 0.114704 255 70 52
-0.437307 0.0608225 0.112919 255 69 50
-0.43723 0.0613605 0.111634 255 68 52
-0.437537 0.0613175 0.109835 255 70 52
-0.437461 0.0618571 0.108545 255 74 58
-0.437577 0.0621072 0.106994 247 98 77
-0.4375 0.0626483 0.1057 221 121 99
-0.439695 0.0514513 0.119271 255 110 86
-0.437463 0.0553354 0.12069 255 93 92
-0.437 0.0564697 0.119893 255 84 70
-0.43654 0.0575981 0.119099 255 76 63
-0.436082 0.058721 0.118309 255 72 56
-0.435627 0.0598395 0.117521 255 72 52
-0.43555 0.0603745 0.116244 255 72 51
-0.435663 0.0606191 0.114716 255 69 50
-0.435965 0.0605741 0.112931 255 68 50
-0.43627 0.0605287 0.111136 255 71 51
-0.436193 0.0610678 0.109847 255 72 52
-0.436306 0.0613161 0.108298 255 69 53
-0.43642 0.0615665 0.106744 253 82 66
-0.436343 0.0621081 0.105449 222 113 93
-0.436116 0.0550857 0.120703 255 79 56
-0.435466 0.0565177 0.12015 255 72 51
-0.434821 0.0579384 0.1196 255 70 53
-0.434556 0.0587659 0.118566 255 68 51
-0.434292 0.0595915 0.117533 255 67 50
-0.434215 0.0601256 0.116255 255 68 48
-0.434513 0.0600799 0.114478 255 69 48
-0.434813 0.0600332 0.11269 255 70 49
-0.434924 0.0602794 0.111148 255 71 49
-0.435037 0.0605268 0.109602 255 73 50
-0.435148 0.0607746 0.10805 255 69 51
-0.435071 0.0613166 0.106756 255 73 60
-0.435183 0.0615667 0.105197 227 100 82
-0.434202 0.0557319 0.121445 255 74 54
-0.433561 0.0571562 0.120891 255 76 52
-0.433484 0.0576905 0.119613 255 71 52
-0.433221 0.0585183 0.118578 255 71 50
-0.433143 0.0590519 0.117299 255 70 50
-0.433065 0.0595871 0.11602 255 70 50
-0.433361 0.0595397 0.114239 255 69 49
-0.433657 0.0594916 0.112449 255 68 48
-0.433767 0.0597376 0.110905 255 68 47
-0.433877 0.0599837 0.109356 255 71 49
-0.433987 0.0602319 0.107802 255 70 50
-0.433909 0.0607736 0.106506 255 68 56
-0.43402 0.0610236 0.104945 238 87 69
-0.433941 0.0615663 0.103645 211 115 94
-0.438963 0.0410789 0.129228 213 53 40
-0.437686 0.0435727 0.129354 216 47 37
-0.428036 0.0619948 0.131725 255 89 70
-0.427439 0.063347 0.131155 255 100 73
-0.427191 0.0641387 0.130145 255 84 76
-0.427116 0.0646542 0.128913 255 69 49
-0.431855 0.0574966 0.121387 255 74 51
-0.431962 0.0577358 0.119868 255 70 49
-0.431884 0.0582705 0.118591 255 67 46
-0.431806 0.0588041 0.117312 255 71 48
-0.431728 0.0593394 0.116032 255 71 49
-0.432391 0.0587033 0.113749 255 69 49
-0.432313 0.0592418 0.112461 255 70 49
-0.43242 0.0594874 0.110917 255 69 48
-0.432715 0.0594397 0.109109 255 68 49
-0.432823 0.0596875 0.107553 255 70 51
-0.432932 0.0599355 0.105992 255 66 53
-0.432852 0.060479 0.104692 249 76 59
-0.432774 0.061023 0.103391 213 112 90
-0.432331 0.0506557 0.13147 251 62 48
-0.429872 0.0550754 0.133156 255 71 56
-0.429256 0.0564784 0.132574 255 73 59
-0.428645 0.0578715 0.131994 255 77 59
-0.426817 0.0612381 0.132973 255 81 64
-0.426223 0.0625921 0.1324 255 83 66
-0.425635 0.0639378 0.13183 255 87 67
-0.425221 0.0649999 0.131043 255 73 56
-0.425145 0.065512 0.129817 255 71 50
-0.430522 0.0572487 0.121399 255 72 50
-0.430626 0.0574882 0.119881 255 71 49
-0.430548 0.0580222 0.118603 255 67 45
-0.430469 0.0585564 0.117324 255 71 47
-0.430757 0.0585049 0.115547 255 71 49
-0.431046 0.0584549 0.113761 255 69 49
-0.431152 0.0586987 0.112219 255 68 48
-0.431073 0.0592379 0.110929 255 67 47
-0.43155 0.0588951 0.108862 255 69 47
-0.431657 0.0591414 0.107304 255 69 47
-0.431763 0.0593894 0.105741 255 67 50
-0.431684 0.0599329 0.104438 254 65 55
-0.431604 0.0604779 0.103135 216 101 83
-0.42953 0.0528202 0.133305 255 73 61
-0.428019 0.0557103 0.133839 255 74 59
-0.427412 0.0571052 0.133256 255 80 61
-0.426114 0.0596322 0.133562 255 89 68
-0.42518 0.0615585 0.133425 255 89 71
-0.424425 0.0631853 0.13307 255 82 65
-0.42418 0.063974 0.132062 255 81 61
-0.423936 0.0647609 0.131055 255 75 54
-0.423861 0.0652739 0.129829 255 73 51
-0.42446 0.0646893 0.127703 255 72 50
-0.430019 0.0560566 0.118916 255 71 50
-0.42994 0.0565925 0.117632 255 66 46
-0.429677 0.057425 0.116595 255 70 47
-0.429598 0.0579622 0.11531 255 70 48
-0.429702 0.0582051 0.113773 255 69 50
-0.429804 0.0584484 0.112231 255 69 49
-0.429726 0.0589877 0.11094 255 68 48
-0.430381 0.0583474 0.108614 255 67 49
-0.430486 0.0585945 0.107054 255 66 48
-0.430964 0.0582474 0.104957 255 66 47
-0.430882 0.0587934 0.10365 253 67 51
-0.430802 0.0593399 0.102342 224 90 70
-0.426529 0.0557584 0.134075 255 80 60
-0.425928 0.057151 0.133491 255 90 67
-0.424644 0.0596751 0.133795 255 91 73
-0.423719 0.0615985 0.133656 255 78 68
-0.423306 0.0626692 0.132864 255 76 59
-0.423062 0.0634592 0.131854 255 80 57
-0.422652 0.0645228 0.131067 255 76 55
-0.422576 0.065035 0.129841 255 74 49
-0.4225 0.0655475 0.128613 255 73 49
-0.428676 0.055807 0.118929 255 70 50
-0.428596 0.0563434 0.117644 255 65 47
-0.428516 0.05688 0.116358 255 68 48
-0.428436 0.0574178 0.115072 255 68 49
-0.428357 0.0579553 0.113785 255 68 48
-0.428458 0.0581989 0.112243 255 67 47
-0.428378 0.0587379 0.110952 255 67 48
-0.429026 0.0580964 0.108626 255 67 49
-0.429681 0.0574492 0.106276 255 64 47
-0.429785 0.057696 0.104703 255 64 47
-0.429704 0.0582425 0.103394 253 66 49
-0.429808 0.0584917 0.101814 236 82 60
-0.424697 0.0563872 0.134751 255 86 65
-0.424275 0.0574854 0.133947 255 84 65
-0.423346 0.059433 0.133807 255 77 59
-0.422428 0.0613581 0.133669 255 73 54
-0.422185 0.0621514 0.132657 255 73 55
-0.421942 0.0629433 0.131646 255 73 54
-0.421533 0.0640089 0.130859 255 73 50
-0.421291 0.0647961 0.129853 255 75 47
-0.427332 0.0555578 0.118941 255 70 48
-0.427252 0.0560943 0.117656 255 67 48
-0.427172 0.056631 0.116371 255 67 49
-0.427091 0.0571679 0.115084 255 69 50
-0.427011 0.0577052 0.113797 255 68 47
-0.42711 0.0579486 0.112255 255 65 45
-0.42703 0.0584876 0.110964 255 67 49
-0.427671 0.0578454 0.108638 255 67 51
-0.428502 0.0568965 0.106023 255 64 48
-0.428789 0.0568428 0.10418 255 63 48
-0.428706 0.0573909 0.102868 253 63 49
-0.428625 0.0579395 0.101555 242 74 59
-0.423389 0.0561437 0.134764 255 117 80
-0.4228 0.0575303 0.134181 255 101 69
-0.422048 0.0591922 0.13382 255 77 56
-0.421469 0.0605568 0.133243 255 76 53
-0.42106 0.0616324 0.132449 255 73 50
-0.420818 0.0624255 0.131438 255 72 47
-0.420741 0.0629398 0.130206 255 72 46
-0.420663 0.0634549 0.128973 255 71 47
-0.425827 0.0563811 0.116383 255 71 50
-0.425747 0.0569181 0.115096 255 68 49
-0.425666 0.0574559 0.113809 255 67 47
-0.425763 0.0576983 0.112267 255 65 46
-0.425682 0.0582371 0.110976 255 66 49
-0.426857 0.0566978 0.107867 255 66 50
-0.427502 0.0560415 0.105503 255 64 48
-0.427602 0.0562875 0.103924 255 64 47
-0.427521 0.0568363 0.10261 254 63 49
-0.427621 0.057084 0.101022 245 71 58
-0.423548 0.0495199 0.146379 202 44 32
-0.423298 0.0503387 0.145343 212 49 32
-0.423219 0.0508579 0.144098 215 41 29
-0.421496 0.0572876 0.134193 255 90 66
-0.420917 0.0586658 0.133613 255 76 54
-0.420506 0.0597512 0.132815 255 74 53
-0.420097 0.0608317 0.132021 255 73 51
-0.419691 0.0619072 0.131229 255 73 47
-0.419614 0.0624219 0.129995 255 70 46
-0.424496 0.05691 0.113569 255 64 46
-0.424415 0.0574485 0.112279 255 64 47
-0.42451 0.057692 0.110732 255 65 47
-0.425496 0.0564458 0.107879 255 63 47
-0.426315 0.0554849 0.105249 255 64 47
-0.426415 0.0557307 0.103666 255 64 46
-0.426332 0.0562798 0.10235 254 64 48
-0.42643 0.0565278 0.100761 247 70 57
-0.422723 0.0468975 0.151163 141 66 57
-0.422474 0.047719 0.150123 167 56 51
-0.422395 0.0482369 0.14888 187 47 42
-0.422146 0.0490564 0.147842 201 48 35
-0.422068 0.0495752 0.1466 207 41 32
-0.421988 0.0500947 0.145357 217 37 18
-0.42191 0.050614 0.144112 223 43 25
-0.420525 0.0564676 0.133764 255 78 59
-0.420113 0.0575646 0.132963 255 74 52
-0.419869 0.058371 0.131941 255 72 51
-0.42079 0.0571637 0.129341 255 72 49
-0.423242 0.056902 0.112037 255 65 45
-0.423335 0.0571445 0.110487 255 64 46
-0.424313 0.055893 0.107629 255 62 46
-0.425126 0.0549279 0.104993 255 61 44
-0.425222 0.0551725 0.103409 255 62 45
-0.425319 0.0554188 0.101819 255 63 48
-0.425235 0.0559697 0.100499 250 68 54
-0.421324 0.0464387 0.152619 135 62 54
-0.421244 0.0469567 0.151379 167 50 46
-0.421164 0.0474749 0.150137 188 43 38
-0.421085 0.0479929 0.148894 202 44 31
-0.420838 0.0488126 0.147856 206 39 27
-0.420926 0.0490314 0.146407 216 37 21
-0.41512 0.0615633 0.145787 255 79 64
-0.415043 0.0620647 0.144586 255 89 70
-0.417334 0.0584 0.140287 255 100 69
-0.419629 0.0551223 0.134583 255 77 60
-0.419217 0.0562249 0.133777 255 73 54
-0.419138 0.0567454 0.132531 255 72 51
-0.419556 0.0563969 0.130607 255 71 49
-0.424016 0.0538192 0.106053 255 63 45
-0.424112 0.054063 0.104469 255 61 46
-0.424027 0.0546126 0.10315 255 62 46
-0.423943 0.0551632 0.101831 255 63 47
-0.423859 0.055715 0.100511 251 68 54
-0.419593 0.0465882 0.154466 122 61 54
-0.419847 0.0464989 0.152833 155 51 44
-0.420103 0.046409 0.151192 185 43 36
-0.419775 0.0477494 0.148909 207 35 19
-0.414398 0.0599996 0.146403 255 82 60
-0.414166 0.0607775 0.145399 255 86 72
-0.41378 0.0618288 0.144598 255 96 76
-0.416048 0.0581607 0.1403 255 81 66
-0.416609 0.0575367 0.138225 255 74 56
-0.417989 0.0554619 0.135036 255 73 53
-0.418238 0.0553996 0.133346 255 71 52
-0.418323 0.0556303 0.131872 255 71 50
-0.419575 0.0538018 0.128794 255 70 49
-0.423092 0.053194 0.103942 255 62 45
-0.422829 0.0540522 0.102891 255 62 44
-0.422922 0.0542976 0.101297 255 63 46
-0.422659 0.0551546 0.100248 253 68 55
-0.417225 0.0479345 0.157069 110 62 55
-0.41796 0.0469487 0.154873 141 55 50
-0.41854 0.0462545 0.152847 177 44 37
-0.413285 0.0594856 0.146216 255 86 65
-0.413053 0.0602659 0.145211 255 86 68
-0.414525 0.0579768 0.141954 255 75 55
-0.414919 0.0576377 0.140103 255 73 55
-0.415316 0.0572961 0.138238 255 72 52
-0.416358 0.0557994 0.135488 255 71 49
-0.41709 0.0548642 0.133137 255 70 48
-0.417009 0.0553859 0.131885 255 70 47
-0.418082 0.0538511 0.129037 255 69 48
-0.418333 0.0537857 0.127308 255 71 48
-0.418753 0.0534218 0.125335 255 71 47
-0.419347 0.052755 0.123106 255 67 45
-0.419264 0.053289 0.121825 255 66 45
-0.418675 0.0547208 0.12127 255 69 47
-0.417179 0.0581328 0.12065 255 63 44
-0.416933 0.0589514 0.119624 255 63 44
-0.417016 0.0591909 0.118115 255 67 45
-0.422066 0.0523196 0.103412 255 62 42
-0.421627 0.053489 0.102631 255 64 41
-0.421719 0.0537343 0.101035 255 64 44
-0.421456 0.0545933 0.0999844 253 69 54
-0.416012 0.0471829 0.158307 109 62 57
-0.414818 0.0497656 0.158415 135 57 50
-0.415693 0.0485021 0.156052 169 47 37
-0.412861 0.0573458 0.146435 255 79 68
-0.412322 0.0586923 0.145827 255 104 75
-0.412703 0.058358 0.144008 255 77 57
-0.413243 0.0577387 0.141967 255 75 55
-0.413631 0.0573986 0.140116 255 72 52
-0.413708 0.0576257 0.138677 255 68 49
-0.415053 0.0555564 0.135501 255 71 50
-0.415454 0.055204 0.133594 255 71 48
-0.415696 0.0551422 0.131898 255 72 47
-0.416265 0.0544919 0.129737 255 72 48
-0.416839 0.0538363 0.127554 255 69 46
-0.417087 0.0537709 0.125818 255 67 45
-0.417336 0.0537055 0.124074 255 65 44
-0.417586 0.0536402 0.12232 255 66 45
-0.417337 0.0544721 0.121283 255 66 47
-0.416923 0.0555977 0.120489 255 64 45
-0.416018 0.0575959 0.120422 255 63 44
-0.415609 0.0587054 0.119636 255 64 45
-0.415689 0.0589444 0.118127 255 65 44
-0.421036 0.0514415 0.102879 255 61 42
-0.420598 0.0526165 0.102098 255 60 41
-0.420512 0.0531698 0.100772 255 60 46
-0.42025 0.0540313 0.0997207 254 69 57
-0.412531 0.0510636 0.160941 139 60 56
-0.412452 0.0515652 0.159737 166 48 39
-0.413458 0.0500322 0.157214 189 43 30
-0.411128 0.0579521 0.147049 255 97 71
-0.411202 0.0581758 0.145639 255 84 63
-0.411427 0.0581204 0.144021 255 73 52
-0.411806 0.0577827 0.142187 255 69 51
-0.412188 0.0574428 0.140339 255 69 49
-0.412262 0.0576702 0.138902 255 69 47
-0.413432 0.0558933 0.13595 255 69 48
-0.413985 0.0552519 0.133829 255 71 47
-0.414062 0.0554817 0.132359 255 70 47
-0.414621 0.0548347 0.130205 255 67 48
-0.4147 0.0550656 0.128719 255 67 47
-0.415429 0.0541176 0.126299 255 66 45
-0.415673 0.0540534 0.12456 255 64 44
-0.416247 0.0533912 0.122332 255 65 45
-0.416164 0.0539247 0.121053 255 66 46
-0.415751 0.0550535 0.120259 255 64 44
-0.415504 0.0558818 0.119226 255 65 45
-0.414607 0.0578788 0.119165 255 63 44
-0.414524 0.058408 0.117896 255 62 43
-0.420177 0.0502449 0.102069 255 62 41
-0.419563 0.0517392 0.101562 255 59 42
-0.419301 0.0526033 0.100508 255 62 49
-0.41904 0.0534668 0.099456 254 72 57
-0.410053 0.0531225 0.162413 168 57 55
-0.409975 0.0536193 0.161221 188 44 34
-0.411253 0.0515414 0.15836 202 41 28
-0.410237 0.0566474 0.147873 255 89 64
-0.409857 0.0577147 0.147062 255 83 65
-0.409778 0.0582193 0.145853 255 75 55
-0.409849 0.058444 0.144441 255 74 52
-0.410372 0.0578264 0.142407 255 69 49
-0.410748 0.0574875 0.140562 255 69 48
-0.410974 0.0574303 0.138915 255 70 49
-0.411818 0.0562278 0.136397 255 71 50
-0.412518 0.0552996 0.134063 255 72 49
-0.412437 0.0558188 0.132817 255 72 50
-0.412355 0.0563383 0.13157 255 66 50
-0.412904 0.0556982 0.129417 255 66 49
-0.413298 0.0553454 0.127473 255 69 48
-0.414988 0.0533765 0.120824 255 65 43
-0.414577 0.0545083 0.120029 255 66 43
-0.414331 0.0553379 0.118994 255 64 44
-0.414084 0.0561669 0.117961 255 63 42
-0.419134 0.0493552 0.101529 255 59 40
-0.418871 0.0502282 0.100469 255 57 42
-0.418435 0.0514124 0.0996894 255 60 49
-0.418 0.0525908 0.0989127 255 71 56
-0.408352 0.0537387 0.162966 188 53 51
-0.408715 0.0533844 0.161235 202 41 31
-0.408963 0.0564108 0.147886 255 84 63
-0.408586 0.0574786 0.147076 255 76 57
-0.408357 0.058262 0.146067 255 72 49
-0.40813 0.0590444 0.145061 255 73 52
-0.408494 0.0587121 0.143242 255 71 52
-0.409162 0.0578139 0.140992 255 72 50
-0.409685 0.0571904 0.138928 255 69 47
-0.41052 0.0559862 0.13641 255 70 47
-0.410901 0.0556368 0.134516 255 70 47
-0.410819 0.0561557 0.133273 255 73 49
-0.410428 0.0572492 0.132474 255 68 49
-0.410347 0.0577663 0.131232 255 69 50
-0.41182 0.0553929 0.127716 255 70 48
-0.413724 0.0533619 0.11931 255 64 44
-0.413316 0.0544944 0.118517 255 62 45
-0.413393 0.0547319 0.116989 255 62 43
-0.417912 0.0487795 0.101264 255 55 40
-0.417823 0.0493377 0.0999247 255 53 41
-0.417388 0.0505275 0.0991443 255 56 48
-0.417127 0.0513986 0.0980869 255 72 55
-0.406023 0.0552564 0.165577 189 59 62
-0.407097 0.053504 0.16298 201 45 39
-0.407541 0.056456 0.148098 255 74 56
-0.407167 0.0575227 0.147288 255 75 52
-0.40694 0.0583047 0.146281 255 72 47
-0.40686 0.0588086 0.145074 255 71 50
-0.40678 0.0593121 0.143866 255 71 52
-0.40773 0.0578577 0.141214 255 71 50
-0.408395 0.0569511 0.138941 255 69 46
-0.409373 0.055456 0.136206 255 69 45
-0.409597 0.0553942 0.134529 255 69 46
-0.409208 0.0564902 0.133727 255 72 48
-0.408823 0.0575799 0.132928 255 70 48
-0.408589 0.0583807 0.131911 255 68 47
-0.40881 0.0583275 0.130226 255 67 46
-0.412542 0.0528113 0.119078 255 64 43
-0.412135 0.0539472 0.118285 255 60 43
-0.412372 0.0538833 0.116505 255 57 41
-0.416686 0.0482018 0.100999 255 56 39
-0.416424 0.049078 0.0999366 255 52 39
-0.416335 0.0496378 0.0985964 255 59 46
-0.416074 0.0505119 0.0975368 255 73 55
-0.404638 0.0553023 0.165765 198 43 39
-0.406268 0.0562188 0.148112 255 71 51
-0.405751 0.0575661 0.1475 255 72 49
-0.40567 0.0580689 0.146294 255 73 47
-0.405591 0.0585722 0.145087 255 72 48
-0.40551 0.0590755 0.143879 255 70 50
-0.406449 0.0576198 0.141227 255 70 49
-0.407255 0.0564253 0.138741 255 69 47
-0.408374 0.0546341 0.135784 255 68 46
-0.408292 0.055152 0.134542 255 70 48
-0.407756 0.0565351 0.133959 255 70 49
-0.407224 0.0579093 0.133381 255 69 46
-0.407142 0.058424 0.132145 255 67 46
-0.407208 0.0586558 0.130686 255 66 46
-0.411196 0.0525611 0.11909 255 65 44
-0.410951 0.0533976 0.118051 255 61 43
-0.411025 0.0536337 0.116518 255 60 41
-0.415285 0.0479423 0.101011 255 54 40
-0.415196 0.0485011 0.0996695 255 53 38
-0.415106 0.0490607 0.098327 255 60 45
-0.414847 0.0499375 0.0972665 255 75 57
-0.402232 0.0570633 0.168491 199 45 43
-0.405366 0.0549097 0.148938 255 74 52
-0.404994 0.0559816 0.148125 255 72 52
-0.404482 0.0573297 0.147513 255 71 48
-0.404401 0.0578325 0.146307 255 72 47
-0.40432 0.0583356 0.1451 255 72 48
-0.404383 0.0585607 0.143689 255 71 49
-0.405459 0.0568143 0.140822 255 71 49
-0.405964 0.0561849 0.138754 255 70 48
-0.407221 0.0541003 0.135578 255 69 47
-0.407137 0.0546184 0.134334 255 71 49
-0.406604 0.0560057 0.133752 255 68 46
-0.405928 0.0576682 0.133393 255 68 45
-0.405845 0.0581827 0.132157 255 69 46
-0.405763 0.0586981 0.130921 255 66 46
-0.410008 0.0520091 0.118857 255 63 42
-0.409606 0.0531482 0.118063 255 64 42
-0.409677 0.0533833 0.11653 255 62 41
-0.409591 0.0539201 0.115242 255 59 42
-0.410457 0.0526479 0.112432 255 59 41
-0.414144 0.0468035 0.102088 255 58 43
-0.413885 0.0476823 0.101023 255 54 40
-0.413795 0.0482417 0.0996817 255 56 42
-0.413705 0.0488013 0.0983391 255 62 47
-0.413615 0.0493604 0.0969954 255 77 57
-0.399402 0.0600671 0.170506 211 57 48
-0.40409 0.054672 0.148951 255 70 52
-0.404008 0.055177 0.14774 255 71 50
-0.403497 0.0565314 0.147128 255 72 48
-0.403273 0.0573166 0.14612 255 71 48
-0.403192 0.0578201 0.144911 255 71 47
-0.40368 0.0572001 0.142883 255 73 49
-0.404463 0.0560054 0.140416 255 73 49
-0.405111 0.0550825 0.138127 255 70 47
-0.406064 0.0535652 0.135372 255 72 46
-0.40598 0.0540838 0.134127 255 70 47
-0.405598 0.0551843 0.133324 255 67 45
-0.404778 0.0571414 0.133186 255 69 45
-0.404548 0.0579421 0.13217 255 69 46
-0.404611 0.0581728 0.130711 255 67 45
-0.40482 0.05812 0.129022 255 65 45
-0.408417 0.0525971 0.117829 255 63 41
-0.40833 0.053133 0.116542 255 61 42
-0.4084 0.0533691 0.115004 255 59 42
-0.409575 0.0514793 0.111675 255 59 41
-0.412407 0.0471835 0.102652 255 56 43
-0.412151 0.0480599 0.10159 255 54 39
-0.412227 0.0483007 0.0999731 255 57 42
-0.412304 0.0485411 0.098351 255 60 46
-0.412212 0.0491008 0.0970073 253 79 61
-0.396344 0.0632949 0.174073 207 54 49
-0.396268 0.0637645 0.172947 213 45 34
-0.402956 0.0541489 0.148766 255 74 49
-0.403016 0.0543684 0.147352 255 71 48
-0.402649 0.0554446 0.14654 255 69 48
-0.402424 0.0562335 0.145529 255 70 49
-0.402484 0.0564567 0.144112 255 70 47
-0.403403 0.0549691 0.141446 255 67 48
-0.403898 0.0543277 0.139374 255 72 48
-0.404106 0.0542623 0.137711 255 73 48
-0.404904 0.0530281 0.135166 255 70 45
-0.40482 0.0535479 0.133919 255 70 46
-0.404735 0.0540677 0.132671 255 69 47
-0.404209 0.0554597 0.132092 255 67 45
-0.403396 0.0574161 0.131961 255 67 45
-0.403312 0.0579318 0.130723 255 66 44
-0.407225 0.0520448 0.117594 255 63 43
-0.407137 0.0525816 0.116306 255 61 43
-0.408142 0.0509902 0.113246 255 61 43
-0.408211 0.0512259 0.111687 255 60 42
-0.408123 0.0517698 0.110383 255 58 40
-0.409791 0.0489062 0.10617 255 57 39
-0.410679 0.0475628 0.103214 255 54 41
-0.410589 0.0481196 0.101878 255 53 39
-0.410662 0.0483585 0.100263 255 56 41
-0.410736 0.0485991 0.0986439 255 57 47
-0.41081 0.0488411 0.0970193 251 80 60
-0.39498 0.0631194 0.175524 202 46 44
-0.39478 0.0638441 0.174558 207 39 31
-0.394703 0.064312 0.173436 209 34 23
-0.394628 0.0647795 0.172312 229 36 25
-0.40196 0.0533366 0.148381 255 71 47
-0.401736 0.0541299 0.147366 255 70 47
-0.401653 0.0546361 0.14615 255 71 49
-0.402891 0.053506 0.138961 255 68 48
-0.403533 0.0525601 0.136643 255 70 46
-0.403888 0.0521949 0.134738 255 67 46
-0.403656 0.05301 0.13371 255 65 45
-0.403571 0.0535311 0.132461 255 67 46
-0.403485 0.0540517 0.13121 255 65 45
-0.406029 0.0514905 0.117359 255 62 45
-0.405788 0.052331 0.116318 255 62 43
-0.40678 0.0507373 0.113258 255 61 42
-0.406848 0.0509733 0.1117 255 59 41
-0.406603 0.0518228 0.110654 255 57 40
-0.40777 0.0499006 0.107249 255 54 37
-0.408157 0.0495148 0.105127 255 56 37
-0.408707 0.048811 0.102714 255 54 40
-0.409102 0.0484172 0.100553 255 52 41
-0.409173 0.0486581 0.0989363 255 59 46
-0.409407 0.0485815 0.0970313 249 80 61
-0.393303 0.0639233 0.176158 205 35 27
-0.393105 0.064643 0.175195 215 33 25
-0.393028 0.0651086 0.174078 230 43 32
-0.393194 0.0650678 0.172643 247 58 41
-0.393361 0.0650257 0.171201 254 71 51
-0.400596 0.0536042 0.147178 255 70 46
-0.400373 0.0543977 0.146163 255 69 47
-0.402661 0.0514304 0.136001 255 67 44
-0.402721 0.0516548 0.13453 255 65 45
-0.402489 0.0524717 0.133501 255 63 44
-0.402549 0.0526976 0.132026 255 66 45
-0.403924 0.0527516 0.118604 255 61 45
-0.40459 0.0517775 0.116081 255 61 42
-0.404502 0.0523151 0.11479 255 60 39
-0.404717 0.052248 0.112991 255 59 38
-0.404934 0.0521798 0.111181 255 57 39
-0.405459 0.0515006 0.108841 255 54 36
-0.40599 0.0508142 0.106476 255 55 36
-0.406525 0.0501212 0.104085 255 54 40
-0.407546 0.0484755 0.100842 255 51 41
-0.407614 0.0487158 0.0992277 255 64 46
-0.407844 0.0486391 0.0973255 245 83 63
-0.391879 0.0642132 0.17648 219 44 33
-0.391444 0.0654364 0.175827 238 45 36
-0.391367 0.0658997 0.174715 249 60 44
-0.391291 0.0663633 0.173601 254 68 51
-0.391572 0.0660722 0.172012 255 73 56
-0.391854 0.065781 0.170412 255 76 59
-0.399731 0.0524998 0.146586 255 73 50
-0.39923 0.0538727 0.145974 255 71 49
-0.399285 0.0540936 0.144552 255 68 48
-0.399618 0.0537383 0.142711 255 67 47
-0.399674 0.053961 0.141276 255 69 49
-0.400291 0.0530229 0.138987 255 69 48
-0.401347 0.0511866 0.136014 255 67 44
-0.40155 0.0511127 0.134322 255 68 45
-0.401319 0.0519316 0.133292 255 69 43
-0.401378 0.0521578 0.131814 255 65 44
-0.40267 0.0519688 0.119898 255 64 45
-0.402581 0.052502 0.118616 255 62 44
-0.403089 0.05183 0.116343 255 60 41
-0.40315 0.052064 0.114802 255 59 39
-0.403061 0.0526025 0.11351 255 57 37
-0.403273 0.0525361 0.111706 255 55 37
-0.403485 0.0524697 0.109893 255 54 36
-0.404002 0.051792 0.107545 255 54 36
-0.404678 0.0507977 0.104904 255 55 41
-0.405208 0.0501043 0.102502 255 53 43
-0.406059 0.048773 0.0995182 255 69 50
