ply
format ascii 1.0
element vertex 1234
property float x
property float y
property float z
property uchar diffuse_red
property uchar diffuse_green
property uchar diffuse_blue
end_header
-0.400071 0.0796587 0.170425 255 112 83
-0.399272 0.0807556 0.170918 255 93 77
-0.399222 0.0821393 0.171085 255 84 68
-0.398798 0.0833764 0.171414 245 108 86
-0.399121 0.0849097 0.171419 228 127 101
-0.413497 0.0661956 0.161183 190 103 85
-0.412218 0.0672316 0.161901 200 98 82
-0.41176 0.0685291 0.162254 213 84 69
-0.410494 0.0695526 0.162965 220 67 59
-0.408839 0.0704331 0.163848 224 52 43
-0.407597 0.071442 0.164546 230 45 35
-0.406363 0.0724442 0.16524 245 63 43
-0.405529 0.073578 0.165756 253 74 55
-0.405478 0.0749868 0.165925 255 81 63
-0.403488 0.0756907 0.16695 255 83 63
-0.400764 0.0761067 0.168296 255 92 67
-0.399582 0.0770748 0.168961 255 105 84
-0.399157 0.0783192 0.169293 255 104 94
-0.398359 0.0794185 0.169788 255 101 81
-0.397937 0.0806573 0.170118 255 73 63
-0.397886 0.0820394 0.170284 255 74 58
-0.397836 0.0834226 0.170451 255 86 69
-0.398157 0.084956 0.170455 239 115 90
-0.398853 0.0866461 0.170296 220 126 102
-0.413366 0.0650675 0.159635 191 98 82
-0.412084 0.0661098 0.160361 200 88 74
-0.411217 0.0672779 0.160899 211 73 62
-0.40955 0.068173 0.161796 218 55 42
-0.4079 0.0690597 0.162684 221 41 35
-0.406266 0.0699384 0.163564 231 42 35
-0.40543 0.0710797 0.164084 243 57 40
-0.404598 0.0722161 0.164603 253 68 51
-0.402613 0.0729357 0.165635 255 70 56
-0.402562 0.0743358 0.165804 255 73 59
-0.399846 0.0747629 0.16716 255 83 65
-0.399042 0.0758739 0.167662 255 104 80
-0.398243 0.0769804 0.168161 255 106 89
-0.397447 0.0780823 0.168658 255 91 86
-0.397025 0.0793218 0.168989 255 93 78
-0.396975 0.0807031 0.169155 255 71 49
-0.396924 0.0820854 0.169321 255 72 52
-0.397244 0.0836164 0.169323 255 74 58
-0.397565 0.0851521 0.169326 253 96 76
-0.397886 0.0866927 0.169328 228 119 94
-0.412822 0.0638045 0.158267 193 96 81
-0.411133 0.0647219 0.159184 205 79 68
-0.410269 0.0658927 0.159725 210 60 51
-0.409409 0.0670585 0.160263 216 46 37
-0.407755 0.0679525 0.161161 222 44 30
-0.405331 0.068572 0.162406 230 45 33
-0.404497 0.0697159 0.16293 246 56 44
-0.403667 0.070855 0.163451 254 73 54
-0.402072 0.0717176 0.164317 255 72 58
-0.399356 0.0721665 0.165687 255 78 64
-0.398928 0.0734198 0.166024 255 79 63
-0.398501 0.0746708 0.166359 255 99 75
-0.397329 0.0756423 0.16703 255 104 79
-0.396536 0.0767467 0.16753 255 85 70
-0.395746 0.0778465 0.168027 255 75 64
-0.396064 0.0793676 0.168027 255 76 59
-0.396013 0.080749 0.168193 255 72 50
-0.396331 0.0822775 0.168193 255 71 52
-0.396651 0.0838107 0.168193 255 69 52
-0.396971 0.0853487 0.168194 255 83 62
-0.396919 0.0867392 0.168361 234 117 90
-0.411867 0.0624109 0.157086 193 93 79
-0.410589 0.0634632 0.157822 203 69 62
-0.41013 0.0647681 0.15818 209 47 37
-0.409267 0.065939 0.158723 217 38 22
-0.40841 0.0671048 0.159264 229 44 31
-0.407158 0.0681319 0.159984 240 65 48
-0.406708 0.0694212 0.160337 248 73 53
-0.404292 0.0700304 0.161588 255 74 60
-0.403072 0.0710361 0.162291 255 74 62
-0.401094 0.0717634 0.163338 255 82 65
-0.398011 0.0720774 0.164888 255 91 81
-0.397585 0.0733292 0.165225 255 89 72
-0.396788 0.0744418 0.16573 255 99 76
-0.395994 0.0755497 0.166233 255 88 68
-0.394837 0.0765142 0.166901 255 75 56
-0.394785 0.0778921 0.167066 255 72 53
-0.394734 0.079271 0.167231 255 70 52
-0.395419 0.0809393 0.167063 255 69 50
-0.395367 0.0823236 0.167229 255 68 52
-0.396055 0.0840056 0.16706 255 70 52
-0.396004 0.0853952 0.167227 255 74 58
-0.396323 0.0869382 0.167226 247 98 77
-0.396271 0.0883315 0.167393 221 121 99
-0.410913 0.061018 0.155905 193 80 70
-0.409233 0.0619482 0.156833 202 57 51
-0.40918 0.0633808 0.157004 212 43 35
-0.400881 0.072081 0.162007 255 110 86
-0.39667 0.0719884 0.164091 255 93 92
-0.395874 0.0731035 0.164599 255 84 70
-0.395082 0.0742139 0.165104 255 76 63
-0.394295 0.0753198 0.165607 255 72 56
-0.393511 0.0764211 0.166108 255 72 52
-0.393459 0.0777975 0.166273 255 72 51
-0.393773 0.0793168 0.16627 255 69 50
-0.394455 0.0809853 0.166099 255 68 50
-0.395141 0.0826631 0.165927 255 71 51
-0.395089 0.0840519 0.166093 255 72 52
-0.395407 0.0855924 0.16609 255 69 53
-0.395725 0.0871377 0.166088 253 82 66
-0.395673 0.0885328 0.166255 222 113 93
-0.409146 0.0593781 0.155107 190 72 66
-0.40748 0.0603136 0.156037 201 51 45
-0.407426 0.0617416 0.156208 212 48 39
-0.395702 0.0720338 0.163123 255 79 56
-0.394539 0.0730137 0.163805 255 72 51
-0.393385 0.0739872 0.164481 255 70 53
-0.392968 0.0752279 0.164815 255 68 51
-0.392552 0.0764665 0.165148 255 67 50
-0.3925 0.077843 0.165312 255 68 48
-0.393177 0.0795049 0.165139 255 69 48
-0.393859 0.0811761 0.164965 255 70 49
-0.394174 0.0827093 0.16496 255 71 49
-0.394491 0.0842473 0.164956 255 73 50
-0.394808 0.0857901 0.164951 255 69 51
-0.394755 0.0871844 0.165118 255 73 60
-0.395073 0.0887347 0.165114 227 100 82
-0.411462 0.0589745 0.152374 191 69 55
-0.406534 0.0589322 0.154866 200 50 45
-0.404494 0.0597425 0.15598 209 49 40
-0.40444 0.0611614 0.156149 216 53 44
-0.393627 0.0716777 0.162675 255 74 54
-0.392476 0.0726553 0.163356 255 76 52
-0.392424 0.0740325 0.16352 255 71 52
-0.392008 0.0752733 0.163855 255 71 50
-0.391956 0.0766507 0.164018 255 70 50
-0.391903 0.078029 0.164182 255 70 50
-0.39258 0.0796936 0.164006 255 69 49
-0.39326 0.0813675 0.163828 255 68 48
-0.393575 0.0829029 0.163822 255 68 47
-0.393891 0.0844432 0.163815 255 71 49
-0.394207 0.0859882 0.163809 255 70 50
-0.394154 0.0873844 0.163975 255 68 56
-0.394472 0.0889371 0.16397 238 87 69
-0.394419 0.0903369 0.164136 211 115 94
-0.404739 0.0587337 0.154248 207 47 38
-0.4035 0.059788 0.154986 213 53 40
-0.401105 0.060466 0.156278 216 47 37
-0.382903 0.0641148 0.165947 255 89 70
-0.381829 0.0650842 0.166592 255 100 73
-0.381439 0.0662905 0.166911 255 84 76
-0.381388 0.0676179 0.167069 255 69 49
-0.39079 0.072433 0.162739 255 74 51
-0.3911 0.0739422 0.16273 255 70 49
-0.391047 0.0753187 0.162894 255 67 46
-0.390995 0.0766962 0.163057 255 71 48
-0.390942 0.0780746 0.163221 255 71 49
-0.392347 0.0800263 0.162696 255 69 49
-0.392294 0.0814135 0.162861 255 70 49
-0.392607 0.0829492 0.162853 255 69 48
-0.39329 0.0846395 0.162672 255 68 49
-0.393605 0.086187 0.162664 255 70 51
-0.393922 0.0877392 0.162656 255 66 53
-0.393868 0.08914 0.162822 249 76 59
-0.393815 0.0905417 0.162989 213 112 90
-0.392488 0.060869 0.159263 251 62 48
-0.387746 0.0606878 0.161693 255 71 56
-0.386633 0.0616853 0.162366 255 73 59
-0.385528 0.0626764 0.163034 255 77 59
-0.382023 0.0628269 0.164858 255 81 64
-0.380952 0.0638002 0.165506 255 83 66
-0.379889 0.0647674 0.166151 255 87 67
-0.379168 0.065849 0.16663 255 73 56
-0.379117 0.0671702 0.166786 255 71 50
-0.389832 0.0724781 0.16178 255 72 50
-0.39014 0.0739875 0.16177 255 71 49
-0.390087 0.0753641 0.161933 255 67 45
-0.390034 0.0767417 0.162096 255 71 47
-0.390706 0.0784024 0.161913 255 71 49
-0.39138 0.0800723 0.16173 255 69 49
-0.391692 0.0816054 0.16172 255 68 48
-0.391639 0.0829955 0.161885 255 67 47
-0.392686 0.0848364 0.161526 255 69 47
-0.393002 0.0863862 0.161516 255 69 47
-0.393317 0.0879407 0.161506 255 67 50
-0.393264 0.0893434 0.161672 254 65 55
-0.39321 0.090747 0.161839 216 101 83
-0.388631 0.0599625 0.159714 255 73 61
-0.385741 0.0603792 0.161261 255 74 59
-0.384639 0.0613743 0.161932 255 80 61
-0.382168 0.0618909 0.16327 255 89 68
-0.380414 0.0626344 0.164257 255 89 71
-0.379016 0.0634879 0.165069 255 82 65
-0.37863 0.064691 0.165388 255 81 61
-0.378245 0.0658922 0.165706 255 75 54
-0.378194 0.0672135 0.165863 255 73 51
-0.379483 0.0690336 0.16537 255 72 50
-0.390628 0.0745779 0.160108 255 71 50
-0.390575 0.0759616 0.160271 255 66 46
-0.390158 0.0772059 0.16061 255 70 47
-0.390104 0.0785898 0.160774 255 70 48
-0.390414 0.0801183 0.160763 255 69 50
-0.390724 0.0816516 0.160751 255 69 49
-0.390671 0.0830418 0.160916 255 68 48
-0.392082 0.0850338 0.160376 255 67 49
-0.392396 0.0865859 0.160365 255 66 48
-0.393453 0.0884541 0.159998 255 66 47
-0.393398 0.0898622 0.160164 253 67 51
-0.393344 0.0912713 0.160331 224 90 70
-0.384446 0.0603059 0.160488 255 80 60
-0.383351 0.0613001 0.161161 255 90 67
-0.380893 0.0618168 0.162504 255 91 73
-0.379149 0.06256 0.163494 255 78 68
-0.378426 0.0636492 0.16398 255 76 59
-0.37804 0.0648538 0.1643 255 80 57
-0.377322 0.0659354 0.164783 255 76 55
-0.377271 0.0672569 0.164939 255 74 49
-0.37722 0.0685792 0.165095 255 73 49
-0.389663 0.0746235 0.159142 255 70 50
-0.389609 0.0760072 0.159305 255 65 47
-0.389555 0.077392 0.159468 255 68 48
-0.389501 0.0787776 0.159632 255 68 49
-0.389448 0.0801643 0.159796 255 68 48
-0.389756 0.0816978 0.159783 255 67 47
-0.389702 0.083088 0.159947 255 67 48
-0.391108 0.0850805 0.159402 255 67 49
-0.392528 0.087094 0.158852 255 64 47
-0.392844 0.0886576 0.158838 255 64 47
-0.392789 0.0900676 0.159004 253 66 49
-0.393106 0.0916389 0.158991 236 82 60
-0.382463 0.0600002 0.160062 255 86 65
-0.381721 0.0611089 0.160563 255 84 65
-0.379961 0.0618601 0.16157 255 77 59
-0.378221 0.0626031 0.162565 255 73 54
-0.377835 0.063811 0.162888 255 73 55
-0.377449 0.0650169 0.16321 255 73 54
-0.376731 0.0660996 0.163695 255 73 50
-0.376348 0.0673002 0.164015 255 75 47
-0.388697 0.074669 0.158176 255 70 48
-0.388643 0.0760529 0.158339 255 67 48
-0.388589 0.0774377 0.158502 255 67 49
-0.388535 0.0788235 0.158665 255 69 50
-0.388481 0.0802103 0.158828 255 68 47
-0.388788 0.0817439 0.158814 255 65 45
-0.388734 0.0831343 0.158978 255 67 49
-0.390134 0.0851271 0.158428 255 67 51
-0.391919 0.0872957 0.157691 255 64 48
-0.392606 0.0890188 0.157494 255 63 48
-0.39255 0.0904325 0.15766 253 63 49
-0.392495 0.0918472 0.157827 242 74 59
-0.381523 0.0600436 0.159121 255 117 80
-0.380441 0.0610354 0.159796 255 101 69
-0.379028 0.0619034 0.160637 255 77 56
-0.377964 0.0628819 0.161301 255 76 53
-0.377242 0.0639732 0.161793 255 73 50
-0.376856 0.0651804 0.162116 255 72 47
-0.376804 0.0665076 0.162272 255 72 46
-0.376751 0.0678356 0.162428 255 71 47
-0.387623 0.0774835 0.157535 255 71 50
-0.387569 0.0788694 0.157698 255 68 49
-0.387514 0.0802563 0.157861 255 67 47
-0.38782 0.0817901 0.157845 255 65 46
-0.387765 0.0831807 0.158008 255 66 49
-0.390258 0.085629 0.156909 255 66 50
-0.391678 0.0876533 0.156344 255 64 48
-0.391993 0.0892238 0.156326 255 64 47
-0.391938 0.0906394 0.156493 254 63 49
-0.392254 0.0922177 0.156475 245 71 58
-0.382494 0.0471016 0.155902 202 44 32
-0.382094 0.0483405 0.156237 212 49 32
-0.382041 0.0496808 0.156394 215 41 29
-0.379504 0.0610788 0.158858 255 90 66
-0.378433 0.0620642 0.159532 255 76 54
-0.377705 0.063162 0.16003 255 74 53
-0.376981 0.0642554 0.160526 255 73 51
-0.376261 0.0653444 0.16102 255 73 47
-0.376209 0.0666732 0.161176 255 70 46
-0.386906 0.0804466 0.156713 255 64 46
-0.386851 0.0818363 0.156876 255 64 47
-0.387156 0.0833751 0.156859 255 65 47
-0.38928 0.0856759 0.155931 255 63 47
-0.391065 0.0878564 0.155175 255 64 47
-0.39138 0.0894293 0.155156 255 64 46
-0.391324 0.0908469 0.155322 254 64 48
-0.391639 0.0924275 0.155303 247 70 57
-0.382112 0.0418829 0.154152 141 66 57
-0.381712 0.0431261 0.154489 167 56 51
-0.381659 0.0444645 0.154645 187 47 42
-0.38126 0.0457048 0.154981 201 48 35
-0.381207 0.0470435 0.155138 207 41 32
-0.381153 0.048383 0.155295 217 37 18
-0.3811 0.0497235 0.155452 223 43 25
-0.379247 0.0613567 0.157571 255 78 59
-0.378513 0.062462 0.158077 255 74 52
-0.378121 0.0636827 0.158408 255 72 51
-0.380113 0.0657573 0.157518 255 72 49
-0.386241 0.082029 0.155725 255 65 45
-0.386546 0.0835701 0.155706 255 64 46
-0.388667 0.0858754 0.154768 255 62 46
-0.39045 0.0880601 0.154004 255 61 44
-0.390764 0.0896353 0.153982 255 62 45
-0.391079 0.0912156 0.153961 255 63 48
-0.391022 0.0926379 0.154127 250 68 54
-0.380879 0.0404939 0.153235 135 62 54
-0.380825 0.0418306 0.153391 167 50 46
-0.380771 0.0431682 0.153547 188 43 38
-0.380718 0.0445068 0.153703 202 44 31
-0.38032 0.0457472 0.15404 206 39 27
-0.38061 0.0471867 0.154016 216 37 21
-0.369361 0.051736 0.160642 255 79 64
-0.369309 0.0530304 0.160793 255 89 70
-0.374115 0.0559343 0.158422 255 100 69
-0.379043 0.0602903 0.156121 255 77 60
-0.378307 0.0614002 0.156631 255 73 54
-0.378253 0.0627434 0.156788 255 72 51
-0.379223 0.0644514 0.156416 255 71 49
-0.38989 0.0868466 0.152663 255 63 45
-0.390204 0.0884215 0.15264 255 61 46
-0.390147 0.0898419 0.152805 255 62 46
-0.39009 0.0912633 0.152971 255 63 47
-0.390033 0.0926857 0.153138 251 68 54
-0.378963 0.0389277 0.152684 122 61 54
-0.379594 0.0404432 0.152476 155 51 44
-0.380229 0.0419671 0.152267 185 43 36
-0.379776 0.0445491 0.152761 207 35 19
-0.369461 0.0507874 0.159081 255 82 60
-0.36909 0.0519827 0.159399 255 86 72
-0.368402 0.053072 0.159884 255 96 76
-0.373191 0.0559768 0.157497 255 81 66
-0.374458 0.0577418 0.156959 255 74 56
-0.377421 0.0601013 0.155534 255 73 53
-0.378047 0.0616795 0.155335 255 71 52
-0.378333 0.0631461 0.155314 255 71 50
-0.381035 0.0654792 0.154032 255 70 49
-0.389956 0.0887847 0.151269 255 62 45
-0.389528 0.090049 0.151626 255 62 44
-0.389841 0.0916341 0.151601 255 63 46
-0.389413 0.0928967 0.151957 253 68 55
-0.375717 0.0370228 0.152859 110 62 55
-0.377347 0.038789 0.15211 141 55 50
-0.378655 0.0404851 0.151535 177 44 37
-0.36887 0.0509306 0.158 255 86 65
-0.368498 0.0521273 0.15832 255 86 68
-0.371666 0.0544856 0.156764 255 75 55
-0.372594 0.0561287 0.156398 255 73 55
-0.373529 0.0577847 0.156029 255 72 52
-0.375808 0.0599132 0.15495 255 71 49
-0.377444 0.0618415 0.154213 255 70 48
-0.377389 0.0631899 0.154369 255 70 47
-0.379736 0.0653995 0.15326 255 69 48
-0.380374 0.0670133 0.153053 255 71 48
-0.381365 0.0687648 0.152661 255 71 47
-0.382717 0.0706621 0.152081 255 67 45
-0.382661 0.0720421 0.152241 255 66 45
-0.381548 0.0730185 0.152957 255 69 47
-0.378659 0.0746816 0.154732 255 63 44
-0.37826 0.0759101 0.155071 255 63 44
-0.378548 0.0774127 0.15505 255 67 45
-0.389707 0.0891499 0.14989 255 62 42
-0.388907 0.0902566 0.150442 255 64 41
-0.38922 0.0918441 0.150416 255 64 44
-0.388792 0.0931082 0.150774 253 69 54
-0.374842 0.0357458 0.151776 109 62 57
-0.372472 0.0364576 0.153184 135 57 50
-0.374401 0.0382942 0.152263 169 47 37
-0.369611 0.0501778 0.156079 255 79 68
-0.368596 0.0511765 0.156746 255 104 75
-0.369504 0.0527924 0.156382 255 77 57
-0.370744 0.0545279 0.155842 255 75 55
-0.371668 0.0561713 0.155472 255 72 52
-0.371942 0.057604 0.15545 255 68 49
-0.37487 0.0599565 0.154011 255 71 50
-0.375824 0.0616486 0.153629 255 71 48
-0.376445 0.0632337 0.153425 255 72 47
-0.377753 0.0650731 0.152856 255 72 48
-0.379073 0.0669317 0.152282 255 69 46
-0.37971 0.0685523 0.152072 255 67 45
-0.38035 0.0701819 0.151861 255 65 44
-0.380993 0.0718206 0.151649 255 66 45
-0.380587 0.0730637 0.151995 255 66 47
-0.379834 0.074169 0.152524 255 64 45
-0.37805 0.0748619 0.153598 255 63 44
-0.377309 0.0759551 0.154119 255 64 45
-0.377595 0.0774579 0.154096 255 65 44
-0.389457 0.0895169 0.148505 255 61 42
-0.388655 0.0906257 0.149062 255 60 41
-0.388597 0.0920548 0.149228 255 60 46
-0.388168 0.0933203 0.149588 254 69 57
-0.369335 0.0346056 0.153353 139 60 56
-0.369282 0.0359019 0.153503 166 48 39
-0.371498 0.0378066 0.152413 189 43 30
-0.367735 0.0499159 0.155681 255 97 71
-0.368001 0.0513208 0.155659 255 84 63
-0.368587 0.0528344 0.155464 255 73 52
-0.369499 0.0544631 0.155094 255 69 51
-0.370417 0.0561044 0.154721 255 69 49
-0.370688 0.0575354 0.154698 255 69 47
-0.373266 0.0597692 0.153432 255 69 48
-0.374547 0.0615743 0.152868 255 71 47
-0.374827 0.0630375 0.152843 255 70 47
-0.376123 0.0648716 0.152272 255 67 48
-0.376407 0.0663497 0.152246 255 67 47
-0.378063 0.0683409 0.151485 255 66 45
-0.378697 0.0699661 0.151273 255 64 44
-0.380031 0.0718658 0.150686 255 65 45
-0.379975 0.0732436 0.150846 255 66 46
-0.379221 0.07435 0.151378 255 64 44
-0.378818 0.0755888 0.151723 255 65 45
-0.37704 0.076274 0.152802 255 63 44
-0.376984 0.0776419 0.15296 255 62 43
-0.389579 0.090047 0.146914 255 62 41
-0.388401 0.0909966 0.147674 255 59 42
-0.387972 0.0922659 0.148036 255 62 49
-0.387543 0.0935329 0.148398 254 72 57
-0.365882 0.0339882 0.153842 168 57 55
-0.365829 0.0352723 0.15399 188 44 34
-0.368635 0.037326 0.152561 202 41 28
-0.367512 0.0488552 0.154267 255 89 64
-0.366822 0.0499576 0.154766 255 83 65
-0.366768 0.05126 0.154917 255 75 55
-0.367032 0.0526674 0.154894 255 74 52
-0.368256 0.0543984 0.154347 255 69 49
-0.369168 0.0560376 0.153972 255 69 48
-0.369762 0.0575781 0.153771 255 70 49
-0.37167 0.0595829 0.152855 255 71 50
-0.373272 0.0615001 0.152108 255 72 49
-0.373217 0.0628423 0.152263 255 72 50
-0.373162 0.0641853 0.152418 255 66 50
-0.374446 0.0660216 0.151847 255 66 49
-0.375403 0.0677504 0.151454 255 69 48
-0.37936 0.0734239 0.149694 255 65 43
-0.378607 0.0745313 0.15023 255 66 43
-0.378204 0.0757716 0.150576 255 64 44
-0.377801 0.0770098 0.150922 255 63 42
-0.389326 0.0904187 0.145511 255 59 40
-0.388892 0.0916961 0.145878 255 57 42
-0.388087 0.0928062 0.146444 255 60 49
-0.387286 0.0939116 0.147007 255 71 56
-0.36404 0.0337846 0.153459 188 53 51
-0.364924 0.0353125 0.153084 202 41 31
-0.366596 0.0488968 0.153351 255 84 63
-0.365908 0.0499992 0.153852 255 76 57
-0.365538 0.0511993 0.154176 255 72 49
-0.365169 0.0523975 0.1545 255 73 52
-0.366062 0.0540151 0.154128 255 71 52
-0.367602 0.0558622 0.153401 255 72 50
-0.368836 0.0576208 0.152844 255 69 47
-0.370737 0.059626 0.151921 255 70 47
-0.37167 0.061309 0.151532 255 70 47
-0.371614 0.062648 0.151687 255 73 49
-0.370899 0.0637479 0.152203 255 68 49
-0.370844 0.0650855 0.152357 255 69 50
-0.374117 0.0676686 0.150689 255 70 48
-0.378687 0.0749871 0.148699 255 64 44
-0.377935 0.0760931 0.149237 255 62 45
-0.378224 0.0776142 0.149208 255 62 43
-0.388697 0.0906294 0.144305 255 55 40
-0.388637 0.0920727 0.144471 255 53 41
-0.38783 0.0931848 0.145042 255 56 48
-0.387398 0.0944591 0.145409 255 72 55
-0.360179 0.0304969 0.153992 170 80 99
-0.360733 0.0319157 0.153795 189 59 62
-0.363139 0.0338245 0.152556 201 45 39
-0.365364 0.0488387 0.152611 255 74 56
-0.364679 0.0499399 0.153113 255 75 52
-0.364311 0.0511388 0.153437 255 72 47
-0.364256 0.0524393 0.153587 255 71 50
-0.364202 0.0537406 0.153737 255 71 52
-0.366361 0.0557959 0.152656 255 71 50
-0.367909 0.0576635 0.151917 255 69 46
-0.370131 0.0597839 0.150805 255 69 45
-0.370733 0.0613524 0.150594 255 69 46
-0.370019 0.0624547 0.151113 255 72 48
-0.36931 0.0635525 0.151629 255 70 48
-0.368928 0.0647664 0.151962 255 68 47
-0.369525 0.0663449 0.151755 255 67 46
-0.378069 0.0751702 0.147541 255 64 43
-0.377317 0.0762772 0.148083 255 60 43
-0.377954 0.0779416 0.14786 255 57 41
-0.388066 0.0908407 0.143095 255 56 39
-0.387632 0.0921211 0.143465 255 52 39
-0.387571 0.0935654 0.143632 255 59 46
-0.387138 0.0948426 0.144001 255 73 55
-0.356355 0.0285348 0.154657 171 100 107
-0.357787 0.0301572 0.153955 187 61 69
-0.359537 0.0318772 0.153073 198 43 39
-0.364449 0.0488802 0.151695 255 71 51
-0.363453 0.0498808 0.152375 255 72 49
-0.363398 0.0511805 0.152524 255 73 47
-0.363344 0.052481 0.152674 255 72 48
-0.363289 0.0537825 0.152823 255 70 50
-0.36544 0.0558383 0.151735 255 70 49
-0.367305 0.0578178 0.150809 255 69 47
-0.369851 0.0600575 0.149502 255 68 46
-0.369795 0.0613958 0.149656 255 70 48
-0.368758 0.06238 0.150359 255 70 49
-0.367727 0.0633581 0.151057 255 69 46
-0.367672 0.0646894 0.15121 255 67 46
-0.367939 0.0661437 0.151182 255 66 46
-0.377102 0.0752158 0.146573 255 65 44
-0.376698 0.0764618 0.146925 255 61 43
-0.376986 0.0779874 0.146892 255 60 41
-0.387059 0.090889 0.142088 255 54 40
-0.386999 0.0923344 0.142254 255 53 38
-0.386938 0.0937808 0.14242 255 60 45
-0.386505 0.0950595 0.142792 255 75 57
-0.352618 0.0266179 0.155308 167 120 119
-0.352566 0.027851 0.155449 184 69 74
-0.356011 0.0299709 0.15358 199 45 43
-0.364219 0.0478162 0.150272 255 74 52
-0.363534 0.0489218 0.150779 255 72 52
-0.362541 0.0499224 0.151462 255 71 48
-0.362486 0.0512221 0.151611 255 72 47
-0.362431 0.0525228 0.15176 255 72 48
-0.362688 0.0539297 0.151733 255 71 49
-0.365154 0.0560983 0.150453 255 71 49
-0.366377 0.0578606 0.14988 255 70 48
-0.369242 0.0602165 0.148379 255 69 47
-0.369185 0.0615566 0.148532 255 71 49
-0.368148 0.0625415 0.14924 255 68 46
-0.366796 0.0634014 0.150125 255 68 45
-0.36674 0.0647329 0.150277 255 69 46
-0.366684 0.0660653 0.15043 255 66 46
-0.376481 0.0753994 0.145411 255 63 42
-0.375731 0.0765075 0.145958 255 64 42
-0.376018 0.0780333 0.145923 255 62 41
-0.375959 0.0794206 0.146082 255 59 42
-0.377989 0.0816841 0.145072 255 59 41
-0.386486 0.0896545 0.140708 255 58 43
-0.386053 0.0909373 0.141081 255 54 40
-0.385992 0.0923828 0.141247 255 56 42
-0.385931 0.0938294 0.141413 255 62 47
-0.38587 0.0952769 0.141578 255 77 57
-0.349527 0.0248794 0.155618 167 111 114
-0.349475 0.0261006 0.155757 184 64 69
-0.349705 0.0273929 0.155733 199 57 50
-0.351643 0.0291232 0.154719 211 57 48
-0.363302 0.0478578 0.149354 255 70 52
-0.363246 0.0491636 0.149503 255 71 50
-0.362251 0.0501658 0.150192 255 72 48
-0.361884 0.0513662 0.15052 255 71 48
-0.361829 0.0526685 0.150669 255 71 47
-0.363024 0.0543959 0.150101 255 73 49
-0.364866 0.0563596 0.149165 255 73 49
-0.366412 0.05824 0.1484 255 70 47
-0.368631 0.0603759 0.147253 255 72 46
-0.368574 0.0617177 0.147406 255 70 47
-0.367863 0.0628221 0.147932 255 67 45
-0.366186 0.0635636 0.149009 255 69 45
-0.365808 0.0647763 0.149345 255 69 46
-0.366073 0.066231 0.149314 255 67 45
-0.366661 0.0678144 0.1491 255 65 45
-0.375109 0.0766926 0.144796 255 63 41
-0.37505 0.0780792 0.144954 255 61 42
-0.375336 0.0796099 0.144918 255 59 42
-0.378066 0.0821733 0.1435 255 59 41
-0.384738 0.0893797 0.140117 255 56 43
-0.384308 0.0906597 0.14049 255 54 39
-0.384615 0.0922662 0.140448 255 57 42
-0.384924 0.0938779 0.140405 255 60 46
-0.384862 0.0953256 0.14057 253 79 61
-0.3476 0.0234334 0.155272 163 111 117
-0.34727 0.0245816 0.155573 182 77 73
-0.346941 0.025728 0.155875 195 64 62
-0.346613 0.0268728 0.156175 207 54 49
-0.346561 0.0280862 0.156314 213 45 34
-0.362698 0.0479983 0.148254 255 74 49
-0.362957 0.0494065 0.148221 255 71 48
-0.362273 0.0505121 0.148734 255 69 48
-0.361904 0.0517165 0.149064 255 70 49
-0.362161 0.0531285 0.149033 255 70 47
-0.364315 0.0551906 0.147905 255 67 48
-0.365537 0.0569541 0.147316 255 72 48
-0.366125 0.0585088 0.147096 255 73 48
-0.368018 0.0605357 0.146123 255 70 45
-0.367961 0.0618792 0.146277 255 70 46
-0.367903 0.0632237 0.14643 255 69 47
-0.366868 0.0642061 0.147146 255 67 45
-0.365196 0.0649403 0.148228 255 67 45
-0.365139 0.0662746 0.14838 255 66 44
-0.374485 0.0768782 0.143631 255 63 43
-0.374425 0.0782666 0.143789 255 61 43
-0.376795 0.0806694 0.142559 255 61 43
-0.377086 0.08222 0.142519 255 60 42
-0.377026 0.0836253 0.14268 255 58 40
-0.380879 0.0867245 0.14061 255 57 39
-0.382998 0.0891063 0.13953 255 54 41
-0.382937 0.0905455 0.139695 255 53 39
-0.383242 0.0921499 0.13965 255 56 41
-0.383548 0.0937595 0.139606 255 57 47
-0.383854 0.0953743 0.139562 251 80 60
-0.345965 0.0220646 0.154766 165 108 119
-0.345638 0.0232098 0.155067 181 88 74
-0.345586 0.0244194 0.155205 193 60 64
-0.34526 0.0255624 0.155505 202 46 44
-0.344934 0.0267035 0.155805 207 39 31
-0.344882 0.027913 0.155943 209 34 23
-0.344831 0.0291233 0.156081 229 36 25
-0.362407 0.0482386 0.146967 255 71 47
-0.362037 0.0494483 0.1473 255 70 47
-0.361981 0.0507584 0.147449 255 71 49
-0.365248 0.0572197 0.14601 255 68 48
-0.366809 0.0591216 0.145219 255 70 46
-0.367731 0.0608129 0.1448 255 67 46
-0.367346 0.0620412 0.145144 255 65 45
-0.367288 0.0633874 0.145298 255 67 46
-0.36723 0.0647346 0.145451 255 65 45
-0.373859 0.0770643 0.142462 255 62 45
-0.373456 0.0783126 0.142819 255 62 43
-0.375817 0.0807159 0.14158 255 61 42
-0.376106 0.0822666 0.141539 255 59 41
-0.375696 0.0835222 0.1419 255 57 40
-0.378454 0.0861507 0.140438 255 54 37
-0.379464 0.0880415 0.139984 255 56 37
-0.380843 0.0901087 0.139318 255 54 40
-0.381872 0.0920339 0.138855 255 52 41
-0.382175 0.0936414 0.13881 255 59 46
-0.382846 0.095423 0.138554 249 80 61
-0.344069 0.0206436 0.154428 165 106 124
-0.344017 0.0218477 0.154565 182 80 82
-0.343965 0.0230527 0.154702 192 60 53
-0.343642 0.0241925 0.155001 198 42 38
-0.343319 0.0253307 0.1553 205 35 27
-0.342997 0.0264672 0.155598 215 33 25
-0.342945 0.0276714 0.155735 230 43 32
-0.343433 0.0290184 0.15555 247 58 41
-0.343924 0.0303722 0.155363 254 71 51
-0.36143 0.0495912 0.146194 255 70 46
-0.361061 0.0508003 0.146528 255 69 47
-0.366846 0.0595103 0.143703 255 67 44
-0.367115 0.0609738 0.143664 255 65 45
-0.366729 0.0622035 0.144009 255 63 44
-0.366998 0.0636722 0.14397 255 66 45
-0.371186 0.0764121 0.142485 255 61 45
-0.372828 0.0785006 0.141649 255 61 42
-0.372768 0.0798919 0.141807 255 60 39
-0.373394 0.0815763 0.141566 255 59 38
-0.374024 0.0832703 0.141323 255 57 39
-0.375353 0.0852775 0.140675 255 54 36
-0.376696 0.087306 0.14002 255 55 36
-0.378052 0.0893564 0.139358 255 54 40
-0.380506 0.0919182 0.138062 255 51 41
-0.380806 0.0935236 0.138015 255 64 46
-0.381473 0.0953028 0.137757 245 83 63
-0.341387 0.0190562 0.15458 165 132 132
-0.34187 0.0203726 0.154392 179 73 90
-0.342087 0.0216328 0.154365 192 54 49
-0.342035 0.0228325 0.154501 199 39 38
-0.341983 0.024033 0.154637 210 39 30
-0.34193 0.0252343 0.154774 219 44 33
-0.341076 0.026233 0.155394 238 45 36
-0.341024 0.027432 0.15553 249 60 44
-0.340972 0.0286318 0.155666 254 68 51
-0.341722 0.0300478 0.155319 255 73 56
-0.342476 0.0314742 0.154971 255 76 59
-0.361449 0.0499379 0.144712 255 73 50
-0.360452 0.0509449 0.145421 255 71 49
-0.360707 0.0523622 0.145384 255 68 48
-0.361592 0.0539972 0.144972 255 67 47
-0.36185 0.0554268 0.144935 255 69 49
-0.36338 0.0573056 0.144141 255 69 48
-0.365902 0.0595538 0.142759 255 67 44
-0.366497 0.0611351 0.142524 255 68 45
-0.366111 0.0623663 0.142871 255 69 43
-0.366379 0.063837 0.142831 255 65 44
-0.370281 0.0750768 0.141363 255 64 45
-0.370221 0.0764577 0.141519 255 62 44
-0.371516 0.0784044 0.140878 255 60 41
-0.371797 0.079938 0.140835 255 59 39
-0.371736 0.0813304 0.140993 255 57 37
-0.37236 0.0830196 0.14075 255 55 37
-0.372986 0.0847182 0.140505 255 54 36
-0.374309 0.0867338 0.139852 255 54 36
-0.375998 0.0889286 0.138986 255 55 41
-0.377352 0.090991 0.138318 255 53 43
-0.379441 0.0934061 0.137222 255 69 50
-0.380466 0.0953514 0.13675 240 84 66
-0.339009 0.0175514 0.154569 164 136 132
-0.338957 0.0187369 0.154704 177 89 95
-0.339168 0.0199835 0.154677 191 51 55
-0.339644 0.0212956 0.15449 200 49 41
-0.339856 0.0225508 0.154464 210 45 40
-0.340069 0.0238096 0.154437 223 48 40
-0.340017 0.0250057 0.154573 238 54 43
-0.34023 0.0262702 0.154547 252 60 44
-0.340177 0.0274693 0.154682 255 69 51
-0.340125 0.0286692 0.154818 255 70 53
-0.340605 0.0300135 0.154631 255 74 56
-0.341355 0.0314382 0.15428 255 77 59
-0.361784 0.05039 0.143027 255 70 52
-0.360467 0.0512966 0.143935 255 69 49
-0.360409 0.0526142 0.144084 255 69 47
-0.360352 0.0539327 0.144233 255 68 48
-0.360608 0.0553607 0.144194 255 69 51
-0.362128 0.0572369 0.143397 255 67 49
-0.364635 0.0594818 0.142009 255 63 47
-0.365551 0.0611788 0.141577 255 67 44
-0.365492 0.0625294 0.14173 255 64 44
-0.365433 0.063881 0.141883 255 66 44
-0.366027 0.0654797 0.141646 255 63 43
-0.369377 0.0737422 0.140242 255 64 41
-0.369317 0.0751223 0.140398 255 64 42
-0.369256 0.0765033 0.140554 255 61 42
-0.370207 0.0783086 0.140109 255 58 42
-0.370086 0.0810857 0.140423 255 54 38
-0.370026 0.0824757 0.140581 255 54 37
-0.370303 0.0840154 0.140537 255 54 36
-0.371947 0.0861674 0.139686 255 54 36
-0.373612 0.0883476 0.138823 255 55 41
-0.375298 0.0905566 0.13795 255 54 43
-0.377362 0.0929592 0.136854 254 74 55
-0.379097 0.0952314 0.135956 234 83 67
-0.336404 0.0160112 0.154719 166 128 127
-0.336611 0.0172439 0.154693 178 94 93
-0.337336 0.0185969 0.154346 190 61 62
-0.338067 0.0199597 0.153998 200 51 47
-0.338802 0.0213323 0.153647 213 56 45
-0.339013 0.0225876 0.153619 222 56 46
-0.339224 0.0238465 0.153592 237 55 47
-0.339172 0.0250428 0.153727 251 62 47
-0.339384 0.0263074 0.1537 255 69 50
-0.339331 0.0275066 0.153835 255 71 53
-0.339278 0.0287066 0.153971 255 72 53
-0.340289 0.0301953 0.153455 255 74 53
-0.340771 0.0315499 0.153263 255 74 54
-0.364693 0.0516871 0.139763 255 68 51
-0.360482 0.0516509 0.142438 255 66 49
-0.359796 0.0527619 0.142968 255 68 49
-0.359739 0.0540821 0.143117 255 67 49
-0.359994 0.055512 0.143077 255 65 47
-0.361195 0.0572798 0.142463 255 67 46
-0.363692 0.0595252 0.141066 255 64 46
-0.364604 0.0612226 0.14063 255 66 45
-0.36487 0.062693 0.140586 255 64 43
-0.365137 0.064168 0.140542 255 61 42
-0.365077 0.0655239 0.140695 255 61 42
-0.365018 0.0668807 0.140848 255 59 43
-0.368809 0.0725423 0.138919 255 66 42
-0.368413 0.0737876 0.139277 255 65 42
-0.368018 0.0750307 0.139633 255 64 43
-0.367624 0.0762717 0.139989 255 63 44
-0.369239 0.0783545 0.13914 255 60 43
-0.369056 0.082522 0.13961 255 56 38
-0.368995 0.083913 0.139767 255 55 38
-0.370287 0.0859097 0.139115 255 53 37
-0.371937 0.0880828 0.138251 255 52 39
-0.372912 0.0899666 0.137791 255 56 44
-0.375653 0.0926791 0.136278 253 78 57
-0.377731 0.0951117 0.135164 224 83 67
-0.333334 0.0143882 0.155182 164 130 131
-0.333283 0.015552 0.155313 176 89 91
-0.333232 0.0167165 0.155444 192 63 58
-0.335726 0.0184579 0.153991 205 59 52
-0.336967 0.0199359 0.153319 212 57 50
-0.340024 0.029169 0.152137 255 72 54
-0.339971 0.030378 0.152273 255 73 51
-0.340722 0.0318105 0.151912 255 73 50
-0.36375 0.05173 0.138819 255 70 50
-0.359867 0.0517977 0.141316 255 68 49
-0.359808 0.0531219 0.141466 255 68 49
-0.359124 0.0542317 0.141999 255 69 46
-0.360006 0.0558827 0.141572 255 65 44
-0.362168 0.0579975 0.140363 255 66 44
-0.36275 0.0595687 0.140123 255 64 43
-0.363982 0.0613844 0.139485 255 66 44
-0.364247 0.062857 0.139439 255 64 44
-0.364513 0.0643341 0.139393 255 60 41
-0.364127 0.0655681 0.139745 255 64 44
-0.363419 0.0666752 0.140293 255 62 43
-0.363359 0.0680297 0.140445 255 65 43
-0.367843 0.0725877 0.137953 255 62 42
-0.367448 0.073833 0.138312 255 62 43
-0.366722 0.0749394 0.138871 255 63 43
-0.36633 0.0761791 0.139227 255 63 45
-0.3666 0.077696 0.139181 255 61 44
-0.36775 0.0824214 0.138842 255 58 38
-0.367689 0.0838109 0.138999 255 54 37
-0.368299 0.0855022 0.13875 255 52 38
-0.369589 0.0875104 0.138092 255 54 39
-0.370893 0.0895399 0.137427 255 60 46
-0.373603 0.0922378 0.135916 250 80 60
-0.375301 0.094491 0.135017 210 85 67
-0.331313 0.013002 0.155013 162 129 133
-0.330766 0.0140536 0.155455 174 93 94
-0.330715 0.0152087 0.155585 190 61 62
-0.330664 0.0163646 0.155715 201 64 56
-0.332356 0.0179175 0.15475 214 53 48
-0.339706 0.0293497 0.15095 255 71 56
-0.33992 0.0306345 0.150919 255 71 50
-0.359192 0.0532709 0.140341 255 69 47
-0.361867 0.058268 0.139028 255 64 44
-0.362128 0.0597278 0.138981 255 60 42
-0.363034 0.0614282 0.138537 255 63 42
-0.363622 0.0630214 0.138289 255 64 43
-0.363887 0.0645006 0.138242 255 60 42
-0.363117 0.0669693 0.138947 255 63 44
-0.366545 0.0724989 0.137191 255 65 45
-0.366152 0.0737429 0.13755 255 65 45
-0.365429 0.0748484 0.13811 255 64 45
-0.36471 0.0759493 0.138668 255 63 45
-0.363343 0.0767696 0.139621 255 63 43
-0.365784 0.0820293 0.138482 255 58 37
-0.365723 0.0834137 0.138637 255 56 38
-0.366658 0.0852478 0.138185 255 55 39
-0.3676 0.0870966 0.13773 255 55 40
-0.368888 0.0891165 0.137066 254 61 48
-0.371567 0.0917998 0.135557 244 83 63
-0.372895 0.0938767 0.134871 197 87 70
-0.329805 0.0117308 0.154534 163 127 132
-0.328531 0.0126287 0.155441 173 92 99
-0.327994 0.0136723 0.155878 193 76 60
-0.327701 0.0147649 0.15616 202 58 60
-0.32765 0.0159099 0.156289 207 47 43
-0.329794 0.0175567 0.155025 212 40 32
-0.361564 0.0585397 0.137686 255 61 43
-0.361504 0.0598873 0.137837 255 59 43
-0.361765 0.0613537 0.137788 255 63 43
-0.362026 0.0628247 0.13774 255 65 42
-0.362611 0.0644224 0.13749 255 63 44
-0.361523 0.0667636 0.138395 255 63 46
-0.364858 0.0736531 0.13679 255 66 46
-0.363812 0.0746217 0.137554 255 65 44
-0.362449 0.0754478 0.138512 255 64 44
-0.36142 0.0764033 0.139263 255 64 42
-0.362327 0.0781829 0.138819 255 61 40
-0.362266 0.0795519 0.138973 255 57 38
-0.363505 0.0814958 0.138325 255 55 37
-0.362467 0.0824374 0.139081 255 54 36
-0.364695 0.0848454 0.137826 255 55 36
-0.365626 0.0866859 0.137371 255 58 40
-0.366564 0.0885412 0.136913 253 65 48
-0.369547 0.0913652 0.1352 237 84 65
-0.329041 0.0106141 0.153588 163 131 133
-0.327286 0.0114185 0.15481 176 81 102
-0.326512 0.0124116 0.155401 192 76 61
-0.325743 0.0133992 0.155989 197 50 52
-0.325217 0.0144332 0.156421 205 40 29
-0.325166 0.0155699 0.156548 205 36 33
-0.326307 0.0169806 0.155913 214 37 27
-0.360619 0.0585832 0.13674 255 61 41
-0.360558 0.0599309 0.136891 255 61 43
-0.360818 0.0613975 0.136841 255 63 43
-0.360757 0.0627486 0.136992 255 65 42
-0.360696 0.0641008 0.137143 255 65 45
-0.360316 0.0653308 0.137495 255 65 45
-0.360255 0.0666832 0.137647 255 65 47
-0.36324 0.073429 0.136236 255 66 44
-0.361555 0.0741266 0.137404 255 64 43
-0.36053 0.0750862 0.138158 255 63 44
-0.35983 0.0761755 0.138709 255 64 44
-0.360728 0.0779501 0.138264 255 64 42
-0.360346 0.0791756 0.138616 255 60 38
-0.360926 0.0808248 0.13837 255 55 36
-0.360224 0.0819065 0.138922 255 54 34
-0.361448 0.0838568 0.138276 255 56 36
-0.363011 0.0859773 0.137422 255 58 42
-0.364593 0.0881252 0.136556 251 65 51
-0.366867 0.0906167 0.135264 227 79 67
-0.328224 0.0106489 0.15277 173 90 104
-0.325755 0.0113059 0.154465 188 63 70
-0.323572 0.0119991 0.155972 196 47 42
-0.323521 0.0131295 0.156098 200 39 25
-0.324412 0.0144679 0.155616 206 36 25
-0.324361 0.0156046 0.155743 223 38 33
-0.359674 0.0586267 0.135794 255 62 41
-0.359613 0.0599744 0.135945 255 63 43
-0.359871 0.0614412 0.135893 255 63 44
-0.35981 0.0627925 0.136044 255 64 43
-0.35943 0.0640234 0.136397 255 66 45
-0.359052 0.0652522 0.136749 255 65 45
-0.358991 0.066603 0.1369 255 64 47
-0.359247 0.0680807 0.13685 255 64 45
-0.360662 0.0728062 0.136296 255 65 43
-0.35964 0.0737698 0.137054 255 65 44
-0.358942 0.0748615 0.137607 255 67 46
-0.358247 0.0759489 0.138158 255 66 45
-0.358819 0.0775804 0.137911 255 64 42
-0.358441 0.078802 0.138262 255 61 41
-0.359014 0.0804443 0.138016 255 56 38
-0.358635 0.0816657 0.138367 255 52 36
-0.358891 0.0831741 0.138321 255 50 38
-0.359466 0.0848341 0.138074 255 55 42
-0.361984 0.0874078 0.136611 249 67 51
-0.364552 0.090034 0.135119 219 77 66
-0.325665 0.011488 0.153187 194 47 46
-0.322772 0.0120335 0.15517 206 43 41
-0.32272 0.013164 0.155296 219 44 39
-0.358156 0.0570977 0.135104 255 60 42
-0.358095 0.0584414 0.135254 255 61 43
-0.358667 0.060018 0.134998 255 65 45
-0.358924 0.061485 0.134945 255 65 46
-0.358862 0.0628364 0.135096 255 64 45
-0.358801 0.0641887 0.135247 255 66 45
-0.358106 0.0652962 0.135802 255 65 45
-0.358045 0.0666471 0.135953 255 66 46
-0.35875 0.0724541 0.135951 255 64 45
-0.358054 0.0735482 0.136506 255 64 45
-0.357361 0.074638 0.137059 255 67 46
-0.356047 0.0754543 0.138006 255 66 44
-0.357238 0.0773505 0.137361 255 64 43
-0.356862 0.0785694 0.137712 255 62 44
-0.357115 0.0800667 0.137664 255 57 40
-0.356739 0.0812842 0.138015 255 54 38
-0.356992 0.0827866 0.137967 255 53 39
-0.35756 0.0844397 0.13772 255 59 46
-0.358449 0.0862506 0.137271 245 75 57
-0.361607 0.0891476 0.135389 209 82 67
-0.354721 0.0562495 0.135774 255 63 42
-0.355278 0.0578048 0.135522 255 63 44
-0.357721 0.0600616 0.134052 255 63 43
-0.358293 0.0616472 0.133792 255 66 45
-0.35855 0.0631208 0.133738 255 65 47
-0.358434 0.0727633 0.134591 255 64 46
-0.357105 0.073593 0.135556 255 63 44
-0.355788 0.0744155 0.136513 255 67 44
-0.353868 0.0749644 0.137856 255 65 44
-0.354732 0.0767134 0.137412 255 65 44
-0.355292 0.078338 0.137164 255 65 46
-0.355854 0.0799715 0.136915 255 60 43
-0.355168 0.0810464 0.137465 255 57 39
-0.355106 0.082402 0.137616 255 55 40
-0.355356 0.0839032 0.137568 255 63 49
-0.356232 0.0857035 0.13712 240 77 59
-0.357748 0.0878193 0.136265 197 82 67
-0.352868 0.0559624 0.13544 255 62 41
-0.354342 0.0578478 0.134585 255 64 43
-0.356775 0.0601052 0.133105 255 66 43
-0.356156 0.0736378 0.134607 255 63 43
-0.352991 0.073666 0.136768 255 65 44
-0.351406 0.0743477 0.137903 255 66 45
-0.351345 0.0756835 0.138051 255 65 45
-0.353728 0.0781078 0.136619 255 65 46
-0.354285 0.0797369 0.136369 255 61 43
-0.352377 0.0802503 0.137711 255 57 39
-0.352315 0.0815962 0.137861 255 55 39
-0.352254 0.0829431 0.13801 252 65 49
-0.352804 0.0845797 0.137765 229 80 60
-0.355218 0.0871144 0.13632 185 84 68
-0.309701 0.0120346 0.160098 237 53 44
-0.309233 0.013017 0.160497 255 54 44
-0.308975 0.0140449 0.160756 255 67 54
-0.308717 0.0150715 0.161015 255 80 68
-0.30846 0.0160968 0.161273 255 102 79
-0.308411 0.0171726 0.161392 255 86 64
-0.308361 0.018249 0.161511 255 76 57
-0.351391 0.0544641 0.134763 255 61 41
-0.35133 0.0557863 0.134909 255 65 43
-0.351876 0.0573313 0.134656 255 65 45
-0.351205 0.0651871 0.135738 255 65 44
-0.351144 0.0665182 0.135886 255 65 45
-0.352114 0.0723683 0.13568 255 62 44
-0.350535 0.073057 0.136822 255 64 45
-0.349572 0.0739989 0.137559 255 66 47
-0.348615 0.0749349 0.138291 255 65 45
-0.35035 0.0770646 0.137265 255 65 45
-0.3515 0.0789501 0.136623 255 62 43
-0.349926 0.0796031 0.137758 255 59 40
-0.349864 0.0809411 0.137906 255 57 41
-0.349803 0.0822799 0.138054 250 67 51
-0.350343 0.0839052 0.137811 220 80 63
-0.351799 0.0859771 0.136973 174 84 71
-0.308778 0.0109442 0.159356 196 36 34
-0.308313 0.0119271 0.159756 205 40 37
-0.307849 0.0129069 0.160155 225 40 31
-0.307799 0.0139805 0.160274 239 47 42
-0.307543 0.0150053 0.160532 255 68 62
-0.307493 0.0160793 0.16065 255 100 88
-0.307443 0.017154 0.160769 255 97 82
-0.3076 0.0182823 0.160749 255 84 68
-0.30755 0.0193596 0.160868 255 79 62
-0.350463 0.0545066 0.133834 255 63 43
-0.351006 0.0560478 0.133578 255 64 44
-0.350034 0.0637815 0.134859 255 65 44
-0.349972 0.0651101 0.135005 255 64 45
-0.349911 0.0664396 0.135152 255 66 47
-0.35015 0.0678938 0.1351 255 62 46
-0.349664 0.071767 0.135741 255 65 47
-0.349302 0.0729713 0.136087 255 65 46
-0.34775 0.0736525 0.137217 255 63 47
-0.347098 0.0747171 0.137753 255 64 45
-0.347627 0.0763063 0.13751 255 65 45
-0.348457 0.0780392 0.13707 255 64 46
-0.348395 0.0793731 0.137218 255 60 43
-0.348036 0.0805696 0.137561 255 58 43
-0.347974 0.0819037 0.137708 249 69 53
-0.34821 0.0833804 0.13766 212 81 65
-0.349345 0.0852944 0.137022 164 84 72
-0.308066 0.00990118 0.158474 178 35 32
-0.307602 0.0108856 0.158876 178 36 35
-0.307139 0.0118668 0.159276 183 38 34
-0.307089 0.0129397 0.159394 195 39 34
-0.306833 0.0139649 0.159653 209 37 31
-0.306783 0.0150383 0.159771 229 47 39
-0.306528 0.0160618 0.160029 253 65 57
-0.306478 0.0171355 0.160148 255 84 70
-0.306633 0.0182628 0.160127 255 87 72
-0.306789 0.019393 0.160106 255 87 76
-0.346626 0.0521798 0.134757 255 62 44
-0.348338 0.0541206 0.133709 255 61 44
-0.349165 0.0624969 0.133781 255 64 45
-0.348206 0.0634697 0.134528 255 65 45
-0.348443 0.0649133 0.134474 255 64 47
-0.348083 0.0661185 0.13482 255 63 46
-0.348319 0.0675672 0.134767 255 63 45
-0.348556 0.0690202 0.134714 255 66 46
-0.349394 0.0707318 0.13426 255 62 46
-0.347836 0.0714272 0.135405 255 66 48
-0.346885 0.0723708 0.136144 255 63 45
-0.345649 0.07318 0.137073 255 63 46
-0.345004 0.0742407 0.137606 255 63 45
-0.344363 0.0752973 0.138138 255 65 46
-0.346638 0.0776787 0.136729 255 65 48
-0.346576 0.079008 0.136876 255 61 46
-0.34622 0.0802007 0.137218 255 59 44
-0.345572 0.0812531 0.137754 251 69 52
-0.34551 0.0825803 0.1379 209 79 64
-0.347215 0.084763 0.136875 157 83 70
-0.306891 0.00984456 0.157996 165 39 32
-0.306429 0.0108272 0.158397 165 39 39
-0.306379 0.0118995 0.158515 169 41 38
-0.306329 0.0129726 0.158633 178 40 34
-0.306074 0.0139978 0.158892 185 38 32
-0.305819 0.0150217 0.159151 199 38 34
-0.305769 0.0160948 0.159269 224 42 38
-0.305515 0.0171171 0.159527 247 59 50
-0.305668 0.0182433 0.159505 254 75 65
-0.305822 0.0193725 0.159484 255 87 77
-0.347279 0.0635128 0.1336 255 65 45
-0.347514 0.0649566 0.133545 255 64 46
-0.347155 0.0661619 0.133891 255 66 46
-0.347093 0.0674878 0.134037 255 66 45
-0.346735 0.0686904 0.134382 255 67 45
-0.347563 0.0703948 0.133929 255 64 46
-0.346611 0.0713436 0.134674 255 66 49
-0.345372 0.0721588 0.135612 255 65 46
-0.344145 0.0729672 0.13654 255 66 47
-0.343506 0.0740261 0.137074 255 65 45
-0.343156 0.0752108 0.137412 255 65 46
-0.34425 0.0770543 0.136781 255 67 48
-0.344189 0.0783758 0.136926 255 63 45
-0.344127 0.0796983 0.137072 255 59 42
-0.343486 0.080747 0.137605 254 65 46
-0.343136 0.0819297 0.137943 211 75 59
-0.344231 0.0838119 0.137315 157 81 69
-0.306386 0.0088477 0.156973 157 43 44
-0.30613 0.00987722 0.157234 157 43 41
-0.30567 0.0108599 0.157637 157 42 45
-0.305619 0.0119323 0.157754 162 42 40
-0.305569 0.0130055 0.157872 165 42 40
-0.305314 0.0140307 0.158132 171 42 36
-0.30506 0.0150547 0.158391 179 40 35
-0.304806 0.0160773 0.15865 196 37 30
-0.304756 0.0171502 0.158767 220 43 36
-0.304705 0.0182239 0.158885 248 57 50
-0.304858 0.019352 0.158863 255 74 62
-0.305011 0.0204831 0.15884 255 81 71
-0.345762 0.0633204 0.133074 255 61 47
-0.346289 0.0648802 0.132817 255 65 46
-0.346227 0.0662053 0.132962 255 63 47
-0.343534 0.0664379 0.134898 255 68 46
-0.343184 0.067629 0.135239 255 67 45
-0.345157 0.0698095 0.133999 255 65 45
-0.34451 0.0708808 0.134542 255 63 45
-0.343576 0.071821 0.135279 255 68 46
-0.342649 0.0727555 0.136011 255 67 46
-0.342014 0.0738124 0.136544 255 65 45
-0.341952 0.0751244 0.136688 255 66 45
-0.342177 0.0765689 0.136638 255 67 48
-0.342115 0.0778843 0.136782 255 64 45
-0.342053 0.0792006 0.136927 255 58 40
-0.341705 0.0803815 0.137265 255 61 42
-0.341643 0.0816981 0.137409 218 74 56
-0.341867 0.0831549 0.137361 166 81 67
-0.308008 0.00719589 0.15437 154 44 52
-0.306706 0.00802084 0.155368 154 47 63
-0.305625 0.00888031 0.15621 157 62 71
-0.305369 0.00990989 0.156472 164 90 77
-0.305114 0.0109381 0.156733 162 84 78
-0.304859 0.0119651 0.156993 158 64 65
-0.304809 0.0130383 0.157111 156 45 57
-0.304554 0.0140636 0.157371 162 43 38
-0.304301 0.0150877 0.157631 169 42 39
-0.304047 0.0161104 0.15789 179 38 32
-0.303997 0.0171834 0.158008 194 38 32
-0.303946 0.0182571 0.158125 225 42 35
-0.303895 0.0193316 0.158243 251 60 48
-0.304047 0.0204616 0.158219 255 68 57
-0.304199 0.0215946 0.158196 255 75 61
-0.30435 0.0227306 0.158172 255 75 56
-0.304299 0.0238113 0.158291 255 72 54
-0.304248 0.0248926 0.158409 255 69 50
-0.345236 0.0675748 0.132179 255 63 44
-0.342266 0.0676721 0.13432 255 66 46
-0.344231 0.069853 0.133073 255 65 46
-0.342717 0.0705474 0.134213 255 65 47
-0.341793 0.0714856 0.134948 255 62 47
-0.34116 0.0725447 0.135483 255 60 44
-0.341098 0.0738559 0.135627 255 63 45
-0.340467 0.0749088 0.136159 255 68 46
-0.340122 0.076088 0.136496 255 65 47
-0.340627 0.0776622 0.136253 255 65 46
-0.340565 0.0789754 0.136396 255 60 42
-0.340503 0.0802896 0.13654 255 59 42
-0.339875 0.0813307 0.137071 235 70 54
-0.340663 0.0830598 0.136635 185 76 64
-0.307499 0.00618608 0.153333 155 58 68
-0.306822 0.00714386 0.153896 160 77 78
-0.305941 0.00805353 0.154602 161 105 101
-0.305478 0.00904442 0.155012 159 120 122
-0.304812 0.00998727 0.155565 165 139 128
-0.304557 0.0110166 0.155827 161 134 129
-0.304302 0.0120445 0.156089 158 124 120
-0.304048 0.0130712 0.15635 160 94 97
-0.303795 0.0140966 0.15661 160 71 63
-0.303541 0.0151207 0.15687 162 43 49
-0.303289 0.0161434 0.15713 169 41 38
-0.303036 0.0171649 0.15739 178 40 33
-0.302985 0.0182377 0.157507 200 38 33
-0.303136 0.0193649 0.157482 229 50 45
-0.303084 0.0204401 0.1576 253 59 48
-0.303235 0.0215721 0.157575 255 69 55
-0.303184 0.0226499 0.157693 255 69 55
-0.303334 0.0237867 0.157669 255 70 52
-0.303283 0.0248671 0.157787 255 66 47
-0.30303 0.0258878 0.158047 255 65 46
-0.302979 0.0269686 0.158165 255 65 47
-0.303129 0.0281126 0.158142 255 65 46
-0.341734 0.0719081 0.133435 255 60 44
-0.340244 0.0725881 0.134567 255 61 40
-0.340181 0.0738994 0.13471 255 59 43
-0.339271 0.0748231 0.135439 255 66 46
-0.338927 0.0760012 0.135776 255 67 46
-0.339146 0.077441 0.135725 255 69 48
-0.338803 0.0786179 0.136062 255 64 46
-0.338741 0.0799275 0.136205 255 59 41
-0.338398 0.0811019 0.136542 255 63 47
-0.303236 0.0141783 0.155705 163 125 116
-0.302782 0.0151536 0.15611 160 78 75
-0.302329 0.0161259 0.156513 165 41 44
-0.302278 0.017198 0.15663 167 42 38
-0.302227 0.0182709 0.156747 181 38 35
-0.302175 0.0193444 0.156864 205 41 38
-0.302124 0.0204187 0.156981 240 49 41
-0.302273 0.0215497 0.156956 254 59 49
-0.302222 0.0226265 0.157074 255 66 52
-0.302371 0.0237622 0.157049 255 67 50
-0.302319 0.0248416 0.157166 255 65 47
-0.302067 0.0258615 0.157426 255 63 46
-0.301816 0.02688 0.157686 255 64 49
-0.301764 0.0279595 0.157804 255 63 46
-0.301713 0.0290397 0.157921 255 66 48
-0.338357 0.0748666 0.134525 255 63 46
-0.337735 0.0759146 0.135058 255 69 47
-0.337672 0.077221 0.1352 255 67 48
-0.337331 0.0783954 0.135537 255 65 48
-0.337269 0.0797022 0.135679 255 61 41
-0.336928 0.0808741 0.136015 255 63 44
-0.302223 0.0152364 0.155205 162 126 117
-0.301771 0.0162095 0.15561 163 55 59
-0.301519 0.0172311 0.155871 163 42 41
-0.301468 0.0183041 0.155987 169 40 34
-0.301416 0.0193777 0.156104 187 36 33
-0.301365 0.0204521 0.156221 220 40 33
-0.301513 0.0215832 0.156195 246 51 44
-0.301461 0.0226601 0.156312 254 62 48
-0.301409 0.0237378 0.156429 255 63 50
-0.301358 0.0248162 0.156547 255 70 51
-0.301306 0.0258954 0.156664 255 67 50
-0.301055 0.026914 0.156924 255 64 50
-0.301003 0.0279935 0.157042 255 65 48
-0.300951 0.0290738 0.157159 255 66 46
-0.335991 0.0755692 0.13473 255 64 47
-0.335929 0.0768711 0.134872 255 66 49
-0.33559 0.078042 0.135207 255 66 50
-0.334978 0.079078 0.135734 255 65 44
-0.334642 0.080244 0.136068 255 64 44
-0.333763 0.0811384 0.136782 255 66 48
-0.301011 0.0162426 0.15485 161 93 97
-0.30096 0.017316 0.154967 163 46 47
-0.300709 0.0183373 0.155228 164 42 36
-0.300657 0.0194111 0.155344 173 39 35
-0.300605 0.0204855 0.155461 198 37 31
-0.300752 0.0216167 0.155434 231 45 37
-0.3007 0.0226937 0.15555 252 57 45
-0.300648 0.0237715 0.155667 255 60 48
-0.300596 0.02485 0.155785 255 67 51
-0.300544 0.0259292 0.155902 255 66 51
-0.300492 0.0270092 0.156019 255 66 51
-0.30044 0.0280899 0.156136 255 67 50
-0.300189 0.029108 0.156397 255 65 47
-0.300137 0.0301891 0.156514 255 65 49
-0.334807 0.0754834 0.134016 255 66 48
-0.333924 0.0763941 0.134739 255 65 44
-0.333861 0.077691 0.13488 255 65 45
-0.333255 0.0787243 0.135406 255 66 45
-0.332652 0.0797538 0.135929 255 65 45
-0.33232 0.0809133 0.13626 255 64 44
-0.332258 0.0822063 0.136401 240 66 51
-0.300399 0.017401 0.154061 159 68 67
-0.300148 0.0184233 0.154323 161 43 40
-0.300096 0.0194982 0.154439 165 41 37
-0.300044 0.0205739 0.154556 180 38 30
-0.299992 0.0216503 0.154672 210 39 32
-0.299939 0.0227274 0.154789 241 51 40
-0.299887 0.0238052 0.154905 254 58 45
-0.299835 0.0248838 0.155022 255 64 50
-0.299783 0.0259631 0.155139 255 65 52
-0.29973 0.0270432 0.155256 255 67 51
-0.299678 0.028124 0.155373 255 66 51
-0.299625 0.0292056 0.15549 255 63 48
-0.299178 0.0301589 0.155895 255 65 48
-0.29952 0.0313709 0.155725 255 68 48
-0.332207 0.0760499 0.134414 255 62 43
-0.332144 0.0773425 0.134554 255 68 46
-0.331544 0.0783731 0.135079 255 67 44
-0.331214 0.0795321 0.13541 255 69 46
-0.330884 0.0806892 0.135741 255 65 44
-0.330821 0.0819794 0.135881 255 64 45
-0.299837 0.0174861 0.153153 157 107 104
-0.299586 0.0185095 0.153416 160 48 51
-0.299533 0.0195856 0.153532 161 42 41
-0.299481 0.0206624 0.153648 169 41 31
-0.299429 0.0217399 0.153765 191 37 30
-0.299376 0.0228182 0.153881 223 44 32
-0.299323 0.0238972 0.153998 248 52 43
-0.299271 0.024977 0.154115 255 63 50
-0.299218 0.0260574 0.154231 255 65 52
-0.299166 0.0271387 0.154348 255 68 50
-0.299113 0.0282206 0.154465 255 66 50
-0.299258 0.0293671 0.154437 255 63 50
-0.29881 0.0303221 0.154844 255 65 49
-0.298757 0.0314052 0.154961 255 65 49
-0.330769 0.0758362 0.133899 255 60 42
-0.329907 0.0767383 0.134616 255 64 47
-0.330376 0.0782854 0.134371 255 67 43
-0.329782 0.0793114 0.134894 255 65 44
-0.329454 0.0804662 0.135224 255 63 44
-0.329391 0.0817535 0.135363 255 62 45
-0.329329 0.0830417 0.135502 251 66 51
-0.299023 0.0185959 0.152507 160 73 79
