# .PCD v0.7 - Point Cloud Data file format
VERSION 0.7
FIELDS x y z
SIZE 4 4 4
TYPE F F F
COUNT 1 1 1
WIDTH 1304
HEIGHT 1
VIEWPOINT 0 0 0 1 0 0 0
POINTS 1304
DATA ascii
0.048054367 -0.213535 -0.0054149926
0.047360461 -0.215023 -0.0048139915
0.047974259 -0.215434 -0.0028619915
0.047717754 -0.216556 -0.001816988
0.022666369 -0.219678 -0.047367893
0.023487475 -0.22011201 -0.04495091
0.022713479 -0.221772 -0.044279896
0.024056388 -0.221783 -0.041324906
0.025898702 -0.22138901 -0.037853904
0.027708914 -0.221002 -0.034443922
0.029487826 -0.220621 -0.031091921
0.031236239 -0.22024702 -0.02779793
0.035374559 -0.21795301 -0.022008948
0.038442176 -0.216482 -0.017389953
0.042340916 -0.21431799 -0.011940971
0.044784911 -0.213295 -0.008048974
0.046298381 -0.21300401 -0.0051509812
0.046918146 -0.213425 -0.0031939894
0.047098093 -0.21419699 -0.0016999915
0.048569333 -0.21390401 0.0011026114
0.047885004 -0.21537201 0.0016956106
0.047630899 -0.21648301 0.0027237087
0.047806125 -0.217236 0.0041799098
0.04883033 -0.21727599 0.0064786077
0.051094353 -0.21626799 0.0099976957
0.052080974 -0.21631299 0.012221992
0.052647289 -0.21670301 0.014015891
0.019024862 -0.220329 -0.048913874
0.020411072 -0.220351 -0.045887895
0.021244181 -0.220782 -0.043478899
0.021004686 -0.22202902 -0.042235889
0.0234084 -0.221224 -0.038178913
0.025246613 -0.22083701 -0.034753911
0.026543524 -0.22085501 -0.031925909
0.029328238 -0.21969001 -0.027553923
0.033020958 -0.217784 -0.022265941
0.036603078 -0.21593599 -0.017135948
0.040079415 -0.21414201 -0.012156963
0.043454602 -0.2124 -0.0073239729
0.044536542 -0.21247201 -0.0048849732
0.045165569 -0.212896 -0.0029259846
0.045788605 -0.21331699 -0.00098598003
0.047270074 -0.21303101 0.0018112063
0.047016848 -0.214146 0.0028390065
0.047622215 -0.21455599 0.004724808
0.048221923 -0.21496101 0.006592907
0.050492484 -0.21397801 0.0101109
0.051482715 -0.21403702 0.012334391
0.052051742 -0.21443699 0.014127895
0.051799085 -0.215515 0.015104391
0.051547136 -0.21659 0.016077995
0.05088627 -0.21800701 0.016650699
0.050225388 -0.21942399 0.017223299
0.049564436 -0.22084101 0.017796002
0.01643756 -0.22015502 -0.049287878
0.016752969 -0.221007 -0.047423877
0.017611574 -0.22143801 -0.044988878
0.018461082 -0.221864 -0.04258088
0.019836096 -0.221875 -0.039631896
0.021191906 -0.22188599 -0.036724888
0.024085322 -0.22069 -0.032225914
0.024361227 -0.221507 -0.030493908
0.030159155 -0.217999 -0.023034923
0.03332217 -0.21651499 -0.018364936
0.037337091 -0.214332 -0.01285395
0.041673753 -0.21186201 -0.007059969
0.042768773 -0.211937 -0.0046189651
0.04384971 -0.21201099 -0.0022089779
0.044478886 -0.21243601 -0.00027197599
0.045970589 -0.21215801 0.0025198162
0.046151213 -0.212925 0.0039790198
0.046330709 -0.213688 0.0054291189
0.047362275 -0.21374999 0.0077165067
0.04922067 -0.21312399 0.010804504
0.050218593 -0.21318899 0.013023898
0.050793324 -0.21359201 0.014814302
0.050953217 -0.21433102 0.016189799
0.050292339 -0.215748 0.016762398
0.050042897 -0.21682201 0.017732099
0.049794156 -0.21789201 0.018698804
0.049135108 -0.21930499 0.019269899
0.048476022 -0.22071801 0.019841008
0.047402631 -0.22248201 0.020019911
0.012811765 -0.22294299 -0.047701858
0.01480158 -0.222528 -0.044085868
0.01621259 -0.222535 -0.041105874
0.017603401 -0.22254099 -0.038166873
0.01897471 -0.22254799 -0.035269879
0.021895127 -0.22134401 -0.030788891
0.02423534 -0.22056501 -0.026940905
0.029506067 -0.217483 -0.020113923
0.034093387 -0.21489401 -0.014041938
0.038056307 -0.212759 -0.0086559504
0.040544353 -0.21175601 -0.0048069581
0.042089 -0.21147899 -0.0019389689
0.04272753 -0.21190701 -9.6857548e-07
0.044670843 -0.211284 0.0032286271
0.044855516 -0.21205501 0.004685618
0.045469884 -0.21247299 0.0065599158
0.04607844 -0.21288802 0.0084167197
0.04752747 -0.21261199 0.01108551
0.048537258 -0.21268 0.013306811
0.049534641 -0.21274699 0.015500799
0.049698289 -0.21348901 0.016874202
0.049449727 -0.21456601 0.017843798
0.04920182 -0.21563901 0.018810399
0.048542731 -0.217052 0.019381508
0.047883593 -0.21846502 0.01995261
0.047224384 -0.219878 0.020523809
0.046148986 -0.221642 0.020703815
0.044650473 -0.22376402 0.020491622
0.043566085 -0.22554199 0.020672426
0.010186765 -0.22277699 -0.048073851
0.009961769 -0.224048 -0.046794854
0.011980783 -0.22362299 -0.043179862
0.013414294 -0.22362201 -0.040199868
0.0142828 -0.22403599 -0.03782586
0.016220614 -0.223621 -0.034366883
0.020227335 -0.221597 -0.028815888
0.025121758 -0.21885599 -0.022404909
0.02738167 -0.218118 -0.018719919
0.034379303 -0.213672 -0.01027894
0.03830542 -0.211574 -0.0049969554
0.040322412 -0.21094401 -0.0016689599
0.04141527 -0.21102501 0.00071512908
0.043370925 -0.210411 0.0039374232
0.043559548 -0.21118401 0.0053924248
0.044179894 -0.21160601 0.007263422
0.044794381 -0.212025 0.0091170222
0.04582886 -0.21209802 0.011367619
0.046850469 -0.21216901 0.013590515
0.047859676 -0.21224 0.015786313
0.04802854 -0.21298499 0.017161012
0.047782045 -0.21406402 0.018131606
0.047536187 -0.21514 0.019099407
0.047291081 -0.216213 0.020064212
0.046631835 -0.21762599 0.020635515
0.045972534 -0.21903901 0.021206714
0.044475745 -0.22115101 0.020996526
0.043392714 -0.222921 0.021177821
0.041881055 -0.22505499 0.02096653
0.039929911 -0.22756399 0.020358138
0.0075422637 -0.22261001 -0.048447855
0.0073211677 -0.223886 -0.047163852
0.007671576 -0.224732 -0.045291848
0.0085852817 -0.22514601 -0.042850845
0.009489093 -0.225556 -0.040436856
0.012041006 -0.224705 -0.036354862
0.014538921 -0.223873 -0.032359861
0.018564843 -0.22184901 -0.026849873
0.022975164 -0.21949701 -0.020996898
0.024757175 -0.21913899 -0.017825909
0.032310005 -0.21429001 -0.0089219287
0.037642129 -0.21111502 -0.0022979528
0.039655741 -0.210492 0.00098884106
0.042070776 -0.20953701 0.0046465322
0.041825339 -0.210658 0.0056702346
0.042454667 -0.21108399 0.0075429305
0.043510113 -0.211163 0.0098174214
0.044124741 -0.21158199 0.011650622
0.045581833 -0.21131702 0.014282413
0.046179306 -0.211731 0.016072817
0.046771284 -0.21214099 0.017846815
0.046109036 -0.21356 0.018420614
0.04586529 -0.21463899 0.019389413
0.045622244 -0.21571399 0.020355314
0.044961866 -0.21712901 0.020927519
0.043881215 -0.21889101 0.021108523
0.042797208 -0.22065799 0.021290123
0.040856253 -0.22314002 0.020685032
0.039329715 -0.225284 0.020471342
0.036481209 -0.228539 0.01905705
0.035367109 -0.230352 0.019238651
0.005457066 -0.22201701 -0.048224829
0.0046609677 -0.22372301 -0.047534831
0.0044445731 -0.22500001 -0.046248831
0.0042289756 -0.226272 -0.044967838
0.005164586 -0.22668 -0.04251983
0.0072227977 -0.22623201 -0.038949855
0.0097988136 -0.22537501 -0.034883849
0.013941731 -0.22330602 -0.029275872
0.016380545 -0.22250201 -0.025416873
0.01615515 -0.223713 -0.024237879
0.035615534 -0.21172 -0.00096894801
0.040328585 -0.20900701 0.0049241409
0.040526882 -0.20978601 0.0063783377
0.040723857 -0.21056001 0.0078235418
0.041356266 -0.21098499 0.0096804276
0.04241509 -0.211064 0.011934735
0.04346079 -0.211143 0.014161125
0.044493597 -0.21122001 0.01636032
0.045094024 -0.21163301 0.018135719
0.044851437 -0.212716 0.019106522
0.044189069 -0.21413599 0.019680426
0.043526631 -0.215555 0.020254321
0.042864174 -0.21697499 0.020828322
0.041776873 -0.218742 0.021009833
0.040257886 -0.22086601 0.020797841
0.038296111 -0.22336002 0.020187646
0.035876308 -0.22624101 0.019171052
0.034317605 -0.22841801 0.018950462
0.033196509 -0.23023601 0.019132659
0.032071911 -0.23206 0.019315466
0.0033638626 -0.22142099 -0.047999837
0.0025661662 -0.22313102 -0.047308825
0.0017684735 -0.22484 -0.046617813
0.0009707734 -0.22655 -0.045925818
0.00076047704 -0.22782402 -0.044640817
0.0022988878 -0.22779299 -0.041600816
0.0049559027 -0.226909 -0.037462838
0.0075559169 -0.22604401 -0.033412851
0.011734139 -0.22396602 -0.027827866
0.01097244 -0.22559799 -0.027167864
0.03878466 -0.20925699 0.0066584423
0.038987368 -0.210034 0.0081051365
0.039628774 -0.210463 0.0099637359
0.040699914 -0.21054499 0.012219742
0.041757703 -0.210627 0.014447935
0.042802479 -0.21070801 0.016648822
0.042987313 -0.21146099 0.018027425
0.043170977 -0.212209 0.019397527
0.042931132 -0.21329202 0.020366624
0.042268634 -0.21471201 0.020940632
0.041180335 -0.216475 0.021122232
0.039659515 -0.218592 0.020910636
0.037694912 -0.221076 0.020301044
0.034829207 -0.22430299 0.018883355
0.033710711 -0.22611199 0.01906506
0.032588609 -0.22792701 0.019247457
0.031012209 -0.23011999 0.019026168
0.030333711 -0.23157401 0.019613974
0.02920091 -0.23340599 0.019798175
0.0018494688 -0.220401 -0.04717382
0.0010516718 -0.22210999 -0.046482824
-0.00033582747 -0.22424899 -0.046388812
-0.0011351295 -0.225962 -0.045695819
-0.0013420209 -0.227239 -0.044408821
-0.0021400191 -0.228949 -0.043717809
-0.00057790801 -0.22891001 -0.040678822
0.0032598078 -0.22715999 -0.035409831
0.0058732256 -0.22629501 -0.031388842
0.0062186308 -0.22711001 -0.02962283
0.0054486357 -0.22875999 -0.02895584
0.037245169 -0.20950599 0.0083876476
0.037452176 -0.21028201 0.0098267496
0.03854008 -0.210366 0.012090743
0.039614491 -0.210449 0.014326736
0.040243879 -0.21087001 0.016130939
0.040867414 -0.21128701 0.01791843
0.041058026 -0.21203901 0.019293331
0.040820591 -0.21312501 0.02026543
0.040155914 -0.21454899 0.020841338
0.039061014 -0.216318 0.021023542
0.037093613 -0.21879099 0.020414449
0.034223206 -0.222001 0.018997662
0.032208607 -0.22453101 0.018371567
0.031080607 -0.22634901 0.01855357
0.030402208 -0.22780301 0.019141279
0.029269509 -0.229629 0.01932478
0.02858991 -0.23108502 0.01991348
0.027910313 -0.23254101 0.020502284
0.027230617 -0.23399802 0.021091186
0.026550917 -0.23545401 0.021680087
-0.0008463338 -0.22022299 -0.047546826
-0.0016472302 -0.22193901 -0.046852805
-0.0030449331 -0.22408499 -0.046759807
-0.0038474277 -0.22580402 -0.046063803
-0.0040501244 -0.22708701 -0.044771798
-0.0042522177 -0.228366 -0.043483801
-0.0044536144 -0.22963999 -0.042199798
-0.0028747022 -0.229596 -0.039171807
0.00099591538 -0.227836 -0.033924825
0.0025018267 -0.22780602 -0.031020813
0.0039864369 -0.22777699 -0.028157838
0.03594587 -0.20863299 0.0090962499
0.035709977 -0.20975499 0.010111853
0.036366481 -0.21018501 0.01196105
0.037016891 -0.210611 0.013793245
0.038098898 -0.21069302 0.016015343
0.038299501 -0.21145199 0.01740665
0.038498808 -0.212207 0.018789448
0.038696811 -0.21295701 0.020163842
0.038030013 -0.21438502 0.020741545
0.036492214 -0.21650599 0.020527855
0.033617206 -0.219698 0.019111961
0.031149104 -0.22257902 0.018080868
0.030017605 -0.22439601 0.018262573
0.029338006 -0.225852 0.018851273
0.028658409 -0.22730799 0.019440077
0.027978811 -0.22876401 0.020028882
0.027299114 -0.23022099 0.020617783
0.026619416 -0.23167701 0.021206684
0.025939617 -0.233133 0.021795593
0.024797818 -0.234971 0.021983691
0.023186618 -0.23720099 0.02177
-0.0041635372 -0.22046901 -0.048528798
-0.0055737346 -0.22262399 -0.048436783
-0.0063807368 -0.224353 -0.047737785
-0.0065800287 -0.225646 -0.046434782
-0.0067785233 -0.226934 -0.045136787
-0.0069764219 -0.22821699 -0.043842785
-0.0065703131 -0.229057 -0.041962795
-0.0067677088 -0.23033001 -0.040681787
-0.0033993907 -0.22897799 -0.035943799
-0.0012685806 -0.228512 -0.032438822
0.0030866414 -0.22637601 -0.026818834
0.0073053613 -0.22430702 -0.021375842
0.007094264 -0.22552 -0.020199843
0.0068838671 -0.22672899 -0.019027844
0.0061294734 -0.22834499 -0.01837384
0.032602273 -0.210263 0.0091250613
0.03372908 -0.210348 0.011411458
0.034394786 -0.210775 0.013254859
0.035497993 -0.21085601 0.015490755
0.036587603 -0.21093701 0.017698951
0.036354706 -0.21203502 0.018682852
0.036122411 -0.213129 0.01966355
0.035012711 -0.21491002 0.019845352
0.032564804 -0.21774702 0.018823661
0.030086203 -0.22061999 0.017789178
0.028494403 -0.2228 0.017562374
0.027353304 -0.22462599 0.01774428
0.026670404 -0.22608902 0.018335782
0.025987606 -0.22755201 0.018927388
0.02530461 -0.22901501 0.019519091
0.024621611 -0.23047902 0.020110793
0.024403216 -0.231564 0.021106593
0.023721218 -0.233025 0.021697499
0.022572318 -0.23486899 0.0218862
0.021419719 -0.23671801 0.022075504
0.020263519 -0.238573 0.022265404
-0.008746244 -0.221577 -0.050748788
-0.0095593445 -0.22331901 -0.050044782
-0.010372538 -0.22506101 -0.049340777
-0.010565937 -0.226362 -0.048024781
-0.010141928 -0.22721802 -0.046107776
-0.010334823 -0.22850801 -0.044804774
-0.0093036145 -0.228911 -0.042315789
-0.0088891052 -0.22974901 -0.040441789
-0.0054877922 -0.228402 -0.03569781
0.0012657382 -0.22457401 -0.02777382
0.0060773604 -0.222122 -0.021770842
0.0058679655 -0.223341 -0.02059184
0.0051109642 -0.22496299 -0.019935831
0.0054512732 -0.225767 -0.018245831
0.0046967752 -0.227383 -0.017592832
0.0039421767 -0.228999 -0.016938835
0.033537898 -0.21144299 0.01677686
0.034639407 -0.21152 0.018977255
0.033967309 -0.21295999 0.019559458
0.030607603 -0.21649002 0.01772327
0.028563201 -0.21901099 0.017087378
0.0264994 -0.22155501 0.016445681
0.024883596 -0.223756 0.016212888
0.024196299 -0.225228 0.016808301
0.023977403 -0.226328 0.017815597
0.023291204 -0.227798 0.018409997
0.023073809 -0.228893 0.0194133
0.022388613 -0.230361 0.020006895
0.022172915 -0.23145099 0.021006204
0.021488618 -0.23291601 0.021599002
0.020332517 -0.23476599 0.021788105
0.018219315 -0.23739801 0.021166116
0.016569015 -0.23966001 0.02094762
-0.011533346 -0.22140001 -0.051142775
-0.012349643 -0.223148 -0.050434776
-0.013166044 -0.22489701 -0.049727775
-0.013355035 -0.22620301 -0.048405774
-0.012919132 -0.22706302 -0.046480782
-0.012486622 -0.227917 -0.044569768
-0.012675319 -0.22920601 -0.043269776
-0.011018604 -0.229165 -0.040199779
-0.0069877878 -0.22739302 -0.034879796
-0.00019965693 -0.223588 -0.02697482
0.0046373606 -0.22115399 -0.020985834
0.0044303685 -0.22237401 -0.019807838
0.0036731698 -0.223996 -0.019151829
0.002915971 -0.22561799 -0.018495828
0.0032637753 -0.22642 -0.016810827
0.0025090799 -0.228036 -0.016157828
0.022782475 -0.21875902 0.010132395
0.026327191 -0.21699299 0.01454369
0.025640093 -0.21846502 0.015138991
0.023545891 -0.221027 0.014482796
0.022382291 -0.222874 0.014662199
0.021690693 -0.224355 0.015261307
0.020998996 -0.22583701 0.015860505
0.020783599 -0.226943 0.016875803
0.020092903 -0.22842301 0.017474115
0.019402105 -0.22990201 0.018072613
0.018711306 -0.231382 0.018671013
0.01849971 -0.23247899 0.019680314
0.018288713 -0.23357199 0.020686612
0.017599918 -0.235047 0.021283224
0.015947614 -0.23730199 0.021065131
0.014284715 -0.23957099 0.02084583
-0.01434185 -0.22122101 -0.05153776
-0.015161242 -0.22297601 -0.050828762
-0.015980843 -0.22473101 -0.050118767
-0.016165439 -0.226043 -0.04879076
-0.015717525 -0.226907 -0.046856754
-0.015273023 -0.22776501 -0.044936754
-0.014208812 -0.22817402 -0.042433761
-0.013156306 -0.228579 -0.039957769
-0.0090870857 -0.226813 -0.034630783
-0.0028135628 -0.223428 -0.027261801
0.0026425645 -0.22058602 -0.020722829
0.0024385676 -0.22181 -0.019543827
0.0016799681 -0.223435 -0.018885829
0.00092137232 -0.22505902 -0.018228821
0.00072057545 -0.226274 -0.017055817
0.0010757819 -0.22707401 -0.015375823
0.00032088906 -0.22869001 -0.014721818
0.014386058 -0.224223 0.0057760254
0.020545084 -0.22048901 0.012488604
0.019848986 -0.22197999 0.013091616
0.019152887 -0.223471 0.013694614
0.018939091 -0.22458901 0.014719814
0.018725794 -0.225702 0.015741713
0.0185133 -0.226813 0.016760513
0.018301401 -0.22792001 0.017776012
0.017609406 -0.22940199 0.018375419
0.016917408 -0.230884 0.018974923
0.01670821 -0.23198299 0.019985519
0.016499612 -0.233079 0.020992823
0.014841013 -0.23533101 0.020773627
0.013661213 -0.23720501 0.020963736
0.011985514 -0.23948102 0.020743437
-0.016533654 -0.22060601 -0.051311754
-0.017354842 -0.22236399 -0.05060076
-0.018176045 -0.22412302 -0.049889751
-0.018356938 -0.225439 -0.048559748
-0.017900128 -0.22630699 -0.046622761
-0.018080529 -0.22761099 -0.04530675
-0.017627422 -0.22846599 -0.043392755
-0.015302207 -0.227991 -0.039714761
-0.011194386 -0.22623001 -0.03438177
-0.0066165663 -0.22410099 -0.028649785
0.00064056367 -0.22001602 -0.020458817
0.00043956935 -0.22124301 -0.019277819
0.00023927167 -0.22246601 -0.01810082
-0.00051952526 -0.22409101 -0.017443813
-0.0012783185 -0.22571601 -0.016785815
-0.0014754161 -0.22693001 -0.015614815
-0.0011127144 -0.22772701 -0.013939813
-0.0018678084 -0.229344 -0.013285816
0.0037036315 -0.23036699 -0.0017428324
0.012321766 -0.22484 0.0071304366
0.013118472 -0.225215 0.0090704337
0.015390385 -0.224452 0.01228603
0.016160693 -0.224824 0.014173217
0.015950795 -0.22594301 0.015201025
0.016713399 -0.22630601 0.017062217
0.016503904 -0.22741501 0.01807902
0.015810806 -0.2289 0.018679425
0.015117511 -0.23038401 0.019279927
0.014424309 -0.231869 0.019880526
0.013730913 -0.23335402 0.020481132
0.013037615 -0.23483901 0.021081835
0.011359915 -0.23710699 0.020861842
0.0096714124 -0.23939101 0.020640448
-0.018734042 -0.219988 -0.051085748
-0.019556846 -0.22175001 -0.050372742
-0.020379845 -0.22351201 -0.049659751
-0.020557035 -0.22483201 -0.048327751
-0.020091128 -0.225704 -0.046387739
-0.020268019 -0.22701199 -0.045069747
-0.019805919 -0.22787102 -0.043152742
-0.017456304 -0.22739999 -0.039469756
-0.013309587 -0.22564499 -0.034130774
-0.0086893663 -0.22352101 -0.028392784
-0.0042164437 -0.22146501 -0.022836804
-0.0021315329 -0.22107701 -0.019532815
-0.0023282282 -0.22230501 -0.01835081
-0.0025242232 -0.22352801 -0.017173804
-0.0032844208 -0.22515599 -0.016514808
-0.0040448196 -0.22678499 -0.015856802
-0.002546709 -0.22676401 -0.013157807
-0.0033019036 -0.22838099 -0.012503803
-0.0040571056 -0.22999801 -0.011849806
-0.0048123002 -0.23161601 -0.011195794
-0.0022069886 -0.230736 -0.0075608119
-0.00020017847 -0.23028101 -0.0044818223
0.00069262832 -0.230644 -0.0024038181
0.0063429549 -0.22741501 0.0038217604
0.010256968 -0.22545801 0.0084852427
0.011063576 -0.22583102 0.010418646
0.013355289 -0.225062 0.013621435
0.014135197 -0.22543101 0.015502229
0.013928398 -0.22654901 0.016528033
0.014212102 -0.22728501 0.017967425
0.014006108 -0.22839601 0.018984526
0.01331171 -0.229883 0.019586138
0.012617212 -0.23137002 0.020187639
0.011922713 -0.232857 0.02078934
0.010734215 -0.234733 0.020980246
0.0090436153 -0.237009 0.020759247
0.0083456188 -0.23850401 0.021363951
-0.02029654 -0.21893601 -0.050233744
-0.021119546 -0.22069801 -0.049520738
-0.021942634 -0.22246002 -0.048807748
-0.022116933 -0.223781 -0.04747773
-0.021645326 -0.22465701 -0.045540743
-0.021819424 -0.22596799 -0.044223748
-0.021351617 -0.226831 -0.042309739
-0.018987801 -0.22636999 -0.03863474
-0.016048986 -0.22548701 -0.03445176
-0.01017426 -0.22252201 -0.027582772
-0.0062560439 -0.22088902 -0.022572801
-0.0035803281 -0.22010301 -0.018742807
-0.0037744232 -0.22133301 -0.017562807
-0.0045361221 -0.222964 -0.016902804
-0.005297821 -0.224595 -0.016242795
-0.0066324212 -0.226638 -0.01609879
-0.0062494129 -0.22744299 -0.014409795
-0.0070099123 -0.22907101 -0.013750792
-0.0060583018 -0.22944899 -0.011570796
-0.0056806989 -0.23023699 -0.0099117979
-0.0030710846 -0.22937401 -0.006296806
-0.0016080737 -0.22933699 -0.003713809
-0.00070826709 -0.22970401 -0.0016398132
0.0017942451 -0.22886501 0.0018128753
0.0058146603 -0.22686701 0.0065524578
0.0081915744 -0.22607599 0.0098403469
0.01102379 -0.22492202 0.01349394
0.011817295 -0.225293 0.015381545
0.012109198 -0.22603701 0.016831636
0.011905402 -0.22715501 0.017855443
0.011207607 -0.22864901 0.018459842
0.010509707 -0.230143 0.019064344
0.0098118111 -0.231638 0.019668952
0.0091138147 -0.23313199 0.020273551
0.0084158145 -0.23462699 0.020878151
0.0067122132 -0.23691 0.020656355
0.0060118139 -0.238409 0.021263056
-0.021859344 -0.21788301 -0.04938174
-0.022682432 -0.21964501 -0.048668735
-0.022855539 -0.22097202 -0.047338732
-0.02302793 -0.22229402 -0.046013735
-0.023199718 -0.22361101 -0.044692732
-0.022726011 -0.22448401 -0.042773731
-0.022255909 -0.22535099 -0.040868737
-0.020519596 -0.22533901 -0.037799738
-0.01756398 -0.22446801 -0.033625759
-0.011659458 -0.22152402 -0.026772775
-0.0071395375 -0.21949999 -0.02124279
-0.0050292276 -0.21912901 -0.0179528
-0.0052209198 -0.22036 -0.016773798
-0.0059827194 -0.22199102 -0.016113795
-0.0073186196 -0.22403 -0.015969791
-0.0080818161 -0.22566499 -0.01530879
-0.0094238147 -0.22771402 -0.015162781
-0.0090304092 -0.228516 -0.013473779
-0.0092152059 -0.22973 -0.012304783
-0.008252196 -0.230105 -0.010131791
-0.0067332871 -0.23006199 -0.007485792
-0.0052352808 -0.23002 -0.0048767999
-0.0032063685 -0.229573 -0.001825802
-0.001755055 -0.229535 0.00070498884
0.0007494539 -0.22870101 0.0041229799
0.0047719702 -0.226712 0.0088128671
0.0076613836 -0.22554301 0.012501955
0.0099856965 -0.224777 0.015684746
0.0097844005 -0.22590201 0.016715348
0.0095837042 -0.22702299 0.017742753
0.0093835071 -0.22814099 0.01876685
0.0086844116 -0.229638 0.019372448
0.0079853088 -0.231135 0.01997795
0.00678261 -0.23301999 0.02016896
0.0055761151 -0.23491199 0.020360567
0.0043656155 -0.23681001 0.020552866
0.0036628135 -0.23831402 0.021161571
-0.022772435 -0.21640299 -0.047911726
-0.023594137 -0.21816202 -0.047199734
-0.023765225 -0.21948899 -0.045874737
-0.023935724 -0.22081099 -0.044554733
-0.023459312 -0.22169499 -0.042635731
-0.023629617 -0.223006 -0.041328736
-0.0218799 -0.22301202 -0.038250752
-0.020155992 -0.22301699 -0.03521774
-0.017220777 -0.222176 -0.031095766
-0.010762345 -0.21888499 -0.023787774
-0.0057152249 -0.21652101 -0.0178238
-0.0053354204 -0.21736 -0.016128801
-0.006095916 -0.218989 -0.015469797
-0.0074296147 -0.22101901 -0.015324786
-0.0081916116 -0.22265001 -0.014664792
-0.0095315129 -0.22469099 -0.014517784
-0.010294914 -0.22632499 -0.013856784
-0.011058308 -0.22795899 -0.013195775
-0.010660201 -0.22875999 -0.01151678
-0.009689793 -0.22914 -0.0093477815
-0.0092999898 -0.22992902 -0.0076957792
-0.007779181 -0.22988801 -0.0050767884
-0.0057217665 -0.22943999 -0.0020137951
-0.0042485595 -0.22940402 0.00052769482
-0.0038871542 -0.23017301 0.0021038949
-0.0008242391 -0.228934 0.0059637874
0.0037355796 -0.22655801 0.011058763
0.0056050867 -0.22615801 0.013851166
0.0079491995 -0.22538699 0.017020948
0.0072467029 -0.226891 0.01762946
0.0065442063 -0.228395 0.018237956
0.0058416054 -0.229899 0.01884646
0.0051389113 -0.23140301 0.019455165
0.0039257109 -0.23329799 0.019646265
0.0027086101 -0.23519899 0.019838072
0.0014874116 -0.23710699 0.020030484
0.00078111514 -0.23861901 0.020642184
-0.02385303 -0.21625902 -0.045124732
-0.024671819 -0.21801199 -0.044415735
-0.024192613 -0.218906 -0.042497732
-0.024361711 -0.22022201 -0.041190736
-0.022606496 -0.220248 -0.038113736
-0.021508288 -0.22069801 -0.03566175
-0.019173678 -0.2203 -0.032094739
-0.014450554 -0.21825899 -0.026378758
-0.0098782368 -0.21628399 -0.020845786
-0.0060192198 -0.214761 -0.015999794
-0.006779816 -0.21638902 -0.01534079
-0.0069681145 -0.21762101 -0.014170788
-0.0083011128 -0.21964599 -0.01402279
-0.0090619102 -0.221274 -0.013363786
-0.0098227076 -0.222903 -0.012704782
-0.010583505 -0.22453199 -0.012046784
-0.011925504 -0.22657199 -0.011894777
-0.012105402 -0.227789 -0.010727778
-0.011705194 -0.228588 -0.0090637729
-0.011307787 -0.22938101 -0.0074097738
-0.010340881 -0.229755 -0.0052777827
-0.009951774 -0.23053701 -0.0036517829
-0.0073167607 -0.22967701 -0.00012478977
-0.0058353543 -0.22963901 0.0023995042
-0.0054693446 -0.230406 0.0039669052
-0.00078732893 -0.227982 0.0091456845
0.0021845847 -0.22679101 0.012855373
0.0025127903 -0.22754399 0.014340073
0.0023207963 -0.22868 0.015386574
0.0021292977 -0.229811 0.01642967
0.0014197975 -0.23132999 0.017044283
0.00071010366 -0.23284902 0.017658882
5.0663948e-07 -0.23436899 0.018273577
-0.0012330934 -0.23628701 0.018464789
-0.0019440949 -0.23780902 0.01908049
-0.0026550889 -0.23933099 0.019696392
-0.025093812 -0.217438 -0.041053735
-0.0233333 -0.217485 -0.037976734
-0.022231091 -0.21795 -0.035525732
-0.019889873 -0.217577 -0.03195975
-0.016368862 -0.216392 -0.027348764
-0.012935843 -0.21523799 -0.022851765
-0.0078508258 -0.212938 -0.016903788
-0.007463716 -0.21379001 -0.015211791
-0.0070793107 -0.21463601 -0.013531789
-0.0078374073 -0.21625902 -0.01287479
-0.0085956044 -0.21788199 -0.012218788
-0.0093538016 -0.219505 -0.011561781
-0.010112103 -0.221128 -0.010904782
-0.010870397 -0.22275101 -0.010248773
-0.012789804 -0.22519 -0.010598764
-0.012387294 -0.22599702 -0.0089347735
-0.013145696 -0.227621 -0.0082777664
-0.012743484 -0.22841699 -0.0066267774
-0.01234398 -0.22920801 -0.0049877763
-0.01194727 -0.22999401 -0.0033597723
-0.010984063 -0.230363 -0.0012627766
-0.0089067519 -0.22991301 0.001758121
-0.0074173473 -0.229874 0.0042655095
-0.0059480369 -0.22983499 0.0067391023
-0.0018130206 -0.227823 0.011405885
-0.0004119128 -0.22779901 0.013779983
-7.4904412e-05 -0.22855 0.015264183
-0.00026310235 -0.22968601 0.016310982
-0.00097520277 -0.23121001 0.016927689
-0.0016871989 -0.23273401 0.017544389
-0.0023992956 -0.23425801 0.018161185
-0.0036409944 -0.236183 0.018352896
-0.0043542944 -0.23771001 0.018970698
-0.0050677881 -0.239237 0.019588605
-0.017076161 -0.21370299 -0.027214758
-0.013634447 -0.21258299 -0.022720769
-0.010277729 -0.21148901 -0.01833678
-0.0081477165 -0.21119 -0.015082791
-0.007761009 -0.21204601 -0.013403788
-0.0079471059 -0.21328099 -0.012239791
-0.0087040029 -0.21490102 -0.011584781
-0.0094610006 -0.21652101 -0.01092878
-0.009643998 -0.21774702 -0.0097717792
-0.010399792 -0.219364 -0.0091177821
-0.01115559 -0.220982 -0.0084627718
-0.013069291 -0.22340702 -0.0088057667
-0.013827894 -0.22502999 -0.0081487671
-0.013423387 -0.22583501 -0.0064987689
-0.013599481 -0.227044 -0.0053507686
-0.013775077 -0.22824802 -0.0042077675
-0.013373572 -0.229037 -0.0025817677
-0.013548765 -0.23023202 -0.0014487654
-0.011442557 -0.22978102 0.0015837252
-0.0093720444 -0.22933899 0.0045651197
-0.007887233 -0.229304 0.0070410073
-0.0064222254 -0.22926901 0.0094839036
-0.0039011165 -0.22844799 0.012775898
-0.0030175075 -0.22881 0.014707893
-0.0032020062 -0.22995101 0.015760794
-0.003386002 -0.23108901 0.016810395
-0.0041004978 -0.23261799 0.017429195
-0.0048149973 -0.234147 0.0180481
-0.0055296943 -0.23567699 0.018667005
-0.0062442906 -0.237206 0.019285999
-0.0069590881 -0.23873599 0.019905008
-0.0084428079 -0.209455 -0.013274789
-0.0080565028 -0.21031301 -0.01160679
-0.0088122003 -0.21192999 -0.010952786
-0.0095678978 -0.21354799 -0.010298781
-0.0097504929 -0.21477599 -0.009144783
-0.010504991 -0.21639101 -0.008490786
-0.011259489 -0.218006 -0.0078377724
-0.012014087 -0.21962102 -0.0071837753
-0.012768786 -0.22123601 -0.0065297782
-0.01410329 -0.223253 -0.006370768
-0.014278378 -0.22446601 -0.0052227676
-0.015033077 -0.226081 -0.0045687631
-0.015206371 -0.22728701 -0.0034267604
-0.015378971 -0.228489 -0.0022877604
-0.015551161 -0.22968699 -0.0011537597
-0.015145253 -0.230469 0.00045593828
-0.013029147 -0.230018 0.0034673288
-0.010948937 -0.22957401 0.0064279214
-0.0094561316 -0.22953801 0.0088873208
-0.0085316226 -0.22990002 0.010867812
-0.0065301135 -0.22946699 0.013708502
-0.0067101084 -0.23061399 0.01477021
-0.005812902 -0.23096602 0.016692504
-0.0065298975 -0.23250102 0.017313406
-0.0072468966 -0.234035 0.017934412
-0.0079639927 -0.23557 0.01855541
-0.0086810924 -0.23710401 0.01917652
-0.009398289 -0.23863901 0.019797616
-0.0079804063 -0.20611401 -0.012133792
-0.0081656016 -0.20735501 -0.010976791
-0.0083501972 -0.208593 -0.0098237917
-0.008534193 -0.20982601 -0.0086737871
-0.0092860907 -0.21143501 -0.0080227852
-0.010038085 -0.213044 -0.0073717833
-0.010790087 -0.214653 -0.0067207739
-0.011542182 -0.216262 -0.0060687736
-0.012294278 -0.21787201 -0.0054177716
-0.013046477 -0.21948101 -0.0047667697
-0.014957283 -0.22188799 -0.0050947592
-0.015712079 -0.22350399 -0.0044407621
-0.015884269 -0.224714 -0.0032987595
-0.01663797 -0.22632702 -0.0026457608
-0.016808163 -0.22753002 -0.0015087575
-0.017560665 -0.22914101 -0.00085674971
-0.017147254 -0.22992601 0.00075434893
-0.017316055 -0.231117 0.0018801466
-0.015181739 -0.23066099 0.0048795417
-0.010845225 -0.22860701 0.0096450225
-0.010466121 -0.22937201 0.011175521
-0.0095398128 -0.22973399 0.01313822
-0.0080788061 -0.229697 0.015516907
-0.0082561001 -0.23084299 0.016573913
-0.0084328987 -0.23198502 0.017627507
-0.0091512948 -0.23352201 0.018249616
-0.0098696947 -0.23505901 0.018871717
-0.010588091 -0.236596 0.019493915
-0.011853889 -0.23854099 0.019689724
-0.008089602 -0.20316301 -0.011501789
-0.0077065974 -0.20403899 -0.0098487884
-0.0078914948 -0.20527799 -0.0087017864
-0.0086420886 -0.20688401 -0.0080517903
-0.0093927868 -0.20849 -0.0074017793
-0.0095745847 -0.20971902 -0.0062607825
-0.010324083 -0.21132301 -0.0056117848
-0.011073578 -0.212927 -0.0049617738
-0.011823177 -0.21453001 -0.004312776
-0.012572873 -0.216134 -0.0036637783
-0.013322573 -0.21773802 -0.0030147657
-0.015227672 -0.22013099 -0.003335759
-0.015980173 -0.22174101 -0.0026837587
-0.01673257 -0.22335102 -0.0020327568
-0.018069763 -0.22536601 -0.0018647537
-0.018823568 -0.226979 -0.001211755
-0.018405158 -0.227773 0.00040334463
-0.018572059 -0.22897001 0.0015315488
-0.018738452 -0.23016401 0.00265605
-0.015447836 -0.22890501 0.0065755397
-0.014482129 -0.229275 0.0085913315
-0.014652427 -0.230446 0.0096831322
-0.014258917 -0.23120899 0.011221334
-0.012751911 -0.231162 0.013636723
-0.011264905 -0.23111601 0.016020127
-0.011437699 -0.23226301 0.017079927
-0.011609998 -0.23340701 0.018136322
-0.012330793 -0.23494901 0.018760622
-0.013051692 -0.23649199 0.019384935
-0.014881093 -0.23885401 0.019151837
-0.0063147992 -0.19789501 -0.010524794
-0.0070652962 -0.19950101 -0.0098747909
-0.0072508939 -0.200745 -0.0087287873
-0.0074359886 -0.20198502 -0.0075877905
-0.0081840865 -0.203586 -0.0069397911
-0.0083672814 -0.20481901 -0.0058037862
-0.0091142803 -0.20641701 -0.0051567852
-0.0098612793 -0.20801501 -0.0045097843
-0.010041472 -0.20923899 -0.0033797845
-0.010787271 -0.21083499 -0.0027337745
-0.01210257 -0.21280999 -0.0025687739
-0.012849774 -0.21440901 -0.0019217655
-0.014170866 -0.21639399 -0.0017557666
-0.015496667 -0.21838601 -0.0015887618
-0.01740947 -0.220782 -0.0019047558
-0.018162068 -0.22239201 -0.0012527555
-0.018914666 -0.22400199 -0.00060075521
-0.019667361 -0.225612 5.1051378e-05
-0.019832458 -0.226815 0.0011819527
-0.019997049 -0.22801499 0.002308853
-0.020161148 -0.22921 0.0034321547
-0.019159842 -0.22958301 0.0054882541
-0.017593835 -0.229546 0.0079834461
-0.01775993 -0.23072301 0.0090819448
-0.017925527 -0.23189501 0.010176748
-0.017519716 -0.23265602 0.01171875
-0.016550411 -0.233005 0.013695337
-0.016152706 -0.23375599 0.01521264
-0.015198398 -0.23409699 0.017155439
-0.015924197 -0.23565002 0.017784037
-0.017775398 -0.23802499 0.017544046
-0.0017948858 -0.19096701 -0.0071078092
-0.002535183 -0.19255 -0.0064668059
-0.0038269833 -0.19448 -0.0063098073
-0.0051232837 -0.196417 -0.0061527938
-0.0058662817 -0.198006 -0.0055087954
-0.0066093802 -0.199596 -0.0048657879
-0.0073524751 -0.20118602 -0.0042217895
-0.0080956742 -0.20277502 -0.0035787895
-0.0082779713 -0.20400201 -0.0024547875
-0.0090199672 -0.20558901 -0.0018127859
-0.0092004649 -0.206809 -0.00069478154
-0.0099413618 -0.20839401 -5.2779913e-05
-0.011812266 -0.21072601 -0.00035977364
-0.014269162 -0.21345501 -0.0011477694
-0.015592862 -0.21543901 -0.0009797588
-0.016921263 -0.21743001 -0.00081175566
-0.018254165 -0.21942802 -0.00064275414
-0.019591767 -0.22143202 -0.00047274679
-0.020344559 -0.22304301 0.00017905235
-0.020508554 -0.22425 0.0013098568
-0.020834949 -0.22665299 0.0035596564
-0.020997439 -0.22784899 0.0046788529
-0.021745343 -0.22944899 0.0053264648
-0.021320935 -0.23022799 0.0069059655
-0.022066336 -0.23182301 0.0075514615
-0.02106053 -0.23218001 0.0095763654
-0.020065222 -0.23253499 0.011580557
-0.02022681 -0.233703 0.012669556
-0.019814212 -0.234457 0.014200553
-0.018835101 -0.23479702 0.01616165
-0.00082168356 -0.187434 -0.0055328086
-0.0015582778 -0.18901001 -0.0048948154
-0.0022949763 -0.190586 -0.0042568147
-0.0035799742 -0.19250201 -0.004096806
-0.0048692748 -0.194426 -0.0039367974
-0.0056085736 -0.196007 -0.0032968
-0.0063479729 -0.19758901 -0.0026557967
-0.0070874691 -0.19917101 -0.0020157918
-0.007826969 -0.200752 -0.001375787
-0.0085664652 -0.202334 -0.00073479116
-0.008747261 -0.20355602 0.00037761778
-0.0094856583 -0.205135 0.0010170192
-0.010785457 -0.207081 0.001186423
-0.012656156 -0.20940499 0.00088422745
-0.013968159 -0.21136801 0.001054436
-0.017015163 -0.21448399 -0.00020375103
-0.018346068 -0.216473 -3.4749508e-05
-0.019681562 -0.21846901 0.00013605505
-0.020433057 -0.22007699 0.00078685582
-0.021184657 -0.22168399 0.0014377609
-0.00094037876 -0.184589 -0.004927814
-0.0016757771 -0.18616201 -0.0042918101
-0.0024112761 -0.18773501 -0.0036548153
-0.0031468719 -0.189308 -0.0030178055
-0.0038823672 -0.190881 -0.0023808032
-0.0051680692 -0.19279601 -0.0022177994
-0.0059049688 -0.194372 -0.0015797988
-0.0066420659 -0.195948 -0.00094179064
-0.0073790587 -0.19752501 -0.0003027916
-0.0081161596 -0.199101 0.00033511221
-0.0088533573 -0.20067801 0.00097341835
-0.0095905587 -0.202255 0.0016118139
-0.010327853 -0.20383202 0.0022502169
-0.011626951 -0.205772 0.0024215281
-0.012930546 -0.20771901 0.0025934353
-0.014808852 -0.21004499 0.0022962317
-0.017277155 -0.21276699 0.0015235469
-0.01918656 -0.215131 0.0012201518
-0.02110916 -0.21751101 0.00091475993
-0.021860857 -0.219119 0.001565665
-0.00032448024 -0.18018201 -0.0049618185
-0.0010586753 -0.18175301 -0.0043258145
-0.0017928742 -0.183323 -0.0036898106
-0.0019835718 -0.184567 -0.0025798157
-0.0021736696 -0.185807 -0.0014738142
-0.0029055625 -0.187372 -0.00083980709
-0.0041831657 -0.189271 -0.00067580491
-0.0049164593 -0.19083901 -4.0799379e-05
-0.0056497604 -0.19240801 0.00059450418
-0.0063831583 -0.193976 0.0012295023
-0.0076689571 -0.19589001 0.0013981089
-0.0089591555 -0.19781001 0.0015672147
-0.0096951537 -0.199384 0.0022046193
-0.010431249 -0.200958 0.0028420165
-0.011167351 -0.20253201 0.0034794286
-0.011903547 -0.204107 0.0041169226
-0.013203349 -0.20604502 0.004291229
-0.01450764 -0.20798899 0.0044661313
-0.016961951 -0.21068601 0.0037085488
-0.019441452 -0.21341099 0.002943255
-0.020772349 -0.21539201 0.0031180531
0.0017025284 -0.176112 -0.002467826
0.00043933094 -0.177981 -0.002306819
-0.00082816929 -0.179858 -0.0021458119
-0.0015588664 -0.18142 -0.0015128106
-0.0017490648 -0.182661 -0.00041181594
-0.0024785623 -0.184221 0.00021959096
-0.0032081567 -0.185782 0.00085129589
-0.0039378554 -0.187342 0.0014830977
-0.0052130558 -0.189234 0.0016512051
-0.0059440546 -0.190798 0.002284199
-0.0066750497 -0.192361 0.0029172078
-0.0079571493 -0.19426501 0.0030881092
-0.0097994506 -0.196522 0.0027954206
-0.01053435 -0.19809401 0.0034318194
-0.011269346 -0.19966601 0.0040682256
-0.012004346 -0.20123701 0.0047047287
-0.012739439 -0.20280899 0.0053411275
-0.014038544 -0.204742 0.0055172294
-0.015342142 -0.206681 0.0056940392
-0.016650144 -0.208627 0.0058714375
0.0026419349 -0.172711 -0.00094282627
0.00085393712 -0.174872 -0.001245819
-0.00040866435 -0.176737 -0.0010838211
-0.001136966 -0.178294 -0.00045280904
-0.0018653609 -0.179851 0.00017778575
-0.0025937557 -0.181409 0.0008084923
-0.0027817525 -0.18264601 0.0019018948
-0.0035090521 -0.184201 0.0025315955
-0.004236348 -0.185757 0.0031613931
-0.0055079497 -0.18764 0.0033317059
-0.0062365457 -0.189198 0.0039626062
-0.0069652461 -0.19075601 0.0045936108
-0.0082435459 -0.192652 0.0047669113
-0.010080844 -0.194896 0.0044809207
-0.011371046 -0.19680801 0.0046549216
-0.012104843 -0.198377 0.005290322
-0.012838844 -0.199947 0.0059258342
-0.013572734 -0.20151602 0.0065613315
-0.014871132 -0.20344301 0.0067393407
-0.016174037 -0.205377 0.0069179386
0.0053362437 -0.167219 0.0008629635
0.0035719387 -0.16934401 0.00056767464
0.0023242421 -0.171184 0.0007320717
0.00054103881 -0.173333 0.00043507665
-0.00125416 -0.175496 0.00013618916
-0.0019813552 -0.17705101 0.00076578557
-0.002708558 -0.178606 0.0013954937
-0.0028961524 -0.179846 0.0024860948
-0.0030830503 -0.181081 0.0035730973
-0.0032695457 -0.18231301 0.0046563968
-0.0039934404 -0.183861 0.0052830949
-0.0058010407 -0.186056 0.0050012022
-0.0065273419 -0.187609 0.0056301057
-0.00725374 -0.189162 0.0062591136
-0.0090785399 -0.191384 0.0059796199
-0.01036064 -0.19328 0.0061553195
-0.012205139 -0.195527 0.0058741271
-0.012937833 -0.19709301 0.0065085292
-0.013670634 -0.19866 0.0071430355
0.0057284459 -0.16419101 0.001897566
0.0044926479 -0.16601001 0.0020629689
0.0037750453 -0.16754401 0.0026842654
0.0025338493 -0.16937201 0.0028514713
0.0012884513 -0.171206 0.0030191839
3.8851053e-05 -0.17304601 0.0031874776
-0.0012149513 -0.17489201 0.0033563897
-0.0019374453 -0.17643701 0.0039819852
-0.0026601441 -0.177982 0.0046075955
-0.0033827424 -0.179527 0.0052332953
-0.0041054375 -0.181072 0.005858995
-0.0048281364 -0.18261701 0.0064847022
-0.0055510327 -0.18416201 0.0071106032
-0.0068165362 -0.186031 0.0072866082
-0.007540632 -0.18757901 0.0079136118
-0.0088116303 -0.189457 0.0080914199
-0.011192333 -0.192011 0.0073659271
-0.012478035 -0.193909 0.0075440258
-0.013208438 -0.19547001 0.0081764311
0.0056021474 -0.161461 0.0024729669
0.0048869513 -0.16299 0.0030921623
0.0036515519 -0.164804 0.0032593757
0.0029351525 -0.166336 0.0038796738
0.0022186525 -0.167867 0.0045000762
0.00097665563 -0.16969301 0.0046699792
-0.00026934221 -0.171525 0.0048405826
-0.00098834187 -0.173062 0.0054630861
-0.0017074384 -0.17459901 0.0060857907
-0.0029602386 -0.176442 0.0062590986
-0.0036806352 -0.177982 0.0068826973
-0.0044010356 -0.17952201 0.0075064972
-0.0051214322 -0.181062 0.0081302002
-0.0063821301 -0.18292001 0.0083075017
-0.0071039274 -0.18446301 0.0089323074
-0.0083701275 -0.18632901 0.0091112107
-0.0090931281 -0.187875 0.0097373202
-0.010915227 -0.190081 0.0094710216
-0.013306629 -0.19263801 0.0087525323
0.0067043491 -0.15694201 0.002880156
0.005991552 -0.158466 0.0034973547
0.0047620498 -0.16026701 0.0036647618
0.0040479526 -0.16179301 0.0042828619
0.0028130561 -0.16360301 0.0044519752
0.0020977594 -0.165132 0.0050712749
0.0013822578 -0.16666101 0.0056907833
0.00014086068 -0.16848201 0.0058624819
-0.00057583675 -0.17001401 0.0064829886
-0.0012926348 -0.171546 0.0071034878
-0.0020094328 -0.173078 0.0077240914
-0.0032586306 -0.174913 0.0078995973
-0.0039767325 -0.176448 0.0085213929
-0.0046949275 -0.177983 0.0091432035
-0.0054131262 -0.179518 0.0097649992
-0.0066702254 -0.18136701 0.0099444091
-0.007931523 -0.183222 0.010124408
-0.0086522251 -0.184762 0.010748409
-0.009919025 -0.186626 0.010930121
-0.01119012 -0.18849701 0.011112422
0.006576851 -0.154238 0.0034510568
0.0058651529 -0.15575901 0.004067257
0.0046374537 -0.157552 0.0042353645
0.0039244592 -0.15907601 0.0048526675
0.0032113567 -0.16060001 0.0054699704
0.0024982616 -0.16212401 0.0060872734
0.0017851628 -0.16364901 0.0067046732
0.0010719672 -0.16517301 0.0073221773
-0.00016603619 -0.16698501 0.0074961782
-0.00088043138 -0.168512 0.0081146881
-0.0021237321 -0.170333 0.0082902908
-0.0028395317 -0.171863 0.0089099929
-0.0040881261 -0.173693 0.0090871975
-0.0048052259 -0.175226 0.0097080022
-0.0055223219 -0.17675801 0.010328799
-0.0062394217 -0.17829101 0.010949701
-0.0074959211 -0.180135 0.01113081
-0.008214321 -0.18167001 0.011752807
-0.0089328177 -0.18320601 0.012374818
-0.010196015 -0.18506101 0.012558818
0.0076705553 -0.149764 0.0038530603
0.0069611557 -0.15128 0.0044673607
0.0057391524 -0.15306 0.0046354681
0.0045131557 -0.154846 0.0048041642
0.0038012564 -0.156368 0.0054204687
0.0030893609 -0.15788901 0.0060367733
0.0023773611 -0.159411 0.0066531748
0.0016652644 -0.160933 0.0072695762
0.00095316395 -0.16245401 0.0078861788
0.00024107099 -0.163976 0.0085026771
-0.00047112629 -0.165498 0.0091192871
-0.0017097257 -0.167309 0.0092959851
-0.0024232268 -0.168833 0.0099136904
-0.0036671236 -0.170652 0.010092095
-0.0049152225 -0.17247701 0.010271005
-0.0056312233 -0.174007 0.010890901
-0.0063472204 -0.175538 0.011510804
-0.0070633143 -0.17706801 0.012130708
-0.0083192177 -0.17890701 0.012313507
-0.0090365149 -0.18044001 0.012934618
0.0075420551 -0.147084 0.0044196546
0.0068337582 -0.148598 0.0050328597
0.006125357 -0.150111 0.0056461543
0.0049039572 -0.151887 0.0058159679
0.0036784634 -0.153668 0.0059864745
0.0029676631 -0.155187 0.0066018701
0.002256766 -0.15670601 0.0072172731
0.0015457645 -0.158225 0.0078327805
0.0008347705 -0.15974501 0.0084482804
0.00012377277 -0.161264 0.0090637803
-0.00058732554 -0.16278401 0.0096794888
-0.0012985244 -0.164303 0.010295086
-0.0025365241 -0.166109 0.010473497
-0.0032490194 -0.167631 0.011090294
-0.0044923201 -0.16944501 0.011270396
-0.0052060187 -0.17097001 0.011888206
-0.0064547174 -0.172793 0.012070104
-0.0071696155 -0.174321 0.012689009
-0.0084237158 -0.17615201 0.01287251
0.0073034465 -0.14212601 0.002415359
0.0071039498 -0.14339601 0.0034792572
0.0069050528 -0.14466201 0.0045396611
0.0061966591 -0.146175 0.0051528588
0.0059994608 -0.14743501 0.0062089562
0.0052921623 -0.148946 0.0068212673
0.0045847669 -0.15045701 0.0074336678
0.0033625662 -0.15223101 0.0076062754
0.0026539676 -0.153745 0.0082197711
0.0019452684 -0.155259 0.0088332742
0.0012365729 -0.156774 0.0094467774
6.7725778e-06 -0.15856101 0.0096231773
-0.00070322305 -0.160078 0.010237791
-0.0014132224 -0.161595 0.010852486
-0.0021233186 -0.163112 0.011467189
-0.0028335154 -0.16463 0.012081996
-0.0040722154 -0.16643301 0.012263194
-0.0047836155 -0.167953 0.012878999
-0.0060276128 -0.169765 0.013061903
-0.006740313 -0.171287 0.013678811
-0.0079896115 -0.173108 0.013863407
0.008192353 -0.138972 0.0038797483
0.007485155 -0.14048201 0.004491955
0.007286258 -0.14174901 0.0055473596
0.0075941645 -0.142766 0.0070386603
0.007395871 -0.144022 0.0080849603
0.0066930689 -0.14552401 0.0086933598
0.0059901737 -0.147026 0.0093017593
0.0052871741 -0.14852801 0.0099102631
0.0045842752 -0.150029 0.010518864
0.0038811788 -0.15153201 0.011127464
0.0031780787 -0.153034 0.011736073
0.0019613802 -0.1548 0.011914775
0.0012570843 -0.156305 0.012524478
3.5084784e-05 -0.15808 0.012704782
-0.00067051128 -0.159587 0.013315588
-0.0013761111 -0.16109501 0.013926387
-0.0020817071 -0.16260201 0.01453729
-0.00331131 -0.164391 0.014721297
-0.0040182061 -0.16590101 0.015333295
-0.0057826079 -0.16798501 0.015091404
-0.0064919032 -0.16950101 0.015705399
0.0090725571 -0.135847 0.0053299516
0.0083687603 -0.13735101 0.0059392527
0.0076649636 -0.13885501 0.0065485612
0.0074665658 -0.140118 0.0075955614
0.0072687678 -0.141377 0.0086392611
0.0070715733 -0.14263201 0.0096796602
0.006370876 -0.14412801 0.010286257
0.0061754808 -0.14537701 0.011322461
0.0054757819 -0.146872 0.011928067
0.0047760829 -0.148367 0.012533769
0.0040762872 -0.14986201 0.013139464
0.002866786 -0.15161501 0.013319574
0.0021657869 -0.15311201 0.013926476
0.00095109269 -0.154873 0.014108181
-0.00026750937 -0.15664001 0.014290482
-0.0014900081 -0.15841301 0.014473587
-0.0021946095 -0.15991801 0.015083484
-0.002899304 -0.161423 0.015693396
-0.0041283034 -0.16320701 0.015879095
-0.0048342012 -0.16471501 0.016490206
0.0099442601 -0.132753 0.0067662448
0.0087427646 -0.13448 0.0069359541
0.0080410652 -0.135979 0.0075432509
0.0078426674 -0.137242 0.008585453
0.0076448731 -0.138502 0.0096241608
0.0074476749 -0.13975701 0.010659754
0.0067491792 -0.14125 0.011264361
0.0060506798 -0.14274201 0.011869058
0.005351983 -0.144234 0.012473762
0.0046533868 -0.14572601 0.013078563
0.0039546862 -0.147219 0.013683364
0.0032558925 -0.14871201 0.014288172
0.0025570914 -0.150204 0.01489307
0.0013469905 -0.15195501 0.015075877
0.00013289601 -0.153712 0.015259281
-0.0010852031 -0.15547401 0.015443191
-0.0023072064 -0.157242 0.015627891
-0.003010802 -0.15874501 0.016236894
-0.004238002 -0.160521 0.016423292
0.012490068 -0.12776101 0.0084494352
0.011302169 -0.129467 0.008620441
0.0096130706 -0.131402 0.0083598495
0.0089146718 -0.13289401 0.0089643523
0.008216273 -0.134385 0.0095688477
0.007517878 -0.135877 0.010173455
0.0073210821 -0.137135 0.01120656
0.0071249828 -0.13838901 0.01223626
0.0064285845 -0.13987601 0.012839057
0.0057321861 -0.14136401 0.013441868
0.0050356872 -0.14285101 0.014044769
0.0043391921 -0.14433901 0.014647663
0.0036425963 -0.14582701 0.015250675
0.0024380945 -0.14756501 0.015433371
0.0012294948 -0.14930901 0.015616678
0.00053060055 -0.150802 0.01622168
-0.00068300217 -0.15255301 0.016406685
-0.0019005015 -0.154311 0.016592391
-0.0031220019 -0.156075 0.016778693
-0.0038245991 -0.157575 0.017386794
0.013820976 -0.124533 0.010278434
0.012153376 -0.12643701 0.010025039
0.011460576 -0.12791601 0.010624744
0.010274678 -0.12961601 0.010798842
0.0095806792 -0.131099 0.011399649
0.0088865794 -0.132581 0.012000352
0.0081924833 -0.13406301 0.012601249
0.0074982867 -0.135546 0.013202056
0.0068040863 -0.13702901 0.013802961
0.0061097927 -0.138511 0.014403857
0.0054154918 -0.13999401 0.015004866
0.0047211945 -0.141477 0.015605964
0.0035220943 -0.14320301 0.01578857
0.0028265975 -0.14468801 0.016390674
0.001622498 -0.146422 0.016574979
0.00041449815 -0.14816101 0.016759977
-0.00079740211 -0.14990601 0.016945489
-0.0014964975 -0.151399 0.017550685
-0.0027134977 -0.153152 0.017737992
-0.0039343983 -0.154911 0.017925896
0.016777683 -0.11947401 0.012328722
0.015615083 -0.121139 0.012503229
0.013966285 -0.123017 0.012258932
0.013278782 -0.124485 0.012853935
0.012105085 -0.126167 0.013030238
0.011416487 -0.127637 0.01362624
0.010237888 -0.129326 0.013804145
0.0095480904 -0.13079901 0.014401153
0.0088582933 -0.132273 0.01499825
0.0081683956 -0.133746 0.015595354
0.0069824941 -0.13544801 0.015776761
0.0057927966 -0.137155 0.015958756
0.0051006004 -0.138633 0.016557962
0.0039058998 -0.140349 0.016741663
0.0032125041 -0.14183 0.01734177
0.0015050992 -0.143796 0.017110877
0.00080930442 -0.145282 0.017713077
-0.0003980957 -0.147017 0.017899677
-0.0016094968 -0.148757 0.018086791
-0.0028247945 -0.15050301 0.018274695
-0.0035240948 -0.151997 0.018879995
0.018269386 -0.115089 0.013102412
0.017114688 -0.116739 0.013277322
0.015956189 -0.118395 0.013452731
0.014794089 -0.120055 0.013628826
0.014109891 -0.121517 0.014221027
0.013425592 -0.122978 0.014813237
0.012741294 -0.124439 0.015405633
0.012056895 -0.1259 0.015997939
0.011372499 -0.127362 0.016590342
0.010688003 -0.128823 0.017182745
0.0095155016 -0.130504 0.017365247
0.0088298023 -0.13196801 0.017958753
0.0071590021 -0.133882 0.017732061
0.0054776035 -0.13580701 0.017504066
0.0042873025 -0.137513 0.017688662
0.0030931011 -0.13922401 0.017873973
0.0018951036 -0.14094 0.018059775
0.0012015067 -0.14242101 0.01866018
-0.00051249191 -0.14439 0.018433489
-0.0017221943 -0.14612401 0.018621288
-0.0029356927 -0.147863 0.018809699
0.018129386 -0.112569 0.013631515
0.016976088 -0.114213 0.013806924
0.016295191 -0.115667 0.014396422
0.015137091 -0.117318 0.014573328
0.014454994 -0.11877501 0.015163831
0.013292193 -0.120434 0.015342332
0.012608897 -0.121893 0.015933737
0.012408298 -0.123145 0.016935237
0.011726003 -0.124602 0.017525844
0.011043604 -0.126059 0.018116444
0.010361105 -0.127516 0.018707044
0.0091916062 -0.129189 0.018891454
0.0085080117 -0.130649 0.019483052
0.00684141 -0.132552 0.019262061
0.005164206 -0.134468 0.019039668
0.0034763068 -0.13639601 0.018815972
0.0022826083 -0.13810201 0.019002773
0.0010851063 -0.139814 0.019190177
-0.00011618808 -0.141532 0.019378282
-0.0013213903 -0.14325501 0.019567087
-0.0030464903 -0.14523001 0.019343093
0.018928893 -0.109687 0.014980011
0.017782196 -0.11131901 0.015156724
0.016157992 -0.11314601 0.01492352
0.015001494 -0.11479101 0.015101127
0.014320396 -0.116245 0.015690625
0.0136392 -0.1177 0.016280137
0.012957998 -0.11915401 0.016869739
0.012276702 -0.120609 0.017459333
0.011595402 -0.122063 0.018049046
0.010914005 -0.12351801 0.018638745
0.010232609 -0.124973 0.01922854
0.0095511116 -0.12642801 0.019818448
0.0088696145 -0.127883 0.02040825
0.0072093084 -0.12977101 0.020190857
0.0065255128 -0.13123101 0.020782657
0.0043555088 -0.13336 0.020159565
0.0031688139 -0.13505401 0.02034767
0.00096901134 -0.137215 0.019718677
-0.00023058802 -0.138926 0.019907281
-0.0014341883 -0.140643 0.020096689
-0.0026416853 -0.14236401 0.020286694
0.019930093 -0.105571 0.015326113
0.019255398 -0.107012 0.015910015
0.018112794 -0.10863401 0.016087711
0.016966499 -0.11026201 0.016266018
