ply
format ascii 1.0
element vertex 1169
property float x
property float y
property float z
property uchar diffuse_red
property uchar diffuse_green
property uchar diffuse_blue
end_header
0.0724262 -0.213046 -0.0295135 52 124 46
0.0711478 -0.212933 -0.0310379 64 130 56
0.0691381 -0.212688 -0.0322065 59 123 54
0.0678724 -0.212576 -0.0337176 44 116 45
0.0666113 -0.212465 -0.0352231 47 123 46
0.0646322 -0.212223 -0.0363681 58 130 51
0.0619534 -0.211854 -0.0371504 59 135 55
0.0614266 -0.211874 -0.03899 64 138 60
0.0630435 -0.212282 -0.0419164 78 149 69
0.063954 -0.212563 -0.0445033 89 162 79
0.0648709 -0.212846 -0.0471085 94 171 87
0.0665269 -0.213265 -0.0501153 92 172 88
0.0667249 -0.213419 -0.0523751 82 156 75
0.0661879 -0.213439 -0.0542504 71 143 61
0.0634625 -0.213058 -0.0549465 72 133 55
0.0607664 -0.212681 -0.0556351 74 134 56
0.0588085 -0.212439 -0.056706 73 134 58
0.0554599 -0.21194 -0.0569899 62 133 53
0.0521583 -0.211448 -0.0572697 55 132 48
0.0509495 -0.211341 -0.058703 67 134 51
0.0504288 -0.21136 -0.0605216 93 143 61
0.0485447 -0.211127 -0.0615543 112 137 67
0.0480259 -0.211146 -0.0633663 107 112 63
0.0481857 -0.211291 -0.0655767 104 102 59
0.0483461 -0.211437 -0.0677947 99 97 57
0.0512574 -0.212096 -0.0716656 91 97 60
0.0521203 -0.212374 -0.0743374 82 116 69
0.0529893 -0.212655 -0.077028 90 122 64
0.0524604 -0.212674 -0.0788747 90 142 66
0.0491572 -0.212174 -0.0790004 83 138 62
0.0479456 -0.212064 -0.080404 80 136 56
0.0433578 -0.211319 -0.0796684 78 137 56
0.0428393 -0.211338 -0.0814791 71 140 56
0.0416536 -0.211232 -0.082861 65 140 54
0.0411361 -0.211251 -0.0846682 69 137 55
0.0392947 -0.211019 -0.0856099 82 130 60
0.038779 -0.211039 -0.0874107 70 84 58
0.0395837 -0.211308 -0.0900894 64 58 35
0.0397291 -0.211454 -0.0923406 54 51 34
0.0405414 -0.211726 -0.0950503 51 56 40
0.0440641 -0.212517 -0.0996238 59 66 47
0.0455896 -0.212929 -0.102869 75 85 53
0.0457489 -0.21308 -0.105191 90 115 61
0.0452197 -0.2131 -0.107039 86 130 70
0.0355842 -0.211607 -0.106815 105 146 66
0.0337594 -0.211374 -0.10768 107 147 66
0.0325942 -0.211268 -0.10901 108 150 83
0.032079 -0.211287 -0.110809 103 124 89
0.0742309 -0.208303 0.027307 65 53 33
0.0722688 -0.208081 0.0259661 64 63 40
0.0710339 -0.207981 0.0243948 69 94 45
0.070516 -0.208 0.022586 61 93 53
0.0699981 -0.208019 0.0207774 108 144 76
0.0694803 -0.208039 0.0189689 118 160 92
0.0689624 -0.208058 0.0171606 91 131 62
0.0691561 -0.208197 0.0150959 88 152 71
0.070066 -0.208458 0.0127629 98 158 75
0.0731567 -0.209088 0.00960881 99 161 77
0.0777888 -0.209981 0.00584129 112 169 84
0.0780036 -0.210128 0.00370166 119 175 94
0.0782192 -0.210275 0.00155453 110 173 90
0.0784356 -0.210422 -0.000600174 99 162 79
0.0779014 -0.210442 -0.00246581 87 146 66
0.0773672 -0.210462 -0.00433128 75 129 54
0.076833 -0.210482 -0.00619666 61 111 43
0.0762989 -0.210502 -0.00806188 49 109 39
0.0757648 -0.210522 -0.009927 60 118 47
0.0752308 -0.210541 -0.0117919 62 121 53
0.0746968 -0.210561 -0.0136568 63 121 54
0.0741629 -0.210581 -0.0155215 68 122 57
0.0736289 -0.210601 -0.017386 65 122 58
0.0738378 -0.210749 -0.0195773 57 118 59
0.073303 -0.210769 -0.021445 44 113 56
0.0735119 -0.210918 -0.0236472 39 109 46
0.0737215 -0.211067 -0.0258572 36 106 38
0.0739319 -0.211217 -0.0280751 45 115 41
0.0733944 -0.211237 -0.0299523 59 126 50
0.0721117 -0.211127 -0.0314788 51 112 49
0.0715752 -0.211147 -0.0333523 37 102 38
0.0702983 -0.211038 -0.0348696 45 114 40
0.0697628 -0.211058 -0.0367396 56 124 52
0.0684915 -0.210948 -0.0382478 51 121 50
0.0672247 -0.210839 -0.0397505 44 111 47
0.0666913 -0.210859 -0.0416133 41 113 45
0.0690953 -0.211397 -0.0449653 42 116 43
0.0692981 -0.211548 -0.0472204 47 118 43
0.0702461 -0.211831 -0.0498688 50 118 42
0.0704522 -0.211984 -0.0521449 52 120 45
0.0699111 -0.212004 -0.0540341 55 122 48
0.0693702 -0.212024 -0.0559233 60 128 51
0.0673456 -0.21178 -0.057013 68 133 56
0.0646041 -0.211407 -0.0576967 70 131 57
0.0626148 -0.211167 -0.05877 56 127 53
0.0599232 -0.2108 -0.059438 52 128 49
0.0572604 -0.210438 -0.0600987 56 133 52
0.0553254 -0.210205 -0.0611479 82 140 59
0.054799 -0.210224 -0.062986 121 159 72
0.053575 -0.210118 -0.0644218 145 170 78
0.0530496 -0.210138 -0.0662563 145 164 78
0.0546195 -0.210536 -0.0693211 132 158 79
0.0562062 -0.210939 -0.0724184 121 148 73
0.057096 -0.211216 -0.0751219 105 140 66
0.0565632 -0.211236 -0.0769822 87 149 69
0.0560306 -0.211256 -0.0788424 75 141 63
0.0547893 -0.211146 -0.0802669 78 135 56
0.0528496 -0.210909 -0.0812504 77 135 54
0.0509239 -0.210673 -0.0822268 71 134 52
0.0462724 -0.209938 -0.0814669 65 134 52
0.0457502 -0.209957 -0.0832904 62 135 54
0.0438763 -0.209728 -0.0842456 63 130 55
0.0426847 -0.209624 -0.0856275 66 114 54
0.0421654 -0.209644 -0.0874411 70 93 50
0.0423156 -0.209786 -0.089696 64 66 42
0.0417954 -0.209806 -0.0915126 58 63 46
0.0419454 -0.209949 -0.0937783 73 69 45
0.0448057 -0.210596 -0.0978844 83 100 56
0.0470249 -0.211126 -0.101592 82 118 66
0.0478808 -0.211403 -0.104392 83 127 66
0.0473496 -0.211423 -0.106247 85 133 60
0.0461266 -0.211313 -0.107618 78 134 60
0.0455965 -0.211333 -0.10947 81 136 58
0.0436936 -0.211096 -0.110345 73 136 59
0.036455 -0.209856 -0.107383 67 133 53
0.0346239 -0.209628 -0.108247 66 138 60
0.0328056 -0.209403 -0.109105 85 149 83
0.0322903 -0.209422 -0.110905 101 129 89
0.0744474 -0.206423 0.0272227 61 53 41
0.0724846 -0.206208 0.0258819 65 59 44
0.0712493 -0.206111 0.0243106 66 88 42
0.0707313 -0.20613 0.0225017 61 91 37
0.0702133 -0.206149 0.0206929 73 118 51
0.0696954 -0.206169 0.0188842 121 184 85
0.0691775 -0.206188 0.0170758 110 178 79
0.0693715 -0.206324 0.0150108 93 152 71
0.0695663 -0.206461 0.0129388 94 154 70
0.0719219 -0.206953 0.0100601 92 156 72
0.0765222 -0.207817 0.00631143 101 163 81
0.0774779 -0.208081 0.00389738 120 173 93
0.0776922 -0.208225 0.00175425 111 172 89
0.0779072 -0.208368 -0.000396393 99 159 77
0.078123 -0.208512 -0.00255463 88 147 68
0.0783397 -0.208657 -0.00472046 80 136 60
0.0778045 -0.208677 -0.00658932 74 126 55
0.0772694 -0.208697 -0.00845808 74 127 57
0.0767343 -0.208717 -0.0103267 78 134 61
0.0761992 -0.208737 -0.0121951 86 145 68
0.0764131 -0.208882 -0.0143816 95 156 75
0.0758771 -0.208902 -0.0162531 104 165 80
0.0753412 -0.208922 -0.0181246 105 168 81
0.0748053 -0.208942 -0.0199959 102 165 78
0.0750171 -0.209088 -0.0221997 96 156 72
0.0744804 -0.209108 -0.0240741 86 140 64
0.0754432 -0.209381 -0.026631 69 126 54
0.0756574 -0.209529 -0.0288585 61 125 50
0.0766298 -0.209805 -0.0314464 51 111 44
0.0760883 -0.209825 -0.0333373 35 96 34
0.0755468 -0.209846 -0.0352281 40 103 38
0.0750055 -0.209866 -0.0371187 54 114 49
0.0737107 -0.209758 -0.038643 51 112 47
0.0731704 -0.209778 -0.0405299 46 107 41
0.0726301 -0.209798 -0.0424167 44 106 40
0.0728403 -0.209947 -0.0446799 42 106 40
0.0730513 -0.210096 -0.0469512 41 104 36
0.0732631 -0.210246 -0.0492307 36 103 34
0.0734757 -0.210396 -0.0515184 34 102 29
0.0736892 -0.210547 -0.0538143 42 111 37
0.0731442 -0.210568 -0.0557175 55 121 48
0.0718436 -0.210457 -0.0572177 63 128 54
0.0697989 -0.210217 -0.0583088 61 128 51
0.0685116 -0.210108 -0.0597959 51 116 46
0.0672291 -0.21 -0.0612774 52 125 46
0.0637533 -0.209508 -0.0615342 61 127 52
0.0610459 -0.20915 -0.0621897 58 129 55
0.0590801 -0.208919 -0.063241 59 135 61
0.058549 -0.208939 -0.0650956 68 141 66
0.058018 -0.208959 -0.0669501 78 149 69
0.0581992 -0.209104 -0.0692188 82 155 73
0.0590975 -0.209375 -0.0719161 79 154 73
0.0629112 -0.210161 -0.0763562 75 146 66
0.0623716 -0.210181 -0.0782405 72 137 58
0.0618321 -0.210201 -0.0801246 69 132 54
0.0605644 -0.210092 -0.0815651 72 135 57
0.05786 -0.209728 -0.0821146 70 133 57
0.0558953 -0.209495 -0.0830986 64 134 53
0.0539448 -0.209262 -0.0840756 61 132 50
0.0499196 -0.20866 -0.0837271 70 133 52
0.0493927 -0.20868 -0.085567 92 147 62
0.0474894 -0.208453 -0.0865227 115 154 68
0.0462808 -0.20835 -0.0879129 119 134 60
0.0457568 -0.20837 -0.0897427 112 114 56
0.046599 -0.208635 -0.0924727 101 109 55
0.0474471 -0.208902 -0.095222 84 120 70
0.0489959 -0.209295 -0.0984565 85 119 65
0.0484655 -0.209315 -0.100309 86 131 61
0.0507308 -0.209841 -0.104067 79 136 61
0.050901 -0.209988 -0.106416 73 132 60
0.0503659 -0.210008 -0.108284 72 128 55
0.0470367 -0.20952 -0.1082 67 125 53
0.0458142 -0.209414 -0.109567 62 124 50
0.0439105 -0.209184 -0.110443 52 125 45
0.0379921 -0.208219 -0.108427 52 127 47
0.0354915 -0.207876 -0.108816 61 134 56
0.0336669 -0.207656 -0.109674 81 139 77
0.0325018 -0.207557 -0.111 92 114 81
0.074664 -0.204542 0.0271383 63 54 41
0.0734205 -0.204447 0.0255591 67 59 37
0.0721814 -0.204353 0.0239854 65 76 35
0.0709466 -0.204259 0.0224173 62 91 35
0.0704286 -0.204279 0.0206084 60 96 42
0.0699106 -0.204298 0.0187996 83 134 60
0.0693927 -0.204317 0.0169909 112 184 88
0.0688748 -0.204337 0.0151824 125 170 81
0.0690682 -0.20447 0.0131141 92 148 76
0.0706958 -0.204832 0.0105082 84 152 72
0.0745296 -0.205549 0.00705385 88 155 74
0.0762124 -0.205923 0.00437424 97 156 73
0.0779131 -0.206301 0.00166605 100 162 76
0.0773806 -0.206321 -0.000193365 99 161 74
0.079097 -0.206703 -0.00294046 93 151 71
0.0785617 -0.206723 -0.0048096 90 144 68
0.0787795 -0.206865 -0.00698343 88 140 65
0.0782434 -0.206885 -0.0088557 84 138 64
0.0777072 -0.206905 -0.0107278 83 140 65
0.0771712 -0.206925 -0.0125998 89 146 68
0.0766351 -0.206945 -0.0144717 97 155 73
0.0760992 -0.206965 -0.0163434 99 159 78
0.0763132 -0.207108 -0.0185411 104 161 80
0.0757763 -0.207128 -0.0204159 106 166 81
0.0759902 -0.207271 -0.0226247 105 168 82
0.0754524 -0.207291 -0.0245027 99 162 84
0.0764204 -0.207558 -0.0270658 85 149 74
0.0773955 -0.207828 -0.0296476 71 130 60
0.0776144 -0.207973 -0.0318927 61 114 47
0.0778342 -0.208119 -0.0341459 53 109 43
0.0772907 -0.20814 -0.0360438 57 115 49
0.0767473 -0.20816 -0.0379415 65 119 53
0.0762039 -0.20818 -0.039839 66 119 54
0.0756605 -0.208201 -0.0417365 70 123 57
0.0751172 -0.208221 -0.0436338 71 122 56
0.0753331 -0.208368 -0.0459117 63 119 56
0.0747889 -0.208388 -0.0478122 52 115 51
0.0750046 -0.208536 -0.0501018 45 110 45
0.0752211 -0.208684 -0.0523996 39 104 38
0.0754385 -0.208832 -0.0547057 50 115 42
0.0748915 -0.208852 -0.0566162 60 119 51
0.0735829 -0.208745 -0.0581204 49 116 46
0.0722792 -0.208638 -0.0596189 41 104 30
0.0717342 -0.208658 -0.061522 48 116 41
0.0704364 -0.208551 -0.0630113 59 127 49
0.0691433 -0.208445 -0.0644951 53 113 49
0.0671122 -0.208213 -0.0655574 45 108 44
0.0665713 -0.208233 -0.067446 37 111 44
0.0660305 -0.208253 -0.0693345 37 112 43
0.0669722 -0.208526 -0.0720769 40 112 40
0.0671737 -0.208673 -0.0744049 43 114 38
0.0688761 -0.209078 -0.0776219 48 119 42
0.0683296 -0.209098 -0.0795307 54 122 46
0.067783 -0.209119 -0.0814393 62 127 51
0.0672364 -0.209139 -0.0833479 66 134 57
0.0651978 -0.208903 -0.0843477 67 130 56
0.0631741 -0.208668 -0.0853401 55 128 54
0.061165 -0.208436 -0.0863251 56 129 49
0.0541637 -0.207339 -0.0841711 59 132 50
0.052928 -0.207237 -0.0855834 75 138 57
0.0523973 -0.207257 -0.0874367 103 156 68
0.0504697 -0.207034 -0.0883927 131 170 74
0.049941 -0.207054 -0.090239 136 163 70
0.0494123 -0.207073 -0.0920852 125 156 68
0.0502749 -0.207336 -0.0948482 109 146 63
0.0539727 -0.208095 -0.0995111 88 149 68
0.0534365 -0.208115 -0.101384 74 137 62
0.0557627 -0.208638 -0.105191 69 130 54
0.0559437 -0.208785 -0.107568 69 128 52
0.0554027 -0.208805 -0.109457 66 125 53
0.0548618 -0.208825 -0.111346 58 122 50
0.050756 -0.208216 -0.110744 51 122 43
0.0460319 -0.207495 -0.109665 44 121 42
0.0455018 -0.207515 -0.111516 43 122 43
0.0415588 -0.206929 -0.110924 52 126 48
0.0370225 -0.206235 -0.109863 70 131 59
0.0345313 -0.205904 -0.110244 80 117 68
0.0333626 -0.205807 -0.111572 74 81 62
0.0756071 -0.202772 0.0268167 65 62 44
0.0736367 -0.20257 0.0254747 63 56 42
0.0731168 -0.202589 0.023659 66 69 34
0.0711619 -0.202388 0.0223329 62 85 34
0.0706439 -0.202408 0.0205238 61 94 36
0.0701258 -0.202427 0.0187149 65 95 41
0.0696079 -0.202447 0.0169061 74 123 54
0.0690899 -0.202466 0.0150974 102 153 79
0.068572 -0.202486 0.0132888 108 171 92
0.0694782 -0.202726 0.0109532 125 164 77
0.0718331 -0.203192 0.00806037 90 149 69
0.0742214 -0.203665 0.00512677 76 148 64
0.0759025 -0.204029 0.00243685 79 147 66
0.0776016 -0.204397 -0.000281721 84 150 67
0.079319 -0.204769 -0.00302945 85 152 70
0.0795382 -0.204908 -0.00520036 81 149 72
0.0790019 -0.204928 -0.00707291 81 144 68
0.0784657 -0.204948 -0.00894535 79 141 64
0.0779295 -0.204968 -0.0108176 81 140 64
0.0773934 -0.204988 -0.0126897 88 145 67
0.0768573 -0.205008 -0.0145618 92 150 70
0.0770726 -0.205147 -0.0167566 93 151 74
0.0765356 -0.205167 -0.0186317 96 156 78
0.0767508 -0.205307 -0.0208375 102 162 77
0.0762129 -0.205327 -0.0227158 103 162 76
0.0756751 -0.205347 -0.0245939 99 158 75
0.0774013 -0.205729 -0.0275023 91 149 71
0.0783816 -0.205992 -0.0300905 80 137 63
0.0786027 -0.206134 -0.0323407 74 127 57
0.0788246 -0.206277 -0.034599 74 126 56
0.0782801 -0.206298 -0.0365005 78 132 60
0.078502 -0.206441 -0.0387703 85 143 69
0.0779565 -0.206462 -0.040675 93 156 77
0.0774111 -0.206482 -0.0425795 99 163 81
0.0768658 -0.206503 -0.0444839 101 166 81
0.0763204 -0.206523 -0.0463882 100 165 78
0.0765393 -0.206668 -0.0486796 97 158 73
0.075993 -0.206688 -0.0505871 88 142 63
0.0762117 -0.206833 -0.0528902 75 126 55
0.0756645 -0.206854 -0.0548009 67 119 50
0.0751174 -0.206874 -0.0567115 48 105 44
0.0745703 -0.206895 -0.0586219 33 96 28
0.0740233 -0.206915 -0.0605322 46 107 31
0.0734762 -0.206936 -0.0624425 56 121 48
0.0729293 -0.206956 -0.0643525 53 113 47
0.0716245 -0.206852 -0.0658421 50 110 43
0.0703244 -0.206749 -0.0673262 50 108 38
0.0697796 -0.206769 -0.0692288 45 104 38
0.0692347 -0.20679 -0.0711313 38 101 36
0.0694411 -0.206934 -0.0734664 32 100 32
0.0704039 -0.207205 -0.0762493 33 105 31
0.0713738 -0.207477 -0.0790527 43 115 37
0.0708242 -0.207498 -0.0809722 55 122 46
0.0702745 -0.207519 -0.0828916 59 125 52
0.0697248 -0.207539 -0.0848109 56 127 51
0.0691753 -0.20756 -0.08673 52 115 47
0.0671182 -0.207328 -0.0877229 52 124 51
0.0650763 -0.207098 -0.0887084 57 125 51
0.0579481 -0.206013 -0.0864965 54 127 51
0.0574116 -0.206034 -0.08837 54 132 55
0.0561588 -0.205933 -0.0897875 61 136 58
0.0549106 -0.205833 -0.0911998 69 139 59
0.0543761 -0.205853 -0.0930663 71 141 60
0.0552659 -0.206114 -0.095863 66 139 57
0.0568824 -0.2065 -0.0991543 63 133 52
0.0592463 -0.207013 -0.102967 61 129 50
0.0601688 -0.207283 -0.105845 64 126 50
0.0603595 -0.207429 -0.108246 63 126 50
0.0598135 -0.207449 -0.110153 59 124 50
0.0585336 -0.207344 -0.111555 52 120 46
0.0550841 -0.206867 -0.111446 43 118 40
0.0509762 -0.206275 -0.110842 40 119 36
0.0462497 -0.205575 -0.109762 40 121 44
0.0457195 -0.205595 -0.111614 50 122 48
0.043816 -0.205378 -0.112483 62 123 54
0.0405743 -0.20493 -0.112369 72 108 59
0.0360562 -0.204258 -0.111295 73 81 55
0.0753023 -0.200907 0.0249099 68 47 37
0.0747805 -0.200927 0.0230877 65 56 43
0.0720939 -0.200624 0.0220041 63 73 39
0.0708592 -0.200537 0.0204393 63 86 35
0.0703411 -0.200556 0.0186302 64 91 38
0.0698231 -0.200576 0.0168212 63 96 42
0.0693051 -0.200595 0.0150124 69 97 51
0.0687871 -0.200615 0.0132037 72 122 62
0.0682691 -0.200634 0.0113951 105 153 80
0.0698896 -0.200976 0.00878453 119 169 91
0.0715271 -0.201322 0.00614661 103 164 70
0.0739132 -0.201781 0.00319949 78 142 61
0.0763333 -0.202248 0.000210539 71 137 63
0.0780378 -0.202607 -0.00252492 69 138 63
0.0790058 -0.202855 -0.00498794 67 136 59
0.0792243 -0.20299 -0.00716241 67 135 58
0.0794436 -0.203125 -0.00934457 67 131 57
0.0781518 -0.20303 -0.0109074 68 131 58
0.0776157 -0.203051 -0.0127797 70 134 59
0.0778322 -0.203186 -0.0149716 75 138 63
0.0772951 -0.203206 -0.016847 82 146 70
0.0775116 -0.203342 -0.0190499 86 150 71
0.0769737 -0.203363 -0.0209285 91 155 73
0.0764357 -0.203383 -0.0228069 97 160 73
0.0758979 -0.203403 -0.0246851 99 158 74
0.0776251 -0.203774 -0.0275942 94 151 71
0.0793714 -0.204149 -0.030535 89 145 68
0.0795946 -0.204288 -0.0327903 87 141 66
0.0798187 -0.204428 -0.0350538 84 137 65
0.0792731 -0.204449 -0.0369589 84 138 66
0.0794972 -0.204589 -0.0392338 89 144 69
0.0789507 -0.20461 -0.0411422 94 151 74
0.0784042 -0.20463 -0.0430504 97 157 76
0.0778578 -0.204651 -0.0449584 99 161 76
0.0780798 -0.204792 -0.0472517 100 163 76
0.0775324 -0.204813 -0.049163 101 164 79
0.0769851 -0.204834 -0.0510742 100 159 77
0.0764378 -0.204854 -0.0529852 89 147 69
0.0766578 -0.204996 -0.055297 77 128 56
0.0761095 -0.205017 -0.0572113 60 112 46
0.0755614 -0.205037 -0.0591254 54 110 48
0.0742492 -0.204937 -0.0606279 65 119 50
0.0737021 -0.204957 -0.0625383 71 123 57
0.073155 -0.204978 -0.0644485 73 129 58
0.0726081 -0.204999 -0.0663586 80 132 59
0.0720611 -0.205019 -0.0682685 80 130 57
0.0715142 -0.20504 -0.0701783 73 125 58
0.0709673 -0.20506 -0.072088 60 116 54
0.0719374 -0.205325 -0.0748712 47 109 46
0.0729147 -0.205591 -0.077675 45 110 41
0.0731303 -0.205735 -0.0800481 53 116 44
0.0725784 -0.205756 -0.0819749 54 116 45
0.0727938 -0.205901 -0.0843601 42 110 41
0.072241 -0.205921 -0.0862903 41 108 33
0.0716883 -0.205942 -0.0882203 52 114 44
0.0703717 -0.205839 -0.0896809 55 124 54
0.0683026 -0.205613 -0.0906665 48 112 50
0.062536 -0.204783 -0.0893234 41 112 43
0.0612601 -0.204684 -0.0907549 37 114 42
0.0607186 -0.204705 -0.0926456 37 114 41
0.0601772 -0.204725 -0.0945361 38 114 37
0.0603663 -0.204865 -0.0968995 37 116 38
0.0620286 -0.205248 -0.100233 40 120 43
0.0622226 -0.20539 -0.102624 48 122 46
0.0639075 -0.205779 -0.106014 57 127 49
0.0633583 -0.205799 -0.107932 58 122 50
0.0628091 -0.20582 -0.109849 50 121 45
0.0607759 -0.205595 -0.110756 42 118 42
0.0594919 -0.205493 -0.112159 37 116 40
0.0582126 -0.205392 -0.113558 37 117 39
0.055487 -0.205049 -0.113938 44 118 43
0.0506604 -0.204355 -0.112813 54 119 52
0.0466288 -0.203791 -0.112203 60 109 53
0.0433498 -0.203351 -0.112091 67 95 49
0.0401169 -0.202917 -0.111981 69 75 48
0.0749975 -0.199042 0.0230029 64 49 43
0.0730291 -0.198853 0.0216741 58 55 33
0.0717906 -0.198769 0.020107 62 70 34
0.0705564 -0.198685 0.0185455 64 86 43
0.0700383 -0.198704 0.0167363 63 90 37
0.0695203 -0.198724 0.0149273 61 92 39
0.0690023 -0.198743 0.0131185 62 97 43
0.0684843 -0.198763 0.0113097 68 104 54
0.068677 -0.198886 0.00923455 94 142 79
0.0703024 -0.19922 0.00660806 126 184 97
0.0712211 -0.199451 0.00423269 113 182 87
0.0743382 -0.200005 0.000986122 101 165 77
0.0775111 -0.200569 -0.00231826 96 151 70
0.0784754 -0.20081 -0.00477633 87 139 59
0.0802037 -0.201164 -0.00755829 79 130 55
0.0796665 -0.201184 -0.0094344 76 124 55
0.0791292 -0.201204 -0.0113104 68 121 54
0.077838 -0.201113 -0.0128697 64 123 55
0.0773018 -0.201133 -0.0147421 62 127 57
0.0775177 -0.201265 -0.0169375 68 135 57
0.0777345 -0.201398 -0.0191407 72 139 59
0.0771966 -0.201418 -0.0210194 76 143 60
0.0766586 -0.201439 -0.022898 81 149 64
0.0761206 -0.201459 -0.0247764 82 149 66
0.0778491 -0.201819 -0.0276861 84 148 68
0.0795965 -0.202183 -0.0306276 83 146 71
0.0798201 -0.202319 -0.0328832 81 142 69
0.0800445 -0.202456 -0.035147 79 137 66
0.0802699 -0.202593 -0.0374189 81 137 63
0.0797233 -0.202613 -0.0393276 85 141 64
0.0791767 -0.202634 -0.0412361 89 145 68
0.079401 -0.202771 -0.043523 91 149 71
0.0788535 -0.202792 -0.0454347 96 155 72
0.0783061 -0.202813 -0.0473463 100 160 75
0.0777587 -0.202834 -0.0492577 101 160 77
0.0772113 -0.202854 -0.0511691 101 157 74
0.076664 -0.202875 -0.0530803 92 147 69
0.0768843 -0.203013 -0.0553924 85 135 62
0.076336 -0.203034 -0.0573068 75 126 58
0.0757878 -0.203055 -0.0592211 76 128 60
0.0752396 -0.203075 -0.0611352 82 132 64
0.0746915 -0.203096 -0.0630493 87 145 74
0.0741434 -0.203117 -0.0649631 93 157 79
0.0743597 -0.203256 -0.0673006 100 165 81
0.0738106 -0.203277 -0.0692178 103 167 81
0.0732617 -0.203297 -0.0711348 102 167 79
0.0734768 -0.203437 -0.0734876 97 160 73
0.0736928 -0.203577 -0.0758489 89 144 64
0.0739097 -0.203717 -0.078219 78 129 57
0.0748997 -0.203979 -0.0810509 64 115 48
0.0758973 -0.204243 -0.0839038 47 101 38
0.0761205 -0.204386 -0.0863107 38 102 29
0.0755635 -0.204407 -0.0882555 54 113 40
0.0750066 -0.204428 -0.0902001 57 120 51
0.0744497 -0.204449 -0.0921445 53 115 52
0.0738929 -0.20447 -0.0940889 52 116 48
0.0657257 -0.203289 -0.0912754 52 116 45
0.0651792 -0.203309 -0.0931837 47 113 41
0.0653792 -0.203448 -0.0955668 42 107 37
0.0655799 -0.203588 -0.0979586 35 104 35
0.0665341 -0.203848 -0.100846 33 109 36
0.0674955 -0.204109 -0.103755 44 118 45
0.068464 -0.204373 -0.106686 50 120 49
0.0679095 -0.204394 -0.108622 49 123 45
0.0658383 -0.204172 -0.109542 39 116 44
0.0637825 -0.203952 -0.110455 33 114 37
0.0624857 -0.203853 -0.111867 33 115 36
0.0604537 -0.203635 -0.112766 40 116 41
0.0591703 -0.203537 -0.114166 48 117 48
0.0571616 -0.203321 -0.115052 56 112 53
0.0544467 -0.202991 -0.115423 66 95 54
0.04964 -0.20232 -0.114284 62 76 46
0.0463158 -0.201888 -0.114156 62 63 37
0.0759428 -0.197259 0.0226731 63 60 40
0.0746927 -0.197177 0.0210957 63 59 37
0.0734468 -0.197095 0.019524 66 60 33
0.0722054 -0.197014 0.0179579 59 64 39
0.0709683 -0.196933 0.0163973 63 73 37
0.0704493 -0.196953 0.014585 63 91 38
0.0692175 -0.196872 0.0130333 60 95 38
0.0686994 -0.196892 0.0112244 60 97 41
0.0681814 -0.196911 0.00941563 65 102 53
0.0690862 -0.197132 0.00706629 109 147 81
0.0699974 -0.197355 0.00470066 138 189 101
0.0716383 -0.197682 0.00203655 123 183 90
0.0755026 -0.198327 -0.00152659 110 172 82
0.077947 -0.198771 -0.00456545 101 165 79
0.0804266 -0.199222 -0.00764801 90 151 76
0.0806485 -0.199351 -0.00983529 86 144 73
0.0801102 -0.199371 -0.0117148 85 141 67
0.0780603 -0.199175 -0.0129597 85 142 68
0.0775241 -0.199195 -0.0148322 84 141 65
0.0777404 -0.199324 -0.017028 92 143 64
0.0772033 -0.199344 -0.0189036 92 143 61
0.0766661 -0.199365 -0.020779 88 144 61
0.0768815 -0.199494 -0.0229891 85 141 64
0.0763434 -0.199514 -0.0248677 77 139 64
0.0780731 -0.199864 -0.0277781 72 138 62
0.0790557 -0.200106 -0.0303677 69 133 60
0.0800456 -0.20035 -0.0329762 69 129 58
0.0802704 -0.200483 -0.0352403 67 126 57
0.0804961 -0.200616 -0.0375125 66 126 57
0.0799495 -0.200637 -0.0394213 68 128 59
0.0794029 -0.200658 -0.04133 73 133 65
0.0796274 -0.200792 -0.0436172 79 139 67
0.0790799 -0.200812 -0.0455291 84 144 66
0.0785324 -0.200833 -0.0474409 89 150 69
0.0779849 -0.200854 -0.0493525 94 154 73
0.0774376 -0.200875 -0.0512639 98 156 75
0.0768902 -0.200896 -0.0531753 95 148 71
0.0771108 -0.20103 -0.0554878 91 146 67
0.0765625 -0.201051 -0.0574024 86 139 67
0.0760143 -0.201072 -0.0593168 85 135 65
0.075466 -0.201093 -0.0612312 86 135 64
0.0749178 -0.201113 -0.0631453 90 143 66
0.0751354 -0.201249 -0.0654797 94 150 68
0.0745863 -0.20127 -0.0673972 97 155 74
0.0740372 -0.20129 -0.0693145 100 160 78
0.0742538 -0.201426 -0.0716642 101 163 78
0.0737037 -0.201447 -0.0735848 100 163 76
0.0739201 -0.201584 -0.0759465 95 157 73
0.0756821 -0.201954 -0.0792148 85 142 67
0.0766826 -0.20221 -0.0820612 73 124 57
0.0769071 -0.202349 -0.0844649 62 111 49
0.0771324 -0.202489 -0.0868775 62 114 48
0.0765744 -0.20251 -0.0888261 73 125 53
0.0767996 -0.202651 -0.0912511 87 133 59
0.0762406 -0.202672 -0.0932031 91 140 64
0.0741223 -0.202455 -0.0941889 92 144 63
0.0735654 -0.202476 -0.0961332 91 141 63
0.0730086 -0.202497 -0.0980774 82 136 60
0.0724519 -0.202518 -0.100022 68 125 55
0.0726692 -0.202659 -0.102462 52 115 48
0.0728874 -0.202799 -0.104912 43 114 43
0.0731065 -0.202941 -0.107371 47 115 45
0.0725467 -0.202962 -0.109325 39 114 40
0.0712114 -0.202863 -0.110764 30 111 29
0.069881 -0.202764 -0.112198 30 113 33
0.0655132 -0.202194 -0.111571 30 115 37
0.0634585 -0.201981 -0.112476 37 116 40
0.0621623 -0.201885 -0.113885 54 116 48
0.0601314 -0.201675 -0.114777 67 109 54
0.0588486 -0.20158 -0.116173 65 88 51
0.0568411 -0.201372 -0.117051 61 62 45
0.0749096 -0.195292 0.0210106 64 62 43
0.0736634 -0.195213 0.0194389 65 58 36
0.0731424 -0.195233 0.0176199 65 60 38
0.0719015 -0.195155 0.016057 61 58 38
0.0706649 -0.195077 0.0144998 62 69 40
0.0701459 -0.195097 0.0126875 61 87 40
0.0689146 -0.19502 0.011139 59 95 41
0.0683966 -0.195039 0.00933012 60 97 39
0.0678786 -0.195059 0.00752132 73 116 56
0.0687822 -0.195274 0.00516537 126 188 93
0.0711322 -0.195688 0.00223167 131 210 105
0.0742484 -0.196209 -0.00103277 171 210 102
0.0774205 -0.19674 -0.00435536 151 214 108
0.0806496 -0.19728 -0.0077377 129 197 94
0.0808717 -0.197405 -0.00992532 119 176 83
0.0803334 -0.197426 -0.011805 109 161 76
0.0782827 -0.197236 -0.0130498 97 153 72
0.0777464 -0.197257 -0.0149224 96 159 74
0.0772101 -0.197277 -0.0167949 102 166 78
0.0766739 -0.197298 -0.0186673 104 173 85
0.0761377 -0.197318 -0.0205396 107 177 89
0.0756016 -0.197338 -0.0224116 108 180 89
0.0758145 -0.197464 -0.0246207 107 174 83
0.0760283 -0.19759 -0.0268376 101 160 74
0.0777562 -0.197929 -0.0297588 91 145 65
0.0787377 -0.198164 -0.0323556 84 133 59
0.0797264 -0.198401 -0.0349714 77 125 56
0.0799506 -0.19853 -0.0372391 71 120 54
0.0794049 -0.198551 -0.0391446 66 120 56
0.079629 -0.198681 -0.0414239 63 124 58
0.0798539 -0.198811 -0.0437115 65 130 59
0.0793064 -0.198832 -0.0456235 70 137 58
0.0787589 -0.198853 -0.0475354 75 142 61
0.0782113 -0.198874 -0.0494472 81 144 62
0.0776639 -0.198895 -0.0513589 82 145 64
0.0771164 -0.198916 -0.0532704 82 145 66
0.0773374 -0.199047 -0.0555832 83 142 63
0.0767891 -0.199068 -0.0574979 80 137 63
0.0762407 -0.199088 -0.0594126 78 133 61
0.0756925 -0.199109 -0.061327 80 131 61
0.0751442 -0.19913 -0.0632414 84 137 62
0.074596 -0.199151 -0.0651556 85 142 63
0.074813 -0.199283 -0.0674937 89 147 66
0.0742639 -0.199304 -0.0694112 94 154 73
0.0744807 -0.199436 -0.0717613 96 157 77
0.0739306 -0.199457 -0.073682 97 159 75
0.0741474 -0.19959 -0.0760441 95 156 71
0.0759107 -0.199949 -0.0793131 89 146 67
0.0776939 -0.200312 -0.0826187 83 136 62
0.0771367 -0.200333 -0.0845641 79 130 60
0.0773625 -0.20047 -0.086977 78 133 61
0.0775891 -0.200606 -0.0893989 80 137 63
0.0778166 -0.200744 -0.0918298 88 149 70
0.0772565 -0.200765 -0.0937856 96 159 77
0.0759119 -0.20067 -0.0952553 94 160 76
0.0753529 -0.200691 -0.0972071 92 160 76
0.074794 -0.200713 -0.0991588 94 164 77
0.0742351 -0.200734 -0.10111 93 161 74
0.0752398 -0.200988 -0.104065 84 146 65
0.075464 -0.201126 -0.106532 65 123 51
0.074902 -0.201148 -0.108494 45 107 36
0.0735572 -0.201052 -0.109941 30 104 23
0.0722172 -0.200957 -0.111382 29 110 23
0.0708825 -0.200862 -0.112817 31 114 34
0.0695527 -0.200767 -0.114247 34 117 39
0.064435 -0.200101 -0.113088 44 119 46
0.0623881 -0.199897 -0.113986 64 118 59
0.0610962 -0.199805 -0.11539 77 96 58
0.0598092 -0.199714 -0.116788 68 56 38
0.072838 -0.193371 0.0157156 63 57 34
0.0715976 -0.193296 0.0141561 66 60 41
0.0703615 -0.193222 0.0126021 63 71 39
0.0691298 -0.193148 0.0110536 63 91 37
0.0686117 -0.193167 0.00924455 62 96 36
0.0680936 -0.193187 0.00743563 60 98 53
0.0689981 -0.193396 0.00507924 111 155 75
0.0713495 -0.193797 0.00214478 137 211 109
0.0744676 -0.194301 -0.00112057 169 225 117
0.0776415 -0.194815 -0.00444413 150 219 119
0.0816335 -0.195439 -0.0081354 132 201 98
0.0810951 -0.195459 -0.0100154 126 192 93
0.0805567 -0.19548 -0.0118952 118 185 90
0.0785051 -0.195298 -0.0131398 114 181 88
0.0772172 -0.195217 -0.0146934 123 187 89
0.0766818 -0.195237 -0.0165627 133 199 97
0.0768961 -0.195359 -0.0187578 139 212 104
0.0763599 -0.195379 -0.0206302 147 225 110
0.0758237 -0.1954 -0.0225025 150 225 108
0.0752875 -0.19542 -0.0243746 147 212 101
0.0762512 -0.195644 -0.0269291 135 195 94
0.0779802 -0.195973 -0.0298509 116 176 83
0.0781994 -0.196097 -0.0320933 99 157 77
0.0791843 -0.196326 -0.0347034 88 145 73
0.0801764 -0.196557 -0.0373326 84 140 69
0.0796307 -0.196578 -0.0392382 83 140 67
0.079085 -0.196598 -0.0411437 85 144 67
0.0793085 -0.196725 -0.0434267 90 147 68
0.0795328 -0.196852 -0.045718 94 147 67
0.0789853 -0.196873 -0.0476301 96 146 65
0.0784377 -0.196894 -0.049542 92 144 63
0.0778902 -0.196915 -0.0514538 84 141 63
0.0773427 -0.196935 -0.0533655 78 132 62
0.0767953 -0.196956 -0.055277 71 131 58
0.0770157 -0.197084 -0.0575935 66 126 56
0.0757005 -0.196998 -0.0590997 65 124 53
0.0751532 -0.197019 -0.0610108 67 123 55
0.0746058 -0.19704 -0.0629218 69 126 55
0.0748224 -0.197168 -0.0652518 71 132 56
0.0742741 -0.197189 -0.0671661 76 138 58
0.0744905 -0.197317 -0.069508 81 144 65
0.0747078 -0.197446 -0.0718584 85 150 70
0.0741576 -0.197467 -0.0737793 90 154 72
0.0743747 -0.197596 -0.0761417 92 154 71
0.0753645 -0.197834 -0.0789612 91 149 69
0.0771412 -0.198185 -0.0822589 89 145 68
0.0773665 -0.198317 -0.0846633 85 141 67
0.0775926 -0.19845 -0.0870765 80 136 63
0.0778196 -0.198583 -0.0894988 80 139 61
0.0780475 -0.198716 -0.09193 86 147 65
0.0782763 -0.19885 -0.0943702 89 152 69
0.0777151 -0.198872 -0.0963297 94 157 70
0.077154 -0.198893 -0.0982892 95 158 72
0.0765928 -0.198914 -0.100248 97 162 73
0.0760318 -0.198936 -0.102207 96 163 73
0.0762574 -0.19907 -0.104671 90 153 70
0.0764839 -0.199206 -0.107144 74 130 56
0.0759208 -0.199227 -0.10911 49 104 34
0.0745713 -0.199135 -0.110558 32 104 30
0.073227 -0.199043 -0.112001 33 110 32
0.0718877 -0.198951 -0.113438 37 116 38
0.0705536 -0.19886 -0.114869 43 120 42
0.0654151 -0.198215 -0.113702 54 123 49
0.0633607 -0.198017 -0.114599 71 119 65
0.0613216 -0.19782 -0.11549 80 91 64
0.0725336 -0.191508 0.0138112 63 59 43
0.0705772 -0.191346 0.0125167 61 61 43
0.0693451 -0.191275 0.0109682 63 77 37
0.0688269 -0.191295 0.00915902 60 90 39
0.0683088 -0.191315 0.00734992 59 97 45
0.068501 -0.191425 0.00526751 90 134 61
0.0708448 -0.191812 0.00233936 142 205 99
0.0746868 -0.192392 -0.00120842 146 210 102
0.0778626 -0.192889 -0.00453293 139 208 100
0.0826209 -0.193591 -0.00853454 133 201 97
0.0836161 -0.193809 -0.0110468 126 197 94
0.0815421 -0.193632 -0.0123015 128 192 92
0.0787275 -0.193358 -0.0132299 123 190 91
0.0774391 -0.193281 -0.0147834 126 191 89
0.0769037 -0.193302 -0.0166529 132 196 94
0.0771185 -0.19342 -0.0188483 138 210 101
0.0765821 -0.193441 -0.0207209 146 218 107
0.0752977 -0.193364 -0.0222605 151 227 111
0.0747625 -0.193384 -0.0241295 150 228 112
0.0757224 -0.1936 -0.0266786 147 223 111
0.0782042 -0.194017 -0.029943 141 213 106
0.0784238 -0.194138 -0.0321857 132 199 97
0.0786443 -0.194259 -0.0344365 123 184 87
0.0796326 -0.194481 -0.0370601 114 169 80
0.0798565 -0.194604 -0.0393318 105 159 75
0.0793108 -0.194625 -0.0412375 102 159 74
0.0795347 -0.194748 -0.0435209 105 168 79
0.0797594 -0.194871 -0.0458125 109 174 84
0.0792118 -0.194892 -0.0477247 110 177 88
0.0786641 -0.194913 -0.0496368 109 181 90
0.0781166 -0.194934 -0.0515487 109 179 88
0.077569 -0.194955 -0.0534606 103 167 79
0.0770215 -0.194976 -0.0553723 93 148 68
0.076474 -0.194997 -0.0572838 85 134 61
0.0759266 -0.195018 -0.0591953 82 126 56
0.0753792 -0.195039 -0.0611065 79 121 55
0.0748319 -0.19506 -0.0630177 74 121 53
0.0742846 -0.195081 -0.0649287 70 125 54
0.0745005 -0.195205 -0.0672625 69 129 59
0.0739523 -0.195226 -0.0691767 69 135 60
0.074168 -0.195351 -0.0715223 73 141 63
0.0743846 -0.195476 -0.0738765 75 143 62
0.0738345 -0.195497 -0.0757975 76 143 62
0.0748204 -0.195727 -0.0786107 77 141 62
0.0758136 -0.19596 -0.0814447 75 138 62
0.0768144 -0.196194 -0.0842997 72 135 61
0.077039 -0.196322 -0.086708 68 134 61
0.0772645 -0.196451 -0.0891252 71 136 60
0.0782783 -0.196688 -0.0920302 77 142 65
0.0785076 -0.196819 -0.0944709 81 145 65
0.0779463 -0.19684 -0.0964306 90 153 67
0.0781754 -0.196971 -0.0988838 94 160 71
0.0776132 -0.196992 -0.100847 96 162 72
0.0770509 -0.197014 -0.10281 96 163 74
0.0772789 -0.197145 -0.105279 90 155 70
0.0767157 -0.197167 -0.107246 74 133 58
0.0761526 -0.197188 -0.109212 52 107 41
0.0755895 -0.19721 -0.111178 34 106 34
0.0742406 -0.197122 -0.112623 36 112 39
0.072118 -0.196925 -0.11354 47 118 38
0.0707834 -0.196837 -0.114972 51 123 45
0.0656423 -0.196214 -0.113803 74 131 56
0.063587 -0.196024 -0.1147 80 115 65
0.0615469 -0.195835 -0.115591 70 80 57
0.0715098 -0.189558 0.0121694 63 61 42
0.0695603 -0.189402 0.0108828 66 66 37
0.0690422 -0.189422 0.00907345 64 92 42
0.068524 -0.189442 0.00726422 62 97 40
0.0680058 -0.189462 0.00545508 68 112 58
0.070342 -0.189834 0.00253324 128 192 95
0.074906 -0.190484 -0.00129627 136 214 105
0.0780837 -0.190963 -0.0046217 135 209 100
0.0851549 -0.191927 -0.0095596 133 204 99
0.0846125 -0.191948 -0.0114536 131 199 95
0.0825312 -0.191777 -0.0127092 129 196 92
0.07895 -0.191419 -0.0133199 126 192 91
0.0776612 -0.191346 -0.0148735 126 195 92
0.0771257 -0.191366 -0.0167431 130 200 98
0.0765903 -0.191387 -0.0186126 141 207 104
0.0760549 -0.191407 -0.020482 142 210 105
0.0755196 -0.191428 -0.0223512 145 212 106
0.0749842 -0.191449 -0.0242203 145 215 106
0.0759449 -0.191658 -0.0267699 144 215 106
0.0769125 -0.191869 -0.0293378 139 210 104
0.0786483 -0.192178 -0.0322782 132 199 98
0.0788691 -0.192295 -0.0345293 126 192 93
0.0790907 -0.192413 -0.0367885 120 186 91
0.0793133 -0.192532 -0.0390558 117 182 89
0.0795366 -0.192651 -0.0413313 119 185 90
0.0789908 -0.192672 -0.043237 124 196 96
0.0792141 -0.192791 -0.045524 133 212 104
0.0794382 -0.192911 -0.0478193 143 225 110
0.0781207 -0.192833 -0.0493417 146 228 112
0.0775741 -0.192854 -0.0512503 145 220 105
0.0770276 -0.192875 -0.0531588 137 201 95
0.0772478 -0.192995 -0.0554676 121 182 85
0.0767003 -0.193016 -0.0573793 103 163 81
0.0761528 -0.193037 -0.0592909 90 148 81
0.0756053 -0.193058 -0.0612023 87 141 72
0.0750579 -0.193079 -0.0631136 90 145 68
0.0745106 -0.1931 -0.0650248 90 149 70
0.0739632 -0.193121 -0.0669358 92 152 72
0.0741786 -0.193242 -0.0692733 96 156 73
0.0736303 -0.193263 -0.0711876 100 155 72
0.0738455 -0.193384 -0.073537 99 151 69
0.0740615 -0.193506 -0.0758949 91 144 66
0.0742783 -0.193628 -0.0782614 81 137 61
0.0752677 -0.193852 -0.081089 71 132 56
0.0770438 -0.19418 -0.0843988 65 127 53
0.0772688 -0.194305 -0.0868074 60 125 53
0.0774946 -0.19443 -0.0892249 61 127 53
0.0785093 -0.19466 -0.0921305 65 129 54
0.0787389 -0.194787 -0.0945715 67 137 57
0.0789693 -0.194914 -0.0970215 75 144 59
0.078407 -0.194935 -0.0989849 78 150 65
0.0786373 -0.195063 -0.101448 82 159 71
0.078074 -0.195084 -0.103415 87 162 73
0.0775108 -0.195106 -0.105381 83 153 66
0.0769476 -0.195128 -0.107348 69 132 53
0.0763844 -0.195149 -0.109314 56 113 43
0.0758212 -0.195171 -0.111281 45 111 40
0.0744718 -0.195087 -0.112725 48 116 44
0.0723483 -0.194897 -0.113642 56 122 47
0.0702408 -0.194709 -0.114552 76 139 62
0.0651152 -0.194111 -0.113391 105 153 81
0.0630656 -0.193929 -0.114288 95 112 71
0.0617724 -0.193849 -0.115691 69 62 46
0.0724456 -0.187763 0.0118208 64 66 44
0.0704895 -0.187613 0.0105331 64 66 42
0.0692574 -0.187549 0.00898789 64 88 35
0.0687393 -0.187569 0.00717847 62 97 40
0.068221 -0.187589 0.0053692 60 102 55
0.0684131 -0.187693 0.00328316 116 161 81
0.071478 -0.18814 5.59688e-05 141 212 108
0.0783048 -0.189037 -0.00471053 140 206 98
0.0861561 -0.190059 -0.00996427 138 208 100
0.0856126 -0.19008 -0.0118619 135 205 97
0.0827554 -0.189823 -0.0127998 130 200 93
0.0791726 -0.189479 -0.01341 128 198 95
0.0778833 -0.189409 -0.0149636 131 200 99
0.0773477 -0.18943 -0.0168334 128 201 101
0.0768123 -0.189451 -0.018703 140 207 107
0.0762769 -0.189471 -0.0205725 141 208 103
0.0757414 -0.189492 -0.0224419 141 212 102
0.0752061 -0.189513 -0.0243112 142 216 104
0.0754177 -0.189624 -0.0265202 143 214 104
0.0756302 -0.189736 -0.028737 139 208 101
0.0773527 -0.190032 -0.0316637 134 201 95
0.0783307 -0.190238 -0.0342633 130 194 92
0.0785509 -0.190352 -0.036518 126 190 92
0.078772 -0.190467 -0.0387808 125 188 91
0.0789939 -0.190582 -0.0410518 124 188 91
0.0792167 -0.190697 -0.043331 127 195 96
0.0786709 -0.190718 -0.0452366 135 205 100
0.0788936 -0.190834 -0.0475274 142 214 103
0.0783468 -0.190855 -0.0494363 144 219 106
0.0778002 -0.190876 -0.0513451 145 222 108
0.0772535 -0.190898 -0.0532537 144 220 108
0.0767069 -0.190919 -0.0551622 140 211 106
0.0761604 -0.19094 -0.0570706 132 209 107
0.0756138 -0.190961 -0.0589788 129 203 106
0.0750673 -0.190982 -0.060887 150 186 90
0.0752841 -0.191098 -0.0632096 146 174 80
0.0747366 -0.19112 -0.0651209 124 170 78
0.0741893 -0.191141 -0.0670321 117 174 78
0.0736419 -0.191162 -0.0689432 122 184 86
0.0738566 -0.191279 -0.0712844 122 186 89
0.0740721 -0.191396 -0.0736341 119 183 90
0.0735229 -0.191418 -0.0755518 111 175 88
0.0745057 -0.191633 -0.0783592 100 165 82
0.0754959 -0.19185 -0.0811874 92 154 73
0.0772732 -0.192167 -0.0844978 84 140 63
0.0782831 -0.192388 -0.0873752 77 134 57
0.0785113 -0.19251 -0.0897985 75 131 55
0.0795316 -0.192733 -0.092712 79 130 54
0.0789702 -0.192754 -0.0946721 79 134 56
0.0792011 -0.192878 -0.0971225 79 138 58
0.0794328 -0.193001 -0.099582 76 141 61
0.0788694 -0.193023 -0.101549 72 143 63
0.078306 -0.193045 -0.103516 72 146 63
0.0777427 -0.193067 -0.105483 77 145 60
0.0771794 -0.193088 -0.10745 80 139 59
0.0766162 -0.19311 -0.109416 72 133 65
0.076053 -0.193132 -0.111383 62 129 74
0.0739194 -0.192949 -0.112307 68 139 74
0.0718019 -0.192768 -0.113224 104 149 75
0.0697003 -0.192589 -0.114135 129 172 88
0.0645901 -0.192016 -0.11298 105 128 81
0.0632916 -0.191939 -0.114389 75 72 57
0.0733848 -0.185961 0.011471 62 62 47
0.0714219 -0.185818 0.0101821 62 64 49
0.0694727 -0.185676 0.00890229 64 80 37
0.0689545 -0.185696 0.00709276 63 96 42
0.0677272 -0.185635 0.00555629 63 99 48
0.067918 -0.185736 0.00347403 101 133 64
0.0695363 -0.186 0.000821277 148 208 101
0.0770342 -0.186939 -0.00420294 139 210 102
0.0856052 -0.188005 -0.00974078 135 214 103
0.0850626 -0.188026 -0.0116351 137 209 102
0.0829796 -0.187869 -0.0128904 134 202 94
0.0793952 -0.187539 -0.0135001 132 201 95
0.0781054 -0.187473 -0.0150537 134 204 101
0.0775698 -0.187493 -0.0169236 134 200 103
0.0770342 -0.187514 -0.0187934 141 207 105
0.0764988 -0.187535 -0.0206631 141 208 100
0.0759633 -0.187556 -0.0225326 141 211 102
0.0761763 -0.187664 -0.0247387 142 215 104
0.07564 -0.187684 -0.0266113 140 214 102
0.0758528 -0.187793 -0.0288285 137 208 99
0.0760664 -0.187902 -0.0310535 135 203 97
0.0777943 -0.188188 -0.0339981 133 199 94
0.0780131 -0.188299 -0.0362485 129 194 92
0.0782328 -0.188409 -0.0385069 127 191 92
0.0776898 -0.18843 -0.0404026 127 191 93
0.0779093 -0.188541 -0.0426724 131 196 96
0.0781297 -0.188653 -0.0449503 134 203 98
0.0783509 -0.188765 -0.0472365 139 206 100
0.0778051 -0.188786 -0.0491421 142 210 102
0.0772594 -0.188807 -0.0510475 144 213 103
0.0767137 -0.188828 -0.0529528 142 213 105
0.076168 -0.188849 -0.054858 139 205 103
0.0763862 -0.188962 -0.0571659 133 200 95
0.0758396 -0.188983 -0.0590743 127 190 91
0.0752931 -0.189004 -0.0609826 131 184 88
0.0747466 -0.189025 -0.0628907 128 178 86
0.0749627 -0.189139 -0.065217 117 183 89
0.0744153 -0.18916 -0.0671284 122 195 93
0.0738679 -0.189181 -0.0690396 131 209 101
0.074083 -0.189294 -0.0713812 139 221 109
0.0742988 -0.189408 -0.0737312 145 226 113
0.0745156 -0.189523 -0.0760898 145 218 109
0.0747332 -0.189637 -0.078457 141 204 101
0.0764995 -0.189941 -0.0817402 134 190 95
0.0782857 -0.190249 -0.0850601 116 171 86
0.0793013 -0.190463 -0.0879452 91 149 68
0.0795317 -0.190581 -0.0903743 84 142 63
0.079763 -0.1907 -0.0928124 85 148 66
0.0792016 -0.190722 -0.0947728 91 153 70
0.0794328 -0.190841 -0.0972235 93 162 76
0.0788704 -0.190863 -0.0991872 94 164 77
0.078308 -0.190885 -0.101151 92 162 75
0.0777456 -0.190907 -0.103114 90 159 73
0.0779747 -0.191027 -0.105585 100 157 75
0.0774113 -0.191048 -0.107552 123 168 81
0.0768481 -0.19107 -0.109519 136 191 92
0.0747114 -0.190896 -0.11045 125 200 108
0.0725908 -0.190723 -0.111375 112 196 107
0.0712575 -0.190647 -0.112808 103 168 99
0.0699294 -0.190572 -0.114236 92 109 77
0.0648165 -0.190021 -0.113081 75 71 50
0.0723576 -0.184016 0.00982988 64 62 35
0.0696881 -0.183802 0.00881667 62 73 40
0.0691698 -0.183822 0.00700698 63 96 44
0.0679421 -0.183765 0.00547054 62 98 41
0.0674247 -0.183785 0.0036642 71 109 59
0.067615 -0.183883 0.00157864 127 192 95
0.0699483 -0.184216 -0.00137053 135 218 109
0.0858304 -0.186043 -0.0098314 136 215 103
0.0852878 -0.186064 -0.0117258 140 211 101
0.0839732 -0.186 -0.0133 137 206 97
0.081135 -0.185766 -0.014227 133 205 95
0.0790811 -0.185619 -0.0154638 138 201 96
0.0777919 -0.185557 -0.0170139 139 201 102
0.0772563 -0.185577 -0.0188839 139 201 99
0.0774714 -0.185682 -0.0210838 140 206 99
0.076935 -0.185703 -0.0229569 142 211 104
0.0763986 -0.185724 -0.0248298 143 213 105
0.0766127 -0.185829 -0.027044 142 212 103
0.0768276 -0.185934 -0.0292661 141 209 102
0.0762894 -0.185955 -0.0311454 139 207 100
0.0765041 -0.18606 -0.0333786 137 204 96
0.0774773 -0.186252 -0.0359799 132 199 94
0.0776954 -0.186359 -0.0382339 130 195 95
0.0779146 -0.186466 -0.0404959 130 194 96
0.0773716 -0.186487 -0.0423916 131 197 97
0.0775905 -0.186595 -0.0446651 132 201 98
0.0778103 -0.186703 -0.0469467 135 203 99
0.0772654 -0.186724 -0.048849 139 210 100
0.0774851 -0.186833 -0.0511422 142 211 101
0.0769393 -0.186854 -0.0530477 143 211 104
0.0763936 -0.186875 -0.054953 140 205 101
0.0758479 -0.186896 -0.0568582 134 199 97
0.0760656 -0.187005 -0.0591698 130 193 93
0.0755189 -0.187026 -0.0610782 131 188 93
0.0749723 -0.187048 -0.0629865 127 186 92
0.0751888 -0.187157 -0.0653132 123 187 93
0.0746414 -0.187178 -0.0672247 125 194 92
0.0740939 -0.1872 -0.0691361 131 201 97
0.075075 -0.187398 -0.0719102 136 209 103
0.0745256 -0.18742 -0.0738284 138 214 107
0.0747427 -0.187531 -0.0761873 140 215 106
0.0749606 -0.187642 -0.0785548 140 214 108
0.0782886 -0.188117 -0.0827532 141 216 116
0.0793021 -0.188323 -0.0856246 134 208 113
0.0803234 -0.18853 -0.0885174 111 171 82
0.0805561 -0.188645 -0.0909524 93 154 67
0.0799946 -0.188667 -0.092913 89 153 69
0.079433 -0.188689 -0.0948734 92 158 70
0.0796646 -0.188805 -0.0973246 97 164 75
0.0791022 -0.188826 -0.0992885 102 168 75
0.0769608 -0.188661 -0.100258 103 167 75
0.0764004 -0.188683 -0.102214 116 169 79
0.0766261 -0.188798 -0.104674 124 176 92
0.0760648 -0.18882 -0.106633 112 161 92
0.0747198 -0.188748 -0.108082 92 115 67
0.0733799 -0.188676 -0.109525 84 87 51
0.072045 -0.188605 -0.110962 82 65 44
0.0707153 -0.188534 -0.112394 76 57 34
0.0701584 -0.188555 -0.114338 69 55 34
0.0732967 -0.182207 0.0094764 62 63 37
0.071334 -0.182077 0.00819429 65 65 45
0.0693851 -0.181948 0.00692122 63 88 43
0.068157 -0.181894 0.00538474 64 99 40
0.0676396 -0.181914 0.00357828 61 102 51
0.0678302 -0.182009 0.00149241 111 152 75
0.0687335 -0.182179 -0.000885248 145 205 104
0.076944 -0.18312 -0.0062343 142 211 98
0.085513 -0.184102 -0.0118166 138 212 100
0.0841979 -0.184041 -0.0133908 137 209 101
0.0828876 -0.183981 -0.0149591 134 206 100
0.0808199 -0.18384 -0.0161979 138 206 102
0.0795228 -0.18378 -0.0177524 141 207 97
0.0789852 -0.183801 -0.0196293 139 207 98
0.0784477 -0.183822 -0.021506 138 209 101
0.0771574 -0.183762 -0.0230478 144 213 105
0.0773728 -0.183864 -0.0252591 146 213 105
0.0768353 -0.183885 -0.0271354 144 213 103
0.0770506 -0.183987 -0.0293578 144 211 103
0.0772667 -0.184089 -0.0315881 143 209 102
0.0767275 -0.18411 -0.0334708 139 207 100
0.0761883 -0.184131 -0.0353534 135 203 98
0.0771603 -0.184315 -0.0379619 135 199 97
0.0773778 -0.184419 -0.0402195 133 196 95
0.0775963 -0.184523 -0.0424852 131 196 95
0.0770533 -0.184544 -0.0443809 131 198 95
0.0772716 -0.184648 -0.0466581 134 201 98
0.0774908 -0.184753 -0.0489434 138 207 99
0.0769459 -0.184774 -0.0508456 143 210 100
0.0764011 -0.184795 -0.0527478 143 210 102
0.0758563 -0.184816 -0.0546498 140 207 100
0.0753116 -0.184837 -0.0565517 135 202 101
0.0762914 -0.185027 -0.0592653 138 197 96
0.0757448 -0.185048 -0.0611739 131 195 98
0.0751982 -0.185069 -0.0630824 126 189 92
0.075415 -0.185175 -0.0654093 130 192 94
0.0748675 -0.185197 -0.067321 129 194 92
0.07432 -0.185218 -0.0692326 132 198 94
0.0753018 -0.18541 -0.0720072 134 202 98
0.0747524 -0.185431 -0.0739255 134 206 101
0.0757395 -0.185624 -0.0767275 136 209 101
0.0767341 -0.185819 -0.0795502 138 207 100
0.0793031 -0.186191 -0.0833122 138 202 98
0.0811152 -0.186479 -0.08666 135 194 95
0.0813494 -0.18659 -0.0890918 122 184 88
0.0807877 -0.186612 -0.0910527 101 167 74
0.0802261 -0.186634 -0.0930135 95 160 72
0.0796645 -0.186656 -0.0949741 98 166 77
0.079103 -0.186678 -0.0969346 106 172 85
0.077752 -0.18661 -0.0984022 106 170 84
0.0756236 -0.186453 -0.0993713 108 168 82
0.0750654 -0.186475 -0.10132 118 177 92
0.0745072 -0.186497 -0.103269 108 141 82
0.073949 -0.186518 -0.105218 79 77 52
0.0733909 -0.18654 -0.107167 62 62 40
0.0728328 -0.186562 -0.109115 53 63 35
0.0715014 -0.186495 -0.110551 53 58 36
0.074239 -0.180392 0.00912169 58 54 39
0.0722696 -0.180268 0.00783841 63 63 46
0.070314 -0.180145 0.0065642 63 80 43
0.0690821 -0.180094 0.00502552 63 99 42
0.0671477 -0.179972 0.00376794 62 101 43
0.0666312 -0.179993 0.00196458 79 124 58
0.0675271 -0.180155 -0.00040333 139 204 98
0.0691433 -0.18039 -0.00307657 138 219 105
0.0849643 -0.182061 -0.0115904 134 211 101
0.0844227 -0.182082 -0.0134816 135 210 102
0.0831119 -0.182026 -0.0150499 138 210 100
0.0818059 -0.181969 -0.0166124 141 207 101
0.0805047 -0.181913 -0.0181691 142 208 99
0.0792082 -0.181856 -0.0197201 139 210 101
0.0786706 -0.181877 -0.021597 144 212 103
0.0781331 -0.181899 -0.0234737 147 214 106
0.0775955 -0.18192 -0.0253503 145 218 105
0.077058 -0.181941 -0.0272268 144 215 103
0.0772737 -0.182039 -0.0294496 144 212 104
0.0774901 -0.182138 -0.0316802 143 211 103
0.076197 -0.182081 -0.0332087 140 208 100
0.0756587 -0.182102 -0.035088 135 204 97
0.0751204 -0.182123 -0.0369672 138 204 99
0.0753331 -0.182222 -0.0392109 143 202 98
0.0770601 -0.182479 -0.0422053 139 199 95
0.0765181 -0.1825 -0.0440978 135 198 96
0.0774967 -0.18268 -0.0467521 135 202 100
0.0777162 -0.182781 -0.0490377 137 209 104
0.0771713 -0.182802 -0.0509402 141 212 104
0.0766264 -0.182823 -0.0528425 141 211 103
0.0760816 -0.182845 -0.0547446 139 209 102
0.0755368 -0.182866 -0.0566467 141 206 104
0.0765174 -0.183048 -0.0593608 138 203 104
0.0759707 -0.183069 -0.0612696 130 195 96
0.0761889 -0.183172 -0.0635935 127 192 92
0.0756413 -0.183193 -0.0655055 132 195 94
0.0750936 -0.183214 -0.0674174 129 196 95
0.0753108 -0.183317 -0.0697566 129 198 94
0.0755287 -0.18342 -0.0721042 130 201 96
0.0757475 -0.183524 -0.0744604 132 206 99
0.0767402 -0.18371 -0.0772698 136 209 100
0.0785208 -0.183982 -0.0805531 136 206 100
0.0811129 -0.184341 -0.0843369 137 200 98
0.0821428 -0.184534 -0.0872307 135 194 95
0.081581 -0.184556 -0.089192 118 184 89
0.0818164 -0.184664 -0.0916331 100 170 81
0.0804576 -0.1846 -0.093114 103 170 89
0.079896 -0.184622 -0.0950748 106 177 90
0.0785434 -0.184558 -0.0965462 151 202 113
0.076412 -0.184409 -0.0975226 145 184 103
0.0742966 -0.184262 -0.0984915 143 179 95
0.0714295 -0.184031 -0.0989657 116 131 81
0.0708764 -0.184053 -0.100897 83 77 56
0.069561 -0.183991 -0.102335 65 54 36
0.0744564 -0.178501 0.00903544 56 55 43
0.0724862 -0.178384 0.0077523 63 62 50
0.0705298 -0.178267 0.00647826 64 70 42
0.0692974 -0.17822 0.00493957 63 95 41
0.0673622 -0.178104 0.00368212 62 100 39
0.0668457 -0.178125 0.0018786 61 103 55
0.0656261 -0.178077 0.000356264 116 165 85
0.067224 -0.178301 -0.00229926 140 212 109
0.073172 -0.178944 -0.00675778 139 212 100
0.0815821 -0.179827 -0.0123013 138 213 101
0.0833362 -0.18007 -0.0151407 138 214 103
0.0827956 -0.180091 -0.0170283 140 214 106
0.0807281 -0.179964 -0.0182599 143 212 105
0.0801895 -0.179985 -0.0201405 141 215 104
0.0788935 -0.179933 -0.0216879 142 214 105
0.0783559 -0.179954 -0.0235648 144 213 105
0.0778183 -0.179975 -0.0254416 143 216 106
0.0772808 -0.179996 -0.0273183 144 216 105
0.0774968 -0.180091 -0.0295413 145 213 102
0.0769583 -0.180112 -0.0314211 141 211 100
0.07642 -0.180133 -0.0333007 138 207 99
0.075131 -0.18008 -0.0348235 142 204 99
0.0745937 -0.180102 -0.0366995 142 201 99
0.0740564 -0.180123 -0.0385753 138 198 96
0.0750171 -0.180292 -0.0411861 137 200 96
0.0759849 -0.180463 -0.0438157 137 202 100
0.0762003 -0.18056 -0.0460838 138 208 107
0.0771777 -0.180732 -0.0487454 134 217 112
0.0773967 -0.18083 -0.0510347 135 215 108
0.0768518 -0.180851 -0.0529372 141 214 104
0.0770706 -0.180949 -0.0552381 142 212 105
0.0765247 -0.180971 -0.0571438 147 215 105
0.0767434 -0.181069 -0.0594564 141 204 100
0.0761967 -0.18109 -0.0613653 131 201 101
0.0764152 -0.181189 -0.0636896 130 194 94
0.0758675 -0.181211 -0.0656017 130 192 93
0.0760859 -0.18131 -0.0679379 133 196 93
