ply
format ascii 1.0
element vertex 1173
property float x
property float y
property float z
property uchar diffuse_red
property uchar diffuse_green
property uchar diffuse_blue
end_header
0.0740407 -0.238258 0.00100158 207 5 0
0.0707026 -0.237587 0.00261278 215 5 0
0.0683792 -0.237956 0.00314615 218 9 0
0.0660729 -0.238323 0.00367564 216 9 0
0.0642569 -0.239202 0.00367704 212 6 0
0.0619782 -0.239562 0.00420159 210 4 0
0.0592543 -0.239407 0.00524066 207 8 0
0.0574704 -0.240275 0.00523919 201 8 0
0.0561464 -0.241655 0.00472113 202 9 0
0.0539216 -0.242002 0.0052361 229 12 6
0.0517129 -0.242347 0.00574732 248 29 21
0.0499583 -0.243203 0.00574484 254 46 39
0.0477756 -0.243542 0.00625145 255 41 26
0.0460374 -0.24439 0.00624801 249 31 12
0.0443054 -0.245236 0.00624458 235 20 3
0.0425795 -0.246079 0.00624112 222 9 1
0.0400262 -0.245893 0.00724326 215 4 1
0.0379093 -0.246218 0.00773734 216 4 0
0.0358072 -0.246541 0.00822784 223 7 1
0.0333208 -0.246355 0.00920716 232 16 11
0.031253 -0.246675 0.00968821 250 55 43
0.0295888 -0.247496 0.00967869 255 82 64
0.0279302 -0.248315 0.00966921 243 82 70
0.0258954 -0.248626 0.0101452 203 63 58
0.0238746 -0.248935 0.010618 188 49 41
0.0222401 -0.249744 0.0106069 198 24 13
0.0202422 -0.250047 0.0110755 204 7 0
0.0182579 -0.250349 0.0115409 207 1 0
0.0170078 -0.251651 0.0110518 215 1 0
0.0157576 -0.252954 0.0105626 222 9 4
0.0148652 -0.254765 0.00959365 230 34 19
0.0136127 -0.25607 0.00910364 241 63 52
0.0123602 -0.257375 0.00861357 152 55 43
0.0114604 -0.259198 0.00763949 92 58 41
0.0109101 -0.261549 0.00617392 74 56 39
0.14509 -0.192364 0.00630097 89 62 56
0.144325 -0.194319 0.00518186 225 54 47
0.142891 -0.195813 0.00462089 255 68 46
0.140798 -0.196836 0.00462147 255 39 14
0.139367 -0.198327 0.00406156 255 39 24
0.137936 -0.199818 0.00350167 255 115 80
0.137156 -0.201788 0.00237688 255 64 111
0.135722 -0.203282 0.00181584 255 55 39
0.134288 -0.204776 0.00125472 255 51 40
0.132854 -0.20627 0.000693631 255 48 23
0.135315 -0.210754 -0.00333083 255 53 30
0.133864 -0.212266 -0.0038987 255 49 25
0.131762 -0.213269 -0.00388134 255 42 21
0.130314 -0.214778 -0.00444816 255 39 22
0.128865 -0.216287 -0.00501497 250 34 15
0.126778 -0.217281 -0.00499554 235 34 12
0.124068 -0.217755 -0.00439342 227 34 16
0.122003 -0.21874 -0.0043754 231 31 12
0.119328 -0.219206 -0.0037794 249 34 16
0.117896 -0.220698 -0.00433962 253 43 27
0.115855 -0.221671 -0.00432185 254 48 31
0.113821 -0.222641 -0.0043042 255 44 26
0.111199 -0.223088 -0.00371316 254 41 19
0.109778 -0.224568 -0.00426914 248 36 13
0.108357 -0.226049 -0.00482513 225 31 9
0.10635 -0.227005 -0.00480667 205 26 4
0.104351 -0.227956 -0.00478833 199 24 6
0.101785 -0.22838 -0.00420012 204 23 2
0.099806 -0.229324 -0.00418312 223 24 0
0.0972726 -0.22974 -0.00360069 219 24 1
0.0931068 -0.228596 -0.00134905 213 26 8
0.0911742 -0.229525 -0.0013378 213 28 8
0.089788 -0.23097 -0.00188022 209 26 3
0.0873308 -0.231373 -0.00131549 203 21 0
0.0859497 -0.232812 -0.00185588 196 17 0
0.0840414 -0.233729 -0.00184377 189 14 0
0.0821403 -0.234642 -0.00183179 183 10 1
0.0802463 -0.235551 -0.00181987 180 7 1
0.0783593 -0.236457 -0.00180801 180 6 0
0.0759724 -0.236836 -0.00125 183 6 0
0.0736032 -0.237212 -0.00069623 187 5 0
0.0707591 -0.237066 0.00039142 191 9 1
0.068431 -0.237438 0.000933972 194 10 0
0.0656415 -0.237293 0.00200256 196 10 0
0.0638261 -0.238174 0.00200699 196 10 0
0.0620174 -0.239053 0.00201134 197 7 0
0.0592882 -0.2389 0.00306426 196 9 0
0.0575008 -0.239771 0.00306663 189 17 1
0.0561743 -0.241153 0.00254754 190 12 2
0.0543956 -0.242018 0.00255084 209 3 0
0.0526235 -0.24288 0.00255406 222 5 1
0.0499744 -0.242709 0.00359249 230 9 6
0.0477876 -0.24305 0.00410768 235 16 5
0.0460462 -0.243901 0.00410804 232 14 1
0.0443109 -0.24475 0.00410834 223 9 0
0.0421598 -0.245082 0.00461791 216 6 0
0.0400238 -0.245411 0.00512387 209 6 0
0.0379031 -0.245739 0.00562618 205 7 0
0.0362035 -0.246574 0.00562375 209 5 0
0.0345098 -0.247405 0.00562125 218 6 4
0.0316296 -0.246708 0.00711192 237 32 28
0.0299587 -0.247532 0.00710684 252 72 65
0.0279061 -0.247847 0.00759422 255 82 72
0.0262503 -0.248666 0.00758828 255 65 52
0.0242211 -0.248975 0.00807142 250 49 35
0.0225802 -0.249788 0.00806462 229 25 11
0.0205741 -0.250092 0.00854362 211 9 0
0.0189478 -0.250898 0.00853598 206 2 0
0.0173272 -0.251701 0.00852835 210 1 0
0.0164344 -0.253517 0.0075525 215 8 2
0.0151775 -0.254826 0.00706072 223 26 15
0.0139207 -0.256136 0.00656894 244 62 49
0.0126637 -0.257446 0.00607709 179 59 45
0.0117611 -0.259274 0.0050952 109 57 44
0.0108553 -0.26111 0.0041099 76 54 39
0.142648 -0.18989 0.00618812 134 52 45
0.141882 -0.191829 0.00507524 254 68 46
0.141114 -0.193776 0.00395797 255 50 41
0.139686 -0.195264 0.00339913 255 38 19
0.138257 -0.196752 0.00284028 255 49 27
0.136829 -0.19824 0.00228139 255 57 41
0.136049 -0.200204 0.00115631 255 52 35
0.134618 -0.201695 0.000596267 255 55 32
0.132544 -0.202705 0.000604537 255 53 28
0.131115 -0.204194 4.55346e-05 255 52 23
0.131605 -0.207149 -0.00223182 255 47 21
0.130167 -0.208647 -0.00279421 255 42 20
0.128094 -0.209647 -0.00277929 255 40 16
0.127293 -0.211641 -0.00391895 255 36 12
0.126489 -0.213644 -0.00506318 254 34 12
0.125048 -0.215144 -0.00562674 245 34 11
0.122981 -0.216134 -0.00560633 248 36 14
0.120302 -0.216611 -0.00500551 253 43 22
0.11887 -0.218102 -0.00556583 255 45 27
0.116827 -0.219081 -0.00554572 255 51 31
0.114791 -0.220056 -0.00552574 255 47 27
0.112165 -0.220513 -0.00492998 255 47 26
0.110744 -0.221994 -0.005486 255 45 22
0.108732 -0.222957 -0.00546632 251 36 13
0.107314 -0.224435 -0.00602131 231 29 7
0.105313 -0.225392 -0.00600067 217 26 2
0.103319 -0.226345 -0.00598012 214 28 9
0.101333 -0.227295 -0.00595965 240 37 22
0.0987889 -0.227719 -0.00536932 252 38 18
0.0968231 -0.228661 -0.00535021 251 38 16
0.0926614 -0.227528 -0.00308198 249 39 17
0.0907295 -0.228459 -0.00306751 247 39 14
0.0888049 -0.229387 -0.0030531 239 35 10
0.0874211 -0.230829 -0.00359458 223 30 7
0.0855064 -0.23175 -0.00357926 204 24 3
0.0835988 -0.232669 -0.003564 192 21 0
0.08222 -0.234105 -0.00410354 187 17 1
0.0803221 -0.235018 -0.00408733 184 12 1
0.0779187 -0.235403 -0.00351875 182 10 1
0.0755333 -0.235786 -0.00295443 183 11 1
0.0731657 -0.236167 -0.00239437 186 10 1
0.0703238 -0.236027 -0.00129733 189 13 0
0.0679973 -0.236403 -0.000748608 190 13 0
0.0661675 -0.237291 -0.000739131 188 15 0
0.0633953 -0.237147 0.000336629 188 13 2
0.0620567 -0.238541 -0.000187222 188 11 1
0.0597857 -0.238904 0.000351291 186 11 0
0.0575313 -0.239264 0.000885856 183 12 1
0.0557469 -0.240135 0.000892084 182 8 2
0.0544202 -0.241517 0.000372943 193 4 0
0.0526446 -0.242382 0.000380066 200 6 0
0.0508754 -0.243244 0.000387129 205 5 0
0.0477996 -0.242557 0.00195591 208 6 0
0.0460549 -0.24341 0.00196002 210 5 0
0.0443164 -0.244261 0.00196413 208 3 0
0.0421612 -0.244596 0.0024822 206 3 0
0.0404389 -0.24544 0.00248532 200 6 0
0.0383089 -0.245768 0.00299874 193 7 0
0.0361941 -0.246095 0.00350849 194 6 0
0.0344973 -0.246929 0.00350968 202 4 1
0.0328065 -0.24776 0.00351084 217 11 9
0.029938 -0.24706 0.00501622 235 34 28
0.0282699 -0.247884 0.0050147 246 47 34
0.026223 -0.248199 0.00550928 247 37 22
0.0241902 -0.24851 0.00600047 242 29 13
0.0225464 -0.249325 0.00599713 226 17 4
0.0209083 -0.250137 0.00599385 210 9 0
0.0192758 -0.250946 0.00599053 203 4 0
0.0176488 -0.251752 0.00598724 204 1 0
0.0163897 -0.253063 0.00549455 207 7 1
0.0151306 -0.254375 0.00500185 223 26 9
0.0138714 -0.255687 0.00450912 242 59 45
0.0126122 -0.256999 0.00401638 215 62 50
0.0117078 -0.258831 0.00302915 136 54 49
0.0108003 -0.260668 0.00203848 82 53 45
0.140997 -0.185529 0.0071786 89 57 48
0.140234 -0.187445 0.00607624 205 47 45
0.140119 -0.18982 0.00441421 255 68 44
0.138699 -0.191299 0.00385861 255 56 37
0.137927 -0.193238 0.00274324 255 43 24
0.136505 -0.19472 0.00218646 255 55 33
0.136374 -0.197138 0.000499275 255 50 29
0.134945 -0.198626 -5.97421e-05 255 49 30
0.133517 -0.200114 -0.000618789 255 53 26
0.132088 -0.201603 -0.00117785 255 54 26
0.13066 -0.203091 -0.00173691 255 47 22
0.129231 -0.20458 -0.00229603 255 45 21
0.127802 -0.206068 -0.00285518 255 41 20
0.126373 -0.207557 -0.00341431 255 37 11
0.125572 -0.209539 -0.00455083 255 39 10
0.125396 -0.212031 -0.0062749 255 37 12
0.123959 -0.213528 -0.00683742 254 41 19
0.122521 -0.215026 -0.00740001 255 49 31
0.119844 -0.215507 -0.00679218 255 50 28
0.117799 -0.21649 -0.00676973 255 50 33
0.11637 -0.217979 -0.00732906 255 53 34
0.114335 -0.218956 -0.00730566 255 50 29
0.111711 -0.219418 -0.00670307 255 45 23
0.109697 -0.220387 -0.00668107 255 43 20
0.108278 -0.221865 -0.00723611 253 39 12
0.106275 -0.222827 -0.00721316 238 33 9
0.104279 -0.223785 -0.00719029 228 32 11
0.102292 -0.22474 -0.00716755 245 35 17
0.0997436 -0.225174 -0.00657262 254 44 32
0.0977757 -0.226121 -0.00655127 255 39 21
0.0947059 -0.226034 -0.0053965 255 41 17
0.0916711 -0.225948 -0.00425496 255 42 19
0.0902847 -0.227392 -0.00479752 255 41 19
0.0883609 -0.228322 -0.00477989 249 39 16
0.0869769 -0.229764 -0.00532148 232 32 11
0.0850629 -0.230688 -0.00530295 212 26 6
0.0836815 -0.232127 -0.00584357 200 23 3
0.0817772 -0.233045 -0.00582411 195 24 4
0.07988 -0.23396 -0.00580478 193 22 5
0.0774781 -0.23435 -0.00522977 195 21 3
0.0750942 -0.234737 -0.00465913 201 23 2
0.0727281 -0.235121 -0.00409277 210 26 5
0.0693994 -0.234474 -0.00244402 212 26 5
0.0675635 -0.235367 -0.00243143 208 23 1
0.0657343 -0.236257 -0.00241897 200 22 2
0.0634373 -0.23663 -0.00186929 192 20 4
0.0616257 -0.237513 -0.00185794 191 18 2
0.0598207 -0.238393 -0.00184669 186 16 1
0.0575619 -0.238756 -0.00130315 180 12 0
0.055774 -0.239629 -0.00129299 180 8 0
0.0539927 -0.240499 -0.0012829 184 6 0
0.0522177 -0.241366 -0.00127283 184 12 2
0.0504491 -0.242229 -0.00126288 188 12 1
0.0473763 -0.24155 0.000317764 191 10 0
0.0456322 -0.242406 0.000324723 194 7 0
0.0438944 -0.243258 0.000331667 195 5 0
0.0417406 -0.243596 0.000855532 194 7 0
0.0400189 -0.244442 0.000861418 191 9 0
0.0387176 -0.245798 0.000352215 185 9 0
0.0365936 -0.246126 0.000873175 184 8 0
0.0344846 -0.246451 0.00139035 191 6 0
0.0327907 -0.247285 0.00139518 201 6 0
0.0307062 -0.247604 0.00190778 210 10 0
0.0278573 -0.246907 0.00342165 221 10 0
0.0258117 -0.247224 0.00392174 223 11 0
0.0237802 -0.24754 0.00441837 220 9 0
0.022137 -0.248356 0.00441771 211 9 0
0.0208714 -0.249675 0.00392244 203 8 0
0.019236 -0.250486 0.00392265 198 5 0
0.0176062 -0.251294 0.0039228 195 2 0
0.0163448 -0.252608 0.00342922 199 10 2
0.0154454 -0.254435 0.00243921 228 29 10
0.0141818 -0.255752 0.00194473 242 58 44
0.012918 -0.257068 0.00145019 226 65 53
0.0116543 -0.258385 0.000955623 145 52 48
0.0107449 -0.260225 -4.04451e-05 88 50 45
0.137971 -0.182695 0.0076055 87 61 51
0.136571 -0.184154 0.00705735 236 53 46
0.136442 -0.186493 0.00541506 255 69 48
0.135673 -0.188404 0.00431351 255 60 40
0.136183 -0.191227 0.0020921 255 51 32
0.135407 -0.193161 0.000975367 255 56 30
0.134628 -0.195104 -0.000145811 255 54 31
0.13449 -0.197523 -0.00184226 255 51 31
0.133061 -0.199011 -0.0024014 255 48 24
0.131632 -0.2005 -0.00296055 255 47 20
0.129568 -0.20151 -0.00294555 255 44 19
0.128775 -0.203477 -0.0040789 255 46 23
0.127346 -0.204966 -0.00463812 255 44 21
0.125917 -0.206455 -0.00519733 255 41 16
0.124488 -0.207943 -0.00575662 255 45 25
0.124937 -0.210922 -0.00806868 255 45 30
0.1235 -0.21242 -0.00863131 255 58 38
0.122062 -0.213918 -0.00919398 255 55 38
0.120004 -0.214908 -0.00916675 255 51 34
0.117342 -0.215389 -0.00855331 255 49 28
0.115912 -0.216878 -0.0091127 255 50 32
0.113277 -0.217349 -0.00850195 255 42 21
0.110661 -0.217816 -0.00789594 255 40 18
0.108066 -0.21828 -0.00729469 255 40 23
0.106653 -0.219752 -0.00784766 254 37 18
0.104083 -0.220207 -0.00724897 244 36 14
0.102103 -0.221165 -0.00722626 250 36 17
0.100131 -0.222119 -0.00720366 254 47 29
0.098166 -0.22307 -0.00718122 255 40 24
0.0956532 -0.223508 -0.00659086 255 51 35
0.0931594 -0.223943 -0.0060051 255 48 25
0.0912264 -0.224881 -0.00598517 255 43 21
0.0893007 -0.225816 -0.00596537 255 40 20
0.0873823 -0.226747 -0.00594569 252 35 16
0.0860008 -0.228186 -0.0064863 236 31 10
0.0846193 -0.229626 -0.00702694 218 28 6
0.0832378 -0.231065 -0.00756765 211 28 5
0.0813342 -0.231985 -0.00754503 209 29 6
0.0794377 -0.232902 -0.0075225 211 31 9
0.0775483 -0.233815 -0.00750013 220 32 11
0.0751595 -0.234205 -0.00691994 234 35 12
0.070316 -0.232028 -0.00360144 240 39 13
0.0684783 -0.232926 -0.0035868 240 35 9
0.0666474 -0.23382 -0.00357221 233 31 7
0.0643469 -0.234203 -0.00301837 221 26 2
0.0625335 -0.23509 -0.00300494 209 24 4
0.0611946 -0.236485 -0.00352896 201 22 2
0.0593902 -0.237367 -0.0035147 192 18 3
0.0575924 -0.238246 -0.00350049 187 18 0
0.0558012 -0.239121 -0.00348637 186 17 0
0.053565 -0.239481 -0.00293903 189 16 0
0.0517907 -0.240349 -0.00292604 191 20 2
0.0500228 -0.241215 -0.00291317 193 21 2
0.04652 -0.240035 -0.00079802 194 19 1
0.0447804 -0.240892 -0.000789094 193 16 0
0.0434722 -0.242255 -0.00130105 190 13 0
0.0413198 -0.242597 -0.000771451 187 13 0
0.0395988 -0.243445 -0.000762719 184 14 0
0.0382974 -0.2448 -0.00127201 182 13 0
0.0361747 -0.245132 -0.000745345 181 11 0
0.0344719 -0.245971 -0.000736806 184 9 0
0.0327748 -0.246807 -0.000728298 190 11 0
0.0302907 -0.246619 0.000303295 192 9 0
0.0274445 -0.245929 0.00182832 196 12 0
0.0250184 -0.245748 0.00283387 198 11 0
0.0233701 -0.246569 0.00283597 199 8 0
0.0221023 -0.24789 0.00233976 197 10 0
0.0204619 -0.248706 0.00234265 195 11 0
0.0191961 -0.250024 0.00184728 192 6 0
0.0179303 -0.251343 0.0013519 188 4 1
0.0166644 -0.252662 0.000856471 196 16 8
0.0153985 -0.253981 0.000361052 240 39 25
0.0141326 -0.2553 -0.000134397 247 62 50
0.0128666 -0.256619 -0.000629861 217 65 54
0.0116005 -0.257938 -0.00112532 141 52 45
0.0103344 -0.259257 -0.00162083 88 53 45
0.134992 -0.179904 0.00802558 88 62 54
0.133601 -0.181352 0.00748151 236 45 44
0.132211 -0.1828 0.0069374 255 70 48
0.131443 -0.184682 0.0058513 255 59 41
0.131922 -0.187451 0.00366443 255 52 32
0.131775 -0.189803 0.0020089 255 51 30
0.131627 -0.192173 0.000340488 255 53 32
0.132114 -0.195024 -0.00190865 255 51 32
0.131966 -0.197438 -0.00360884 255 50 25
0.13054 -0.198924 -0.00416699 255 51 24
0.129113 -0.20041 -0.00472512 255 46 26
0.128319 -0.202374 -0.00586208 255 45 24
0.12689 -0.203863 -0.00642141 255 47 36
0.124835 -0.204868 -0.00639975 255 47 20
0.123408 -0.206354 -0.00695801 255 51 31
0.125108 -0.210311 -0.0104552 255 58 39
0.12493 -0.212821 -0.0122132 255 57 41
0.123483 -0.214327 -0.0127793 255 60 40
0.120165 -0.214307 -0.011551 255 56 36
0.11811 -0.215297 -0.0115192 255 51 29
0.115455 -0.215776 -0.0108967 255 47 21
0.114026 -0.217266 -0.0114562 255 42 18
0.110207 -0.216723 -0.00966616 255 41 15
0.107029 -0.21669 -0.00847987 255 36 12
0.103889 -0.216657 -0.00730731 255 37 13
0.101349 -0.21712 -0.00671532 254 36 16
0.0993893 -0.218076 -0.00669393 255 49 30
0.097995 -0.219529 -0.00723966 255 42 19
0.0960454 -0.220479 -0.00721732 255 41 26
0.0941031 -0.221426 -0.00719512 255 52 40
0.0927139 -0.222873 -0.00773882 255 49 30
0.0907816 -0.223814 -0.00771574 255 44 27
0.0888566 -0.224751 -0.00769268 255 40 24
0.0869389 -0.225684 -0.00766984 253 36 16
0.0855573 -0.227124 -0.00821053 242 32 9
0.0841757 -0.228563 -0.00875126 227 30 6
0.082794 -0.230003 -0.00929201 223 30 8
0.0814123 -0.231442 -0.00983279 226 34 12
0.079512 -0.232362 -0.00980598 236 39 15
0.0781327 -0.233798 -0.0103458 248 40 16
0.0762421 -0.234712 -0.0103181 252 41 17
0.0698815 -0.230989 -0.00528784 253 41 17
0.0675605 -0.231384 -0.00472562 253 39 15
0.0652566 -0.231775 -0.00416757 248 33 9
0.0634415 -0.232667 -0.00415212 240 27 3
0.0621025 -0.234062 -0.00467617 225 24 1
0.0607634 -0.235457 -0.00520027 211 23 1
0.0594243 -0.236852 -0.00572439 203 24 7
0.0571626 -0.237222 -0.00516583 200 26 5
0.0558283 -0.238612 -0.00568807 201 24 3
0.0535879 -0.238973 -0.00513175 209 26 3
0.0518101 -0.239845 -0.00511487 216 29 6
0.0495963 -0.2402 -0.00456369 217 30 6
0.0460972 -0.23903 -0.0024338 214 29 4
0.0443583 -0.239888 -0.00242204 207 24 2
0.0426257 -0.240744 -0.00241033 199 21 0
0.0408991 -0.241597 -0.0023987 192 21 1
0.0391786 -0.242447 -0.00238712 188 21 4
0.0378771 -0.243803 -0.00289651 187 21 4
0.036165 -0.244647 -0.00288411 186 19 2
0.0344589 -0.245489 -0.00287178 185 17 2
0.0323572 -0.245816 -0.0023415 189 18 0
0.028698 -0.244121 0.000228089 191 17 0
0.026261 -0.24395 0.00124371 193 20 0
0.0242279 -0.244277 0.00174953 193 20 1
0.0225837 -0.245099 0.00175336 194 16 0
0.021318 -0.246418 0.00125797 193 14 0
0.0200521 -0.247736 0.000762549 190 16 1
0.0187863 -0.249055 0.0002671 187 13 2
0.0175204 -0.250374 -0.000228334 191 13 6
0.0162544 -0.251693 -0.000723842 214 29 19
0.0149884 -0.253012 -0.00121931 255 61 49
0.0137223 -0.254331 -0.00171483 252 61 51
0.0124561 -0.25565 -0.0022104 193 66 55
0.01119 -0.256969 -0.00270596 120 56 47
0.00992373 -0.258289 -0.00320156 82 54 44
0.132057 -0.177155 0.00843899 87 60 51
0.130677 -0.178592 0.00789895 187 42 44
0.129912 -0.180451 0.00682285 255 69 46
0.128529 -0.181891 0.00628176 255 64 43
0.128372 -0.184191 0.00465828 255 51 32
0.126984 -0.185637 0.00411507 255 59 31
0.12682 -0.18796 0.00247702 255 55 33
0.128513 -0.191647 -0.000847671 255 53 34
0.129608 -0.194945 -0.00366514 255 53 33
0.128191 -0.196422 -0.00422009 255 52 29
0.127399 -0.198367 -0.00534948 255 50 30
0.125978 -0.199847 -0.00590554 255 58 42
0.126433 -0.20276 -0.00820497 255 73 68
0.124379 -0.203767 -0.00817994 255 57 37
0.122953 -0.205253 -0.00873824 255 58 36
0.12719 -0.211204 -0.014661 255 61 42
0.126377 -0.213226 -0.0158385 255 60 44
0.126845 -0.216291 -0.0182535 255 58 39
0.110346 -0.216133 -0.0120241 255 40 14
0.104842 -0.214115 -0.00850863 255 40 16
0.100043 -0.212635 -0.00564754 255 42 20
0.0986564 -0.214079 -0.00619017 255 51 30
0.09727 -0.215524 -0.00673284 255 41 25
0.0953327 -0.216476 -0.00671167 255 35 17
0.0939488 -0.217918 -0.00725334 255 60 42
0.0925648 -0.21936 -0.00779507 255 56 41
0.0911807 -0.220802 -0.00833677 255 47 31
0.0908789 -0.223252 -0.0100167 255 45 30
0.0809684 -0.23038 -0.0115575 244 39 17
0.0790688 -0.231301 -0.0115276 252 42 17
0.0776894 -0.232738 -0.0120675 255 42 19
0.0689594 -0.229448 -0.00642585 255 42 18
0.066646 -0.229847 -0.00586056 255 39 17
0.0643496 -0.230243 -0.00529944 254 35 12
0.0630105 -0.231638 -0.00582354 249 28 6
0.0616714 -0.233033 -0.00634769 234 23 0
0.0603322 -0.234429 -0.00687185 220 25 3
0.058993 -0.235824 -0.00739605 215 34 11
0.0576537 -0.237219 -0.00792028 218 29 6
0.0553983 -0.237587 -0.0073538 227 32 9
0.0531593 -0.237953 -0.00679149 238 35 12
0.0513822 -0.238826 -0.00677163 244 38 14
0.0491699 -0.239185 -0.00621455 243 37 12
0.0448163 -0.237021 -0.00301831 239 34 9
0.0435102 -0.238382 -0.00352948 227 29 5
0.041782 -0.239239 -0.00351593 213 26 4
0.0404782 -0.240597 -0.00402624 202 27 6
0.0387583 -0.241449 -0.00401183 198 28 9
0.0374568 -0.242805 -0.00452133 197 26 7
0.0361551 -0.244161 -0.00503077 198 26 4
0.0344459 -0.245005 -0.00501466 200 25 4
0.0315399 -0.244319 -0.00343591 207 26 3
0.0275081 -0.242145 -0.000352133 214 27 4
0.0250857 -0.241984 0.000662949 216 27 4
0.02344 -0.242811 0.000668642 213 26 4
0.0218 -0.243634 0.000674304 209 25 4
0.0201655 -0.244454 0.000679922 203 25 3
0.0196424 -0.246767 -0.000817809 198 25 5
0.0183764 -0.248086 -0.00131332 196 24 11
0.0171103 -0.249405 -0.00180886 208 30 20
0.0158443 -0.250724 -0.00230441 247 52 37
0.0145781 -0.252043 -0.00280001 255 83 65
0.0133119 -0.253362 -0.00329557 248 57 48
0.0120457 -0.254681 -0.00379122 165 55 50
0.0107794 -0.256001 -0.00428686 102 54 40
0.00986654 -0.25784 -0.00529398 76 51 39
0.131002 -0.175675 0.00725227 84 61 56
0.129624 -0.17711 0.00671318 117 54 52
0.128247 -0.178545 0.00617407 255 53 41
0.12687 -0.17998 0.00563492 255 65 44
0.125492 -0.181415 0.00509578 255 63 38
0.124718 -0.183276 0.00401622 255 55 32
0.124546 -0.185577 0.00238707 255 57 32
0.124372 -0.187895 0.000745457 255 56 34
0.126039 -0.191575 -0.00258966 255 52 35
0.124635 -0.193038 -0.00313934 255 56 34
0.124459 -0.195417 -0.00482473 255 53 34
0.124282 -0.197815 -0.00652327 255 63 43
0.124103 -0.200231 -0.00823512 255 63 46
0.122683 -0.201711 -0.00879132 255 61 42
0.121261 -0.203192 -0.00934758 255 61 42
0.129305 -0.212111 -0.0189347 255 60 40
0.0987564 -0.208217 -0.004596 255 43 22
0.0973804 -0.209651 -0.00513457 255 49 29
0.0960044 -0.211084 -0.00567323 255 45 30
0.0951745 -0.213 -0.0067716 255 33 16
0.0937957 -0.214436 -0.00731129 255 37 18
0.09296 -0.216361 -0.00841491 255 54 36
0.0915785 -0.217801 -0.00895568 255 50 35
0.0901969 -0.21924 -0.00949647 255 43 30
0.0665969 -0.226424 -0.00592275 255 42 20
0.0652578 -0.227819 -0.00644689 255 41 21
0.0639187 -0.229214 -0.00697108 255 37 16
0.0625795 -0.230609 -0.00749527 253 24 4
0.0612403 -0.232005 -0.0080195 238 25 3
0.0599009 -0.2334 -0.00854375 229 30 4
0.0585616 -0.234795 -0.00906802 230 35 11
0.0572221 -0.236191 -0.00959233 241 33 10
0.0558826 -0.237586 -0.0101166 248 39 15
0.0536335 -0.237953 -0.00954223 254 42 19
0.0514008 -0.238318 -0.00897202 255 42 20
0.0496268 -0.23919 -0.00894831 255 39 19
0.0469837 -0.239039 -0.00784409 252 38 15
0.0430887 -0.23738 -0.00516008 242 34 9
0.0413612 -0.238239 -0.00514369 225 31 8
0.0400572 -0.239597 -0.00565408 212 31 10
0.0387533 -0.240956 -0.00616449 208 29 9
0.0370363 -0.241807 -0.00614637 210 26 5
0.0357345 -0.243163 -0.00665595 216 25 3
0.0344327 -0.244519 -0.00716551 227 27 4
0.0311228 -0.24333 -0.00504685 238 34 10
0.0263265 -0.240182 -0.000928554 244 36 15
0.0242964 -0.240522 -0.000416252 245 36 14
0.0222804 -0.240859 9.25179e-05 241 37 18
0.0206479 -0.241683 9.90893e-05 233 35 15
0.0190209 -0.242504 0.000105601 224 32 13
0.0184955 -0.244802 -0.00138903 215 30 12
0.0172338 -0.246117 -0.0018829 216 33 19
0.0163355 -0.247932 -0.00288232 234 46 34
0.0154341 -0.249755 -0.00388527 255 67 49
0.0141678 -0.251074 -0.00438093 254 67 57
0.0129015 -0.252393 -0.0048766 220 63 53
0.0116351 -0.253712 -0.00537232 143 51 43
0.0107237 -0.255548 -0.00638137 92 51 35
0.009455 -0.25687 -0.00687798 73 56 38
0.130563 -0.174611 0.00553326 80 60 59
0.129186 -0.176046 0.00499411 87 56 49
0.1272 -0.177066 0.00499341 164 44 38
0.125826 -0.178498 0.00445522 255 50 40
0.124451 -0.179931 0.00391698 255 64 43
0.123076 -0.181363 0.00337873 255 55 35
0.121701 -0.182796 0.00284047 255 55 33
0.12092 -0.184656 0.00175857 255 55 33
0.119543 -0.186091 0.00121925 255 51 33
0.118165 -0.187527 0.000679877 255 54 32
0.117968 -0.18984 -0.000959042 255 56 35
0.118365 -0.192618 -0.00316868 255 59 39
0.122415 -0.198197 -0.00884417 255 67 45
0.120999 -0.199672 -0.00939829 255 63 42
0.119583 -0.201146 -0.00995249 255 64 44
0.118776 -0.203098 -0.0110911 255 60 42
0.0996918 -0.205723 -0.00577501 255 48 28
0.0955809 -0.204826 -0.00354557 255 49 33
0.094758 -0.206712 -0.00462967 255 51 33
0.0944737 -0.209076 -0.0062735 255 39 15
0.093644 -0.21098 -0.00736899 255 33 14
0.092811 -0.212892 -0.00846856 255 49 33
0.0919748 -0.214811 -0.00957236 255 51 35
0.0905958 -0.216247 -0.0101122 255 49 32
0.0892167 -0.217684 -0.010652 255 45 28
0.088372 -0.219616 -0.0117621 255 41 26
0.0661662 -0.225395 -0.0075945 255 46 27
0.0630157 -0.22769 -0.0080963 255 31 11
0.0616788 -0.229082 -0.00861964 253 25 4
0.060809 -0.230976 -0.0096916 244 26 6
0.0594695 -0.232371 -0.0102159 241 34 9
0.0581301 -0.233766 -0.0107403 247 36 14
0.0567905 -0.235162 -0.0112647 254 41 18
0.0554509 -0.236558 -0.0117891 255 42 18
0.0396362 -0.238597 -0.00728219 223 33 11
0.0383321 -0.239955 -0.0077927 223 29 6
0.0366158 -0.240808 -0.00777175 229 27 4
0.0353139 -0.242165 -0.0082814 240 29 6
0.0303091 -0.241838 -0.00613512 255 43 20
0.025153 -0.238233 -0.00150128 255 45 25
0.0231339 -0.238578 -0.000988815 255 43 25
0.0211286 -0.238921 -0.000479925 255 47 33
0.0191371 -0.239262 2.54329e-05 249 42 27
0.0178841 -0.240567 -0.000465084 235 36 19
0.0173565 -0.242851 -0.00195653 225 34 16
0.0164615 -0.244655 -0.00295273 233 41 22
0.0155633 -0.246465 -0.00395237 255 60 45
0.0146619 -0.248282 -0.00495552 254 79 61
0.0137574 -0.250104 -0.00596214 252 62 51
0.012491 -0.251424 -0.0064579 178 66 56
0.0112245 -0.252743 -0.00695366 113 56 50
0.0103123 -0.254577 -0.00796557 80 52 44
0.00904346 -0.255899 -0.00846225 70 57 42
0.12753 -0.174163 0.00435413 82 59 43
0.126158 -0.175592 0.00381687 101 51 44
0.124785 -0.177022 0.00327962 168 40 32
0.122815 -0.178037 0.00328204 248 48 29
0.120263 -0.178634 0.00382106 255 59 36
0.118898 -0.180056 0.00328675 255 57 36
0.117533 -0.181478 0.00275241 255 53 30
0.116168 -0.1829 0.00221805 255 52 29
0.112504 -0.182637 0.00382618 255 50 32
0.11115 -0.184049 0.00329578 255 52 34
0.113225 -0.188028 -0.000472564 255 59 37
0.116529 -0.192993 -0.00545001 255 61 41
0.115138 -0.194442 -0.00599467 255 63 43
0.113746 -0.195892 -0.00653939 255 58 42
0.112355 -0.197342 -0.00708413 255 57 39
0.110963 -0.198791 -0.00762889 255 55 37
0.0965076 -0.202355 -0.00471375 255 51 34
0.0929963 -0.20195 -0.00305739 255 60 38
0.0921745 -0.203816 -0.0041326 255 41 19
0.0924176 -0.206616 -0.00631495 255 30 10
0.0915884 -0.208505 -0.00740438 255 39 20
0.0907562 -0.210401 -0.0084979 255 50 34
0.0899208 -0.212305 -0.00959559 255 49 31
0.0896167 -0.2147 -0.0112646 255 44 28
0.0887743 -0.216622 -0.0123738 255 42 24
0.087395 -0.218059 -0.0129138 255 40 22
0.0860157 -0.219496 -0.0134538 255 41 29
0.0612484 -0.228055 -0.0102889 255 26 4
0.0599113 -0.229448 -0.0108123 252 28 7
0.0590381 -0.231342 -0.0118884 252 37 13
0.0576985 -0.232738 -0.0124128 255 42 20
0.0563588 -0.234133 -0.0129373 255 46 24
0.0260096 -0.235944 -0.00258646 255 45 26
0.0243649 -0.236779 -0.00257534 255 45 25
0.0216079 -0.236169 -0.00105709 255 42 26
0.0192527 -0.236042 -5.43032e-05 255 49 36
0.0172811 -0.23639 0.000446078 250 41 26
0.0160365 -0.237687 -4.11753e-05 237 35 15
0.0155061 -0.239945 -0.00152104 238 37 19
0.0153312 -0.242707 -0.00351429 254 51 37
0.0147937 -0.245003 -0.005019 255 73 55
0.0138924 -0.246813 -0.00602232 252 65 56
0.013347 -0.249135 -0.00754361 224 66 57
0.0120805 -0.250454 -0.00803945 140 52 46
0.0108138 -0.251774 -0.00853531 92 52 41
0.00954717 -0.253093 -0.00903118 74 55 48
0.125119 -0.174124 0.00264452 80 59 47
0.123152 -0.175143 0.00264805 95 54 40
0.121192 -0.176157 0.00265155 151 50 36
0.11924 -0.177169 0.002655 211 44 21
0.115561 -0.176949 0.00425692 254 49 36
0.113637 -0.17795 0.0042573 255 61 37
0.111156 -0.178538 0.00478458 255 61 38
0.108137 -0.178716 0.00583005 255 58 35
0.105151 -0.178893 0.00686401 255 56 32
0.10382 -0.180279 0.00634318 255 56 33
0.104124 -0.182897 0.00425893 255 59 36
0.111772 -0.191142 -0.00491885 255 61 39
0.109819 -0.192134 -0.00490125 255 58 40
0.108443 -0.193568 -0.00543987 255 55 35
0.105934 -0.194109 -0.00486632 255 53 32
0.0995911 -0.191582 -0.000490982 255 51 30
0.0939802 -0.189558 0.00321978 255 52 30
0.0895498 -0.188421 0.00580389 255 47 28
0.0909751 -0.199561 -0.00311621 255 45 28
0.0901541 -0.201412 -0.00418564 255 33 11
0.0903843 -0.204183 -0.00635618 255 32 15
0.0906171 -0.206986 -0.00855114 255 47 33
0.0897844 -0.208876 -0.00964484 255 50 35
0.0889486 -0.210773 -0.0107427 255 46 31
0.0881095 -0.212677 -0.0118448 255 45 31
0.0872672 -0.214589 -0.012951 255 44 27
0.0864217 -0.216508 -0.0140614 255 41 20
0.0855729 -0.218434 -0.015176 255 43 22
0.0599463 -0.228917 -0.0130367 255 35 8
0.0586066 -0.230313 -0.0135612 255 40 15
0.0572669 -0.231708 -0.0140857 255 45 25
0.055927 -0.233104 -0.0146102 255 49 30
0.0237124 -0.232591 -0.00164175 255 42 24
0.0224572 -0.233899 -0.00213321 255 42 20
0.0200975 -0.233784 -0.00112492 255 40 16
0.0174023 -0.233201 0.000365269 255 39 20
0.0161618 -0.234493 -0.00012036 246 35 17
0.0149213 -0.235786 -0.000606049 237 36 17
0.0140342 -0.237553 -0.00158649 243 50 33
0.014566 -0.241259 -0.00457639 255 69 53
0.013669 -0.243054 -0.00557378 254 75 60
0.0131255 -0.24535 -0.0070857 244 69 55
0.0125782 -0.247663 -0.00860814 168 61 58
0.0116698 -0.249485 -0.00962131 100 56 49
0.010403 -0.250804 -0.0101172 79 56 41
0.00913626 -0.252124 -0.0106132 73 55 40
0.122122 -0.173681 0.0014819 79 56 42
0.120168 -0.174696 0.00148748 94 55 50
0.116482 -0.174496 0.00309799 124 49 46
0.114556 -0.1755 0.00310047 164 40 36
0.110385 -0.174897 0.00520748 220 41 21
0.108492 -0.17589 0.005206 253 49 31
0.105509 -0.176081 0.00624148 255 58 36
0.102559 -0.176271 0.00726559 255 66 37
0.0985851 -0.175673 0.00928956 255 59 34
0.0967536 -0.176644 0.00928077 255 60 35
0.102358 -0.183258 0.00206482 255 58 35
0.10102 -0.184652 0.00154099 255 59 35
0.0986075 -0.185211 0.00207314 255 58 36
0.0967422 -0.186182 0.00207725 255 53 31
0.093834 -0.186317 0.00312581 255 52 31
0.0894211 -0.18522 0.0057016 255 52 30
0.0876056 -0.186173 0.00569905 255 51 34
0.0868023 -0.187948 0.00467626 255 49 31
0.0890535 -0.192258 0.000527677 255 56 36
0.0903145 -0.195804 -0.00265064 255 49 39
0.0900194 -0.19808 -0.00425403 255 37 17
0.089198 -0.199925 -0.00532365 255 32 9
0.0894224 -0.202683 -0.00749658 255 45 23
0.0891204 -0.205011 -0.00913604 255 51 32
0.0888162 -0.207356 -0.0107878 255 46 28
0.0879799 -0.209247 -0.0118858 255 45 28
0.0871405 -0.211145 -0.012988 255 43 28
0.0857714 -0.212571 -0.0135241 255 44 28
0.0844023 -0.213997 -0.0140601 255 47 25
0.0846028 -0.216882 -0.0163197 255 47 24
0.0599813 -0.228384 -0.0152695 255 41 13
0.058639 -0.229783 -0.0157951 255 42 22
0.0572967 -0.231181 -0.0163206 255 47 31
0.0233065 -0.231629 -0.00320942 255 44 20
0.0213108 -0.231994 -0.00269568 255 41 14
0.0182414 -0.230958 -0.000698272 255 36 10
0.0170009 -0.23225 -0.00118396 253 32 10
0.0154046 -0.233075 -0.00117566 244 31 12
0.014166 -0.234365 -0.00166057 246 43 26
0.0129275 -0.235656 -0.0021455 255 64 47
0.0130937 -0.238852 -0.00462669 255 77 60
0.0129064 -0.241604 -0.00663267 248 66 56
0.0123611 -0.243892 -0.00814571 211 71 59
0.0114569 -0.245698 -0.00915286 131 54 54
0.0109037 -0.248012 -0.0106826 87 57 45
0.00999221 -0.249835 -0.0116994 74 55 40
0.119148 -0.173241 0.000327479 81 55 54
0.115476 -0.173051 0.00194353 87 56 55
0.111296 -0.17247 0.0040611 93 53 57
0.109401 -0.173467 0.00406168 124 50 42
0.106413 -0.173672 0.00510332 158 41 37
0.103458 -0.173875 0.0061336 206 35 22
0.0994761 -0.173299 0.0081677 249 45 27
0.0971207 -0.173887 0.00866468 255 49 34
0.0947821 -0.17447 0.00915809 255 58 37
0.0950294 -0.176997 0.00713749 255 58 34
0.0937225 -0.178358 0.0066258 255 50 30
0.0919027 -0.179322 0.00662158 255 50 28
0.0905981 -0.180681 0.00611075 255 52 31
0.0892934 -0.18204 0.00559988 255 52 32
0.0879887 -0.183399 0.00508901 255 53 34
0.0866838 -0.184759 0.00457813 255 55 45
0.0858801 -0.186527 0.00355509 255 53 38
0.0855759 -0.188716 0.00201161 255 57 40
0.0883302 -0.193474 -0.0027116 255 43 26
0.0885473 -0.196166 -0.00484617 255 38 17
0.0882455 -0.198444 -0.00645775 255 38 17
0.0879413 -0.200739 -0.00808129 255 50 29
0.0876349 -0.20305 -0.0097169 255 51 32
0.0873261 -0.205379 -0.0113647 255 47 30
0.08649 -0.20726 -0.0124599 255 47 30
0.0851285 -0.208678 -0.012993 255 46 28
0.083767 -0.210096 -0.0135261 255 45 30
0.0824054 -0.211514 -0.0140592 255 53 32
0.0825935 -0.214369 -0.0163062 255 54 32
0.0595489 -0.227353 -0.0169459 255 42 17
0.0582065 -0.228751 -0.0174715 255 43 27
0.0219284 -0.226587 -0.00128474 255 43 26
0.0221573 -0.229732 -0.00376843 255 40 17
0.0194433 -0.229176 -0.00225781 255 36 12
0.01784 -0.230007 -0.00224768 255 33 9
0.0162422 -0.230836 -0.00223762 248 32 10
0.0146498 -0.231662 -0.00222762 250 37 20
0.0134133 -0.23295 -0.00271179 255 54 39
0.0125263 -0.234707 -0.00369259 255 71 56
0.0112876 -0.235997 -0.00417762 253 70 58
0.0114425 -0.239196 -0.00667283 234 67 56
0.0115994 -0.242439 -0.00920236 155 53 52
0.0110484 -0.244733 -0.010727 97 53 39
0.0101402 -0.246544 -0.0117405 77 58 41
0.00922886 -0.248361 -0.0127574 74 57 40
0.110869 -0.171436 0.00239074 77 55 59
0.10842 -0.172043 0.00291977 87 59 52
0.104899 -0.171867 0.00448452 95 55 47
0.101963 -0.172078 0.00551437 118 51 41
0.0980085 -0.171521 0.00754662 152 43 35
0.0956667 -0.172113 0.00804397 198 33 20
0.0928314 -0.17232 0.00903646 241 42 22
0.0910326 -0.173285 0.009028 254 54 36
0.0907507 -0.175399 0.00752334 255 60 39
0.0889523 -0.176361 0.00751748 255 52 31
0.0876591 -0.177708 0.0070111 255 52 30
0.0878666 -0.180238 0.00498964 255 53 31
0.0865664 -0.181592 0.00448049 255 54 32
0.0857653 -0.183349 0.00346088 255 54 40
0.0844627 -0.184706 0.00295081 255 59 40
0.0851558 -0.187705 0.000373137 255 46 29
0.0863674 -0.19117 -0.00277211 255 44 32
0.0865725 -0.193835 -0.00489544 255 42 31
0.0867797 -0.196529 -0.00704217 255 48 33
0.0864711 -0.198808 -0.00866193 255 51 31
0.0861602 -0.201104 -0.0102937 255 51 30
0.0853282 -0.202962 -0.0113788 255 52 32
0.0839767 -0.20437 -0.011908 255 50 32
0.0826252 -0.205778 -0.0124372 255 49 31
0.0797513 -0.205808 -0.0112933 255 48 33
0.0789103 -0.207668 -0.0123763 255 54 35
0.0806065 -0.211884 -0.016293 255 55 36
0.0593034 -0.212767 -0.00832042 255 31 7
0.0599325 -0.221584 -0.015327 255 43 25
0.0585999 -0.222972 -0.0158488 255 44 20
0.0581885 -0.225337 -0.0174925 255 44 22
0.0573116 -0.227224 -0.0185812 255 46 26
0.0564314 -0.229118 -0.019674 255 48 33
0.0519508 -0.232808 -0.0206804 255 43 23
0.0506104 -0.234204 -0.0212052 255 40 19
0.0237501 -0.228396 -0.00585389 255 39 20
0.0206493 -0.227387 -0.00382282 255 36 12
0.0186794 -0.227764 -0.00331153 255 36 11
0.01708 -0.228596 -0.00329972 255 35 9
0.0154861 -0.229426 -0.00328799 255 37 17
0.0138976 -0.230253 -0.00327626 255 54 37
0.012663 -0.231539 -0.00375967 255 74 57
0.0117762 -0.23329 -0.00474069 255 76 62
0.0108863 -0.235048 -0.00572506 238 67 55
0.0103404 -0.237286 -0.0072171 177 68 54
0.0108401 -0.24099 -0.0102556 106 52 44
0.0106398 -0.243768 -0.0123014 77 55 42
0.00937936 -0.245081 -0.0127949 76 54 41
0.107995 -0.171013 0.00125517 80 57 51
0.103936 -0.170458 0.00335188 81 61 50
0.0999493 -0.169913 0.00541083 87 61 49
0.0965514 -0.169755 0.00692969 97 54 46
0.0937114 -0.169975 0.00792808 119 48 36
0.0914052 -0.170567 0.0084196 152 41 33
0.0896152 -0.171532 0.00841218 205 43 25
0.0888281 -0.173251 0.00741037 249 56 35
0.0870425 -0.174211 0.00740471 255 62 40
0.085756 -0.175551 0.00690093 255 57 33
0.0854562 -0.177667 0.00539387 255 53 32
0.0846588 -0.179404 0.00438307 255 52 33
0.08485 -0.181943 0.00234738 255 59 38
0.0840456 -0.183701 0.00132386 255 47 23
0.0842348 -0.186282 -0.00074302 255 40 27
0.0854357 -0.189728 -0.00389275 255 48 44
0.0851262 -0.191954 -0.00548043 255 53 38
0.0853246 -0.194627 -0.00762262 255 55 34
0.0850117 -0.196891 -0.00923865 255 53 32
0.0841835 -0.198728 -0.0103138 255 52 29
0.0833523 -0.200572 -0.011393 255 50 32
0.0820083 -0.201972 -0.0119193 255 51 32
0.0796551 -0.202471 -0.0113362 255 51 32
0.0763299 -0.202073 -0.00966232 255 50 31
0.0750003 -0.203458 -0.010183 255 50 32
0.0688779 -0.200423 -0.00532693 255 50 33
0.061622 -0.196237 0.000881549 255 50 34
0.0603459 -0.197566 0.000381824 255 50 34
0.0613032 -0.201022 -0.00267481 255 51 34
0.061368 -0.203664 -0.00473763 255 51 36
0.0605252 -0.205452 -0.00576863 255 48 29
0.0592284 -0.206802 -0.00627648 255 40 16
0.0588305 -0.209046 -0.00784189 255 34 9
0.0588824 -0.21176 -0.0099548 255 34 11
0.0584795 -0.214042 -0.0115476 255 42 23
0.0594473 -0.217748 -0.0148017 255 47 29
0.0585808 -0.219604 -0.0158757 255 45 28
0.057711 -0.221467 -0.0169535 255 44 21
0.0568379 -0.223336 -0.0180353 255 44 25
0.0568798 -0.226194 -0.0202552 255 47 26
0.0555395 -0.22759 -0.02078 255 49 31
0.0541992 -0.228986 -0.0213048 255 50 37
0.0528589 -0.230383 -0.0218297 255 46 33
0.0515184 -0.231779 -0.0223546 255 45 26
0.050178 -0.233175 -0.0228796 255 42 19
0.0488374 -0.234571 -0.0234045 255 43 20
0.0277617 -0.227131 -0.00900628 255 50 32
0.0211249 -0.224681 -0.00438918 255 38 14
0.0195187 -0.22552 -0.00437551 255 38 15
0.0182779 -0.226812 -0.00486142 255 39 16
0.0166792 -0.227647 -0.00484705 255 40 27
0.0147325 -0.228021 -0.00433502 255 56 42
0.0134979 -0.229307 -0.0048185 255 73 53
0.0122632 -0.230593 -0.00530202 255 74 57
0.0110285 -0.231879 -0.00578553 244 65 54
0.0101387 -0.233631 -0.00677006 200 66 51
0.00993755 -0.236334 -0.00877014 124 54 42
0.0100834 -0.239546 -0.0113056 83 52 42
0.00987941 -0.242312 -0.0133533 74 54 43
0.0995313 -0.168902 0.00377573 85 61 55
0.0945915 -0.167629 0.00681954 85 65 57
0.0917768 -0.167859 0.00781318 86 58 46
0.0889917 -0.168086 0.00879626 100 54 45
0.0872183 -0.169048 0.00878815 130 50 39
0.0874208 -0.171502 0.00680096 214 48 36
0.0856438 -0.172461 0.00679631 251 64 41
0.0843618 -0.173797 0.00629422 255 62 40
0.0835679 -0.175515 0.0052921 255 57 36
0.0827712 -0.177239 0.00428639 255 59 37
0.0824607 -0.179361 0.00276993 255 47 29
0.0821477 -0.181497 0.00124268 255 37 15
0.0818325 -0.18365 -0.000295538 255 38 19
0.0825052 -0.186636 -0.00289212 255 54 36
0.0836903 -0.190086 -0.0060615 255 59 36
0.0833743 -0.192313 -0.00765717 255 57 35
0.0835628 -0.194989 -0.00981142 255 55 35
0.082735 -0.196815 -0.0108838 255 53 32
0.0813982 -0.198208 -0.0114073 255 49 31
0.0795598 -0.199158 -0.0113791 255 51 32
0.0767391 -0.199224 -0.0102557 255 51 33
0.0710703 -0.196697 -0.0059352 255 50 32
0.0655814 -0.19425 -0.00175192 255 50 32
0.0598236 -0.191474 0.00279802 255 49 31
0.0585607 -0.192789 0.00230342 255 48 30
0.0572977 -0.194105 0.00180882 255 49 32
0.0586595 -0.197913 -0.00171213 255 52 35
0.0587097 -0.200516 -0.0037518 255 48 31
0.0587603 -0.203146 -0.00581311 255 39 17
0.0583627 -0.205365 -0.00736858 255 36 11
0.0575143 -0.207156 -0.00840439 255 39 18
0.0571101 -0.209401 -0.00997749 255 43 23
0.0571526 -0.212117 -0.012102 255 49 29
0.0571955 -0.214862 -0.0142496 255 51 32
0.0581532 -0.218583 -0.0175344 255 47 30
0.0572825 -0.220444 -0.0186154 255 48 28
0.0573266 -0.223281 -0.0208343 255 47 26
0.0564479 -0.225164 -0.0219294 255 49 29
0.0555658 -0.227054 -0.0230285 255 50 33
0.0542229 -0.228453 -0.0235544 255 52 37
0.05288 -0.229852 -0.0240803 255 50 37
0.051086 -0.230749 -0.0240292 255 49 31
0.0497454 -0.232145 -0.0245542 255 46 22
0.0484048 -0.233542 -0.0250793 255 47 23
0.0286189 -0.22484 -0.0100924 255 52 33
0.0254494 -0.223854 -0.00800746 255 48 26
0.0212334 -0.221536 -0.00445415 255 43 22
0.0199946 -0.222826 -0.00493925 255 41 18
0.0191174 -0.224568 -0.00592558 255 43 23
0.0175171 -0.225406 -0.00590949 255 45 36
0.0159223 -0.226242 -0.00589341 255 62 50
0.0143329 -0.227074 -0.00587745 255 75 58
0.0130981 -0.22836 -0.00636101 255 68 54
0.0118633 -0.229646 -0.00684458 243 60 50
0.0106285 -0.230933 -0.00732819 202 59 53
0.00973788 -0.232683 -0.00831542 139 52 51
0.00918886 -0.23491 -0.00981386 86 53 38
0.00967753 -0.238587 -0.0128696 74 57 46
0.088869 -0.165038 0.00868559 80 61 52
0.0866117 -0.16564 0.00916741 87 56 46
0.0848547 -0.1666 0.00915864 97 52 45
0.0850433 -0.169023 0.00718724 157 46 39
0.0837679 -0.170351 0.00668776 244 66 44
0.0824925 -0.17168 0.00618823 255 66 43
0.0816995 -0.173385 0.0051911 255 58 38
0.0804217 -0.174716 0.00469066 255 52 36
0.0801049 -0.176814 0.00318621 255 39 17
0.0793033 -0.178537 0.00217849 255 38 15
0.0789807 -0.18066 0.000657138 255 49 26
0.0791405 -0.183198 -0.00139143 255 57 34
0.079302 -0.185763 -0.00346198 255 57 34
0.0784857 -0.18753 -0.00449798 255 56 34
0.0776666 -0.189304 -0.00553775 255 55 34
0.0778213 -0.191925 -0.00764953 255 53 32
0.0765061 -0.193295 -0.00816462 255 52 32
0.0727852 -0.19255 -0.00601426 255 52 32
0.0682012 -0.190993 -0.00286596 255 51 33
0.0637291 -0.189474 0.000205439 255 50 34
0.0602408 -0.188786 0.00221261 255 50 31
0.0576749 -0.188902 0.00320382 255 49 30
0.0551353 -0.189017 0.00418484 255 49 31
0.0547384 -0.191114 0.00271457 255 52 33
0.0551971 -0.19404 0.000237253 255 50 31
0.0547962 -0.196176 -0.00126213 255 40 17
0.0552601 -0.199168 -0.00379321 255 35 9
0.054855 -0.201345 -0.00532253 255 40 15
0.0548848 -0.203971 -0.00738499 255 47 28
0.0544747 -0.206185 -0.00894064 255 51 31
0.0553893 -0.209755 -0.0121135 255 50 29
0.0572248 -0.214312 -0.0164455 255 52 32
0.0581844 -0.218035 -0.0197564 255 49 30
0.0506535 -0.229719 -0.025704 255 49 29
0.0488668 -0.230615 -0.0256502 255 49 26
0.0475285 -0.232009 -0.0261743 255 51 27
0.0457506 -0.232899 -0.0261197 255 52 30
0.0401307 -0.229325 -0.0209602 255 53 35
0.0307427 -0.22123 -0.0106827 255 52 38
0.0279365 -0.220726 -0.00910627 255 50 36
0.0247946 -0.219781 -0.0070441 255 49 34
0.0220716 -0.219295 -0.00551656 255 48 29
0.0204691 -0.220141 -0.00550117 255 45 21
0.0185128 -0.220539 -0.00498784 255 46 26
0.0176374 -0.222269 -0.00596939 255 56 41
0.0164027 -0.223555 -0.00645295 255 75 57
0.014815 -0.224391 -0.00643611 255 70 60
0.0139331 -0.226128 -0.00742017 249 60 52
0.0126983 -0.227414 -0.00790379 232 56 49
0.0114633 -0.2287 -0.00838745 195 52 52
0.0102284 -0.229986 -0.00887111 139 49 51
0.00933704 -0.231735 -0.00986103 90 51 44
0.00878653 -0.233959 -0.0113648 72 55 39
0.0837837 -0.162872 0.0100172 82 56 46
0.0830026 -0.164541 0.0090388 91 54 42
0.0822188 -0.166217 0.00805699 134 49 40
0.0819116 -0.168263 0.00658005 237 66 43
0.0806427 -0.169584 0.00608307 255 66 45
0.0798505 -0.171277 0.00509089 255 60 40
0.0785793 -0.172601 0.00459301 255 44 25
0.077782 -0.174302 0.00359644 255 38 19
0.0765085 -0.175629 0.00309762 255 49 27
0.075706 -0.177338 0.00209668 255 58 36
0.0744302 -0.178667 0.00159697 255 61 37
0.0731543 -0.179996 0.00109721 255 59 37
0.0718783 -0.181325 0.000597459 255 56 37
0.0701401 -0.182262 0.000603285 255 56 35
0.0688662 -0.183589 0.000104335 255 56 33
0.0675923 -0.184916 -0.000394601 255 56 33
0.0649614 -0.185053 0.0006206 255 54 34
0.0628016 -0.185582 0.00112657 255 55 35
0.0593452 -0.184933 0.00311203 255 54 34
0.057661 -0.185846 0.00311333 255 52 32
0.0555555 -0.186365 0.0036038 255 51 32
0.0534644 -0.186881 0.00409093 255 52 33
0.0522226 -0.188174 0.00360459 255 50 30
0.0522381 -0.190656 0.00164804 255 43 20
0.0526779 -0.193568 -0.000828165 255 37 13
0.0526959 -0.196108 -0.0028316 255 38 12
0.0518581 -0.197839 -0.00383452 255 46 22
0.0514438 -0.199997 -0.00535341 255 52 32
0.0514553 -0.202597 -0.00740169 255 51 32
0.052769 -0.206536 -0.0110582 255 50 33
0.058626 -0.215157 -0.0203325 255 52 34
0.0294082 -0.202994 0.00169661 255 48 27
0.0281884 -0.204264 0.00121893 255 49 26
0.0328667 -0.217619 -0.011273 255 49 30
0.0292768 -0.21625 -0.00866504 255 48 27
0.0261341 -0.215347 -0.00661365 255 50 29
0.0248911 -0.216642 -0.00710045 255 52 31
0.0229099 -0.217054 -0.00657913 255 51 32
0.021306 -0.217904 -0.00656195 255 51 36
0.0193468 -0.21831 -0.00604512 255 60 43
0.0181142 -0.219594 -0.00652792 255 74 50
0.0168815 -0.220878 -0.00701075 255 78 60
0.0156488 -0.222162 -0.00749354 254 62 53
0.014416 -0.223446 -0.0079764 239 54 48
0.0131832 -0.22473 -0.00845927 213 56 49
0.0119503 -0.226014 -0.00894216 175 56 52
0.0110633 -0.227753 -0.00993057 129 49 50
0.00982827 -0.22904 -0.0104143 92 51 40
0.00893614 -0.230787 -0.0114069 74 56 44
0.0814762 -0.160499 0.0103737 83 56 44
0.0811696 -0.162504 0.00891995 90 53 46
0.0803865 -0.164167 0.00794293 170 48 45
0.08055 -0.166557 0.0059821 243 66 46
0.0792854 -0.167874 0.00548677 255 66 44
0.0784934 -0.169558 0.00449697 255 52 30
0.0776986 -0.171248 0.00350365 255 42 24
0.0769011 -0.172944 0.00250686 255 48 29
0.0756296 -0.174269 0.00200885 255 57 34
0.074827 -0.175973 0.00100766 255 61 39
0.0735532 -0.1773 0.000508722 255 61 41
0.0722794 -0.178626 9.77179e-06 255 62 43
0.0705434 -0.179566 1.65816e-05 255 60 42
0.0688135 -0.180503 2.33318e-05 255 58 39
0.0666366 -0.181048 0.000532281 255 60 37
0.0649223 -0.181978 0.000538078 255 59 36
0.061887 -0.181743 0.00203493 255 57 36
0.057604 -0.180373 0.00496946 255 59 38
0.0555165 -0.180907 0.0054495 255 58 37
0.0538615 -0.181814 0.00544674 255 56 36
0.0526281 -0.183099 0.00496362 255 55 35
0.0509807 -0.184001 0.00496167 255 54 33
0.0501614 -0.185668 0.00399737 255 50 29
0.0501661 -0.18812 0.00205606 255 47 26
0.0493397 -0.189805 0.0010802 255 49 28
0.0485105 -0.191496 0.000101026 255 50 28
0.0476783 -0.193193 -0.000881586 255 55 33
0.0468432 -0.194896 -0.00186748 255 56 35
0.0460053 -0.196604 -0.00285684 255 53 35
0.0497673 -0.202944 -0.00949732 255 54 38
0.0362009 -0.199395 -0.000827539 255 56 34
0.0345832 -0.200269 -0.000819984 255 55 35
0.03221 -0.200325 0.000161078 255 55 33
0.0302345 -0.200786 0.000650343 255 55 33
0.0282721 -0.201244 0.00113642 255 53 32
0.0270563 -0.20251 0.000660207 255 50 31
0.0258405 -0.203776 0.000183937 255 52 33
0.0279504 -0.208801 -0.00470262 255 53 34
0.0278408 -0.211372 -0.0066887 255 52 35
0.0266001 -0.212665 -0.00717472 255 51 35
0.0253592 -0.213957 -0.00766076 255 55 37
0.0237484 -0.214813 -0.00764181 255 58 39
0.0225095 -0.216103 -0.00812707 255 66 46
0.0209061 -0.216954 -0.00810737 255 76 57
0.0189482 -0.217364 -0.00758539 255 70 58
0.0177155 -0.218648 -0.00806825 253 54 47
0.0164827 -0.219932 -0.00855114 238 48 42
0.0152498 -0.221216 -0.00903403 214 48 46
0.0140169 -0.2225 -0.00951694 177 53 49
0.0131335 -0.224234 -0.0105064 142 54 49
0.0118984 -0.22552 -0.0109902 114 53 48
0.0106633 -0.226806 -0.011474 90 53 45
0.00942808 -0.228093 -0.0119578 76 52 37
0.0792001 -0.158158 0.010725 84 55 45
0.0793554 -0.160488 0.00880202 97 54 47
0.0785732 -0.162139 0.00782977 216 57 48
0.0791977 -0.164863 0.00538809 252 71 48
0.0784082 -0.166536 0.00440146 255 59 38
0.0771457 -0.167851 0.00390687 255 49 30
0.0763512 -0.169532 0.00291592 255 46 30
0.075554 -0.17122 0.00192149 255 54 34
0.0742868 -0.172539 0.00142514 255 63 38
0.0734845 -0.174235 0.000426334 255 61 43
0.072215 -0.175557 -7.09329e-05 255 85 61
0.0709455 -0.176879 -0.000568214 255 105 84
0.0692178 -0.177819 -0.000560481 255 79 61
0.0674961 -0.178755 -0.000552881 255 61 44
0.0653312 -0.179305 -4.37383e-05 255 60 40
0.0627389 -0.17947 0.000958991 255 58 38
0.0584457 -0.178127 0.00390631 255 56 36
0.0563554 -0.178668 0.00438986 255 55 34
0.0542791 -0.179206 0.00487014 255 57 36
0.0526316 -0.180113 0.00486834 255 61 39
0.0509895 -0.181018 0.00486646 255 63 40
0.0497623 -0.182296 0.00438568 255 62 39
0.0493535 -0.184336 0.0029407 255 57 40
0.048122 -0.185618 0.00245827 255 53 38
0.0477062 -0.187676 0.00100182 254 51 34
0.0468783 -0.189355 2.7385e-05 252 49 31
0.0456404 -0.190644 -0.000457529 250 48 31
0.0439987 -0.191538 -0.00045054 248 46 32
0.0427627 -0.192825 -0.000934694 248 47 31
0.0419262 -0.194513 -0.00191249 248 48 33
0.0459796 -0.201165 -0.00898135 247 48 33
0.0370359 -0.197164 -0.00188436 249 52 35
0.0354167 -0.198042 -0.00187511 249 52 34
0.0341867 -0.199323 -0.00235695 251 55 36
0.0318154 -0.199385 -0.00136823 252 58 36
0.0298411 -0.199848 -0.000873897 253 58 36
0.0278799 -0.200309 -0.000382829 253 61 38
0.0270319 -0.201982 -0.00134357 254 62 40
0.0261812 -0.20366 -0.00230752 254 65 42
0.0256951 -0.205759 -0.00376565 254 65 44
0.0270647 -0.209991 -0.00773409 254 66 47
0.0258258 -0.211281 -0.00821935 254 66 50
0.0245869 -0.212572 -0.00870464 255 61 52
0.0233481 -0.213862 -0.00918997 254 57 48
0.0221091 -0.215152 -0.0096753 250 46 42
0.0205062 -0.216005 -0.00965305 241 40 32
0.0189088 -0.216855 -0.00963092 223 40 33
0.0173167 -0.217702 -0.00960885 194 43 39
0.0164389 -0.219427 -0.0105984 160 44 40
0.0152038 -0.220714 -0.0110822 137 46 42
0.0139687 -0.222 -0.011566 113 51 43
0.0127336 -0.223286 -0.0120499 93 54 47
0.0114984 -0.224573 -0.0125337 81 55 46
0.0102631 -0.225859 -0.0130176 76 57 39
0.0781895 -0.154563 0.011555 83 57 42
0.0778757 -0.156521 0.0101249 86 55 44
0.0775597 -0.158493 0.00868503 159 47 45
0.0772416 -0.160478 0.00723532 242 65 47
0.0764569 -0.162126 0.00626194 255 70 49
0.0765985 -0.164489 0.00430581 255 57 29
0.0758072 -0.166156 0.0033206 255 52 30
0.075013 -0.167828 0.00233197 255 49 31
0.074216 -0.169507 0.00133989 255 55 36
0.0734163 -0.171191 0.000344377 255 62 41
0.0721512 -0.172509 -0.000151235 255 61 49
0.070886 -0.173826 -0.000646848 255 120 96
0.0696209 -0.175144 -0.00114246 255 178 156
0.0679013 -0.176083 -0.00113388 255 114 97
0.0661877 -0.17702 -0.00112531 255 65 48
0.0635909 -0.177196 -0.000117067 255 58 41
0.0610208 -0.177371 0.000880879 255 56 37
0.0571943 -0.176429 0.00333011 255 53 34
0.0551151 -0.176974 0.00381393 255 52 32
0.0530499 -0.177516 0.00429447 255 60 39
0.0505884 -0.177685 0.00524839 255 70 48
0.0493673 -0.178957 0.00476999 255 68 47
0.0489592 -0.180975 0.00333349 252 58 44
0.0481404 -0.182629 0.00237117 244 51 42
0.0473188 -0.184288 0.00140565 231 42 33
