ply
format ascii 1.0
element vertex 1162
property float x
property float y
property float z
property uchar diffuse_red
property uchar diffuse_green
property uchar diffuse_blue
end_header
-0.49489 -0.0317581 -0.125325 134 129 83
-0.49375 -0.0293523 -0.1236 135 134 85
-0.494069 -0.0271359 -0.123512 133 131 83
-0.493661 -0.0248371 -0.122611 135 135 86
-0.493255 -0.0225464 -0.121714 130 129 89
-0.493572 -0.020335 -0.121626 133 131 86
-0.49389 -0.0181222 -0.121539 140 134 88
-0.494208 -0.015908 -0.121451 137 130 79
-0.494527 -0.0136923 -0.121364 138 132 81
-0.493399 -0.0113697 -0.119668 137 130 80
-0.493716 -0.00916043 -0.119581 132 130 79
-0.493314 -0.00690638 -0.118695 135 129 83
-0.492914 -0.00466018 -0.117813 141 130 79
-0.491803 -0.00238791 -0.116146 136 131 85
-0.492119 -0.00019114 -0.116059 138 134 84
-0.491724 0.0020318 -0.115187 135 133 86
-0.490625 0.00426714 -0.113541 134 132 87
-0.490939 0.00645469 -0.113454 136 132 78
-0.49055 0.00865476 -0.112593 136 130 80
-0.490864 0.0108406 -0.112506 133 129 77
-0.491178 0.0130279 -0.11242 132 129 81
-0.490789 0.0152144 -0.111562 132 130 80
-0.491103 0.0174 -0.111476 136 130 77
-0.490017 0.019565 -0.109857 133 129 79
-0.49033 0.0217446 -0.109771 132 133 81
-0.492752 0.0239852 -0.111986 135 127 76
-0.493067 0.0261808 -0.111899 134 134 75
-0.494805 0.0284359 -0.113362 133 132 79
-0.495122 0.0306433 -0.113274 137 131 78
-0.49544 0.0328521 -0.113187 137 128 81
-0.495757 0.0350623 -0.1131 135 128 73
-0.496075 0.0372739 -0.113012 136 126 74
-0.495677 0.0394355 -0.112149 135 125 76
-0.495281 0.0415896 -0.11129 135 126 76
-0.495598 0.0437965 -0.111202 128 125 75
-0.49663 0.0460696 -0.111887 130 123 73
-0.497667 0.0483533 -0.112574 129 126 73
-0.497985 0.0505734 -0.112486 127 127 78
-0.501213 0.0531125 -0.115527 126 126 79
-0.50375 0.0556092 -0.117818 126 123 79
-0.504819 0.0579563 -0.118529 129 121 75
-0.505893 0.0603146 -0.119242 134 122 73
-0.506219 0.0625835 -0.119152 131 119 70
-0.506545 0.0648537 -0.119062 127 118 72
-0.506871 0.0671255 -0.118973 126 116 75
-0.507953 0.0695136 -0.119688 125 119 73
-0.50828 0.071793 -0.119598 127 117 71
-0.509367 0.0741987 -0.120316 124 114 70
-0.509696 0.0764857 -0.120226 121 110 68
-0.510788 0.0789092 -0.120947 96 90 58
-0.511885 0.0813443 -0.12167 79 32 11
-0.492568 -0.0472525 -0.129224 108 79 52
-0.492158 -0.0449048 -0.128305 130 122 70
-0.491749 -0.0425655 -0.127389 131 128 79
-0.491342 -0.0402345 -0.126477 132 124 79
-0.49166 -0.0380202 -0.12639 133 126 80
-0.492704 -0.0359088 -0.127127 134 127 80
-0.492296 -0.0335875 -0.126216 132 132 84
-0.49189 -0.0312744 -0.125308 131 129 88
-0.492207 -0.0290592 -0.125221 133 132 81
-0.491803 -0.0267575 -0.124317 129 132 81
-0.490682 -0.0243842 -0.122607 130 131 85
-0.490284 -0.0221036 -0.121714 132 130 86
-0.491315 -0.0199714 -0.122433 134 132 83
-0.491632 -0.0177629 -0.122346 138 128 80
-0.490518 -0.0154309 -0.120651 132 133 83
-0.490122 -0.0131724 -0.119765 131 131 84
-0.490437 -0.0109734 -0.119679 133 130 82
-0.488631 -0.00863266 -0.117216 133 135 85
-0.488945 -0.00644427 -0.11713 135 132 86
-0.489259 -0.0042545 -0.117044 138 135 82
-0.489573 -0.00206337 -0.116958 135 132 78
-0.489184 0.000157708 -0.116086 139 131 86
-0.488796 0.00237115 -0.115219 138 135 89
-0.48911 0.00455756 -0.115133 135 132 80
-0.488723 0.00676036 -0.114269 135 135 74
-0.489037 0.00894513 -0.114183 136 132 81
-0.48935 0.0111313 -0.114097 138 129 78
-0.488964 0.0133204 -0.113236 134 129 82
-0.489278 0.0155049 -0.11315 134 130 82
-0.488199 0.0176765 -0.111526 136 132 80
-0.487818 0.0198434 -0.110675 136 131 78
-0.48813 0.0220189 -0.11059 131 130 79
-0.489137 0.024216 -0.111268 133 130 85
-0.491551 0.0264733 -0.113493 135 126 81
-0.493282 0.0287298 -0.114963 135 130 78
-0.493598 0.0309375 -0.114876 132 130 80
-0.493205 0.0331079 -0.11401 137 125 81
-0.493521 0.0353139 -0.113923 137 130 76
-0.493838 0.0375213 -0.113836 136 127 78
-0.493444 0.0396782 -0.112974 132 128 79
-0.493053 0.0418277 -0.112115 134 126 79
-0.493369 0.0440304 -0.112028 134 127 78
-0.494394 0.0462996 -0.112713 133 127 74
-0.495424 0.0485794 -0.113401 130 125 76
-0.496457 0.05087 -0.114092 129 125 78
-0.496776 0.0530918 -0.114004 130 125 81
-0.500726 0.0557387 -0.117852 133 123 77
-0.502523 0.0581674 -0.11936 130 122 78
-0.503589 0.0605216 -0.120074 131 124 75
-0.503914 0.062786 -0.119985 129 119 71
-0.503495 0.0649466 -0.119093 123 118 77
-0.503819 0.0672092 -0.119004 123 117 80
-0.504889 0.0695879 -0.119717 125 118 80
-0.505215 0.0718581 -0.119628 125 115 73
-0.50629 0.0742543 -0.120344 127 115 69
-0.506617 0.0765321 -0.120254 123 107 73
-0.507698 0.0789459 -0.120973 98 89 67
-0.508784 0.0813712 -0.121694 80 34 21
-0.489251 -0.0489175 -0.129274 102 62 41
-0.488848 -0.0465772 -0.128359 119 85 57
-0.489165 -0.0443669 -0.128272 130 126 77
-0.489481 -0.0421552 -0.128186 126 129 83
-0.489798 -0.039942 -0.128099 126 130 82
-0.490115 -0.0377275 -0.128013 130 127 78
-0.490433 -0.0355116 -0.127926 130 128 77
-0.49075 -0.0332943 -0.127839 129 131 80
-0.489629 -0.0308879 -0.126108 131 130 81
-0.489945 -0.028677 -0.126022 134 130 77
-0.490262 -0.0264647 -0.125935 135 127 79
-0.488437 -0.0240135 -0.123409 137 129 82
-0.488043 -0.0217382 -0.122517 135 132 79
-0.488358 -0.0195399 -0.122431 138 128 78
-0.486559 -0.0171471 -0.119947 138 130 80
-0.486173 -0.0149002 -0.119068 132 131 80
-0.486486 -0.0127157 -0.118983 137 127 83
-0.486101 -0.0104796 -0.118108 135 129 88
-0.485718 -0.00825119 -0.117237 134 132 81
-0.48603 -0.00607144 -0.117152 137 134 81
-0.485649 -0.00385376 -0.116285 138 131 76
-0.485961 -0.00167569 -0.116199 134 135 79
-0.48558 0.000531399 -0.115336 136 132 85
-0.485892 0.00270781 -0.11525 134 129 77
-0.486204 0.00488565 -0.115165 136 132 78
-0.486516 0.00706486 -0.11508 136 138 78
-0.486828 0.00924542 -0.114995 135 131 79
-0.487141 0.0114274 -0.11491 135 133 79
-0.487453 0.0136108 -0.114824 136 130 83
-0.487072 0.0157922 -0.113964 136 129 83
-0.486003 0.0179584 -0.11234 138 130 82
-0.484944 0.0201088 -0.110729 139 128 78
-0.486626 0.0223085 -0.11217 137 132 78
-0.487629 0.0245065 -0.112852 137 129 82
-0.490033 0.0267658 -0.115087 137 128 82
-0.491052 0.0289935 -0.115781 139 129 81
-0.491367 0.0311969 -0.115695 132 129 82
-0.491683 0.0334017 -0.115609 136 129 83
-0.491999 0.035608 -0.115522 136 131 81
-0.492315 0.0378157 -0.115436 137 128 82
-0.491925 0.0399722 -0.114571 133 127 82
-0.491536 0.0421215 -0.113709 136 127 76
-0.491149 0.0442634 -0.112851 136 122 78
-0.492167 0.0465288 -0.113537 134 123 83
-0.493189 0.0488047 -0.114226 131 123 84
-0.494216 0.0510913 -0.114917 130 126 80
-0.495247 0.0533887 -0.115611 131 123 75
-0.496283 0.0556968 -0.116308 132 122 76
-0.499502 0.0582867 -0.119388 128 119 81
-0.500558 0.0606316 -0.120099 130 124 81
-0.500881 0.0628869 -0.120011 127 122 76
-0.500469 0.0650388 -0.119124 127 118 74
-0.500792 0.0672924 -0.119036 125 120 76
-0.501851 0.0696616 -0.119746 122 117 81
-0.502914 0.0720422 -0.12046 120 114 75
-0.503239 0.0743094 -0.120371 124 112 69
-0.503564 0.0765782 -0.120283 121 113 78
-0.504634 0.0789823 -0.120999 98 89 71
-0.505708 0.0813979 -0.121718 80 30 29
-0.486989 -0.0484947 -0.130065 108 66 39
-0.486592 -0.0461599 -0.129151 127 94 60
-0.486907 -0.0439539 -0.129065 130 127 80
-0.485802 -0.0415151 -0.127333 127 126 80
-0.486826 -0.0394263 -0.128069 129 128 77
-0.487855 -0.0373275 -0.128807 132 128 77
-0.488887 -0.0352186 -0.129549 130 127 80
-0.488487 -0.0329029 -0.128636 129 127 84
-0.488089 -0.0305956 -0.127726 132 128 80
-0.487692 -0.0282964 -0.126819 135 128 74
-0.488008 -0.0260884 -0.126734 136 128 80
-0.485497 -0.0235667 -0.123402 138 128 74
-0.485811 -0.0213741 -0.123317 133 131 77
-0.484726 -0.0190438 -0.121629 137 125 79
-0.484343 -0.0167942 -0.120748 136 130 79
-0.483962 -0.0145522 -0.11987 136 130 80
-0.483582 -0.0123181 -0.118996 135 128 82
-0.483894 -0.0101409 -0.118912 133 130 81
-0.483516 -0.00791742 -0.118041 136 131 84
-0.482454 -0.00566151 -0.116395 135 129 83
-0.482764 -0.00349336 -0.116311 137 128 78
-0.482391 -0.00129264 -0.115451 135 133 82
-0.483385 0.000847109 -0.116142 135 132 77
-0.483696 0.00301941 -0.116058 136 133 77
-0.484006 0.00519308 -0.115973 137 133 81
-0.484317 0.00736814 -0.115889 136 131 81
-0.484628 0.00954459 -0.115804 142 131 77
-0.48494 0.0117224 -0.115719 137 133 84
-0.485251 0.0139016 -0.115635 134 129 87
-0.483507 0.0160705 -0.113236 138 131 88
-0.483136 0.0182311 -0.112387 140 132 83
-0.483446 0.020397 -0.112303 140 130 81
-0.483756 0.0225643 -0.112218 142 135 78
-0.485433 0.0247755 -0.113666 138 133 79
-0.487125 0.0270061 -0.115125 133 128 82
-0.48883 0.0292561 -0.116596 135 130 81
-0.489846 0.0314906 -0.117294 134 130 78
-0.490161 0.0336957 -0.117208 137 128 82
-0.490477 0.0359022 -0.117122 135 126 83
-0.490089 0.0380615 -0.116254 138 123 71
-0.489006 0.0401608 -0.114614 133 127 73
-0.48932 0.0423581 -0.114529 137 124 71
-0.489634 0.0445569 -0.114443 138 123 76
-0.489949 0.046757 -0.114358 133 128 84
-0.490964 0.0490291 -0.115047 135 122 82
-0.491984 0.0513118 -0.115739 126 126 82
-0.493008 0.0536052 -0.116434 131 124 77
-0.493325 0.0558244 -0.116348 133 122 81
-0.495069 0.0582243 -0.117832 128 119 88
-0.496827 0.0606453 -0.119329 134 119 78
-0.497873 0.0629872 -0.120038 135 118 70
-0.498194 0.065235 -0.11995 135 121 68
-0.498515 0.0674842 -0.119863 130 118 73
-0.498837 0.0697349 -0.119775 127 116 79
-0.499159 0.071987 -0.119688 122 114 75
-0.499481 0.0742405 -0.1196 123 114 70
-0.500536 0.0766239 -0.120311 123 112 72
-0.500859 0.078885 -0.120223 97 89 67
-0.501918 0.0812857 -0.120937 78 30 29
-0.484031 -0.0479445 -0.130025 106 73 42
-0.484345 -0.0457442 -0.12994 128 102 61
-0.483954 -0.0434231 -0.12903 131 122 76
-0.483565 -0.0411102 -0.128124 129 125 75
-0.484582 -0.0390247 -0.12886 129 128 75
-0.485603 -0.0369292 -0.129599 133 127 76
-0.486629 -0.0348235 -0.130342 129 126 79
-0.486233 -0.0325133 -0.129429 129 128 81
-0.48584 -0.0302112 -0.12852 132 127 83
-0.485449 -0.0279173 -0.127614 131 126 81
-0.485763 -0.0257136 -0.127529 132 127 79
-0.483972 -0.0232766 -0.125004 136 132 78
-0.482894 -0.0209397 -0.12331 131 128 79
-0.482514 -0.0186872 -0.122427 134 129 82
-0.482136 -0.0164426 -0.121546 131 128 85
-0.481759 -0.0142057 -0.120669 134 132 83
-0.48207 -0.0120296 -0.120585 131 127 82
-0.481695 -0.00980345 -0.119712 135 127 81
-0.480641 -0.00754107 -0.118059 133 127 84
-0.480271 -0.00533468 -0.117197 131 132 88
-0.48058 -0.00317064 -0.117113 131 130 87
-0.480889 -0.00100521 -0.117029 135 129 80
-0.481198 0.00116159 -0.116946 131 131 77
-0.481508 0.00332977 -0.116862 131 131 86
-0.481817 0.00549934 -0.116778 138 129 84
-0.482127 0.00767027 -0.116694 137 128 84
-0.482437 0.00984255 -0.11661 135 130 83
-0.482748 0.0120163 -0.116526 137 130 85
-0.482376 0.0141912 -0.115667 137 132 80
-0.48133 0.0163544 -0.114044 134 129 83
-0.480964 0.0185104 -0.113195 138 130 81
-0.481948 0.0206853 -0.113877 135 131 82
-0.482257 0.0228528 -0.113793 134 128 81
-0.483247 0.0250436 -0.114477 138 128 80
-0.484925 0.0272709 -0.115937 137 129 83
-0.485926 0.0294867 -0.116629 133 131 78
-0.486239 0.0316773 -0.116544 134 129 84
-0.486552 0.0338693 -0.11646 136 132 81
-0.486865 0.0360627 -0.116375 133 128 78
-0.487178 0.0382575 -0.11629 138 126 73
-0.487492 0.0404538 -0.116205 136 127 76
-0.487113 0.0425939 -0.115345 134 128 80
-0.487426 0.0447884 -0.11526 129 122 77
-0.487739 0.0469844 -0.115175 128 126 81
-0.488053 0.0491818 -0.11509 135 124 81
-0.488367 0.0513806 -0.115005 131 122 84
-0.489377 0.0536605 -0.115695 131 124 77
-0.490391 0.0559511 -0.116387 128 122 77
-0.490707 0.058163 -0.116302 129 122 81
-0.491726 0.0604702 -0.116997 135 119 75
-0.492043 0.0626894 -0.116911 132 121 75
-0.49236 0.0649102 -0.116825 132 119 71
-0.493386 0.06724 -0.117523 128 118 73
-0.494416 0.0695807 -0.118223 126 119 75
-0.494735 0.0718148 -0.118136 128 114 78
-0.495054 0.0740502 -0.11805 123 113 80
-0.495373 0.0762872 -0.117964 123 113 75
-0.495693 0.0785255 -0.117877 99 88 63
-0.496012 0.0807653 -0.117791 82 29 23
-0.480402 -0.0472719 -0.129164 110 79 44
-0.480713 -0.045085 -0.12908 129 116 67
-0.481025 -0.0428967 -0.128996 129 124 75
-0.481337 -0.040707 -0.128912 129 125 76
-0.482347 -0.0386247 -0.129648 126 128 79
-0.484064 -0.0366375 -0.131216 129 129 80
-0.484379 -0.03443 -0.131131 129 128 77
-0.483989 -0.0321251 -0.130219 128 129 77
-0.4836 -0.0298284 -0.129311 130 127 83
-0.483914 -0.0276258 -0.129226 135 126 81
-0.484228 -0.0254219 -0.129141 134 126 78
-0.481753 -0.0229103 -0.125798 132 129 81
-0.481374 -0.0206504 -0.124907 130 129 82
-0.480311 -0.018332 -0.123221 131 127 82
-0.479937 -0.0160924 -0.122341 133 129 84
-0.480247 -0.0139174 -0.122258 134 129 81
-0.479875 -0.0116886 -0.121382 138 125 78
-0.478828 -0.00941969 -0.119723 135 128 82
-0.478461 -0.00721062 -0.118857 130 130 87
-0.478769 -0.00504771 -0.118774 129 128 83
-0.479078 -0.00288339 -0.118691 128 131 84
-0.479386 -0.000717729 -0.118608 136 128 80
-0.479695 0.00144935 -0.118525 134 134 81
-0.480004 0.00361779 -0.118442 133 129 83
-0.480313 0.00578758 -0.118358 139 127 82
-0.480623 0.00795877 -0.118275 139 130 82
-0.480255 0.0101394 -0.117413 138 134 78
-0.479889 0.0123127 -0.116555 138 130 82
-0.479524 0.0144786 -0.1157 137 132 82
-0.479161 0.0166372 -0.114849 135 128 82
-0.479469 0.0187979 -0.114766 137 132 79
-0.479777 0.02096 -0.114683 134 133 82
-0.480086 0.0231234 -0.1146 134 131 83
-0.481744 0.025333 -0.116055 135 131 81
-0.482734 0.0275348 -0.116745 139 131 87
-0.483728 0.0297468 -0.117438 132 130 84
-0.48404 0.0319333 -0.117354 132 133 85
-0.484352 0.0341212 -0.11727 135 131 77
-0.484664 0.0363104 -0.117186 129 130 77
-0.484976 0.0385011 -0.117102 131 126 77
-0.485288 0.0406931 -0.117018 131 125 78
-0.485601 0.0428865 -0.116934 127 125 74
-0.485914 0.0450814 -0.116849 129 119 73
-0.486227 0.0472776 -0.116765 130 123 82
-0.48654 0.0494753 -0.116681 132 122 82
-0.486853 0.0516744 -0.116596 132 125 77
-0.48786 0.0539551 -0.11729 133 122 73
-0.487481 0.0560767 -0.116427 134 121 76
-0.488489 0.0583692 -0.11712 133 122 75
-0.488804 0.0605784 -0.117035 128 122 74
-0.489119 0.0627889 -0.11695 123 124 74
-0.489434 0.0650009 -0.116865 132 123 76
-0.490449 0.0673218 -0.11756 128 118 77
-0.491468 0.0696535 -0.118258 125 116 72
-0.492492 0.0719961 -0.118959 128 116 79
-0.49281 0.0742273 -0.118873 120 113 79
-0.49242 0.0763335 -0.118002 120 112 73
-0.492738 0.078563 -0.117916 103 86 62
-0.493056 0.080794 -0.11783 82 27 21
-0.4775 -0.0467324 -0.129128 114 84 54
-0.47781 -0.0445541 -0.129045 130 121 73
-0.47812 -0.0423746 -0.128962 129 126 79
-0.47843 -0.0401936 -0.128878 129 127 79
-0.48012 -0.0382263 -0.130434 128 127 78
-0.481825 -0.0362413 -0.132002 128 127 81
-0.482138 -0.0340381 -0.131918 126 128 81
-0.481753 -0.0317386 -0.131006 127 129 78
-0.482066 -0.0295371 -0.130922 130 132 80
-0.48238 -0.0273343 -0.130838 133 133 81
-0.480608 -0.0248882 -0.128294 133 130 80
-0.479543 -0.0225455 -0.126588 132 130 86
-0.478487 -0.0202206 -0.124895 130 130 86
-0.478116 -0.0179782 -0.124013 134 127 81
-0.478426 -0.0158044 -0.12393 133 127 79
-0.478056 -0.0135728 -0.123051 132 129 83
-0.477015 -0.0112974 -0.121386 136 129 77
-0.476652 -0.00908567 -0.120517 132 131 84
-0.476959 -0.00692387 -0.120435 126 128 83
-0.476597 -0.00472265 -0.11957 129 128 79
-0.476904 -0.00256245 -0.119487 135 129 80
-0.477212 -0.000400861 -0.119405 135 128 84
-0.47752 0.00176208 -0.119322 133 127 87
-0.477828 0.00392641 -0.11924 133 131 81
-0.478136 0.00609212 -0.119157 138 128 82
-0.478444 0.0082592 -0.119074 137 131 82
-0.477412 0.0104425 -0.117438 138 130 81
-0.477719 0.0126037 -0.117356 138 130 86
-0.476695 0.0147637 -0.115733 139 131 85
-0.477001 0.0169189 -0.115651 134 126 79
-0.477308 0.0190756 -0.115569 133 127 77
-0.477615 0.0212336 -0.115486 133 127 79
-0.47859 0.0234114 -0.116172 141 128 81
-0.478898 0.0255765 -0.116089 139 129 77
-0.480552 0.0277976 -0.117551 136 130 80
-0.481539 0.030006 -0.118244 131 130 81
-0.48253 0.0322247 -0.118941 130 126 85
-0.48216 0.0343721 -0.118078 130 129 81
-0.483153 0.0366024 -0.118774 132 128 79
-0.483465 0.0387933 -0.11869 132 126 82
-0.483777 0.0409856 -0.118606 135 128 82
-0.484089 0.0431793 -0.118523 131 126 74
-0.484401 0.0453744 -0.118439 133 126 77
-0.484714 0.0475709 -0.118355 135 125 79
-0.485027 0.0497688 -0.118271 136 122 75
-0.48534 0.0519682 -0.118187 130 126 79
-0.485653 0.0541689 -0.118103 130 123 76
-0.485966 0.056371 -0.118019 134 125 74
-0.48628 0.0585746 -0.117935 130 127 72
-0.486593 0.0607796 -0.117851 127 123 73
-0.486907 0.0629859 -0.117767 131 122 76
-0.487221 0.0651937 -0.117682 130 121 79
-0.487536 0.067403 -0.117598 127 118 78
-0.488545 0.0697257 -0.118294 128 119 72
-0.489558 0.0720592 -0.118992 123 119 78
-0.489874 0.0742816 -0.118907 120 113 78
-0.489491 0.0763795 -0.11804 125 111 71
-0.489807 0.0786003 -0.117955 105 85 64
-0.489426 0.080688 -0.117091 84 32 22
-0.473947 -0.046074 -0.128281 121 92 57
-0.473583 -0.0437907 -0.127391 130 125 76
-0.47389 -0.0416286 -0.127309 131 127 77
-0.474871 -0.0395745 -0.128035 131 128 77
-0.477218 -0.0377228 -0.130395 130 128 75
-0.479594 -0.0358467 -0.132785 127 129 78
-0.479907 -0.0336478 -0.132701 129 126 78
-0.479526 -0.0313535 -0.13179 130 125 79
-0.47846 -0.0289786 -0.130063 132 127 78
-0.478771 -0.0267891 -0.12998 132 130 80
-0.477713 -0.0244398 -0.128268 133 129 80
-0.476663 -0.0221082 -0.126569 131 131 84
-0.475622 -0.0197942 -0.124884 131 128 83
-0.47593 -0.0176258 -0.124801 130 127 84
-0.474897 -0.0153366 -0.12313 129 128 81
-0.474537 -0.0131192 -0.122259 129 132 79
-0.474844 -0.0109598 -0.122177 130 127 81
-0.474485 -0.00875298 -0.121309 128 128 83
-0.474791 -0.00659527 -0.121227 128 127 85
-0.474433 -0.00439888 -0.120362 130 130 76
-0.47474 -0.00224277 -0.120281 134 127 81
-0.474383 -5.67612e-05 -0.11942 133 128 83
-0.474689 0.0020978 -0.119338 136 128 78
-0.474996 0.0042537 -0.119256 134 130 73
-0.47464 0.00642641 -0.118399 136 127 77
-0.474286 0.00859182 -0.117545 134 132 81
-0.474591 0.0107433 -0.117463 134 127 84
-0.474239 0.0128985 -0.116613 129 128 83
-0.474544 0.0150483 -0.116531 132 130 77
-0.47485 0.0171995 -0.11645 135 131 82
-0.474497 0.0193418 -0.115603 135 132 78
-0.475461 0.0215061 -0.116287 131 129 83
-0.475768 0.0236614 -0.116205 134 127 83
-0.476074 0.0258181 -0.116123 132 131 80
-0.477709 0.0280316 -0.117579 136 129 79
-0.478686 0.0302319 -0.118271 133 131 77
-0.479667 0.0324424 -0.118965 134 129 77
-0.479977 0.034622 -0.118882 132 130 78
-0.480963 0.0368486 -0.119579 132 125 79
-0.481274 0.0390353 -0.119496 132 127 85
-0.482265 0.0412781 -0.120195 135 123 78
-0.482577 0.0434721 -0.120112 134 126 69
-0.482889 0.0456674 -0.120029 133 125 78
-0.483201 0.0478642 -0.119945 129 123 81
-0.483513 0.0500624 -0.119862 132 123 77
-0.483825 0.052262 -0.119778 129 127 83
-0.484138 0.054463 -0.119695 124 125 82
-0.484451 0.0566654 -0.119611 125 124 77
-0.484079 0.0587792 -0.118747 126 126 78
-0.483028 0.0607922 -0.117111 129 122 74
-0.48334 0.0629856 -0.117028 128 121 73
-0.483651 0.0651804 -0.116945 127 120 77
-0.484646 0.0674835 -0.117636 128 119 82
-0.486333 0.0699096 -0.119109 125 119 76
-0.486647 0.0721218 -0.119025 121 118 76
-0.486961 0.0743356 -0.118941 124 112 76
-0.487276 0.0765507 -0.118857 124 107 75
-0.487591 0.0787673 -0.118773 103 86 66
-0.487215 0.0808508 -0.11791 85 37 19
-0.471101 -0.0455447 -0.12825 128 100 62
-0.470743 -0.0432714 -0.127364 128 121 72
-0.470387 -0.041006 -0.126482 129 124 75
-0.472019 -0.0390708 -0.128006 128 129 80
-0.473665 -0.0371185 -0.129543 128 128 75
-0.477373 -0.0354537 -0.133564 127 127 75
-0.477684 -0.033259 -0.133482 132 125 77
-0.476624 -0.0308774 -0.131748 131 125 77
-0.475574 -0.0285139 -0.130029 132 127 78
-0.474532 -0.0261682 -0.128323 133 127 76
-0.474169 -0.0239174 -0.127435 132 128 78
-0.473806 -0.0216744 -0.12655 129 128 78
-0.473446 -0.019439 -0.125669 131 128 76
-0.472424 -0.0171482 -0.123998 132 130 78
-0.472069 -0.0149327 -0.123127 129 129 81
-0.472374 -0.0127788 -0.123046 130 132 80
-0.47268 -0.0106236 -0.122964 130 130 84
-0.472326 -0.00842159 -0.122097 131 128 83
-0.472631 -0.00626796 -0.122016 131 128 83
-0.472278 -0.00407636 -0.121152 132 132 80
-0.472583 -0.00192429 -0.121071 133 128 83
-0.472232 0.000256959 -0.120211 129 133 87
-0.472537 0.00240743 -0.12013 131 133 74
-0.471532 0.00459743 -0.1185 133 132 75
-0.471185 0.00675679 -0.11765 132 130 81
-0.470193 0.00891925 -0.11604 132 129 84
-0.471793 0.0110416 -0.117489 133 131 79
-0.472097 0.0131861 -0.117408 132 133 79
-0.472402 0.0153319 -0.117327 131 130 80
-0.472706 0.0174791 -0.117246 139 129 79
-0.471061 0.0195951 -0.114878 139 130 84
-0.471365 0.0217323 -0.114798 135 129 82
-0.471668 0.0238708 -0.114717 137 129 80
-0.471971 0.0260108 -0.114636 134 129 82
-0.474232 0.0282356 -0.11684 136 129 76
-0.475856 0.030456 -0.118297 134 127 74
-0.476827 0.0326583 -0.118989 138 125 67
-0.477135 0.0348295 -0.118907 135 124 76
-0.478111 0.0370478 -0.119602 133 127 84
-0.47842 0.0392261 -0.11952 134 127 81
-0.479401 0.0414605 -0.120216 138 124 75
-0.480386 0.0437053 -0.120916 133 121 74
-0.481376 0.0459605 -0.121619 129 130 78
-0.481687 0.0481575 -0.121536 130 122 75
-0.481999 0.050356 -0.121453 132 122 74
-0.482311 0.0525559 -0.12137 138 126 78
-0.482623 0.0547571 -0.121287 132 125 78
-0.482254 0.0568737 -0.12042 126 121 78
-0.48121 0.0588932 -0.118778 127 121 81
-0.479505 0.0608048 -0.116381 127 120 77
-0.479147 0.0628882 -0.115534 129 119 75
-0.480124 0.0651673 -0.116217 129 124 76
-0.481779 0.0675635 -0.117673 128 121 78
-0.483447 0.0699804 -0.119141 128 120 71
-0.484442 0.0723009 -0.119838 129 118 74
-0.484756 0.0745104 -0.119755 130 113 68
-0.484385 0.0765957 -0.118892 126 109 71
-0.484016 0.078674 -0.118032 98 85 68
-0.483648 0.0807455 -0.117176 73 34 29
-0.468277 -0.0450196 -0.12822 130 108 67
-0.468581 -0.0428715 -0.128139 127 121 76
-0.46823 -0.0406112 -0.127257 125 122 78
-0.46919 -0.0385712 -0.127978 126 128 78
-0.470818 -0.0366245 -0.129509 126 128 78
-0.47448 -0.0349612 -0.133514 129 127 79
-0.47479 -0.0327753 -0.133432 130 123 80
-0.473746 -0.0304052 -0.131706 129 127 78
-0.472711 -0.0280529 -0.129995 129 131 77
-0.472351 -0.0257994 -0.129103 130 127 75
-0.471991 -0.0235536 -0.128216 129 128 79
-0.470973 -0.021244 -0.126532 125 128 80
-0.470619 -0.0190183 -0.125654 128 128 79
-0.470267 -0.0168002 -0.124781 131 131 77
-0.469916 -0.0145896 -0.12391 131 129 79
-0.470221 -0.0124398 -0.12383 130 127 83
-0.470525 -0.0102886 -0.123749 128 127 83
-0.470176 -0.00809147 -0.122883 127 128 78
-0.47048 -0.00594187 -0.122802 129 130 78
-0.470131 -0.00375507 -0.121939 132 129 78
-0.469784 -0.00157565 -0.121079 136 129 82
-0.469439 0.000596463 -0.120223 126 132 84
-0.469742 0.00273862 -0.120143 130 133 82
-0.46811 0.00493716 -0.117754 131 128 80
-0.467133 0.00709717 -0.11615 135 127 80
-0.466798 0.00923195 -0.115313 134 127 78
-0.467735 0.0113487 -0.115991 134 127 78
-0.469319 0.0134739 -0.117434 133 126 77
-0.469622 0.0156115 -0.117354 135 128 83
-0.46864 0.0177362 -0.115752 140 126 81
-0.468942 0.0198681 -0.115672 136 125 80
-0.468604 0.0219858 -0.114836 134 133 84
-0.468906 0.0241162 -0.114756 135 125 77
-0.469849 0.0262718 -0.115432 132 129 81
-0.470796 0.0284373 -0.11611 135 126 82
-0.471099 0.0305802 -0.11603 135 129 79
-0.47401 0.0328726 -0.119013 130 127 80
-0.474316 0.0350354 -0.118932 130 125 83
-0.474623 0.0371995 -0.118851 134 125 81
-0.475589 0.0394153 -0.119543 133 124 79
-0.477226 0.0416966 -0.121017 135 129 77
-0.478205 0.0439376 -0.121717 136 126 78
-0.479187 0.046189 -0.122421 134 127 81
-0.479498 0.0483819 -0.122338 133 125 75
-0.480485 0.0506497 -0.123044 129 124 77
-0.480797 0.0528498 -0.122962 134 121 77
-0.48043 0.054969 -0.122092 132 120 74
-0.479393 0.056995 -0.120444 126 119 78
-0.477698 0.0589169 -0.118038 127 120 81
-0.475368 0.0607251 -0.114901 130 121 76
-0.475674 0.0628886 -0.11482 127 118 76
-0.475981 0.0650536 -0.114738 126 120 76
-0.478934 0.0676429 -0.117711 127 122 80
-0.479912 0.069939 -0.1184 126 120 77
-0.481569 0.0723622 -0.119868 123 118 79
-0.481881 0.0745632 -0.119786 124 115 73
-0.481517 0.0766403 -0.118927 123 107 68
-0.481154 0.0787105 -0.118071 100 82 64
-0.480794 0.0807739 -0.117219 74 30 17
-0.465476 -0.0444987 -0.128189 129 117 70
-0.465779 -0.042359 -0.12811 129 121 76
-0.466081 -0.040218 -0.12803 128 124 77
-0.467035 -0.0381811 -0.128751 130 127 76
-0.46865 -0.0362365 -0.130283 130 127 77
-0.470943 -0.0343735 -0.132644 128 128 77
-0.47125 -0.0322008 -0.132563 129 125 78
-0.470891 -0.0299367 -0.131665 131 128 77
-0.471198 -0.0277656 -0.131584 126 128 77
-0.47084 -0.0255124 -0.13069 125 128 81
-0.469823 -0.0231913 -0.128993 130 127 81
-0.468814 -0.0208875 -0.12731 129 126 82
-0.469119 -0.0187329 -0.12723 126 128 79
-0.468118 -0.0164535 -0.125561 132 129 75
-0.468422 -0.0143048 -0.125481 132 124 79
-0.468726 -0.0121548 -0.125401 133 126 83
-0.468379 -0.00995497 -0.124531 132 130 76
-0.468683 -0.0078065 -0.124451 131 131 71
-0.468337 -0.00561709 -0.123585 129 127 82
-0.467348 -0.00340004 -0.121943 133 129 77
-0.467651 -0.00126035 -0.121864 137 127 74
-0.46603 0.000959468 -0.119465 131 126 75
-0.465694 0.00311101 -0.118619 130 127 78
-0.463471 0.00530764 -0.115504 129 128 77
-0.463144 0.00743229 -0.114674 137 129 77
-0.463443 0.00954099 -0.114595 136 125 75
-0.465628 0.0116364 -0.116779 135 125 79
-0.465928 0.0137602 -0.1167 133 129 80
-0.466864 0.0158889 -0.117381 133 129 81
-0.466529 0.018012 -0.116542 139 129 83
-0.466196 0.0201282 -0.115706 137 129 87
-0.465865 0.0222374 -0.114874 135 129 88
-0.466798 0.0243797 -0.115548 132 127 86
-0.467098 0.0265075 -0.115468 129 129 80
-0.467399 0.0286367 -0.115389 136 128 74
-0.468977 0.0308328 -0.116824 136 125 75
-0.469922 0.0330103 -0.117506 132 127 81
-0.470225 0.0351562 -0.117426 133 124 78
-0.472475 0.0374417 -0.119648 134 124 78
-0.472781 0.0396031 -0.119567 130 126 79
-0.475723 0.0419875 -0.122597 131 122 75
-0.476698 0.0442293 -0.123301 136 126 76
-0.477677 0.0464816 -0.124008 131 123 76
-0.477987 0.0486748 -0.123926 134 122 78
-0.478297 0.0508693 -0.123844 129 121 77
-0.478608 0.0530653 -0.123763 131 123 78
-0.478246 0.05518 -0.122893 131 123 71
-0.477219 0.0572015 -0.121246 124 119 76
-0.473576 0.0588518 -0.116544 126 120 78
-0.473881 0.0610143 -0.116463 133 118 72
-0.473536 0.0630814 -0.115623 125 121 72
-0.473842 0.0652423 -0.115543 126 121 76
-0.4748 0.0675099 -0.116221 129 118 77
-0.477743 0.0701204 -0.119206 126 122 77
-0.478719 0.0724232 -0.119898 120 116 78
-0.479029 0.0746156 -0.119816 122 112 75
-0.478671 0.0766846 -0.118961 125 109 69
-0.477652 0.0786186 -0.117342 99 84 63
-0.476642 0.0805387 -0.115736 64 32 20
-0.463982 -0.0442163 -0.129759 129 123 73
-0.46364 -0.0419632 -0.128879 127 123 77
-0.464586 -0.0399351 -0.129601 128 122 77
-0.464888 -0.0377924 -0.129522 130 124 75
-0.467144 -0.0359513 -0.131864 130 127 78
-0.468106 -0.0338904 -0.132598 128 128 75
-0.469072 -0.0318196 -0.133335 129 129 80
-0.468717 -0.0295606 -0.132438 126 128 83
-0.469023 -0.0273937 -0.132358 126 127 78
-0.46867 -0.0251456 -0.131464 126 130 82
-0.467663 -0.0228304 -0.129768 129 127 82
-0.467315 -0.0206023 -0.128886 129 125 80
-0.466968 -0.0183819 -0.128006 128 129 79
-0.466623 -0.016169 -0.127131 132 127 78
-0.466927 -0.01402 -0.127051 128 128 84
-0.46723 -0.0118697 -0.126971 130 130 79
-0.466886 -0.00967023 -0.126099 130 131 78
-0.467189 -0.0075215 -0.12602 132 128 77
-0.466846 -0.00533241 -0.125151 131 129 78
-0.465863 -0.00311625 -0.123504 127 128 76
-0.464252 -0.00088649 -0.121096 131 130 77
-0.463289 0.00129297 -0.11948 129 127 77
-0.46171 0.00347757 -0.11712 132 129 74
-0.460766 0.0056214 -0.115536 128 131 78
-0.461063 0.00772491 -0.115458 129 130 82
-0.461981 0.0098213 -0.116131 133 128 81
-0.462279 0.0119316 -0.116053 131 126 82
-0.463828 0.0140429 -0.117486 131 128 79
-0.464127 0.0161642 -0.117407 130 126 80
-0.464427 0.0182868 -0.117329 130 134 78
-0.464098 0.0203985 -0.116494 132 128 82
-0.464398 0.0225197 -0.116415 133 126 83
-0.464697 0.0246423 -0.116337 127 125 86
-0.464997 0.0267661 -0.116258 129 126 81
-0.465297 0.0288914 -0.11618 133 129 78
-0.466229 0.0310512 -0.116857 135 126 80
-0.467164 0.0332208 -0.117536 136 127 79
-0.467466 0.0353585 -0.117457 132 126 78
-0.468406 0.0375437 -0.118139 130 124 74
-0.47129 0.0398915 -0.121134 128 127 80
-0.472902 0.042166 -0.122609 125 125 81
-0.474527 0.0444602 -0.124096 131 125 75
-0.4755 0.0467087 -0.124804 131 124 72
-0.476476 0.0489677 -0.125514 137 121 73
-0.476786 0.0511625 -0.125433 131 124 73
-0.476427 0.0532799 -0.124561 129 119 75
-0.475407 0.0553078 -0.122908 125 121 76
-0.475053 0.0574071 -0.122045 123 121 78
-0.472089 0.0591408 -0.118106 125 122 80
-0.471747 0.0612105 -0.117263 130 121 75
-0.472052 0.0633703 -0.117183 124 122 74
-0.472357 0.0655315 -0.117104 123 120 76
-0.472662 0.0676941 -0.117023 126 117 76
-0.474925 0.0701897 -0.119238 127 118 73
-0.476551 0.0725999 -0.120702 125 115 71
-0.47686 0.0747883 -0.120621 121 114 73
-0.475848 0.0767286 -0.118996 120 110 68
-0.474192 0.0785278 -0.116623 96 86 62
-0.473848 0.0805677 -0.115784 71 34 21
-0.461209 -0.0437006 -0.129724 128 123 74
-0.461509 -0.0415691 -0.129645 127 123 76
-0.462449 -0.0395439 -0.130368 126 125 76
-0.463392 -0.0375092 -0.131093 127 123 76
-0.46434 -0.0354649 -0.131822 127 128 78
-0.465943 -0.0335075 -0.133366 126 128 76
-0.466247 -0.0313475 -0.133287 126 127 81
-0.465899 -0.0290984 -0.132394 124 125 84
-0.465553 -0.026857 -0.131505 126 128 80
-0.465857 -0.0247016 -0.131426 126 128 81
-0.465512 -0.0224709 -0.13054 126 125 81
-0.465815 -0.0203171 -0.130461 130 125 78
-0.465471 -0.018097 -0.129579 126 128 81
-0.465129 -0.0158844 -0.128701 127 127 80
-0.465432 -0.0137352 -0.128622 128 130 80
-0.465735 -0.0115846 -0.128543 126 129 78
-0.466038 -0.00943269 -0.128464 126 129 79
-0.465053 -0.00719373 -0.126797 130 126 76
-0.464714 -0.00500937 -0.125929 129 129 76
-0.463741 -0.00279864 -0.124282 130 127 78
-0.461518 -0.00054594 -0.121105 130 127 81
-0.459949 0.0016484 -0.118735 129 127 78
-0.459012 0.00379827 -0.117145 131 131 70
-0.458694 0.00591674 -0.116316 132 130 77
-0.459605 0.00800444 -0.11699 131 129 79
-0.459901 0.0101095 -0.116913 133 127 84
-0.460816 0.0122122 -0.11759 133 131 75
-0.462359 0.0143249 -0.119029 132 130 76
-0.462658 0.0164464 -0.118951 129 126 82
-0.462333 0.0185606 -0.118113 133 131 78
-0.462631 0.0206807 -0.118035 133 133 76
-0.46293 0.0228021 -0.117957 131 129 78
-0.462605 0.0249038 -0.117123 130 123 88
-0.462904 0.0270238 -0.117045 135 124 81
-0.463203 0.0291451 -0.116967 137 127 78
-0.464128 0.0313014 -0.117645 137 125 76
-0.464428 0.0334296 -0.117566 133 123 74
-0.465358 0.0356013 -0.118247 132 123 74
-0.465659 0.0377364 -0.118168 131 120 75
-0.469798 0.0401799 -0.122702 125 122 78
-0.471404 0.0424558 -0.124184 126 124 79
-0.473023 0.0447515 -0.125677 130 127 75
-0.473331 0.046935 -0.125597 129 123 75
-0.473639 0.0491198 -0.125517 133 122 72
-0.473947 0.0513061 -0.125436 132 126 68
-0.474255 0.0534938 -0.125356 127 120 73
-0.473245 0.055517 -0.123703 123 119 74
-0.472896 0.057612 -0.122842 127 124 78
-0.470603 0.0594298 -0.119668 127 122 77
-0.470263 0.0614992 -0.118823 125 120 75
-0.470567 0.0636592 -0.118744 122 119 74
-0.470229 0.065719 -0.117902 122 124 78
-0.470533 0.0678776 -0.117823 124 118 75
-0.471482 0.0701478 -0.118505 122 116 77
-0.473737 0.0726597 -0.120729 122 113 73
-0.474044 0.0748396 -0.120649 121 112 74
-0.472398 0.0766488 -0.118266 123 108 70
-0.471413 0.0785645 -0.116667 100 87 62
-0.471076 0.0805965 -0.115832 75 32 22
-0.458457 -0.0431891 -0.129688 128 123 72
-0.458756 -0.0410657 -0.129611 128 123 76
-0.459686 -0.0390474 -0.130331 125 126 80
-0.461257 -0.0371226 -0.131858 122 126 79
-0.46284 -0.0351809 -0.133397 125 127 78
-0.463788 -0.0331261 -0.134132 125 129 77
-0.464092 -0.0309702 -0.134053 124 127 82
-0.463748 -0.0287262 -0.133161 125 124 83
-0.463407 -0.0264898 -0.132273 129 128 79
-0.463066 -0.0242611 -0.131388 129 127 76
-0.464012 -0.0221858 -0.132116 126 127 79
-0.464315 -0.0200318 -0.132037 127 125 80
-0.463974 -0.017812 -0.131152 124 128 78
-0.463634 -0.0155998 -0.130271 124 128 73
-0.463937 -0.0134503 -0.130193 128 128 75
-0.464239 -0.0112995 -0.130114 125 127 84
-0.464542 -0.00914729 -0.130035 125 127 81
-0.463562 -0.00690922 -0.128363 126 128 79
-0.462591 -0.00468761 -0.126703 124 128 79
-0.461627 -0.00248229 -0.125057 126 125 79
-0.458806 -0.000207997 -0.121113 132 127 79
-0.457258 0.00197604 -0.118754 128 126 79
-0.456943 0.00409699 -0.117922 129 125 74
-0.456629 0.006211 -0.117094 134 126 76
-0.456924 0.00830681 -0.117017 132 126 75
-0.457829 0.0103967 -0.117692 131 130 80
-0.458738 0.0124961 -0.118369 136 128 76
-0.46027 0.0146059 -0.119809 135 132 80
-0.460568 0.0167236 -0.119732 131 127 83
-0.460866 0.0188426 -0.119654 130 128 79
-0.460544 0.0209495 -0.118817 133 130 75
-0.460842 0.0230671 -0.11874 128 125 78
-0.46114 0.025186 -0.118663 133 123 79
-0.461438 0.0273062 -0.118585 134 126 76
-0.461117 0.0293979 -0.117752 131 126 75
-0.462036 0.0315508 -0.11843 130 124 72
-0.462958 0.0337134 -0.119111 127 126 80
-0.463258 0.0358432 -0.119033 130 130 78
-0.463558 0.0379744 -0.118955 128 124 77
-0.468307 0.0404683 -0.124269 125 120 76
-0.469257 0.0426887 -0.124972 124 120 87
-0.470212 0.0449194 -0.125678 126 123 80
-0.470518 0.0470944 -0.125599 130 122 70
-0.470824 0.0492708 -0.125519 130 120 76
-0.471785 0.0515232 -0.126228 124 122 77
-0.471437 0.0536278 -0.12536 127 121 77
-0.471744 0.0558084 -0.125281 126 118 77
-0.470748 0.0578161 -0.123635 126 116 79
-0.469116 0.0597189 -0.121231 127 120 79
-0.468779 0.0617879 -0.120383 126 120 74
-0.468443 0.0638502 -0.119539 122 118 78
-0.468747 0.0660077 -0.11946 123 120 78
-0.46905 0.0681665 -0.119381 122 118 77
-0.469354 0.0703267 -0.119302 119 115 79
-0.4703 0.0726035 -0.119988 119 112 76
-0.470605 0.0747707 -0.119909 117 113 75
-0.468989 0.07657 -0.117545 119 110 73
-0.469292 0.0787273 -0.117467 98 89 63
-0.468959 0.0807553 -0.116632 70 30 27
-0.455728 -0.0426815 -0.129654 126 121 73
-0.456025 -0.0405664 -0.129577 127 123 76
-0.457571 -0.0386603 -0.131092 128 125 77
-0.459129 -0.0367376 -0.13262 125 126 77
-0.460701 -0.0347979 -0.134159 126 127 77
-0.462285 -0.0328412 -0.135711 125 127 77
-0.462588 -0.030685 -0.135633 126 124 81
-0.461606 -0.0283555 -0.133925 125 124 85
-0.461269 -0.0261241 -0.133038 128 131 83
-0.460933 -0.0239003 -0.132154 128 128 81
-0.461872 -0.0218283 -0.132882 127 127 79
-0.462174 -0.0196783 -0.132804 126 127 82
-0.462476 -0.017527 -0.132726 123 125 80
-0.462779 -0.0153743 -0.132647 122 130 79
-0.462441 -0.0131653 -0.131764 127 129 82
-0.462743 -0.0110143 -0.131686 125 125 82
-0.462407 -0.00881573 -0.130806 127 127 82
-0.461437 -0.0065832 -0.129134 123 131 80
-0.460475 -0.00436708 -0.127475 125 128 85
-0.457659 -0.00207087 -0.1235 131 125 80
-0.456115 0.000127312 -0.121122 130 128 76
-0.455193 0.00227807 -0.119527 126 129 81
-0.454882 0.00439456 -0.118696 128 124 78
-0.454572 0.00650416 -0.117868 129 129 79
-0.454866 0.00859615 -0.117792 131 126 79
-0.455765 0.0106827 -0.118468 128 129 82
-0.457278 0.0127762 -0.119903 130 129 79
-0.458804 0.0148874 -0.12135 125 129 78
-0.459101 0.0170053 -0.121273 124 128 77
-0.458168 0.0191051 -0.119673 128 127 77
-0.458464 0.0212174 -0.119597 132 131 79
-0.458761 0.023331 -0.11952 127 124 81
-0.459058 0.025446 -0.119443 133 127 79
-0.459356 0.0275624 -0.119366 131 126 78
-0.459653 0.0296801 -0.11929 130 128 81
-0.459951 0.0317992 -0.119213 126 127 82
-0.461488 0.0339971 -0.120656 126 124 81
-0.461787 0.0361272 -0.120579 126 127 78
-0.462087 0.0382587 -0.120501 130 122 75
-0.464902 0.040599 -0.123499 128 119 75
-0.467119 0.0429207 -0.125758 128 121 81
-0.467423 0.045086 -0.12568 126 121 75
-0.468372 0.0473186 -0.126386 127 122 76
-0.467389 0.0493506 -0.124741 129 119 74
-0.468337 0.05159 -0.125444 123 119 76
-0.468642 0.0537609 -0.125365 128 117 77
-0.468947 0.055933 -0.125286 127 119 79
-0.467325 0.0578459 -0.122873 125 115 79
-0.466991 0.0599176 -0.122022 124 121 79
-0.466658 0.0619824 -0.121175 124 121 77
-0.466327 0.0640405 -0.120331 122 119 79
-0.465997 0.0660919 -0.119491 123 118 77
-0.466299 0.0682425 -0.119413 120 117 79
-0.466602 0.0703945 -0.119335 120 117 80
-0.466904 0.0725479 -0.119256 121 115 77
-0.467207 0.0747027 -0.119178 117 115 77
-0.466247 0.0766139 -0.117586 120 107 71
-0.466549 0.078763 -0.117508 97 87 63
-0.466851 0.0809135 -0.11743 64 31 34
-0.453634 -0.0422899 -0.130411 124 119 76
-0.45393 -0.0401788 -0.130335 126 121 76
-0.454844 -0.0381703 -0.131053 126 123 74
-0.45701 -0.0363539 -0.133378 124 124 75
-0.45857 -0.0344164 -0.134919 124 124 76
-0.460141 -0.0324619 -0.136471 125 124 74
-0.460443 -0.0303098 -0.136394 128 124 74
-0.459471 -0.0279862 -0.134687 127 125 81
-0.459139 -0.0257598 -0.1338 128 126 81
-0.458808 -0.023541 -0.132916 126 126 80
-0.459108 -0.0214007 -0.132839 128 126 81
-0.459408 -0.0192591 -0.132762 127 126 80
-0.460978 -0.017242 -0.134299 126 127 79
-0.46128 -0.015089 -0.134222 124 128 77
-0.460945 -0.0128804 -0.133335 128 126 79
-0.460612 -0.0106792 -0.132452 126 124 78
-0.46028 -0.00848549 -0.131573 127 125 79
-0.459949 -0.00629917 -0.130697 124 127 77
-0.457126 -0.00397587 -0.126676 125 125 81
-0.455578 -0.00175894 -0.12427 126 125 85
-0.453444 0.000460084 -0.121132 128 126 78
-0.453136 0.00257901 -0.120298 124 127 78
-0.453429 0.00467266 -0.120223 126 125 77
-0.453122 0.00678194 -0.119392 129 128 80
-0.453416 0.00887418 -0.119317 126 128 83
-0.454311 0.0109616 -0.119996 126 126 81
-0.455211 0.0130585 -0.120677 128 127 80
-0.456725 0.0151669 -0.122124 129 130 77
-0.457021 0.0172809 -0.122048 129 127 79
-0.456706 0.019386 -0.121209 127 128 77
-0.457002 0.0214985 -0.121133 129 129 77
-0.457299 0.0236125 -0.121057 130 123 77
-0.457596 0.0257277 -0.12098 130 131 74
-0.457893 0.0278443 -0.120904 126 126 77
-0.45819 0.0299623 -0.120828 127 127 82
-0.459102 0.0321167 -0.121513 123 125 80
-0.460018 0.0342809 -0.122201 123 122 79
-0.460317 0.0364113 -0.122124 125 123 73
-0.461237 0.0385909 -0.122815 127 121 73
-0.462162 0.0407805 -0.123508 130 122 73
-0.46309 0.0429801 -0.124204 129 120 76
-0.462763 0.0450675 -0.123353 128 121 73
-0.463064 0.0472131 -0.123276 125 120 76
-0.463365 0.0493601 -0.123198 127 121 69
-0.464929 0.0516561 -0.124669 126 117 69
-0.465232 0.0538143 -0.124591 129 120 74
-0.465535 0.0559739 -0.124513 128 119 77
-0.465204 0.058048 -0.12366 127 117 76
-0.464244 0.0600251 -0.122042 124 121 76
-0.463917 0.0620819 -0.121198 123 117 76
-0.463592 0.064132 -0.120358 128 119 75
-0.463893 0.0662773 -0.120281 127 116 73
-0.463569 0.068318 -0.119444 122 117 71
-0.46387 0.0704618 -0.119367 122 114 71
-0.464171 0.0726071 -0.119289 123 117 71
-0.464472 0.0747537 -0.119212 122 113 71
-0.464148 0.0767794 -0.118379 124 106 66
-0.464449 0.0789245 -0.118301 101 86 60
-0.46475 0.0810711 -0.118224 71 36 26
-0.451548 -0.0418999 -0.131165 124 119 77
-0.451843 -0.0397926 -0.13109 125 121 76
-0.452751 -0.0377871 -0.131809 124 124 75
-0.455522 -0.0360723 -0.134942 123 125 76
-0.456447 -0.0340365 -0.135675 122 123 77
-0.458007 -0.0320841 -0.137228 122 124 75
-0.458307 -0.0299361 -0.137151 126 124 73
-0.457346 -0.0276183 -0.135445 126 124 77
-0.457017 -0.0253969 -0.134559 127 124 78
-0.456691 -0.023183 -0.133676 129 124 78
-0.45699 -0.0210468 -0.1336 130 124 78
-0.456664 -0.0188433 -0.132721 128 125 75
-0.458217 -0.0168323 -0.134252 127 125 74
-0.458517 -0.0146877 -0.134175 124 125 76
-0.458817 -0.0125418 -0.134098 127 128 78
-0.458488 -0.0103454 -0.133216 127 125 75
-0.458161 -0.00815652 -0.132338 125 127 77
-0.457211 -0.00593495 -0.130667 125 127 79
-0.453817 -0.00358927 -0.125886 126 126 82
-0.452899 -0.00141772 -0.124267 124 125 80
-0.451989 0.000738249 -0.12266 124 129 77
-0.451683 0.00285688 -0.121824 125 128 79
-0.451976 0.00495078 -0.121749 128 128 78
-0.451672 0.0070598 -0.120916 130 128 76
-0.451965 0.00915229 -0.120841 127 127 78
-0.452857 0.0112405 -0.121524 129 126 74
-0.453753 0.0133382 -0.122209 131 125 77
-0.454653 0.0154454 -0.122896 131 130 78
-0.454949 0.0175555 -0.122821 129 129 76
-0.455244 0.019667 -0.122745 129 126 80
-0.45554 0.0217798 -0.122669 127 126 75
-0.455836 0.023894 -0.122594 131 124 75
-0.456133 0.0260095 -0.122518 127 128 72
-0.456429 0.0281263 -0.122442 122 124 79
-0.457337 0.0302761 -0.123131 124 126 79
-0.457635 0.0323998 -0.123055 124 127 76
-0.459165 0.0346049 -0.124517 124 122 77
-0.459464 0.0367397 -0.124441 124 124 77
-0.459763 0.0388759 -0.124364 125 123 77
-0.459443 0.0409607 -0.123517 128 128 75
-0.460362 0.0431522 -0.124211 124 120 77
-0.460041 0.0452314 -0.123364 122 125 76
-0.46034 0.0473688 -0.123288 122 120 77
-0.46064 0.0495076 -0.123211 124 120 72
-0.461562 0.0517214 -0.123904 122 119 74
-0.461862 0.0538672 -0.123827 126 121 76
-0.462163 0.0560143 -0.12375 125 119 75
-0.462464 0.0581627 -0.123673 123 119 75
-0.461518 0.0601319 -0.122061 122 121 77
-0.461818 0.0622747 -0.121984 122 121 77
-0.462118 0.0644189 -0.121907 125 117 73
-0.461797 0.066462 -0.121068 123 114 74
-0.461478 0.0684986 -0.120232 121 116 73
-0.461777 0.0706386 -0.120155 122 115 69
-0.462077 0.0727799 -0.120079 122 115 69
-0.462377 0.0749226 -0.120002 121 114 70
-0.461441 0.0768223 -0.118416 123 106 68
-0.46174 0.0789594 -0.11834 102 87 62
-0.462039 0.0810979 -0.118263 77 34 28
-0.448867 -0.0414013 -0.131126 123 120 76
-0.44916 -0.0393021 -0.131051 122 122 77
-0.451275 -0.0375079 -0.133359 122 123 75
-0.454034 -0.0357906 -0.136505 123 123 76
-0.454955 -0.0337539 -0.137242 122 122 78
-0.45588 -0.0317077 -0.137982 121 123 77
-0.45618 -0.0295638 -0.137906 124 125 74
-0.455228 -0.027252 -0.136201 125 124 73
-0.454904 -0.0250354 -0.135316 125 123 75
-0.455203 -0.0229003 -0.135239 127 122 79
-0.455501 -0.0207639 -0.135163 124 122 79
-0.454559 -0.0184955 -0.133479 123 124 77
-0.454857 -0.0163649 -0.133403 126 124 74
-0.453921 -0.0141203 -0.131733 126 123 76
-0.454218 -0.0119955 -0.131657 128 126 75
-0.455132 -0.00991693 -0.132377 125 124 77
-0.45543 -0.00778512 -0.132301 124 122 79
-0.452056 -0.00541871 -0.127501 125 123 79
-0.451145 -0.00324107 -0.125876 127 128 82
-0.450241 -0.00107909 -0.124264 126 124 76
-0.450534 0.00101649 -0.124189 125 128 78
-0.450231 0.00313482 -0.12335 123 125 77
-0.449929 0.00524627 -0.122515 125 128 76
-0.450221 0.0073377 -0.122441 127 126 78
-0.450513 0.00943043 -0.122366 127 125 79
-0.450806 0.0115245 -0.122292 127 126 78
-0.452296 0.0136179 -0.12374 127 126 78
-0.453192 0.0157259 -0.124431 125 126 77
-0.453487 0.0178363 -0.124356 126 128 78
-0.453783 0.019948 -0.124281 125 124 79
-0.454078 0.0220611 -0.124206 127 125 78
-0.454374 0.0241755 -0.124131 126 126 76
-0.454669 0.0262912 -0.124055 129 122 74
-0.454965 0.0284083 -0.12398 129 124 80
-0.45587 0.0305589 -0.124673 125 123 80
-0.456167 0.0326829 -0.124597 125 124 75
-0.458309 0.0349303 -0.126842 126 122 76
-0.458608 0.0370695 -0.126766 128 122 78
-0.458289 0.0391608 -0.125914 127 119 80
-0.457971 0.0412453 -0.125064 124 128 82
-0.457655 0.043323 -0.124218 123 121 81
-0.457953 0.0454552 -0.124142 120 120 80
-0.457638 0.0475233 -0.123299 123 118 73
-0.457936 0.049654 -0.123224 122 121 76
-0.459465 0.0519337 -0.124684 123 121 77
-0.459765 0.0540755 -0.124607 121 119 75
-0.460685 0.0563013 -0.125303 124 119 74
-0.459129 0.0581904 -0.12292 122 119 75
-0.459428 0.0603279 -0.122844 122 120 74
-0.459727 0.0624668 -0.122767 123 118 78
-0.460026 0.0646071 -0.122691 121 115 74
-0.459096 0.066544 -0.121093 122 118 75
-0.458782 0.0685727 -0.12026 117 115 77
-0.45908 0.0707046 -0.120185 120 115 75
-0.459378 0.0728379 -0.120109 120 114 72
-0.459677 0.0749725 -0.120033 119 112 69
-0.459363 0.0769865 -0.119204 120 106 68
-0.459051 0.078994 -0.118378 97 86 64
-0.459349 0.0811245 -0.118302 68 31 34
-0.448604 -0.0413435 -0.134258 120 119 77
-0.449504 -0.0393418 -0.134985 119 120 77
-0.450407 -0.0373309 -0.135714 119 120 76
-0.453165 -0.0356085 -0.138885 120 121 76
-0.453463 -0.0334713 -0.138809 121 120 77
-0.454385 -0.0314243 -0.139553 121 120 75
-0.454684 -0.0292801 -0.139477 122 121 75
-0.453119 -0.026887 -0.136954 122 122 75
-0.453416 -0.024753 -0.136878 122 121 76
-0.453715 -0.0226176 -0.136803 123 121 78
-0.454634 -0.0205503 -0.137539 122 121 77
-0.453076 -0.0182135 -0.135037 123 123 77
-0.450929 -0.0158437 -0.131772 125 125 75
-0.450619 -0.0136733 -0.130908 122 124 76
-0.449708 -0.0114598 -0.129264 123 124 76
-0.449403 -0.00930815 -0.12841 122 124 81
-0.449098 -0.00716359 -0.127559 122 122 79
-0.449391 -0.00506358 -0.127484 123 122 81
-0.448494 -0.00289556 -0.125866 125 126 82
-0.448786 -0.000801083 -0.125792 125 122 79
-0.448485 0.00131972 -0.124951 124 123 80
-0.44701 0.003475 -0.122594 123 123 80
-0.447301 0.00555728 -0.12252 124 125 77
-0.446423 0.00766586 -0.12094 127 126 74
-0.446712 0.00974274 -0.120867 126 127 75
-0.447587 0.0118164 -0.121545 125 125 78
-0.449647 0.0138986 -0.123743 124 124 79
-0.450534 0.0159992 -0.124432 126 127 79
-0.452026 0.0181171 -0.125892 125 126 80
-0.45232 0.0202291 -0.125818 125 126 77
-0.452014 0.0223264 -0.124974 127 124 76
-0.452911 0.0244571 -0.125668 125 120 74
-0.453206 0.026573 -0.125593 127 123 74
-0.453502 0.0286904 -0.125518 129 126 74
-0.454403 0.0308418 -0.126214 123 122 75
-0.455308 0.0330029 -0.126913 125 121 78
-0.456218 0.0351739 -0.127615 127 122 76
-0.456516 0.0373092 -0.127539 127 122 80
-0.456201 0.0393962 -0.126687 121 124 82
-0.455888 0.0414765 -0.125838 124 123 78
-0.455576 0.0435499 -0.124993 127 119 75
-0.45466 0.0455554 -0.123386 125 120 78
-0.454956 0.0476767 -0.123311 124 118 75
-0.453447 0.0495924 -0.120963 123 120 76
-0.453742 0.051704 -0.120888 119 122 78
-0.45524 0.0539712 -0.122326 118 120 78
-0.455537 0.0560938 -0.12225 125 118 75
-0.455833 0.0582177 -0.122175 123 121 75
-0.45613 0.0603431 -0.1221 122 119 74
-0.456426 0.0624697 -0.122025 123 117 75
-0.456723 0.0645978 -0.12195 119 115 70
-0.456414 0.0666253 -0.121118 116 117 70
-0.454905 0.0684362 -0.118791 116 117 71
-0.4552 0.070552 -0.118716 119 115 76
-0.456097 0.072782 -0.119388 120 114 75
-0.456393 0.0749046 -0.119313 118 113 72
-0.456087 0.0769073 -0.118491 120 107 66
-0.455783 0.0789036 -0.117672 97 80 63
-0.45548 0.0808937 -0.116856 66 30 35
-0.447733 -0.0411749 -0.136609 105 108 74
-0.448633 -0.0391687 -0.137342 106 109 73
-0.45076 -0.0373588 -0.139707 106 110 72
-0.451673 -0.0353261 -0.140452 108 111 70
-0.45259 -0.0332839 -0.1412 111 111 69
-0.453511 -0.0312321 -0.14195 113 112 70
-0.453188 -0.0289964 -0.141049 115 111 71
-0.451631 -0.0266047 -0.138517 116 114 72
-0.451929 -0.0244705 -0.138442 115 114 72
-0.452226 -0.0223349 -0.138367 119 114 68
-0.452524 -0.0201979 -0.138291 118 114 68
-0.450372 -0.0178041 -0.134988 120 116 74
-0.448855 -0.015505 -0.132526 121 115 73
-0.447951 -0.0132853 -0.130876 117 115 70
-0.447054 -0.0110817 -0.129239 119 117 73
-0.446165 -0.00889396 -0.127615 121 120 79
-0.445868 -0.0067625 -0.126771 120 118 78
-0.446159 -0.00467448 -0.126698 120 118 79
-0.44645 -0.00258517 -0.126624 120 118 77
-0.445569 -0.000437781 -0.125019 125 117 74
-0.444694 0.00169433 -0.123427 124 117 77
-0.444404 0.00379143 -0.122599 121 119 75
-0.442395 0.00592915 -0.119535 120 119 78
-0.442682 0.00798907 -0.119463 127 122 74
-0.442399 0.0100581 -0.11865 124 122 73
-0.442686 0.0121167 -0.118577 121 122 76
-0.446434 0.0141771 -0.122988 129 125 79
-0.448487 0.0162746 -0.125195 126 125 74
-0.449372 0.0183814 -0.125888 126 126 75
-0.449665 0.0204854 -0.125814 123 122 78
-0.449958 0.0225907 -0.12574 122 122 77
-0.451447 0.0247387 -0.127206 123 120 76
-0.451742 0.0268549 -0.127131 124 123 75
-0.45264 0.0290016 -0.127831 123 124 76
-0.452936 0.0311247 -0.127756 122 127 75
-0.454446 0.0333243 -0.129239 123 122 80
-0.454743 0.0354584 -0.129164 124 121 76
-0.455041 0.037594 -0.129089 125 118 77
-0.454121 0.0396307 -0.127458 118 119 79
-0.454418 0.0417606 -0.127383 121 117 77
-0.453504 0.0437759 -0.125765 125 121 78
-0.453198 0.0458384 -0.124923 122 119 76
-0.451105 0.0476988 -0.121811 122 117 74
-0.448462 0.0494643 -0.118005 121 118 79
-0.448171 0.0514806 -0.117194 119 118 80
-0.449044 0.053641 -0.117859 121 121 76
-0.449335 0.0557314 -0.117785 127 119 69
-0.450212 0.0579068 -0.118452 124 117 75
-0.451092 0.0600919 -0.119121 121 115 83
-0.452569 0.0623796 -0.12054 124 114 77
