ply
format ascii 1.0
element vertex 1177
property float x
property float y
property float z
property uchar diffuse_red
property uchar diffuse_green
property uchar diffuse_blue
end_header
-0.459673 0.0843093 -0.120021 124 119 76
-0.493662 -0.0421134 -0.13553 83 39 5
-0.493271 -0.0399081 -0.135557 81 36 8
-0.492881 -0.0377013 -0.135583 79 34 14
-0.491786 -0.0355803 -0.134766 79 29 15
-0.490696 -0.0334666 -0.133953 77 26 17
-0.48961 -0.0313604 -0.133143 77 32 19
-0.488528 -0.0292614 -0.132336 78 34 10
-0.488139 -0.027066 -0.132363 74 35 17
-0.486377 -0.0250853 -0.130733 70 39 25
-0.48599 -0.022896 -0.130759 80 55 40
-0.484921 -0.0208219 -0.129963 125 112 66
-0.484534 -0.0186344 -0.129989 131 123 75
-0.482125 -0.0168187 -0.127566 124 129 82
-0.48174 -0.0146419 -0.127592 123 129 84
-0.481354 -0.0124636 -0.127618 131 128 78
-0.480302 -0.0104207 -0.126834 129 131 80
-0.479917 -0.00824416 -0.12686 132 130 83
-0.47887 -0.00621117 -0.12608 128 129 86
-0.478485 -0.00403629 -0.126106 125 132 87
-0.478759 -0.00170615 -0.126939 129 130 89
-0.479035 0.000634875 -0.127775 133 131 82
-0.478648 0.00282279 -0.127801 132 130 84
-0.479589 0.00534989 -0.129457 135 130 80
-0.479199 0.00754959 -0.129483 131 130 81
-0.478809 0.0097507 -0.12951 131 129 82
-0.47842 0.0119532 -0.129536 130 127 85
-0.478029 0.0141571 -0.129562 128 127 85
-0.475662 0.0157896 -0.127148 129 134 81
-0.475273 0.0179829 -0.127174 133 131 81
-0.484302 0.0230413 -0.138856 129 132 85
-0.484594 0.0255176 -0.139742 133 129 78
-0.481327 0.0316349 -0.137257 129 132 89
-0.480246 0.0336598 -0.136436 132 129 84
-0.479847 0.0359134 -0.136463 130 132 81
-0.477427 0.0374506 -0.133965 131 129 85
-0.476363 0.0394511 -0.133157 135 129 84
-0.472024 0.0402321 -0.128248 135 129 79
-0.465074 0.0563401 -0.12364 131 124 79
-0.464685 0.0585378 -0.123667 132 127 79
-0.464296 0.0607369 -0.123693 131 124 76
-0.463906 0.0629374 -0.123719 130 123 75
-0.463516 0.0651394 -0.123745 129 124 73
-0.462504 0.0670515 -0.12298 129 122 75
-0.461496 0.0689573 -0.122217 130 120 77
-0.460491 0.0708569 -0.121457 129 122 75
-0.459491 0.0727504 -0.1207 125 122 81
-0.458494 0.0746377 -0.119947 122 120 86
-0.456897 0.0762128 -0.118423 124 118 78
-0.457114 0.0787043 -0.119222 125 120 76
-0.458546 0.0818427 -0.121588 122 118 76
-0.457548 0.0837212 -0.120831 121 119 76
-0.493531 -0.0422476 -0.13886 77 37 21
-0.493138 -0.040033 -0.138887 80 35 10
-0.491334 -0.0379818 -0.13721 84 34 6
-0.490943 -0.0357736 -0.137237 83 31 7
-0.488461 -0.0338362 -0.134735 80 31 13
-0.486694 -0.0318276 -0.133093 77 30 20
-0.485622 -0.0297362 -0.13229 79 31 10
-0.485235 -0.0275497 -0.132317 79 37 7
-0.483491 -0.0255751 -0.130695 73 40 21
-0.483104 -0.0233948 -0.130721 81 51 31
-0.482046 -0.021328 -0.129928 124 96 59
-0.480991 -0.0192683 -0.129139 133 124 74
-0.47994 -0.0172155 -0.128352 129 127 75
-0.478893 -0.0151698 -0.127569 126 127 79
-0.478509 -0.0130003 -0.127596 130 130 77
-0.478124 -0.0108295 -0.127622 130 128 76
-0.477739 -0.00865726 -0.127649 137 131 79
-0.477353 -0.00648367 -0.127675 134 126 82
-0.476968 -0.00430868 -0.127702 134 128 82
-0.476582 -0.00213233 -0.127728 129 132 82
-0.476196 4.54074e-05 -0.127755 133 131 79
-0.476465 0.00238671 -0.128591 133 130 77
-0.476735 0.00473897 -0.129431 130 131 74
-0.476346 0.00692977 -0.129458 129 132 80
-0.475958 0.00912197 -0.129485 132 131 82
-0.475569 0.0113156 -0.129511 132 132 83
-0.474526 0.0133254 -0.128724 133 133 81
-0.472839 0.0151404 -0.127134 133 128 80
-0.471165 0.0169421 -0.125556 136 127 76
-0.470779 0.0191191 -0.125582 133 128 80
-0.479082 0.0311297 -0.138052 133 129 82
-0.478683 0.033382 -0.13808 134 127 81
-0.478284 0.0356356 -0.138107 128 131 87
-0.475872 0.0371746 -0.1356 131 131 86
-0.475475 0.0394171 -0.135627 131 128 87
-0.463862 0.0467944 -0.123544 129 127 80
-0.461237 0.0503927 -0.12124 130 126 77
-0.460851 0.0525657 -0.121267 132 127 80
-0.463555 0.0560722 -0.125237 133 127 76
-0.463165 0.05827 -0.125264 134 128 79
-0.462775 0.0604692 -0.125291 129 124 76
-0.462385 0.0626697 -0.125318 131 124 75
-0.461375 0.0645855 -0.124549 127 123 77
-0.460986 0.0667845 -0.124576 128 123 81
-0.45998 0.068691 -0.123811 127 121 80
-0.45959 0.0708884 -0.123837 126 120 77
-0.45798 0.0724853 -0.122289 126 120 76
-0.455781 0.0737697 -0.119976 125 122 79
-0.454201 0.0753422 -0.118458 124 120 77
-0.455008 0.0781306 -0.120029 124 117 78
-0.45522 0.0806274 -0.120833 124 117 77
-0.454832 0.0828157 -0.120859 124 116 74
-0.48555 -0.0342933 -0.134678 81 30 7
-0.483802 -0.032291 -0.133043 79 35 8
-0.482068 -0.0303037 -0.131422 79 34 17
-0.481013 -0.0282311 -0.13063 82 33 6
-0.480628 -0.026061 -0.130657 80 36 9
-0.479578 -0.0239984 -0.129868 82 47 24
-0.478532 -0.021943 -0.129082 116 86 44
-0.478148 -0.0197776 -0.129109 133 126 75
-0.477107 -0.017732 -0.128326 132 126 75
-0.47607 -0.0156934 -0.127547 130 126 75
-0.475686 -0.0135327 -0.127574 129 127 77
-0.475954 -0.0112366 -0.128407 131 130 80
-0.475569 -0.00906876 -0.128434 134 131 78
-0.475184 -0.0068995 -0.128461 135 129 79
-0.474799 -0.00472885 -0.128488 131 130 81
-0.474413 -0.0025568 -0.128515 129 130 77
-0.474027 -0.000383399 -0.128542 130 128 77
-0.473641 0.0017914 -0.128569 132 133 82
-0.473255 0.00396755 -0.128596 130 129 79
-0.473517 0.00631494 -0.129433 132 129 76
-0.473129 0.00849831 -0.12946 131 133 83
-0.472095 0.0105044 -0.128677 125 130 85
-0.470424 0.0123222 -0.127093 127 127 81
-0.468766 0.0141267 -0.125522 134 125 79
-0.466496 0.0157315 -0.123176 133 129 79
-0.466113 0.0178868 -0.123203 129 130 80
-0.466982 0.0204348 -0.124809 126 126 87
-0.47752 0.0308517 -0.139696 134 128 83
-0.47712 0.033104 -0.139724 131 129 82
-0.47672 0.0353577 -0.139752 130 131 82
-0.474318 0.0368986 -0.137235 127 130 87
-0.473259 0.0389004 -0.136422 127 126 84
-0.462738 0.0443451 -0.125106 131 128 78
-0.461117 0.0460315 -0.123552 133 128 82
-0.460119 0.0479554 -0.122794 129 128 80
-0.459734 0.0501272 -0.122821 131 129 80
-0.459348 0.0523004 -0.122848 129 129 80
-0.460799 0.0552693 -0.125241 125 127 80
-0.461027 0.0577297 -0.126064 127 123 77
-0.460637 0.0599245 -0.126091 125 125 78
-0.459632 0.0618406 -0.125323 127 122 76
-0.459243 0.0640339 -0.12535 127 123 77
-0.458853 0.0662285 -0.125377 126 122 78
-0.458464 0.0684246 -0.125405 124 120 81
-0.457464 0.0703255 -0.124639 124 120 79
-0.454069 0.0710327 -0.120752 126 121 77
-0.452498 0.0726115 -0.119234 124 120 78
-0.451526 0.0744783 -0.118494 124 121 81
-0.452318 0.0772524 -0.120059 124 118 78
-0.452523 0.0797376 -0.12086 124 116 75
-0.452729 0.0822341 -0.121664 124 115 72
-0.483339 -0.034659 -0.135454 78 27 17
-0.480933 -0.0327507 -0.132994 77 38 11
-0.478556 -0.0308643 -0.130565 76 37 18
-0.478172 -0.0287043 -0.130592 78 31 11
-0.477788 -0.0265429 -0.130619 77 33 12
-0.476095 -0.0245948 -0.129025 78 40 19
-0.475712 -0.0224395 -0.129052 101 69 32
-0.475328 -0.0202827 -0.129079 128 124 75
-0.474296 -0.0182444 -0.1283 129 129 71
-0.473913 -0.0160893 -0.128328 127 128 77
-0.47353 -0.0139329 -0.128355 132 126 79
-0.473147 -0.011775 -0.128382 135 134 81
-0.473408 -0.0094786 -0.129216 130 132 81
-0.473023 -0.00731365 -0.129243 130 128 79
-0.472638 -0.00514732 -0.129271 129 127 82
-0.472253 -0.00297963 -0.129298 125 129 83
-0.471867 -0.000810511 -0.129326 131 130 81
-0.471482 0.00135993 -0.129353 129 129 79
-0.471096 0.00353179 -0.129381 130 132 77
-0.470709 0.00570504 -0.129408 130 127 80
-0.469684 0.00770738 -0.128629 130 134 83
-0.468662 0.00970302 -0.127853 127 131 83
-0.467015 0.0115131 -0.126282 128 129 79
-0.464759 0.0131291 -0.123937 135 127 77
-0.46253 0.0147271 -0.121619 138 128 84
-0.463995 0.0174299 -0.123991 131 128 84
-0.464231 0.0197763 -0.124806 135 128 82
-0.465092 0.0223334 -0.126419 127 127 78
-0.475686 0.0281029 -0.140456 130 129 78
-0.475287 0.0303492 -0.140485 127 125 82
-0.474888 0.0325969 -0.140513 126 130 85
-0.474488 0.034846 -0.140542 126 129 78
-0.472104 0.0363869 -0.138026 129 129 81
-0.471706 0.038625 -0.138054 126 127 85
-0.459998 0.0435919 -0.125108 134 132 77
-0.458395 0.0452746 -0.123561 132 123 78
-0.458616 0.0476899 -0.124374 128 129 81
-0.45823 0.0498617 -0.124401 127 127 82
-0.457844 0.0520349 -0.124429 126 127 80
-0.457458 0.0542096 -0.124456 123 128 79
-0.458285 0.0569218 -0.126065 129 124 75
-0.456684 0.058563 -0.124511 128 125 75
-0.456901 0.061018 -0.125328 125 123 77
-0.456513 0.0632026 -0.125356 124 126 76
-0.45673 0.0656747 -0.126176 126 122 78
-0.455736 0.067576 -0.125411 126 122 77
-0.45355 0.068887 -0.12308 125 123 78
-0.451389 0.070184 -0.120778 124 122 78
-0.451004 0.0723496 -0.120805 122 119 80
-0.450034 0.074217 -0.120062 123 118 80
-0.45082 0.0769901 -0.121634 125 115 75
-0.450434 0.0791642 -0.121661 124 115 74
-0.450047 0.0813397 -0.121689 122 114 75
-0.449076 0.0831986 -0.120942 121 114 76
-0.477429 -0.0332965 -0.132127 76 35 27
-0.475737 -0.0313251 -0.130527 77 35 16
-0.474705 -0.0292711 -0.129746 81 38 6
-0.474323 -0.0271228 -0.129773 77 31 14
-0.473295 -0.0250788 -0.128995 75 36 22
-0.472913 -0.022932 -0.129023 86 58 35
-0.472531 -0.0207839 -0.12905 127 118 68
-0.472149 -0.0186345 -0.129078 136 127 76
-0.471766 -0.0164836 -0.129106 128 130 81
-0.471383 -0.0143315 -0.129133 128 127 81
-0.471 -0.0121779 -0.129161 129 130 81
-0.470616 -0.010023 -0.129189 127 128 82
-0.470871 -0.00772617 -0.130023 130 126 76
-0.470486 -0.00556417 -0.130051 128 128 79
-0.470101 -0.00340074 -0.130079 129 127 81
-0.469716 -0.00123597 -0.130107 133 132 86
-0.469331 0.000930198 -0.130135 128 130 83
-0.46831 0.00293546 -0.129356 130 132 82
-0.467293 0.00493403 -0.12858 129 129 84
-0.466908 0.00709559 -0.128608 128 131 85
-0.465896 0.00908456 -0.127836 132 131 78
-0.463647 0.0107137 -0.125481 136 127 74
-0.460815 0.0121472 -0.122377 136 127 73
-0.45983 0.0140988 -0.121629 133 129 81
-0.459451 0.0162287 -0.121656 134 130 82
-0.460891 0.0189311 -0.124019 133 125 78
-0.461732 0.0214696 -0.12562 130 127 77
-0.4632 0.0242334 -0.128031 132 128 83
-0.473727 0.0300717 -0.142126 131 124 82
-0.473327 0.0323195 -0.142155 130 127 87
-0.472927 0.0345687 -0.142184 128 127 81
-0.470552 0.0361114 -0.139658 129 128 81
-0.470154 0.0383495 -0.139687 131 129 77
-0.458493 0.0433256 -0.12669 134 130 83
-0.456895 0.0450094 -0.125138 136 129 81
-0.457113 0.0474243 -0.125954 133 129 78
-0.456727 0.0495962 -0.125982 136 126 76
-0.45634 0.0517695 -0.12601 131 125 79
-0.455953 0.0539442 -0.126038 131 124 81
-0.454965 0.0558543 -0.125277 132 125 79
-0.454579 0.0580275 -0.125305 128 124 81
-0.454192 0.060202 -0.125333 125 123 80
-0.454403 0.0626569 -0.126151 124 123 79
-0.454014 0.0648386 -0.126179 126 122 78
-0.453029 0.0667341 -0.125418 125 121 77
-0.452047 0.0686233 -0.12466 126 122 77
-0.449895 0.0699219 -0.122348 125 121 76
-0.44951 0.0720876 -0.122376 125 119 78
-0.449124 0.0742547 -0.122404 124 117 77
-0.449322 0.0767278 -0.123209 123 114 74
-0.448935 0.078902 -0.123237 121 117 74
-0.449132 0.081392 -0.124045 120 117 77
-0.447579 0.082937 -0.122516 121 117 77
-0.473967 -0.0338357 -0.131271 78 34 19
-0.472941 -0.0317821 -0.13049 76 35 22
-0.472559 -0.0296394 -0.130518 78 35 15
-0.471537 -0.0275957 -0.12974 79 32 12
-0.470518 -0.0255589 -0.128966 75 35 19
-0.470137 -0.0234207 -0.128994 79 51 32
-0.469756 -0.0212811 -0.129022 126 106 60
-0.470009 -0.019023 -0.129853 133 121 72
-0.469627 -0.0168764 -0.129881 129 128 77
-0.469244 -0.0147285 -0.129909 127 130 79
-0.468861 -0.0125792 -0.129937 126 130 82
-0.469112 -0.0102935 -0.130772 125 131 82
-0.468727 -0.0081371 -0.1308 131 130 78
-0.468978 -0.00583507 -0.131638 130 127 78
-0.468592 -0.00367157 -0.131666 131 130 81
-0.468206 -0.00150672 -0.131695 132 128 83
-0.467188 0.000502154 -0.130913 131 127 82
-0.466802 0.00266541 -0.130942 132 130 85
-0.465788 0.0046646 -0.130163 132 128 81
-0.464778 0.00665712 -0.129388 131 127 80
-0.462535 0.00829958 -0.127025 130 130 80
-0.460318 0.00992382 -0.12469 135 132 76
-0.458728 0.011706 -0.123158 130 130 83
-0.457749 0.0136546 -0.122411 129 127 78
-0.45737 0.0157804 -0.122439 129 130 82
-0.45759 0.0180959 -0.123242 124 130 83
-0.459018 0.0208109 -0.125615 128 128 82
-0.460463 0.0235598 -0.128017 128 129 82
-0.471766 0.032042 -0.143796 129 126 83
-0.470707 0.0340596 -0.142967 130 128 82
-0.469 0.0358358 -0.14129 132 128 85
-0.469906 0.0385532 -0.143026 131 126 80
-0.458205 0.043543 -0.129872 129 129 83
-0.456601 0.0452328 -0.128301 129 127 83
-0.456213 0.0474077 -0.12833 129 127 78
-0.455826 0.0495841 -0.128358 130 125 76
-0.455438 0.0517618 -0.128387 129 125 77
-0.454448 0.0536788 -0.12762 129 125 80
-0.453463 0.0555895 -0.126857 132 124 78
-0.453076 0.0577627 -0.126885 131 123 79
-0.452688 0.0599374 -0.126914 126 122 79
-0.4523 0.0621134 -0.126943 126 123 78
-0.451912 0.0642909 -0.126971 124 122 77
-0.450933 0.0661836 -0.12621 122 120 77
-0.450545 0.0683596 -0.126239 126 122 73
-0.450157 0.0705368 -0.126268 125 120 72
-0.449182 0.0724177 -0.12551 120 118 77
-0.448211 0.0742925 -0.124755 124 115 76
-0.448992 0.0770771 -0.126353 122 114 73
-0.448603 0.0792601 -0.126382 119 117 75
-0.448213 0.0814444 -0.126411 118 118 79
-0.447241 0.0833106 -0.125653 121 117 77
-0.471823 -0.034195 -0.132039 77 31 20
-0.471441 -0.0320535 -0.132068 76 32 19
-0.469785 -0.0301014 -0.130482 75 33 20
-0.468772 -0.0280649 -0.129708 79 31 13
-0.467763 -0.0260352 -0.128937 78 33 18
-0.467383 -0.0239055 -0.128965 78 48 22
-0.46763 -0.0216629 -0.129793 118 93 54
-0.467249 -0.0195263 -0.129822 128 122 75
-0.466867 -0.0173882 -0.12985 128 123 76
-0.466486 -0.0152488 -0.129879 130 127 75
-0.466104 -0.013108 -0.129907 131 127 78
-0.466976 -0.0106985 -0.131545 128 133 80
-0.467222 -0.00840758 -0.132384 128 128 84
-0.466837 -0.00624975 -0.132412 131 125 83
-0.467083 -0.00394247 -0.133254 134 127 80
-0.466697 -0.00177751 -0.133283 128 126 85
-0.465681 0.000231986 -0.132499 128 130 81
-0.465295 0.00239532 -0.132528 131 129 79
-0.46366 0.00423089 -0.13094 130 131 88
-0.462655 0.00622035 -0.130166 132 127 82
-0.46104 0.00803241 -0.128597 131 130 80
-0.458832 0.00965835 -0.126253 132 129 80
-0.457248 0.0114416 -0.124715 130 131 83
-0.455676 0.0132122 -0.12319 127 131 80
-0.455297 0.0153339 -0.123218 127 127 81
-0.455512 0.017644 -0.124022 120 126 83
-0.455727 0.0199646 -0.124829 126 130 86
-0.469804 0.0340139 -0.145468 127 127 83
-0.468748 0.0360289 -0.144636 128 128 83
-0.468347 0.0382765 -0.144666 128 123 80
-0.460384 0.0447471 -0.136357 123 127 80
-0.456304 0.0454579 -0.131491 125 125 81
-0.455309 0.0473911 -0.130715 129 126 80
-0.454319 0.0493179 -0.129943 125 124 83
-0.454531 0.051754 -0.130773 125 122 81
-0.453541 0.0536749 -0.130001 126 123 82
-0.452555 0.0555896 -0.129232 131 127 81
-0.451573 0.057498 -0.128466 129 125 79
-0.451185 0.0596727 -0.128495 128 123 76
-0.449619 0.0612963 -0.126943 126 123 78
-0.449819 0.0637452 -0.127761 124 123 80
-0.450019 0.0662053 -0.128582 123 121 80
-0.45022 0.0686765 -0.129407 125 122 75
-0.448654 0.0702731 -0.127848 124 120 72
-0.448265 0.0724519 -0.127877 119 120 75
-0.447876 0.0746321 -0.127906 121 119 75
-0.449248 0.0777389 -0.130322 122 115 74
-0.449447 0.0802503 -0.131154 123 115 75
-0.448464 0.0821325 -0.130381 121 116 77
-0.447485 0.0840087 -0.129611 120 114 75
-0.470324 -0.0344664 -0.133617 80 31 19
-0.468672 -0.0325059 -0.132025 79 30 16
-0.467661 -0.0304659 -0.131249 78 31 17
-0.466654 -0.0284326 -0.130475 79 29 17
-0.466274 -0.0263042 -0.130504 80 35 16
-0.465893 -0.0241744 -0.130533 82 47 6
-0.464891 -0.0221537 -0.129762 109 76 34
-0.464511 -0.0200255 -0.129791 127 126 75
-0.46413 -0.0178959 -0.12982 129 126 78
-0.463749 -0.0157649 -0.129849 128 125 77
-0.463369 -0.0136326 -0.129878 128 127 79
-0.464226 -0.0112348 -0.13151 133 131 79
-0.464465 -0.00895412 -0.132345 132 128 84
-0.465331 -0.00652022 -0.133997 133 127 82
-0.464945 -0.00436093 -0.134026 131 126 80
-0.464559 -0.00220025 -0.134055 128 129 87
-0.464173 -3.82203e-05 -0.134085 133 128 79
-0.462543 0.00180582 -0.132491 133 128 77
-0.462157 0.00396192 -0.132521 130 131 84
-0.461155 0.00595203 -0.131743 131 129 79
-0.460157 0.00793553 -0.130969 130 129 76
-0.457949 0.00956535 -0.128607 136 127 73
-0.455767 0.0111772 -0.126273 138 127 74
-0.4542 0.0129489 -0.124742 129 127 79
-0.453232 0.014889 -0.123995 131 125 79
-0.453442 0.0171937 -0.124799 124 127 81
-0.456035 0.0202796 -0.128753 128 129 83
-0.468242 0.0337364 -0.147111 128 123 82
-0.467839 0.0359873 -0.147141 128 128 82
-0.46809 0.0384806 -0.148041 127 128 77
-0.467687 0.0407391 -0.148072 126 130 78
-0.466879 0.0452604 -0.148133 129 125 82
-0.466475 0.0475232 -0.148164 126 125 82
-0.45846 0.0466854 -0.137996 128 124 76
-0.454402 0.0473743 -0.13311 129 126 80
-0.45341 0.0493051 -0.132332 127 126 82
-0.45302 0.0514874 -0.132362 124 125 81
-0.452033 0.0534089 -0.131587 125 123 78
-0.451049 0.0553242 -0.130815 129 125 76
-0.45007 0.0572332 -0.130046 133 121 77
-0.446765 0.0580588 -0.126131 127 121 73
-0.446958 0.0604855 -0.126943 125 121 72
-0.447733 0.0632016 -0.128547 123 121 76
-0.449102 0.0662269 -0.130963 125 120 76
-0.448711 0.0684116 -0.130993 127 119 74
-0.448321 0.0705978 -0.131022 125 119 69
-0.44793 0.0727854 -0.131052 123 117 72
-0.447539 0.0749744 -0.131082 122 118 74
-0.448322 0.0777842 -0.132719 122 116 72
-0.448519 0.0803008 -0.133558 122 115 74
-0.447536 0.0821868 -0.132779 119 115 76
-0.446556 0.0840667 -0.132003 118 115 74
-0.468824 -0.0347379 -0.135195 79 35 20
-0.466551 -0.0328657 -0.132789 79 33 16
-0.465545 -0.0308289 -0.132013 80 34 9
-0.465165 -0.0287018 -0.132042 77 29 12
-0.464164 -0.0266747 -0.131269 78 34 9
-0.463167 -0.0246543 -0.130499 77 36 7
-0.462787 -0.0225316 -0.130528 94 64 29
-0.462407 -0.0204075 -0.130558 124 124 73
-0.461414 -0.0183996 -0.129791 128 124 79
-0.461035 -0.016277 -0.12982 128 127 77
-0.461266 -0.0140272 -0.130646 124 127 81
-0.461497 -0.0117669 -0.131475 128 127 80
-0.462346 -0.00936022 -0.133113 130 127 81
-0.462581 -0.00707427 -0.133953 131 125 80
-0.462196 -0.00492357 -0.133982 127 129 80
-0.461811 -0.00277153 -0.134012 127 130 88
-0.461426 -0.000618069 -0.134042 130 127 81
-0.460425 0.00137854 -0.133262 130 129 79
-0.46004 0.0035304 -0.133292 128 128 79
-0.459655 0.00568363 -0.133321 128 128 79
-0.458659 0.00766778 -0.132545 130 126 79
-0.457062 0.00947194 -0.130971 132 125 71
-0.454286 0.0109127 -0.127831 133 129 81
-0.452725 0.0126856 -0.126294 128 127 76
-0.451759 0.0146262 -0.125545 129 130 78
-0.451965 0.0169306 -0.126352 126 124 78
-0.458171 0.0211899 -0.135154 129 127 80
-0.467734 0.0314356 -0.149595 126 126 79
-0.466679 0.0334589 -0.148754 127 125 76
-0.466277 0.0357099 -0.148785 124 126 81
-0.465874 0.0379623 -0.148816 125 128 82
-0.464825 0.0399722 -0.147978 126 131 81
-0.464422 0.0422228 -0.148009 132 126 83
-0.464019 0.0444749 -0.14804 132 124 82
-0.46426 0.0469865 -0.14894 128 125 80
-0.458165 0.0469201 -0.141277 130 124 76
-0.452889 0.0471069 -0.134701 126 124 78
-0.451304 0.0487855 -0.133113 127 124 78
-0.450914 0.0509635 -0.133143 127 124 79
-0.449933 0.0528823 -0.132368 127 122 78
-0.448955 0.0547949 -0.131597 126 122 75
-0.445661 0.0556432 -0.127667 129 122 73
-0.445276 0.0577967 -0.127696 124 119 69
-0.446043 0.0604955 -0.129301 122 120 70
-0.446815 0.0632171 -0.130919 121 119 75
-0.44818 0.0662486 -0.133354 122 119 75
-0.447789 0.0684378 -0.133384 124 117 74
-0.446811 0.070333 -0.132609 125 118 71
-0.44642 0.0725206 -0.13264 124 116 74
-0.446028 0.0747096 -0.13267 121 115 77
-0.446805 0.0775185 -0.134314 121 117 75
-0.446999 0.0800347 -0.135156 120 116 75
-0.446604 0.0822412 -0.135187 117 114 76
-0.44504 0.0838018 -0.133597 118 115 75
-0.464437 -0.033224 -0.133549 77 36 19
-0.463438 -0.0311906 -0.132774 79 32 18
-0.463057 -0.0290675 -0.132803 74 26 20
-0.462062 -0.0270437 -0.132031 73 31 15
-0.461071 -0.0250266 -0.131262 77 32 7
-0.460083 -0.0230161 -0.130495 85 50 20
-0.459098 -0.0210122 -0.129732 125 113 62
-0.45872 -0.0188993 -0.129762 129 126 82
-0.458341 -0.0167851 -0.129791 132 129 78
-0.457962 -0.0146696 -0.129821 129 128 78
-0.45879 -0.0122948 -0.13144 129 127 75
-0.459624 -0.00989975 -0.133073 130 130 76
-0.459242 -0.00776319 -0.133103 127 128 80
-0.458859 -0.00562529 -0.133133 126 130 81
-0.458476 -0.00348606 -0.133163 128 129 81
-0.458092 -0.00134542 -0.133193 128 130 79
-0.458926 0.00110995 -0.134839 127 128 78
-0.45854 0.00326188 -0.134869 128 126 79
-0.457546 0.00524958 -0.13409 129 126 78
-0.457161 0.00739995 -0.13412 131 129 77
-0.45557 0.00920529 -0.13254 123 128 80
-0.453991 0.0109977 -0.130973 127 127 82
-0.451835 0.0125994 -0.128631 126 128 78
-0.450286 0.0143635 -0.127094 125 129 81
-0.451073 0.0168529 -0.12869 123 125 80
-0.466169 0.0311574 -0.151241 128 127 76
-0.464472 0.0329519 -0.149525 129 128 78
-0.464069 0.0351983 -0.149556 123 128 81
-0.463667 0.0374462 -0.149588 127 127 79
-0.462624 0.039453 -0.148751 127 125 80
-0.462221 0.0416991 -0.148782 128 130 81
-0.461819 0.0439466 -0.148814 127 129 82
-0.461416 0.0461955 -0.148845 125 125 82
-0.454177 0.0456438 -0.139551 127 120 76
-0.451376 0.0468395 -0.136292 126 125 76
-0.449206 0.0482679 -0.13389 123 126 80
-0.448817 0.0504416 -0.133921 126 122 81
-0.447841 0.0523577 -0.133147 128 122 77
-0.443417 0.0527156 -0.127633 124 121 76
-0.442466 0.0545999 -0.126884 123 121 72
-0.442648 0.0570043 -0.127694 122 122 74
-0.444547 0.0602323 -0.130874 122 121 73
-0.445313 0.062953 -0.132498 121 120 77
-0.446084 0.0656968 -0.134135 122 121 77
-0.446276 0.0681723 -0.134974 124 117 73
-0.445301 0.070068 -0.134197 126 116 73
-0.44491 0.0722558 -0.134227 124 116 75
-0.444518 0.0744449 -0.134258 121 114 76
-0.445288 0.0772528 -0.135909 119 116 77
-0.444894 0.0794536 -0.13594 118 115 76
-0.443918 0.0813377 -0.135159 116 114 78
-0.442371 0.0828957 -0.133576 117 115 76
-0.462332 -0.033581 -0.134307 80 33 13
-0.460727 -0.0316419 -0.13273 82 27 12
-0.460348 -0.0295273 -0.13276 80 28 13
-0.459362 -0.0275105 -0.131991 74 33 17
-0.457777 -0.0256029 -0.130433 69 33 16
-0.456801 -0.0236031 -0.129673 79 49 30
-0.455829 -0.0216099 -0.128916 121 98 59
-0.456047 -0.0193952 -0.129733 129 128 78
-0.455075 -0.0174076 -0.128976 131 128 77
-0.455291 -0.0151819 -0.129793 131 129 79
-0.454913 -0.0130733 -0.129823 130 129 76
-0.455725 -0.0107002 -0.131437 124 130 75
-0.455344 -0.00858053 -0.131467 128 131 76
-0.454369 -0.00659968 -0.130704 128 128 80
-0.453989 -0.00448148 -0.130734 125 129 80
-0.455996 -0.00176406 -0.133958 123 129 77
-0.455613 0.000373757 -0.133988 125 132 79
-0.456434 0.00283255 -0.135635 130 126 77
-0.456049 0.00498163 -0.135665 132 126 80
-0.455663 0.00713208 -0.135696 132 128 77
-0.454676 0.00911089 -0.134917 128 129 80
-0.453692 0.0110832 -0.134141 126 126 84
-0.450942 0.0125127 -0.130977 126 126 81
-0.449975 0.0144616 -0.130217 131 127 76
-0.449593 0.0165892 -0.130247 124 123 80
-0.45515 0.0206519 -0.13833 128 124 79
-0.461636 0.03222 -0.149424 130 126 75
-0.460601 0.0342267 -0.148592 122 126 78
-0.460201 0.0364607 -0.148623 126 125 77
-0.4598 0.0386961 -0.148655 126 123 78
-0.460029 0.0411775 -0.149552 126 125 79
-0.459627 0.0434205 -0.149584 124 127 80
-0.453047 0.0431737 -0.141123 121 125 83
-0.451448 0.044879 -0.139497 126 125 78
-0.448679 0.0460762 -0.136252 125 127 77
-0.445953 0.0472557 -0.133059 123 124 78
-0.444988 0.0491654 -0.132292 123 123 79
-0.441753 0.0500614 -0.128379 124 122 78
-0.440807 0.051946 -0.12763 121 122 78
-0.440986 0.0543392 -0.12844 119 119 75
-0.441165 0.0567431 -0.129254 120 121 77
-0.4442 0.0605153 -0.134046 120 121 78
-0.444967 0.0632481 -0.13569 119 119 77
-0.445156 0.0657173 -0.136533 122 119 74
-0.444764 0.0679067 -0.136564 122 117 71
-0.443791 0.0698031 -0.135784 122 116 73
-0.443399 0.0719909 -0.135815 123 116 74
-0.443006 0.0741801 -0.135847 121 115 75
-0.443191 0.0766783 -0.13669 118 116 76
-0.442797 0.0788748 -0.136721 117 113 75
-0.441254 0.0804412 -0.135132 114 113 76
-0.438032 0.0810536 -0.131168 115 114 72
-0.45902 -0.0341091 -0.133455 79 33 11
-0.457437 -0.0321793 -0.131891 81 26 11
-0.45706 -0.0300772 -0.131921 81 27 12
-0.456085 -0.0280711 -0.131159 73 32 16
-0.454523 -0.0261725 -0.129614 64 35 19
-0.453558 -0.0241833 -0.12886 72 43 28
-0.453183 -0.0220923 -0.128891 116 84 55
-0.452807 -0.02 -0.128921 131 129 80
-0.453017 -0.0177894 -0.129735 126 127 76
-0.45264 -0.0156903 -0.129766 128 127 80
-0.452263 -0.0135899 -0.129796 130 131 79
-0.453061 -0.0112281 -0.131404 125 131 79
-0.453272 -0.00898179 -0.132228 127 130 77
-0.452892 -0.00686487 -0.132258 126 128 78
-0.452511 -0.00474659 -0.132289 125 132 82
-0.452131 -0.00262699 -0.13232 123 130 78
-0.454122 0.000106688 -0.135556 123 132 80
-0.453738 0.00224592 -0.135587 130 128 76
-0.453951 0.00454975 -0.136428 128 128 80
-0.453566 0.00669598 -0.136459 130 128 78
-0.45318 0.00884362 -0.13649 134 127 74
-0.452199 0.0108165 -0.135712 130 125 78
-0.450045 0.0124258 -0.133333 124 126 83
-0.448495 0.0141977 -0.131773 125 127 82
-0.448113 0.0163254 -0.131804 126 125 79
-0.45364 0.0203829 -0.139919 124 126 81
-0.457574 0.0310479 -0.147607 129 128 73
-0.457798 0.0334941 -0.148497 121 126 77
-0.457399 0.035719 -0.148529 119 124 82
-0.457622 0.0381827 -0.149422 126 124 79
-0.457221 0.0404151 -0.149455 125 127 79
-0.456198 0.0424024 -0.148626 122 127 78
-0.450323 0.0424188 -0.141063 122 125 79
-0.449334 0.0443649 -0.140267 126 127 79
-0.446586 0.0455638 -0.137024 123 124 78
-0.443882 0.0467451 -0.133831 124 123 77
-0.440096 0.0474188 -0.129121 120 123 78
-0.439155 0.0493036 -0.128373 120 122 79
-0.438773 0.0514335 -0.128404 119 118 78
-0.43839 0.0535648 -0.128435 119 118 78
-0.439121 0.0562194 -0.130028 120 118 78
-0.442698 0.0602511 -0.135626 119 117 78
-0.444037 0.0632636 -0.138091 121 119 77
-0.443644 0.0654517 -0.138123 120 117 74
-0.443251 0.0676411 -0.138155 116 116 72
-0.441707 0.0692454 -0.13656 119 116 70
-0.441315 0.071429 -0.136592 122 114 69
-0.441495 0.0739153 -0.137435 122 114 71
-0.441676 0.0764131 -0.138282 118 114 75
-0.441281 0.0786096 -0.138314 114 114 76
-0.439744 0.0801772 -0.136719 113 113 75
-0.436537 0.0807922 -0.13274 115 113 68
-0.432462 0.0832334 -0.128093 113 114 72
-0.457922 -0.0364843 -0.134978 75 36 20
-0.455153 -0.0347151 -0.13182 77 30 16
-0.454186 -0.0327105 -0.131062 77 29 19
-0.45381 -0.0306206 -0.131093 77 31 19
-0.453434 -0.0285294 -0.131124 73 33 18
-0.452472 -0.0265368 -0.130368 67 35 27
-0.451513 -0.0245507 -0.129615 71 40 22
-0.451137 -0.0224637 -0.129646 104 77 46
-0.450762 -0.0203754 -0.129677 128 126 82
-0.450386 -0.0182858 -0.129708 127 127 77
-0.45001 -0.0161948 -0.129739 125 127 81
-0.449634 -0.0141025 -0.12977 126 128 78
-0.449836 -0.0118807 -0.130584 126 131 77
-0.450622 -0.00951541 -0.132192 127 127 74
-0.450827 -0.00726869 -0.133017 128 128 76
-0.451033 -0.00501174 -0.133844 129 131 80
-0.450652 -0.00289206 -0.133876 125 129 79
-0.450857 -0.00061926 -0.134707 123 127 80
-0.452246 0.00197888 -0.137157 124 127 81
-0.452456 0.00428228 -0.138001 123 129 82
-0.45207 0.0064286 -0.138032 125 129 80
-0.451091 0.00840502 -0.137251 130 126 74
-0.450115 0.0103749 -0.136473 125 126 76
-0.448559 0.0121608 -0.134895 123 126 78
-0.447015 0.0139338 -0.13333 125 127 80
-0.448959 0.0168047 -0.136568 123 128 81
-0.450934 0.019723 -0.139859 121 127 82
-0.451738 0.0222871 -0.14154 122 129 80
-0.454188 0.0301133 -0.146666 127 125 71
-0.453792 0.0323187 -0.146699 123 126 75
-0.453395 0.0345256 -0.146731 119 123 83
-0.452998 0.036734 -0.146764 123 126 81
-0.452601 0.0389437 -0.146796 120 125 77
-0.449197 0.0399597 -0.142627 122 123 73
-0.448804 0.04215 -0.14266 124 123 80
-0.447227 0.0438527 -0.141035 122 125 81
-0.443349 0.0445676 -0.136174 121 120 77
-0.435696 0.0436061 -0.125993 121 121 76
-0.435317 0.0457128 -0.126024 119 120 77
-0.436029 0.048307 -0.127593 120 121 80
-0.435648 0.0504246 -0.127624 119 117 78
-0.436364 0.0530502 -0.129206 120 119 73
-0.437639 0.0559586 -0.131585 121 118 73
-0.441767 0.0602604 -0.138017 119 117 74
-0.442525 0.0629978 -0.139681 119 117 74
-0.442132 0.0651859 -0.139713 119 117 72
-0.441738 0.0673755 -0.139745 117 116 69
-0.440199 0.0689809 -0.138145 118 114 68
-0.439807 0.0711645 -0.138177 119 113 67
-0.439414 0.0733496 -0.13821 120 112 72
-0.43959 0.0758413 -0.139057 118 112 73
-0.438628 0.0777239 -0.138274 112 113 74
-0.438234 0.0799131 -0.138307 112 113 76
-0.435041 0.0805308 -0.134312 116 112 71
-0.429908 0.0823525 -0.128096 112 113 72
-0.461089 -0.0383156 -0.142225 81 31 12
-0.454064 -0.0370718 -0.133331 80 29 15
-0.451928 -0.0352294 -0.130995 79 32 16
-0.451553 -0.0331489 -0.131026 74 31 20
-0.451179 -0.0310672 -0.131057 73 30 18
-0.450804 -0.0289841 -0.131089 70 35 17
-0.44985 -0.0269983 -0.130337 73 32 16
-0.449475 -0.0249167 -0.130368 69 39 19
-0.4491 -0.0228337 -0.130399 88 70 44
-0.448725 -0.0207494 -0.13043 126 124 76
-0.448349 -0.0186638 -0.130462 131 125 73
-0.447973 -0.0165768 -0.130493 123 129 79
-0.447597 -0.0144885 -0.130524 123 126 80
-0.447221 -0.0123989 -0.130555 127 128 77
-0.447993 -0.0100449 -0.132158 128 126 75
-0.448192 -0.00780795 -0.132979 129 127 76
-0.448971 -0.00541919 -0.1346 129 130 80
-0.449173 -0.00315718 -0.135432 126 130 78
-0.448791 -0.00103604 -0.135463 125 128 78
-0.448992 0.00124184 -0.136298 119 130 83
-0.44978 0.00369104 -0.137945 124 128 78
-0.449395 0.0058289 -0.137977 126 125 78
-0.44901 0.00796815 -0.138009 127 125 76
-0.447458 0.00976218 -0.136426 122 125 81
-0.445918 0.0115434 -0.134855 122 126 77
-0.445535 0.0136698 -0.134886 124 126 79
-0.447467 0.0165387 -0.138138 124 127 80
-0.447664 0.0188762 -0.138983 125 126 79
-0.44904 0.0216196 -0.141474 122 127 80
-0.451031 0.0246033 -0.144831 122 127 78
-0.452446 0.0274236 -0.147394 123 126 78
-0.45205 0.0296232 -0.147427 125 126 74
-0.451654 0.0318243 -0.14746 124 127 75
-0.451862 0.0342538 -0.148343 121 123 82
-0.449061 0.035542 -0.144995 119 123 79
-0.448073 0.0375019 -0.144192 120 120 74
-0.447088 0.0394552 -0.143391 123 121 69
-0.446107 0.0414021 -0.142594 120 124 78
-0.43941 0.0409705 -0.13371 122 122 78
-0.434616 0.041243 -0.127496 123 120 74
-0.431553 0.0421918 -0.12372 122 122 74
-0.431177 0.0442784 -0.123751 122 119 77
-0.432939 0.047322 -0.126823 121 119 77
-0.433098 0.0496727 -0.127622 120 118 74
-0.432718 0.0517836 -0.127654 121 116 71
-0.432338 0.0538958 -0.127685 120 118 72
-0.434671 0.0573121 -0.1316 120 117 72
-0.434287 0.0594476 -0.131632 119 116 73
-0.440619 0.0649201 -0.141303 118 116 72
-0.439085 0.0665341 -0.139698 119 114 68
-0.434227 0.0664244 -0.133304 117 111 67
-0.432747 0.0680036 -0.131761 115 110 67
-0.43074 0.0692866 -0.129453 114 110 72
-0.428226 0.070271 -0.126406 116 109 70
-0.431589 0.0744351 -0.131857 114 109 69
-0.431203 0.0765817 -0.131889 110 109 72
-0.430276 0.0784253 -0.131138 110 106 70
-0.426319 0.080866 -0.126565 106 103 67
-0.459591 -0.0385869 -0.143801 83 39 9
-0.451427 -0.0374942 -0.133286 82 29 13
-0.449892 -0.0355749 -0.131742 82 32 13
-0.449517 -0.0334985 -0.131774 78 32 13
-0.449143 -0.0314207 -0.131806 77 31 10
-0.448768 -0.0293416 -0.131837 73 38 14
-0.448393 -0.0272612 -0.131869 73 32 16
-0.447445 -0.0252813 -0.131117 68 37 23
-0.44707 -0.0232023 -0.131149 79 60 42
-0.446695 -0.021122 -0.131181 125 116 65
-0.44632 -0.0190403 -0.131212 131 123 74
-0.445376 -0.017075 -0.130464 123 127 76
-0.445001 -0.0149947 -0.130495 123 125 77
-0.445193 -0.0127875 -0.131308 125 125 76
-0.445384 -0.0105703 -0.132123 127 127 77
-0.445007 -0.0084779 -0.132155 126 126 76
-0.446342 -0.00596568 -0.134557 127 126 82
-0.447114 -0.00356825 -0.136185 127 129 78
-0.447311 -0.00130112 -0.13702 125 127 77
-0.446928 0.000821452 -0.137052 122 128 81
-0.447125 0.00310445 -0.137891 126 127 77
-0.446741 0.00523394 -0.137923 126 127 78
-0.446357 0.00736476 -0.137955 125 128 78
-0.444821 0.00915419 -0.136379 122 127 81
-0.444438 0.0112793 -0.136411 124 126 76
-0.444055 0.0134058 -0.136443 125 126 78
-0.445395 0.0160869 -0.138895 124 126 78
-0.445587 0.0184189 -0.139741 124 124 77
-0.44578 0.0207615 -0.140589 123 123 79
-0.447144 0.0235178 -0.143091 123 126 79
-0.449716 0.0267286 -0.147304 121 124 77
-0.449321 0.0289195 -0.147338 125 123 75
-0.44833 0.0308925 -0.146528 124 122 75
-0.447935 0.0330818 -0.146561 118 122 80
-0.446359 0.034819 -0.144919 118 123 81
-0.445966 0.0370022 -0.144952 118 122 77
-0.444987 0.0389527 -0.144152 121 122 73
-0.438314 0.0385727 -0.135235 120 122 75
-0.433536 0.038881 -0.128997 121 121 75
-0.430484 0.0398512 -0.125208 123 119 73
-0.430108 0.0419366 -0.125239 123 117 73
-0.429204 0.0437911 -0.124516 124 117 77
-0.429355 0.0461112 -0.125303 121 116 76
-0.430568 0.0489266 -0.12762 117 115 75
-0.431257 0.0515262 -0.12919 117 112 74
-0.430876 0.0536384 -0.129222 118 114 73
-0.431031 0.0560101 -0.130028 118 112 71
-0.431186 0.0583924 -0.130837 115 109 71
-0.431882 0.0610546 -0.132432 109 109 73
-0.431497 0.0631888 -0.132464 106 106 69
-0.429502 0.0644947 -0.130157 104 101 64
-0.425437 0.0646916 -0.124834 102 99 63
-0.425059 0.0667891 -0.124866 97 99 66
-0.424681 0.0688879 -0.124898 100 97 64
-0.426385 0.0721317 -0.127973 102 94 59
-0.430803 0.0769255 -0.135028 97 92 58
-0.428798 0.0781669 -0.132692 93 89 55
-0.424857 0.0806108 -0.128102 87 84 56
-0.449388 -0.0378361 -0.13403 82 28 14
-0.447291 -0.0359999 -0.131704 82 29 9
-0.446918 -0.0339314 -0.131736 81 30 10
-0.447114 -0.0317729 -0.132551 78 30 16
-0.44674 -0.0296978 -0.132583 74 36 17
-0.446365 -0.0276214 -0.132616 69 34 16
-0.445422 -0.0256445 -0.131864 63 37 18
-0.445048 -0.0235695 -0.131896 75 55 35
-0.444673 -0.0214931 -0.131929 125 104 58
-0.444298 -0.0194155 -0.131961 128 125 79
-0.443923 -0.0173365 -0.131993 124 126 78
-0.442985 -0.0153768 -0.131244 122 124 79
-0.44261 -0.0132992 -0.131277 123 123 79
-0.442796 -0.0110916 -0.132089 124 128 78
-0.442419 -0.00900733 -0.132122 126 128 78
-0.443168 -0.00664642 -0.133725 127 126 80
-0.444492 -0.00412198 -0.136136 127 128 79
-0.445255 -0.00171581 -0.137771 123 127 80
-0.445448 0.000556402 -0.13861 124 129 81
-0.445065 0.00268038 -0.138642 124 130 80
-0.444681 0.00480573 -0.138675 125 127 79
-0.443725 0.00676612 -0.137902 123 124 76
-0.443341 0.00888997 -0.137935 124 127 77
-0.442389 0.0108412 -0.137165 122 127 76
-0.442006 0.0129636 -0.137198 125 124 78
-0.443331 0.0156367 -0.139649 126 125 78
-0.443518 0.0179633 -0.140495 126 124 75
-0.444283 0.0204951 -0.142164 123 121 77
-0.445637 0.0232498 -0.144675 121 125 80
-0.447599 0.0262482 -0.148059 121 125 78
-0.446614 0.0282214 -0.14725 124 122 74
-0.446219 0.0304049 -0.147284 122 120 76
-0.445238 0.0323685 -0.146478 116 120 81
-0.44426 0.0343256 -0.145676 119 120 81
-0.44445 0.0367337 -0.146546 119 119 80
-0.443474 0.0386848 -0.145743 121 119 77
-0.434628 0.0374085 -0.133621 119 119 74
-0.431541 0.0383991 -0.129758 119 118 74
-0.428513 0.0393722 -0.125969 122 115 72
-0.428137 0.0414536 -0.126001 122 113 70
-0.427761 0.0435364 -0.126033 116 113 72
-0.427909 0.0458561 -0.126824 109 108 71
-0.430177 0.0491577 -0.130694 101 104 69
-0.429796 0.0512687 -0.130726 98 101 65
-0.429414 0.0533811 -0.130759 98 98 63
-0.429033 0.0554948 -0.130792 97 95 64
-0.429183 0.0578715 -0.131601 93 90 63
-0.428801 0.059992 -0.131634 88 87 62
-0.427358 0.0615753 -0.130116 84 85 61
-0.423851 0.0620748 -0.125567 83 82 54
-0.423474 0.064167 -0.1256 83 80 48
-0.423096 0.0662606 -0.125632 78 78 50
-0.423231 0.0686342 -0.126421 78 77 52
-0.429466 0.079129 -0.137423 75 71 40
-0.423914 0.08066 -0.130411 70 68 45
-0.447357 -0.0381767 -0.134772 80 27 13
-0.445275 -0.036342 -0.132446 77 27 10
-0.444902 -0.0342775 -0.132479 79 29 10
-0.444529 -0.0322117 -0.132511 77 30 24
-0.44472 -0.0300526 -0.133327 73 34 23
-0.444345 -0.0279802 -0.133359 69 32 17
-0.443407 -0.0260064 -0.132609 66 35 11
-0.443033 -0.0239353 -0.132641 79 50 26
-0.442659 -0.0218629 -0.132674 118 92 57
-0.442284 -0.0197892 -0.132706 125 123 80
-0.441351 -0.0178298 -0.131958 126 125 76
-0.440422 -0.0158768 -0.131213 124 127 77
-0.440048 -0.0138071 -0.131246 124 128 79
-0.440227 -0.0116089 -0.132056 123 129 81
-0.439852 -0.00953265 -0.132089 126 129 78
-0.440587 -0.00718291 -0.133686 125 127 77
-0.441327 -0.00481346 -0.135295 126 126 78
-0.44264 -0.00227679 -0.137717 123 128 80
-0.442826 -1.45502e-05 -0.138553 129 125 78
-0.442443 0.00210117 -0.138586 126 126 78
-0.442061 0.00421821 -0.138619 128 128 77
-0.441678 0.00633662 -0.138652 123 125 76
-0.441295 0.0084564 -0.138685 124 125 79
-0.440348 0.0104047 -0.137916 122 128 78
-0.439965 0.012523 -0.137949 123 122 77
-0.440144 0.0148238 -0.138785 125 121 78
-0.4426 0.0178868 -0.142882 125 125 77
-0.443941 0.0206191 -0.145393 123 121 79
-0.445298 0.0233858 -0.147934 122 122 78
-0.445491 0.0257698 -0.148811 121 125 78
-0.444511 0.0277399 -0.148003 120 122 73
-0.443535 0.0297037 -0.147197 120 118 77
-0.443142 0.0318798 -0.147232 117 115 80
-0.442169 0.0338341 -0.14643 118 114 77
-0.441776 0.0360087 -0.146464 115 112 78
-0.433542 0.0350305 -0.135133 115 111 76
-0.430465 0.0360428 -0.131256 109 109 73
-0.42797 0.0372563 -0.128214 105 104 72
-0.42707 0.0391173 -0.127485 104 99 69
-0.426694 0.0411988 -0.127518 102 96 62
-0.426318 0.0432816 -0.127551 92 93 62
-0.426462 0.0456009 -0.128345 87 88 61
-0.429248 0.049145 -0.133009 82 84 54
-0.428866 0.0512601 -0.133043 77 82 51
-0.428483 0.0533767 -0.133076 76 78 49
-0.4281 0.0554946 -0.133109 74 75 52
-0.427717 0.0576138 -0.133142 74 73 46
-0.427334 0.0597344 -0.133176 72 70 46
-0.423814 0.0602558 -0.128575 70 67 47
-0.421895 0.0615561 -0.12633 69 68 42
-0.421518 0.0636444 -0.126363 69 67 37
-0.42114 0.065734 -0.126396 69 65 36
-0.421271 0.0681022 -0.127185 69 64 36
-0.423488 0.0810158 -0.13351 62 58 37
-0.445902 -0.0384401 -0.136302 77 31 12
-0.443828 -0.0366038 -0.133969 75 30 11
-0.442894 -0.0346223 -0.133219 77 29 13
-0.443081 -0.0324733 -0.134035 77 30 24
-0.442707 -0.0304061 -0.134067 73 33 24
-0.442333 -0.0283376 -0.1341 70 35 20
-0.4414 -0.0263669 -0.13335 69 31 16
-0.440471 -0.0244024 -0.132603 79 41 25
-0.440098 -0.022338 -0.132636 106 77 53
-0.439724 -0.0202722 -0.132669 123 122 81
-0.438799 -0.0183194 -0.131924 127 124 76
-0.437877 -0.0163728 -0.131183 123 125 75
-0.437504 -0.0143111 -0.131216 128 127 78
-0.437131 -0.0122481 -0.131249 124 127 81
-0.437303 -0.010054 -0.132056 123 128 79
-0.438025 -0.00771527 -0.133647 124 127 76
-0.4382 -0.0054969 -0.134464 125 125 74
-0.439485 -0.00297905 -0.136867 122 128 81
-0.439664 -0.000731385 -0.137697 128 123 80
-0.439842 0.00152644 -0.13853 124 125 81
-0.440022 0.00379447 -0.139366 127 126 78
-0.439639 0.00590881 -0.1394 123 127 76
-0.439256 0.00802449 -0.139433 121 126 82
-0.437758 0.0097989 -0.137865 121 125 80
-0.437377 0.011909 -0.137898 122 121 76
-0.437549 0.0141997 -0.138732 122 117 75
-0.441678 0.0178101 -0.145279 124 120 75
-0.442438 0.0203515 -0.146974 125 120 78
-0.444369 0.0233193 -0.150371 121 119 76
-0.443391 0.0252931 -0.14956 118 116 76
-0.442417 0.0272604 -0.148752 111 116 73
-0.441446 0.0292212 -0.147948 109 111 74
-0.441053 0.0313931 -0.147982 108 104 75
-0.44066 0.0335664 -0.148017 102 101 70
-0.430301 0.0318021 -0.133498 97 96 65
-0.428858 0.0334736 -0.131977 93 92 64
-0.42638 0.0347032 -0.128936 89 88 63
-0.425485 0.0365642 -0.128208 83 84 63
-0.425109 0.0386404 -0.128241 80 80 62
-0.424733 0.0407181 -0.128274 77 77 54
-0.424874 0.0430268 -0.129069 73 74 47
-0.424497 0.0451111 -0.129102 73 72 49
-0.427784 0.0488869 -0.134549 71 68 48
-0.427401 0.0510021 -0.134583 69 67 41
-0.427018 0.0531187 -0.134616 68 66 37
-0.426635 0.0552367 -0.13465 67 65 40
-0.426251 0.057356 -0.134684 67 65 36
-0.423259 0.0581631 -0.130834 67 63 37
-0.421339 0.0594767 -0.128573 67 63 38
-0.420452 0.061303 -0.127847 66 62 38
-0.420075 0.0633914 -0.12788 64 60 37
-0.419696 0.0654811 -0.127913 66 59 33
-0.419824 0.0678488 -0.128706 68 60 27
-0.442942 -0.0367868 -0.13628 78 31 10
-0.442007 -0.034801 -0.135525 78 29 15
-0.441076 -0.0328216 -0.134772 77 30 20
-0.440702 -0.0307583 -0.134806 74 30 21
-0.439774 -0.0287879 -0.134056 70 36 21
-0.439401 -0.026726 -0.134089 68 32 20
-0.439027 -0.0246628 -0.134123 73 38 29
-0.438103 -0.022704 -0.133376 92 69 50
-0.437183 -0.0207516 -0.132632 123 123 79
-0.435185 -0.0190298 -0.130351 127 124 78
-0.433742 -0.0172117 -0.128857 124 123 78
-0.433372 -0.0151696 -0.12889 125 126 78
-0.433535 -0.0130033 -0.129685 121 124 82
-0.435315 -0.0104425 -0.132799 122 126 82
-0.434941 -0.00837681 -0.132832 124 125 77
-0.435108 -0.00617248 -0.133643 123 127 76
-0.435276 -0.00395834 -0.134457 123 125 78
-0.436538 -0.00143987 -0.136851 126 126 79
-0.437816 0.00110951 -0.139274 124 124 81
-0.43799 0.00337233 -0.14011 125 124 79
-0.437608 0.00548259 -0.140144 123 123 79
-0.436671 0.00742788 -0.139376 119 121 80
-0.435738 0.00936693 -0.13861 123 119 78
-0.435356 0.011473 -0.138644 121 114 74
-0.436076 0.0139371 -0.140281 116 112 71
-0.443642 0.0186919 -0.151895 113 114 73
-0.443248 0.02087 -0.151931 107 109 75
-0.442853 0.0230496 -0.151966 103 103 73
-0.441877 0.025024 -0.151152 101 99 64
-0.440331 0.0267828 -0.149499 90 97 61
-0.439938 0.0289534 -0.149534 87 93 63
-0.439544 0.0311254 -0.149569 88 86 63
-0.429224 0.0294448 -0.134997 81 82 60
-0.424656 0.0298838 -0.12886 78 79 47
-0.424281 0.0319522 -0.128893 72 77 53
-0.424421 0.0342346 -0.129688 70 74 55
-0.423531 0.036093 -0.12896 68 72 49
-0.423156 0.0381654 -0.128994 71 68 45
-0.42278 0.0402391 -0.129027 69 65 43
-0.42343 0.042772 -0.130587 68 62 33
-0.423568 0.0450905 -0.131388 67 63 36
-0.426319 0.0486287 -0.136089 65 61 43
-0.425936 0.0507441 -0.136123 66 61 34
-0.425552 0.0528607 -0.136157 68 59 24
-0.424122 0.0544677 -0.134623 68 60 26
-0.422186 0.0558075 -0.132328 66 57 27
-0.420782 0.0573905 -0.130823 66 57 32
-0.419894 0.059223 -0.130092 66 58 35
-0.418506 0.0607866 -0.128605 65 55 33
-0.418128 0.0628711 -0.128638 63 51 32
-0.41775 0.064957 -0.128672 62 50 30
-0.418377 0.0675954 -0.130227 61 51 29
-0.441117 -0.0349804 -0.13784 77 33 14
-0.43963 -0.0330827 -0.136293 77 31 17
-0.438704 -0.0311091 -0.135541 76 30 16
-0.437782 -0.0291418 -0.134792 75 30 16
-0.437408 -0.0270838 -0.134826 73 30 14
-0.437035 -0.0250245 -0.134859 69 36 25
-0.434495 -0.023381 -0.131791 82 61 47
-0.433589 -0.0214421 -0.131056 123 116 71
-0.432154 -0.0196195 -0.129562 129 124 77
-0.431257 -0.0176962 -0.128836 125 126 78
-0.430888 -0.0156618 -0.128869 122 128 77
-0.431045 -0.0135046 -0.129662 120 124 82
-0.431733 -0.0112115 -0.131224 120 122 83
-0.433498 -0.0086356 -0.13435 123 124 77
-0.433123 -0.00656844 -0.134384 123 125 78
-0.433826 -0.00421799 -0.135982 125 122 75
-0.433991 -0.00199435 -0.136803 124 123 76
-0.434701 0.000390282 -0.13842 124 119 74
-0.435416 0.00279489 -0.140049 123 120 76
-0.435585 0.00505804 -0.140886 120 115 76
-0.435202 0.00716559 -0.140921 113 110 77
-0.434271 0.00910523 -0.140153 113 109 72
-0.433889 0.0112113 -0.140187 105 101 68
-0.44369 0.0166243 -0.155168 96 97 66
-0.443293 0.0188099 -0.155203 90 96 63
-0.442897 0.020997 -0.155239 84 90 65
-0.441337 0.0227799 -0.153561 78 84 63
-0.440941 0.0249609 -0.153596 78 81 56
-0.438822 0.0265148 -0.151086 71 78 47
-0.438429 0.0286855 -0.151121 72 74 50
-0.432455 0.0287308 -0.142884 73 70 54
-0.42411 0.0277625 -0.1311 71 68 47
-0.423221 0.0296294 -0.13037 67 69 39
-0.422845 0.0316979 -0.130404 65 67 46
-0.422982 0.0339798 -0.131202 65 65 44
-0.422094 0.0358388 -0.130471 67 66 33
-0.421718 0.0379113 -0.130505 70 62 27
-0.421342 0.0399851 -0.130539 69 56 34
-0.421986 0.0425171 -0.132105 67 56 26
-0.424191 0.0457791 -0.13602 63 58 28
-0.424854 0.0483706 -0.137629 60 56 33
-0.424471 0.050486 -0.137663 61 55 27
-0.423044 0.0521008 -0.136124 63 49 17
-0.421628 0.0537046 -0.134597 64 50 18
-0.420223 0.0552974 -0.133081 63 44 19
-0.419334 0.0571361 -0.132345 61 42 24
-0.418449 0.0589692 -0.131611 57 42 23
-0.417066 0.060534 -0.130119 55 40 21
-0.416688 0.0626185 -0.130153 50 36 20
-0.416309 0.0647044 -0.130187 48 34 19
-0.41693 0.067342 -0.131749 45 31 18
-0.438185 -0.033344 -0.137814 78 34 10
-0.436714 -0.0314586 -0.136274 78 32 11
-0.436341 -0.0294019 -0.136308 79 27 12
-0.435967 -0.0273438 -0.136342 76 27 12
-0.433435 -0.0256838 -0.133263 70 32 20
-0.431999 -0.023844 -0.131758 80 53 39
-0.430573 -0.022017 -0.130264 125 104 62
-0.42968 -0.020094 -0.129538 128 124 75
-0.42879 -0.0181771 -0.128816 122 125 78
-0.428422 -0.0161503 -0.128849 120 126 77
-0.428574 -0.0140021 -0.12964 120 124 78
-0.429249 -0.0117196 -0.131196 118 121 81
-0.43152 -0.00902614 -0.135088 122 121 75
-0.43168 -0.0068272 -0.135902 121 120 77
-0.432377 -0.00447767 -0.137507 120 116 75
-0.432538 -0.00225447 -0.138331 113 114 75
-0.432699 -2.13077e-05 -0.139159 110 112 68
-0.433405 0.00237712 -0.140789 109 105 67
-0.433569 0.0046351 -0.141626 105 97 66
-0.434832 0.00723449 -0.144087 94 90 68
-0.434447 0.00935174 -0.144122 88 91 61
-0.434063 0.0114704 -0.144157 82 81 57
-0.441374 0.020726 -0.15684 70 71 51
-0.440977 0.0229146 -0.156877 66 70 55
-0.439424 0.0246912 -0.155192 63 69 59
-0.437314 0.0262468 -0.152672 63 66 48
-0.431362 0.0263387 -0.144404 67 65 42
-0.427749 0.0272348 -0.139612 68 63 44
-0.423185 0.0277082 -0.133382 69 62 34
-0.422296 0.0295787 -0.132646 67 60 33
-0.422431 0.0318598 -0.133451 66 56 40
-0.422567 0.0341509 -0.134258 66 60 37
-0.421676 0.0360167 -0.13352 65 58 26
-0.421298 0.0380972 -0.133554 64 55 23
-0.42092 0.040179 -0.133589 61 51 27
-0.421052 0.0424914 -0.134397 55 49 22
-0.422732 0.0455218 -0.137554 52 45 20
-0.422869 0.0478696 -0.138378 50 40 21
-0.422485 0.049981 -0.138413 47 38 18
-0.420555 0.0513467 -0.136092 45 33 14
-0.418646 0.0526981 -0.133797 44 29 15
-0.418267 0.0547892 -0.133832 43 24 18
-0.417383 0.0566255 -0.133096 41 20 14
-0.416503 0.0584562 -0.132363 34 20 7
-0.415625 0.0602812 -0.131633 30 17 8
-0.415247 0.0623658 -0.131668 25 14 10
-0.414868 0.0644518 -0.131702 22 14 5
-0.415483 0.0670885 -0.13327 21 14 3
-0.437839 -0.0334349 -0.140928 80 35 7
-0.435817 -0.0316305 -0.138578 78 32 9
-0.434899 -0.029662 -0.137824 77 29 11
-0.434525 -0.0276038 -0.137859 75 29 15
-0.430943 -0.0261381 -0.133224 70 30 21
-0.429521 -0.0243036 -0.131725 79 47 33
-0.42863 -0.0223775 -0.130997 119 90 55
-0.427742 -0.0204574 -0.130272 126 120 73
-0.427373 -0.0184318 -0.130306 120 119 78
-0.427005 -0.016405 -0.13034 120 119 78
-0.426636 -0.0143768 -0.130374 119 118 75
-0.427822 -0.0119756 -0.132696 115 115 73
-0.43008 -0.00928452 -0.136603 111 107 68
-0.431304 -0.00681401 -0.138997 104 106 68
-0.432002 -0.00445523 -0.14062 100 101 68
-0.431623 -0.0023692 -0.140655 92 96 66
-0.431243 -0.000281866 -0.140691 87 93 59
-0.431402 0.00196089 -0.141525 86 84 59
-0.432103 0.00437313 -0.143168 82 78 58
-0.433357 0.00697108 -0.145638 76 74 55
-0.432972 0.00908842 -0.145674 70 73 50
-0.437906 0.0244214 -0.156788 62 60 54
-0.427582 0.022962 -0.141879 62 59 46
-0.427199 0.0250695 -0.141915 60 61 41
-0.426286 0.0269753 -0.14115 62 57 32
-0.421744 0.0274527 -0.134897 66 56 25
-0.420857 0.0293238 -0.134159 63 51 27
-0.421501 0.0318133 -0.135743 55 42 32
-0.422666 0.0345384 -0.138123 51 45 34
-0.422285 0.0366337 -0.138159 47 42 28
-0.419855 0.0378421 -0.135072 42 33 26
-0.419476 0.039924 -0.135107 39 33 17
-0.419605 0.042236 -0.135919 33 28 11
-0.419225 0.0443246 -0.135954 32 20 7
-0.420376 0.0471301 -0.138336 32 18 6
-0.416954 0.0477862 -0.133704 27 14 5
-0.416576 0.0498669 -0.13374 23 14 6
-0.416197 0.0519489 -0.133775 21 11 6
-0.415818 0.0540322 -0.13381 18 9 10
-0.415439 0.0561168 -0.133845 17 6 9
-0.414069 0.0576882 -0.132348 15 9 3
-0.413199 0.0595079 -0.131621 12 7 6
-0.412821 0.0615847 -0.131656 12 2 8
-0.412443 0.0636629 -0.131691 11 4 4
-0.412065 0.0657424 -0.131726 8 5 1
-0.441234 -0.0351093 -0.14894 77 31 20
-0.43749 -0.0335265 -0.144066 76 32 18
-0.434917 -0.031803 -0.140892 75 31 12
-0.433458 -0.0299222 -0.139341 72 33 11
-0.433083 -0.027864 -0.139376 70 32 16
-0.429517 -0.0263952 -0.134724 69 32 21
-0.42758 -0.0246599 -0.132455 76 43 30
-0.427211 -0.022633 -0.13249 100 74 47
-0.426325 -0.0207123 -0.131762 116 113 70
-0.425956 -0.0186866 -0.131797 112 109 71
-0.425587 -0.0166597 -0.131831 110 105 71
-0.425732 -0.0145123 -0.132629 107 101 67
-0.426396 -0.0122316 -0.134197 96 95 64
-0.429168 -0.00941219 -0.138905 87 87 58
-0.430926 -0.00680075 -0.142116 80 85 56
-0.431624 -0.00443261 -0.143758 77 82 59
-0.431243 -0.00233841 -0.143794 74 76 48
-0.430323 -0.000392969 -0.143025 76 74 38
-0.430479 0.00185405 -0.143866 70 71 47
-0.436709 0.00590075 -0.153814 69 66 50
-0.435196 0.00771088 -0.152166 69 66 45
