ply
format ascii 1.0
element vertex 1278
property float x
property float y
property float z
property uchar diffuse_red
property uchar diffuse_green
property uchar diffuse_blue
end_header
-0.744733 -0.029298 0.195768 85 111 108
-0.746221 -0.0265159 0.195498 84 107 107
-0.747716 -0.023721 0.195226 88 107 106
-0.74922 -0.0209133 0.194953 92 110 107
-0.750731 -0.0180925 0.194678 95 111 105
-0.75225 -0.0152587 0.194402 93 109 104
-0.752063 -0.012468 0.194441 91 104 102
-0.75359 -0.00961518 0.194164 90 103 99
-0.755125 -0.00674909 0.193885 95 104 96
-0.756668 -0.00386953 0.193604 95 101 93
-0.75648 -0.001063 0.193644 90 99 94
-0.756293 0.00174203 0.193683 96 111 105
-0.756105 0.00454555 0.193722 116 111 98
-0.757655 0.00745615 0.19344 135 119 95
-0.781538 0.058625 0.189111 124 104 88
-0.720472 0.0664083 0.200407 111 105 93
-0.721862 0.0693014 0.200155 101 99 93
-0.723259 0.0722077 0.199901 108 112 101
-0.724664 0.0751271 0.199646 116 117 103
-0.726075 0.0780596 0.19939 103 99 90
-0.729098 0.0812958 0.198837 85 78 74
-0.72892 0.0839649 0.198875 77 69 63
-0.750345 0.0907241 0.194927 76 71 62
-0.751883 0.0938141 0.194648 72 65 57
-0.756918 0.0976091 0.193724 80 64 52
-0.760256 0.101104 0.193113 94 81 63
-0.761845 0.104266 0.192825 97 84 63
-0.765237 0.107822 0.192204 96 82 63
-0.759696 0.109487 0.19323 96 79 61
-0.755989 0.111508 0.193918 95 78 62
-0.75232 0.113506 0.194599 95 79 62
-0.750409 0.115872 0.194956 93 77 61
-0.746798 0.117829 0.195627 92 75 60
-0.746615 0.120564 0.195665 92 75 60
-0.746433 0.123297 0.195703 89 74 59
-0.742862 0.125201 0.196366 83 71 58
-0.740999 0.1275 0.196714 81 70 57
-0.739147 0.129786 0.19706 83 71 56
-0.738966 0.132485 0.197098 86 71 54
-0.742136 0.136059 0.196518 87 71 55
-0.75048 0.141034 0.194984 86 72 57
-0.762611 0.147102 0.192753 85 71 57
-0.771503 0.152385 0.191119 82 67 55
-0.773159 0.155729 0.190818 77 64 52
-0.774823 0.159091 0.190516 75 65 50
-0.774633 0.161934 0.190556 81 69 54
-0.77259 0.164237 0.190937 85 69 56
-0.772401 0.167069 0.190977 85 71 57
-0.770369 0.169349 0.191356 87 71 55
-0.766527 0.171062 0.192069 86 72 55
-0.760934 0.172202 0.193104 86 72 56
-0.755429 0.173324 0.194123 87 72 57
-0.750011 0.174426 0.195126 87 72 55
-0.749828 0.177161 0.195164 84 71 54
-0.74792 0.179334 0.19552 83 71 55
-0.746023 0.181494 0.195874 84 70 54
-0.745841 0.18421 0.195912 78 67 54
-0.743954 0.18635 0.196264 71 61 47
-0.743773 0.189056 0.196302 72 61 47
-0.740209 0.19059 0.196963 78 65 51
-0.740029 0.19328 0.197001 81 67 52
-0.736502 0.194782 0.197655 80 68 55
-0.728108 0.194507 0.199205 81 68 56
-0.723104 0.195392 0.200131 82 67 54
-0.719751 0.196841 0.200753 81 68 55
-0.716433 0.198275 0.201368 81 70 56
-0.71626 0.200862 0.201405 82 69 55
-0.716087 0.203449 0.201441 84 65 52
-0.717481 0.206636 0.201188 83 67 54
-0.717308 0.209225 0.201225 80 68 56
-0.718709 0.212432 0.200971 79 66 53
-0.720118 0.215654 0.200716 80 64 51
-0.719944 0.218253 0.200752 80 65 52
-0.718189 0.220209 0.20108 81 63 48
-0.716444 0.222155 0.201405 81 63 47
-0.716271 0.224737 0.201442 79 64 48
-0.714535 0.226663 0.201765 77 64 49
-0.714363 0.229236 0.201801 77 64 49
-0.714191 0.231808 0.201837 78 63 45
-0.712465 0.233708 0.202159 76 64 44
-0.710747 0.235597 0.20248 75 64 44
-0.707507 0.236804 0.20308 76 63 42
-0.705814 0.238669 0.203396 77 61 42
-0.705645 0.241202 0.203432 76 61 39
-0.703961 0.243049 0.203746 77 60 37
-0.703793 0.245573 0.203781 77 59 38
-0.700619 0.246712 0.204369 75 59 40
-0.70195 0.249918 0.204129 74 60 39
-0.701782 0.252432 0.204164 74 60 41
-0.694198 0.251436 0.205563 74 60 42
-0.683951 0.249103 0.207453 73 60 43
-0.68852 0.26904 0.206641 71 58 37
-0.686919 0.270758 0.20694 72 58 34
-0.686756 0.273204 0.206974 70 58 35
-0.686593 0.275649 0.207008 70 56 35
-0.686429 0.278092 0.207042 71 53 33
-0.684838 0.279779 0.207339 70 55 33
-0.684675 0.282214 0.207373 70 53 32
-0.683091 0.283885 0.207668 68 50 30
-0.682929 0.286312 0.207702 62 45 30
-0.682767 0.288737 0.207736 62 42 30
-0.682605 0.291161 0.20777 63 43 30
-0.682443 0.293584 0.207804 65 49 29
-0.682281 0.296005 0.207838 63 48 28
-0.680708 0.297632 0.208131 63 47 28
-0.679142 0.299249 0.208423 63 46 31
-0.678981 0.301656 0.208457 63 47 29
-0.67882 0.304061 0.208491 61 47 28
-0.680063 0.307278 0.208266 59 45 26
-0.755765 0.387851 0.194411 52 35 24
-0.757386 0.391711 0.194118 52 35 23
-0.759016 0.395591 0.193823 52 37 22
-0.758834 0.398312 0.193861 52 37 21
-0.795022 0.424728 0.187219 51 35 21
-0.79483 0.427594 0.187259 50 34 20
-0.794639 0.430459 0.187299 49 34 20
-0.780608 0.424129 0.189881 49 33 21
-0.78042 0.426935 0.18992 47 33 22
-0.780233 0.429739 0.189959 46 34 23
-0.738304 -0.0732009 0.194182 105 118 105
-0.736493 -0.0703587 0.194528 88 100 95
-0.734692 -0.0675322 0.194873 85 96 91
-0.734509 -0.0647978 0.194912 94 107 97
-0.735944 -0.0621347 0.194645 101 113 104
-0.735762 -0.0593963 0.194684 103 115 106
-0.733963 -0.0566031 0.195029 103 116 108
-0.738653 -0.0540234 0.194147 103 115 109
-0.748437 -0.0515379 0.192302 100 115 111
-0.751641 -0.0488241 0.191701 99 117 111
-0.753161 -0.0460531 0.191419 97 119 112
-0.752974 -0.0432459 0.191459 101 121 115
-0.75108 -0.0404241 0.191821 97 116 112
-0.749196 -0.0376183 0.192181 91 114 112
-0.747322 -0.0348284 0.19254 89 111 111
-0.747136 -0.0320487 0.19258 87 111 110
-0.746951 -0.0292704 0.192619 85 109 108
-0.746766 -0.0264937 0.192659 87 107 106
-0.748267 -0.0236914 0.19238 89 106 104
-0.749776 -0.0208761 0.192099 91 107 106
-0.751293 -0.0180478 0.191817 94 109 105
-0.751106 -0.0152554 0.191857 94 108 104
-0.752631 -0.0124082 0.191573 91 105 102
-0.752444 -0.00961157 0.191613 91 104 99
-0.752258 -0.00681647 0.191653 97 105 96
-0.753789 -0.00394438 0.191368 99 103 93
-0.753603 -0.00114495 0.191408 91 98 94
-0.755142 0.00174641 0.191122 92 106 101
-0.754955 0.00455016 0.191162 117 109 96
-0.754768 0.0073524 0.191202 137 117 95
-0.781311 0.0441285 0.186246 154 123 95
-0.781118 0.0470325 0.186287 153 124 97
-0.780924 0.0499351 0.186329 152 126 99
-0.78073 0.0528361 0.18637 149 126 98
-0.780537 0.0557355 0.186411 132 115 98
-0.780343 0.0586334 0.186453 127 103 84
-0.723744 0.0724829 0.197168 106 109 99
-0.725153 0.0754104 0.196907 111 115 99
-0.728172 0.0786348 0.196342 100 99 87
-0.749572 0.0852167 0.192309 84 79 73
-0.751108 0.0882954 0.192024 78 70 65
-0.750923 0.0910608 0.192063 77 72 64
-0.754204 0.0944969 0.191449 73 67 58
-0.755765 0.09762 0.191159 80 66 50
-0.757334 0.100758 0.190868 94 81 62
-0.758911 0.103911 0.190575 98 83 65
-0.758724 0.106706 0.190615 98 82 63
-0.755023 0.108743 0.191317 97 80 61
-0.75136 0.110757 0.192013 96 77 62
-0.749451 0.113132 0.192377 94 78 61
-0.745845 0.115104 0.193062 93 77 60
-0.740598 0.116665 0.194056 91 74 59
-0.737084 0.118592 0.194723 87 71 57
-0.733607 0.120497 0.195383 74 63 51
-0.730164 0.122381 0.196036 58 51 43
-0.726757 0.124246 0.196683 59 56 44
-0.721798 0.125688 0.197622 75 67 51
-0.718475 0.127509 0.198253 82 68 51
-0.718301 0.130127 0.19829 83 69 54
-0.740827 0.138784 0.194048 83 70 56
-0.763242 0.147601 0.189827 81 68 56
-0.772167 0.152905 0.18815 77 65 55
-0.773829 0.15626 0.187841 76 64 52
-0.773639 0.159106 0.187882 79 67 51
-0.773449 0.161949 0.187922 84 69 55
-0.77141 0.164252 0.188311 87 70 55
-0.77122 0.167085 0.188352 86 70 56
-0.771031 0.169916 0.188392 87 72 56
-0.769004 0.172187 0.188779 86 72 56
-0.76517 0.173883 0.189506 86 72 57
-0.759587 0.175 0.190562 88 72 57
-0.757623 0.177217 0.190937 88 71 55
-0.757438 0.179988 0.190976 86 70 54
-0.751976 0.181041 0.19201 85 70 55
-0.751793 0.183787 0.192049 82 71 55
-0.75161 0.186533 0.192088 75 65 50
-0.749688 0.188688 0.192455 70 60 46
-0.747776 0.190831 0.192819 73 62 50
-0.747594 0.193558 0.192858 80 66 52
-0.743982 0.195079 0.193543 82 68 50
-0.7421 0.197185 0.193902 81 68 54
-0.733548 0.196877 0.195517 82 68 55
-0.723607 0.195991 0.197394 83 67 55
-0.718662 0.196859 0.19833 82 68 55
-0.715348 0.198292 0.198958 82 68 57
-0.715176 0.20088 0.198995 82 67 57
-0.715003 0.203466 0.199032 82 66 55
-0.714831 0.206051 0.199068 81 69 54
-0.714658 0.208635 0.199105 79 68 55
-0.71605 0.211832 0.198847 78 67 53
-0.717448 0.215045 0.198588 79 66 51
-0.717275 0.217637 0.198625 80 64 49
-0.717102 0.220228 0.198662 80 62 46
-0.71536 0.222174 0.198995 80 63 49
-0.715187 0.224756 0.199031 79 64 48
-0.715015 0.227337 0.199068 79 64 46
-0.714843 0.229916 0.199105 80 62 44
-0.713111 0.231827 0.199435 79 63 44
-0.711387 0.233728 0.199764 75 63 46
-0.709672 0.235617 0.200091 75 62 44
-0.707966 0.237496 0.200416 75 61 42
-0.706268 0.239364 0.20074 74 61 43
-0.704579 0.241222 0.201062 75 60 39
-0.70441 0.243754 0.201098 76 60 37
-0.70273 0.245594 0.201419 76 60 37
-0.701058 0.247423 0.201737 75 60 38
-0.70089 0.249939 0.201773 74 59 40
-0.700722 0.252453 0.201809 74 60 40
-0.693152 0.251457 0.203238 73 61 40
-0.682923 0.249124 0.205166 72 61 40
-0.688926 0.269795 0.204066 69 58 39
-0.685886 0.27078 0.204642 70 57 36
-0.685722 0.273226 0.204676 69 57 35
-0.685559 0.275671 0.204711 70 55 34
-0.685396 0.278114 0.204746 71 53 33
-0.683807 0.279802 0.205049 69 53 34
-0.683645 0.282237 0.205084 69 52 33
-0.683482 0.284671 0.205118 65 49 31
-0.68332 0.287103 0.205153 55 39 29
-0.683158 0.289535 0.205187 58 43 31
-0.682996 0.291965 0.205222 62 47 30
-0.682834 0.294394 0.205257 68 52 28
-0.682672 0.296821 0.205291 66 49 24
-0.681094 0.29845 0.205592 65 48 26
-0.680932 0.300869 0.205626 64 47 29
-0.679362 0.302481 0.205925 63 46 29
-0.6778 0.304085 0.206223 62 46 29
-0.67764 0.306489 0.206257 61 46 29
-0.677479 0.308892 0.206292 62 43 26
-0.680126 0.312947 0.205798 62 41 28
-0.679965 0.315359 0.205832 61 40 29
-0.681217 0.318613 0.205601 60 42 27
-0.682476 0.321883 0.205369 59 43 25
-0.740735 0.376294 0.19445 55 34 22
-0.740558 0.378947 0.194488 53 35 23
-0.752641 0.389445 0.192222 52 37 23
-0.754249 0.393298 0.191924 53 38 22
-0.755867 0.39717 0.191625 51 38 23
-0.757493 0.401063 0.191324 49 37 24
-0.766495 0.409814 0.189637 48 35 21
-0.775748 0.418809 0.187903 48 34 20
-0.766127 0.415322 0.189716 48 34 19
-0.765944 0.418074 0.189755 47 33 20
-0.76576 0.420825 0.189794 45 32 20
-0.733395 -0.064798 0.192431 92 105 96
-0.749192 -0.0292427 0.189438 85 106 108
-0.749006 -0.0264514 0.189478 89 108 105
-0.750521 -0.0236343 0.18919 87 105 103
-0.752044 -0.0208041 0.1889 89 106 104
-0.751857 -0.0180028 0.188941 92 107 105
-0.751671 -0.015203 0.188981 92 107 104
-0.751485 -0.0124048 0.189022 90 106 100
-0.751298 -0.00960796 0.189062 91 106 99
-0.751112 -0.00681263 0.189103 98 106 96
-0.752641 -0.00394035 0.188812 102 103 93
-0.752454 -0.00114073 0.188853 92 98 92
-0.752268 0.00165739 0.188893 91 102 96
-0.752082 0.004454 0.188933 119 110 95
-0.753618 0.00735719 0.188642 139 119 96
-0.780696 0.035414 0.183457 155 129 101
-0.780502 0.0383228 0.183499 154 129 101
-0.780308 0.0412301 0.183541 154 127 98
-0.780115 0.0441359 0.183583 155 125 97
-0.779921 0.0470401 0.183625 154 127 99
-0.779728 0.0499428 0.183667 152 127 98
-0.779535 0.052844 0.183709 148 125 99
-0.779341 0.0557436 0.183751 132 116 98
-0.779148 0.0586417 0.183793 128 101 84
-0.75361 0.0861673 0.188769 82 78 72
-0.753424 0.0889488 0.18881 80 73 65
-0.753239 0.0917289 0.18885 80 76 64
-0.753054 0.0945076 0.18889 76 68 59
-0.754612 0.0976309 0.188594 80 68 52
-0.754426 0.100414 0.188634 95 82 61
-0.755992 0.103558 0.188337 100 82 64
-0.754056 0.105976 0.188715 100 81 62
-0.750398 0.108006 0.189424 98 81 62
-0.746778 0.110013 0.190127 96 78 63
-0.744892 0.112378 0.190495 94 78 61
-0.739652 0.113962 0.191509 93 77 60
-0.734492 0.11552 0.192508 92 74 58
-0.726185 0.116288 0.194114 80 69 53
-0.72123 0.117795 0.195073 57 50 39
-0.719479 0.120045 0.195415 36 25 23
-0.716175 0.121893 0.196056 38 27 25
-0.711369 0.123331 0.196986 55 48 33
-0.705127 0.124358 0.198193 74 64 46
-0.701966 0.126141 0.198807 79 68 52
-0.701796 0.128694 0.198844 81 69 54
-0.772644 0.156275 0.185206 80 68 54
-0.772454 0.159121 0.185247 84 69 53
-0.772265 0.161964 0.185288 86 69 54
-0.772075 0.164807 0.185329 87 70 54
-0.771886 0.167648 0.18537 87 68 57
-0.771697 0.170487 0.185411 87 72 57
-0.769663 0.172762 0.185808 87 71 58
-0.767639 0.175024 0.186202 86 72 58
-0.763813 0.176703 0.186944 86 71 57
-0.761822 0.178933 0.187332 86 69 54
-0.759841 0.18115 0.187718 85 69 52
-0.759656 0.183935 0.187758 84 69 54
-0.757686 0.18613 0.188142 83 67 48
-0.757502 0.188904 0.188182 74 60 40
-0.757317 0.191678 0.188222 73 59 41
-0.755359 0.193841 0.188604 78 63 48
-0.753413 0.195992 0.188983 81 67 51
-0.751476 0.19813 0.189361 82 67 50
-0.74955 0.200255 0.189736 81 67 52
-0.74079 0.199903 0.191427 83 67 55
-0.724112 0.196592 0.194643 83 67 54
-0.717572 0.196876 0.195906 83 68 56
-0.714264 0.19831 0.196547 83 68 56
-0.714092 0.200898 0.196585 83 67 54
-0.71392 0.203484 0.196622 81 67 52
-0.713747 0.206069 0.196659 81 67 55
-0.713575 0.208653 0.196697 79 67 54
-0.714964 0.211851 0.196434 78 66 51
-0.71636 0.215063 0.196169 78 65 48
-0.716187 0.217656 0.196207 78 64 46
-0.716015 0.220247 0.196244 79 62 46
-0.715842 0.222837 0.196282 79 64 50
-0.714103 0.224775 0.196621 79 64 47
-0.713931 0.227356 0.196658 80 63 44
-0.715325 0.230599 0.196394 80 62 43
-0.715153 0.233184 0.196431 79 64 43
-0.711859 0.234417 0.19707 76 63 46
-0.710139 0.23631 0.197405 75 62 44
-0.706894 0.237516 0.198033 74 62 41
-0.7052 0.239384 0.198364 74 62 42
-0.703513 0.241242 0.198692 73 60 39
-0.703345 0.243774 0.198729 74 59 37
-0.701667 0.245614 0.199056 74 59 39
-0.699998 0.247444 0.199381 73 60 41
-0.69983 0.24996 0.199417 73 60 37
-0.692271 0.248995 0.200876 73 60 36
-0.686322 0.24873 0.202024 72 60 37
-0.681894 0.249144 0.20288 71 61 39
-0.687886 0.269817 0.201756 68 58 38
-0.686284 0.271537 0.202068 67 57 37
-0.68612 0.273989 0.202104 68 59 34
-0.684526 0.275693 0.202414 69 57 34
-0.684363 0.278137 0.20245 69 54 35
-0.682777 0.279824 0.202759 68 52 36
-0.682615 0.28226 0.202794 68 52 35
-0.682452 0.284694 0.202829 62 47 32
-0.68229 0.287126 0.202864 52 37 27
-0.682128 0.289558 0.202899 60 45 30
-0.683388 0.292772 0.202661 66 49 29
-0.683226 0.295207 0.202696 69 51 27
-0.683064 0.297641 0.202732 70 48 23
-0.681481 0.299271 0.20304 67 47 26
-0.679907 0.300893 0.203347 63 46 30
-0.679745 0.303311 0.203382 63 46 30
-0.678179 0.304917 0.203687 62 46 30
-0.67662 0.306514 0.20399 61 45 29
-0.675068 0.308101 0.204293 64 41 25
-0.674908 0.310497 0.204327 63 40 26
-0.674749 0.312892 0.204362 61 40 26
-0.677377 0.316954 0.203861 58 42 25
-0.67862 0.320204 0.203626 57 43 25
-0.679869 0.323468 0.20339 56 43 25
-0.736189 0.374162 0.192595 54 34 22
-0.736013 0.376802 0.192633 51 34 24
-0.747946 0.387203 0.190345 50 35 24
-0.75131 0.392176 0.189704 52 36 23
-0.75113 0.394875 0.189743 50 35 24
-0.752735 0.39874 0.189439 47 34 24
-0.759789 0.406206 0.188088 46 34 22
-0.763283 0.411373 0.187422 47 34 20
-0.7631 0.414119 0.187462 48 35 19
-0.762918 0.416863 0.187501 46 33 19
-0.762735 0.419606 0.187541 44 32 19
-0.754336 -0.0207313 0.185668 88 105 102
-0.752425 -0.0179577 0.186049 90 106 103
-0.752238 -0.0151504 0.186091 90 105 102
-0.750338 -0.0124013 0.18647 88 105 100
-0.750152 -0.00960437 0.186511 90 105 101
-0.749966 -0.00680885 0.186552 98 105 98
-0.74978 -0.00401479 0.186593 104 104 94
-0.751306 -0.00113656 0.186297 94 99 90
-0.75112 0.00166178 0.186338 95 102 93
-0.750934 0.00445858 0.186379 121 113 94
-0.750748 0.00725396 0.18642 139 118 95
-0.770837 0.0258679 0.182486 156 124 99
-0.774312 0.029082 0.181805 156 125 97
-0.777824 0.0323293 0.181117 159 128 99
-0.779498 0.0354208 0.180792 158 130 102
-0.781181 0.0385275 0.180465 155 128 102
-0.780987 0.0414429 0.180507 154 127 100
-0.778918 0.0441433 0.18092 154 127 100
-0.778725 0.0470477 0.180963 153 127 100
-0.778532 0.0499506 0.181006 153 127 101
-0.778339 0.0528519 0.181048 148 128 101
-0.778146 0.0557517 0.181091 125 117 94
-0.754015 0.0892833 0.185906 80 74 63
-0.752088 0.0917394 0.18629 80 75 62
-0.751904 0.0945183 0.186331 77 68 60
-0.751719 0.0972956 0.186371 83 70 58
-0.751534 0.100072 0.186412 98 83 62
-0.75135 0.102846 0.186453 103 82 63
-0.749436 0.105253 0.186834 101 82 62
-0.745822 0.107276 0.187551 99 82 63
-0.743937 0.10965 0.187926 99 80 62
-0.738705 0.111256 0.188961 97 80 61
-0.733553 0.112837 0.18998 96 78 60
-0.725258 0.113641 0.191619 94 76 58
-0.71717 0.114423 0.193216 85 71 55
-0.712344 0.115925 0.19417 66 52 38
-0.710636 0.118152 0.194511 47 29 19
-0.707417 0.119987 0.195149 34 21 17
-0.701244 0.121043 0.196369 38 30 22
-0.699592 0.123216 0.196698 55 46 33
-0.697948 0.125377 0.197026 74 62 42
-0.696313 0.127526 0.197352 76 63 45
-0.696144 0.130059 0.197389 78 64 47
-0.77127 0.159136 0.182612 87 71 55
-0.77108 0.16198 0.182653 87 70 54
-0.770891 0.164822 0.182695 88 70 54
-0.770702 0.167663 0.182737 88 69 56
-0.770513 0.170503 0.182779 87 71 57
-0.770325 0.173341 0.182821 87 71 59
-0.770136 0.176177 0.182862 86 72 58
-0.768106 0.178435 0.183266 86 71 57
-0.767918 0.181261 0.183308 86 69 55
-0.767731 0.184085 0.183349 85 67 54
-0.765713 0.18631 0.183751 83 66 55
-0.765526 0.189124 0.183792 76 64 49
-0.765339 0.191937 0.183834 70 59 39
-0.763334 0.194131 0.184233 76 61 41
-0.76134 0.196311 0.18463 80 65 49
-0.759356 0.198478 0.185025 81 66 53
-0.757383 0.200633 0.185417 81 66 51
-0.753653 0.202144 0.186156 82 66 51
-0.748222 0.20301 0.187229 83 66 54
-0.727863 0.198381 0.191239 82 67 55
-0.716482 0.196894 0.193482 83 68 56
-0.71318 0.198327 0.194136 83 68 53
-0.713008 0.200915 0.194174 82 68 51
-0.712836 0.203502 0.194212 80 68 53
-0.712664 0.206087 0.19425 79 67 56
-0.712492 0.208671 0.194288 78 66 53
-0.713879 0.211869 0.19402 79 66 50
-0.713706 0.214457 0.194058 79 64 46
-0.7151 0.217675 0.193788 79 63 43
-0.714927 0.220266 0.193826 78 64 45
-0.714755 0.222856 0.193864 79 64 48
-0.713019 0.224794 0.19421 79 64 47
-0.712847 0.227375 0.194248 78 64 47
-0.714239 0.230619 0.193978 78 63 46
-0.714067 0.233204 0.194016 78 64 44
-0.710778 0.234437 0.194667 76 63 46
-0.709061 0.23633 0.195009 75 62 43
-0.707353 0.238212 0.195349 75 61 41
-0.705653 0.240084 0.195687 75 61 41
-0.703962 0.241944 0.196024 72 61 41
-0.702279 0.243795 0.196359 74 59 36
-0.700604 0.245635 0.196693 73 58 38
-0.697447 0.246774 0.197317 72 58 40
-0.695797 0.248591 0.197646 73 59 33
-0.685449 0.246292 0.199684 74 59 33
-0.68244 0.247397 0.200279 72 60 37
-0.682278 0.249843 0.200315 72 61 38
-0.685574 0.266651 0.199692 69 59 36
-0.686847 0.269839 0.199445 69 58 35
-0.685247 0.271559 0.199764 69 58 34
-0.683655 0.273271 0.200081 69 58 34
-0.683492 0.275716 0.200117 69 58 35
-0.681908 0.27741 0.200432 69 56 35
-0.681746 0.279847 0.200468 69 53 34
-0.681584 0.282282 0.200504 69 52 35
-0.681422 0.284717 0.200539 60 44 30
-0.681261 0.28715 0.200575 51 38 25
-0.681099 0.289581 0.200611 61 48 30
-0.682356 0.292796 0.200368 66 50 32
-0.682194 0.295231 0.200404 67 49 31
-0.680614 0.296869 0.200718 65 48 29
-0.680453 0.299295 0.200754 64 50 30
-0.678881 0.300917 0.201067 65 50 29
-0.67872 0.303335 0.201102 66 47 28
-0.675759 0.304133 0.201688 62 45 28
-0.67421 0.305728 0.201996 61 42 27
-0.671292 0.306507 0.202573 62 41 24
-0.671133 0.308892 0.202608 61 40 24
-0.670975 0.311276 0.202643 59 40 25
-0.673572 0.315311 0.202137 57 40 25
-0.676195 0.319383 0.201626 55 41 27
-0.677436 0.322637 0.201386 55 41 27
-0.735065 0.374191 0.190097 50 34 24
-0.734889 0.376831 0.190135 49 35 24
-0.743302 0.384985 0.188488 50 36 24
-0.746623 0.389919 0.187841 52 37 22
-0.746444 0.392605 0.18788 51 36 22
-0.748028 0.396443 0.187574 50 36 23
-0.756804 0.405037 0.185856 46 37 23
-0.758442 0.408969 0.185539 45 35 21
-0.758261 0.4117 0.185579 44 33 19
-0.758079 0.41443 0.185619 44 34 20
-0.757898 0.417158 0.185659 44 33 20
-0.752995 -0.0179123 0.183142 91 105 100
-0.752808 -0.0150975 0.183184 94 104 100
-0.750902 -0.0123413 0.183573 101 109 104
-0.749006 -0.00960074 0.183959 101 108 104
-0.74882 -0.00680503 0.184001 105 107 99
-0.748635 -0.00401083 0.184043 109 105 94
-0.748449 -0.00121809 0.184085 95 99 90
-0.748264 0.00157319 0.184127 99 100 91
-0.748078 0.00436293 0.184168 125 113 93
-0.747893 0.00715126 0.18421 139 117 95
-0.751131 0.0101681 0.183562 145 120 97
-0.750945 0.0129679 0.183604 148 125 99
-0.752483 0.0158968 0.183299 153 127 99
-0.75752 0.0191188 0.182288 155 126 99
-0.768029 0.0228448 0.180176 156 125 98
-0.773315 0.026198 0.179116 155 124 98
-0.776822 0.0294315 0.178415 157 125 98
-0.778494 0.0325168 0.178083 159 130 101
-0.777335 0.0499583 0.178343 120 111 98
-0.777143 0.0528599 0.178387 115 100 89
-0.750938 0.0917499 0.183729 72 66 59
-0.749025 0.0941919 0.184118 74 66 59
-0.747122 0.0966197 0.184506 86 71 59
-0.746939 0.0993813 0.184547 102 83 62
-0.746756 0.102141 0.184588 105 83 63
-0.744864 0.104538 0.184973 103 83 64
-0.742983 0.10692 0.185356 102 84 64
-0.737758 0.108549 0.186412 102 83 63
-0.734259 0.110522 0.18712 102 83 64
-0.72433 0.110991 0.189122 100 81 63
-0.716254 0.111809 0.190751 97 80 61
-0.708376 0.112605 0.19234 92 77 59
-0.706687 0.11483 0.192684 83 66 47
-0.706515 0.117415 0.192722 67 48 30
-0.700351 0.118498 0.193966 48 31 19
-0.697229 0.120304 0.194598 32 25 21
-0.695595 0.122468 0.194931 38 33 23
-0.695427 0.125004 0.194969 56 59 31
-0.693801 0.127149 0.1953 72 63 44
-0.693633 0.129676 0.195338 81 69 55
-0.694922 0.132604 0.195083 83 69 56
-0.766224 0.160934 0.180757 92 71 54
-0.766036 0.163762 0.180799 92 72 54
-0.769518 0.167679 0.180104 91 72 56
-0.76933 0.170519 0.180146 92 72 57
-0.769141 0.173357 0.180188 90 74 59
-0.768953 0.176194 0.180231 89 74 59
-0.770612 0.17961 0.179902 89 73 56
-0.770424 0.182452 0.179944 89 70 54
-0.770235 0.185292 0.179987 87 68 53
-0.770047 0.18813 0.180029 81 65 51
-0.769858 0.190967 0.180072 74 60 47
-0.767825 0.193183 0.180485 71 60 43
-0.767637 0.19601 0.180527 78 64 49
-0.767449 0.198835 0.180569 81 65 53
-0.763604 0.200383 0.181347 81 65 52
-0.761604 0.20255 0.181753 82 66 52
-0.759615 0.204704 0.182157 82 67 53
-0.752315 0.204921 0.183629 82 67 54
-0.726753 0.198398 0.188771 82 67 55
-0.715392 0.196911 0.191058 83 68 54
-0.710546 0.197765 0.192036 82 68 51
-0.710374 0.200347 0.192075 81 68 51
-0.710203 0.202927 0.192113 79 67 53
-0.71158 0.206105 0.191841 80 66 52
-0.711409 0.208689 0.191879 80 65 50
-0.712793 0.211887 0.191605 79 64 48
-0.712621 0.214475 0.191644 79 63 45
-0.714012 0.217693 0.191369 79 63 41
-0.71384 0.220285 0.191408 79 64 40
-0.713668 0.222875 0.191446 78 63 46
-0.713496 0.225464 0.191485 77 63 50
-0.714892 0.228713 0.191209 77 62 49
-0.71472 0.231306 0.191247 77 63 47
-0.714548 0.233897 0.191286 76 64 46
-0.712809 0.235807 0.19164 75 62 45
-0.707984 0.23635 0.192613 75 62 40
-0.706278 0.238232 0.19296 76 60 38
-0.704581 0.240104 0.193305 76 59 39
-0.704412 0.24265 0.193343 73 60 40
-0.702724 0.244503 0.193686 74 58 39
-0.698045 0.244968 0.19463 74 58 40
-0.693434 0.245424 0.195559 73 58 39
-0.687445 0.245195 0.196766 73 59 37
-0.684413 0.246312 0.197379 72 61 38
-0.682826 0.248093 0.197702 72 60 39
-0.681247 0.249864 0.198023 72 59 37
-0.680598 0.259635 0.198169 71 58 34
-0.680436 0.262075 0.198205 70 59 35
-0.680274 0.264514 0.198242 69 59 35
-0.684373 0.269128 0.197423 70 58 33
-0.682783 0.270846 0.197746 71 58 32
-0.682621 0.273293 0.197782 69 57 34
-0.681039 0.274995 0.198104 69 53 34
-0.680877 0.277433 0.19814 70 51 33
-0.680716 0.27987 0.198177 71 52 32
-0.680554 0.282305 0.198213 70 50 32
-0.680392 0.28474 0.19825 59 41 26
-0.680231 0.287173 0.198286 53 39 25
-0.680069 0.289604 0.198322 62 51 32
-0.681324 0.292819 0.198074 66 50 33
-0.681163 0.295254 0.198111 66 47 32
-0.679585 0.296892 0.198431 62 46 30
-0.679424 0.299319 0.198468 65 48 29
-0.677855 0.300941 0.198786 66 47 27
-0.676293 0.302554 0.199104 64 44 26
-0.673351 0.303354 0.199698 63 41 27
-0.670437 0.304145 0.200286 62 41 28
-0.670279 0.306531 0.200322 60 41 27
-0.668754 0.308107 0.200632 61 40 25
-0.669962 0.3113 0.200393 60 40 24
-0.672556 0.315336 0.199877 58 39 25
-0.673782 0.318566 0.199635 56 39 26
-0.676412 0.322663 0.199111 57 39 26
-0.732252 0.373148 0.187937 48 37 22
-0.732077 0.375781 0.187976 49 39 23
-0.735286 0.38059 0.187337 51 39 22
-0.741985 0.387687 0.185998 53 38 21
-0.743549 0.391493 0.185688 52 37 21
-0.745122 0.395319 0.185378 50 37 21
-0.753834 0.403874 0.183635 46 38 21
-0.75546 0.407793 0.183314 46 36 19
-0.755279 0.410517 0.183354 46 34 17
-0.753293 0.412023 0.183757 46 34 19
-0.753113 0.414736 0.183798 45 33 19
-0.751655 -0.0150942 0.180618 95 106 103
-0.751469 -0.0122808 0.180661 116 122 114
-0.749566 -0.00953315 0.181056 110 114 111
-0.747674 -0.00680122 0.18145 106 107 101
-0.747489 -0.00400683 0.181492 104 102 91
-0.747303 -0.0012139 0.181535 91 96 88
-0.745422 0.00148505 0.181926 93 98 91
-0.745237 0.00426781 0.181969 110 108 92
-0.746749 0.007156 0.181662 121 113 95
-0.748268 0.0100577 0.181354 128 118 97
-0.749795 0.0129731 0.181044 132 122 98
-0.75133 0.0159022 0.180733 137 126 99
-0.756359 0.0191244 0.179703 142 127 98
-0.772317 0.0233121 0.176426 146 126 97
-0.77582 0.0265317 0.17571 150 124 96
-0.777488 0.0296108 0.175372 154 127 98
-0.314479 0.00187246 0.270603 81 69 61
-0.313821 0.00271939 0.27074 80 63 61
-0.312969 0.00352794 0.270917 75 67 64
-0.312907 0.00446663 0.270931 72 66 62
-0.312845 0.00540483 0.270945 72 64 58
-0.748061 0.0914306 0.181523 67 63 55
-0.747877 0.0942025 0.181565 68 64 57
-0.745978 0.0966305 0.18196 79 72 60
-0.745795 0.0993923 0.182002 98 84 63
-0.745612 0.102153 0.182044 104 86 65
-0.743724 0.104549 0.182436 106 85 66
-0.741845 0.106932 0.182826 106 86 67
-0.734969 0.108194 0.184243 105 85 65
-0.728232 0.109429 0.185631 106 86 67
-0.716899 0.109551 0.187963 105 87 66
-0.707471 0.110022 0.189904 102 86 65
-0.702776 0.111539 0.190873 101 83 63
-0.701112 0.113752 0.191218 96 77 57
-0.699457 0.115952 0.191562 86 67 47
-0.69634 0.117771 0.192207 71 52 34
-0.694708 0.119943 0.192546 55 39 25
-0.693085 0.122103 0.192883 41 34 25
-0.692917 0.124633 0.192922 43 41 33
-0.691302 0.126774 0.193257 76 67 53
-0.692582 0.129689 0.192998 81 67 57
-0.765045 0.160949 0.178136 97 75 57
-0.761233 0.162712 0.178923 97 77 57
-0.764671 0.166603 0.178222 97 78 58
-0.768146 0.170534 0.177513 98 76 58
-0.767958 0.173373 0.177556 96 77 59
-0.77147 0.17736 0.176839 95 77 58
-0.773146 0.180798 0.1765 95 76 56
-0.774831 0.184254 0.176158 94 73 56
-0.774641 0.187118 0.176202 88 69 54
-0.774451 0.18998 0.176245 81 66 51
-0.772389 0.192218 0.176673 76 64 47
-0.7722 0.19507 0.176717 82 66 51
-0.770149 0.197285 0.177142 87 68 54
-0.76811 0.199487 0.177565 88 70 55
-0.766081 0.201676 0.177986 86 70 55
-0.764064 0.203851 0.178404 84 70 55
-0.763878 0.206664 0.178447 84 69 55
-0.758263 0.207511 0.179604 84 69 54
-0.725643 0.198416 0.186302 83 69 55
-0.714301 0.196928 0.188633 84 68 52
-0.709464 0.197782 0.18963 84 68 51
-0.709293 0.200364 0.189669 82 68 53
-0.709122 0.202945 0.189709 81 67 54
-0.710497 0.206123 0.189431 83 65 50
-0.710325 0.208707 0.18947 83 66 48
-0.711707 0.211906 0.189191 81 63 48
-0.711535 0.214494 0.18923 80 62 47
-0.712923 0.217712 0.188949 80 62 46
-0.712752 0.220304 0.188989 80 63 46
-0.71258 0.222894 0.189028 79 64 51
-0.713975 0.226138 0.188746 78 65 50
-0.715376 0.229396 0.188463 76 65 50
-0.715204 0.231996 0.188502 75 64 49
-0.715032 0.234594 0.188542 76 62 47
-0.713287 0.236507 0.188904 76 60 43
-0.711551 0.238409 0.189264 76 61 39
-0.706736 0.238932 0.190255 76 60 38
-0.705034 0.240806 0.190609 76 58 38
-0.70334 0.24267 0.19096 75 57 38
-0.701655 0.244524 0.19131 73 58 39
-0.692547 0.242945 0.193181 72 59 39
-0.690917 0.244764 0.19352 72 59 39
-0.687846 0.245892 0.194153 71 60 40
-0.686239 0.247688 0.194487 70 61 38
-0.681792 0.248113 0.195403 71 60 37
-0.680215 0.249884 0.19573 73 59 36
-0.682399 0.261069 0.195298 72 58 35
-0.682236 0.263521 0.195335 71 58 34
-0.682074 0.265972 0.195372 70 56 35
-0.681911 0.268421 0.195409 71 56 33
-0.681749 0.270869 0.195447 71 57 32
-0.681587 0.273315 0.195484 70 56 32
-0.680008 0.275017 0.195811 69 55 34
-0.679846 0.277455 0.195848 69 54 34
-0.679685 0.279892 0.195885 69 51 32
-0.679523 0.282328 0.195922 70 46 29
-0.679362 0.284763 0.195959 60 36 25
-0.679201 0.287196 0.195996 57 38 25
-0.679039 0.289628 0.196033 65 52 32
-0.680292 0.292843 0.195781 67 49 31
-0.680131 0.295278 0.195818 66 47 30
-0.678556 0.296916 0.196144 64 46 29
-0.67559 0.297751 0.196756 66 47 28
-0.67543 0.300165 0.196793 64 47 28
-0.672492 0.300978 0.197398 62 46 27
-0.670954 0.302578 0.197717 62 43 25
-0.669424 0.304169 0.198035 61 43 25
-0.667901 0.305752 0.19835 61 43 25
-0.667743 0.308132 0.198387 64 40 23
-0.67032 0.312144 0.197863 63 38 23
-0.675548 0.320279 0.196799 59 38 24
-0.675389 0.322688 0.196836 59 38 24
-0.731479 0.367906 0.185364 52 37 22
-0.731305 0.370542 0.185404 50 36 22
-0.73113 0.373177 0.185444 49 36 23
-0.730955 0.37581 0.185484 50 39 23
-0.732466 0.379528 0.185179 52 38 22
-0.733984 0.383264 0.184873 53 38 22
-0.738941 0.389259 0.183862 51 37 20
-0.74223 0.3942 0.183193 49 37 19
-0.752674 0.403905 0.181059 47 37 19
-0.752494 0.406623 0.1811 46 35 18
-0.752314 0.409339 0.181141 46 34 18
-0.752134 0.412054 0.181183 47 33 21
-0.751954 0.414768 0.181224 44 34 22
-0.750316 -0.0122774 0.178094 105 121 116
-0.75013 -0.00946521 0.178138 99 111 112
-0.746527 -0.00679742 0.178898 95 102 99
-0.746343 -0.0040028 0.178942 90 94 88
-0.746158 -0.00120969 0.178985 85 93 88
-0.744279 0.0014894 0.179383 80 94 90
-0.744095 0.00427234 0.179426 85 91 83
-0.743911 0.00705383 0.179469 92 94 83
-0.74712 0.0100627 0.1788 99 98 84
-0.748644 0.0129782 0.178484 104 99 83
-0.750177 0.0159076 0.178167 110 102 84
-0.771319 0.0204243 0.173733 117 104 85
-0.774816 0.0236299 0.173004 123 103 84
-0.776483 0.0267029 0.172659 130 104 84
-0.314151 0.000929471 0.269719 80 71 65
-0.312902 0.00168389 0.269982 78 69 62
-0.312643 0.00259189 0.270038 78 68 60
-0.312385 0.0034978 0.270094 78 64 63
-0.312323 0.00443574 0.270108 75 74 68
-0.312261 0.00537316 0.270123 71 69 61
-0.312394 0.00634596 0.270096 68 62 57
-0.312332 0.00728323 0.270111 65 62 55
-0.743494 0.0907866 0.179685 65 62 54
-0.740708 0.106943 0.180295 109 89 69
-0.732194 0.10784 0.182085 111 88 67
-0.715979 0.106926 0.185489 111 90 68
-0.708086 0.107787 0.187148 110 91 69
-0.701877 0.108975 0.188454 109 90 67
-0.697256 0.110489 0.189427 108 88 66
-0.695619 0.112688 0.189774 107 85 65
-0.693989 0.114875 0.19012 102 80 60
-0.693821 0.117416 0.190159 91 70 51
-0.6922 0.119583 0.190503 77 56 39
-0.690587 0.121739 0.190845 63 45 29
-0.690419 0.124263 0.190884 63 43 37
-0.690252 0.126786 0.190923 71 52 51
-0.758452 0.159395 0.176649 102 81 61
-0.758266 0.1622 0.176693 102 81 62
-0.759875 0.165539 0.17636 103 81 62
-0.766962 0.17055 0.174879 103 82 60
-0.770469 0.174523 0.174149 101 81 60
-0.77779 0.179714 0.172619 101 81 61
-0.781416 0.183801 0.171864 99 79 60
-0.781224 0.186698 0.171909 95 74 59
-0.781033 0.189594 0.171953 87 68 57
-0.777028 0.191236 0.172797 82 67 54
-0.774947 0.193483 0.173237 85 70 53
-0.774757 0.196351 0.173282 92 74 57
-0.772688 0.198575 0.17372 94 74 58
-0.770631 0.200786 0.174155 93 75 57
-0.768585 0.202983 0.174588 92 74 56
-0.764714 0.204516 0.175404 91 73 56
-0.762701 0.206682 0.17583 91 72 57
-0.757096 0.207529 0.177008 90 72 58
-0.724533 0.198433 0.183833 88 73 57
-0.713211 0.196946 0.186209 90 72 57
-0.708382 0.1978 0.187224 89 73 57
-0.708211 0.200382 0.187264 88 72 58
-0.70804 0.202962 0.187304 88 70 57
-0.70787 0.205542 0.187344 88 69 53
-0.707699 0.20812 0.187383 85 68 51
-0.710621 0.211924 0.186776 85 65 51
-0.712007 0.215137 0.186489 84 64 51
-0.711835 0.217731 0.186529 83 65 50
-0.711664 0.220323 0.186569 81 66 51
-0.711492 0.222913 0.186609 80 67 54
-0.712884 0.226157 0.186322 82 65 52
-0.714284 0.229416 0.186033 81 64 49
-0.71569 0.232689 0.185743 80 64 48
-0.715518 0.235294 0.185783 79 63 48
-0.713768 0.237211 0.186154 78 61 46
-0.712027 0.239116 0.186522 77 61 45
-0.710294 0.241011 0.186889 77 60 42
-0.705489 0.241512 0.187899 77 59 40
-0.70379 0.24338 0.188259 76 59 39
-0.700586 0.244544 0.188933 74 60 40
-0.690032 0.242291 0.191146 74 60 39
-0.689867 0.244784 0.191185 74 60 41
-0.689702 0.247276 0.191223 73 60 41
-0.690998 0.250459 0.190956 72 60 40
-0.68295 0.259344 0.19266 73 56 38
-0.681363 0.261091 0.192996 72 58 36
-0.681201 0.263543 0.193034 71 57 34
-0.681039 0.265993 0.193072 71 54 34
-0.680877 0.268443 0.193109 71 56 33
-0.680715 0.270891 0.193147 71 56 32
-0.679138 0.2726 0.193481 70 55 33
-0.678976 0.275039 0.193519 68 58 36
-0.678815 0.277478 0.193556 69 54 33
-0.678654 0.279915 0.193594 69 49 30
-0.678493 0.282351 0.193631 68 44 31
-0.678331 0.284785 0.193669 61 38 25
-0.67817 0.287219 0.193707 61 40 25
-0.678009 0.289651 0.193744 65 48 28
-0.67926 0.292866 0.193486 64 48 29
-0.679099 0.295302 0.193524 65 47 29
-0.676123 0.296147 0.19415 65 46 29
-0.673175 0.296984 0.194771 64 46 30
-0.673016 0.299393 0.194808 63 46 30
-0.670097 0.300207 0.195422 63 45 29
-0.668569 0.301806 0.195746 61 43 26
-0.667048 0.303395 0.196067 59 42 25
-0.66689 0.305776 0.196104 59 39 23
-0.666733 0.308156 0.196141 61 37 18
-0.730357 0.367935 0.18287 54 35 22
-0.730183 0.370571 0.182911 51 35 22
-0.730008 0.373205 0.182952 50 36 23
-0.729834 0.375839 0.182992 51 38 23
-0.731341 0.379557 0.182681 51 37 22
-0.731167 0.382194 0.182722 51 37 20
-0.732682 0.385936 0.18241 51 37 18
-0.737629 0.391952 0.18138 50 36 18
-0.749724 0.402748 0.178856 48 35 19
-0.749544 0.405459 0.178898 45 34 20
-0.749365 0.408168 0.17894 45 34 20
-0.747406 0.409673 0.179354 46 34 19
-0.747227 0.412372 0.179395 44 34 21
-0.749163 -0.0122739 0.175528 90 100 102
-0.748977 -0.00946159 0.175572 91 100 99
-0.747082 -0.00672238 0.175982 90 98 93
-0.745196 -0.00399882 0.17639 85 91 87
-0.743321 -0.00129084 0.176796 83 90 89
-0.743137 0.00149379 0.17684 78 84 85
-0.741271 0.00417769 0.177244 81 76 71
-0.742769 0.00705859 0.176927 87 75 66
-0.745972 0.0100677 0.176245 92 75 66
-0.749209 0.0131067 0.175556 94 76 66
-0.313228 -0.000105198 0.268961 80 72 64
-0.312183 0.000684074 0.269186 77 70 64
-0.311925 0.00159192 0.269243 75 69 62
-0.311668 0.00249765 0.269299 73 66 60
-0.311801 0.00346772 0.269272 70 65 65
-0.311935 0.00443902 0.269245 85 75 75
-0.312068 0.00541154 0.269218 78 73 68
-0.312006 0.00634937 0.269233 67 65 60
-0.311944 0.00728671 0.269247 65 64 57
-0.312275 0.00829875 0.269178 66 63 54
-0.736036 0.108953 0.178525 107 89 71
-0.708704 0.10554 0.184377 105 89 71
-0.700977 0.10641 0.186034 102 90 72
-0.696364 0.107944 0.187025 103 90 69
-0.693269 0.109802 0.187691 104 91 69
-0.690204 0.111641 0.18835 105 91 68
-0.690037 0.11417 0.18839 106 89 67
-0.68987 0.116699 0.188429 101 82 62
-0.689703 0.119226 0.188469 90 71 53
-0.689536 0.121752 0.188509 80 62 44
-0.689369 0.124276 0.188548 75 60 51
-0.76069 0.163274 0.173324 107 87 64
-0.765965 0.167726 0.172201 108 87 64
-0.769467 0.171685 0.171456 109 86 63
-0.776778 0.176846 0.169898 107 85 65
-0.780398 0.180919 0.169128 103 85 66
-0.787955 0.186268 0.167517 98 79 63
-0.787761 0.189198 0.167563 92 71 60
-0.785616 0.191492 0.168026 88 69 59
-0.783482 0.193772 0.168487 91 72 58
-0.78136 0.196038 0.168945 97 77 59
-0.775446 0.197005 0.170214 99 81 61
-0.771494 0.198593 0.171063 100 79 61
-0.76944 0.200804 0.171506 98 80 60
-0.767398 0.203001 0.171947 97 79 59
-0.763533 0.204534 0.172778 96 78 58
-0.767023 0.208675 0.172036 95 77 59
-0.761338 0.209513 0.173256 94 77 60
-0.718604 0.196679 0.182394 94 77 60
-0.710563 0.196384 0.184116 96 78 59
-0.7073 0.197817 0.184818 95 76 57
-0.707129 0.200399 0.184858 95 76 60
-0.706959 0.20298 0.184899 95 76 60
-0.706788 0.20556 0.184939 93 75 57
-0.706618 0.208138 0.18498 90 71 56
-0.709535 0.211942 0.18436 89 70 55
-0.710918 0.215156 0.184069 89 68 54
-0.710747 0.217749 0.184109 88 68 53
-0.710576 0.220342 0.18415 86 69 54
-0.710404 0.222933 0.184191 85 71 56
-0.711794 0.226176 0.183898 85 68 56
-0.713191 0.229435 0.183603 84 67 53
-0.714595 0.232709 0.183308 83 67 53
-0.714423 0.235314 0.183348 83 66 54
-0.712676 0.237231 0.183726 81 66 55
-0.712504 0.239827 0.183766 80 66 54
-0.712333 0.242421 0.183807 80 63 48
-0.704242 0.244092 0.185543 78 64 46
-0.696518 0.243191 0.187197 79 62 43
-0.688982 0.242311 0.188811 79 61 43
-0.690276 0.245485 0.188538 77 62 44
-0.684938 0.258314 0.189701 73 59 41
-0.681911 0.259365 0.190352 72 58 40
-0.680328 0.261112 0.190694 71 59 38
-0.680166 0.263564 0.190732 72 59 36
-0.680004 0.266015 0.190771 73 58 35
-0.679842 0.268464 0.190809 72 58 35
-0.676862 0.269453 0.191449 71 57 36
-0.676701 0.271888 0.191487 71 56 36
-0.67654 0.274322 0.191525 70 59 36
-0.677784 0.2775 0.191264 71 55 32
-0.677623 0.279938 0.191302 70 51 31
-0.677462 0.282374 0.19134 68 46 32
-0.677301 0.284808 0.191378 64 41 24
-0.67714 0.287242 0.191416 66 44 25
-0.676979 0.289674 0.191455 69 48 28
-0.676819 0.292105 0.191493 66 46 29
-0.676658 0.294535 0.191531 63 47 29
-0.672313 0.294598 0.192462 63 47 29
-0.669397 0.295438 0.193088 63 45 30
-0.669239 0.297835 0.193126 66 46 31
-0.663649 0.297091 0.194322 65 45 29
-0.663492 0.299463 0.19436 62 43 25
-0.666037 0.303419 0.19382 60 41 23
-0.665879 0.3058 0.193858 60 40 21
-0.729235 0.367963 0.180376 55 34 23
-0.72906 0.370599 0.180417 51 37 22
-0.727215 0.372168 0.180815 49 37 23
-0.728712 0.375868 0.1805 49 36 24
-0.728538 0.3785 0.180541 49 37 21
-0.730043 0.382224 0.180224 50 36 21
-0.729869 0.38486 0.180266 52 34 22
-0.731381 0.388608 0.179947 49 34 22
-0.743261 0.399255 0.177418 46 34 22
-0.744842 0.40312 0.177085 44 35 21
-0.742906 0.404632 0.177502 44 35 18
-0.742728 0.407318 0.177544 46 35 13
-0.742551 0.410003 0.177586 45 33 17
-0.747824 -0.00945792 0.173006 89 101 99
-0.747639 -0.00664691 0.17305 91 99 94
-0.745747 -0.00391629 0.173468 86 94 90
-0.742178 -0.00128665 0.174252 82 90 88
-0.740315 0.0014061 0.174663 88 88 85
-0.740132 0.00418224 0.174707 94 91 79
-0.311201 -0.00224749 0.268447 80 75 65
-0.311139 -0.00130978 0.268462 78 72 65
-0.311272 -0.000342733 0.268435 79 70 63
-0.31121 0.00059482 0.26845 75 69 61
-0.310954 0.0015004 0.268507 74 68 60
-0.311086 0.00246844 0.26848 72 65 60
-0.311024 0.00340452 0.268495 68 65 60
-0.311352 0.00440817 0.268425 76 71 63
-0.311485 0.00537986 0.268397 88 78 73
-0.311618 0.00635277 0.268369 81 66 63
-0.311556 0.00729019 0.268384 70 60 55
-0.311886 0.0083023 0.268314 68 61 54
-0.312611 0.00939492 0.268157 68 62 54
-0.313739 0.0105748 0.267912 66 62 53
-0.71069 0.106247 0.181296 79 80 69
-0.7014 0.106766 0.183327 76 81 71
-0.695302 0.107956 0.184662 81 82 65
-0.690763 0.109466 0.185656 88 80 62
-0.687718 0.111302 0.186324 93 81 63
-0.687551 0.113826 0.186365 99 83 64
-0.688819 0.116711 0.186092 98 81 63
-0.688653 0.119238 0.186132 88 75 60
-0.688486 0.121764 0.186172 77 67 56
-0.766618 0.168292 0.169165 104 87 66
-0.768276 0.171701 0.168808 105 85 67
-0.777471 0.177447 0.166807 101 84 68
-0.786925 0.183353 0.164749 95 81 64
-0.790665 0.187531 0.163938 85 77 63
-0.79047 0.190477 0.163985 86 71 61
-0.788305 0.192781 0.164462 91 76 61
-0.782266 0.19379 0.165783 98 82 62
-0.780148 0.196056 0.16625 102 85 63
-0.774244 0.197023 0.167541 103 85 63
-0.770299 0.19861 0.168406 103 84 64
-0.770111 0.201467 0.168452 103 83 63
-0.768061 0.203669 0.168903 103 83 62
-0.766023 0.205857 0.169352 102 82 61
-0.767686 0.209359 0.168993 101 81 62
-0.76198 0.210193 0.170242 100 80 62
-0.715915 0.196112 0.180289 99 81 61
-0.707927 0.195824 0.182034 98 80 62
-0.706217 0.197834 0.182411 98 80 59
-0.706047 0.200417 0.182452 97 79 61
-0.705877 0.202998 0.182493 98 79 62
-0.704177 0.204981 0.182868 99 76 60
-0.704007 0.207553 0.182909 97 73 57
-0.706904 0.211345 0.182281 94 74 55
-0.709829 0.215174 0.181648 94 72 55
-0.709658 0.217768 0.181689 94 71 55
-0.709487 0.220361 0.18173 93 72 56
-0.709316 0.222952 0.181771 92 74 57
-0.709145 0.225541 0.181813 90 73 58
-0.710532 0.22879 0.181514 90 71 57
-0.711926 0.232055 0.181215 88 71 56
-0.711755 0.234654 0.181256 86 70 56
-0.711584 0.237251 0.181297 86 69 55
-0.712984 0.240541 0.180996 84 69 55
-0.686781 0.259759 0.186752 76 62 43
-0.680873 0.259386 0.188043 74 61 43
-0.68071 0.261845 0.188082 75 61 41
-0.67913 0.263586 0.18843 76 61 40
-0.678968 0.266037 0.188469 75 61 42
-0.677396 0.26776 0.188815 73 59 42
-0.675832 0.269475 0.18916 74 58 40
-0.674275 0.271179 0.189503 74 59 37
-0.674114 0.273608 0.189541 73 59 37
-0.67535 0.276777 0.189276 73 58 34
-0.67519 0.279209 0.189315 72 54 33
-0.676431 0.282396 0.189048 70 48 33
-0.67627 0.284831 0.189087 68 47 28
-0.67611 0.287265 0.189126 69 50 32
-0.675949 0.289697 0.189165 69 53 35
-0.675789 0.292129 0.189203 68 52 35
-0.675628 0.294558 0.189242 68 51 31
-0.669911 0.29384 0.190491 69 51 28
-0.662955 0.292366 0.192009 70 51 27
-0.658797 0.29244 0.192918 70 49 29
-0.658641 0.294798 0.192955 69 46 28
-0.657165 0.296383 0.19328 67 44 25
-0.659657 0.300288 0.192741 65 44 24
-0.724783 0.365891 0.178606 56 38 24
-0.72461 0.368514 0.178647 52 41 23
-0.724437 0.371135 0.178689 51 38 24
-0.724264 0.373755 0.178731 50 36 25
-0.72575 0.377449 0.178412 50 37 23
-0.727243 0.38116 0.178091 52 36 22
-0.72707 0.38379 0.178133 54 35 21
-0.726896 0.386418 0.178175 51 36 22
-0.736901 0.395817 0.176002 49 36 23
-0.74019 0.400805 0.175291 48 35 22
-0.740013 0.403486 0.175333 48 34 18
-0.739836 0.406165 0.175376 48 33 14
-0.73966 0.408843 0.175419 45 34 15
-0.746486 -0.00664307 0.170484 90 99 97
-0.746301 -0.00383333 0.17053 86 96 93
-0.744413 -0.00111134 0.170955 85 93 88
-0.744229 0.00168813 0.171 93 94 85
-0.308494 -0.0110135 0.26809 82 75 65
-0.308244 -0.0101045 0.268147 82 74 66
-0.308371 -0.00915402 0.26812 82 74 67
-0.310937 -0.00412171 0.267555 80 70 67
-0.310682 -0.00321024 0.267614 78 70 64
-0.310427 -0.00230086 0.267672 76 71 64
-0.310365 -0.00136474 0.267687 75 69 64
-0.31069 -0.000369598 0.267616 75 68 63
-0.310629 0.000567194 0.267631 74 66 60
-0.310567 0.00150349 0.267646 73 66 59
-0.310505 0.00243929 0.267661 72 65 59
-0.310444 0.00337461 0.267676 69 65 57
-0.310576 0.00434337 0.267648 68 63 54
-0.310902 0.00534825 0.267577 78 74 62
-0.311035 0.00632034 0.267549 76 73 61
-0.311364 0.00733041 0.267477 69 64 56
-0.311497 0.00830584 0.267449 67 60 53
-0.312024 0.00935979 0.267333 68 61 54
-0.313148 0.0105385 0.267084 66 61 53
-0.313285 0.011524 0.267055 64 58 50
-0.688101 0.111664 0.183672 83 58 53
-0.686502 0.113838 0.184032 84 64 57
-0.776455 0.174569 0.164075 74 71 66
-0.785894 0.180437 0.16198 71 67 62
-0.785701 0.18337 0.162027 68 61 57
-0.789434 0.187548 0.161202 64 68 60
-0.78924 0.190495 0.161249 70 77 65
-0.787079 0.192799 0.161734 79 82 65
-0.784929 0.195088 0.162217 88 84 63
-0.780859 0.196716 0.163126 93 82 61
-0.778745 0.198973 0.163601 94 79 61
-0.772853 0.199915 0.164915 95 78 63
-0.772664 0.202787 0.164962 93 76 64
-0.768728 0.20434 0.165841 92 75 63
-0.766683 0.206533 0.1663 88 76 64
-0.764649 0.208712 0.166757 86 78 64
-0.757177 0.208891 0.168422 86 80 64
-0.713239 0.195548 0.178194 87 81 62
-0.706842 0.195842 0.17962 88 83 62
-0.705135 0.197852 0.180004 94 83 63
-0.704965 0.200434 0.180046 100 85 64
-0.704795 0.203016 0.180087 103 85 64
-0.703098 0.204999 0.180469 103 84 62
-0.702928 0.207571 0.18051 100 80 59
-0.70582 0.211364 0.179871 95 75 57
-0.70874 0.215193 0.179226 94 74 56
-0.710126 0.218422 0.178922 93 74 57
-0.709955 0.221021 0.178964 92 75 58
-0.708228 0.222971 0.179352 92 76 59
-0.708058 0.225561 0.179394 92 77 60
-0.711005 0.229474 0.178743 94 76 59
-0.710833 0.232074 0.178785 93 77 58
-0.710662 0.234673 0.178827 92 75 57
-0.710491 0.237271 0.178869 90 72 56
-0.711889 0.240561 0.178562 89 71 56
-0.679672 0.261867 0.185774 79 63 46
-0.678094 0.263608 0.186128 77 64 46
-0.676525 0.265338 0.18648 75 64 47
-0.676364 0.267782 0.18652 74 62 47
-0.673407 0.268772 0.18718 75 61 43
-0.673247 0.271201 0.187219 75 62 42
-0.673087 0.27363 0.187259 75 63 42
-0.672928 0.276057 0.187298 76 60 36
-0.674161 0.279231 0.187028 74 56 36
-0.674001 0.281662 0.187067 71 53 36
-0.675239 0.284854 0.186796 71 53 33
-0.675079 0.287288 0.186835 71 56 38
-0.674919 0.289721 0.186874 71 57 40
-0.674759 0.292152 0.186914 71 56 37
-0.673201 0.293796 0.187263 71 55 34
-0.667521 0.293086 0.188528 70 53 33
-0.657952 0.290105 0.190656 70 52 33
-0.655165 0.290948 0.191279 71 50 34
-0.65501 0.293294 0.191317 71 49 32
-0.653549 0.294876 0.191645 71 49 30
-0.654701 0.297983 0.191392 71 49 29
-0.723666 0.36592 0.176124 64 42 24
-0.721845 0.367494 0.176532 61 44 23
-0.721673 0.370108 0.176574 58 40 25
-0.721501 0.372721 0.176616 56 38 26
-0.722976 0.376403 0.176293 54 39 25
-0.724458 0.380102 0.175968 55 38 23
-0.724286 0.382725 0.176011 56 37 22
-0.724113 0.385347 0.176053 54 39 23
-0.728954 0.391309 0.174983 52 38 23
-0.733872 0.397365 0.173896 51 35 22
-0.733697 0.400024 0.173939 51 35 19
-0.733521 0.402682 0.173982 50 35 18
-0.733347 0.405339 0.174025 49 35 20
-0.307728 -0.0138574 0.26732 85 76 65
-0.307292 -0.0129651 0.26742 84 76 64
-0.307418 -0.0120189 0.267393 83 75 66
-0.307733 -0.0110515 0.267323 81 75 67
-0.307861 -0.0101022 0.267295 80 74 67
-0.307988 -0.00915166 0.267267 81 72 66
-0.308685 -0.00813194 0.267111 80 71 65
-0.310418 -0.00508398 0.266721 76 74 67
-0.310356 -0.00414547 0.266737 76 67 66
-0.310102 -0.00323473 0.266796 76 66 62
-0.309847 -0.00232606 0.266855 75 67 63
-0.309786 -0.0013907 0.26687 73 67 62
-0.309917 -0.000426145 0.266842 72 66 62
-0.310241 0.000570214 0.26677 73 65 60
-0.31018 0.00150657 0.266785 70 66 60
-0.310118 0.00244244 0.266801 72 64 59
-0.310057 0.00337782 0.266816 69 64 56
-0.310189 0.00434664 0.266787 67 60 53
-0.310127 0.00528186 0.266803 66 57 52
-0.310453 0.00628796 0.26673 68 64 58
-0.310586 0.00726045 0.266701 66 62 58
-0.311109 0.00830938 0.266584 65 58 52
-0.311438 0.00932473 0.266511 65 58 51
-0.312558 0.0105022 0.266258 65 59 51
-0.312893 0.0115278 0.266184 65 59 51
-0.313228 0.0125565 0.266109 64 56 50
-0.31538 0.0139774 0.265622 66 56 53
-0.315724 0.0150217 0.265546 76 67 63
-0.315661 0.0159781 0.265561 78 74 74
-0.315598 0.016934 0.265577 79 81 77
-0.775247 0.174585 0.161389 73 61 45
-0.78467 0.180453 0.159257 73 62 47
-0.788397 0.184616 0.158416 74 65 52
-0.792167 0.188825 0.157566 78 64 52
-0.791972 0.191789 0.157615 80 64 52
-0.787816 0.193457 0.158561 81 65 49
-0.785659 0.195752 0.159055 80 61 51
-0.781573 0.197381 0.159985 78 59 51
-0.779452 0.199642 0.16047 76 59 52
-0.771651 0.199932 0.162243 73 61 57
-0.765866 0.200857 0.163558 69 64 60
-0.765679 0.203705 0.163605 71 64 59
-0.763648 0.205893 0.16407 71 68 60
-0.761628 0.208068 0.164532 73 70 58
-0.74192 0.203763 0.169003 76 69 55
-0.712142 0.195565 0.175755 78 67 53
-0.705756 0.195859 0.177206 79 66 50
-0.705586 0.19845 0.177249 81 61 50
-0.705416 0.201039 0.177291 80 63 54
-0.705246 0.203626 0.177334 77 64 58
-0.703543 0.205613 0.177724 73 64 59
-0.703374 0.208192 0.177766 70 66 60
-0.706275 0.211997 0.177112 67 69 61
-0.709206 0.21584 0.176452 71 72 60
-0.710596 0.219079 0.176141 73 72 59
-0.708864 0.22104 0.176538 77 72 58
-0.710254 0.224289 0.176227 81 72 57
-0.708522 0.226234 0.176623 85 72 57
-0.709911 0.229494 0.176312 86 70 55
-0.711308 0.232768 0.176 84 71 54
-0.70957 0.234693 0.176397 81 70 55
-0.677059 0.263629 0.183825 81 67 49
-0.675491 0.26536 0.184184 79 67 50
-0.675331 0.267804 0.184224 77 66 51
-0.673772 0.269519 0.184581 77 64 48
-0.67222 0.271224 0.184936 78 62 47
-0.67206 0.273652 0.184976 78 62 45
-0.671901 0.27608 0.185015 78 61 40
-0.673132 0.279254 0.18474 73 60 41
-0.672972 0.281684 0.18478 70 58 40
-0.674208 0.284877 0.184504 73 58 38
-0.674048 0.287311 0.184544 74 59 41
-0.673888 0.289744 0.184584 74 60 40
-0.672333 0.291395 0.18494 74 59 37
-0.672174 0.293819 0.184979 74 59 36
-0.665142 0.292336 0.186575 73 58 36
-0.654323 0.288623 0.189027 73 57 37
-0.652864 0.290218 0.189361 73 56 36
-0.65271 0.292559 0.189399 72 57 35
-0.652556 0.294899 0.189438 71 57 34
-0.652403 0.297238 0.189476 73 55 32
-0.719266 0.363869 0.174384 66 43 24
-0.719095 0.366479 0.174427 63 44 25
-0.720559 0.370137 0.1741 63 44 26
-0.720388 0.37275 0.174143 61 43 26
-0.720216 0.375362 0.174185 59 42 25
-0.720044 0.377973 0.174228 59 40 26
-0.719873 0.380583 0.174271 58 40 27
-0.721344 0.384281 0.173942 59 42 24
-0.724482 0.389105 0.173236 57 40 24
-0.727653 0.393979 0.172523 55 36 24
-0.725804 0.395483 0.172946 54 35 23
-0.725631 0.398113 0.172989 53 34 23
