ply
format ascii 1.0
element vertex 1231
property float x
property float y
property float z
property uchar diffuse_red
property uchar diffuse_green
property uchar diffuse_blue
end_header
-0.28828 -0.0363151 0.210909 43 38 28
-0.282689 -0.0278464 0.2139 41 35 28
-0.282305 -0.0269265 0.214106 39 33 28
-0.281758 -0.0260172 0.214399 41 37 28
-0.281704 -0.0250897 0.214428 42 36 26
-0.28116 -0.0241884 0.214719 39 34 27
-0.280619 -0.0232923 0.215009 39 35 26
-0.280081 -0.0224012 0.215297 35 33 28
-0.280027 -0.0214827 0.215326 37 35 24
-0.279973 -0.0205648 0.215355 37 30 24
-0.279919 -0.0196473 0.215384 37 30 29
-0.279865 -0.0187303 0.215413 37 30 27
-0.280456 -0.0177579 0.215098 37 30 26
-0.280726 -0.0168091 0.214954 42 36 26
-0.280834 -0.0158732 0.214896 37 34 28
-0.280779 -0.0149527 0.214925 37 33 27
-0.280725 -0.0140327 0.214954 34 30 29
-0.280996 -0.0130771 0.21481 35 32 28
-0.280942 -0.0121565 0.214839 31 31 28
-0.280563 -0.0112756 0.215042 30 30 26
-0.280347 -0.0103779 0.215158 29 34 26
-0.27997 -0.00950332 0.21536 28 31 28
-0.279433 -0.00865393 0.215647 29 32 29
-0.279059 -0.00778692 0.215847 29 29 27
-0.278846 -0.00690022 0.215961 34 34 28
-0.278633 -0.00601548 0.216075 45 47 43
-0.278421 -0.00513274 0.216189 46 45 44
-0.278209 -0.00425195 0.216303 45 38 38
-0.278155 -0.00334706 0.216332 43 43 39
-0.27842 -0.00238883 0.216191 44 46 36
-0.307121 0.00774901 0.200846 54 52 45
-0.306848 0.00874955 0.200992 50 51 44
-0.306787 0.00979053 0.201025 52 51 45
-0.306515 0.010787 0.201171 55 55 48
-0.306243 0.011781 0.201316 56 59 49
-0.305763 0.0127267 0.201574 59 59 51
-0.305284 0.0136683 0.20183 60 60 57
-0.305015 0.014653 0.201974 61 63 62
-0.304333 0.0155388 0.202339 67 70 71
-0.304272 0.0165659 0.202372 97 99 105
-0.292001 -0.0795109 0.207794 78 69 52
-0.290874 -0.0782831 0.208403 67 46 47
-0.290816 -0.0772961 0.208435 56 47 40
-0.290758 -0.0763097 0.208466 52 47 37
-0.290524 -0.0752874 0.208594 52 49 36
-0.290642 -0.0743384 0.20853 53 46 37
-0.290408 -0.0733189 0.208657 53 46 35
-0.29035 -0.0723355 0.208688 51 44 36
-0.290292 -0.0713526 0.208719 50 43 37
-0.290058 -0.0703383 0.208846 50 43 38
-0.289649 -0.0692954 0.209067 50 43 37
-0.289417 -0.0682867 0.209193 50 43 36
-0.289359 -0.0673093 0.209225 49 42 37
-0.289302 -0.0663325 0.209256 49 40 36
-0.28907 -0.0653288 0.209382 48 39 33
-0.289012 -0.0643539 0.209413 45 37 30
-0.288955 -0.0633796 0.209444 45 37 29
-0.28855 -0.0623562 0.209663 44 39 29
-0.288319 -0.0613608 0.209788 45 44 30
-0.288262 -0.0603906 0.209819 46 41 32
-0.288032 -0.0593988 0.209944 45 39 33
-0.28763 -0.0583881 0.210161 42 39 32
-0.287057 -0.0573612 0.210471 46 41 28
-0.287 -0.0563981 0.210502 45 40 28
-0.286944 -0.0554356 0.210533 44 41 29
-0.287059 -0.0544912 0.210471 46 39 28
-0.287346 -0.0535626 0.210316 47 39 27
-0.287461 -0.0526152 0.210254 45 40 31
-0.28775 -0.0516819 0.210098 42 34 28
-0.28804 -0.0507459 0.209942 45 34 29
-0.28833 -0.0498071 0.209785 49 45 32
-0.288622 -0.0488655 0.209627 47 36 35
-0.28909 -0.0479332 0.209375 46 38 34
-0.289033 -0.0469626 0.209406 44 37 31
-0.288976 -0.0459925 0.209437 44 39 35
-0.288395 -0.0449943 0.209751 47 38 28
-0.288512 -0.0440365 0.209688 45 35 28
-0.28864 -0.0372877 0.209621 46 36 24
-0.281922 -0.0269253 0.213253 36 32 29
-0.281376 -0.026016 0.213548 38 32 26
-0.281159 -0.0250962 0.213666 38 31 27
-0.280779 -0.0241871 0.213871 39 32 26
-0.280563 -0.0232722 0.213988 41 36 22
-0.279702 -0.0223997 0.214453 38 36 26
-0.279648 -0.0214812 0.214483 34 31 27
-0.279594 -0.0205632 0.214512 34 30 24
-0.27954 -0.0196457 0.214541 35 28 28
-0.279808 -0.0187022 0.214397 34 29 27
-0.280238 -0.0177421 0.214165 36 30 25
-0.280507 -0.0167924 0.21402 37 32 25
-0.280453 -0.0158713 0.214049 37 35 26
-0.280399 -0.0149508 0.214079 36 30 26
-0.280345 -0.0140307 0.214108 35 34 28
-0.280616 -0.013075 0.213962 38 34 26
-0.280561 -0.0121543 0.213992 35 32 27
-0.280507 -0.0112342 0.214021 31 31 28
-0.280129 -0.0103553 0.214226 28 33 29
-0.279913 -0.00945881 0.214343 30 31 30
-0.279056 -0.00865154 0.214806 31 29 28
-0.278523 -0.0078069 0.215094 32 28 26
-0.27831 -0.00692085 0.215209 31 31 28
-0.278098 -0.00603679 0.215324 35 35 32
-0.277887 -0.00515471 0.215439 50 47 44
-0.277833 -0.00424927 0.215468 58 52 41
-0.27778 -0.00334432 0.215497 48 44 38
-0.306477 0.00771161 0.199996 52 53 41
-0.306415 0.00875321 0.200029 51 48 39
-0.306144 0.00975131 0.200176 53 49 42
-0.305873 0.0107469 0.200323 52 54 47
-0.305602 0.01174 0.200469 55 60 49
-0.305332 0.0127307 0.200616 61 61 52
-0.304854 0.0136723 0.200874 62 63 57
-0.304586 0.0146571 0.201019 62 69 67
-0.303905 0.015543 0.201387 78 94 90
-0.303844 0.0165701 0.20142 128 141 128
-0.290532 -0.0792731 0.207479 91 67 55
-0.289945 -0.0781689 0.2078 69 53 56
-0.289887 -0.0771845 0.207831 54 45 42
-0.289829 -0.0762006 0.207863 51 44 36
-0.289772 -0.0752172 0.207895 51 46 36
-0.289714 -0.0742344 0.207926 53 45 36
-0.290008 -0.073321 0.207766 56 45 33
-0.28995 -0.0723375 0.207798 53 43 35
-0.289893 -0.0713545 0.20783 49 44 37
-0.289309 -0.0702765 0.208149 48 45 37
-0.289076 -0.0692663 0.208276 49 44 36
-0.289019 -0.0682884 0.208307 48 42 38
-0.288961 -0.067311 0.208339 46 42 37
-0.288904 -0.0663341 0.20837 47 43 31
-0.288673 -0.0653303 0.208497 47 44 30
-0.288268 -0.0643025 0.208718 47 42 30
-0.287691 -0.0632533 0.209033 49 38 28
-0.287635 -0.0622836 0.209064 46 38 30
-0.287405 -0.0612908 0.20919 44 39 31
-0.287349 -0.060323 0.209221 46 38 33
-0.287292 -0.0593558 0.209252 48 40 33
-0.28672 -0.0583258 0.209564 48 40 31
-0.286664 -0.0573622 0.209595 45 38 32
-0.286607 -0.056399 0.209626 42 36 31
-0.286551 -0.0554364 0.209657 41 37 30
-0.287009 -0.0545274 0.209408 41 38 28
-0.287124 -0.0535803 0.209345 45 38 28
-0.28724 -0.0526319 0.209282 46 35 28
-0.287355 -0.0516825 0.209219 45 37 24
-0.287818 -0.0507609 0.208967 47 36 26
-0.287935 -0.0498075 0.208903 48 40 34
-0.288226 -0.0488658 0.208745 44 37 34
-0.288693 -0.0479335 0.20849 46 46 34
-0.288636 -0.0469628 0.208521 46 41 33
-0.28823 -0.0459718 0.208743 45 40 33
-0.288291 -0.0440452 0.20871 44 38 30
-0.288234 -0.0430774 0.208742 45 39 27
-0.288177 -0.0421102 0.208773 47 40 27
-0.287894 -0.0372819 0.208929 48 33 27
-0.279216 -0.0205616 0.213669 34 33 25
-0.279483 -0.0196192 0.213524 34 35 31
-0.279912 -0.0186608 0.21329 33 29 28
-0.280181 -0.0177122 0.213143 38 33 25
-0.280289 -0.0167757 0.213084 34 32 26
-0.280397 -0.015838 0.213026 36 28 25
-0.280505 -0.0148993 0.212967 36 31 22
-0.280289 -0.0139941 0.213085 38 29 26
-0.278465 -0.0077596 0.214082 30 29 29
-0.278093 -0.00689521 0.214285 32 33 30
-0.277722 -0.00603423 0.214488 33 35 30
-0.277511 -0.00515208 0.214603 39 35 34
-0.277458 -0.00424659 0.214632 47 45 42
-0.277405 -0.00334158 0.214662 49 49 41
-0.307375 0.00691404 0.198306 48 53 43
-0.306254 0.00775621 0.198918 48 50 42
-0.305983 0.00875687 0.199066 49 50 45
-0.305712 0.00975504 0.199215 50 53 49
-0.305441 0.0107507 0.199362 50 58 50
-0.305171 0.0117439 0.19951 51 58 51
-0.304901 0.0127346 0.199657 57 58 55
-0.304633 0.0137228 0.199804 62 64 61
-0.304364 0.0147086 0.199951 78 80 77
-0.304096 0.0156919 0.200098 123 122 113
-0.289603 -0.0791564 0.206877 83 60 52
-0.289195 -0.078094 0.207103 64 66 67
-0.289137 -0.0771112 0.207135 50 45 42
-0.289255 -0.0761659 0.20707 45 42 37
-0.289022 -0.0751472 0.207198 48 46 37
-0.28914 -0.0742012 0.207134 50 44 37
-0.289257 -0.0732541 0.207069 51 44 37
-0.289551 -0.0723395 0.206908 50 43 37
-0.289493 -0.0713564 0.20694 49 43 39
-0.288736 -0.0702466 0.207358 50 47 39
-0.288678 -0.0692681 0.207389 49 48 36
-0.288621 -0.0682901 0.207421 46 43 34
-0.288564 -0.0673126 0.207453 46 41 33
-0.288506 -0.0663356 0.207485 45 41 32
-0.287928 -0.0652772 0.207804 45 39 34
-0.287353 -0.0642249 0.208121 46 39 33
-0.286781 -0.0631786 0.208437 45 39 32
-0.286724 -0.0622114 0.208468 40 37 33
-0.286668 -0.0612447 0.2085 40 37 32
-0.28644 -0.0602559 0.208626 48 40 33
-0.286213 -0.0592692 0.208751 50 39 32
-0.286327 -0.0583268 0.208688 50 39 30
-0.286271 -0.0573631 0.20872 45 40 32
-0.286556 -0.0564387 0.208562 45 41 34
-0.286671 -0.0554929 0.208499 44 36 33
-0.286786 -0.054546 0.208436 43 38 30
-0.286902 -0.0535979 0.208372 41 36 29
-0.287017 -0.0526487 0.208309 44 38 31
-0.286961 -0.051683 0.20834 43 39 29
-0.287422 -0.0507614 0.208086 46 35 27
-0.287539 -0.0498079 0.208022 44 35 32
-0.287829 -0.0488662 0.207862 41 35 35
-0.288471 -0.0479459 0.207508 44 36 33
-0.288414 -0.0469743 0.20754 43 36 34
-0.287837 -0.0430774 0.207859 40 41 34
-0.287781 -0.0421101 0.20789 43 36 31
-0.287376 -0.0411311 0.208113 45 37 33
-0.287611 -0.0392113 0.207984 38 37 29
-0.287903 -0.0382532 0.207823 41 33 33
-0.287498 -0.0372814 0.208047 42 38 30
-0.280124 -0.0176821 0.212117 33 30 30
-0.28007 -0.0167589 0.212147 31 31 28
-0.277135 -0.00514946 0.213768 37 39 34
-0.277082 -0.00424391 0.213797 41 41 38
-0.307641 0.00598709 0.19695 51 53 45
-0.306939 0.00691757 0.197337 53 54 44
-0.306032 0.00780088 0.197837 53 53 45
-0.30576 0.00880256 0.197987 52 53 51
-0.305489 0.00980173 0.198137 52 57 56
-0.305218 0.0107984 0.198286 51 60 55
-0.304948 0.0117926 0.198436 52 61 54
-0.304679 0.0127842 0.198584 57 62 58
-0.30441 0.0137735 0.198733 70 71 75
-0.304142 0.0147602 0.198881 108 104 107
-0.303874 0.0157445 0.199029 152 157 145
-0.288853 -0.0790798 0.206182 65 49 49
-0.288796 -0.0780964 0.206214 65 74 69
-0.288739 -0.0771135 0.206246 55 45 42
-0.288681 -0.0761312 0.206278 44 40 35
-0.288624 -0.0751494 0.20631 47 41 34
-0.288566 -0.0741682 0.206343 48 44 35
-0.288684 -0.0732218 0.206278 48 43 37
-0.288801 -0.0722742 0.206212 49 42 37
-0.288743 -0.0712928 0.206245 49 43 38
-0.288512 -0.0702802 0.206374 51 42 37
-0.288454 -0.0693007 0.206406 52 44 36
-0.288397 -0.0683218 0.206438 49 44 34
-0.288166 -0.0673142 0.206567 45 40 31
-0.288109 -0.0663372 0.206599 46 38 32
-0.287359 -0.0652515 0.207017 48 37 34
-0.286614 -0.0641739 0.207432 44 39 34
-0.286386 -0.0631799 0.207559 43 41 34
-0.286159 -0.0621883 0.207686 40 39 34
-0.286103 -0.0612224 0.207717 39 35 32
-0.285876 -0.0602343 0.207844 44 39 32
-0.28582 -0.0592703 0.207875 46 40 33
-0.285763 -0.0583068 0.207907 43 40 35
-0.285877 -0.0573641 0.207844 43 38 32
-0.286333 -0.056459 0.20759 44 42 29
-0.28662 -0.055531 0.20743 46 36 30
-0.286907 -0.0546003 0.20727 50 38 33
-0.287023 -0.0536497 0.207206 41 37 32
-0.28714 -0.0526979 0.207141 40 35 30
-0.287083 -0.0517296 0.207173 41 38 25
-0.287026 -0.0507619 0.207205 45 39 27
-0.287316 -0.0498221 0.207044 45 37 29
-0.288129 -0.0489184 0.206591 43 37 32
-0.288073 -0.0479462 0.206623 48 38 31
-0.288016 -0.0469745 0.206654 44 40 31
-0.288842 -0.0431403 0.206195 39 36 34
-0.286981 -0.0411309 0.207232 43 36 30
-0.287619 -0.0401874 0.206877 46 32 28
-0.287215 -0.039211 0.207102 42 35 31
-0.287332 -0.0382493 0.207037 45 33 32
-0.287102 -0.037281 0.207165 41 35 33
-0.307479 0.00497648 0.195824 45 50 46
-0.307203 0.00599057 0.195977 49 53 46
-0.306716 0.00696158 0.196249 56 54 50
-0.306231 0.00792822 0.196519 58 57 52
-0.305747 0.00889052 0.196789 55 60 53
-0.305476 0.00989161 0.19694 54 60 53
-0.304995 0.0108462 0.197208 53 61 53
-0.304934 0.0118863 0.197242 54 62 55
-0.304456 0.012834 0.197509 62 70 68
-0.304395 0.013871 0.197543 88 101 97
-0.304127 0.0148597 0.197693 141 152 134
-0.288454 -0.0790822 0.205293 49 43 44
-0.288397 -0.0780988 0.205325 83 73 61
-0.288166 -0.0770781 0.205455 67 44 46
-0.288108 -0.0760966 0.205488 46 39 35
-0.288051 -0.0751156 0.20552 45 39 34
-0.287994 -0.0741352 0.205553 47 42 32
-0.288111 -0.0731895 0.205487 47 41 34
-0.288227 -0.0722427 0.205422 47 41 35
-0.28817 -0.0712621 0.205454 49 41 35
-0.288113 -0.070282 0.205486 50 41 35
-0.288056 -0.0693025 0.205519 49 42 34
-0.287999 -0.0683235 0.205551 47 42 33
-0.287942 -0.067345 0.205583 46 42 34
-0.287538 -0.0663105 0.205811 47 41 36
-0.286963 -0.065253 0.206134 47 39 33
-0.286391 -0.0642015 0.206456 44 37 32
-0.286163 -0.0632066 0.206585 41 38 34
-0.285936 -0.062214 0.206713 38 38 32
-0.285539 -0.0612001 0.206936 38 36 30
-0.285482 -0.0602355 0.206968 42 37 30
-0.285426 -0.0592714 0.207 42 35 29
-0.28554 -0.0583289 0.206936 45 37 31
-0.285995 -0.0574258 0.20668 45 40 33
-0.28611 -0.0564793 0.206615 45 39 32
-0.286568 -0.0555692 0.206358 46 37 28
-0.286684 -0.0546189 0.206293 48 39 27
-0.2868 -0.0536674 0.206228 45 37 33
-0.286743 -0.0526986 0.20626 44 37 30
-0.28686 -0.0517456 0.206194 46 34 27
-0.286976 -0.0507915 0.206129 46 36 27
-0.287266 -0.04985 0.205966 45 37 32
-0.287383 -0.0488927 0.2059 44 37 32
-0.287326 -0.0479222 0.205932 47 37 30
-0.287444 -0.0469634 0.205867 42 35 32
-0.288437 -0.0460558 0.205308 43 33 31
-0.288091 -0.0431245 0.205503 46 37 33
-0.286931 -0.0411429 0.206156 45 38 27
-0.287048 -0.0401818 0.20609 44 41 31
-0.286645 -0.0392063 0.206317 43 37 34
-0.286762 -0.0382454 0.206252 45 35 29
-0.286706 -0.0372805 0.206284 43 36 30
-0.307781 -0.00770972 0.194431 33 32 30
-0.307719 -0.00664916 0.194466 32 33 32
-0.307658 -0.00558916 0.194501 32 37 37
-0.30753 0.0040009 0.194574 51 50 46
-0.307255 0.0050186 0.19473 51 51 47
-0.306766 0.00599406 0.195005 52 57 50
-0.306705 0.00704629 0.195039 56 57 53
-0.306219 0.00801473 0.195313 58 58 56
-0.305734 0.00897882 0.195586 57 61 57
-0.305463 0.00998186 0.195739 57 61 57
-0.305191 0.0109824 0.195892 57 61 57
-0.304711 0.0119353 0.196162 58 65 63
-0.304441 0.0129299 0.196314 79 85 83
-0.304172 0.013922 0.196466 124 131 120
-0.288055 -0.0790847 0.204404 41 40 40
-0.287824 -0.0780626 0.204535 85 65 54
-0.287767 -0.0770805 0.204568 68 63 61
-0.28771 -0.0760989 0.2046 48 41 37
-0.28748 -0.0750819 0.204731 44 38 33
-0.287423 -0.0741022 0.204764 46 38 32
-0.287539 -0.0731573 0.204698 47 39 31
-0.287655 -0.0722112 0.204632 46 40 31
-0.287771 -0.071264 0.204566 45 39 31
-0.287714 -0.0702839 0.204598 46 36 32
-0.287657 -0.0693043 0.204631 46 38 33
-0.2876 -0.0683252 0.204664 45 42 33
-0.287543 -0.0673467 0.204696 47 41 33
-0.28714 -0.0663121 0.204925 49 38 34
-0.286566 -0.0652545 0.205252 48 39 33
-0.285995 -0.0642029 0.205576 46 37 32
-0.285598 -0.0631826 0.205802 43 37 33
-0.285371 -0.0621908 0.205931 41 37 31
-0.285145 -0.0612013 0.20606 40 36 29
-0.285089 -0.0602366 0.206092 42 38 31
-0.285033 -0.0592725 0.206124 45 33 26
-0.285146 -0.0583299 0.206059 45 34 27
-0.285772 -0.057447 0.205704 45 34 31
-0.285886 -0.0564997 0.205639 45 38 33
-0.286345 -0.0555888 0.205379 43 39 31
-0.28646 -0.0546376 0.205313 40 37 32
-0.286404 -0.0536681 0.205346 41 36 38
-0.28652 -0.0527155 0.20528 42 35 33
-0.286463 -0.0517462 0.205312 44 36 30
-0.286407 -0.0507774 0.205344 44 36 28
-0.286523 -0.0498229 0.205278 44 36 28
-0.286812 -0.0488802 0.205114 45 40 29
-0.286756 -0.0479104 0.205146 42 38 30
-0.286699 -0.0469412 0.205179 41 38 27
-0.286643 -0.0459724 0.205211 44 37 29
-0.287805 -0.0450713 0.204551 43 33 29
-0.287748 -0.0440976 0.204583 44 34 29
-0.287517 -0.0431165 0.204715 46 40 33
-0.28746 -0.0421447 0.204747 43 39 31
-0.286708 -0.0411489 0.205175 40 39 29
-0.286651 -0.0401816 0.205207 43 37 28
-0.286249 -0.039206 0.205436 45 38 32
-0.28602 -0.0382379 0.205566 38 35 31
-0.285964 -0.0372747 0.205598 35 42 36
-0.309815 -0.0203696 0.192047 32 33 28
-0.308881 -0.0118228 0.192579 32 30 30
-0.30854 -0.00970924 0.192773 34 32 30
-0.308047 -0.00869283 0.193053 31 35 35
-0.307342 -0.00770717 0.193454 34 37 33
-0.30728 -0.00664653 0.193489 39 37 35
-0.307219 -0.00558646 0.193525 38 39 38
-0.308015 -0.00440935 0.193072 40 40 40
-0.308198 -9.26031e-05 0.192969 46 48 46
-0.307921 0.000935512 0.193127 50 51 51
-0.307859 0.00199688 0.193162 52 51 49
-0.307797 0.00305768 0.193197 54 56 48
-0.307306 0.00404206 0.193477 54 57 54
-0.30703 0.0050608 0.193633 54 58 57
-0.306755 0.00607695 0.19379 56 60 56
-0.306694 0.00713133 0.193825 57 60 57
-0.306207 0.00810158 0.194102 58 62 59
-0.306145 0.00915277 0.194137 60 64 61
-0.306084 0.0102034 0.194172 60 70 68
-0.305388 0.0111194 0.194567 69 79 79
-0.304906 0.0120749 0.194841 91 88 94
-0.304426 0.0130261 0.195114 116 115 117
-0.287656 -0.0790872 0.203514 36 41 37
-0.287425 -0.078065 0.203647 68 51 51
-0.287368 -0.0770828 0.203679 63 72 70
-0.287138 -0.0760643 0.203812 51 43 39
-0.286909 -0.0750482 0.203943 44 37 33
-0.286852 -0.0740693 0.203976 45 40 31
-0.286968 -0.0731251 0.20391 43 40 30
-0.287083 -0.0721798 0.203844 41 41 31
-0.287199 -0.0712333 0.203777 42 39 30
-0.287143 -0.070254 0.20381 44 35 32
-0.287259 -0.0693061 0.203743 46 39 33
-0.287202 -0.0683269 0.203776 46 41 33
-0.287145 -0.0673483 0.203809 47 38 33
-0.286915 -0.0663419 0.203941 48 39 33
-0.286342 -0.0652832 0.20427 46 40 33
-0.285942 -0.0642569 0.2045 45 40 31
-0.285544 -0.0632347 0.204728 45 37 30
-0.284977 -0.0621921 0.205054 42 36 30
-0.284752 -0.0612025 0.205183 39 36 29
-0.284696 -0.0602378 0.205216 41 36 31
-0.28464 -0.0592736 0.205248 43 35 31
-0.284753 -0.0583309 0.205183 43 40 31
-0.285547 -0.0574683 0.204727 42 34 30
-0.285662 -0.0565202 0.204661 42 37 28
-0.285949 -0.0555896 0.204497 42 42 30
-0.286064 -0.0546384 0.204431 36 42 34
-0.28618 -0.0536859 0.204365 40 36 37
-0.286123 -0.0527161 0.204397 44 36 32
-0.286067 -0.0517467 0.20443 43 41 32
-0.286011 -0.0507779 0.204462 41 40 30
-0.285954 -0.0498096 0.204494 42 36 27
-0.285898 -0.0488418 0.204527 41 37 26
-0.285842 -0.0478745 0.204559 46 40 26
-0.285958 -0.046919 0.204493 44 34 26
-0.286074 -0.0459622 0.204426 44 40 30
-0.286536 -0.0450234 0.204161 45 36 30
-0.287175 -0.0440888 0.203795 45 37 27
-0.287118 -0.0431165 0.203827 43 35 30
-0.287062 -0.0421446 0.20386 42 36 32
-0.286311 -0.0411487 0.204291 43 42 28
-0.286428 -0.0401866 0.204224 39 35 33
-0.286025 -0.0392101 0.204455 39 34 29
-0.285625 -0.0382375 0.204685 36 35 30
-0.285397 -0.0372715 0.204816 37 35 32
-0.285513 -0.0363115 0.204749 37 37 28
-0.309434 -0.0214445 0.191023 29 31 25
-0.309154 -0.0203817 0.191183 29 33 27
-0.309092 -0.0193067 0.191219 30 33 27
-0.309246 -0.0182165 0.191131 34 33 27
-0.309401 -0.0171247 0.191042 34 30 25
-0.309557 -0.0160312 0.190953 34 29 25
-0.309494 -0.0149554 0.190989 34 33 27
-0.309214 -0.0139003 0.19115 33 34 25
-0.308717 -0.0128692 0.191435 35 34 26
-0.308439 -0.0118205 0.191595 34 34 32
-0.308161 -0.0107745 0.191755 35 38 33
-0.308099 -0.00970683 0.19179 36 37 37
-0.307607 -0.00869034 0.192073 35 38 35
-0.307545 -0.00762592 0.192108 39 41 35
-0.307698 -0.00653467 0.192021 44 46 37
-0.307636 -0.00547033 0.192056 44 46 41
-0.308005 -0.00434741 0.191845 45 43 43
-0.307943 -0.00328209 0.191881 49 46 44
-0.307881 -0.00221734 0.191916 46 50 47
-0.307819 -0.00115315 0.191952 49 52 47
-0.307757 -8.95292e-05 0.191988 54 50 49
-0.30748 0.000938655 0.192147 55 52 51
-0.307419 0.00200009 0.192182 54 54 52
-0.307357 0.00306097 0.192218 55 59 54
-0.307295 0.00412129 0.192253 56 61 56
-0.307019 0.00514202 0.192412 58 61 57
-0.306744 0.00616017 0.19257 59 64 59
-0.306682 0.0072167 0.192605 59 66 62
-0.306407 0.00823069 0.192763 61 67 68
-0.306346 0.00928506 0.192799 73 75 81
-0.306285 0.0103389 0.192834 104 107 101
-0.305586 0.0112573 0.193235 132 145 127
-0.304892 0.0121698 0.193634 142 153 146
-0.287257 -0.0790896 0.202625 38 42 36
-0.287027 -0.0780674 0.202758 45 41 47
-0.286797 -0.0770475 0.202891 75 70 64
-0.28674 -0.0760666 0.202924 64 41 41
-0.286511 -0.0750504 0.203057 47 35 33
-0.286283 -0.0740365 0.20319 44 39 32
-0.286226 -0.0730589 0.203223 40 38 32
-0.286513 -0.0721484 0.203057 39 39 33
-0.286628 -0.0712027 0.20299 40 39 31
-0.286572 -0.0702242 0.203023 41 37 30
-0.286687 -0.069277 0.202956 43 38 31
-0.286631 -0.0682986 0.202989 45 39 34
-0.286574 -0.0673208 0.203022 44 39 35
-0.286517 -0.0663435 0.203055 43 38 34
-0.285945 -0.0652847 0.203387 44 36 31
-0.285546 -0.0642583 0.203618 43 37 27
-0.285149 -0.063236 0.203848 45 34 29
-0.284753 -0.0622178 0.204078 45 34 31
-0.284527 -0.0612273 0.204209 40 36 30
-0.284302 -0.0602389 0.204339 42 38 30
-0.284246 -0.0592747 0.204372 42 37 29
-0.284698 -0.0583741 0.20411 43 38 29
-0.285152 -0.0574693 0.203847 42 35 31
-0.285267 -0.0565211 0.203781 38 37 29
-0.285381 -0.0555717 0.203714 40 38 29
-0.285668 -0.0546391 0.203548 41 36 28
-0.285783 -0.0536866 0.203481 43 34 31
-0.285727 -0.0527167 0.203514 41 34 31
-0.285671 -0.0517473 0.203547 41 35 33
-0.285443 -0.0507638 0.203679 40 34 30
-0.285558 -0.04981 0.203612 44 37 26
-0.285159 -0.0488165 0.203843 41 36 25
-0.285103 -0.0478508 0.203876 44 41 30
-0.285219 -0.0468968 0.203809 44 35 29
-0.285334 -0.0459417 0.203743 45 37 28
-0.285793 -0.0450044 0.203476 45 38 30
-0.286428 -0.0440714 0.203108 43 36 32
-0.28672 -0.0431164 0.20294 47 42 27
-0.286663 -0.0421445 0.202973 40 33 27
-0.286955 -0.0411854 0.202803 41 39 28
-0.286899 -0.0402128 0.202836 42 36 37
-0.285974 -0.0392186 0.203372 43 33 32
-0.285918 -0.0382513 0.203405 38 34 31
-0.285002 -0.0372711 0.203936 41 34 24
-0.30899 -0.0214429 0.190034 29 31 25
-0.30871 -0.02038 0.190196 29 34 28
-0.308648 -0.019305 0.190232 33 34 26
-0.308586 -0.0182305 0.190268 38 29 26
-0.308957 -0.0171227 0.190053 31 33 27
-0.308895 -0.0160473 0.19009 31 32 27
-0.308832 -0.0149725 0.190126 34 33 34
-0.308553 -0.0139184 0.190288 36 36 31
-0.308275 -0.012867 0.190449 35 35 33
-0.307997 -0.0118182 0.190611 37 38 36
-0.307719 -0.0107721 0.190771 40 40 35
-0.307657 -0.0097044 0.190807 38 41 38
-0.307595 -0.00863723 0.190843 39 42 38
-0.307533 -0.00757063 0.190879 41 44 42
-0.307472 -0.00650459 0.190915 47 47 41
-0.307625 -0.00541057 0.190827 45 49 43
-0.307563 -0.00434462 0.190863 46 49 46
-0.307501 -0.00327922 0.190899 50 52 51
-0.30744 -0.00221441 0.190934 52 53 55
-0.307378 -0.00115014 0.19097 56 54 50
-0.307316 -8.64411e-05 0.191006 57 57 51
-0.307254 0.000976678 0.191042 53 60 56
-0.307193 0.00203924 0.191078 54 60 56
-0.306917 0.00306425 0.191238 59 61 57
-0.306855 0.00412464 0.191274 60 62 59
-0.306794 0.00518447 0.19131 61 63 60
-0.306518 0.00620366 0.191469 61 66 67
-0.306457 0.00726131 0.191505 70 75 81
-0.306395 0.00831841 0.191541 102 101 98
-0.306334 0.00937493 0.191576 134 136 126
-0.306273 0.0104309 0.191612 152 161 148
-0.286455 -0.0780312 0.201971 37 38 40
-0.286399 -0.0770498 0.202004 81 65 55
-0.28617 -0.0760321 0.202138 65 57 56
-0.285942 -0.0750168 0.202271 43 38 37
-0.285885 -0.0740386 0.202305 41 35 33
-0.285657 -0.0730269 0.202438 40 35 31
-0.285772 -0.0720839 0.202371 42 38 32
-0.285887 -0.0711397 0.202304 43 41 31
-0.28583 -0.0701628 0.202337 42 41 28
-0.285945 -0.0692171 0.20227 44 39 30
-0.28606 -0.0682704 0.202203 46 39 33
-0.286176 -0.0673224 0.202135 46 39 32
-0.285947 -0.0663168 0.202269 45 37 31
-0.285548 -0.0652862 0.202503 43 36 29
-0.28532 -0.0642861 0.202636 41 35 28
-0.284923 -0.0632628 0.202869 42 35 32
-0.284358 -0.0622191 0.203199 42 36 31
-0.284133 -0.0612285 0.203331 39 35 29
-0.283908 -0.0602401 0.203463 42 35 29
-0.283853 -0.0592758 0.203496 43 35 31
-0.284303 -0.0583751 0.203232 41 36 32
-0.284757 -0.0574703 0.202966 38 36 29
-0.284701 -0.0565024 0.202999 39 37 25
-0.284985 -0.0555725 0.202833 41 35 26
-0.285271 -0.0546399 0.202666 40 34 25
-0.285386 -0.0536873 0.202598 43 31 25
-0.28533 -0.0527173 0.202631 44 35 30
-0.285103 -0.0517324 0.202764 42 34 32
-0.284876 -0.0507498 0.202897 43 33 30
-0.28482 -0.049783 0.20293 45 35 27
-0.284764 -0.0488168 0.202963 41 37 27
-0.284368 -0.0478272 0.203195 43 42 31
-0.284482 -0.0468748 0.203128 43 37 27
-0.284767 -0.0459316 0.202961 45 39 29
-0.285053 -0.0449855 0.202794 44 39 33
-0.28603 -0.0440714 0.202222 43 35 30
-0.308762 -0.0214285 0.188918 29 30 28
-0.308483 -0.0203645 0.189082 32 31 26
-0.308204 -0.0193032 0.189245 32 33 25
-0.308359 -0.0182128 0.189155 32 31 27
-0.308513 -0.0171208 0.189065 30 37 29
-0.308451 -0.0160453 0.189101 32 36 31
-0.308605 -0.0149512 0.189011 36 35 36
-0.308543 -0.0138758 0.189047 39 36 33
-0.308048 -0.0128435 0.189337 40 39 38
-0.307554 -0.011816 0.189626 42 41 36
-0.307492 -0.0107465 0.189662 42 42 37
-0.30743 -0.00967765 0.189699 42 46 41
-0.307369 -0.00860935 0.189735 44 47 39
-0.307307 -0.00754162 0.189771 46 47 45
-0.307245 -0.00647445 0.189808 48 51 45
-0.307183 -0.00540786 0.189844 47 52 51
-0.307122 -0.00434182 0.18988 52 52 48
-0.30706 -0.00327636 0.189916 55 57 50
-0.306998 -0.00221146 0.189952 58 59 54
-0.306937 -0.00114714 0.189989 60 57 55
-0.306875 -8.3373e-05 0.190025 60 56 56
-0.306813 0.000979836 0.190061 58 59 59
-0.306752 0.00204247 0.190097 59 64 60
-0.30669 0.00310454 0.190133 62 65 62
-0.306629 0.00416605 0.190169 63 66 69
-0.306354 0.0051879 0.19033 73 76 81
-0.306292 0.00624724 0.190366 102 103 97
-0.306231 0.00730601 0.190402 130 138 126
-0.306383 0.00840645 0.190313 150 158 147
-0.286057 -0.0780337 0.201083 39 39 36
-0.285829 -0.0770145 0.201218 67 51 47
-0.285601 -0.0759977 0.201352 63 71 64
-0.285544 -0.0750189 0.201386 46 43 37
-0.285317 -0.0740058 0.20152 41 37 32
-0.28526 -0.073029 0.201554 40 34 30
-0.285204 -0.0720527 0.201587 41 37 31
-0.284977 -0.0710446 0.201721 43 40 30
-0.285091 -0.0701016 0.201654 43 39 28
-0.285376 -0.0691882 0.201485 43 37 28
-0.28532 -0.0682123 0.201519 44 37 30
-0.285606 -0.067295 0.20135 45 38 30
-0.285207 -0.0662621 0.201586 44 38 29
-0.285151 -0.0652877 0.201619 44 37 30
-0.285095 -0.0643139 0.201652 43 36 31
-0.284528 -0.0632642 0.201987 42 35 33
-0.284302 -0.0622694 0.202121 39 37 31
-0.283739 -0.0612297 0.202454 38 36 30
-0.283683 -0.0602639 0.202487 40 36 30
-0.283627 -0.0592987 0.20252 41 33 29
-0.283909 -0.0583761 0.202353 40 33 29
-0.284192 -0.0574509 0.202186 40 33 30
-0.284475 -0.0565228 0.202019 40 33 29
-0.284419 -0.0555546 0.202052 42 35 29
-0.284534 -0.0546048 0.201984 42 34 26
-0.284819 -0.0536709 0.201816 45 32 26
-0.284763 -0.0527017 0.201849 44 35 28
-0.284707 -0.051733 0.201882 44 37 29
-0.28448 -0.0507503 0.202016 41 35 29
-0.284424 -0.0497835 0.202049 37 41 30
-0.284029 -0.0487916 0.202283 39 35 29
-0.283634 -0.0478037 0.202516 41 38 29
-0.283748 -0.0468529 0.202449 43 37 30
-0.284031 -0.0459112 0.202282 38 35 29
-0.284486 -0.0449761 0.202013 40 34 30
-0.308255 -0.020349 0.187965 34 35 30
-0.308193 -0.0192717 0.188002 35 36 34
-0.308131 -0.018195 0.188039 32 34 34
-0.308069 -0.0171189 0.188076 34 40 34
-0.308223 -0.0160252 0.187985 34 36 36
-0.308161 -0.0149491 0.188021 38 41 36
-0.308099 -0.0138737 0.188058 41 41 39
-0.308037 -0.0127987 0.188095 41 42 39
-0.307542 -0.0117691 0.188387 43 43 38
-0.307265 -0.0107208 0.188551 44 47 39
-0.307203 -0.00965085 0.188588 46 51 44
-0.307141 -0.00858141 0.188624 48 52 43
-0.30708 -0.00751255 0.188661 52 52 44
-0.307018 -0.00644425 0.188697 57 55 47
-0.306956 -0.00537653 0.188734 55 58 54
-0.306895 -0.00430936 0.18877 58 55 52
-0.306833 -0.00324276 0.188807 57 58 57
-0.306771 -0.00217675 0.188843 57 61 56
-0.30671 -0.00111128 0.18888 58 61 59
-0.306648 -4.63829e-05 0.188916 60 61 61
-0.306372 0.000982989 0.189079 62 64 63
-0.306311 0.00204569 0.189116 64 67 67
-0.30625 0.00310784 0.189152 74 77 81
-0.306188 0.00416942 0.189188 107 102 100
-0.306127 0.00523043 0.189225 137 141 130
-0.306066 0.00629088 0.189261 153 162 148
-0.285658 -0.0780361 0.200195 41 39 37
-0.28543 -0.0770168 0.200331 52 42 43
-0.285203 -0.0759999 0.200466 72 73 61
-0.284976 -0.0749854 0.200602 55 43 40
-0.28492 -0.0740079 0.200636 42 38 31
-0.284693 -0.072997 0.200771 39 36 30
-0.284467 -0.0719884 0.200906 40 36 30
-0.284241 -0.0709822 0.20104 42 38 31
-0.284185 -0.0700094 0.201074 41 38 29
-0.284468 -0.0690981 0.200905 41 37 27
-0.284752 -0.0681842 0.200736 43 37 28
-0.284866 -0.0672386 0.200668 44 37 30
-0.28481 -0.0662636 0.200701 44 37 28
-0.284754 -0.0652892 0.200735 46 37 28
-0.284527 -0.064289 0.20087 45 37 30
-0.284301 -0.063291 0.201005 43 36 31
-0.284076 -0.0622953 0.20114 42 34 29
-0.283513 -0.0612545 0.201475 42 35 27
-0.283289 -0.0602651 0.201609 43 34 28
-0.283233 -0.0592998 0.201642 43 34 30
-0.283346 -0.0583561 0.201575 39 34 29
-0.283966 -0.0574722 0.201205 38 34 29
-0.28408 -0.0565237 0.201138 40 35 29
-0.284024 -0.0555554 0.201171 42 35 26
-0.283968 -0.0545877 0.201204 41 32 27
-0.284252 -0.0536545 0.201035 43 33 25
-0.284196 -0.052686 0.201068 39 36 27
-0.28414 -0.0517181 0.201102 41 36 26
-0.283915 -0.0507362 0.201236 40 33 26
-0.284029 -0.0497839 0.201168 36 35 27
-0.283973 -0.0488175 0.201202 42 33 26
-0.283409 -0.0478158 0.201538 43 35 30
-0.283353 -0.0468531 0.201571 41 36 29
-0.283636 -0.0459113 0.201403 42 34 30
-0.312284 -0.0211654 0.184305 35 35 30
-0.309773 -0.0202219 0.185804 33 36 34
-0.309711 -0.0191349 0.185841 37 35 35
-0.309648 -0.0180483 0.185879 37 38 33
-0.310026 -0.0169277 0.185653 38 42 37
-0.309963 -0.0158401 0.185691 37 42 37
-0.308803 -0.0148506 0.186383 41 44 38
-0.308741 -0.0137697 0.186421 42 46 40
-0.308897 -0.0126677 0.186327 45 46 39
-0.30753 -0.0117221 0.187143 46 47 41
-0.307468 -0.0106483 0.18718 47 49 41
-0.307191 -0.0095995 0.187346 49 52 44
-0.307129 -0.00852787 0.187383 52 55 45
-0.307067 -0.00745681 0.18742 58 56 46
-0.307005 -0.00638631 0.187457 60 58 50
-0.306729 -0.00534512 0.187622 59 60 56
-0.306452 -0.00430657 0.187787 58 59 54
-0.306391 -0.00323991 0.187823 59 60 57
-0.306329 -0.00217381 0.18786 59 63 58
-0.306268 -0.00110826 0.187897 61 64 61
-0.306206 -4.33006e-05 0.187934 63 67 68
-0.306145 0.00102111 0.18797 71 79 82
-0.30587 0.00204891 0.188134 106 102 98
-0.305809 0.00311113 0.188171 136 137 128
-0.305747 0.00417279 0.188208 154 158 148
-0.284861 -0.0769816 0.199546 45 39 39
-0.284635 -0.0759656 0.199683 76 67 55
-0.284579 -0.0749876 0.199717 60 58 55
-0.284353 -0.0739752 0.199853 41 41 33
-0.284127 -0.0729652 0.199989 36 38 30
-0.283564 -0.0718916 0.200328 40 37 32
-0.283508 -0.0709199 0.200362 41 36 32
-0.283452 -0.0699488 0.200396 42 36 29
-0.283397 -0.0689782 0.200429 43 37 29
-0.283509 -0.0680376 0.200362 45 39 30
-0.284129 -0.0671823 0.199988 44 37 30
-0.284073 -0.066209 0.200022 42 36 28
-0.284017 -0.0652363 0.200055 44 35 28
-0.283961 -0.064264 0.200089 47 34 28
-0.283905 -0.0632923 0.200123 45 35 28
-0.283849 -0.0623212 0.200156 43 34 27
-0.283456 -0.061303 0.200394 43 34 27
-0.283063 -0.060289 0.20063 43 34 30
-0.282839 -0.0593009 0.200765 42 34 30
-0.283626 -0.0584417 0.200291 42 36 28
-0.28357 -0.0574731 0.200325 39 37 29
-0.283515 -0.0565051 0.200358 41 33 27
-0.283459 -0.0555376 0.200392 42 34 26
-0.283572 -0.0545884 0.200324 41 34 28
-0.283856 -0.0536552 0.200153 41 36 27
-0.2838 -0.0526867 0.200186 38 39 26
-0.283744 -0.0517187 0.20022 41 35 25
-0.283519 -0.0507367 0.200356 40 31 27
-0.310269 -0.0212559 0.184236 38 40 33
-0.309544 -0.0202062 0.184673 36 40 35
-0.309482 -0.0191179 0.18471 39 39 35
-0.309639 -0.0180139 0.184615 41 42 36
-0.310018 -0.0168908 0.184387 40 41 38
-0.309955 -0.015801 0.184425 46 41 39
-0.309672 -0.0147314 0.184596 49 41 41
-0.309389 -0.0136646 0.184766 50 53 41
-0.309326 -0.0125787 0.184804 48 48 41
-0.308606 -0.0115618 0.185238 52 52 45
-0.308544 -0.0104804 0.185276 51 52 46
-0.308481 -0.00939947 0.185313 52 56 49
-0.307983 -0.00837103 0.185614 58 59 51
-0.30727 -0.00737408 0.186043 61 61 52
-0.306993 -0.00632814 0.186211 60 60 55
-0.3065 -0.00531366 0.186507 60 62 59
-0.306224 -0.00427403 0.186674 60 62 59
-0.306163 -0.00320624 0.186711 61 64 61
-0.305887 -0.00217087 0.186877 64 67 67
-0.305826 -0.00110526 0.186914 68 77 79
-0.305765 -4.02197e-05 0.186951 98 93 96
-0.305704 0.00102426 0.186988 130 136 127
-0.284294 -0.0769465 0.198763 43 38 35
-0.284237 -0.0759678 0.198798 69 55 43
-0.284012 -0.074954 0.198935 64 66 61
-0.283617 -0.0739078 0.199175 46 39 33
-0.283225 -0.0728658 0.199414 36 36 28
-0.283001 -0.0718607 0.19955 39 34 29
-0.282945 -0.0708898 0.199584 40 34 32
-0.282722 -0.0698884 0.19972 41 33 31
-0.282666 -0.0689194 0.199753 42 34 32
-0.282778 -0.0679803 0.199685 43 39 34
-0.283058 -0.0670688 0.199515 43 38 32
-0.283339 -0.0661546 0.199344 43 35 29
-0.283283 -0.0651835 0.199378 42 36 29
-0.283396 -0.0642392 0.199309 43 36 31
-0.283509 -0.0632937 0.19924 44 36 31
-0.283453 -0.0623225 0.199274 43 35 29
-0.283229 -0.061328 0.199411 41 33 27
-0.282836 -0.0603129 0.19965 40 33 29
-0.282949 -0.0593678 0.199581 41 33 28
-0.28323 -0.0584427 0.19941 43 32 27
-0.283175 -0.0574741 0.199444 41 36 27
-0.283119 -0.056506 0.199478 40 35 27
-0.282895 -0.0555197 0.199614 40 34 27
-0.283008 -0.0545713 0.199545 41 33 28
-0.283121 -0.0536218 0.199476 41 34 29
-0.283066 -0.0526549 0.19951 38 35 26
-0.283179 -0.0517039 0.199441 40 36 26
-0.283124 -0.0507372 0.199475 40 34 26
-0.309598 -0.0212673 0.183367 36 42 36
-0.309095 -0.0202044 0.183673 41 40 37
-0.309033 -0.0191161 0.183711 42 42 34
-0.30919 -0.018012 0.183615 43 47 38
-0.309347 -0.0169063 0.183519 43 46 40
-0.309505 -0.015799 0.183423 52 47 42
-0.309443 -0.0147097 0.183461 52 48 45
-0.30938 -0.013621 0.183499 50 54 44
-0.309318 -0.0125328 0.183537 48 55 52
-0.309035 -0.0114682 0.183709 56 58 51
-0.308972 -0.0103823 0.183747 54 58 52
-0.308253 -0.00937209 0.184185 56 59 55
-0.307972 -0.00831664 0.184356 56 61 57
-0.307475 -0.00729085 0.184658 59 61 58
-0.306764 -0.00629764 0.185091 60 63 60
-0.306487 -0.00525329 0.185259 61 65 63
-0.305996 -0.00424144 0.185558 63 65 68
-0.30572 -0.00320336 0.185726 69 78 81
-0.305445 -0.00216792 0.185893 103 94 96
-0.305384 -0.00110225 0.18593 132 136 123
-0.283502 -0.0758971 0.19812 55 44 35
-0.283109 -0.0748495 0.198361 70 64 55
-0.282885 -0.0738407 0.198498 56 48 41
-0.282494 -0.0728005 0.198738 40 36 29
-0.282439 -0.0718299 0.198773 39 33 27
-0.282216 -0.0708279 0.198909 38 33 31
-0.282161 -0.0698592 0.198943 38 33 31
-0.282105 -0.0688909 0.198977 39 34 31
-0.28205 -0.0679233 0.199011 39 37 33
-0.282161 -0.0669846 0.198943 40 36 32
-0.282272 -0.0660448 0.198875 43 34 29
-0.282551 -0.0651309 0.198703 43 34 28
-0.282832 -0.0642143 0.198531 42 35 29
-0.282944 -0.0632696 0.198462 43 35 30
-0.282889 -0.0622992 0.198496 44 36 30
-0.282665 -0.0613055 0.198633 44 37 27
-0.282441 -0.0603141 0.19877 42 37 27
-0.282554 -0.0593689 0.198701 40 36 27
-0.282498 -0.0584013 0.198735 38 31 29
-0.282611 -0.0574547 0.198666 40 35 28
-0.282052 -0.056429 0.199009 40 37 27
-0.28183 -0.0554462 0.199146 42 34 28
-0.282109 -0.0545187 0.198974 40 34 29
-0.282389 -0.0535885 0.198802 40 35 29
-0.282502 -0.0526394 0.198733 38 32 29
-0.282615 -0.0516891 0.198664 37 36 28
-0.282728 -0.0507377 0.198594 39 36 27
-0.308708 -0.0212917 0.182634 37 41 41
-0.308646 -0.0202027 0.182672 43 44 41
-0.308583 -0.0191143 0.182711 50 49 44
-0.30896 -0.0179938 0.182479 46 49 41
-0.309117 -0.0168869 0.182383 49 49 39
-0.309055 -0.015797 0.182421 53 50 44
-0.308992 -0.0147076 0.182459 52 50 46
-0.30915 -0.013598 0.182362 52 53 48
-0.309088 -0.0125087 0.182401 54 55 53
-0.308805 -0.011443 0.182574 59 54 52
-0.308743 -0.0103559 0.182612 58 58 58
-0.308461 -0.00929454 0.182786 59 61 58
-0.307743 -0.00828809 0.183227 59 61 61
-0.307246 -0.00726127 0.183532 61 63 61
-0.306751 -0.00623913 0.183836 61 66 68
-0.306043 -0.00525056 0.184271 66 76 83
-0.305553 -0.00423864 0.184572 101 91 96
-0.305278 -0.00320049 0.184741 131 138 125
-0.282601 -0.0757902 0.197548 44 40 36
-0.282378 -0.0747808 0.197686 70 59 49
-0.282155 -0.0737738 0.197824 62 64 56
-0.281933 -0.072769 0.197962 43 39 35
-0.281711 -0.0717664 0.1981 37 33 29
-0.281489 -0.0707662 0.198237 34 32 31
-0.281434 -0.0697991 0.198271 33 32 30
-0.281379 -0.0688325 0.198306 36 32 28
-0.281489 -0.0678956 0.198237 38 36 29
-0.2816 -0.0669577 0.198168 40 37 30
-0.281711 -0.0660187 0.198099 41 35 30
-0.281822 -0.0650785 0.19803 41 33 29
-0.282101 -0.0641634 0.197857 42 33 29
-0.282213 -0.0632202 0.197788 43 34 30
-0.282325 -0.0622759 0.197718 43 35 30
-0.282269 -0.0613067 0.197753 44 36 29
-0.282047 -0.0603153 0.197891 40 36 31
-0.281991 -0.059348 0.197925 39 36 32
-0.281936 -0.0583812 0.197959 39 33 29
-0.281713 -0.0573948 0.198097 40 34 28
-0.281492 -0.0564105 0.198235 42 33 29
-0.28127 -0.0554285 0.198372 44 33 32
-0.281215 -0.0544664 0.198406 40 35 31
-0.28166 -0.0535553 0.198131 39 37 29
-0.281772 -0.0526078 0.198061 39 33 29
-0.281884 -0.0516591 0.197991 37 34 30
-0.281829 -0.0506948 0.198026 38 34 26
-0.308259 -0.0212901 0.181634 48 44 39
-0.30776 -0.0202291 0.181943 54 50 48
-0.307698 -0.0191428 0.181981 54 60 59
-0.30851 -0.017992 0.181478 59 61 56
-0.308667 -0.016885 0.18138 56 52 41
-0.308825 -0.0157764 0.181282 55 57 45
-0.308983 -0.0146661 0.181184 52 54 52
-0.309141 -0.0135541 0.181086 54 56 54
-0.309078 -0.0124625 0.181125 59 60 58
-0.308795 -0.0113946 0.1813 61 59 56
-0.308293 -0.0103535 0.181612 61 61 59
-0.308231 -0.00926695 0.18165 61 63 61
-0.307513 -0.0082595 0.182095 61 66 69
-0.307016 -0.00723163 0.182404 71 78 84
-0.306521 -0.00620845 0.18271 106 96 97
-0.305813 -0.0052189 0.183149 129 137 127
-0.281649 -0.0747124 0.197014 59 46 42
-0.281427 -0.0737071 0.197153 66 68 58
-0.281206 -0.072704 0.197291 48 43 39
-0.281151 -0.0717358 0.197326 39 35 30
-0.28093 -0.0707363 0.197464 35 32 27
-0.280875 -0.06977 0.197498 33 30 27
-0.28082 -0.0688042 0.197533 36 31 26
-0.28093 -0.0678681 0.197464 39 33 27
-0.28104 -0.0669309 0.197394 39 35 27
-0.281151 -0.0659926 0.197325 38 35 27
-0.281262 -0.0650532 0.197256 39 34 28
-0.281539 -0.0641387 0.197082 42 35 29
-0.281651 -0.0631962 0.197012 43 37 30
-0.281762 -0.0622527 0.196942 42 36 30
-0.281707 -0.0612843 0.196977 41 36 29
-0.281485 -0.0602936 0.197116 39 35 32
-0.281429 -0.0593271 0.19715 40 34 32
-0.281374 -0.0583612 0.197185 41 33 29
-0.281153 -0.0573755 0.197323 41 34 29
-0.280932 -0.0563921 0.197462 41 35 30
-0.280877 -0.0554293 0.197496 42 37 31
-0.280822 -0.0544671 0.19753 41 35 31
-0.281265 -0.053556 0.197253 41 36 29
-0.28121 -0.0525923 0.197287 38 35 30
-0.281489 -0.0516596 0.197112 38 37 30
-0.303731 -0.0397598 0.183187 32 31 23
-0.30367 -0.0386866 0.183226 31 31 28
-0.308528 -0.0223423 0.180183 50 49 40
-0.307591 -0.0213014 0.180769 48 51 45
-0.307529 -0.0202134 0.180808 62 59 53
-0.307467 -0.0191259 0.180847 61 62 59
-0.308279 -0.0179737 0.180339 59 60 60
-0.308436 -0.0168656 0.18024 58 56 51
-0.308594 -0.0157557 0.180141 62 63 56
-0.308752 -0.0146442 0.180042 60 63 58
-0.308689 -0.013552 0.180081 58 63 62
-0.308848 -0.0124383 0.179982 59 63 63
-0.308785 -0.0113461 0.180021 61 63 61
-0.308063 -0.010327 0.180473 62 65 67
-0.307781 -0.00926449 0.180649 73 80 83
-0.307501 -0.00820466 0.180825 113 107 103
-0.307003 -0.00717475 0.181137 134 143 132
-0.281088 -0.0746794 0.196239 49 40 40
-0.280868 -0.0736749 0.196379 66 61 47
-0.280647 -0.0726726 0.196518 53 54 46
-0.280592 -0.0717052 0.196553 42 38 31
-0.280537 -0.0707382 0.196587 38 33 24
-0.280482 -0.0697718 0.196622 37 32 25
-0.280427 -0.0688059 0.196657 36 33 27
-0.280372 -0.0678406 0.196691 34 32 27
-0.280482 -0.0669041 0.196622 35 33 26
-0.280757 -0.0659941 0.196448 37 35 25
-0.280867 -0.0650546 0.196378 40 34 27
-0.280978 -0.064114 0.196308 42 35 26
-0.281422 -0.0632229 0.196027 41 37 27
-0.281367 -0.0622539 0.196062 40 36 29
-0.281145 -0.0612619 0.196202 40 37 28
-0.28109 -0.0602948 0.196237 39 36 28
-0.281035 -0.0593282 0.196272 40 36 30
-0.28098 -0.0583622 0.196306 39 35 31
-0.280925 -0.0573967 0.196341 41 36 31
-0.280704 -0.0564123 0.196481 42 38 29
-0.280483 -0.0554302 0.19662 42 36 29
-0.280594 -0.0544855 0.19655 40 36 31
-0.281371 -0.0536075 0.196058 38 37 31
-0.281316 -0.0526412 0.196093 39 34 30
-0.281261 -0.0516755 0.196128 40 35 29
-0.302873 -0.0397486 0.182469 35 30 23
-0.302812 -0.0386774 0.182507 33 32 24
-0.303168 -0.0376135 0.182283 32 34 28
-0.305663 -0.0257264 0.180705 55 55 51
-0.30814 -0.0234344 0.179139 51 49 48
-0.30764 -0.0223647 0.179455 58 58 48
-0.307359 -0.0212868 0.179632 49 54 58
-0.307297 -0.0201976 0.179671 62 68 62
-0.307235 -0.0191089 0.17971 67 63 54
-0.307828 -0.0179719 0.179336 63 61 56
-0.308205 -0.0168461 0.179097 61 62 58
-0.308583 -0.0157163 0.178858 61 63 59
-0.30852 -0.0146223 0.178898 63 61 56
-0.308458 -0.0135289 0.178937 62 64 63
-0.308838 -0.0123918 0.178697 61 66 70
-0.308775 -0.0112973 0.178736 73 80 83
-0.308051 -0.0102763 0.179194 117 107 102
-0.280309 -0.0736427 0.195606 57 51 42
-0.280253 -0.0726747 0.195641 60 64 54
-0.280034 -0.0716746 0.195781 48 40 36
-0.279979 -0.0707085 0.195816 39 35 27
-0.279924 -0.0697428 0.195851 38 35 26
-0.279869 -0.0687777 0.195886 35 34 28
-0.279979 -0.0678423 0.195816 31 33 27
-0.279924 -0.0668773 0.195851 32 33 27
-0.280198 -0.0659681 0.195676 36 35 27
-0.280308 -0.0650293 0.195605 40 34 26
-0.280584 -0.0641155 0.195429 41 35 25
-0.280694 -0.0631737 0.195359 39 37 26
-0.280639 -0.0622063 0.195394 38 37 29
-0.280584 -0.0612395 0.195429 39 37 29
-0.280529 -0.0602732 0.195464 39 36 29
-0.28064 -0.0593293 0.195393 39 37 30
-0.280585 -0.0583632 0.195428 39 37 32
-0.280863 -0.0574382 0.195251 40 36 33
-0.280475 -0.0564326 0.195498 42 39 32
-0.280255 -0.0554495 0.195638 42 37 31
-0.280698 -0.0545395 0.195355 40 36 30
-0.280976 -0.0536082 0.195178 38 37 28
-0.281255 -0.0526742 0.195 39 36 30
-0.302019 -0.0397375 0.181753 34 32 25
-0.302165 -0.0386726 0.18166 33 30 23
-0.302311 -0.0376063 0.181566 32 31 27
-0.302666 -0.0365407 0.18134 36 34 28
-0.305278 -0.0268074 0.179672 48 51 50
-0.305003 -0.0257335 0.179848 49 48 47
-0.304942 -0.0246527 0.179887 48 46 47
-0.306816 -0.0234763 0.178691 48 48 46
-0.306972 -0.022375 0.178592 51 54 47
-0.30691 -0.0212852 0.178631 52 52 52
-0.306848 -0.0201958 0.178671 61 63 62
-0.307003 -0.0190919 0.178571 62 64 61
-0.307596 -0.0179536 0.178193 62 58 55
-0.308193 -0.0168089 0.177812 60 59 58
-0.308572 -0.0156767 0.17757 62 61 60
-0.308509 -0.0145804 0.17761 64 63 62
-0.309112 -0.0134214 0.177225 74 76 75
-0.309942 -0.0122334 0.176696 111 100 97
-0.279696 -0.0726434 0.19487 69 60 50
-0.279477 -0.0716441 0.19501 54 49 47
-0.279422 -0.0706787 0.195046 39 38 31
-0.279367 -0.0697139 0.195081 37 35 29
-0.279476 -0.0687795 0.19501 35 34 28
-0.279585 -0.067844 0.19494 32 32 28
-0.27953 -0.066879 0.194975 33 31 27
-0.27964 -0.065942 0.194905 35 33 26
-0.280079 -0.0650576 0.194622 37 33 26
-0.280024 -0.0640908 0.194657 39 34 27
-0.280134 -0.0631498 0.194586 39 36 29
-0.280079 -0.0621832 0.194621 39 36 31
-0.280024 -0.0612172 0.194656 38 37 31
-0.27997 -0.0602516 0.194692 39 38 31
-0.28008 -0.0593085 0.19462 39 36 32
-0.280356 -0.0583853 0.194442 38 35 34
-0.280467 -0.0574391 0.194371 40 35 32
-0.280412 -0.0564723 0.194406 42 37 32
-0.280358 -0.055506 0.194441 44 36 31
-0.280635 -0.0545758 0.194262 42 35 28
-0.280914 -0.0536429 0.194083 40 38 26
-0.30164 -0.0408069 0.180736 34 32 24
-0.301374 -0.0397317 0.180908 36 33 25
-0.301519 -0.0386679 0.180814 35 31 27
-0.301458 -0.0375992 0.180853 34 32 30
-0.301604 -0.0365334 0.180759 42 35 31
-0.302164 -0.0354685 0.180398 42 48 43
-0.305046 -0.0267988 0.178541 63 58 43
-0.304557 -0.0257321 0.178856 61 55 44
-0.304496 -0.0246513 0.178895 59 54 50
-0.304861 -0.0235498 0.17866 57 56 50
-0.306522 -0.0223734 0.17759 52 54 51
-0.30646 -0.0212835 0.17763 52 54 49
-0.306615 -0.02018 0.17753 59 56 54
-0.306771 -0.0190749 0.17743 59 59 54
-0.307364 -0.0179353 0.177048 61 59 56
-0.30796 -0.0167893 0.176663 61 61 61
-0.308118 -0.0156747 0.176561 70 64 63
-0.30872 -0.0145183 0.176174 94 76 71
-0.279139 -0.0726121 0.1941 61 53 46
-0.279084 -0.0716461 0.194135 55 59 52
-0.279029 -0.0706806 0.19417 43 39 34
-0.278974 -0.0697157 0.194206 37 34 31
-0.27892 -0.0687513 0.194241 34 33 28
-0.279028 -0.0678165 0.19417 32 31 27
-0.279137 -0.0668806 0.1941 33 30 27
-0.279246 -0.0659436 0.194028 34 30 26
-0.279356 -0.0650055 0.193957 35 31 26
-0.27963 -0.0640923 0.193779 37 32 28
-0.279575 -0.0631259 0.193815 40 32 29
-0.27952 -0.0621601 0.19385 40 33 31
-0.279465 -0.0611949 0.193885 38 36 30
-0.279575 -0.0602528 0.193814 39 37 31
-0.279521 -0.0592877 0.193849 40 36 34
-0.280127 -0.0584075 0.193455 41 36 34
-0.280238 -0.0574604 0.193383 41 36 32
-0.280349 -0.0565122 0.19331 41 35 31
-0.280295 -0.0555441 0.193346 44 37 29
-0.28024 -0.0545766 0.193381 40 35 26
-0.280852 -0.0536778 0.192983 38 35 26
-0.301201 -0.0408067 0.179757 36 34 27
-0.300934 -0.0397314 0.17993 37 36 31
-0.300874 -0.0386631 0.179969 34 33 34
-0.300813 -0.0375954 0.180009 36 36 36
-0.300753 -0.0365283 0.180048 41 37 38
-0.301104 -0.0354641 0.17982 45 54 49
-0.301043 -0.0343961 0.179859 41 52 52
-0.304599 -0.0267975 0.177547 57 52 46
-0.304112 -0.0257308 0.177863 58 54 46
-0.304263 -0.0246404 0.177765 57 55 49
-0.304415 -0.0235483 0.177666 58 54 49
-0.305424 -0.0224075 0.17701 57 58 51
-0.30601 -0.0212819 0.176629 57 58 52
-0.306165 -0.0201783 0.176528 61 60 53
-0.30632 -0.0190731 0.176427 61 62 57
-0.306912 -0.0179334 0.176042 68 64 60
-0.307727 -0.0167697 0.175512 80 69 64
-0.308106 -0.0156349 0.175266 96 76 67
-0.278854 -0.0716805 0.193153 62 54 47
-0.278799 -0.0707141 0.193188 48 43 40
-0.278582 -0.0697175 0.193331 37 37 34
-0.278527 -0.068753 0.193366 32 34 30
-0.278635 -0.0678182 0.193295 30 32 29
-0.278744 -0.0668822 0.193224 31 31 30
-0.278853 -0.0659451 0.193152 32 31 29
-0.278798 -0.0649802 0.193188 34 32 27
-0.278907 -0.0640417 0.193116 36 32 27
-0.278853 -0.063077 0.193152 39 31 27
-0.278798 -0.0621128 0.193187 38 32 28
-0.278744 -0.0611492 0.193223 36 35 30
-0.279017 -0.0602313 0.193044 39 35 31
-0.279127 -0.0592888 0.192971 40 35 32
-0.279732 -0.0584085 0.192574 40 36 31
-0.279842 -0.0574614 0.192502 39 36 31
-0.279788 -0.0564936 0.192537 38 34 30
-0.279899 -0.055545 0.192464 39 35 27
-0.279844 -0.0545773 0.1925 38 32 24
-0.280455 -0.0536785 0.192099 36 31 25
-0.300495 -0.039731 0.178953 40 39 37
-0.300435 -0.0386627 0.178992 36 41 38
-0.300375 -0.0375949 0.179032 39 41 42
-0.300314 -0.0365277 0.179071 40 38 38
-0.300254 -0.0354611 0.17911 43 46 43
-0.300398 -0.0343952 0.179015 44 50 51
-0.304152 -0.0267963 0.176552 53 52 50
-0.303666 -0.0257295 0.176871 54 54 48
-0.303604 -0.0246485 0.176911 58 56 48
-0.303543 -0.0235681 0.176951 59 55 54
-0.30412 -0.0224531 0.176572 61 59 52
-0.304914 -0.0213191 0.176051 61 62 55
-0.305067 -0.0202188 0.17595 68 62 57
-0.305653 -0.0190865 0.175566 84 67 60
-0.306242 -0.017948 0.175179 94 72 63
-0.307274 -0.0167677 0.174503 104 76 68
-0.278569 -0.0707477 0.192204 54 57 47
-0.278514 -0.069781 0.19224 39 43 38
-0.278297 -0.0687847 0.192384 33 38 33
-0.278405 -0.067849 0.192312 32 35 32
-0.278351 -0.0668838 0.192348 32 32 32
-0.278296 -0.0659192 0.192384 32 33 32
-0.278405 -0.0649817 0.192312 34 34 30
-0.27835 -0.0640173 0.192347 36 33 28
-0.278296 -0.0630533 0.192383 38 33 27
-0.278079 -0.0620657 0.192527 36 33 28
-0.278024 -0.0611037 0.192563 35 35 30
-0.278133 -0.0601646 0.192491 39 36 29
-0.278405 -0.0592462 0.19231 39 35 29
-0.278678 -0.0583252 0.192129 37 35 30
-0.279281 -0.057442 0.19173 35 36 30
-0.279392 -0.0564945 0.191656 33 35 28
-0.279503 -0.0555458 0.191583 34 33 27
-0.279614 -0.054596 0.191509 37 31 23
-0.300466 -0.0397414 0.177704 48 48 42
-0.299996 -0.0386622 0.178015 50 50 43
-0.299936 -0.0375944 0.178054 54 51 46
-0.299671 -0.0365249 0.178229 50 44 39
-0.299611 -0.0354592 0.178269 46 45 41
-0.299755 -0.0343943 0.178173 56 52 47
-0.300104 -0.033327 0.177942 56 59 54
-0.302709 -0.0279109 0.176217 53 57 50
-0.302648 -0.0268319 0.176257 53 54 52
-0.302587 -0.0257534 0.176297 56 55 51
-0.302947 -0.0246566 0.176058 61 58 52
-0.302886 -0.0235772 0.176098 61 59 58
-0.303037 -0.0224867 0.175999 67 62 54
-0.303187 -0.0213946 0.175899 83 64 57
-0.303126 -0.0203148 0.175939 95 75 63
-0.304129 -0.0191605 0.175275 111 81 65
-0.305357 -0.0179789 0.174462 118 82 69
-0.278066 -0.0688165 0.1914 42 39 36
-0.278012 -0.0678507 0.191436 37 39 32
-0.277957 -0.0668855 0.191472 36 34 31
-0.277903 -0.0659207 0.191508 35 32 31
-0.277849 -0.0649565 0.191544 35 34 32
-0.277794 -0.0639928 0.19158 36 34 31
-0.27774 -0.0630296 0.191616 37 34 29
-0.277686 -0.062067 0.191652 36 35 29
-0.277632 -0.0611049 0.191688 36 35 29
-0.277577 -0.0601433 0.191724 38 37 29
-0.277686 -0.0592039 0.191651 39 35 30
-0.277957 -0.0582843 0.19147 37 33 31
-0.278229 -0.057362 0.191288 33 33 29
-0.278175 -0.0563983 0.191324 30 33 27
-0.278448 -0.0554721 0.191141 31 32 28
-0.279052 -0.0545789 0.190737 34 31 25
-0.300026 -0.0397411 0.176724 53 50 45
-0.299557 -0.0386618 0.177037 55 58 50
-0.299497 -0.0375939 0.177077 52 52 45
-0.299029 -0.0365221 0.177389 62 54 42
-0.298767 -0.0354562 0.177564 52 53 50
-0.299113 -0.0343934 0.177333 59 56 46
-0.29946 -0.0333271 0.1771 57 57 54
-0.302054 -0.0279159 0.175367 58 60 55
-0.302203 -0.0268306 0.175267 59 60 57
-0.302142 -0.0257521 0.175307 60 59 51
-0.302081 -0.0246742 0.175348 65 59 48
-0.302021 -0.0235969 0.175388 76 59 57
