ply
format ascii 1.0
element vertex 1267
property float x
property float y
property float z
property uchar diffuse_red
property uchar diffuse_green
property uchar diffuse_blue
end_header
-0.276692 0.0939368 0.308466 91 135 66
-0.276352 0.0946299 0.308455 92 133 67
-0.275752 0.0951948 0.308456 92 132 65
-0.26609 0.09122 0.308908 91 132 65
-0.265536 0.0917604 0.308909 89 132 64
-0.2578 0.0991629 0.308925 71 116 55
-0.25748 0.0998142 0.308914 67 113 54
-0.257269 0.100529 0.308898 65 111 53
-0.258362 0.102018 0.308813 63 109 51
-0.258039 0.102677 0.308802 61 109 50
-0.257388 0.10314 0.308809 62 110 50
-0.257283 0.103931 0.308787 69 114 52
-0.290738 0.0943311 0.307234 88 125 59
-0.290078 0.094929 0.307238 89 127 63
-0.289421 0.0955256 0.307241 89 127 63
-0.289061 0.0962592 0.307229 86 128 63
-0.288553 0.0969236 0.307224 85 127 62
-0.288636 0.097869 0.307189 85 126 59
-0.26547 0.0908673 0.308272 80 121 59
-0.264918 0.0914071 0.308274 78 120 55
-0.264596 0.0920629 0.308263 79 119 56
-0.258612 0.0987714 0.308249 60 103 46
-0.257639 0.0990499 0.308274 56 100 36
-0.257319 0.0997017 0.308263 52 99 36
-0.257432 0.100607 0.308228 49 98 36
-0.258309 0.101971 0.308149 45 97 35
-0.257986 0.102631 0.308138 44 97 36
-0.257334 0.103094 0.308146 47 96 37
-0.257011 0.103754 0.308135 54 100 40
-0.289413 0.0954624 0.306492 77 115 56
-0.289052 0.0961971 0.306479 75 117 57
-0.288395 0.0967928 0.306483 74 116 55
-0.28833 0.0976681 0.306454 74 114 53
-0.265083 0.0906312 0.307626 69 114 50
-0.264074 0.0909398 0.307654 67 113 47
-0.263639 0.0915353 0.307649 69 112 50
-0.25922 0.099096 0.307548 43 95 34
-0.257803 0.0991239 0.307603 42 95 31
-0.257374 0.0997145 0.307598 39 95 30
-0.257162 0.100431 0.307581 37 94 27
-0.258147 0.101858 0.30749 35 93 26
-0.258152 0.102715 0.307459 33 92 28
-0.257498 0.10318 0.307467 33 91 29
-0.257174 0.103841 0.307456 40 94 31
-0.288747 0.0959962 0.305745 63 110 52
-0.288386 0.0967315 0.305732 63 108 50
-0.288024 0.0974673 0.305719 62 106 49
-0.265248 0.0898549 0.306977 63 104 42
-0.264696 0.0903955 0.30698 62 105 40
-0.263689 0.0907047 0.307011 62 105 39
-0.263141 0.0912422 0.307013 63 104 39
-0.262708 0.0918368 0.307009 60 102 38
-0.259058 0.0989818 0.30689 31 91 28
-0.258296 0.0993869 0.306907 32 91 28
-0.257213 0.0996014 0.306945 32 90 25
-0.256892 0.100255 0.306933 30 90 20
-0.258978 0.102333 0.306765 29 89 20
-0.258651 0.102998 0.306754 26 89 22
-0.258104 0.10353 0.306756 26 90 24
-0.257228 0.103862 0.306781 32 93 27
-0.268284 0.0800456 0.30656 65 105 51
-0.268317 0.0808418 0.306527 64 104 51
-0.267651 0.0813346 0.306537 62 103 50
-0.288441 0.0957954 0.305011 62 105 46
-0.28808 0.0965306 0.304998 64 105 45
-0.287718 0.0972664 0.304985 65 104 41
-0.265298 0.0890213 0.306336 63 105 47
-0.264861 0.0896195 0.306331 63 105 45
-0.264424 0.0902173 0.306327 61 104 42
-0.263418 0.0905273 0.30636 62 104 41
-0.262871 0.091065 0.306364 62 104 40
-0.262325 0.0916017 0.306367 62 102 39
-0.262004 0.092254 0.306355 58 101 39
-0.25911 0.0981472 0.30625 28 93 26
-0.258677 0.0987418 0.306246 27 91 25
-0.257916 0.0991473 0.306264 28 89 23
-0.257159 0.0995511 0.306282 31 87 21
-0.257162 0.100396 0.306248 29 85 17
-0.25926 0.102483 0.306069 26 86 16
-0.258821 0.103084 0.306065 25 88 18
-0.25816 0.103551 0.306076 26 91 22
-0.257503 0.104017 0.306087 33 94 29
-0.257286 0.10475 0.306068 50 100 36
-0.268765 0.0786309 0.305931 68 105 47
-0.268448 0.0792745 0.305919 67 105 47
-0.268015 0.0798687 0.305915 67 106 47
-0.267815 0.0805634 0.305896 68 108 50
-0.267382 0.0811576 0.305892 69 109 50
-0.267413 0.081957 0.305856 71 109 49
-0.266777 0.0864468 0.305698 71 113 48
-0.266222 0.086991 0.305702 72 112 46
-0.265901 0.0876455 0.30569 71 112 47
-0.265347 0.0881883 0.305694 70 113 49
-0.265026 0.0888429 0.305683 69 112 50
-0.264589 0.0894412 0.305679 66 112 51
-0.264152 0.0900391 0.305675 63 109 48
-0.263374 0.0904643 0.305694 64 108 48
-0.262713 0.0909452 0.305706 63 108 47
-0.262054 0.0914246 0.305718 63 107 48
-0.261734 0.0920769 0.305706 62 105 45
-0.258838 0.0979699 0.305599 31 93 26
-0.258405 0.0985646 0.305595 31 94 23
-0.257645 0.0989706 0.305615 29 91 18
-0.257214 0.0995636 0.305611 32 89 20
-0.259312 0.101637 0.305421 33 87 21
-0.259994 0.102901 0.305335 32 86 19
-0.259103 0.103237 0.305364 31 89 19
-0.258217 0.103572 0.305393 32 94 24
-0.257558 0.104039 0.305405 38 96 31
-0.25734 0.104773 0.305385 51 100 37
-0.269755 0.0782017 0.305231 83 119 55
-0.268496 0.0784538 0.305285 82 120 53
-0.26818 0.0790975 0.305273 80 120 53
-0.267863 0.0797416 0.305261 78 121 54
-0.267663 0.0804367 0.305241 77 120 56
-0.267461 0.0811331 0.305221 77 119 55
-0.267844 0.0820892 0.305159 77 119 55
-0.268111 0.0830011 0.305105 75 120 58
-0.267469 0.0843063 0.305081 73 117 53
-0.266826 0.0856136 0.305057 72 119 53
-0.266388 0.0862131 0.305053 71 118 52
-0.26595 0.0868124 0.305049 71 116 52
-0.265397 0.0873558 0.305054 71 116 53
-0.265075 0.0880099 0.305042 70 116 53
-0.264754 0.0886645 0.305029 71 117 52
-0.264432 0.0893196 0.305017 68 116 52
-0.264109 0.0899752 0.305005 63 114 51
-0.263444 0.0904585 0.305018 63 112 51
-0.262668 0.0908828 0.305039 61 111 52
-0.261896 0.0913052 0.305061 58 109 52
-0.261575 0.0919579 0.305049 55 107 51
-0.258133 0.0983874 0.304943 31 92 21
-0.260499 0.102315 0.304648 35 87 21
-0.259942 0.102853 0.304654 39 88 22
-0.259387 0.103391 0.304659 39 91 22
-0.258497 0.103727 0.30469 39 94 25
-0.257614 0.10406 0.304721 45 96 32
-0.257175 0.104661 0.304717 55 99 36
-0.257177 0.105533 0.304678 67 106 46
-0.270159 0.0775235 0.304569 78 122 60
-0.269603 0.0780727 0.304574 76 121 59
-0.269049 0.0786209 0.304579 74 121 56
-0.268613 0.0792178 0.304576 73 120 54
-0.268295 0.0798646 0.304563 72 119 54
-0.267977 0.0805118 0.304551 72 117 55
-0.267892 0.0812619 0.304521 72 116 55
-0.268042 0.0821184 0.304474 72 116 55
-0.267839 0.0828223 0.304452 71 118 59
-0.267518 0.0834746 0.30444 70 116 56
-0.267197 0.0841275 0.304428 68 115 52
-0.266876 0.0847809 0.304415 67 116 51
-0.266554 0.0854347 0.304403 65 115 52
-0.266116 0.0860344 0.304399 62 112 52
-0.265794 0.0866888 0.304387 59 107 52
-0.265356 0.0872882 0.304383 58 105 51
-0.265034 0.0879432 0.304371 57 104 47
-0.264712 0.0885986 0.304358 56 102 38
-0.264389 0.0892546 0.304346 53 99 35
-0.263952 0.0898538 0.304342 48 100 34
-0.2634 0.0903952 0.304348 49 97 35
-0.26285 0.0909356 0.304353 46 97 34
-0.261963 0.0913012 0.304385 43 97 34
-0.261641 0.0919552 0.304372 40 96 31
-0.260004 0.102873 0.303961 43 90 23
-0.259334 0.103345 0.303976 44 92 24
-0.258779 0.103883 0.303981 44 96 30
-0.257891 0.104217 0.304015 51 98 36
-0.25723 0.104684 0.304029 59 100 38
-0.256901 0.105354 0.304017 65 105 46
-0.256901 0.10623 0.303976 78 112 54
-0.270445 0.0767947 0.303913 69 109 55
-0.269889 0.0773451 0.303919 69 109 53
-0.269452 0.0779436 0.303915 69 111 52
-0.268897 0.0784923 0.303921 68 112 50
-0.268344 0.07904 0.303927 68 112 49
-0.268025 0.0796867 0.303915 68 112 49
-0.268058 0.0804859 0.303874 65 110 51
-0.267973 0.0812375 0.303843 64 107 51
-0.267888 0.0819916 0.303812 63 106 50
-0.267567 0.0826435 0.3038 62 105 50
-0.267246 0.0832958 0.303787 62 101 47
-0.266925 0.0839487 0.303774 63 101 42
-0.266604 0.084602 0.303762 62 101 39
-0.266282 0.0852558 0.303749 63 100 39
-0.26596 0.0859102 0.303736 64 100 39
-0.265638 0.086565 0.303724 64 101 40
-0.265315 0.0872204 0.303711 62 100 42
-0.264993 0.0878762 0.303698 61 101 41
-0.264554 0.0884762 0.303695 54 99 36
-0.264231 0.0891326 0.303682 46 94 30
-0.263793 0.0897323 0.303679 41 95 26
-0.263356 0.0903317 0.303675 41 93 26
-0.262805 0.0908729 0.303681 39 92 28
-0.261916 0.0912391 0.303715 38 92 28
-0.261594 0.091894 0.303702 36 93 26
-0.259839 0.102759 0.303284 47 93 26
-0.259394 0.103365 0.303281 48 94 26
-0.258725 0.103837 0.303297 49 98 32
-0.258282 0.104442 0.303294 55 101 41
-0.257506 0.104843 0.303319 62 103 43
-0.257176 0.105515 0.303306 65 105 48
-0.256845 0.106187 0.303293 74 110 55
-0.270613 0.0760165 0.303265 72 108 50
-0.270175 0.0766161 0.303262 69 107 51
-0.269618 0.0771667 0.303269 69 107 49
-0.269181 0.0777652 0.303266 69 107 47
-0.268745 0.0783634 0.303262 69 106 45
-0.268191 0.0789116 0.303269 72 106 43
-0.267872 0.0795588 0.303256 72 109 45
-0.26814 0.0804598 0.303195 72 111 50
-0.267937 0.0811615 0.303172 73 111 50
-0.267617 0.0818128 0.30316 74 110 48
-0.267296 0.0824647 0.303147 75 114 48
-0.266975 0.083117 0.303134 73 114 51
-0.266653 0.0837698 0.303121 73 115 52
-0.266332 0.0844231 0.303108 71 114 50
-0.26601 0.0850769 0.303095 69 114 50
-0.265804 0.0857858 0.303072 67 114 50
-0.265481 0.086441 0.303059 65 112 49
-0.265043 0.0870414 0.303056 62 108 48
-0.26472 0.0876972 0.303043 59 105 47
-0.264397 0.0883535 0.30303 49 100 41
-0.263959 0.0889537 0.303027 43 94 32
-0.263635 0.0896105 0.303014 38 94 25
-0.263197 0.0902104 0.303011 37 92 25
-0.262532 0.0906944 0.303027 35 92 26
-0.262209 0.091351 0.303014 33 92 27
-0.259673 0.102644 0.302607 49 98 32
-0.259229 0.103251 0.302604 51 97 29
-0.258784 0.103858 0.302601 53 97 31
-0.258228 0.104397 0.302608 57 100 40
-0.257785 0.105003 0.302605 62 107 50
-0.257342 0.105608 0.302602 64 109 52
-0.25701 0.106282 0.302588 71 108 54
-0.256567 0.106888 0.302585 68 109 55
-0.255786 0.109948 0.30248 65 101 43
-0.270462 0.0758855 0.302604 78 115 52
-0.269904 0.0764374 0.302611 77 116 53
-0.269585 0.0770852 0.302598 77 120 54
-0.269029 0.0776357 0.302606 78 123 55
-0.268474 0.0781852 0.302613 77 126 57
-0.268155 0.0788327 0.3026 76 125 58
-0.268071 0.079581 0.302566 74 121 57
-0.267986 0.0803319 0.302533 69 120 57
-0.267666 0.0809827 0.30252 67 118 56
-0.267345 0.081634 0.302507 67 115 55
-0.267024 0.0822858 0.302494 66 115 54
-0.266703 0.0829381 0.30248 64 112 54
-0.266381 0.0835909 0.302467 63 109 53
-0.266059 0.0842442 0.302454 61 108 49
-0.265738 0.084898 0.302441 59 107 44
-0.265531 0.0856067 0.302418 56 108 42
-0.265209 0.0862619 0.302404 54 107 42
-0.26477 0.0868624 0.302401 51 104 41
-0.264447 0.0875182 0.302388 49 101 41
-0.264124 0.0881745 0.302375 41 98 36
-0.263571 0.0887182 0.302382 38 94 30
-0.263248 0.0893746 0.302369 35 93 26
-0.262924 0.0900316 0.302356 33 92 26
-0.262601 0.090689 0.302342 31 91 25
-0.26205 0.0912305 0.30235 28 91 27
-0.259395 0.102463 0.301939 50 98 36
-0.25895 0.10307 0.301936 50 97 31
-0.258618 0.103744 0.301923 51 97 33
-0.258173 0.104351 0.30192 57 100 41
-0.257841 0.105027 0.301906 63 108 52
-0.257508 0.105702 0.301893 65 110 53
-0.256731 0.106102 0.301922 70 106 52
-0.256399 0.106776 0.301908 67 103 51
-0.256287 0.107592 0.301873 64 98 44
-0.256396 0.108551 0.301817 63 95 40
-0.255841 0.109088 0.301824 62 94 40
-0.255507 0.109766 0.301811 61 94 39
-0.255172 0.110446 0.301797 63 94 39
-0.267715 0.080153 0.301881 68 108 47
-0.267394 0.0808038 0.301867 68 110 47
-0.267073 0.0814551 0.301854 68 110 51
-0.266752 0.0821069 0.30184 66 111 51
-0.266431 0.0827592 0.301827 63 109 50
-0.266109 0.083412 0.301814 59 104 48
-0.265787 0.0840652 0.3018 53 99 43
-0.265465 0.084719 0.301787 47 96 33
-0.265143 0.0853733 0.301773 43 95 28
-0.26482 0.0860281 0.30176 39 94 27
-0.264497 0.0866834 0.301746 37 91 26
-0.263945 0.0872281 0.301754 36 90 26
-0.263622 0.0878835 0.301741 33 90 22
-0.263298 0.0885394 0.301727 30 90 20
-0.262975 0.0891958 0.301714 28 91 23
-0.262651 0.0898527 0.3017 26 89 23
-0.262328 0.0905101 0.301687 25 86 20
-0.259004 0.102215 0.301283 51 97 37
-0.258672 0.102889 0.301269 50 95 35
-0.258339 0.103563 0.301255 51 96 35
-0.258007 0.104238 0.301241 55 99 39
-0.257786 0.104982 0.301216 60 103 47
-0.257452 0.105658 0.301202 63 107 49
-0.256896 0.106197 0.30121 68 105 53
-0.256342 0.106734 0.301219 64 99 47
-0.256119 0.10748 0.301194 62 93 39
-0.256117 0.10837 0.301146 62 91 37
-0.255672 0.108977 0.301144 61 90 37
-0.255227 0.109585 0.301141 59 91 37
-0.254892 0.110264 0.301127 58 90 38
-0.266159 0.0825803 0.301174 63 106 45
-0.265837 0.083233 0.30116 58 103 42
-0.265515 0.0838863 0.301146 50 97 35
-0.265425 0.0846475 0.30111 41 92 27
-0.264986 0.0852484 0.301108 38 93 24
-0.264548 0.0858491 0.301105 36 92 26
-0.263995 0.0863944 0.301114 32 90 28
-0.263672 0.0870493 0.3011 31 92 25
-0.263349 0.0877047 0.301086 30 91 20
-0.263026 0.0883605 0.301073 30 90 21
-0.262702 0.0890169 0.301059 28 91 23
-0.262378 0.0896738 0.301045 28 89 25
-0.258613 0.101967 0.300627 53 96 39
-0.258281 0.102641 0.300613 51 94 37
-0.25806 0.103382 0.300587 53 95 34
-0.25784 0.104124 0.300561 56 96 36
-0.257618 0.104869 0.300535 59 101 42
-0.257396 0.105615 0.300509 63 104 46
-0.256839 0.106154 0.300519 66 103 52
-0.256505 0.106831 0.300504 62 98 45
-0.256171 0.107509 0.30049 62 91 38
-0.255837 0.108188 0.300476 60 89 39
-0.255502 0.108867 0.300462 60 89 37
-0.255167 0.109547 0.300448 60 90 35
-0.255052 0.110371 0.30041 58 89 37
-0.264621 0.0858337 0.300415 29 89 25
-0.263952 0.0863252 0.300436 24 89 26
-0.263399 0.0868704 0.300446 25 86 19
-0.263076 0.0875258 0.300432 27 87 18
-0.262753 0.0881816 0.300418 33 90 19
-0.262429 0.088838 0.300404 34 89 23
-0.262105 0.0894948 0.30039 34 87 23
-0.258222 0.10172 0.299972 56 97 41
-0.257891 0.102393 0.299957 54 97 39
-0.257894 0.103268 0.299907 54 97 35
-0.257784 0.104079 0.299868 56 97 37
-0.257787 0.104961 0.299817 58 102 39
-0.257564 0.105709 0.29979 63 104 43
-0.257005 0.10625 0.2998 67 102 52
-0.25667 0.106929 0.299786 61 97 45
-0.256224 0.107538 0.299784 61 91 37
-0.255888 0.108218 0.299769 57 89 42
-0.255442 0.108828 0.299767 59 89 37
-0.255328 0.109652 0.299728 61 89 34
-0.257947 0.102411 0.299253 55 101 41
-0.25795 0.103288 0.2992 54 102 39
-0.257953 0.104169 0.299148 54 102 43
-0.257956 0.105054 0.299095 55 103 41
-0.257733 0.105804 0.299067 66 104 43
-0.25706 0.106276 0.299091 69 101 52
-0.256724 0.106957 0.299076 61 96 45
-0.256277 0.107568 0.299074 61 92 37
-0.256052 0.10832 0.299046 55 91 44
-0.255715 0.109002 0.299032 57 90 35
-0.258117 0.102496 0.298532 49 105 42
-0.258466 0.105355 0.298328 53 105 44
-0.258128 0.106039 0.298313 69 108 51
-0.257227 0.106373 0.298365 67 100 51
-0.25689 0.107055 0.29835 62 94 43
-0.256665 0.107809 0.298321 62 91 38
-0.256775 0.10878 0.298253 62 91 37
-0.257846 0.105855 0.297636 72 112 54
-0.257508 0.10654 0.297621 68 99 50
-0.25717 0.107225 0.297605 62 95 48
-2.91327 0.881606 0.0172532 64 61 37
-2.90829 0.891694 0.0170227 65 91 50
-2.72209 0.865948 0.0347583 46 93 29
-2.63956 0.849634 0.0429406 44 92 28
-2.47048 0.803606 0.0605275 41 93 33
-2.40218 0.790459 0.067276 40 90 28
-2.87385 0.879381 0.0101282 64 73 41
-2.83942 0.879975 0.0131666 62 86 42
-2.7775 0.871458 0.0192783 57 88 34
-2.66567 0.846157 0.0309839 52 89 28
-2.47112 0.792572 0.0519938 52 90 29
-2.4028 0.779717 0.0589698 47 88 29
-2.37809 0.781137 0.0610832 48 87 26
-2.37397 0.789468 0.0608896 47 86 24
-2.86471 0.886573 -0.000232781 61 66 36
-2.83037 0.887098 0.00291194 59 73 34
-2.68767 0.852014 0.0185692 58 76 29
-2.44574 0.782974 0.0457761 62 79 32
-2.37871 0.770491 0.0528531 57 79 32
-2.37459 0.778815 0.0526565 60 79 31
-2.39096 0.794179 0.0500737 61 78 28
-0.294777 0.0939685 0.292073 28 85 21
-0.294355 0.0927764 0.291382 29 88 24
-0.292863 0.0930534 0.29151 27 87 23
-0.293914 0.094456 0.291303 26 88 21
-0.293935 0.0915907 0.290695 62 98 36
-0.292764 0.0920106 0.290783 44 93 29
-0.292072 0.0926351 0.290807 33 90 26
-0.291851 0.0934675 0.290767 29 89 23
-0.267709 0.10809 0.292135 75 121 57
-0.266969 0.108587 0.292174 74 113 55
-0.266105 0.109006 0.292231 66 101 48
-0.265121 0.109346 0.292306 60 95 42
-0.264392 0.109837 0.292343 57 91 42
-0.293796 0.0886876 0.290116 72 81 49
-0.293578 0.0895147 0.290075 106 124 69
-0.2932 0.0902761 0.290055 113 138 73
-0.292823 0.0910381 0.290036 87 124 60
-0.291974 0.0915951 0.290083 66 110 44
-0.291441 0.0922875 0.290085 52 101 37
-0.268926 0.107852 0.291259 77 125 58
-0.267409 0.107895 0.291416 77 118 56
-0.26705 0.10862 0.291397 72 107 53
-0.26631 0.109116 0.291437 62 97 45
-0.264823 0.109152 0.291591 57 92 41
-0.264095 0.109644 0.29163 55 92 40
-0.263738 0.110364 0.291612 58 92 34
-0.29332 0.088412 0.289374 70 74 51
-0.292943 0.0891716 0.289354 100 125 74
-0.292567 0.0899318 0.289335 118 161 87
-0.29219 0.0906926 0.289315 99 150 77
-0.2915 0.0913175 0.289341 86 136 62
-0.290967 0.0920096 0.289344 76 122 54
-0.282528 0.0927735 0.290203 28 88 18
-0.282163 0.0935111 0.290184 25 87 18
-0.311836 0.11171 0.285503 22 88 19
-0.311019 0.112384 0.285538 27 91 22
-0.310013 0.11296 0.285602 34 94 24
-0.269765 0.107381 0.290432 77 126 61
-0.268882 0.107807 0.290494 78 124 59
-0.268133 0.108308 0.290536 77 115 56
-0.267643 0.108961 0.290537 70 104 52
-0.266643 0.109305 0.290619 61 96 42
-0.265274 0.109416 0.290759 57 91 39
-0.264416 0.109832 0.290819 56 90 35
-0.264681 0.110942 0.290702 58 91 30
-0.293002 0.0882025 0.28861 65 66 49
-0.292625 0.0889621 0.28859 88 111 67
-0.292092 0.0896554 0.288593 110 158 80
-0.291559 0.0903481 0.288597 103 159 77
-0.291026 0.0910404 0.2886 93 149 70
-0.290649 0.0918004 0.28858 87 141 64
-0.282874 0.0919668 0.28944 53 100 32
-0.282077 0.0925047 0.289485 37 91 23
-0.280857 0.0928406 0.289595 27 88 22
-0.280493 0.0935747 0.289576 24 87 19
-0.311904 0.110608 0.28466 21 87 18
-0.311088 0.111284 0.284696 22 88 19
-0.310273 0.111957 0.284733 27 89 20
-0.308889 0.112343 0.284857 32 92 21
-0.308463 0.113203 0.284834 38 96 26
-0.269854 0.107412 0.289641 77 122 58
-0.268969 0.107839 0.289706 76 121 58
-0.268346 0.108418 0.289728 75 114 55
-0.267855 0.109073 0.28973 68 101 49
-0.267235 0.109649 0.289753 60 95 40
-0.265602 0.109605 0.28994 59 91 37
-0.265242 0.110332 0.289921 57 89 31
-0.292684 0.0879929 0.287846 65 62 42
-0.29215 0.0886864 0.287849 77 90 54
-0.291617 0.0893793 0.287853 99 141 72
-0.291085 0.0900718 0.287857 101 160 79
-0.290553 0.0907636 0.28786 90 149 72
-0.290176 0.0915231 0.28784 84 141 67
-0.2898 0.0922831 0.28782 79 134 62
-0.286762 0.0927676 0.288131 67 120 51
-0.28358 0.0922301 0.288543 59 108 44
-0.282056 0.0924358 0.288702 44 98 35
-0.280551 0.0926395 0.288859 32 92 28
-0.280187 0.0933736 0.28884 27 89 22
-0.311583 0.109321 0.283877 27 88 20
-0.311156 0.110184 0.283855 26 88 21
-0.310534 0.110953 0.283862 26 90 22
-0.309914 0.111721 0.28387 30 92 20
-0.309103 0.112394 0.283907 33 94 21
-0.308675 0.113256 0.283884 38 98 25
-0.271102 0.107167 0.288736 75 120 56
-0.270207 0.107597 0.288804 76 122 57
-0.269186 0.107948 0.288893 75 120 57
-0.268691 0.108606 0.288895 75 112 54
-0.268068 0.109185 0.288918 65 99 45
-0.267317 0.109685 0.288963 60 93 37
-0.265806 0.109718 0.289135 59 89 34
-0.265698 0.110603 0.289074 56 90 29
-0.291676 0.0884112 0.28711 67 74 45
-0.291144 0.0891037 0.287114 79 107 60
-0.290612 0.0897958 0.287118 92 143 74
-0.289926 0.0904201 0.287146 89 142 70
-0.289089 0.0909755 0.287198 76 133 63
-0.287496 0.0911915 0.287368 70 126 58
-0.286821 0.0918089 0.287396 66 119 53
-0.28585 0.0922892 0.28747 62 114 49
-0.283708 0.0922272 0.28773 55 107 45
-0.282323 0.0925002 0.287871 45 100 39
-0.280954 0.0927708 0.288011 36 97 31
-0.280588 0.0935078 0.287991 34 94 26
-0.31103 0.108993 0.283045 34 93 25
-0.310796 0.109948 0.282991 34 93 26
-0.309982 0.110623 0.283029 34 95 26
-0.309554 0.111486 0.283006 36 97 23
-0.308744 0.112158 0.283045 36 99 24
-0.308316 0.113021 0.283022 42 101 27
-0.29276 0.110238 0.28511 64 116 55
-0.292193 0.110961 0.285116 79 126 60
-0.270796 0.106967 0.288002 72 118 57
-0.270165 0.107552 0.288027 76 120 58
-0.269536 0.108135 0.288052 75 118 56
-0.269039 0.108795 0.288055 72 110 52
-0.268412 0.109376 0.288079 63 97 43
-0.267013 0.109488 0.288236 60 91 33
-0.266266 0.109987 0.288282 55 89 31
-0.265903 0.110719 0.288263 51 89 30
-0.267856 0.112893 0.287844 53 89 29
-0.291203 0.0881363 0.286371 65 64 41
-0.290671 0.0888285 0.286375 69 77 48
-0.289985 0.0894538 0.286404 75 108 60
-0.288994 0.0899442 0.286482 80 123 63
-0.287555 0.0902324 0.286633 74 122 58
-0.28688 0.0908507 0.286661 65 113 49
-0.286207 0.0914676 0.286689 59 107 44
-0.285387 0.0920157 0.286742 55 104 41
-0.283689 0.0921572 0.286937 51 102 38
-0.282737 0.0926323 0.287011 46 100 36
-0.281647 0.0930376 0.287109 43 99 32
-0.281423 0.0938465 0.287066 43 98 29
-0.310671 0.108757 0.282182 43 98 30
-0.310243 0.109619 0.282158 43 100 31
-0.309623 0.110388 0.282167 43 100 31
-0.309003 0.111156 0.282175 43 101 28
-0.308385 0.111923 0.282183 44 102 30
-0.307957 0.112785 0.28216 45 101 32
-0.292423 0.110018 0.284301 63 115 54
-0.291856 0.110741 0.284307 73 121 56
-0.291618 0.11164 0.284258 77 125 59
-0.269991 0.10743 0.287271 75 123 58
-0.269492 0.108091 0.287274 77 120 56
-0.269126 0.108829 0.287254 71 108 52
-0.268497 0.109412 0.287279 62 97 41
-0.267095 0.109524 0.287441 57 91 31
-0.266346 0.110024 0.287489 53 89 31
-0.265982 0.110757 0.287469 53 89 28
-0.266642 0.112129 0.287268 52 87 30
-0.26757 0.113682 0.287018 55 89 31
-0.2672 0.114427 0.286998 48 89 30
-0.290199 0.0885537 0.285638 66 66 46
-0.2889 0.0889153 0.285769 66 79 49
-0.287613 0.0892739 0.285898 70 97 53
-0.286939 0.0898931 0.285927 76 114 57
-0.286266 0.090511 0.285956 65 108 48
-0.285446 0.0910607 0.28601 56 101 38
-0.284926 0.0917426 0.286014 51 100 36
-0.283524 0.0920197 0.286165 50 100 32
-0.282717 0.0925629 0.286218 50 101 33
-0.282058 0.0931717 0.286246 50 100 32
-0.281544 0.0938473 0.28625 51 99 31
-0.310119 0.108429 0.281351 50 99 33
-0.309263 0.110152 0.281303 49 102 38
-0.308453 0.110826 0.281345 48 102 33
-0.308025 0.111687 0.281321 48 104 32
-0.307978 0.112741 0.281232 50 103 36
-0.292251 0.109885 0.283464 63 115 53
-0.291683 0.110608 0.28347 71 123 57
-0.291281 0.11142 0.283448 76 125 59
-0.290877 0.112232 0.283426 75 124 57
-0.269449 0.108046 0.286493 75 119 58
-0.268951 0.108708 0.286496 70 107 53
-0.268583 0.109448 0.286476 62 96 39
-0.267436 0.109716 0.286596 57 90 30
-0.266554 0.110139 0.286669 52 90 36
-0.266703 0.111192 0.286555 54 89 31
-0.267111 0.112413 0.286394 48 89 33
-0.267262 0.113481 0.286279 54 91 30
-0.266632 0.114062 0.286306 47 88 31
-0.266522 0.114973 0.286238 47 88 31
-0.287823 0.088381 0.285138 66 64 44
-0.286997 0.0889362 0.285194 65 72 43
-0.286325 0.0895549 0.285224 76 105 58
-0.285356 0.0900404 0.285304 70 114 60
-0.284985 0.0907883 0.285283 57 103 45
-0.283876 0.091203 0.285388 50 102 37
-0.283213 0.0918151 0.285417 50 101 32
-0.282551 0.0924259 0.285446 51 100 31
-0.281892 0.0930354 0.285475 50 102 33
-0.281378 0.0937116 0.285479 47 102 34
-0.281008 0.094456 0.285459 46 102 35
-0.308094 0.110591 0.280483 48 102 35
-0.307666 0.111452 0.280459 51 104 34
-0.307617 0.112505 0.280368 51 103 36
-0.292078 0.109751 0.282625 62 114 52
-0.291346 0.110388 0.282661 69 122 57
-0.290943 0.111199 0.282638 75 126 59
-0.290377 0.111922 0.282645 76 126 58
-0.269406 0.108001 0.28571 76 119 58
-0.268906 0.108664 0.285713 70 107 53
-0.268538 0.109405 0.285693 61 95 40
-0.267648 0.109831 0.285768 59 91 32
-0.266893 0.110334 0.285819 53 89 37
-0.266526 0.111072 0.285799 54 88 34
-0.266804 0.112213 0.285658 50 88 32
-0.266824 0.1132 0.285565 54 90 27
-0.266454 0.113944 0.285544 52 87 31
-0.266083 0.11469 0.285523 52 86 30
-0.285935 0.0884051 0.284569 66 63 40
-0.285266 0.0890223 0.284599 70 88 55
-0.284305 0.0895075 0.284681 77 118 70
-0.283935 0.0902524 0.28466 64 109 54
-0.283272 0.0908655 0.28469 53 102 39
-0.282756 0.0915438 0.284695 50 100 34
-0.28224 0.0922216 0.284699 50 100 32
-0.281581 0.0928313 0.284729 48 100 30
-0.281067 0.0935077 0.284733 46 101 31
-0.280697 0.094252 0.284712 45 101 34
-0.30674 0.110934 0.279698 49 101 33
-0.306501 0.111889 0.27964 48 101 37
-0.291905 0.109617 0.281785 63 112 51
-0.291009 0.110167 0.281852 69 120 56
-0.290442 0.110891 0.281858 74 126 58
-0.290039 0.111702 0.281836 76 128 58
-0.289798 0.112603 0.281783 75 126 57
-0.269362 0.107956 0.284924 75 120 59
-0.26873 0.108542 0.284952 69 107 53
-0.268362 0.109283 0.284932 60 95 42
-0.267732 0.109868 0.28496 59 91 32
-0.267234 0.11053 0.284964 54 88 34
-0.266865 0.111271 0.284943 54 88 35
-0.266756 0.112174 0.284872 54 89 31
-0.266516 0.112999 0.284827 53 89 26
-0.266145 0.113744 0.284806 54 87 30
-0.265132 0.114079 0.284908 56 86 30
-0.264763 0.114822 0.284887 54 87 28
-0.264521 0.115649 0.284841 54 87 27
-0.283923 0.0883652 0.284032 64 66 51
-0.283554 0.0891079 0.284011 83 108 62
-0.283184 0.0898511 0.28399 78 118 55
-0.282815 0.0905949 0.283968 64 107 45
-0.282299 0.0912728 0.283973 55 101 37
-0.281785 0.0919503 0.283978 52 100 35
-0.28127 0.0926272 0.283983 48 100 35
-0.280757 0.0933037 0.283987 45 99 35
-0.280387 0.094048 0.283966 46 100 36
-0.306381 0.1107 0.278837 44 101 32
-0.291567 0.109396 0.280973 64 111 51
-0.290508 0.10986 0.281072 68 118 55
-0.289942 0.110582 0.28108 74 125 57
-0.289216 0.111217 0.281117 77 129 59
-0.288974 0.112115 0.281064 77 128 58
-0.268817 0.108576 0.28414 68 107 52
-0.268317 0.10924 0.284144 60 95 41
-0.267686 0.109825 0.284173 58 90 30
-0.267186 0.110488 0.284177 55 89 30
-0.266817 0.111231 0.284156 53 90 36
-0.266577 0.112055 0.284109 54 89 29
-0.266207 0.112799 0.284088 53 89 25
-0.265708 0.113462 0.284092 53 87 30
-0.264825 0.113879 0.284172 56 87 33
-0.264455 0.114622 0.284151 54 88 29
-0.264085 0.115366 0.284129 54 88 29
-0.282952 0.0887745 0.283317 86 100 57
-0.282582 0.0895165 0.283296 87 125 63
-0.282213 0.0902591 0.283274 73 119 55
-0.281844 0.0910023 0.283253 62 108 43
-0.281329 0.0916794 0.283258 57 103 37
-0.280672 0.092289 0.283289 55 102 36
-0.280446 0.0930997 0.283241 52 101 35
-0.291229 0.109175 0.280162 63 112 52
-0.290008 0.109552 0.280295 67 118 55
-0.289281 0.110188 0.280333 73 124 57
-0.288236 0.110647 0.280434 78 130 60
-0.287515 0.111278 0.280472 79 130 59
-0.287752 0.112439 0.280325 77 128 58
-0.269301 0.108846 0.283245 69 107 50
-0.268008 0.10904 0.283406 61 95 39
-0.267639 0.109783 0.283384 56 91 31
-0.267139 0.110447 0.283388 54 90 31
-0.266769 0.111191 0.283367 50 91 35
-0.266399 0.111935 0.283345 53 89 28
-0.266028 0.11268 0.283324 56 88 24
-0.2654 0.113262 0.283354 57 87 30
-0.264517 0.11368 0.283436 55 89 35
-0.264148 0.114423 0.283414 56 87 32
-0.263905 0.115249 0.283367 56 87 31
-0.263789 0.116161 0.283293 57 86 30
-0.282496 0.0885062 0.282599 79 87 54
-0.282127 0.0892476 0.282577 92 128 69
-0.281758 0.0899896 0.282555 85 132 64
-0.281388 0.0907321 0.282533 72 120 52
-0.280731 0.0913426 0.282566 64 114 45
-0.280219 0.0920184 0.282571 62 110 43
-0.279849 0.092761 0.282549 59 108 41
-0.289509 0.109246 0.279518 67 119 54
-0.288301 0.109621 0.279652 73 125 58
-0.28758 0.110254 0.279692 77 131 61
-0.287021 0.110972 0.279699 80 132 62
-0.28662 0.111778 0.279676 80 130 60
-0.26939 0.10888 0.282422 69 107 51
-0.268488 0.109311 0.282508 63 95 38
-0.267854 0.109899 0.282539 58 90 33
-0.267091 0.110406 0.282597 55 91 32
-0.26672 0.11115 0.282575 53 90 33
-0.266349 0.111896 0.282553 56 90 33
-0.265849 0.112561 0.282558 54 88 33
-0.265091 0.113062 0.282616 61 88 30
-0.264465 0.113643 0.282647 54 89 33
-0.263967 0.114305 0.282651 55 89 34
-0.263724 0.115132 0.282603 58 87 32
-0.263735 0.116128 0.282501 57 88 30
-0.281897 0.0881744 0.281909 71 72 53
-0.281528 0.0889147 0.281887 92 123 71
-0.281159 0.0896555 0.281865 95 143 70
-0.28079 0.0903968 0.281842 83 133 59
-0.280278 0.0910728 0.281848 75 126 53
-0.279624 0.0916819 0.281881 71 122 50
-0.279255 0.0924232 0.281859 67 118 48
-0.288527 0.108682 0.278839 69 119 53
-0.287646 0.10923 0.278912 74 124 56
-0.286928 0.109862 0.278952 77 130 61
-0.286527 0.110666 0.278928 81 132 62
-0.286126 0.111471 0.278904 83 131 61
-0.285883 0.112365 0.278848 81 128 59
-0.268575 0.109347 0.281684 63 95 37
-0.267807 0.109857 0.281744 58 92 30
-0.267174 0.110444 0.281776 58 90 26
-0.266541 0.11103 0.281808 56 88 28
-0.26604 0.111695 0.281813 56 90 30
-0.265669 0.112441 0.281791 56 87 30
-0.26504 0.113024 0.281823 60 90 33
-0.264285 0.113525 0.281882 55 88 35
-0.263786 0.114188 0.281887 53 88 32
-0.263797 0.115181 0.281783 55 88 29
-0.281587 0.0879706 0.281164 66 65 49
-0.281075 0.0886467 0.28117 91 113 68
-0.280563 0.0893224 0.281176 102 147 74
-0.280194 0.0900626 0.281154 91 143 65
-0.279683 0.0907377 0.281159 84 135 58
-0.278748 0.0912147 0.281249 80 131 55
-0.278521 0.0920201 0.281199 75 127 54
-0.287871 0.108291 0.2781 68 115 52
-0.286993 0.10884 0.278174 73 124 55
-0.286435 0.109557 0.278182 76 130 60
-0.286034 0.110361 0.278158 80 132 62
-0.285634 0.111165 0.278134 83 132 61
-0.28539 0.112058 0.278077 80 129 60
-0.268397 0.109224 0.280912 62 95 41
-0.267892 0.109893 0.280917 54 93 32
-0.267125 0.110402 0.280979 55 93 28
-0.266232 0.110829 0.281068 56 88 28
-0.265861 0.111575 0.281045 58 92 30
-0.26536 0.11224 0.28105 54 90 31
-0.264731 0.112824 0.281083 54 90 32
-0.264232 0.113488 0.281088 55 89 32
-0.26386 0.114234 0.281066 54 90 33
-0.28099 0.0876402 0.280478 64 62 44
-0.280479 0.0883155 0.280484 87 101 60
-0.279968 0.0889903 0.28049 103 143 73
-0.2796 0.0897293 0.280467 96 150 70
-0.278807 0.0902734 0.28053 88 140 61
-0.278158 0.0908809 0.280565 84 138 60
-0.27779 0.0916187 0.280542 80 134 59
-0.287536 0.108072 0.277296 68 117 53
-0.286659 0.108621 0.277371 71 123 55
-0.2861 0.109339 0.27738 75 128 58
-0.2857 0.110143 0.277355 81 131 61
-0.285299 0.110947 0.277331 83 134 62
-0.284898 0.111752 0.277306 79 131 61
-0.268218 0.109101 0.280139 63 96 43
-0.267713 0.109771 0.280145 58 91 33
-0.266946 0.11028 0.280208 57 91 30
-0.266443 0.110948 0.280213 54 88 30
-0.265552 0.111374 0.280304 54 92 31
-0.265051 0.112039 0.28031 53 90 31
-0.264422 0.112623 0.280343 56 89 31
-0.263923 0.113288 0.280349 55 89 32
-0.280537 0.0873736 0.279763 62 57 40
-0.280027 0.0880486 0.27977 78 85 52
-0.279233 0.0885954 0.279834 98 134 71
-0.278866 0.0893327 0.279811 99 155 76
-0.278217 0.089941 0.279847 89 143 66
-0.277709 0.0906131 0.279853 84 141 63
-0.277202 0.0912847 0.279859 82 137 60
-0.276834 0.092022 0.279836 80 133 58
-0.287201 0.107853 0.276492 68 117 54
-0.286324 0.108402 0.276569 70 121 56
-0.285766 0.10912 0.276578 74 126 59
-0.285208 0.109838 0.276587 80 131 61
-0.284808 0.110642 0.276562 82 134 62
-0.284563 0.111533 0.276503 80 131 62
-0.284162 0.112339 0.276478 74 124 59
-0.268039 0.108978 0.279365 63 97 41
-0.267534 0.109648 0.279371 60 91 34
-0.266898 0.110238 0.279406 59 92 34
-0.266263 0.110827 0.279441 55 90 34
-0.26576 0.111495 0.279447 55 90 31
-0.265387 0.112243 0.279424 53 89 30
-0.264113 0.112423 0.279603 56 90 31
-0.263742 0.113169 0.27958 59 88 31
-0.280228 0.0871702 0.279021 59 54 37
-0.279292 0.0876559 0.279116 69 68 47
-0.278784 0.0883291 0.279123 88 118 70
-0.278276 0.0890018 0.279129 102 156 80
-0.277768 0.089674 0.279136 92 144 68
-0.277261 0.0903458 0.279142 86 142 64
-0.276755 0.0910171 0.279149 82 137 60
-0.276387 0.0917538 0.279125 79 134 58
-0.28599 0.108184 0.275766 70 121 56
-0.285431 0.108902 0.275776 75 126 58
-0.284874 0.10962 0.275785 80 132 60
-0.284473 0.110423 0.27576 82 134 62
-0.284228 0.111315 0.2757 80 132 62
-0.283827 0.11212 0.275675 75 125 59
-0.267993 0.108934 0.278559 65 98 40
-0.267354 0.109526 0.278595 60 93 35
-0.266849 0.110196 0.278602 58 92 34
-0.266344 0.110866 0.278608 56 91 35
-0.266231 0.111779 0.278525 59 91 29
-0.265987 0.112613 0.278471 57 89 29
-0.278842 0.0873903 0.278406 65 58 42
-0.277827 0.0887355 0.278419 103 150 76
-0.27732 0.0894074 0.278426 92 146 70
-0.276814 0.0900788 0.278432 85 139 63
-0.276447 0.0908149 0.278409 82 138 60
-0.276079 0.0915516 0.278386 80 134 57
-0.285655 0.107965 0.274963 70 122 56
-0.285097 0.108684 0.274973 74 126 56
-0.284539 0.109401 0.274983 80 131 59
-0.284139 0.110205 0.274958 82 134 62
-0.283893 0.111096 0.274897 80 132 62
-0.283492 0.111902 0.274871 76 127 60
-0.267946 0.10889 0.277751 65 98 41
-0.267306 0.109482 0.277788 59 94 36
-0.266931 0.110234 0.277764 57 92 31
-0.266425 0.110905 0.277771 55 91 32
-0.26605 0.111657 0.277747 59 93 29
-0.265674 0.11241 0.277723 59 89 30
-0.265299 0.113163 0.277699 57 91 31
-0.278394 0.0871251 0.277696 60 60 39
-0.277379 0.0884696 0.27771 101 138 70
-0.277012 0.0892051 0.277686 94 148 74
-0.276506 0.0898767 0.277693 84 137 62
-0.276139 0.0906128 0.277669 82 135 60
-0.275771 0.0913494 0.277646 81 135 59
-0.285635 0.107916 0.274089 69 123 55
-0.284762 0.108465 0.274171 73 125 55
-0.284361 0.109269 0.274145 79 130 58
-0.28396 0.110073 0.274119 81 133 62
-0.283558 0.110878 0.274093 79 132 63
-0.283156 0.111683 0.274067 77 128 61
-0.268031 0.108924 0.276909 63 99 41
-0.267126 0.109359 0.27701 59 94 35
-0.266751 0.110111 0.276986 59 93 29
-0.266244 0.110783 0.276993 57 92 31
-0.265868 0.111536 0.276968 57 93 31
-0.265492 0.112289 0.276944 59 90 33
-0.277072 0.0882673 0.27697 93 121 63
-0.276704 0.0890028 0.276946 97 151 77
-0.276198 0.0896745 0.276954 85 137 63
-0.275831 0.0904105 0.27693 81 135 62
-0.275463 0.0911472 0.276906 81 134 60
-0.285616 0.107866 0.273211 67 123 54
-0.284428 0.108246 0.273368 70 125 55
-0.284026 0.10905 0.273342 78 129 57
-0.283625 0.109854 0.273316 80 133 60
-0.283223 0.110659 0.27329 79 133 62
-0.282821 0.111464 0.273264 77 128 60
-0.268518 0.109199 0.275966 63 100 38
-0.267342 0.109475 0.276134 61 95 32
-0.266701 0.110068 0.276174 59 93 29
-0.266194 0.110741 0.276181 58 94 35
-0.265817 0.111495 0.276156 56 92 35
-0.265441 0.112249 0.276132 60 90 37
-0.264674 0.112758 0.276203 58 91 36
-0.276258 0.0887368 0.276238 100 152 78
-0.27589 0.0894723 0.276214 87 137 64
-0.275385 0.0901436 0.276222 79 134 61
-0.275017 0.0908797 0.276197 78 132 60
-0.274649 0.0916162 0.276173 78 131 56
-0.285913 0.107987 0.272254 65 122 54
-0.284093 0.108028 0.272565 67 125 56
-0.283692 0.108831 0.272539 74 129 57
-0.28329 0.109635 0.272513 79 130 59
-0.282888 0.11044 0.272486 79 129 61
-0.268471 0.109155 0.275147 65 100 40
-0.267825 0.109752 0.275188 60 94 35
-0.266916 0.110186 0.275294 60 94 35
-0.266143 0.110699 0.275367 60 94 33
-0.265766 0.111454 0.275342 56 93 37
-0.265258 0.112128 0.275349 59 90 39
-0.27595 0.0885346 0.275499 102 143 75
-0.275582 0.08927 0.275474 87 139 69
-0.275077 0.0899415 0.275482 77 130 58
-0.274709 0.0906775 0.275458 74 127 59
-0.274341 0.0914141 0.275433 74 126 54
-0.286053 0.108023 0.271329 63 120 53
-0.283914 0.107894 0.271725 65 123 56
-0.283357 0.108613 0.271736 70 126 58
-0.282955 0.109417 0.271709 76 128 60
-0.26829 0.10903 0.274358 64 97 41
-0.267777 0.109708 0.274367 58 94 39
-0.267132 0.110305 0.274408 57 91 38
-0.266356 0.110819 0.274483 57 95 34
-0.265846 0.111495 0.274491 60 94 36
-0.264945 0.111924 0.274599 58 91 35
-0.264567 0.11268 0.274574 55 92 35
-0.275642 0.0883324 0.27476 98 123 67
-0.275137 0.089004 0.274768 87 141 74
-0.274769 0.0897394 0.274743 74 125 57
-0.274401 0.0904754 0.274718 72 122 57
-0.274033 0.0912119 0.274693 70 121 53
-0.273664 0.091949 0.274668 69 120 52
-0.286034 0.107973 0.27044 61 118 52
-0.283891 0.107844 0.270843 65 121 54
-0.283489 0.10865 0.270816 69 124 56
-0.268243 0.108985 0.273534 65 98 39
-0.267595 0.109584 0.273577 58 95 35
-0.267082 0.110262 0.273586 53 95 36
-0.266438 0.110859 0.273628 55 93 33
-0.265795 0.111454 0.273671 54 92 36
-0.264761 0.111802 0.273814 58 94 35
-0.264383 0.112559 0.273789 57 92 36
-0.274829 0.0888018 0.274028 88 138 74
-0.274461 0.0895372 0.274003 73 121 56
-0.274093 0.0902732 0.273978 67 117 53
-0.273724 0.0910097 0.273953 65 117 52
-0.273356 0.0917468 0.273928 63 115 50
-0.273123 0.0925509 0.273869 62 115 50
-0.285695 0.107752 0.269627 61 116 47
-0.285289 0.108564 0.2696 65 121 52
-0.268195 0.10894 0.272707 64 98 39
-0.267547 0.10954 0.272751 56 94 35
-0.2669 0.110138 0.272795 56 96 34
-0.26652 0.110898 0.272769 54 95 34
-0.266007 0.111577 0.272778 56 93 37
-0.2651 0.112008 0.272891 58 95 32
-0.264721 0.112767 0.272865 60 92 33
-0.274521 0.0885997 0.273289 90 133 72
-0.274153 0.089335 0.273264 72 120 55
-0.273785 0.0900709 0.273238 62 112 50
-0.273416 0.0908074 0.273213 61 111 49
-0.273047 0.0915445 0.273187 59 111 48
-0.272678 0.0922821 0.273162 59 109 48
-0.272309 0.0930203 0.273136 58 109 43
-0.285356 0.10753 0.268815 58 116 49
-0.284791 0.108257 0.268828 64 121 53
-0.268688 0.109217 0.271735 63 97 40
-0.267498 0.109495 0.271923 58 94 33
-0.266983 0.110176 0.271932 59 93 33
-0.266336 0.110775 0.271977 58 94 36
-0.265823 0.111454 0.271986 60 92 34
-0.26531 0.112133 0.271995 59 95 31
-0.265061 0.112977 0.271933 56 94 33
-0.274213 0.0883975 0.272549 92 120 64
-0.273845 0.0891328 0.272524 73 118 58
-0.273476 0.0898687 0.272498 60 109 49
-0.273108 0.0906051 0.272472 57 107 43
-0.272739 0.0913422 0.272447 55 109 46
-0.27237 0.0920798 0.272421 57 109 44
-0.272 0.092818 0.272395 57 108 42
-0.27163 0.0935567 0.272369 58 106 41
-0.27126 0.094296 0.272344 57 106 42
-0.285018 0.107309 0.268003 56 112 49
-0.28304 0.107271 0.268387 62 120 53
-0.282637 0.108077 0.268359 66 124 56
-0.268912 0.109335 0.270826 62 97 41
-0.267987 0.109775 0.270946 59 95 34
-0.267067 0.110214 0.271065 56 93 36
-0.266418 0.110814 0.271111 56 93 37
-0.266036 0.111577 0.271084 58 93 35
-0.265654 0.112341 0.271058 58 93 34
-0.265934 0.113525 0.270849 55 93 33
-0.273905 0.0881952 0.27181 85 95 55
-0.273537 0.0889305 0.271784 78 124 64
-0.273168 0.0896664 0.271758 63 110 52
-0.272799 0.0904028 0.271732 60 107 43
-0.27243 0.0911399 0.271706 59 106 41
-0.272061 0.0918774 0.27168 60 108 43
-0.271691 0.0926156 0.271654 58 107 42
-0.271321 0.0933543 0.271628 57 106 44
-0.270549 0.093891 0.271707 57 107 42
-0.270179 0.0946292 0.271681 58 106 42
-0.282548 0.106967 0.267622 61 117 51
-0.281682 0.107519 0.267718 66 124 54
-0.281125 0.108238 0.267731 69 126 55
-0.268865 0.10929 0.269987 62 98 37
-0.268209 0.109894 0.270035 60 94 35
-0.267285 0.110334 0.270157 58 92 37
-0.266768 0.111018 0.270167 57 94 39
-0.266384 0.111784 0.27014 58 94 35
-0.266 0.112551 0.270113 60 93 31
-0.265882 0.113487 0.270011 60 92 31
-0.273324 0.0878672 0.271141 68 73 43
-0.272957 0.0886014 0.271115 85 124 67
-0.272588 0.0893361 0.271089 71 117 55
-0.272355 0.0901359 0.271027 62 111 48
-0.271851 0.0908072 0.271036 61 110 45
-0.271617 0.0916093 0.270975 62 110 45
-0.271248 0.0923468 0.270948 59 109 46
-0.270878 0.093085 0.270922 59 108 47
-0.27024 0.093689 0.270967 57 108 45
-0.269871 0.0944272 0.270941 57 108 45
-0.282213 0.106748 0.266817 59 116 48
-0.281193 0.107216 0.266956 65 124 53
-0.278969 0.107014 0.267426 70 126 55
-0.27857 0.10781 0.267398 74 128 58
-0.278022 0.108522 0.267411 79 129 58
-0.268818 0.109244 0.269145 62 98 34
-0.26816 0.10985 0.269194 60 93 34
-0.267505 0.110455 0.269242 60 92 37
-0.266851 0.111058 0.269291 58 95 39
-0.266466 0.111826 0.269263 60 93 34
-0.266081 0.112594 0.269236 63 94 29
-0.272881 0.0876027 0.270439 52 62 42
-0.272513 0.0883362 0.270412 86 115 65
-0.272145 0.0890704 0.270386 79 126 61
-0.271777 0.0898051 0.270359 68 117 53
-0.271409 0.0905403 0.270333 64 113 50
-0.27104 0.0912761 0.270306 62 112 50
-0.270805 0.0920785 0.270244 61 112 49
-0.270302 0.0927495 0.270253 60 111 49
-0.269932 0.093487 0.270227 60 111 47
-0.269562 0.0942251 0.2702 59 111 47
-0.280705 0.106914 0.266196 63 122 52
-0.278637 0.106797 0.266631 69 127 56
-0.278089 0.10751 0.266644 72 128 58
-0.277541 0.108222 0.266657 77 130 59
-0.277142 0.109018 0.266628 79 131 58
-0.269044 0.109362 0.268222 62 98 37
-0.268112 0.109806 0.26835 61 93 38
-0.267455 0.110411 0.2684 61 94 40
-0.266935 0.111098 0.268411 59 96 41
-0.266415 0.111785 0.268421 61 95 38
-0.266163 0.112638 0.268355 64 96 36
-0.272303 0.0872763 0.269774 55 52 37
-0.271801 0.087946 0.269783 83 97 56
-0.271434 0.0886784 0.269757 87 132 66
-0.271067 0.0894114 0.26973 77 126 57
-0.270565 0.0900807 0.26974 70 119 53
-0.270065 0.0907495 0.26975 66 118 52
-0.270229 0.0917448 0.269577 65 118 51
-0.269993 0.0925475 0.269513 65 116 50
-0.269623 0.093285 0.269486 64 116 50
-0.269253 0.0940231 0.269459 64 116 50
-0.278156 0.106498 0.265877 69 128 56
-0.277608 0.107211 0.265891 72 130 58
-0.277061 0.107922 0.265904 76 132 59
-0.276662 0.108717 0.265875 79 131 60
-0.276263 0.109513 0.265846 76 125 59
-0.269824 0.109811 0.267133 63 98 40
-0.268199 0.109843 0.267464 62 95 45
-0.267405 0.110368 0.267554 61 95 45
-0.266749 0.110973 0.267605 61 95 43
-0.266363 0.111743 0.267577 61 96 40
-0.26611 0.112598 0.267509 62 97 43
-0.271058 0.0866429 0.269295 55 47 34
-0.270693 0.0873714 0.269268 69 74 50
-0.270327 0.0881004 0.269241 92 131 70
-0.269829 0.0887671 0.269251 87 136 66
-0.269331 0.0894332 0.269261 78 128 58
-0.268702 0.0900351 0.269307 74 126 55
-0.268993 0.0910869 0.269097 72 125 53
-0.269818 0.0924116 0.268735 72 123 54
-0.277675 0.1062 0.265125 68 127 56
-0.277128 0.106912 0.265139 73 132 59
-0.27673 0.107706 0.265109 76 132 60
-0.276036 0.108334 0.265166 79 131 62
-0.275637 0.109128 0.265137 78 126 61
-0.269777 0.109766 0.266277 63 98 39
-0.26856 0.110046 0.266492 60 96 46
-0.267491 0.110407 0.266666 59 94 44
-0.266698 0.11093 0.266758 60 94 38
-0.266311 0.111702 0.266729 61 92 35
-0.270487 0.0863202 0.268636 53 50 33
-0.26999 0.086986 0.268646 60 57 43
-0.269625 0.0877134 0.268619 92 118 66
-0.269128 0.0883787 0.268629 96 144 74
-0.268763 0.0891066 0.268602 88 139 66
-0.268397 0.0898351 0.268575 82 135 61
-0.268031 0.0905641 0.268548 80 134 58
-0.276797 0.106695 0.264344 72 133 60
-0.27625 0.107407 0.264358 76 133 61
-0.275558 0.108034 0.264416 78 132 61
-0.274721 0.108577 0.264516 79 127 60
-0.274761 0.109622 0.264356 66 116 53
-0.27195 0.110023 0.264899 68 102 46
-0.269592 0.109638 0.265459 60 97 39
-0.268649 0.110084 0.265596 57 95 38
-0.267849 0.110611 0.265691 58 93 35
-0.26746 0.111387 0.265662 60 93 33
-0.269918 0.0859984 0.267979 49 48 29
-0.269421 0.0866634 0.267989 53 50 34
-0.269057 0.0873896 0.267962 83 97 55
-0.268692 0.0881164 0.267935 101 145 78
-0.268327 0.0888437 0.267907 96 151 74
-0.268092 0.089635 0.267842 88 144 66
-0.267726 0.090364 0.267815 86 143 63
-0.276067 0.107274 0.26352 74 135 64
-0.275227 0.107819 0.263622 79 132 61
-0.273379 0.107781 0.26403 81 128 59
-0.272984 0.108569 0.264 67 118 56
-0.272159 0.109106 0.2641 75 115 55
-0.271622 0.10981 0.264114 66 101 47
-0.269684 0.109675 0.264555 57 97 41
-0.268877 0.110206 0.264653 53 96 38
-0.268348 0.110902 0.264666 56 93 37
-0.268986 0.0864026 0.267296 50 47 29
-0.268257 0.0878545 0.267241 98 136 75
-0.267892 0.0885812 0.267213 102 157 80
-0.267526 0.0893085 0.267186 93 151 71
-0.267161 0.0900364 0.267158 89 148 68
-0.274896 0.107603 0.262829 79 134 62
-0.273051 0.107567 0.263243 85 131 61
-0.272227 0.108106 0.263344 72 120 57
-0.271832 0.108893 0.263314 74 114 53
-0.271294 0.109596 0.263328 64 101 46
-0.270196 0.109963 0.263517 57 98 37
-0.268967 0.110245 0.263747 55 94 37
-0.236078 0.0945905 0.273353 60 89 34
-0.235756 0.0952325 0.273329 55 92 38
-0.235433 0.095875 0.273304 56 91 32
-0.267327 0.0882568 0.266559 105 155 82
-0.266962 0.088983 0.266531 97 155 77
-0.265954 0.0893944 0.266696 91 150 71
-0.26559 0.090119 0.266668 89 148 70
-0.272436 0.107189 0.262544 83 133 61
-0.271899 0.107893 0.262559 72 121 57
-0.271504 0.108679 0.262529 73 113 57
-0.271108 0.109466 0.262498 63 99 47
-0.270149 0.109918 0.262646 56 97 40
-0.269754 0.110704 0.262615 54 92 35
-0.235812 0.0944172 0.272714 58 91 37
-0.235489 0.0950592 0.272689 56 93 38
-0.235166 0.0957017 0.272665 54 90 34
-0.234843 0.0963447 0.27264 54 94 34
-0.23452 0.0969882 0.272615 56 90 35
-0.234196 0.0976322 0.272591 58 88 35
-0.266378 0.0877482 0.266024 102 146 79
-0.265376 0.0881621 0.266189 101 159 80
-0.264887 0.0888212 0.2662 93 151 72
-0.264524 0.0895425 0.266172 91 149 69
-0.264035 0.0902011 0.266182 89 148 67
-0.271966 0.106893 0.261803 84 134 59
-0.271571 0.107679 0.261773 75 123 53
-0.271176 0.108466 0.261742 73 111 55
-0.27078 0.109253 0.261712 64 98 43
-0.270102 0.109873 0.261772 60 97 34
-0.269707 0.11066 0.261741 56 95 36
-0.235222 0.0948859 0.27205 58 90 35
-0.234899 0.0955284 0.272025 54 93 37
-0.234576 0.0961714 0.272 56 92 34
-0.234252 0.0968148 0.271975 60 90 33
-0.233929 0.0974588 0.27195 57 89 36
-0.233605 0.0981033 0.271925 56 89 33
-0.23328 0.0987483 0.2719 57 89 32
-0.264947 0.0879026 0.265503 106 158 83
-0.264458 0.0885614 0.265514 96 151 73
-0.264096 0.089282 0.265485 91 149 67
-0.263733 0.0900033 0.265457 90 147 65
-0.26337 0.0907251 0.265429 89 147 65
-0.271243 0.107466 0.260987 78 123 54
-0.270848 0.108252 0.260956 72 109 51
-0.270452 0.109039 0.260925 63 98 43
-0.270056 0.109827 0.260895 58 96 34
-0.269659 0.110615 0.260864 58 96 32
-0.234632 0.0953551 0.271385 55 94 33
-0.234309 0.095998 0.27136 58 90 31
-0.233985 0.0966415 0.271335 60 88 33
-0.233661 0.0972854 0.27131 57 90 36
-0.233337 0.0979299 0.271284 55 90 34
-0.233013 0.0985748 0.271259 56 89 36
-0.232688 0.0992203 0.271234 60 91 41
-0.264519 0.0876434 0.264817 106 149 79
-0.264156 0.0883635 0.264789 99 155 77
-0.263794 0.0890842 0.26476 91 148 67
-0.263431 0.0898054 0.264732 91 146 65
-0.271057 0.107334 0.260155 81 123 53
-0.270661 0.108121 0.260123 71 108 49
-0.270264 0.108909 0.260092 63 96 37
-0.269727 0.109613 0.260108 58 93 32
-0.269331 0.110402 0.260076 60 92 34
-0.234365 0.0951817 0.270745 55 95 36
-0.234041 0.0958246 0.27072 57 92 35
-0.233718 0.0964681 0.270695 55 90 38
-0.233394 0.097112 0.270669 57 88 36
-0.233069 0.0977564 0.270644 58 90 33
-0.232745 0.0984014 0.270618 56 90 35
-0.23242 0.0990468 0.270593 60 94 44
-0.263854 0.0881657 0.264064 105 159 82
-0.263492 0.0888863 0.264035 92 148 68
-0.263129 0.0896075 0.264007 89 146 65
-0.27087 0.107202 0.259321 86 123 56
-0.270474 0.10799 0.259289 70 105 49
-0.270077 0.108778 0.259258 61 96 37
-0.269539 0.109483 0.259273 58 93 34
-0.269142 0.110272 0.259242 60 96 37
-0.233774 0.0956512 0.27008 54 95 42
-0.23345 0.0962946 0.270054 50 95 44
-0.233126 0.0969386 0.270028 51 93 38
-0.232802 0.097583 0.270003 54 91 36
-0.232477 0.0982279 0.269977 59 91 39
-0.232152 0.0988733 0.269951 64 96 50
-0.263427 0.0879064 0.26338 107 148 77
-0.263064 0.0886265 0.263351 93 147 71
-0.262702 0.0893471 0.263322 86 141 63
-0.271251 0.107398 0.258293 86 122 58
-0.270427 0.107941 0.258406 69 101 48
-0.27003 0.10873 0.258374 61 96 37
-0.269491 0.109437 0.25839 58 94 35
-0.269093 0.110227 0.258358 57 95 33
-0.234962 0.0964255 0.26893 55 91 41
-0.233183 0.0961212 0.269414 52 93 40
-0.232858 0.0967651 0.269388 54 93 38
-0.232534 0.0974095 0.269362 60 89 36
-0.232209 0.0980544 0.269336 62 93 43
-0.231884 0.0986998 0.26931 68 99 52
-0.263 0.0876475 0.262697 97 133 74
-0.262513 0.0883054 0.262708 95 148 77
-0.26215 0.089025 0.262679 83 138 63
-0.261788 0.0897451 0.26265 77 136 61
-0.271779 0.10768 0.257208 81 121 58
-0.270807 0.108141 0.257372 67 101 47
-0.270408 0.108933 0.25734 62 97 33
-0.269584 0.109474 0.257455 61 96 34
-0.269608 0.110521 0.257275 60 96 34
-0.235938 0.0979351 0.267696 59 91 40
-0.234036 0.0975511 0.26823 60 95 46
-0.233708 0.0982023 0.268203 64 92 45
-0.261839 0.0879242 0.262109 99 140 75
-0.260862 0.0883349 0.262286 85 138 65
-0.260257 0.0889274 0.262338 77 133 59
-0.260999 0.0902051 0.261937 76 131 58
-0.272279 0.106917 0.256296 91 136 63
-0.271734 0.10763 0.256313 80 117 58
-0.271047 0.108258 0.25638 64 99 48
-0.270646 0.109054 0.256348 61 96 37
-0.270102 0.109765 0.256365 60 95 36
-0.270128 0.110818 0.256182 61 96 37
-0.236795 0.098501 0.266632 62 95 48
-0.236366 0.0991017 0.266639 62 97 53
-0.260923 0.0874234 0.261596 95 128 70
-0.260318 0.0880166 0.261649 94 142 73
-0.259593 0.0885475 0.261744 83 133 60
-0.259354 0.0893228 0.261673 79 132 59
-0.272348 0.105905 0.255532 76 130 56
-0.271947 0.1067 0.255499 91 133 62
-0.271546 0.107496 0.255466 76 111 56
-0.271144 0.108293 0.255433 64 97 46
-0.270742 0.10909 0.2554 62 94 40
-0.27034 0.109888 0.255367 59 96 42
-0.238003 0.0984078 0.265578 65 96 47
-0.23709 0.0986977 0.265761 64 96 51
-0.237041 0.0995541 0.265628 64 98 53
-0.259654 0.0876388 0.261056 99 140 76
-0.259294 0.0883518 0.261026 89 140 67
-0.258934 0.0890654 0.260996 83 134 60
-0.271759 0.106566 0.254651 86 128 61
-0.271213 0.10728 0.254669 70 106 53
-0.270811 0.108076 0.254635 62 98 44
-0.239231 0.0983136 0.264507 65 98 49
-0.238112 0.0984793 0.264768 64 97 51
-0.2371 0.0987066 0.264991 64 98 53
-0.237822 0.100077 0.264568 65 99 55
-0.235984 0.102443 0.264636 49 46 31
-0.258634 0.087974 0.260436 97 147 75
-0.258635 0.0888696 0.260278 89 140 63
-0.242694 0.0951423 0.263374 57 95 37
-0.242251 0.0957582 0.263383 57 93 40
-0.240379 0.0981546 0.263456 64 100 53
-0.239443 0.098449 0.263651 65 100 53
-0.238513 0.0987415 0.263844 63 99 55
-0.238076 0.0993509 0.263853 64 100 56
-0.238615 0.100608 0.263491 65 99 58
