ply
format ascii 1.0
element vertex 1254
property float x
property float y
property float z
property uchar diffuse_red
property uchar diffuse_green
property uchar diffuse_blue
end_header
-0.238461 0.0979566 0.31089 91 133 65
-0.237849 0.0984175 0.310906 92 134 61
-0.237529 0.0990677 0.310895 92 135 61
-0.266627 0.0885234 0.308823 99 139 67
-0.266275 0.089239 0.30881 97 140 67
-0.263676 0.0906048 0.308911 98 139 67
-0.263073 0.0911857 0.308921 97 140 66
-0.262723 0.0918965 0.308908 95 140 66
-0.241442 0.0955572 0.310122 80 122 59
-0.241119 0.0962127 0.31011 79 121 59
-0.240596 0.0967429 0.310117 78 120 60
-0.240174 0.0973353 0.310115 76 120 58
-0.239455 0.0977371 0.310142 76 117 57
-0.238837 0.0982006 0.310159 76 117 58
-0.23793 0.0984722 0.310205 80 118 55
-0.237609 0.0991237 0.310193 83 123 56
-0.241431 0.0955446 0.309422 73 107 52
-0.240907 0.0960759 0.30943 71 105 52
-0.240584 0.0967319 0.309418 69 105 54
-0.24026 0.0973884 0.309405 71 107 52
-0.239639 0.0978543 0.309424 69 106 51
-0.238921 0.0982552 0.309452 66 104 51
-0.238011 0.0985271 0.309501 72 108 51
-0.237592 0.0991159 0.309499 75 111 53
-0.241218 0.0954075 0.308741 78 104 54
-0.240694 0.095939 0.30875 73 99 51
-0.240371 0.096595 0.308737 72 101 51
-0.240147 0.0973148 0.308714 75 104 50
-0.239724 0.0979085 0.308712 70 104 50
-0.239004 0.09831 0.308742 66 101 49
-0.237994 0.0985186 0.308804 69 106 51
-0.237478 0.0990442 0.308813 72 108 54
-0.237253 0.0997618 0.30879 76 114 55
-0.241732 0.0948615 0.308028 85 111 60
-0.241105 0.0953325 0.308049 82 110 62
-0.240681 0.0959269 0.308047 75 103 55
-0.240358 0.0965838 0.308035 74 104 52
-0.240034 0.0972411 0.308022 73 104 51
-0.23961 0.0978353 0.30802 68 103 52
-0.23889 0.0982373 0.308052 68 104 50
-0.238174 0.0986376 0.308084 69 108 53
-0.237363 0.0989723 0.308126 73 111 54
-0.237041 0.099626 0.308114 76 114 53
-0.241216 0.094539 0.307381 78 113 61
-0.240892 0.0951953 0.307368 73 110 61
-0.240568 0.0958522 0.307355 69 105 55
-0.240144 0.0964467 0.307353 66 102 51
-0.23982 0.097104 0.30734 64 99 47
-0.239397 0.0976982 0.307339 62 100 50
-0.238776 0.0981644 0.307361 68 105 51
-0.238255 0.0986931 0.307371 69 110 53
-0.237443 0.0990283 0.307415 72 113 52
-0.23712 0.0996833 0.307402 76 115 52
-0.241103 0.0944633 0.306687 69 107 52
-0.240679 0.0950581 0.306686 65 104 52
-0.240355 0.095715 0.306673 64 102 51
-0.240031 0.0963723 0.30666 61 102 44
-0.239607 0.0969669 0.306658 59 99 40
-0.239184 0.0975612 0.306657 57 100 45
-0.238661 0.0980914 0.306668 64 106 51
-0.238239 0.0986847 0.306667 66 110 51
-0.237523 0.0990846 0.306702 68 114 51
-0.2372 0.0997408 0.306689 73 114 53
-0.24089 0.094326 0.306006 66 110 54
-0.240466 0.0949209 0.306005 59 104 51
-0.240242 0.09564 0.305979 60 100 47
-0.239917 0.0962978 0.305965 58 99 41
-0.239493 0.0968929 0.305964 56 97 39
-0.23897 0.0974241 0.305976 59 97 40
-0.238448 0.0979545 0.305987 60 102 48
-0.238026 0.0985479 0.305986 61 108 50
-0.237701 0.0992054 0.305973 64 113 50
-0.240777 0.09425 0.305311 65 114 52
-0.240353 0.0948454 0.30531 62 108 50
-0.240128 0.095565 0.305283 60 105 49
-0.239804 0.0962232 0.305269 58 103 43
-0.239379 0.0968187 0.305269 58 101 39
-0.238757 0.0972871 0.305294 59 101 44
-0.238235 0.0978176 0.305306 60 103 46
-0.237911 0.0984751 0.305292 59 107 47
-0.280466 0.0882926 0.301301 30 91 17
-0.280089 0.0890582 0.301285 28 89 26
-0.238543 0.09715 0.304612 56 107 48
-0.238022 0.0976807 0.304625 57 107 47
-0.280212 0.0844193 0.300755 63 71 40
-0.280291 0.0872289 0.300553 38 92 26
-0.279914 0.0879926 0.300536 29 91 24
-0.279386 0.0886883 0.300539 29 91 26
-0.279515 0.0840634 0.300018 65 67 40
-0.277647 0.0878462 0.299934 30 94 24
-0.279209 0.089497 0.29966 28 91 24
-0.279119 0.0838372 0.299244 58 65 39
-0.277773 0.0869265 0.299155 75 114 50
-0.278871 0.0836754 0.29845 60 61 35
-0.276856 0.0873882 0.298384 85 132 60
-0.276336 0.0880778 0.298387 71 121 52
-0.275962 0.0888347 0.29837 62 108 43
-0.275796 0.0877818 0.297635 84 138 63
-0.274699 0.0882007 0.297724 76 128 58
-0.273896 0.0887515 0.29777 66 118 50
-0.268471 0.0889167 0.298358 31 93 22
-0.267164 0.0891898 0.298481 25 91 20
-0.277041 0.0846029 0.296913 79 102 57
-0.276522 0.0852914 0.296917 104 158 81
-0.27468 0.0872208 0.296973 83 140 62
-0.27345 0.0875737 0.297086 77 132 58
-0.272795 0.0881894 0.297111 72 126 57
-0.272284 0.0888709 0.297115 66 116 53
-0.269002 0.0882209 0.297542 57 107 43
-0.267287 0.0883021 0.297731 44 100 32
-0.265861 0.0885121 0.297877 31 94 23
-0.265501 0.0892401 0.29786 25 91 21
-0.276356 0.0842487 0.296188 67 71 50
-0.275838 0.0849358 0.296193 85 124 64
-0.275757 0.0858181 0.29613 94 145 71
-0.27495 0.0863741 0.296179 88 142 66
-0.273717 0.0867307 0.296295 78 134 59
-0.273062 0.0873477 0.296321 73 130 56
-0.272409 0.0879633 0.296348 69 125 55
-0.270362 0.087915 0.296593 64 116 51
-0.269582 0.0884581 0.29664 59 108 46
-0.267989 0.0886035 0.296816 48 102 36
-0.266552 0.0888127 0.296968 36 97 28
-0.275592 0.0847749 0.295402 72 82 49
-0.274931 0.0853967 0.29543 81 113 60
-0.273842 0.0858219 0.295526 84 128 65
-0.273187 0.0864398 0.295554 72 123 57
-0.272534 0.0870563 0.295581 65 118 50
-0.272023 0.0877375 0.295585 61 114 46
-0.270535 0.0879542 0.295748 56 109 44
-0.270029 0.0886311 0.295752 52 104 38
-0.269661 0.0893744 0.295734 44 101 33
-0.273824 0.0848495 0.294782 69 79 47
-0.273312 0.0855324 0.294786 79 107 59
-0.272659 0.0861498 0.294815 70 114 56
-0.272148 0.0868311 0.294819 58 107 43
-0.271497 0.0874461 0.294847 51 103 38
-0.270848 0.0880597 0.294875 47 102 37
-0.270479 0.0888054 0.294857 45 101 33
-0.253358 0.103758 0.2957 89 130 65
-0.252998 0.104485 0.295682 86 125 63
-0.272642 0.0851795 0.294073 72 87 52
-0.271991 0.085796 0.294102 73 112 61
-0.271622 0.0865412 0.294083 59 105 44
-0.271113 0.0872212 0.294088 46 101 37
-0.270604 0.0879007 0.294093 43 101 35
-0.270235 0.0886463 0.294074 43 102 34
-0.269866 0.0893925 0.294055 43 101 35
-0.253723 0.103028 0.294919 93 137 72
-0.253122 0.103606 0.294945 93 135 72
-0.252762 0.104333 0.294926 91 127 68
-0.252401 0.105061 0.294908 86 123 63
-0.271466 0.0855081 0.293367 75 106 62
-0.271098 0.0862521 0.293348 63 107 51
-0.270729 0.0869966 0.293329 47 102 39
-0.27036 0.0877417 0.29331 43 101 34
-0.269713 0.0883544 0.29334 43 101 35
-0.269345 0.0890994 0.293321 42 100 35
-0.268975 0.089845 0.293302 44 99 34
-0.26902 0.0907958 0.293209 46 99 36
-0.253006 0.103529 0.294166 88 125 67
-0.252525 0.104181 0.29417 86 124 63
-0.252045 0.104833 0.294174 83 122 58
-0.251804 0.105637 0.294133 77 116 60
-0.251087 0.106136 0.294182 68 102 52
-0.270387 0.0849662 0.292734 75 93 56
-0.27002 0.0857067 0.292715 66 108 53
-0.269791 0.0865125 0.292671 52 104 39
-0.269424 0.0872547 0.292652 45 99 32
-0.268918 0.0879316 0.292657 43 99 33
-0.26855 0.0886743 0.292638 43 99 34
-0.268182 0.0894175 0.292619 43 98 31
-0.267677 0.0900938 0.292624 43 98 30
-0.267445 0.0909056 0.29258 42 100 30
-0.275695 0.107054 0.289956 72 126 59
-0.252769 0.103377 0.29341 79 125 61
-0.252289 0.104029 0.293414 77 120 60
-0.251809 0.104681 0.293418 79 117 56
-0.251211 0.105257 0.293446 74 107 51
-0.249793 0.1053 0.293634 67 101 43
-0.249086 0.105796 0.293684 62 97 44
-0.248267 0.106214 0.293756 58 96 47
-0.248025 0.10701 0.293715 58 97 46
-0.26973 0.0846181 0.292032 74 83 52
-0.269502 0.0854207 0.291987 72 110 56
-0.269273 0.086225 0.291942 60 109 43
-0.268905 0.086966 0.291923 49 101 34
-0.268538 0.0877076 0.291903 44 98 31
-0.26817 0.0884497 0.291884 42 98 31
-0.267802 0.0891924 0.291864 41 99 30
-0.267026 0.0897341 0.291921 42 98 28
-0.267065 0.0906793 0.291825 41 99 31
-0.275831 0.106078 0.289135 69 120 54
-0.275126 0.106711 0.289173 76 126 57
-0.275032 0.107691 0.289092 77 131 59
-0.252532 0.103224 0.292653 78 130 60
-0.251933 0.103802 0.292682 77 123 59
-0.251572 0.104529 0.292662 75 113 55
-0.250974 0.105105 0.292691 69 104 50
-0.249558 0.105149 0.292884 62 97 38
-0.248505 0.105419 0.293005 56 93 42
-0.248033 0.106064 0.293009 55 90 43
-0.247791 0.10686 0.292967 57 92 38
-0.247548 0.107658 0.292925 56 89 36
-0.269214 0.0843344 0.291307 71 69 46
-0.268985 0.0851355 0.291261 77 106 58
-0.268619 0.0858742 0.291242 68 114 51
-0.268252 0.0866136 0.291222 55 104 40
-0.267885 0.0873534 0.291202 50 100 33
-0.267518 0.0880938 0.291182 47 99 31
-0.267151 0.0888348 0.291162 42 101 31
-0.266784 0.0895762 0.291143 41 100 30
-0.266822 0.0905211 0.291045 41 98 26
-0.275415 0.105822 0.288323 68 119 55
-0.274105 0.106113 0.288482 74 126 58
-0.27416 0.107174 0.28837 79 131 63
-0.252295 0.103072 0.291896 75 129 61
-0.251815 0.103725 0.291901 76 122 58
-0.251336 0.104377 0.291906 72 109 54
-0.250856 0.105029 0.291911 65 100 46
-0.24944 0.105074 0.292109 59 94 43
-0.248617 0.105495 0.292186 56 91 38
-0.247914 0.105989 0.292238 56 90 36
-0.247557 0.10671 0.292219 55 90 37
-0.247543 0.107662 0.292128 54 88 35
-0.247184 0.108385 0.292109 54 89 32
-0.268562 0.0839891 0.29061 63 60 52
-0.268197 0.084725 0.29059 79 105 64
-0.268104 0.0855888 0.290518 77 125 59
-0.267738 0.0863269 0.290498 64 113 49
-0.267236 0.0870009 0.290504 59 105 43
-0.26687 0.0877395 0.290484 55 104 38
-0.266638 0.0885447 0.290437 48 103 37
-0.266541 0.0894183 0.290364 43 102 36
-0.274695 0.105396 0.287574 70 119 55
-0.273843 0.105944 0.287644 74 127 57
-0.272995 0.10649 0.287714 79 131 62
-0.273047 0.10755 0.287601 82 134 64
-0.251698 0.103647 0.29112 78 121 60
-0.251218 0.1043 0.291125 72 105 53
-0.250738 0.104953 0.29113 62 96 45
-0.249671 0.105225 0.29126 56 92 40
-0.248614 0.105495 0.291388 57 91 37
-0.248025 0.106066 0.291417 57 89 34
-0.247666 0.106788 0.291397 58 88 34
-0.247308 0.107511 0.291378 54 88 36
-0.247178 0.10839 0.291309 55 90 33
-0.268049 0.0837073 0.28989 59 54 48
-0.267684 0.0844422 0.289869 80 101 60
-0.26732 0.0851775 0.289849 88 133 62
-0.267089 0.0859772 0.289802 76 128 56
-0.266724 0.0867143 0.289782 67 119 50
-0.266089 0.087322 0.289815 62 114 49
-0.266126 0.0882555 0.289714 60 111 45
-0.273528 0.104721 0.286923 69 120 54
-0.273131 0.105521 0.286901 74 126 56
-0.272435 0.106151 0.286941 79 132 61
-0.272188 0.107036 0.286888 82 136 65
-0.25158 0.10357 0.290337 75 119 59
-0.251099 0.104223 0.290343 70 101 52
-0.250619 0.104876 0.290348 62 94 41
-0.249787 0.1053 0.29043 56 92 36
-0.248726 0.105571 0.290562 55 91 34
-0.24802 0.106067 0.290617 56 91 30
-0.247661 0.106791 0.290597 58 89 33
-0.247302 0.107515 0.290577 56 90 34
-0.247172 0.108394 0.290507 55 91 34
-0.247967 0.10991 0.290233 57 89 31
-0.267267 0.0833032 0.289226 59 57 46
-0.266636 0.0839117 0.28926 79 93 58
-0.266272 0.0846437 0.289239 94 134 66
-0.265909 0.0853762 0.289219 86 140 62
-0.265545 0.0861093 0.289198 76 132 56
-0.264916 0.0867147 0.289232 70 126 54
-0.26495 0.0876418 0.28913 69 122 52
-0.273267 0.104552 0.286087 69 120 54
-0.272571 0.105183 0.286128 75 125 56
-0.272026 0.105897 0.286138 79 132 60
-0.271629 0.106696 0.286116 82 136 65
-0.271233 0.107496 0.286093 82 137 63
-0.251462 0.103492 0.289553 73 118 59
-0.250981 0.104146 0.289559 67 100 49
-0.250501 0.1048 0.289565 61 93 37
-0.249785 0.1053 0.289623 56 91 36
-0.248956 0.105723 0.289706 55 91 35
-0.248131 0.106144 0.289789 56 90 32
-0.247656 0.106793 0.289795 56 89 32
-0.247297 0.107518 0.289775 56 90 33
-0.247166 0.108399 0.289703 53 91 34
-0.247613 0.109678 0.289501 56 89 31
-0.266759 0.0830237 0.288511 58 55 40
-0.266128 0.0836317 0.288545 72 80 51
-0.265766 0.0843626 0.288524 93 130 69
-0.265403 0.085094 0.288504 94 151 71
-0.265039 0.085826 0.288483 84 139 61
-0.264412 0.0864309 0.288518 80 136 59
-0.264048 0.0871628 0.288497 78 133 56
-0.27231 0.105015 0.285294 73 124 57
-0.271765 0.105729 0.285304 79 130 58
-0.271221 0.106443 0.285314 82 136 63
-0.270824 0.107242 0.285291 83 137 64
-0.251344 0.103415 0.288768 72 116 58
-0.250863 0.104069 0.288774 66 99 47
-0.250382 0.104723 0.28878 60 91 37
-0.249901 0.105377 0.288786 56 92 35
-0.248953 0.105724 0.288899 54 92 32
-0.248359 0.106298 0.288931 55 92 31
-0.247998 0.107026 0.288911 53 90 32
-0.247406 0.107598 0.288943 53 90 30
-0.24716 0.108403 0.288896 55 90 34
-0.24726 0.109447 0.288769 58 89 30
-0.247013 0.110258 0.288722 57 89 33
-0.266251 0.0827451 0.287797 53 58 36
-0.265756 0.083414 0.287805 64 69 45
-0.26526 0.0840824 0.287812 90 121 69
-0.264898 0.0848127 0.287791 98 154 76
-0.264535 0.0855435 0.28777 88 144 66
-0.264172 0.0862748 0.287749 84 139 62
-0.263808 0.0870067 0.287728 82 138 60
-0.271901 0.104762 0.284493 71 124 57
-0.271356 0.105476 0.284503 77 130 58
-0.27096 0.106275 0.28448 82 134 62
-0.270416 0.106988 0.28449 83 135 62
-0.27002 0.107787 0.284467 80 132 61
-0.251824 0.103713 0.287844 73 114 58
-0.250744 0.103992 0.287988 64 100 47
-0.250381 0.104722 0.287967 59 92 36
-0.249782 0.1053 0.288001 56 92 35
-0.249067 0.105801 0.288061 56 91 30
-0.248588 0.106453 0.288068 52 92 32
-0.247993 0.107028 0.288101 52 93 35
-0.247516 0.107679 0.288107 53 90 32
-0.24727 0.108486 0.288059 57 89 32
-0.247023 0.109295 0.288011 57 90 32
-0.246775 0.110105 0.287963 56 90 34
-0.265383 0.0831965 0.287065 61 60 44
-0.265021 0.0839263 0.287044 86 109 62
-0.264658 0.0846566 0.287023 101 151 74
-0.264295 0.0853874 0.287002 90 146 68
-0.263932 0.0861187 0.28698 84 141 64
-0.263568 0.0868506 0.286959 82 140 62
-0.27164 0.104594 0.283659 71 124 57
-0.271096 0.105308 0.283669 77 130 59
-0.270552 0.106022 0.28368 81 133 62
-0.269863 0.106649 0.283724 84 134 62
-0.269613 0.107533 0.283667 81 131 64
-0.251826 0.10371 0.287025 74 113 58
-0.251221 0.104292 0.28706 64 99 45
-0.25038 0.104721 0.287151 60 93 35
-0.24978 0.1053 0.287186 56 92 36
-0.249064 0.105802 0.287248 55 91 31
-0.248701 0.106532 0.287227 50 93 32
-0.248105 0.107108 0.287261 52 93 34
-0.247626 0.10776 0.287268 53 91 34
-0.247148 0.108413 0.287275 57 89 31
-0.246785 0.109143 0.287253 53 90 35
-0.246652 0.110033 0.287176 52 91 35
-0.265144 0.0830404 0.286298 61 56 41
-0.264287 0.0844383 0.286284 102 145 72
-0.264055 0.0852313 0.286233 92 150 71
-0.263692 0.0859626 0.286212 84 143 63
-0.263328 0.0866945 0.28619 81 140 62
-0.271379 0.104425 0.282825 71 124 57
-0.270688 0.105056 0.28287 76 131 58
-0.269998 0.105685 0.282915 80 133 60
-0.269311 0.106312 0.28296 84 135 62
-0.269206 0.107279 0.282868 83 132 64
-0.251827 0.103708 0.286203 74 113 57
-0.251222 0.104291 0.286239 66 100 43
-0.250618 0.104873 0.286275 59 93 34
-0.249778 0.1053 0.286368 56 92 33
-0.249061 0.105802 0.286432 55 92 32
-0.248581 0.106457 0.286439 52 92 31
-0.248101 0.107111 0.286446 52 93 31
-0.247505 0.107686 0.286482 53 93 33
-0.247142 0.108417 0.28646 58 90 33
-0.246778 0.109149 0.286439 55 90 36
-0.264904 0.0828843 0.28553 61 58 40
-0.264047 0.0842823 0.285516 98 131 68
-0.263684 0.0850125 0.285494 95 153 72
-0.263452 0.0858065 0.285443 87 143 63
-0.263088 0.0865384 0.285421 83 139 62
-0.262724 0.0872708 0.285399 81 137 62
-0.270427 0.104887 0.282037 75 130 57
-0.269446 0.105349 0.282152 79 133 58
-0.268616 0.105892 0.282233 84 136 62
-0.268221 0.106686 0.282209 82 134 62
-0.25195 0.103781 0.285349 75 113 56
-0.251222 0.104289 0.285416 67 100 40
-0.250737 0.104948 0.285423 60 94 32
-0.249895 0.105377 0.285519 58 93 32
-0.249058 0.105803 0.285614 59 92 31
-0.248577 0.106458 0.285621 57 92 31
-0.247979 0.107035 0.285658 57 92 32
-0.247615 0.107768 0.285636 56 93 32
-0.247019 0.108343 0.285672 57 91 34
-0.263445 0.0848565 0.284726 99 154 75
-0.263081 0.0855873 0.284704 88 142 64
-0.262848 0.0863822 0.284651 82 137 62
-0.262484 0.0871146 0.284629 79 136 60
-0.270167 0.104719 0.281203 73 127 57
-0.268751 0.104931 0.281428 78 132 60
-0.268068 0.105557 0.281474 82 137 63
-0.267674 0.10635 0.28145 81 136 62
-0.267279 0.107143 0.281426 78 128 59
-0.251343 0.104364 0.28456 67 100 40
-0.250737 0.104948 0.284598 61 95 31
-0.250131 0.10553 0.284636 61 94 31
-0.249173 0.10588 0.284763 61 93 30
-0.24869 0.106537 0.284771 61 93 35
-0.248091 0.107116 0.284808 61 91 34
-0.24796 0.108006 0.284727 58 94 34
-0.263074 0.0846382 0.283989 101 147 74
-0.262841 0.0854312 0.283936 89 141 65
-0.262608 0.086226 0.283882 82 135 60
-0.262244 0.0869584 0.28386 78 134 58
-0.268203 0.104597 0.280671 78 131 61
-0.267522 0.105223 0.280718 80 135 64
-0.267415 0.106183 0.280622 80 136 64
-0.26702 0.106976 0.280598 79 129 62
-0.251103 0.104209 0.283792 65 100 42
-0.250736 0.104947 0.28377 61 95 32
-0.25013 0.105531 0.283809 60 94 29
-0.249525 0.106113 0.283848 60 94 30
-0.249041 0.106772 0.283856 60 93 36
-0.248792 0.107588 0.283802 60 92 32
-0.262835 0.0844822 0.283221 99 137 71
-0.262602 0.0852751 0.283167 90 143 68
-0.262238 0.0860064 0.283144 84 135 57
-0.262004 0.0868022 0.28309 79 134 56
-0.261639 0.0875351 0.283067 78 135 57
-0.267264 0.105056 0.279891 78 133 64
-0.267156 0.106015 0.279794 80 134 64
-0.25147 0.103469 0.282985 76 118 59
-0.250983 0.104131 0.282993 64 99 43
-0.250496 0.104793 0.283002 62 94 34
-0.250129 0.105531 0.282979 58 96 30
-0.249523 0.106114 0.283019 60 94 32
-0.249037 0.106774 0.283027 59 94 34
-0.248907 0.10767 0.282942 61 93 30
-0.262232 0.0850564 0.28243 92 146 72
-0.261998 0.0858503 0.282375 83 134 58
-0.261634 0.0865821 0.282352 78 133 57
-0.261399 0.0873789 0.282297 78 133 58
-0.261293 0.0882424 0.282209 77 131 57
-0.260927 0.0889776 0.282186 74 130 58
-0.251351 0.103391 0.282184 76 116 55
-0.250863 0.104053 0.282193 64 98 42
-0.250495 0.104792 0.28217 62 94 34
-0.249888 0.105376 0.282211 59 96 34
-0.249521 0.106115 0.282188 60 94 36
-0.249034 0.106776 0.282196 58 94 33
-0.248785 0.107594 0.282141 63 93 31
-0.261992 0.0849004 0.281662 95 144 74
-0.261628 0.0856311 0.281639 82 133 60
-0.261393 0.086426 0.281583 76 129 58
-0.261029 0.0871584 0.281559 75 129 57
-0.260922 0.0880209 0.28147 73 128 56
-0.260557 0.0887555 0.281447 70 127 55
-0.26032 0.0895567 0.281391 68 125 54
-0.252324 0.103999 0.281086 74 114 52
-0.250862 0.104051 0.281359 64 99 40
-0.250494 0.104791 0.281335 61 95 34
-0.249886 0.105376 0.281377 58 94 36
-0.24928 0.105961 0.281419 59 94 39
-0.249031 0.106778 0.281363 58 94 36
-0.248781 0.107597 0.281307 62 94 33
-0.261752 0.0847443 0.280894 95 137 71
-0.261388 0.0854751 0.28087 81 131 63
-0.261024 0.0862064 0.280847 73 126 56
-0.26066 0.0869382 0.280823 70 124 55
-0.260424 0.0877351 0.280766 69 123 54
-0.260316 0.0885991 0.280675 67 122 54
-0.25995 0.0893342 0.280652 66 121 53
-0.259583 0.0900699 0.280628 65 119 52
-0.252327 0.103996 0.280243 72 111 53
-0.251468 0.104433 0.280354 63 100 41
-0.250493 0.10479 0.280498 61 97 34
-0.249884 0.105376 0.280541 58 95 37
-0.249277 0.105961 0.280584 58 94 40
-0.248908 0.106702 0.28056 60 95 36
-0.248658 0.107521 0.280503 59 95 37
-0.261254 0.0844641 0.280193 92 124 64
-0.26089 0.0851938 0.280169 79 132 65
-0.260527 0.085924 0.280145 68 122 53
-0.260291 0.0867184 0.280088 65 119 52
-0.260312 0.0876435 0.279962 65 118 52
-0.259946 0.0883775 0.279938 63 116 51
-0.25958 0.089112 0.279914 63 116 50
-0.259214 0.0898471 0.27989 61 116 49
-0.258848 0.0905827 0.279866 61 115 50
-0.252206 0.103917 0.279432 72 109 51
-0.251712 0.104586 0.279442 63 98 43
-0.250855 0.105021 0.279555 60 96 36
-0.249882 0.105376 0.279702 58 95 37
-0.249274 0.105962 0.279746 60 95 35
-0.248786 0.106625 0.279756 62 94 33
-0.260394 0.0849133 0.27947 80 132 66
-0.260031 0.0856424 0.279446 65 117 52
-0.259795 0.0864353 0.279388 61 115 50
-0.259686 0.0872942 0.279295 60 114 49
-0.259705 0.0882211 0.279167 59 113 49
-0.259084 0.0888247 0.279212 59 111 48
-0.258718 0.0895587 0.279188 58 111 46
-0.258098 0.0901604 0.279233 57 111 49
-0.257733 0.0908943 0.279208 57 110 48
-0.252334 0.103015 0.278679 87 121 60
-0.251963 0.103761 0.278655 69 107 50
-0.251591 0.104507 0.27863 61 97 40
-0.250854 0.10502 0.278711 58 97 36
-0.250121 0.105531 0.278791 58 94 36
-0.249271 0.105963 0.278905 60 95 32
-0.248782 0.106627 0.278915 62 93 30
-0.259517 0.0844483 0.278877 83 129 66
-0.259155 0.0851746 0.278853 67 114 52
-0.258793 0.0859015 0.278829 60 111 49
-0.258937 0.0868827 0.278665 57 111 47
-0.259081 0.0878705 0.278501 57 110 48
-0.258716 0.0886033 0.278476 56 108 48
-0.25797 0.08914 0.278557 57 108 45
-0.257479 0.0898064 0.278568 56 109 46
-0.257114 0.0905387 0.278543 57 108 45
-0.256749 0.0912715 0.278519 59 108 43
-0.252091 0.102859 0.277902 83 121 60
-0.25172 0.103604 0.277877 69 103 47
-0.251348 0.10435 0.277853 62 97 37
-0.250854 0.105019 0.277863 59 96 36
-0.250119 0.105531 0.277945 56 95 37
-0.249508 0.10612 0.277991 58 96 33
-0.258899 0.0841091 0.278218 84 120 63
-0.258537 0.0848338 0.278194 70 119 56
-0.258176 0.085559 0.278169 61 111 48
-0.257939 0.0863476 0.27811 59 110 47
-0.258333 0.0874573 0.277873 60 109 47
-0.258095 0.0882526 0.277813 58 108 49
-0.257604 0.0889191 0.277824 57 107 46
-0.256488 0.0892581 0.278012 57 107 43
-0.256125 0.089987 0.277987 57 107 44
-0.251848 0.102702 0.277125 80 122 56
-0.251476 0.103448 0.2771 69 102 43
-0.251104 0.104194 0.277075 63 97 38
-0.250611 0.104863 0.277086 59 97 35
-0.249997 0.105453 0.277133 58 94 36
-0.249625 0.106199 0.277108 59 95 33
-0.258409 0.0838323 0.277527 83 111 59
-0.258048 0.0845559 0.277502 78 128 64
-0.257687 0.08528 0.277478 66 115 52
-0.257325 0.0860046 0.277453 63 112 50
-0.257339 0.0869195 0.277321 63 112 49
-0.257352 0.0878392 0.277189 60 110 49
-0.256863 0.0885039 0.2772 58 109 48
-0.256125 0.0890381 0.277283 57 109 46
-0.255638 0.0897011 0.277294 57 108 47
-0.251605 0.102546 0.276348 75 121 58
-0.251233 0.103291 0.276322 66 102 46
-0.250861 0.104037 0.276297 61 97 40
-0.250488 0.104784 0.276271 59 98 37
-0.250116 0.105531 0.276246 61 95 35
-0.249864 0.106358 0.276184 60 96 36
-0.25792 0.0835563 0.276838 73 93 55
-0.25756 0.0842788 0.276813 87 135 69
-0.257199 0.0850018 0.276788 74 122 57
-0.256838 0.0857253 0.276763 67 118 52
-0.256726 0.0865752 0.276666 66 117 51
-0.256737 0.087492 0.276532 61 116 50
-0.256374 0.0882198 0.276507 59 113 50
-0.255763 0.0888186 0.276555 59 113 48
-0.255276 0.0894812 0.276566 58 111 48
-0.251361 0.102389 0.27557 74 119 59
-0.250989 0.103135 0.275545 63 101 45
-0.250617 0.103881 0.275519 61 95 42
-0.250245 0.104627 0.275493 60 94 39
-0.249993 0.105453 0.27543 60 95 38
-0.257433 0.0832811 0.276151 68 75 50
-0.257073 0.0840025 0.276125 90 129 65
-0.256589 0.0846631 0.276137 84 131 63
-0.256105 0.0853231 0.276148 72 121 54
-0.256239 0.0862951 0.275977 69 122 51
-0.256498 0.087337 0.275768 65 120 52
-0.256135 0.0880649 0.275742 62 118 52
-0.2554 0.0885993 0.275827 62 119 51
-0.253572 0.0885527 0.27624 62 117 50
-0.253212 0.089274 0.276215 63 114 49
-0.250746 0.102978 0.274767 63 100 46
-0.250374 0.103724 0.274741 63 96 39
-0.250122 0.104548 0.274677 61 97 39
-0.250112 0.105531 0.274536 62 98 45
-0.252046 0.111868 0.273185 59 95 36
-0.256453 0.0827673 0.275612 67 66 43
-0.255971 0.0834253 0.275624 90 115 59
-0.255613 0.0841434 0.275598 94 141 70
-0.25501 0.0847399 0.275646 80 130 59
-0.254651 0.085458 0.275621 76 127 55
-0.256011 0.0870551 0.275078 72 126 56
-0.255648 0.0877818 0.275052 70 124 55
-0.254548 0.0881239 0.27525 69 123 54
-0.253336 0.0883995 0.275483 68 123 53
-0.252975 0.0891208 0.275457 67 122 51
-0.251848 0.103667 0.27356 65 101 43
-0.250373 0.103722 0.273885 65 98 43
-0.250242 0.104625 0.273781 64 97 41
-0.252053 0.110853 0.272451 61 94 32
-0.251669 0.111622 0.272424 59 94 33
-0.25141 0.112479 0.272356 59 94 36
-0.255971 0.0824949 0.274931 64 60 39
-0.255368 0.0830923 0.274979 79 97 55
-0.25501 0.0838088 0.274954 103 149 76
-0.254531 0.0844651 0.274965 90 142 69
-0.254052 0.0851209 0.274977 83 135 61
-0.253694 0.085838 0.274951 81 135 61
-0.254672 0.0872458 0.274515 78 134 59
-0.254188 0.087906 0.274527 79 131 58
-0.253826 0.0886301 0.274501 76 131 57
-0.25222 0.103897 0.272575 63 98 43
-0.251227 0.104261 0.272749 62 99 39
-0.252565 0.110174 0.271553 61 92 36
-0.251803 0.110692 0.27165 62 93 33
-0.251543 0.111547 0.271581 61 93 36
-0.251535 0.112575 0.271428 55 92 37
-0.255491 0.0822233 0.274251 57 54 35
-0.254532 0.0835356 0.274275 107 143 74
-0.254174 0.0842516 0.274249 100 154 79
-0.253696 0.0849071 0.274261 89 145 68
-0.253338 0.0856236 0.274235 86 144 66
-0.2531 0.0864027 0.274171 85 143 63
-0.252981 0.0872463 0.27407 83 140 61
-0.253589 0.0884761 0.273741 83 139 61
-0.252446 0.109076 0.270862 54 96 36
-0.252062 0.109846 0.270835 61 93 34
-0.251929 0.110784 0.270722 60 91 38
-0.251543 0.111556 0.270695 58 90 39
-0.251283 0.112414 0.270624 55 91 38
-0.255011 0.0819524 0.273573 54 52 33
-0.253697 0.0839782 0.273571 111 162 85
-0.25334 0.0846936 0.273545 96 152 73
-0.252862 0.0853483 0.273557 91 148 70
-0.252504 0.0860643 0.273531 90 147 68
-0.252505 0.086968 0.273391 88 146 66
-0.252386 0.087813 0.273288 88 144 64
-0.252594 0.105124 0.270555 56 96 41
-0.252327 0.107982 0.270175 59 93 35
-0.251944 0.10875 0.270147 55 96 35
-0.251811 0.109685 0.270033 58 94 36
-0.251677 0.110623 0.269919 56 92 36
-0.251292 0.111395 0.269891 57 91 34
-0.251031 0.112253 0.26982 53 90 35
-0.253342 0.0837655 0.272857 116 164 88
-0.252865 0.0844199 0.272869 102 158 78
-0.252388 0.0850738 0.272881 95 153 72
-0.252031 0.0857887 0.272855 93 150 69
-0.251673 0.0865042 0.272829 91 149 69
-0.25191 0.0875337 0.272609 90 149 65
-0.252977 0.104361 0.269703 62 96 38
-0.25247 0.105043 0.269717 59 97 38
-0.252089 0.105805 0.269689 59 93 36
-0.252083 0.106811 0.269532 61 95 36
-0.252077 0.107821 0.269375 58 92 33
-0.251944 0.108754 0.26926 58 94 33
-0.251811 0.109691 0.269145 56 92 36
-0.2513 0.110378 0.26916 56 92 37
-0.250915 0.111149 0.269131 55 92 31
-0.250529 0.11192 0.269103 55 92 32
-0.250517 0.112951 0.268944 58 90 33
-0.251797 0.0838472 0.272389 105 164 84
-0.251324 0.0844982 0.272401 95 154 73
-0.250733 0.0850882 0.272452 94 153 69
-0.250378 0.0857989 0.272425 92 153 68
-0.25108 0.0870678 0.27205 90 151 66
-0.253614 0.103753 0.268761 64 100 44
-0.25298 0.104358 0.26882 61 94 39
-0.252222 0.104883 0.268922 59 94 34
-0.25184 0.105646 0.268894 57 96 39
-0.251834 0.10665 0.268735 60 96 34
-0.251174 0.110301 0.268313 61 91 32
-0.250663 0.110988 0.268329 58 95 32
-0.250277 0.111759 0.2683 54 90 32
-0.25121 0.0835171 0.271758 110 168 91
-0.250738 0.0841668 0.27177 98 152 72
-0.250266 0.0848162 0.271783 92 151 69
-0.249911 0.0855259 0.271756 90 153 69
-0.249789 0.0863587 0.271651 91 152 67
-0.253364 0.103592 0.267963 61 99 40
-0.252982 0.104356 0.267935 59 97 36
-0.252348 0.104962 0.267994 58 97 32
-0.251966 0.105726 0.267966 62 95 36
-0.251834 0.106652 0.267848 52 97 33
-0.250388 0.083956 0.271063 100 155 74
-0.250033 0.0846651 0.271037 94 151 66
-0.249678 0.0853747 0.27101 90 151 68
-0.249322 0.0860849 0.270983 91 151 68
-0.253115 0.103432 0.267165 62 97 33
-0.252732 0.104196 0.267136 59 98 33
-0.25235 0.10496 0.267107 59 97 36
-0.251967 0.105726 0.267078 56 96 36
-0.250038 0.0837454 0.270358 104 164 86
-0.249683 0.084454 0.27033 93 151 71
-0.249328 0.0851631 0.270303 88 150 70
-0.249089 0.0859337 0.270236 89 149 68
-0.252609 0.104114 0.266292 58 95 35
-0.252226 0.104879 0.266263 61 95 36
-0.251842 0.105645 0.266234 60 95 36
-0.249573 0.0834759 0.269693 110 165 90
-0.249219 0.0841835 0.269665 95 150 72
-0.248864 0.0848916 0.269638 88 146 67
-0.24874 0.0857217 0.26953 88 146 64
-0.248525 0.0837953 0.269084 101 157 79
-0.247828 0.0843226 0.269178 87 144 64
-0.247475 0.0850276 0.26915 85 141 63
-0.248151 0.0862807 0.268755 83 141 66
-0.247607 0.083292 0.268587 108 156 86
-0.247028 0.083877 0.268641 92 141 64
-0.246564 0.08452 0.268654 82 135 61
-0.246663 0.0854624 0.268463 82 136 60
-0.246685 0.0836687 0.267944 97 148 74
-0.246333 0.0843705 0.267916 83 134 60
-0.245981 0.0850729 0.267888 81 134 59
-0.246229 0.0834022 0.267289 103 146 80
-0.245654 0.0839854 0.267344 89 138 64
-0.245303 0.0846857 0.267316 83 135 56
-0.244647 0.0834279 0.2669 93 143 74
-0.245073 0.0845366 0.266579 84 134 61
-0.245167 0.0854768 0.266381 80 137 60
-0.244197 0.0831638 0.266252 98 150 80
-0.243848 0.0838596 0.266223 89 137 62
-0.24328 0.0844385 0.266279 84 136 63
-0.242822 0.0850753 0.266292 78 135 60
-0.243291 0.0835373 0.265618 100 143 72
-0.242943 0.0842321 0.26559 128 153 78
-0.242485 0.0848686 0.265603 93 135 63
-0.242245 0.0856233 0.265532 80 136 63
-0.230756 0.0957417 0.266969 60 98 57
-0.230317 0.0963595 0.266981 58 95 56
-0.229782 0.0969117 0.267032 53 91 53
-0.22944 0.097594 0.267004 55 84 42
-0.229193 0.0983429 0.266936 48 72 35
-0.243063 0.0833894 0.264888 94 146 76
-0.242606 0.0840259 0.264902 98 135 68
-0.242257 0.0847208 0.264872 87 138 64
-0.241908 0.0854161 0.264843 81 136 59
-0.230875 0.0949165 0.266285 62 102 50
-0.230436 0.0955344 0.266297 63 97 52
-0.229806 0.0960227 0.26639 59 92 46
-0.229464 0.096704 0.266362 54 85 45
-0.229217 0.0974513 0.266293 45 75 37
-0.228874 0.0981341 0.266264 42 46 31
-0.242726 0.0831838 0.2642 95 144 71
-0.242378 0.0838781 0.264171 85 137 62
-0.242029 0.084573 0.264142 84 135 62
-0.241787 0.0853275 0.264069 83 135 59
-0.230556 0.0947097 0.265614 62 96 53
-0.230117 0.0953273 0.265626 67 96 53
-0.229583 0.0958801 0.265679 64 93 54
-0.229241 0.0965614 0.265651 70 95 56
-0.228994 0.0973086 0.265581 49 67 39
-0.228746 0.0980573 0.265511 42 46 33
-0.242149 0.0837303 0.26344 85 139 62
-0.241908 0.0844837 0.263367 83 136 61
-0.241559 0.0851796 0.263337 81 136 61
-0.230333 0.0945668 0.264903 64 96 53
-0.229894 0.0951845 0.264915 62 97 54
-0.229456 0.0958018 0.264927 64 96 57
-0.229114 0.0964836 0.264898 80 104 64
-0.228771 0.0971658 0.264869 57 51 38
-0.228523 0.0979144 0.264799 44 47 32
-0.241921 0.0835825 0.262709 87 141 63
-0.24168 0.0843357 0.262635 81 133 59
-0.24133 0.0850316 0.262605 79 133 62
-0.24098 0.085728 0.262575 81 133 61
-0.230452 0.0937426 0.26422 60 96 51
-0.230014 0.0943604 0.264233 61 93 49
-0.229671 0.0950416 0.264203 62 88 45
-0.229233 0.095659 0.264216 64 94 52
-0.228891 0.0963408 0.264187 78 102 63
-0.228643 0.0970883 0.264115 60 36 33
-0.228395 0.0978374 0.264044 39 43 28
-0.241693 0.0834346 0.261978 85 143 70
-0.241451 0.0841878 0.261903 80 130 59
-0.241101 0.0848836 0.261873 80 133 58
-0.240751 0.08558 0.261843 88 133 60
-0.229327 0.0921142 0.264085 60 89 41
-0.230037 0.093474 0.263593 60 87 40
-0.229695 0.0941542 0.263564 61 85 40
-0.229353 0.094835 0.263534 61 89 46
-0.229011 0.0955162 0.263505 65 98 52
-0.228763 0.0962627 0.263433 77 103 63
-0.228515 0.0970107 0.26336 59 35 35
-0.228266 0.0977602 0.263288 42 39 31
-0.241464 0.0832867 0.261247 85 135 67
-0.241222 0.0840398 0.261171 79 124 56
-0.240873 0.0847356 0.261141 77 122 55
-0.240523 0.085432 0.26111 76 122 55
-0.229445 0.0912984 0.263409 63 92 42
-0.229012 0.0919113 0.263422 57 90 52
-0.228767 0.0926471 0.26335 60 88 47
-0.229472 0.0940114 0.262853 60 89 46
-0.22913 0.0946922 0.262823 64 88 45
-0.228788 0.0953734 0.262793 69 100 54
-0.22854 0.0961198 0.26272 79 107 63
-0.228292 0.0968677 0.262647 62 34 30
-0.228043 0.0976171 0.262574 41 42 30
-0.240886 0.0838336 0.260485 74 125 56
-0.240644 0.0845876 0.260409 71 121 53
-0.240294 0.0852839 0.260378 69 119 54
-0.230907 0.0913345 0.262132 61 94 46
-0.229414 0.0912782 0.262619 62 90 46
-0.228886 0.0918308 0.262674 60 92 46
-0.228735 0.0926288 0.262559 60 90 43
-0.22925 0.0938686 0.262142 61 90 45
-0.228907 0.0945493 0.262112 63 91 48
-0.22866 0.0952946 0.262038 67 102 55
-0.228412 0.0960414 0.261964 83 111 64
-0.228163 0.0967898 0.261891 65 35 31
-0.227819 0.097474 0.26186 37 42 27
-0.240658 0.0836857 0.259754 72 123 59
-0.240308 0.084381 0.259723 65 117 55
-0.240065 0.0851359 0.259645 63 112 51
-0.239714 0.0858327 0.259614 63 109 49
-0.232002 0.0911243 0.261008 62 95 41
-0.231267 0.0915607 0.261156 64 96 37
-0.230053 0.0916865 0.261521 62 91 41
-0.229234 0.0920569 0.261709 63 93 41
-0.228988 0.0927963 0.261635 63 94 44
-0.229027 0.0937257 0.26143 63 94 46
-0.22878 0.0944699 0.261356 63 96 47
-0.228532 0.0952157 0.261282 70 105 51
-0.228284 0.0959629 0.261207 90 119 68
-0.22794 0.0966466 0.261177 69 37 38
-0.22769 0.0973964 0.261102 43 44 26
-0.240429 0.0835377 0.259022 77 122 59
-0.240079 0.0842331 0.258991 65 113 52
-0.239729 0.0849289 0.25896 61 109 48
-0.239379 0.0856253 0.258928 61 108 46
-0.239134 0.086382 0.25885 61 104 35
-0.231778 0.0909801 0.260292 63 90 39
-0.231434 0.0916645 0.260261 63 93 41
-0.230215 0.09179 0.260633 62 97 46
-0.229202 0.0920376 0.260913 64 96 45
-0.228861 0.0927159 0.260882 64 97 50
-0.228804 0.0935828 0.260719 62 96 51
-0.228652 0.0943904 0.2606 65 97 49
-0.228404 0.0951366 0.260524 71 109 51
-0.22806 0.0958198 0.260494 93 127 64
-0.227811 0.0965685 0.260418 68 46 39
-0.227466 0.0972532 0.260387 46 33 27
-0.2402 0.0833898 0.25829 80 120 59
-0.23985 0.0840851 0.258259 67 115 48
-0.2395 0.0847809 0.258227 63 111 44
-0.23915 0.0854773 0.258196 61 106 49
-0.238799 0.0861742 0.258164 59 104 45
-0.238553 0.0869318 0.258085 58 99 46
-0.231652 0.0908974 0.25953 60 92 45
-0.231209 0.0915203 0.259544 65 96 40
-0.229896 0.0915851 0.259966 67 98 43
-0.22898 0.091895 0.260203 66 97 44
-0.228639 0.0925733 0.260173 65 99 51
-0.228677 0.0935027 0.259963 66 98 51
-0.228524 0.0943107 0.259842 68 101 50
-0.22818 0.0949934 0.259811 74 110 54
-0.227931 0.095741 0.259735 94 131 66
-0.227587 0.0964252 0.259704 64 61 43
-0.227337 0.0971754 0.259627 48 40 25
-0.239972 0.0832417 0.257559 78 107 54
-0.239622 0.0839371 0.257527 67 111 50
-0.239271 0.0846329 0.257495 65 109 42
-0.238921 0.0853293 0.257463 60 106 47
-0.23857 0.0860261 0.257431 60 107 47
-0.238324 0.0867837 0.257351 55 99 49
-0.231526 0.0908147 0.258767 63 99 49
-0.230112 0.0908228 0.259239 65 99 49
-0.229673 0.0914419 0.259253 66 101 49
-0.228758 0.0917524 0.259494 65 101 50
-0.228511 0.0924926 0.259418 68 102 52
-0.228549 0.0934225 0.259205 69 101 50
-0.228301 0.0941675 0.259129 69 103 48
-0.228052 0.0949141 0.259052 76 113 53
-0.227708 0.0955977 0.25902 94 130 64
-0.227458 0.0963468 0.258943 60 69 53
-0.227207 0.0970974 0.258866 46 38 25
-0.239743 0.0830937 0.256827 80 91 51
-0.239393 0.083789 0.256794 70 117 53
-0.239042 0.0844849 0.256762 61 109 48
-0.238692 0.0851812 0.25673 61 106 46
-0.238446 0.0859377 0.256649 63 106 42
-0.238095 0.0866356 0.256617 58 101 42
-0.231399 0.0907317 0.258002 65 101 47
-0.229889 0.0906795 0.258527 66 101 47
-0.22945 0.0912987 0.258541 67 102 47
-0.228536 0.0916097 0.258784 68 101 50
-0.228384 0.0924118 0.258662 67 100 51
-0.228421 0.0933421 0.258447 68 102 49
-0.228172 0.0940876 0.258369 70 105 50
-0.228018 0.0948986 0.258245 78 113 53
-0.227673 0.0955832 0.258214 94 130 62
-0.227328 0.0962683 0.258182 65 84 64
-0.226983 0.0969539 0.25815 45 41 27
-0.239514 0.0829457 0.256094 66 69 38
-0.239164 0.083641 0.256062 74 122 57
-0.238813 0.0843368 0.25603 61 108 50
-0.238568 0.0850922 0.255948 61 104 44
-0.238217 0.0857895 0.255915 60 107 47
-0.237865 0.0864874 0.255883 54 102 42
-0.237618 0.0872464 0.255801 75 110 52
-0.230829 0.091273 0.257252 66 103 48
-0.229227 0.0911554 0.257829 67 103 48
-0.228503 0.0915897 0.257982 65 103 51
-0.228351 0.0923929 0.257858 66 102 49
-0.228198 0.0931988 0.257733 68 103 51
-0.228139 0.0940709 0.257562 70 108 51
-0.227889 0.094819 0.257483 76 114 55
-0.227544 0.095504 0.257451 90 128 60
-0.227293 0.0962546 0.257373 71 101 71
-0.226947 0.0969412 0.257341 46 40 32
-0.239286 0.0827976 0.255362 59 59 38
-0.239041 0.0835508 0.25528 75 117 57
-0.23869 0.0842471 0.255247 64 109 49
-0.238339 0.084944 0.255214 60 104 49
-0.237987 0.0856413 0.255182 61 105 39
-0.237741 0.0863992 0.255099 57 104 45
-0.237389 0.0870981 0.255066 67 107 50
-0.237141 0.0878586 0.254983 73 112 56
-0.236892 0.0886207 0.2549 67 103 50
-0.229043 0.0919401 0.256896 66 104 51
-0.228318 0.0923739 0.257052 67 102 49
-0.228355 0.0933067 0.256832 69 103 50
-0.228105 0.0940542 0.256752 71 109 52
-0.227855 0.0948033 0.256673 76 115 54
-0.227509 0.0954893 0.25664 90 126 60
-0.227163 0.0961758 0.256608 79 111 76
-0.226817 0.0968629 0.256576 54 34 35
-0.239163 0.0827068 0.25458 48 54 33
-0.238812 0.0834026 0.254547 76 103 54
-0.238461 0.0840989 0.254514 68 112 51
-0.23811 0.0847958 0.254481 61 107 46
-0.237758 0.0854931 0.254448 60 108 46
-0.237616 0.0863108 0.254314 56 104 44
-0.237264 0.0870102 0.25428 60 106 49
-0.237016 0.0877712 0.254197 75 116 57
-0.236767 0.0885338 0.254113 67 108 50
-0.22882 0.0917964 0.256181 66 103 51
-0.228285 0.0923549 0.256244 68 103 51
-0.228226 0.0932259 0.256068 69 105 51
-0.228167 0.094101 0.255892 74 110 52
-0.227916 0.0948517 0.255812 80 118 55
-0.227569 0.0955392 0.255779 89 124 59
-0.227317 0.0962924 0.255698 86 117 73
-0.22697 0.0969814 0.255666 66 38 29
-0.238934 0.0825586 0.253847 41 45 27
-0.238583 0.0832544 0.253813 71 86 44
-0.238232 0.0839507 0.25378 73 116 52
-0.23788 0.0846475 0.253747 63 106 48
-0.237739 0.0854635 0.253612 60 104 44
-0.237491 0.0862223 0.253527 58 105 43
-0.237138 0.0869222 0.253494 57 104 49
-0.23689 0.0876837 0.253409 74 115 53
-0.237061 0.0886941 0.253118 71 109 50
-0.228691 0.0917145 0.255418 67 105 51
-0.228347 0.092398 0.255385 68 103 50
-0.228384 0.0933341 0.255159 70 105 53
-0.228133 0.0940842 0.255077 73 112 55
-0.227882 0.0948359 0.254996 79 118 57
-0.227534 0.0955244 0.254963 87 123 59
-0.227187 0.0962133 0.25493 89 124 69
-0.226839 0.0969028 0.254897 66 39 30
-0.238705 0.0824103 0.253114 39 44 25
-0.238108 0.0838606 0.252995 74 119 57
-0.237756 0.084558 0.252962 65 107 45
-0.237614 0.0853744 0.252825 60 105 44
-0.237261 0.0860737 0.252791 60 104 48
-0.237013 0.0868341 0.252705 57 104 50
-0.236869 0.0876571 0.252568 75 117 54
-0.23683 0.0885449 0.252377 74 110 50
-0.22885 0.0918185 0.254507 69 106 51
-0.228409 0.0924413 0.254523 70 107 49
-0.228254 0.093253 0.254391 69 110 53
-0.228003 0.0940036 0.254309 71 113 54
-0.227752 0.0947558 0.254227 74 118 54
-0.227404 0.0954447 0.254193 86 124 57
-0.227151 0.0961994 0.254111 96 135 74
-0.226803 0.0968898 0.254078 70 44 35
-0.237878 0.0837122 0.252261 76 114 55
-0.237632 0.0844682 0.252175 65 109 46
-0.237384 0.0852258 0.252089 61 104 46
-0.237136 0.0859849 0.252003 60 101 44
-0.236888 0.0867458 0.251916 57 104 44
-0.236953 0.0876917 0.251671 74 110 50
-0.228818 0.0917984 0.25369 66 105 51
-0.228376 0.0924222 0.253706 72 106 51
-0.228125 0.0931717 0.253623 70 110 51
-0.227969 0.0939866 0.25349 73 115 53
-0.227717 0.0947398 0.253407 77 118 54
-0.227369 0.0954297 0.253373 83 124 59
-0.22702 0.0961201 0.25334 98 134 70
-0.226672 0.096811 0.253306 69 56 45
-0.237754 0.0836219 0.251474 79 101 49
-0.237507 0.0843783 0.251387 66 111 49
-0.237259 0.0851363 0.2513 61 106 41
-0.237011 0.085896 0.251213 58 106 48
-0.229075 0.0919656 0.252719 69 108 49
-0.228342 0.092403 0.252887 72 107 52
-0.228091 0.0931535 0.252803 70 112 54
-0.227839 0.0939057 0.252719 73 117 54
-0.227587 0.0946593 0.252635 75 118 56
-0.227238 0.0953497 0.252601 82 126 59
-0.226889 0.0960406 0.252567 98 135 70
-0.22654 0.0967319 0.252533 62 69 52
-0.237735 0.0835894 0.250632 71 84 37
-0.237487 0.0843469 0.250544 68 114 53
-0.237344 0.0851654 0.250403 61 104 43
-0.237412 0.086107 0.250153 60 103 43
-0.228501 0.0925093 0.251963 71 110 54
-0.228057 0.0931353 0.251981 72 113 54
-0.227709 0.0938246 0.251947 76 115 52
-0.227456 0.0945788 0.251861 77 117 55
-0.227107 0.0952696 0.251827 81 125 58
-0.226758 0.0959609 0.251793 97 137 65
-0.226409 0.0966528 0.251759 63 80 59
-0.226059 0.0973452 0.251725 48 41 29
-0.237468 0.0843154 0.249699 74 117 58
-0.23743 0.0851945 0.249502 62 105 48
-0.237392 0.086078 0.249303 60 104 46
-0.229438 0.0931245 0.250618 73 113 52
-0.227927 0.0930536 0.251207 74 113 54
-0.227578 0.0937434 0.251173 74 118 52
-0.22723 0.0944337 0.251139 77 118 54
-0.226881 0.0951245 0.251104 80 125 58
-0.226531 0.0958159 0.25107 94 136 65
-0.226182 0.0965078 0.251036 70 98 68
-0.225832 0.0972001 0.251001 47 36 30
-0.237554 0.0843427 0.248797 73 114 54
-0.237304 0.0851046 0.248707 63 108 45
-0.23716 0.0859282 0.248561 58 103 43
-0.237015 0.0867548 0.248415 55 102 40
-0.229855 0.0924739 0.249765 71 112 51
-0.228918 0.0927873 0.250048 73 114 54
-0.227796 0.0929718 0.250433 75 115 54
-0.227448 0.093662 0.250398 77 117 52
-0.227098 0.0943529 0.250364 78 120 56
-0.226654 0.0949795 0.250381 80 125 57
-0.226305 0.0956708 0.250347 89 129 61
-0.225955 0.0963627 0.250312 76 110 73
-0.225605 0.0970551 0.250277 49 34 29
-0.237428 0.0842521 0.248002 75 99 49
-0.237284 0.085074 0.247855 64 112 52
-0.237033 0.0858385 0.247763 57 104 43
-0.229627 0.0923272 0.249036 72 114 53
-0.228982 0.0928319 0.249161 72 115 54
-0.227954 0.09308 0.249499 74 116 54
-0.227412 0.0936444 0.24957 78 117 54
-0.227063 0.0943362 0.249535 80 121 55
-0.226618 0.0949637 0.249553 81 125 56
-0.226173 0.0955908 0.249571 89 129 64
-0.225823 0.0962831 0.249536 82 118 77
-0.225473 0.096976 0.249501 55 37 32
-0.237302 0.0841613 0.247205 69 81 37
-0.237052 0.0849242 0.247113 67 113 55
-0.236801 0.0856886 0.247021 59 104 41
-0.229497 0.092244 0.248252 74 114 52
-0.228949 0.0928129 0.248325 76 114 52
-0.227919 0.0930615 0.248667 75 117 54
-0.227377 0.0936266 0.248739 79 119 55
-0.226931 0.094255 0.248757 80 121 54
-0.226486 0.094883 0.248775 84 123 55
-0.226041 0.0955107 0.248793 85 127 62
-0.22569 0.0962035 0.248758 87 128 75
-0.22534 0.0968968 0.248723 63 38 31
-0.237176 0.0840704 0.246407 60 61 29
-0.236926 0.0848337 0.246314 75 118 57
-0.236675 0.0855987 0.246221 61 105 42
-0.229268 0.0920972 0.247522 78 115 52
-0.228818 0.09273 0.247541 82 115 50
-0.227885 0.0930428 0.247832 77 118 53
-0.227341 0.0936088 0.247905 78 120 57
-0.226895 0.0942381 0.247924 79 124 54
-0.226449 0.094867 0.247942 84 124 55
-0.226003 0.0954955 0.247961 86 128 58
-0.225652 0.0961893 0.247925 94 133 74
-0.225207 0.0968175 0.247943 70 39 32
-0.23705 0.0839794 0.245608 46 48 35
-0.236799 0.0847432 0.245514 73 107 52
-0.236547 0.0855086 0.24542 60 107 46
-0.229039 0.0919504 0.246791 74 117 56
-0.22859 0.0925833 0.246811 76 117 53
-0.227657 0.0928968 0.247105 78 117 53
-0.22721 0.0935269 0.247124 80 121 56
-0.226763 0.0941567 0.247143 82 121 54
-0.226412 0.0948509 0.247107 84 124 56
-0.22587 0.0954151 0.24718 87 127 59
-0.225519 0.0961094 0.247144 98 135 69
-0.225073 0.0967381 0.247163 69 50 39
-0.236923 0.0838881 0.244808 47 37 31
-0.236567 0.0845931 0.244771 75 97 46
-0.236315 0.0853584 0.244676 63 109 50
-0.228811 0.0918036 0.246061 74 118 55
-0.228458 0.0925002 0.246025 73 117 55
-0.227429 0.0927507 0.246377 75 118 55
-0.227078 0.0934448 0.246341 79 119 56
-0.226726 0.0941395 0.246305 79 120 55
-0.226374 0.0948348 0.246269 84 123 56
-0.225927 0.0954651 0.246288 85 127 59
-0.225386 0.0960293 0.246362 100 139 69
-0.225034 0.0967246 0.246326 66 64 48
-0.236691 0.083738 0.244064 41 39 30
-0.23644 0.0845022 0.243969 68 76 33
-0.236082 0.0852082 0.243932 67 113 52
-0.228582 0.0916568 0.24533 78 117 56
-0.228229 0.0923534 0.245294 77 117 55
-0.227394 0.0927315 0.245538 75 118 56
-0.226946 0.0933627 0.245558 79 120 55
-0.226594 0.0940578 0.245521 79 122 58
-0.226242 0.0947535 0.245485 82 124 61
-0.225889 0.0954498 0.245448 84 127 60
-0.225441 0.0960806 0.245468 99 136 65
-0.225089 0.0967774 0.245431 66 81 56
-0.236564 0.0836465 0.243262 39 39 28
-0.236207 0.084352 0.243225 55 59 28
-0.23585 0.0850579 0.243187 70 110 53
-0.235492 0.0857644 0.24315 61 106 38
-0.228706 0.0908138 0.244636 77 113 56
-0.228353 0.0915099 0.2446 79 121 57
-0.228001 0.0922065 0.244563 77 117 57
-0.227262 0.0926487 0.244753 77 120 55
-0.226813 0.0932803 0.244773 81 120 56
-0.226461 0.093976 0.244736 81 120 57
-0.226108 0.0946722 0.244699 81 121 57
-0.225661 0.0953035 0.244719 80 126 57
-0.225308 0.0960003 0.244682 96 136 66
-0.224955 0.0966975 0.244645 71 96 67
-0.235974 0.0842017 0.242481 43 46 31
-0.235617 0.0849076 0.242443 70 105 53
-0.235259 0.0856141 0.242405 63 105 42
-0.234901 0.0863211 0.242368 56 101 36
-0.228477 0.0906669 0.243906 78 117 52
-0.228125 0.091363 0.243869 78 118 51
-0.227772 0.0920596 0.243832 78 118 54
-0.227129 0.0925657 0.243967 79 121 55
-0.226681 0.0931978 0.243987 80 121 55
-0.226233 0.0938296 0.244007 82 119 56
-0.22588 0.0945258 0.24397 81 121 57
-0.225527 0.0952225 0.243932 82 125 56
-0.225174 0.0959198 0.243895 92 131 63
-0.22482 0.0966175 0.243858 76 107 74
-0.235742 0.0840514 0.241736 43 43 30
-0.235384 0.0847573 0.241699 72 91 46
-0.235026 0.0854638 0.241661 61 107 45
-0.234668 0.0861708 0.241623 56 99 35
-0.229265 0.0875006 0.243555 76 118 55
-0.228915 0.0881926 0.243518 77 119 53
-0.228661 0.0889461 0.243423 77 118 54
-0.228504 0.0897628 0.24327 75 117 54
-0.228249 0.09052 0.243175 77 120 53
-0.227896 0.0912161 0.243138 76 119 54
-0.227446 0.0918495 0.243158 78 117 54
-0.226901 0.0924191 0.243237 78 119 53
-0.226452 0.0930513 0.243257 79 120 55
-0.2261 0.0937475 0.24322 80 121 55
-0.225746 0.0944442 0.243182 82 122 57
-0.225393 0.0951414 0.243145 80 124 58
-0.224945 0.0957734 0.243165 90 133 63
-0.224686 0.0965374 0.24307 81 117 76
-0.235509 0.0839011 0.240992 48 36 27
-0.235151 0.084607 0.240954 67 73 34
-0.234793 0.0853135 0.240916 63 110 51
-0.234435 0.0860205 0.240877 55 101 34
-0.234076 0.086728 0.240839 63 99 37
-0.230076 0.0870798 0.242457 85 122 59
-0.229135 0.0874139 0.242769 76 120 54
-0.22859 0.0879859 0.242848 75 118 53
-0.228045 0.0885567 0.242926 78 116 52
-0.227502 0.0891265 0.243004 78 117 53
-0.227826 0.090249 0.242561 76 117 53
-0.22757 0.0910066 0.242465 73 116 54
-0.227217 0.0917027 0.242428 75 119 53
-0.226672 0.0922725 0.242507 76 118 55
-0.226224 0.0929048 0.242527 77 121 55
-0.225871 0.093601 0.24249 81 122 56
-0.225518 0.0942977 0.242452 79 121 57
-0.225164 0.0949949 0.242414 79 124 59
-0.224811 0.0956926 0.242377 86 127 61
-0.224457 0.0963908 0.242339 87 123 71
-0.235276 0.0837507 0.240248 45 40 25
-0.234456 0.0851034 0.240232 66 111 54
-0.234098 0.0858099 0.240194 59 100 44
-0.233739 0.0865169 0.240155 79 125 61
-0.233175 0.0871021 0.240239 72 127 59
-0.230199 0.0862381 0.241764 73 120 57
-0.229258 0.0865753 0.242079 86 124 60
-0.22881 0.0872076 0.2421 81 119 51
-0.228362 0.0878395 0.24212 76 118 52
-0.227818 0.0884105 0.242199 76 118 54
-0.227467 0.0891021 0.242162 78 119 55
-0.227116 0.0897942 0.242124 76 119 52
-0.227149 0.0907351 0.241852 76 118 52
-0.226796 0.0914302 0.241814 75 120 53
-0.226348 0.0920626 0.241835 78 119 55
-0.2259 0.0926947 0.241856 77 120 52
-0.225642 0.0934544 0.241759 79 123 58
-0.225289 0.0941511 0.241722 77 121 57
-0.224935 0.0948483 0.241684 80 124 56
-0.224582 0.0955461 0.241646 84 126 59
-0.224322 0.0963104 0.241549 92 126 71
-0.234374 0.0841293 0.23965 27 38 26
-0.233555 0.0854798 0.239634 60 100 42
-0.232584 0.0858247 0.239964 69 114 52
-0.231218 0.0859287 0.240532 84 114 50
-0.229872 0.0860317 0.241093 89 129 64
-0.229128 0.0864879 0.241292 88 122 57
-0.228582 0.087061 0.241372 83 121 55
-0.228134 0.087693 0.241393 78 118 55
-0.227591 0.0882643 0.241473 74 120 54
-0.22724 0.0889559 0.241435 76 120 54
-0.226889 0.089648 0.241397 76 119 54
-0.226729 0.0904643 0.241241 77 116 53
-0.226472 0.091221 0.241144 77 119 53
-0.226024 0.0918531 0.241165 77 121 55
-0.225672 0.0925482 0.241127 79 120 54
-0.225319 0.0932439 0.241088 77 121 56
-0.225155 0.0940691 0.240932 78 122 57
-0.224801 0.0947668 0.240893 79 123 56
-0.224447 0.095465 0.240855 86 123 56
-0.224186 0.0962299 0.240757 98 133 68
-0.232607 0.0849138 0.239324 60 101 45
-0.231845 0.0853779 0.23953 70 106 49
-0.230689 0.0856028 0.239979 84 114 54
-0.229643 0.0858845 0.240362 87 132 70
-0.228998 0.0864003 0.240503 86 118 60
-0.228354 0.0869145 0.240644 79 124 60
-0.228003 0.0876065 0.240606 76 118 54
-0.227363 0.088118 0.240746 78 120 52
-0.227012 0.0888096 0.240708 78 118 51
-0.226661 0.0895017 0.240669 79 120 52
-0.2265 0.0903179 0.240512 78 118 54
-0.226148 0.091012 0.240474 76 116 55
-0.225796 0.0917066 0.240435 76 118 55
-0.225348 0.0923385 0.240457 78 117 56
-0.22509 0.0930974 0.240359 78 121 54
-0.224926 0.0939224 0.240201 79 121 56
-0.224666 0.0946852 0.240102 81 123 57
-0.224312 0.0953839 0.240063 84 121 58
-0.223957 0.0960831 0.240025 96 130 66
-0.231413 0.085111 0.238916 73 103 46
-0.230459 0.0854548 0.239245 77 108 48
-0.229415 0.0857373 0.239631 77 120 59
-0.228867 0.0863126 0.239714 82 115 52
-0.228224 0.0868273 0.239856 81 124 59
-0.227775 0.0874599 0.239877 77 118 54
-0.227136 0.0879717 0.240019 77 119 53
-0.226593 0.0885423 0.2401 78 117 54
-0.226433 0.0893554 0.239942 77 118 53
-0.226177 0.0901097 0.239843 75 118 55
-0.225825 0.0908033 0.239805 74 115 54
-0.225283 0.0913723 0.239886 75 117 53
-0.224931 0.092066 0.239847 75 118 54
-0.224767 0.0928872 0.239689 75 120 55
-0.224697 0.0937757 0.239469 78 118 56
