ply
format ascii 1.0
element vertex 1267
property float x
property float y
property float z
property uchar diffuse_red
property uchar diffuse_green
property uchar diffuse_blue
end_header
-0.26097 0.252194 0.266668 59 112 49
-0.260041 0.252752 0.266736 77 120 54
-0.259111 0.25331 0.266804 82 100 66
-0.257832 0.253457 0.266963 83 78 63
-0.252603 0.253832 0.267635 77 99 59
-0.251517 0.25418 0.267747 64 123 55
-0.250763 0.254937 0.26777 50 115 45
-0.23933 0.217516 0.272378 71 98 58
-0.238543 0.217989 0.272436 56 110 54
-0.237755 0.218462 0.272493 41 106 43
-0.237098 0.21908 0.272517 32 102 32
-0.236439 0.219699 0.272541 39 102 29
-0.235779 0.220319 0.272565 61 109 40
-0.235118 0.22094 0.272589 62 120 53
-0.260669 0.2518 0.265705 59 113 51
-0.259739 0.252358 0.265773 66 117 52
-0.25881 0.252916 0.265841 82 114 65
-0.25788 0.253474 0.265908 81 88 63
-0.252975 0.25426 0.266501 80 95 61
-0.251385 0.253995 0.26675 67 121 57
-0.250465 0.254547 0.266817 51 115 47
-0.250369 0.256131 0.266658 53 116 49
-0.197272 0.226663 0.277197 89 81 72
-0.196443 0.226965 0.277279 91 85 77
-0.195703 0.227409 0.277333 93 89 80
-0.194964 0.227853 0.277387 94 87 76
-0.194312 0.22844 0.277413 92 84 72
-0.193572 0.228884 0.277467 89 85 71
-0.238288 0.217655 0.271619 60 108 55
-0.237501 0.218128 0.271677 45 108 45
-0.236972 0.21889 0.271666 33 104 33
-0.236313 0.21951 0.271689 32 102 30
-0.235652 0.22013 0.271712 48 105 36
-0.235119 0.220899 0.2717 61 121 53
-0.258508 0.252522 0.264877 81 121 61
-0.257578 0.25308 0.264945 85 91 63
-0.256648 0.253638 0.265013 81 76 61
-0.25318 0.254486 0.265404 81 91 63
-0.252086 0.254835 0.265518 72 118 58
-0.250994 0.255184 0.265632 54 116 48
-0.250069 0.255739 0.2657 50 117 46
-0.249309 0.256502 0.265721 76 127 55
-0.248548 0.257266 0.265742 68 123 57
-0.246092 0.259357 0.265852 88 89 65
-0.245163 0.259915 0.26592 86 78 65
-0.197771 0.225906 0.276377 90 82 69
-0.197031 0.22635 0.276431 102 102 75
-0.196202 0.226652 0.276513 115 135 86
-0.195462 0.227096 0.276567 117 146 93
-0.19481 0.227683 0.276593 120 136 88
-0.19407 0.228128 0.276647 118 115 82
-0.19333 0.228572 0.276701 103 96 78
-0.19259 0.229016 0.276755 89 85 75
-0.238033 0.217321 0.270803 66 108 56
-0.237246 0.217793 0.270861 49 110 47
-0.236717 0.218556 0.270848 34 104 35
-0.236187 0.21932 0.270835 31 100 30
-0.235655 0.220088 0.270822 40 103 33
-0.23525 0.221006 0.270774 64 123 53
-0.257451 0.252891 0.263933 87 103 63
-0.256347 0.253244 0.264049 84 82 62
-0.253217 0.254505 0.264349 81 89 63
-0.252289 0.255063 0.264416 77 115 59
-0.251194 0.255412 0.264532 57 119 49
-0.2501 0.255762 0.264647 47 116 41
-0.249009 0.25611 0.264762 72 124 52
-0.248247 0.256874 0.264782 69 126 56
-0.247484 0.25764 0.264802 64 121 55
-0.246718 0.258407 0.264823 84 128 60
-0.24579 0.258964 0.26489 89 98 66
-0.244861 0.259522 0.264958 90 79 66
-0.19762 0.225735 0.275581 93 87 70
-0.196789 0.226038 0.275665 106 122 79
-0.196049 0.226482 0.275719 113 160 86
-0.195309 0.226927 0.275773 111 164 84
-0.194569 0.227371 0.275827 116 163 88
-0.193829 0.227815 0.275881 125 156 93
-0.193088 0.22826 0.275935 123 136 94
-0.192348 0.228704 0.275989 101 104 84
-0.191693 0.229293 0.276014 87 86 75
-0.237137 0.214956 0.270321 77 85 57
-0.236357 0.215425 0.270378 73 105 56
-0.236732 0.217172 0.270116 54 113 48
-0.236462 0.218221 0.27003 39 103 36
-0.23619 0.219277 0.269944 31 101 31
-0.235657 0.220045 0.269929 31 101 29
-0.236032 0.221858 0.269659 61 120 49
-0.258022 0.253527 0.262719 90 119 65
-0.256218 0.253055 0.263036 89 94 67
-0.255287 0.253614 0.263104 83 76 63
-0.253255 0.254525 0.263289 78 85 62
-0.252325 0.255084 0.263356 79 107 60
-0.251227 0.255434 0.263473 61 124 52
-0.250131 0.255784 0.26359 47 117 41
-0.249038 0.256133 0.263706 65 122 51
-0.24811 0.25669 0.263774 69 128 58
-0.247345 0.257456 0.263793 67 120 54
-0.246417 0.258014 0.263861 77 125 55
-0.245488 0.258571 0.263928 86 111 68
-0.24472 0.25934 0.263948 88 89 70
-0.197649 0.225847 0.274725 96 95 72
-0.196637 0.225867 0.274868 100 131 78
-0.195896 0.226312 0.274922 91 150 75
-0.195156 0.226756 0.274976 81 141 64
-0.194415 0.227201 0.27503 88 152 73
-0.193674 0.227646 0.275085 108 169 91
-0.192933 0.228091 0.275139 131 173 102
-0.192278 0.228679 0.275163 106 125 87
-0.191537 0.229125 0.275217 88 85 74
-0.237407 0.213878 0.269527 76 76 58
-0.236628 0.214345 0.269583 88 102 63
-0.235849 0.214813 0.26964 87 125 64
-0.235324 0.215562 0.269626 59 117 54
-0.236206 0.217886 0.269212 40 104 38
-0.236193 0.219233 0.269049 30 102 34
-0.236442 0.22089 0.26881 28 100 30
-0.235904 0.221668 0.268793 57 116 46
-0.235496 0.2226 0.268739 62 119 51
-0.257719 0.253131 0.261749 90 132 66
-0.256262 0.253072 0.26197 101 116 74
-0.255157 0.253426 0.262088 88 82 67
-0.254054 0.253779 0.262206 80 74 62
-0.252953 0.254131 0.262324 76 79 63
-0.252023 0.254689 0.262392 73 97 61
-0.251092 0.255248 0.26246 65 130 57
-0.250162 0.255806 0.262528 50 117 44
-0.249066 0.256156 0.262646 56 117 50
-0.248137 0.256714 0.262713 70 132 60
-0.247371 0.257482 0.262731 68 124 55
-0.24644 0.258041 0.262799 69 123 52
-0.245509 0.258599 0.262867 83 119 65
-0.244579 0.259158 0.262935 89 96 68
-0.196664 0.225979 0.27401 90 129 71
-0.195832 0.226283 0.274094 71 132 61
-0.19509 0.226728 0.274148 64 126 53
-0.194348 0.227174 0.274203 72 135 60
-0.193606 0.227619 0.274257 93 151 76
-0.192864 0.228065 0.274311 113 167 90
-0.192122 0.22851 0.274365 94 125 78
-0.191465 0.2291 0.274389 87 87 72
-0.237155 0.213547 0.268719 86 91 63
-0.236376 0.214015 0.268776 99 125 71
-0.235597 0.214482 0.268833 89 141 73
-0.235071 0.215231 0.268816 57 116 53
-0.235951 0.217551 0.268394 39 106 38
-0.236719 0.219776 0.268 31 103 34
-0.236314 0.2207 0.267944 25 99 31
-0.235776 0.221478 0.267926 55 113 45
-0.235236 0.222259 0.267907 60 121 53
-0.258471 0.25398 0.260466 80 137 61
-0.25648 0.253296 0.260847 109 150 79
-0.255198 0.253443 0.261019 114 121 79
-0.253922 0.25359 0.26119 91 80 67
-0.252821 0.253943 0.261309 76 79 66
-0.251889 0.254502 0.261377 74 87 64
-0.250958 0.255061 0.261445 71 134 62
-0.250026 0.25562 0.261513 51 121 47
-0.249095 0.256179 0.261581 50 117 49
-0.248163 0.256739 0.261649 68 133 60
-0.247232 0.257298 0.261716 69 128 55
-0.2463 0.257857 0.261784 66 122 52
-0.245369 0.258416 0.261852 82 127 62
-0.244276 0.258764 0.261971 90 104 68
-0.243346 0.259323 0.262039 87 84 66
-0.239002 0.260705 0.262509 84 90 67
-0.197234 0.226952 0.272958 83 126 65
-0.195857 0.226397 0.273232 63 125 54
-0.195025 0.2267 0.273318 58 121 50
-0.194281 0.227146 0.273372 69 130 56
-0.193625 0.227736 0.273395 87 139 68
-0.192881 0.228183 0.273449 90 140 75
-0.19231 0.228919 0.273441 87 120 67
-0.191565 0.229366 0.273496 84 90 72
-0.182152 0.230191 0.274789 91 85 71
-0.181422 0.23063 0.274843 94 90 70
-0.180766 0.231213 0.274867 92 92 74
-0.180035 0.231652 0.27492 89 88 74
-0.179303 0.232091 0.274973 87 83 71
-0.236903 0.213216 0.267911 101 115 72
-0.236124 0.213684 0.267968 107 149 80
-0.235345 0.214152 0.268025 78 140 71
-0.234819 0.214899 0.268007 53 111 49
-0.236343 0.217938 0.267385 39 107 37
-0.236461 0.219438 0.267173 35 104 31
-0.236186 0.220509 0.267076 24 99 28
-0.235647 0.221288 0.267056 46 106 39
-0.235106 0.222069 0.267036 58 119 51
-0.258875 0.254419 0.259274 61 124 51
-0.257224 0.254146 0.259558 85 149 69
-0.255413 0.253668 0.259893 115 166 90
-0.253961 0.253608 0.260119 121 141 89
-0.252857 0.253961 0.260239 100 107 73
-0.251755 0.254314 0.26036 84 87 73
-0.250823 0.254874 0.260427 73 127 67
-0.250057 0.255642 0.260443 53 122 50
-0.249124 0.256203 0.260511 45 117 47
-0.24819 0.256763 0.260579 67 131 55
-0.247257 0.257323 0.260647 69 129 54
-0.246323 0.257884 0.260715 63 124 53
-0.24539 0.258444 0.260783 77 129 59
-0.244134 0.258581 0.260955 89 114 68
-0.243043 0.258928 0.261074 87 90 70
-0.2387 0.260312 0.261549 84 90 65
-0.237773 0.260869 0.261616 83 110 63
-0.196241 0.227085 0.272238 63 125 53
-0.195315 0.227246 0.272357 56 119 49
-0.194568 0.227694 0.272411 65 127 54
-0.193909 0.228287 0.272433 83 134 62
-0.193248 0.228882 0.272456 80 130 63
-0.192587 0.229477 0.272478 83 120 66
-0.191925 0.230073 0.272501 87 97 72
-0.182644 0.229445 0.273979 90 89 71
-0.181913 0.229883 0.274033 107 92 77
-0.181182 0.230322 0.274086 120 101 80
-0.180527 0.230904 0.274109 116 97 83
-0.179795 0.231344 0.274163 102 91 80
-0.179064 0.231783 0.274216 92 85 73
-0.178332 0.232222 0.274269 88 85 71
-0.236651 0.212885 0.267103 113 135 79
-0.235872 0.213353 0.26716 107 166 86
-0.23522 0.21396 0.267179 68 126 61
-0.234693 0.214708 0.26716 48 111 46
-0.236086 0.217601 0.266563 40 108 39
-0.236203 0.219099 0.266346 36 104 29
-0.235927 0.220169 0.266246 26 100 27
-0.235387 0.220948 0.266225 34 102 30
-0.234846 0.221729 0.266204 53 120 46
-0.258569 0.254018 0.258294 56 115 44
-0.257623 0.254585 0.258363 65 130 53
-0.256151 0.254522 0.258596 84 150 69
-0.254516 0.25425 0.258882 107 166 86
-0.252894 0.25398 0.259165 113 163 91
-0.251959 0.254541 0.259233 111 146 90
-0.251023 0.255103 0.259301 90 147 77
-0.250255 0.255874 0.259316 60 126 53
-0.249319 0.256436 0.259384 45 118 45
-0.248715 0.25742 0.259346 67 128 51
-0.247777 0.257983 0.259414 70 130 54
-0.24651 0.258122 0.259589 62 126 53
-0.245248 0.25826 0.259763 70 128 55
-0.244153 0.258609 0.259884 84 122 66
-0.2429 0.258746 0.260057 87 99 72
-0.24181 0.259093 0.260177 83 82 68
-0.238553 0.260132 0.260536 82 83 66
-0.237624 0.260689 0.260604 82 104 62
-0.236696 0.261246 0.260672 70 131 59
-0.235768 0.261803 0.260739 51 117 48
-0.23484 0.26236 0.260807 53 119 50
-0.234061 0.263133 0.260823 74 132 58
-0.233132 0.263691 0.260891 67 125 56
-0.232202 0.264248 0.260959 67 122 54
-0.231273 0.264806 0.261026 88 121 65
-0.230198 0.265147 0.261145 92 88 68
-0.194017 0.228552 0.271528 81 134 58
-0.193443 0.229295 0.271517 77 126 58
-0.192692 0.229746 0.271572 77 119 61
-0.192027 0.230344 0.271594 87 106 73
-0.182405 0.229137 0.273223 95 97 72
-0.181674 0.229575 0.273276 121 157 97
-0.180943 0.230014 0.273329 127 176 107
-0.180287 0.230596 0.273352 128 176 109
-0.179556 0.231035 0.273405 131 163 101
-0.178824 0.231474 0.273458 130 139 90
-0.178092 0.231914 0.273512 114 105 81
-0.177361 0.232353 0.273565 94 83 72
-0.235875 0.213299 0.266275 106 170 88
-0.235094 0.213768 0.266331 66 117 57
-0.23444 0.214376 0.26635 46 113 46
-0.235442 0.216833 0.26586 41 109 40
-0.235684 0.218468 0.265599 35 104 28
-0.235407 0.219534 0.265497 27 99 25
-0.234997 0.220458 0.265434 26 97 29
-0.234586 0.221388 0.265371 46 110 42
-0.258262 0.253616 0.257314 49 113 47
-0.257317 0.254184 0.257382 57 120 50
-0.256195 0.254541 0.257507 65 132 56
-0.254903 0.254688 0.257687 78 148 66
-0.253444 0.254624 0.257922 92 164 79
-0.252504 0.255189 0.25799 100 164 84
-0.251563 0.255753 0.258059 91 156 75
-0.250961 0.25674 0.258017 65 132 55
-0.250019 0.257306 0.258086 48 119 46
-0.249077 0.257871 0.258154 66 126 50
-0.248301 0.25865 0.258168 71 132 55
-0.247358 0.259217 0.258237 63 128 54
-0.245269 0.258287 0.258687 65 127 52
-0.24401 0.258425 0.258863 81 129 61
-0.242597 0.258351 0.259091 92 113 72
-0.241507 0.258699 0.259212 87 87 69
-0.240576 0.259258 0.25928 84 86 66
-0.238405 0.259951 0.259522 82 82 65
-0.237322 0.260296 0.259642 84 92 64
-0.236394 0.260853 0.25971 79 140 64
-0.235466 0.26141 0.259777 53 119 48
-0.234537 0.261968 0.259845 52 120 49
-0.233758 0.26274 0.25986 76 131 55
-0.232829 0.263297 0.259928 70 127 55
-0.2319 0.263855 0.259996 63 121 55
-0.23097 0.264413 0.260063 86 125 63
-0.230041 0.264971 0.260131 91 95 68
-0.182974 0.228531 0.272381 84 80 70
-0.182242 0.22897 0.272434 105 118 76
-0.181511 0.22941 0.272488 105 155 85
-0.180779 0.229849 0.272541 98 154 77
-0.180047 0.230288 0.272594 98 154 78
-0.179316 0.230727 0.272648 105 160 85
-0.178584 0.231166 0.272701 127 169 98
-0.177852 0.231605 0.272754 127 146 99
-0.177121 0.232045 0.272807 103 101 83
-0.176389 0.232484 0.272861 90 83 74
-0.235096 0.213715 0.265443 71 116 59
-0.235718 0.215737 0.265063 50 112 48
-0.235186 0.216497 0.26504 40 109 42
-0.234652 0.21726 0.265017 34 105 33
-0.234759 0.218754 0.264791 29 99 25
-0.234738 0.220118 0.264603 25 94 26
-0.257956 0.253215 0.256333 43 113 46
-0.25701 0.253783 0.256402 51 115 46
-0.256064 0.254351 0.256471 57 124 52
-0.254944 0.254708 0.256596 62 131 53
-0.253826 0.255064 0.256722 68 140 59
-0.252711 0.25542 0.256847 73 146 66
-0.251768 0.255986 0.256916 77 145 64
-0.250994 0.256764 0.256928 65 135 56
-0.25005 0.257331 0.256997 49 121 48
-0.249274 0.258111 0.257009 62 123 50
-0.248329 0.258679 0.257078 68 132 56
-0.247384 0.259246 0.257147 64 132 55
-0.246109 0.259383 0.257328 63 127 51
-0.243867 0.258241 0.257839 79 136 58
-0.242135 0.257746 0.25818 99 141 71
-0.241204 0.258305 0.258248 92 110 71
-0.240273 0.258864 0.258315 87 79 65
-0.239342 0.259423 0.258383 83 81 62
-0.238257 0.259769 0.258505 82 79 61
-0.237173 0.260115 0.258626 89 83 63
-0.236244 0.260673 0.258694 83 139 64
-0.235315 0.261231 0.258762 57 121 49
-0.234536 0.262003 0.258776 49 120 49
-0.233605 0.262561 0.258844 76 132 55
-0.232824 0.263335 0.258858 69 129 55
-0.231892 0.263894 0.258926 62 122 54
-0.230961 0.264453 0.258994 80 126 60
-0.23003 0.265012 0.259061 87 105 70
-0.228953 0.265354 0.259182 88 88 70
-0.182889 0.228507 0.27156 82 82 69
-0.182079 0.228804 0.271645 100 125 75
-0.181271 0.229101 0.27173 86 139 70
-0.180539 0.22954 0.271783 74 134 60
-0.179808 0.22998 0.271837 75 137 60
-0.17915 0.230562 0.271858 84 146 70
-0.178418 0.231002 0.271911 112 168 90
-0.177686 0.231441 0.271965 119 154 92
-0.176954 0.231881 0.272018 101 106 80
-0.176221 0.23232 0.272071 89 82 74
-0.235298 0.217938 0.263906 32 105 35
-0.23528 0.219298 0.263714 27 98 26
-0.256703 0.253382 0.255421 45 112 42
-0.255757 0.25395 0.25549 51 120 47
-0.254811 0.254517 0.255559 57 125 50
-0.253693 0.254874 0.255686 62 131 54
-0.252747 0.255442 0.255754 63 135 56
-0.251973 0.256221 0.255766 69 138 56
-0.251027 0.256789 0.255834 65 138 57
-0.250081 0.257357 0.255903 51 125 50
-0.249135 0.257925 0.255972 54 121 48
-0.248189 0.258493 0.256041 64 132 56
-0.247242 0.259061 0.25611 65 134 58
-0.246296 0.259629 0.256179 61 125 53
-0.245022 0.259765 0.256362 68 130 55
-0.242627 0.258406 0.256937 93 149 69
-0.240902 0.257911 0.257282 111 149 81
-0.23997 0.25847 0.25735 101 115 73
-0.239039 0.259028 0.257418 82 82 67
-0.238108 0.259587 0.257486 82 83 62
-0.237024 0.259934 0.257608 87 82 62
-0.236093 0.260492 0.257676 86 133 62
-0.235314 0.261264 0.257689 59 125 51
-0.234383 0.261823 0.257757 49 118 46
-0.233452 0.262382 0.257825 74 130 53
-0.23252 0.262941 0.257893 71 132 57
-0.231589 0.2635 0.25796 65 126 54
-0.230804 0.264276 0.257974 74 127 55
-0.229726 0.264619 0.258096 85 114 70
-0.228794 0.265178 0.258164 90 91 72
-0.182804 0.228482 0.270735 85 86 69
-0.181993 0.22878 0.270821 90 121 71
-0.181183 0.229077 0.270907 72 128 61
-0.180451 0.229517 0.270961 61 125 54
-0.179718 0.229957 0.271014 64 129 54
-0.178985 0.230397 0.271067 79 139 64
-0.178252 0.230837 0.271121 96 152 78
-0.177519 0.231277 0.271174 101 143 79
-0.176786 0.231717 0.271227 96 107 75
-0.176053 0.232157 0.271281 87 82 74
-0.16748 0.233778 0.272411 90 83 72
-0.166758 0.234212 0.272463 87 87 73
-0.165972 0.234501 0.272547 92 83 72
-0.165188 0.234789 0.27263 91 82 74
-0.164404 0.235077 0.272713 96 85 76
-0.163684 0.23551 0.272765 92 83 73
-0.254504 0.254116 0.254578 54 119 48
-0.253558 0.254684 0.254647 59 125 52
-0.252612 0.255252 0.254716 61 131 53
-0.251666 0.25582 0.254785 62 136 55
-0.25072 0.256388 0.254854 65 139 59
-0.249774 0.256956 0.254922 54 127 51
-0.248828 0.257524 0.254991 47 117 48
-0.247881 0.258092 0.25506 61 131 58
-0.246935 0.25866 0.255129 69 138 61
-0.245989 0.259228 0.255198 59 126 52
-0.245042 0.259796 0.255267 58 125 51
-0.244096 0.260364 0.255336 73 139 58
-0.239668 0.258075 0.256385 122 167 92
-0.238736 0.258634 0.256453 120 134 85
-0.237805 0.259193 0.256521 98 96 74
-0.236874 0.259752 0.256588 85 85 70
-0.235942 0.260311 0.256656 89 130 68
-0.235011 0.26087 0.256724 59 128 52
-0.23408 0.261429 0.256792 48 120 46
-0.233148 0.261988 0.25686 69 128 50
-0.232365 0.262763 0.256872 72 135 58
-0.231433 0.263322 0.25694 67 129 54
-0.2305 0.263882 0.257008 69 126 52
-0.229568 0.264442 0.257075 83 122 65
-0.228491 0.264784 0.257199 90 95 69
-0.223414 0.266922 0.257702 82 86 69
-0.222485 0.267479 0.257769 80 107 68
-0.181907 0.228755 0.269995 87 118 68
-0.181096 0.229053 0.270082 66 124 57
-0.180286 0.229351 0.270168 57 121 51
-0.179552 0.229791 0.270222 61 126 53
-0.178819 0.230232 0.270275 78 135 62
-0.178085 0.230672 0.270329 84 137 68
-0.177352 0.231112 0.270382 89 132 70
-0.176691 0.231697 0.270402 90 106 71
-0.175957 0.232138 0.270456 85 86 73
-0.16803 0.233184 0.271578 88 84 69
-0.167243 0.233474 0.271663 101 92 72
-0.16652 0.233908 0.271715 118 116 82
-0.165735 0.234197 0.271799 125 112 81
-0.16495 0.234486 0.271883 121 99 78
-0.164167 0.234774 0.271967 105 91 80
-0.163385 0.235062 0.27205 94 83 77
-0.162605 0.235349 0.272134 88 83 74
-0.249466 0.256555 0.253941 59 128 54
-0.24852 0.257123 0.25401 46 117 49
-0.247574 0.257691 0.254079 55 126 55
-0.246627 0.258259 0.254148 69 134 59
-0.245681 0.258827 0.254217 60 126 52
-0.238433 0.25824 0.255488 116 173 94
-0.237502 0.258799 0.255555 117 161 97
-0.236571 0.259358 0.255623 111 142 87
-0.235639 0.259917 0.255691 102 151 75
-0.234708 0.260476 0.255759 65 131 55
-0.233776 0.261035 0.255826 49 121 46
-0.232994 0.261809 0.255838 61 125 49
-0.23221 0.262584 0.255849 70 136 60
-0.231277 0.263144 0.255917 68 130 55
-0.230197 0.263488 0.256041 65 126 52
-0.229264 0.264047 0.256109 82 128 62
-0.228187 0.26439 0.256233 92 102 66
-0.227255 0.264949 0.256301 91 82 65
-0.22311 0.266529 0.256739 85 86 66
-0.222181 0.267087 0.256807 81 107 67
-0.221389 0.267864 0.256819 72 131 60
-0.181391 0.229747 0.269083 66 122 56
-0.180576 0.230046 0.269171 57 119 49
-0.179838 0.230489 0.269225 59 124 52
-0.179026 0.230787 0.269312 76 133 60
-0.178363 0.231374 0.269332 79 130 62
-0.177625 0.231817 0.269386 83 125 63
-0.176888 0.23226 0.269439 85 107 67
-0.176223 0.232849 0.269459 84 89 70
-0.167792 0.23288 0.27083 91 85 71
-0.167005 0.23317 0.270915 114 119 80
-0.166283 0.233604 0.270967 125 164 99
-0.165497 0.233893 0.271052 121 151 91
-0.164713 0.234182 0.271136 122 150 94
-0.16393 0.234471 0.27122 120 146 96
-0.163148 0.234759 0.271305 127 132 91
-0.162368 0.235047 0.271389 108 103 82
-0.161648 0.235479 0.271441 96 87 74
-0.223278 0.225013 0.262038 44 114 49
-0.222477 0.225494 0.262096 53 122 54
-0.24632 0.257858 0.253167 70 136 58
-0.245373 0.258426 0.253236 58 129 54
-0.234706 0.260508 0.254678 69 136 57
-0.233773 0.261068 0.254745 49 122 47
-0.229105 0.26387 0.255085 80 133 60
-0.228027 0.264213 0.25521 94 115 67
-0.226951 0.264555 0.255335 92 91 67
-0.226019 0.265115 0.255403 87 85 67
-0.222946 0.266355 0.25572 86 87 68
-0.222016 0.266913 0.255788 83 105 67
-0.221223 0.267691 0.255799 75 128 62
-0.220428 0.268471 0.25581 55 119 48
-0.181379 0.229868 0.268214 66 122 55
-0.180639 0.230313 0.268267 55 119 48
-0.179899 0.230757 0.268321 59 123 51
-0.179159 0.231201 0.268375 75 131 58
-0.178494 0.231791 0.268394 77 126 59
-0.177828 0.232383 0.268413 79 121 59
-0.177086 0.232828 0.268467 83 108 66
-0.176345 0.233273 0.268521 87 91 69
-0.167555 0.232575 0.270081 93 91 73
-0.166768 0.232866 0.270166 117 140 84
-0.166045 0.2333 0.270219 103 169 93
-0.16526 0.233589 0.270304 92 147 74
-0.164476 0.233879 0.270389 96 151 80
-0.163693 0.234168 0.270474 105 159 86
-0.162911 0.234456 0.270559 122 167 96
-0.162131 0.234744 0.270643 124 151 101
-0.161411 0.235176 0.270696 105 105 79
-0.160691 0.235608 0.270748 90 87 72
-0.223018 0.224673 0.261206 44 114 44
-0.222216 0.225154 0.261264 52 116 46
-0.221414 0.225636 0.261323 73 132 55
-0.225715 0.264721 0.254437 89 88 71
-0.224784 0.26528 0.254505 83 83 70
-0.222781 0.26618 0.254698 85 85 69
-0.22185 0.266739 0.254766 85 98 66
-0.221056 0.267517 0.254776 78 127 61
-0.220124 0.268077 0.254844 57 122 48
-0.180703 0.230581 0.267358 54 120 48
-0.179961 0.231027 0.267412 57 123 49
-0.179294 0.231619 0.26743 74 130 55
-0.178551 0.232065 0.267484 76 125 58
-0.177882 0.232658 0.267503 75 120 58
-0.177138 0.233105 0.267557 83 111 67
-0.176394 0.233551 0.267611 89 93 70
-0.167317 0.232271 0.269332 90 94 72
-0.166594 0.232705 0.269385 107 144 79
-0.165807 0.232996 0.269471 78 141 70
-0.165022 0.233286 0.269556 68 124 54
-0.1643 0.233719 0.269609 73 130 61
-0.163517 0.234008 0.269694 79 142 66
-0.162674 0.234153 0.269813 109 163 84
-0.161954 0.234585 0.269865 130 181 108
-0.161174 0.234873 0.26995 106 112 81
-0.222757 0.224333 0.260375 44 113 41
-0.221955 0.224814 0.260433 45 110 39
-0.221153 0.225296 0.260491 69 125 53
-0.22106 0.226702 0.26028 61 136 57
-0.223547 0.265445 0.253607 83 85 70
-0.222615 0.266005 0.253675 84 85 68
-0.221683 0.266564 0.253742 86 98 65
-0.220751 0.267124 0.25381 81 127 62
-0.219819 0.267683 0.253878 57 126 48
-0.18131 0.231881 0.266184 51 118 48
-0.180252 0.231739 0.266386 56 123 50
-0.179506 0.232187 0.266441 72 131 57
-0.178759 0.232636 0.266495 75 125 57
-0.178087 0.233232 0.266513 71 119 57
-0.17734 0.233681 0.266567 82 115 69
-0.176964 0.23488 0.266437 90 95 71
-0.167079 0.231967 0.268583 88 93 69
-0.166356 0.232401 0.268636 91 135 72
-0.16557 0.232691 0.268722 64 127 57
-0.164785 0.232982 0.268809 59 118 50
-0.164063 0.233415 0.268861 63 123 55
-0.163279 0.233705 0.268947 67 131 59
-0.162497 0.233994 0.269033 117 162 80
-0.161717 0.234282 0.269119 120 169 97
-0.160996 0.234715 0.269171 100 106 77
-0.23494 0.224351 0.257347 112 179 82
-0.233981 0.22469 0.257456 114 181 84
-0.233288 0.225343 0.257467 120 187 89
-0.222497 0.223993 0.259543 52 111 44
-0.221695 0.224475 0.259601 48 106 40
-0.221129 0.225262 0.259568 65 119 53
-0.220798 0.22636 0.259444 62 138 60
-0.22106 0.22825 0.259087 52 121 50
-0.220486 0.229055 0.259053 43 111 45
-0.181298 0.232009 0.265295 53 117 46
-0.180315 0.232015 0.265463 55 121 48
-0.179566 0.232464 0.265517 72 128 57
-0.178893 0.233063 0.265534 75 125 57
-0.178218 0.233663 0.265551 70 119 55
-0.177468 0.234113 0.265605 83 115 66
-0.176866 0.234865 0.265585 89 97 70
-0.16697 0.231948 0.267765 84 96 67
-0.166118 0.232096 0.267887 81 130 66
-0.165395 0.23253 0.26794 59 122 53
-0.164609 0.232821 0.268026 56 115 49
-0.163825 0.233111 0.268113 60 120 51
-0.163042 0.233401 0.2682 71 132 63
-0.16232 0.233834 0.268252 123 176 92
-0.161539 0.234123 0.268339 102 139 79
-0.160818 0.234556 0.268391 94 101 76
-0.235633 0.223661 0.25638 96 166 74
-0.234539 0.223844 0.25654 103 171 78
-0.233713 0.224339 0.2566 106 173 80
-0.232888 0.224835 0.25666 108 173 81
-0.232062 0.22533 0.25672 111 174 82
-0.222355 0.223805 0.258665 70 123 53
-0.221671 0.224439 0.258677 69 119 51
-0.221105 0.225227 0.258642 81 128 59
-0.220773 0.226328 0.258515 75 144 65
-0.220557 0.227592 0.258339 61 122 51
-0.220102 0.228552 0.258256 46 107 45
-0.219288 0.22904 0.258315 42 108 43
-0.218592 0.229687 0.258327 49 115 42
-0.211587 0.229599 0.25956 59 126 54
-0.210136 0.229144 0.259889 42 116 45
-0.209232 0.229467 0.259992 69 132 52
-0.208969 0.230727 0.259825 73 138 55
-0.20849 0.23168 0.259748 58 130 53
-0.207795 0.23232 0.259761 55 124 50
-0.206992 0.232802 0.259819 60 128 50
-0.206189 0.233284 0.259877 74 144 61
-0.181961 0.231538 0.264385 69 125 58
-0.181052 0.231692 0.264516 51 119 49
-0.180301 0.232143 0.264571 54 121 49
-0.17955 0.232594 0.264626 72 128 55
-0.178875 0.233194 0.264642 74 126 56
-0.178123 0.233645 0.264696 69 120 53
-0.177446 0.234247 0.264713 83 116 60
-0.176843 0.235001 0.26469 88 94 66
-0.166988 0.232216 0.266874 81 98 68
-0.166007 0.232078 0.267068 77 126 63
-0.165157 0.232226 0.26719 56 119 50
-0.164434 0.23266 0.267243 52 116 49
-0.163649 0.232951 0.26733 60 121 51
-0.162865 0.233241 0.267418 87 133 64
-0.162143 0.233674 0.26747 102 157 88
-0.16142 0.234108 0.267523 91 126 68
-0.160698 0.234541 0.267575 93 102 77
-0.235365 0.22331 0.255522 77 148 64
-0.234405 0.22365 0.255633 84 153 67
-0.233446 0.223989 0.255743 89 158 72
-0.23262 0.224485 0.255803 92 160 72
-0.231663 0.224823 0.255913 95 159 74
-0.230839 0.225318 0.255973 105 160 75
-0.222453 0.22392 0.257691 93 147 66
-0.221648 0.224403 0.257749 99 152 68
-0.221318 0.225501 0.257618 112 161 74
-0.220985 0.226606 0.257486 104 163 77
-0.220293 0.227248 0.257497 91 146 65
-0.219837 0.228207 0.257412 68 117 59
-0.219024 0.228695 0.257472 57 113 48
-0.218327 0.229342 0.257483 55 112 40
-0.212127 0.228779 0.258671 73 143 60
-0.21089 0.228638 0.258913 60 128 52
-0.209876 0.228807 0.259063 41 114 42
-0.208972 0.22913 0.259166 66 126 49
-0.208602 0.230232 0.259042 71 137 55
-0.208122 0.231183 0.258962 60 133 55
-0.207533 0.231981 0.258929 55 124 51
-0.20673 0.232463 0.258987 56 123 49
-0.205928 0.232944 0.259045 61 132 52
-0.205125 0.233426 0.259103 71 143 61
-0.181714 0.23122 0.263605 69 127 58
-0.180962 0.231672 0.26366 51 120 49
-0.180287 0.232272 0.263675 53 119 47
-0.179534 0.232724 0.26373 73 132 54
-0.178857 0.233326 0.263745 76 128 55
-0.178103 0.233778 0.2638 68 120 54
-0.17735 0.234231 0.263855 82 118 61
-0.17682 0.235137 0.263792 89 95 67
-0.166749 0.23191 0.266121 79 105 68
-0.165832 0.231916 0.266281 73 124 60
-0.164982 0.232064 0.266405 55 116 48
-0.164258 0.232499 0.266458 51 115 47
-0.163472 0.23279 0.266546 62 120 52
-0.162749 0.233224 0.266599 95 135 62
-0.162025 0.233658 0.266651 89 135 68
-0.161302 0.234092 0.266704 86 121 66
-0.160578 0.234527 0.266756 93 100 75
-0.225585 0.204037 0.259689 93 106 66
-0.235772 0.22374 0.254407 84 147 63
-0.234137 0.223299 0.254776 76 140 61
-0.233178 0.223639 0.254887 74 143 63
-0.232352 0.224134 0.254947 75 145 62
-0.231396 0.224473 0.255058 78 147 66
-0.230571 0.224968 0.255118 94 150 72
-0.229875 0.225621 0.255127 105 161 83
-0.222343 0.225289 0.256528 122 182 84
-0.221533 0.225776 0.256586 126 195 92
-0.220841 0.226418 0.256597 127 199 93
-0.220386 0.227374 0.25651 127 199 94
-0.219691 0.22802 0.25652 121 181 84
-0.218877 0.228508 0.256579 117 156 70
-0.21818 0.229156 0.256589 89 132 59
-0.212668 0.227959 0.257782 65 131 55
-0.211647 0.22813 0.257934 76 140 59
-0.21063 0.2283 0.258086 62 127 51
-0.209831 0.228779 0.258144 39 111 40
-0.20914 0.229414 0.258155 56 117 45
-0.208448 0.23005 0.258167 68 136 57
-0.20786 0.230844 0.258132 60 134 57
-0.207271 0.231641 0.258096 53 123 50
-0.206468 0.232123 0.258155 53 121 46
-0.205666 0.232605 0.258213 58 127 49
-0.204863 0.233087 0.258271 61 134 55
-0.20406 0.233568 0.25833 67 139 59
-0.196155 0.231398 0.26012 50 120 49
-0.195374 0.231866 0.260177 52 124 51
-0.194593 0.232335 0.260234 80 139 59
-0.193811 0.232804 0.260291 66 130 57
-0.19303 0.233273 0.260347 60 125 55
-0.19243 0.234054 0.260317 75 130 57
-0.182338 0.232543 0.262382 68 128 58
-0.181027 0.231949 0.26272 50 121 48
-0.180272 0.232402 0.262775 51 119 47
-0.179595 0.233005 0.262789 72 131 53
-0.178993 0.23376 0.262764 74 128 54
-0.178312 0.234365 0.262779 67 121 53
-0.177555 0.23482 0.262834 83 124 61
-0.176797 0.235275 0.262889 88 99 69
-0.166831 0.232322 0.265184 81 97 67
-0.165783 0.23204 0.265421 74 126 62
-0.164868 0.232046 0.265583 53 115 47
-0.164081 0.232337 0.265672 47 116 50
-0.163356 0.232772 0.265724 58 120 56
-0.162632 0.233207 0.265777 86 135 68
-0.162028 0.233931 0.265757 86 122 63
-0.161302 0.234367 0.26581 86 118 63
-0.160576 0.234802 0.265863 91 95 71
-0.226092 0.203269 0.258857 78 76 63
-0.225342 0.203719 0.258911 100 109 69
-0.233869 0.222948 0.253918 88 151 68
-0.23291 0.223288 0.25403 79 142 61
-0.232084 0.223784 0.25409 73 137 56
-0.231128 0.224123 0.254202 70 135 58
-0.230303 0.224618 0.254262 76 140 64
-0.229607 0.22527 0.25427 85 153 77
-0.229039 0.226082 0.254227 102 162 83
-0.223048 0.226188 0.255289 130 195 93
-0.221749 0.226053 0.255548 129 198 91
-0.220935 0.226541 0.255607 131 199 90
-0.220241 0.227186 0.255616 130 199 92
-0.219545 0.227832 0.255626 133 198 93
-0.21873 0.228321 0.255685 132 200 95
-0.218149 0.229128 0.255645 126 197 95
-0.212296 0.227466 0.256999 76 139 61
-0.211386 0.227791 0.257105 83 143 62
-0.210478 0.228117 0.25721 65 126 53
-0.209679 0.228596 0.257268 40 109 39
-0.208987 0.229231 0.257279 49 107 39
-0.208187 0.229711 0.257337 66 132 57
-0.207705 0.230662 0.257253 62 137 59
-0.207009 0.231302 0.257264 50 122 49
-0.206206 0.231783 0.257322 49 118 45
-0.205404 0.232265 0.257381 54 121 46
-0.204601 0.232747 0.257439 57 128 53
-0.203798 0.233229 0.257497 61 133 56
-0.199003 0.232609 0.258474 71 146 61
-0.197345 0.231678 0.25894 65 139 61
-0.1959 0.231067 0.25931 51 120 49
-0.195119 0.231536 0.259367 55 122 51
-0.194337 0.232005 0.259424 83 140 60
-0.193556 0.232474 0.259481 66 131 57
-0.192775 0.232943 0.259537 60 126 55
-0.192174 0.233724 0.259506 68 130 54
-0.191572 0.234507 0.259474 99 148 73
-0.183251 0.232519 0.261332 89 111 71
-0.182329 0.232674 0.261471 69 129 59
-0.18133 0.232678 0.26165 49 121 48
-0.180492 0.232983 0.261746 48 120 47
-0.179733 0.233438 0.261801 73 131 55
-0.179052 0.234045 0.261815 74 130 54
-0.178369 0.234653 0.261829 67 120 52
-0.177609 0.235109 0.261885 82 126 59
-0.176849 0.235565 0.26194 86 103 68
-0.166914 0.232739 0.26424 82 99 64
-0.165989 0.232742 0.264406 72 126 60
-0.165132 0.232891 0.264534 51 115 46
-0.164339 0.233184 0.264625 44 116 49
-0.163548 0.233477 0.264715 58 119 53
-0.16282 0.233914 0.264768 77 125 65
-0.162212 0.234643 0.264746 83 117 60
-0.161664 0.235522 0.264688 83 115 62
-0.161233 0.236701 0.264553 99 96 70
-0.225735 0.202825 0.258122 79 79 65
-0.2251 0.2034 0.258133 104 119 74
-0.22435 0.20385 0.258188 124 174 87
-0.232642 0.222938 0.253174 94 154 69
-0.231816 0.223433 0.253234 88 145 62
-0.23086 0.223773 0.253346 79 136 60
-0.230035 0.224268 0.253406 73 133 58
-0.22921 0.224763 0.253466 72 136 58
-0.228513 0.225416 0.253473 81 144 62
-0.227943 0.226228 0.253429 96 158 74
-0.221604 0.225863 0.254653 139 199 97
-0.22079 0.226352 0.254712 133 199 94
-0.219976 0.226841 0.254771 129 198 95
-0.219279 0.227487 0.25478 134 200 96
-0.218347 0.227818 0.25489 131 199 95
-0.217532 0.228307 0.254949 127 197 93
-0.213058 0.226954 0.256014 96 162 75
-0.212035 0.227127 0.256169 86 152 69
-0.211126 0.227453 0.256275 85 149 69
-0.210326 0.227933 0.256333 66 124 57
-0.209526 0.228413 0.256391 39 105 42
-0.208726 0.228893 0.25645 39 102 38
-0.208033 0.229529 0.25646 63 132 56
-0.207444 0.230323 0.256421 66 140 60
-0.206747 0.230962 0.256432 50 121 50
-0.205945 0.231444 0.25649 44 113 46
-0.205246 0.232084 0.2565 50 116 44
-0.204339 0.232407 0.256606 54 122 49
-0.203536 0.232889 0.256665 58 128 53
-0.202733 0.233371 0.256723 61 133 56
-0.201425 0.233055 0.25702 64 138 56
-0.199536 0.231798 0.257595 65 141 57
-0.19855 0.231961 0.257746 69 143 61
-0.197663 0.232279 0.257849 68 142 64
-0.195738 0.230891 0.258455 51 119 50
-0.194863 0.231206 0.258557 52 120 50
-0.194082 0.231675 0.258614 80 139 58
-0.193484 0.232454 0.25858 65 134 57
-0.192883 0.233235 0.258547 58 126 53
-0.192099 0.233705 0.258604 60 127 52
-0.191495 0.23449 0.25857 81 147 64
-0.191251 0.235913 0.258354 109 156 83
-0.183244 0.232651 0.260414 87 111 70
-0.182079 0.232353 0.260682 70 131 61
-0.181318 0.23281 0.260737 51 121 49
-0.180557 0.233267 0.260792 48 119 47
-0.179795 0.233723 0.260847 74 131 54
-0.179034 0.23418 0.260903 74 132 55
-0.17835 0.23479 0.260916 67 122 53
-0.177588 0.235247 0.260971 77 125 57
-0.176826 0.235704 0.261027 82 106 66
-0.166932 0.233012 0.263327 82 103 68
-0.166004 0.233015 0.263496 69 127 60
-0.165208 0.233309 0.263588 48 116 47
-0.164412 0.233603 0.263679 45 115 48
-0.16368 0.234043 0.263732 58 118 53
-0.163009 0.234629 0.263747 77 124 63
-0.16246 0.235511 0.263686 81 115 60
-0.161848 0.236248 0.263662 83 112 61
-0.161354 0.237287 0.263562 90 99 71
-0.225265 0.202259 0.257433 85 81 63
-0.224857 0.203081 0.257355 112 125 76
-0.224107 0.203531 0.257409 127 182 92
-0.231548 0.223083 0.252377 98 159 72
-0.230592 0.223423 0.25249 95 156 70
-0.229638 0.223762 0.252603 92 149 65
-0.228942 0.224413 0.25261 87 141 60
-0.228117 0.224908 0.252669 80 139 59
-0.227674 0.225877 0.25257 77 143 62
-0.221701 0.225985 0.253654 127 201 112
-0.220645 0.226163 0.253816 140 200 102
-0.219829 0.226652 0.253875 144 200 102
-0.219014 0.227141 0.253934 134 196 98
-0.218082 0.227473 0.254045 122 191 93
-0.216456 0.226866 0.254459 116 184 90
-0.214738 0.226112 0.254917 110 177 87
-0.21371 0.226287 0.255075 103 168 80
-0.212686 0.226461 0.255231 96 159 75
-0.211775 0.226788 0.255339 90 151 72
-0.210865 0.227114 0.255446 87 145 70
-0.210065 0.227594 0.255504 76 131 60
-0.209265 0.228074 0.255562 62 119 50
-0.208465 0.228554 0.25562 62 115 46
-0.207878 0.229346 0.25558 73 137 61
-0.207182 0.229984 0.25559 68 141 62
-0.206485 0.230622 0.255599 50 119 51
-0.205787 0.231262 0.255608 42 109 45
-0.205088 0.231903 0.255618 46 110 41
-0.204284 0.232386 0.255676 52 115 46
-0.203274 0.23255 0.255832 57 123 51
-0.201963 0.232237 0.256133 59 129 54
-0.200168 0.231144 0.256669 61 134 55
-0.199278 0.231464 0.256774 63 137 57
-0.198292 0.231627 0.256926 67 139 62
-0.197405 0.231945 0.25703 70 142 64
-0.196046 0.231485 0.257367 51 119 48
-0.195166 0.231801 0.257471 46 117 45
-0.19438 0.232273 0.257528 77 135 55
-0.194058 0.233527 0.257353 66 137 57
-0.193361 0.234158 0.257363 58 126 52
-0.192572 0.234632 0.257421 55 123 47
-0.191782 0.235105 0.257478 63 135 53
-0.191083 0.235738 0.257489 88 158 71
-0.190293 0.236213 0.257546 110 165 85
-0.183645 0.233546 0.259274 98 127 71
-0.182229 0.232787 0.259678 74 134 60
-0.181306 0.232942 0.259819 53 121 50
-0.180464 0.233248 0.259918 48 119 48
-0.179701 0.233706 0.259973 73 131 53
-0.178939 0.234163 0.260028 75 135 56
-0.17833 0.234927 0.259998 67 124 52
-0.177566 0.235386 0.260053 72 124 55
-0.176802 0.235844 0.260109 79 110 67
-0.167081 0.23358 0.262329 82 103 68
-0.166084 0.233436 0.26254 69 126 60
-0.165348 0.233878 0.262594 48 114 46
-0.164548 0.234172 0.262686 45 114 46
-0.163875 0.234761 0.262701 58 118 52
-0.163263 0.235499 0.262676 74 123 63
-0.162649 0.23624 0.262651 81 116 61
-0.162095 0.237133 0.262586 85 113 62
-0.161538 0.23803 0.262521 89 99 73
-0.224234 0.20108 0.256969 91 89 63
-0.224501 0.202638 0.256622 121 137 77
-0.223864 0.203213 0.256631 131 186 95
-0.22937 0.223412 0.251747 103 165 75
-0.228674 0.224063 0.251753 102 163 74
-0.215507 0.225596 0.253924 115 178 86
-0.214364 0.225618 0.254133 110 172 83
-0.213449 0.225947 0.254242 102 164 79
-0.212425 0.226121 0.2544 97 157 75
-0.211514 0.226449 0.254508 94 152 72
-0.210713 0.226929 0.254566 91 147 71
-0.209804 0.227255 0.254674 87 143 67
-0.209004 0.227735 0.254732 85 141 63
-0.208418 0.228526 0.254691 93 147 65
-0.207616 0.229007 0.254749 99 160 74
-0.206921 0.229644 0.254758 96 161 75
-0.206223 0.230283 0.254766 81 141 62
-0.205525 0.230922 0.254775 66 120 52
-0.204826 0.231563 0.254783 56 110 47
-0.204021 0.232046 0.254842 54 111 49
-0.203012 0.23221 0.254999 56 117 50
-0.201702 0.231899 0.255304 59 124 52
-0.200107 0.231121 0.255751 60 129 54
-0.199019 0.231129 0.255953 62 133 56
-0.19813 0.231448 0.256058 66 137 60
-0.197242 0.231767 0.256163 70 141 61
-0.196356 0.232085 0.256268 51 118 47
-0.195566 0.232559 0.256325 44 115 40
-0.194776 0.233033 0.256383 72 129 53
-0.194079 0.233665 0.256393 67 141 60
-0.19338 0.234298 0.256403 58 128 50
-0.192589 0.234773 0.25646 54 121 43
-0.191797 0.235248 0.256517 57 129 48
-0.190915 0.235564 0.256622 67 139 54
-0.190034 0.235879 0.256727 83 153 66
-0.189244 0.236353 0.256784 98 170 84
-0.188453 0.236828 0.256842 111 171 88
-0.186621 0.235394 0.257458 122 168 89
-0.184576 0.233526 0.258197 121 154 86
-0.183639 0.233681 0.258342 103 151 75
-0.182624 0.233683 0.258532 77 139 60
-0.181613 0.233685 0.258721 54 122 50
-0.180529 0.233534 0.258952 47 118 48
-0.179763 0.233993 0.259008 71 130 53
-0.178998 0.234452 0.259063 75 136 57
-0.178542 0.235527 0.258944 67 125 52
-0.177775 0.235988 0.258999 68 124 54
-0.177083 0.236604 0.259011 80 118 69
-0.176315 0.237066 0.259067 85 93 71
-0.167232 0.234154 0.261321 84 105 67
-0.166294 0.234155 0.261496 70 126 58
-0.165425 0.234303 0.261631 48 114 45
-0.164686 0.234747 0.261684 46 115 44
-0.163947 0.235191 0.261738 60 119 52
-0.163521 0.236381 0.261591 75 123 64
-0.162778 0.236827 0.261644 81 115 61
-0.162159 0.237574 0.261618 83 112 62
-0.161477 0.238172 0.261631 87 100 76
-0.223993 0.200764 0.256197 90 96 67
-0.223695 0.201701 0.256071 127 151 81
-0.223509 0.202769 0.255898 131 190 96
-0.227896 0.223092 0.251114 116 182 84
-0.214102 0.225278 0.2533 107 171 84
-0.213076 0.225454 0.25346 106 167 81
-0.212274 0.225935 0.253518 106 163 78
-0.211362 0.226263 0.253627 103 161 75
-0.210561 0.226744 0.253685 103 158 75
-0.209759 0.227225 0.253743 104 161 76
-0.208958 0.227705 0.253801 107 167 78
-0.208156 0.228186 0.25386 115 178 83
-0.207461 0.228823 0.253867 121 186 88
-0.206659 0.229305 0.253926 123 187 89
-0.205961 0.229943 0.253933 118 179 83
-0.205158 0.230425 0.253992 105 160 75
-0.204355 0.230907 0.25405 91 144 69
-0.203552 0.231388 0.254108 81 134 63
-0.202545 0.231554 0.254267 73 128 56
-0.20134 0.231403 0.254524 66 126 55
-0.199847 0.230785 0.254927 64 128 56
-0.19876 0.230794 0.255131 64 130 55
-0.197871 0.231113 0.255237 68 135 58
-0.196984 0.231432 0.255343 70 139 60
-0.196193 0.231907 0.2554 50 116 46
-0.195402 0.232382 0.255458 41 111 36
-0.194611 0.232856 0.255515 63 123 52
-0.193913 0.233488 0.255524 67 145 64
-0.193214 0.234122 0.255533 59 127 49
-0.192422 0.234597 0.255591 53 118 45
-0.191629 0.235073 0.255648 55 126 47
-0.190746 0.235389 0.255754 60 131 50
-0.189865 0.235704 0.255859 66 138 55
-0.188985 0.23602 0.255965 70 145 62
-0.18732 0.234908 0.256496 80 155 69
-0.186194 0.23475 0.25674 89 165 78
-0.184489 0.233507 0.257304 91 167 79
-0.183386 0.233356 0.257543 85 158 73
-0.182615 0.233819 0.257599 75 143 64
-0.181682 0.233974 0.257745 54 124 51
-0.180752 0.234128 0.257891 46 118 47
-0.179983 0.23459 0.257947 69 130 52
-0.179214 0.235051 0.258002 73 137 56
-0.178523 0.235668 0.258013 66 127 53
-0.177753 0.236129 0.258069 64 124 52
-0.17706 0.236747 0.25808 83 128 69
-0.17629 0.23721 0.258136 90 102 71
-0.175444 0.237515 0.258237 87 83 68
-0.167251 0.234435 0.260387 84 107 67
-0.166311 0.234436 0.260565 69 125 59
-0.165503 0.234733 0.26066 47 114 46
-0.164761 0.235178 0.260714 46 116 44
-0.164018 0.235623 0.260767 63 120 54
-0.163591 0.236821 0.260615 75 122 65
-0.162846 0.237268 0.26067 81 114 61
-0.162162 0.237867 0.260682 89 113 67
-0.161416 0.238315 0.260736 91 101 79
-0.223195 0.199841 0.255651 90 100 70
-0.222675 0.200528 0.255615 129 162 85
-0.222819 0.201955 0.255304 128 192 96
-0.222374 0.216347 0.252536 120 184 86
-0.212815 0.225114 0.252628 102 165 79
-0.212013 0.225595 0.252686 106 168 82
-0.211211 0.226077 0.252744 108 170 82
-0.210408 0.226558 0.252802 114 173 84
-0.209606 0.227039 0.252861 120 179 86
-0.208804 0.227521 0.252919 125 188 90
-0.208002 0.228002 0.252977 127 193 93
-0.207199 0.228484 0.253035 128 196 95
-0.206502 0.229121 0.253042 129 198 95
-0.205699 0.229603 0.253101 129 199 96
-0.204896 0.230085 0.253159 129 199 97
-0.204093 0.230567 0.253217 126 193 94
-0.203188 0.230891 0.253326 119 179 85
-0.20208 0.2309 0.253536 107 163 77
-0.200979 0.230908 0.253746 90 148 70
-0.199588 0.230449 0.254103 79 139 63
-0.198501 0.230459 0.254309 74 133 60
-0.197612 0.230779 0.254416 73 136 61
-0.196821 0.231254 0.254474 72 139 61
-0.196029 0.231729 0.254531 49 114 45
-0.195237 0.232204 0.254588 36 104 33
-0.194446 0.232679 0.254646 55 113 49
-0.193747 0.233311 0.254654 69 149 70
-0.192955 0.233787 0.254712 60 127 50
-0.192162 0.234262 0.254769 50 117 48
-0.19137 0.234738 0.254827 51 121 48
-0.190577 0.235214 0.254884 56 127 49
-0.189695 0.23553 0.25499 58 133 55
-0.188814 0.235845 0.255097 62 135 57
-0.187064 0.234577 0.255683 67 142 57
-0.185938 0.23442 0.25593 70 144 58
-0.184652 0.233953 0.256269 72 146 57
-0.183461 0.233645 0.256558 74 148 61
-0.182443 0.233647 0.256753 72 148 68
-0.18159 0.233956 0.256855 55 125 52
-0.180739 0.234265 0.256957 44 119 44
-0.179968 0.234728 0.257012 67 131 51
-0.179197 0.23519 0.257068 71 136 56
-0.178503 0.235808 0.257079 65 128 54
-0.177732 0.236271 0.257135 62 126 52
-0.17696 0.236735 0.257191 85 139 67
-0.176188 0.237198 0.257247 96 126 75
-0.175416 0.237661 0.257302 92 102 72
-0.174495 0.23781 0.257449 86 90 70
-0.173577 0.237958 0.257596 85 83 68
-0.16747 0.235168 0.259319 82 107 65
-0.166524 0.235167 0.2595 67 125 59
-0.165777 0.235615 0.259554 45 115 45
-0.165029 0.236063 0.259609 47 116 44
-0.164346 0.236663 0.259621 65 120 55
-0.163725 0.237416 0.25959 75 120 64
-0.163039 0.238018 0.259602 80 114 62
-0.162352 0.238621 0.259614 89 116 72
-0.161602 0.239071 0.259669 90 99 81
-0.222845 0.199405 0.254928 91 101 72
-0.222214 0.199971 0.254936 129 173 88
-0.221693 0.200658 0.254898 121 194 99
-0.224686 0.213406 0.251742 107 175 79
-0.224254 0.214302 0.251645 112 177 81
-0.223463 0.214776 0.251702 117 181 84
-0.22279 0.215393 0.251708 120 185 86
-0.221415 0.215158 0.252022 123 189 89
-0.219822 0.214643 0.252434 128 194 91
-0.219039 0.215113 0.252491 133 201 95
-0.212443 0.224622 0.251848 90 159 73
-0.211751 0.225255 0.251854 94 164 77
-0.210949 0.225737 0.251912 101 171 82
-0.210256 0.226372 0.251918 111 178 87
-0.209453 0.226854 0.251976 121 187 93
-0.20865 0.227335 0.252035 126 194 96
-0.207847 0.227817 0.252093 129 197 97
-0.207044 0.228299 0.252151 131 199 98
-0.20624 0.228781 0.252209 131 200 97
-0.205333 0.229107 0.252319 132 200 95
-0.20453 0.229588 0.252377 132 200 95
-0.203728 0.23007 0.252436 130 200 98
-0.20262 0.230081 0.252648 128 198 98
-0.201517 0.230091 0.25286 122 191 95
-0.20032 0.229947 0.253121 112 178 88
-0.19923 0.229958 0.25333 98 160 76
-0.198242 0.230124 0.253488 85 146 67
-0.19745 0.230599 0.253545 78 143 66
-0.196562 0.230919 0.253653 72 139 64
-0.19577 0.231394 0.25371 50 110 45
-0.194979 0.231869 0.253767 35 98 34
-0.19428 0.232501 0.253775 50 107 49
-0.193488 0.232977 0.253832 71 150 71
-0.192695 0.233452 0.25389 57 126 54
-0.191994 0.234086 0.253898 45 116 49
-0.191201 0.234562 0.253955 46 115 47
-0.190408 0.235038 0.254013 54 121 47
-0.189525 0.235354 0.25412 55 127 52
-0.188555 0.235511 0.254276 62 133 55
-0.186979 0.23456 0.254774 65 138 55
-0.185767 0.234246 0.255072 68 141 55
-0.184648 0.234091 0.25532 68 141 55
-0.18362 0.234091 0.255519 69 144 60
-0.182433 0.233783 0.255812 71 148 66
-0.181498 0.233938 0.255961 54 125 50
-0.180645 0.234248 0.256064 43 119 43
-0.179873 0.234711 0.25612 66 130 51
-0.1791 0.235175 0.256176 70 136 60
-0.178406 0.235794 0.256186 64 128 55
-0.177633 0.236258 0.256242 60 125 50
-0.17686 0.236722 0.256298 73 140 61
-0.176086 0.237186 0.256354 99 151 79
-0.175238 0.237492 0.256456 105 135 80
-0.174391 0.237799 0.256558 98 107 72
-0.173472 0.237947 0.256707 91 89 71
-0.17241 0.237782 0.256946 85 81 69
-0.170788 0.23638 0.257543 84 81 66
-0.169473 0.235612 0.257953 86 82 66
-0.168377 0.235306 0.258227 86 88 64
-0.167558 0.235606 0.258325 82 111 63
-0.166607 0.235604 0.25851 64 126 56
-0.165726 0.235752 0.258651 44 116 43
-0.164977 0.236201 0.258705 49 117 43
-0.164292 0.236802 0.258717 67 120 54
-0.16367 0.237557 0.258685 75 119 62
-0.162982 0.238161 0.258696 79 113 62
-0.162293 0.238766 0.258707 83 112 69
-0.161541 0.239217 0.258762 88 96 76
-0.222605 0.199091 0.254159 93 105 75
-0.221864 0.199535 0.254213 130 181 93
-0.221233 0.2001 0.25422 118 197 105
-0.22498 0.212319 0.25097 110 175 82
-0.22372 0.212236 0.251234 110 174 80
-0.223523 0.213404 0.251032 116 178 82
-0.222735 0.213877 0.25109 119 182 85
-0.22125 0.21351 0.251456 122 187 87
-0.220237 0.213701 0.251616 127 191 89
-0.21934 0.214031 0.251723 131 197 92
-0.218332 0.214221 0.251882 135 202 94
-0.217551 0.21469 0.251938 136 203 95
-0.212983 0.223801 0.250958 100 162 74
-0.212182 0.224282 0.251016 94 161 73
-0.21138 0.224763 0.251074 93 161 72
-0.210797 0.22555 0.251027 94 163 75
-0.209994 0.226032 0.251085 98 170 80
-0.209299 0.226668 0.25109 105 178 86
-0.208495 0.22715 0.251149 113 185 91
-0.207585 0.227477 0.25126 120 189 94
-0.206782 0.227959 0.251318 126 194 97
-0.205874 0.228286 0.251429 129 197 97
-0.204967 0.228611 0.251539 130 198 97
-0.204062 0.228937 0.25165 131 199 96
-0.203056 0.229106 0.251812 129 197 95
-0.202054 0.229275 0.251974 124 191 92
-0.200856 0.229133 0.252238 116 182 88
-0.199863 0.2293 0.252398 107 173 83
-0.198873 0.229467 0.252558 97 164 80
-0.197983 0.229789 0.252666 91 155 74
-0.197191 0.230264 0.252723 84 146 69
-0.196303 0.230584 0.252831 72 140 67
-0.195511 0.231059 0.252889 57 110 50
-0.194814 0.231691 0.252896 44 100 43
-0.194021 0.232166 0.252953 54 109 53
-0.193229 0.232642 0.253011 75 151 70
-0.192528 0.233275 0.253018 60 126 54
-0.191826 0.233909 0.253025 45 111 47
-0.191032 0.234386 0.253082 43 110 41
-0.190238 0.234862 0.25314 51 113 47
-0.189355 0.235179 0.253248 53 124 50
-0.188384 0.235336 0.253405 58 128 50
-0.186809 0.234385 0.25391 62 132 53
-0.185596 0.234072 0.254212 63 134 55
-0.18456 0.234073 0.254415 64 138 54
-0.183613 0.234229 0.254569 65 140 58
-0.182587 0.23423 0.25477 68 145 63
-0.181567 0.23423 0.25497 55 124 50
-0.180631 0.234385 0.255121 43 116 43
-0.179857 0.23485 0.255177 67 128 50
-0.179082 0.235315 0.255233 69 139 60
-0.178308 0.235779 0.255289 61 130 55
-0.177533 0.236244 0.255346 56 124 49
-0.176759 0.236709 0.255402 59 132 51
-0.175908 0.237016 0.255505 84 155 68
-0.175135 0.237481 0.255561 110 166 82
-0.174212 0.23763 0.255711 120 154 83
-0.173365 0.237936 0.255814 111 120 83
-0.172302 0.237771 0.256057 101 101 78
-0.17082 0.236675 0.256573 97 94 71
-0.169639 0.236209 0.2569 97 92 69
-0.168401 0.235595 0.257269 94 101 69
-0.167444 0.235592 0.257457 85 121 67
-0.166558 0.235741 0.2576 62 127 56
-0.165741 0.236041 0.257699 43 116 43
-0.164924 0.23634 0.257798 52 118 44
-0.164237 0.236942 0.257808 71 121 54
-0.16355 0.237546 0.257819 75 117 60
-0.162797 0.237998 0.257873 77 111 60
-0.162108 0.238603 0.257884 79 106 65
-0.161417 0.239209 0.257894 87 97 71
-0.222145 0.198537 0.253484 94 104 74
-0.221624 0.19922 0.253444 134 186 96
-0.220884 0.199665 0.253498 118 197 109
-0.224014 0.211157 0.250467 110 174 80
-0.223114 0.21149 0.250576 113 176 80
-0.222564 0.212236 0.250529 119 183 84
-0.22178 0.212706 0.250586 122 185 87
-0.22065 0.21276 0.250798 125 189 89
-0.21964 0.212953 0.250958 128 194 91
-0.218634 0.213144 0.251117 132 198 93
-0.217854 0.213612 0.251174 139 203 94
-0.217074 0.21408 0.251231 138 203 95
-0.216406 0.214687 0.251236 137 202 97
-0.212722 0.223462 0.250126 116 181 83
-0.211921 0.223942 0.250184 112 177 81
-0.211119 0.224423 0.250243 110 172 80
-0.210535 0.22521 0.250194 105 168 80
-0.20984 0.225845 0.250198 98 167 78
-0.209037 0.226327 0.250256 97 168 75
-0.208233 0.226809 0.250315 99 169 77
-0.207429 0.227292 0.250373 102 172 82
-0.20652 0.227619 0.250485 108 179 88
-0.205612 0.227946 0.250596 115 185 92
-0.204602 0.228117 0.25076 122 190 94
-0.203595 0.228288 0.250924 124 190 94
-0.202592 0.228458 0.251088 121 186 91
-0.201492 0.228473 0.251302 116 183 86
-0.200398 0.228488 0.251516 108 175 82
-0.199505 0.22881 0.251626 101 165 80
-0.198614 0.229132 0.251735 96 157 77
-0.197724 0.229453 0.251844 92 152 74
-0.196932 0.229929 0.251901 86 145 71
-0.196044 0.230249 0.25201 80 139 65
-0.195252 0.230724 0.252068 78 135 62
-0.194554 0.231355 0.252074 76 129 56
-0.193762 0.231831 0.252131 89 132 60
-0.192969 0.232307 0.252189 84 155 72
-0.19236 0.233097 0.252144 66 131 57
-0.191566 0.233574 0.252201 52 111 51
-0.190863 0.234209 0.252207 48 107 40
-0.190068 0.234686 0.252265 48 108 46
-0.189184 0.235003 0.252374 50 115 49
-0.188213 0.23516 0.252533 56 121 48
-0.18681 0.234525 0.252945 59 127 53
-0.185509 0.234054 0.253301 60 132 56
-0.184388 0.233899 0.253556 61 136 57
-0.183524 0.234212 0.253662 63 138 59
-0.18266 0.234524 0.253768 67 146 64
-0.181799 0.234836 0.253873 51 123 50
-0.180858 0.234991 0.254027 38 114 40
-0.180079 0.235458 0.254084 63 126 52
-0.179301 0.235925 0.25414 67 140 62
-0.178523 0.236392 0.254197 60 131 55
-0.177666 0.236701 0.254301 54 122 48
-0.176889 0.237168 0.254358 55 126 50
-0.176034 0.237477 0.254462 63 138 54
-0.175031 0.237469 0.254663 83 155 67
-0.174106 0.237619 0.254815 104 174 86
-0.173185 0.237768 0.254966 121 177 95
