ply
format ascii 1.0
element vertex 1173
property float x
property float y
property float z
property uchar diffuse_red
property uchar diffuse_green
property uchar diffuse_blue
end_header
-0.253492 -0.0558879 0.199264 100 145 74
-0.253443 -0.0550004 0.199296 108 156 78
-0.253534 -0.0541293 0.199239 116 166 82
-0.269632 -0.0463286 0.188841 148 218 111
-0.269579 -0.0453613 0.188876 169 224 120
-0.270869 -0.0444658 0.188044 186 246 127
-0.271835 -0.0435416 0.18742 169 243 132
-0.272467 -0.0425932 0.187013 158 223 117
-0.27345 -0.0416516 0.186378 149 210 105
-0.274269 -0.0406946 0.18585 139 197 99
-0.274742 -0.0397197 0.185545 132 188 90
-0.275218 -0.0387399 0.185238 123 180 88
-0.275518 -0.0377523 0.185045 119 174 88
-0.276177 -0.0367659 0.184621 116 166 87
-0.276661 -0.0357716 0.184309 113 158 86
-0.277873 -0.0347738 0.183526 102 146 82
-0.283134 -0.0316849 0.180129 98 146 78
-0.306215 -0.0129588 0.16523 123 173 91
-0.306392 -0.0117895 0.165117 122 175 91
-0.306329 -0.0106435 0.165159 121 176 92
-0.306988 -0.00941865 0.164734 118 179 89
-0.307895 -0.00815852 0.164149 121 184 91
-0.308564 -0.00691768 0.163718 122 191 94
-0.308746 -0.00573112 0.163602 127 196 95
-0.309174 -0.0045105 0.163326 130 192 99
-0.309111 -0.00335216 0.163368 126 179 101
-0.309294 -0.00215975 0.163251 146 172 123
-0.30923 -0.0010014 0.163294 163 179 158
-0.258236 -0.067427 0.195104 165 170 154
-0.258186 -0.0665101 0.195138 143 161 140
-0.258136 -0.0655937 0.195171 109 139 105
-0.258086 -0.0646778 0.195205 94 125 73
-0.25789 -0.0637381 0.195334 90 126 69
-0.257548 -0.0627771 0.195558 89 126 69
-0.257062 -0.0617972 0.195876 90 126 68
-0.256579 -0.0608225 0.196193 89 128 71
-0.255954 -0.0598324 0.196601 89 129 68
-0.255192 -0.0588292 0.197099 89 132 67
-0.254577 -0.0578537 0.197502 91 133 66
-0.254246 -0.0569214 0.197719 94 136 69
-0.253777 -0.0559751 0.198026 100 144 75
-0.253728 -0.055084 0.198059 109 156 77
-0.25424 -0.0542576 0.197725 116 165 81
-0.268684 -0.0462965 0.188309 193 252 132
-0.268797 -0.0453413 0.188237 173 247 146
-0.269243 -0.0444027 0.187947 164 223 120
-0.270363 -0.0434919 0.187217 151 210 106
-0.271156 -0.0425557 0.1867 137 196 98
-0.271957 -0.0416116 0.186179 131 186 92
-0.272764 -0.0406595 0.185653 126 181 88
-0.273231 -0.0396896 0.18535 121 176 86
-0.273525 -0.0387111 0.185159 116 168 88
-0.273996 -0.0377326 0.184853 108 160 83
-0.275 -0.0367559 0.184199 100 147 80
-0.276194 -0.0357703 0.183421 98 136 77
-0.305263 -0.0141447 0.164477 120 177 93
-0.3052 -0.0130011 0.164519 121 177 95
-0.305376 -0.0118342 0.164405 122 175 93
-0.305791 -0.0106403 0.164136 123 176 90
-0.306449 -0.00941534 0.163708 123 181 88
-0.307353 -0.00815514 0.163119 125 189 94
-0.308021 -0.00691421 0.162685 125 193 96
-0.308203 -0.00572755 0.162568 131 197 100
-0.308384 -0.00453896 0.16245 129 187 99
-0.308567 -0.00334843 0.162333 126 177 109
-0.308749 -0.00215594 0.162215 151 177 143
-0.308686 -0.000997507 0.162257 168 179 164
-0.257763 -0.0665111 0.194331 154 165 148
-0.257859 -0.0656204 0.194269 126 149 120
-0.257663 -0.0646787 0.194399 99 128 86
-0.257613 -0.0637632 0.194433 90 124 76
-0.257271 -0.0628013 0.194659 89 124 73
-0.256931 -0.061843 0.194884 89 124 71
-0.256303 -0.0608448 0.195298 88 125 70
-0.255679 -0.0598537 0.19571 88 127 69
-0.25506 -0.0588695 0.19612 88 130 68
-0.254444 -0.0578922 0.196526 90 132 69
-0.254113 -0.0569583 0.196745 93 135 70
-0.253924 -0.0560454 0.196871 100 142 73
-0.253875 -0.0551514 0.196904 108 154 75
-0.254107 -0.0542901 0.196751 118 165 81
-0.267959 -0.0472387 0.187636 172 239 139
-0.267906 -0.046275 0.187672 165 223 115
-0.268018 -0.0453214 0.187599 147 209 106
-0.268296 -0.0443755 0.187417 138 194 99
-0.26874 -0.0434348 0.187126 133 185 93
-0.26902 -0.0424824 0.186942 126 181 91
-0.269804 -0.0415462 0.186427 121 175 89
-0.270595 -0.0406023 0.185907 117 170 87
-0.270882 -0.0396362 0.185719 108 161 84
-0.272371 -0.0386943 0.184739 97 147 79
-0.273535 -0.0377315 0.183974 94 138 75
-0.275246 -0.0367635 0.182848 95 138 75
-0.304315 -0.0153263 0.163726 121 178 94
-0.304253 -0.0141844 0.163768 122 177 95
-0.304427 -0.0130206 0.163655 124 178 94
-0.304602 -0.0118549 0.163541 122 178 93
-0.305254 -0.0106371 0.163113 122 179 91
-0.30567 -0.00943861 0.16284 122 187 91
-0.306812 -0.00815174 0.162089 125 192 95
-0.307478 -0.00691072 0.161651 129 196 98
-0.307659 -0.00572398 0.161534 136 195 101
-0.307841 -0.00453532 0.161415 132 183 98
-0.308022 -0.00334469 0.161297 137 174 116
-0.308205 -0.00215213 0.161178 156 179 157
-0.257485 -0.0665386 0.193427 161 166 152
-0.257582 -0.0656472 0.193364 147 161 141
-0.257532 -0.0647297 0.193398 122 142 115
-0.257336 -0.0637883 0.19353 102 128 92
-0.256994 -0.0628254 0.193758 93 125 83
-0.256509 -0.0618437 0.194081 91 123 77
-0.256027 -0.0608672 0.194403 89 123 74
-0.255404 -0.0598751 0.194818 89 124 73
-0.254784 -0.05889 0.195231 87 126 72
-0.254169 -0.0579118 0.195641 89 127 72
-0.253979 -0.0569954 0.195768 91 132 70
-0.25379 -0.0560809 0.195895 96 139 72
-0.253741 -0.0551853 0.195928 105 149 74
-0.253693 -0.0542902 0.195961 115 161 80
-0.253784 -0.053411 0.195901 120 169 85
-0.260201 -0.0513487 0.191638 146 207 105
-0.260151 -0.0504214 0.191672 155 223 112
-0.266856 -0.0471932 0.187218 145 207 104
-0.266967 -0.0462432 0.187145 138 194 95
-0.267406 -0.0453112 0.186855 131 186 93
-0.267518 -0.0443573 0.186782 125 180 90
-0.267794 -0.0434101 0.186599 124 176 90
-0.267907 -0.042453 0.186525 123 174 91
-0.268185 -0.041501 0.186341 116 166 87
-0.268298 -0.0405406 0.186267 102 149 78
-0.269919 -0.0396211 0.18519 96 138 75
-0.270884 -0.03867 0.18455 94 139 73
-0.30378 -0.0153235 0.162707 122 179 95
-0.303718 -0.0141815 0.162749 125 178 92
-0.303892 -0.0130176 0.162635 123 177 93
-0.304066 -0.0118518 0.16252 123 178 95
-0.304716 -0.0106339 0.162089 121 182 89
-0.305131 -0.00943531 0.161815 125 191 92
-0.306271 -0.00814835 0.161058 126 197 96
-0.306935 -0.00690724 0.160618 136 202 100
-0.307116 -0.00572042 0.160499 136 194 100
-0.307297 -0.00453167 0.16038 129 180 103
-0.307478 -0.00334097 0.160261 149 172 128
-0.30766 -0.0021483 0.160141 163 176 160
-0.257304 -0.065674 0.192458 164 173 153
-0.257254 -0.0647557 0.192493 152 166 147
-0.257058 -0.0638134 0.192625 137 152 125
-0.256717 -0.0628497 0.192855 120 140 107
-0.256232 -0.061867 0.193181 104 129 96
-0.25575 -0.0608896 0.193505 96 125 86
-0.255127 -0.0598966 0.193924 92 123 79
-0.254509 -0.0589105 0.19434 88 122 75
-0.254035 -0.0579505 0.194659 88 123 74
-0.253564 -0.0569957 0.194976 90 127 72
-0.253515 -0.0560989 0.19501 92 133 72
-0.253467 -0.0552025 0.195043 99 144 74
-0.253418 -0.0543066 0.195077 109 156 78
-0.259469 -0.05132 0.19102 141 199 101
-0.259419 -0.0503942 0.191055 148 212 107
-0.259821 -0.0495072 0.190786 150 212 105
-0.265975 -0.0481176 0.186658 134 192 94
-0.265762 -0.047148 0.186803 127 186 91
-0.266195 -0.0462219 0.186513 126 182 89
-0.266468 -0.0452819 0.186331 124 178 89
-0.266742 -0.0443391 0.186148 121 176 92
-0.26669 -0.0433776 0.186184 120 174 91
-0.266801 -0.0424238 0.18611 121 169 91
-0.267077 -0.041475 0.185926 101 147 82
-0.267518 -0.0405288 0.185631 95 140 72
-0.268127 -0.0395828 0.185223 101 146 75
-0.303244 -0.0153206 0.161688 123 179 92
-0.303182 -0.0141785 0.16173 123 178 93
-0.303592 -0.0129919 0.161457 125 180 94
-0.303766 -0.0118248 0.161341 122 179 94
-0.304179 -0.0106306 0.161066 123 185 89
-0.304593 -0.00943201 0.160789 127 195 97
-0.305489 -0.00817298 0.160189 129 199 99
-0.30615 -0.00693321 0.159747 136 204 102
-0.306573 -0.00571686 0.159465 131 190 100
-0.306753 -0.00452801 0.159345 131 176 111
-0.306934 -0.00333723 0.159225 155 177 148
-0.306871 -0.0021792 0.159268 169 180 166
-0.256975 -0.0647817 0.191585 166 173 156
-0.256925 -0.063863 0.19162 164 171 151
-0.256439 -0.062874 0.191951 156 166 143
-0.255955 -0.0618903 0.192279 144 156 131
-0.255473 -0.060912 0.192607 132 146 113
-0.254708 -0.0598971 0.193126 113 135 99
-0.254091 -0.058911 0.193544 99 126 90
-0.253759 -0.0579702 0.19377 92 123 82
-0.253288 -0.0570145 0.19409 89 123 77
-0.2531 -0.0560991 0.194218 88 126 73
-0.253051 -0.0552027 0.194252 93 135 71
-0.253003 -0.0543067 0.194286 102 146 75
-0.253094 -0.0534267 0.194225 113 160 82
-0.25929 -0.0504211 0.190033 132 186 93
-0.264618 -0.0489997 0.186426 128 183 93
-0.265047 -0.0480813 0.186137 126 179 90
-0.264834 -0.0471142 0.186282 122 178 87
-0.265104 -0.0461801 0.1861 123 176 88
-0.265697 -0.0452622 0.185699 124 176 92
-0.265807 -0.0443122 0.185626 122 173 90
-0.26608 -0.043369 0.185442 121 173 90
-0.266191 -0.0424159 0.185368 111 161 88
-0.266302 -0.0414616 0.185294 100 147 77
-0.266576 -0.0405116 0.185109 100 150 78
-0.292724 -0.0260373 0.167418 121 174 88
-0.292665 -0.024944 0.167459 123 175 91
-0.292606 -0.0238513 0.167501 124 176 89
-0.292547 -0.0227592 0.167542 124 178 93
-0.29356 -0.0216034 0.166857 124 179 93
-0.302709 -0.0153177 0.160668 125 179 92
-0.302882 -0.0141542 0.160552 124 180 95
-0.303056 -0.0129889 0.160436 126 181 94
-0.30323 -0.0118217 0.160319 122 182 91
-0.303641 -0.0106274 0.160042 126 191 92
-0.304054 -0.00942871 0.159764 129 199 100
-0.304948 -0.0081696 0.15916 135 205 102
-0.305366 -0.00695911 0.158877 137 202 104
-0.305787 -0.00574405 0.158594 129 183 103
-0.306209 -0.00452437 0.158309 142 175 121
-0.306389 -0.00333351 0.158188 164 182 159
-0.255532 -0.061891 0.191475 160 167 153
-0.255195 -0.0609344 0.191706 150 162 144
-0.254289 -0.0598976 0.192327 143 153 132
-0.253673 -0.0589115 0.192748 134 146 122
-0.253483 -0.0579898 0.192879 118 138 107
-0.253153 -0.0570517 0.193106 101 129 95
-0.252684 -0.0560994 0.193427 91 123 83
-0.252636 -0.0552029 0.193461 90 125 73
-0.252587 -0.0543069 0.193495 95 135 71
-0.252679 -0.0534268 0.193433 106 151 77
-0.264231 -0.0471027 0.185545 121 173 87
-0.264339 -0.046159 0.185472 120 173 88
-0.264608 -0.0452236 0.18529 121 175 92
-0.264877 -0.0442856 0.185107 121 175 90
-0.265309 -0.0433525 0.184812 120 173 90
-0.265581 -0.0424081 0.184627 108 159 87
-0.265692 -0.0414546 0.184553 103 153 78
-0.266128 -0.0405107 0.184255 106 155 79
-0.292331 -0.0282237 0.166362 116 174 91
-0.291423 -0.0271582 0.166984 120 175 91
-0.291153 -0.0260769 0.167169 122 178 91
-0.291517 -0.0249702 0.166922 122 176 90
-0.291458 -0.0238807 0.166963 124 179 92
-0.291611 -0.0227802 0.16686 122 180 92
-0.291977 -0.0216652 0.16661 125 184 95
-0.292559 -0.0205324 0.166214 123 183 97
-0.292929 -0.0194085 0.165962 123 182 96
-0.302173 -0.0153148 0.159649 125 181 92
-0.302346 -0.0141512 0.159532 125 179 92
-0.302519 -0.0129858 0.159415 124 182 91
-0.302693 -0.0118186 0.159297 123 187 91
-0.303103 -0.0106242 0.159018 131 197 96
-0.303515 -0.0094254 0.158738 134 203 103
-0.304407 -0.0081662 0.15813 137 207 105
-0.304824 -0.00695564 0.157846 134 194 103
-0.305244 -0.00574049 0.15756 127 179 111
-0.305665 -0.00452072 0.157274 149 179 141
-0.305845 -0.00332977 0.157152 164 178 163
-0.254774 -0.0609351 0.190903 161 169 155
-0.254011 -0.0599191 0.19143 163 169 152
-0.253396 -0.058932 0.191855 158 166 147
-0.253065 -0.0579902 0.192084 150 161 139
-0.252596 -0.0570336 0.192408 141 153 128
-0.252268 -0.0560997 0.192635 124 141 111
-0.25222 -0.0552031 0.192669 103 131 95
-0.252172 -0.0543071 0.192704 91 128 80
-0.252263 -0.0534269 0.192642 94 135 73
-0.263628 -0.0470912 0.18481 118 169 85
-0.263577 -0.046138 0.184847 119 170 87
-0.263844 -0.0452042 0.184664 119 172 90
-0.264111 -0.0442676 0.18448 121 175 91
-0.26438 -0.0433283 0.184295 124 174 91
-0.264811 -0.0423932 0.183999 110 161 86
-0.265082 -0.0414475 0.183813 107 157 81
-0.265355 -0.040499 0.183626 110 158 82
-0.265628 -0.0395477 0.183439 111 161 83
-0.289563 -0.0293722 0.166943 120 176 91
-0.289505 -0.028289 0.166984 119 176 90
-0.289655 -0.0271992 0.166882 120 176 89
-0.290223 -0.0260914 0.16649 123 177 90
-0.290375 -0.0249962 0.166387 123 179 91
-0.290737 -0.023889 0.166138 122 183 92
-0.290889 -0.0227895 0.166034 123 186 94
-0.291042 -0.0216884 0.16593 126 188 97
-0.29162 -0.0205579 0.165533 126 187 97
-0.291987 -0.0194361 0.165281 127 184 96
-0.301638 -0.0153119 0.158629 124 182 94
-0.301576 -0.0141696 0.158673 123 182 94
-0.301983 -0.0129828 0.158394 123 183 92
-0.302156 -0.0118154 0.158275 126 190 94
-0.302565 -0.010621 0.157994 135 205 102
-0.302976 -0.0094221 0.157712 142 210 105
-0.303389 -0.0082187 0.157429 140 206 105
-0.304043 -0.0069815 0.156979 131 188 102
-0.30446 -0.00576763 0.156692 139 177 118
-0.304879 -0.00454915 0.156405 156 181 157
-0.3053 -0.00332604 0.156115 167 181 168
-0.252368 -0.0579522 0.191483 164 170 152
-0.25218 -0.0570339 0.191615 162 168 148
-0.251853 -0.0561 0.191844 153 168 145
-0.251805 -0.0552034 0.191878 140 161 135
-0.263026 -0.0470797 0.184076 110 155 79
-0.262975 -0.0461273 0.184113 117 164 83
-0.263082 -0.0451848 0.184039 118 169 88
-0.263348 -0.0442498 0.183855 121 172 89
-0.263775 -0.0433198 0.183559 127 175 93
-0.263884 -0.0423714 0.183484 112 168 91
-0.264474 -0.0414405 0.183074 109 164 85
-0.264745 -0.0404928 0.182886 112 165 85
-0.265018 -0.0395422 0.182698 115 165 83
-0.265291 -0.0385888 0.182509 116 166 86
-0.288287 -0.0304697 0.166513 120 174 90
-0.288229 -0.0293901 0.166554 122 175 92
-0.288171 -0.0283111 0.166596 123 178 90
-0.288733 -0.0272115 0.166206 122 178 91
-0.28909 -0.026114 0.165959 123 181 89
-0.289657 -0.0250035 0.165565 123 187 92
-0.289808 -0.0239077 0.165461 132 194 95
-0.290169 -0.0227988 0.165211 143 205 103
-0.290532 -0.021686 0.164959 147 213 107
-0.291109 -0.0205554 0.164559 145 207 105
-0.301102 -0.015309 0.15761 123 182 95
-0.301041 -0.0141667 0.157654 124 184 93
-0.301213 -0.0130023 0.157535 124 188 93
-0.301385 -0.0118362 0.157416 136 198 99
-0.301792 -0.010643 0.157134 139 211 108
-0.301966 -0.0094718 0.157014 143 213 108
-0.302612 -0.00824317 0.156566 138 200 105
-0.303263 -0.0070073 0.156114 128 181 107
-0.303678 -0.00579471 0.155826 154 180 135
-0.304095 -0.00457752 0.155537 169 181 163
-0.262583 -0.0470793 0.183233 95 134 71
-0.26269 -0.046137 0.183159 106 151 78
-0.262639 -0.0451842 0.183195 115 165 86
-0.262905 -0.0442491 0.18301 122 171 88
-0.26333 -0.0433191 0.182712 125 176 92
-0.263439 -0.0423707 0.182637 120 179 96
-0.263387 -0.0414149 0.182674 115 167 87
-0.263976 -0.0404811 0.182261 117 171 88
-0.26457 -0.0395412 0.181845 120 170 87
-0.264842 -0.0385878 0.181655 120 171 88
-0.286818 -0.0315619 0.166229 121 174 90
-0.28676 -0.0304871 0.166271 122 178 91
-0.28711 -0.029403 0.166026 122 177 92
-0.287462 -0.0283152 0.16578 126 179 90
-0.287609 -0.0272308 0.165678 124 180 91
-0.288169 -0.0261284 0.165285 126 186 91
-0.288525 -0.0250293 0.165036 137 203 100
-0.289091 -0.0239159 0.16464 164 228 116
-0.289242 -0.0228196 0.164535 163 237 120
-0.289392 -0.0217217 0.164431 161 240 120
-0.290809 -0.020539 0.163437 162 234 118
-0.300567 -0.0153062 0.15659 123 184 95
-0.300505 -0.0141637 0.156634 125 187 92
-0.300677 -0.0129993 0.156515 126 196 96
-0.300849 -0.011833 0.156395 150 218 113
-0.301021 -0.0106649 0.156275 160 221 116
-0.301428 -0.00946851 0.15599 149 210 107
-0.301837 -0.0082676 0.155704 134 190 102
-0.302011 -0.00709128 0.155583 133 176 115
-0.30266 -0.00585223 0.155129 159 180 153
-0.303074 -0.00463771 0.154839 172 182 167
-0.262298 -0.0470899 0.182277 89 125 71
-0.262247 -0.0461366 0.182314 95 135 71
-0.262354 -0.0451931 0.18224 110 156 78
-0.262461 -0.0442485 0.182165 118 170 87
-0.262886 -0.0433184 0.181865 124 178 90
-0.262993 -0.0423699 0.181789 131 186 94
-0.263421 -0.0414326 0.181487 121 175 89
-0.26353 -0.0404802 0.181411 118 174 88
-0.264122 -0.0395403 0.180992 119 174 90
-0.264555 -0.0385905 0.180686 119 173 90
-0.28496 -0.0326476 0.166232 121 174 93
-0.284903 -0.0315794 0.166274 123 175 88
-0.285449 -0.0305005 0.165888 122 180 90
-0.2862 -0.029411 0.165357 122 178 91
-0.286346 -0.0283312 0.165255 123 179 90
-0.2869 -0.0272358 0.164863 126 186 91
-0.287047 -0.0261508 0.16476 142 202 98
-0.287606 -0.0250457 0.164365 156 236 123
-0.287961 -0.0239449 0.164114 168 248 133
-0.28811 -0.0228519 0.16401 187 253 135
-0.288467 -0.0217446 0.163758 170 240 121
-0.300031 -0.0153033 0.15557 126 186 94
-0.29997 -0.0141607 0.155614 126 192 94
-0.299908 -0.0130188 0.155659 146 202 104
-0.300312 -0.0118299 0.155374 155 222 126
-0.300484 -0.0106617 0.155253 158 229 131
-0.300656 -0.00949162 0.155132 144 204 107
-0.300829 -0.00831967 0.155011 130 183 104
-0.301236 -0.00711686 0.154723 148 177 127
-0.30141 -0.00593985 0.154601 165 180 159
-0.269704 -0.0565612 0.175812 157 168 153
-0.26931 -0.0555259 0.176095 141 160 134
-0.269257 -0.0545312 0.176134 109 136 98
-0.269203 -0.0535371 0.176172 96 129 86
-0.26915 -0.0525435 0.176211 93 128 84
-0.262328 -0.0471228 0.181094 85 122 73
-0.261961 -0.0461463 0.181357 85 126 68
-0.262068 -0.045202 0.181282 100 148 74
-0.262175 -0.0442565 0.181206 113 167 85
-0.262599 -0.0433255 0.180904 121 175 89
-0.262707 -0.0423762 0.180828 131 186 93
-0.263135 -0.041438 0.180523 127 185 94
-0.263404 -0.0404901 0.180331 121 176 88
-0.263674 -0.0395393 0.180139 121 176 88
-0.264106 -0.0385894 0.179831 120 174 90
-0.264704 -0.037638 0.179404 120 174 87
-0.284062 -0.0326493 0.165568 124 176 91
-0.284005 -0.0315832 0.165609 124 177 88
-0.284347 -0.0305101 0.165366 122 180 90
-0.284891 -0.0294286 0.164978 125 179 90
-0.285641 -0.0283353 0.164443 124 182 90
-0.285786 -0.027255 0.16434 128 195 94
-0.286135 -0.026165 0.164092 151 224 112
-0.286486 -0.0250713 0.163842 156 236 119
-0.287043 -0.0239635 0.163445 180 246 127
-0.287397 -0.0228611 0.163193 176 242 129
-0.287546 -0.0217674 0.163087 151 218 110
-0.288735 -0.0206035 0.162238 143 202 103
-0.299495 -0.0153004 0.15455 126 191 95
-0.299434 -0.0141578 0.154594 134 200 99
-0.299373 -0.0130158 0.154639 152 223 118
-0.299543 -0.0118506 0.154518 169 231 126
-0.299714 -0.0106836 0.154397 155 219 122
-0.299886 -0.0095147 0.154275 135 193 104
-0.300058 -0.00834393 0.154154 131 178 112
-0.30023 -0.00717129 0.154032 155 178 147
-0.300636 -0.00596656 0.153742 169 178 162
-0.268848 -0.055526 0.175215 155 170 149
-0.268795 -0.0545313 0.175254 125 148 123
-0.268742 -0.0535371 0.175294 103 128 93
-0.268689 -0.0525434 0.175333 95 129 85
-0.262358 -0.0471558 0.179905 87 121 75
-0.261832 -0.0461663 0.180285 84 122 68
-0.261781 -0.0452109 0.180323 94 140 70
-0.262047 -0.0442732 0.180132 109 159 81
-0.262313 -0.0433327 0.179941 120 172 88
-0.262739 -0.0423965 0.179634 127 180 92
-0.263007 -0.0414496 0.179442 135 190 97
-0.263116 -0.0404946 0.179364 124 181 91
-0.263386 -0.0395429 0.17917 121 177 91
-0.263657 -0.0385884 0.178975 121 175 90
-0.264253 -0.0376369 0.178546 122 174 89
-0.265182 -0.0366832 0.177877 123 175 89
-0.283366 -0.0326494 0.164763 124 176 90
-0.283111 -0.031587 0.164947 124 178 91
-0.283451 -0.0305159 0.164703 123 178 87
-0.283792 -0.0294412 0.164458 123 179 89
-0.284134 -0.0283629 0.164212 126 185 90
-0.28488 -0.027267 0.163675 153 203 104
-0.285227 -0.0261791 0.163426 153 230 123
-0.285575 -0.0250875 0.163176 161 235 122
-0.285924 -0.0239922 0.162925 167 239 129
-0.28648 -0.0228817 0.162525 151 213 110
-0.286833 -0.0217776 0.162271 135 191 98
-0.288017 -0.0206148 0.161418 128 183 98
-0.298728 -0.0153176 0.153696 130 201 96
-0.298668 -0.0141761 0.153741 146 219 107
-0.298837 -0.0130127 0.153619 154 231 122
-0.299007 -0.0118475 0.153498 165 242 137
-0.299178 -0.0106804 0.153376 148 208 113
-0.299117 -0.00953772 0.153421 129 185 106
-0.29952 -0.00834057 0.153131 146 177 125
-0.299459 -0.0071967 0.153176 165 180 157
-0.268503 -0.0545495 0.174252 146 164 142
-0.26845 -0.0535544 0.174291 113 140 108
-0.268397 -0.0525597 0.174331 98 130 89
-0.268684 -0.0515967 0.174123 95 127 87
-0.261861 -0.0461968 0.179094 84 122 70
-0.26181 -0.0452387 0.179132 89 130 67
-0.261918 -0.0442899 0.179054 104 151 76
-0.262343 -0.0433556 0.178745 117 167 86
-0.262611 -0.0424098 0.178551 125 176 92
-0.26272 -0.041455 0.178473 134 187 98
-0.262989 -0.0405045 0.178278 130 191 101
-0.263259 -0.0395511 0.178082 125 179 93
-0.263692 -0.0385986 0.177768 122 178 92
-0.26429 -0.0376445 0.177333 123 178 91
-0.264729 -0.036682 0.177015 124 177 90
-0.282868 -0.0326478 0.163815 125 176 90
-0.282614 -0.0315853 0.164001 124 178 91
-0.282558 -0.0305217 0.164043 125 180 89
-0.282698 -0.0294538 0.163942 123 182 88
-0.283038 -0.0283786 0.163696 128 189 92
-0.283379 -0.0272998 0.163449 160 219 111
-0.284322 -0.0261932 0.162763 163 228 118
-0.284668 -0.0251037 0.162512 158 229 124
-0.285015 -0.0240105 0.162261 147 212 108
-0.285567 -0.0229022 0.16186 133 189 97
-0.286122 -0.0217878 0.161457 126 180 93
-0.287508 -0.0206124 0.160449 124 177 93
-0.297566 -0.0165134 0.153131 132 191 100
-0.297506 -0.0153748 0.153177 157 218 111
-0.297903 -0.0141944 0.152889 158 227 115
-0.298072 -0.0130322 0.152767 162 234 117
-0.298471 -0.0118444 0.152477 154 225 121
-0.298641 -0.0106772 0.152354 137 194 105
-0.298581 -0.00953444 0.152399 132 177 116
-0.298751 -0.00836479 0.152276 153 178 149
-0.29869 -0.00722206 0.152322 166 179 165
-0.26838 -0.0545861 0.173123 161 170 152
-0.268327 -0.053589 0.173162 135 152 129
-0.268274 -0.0525925 0.173202 107 134 99
-0.268221 -0.0515966 0.173242 100 129 89
-0.262687 -0.0462796 0.177311 87 122 75
-0.261998 -0.0452763 0.177817 87 123 68
-0.261947 -0.0443154 0.177856 96 139 72
-0.262214 -0.0433707 0.17766 111 160 84
-0.262482 -0.0424232 0.177464 120 173 91
-0.262752 -0.041473 0.177267 129 181 95
-0.262861 -0.0405144 0.177188 136 195 102
-0.263293 -0.0395639 0.176871 130 186 98
-0.263565 -0.0386051 0.176672 124 180 94
-0.264164 -0.0376492 0.176234 122 179 93
-0.264603 -0.036685 0.175912 122 179 92
-0.265209 -0.0357174 0.175468 123 178 92
-0.28192 -0.0315863 0.163199 124 179 91
-0.281864 -0.0305237 0.163242 123 180 88
-0.282004 -0.0294568 0.163139 122 184 87
-0.282145 -0.0283884 0.163037 127 194 93
-0.282483 -0.0273117 0.16279 142 210 103
-0.282823 -0.0262312 0.162541 154 219 109
-0.283564 -0.0251289 0.161998 147 212 109
-0.284109 -0.0240287 0.161599 133 191 99
-0.284859 -0.0229112 0.161049 126 180 93
-0.285412 -0.0217979 0.160644 125 178 92
-0.286585 -0.0206374 0.159783 124 175 92
-0.297032 -0.0165106 0.152115 129 187 104
-0.296972 -0.0153719 0.15216 166 235 133
-0.297368 -0.0141915 0.15187 177 243 129
-0.297536 -0.0130292 0.151748 171 236 121
-0.297935 -0.0118412 0.151456 146 207 109
-0.298105 -0.010674 0.151332 129 184 107
-0.298044 -0.00953115 0.151378 147 177 131
-0.297983 -0.00838896 0.151423 164 180 162
-0.298153 -0.0072186 0.1513 168 180 170
-0.268203 -0.0536239 0.172029 156 167 149
-0.268151 -0.0526255 0.172069 127 148 126
-0.268098 -0.0516276 0.172109 110 130 97
-0.268045 -0.0506303 0.172149 102 130 91
-0.266205 -0.0475223 0.173515 96 124 84
-0.262718 -0.0463106 0.1761 93 122 80
-0.262187 -0.0453142 0.176494 87 120 72
-0.262136 -0.0443497 0.176533 90 129 69
-0.262245 -0.0433938 0.176453 105 149 79
-0.262353 -0.0424367 0.176373 116 168 87
-0.262623 -0.0414847 0.176174 122 177 91
-0.262894 -0.0405299 0.175975 133 191 98
-0.263165 -0.0395722 0.175774 136 193 102
-0.263762 -0.0386192 0.175333 127 185 96
-0.2642 -0.0376569 0.175009 122 183 94
-0.264477 -0.036688 0.174805 123 181 91
-0.264754 -0.0357161 0.174601 124 178 91
-0.281424 -0.0315847 0.162254 124 181 90
-0.281368 -0.030522 0.162296 120 181 90
-0.281311 -0.0294598 0.162339 121 185 89
-0.281451 -0.0283924 0.162236 123 194 93
-0.281591 -0.0273235 0.162133 131 205 98
-0.281929 -0.0262451 0.161884 140 208 102
-0.282268 -0.025163 0.161634 137 197 99
-0.283006 -0.0240571 0.161088 127 182 96
-0.284355 -0.022909 0.160089 124 176 94
-0.284907 -0.0217956 0.159682 124 174 91
-0.286077 -0.020635 0.158816 122 171 93
-0.287261 -0.019461 0.157939 122 173 92
-0.296726 -0.016489 0.15093 126 182 99
-0.296665 -0.0153491 0.150975 154 219 118
-0.297061 -0.0141672 0.150683 167 232 122
-0.29723 -0.0130036 0.150559 156 218 115
-0.297399 -0.0118381 0.150435 137 190 104
-0.297568 -0.0106708 0.150311 136 174 118
-0.297507 -0.00952787 0.150356 159 177 152
-0.297447 -0.00838558 0.150402 173 180 165
-0.268027 -0.0526586 0.170932 150 165 146
-0.267634 -0.0516275 0.171226 121 144 115
-0.267582 -0.0506301 0.171267 107 132 98
-0.26736 -0.0496194 0.171433 104 132 94
-0.26697 -0.0485982 0.171726 103 128 92
-0.265414 -0.0474982 0.172889 100 127 89
-0.264047 -0.0464271 0.173912 96 126 86
-0.262217 -0.0453426 0.175281 90 123 81
-0.262166 -0.0443755 0.17532 87 124 69
-0.262115 -0.043409 0.175359 98 138 71
-0.262384 -0.0424573 0.175158 110 160 81
-0.262494 -0.0414965 0.175077 119 172 87
-0.262926 -0.0405454 0.174755 127 183 94
-0.263361 -0.0395897 0.174431 137 195 102
-0.263798 -0.0386295 0.174105 133 195 103
-0.264073 -0.0376617 0.1739 123 186 95
-0.26435 -0.036691 0.173694 122 183 92
-0.264627 -0.0357173 0.173487 122 179 91
-0.26557 -0.0347421 0.172784 124 180 92
-0.280927 -0.031583 0.161308 126 181 91
-0.280871 -0.0305202 0.161351 122 180 88
-0.280815 -0.029458 0.161393 118 181 86
-0.280759 -0.0283963 0.161436 121 192 90
-0.280898 -0.0273284 0.161333 126 200 94
-0.281038 -0.0262589 0.161229 130 199 97
-0.281375 -0.025179 0.160979 128 188 94
-0.281713 -0.0240953 0.160727 124 179 94
-0.28365 -0.022918 0.15928 122 171 94
-0.284401 -0.0217932 0.158719 107 159 88
-0.285774 -0.0206188 0.157694 101 151 85
-0.28675 -0.0194584 0.156966 111 160 84
-0.293779 -0.0178184 0.151713 121 172 91
-0.296191 -0.0164862 0.149912 123 177 96
-0.296586 -0.015306 0.149617 137 193 102
-0.296754 -0.0141429 0.149493 142 201 106
-0.296694 -0.0130005 0.149539 137 192 102
-0.297092 -0.0118111 0.149243 132 180 108
-0.297031 -0.0106676 0.149289 151 179 139
-0.296971 -0.00952459 0.149335 166 179 161
-0.267732 -0.0526751 0.169919 165 176 157
-0.267679 -0.0516744 0.16996 142 160 137
-0.267287 -0.0506446 0.170256 116 140 109
-0.266897 -0.0496191 0.170552 107 135 99
-0.26634 -0.048585 0.170972 105 131 97
-0.264956 -0.0474978 0.172017 104 131 94
-0.264082 -0.046459 0.172677 99 129 91
-0.262408 -0.0453809 0.17394 96 125 87
-0.262196 -0.0444015 0.174101 88 122 75
-0.262145 -0.0434324 0.17414 91 127 68
-0.262415 -0.0424781 0.173937 105 148 75
-0.262848 -0.0415273 0.173611 116 166 86
-0.263121 -0.0405665 0.173406 123 175 92
-0.263395 -0.0396028 0.173201 131 187 98
-0.26367 -0.0386361 0.172994 138 198 103
-0.263946 -0.0376665 0.172787 133 195 99
-0.264223 -0.036694 0.172579 125 186 94
-0.264666 -0.0357197 0.172246 123 181 92
-0.265111 -0.0347407 0.17191 123 181 91
-0.280626 -0.0315787 0.160215 125 180 91
-0.280374 -0.0305185 0.160405 119 179 87
-0.280318 -0.0294562 0.160448 113 179 84
-0.280262 -0.0283945 0.160491 115 187 85
-0.280207 -0.0273333 0.160534 121 191 90
-0.280346 -0.0262648 0.16043 124 189 94
-0.280877 -0.0251769 0.160031 126 182 93
-0.281017 -0.0241032 0.159926 125 176 93
-0.283146 -0.0229158 0.158321 112 161 90
-0.284098 -0.0217783 0.157604 92 140 77
-0.28547 -0.0206026 0.156571 86 133 71
-0.286239 -0.0194559 0.155992 100 151 76
-0.286596 -0.0183329 0.155724 118 171 90
-0.296278 -0.015283 0.148426 127 179 96
-0.296218 -0.01414 0.148472 129 181 98
-0.296158 -0.0129975 0.148518 127 179 103
-0.296555 -0.011808 0.14822 144 176 125
-0.296723 -0.0106392 0.148094 165 183 160
-0.267214 -0.0516742 0.169074 161 170 153
-0.267162 -0.050674 0.169115 136 154 131
-0.266771 -0.0496465 0.169413 116 141 106
-0.266213 -0.0486104 0.169838 108 134 100
-0.265492 -0.0475684 0.170388 107 134 98
-0.264281 -0.0465018 0.17131 104 132 97
-0.263086 -0.045449 0.17222 102 128 92
-0.262549 -0.0444454 0.172629 94 126 84
-0.262497 -0.0434719 0.172669 87 123 72
-0.262608 -0.0425062 0.172586 96 136 71
-0.262881 -0.0415457 0.172379 110 158 82
-0.263154 -0.0405822 0.172172 118 169 91
-0.263429 -0.0396159 0.171963 126 178 95
-0.263705 -0.0386466 0.171754 135 190 98
-0.263817 -0.0376714 0.17167 141 200 101
-0.264095 -0.036697 0.17146 132 196 99
-0.264373 -0.0357197 0.171249 126 186 94
-0.264652 -0.0347394 0.171037 123 183 94
-0.279878 -0.0305168 0.159459 119 182 88
-0.279822 -0.0294544 0.159503 110 178 82
-0.279766 -0.0283926 0.159546 110 184 84
-0.27971 -0.0273313 0.159589 116 184 87
-0.279849 -0.0262628 0.159485 122 181 88
-0.280379 -0.0251747 0.159082 124 178 93
-0.280519 -0.024101 0.158977 123 175 93
-0.283447 -0.022868 0.15675 108 156 84
-0.284609 -0.021713 0.155868 97 147 78
-0.285166 -0.0205863 0.155445 91 140 70
-0.285727 -0.0194534 0.155019 99 154 77
-0.286084 -0.0183303 0.154748 118 171 89
-0.295682 -0.014137 0.147451 125 175 98
-0.295622 -0.0129945 0.147498 137 173 118
-0.296017 -0.0118049 0.147198 160 181 154
-0.266866 -0.0506886 0.1681 155 165 152
-0.266644 -0.049674 0.168271 137 153 127
-0.266086 -0.0486358 0.1687 117 141 106
-0.265365 -0.0475919 0.169255 111 138 103
-0.264648 -0.0465559 0.169805 109 135 101
-0.263772 -0.045518 0.170478 106 133 98
-0.262742 -0.0444808 0.17127 101 129 93
-0.262691 -0.0435037 0.17131 91 125 81
-0.262639 -0.0425272 0.17135 88 126 71
-0.262913 -0.0415641 0.17114 98 143 76
-0.263025 -0.0405924 0.171056 113 161 86
-0.2633 -0.0396243 0.170845 120 174 91
-0.263576 -0.0386532 0.170634 129 182 94
-0.263689 -0.0376762 0.170548 137 194 99
-0.263966 -0.0367001 0.170336 140 203 103
-0.264245 -0.0357209 0.170123 133 198 99
-0.264359 -0.0347384 0.170036 127 188 98
-0.279325 -0.0294526 0.158557 110 180 86
-0.27927 -0.0283907 0.158601 112 184 86
-0.279214 -0.0273294 0.158644 116 181 87
-0.279741 -0.0262449 0.15824 122 180 88
-0.280076 -0.0251637 0.157984 124 176 93
-0.281003 -0.0240483 0.157274 120 174 96
-0.283547 -0.0228313 0.155323 119 162 83
-0.284304 -0.021698 0.154743 109 158 83
-0.284861 -0.02057 0.154316 99 149 74
-0.285216 -0.0194508 0.154045 105 159 79
-0.285572 -0.0183277 0.153773 118 171 89
-0.295146 -0.014134 0.14643 130 172 108
-0.295086 -0.0129914 0.146477 153 179 144
-0.29548 -0.0118017 0.146175 170 186 169
-0.266517 -0.0497016 0.167124 159 169 151
-0.266127 -0.0486744 0.167427 141 155 126
-0.265403 -0.0476274 0.167988 121 145 114
-0.264685 -0.0465885 0.168545 115 139 106
-0.264136 -0.0455676 0.16897 112 138 105
-0.262774 -0.0445073 0.170026 107 135 101
-0.262722 -0.0435275 0.170066 99 130 92
-0.262671 -0.0425483 0.170107 90 125 80
-0.26262 -0.0415697 0.170147 90 129 72
-0.262894 -0.0406027 0.169935 104 150 78
-0.263334 -0.0396375 0.169596 115 167 86
-0.263611 -0.0386638 0.169382 124 175 90
-0.263889 -0.037687 0.169168 130 185 96
-0.264003 -0.0367052 0.169081 139 199 101
-0.263951 -0.0357209 0.169121 141 208 105
-0.264397 -0.0347382 0.168777 135 202 103
-0.279022 -0.029446 0.157461 121 194 98
-0.278773 -0.0283889 0.157655 123 196 96
-0.278911 -0.0273206 0.157549 122 186 92
-0.279438 -0.026235 0.157142 124 180 90
-0.280165 -0.0251344 0.15658 123 175 94
-0.281891 -0.0239746 0.155245 117 173 96
-0.283648 -0.0227944 0.153886 123 166 87
-0.283795 -0.0216956 0.153773 104 153 83
-0.284351 -0.0205676 0.153344 97 151 75
-0.284704 -0.0194483 0.153071 107 162 81
-0.285059 -0.0183251 0.152797 119 172 90
-0.29271 -0.0165873 0.146877 122 175 94
-0.294443 -0.0152945 0.145537 123 175 101
-0.294383 -0.0141524 0.145584 144 175 124
-0.294549 -0.0129884 0.145456 166 184 161
-0.265831 -0.048687 0.16641 161 170 152
-0.265275 -0.047651 0.166845 142 159 136
-0.264722 -0.0466211 0.167278 127 149 118
-0.264172 -0.0455974 0.167708 119 143 112
-0.262969 -0.044543 0.168648 114 141 108
-0.262754 -0.0435515 0.168816 109 135 101
-0.26254 -0.0425622 0.168984 101 129 93
-0.262489 -0.0415817 0.169025 92 126 79
-0.262927 -0.0406186 0.168683 93 135 73
-0.263204 -0.039646 0.168468 107 154 78
-0.263976 -0.0386822 0.167866 118 169 87
-0.264091 -0.037698 0.167777 124 176 93
-0.264039 -0.0367104 0.167818 131 187 97
-0.263988 -0.0357234 0.167859 138 200 102
-0.264435 -0.0347379 0.167511 142 209 106
-0.278525 -0.0294442 0.156515 138 215 108
-0.278469 -0.0283812 0.156559 145 215 107
-0.278414 -0.0273187 0.156603 135 195 98
-0.279329 -0.026217 0.155889 126 179 93
-0.280451 -0.0250959 0.155014 123 175 94
-0.281586 -0.0239621 0.154129 107 166 96
-0.282937 -0.0228037 0.153075 98 140 70
-0.283286 -0.0216933 0.152804 87 139 70
-0.283636 -0.020579 0.152531 91 151 74
-0.284193 -0.0194458 0.152097 105 161 82
-0.284547 -0.0183225 0.151822 119 172 90
-0.29042 -0.0167321 0.147237 124 173 95
-0.292119 -0.0154513 0.145912 130 173 111
-0.293398 -0.014192 0.144915 153 179 147
-0.293338 -0.0130529 0.144962 165 181 166
-0.264978 -0.0476626 0.16583 161 172 157
-0.264592 -0.0466429 0.166135 147 165 142
-0.264042 -0.0456171 0.166569 136 154 127
-0.263659 -0.0446067 0.166871 126 147 119
-0.262786 -0.0435755 0.167559 120 142 112
-0.262571 -0.0425835 0.167729 113 137 106
-0.26252 -0.0416004 0.16777 101 131 94
-0.262796 -0.0406289 0.167554 91 126 78
-0.263567 -0.0396689 0.166947 97 137 73
-0.263681 -0.038685 0.166858 110 157 81
-0.264127 -0.037706 0.166508 119 169 91
-0.264076 -0.0367156 0.166549 124 177 94
-0.264024 -0.0357258 0.16659 130 185 95
-0.278028 -0.0294424 0.155568 164 232 117
-0.277972 -0.0283793 0.155612 167 230 120
-0.278303 -0.0273029 0.155352 142 198 100
-0.279025 -0.026207 0.154785 126 179 93
-0.280541 -0.0250663 0.153592 126 177 93
-0.28148 -0.0239392 0.152853 99 162 97
-0.282428 -0.0228014 0.152107 74 122 57
-0.282776 -0.0216909 0.151834 77 132 62
-0.283126 -0.0205765 0.15156 88 149 73
-0.283681 -0.0194433 0.151123 104 161 81
-0.284859 -0.0182549 0.150196 119 173 90
-0.289027 -0.0168022 0.146915 123 174 99
-0.29027 -0.0155664 0.145937 143 174 123
-0.291529 -0.0143157 0.144947 161 180 161
-0.291691 -0.0131615 0.14482 165 180 167
-0.264295 -0.0466535 0.16512 161 175 160
-0.263745 -0.0456267 0.165558 153 168 149
-0.263198 -0.044606 0.165993 145 160 139
-0.262982 -0.0436081 0.166165 138 154 129
-0.262276 -0.0425902 0.166727 128 148 123
-0.262388 -0.0416125 0.166639 116 141 112
-0.262664 -0.0406393 0.16642 105 132 94
-0.263271 -0.0396727 0.165939 96 128 78
-0.263716 -0.0386957 0.165586 99 139 75
-0.263997 -0.0377109 0.165363 111 156 83
-0.264112 -0.0367209 0.165273 118 169 89
-0.265066 -0.0357358 0.164516 124 175 92
-0.277585 -0.0305044 0.154576 162 234 117
-0.277338 -0.0294454 0.154773 170 232 117
-0.277283 -0.0283832 0.154818 162 222 116
-0.278192 -0.0272872 0.154096 136 190 98
-0.279306 -0.0261728 0.153212 127 178 93
-0.280433 -0.0250458 0.152318 126 178 93
-0.280974 -0.023937 0.151889 96 162 97
-0.281518 -0.0228222 0.151458 69 126 59
-0.282065 -0.0217012 0.151024 75 132 62
-0.282413 -0.0205879 0.150749 89 147 72
-0.282965 -0.0194557 0.150311 104 160 80
-0.285174 -0.0181868 0.148558 118 172 92
-0.287432 -0.0168897 0.146765 122 175 109
-0.288443 -0.0156801 0.145962 153 180 144
-0.289683 -0.0144379 0.144979 170 182 166
-0.263283 -0.0456262 0.164677 162 175 162
-0.262902 -0.0446147 0.164983 161 173 158
-0.262686 -0.0436157 0.165157 158 169 151
-0.262471 -0.0426191 0.16533 147 164 145
-0.262419 -0.0416313 0.165371 140 157 136
-0.262696 -0.0406554 0.16515 129 148 117
-0.263305 -0.0396862 0.164663 111 134 100
-0.263585 -0.0387026 0.164439 97 129 81
-0.264034 -0.037719 0.164081 100 140 76
-0.264652 -0.0367326 0.163586 110 155 81
-0.276896 -0.0305064 0.153782 149 211 106
-0.27665 -0.0294484 0.15398 152 212 106
-0.276595 -0.0283872 0.154025 141 197 101
-0.277693 -0.0272852 0.153146 127 181 94
-0.279196 -0.0261546 0.151943 124 177 95
-0.279928 -0.0250436 0.151357 125 177 94
-0.280269 -0.0239451 0.151085 96 163 98
-0.280611 -0.0228428 0.150812 73 129 61
-0.281154 -0.0217241 0.150377 77 134 64
-0.281701 -0.0205992 0.14994 90 147 72
-0.282251 -0.0194682 0.1495 103 157 81
-0.284657 -0.0181842 0.147574 117 171 93
-0.286274 -0.0169407 0.146279 131 175 115
-0.286851 -0.0157734 0.145817 161 184 162
-0.262174 -0.0426257 0.16432 165 175 163
-0.262123 -0.041637 0.164362 163 173 157
-0.262399 -0.0406602 0.164139 154 168 147
-0.262842 -0.0396852 0.163782 140 156 132
-0.26362 -0.0387134 0.163154 116 141 106
-0.264238 -0.0377301 0.162656 106 134 83
-0.276072 -0.0315736 0.153099 130 183 95
-0.276017 -0.0305122 0.153144 134 188 97
-0.275963 -0.0294514 0.153189 134 189 97
-0.276098 -0.0283853 0.15308 129 181 94
-0.277968 -0.0272554 0.15157 123 178 92
-0.278693 -0.0261526 0.150985 122 177 95
-0.279423 -0.0250415 0.150395 124 175 95
-0.279565 -0.0239533 0.150282 99 165 100
-0.279905 -0.022852 0.150008 78 133 65
-0.280247 -0.0217469 0.149732 78 137 66
-0.28079 -0.0206243 0.149294 90 149 73
-0.281337 -0.0194955 0.148853 102 156 82
-0.28414 -0.0181815 0.14659 115 169 94
-0.285543 -0.0169558 0.145457 145 175 120
-0.285696 -0.0158277 0.145334 168 186 165
-0.261938 -0.0406593 0.16326 169 178 164
-0.26271 -0.0396939 0.162632 165 175 156
-0.264495 -0.0387443 0.161178 141 158 134
-0.276011 -0.0326306 0.151798 117 164 89
-0.275576 -0.0315719 0.152153 124 171 90
-0.275521 -0.0305105 0.152199 124 175 92
-0.275656 -0.0294448 0.152089 124 175 93
-0.276174 -0.0283659 0.151668 125 175 93
-0.27805 -0.0272324 0.15014 123 176 92
-0.278385 -0.0261424 0.149868 122 176 93
-0.278918 -0.0250394 0.149434 125 175 95
-0.27906 -0.0239511 0.149319 102 166 100
-0.279202 -0.0228611 0.149205 80 135 68
-0.279344 -0.0217697 0.14909 80 139 67
-0.280082 -0.0206356 0.148489 90 148 73
-0.280626 -0.0195079 0.148046 102 156 82
-0.283623 -0.0181789 0.145605 114 167 94
-0.285022 -0.0169531 0.144466 155 177 127
-0.284965 -0.0158439 0.144513 174 187 167
-0.277684 -0.0336866 0.149066 92 133 73
-0.275704 -0.0326273 0.150694 102 141 79
-0.275459 -0.0315648 0.150896 110 149 80
-0.275595 -0.0304975 0.150785 109 156 85
-0.27573 -0.0294286 0.150674 110 160 88
-0.277408 -0.0283109 0.149297 113 162 89
-0.277937 -0.0272164 0.148863 117 166 91
-0.278077 -0.0261322 0.148748 121 171 92
-0.278413 -0.0250373 0.148472 124 173 94
-0.278554 -0.0239489 0.148357 104 168 100
-0.278696 -0.0228589 0.148242 80 137 70
-0.278837 -0.0217673 0.148126 82 139 69
-0.279574 -0.0206331 0.147521 90 146 73
-0.280117 -0.0195053 0.147076 102 156 81
-0.283106 -0.0181762 0.144621 114 167 94
-0.284501 -0.0169504 0.143474 158 178 132
-0.284444 -0.0158411 0.143522 177 189 169
-0.278604 -0.0347649 0.146928 77 116 71
-0.278156 -0.0336818 0.1473 80 119 68
-0.276932 -0.0326105 0.148315 86 119 70
-0.276877 -0.0315357 0.148361 90 123 69
-0.276822 -0.0304616 0.148407 91 129 75
-0.27696 -0.0293831 0.148293 91 131 80
-0.277488 -0.0282911 0.147857 92 136 79
-0.277628 -0.0272073 0.147742 102 145 79
-0.277964 -0.0261139 0.147464 114 160 87
-0.277908 -0.0250351 0.147511 122 171 95
-0.278049 -0.0239467 0.147395 105 169 100
-0.27819 -0.0228566 0.147279 81 138 70
-0.278331 -0.0217649 0.147162 82 140 69
-0.279265 -0.020617 0.146389 90 148 75
-0.280007 -0.019473 0.145775 101 157 80
-0.282794 -0.0181571 0.143466 113 168 96
-0.283772 -0.0169655 0.142656 159 181 138
-0.283716 -0.0158572 0.142704 175 189 170
-0.279536 -0.035859 0.144759 75 111 68
-0.27849 -0.0347643 0.145634 73 112 69
-0.277845 -0.0336796 0.146174 76 116 70
-0.27779 -0.0325968 0.146221 79 114 69
-0.277735 -0.0315145 0.146268 81 112 66
-0.277484 -0.0304367 0.146478 81 112 67
-0.277429 -0.0293566 0.146525 83 112 72
-0.277373 -0.0282772 0.146571 81 116 69
-0.277318 -0.0271983 0.146618 86 125 66
-0.277458 -0.0261118 0.146502 104 145 78
-0.277403 -0.025033 0.146549 119 166 92
-0.277543 -0.0239445 0.146432 106 167 98
-0.277684 -0.0228543 0.146315 82 138 71
-0.277825 -0.0217626 0.146198 81 141 68
-0.279153 -0.020587 0.145089 90 147 73
-0.279897 -0.0194405 0.144468 101 155 80
-0.282276 -0.0181545 0.14248 115 167 98
-0.283252 -0.0169627 0.141665 158 185 142
-0.283403 -0.0158355 0.14154 175 189 170
-0.279878 -0.0369614 0.143067 88 108 64
-0.279423 -0.0358606 0.143452 73 108 63
-0.278573 -0.034764 0.144169 72 108 63
-0.278518 -0.033674 0.144216 73 108 64
-0.278462 -0.0325846 0.144264 74 108 63
-0.278406 -0.0314958 0.144311 76 108 66
-0.27776 -0.0304193 0.144856 76 110 66
-0.277313 -0.0293449 0.145234 80 112 71
-0.277063 -0.0282692 0.145445 81 113 71
-0.277008 -0.0271892 0.145493 80 118 65
-0.276953 -0.0261097 0.14554 94 134 72
-0.277093 -0.0250216 0.145422 114 162 87
-0.277233 -0.0239319 0.145305 104 168 97
-0.277374 -0.0228406 0.145187 83 138 70
-0.277711 -0.0217351 0.144904 79 140 68
-0.279041 -0.0205569 0.143783 87 147 74
-0.279786 -0.0194079 0.143156 100 155 81
-0.281759 -0.0181519 0.141494 114 166 99
-0.282939 -0.0169422 0.1405 158 185 142
-0.282882 -0.0158327 0.140548 176 187 168
-0.279421 -0.0380585 0.142042 151 170 146
-0.279366 -0.0369601 0.142091 99 108 67
-0.27911 -0.0358608 0.142308 74 108 63
-0.279054 -0.0347646 0.142356 72 108 61
-0.2788 -0.0336698 0.142573 73 109 63
-0.278744 -0.0325759 0.142621 72 105 62
-0.278688 -0.0314827 0.142669 73 106 62
-0.278039 -0.0304019 0.143222 73 108 61
-0.277394 -0.0293281 0.143771 74 105 63
-0.276947 -0.0282552 0.144151 78 109 66
-0.276892 -0.027173 0.144199 79 118 67
-0.276837 -0.0260913 0.144246 89 132 70
-0.276782 -0.0250102 0.144294 109 160 85
-0.277118 -0.0239089 0.144009 107 168 97
-0.277259 -0.0228153 0.14389 88 138 71
-0.278189 -0.0216695 0.1431 81 140 68
-0.278729 -0.0205406 0.142641 88 147 73
-0.279273 -0.0194054 0.14218 100 157 80
-0.281241 -0.0181492 0.140508 114 168 98
-0.282418 -0.0169394 0.139508 156 181 138
-0.282362 -0.0158299 0.139557 175 186 168
-0.279108 -0.0380609 0.140894 167 176 149
-0.279252 -0.036964 0.140772 103 111 77
-0.279196 -0.0358639 0.14082 70 110 65
-0.27914 -0.0347644 0.140869 73 110 63
-0.278885 -0.0336662 0.141088 72 107 63
-0.27863 -0.0325707 0.141307 73 104 62
-0.278375 -0.0314781 0.141526 73 106 59
-0.278122 -0.0303882 0.141744 73 108 59
-0.277671 -0.0293061 0.142131 73 106 60
-0.277026 -0.0282351 0.142684 78 113 62
-0.276775 -0.0271567 0.1429 81 123 66
-0.27672 -0.0260728 0.142948 89 136 72
-0.276665 -0.0249895 0.142995 105 158 83
-0.277002 -0.0238859 0.142708 110 169 95
-0.277734 -0.0227553 0.142081 91 138 71
-0.278075 -0.0216417 0.141789 82 139 69
-0.278616 -0.0205103 0.141326 88 148 73
-0.279161 -0.0193727 0.14086 99 156 80
-0.280927 -0.0181301 0.139347 113 167 98
-0.281897 -0.0169367 0.138516 153 181 136
-0.282047 -0.0158081 0.138388 171 185 165
-0.278993 -0.0380672 0.139572 172 181 154
-0.278937 -0.0369653 0.13962 104 120 92
-0.279081 -0.0358655 0.139496 75 110 63
-0.279025 -0.0347637 0.139545 75 108 63
-0.27877 -0.0336632 0.139767 73 107 62
-0.278714 -0.0325637 0.139816 72 106 61
-0.278459 -0.0314677 0.140037 72 105 62
-0.278205 -0.0303745 0.140257 73 107 62
-0.277555 -0.0292942 0.140819 76 109 59
-0.277106 -0.0282148 0.141208 82 119 63
-0.276658 -0.0271403 0.141595 84 128 69
-0.276603 -0.0260542 0.141643 92 138 72
-0.276744 -0.0249593 0.141522 109 157 80
-0.277279 -0.0238417 0.141061 111 168 92
-0.277619 -0.0227297 0.140768 91 138 71
-0.277761 -0.0216265 0.140645 83 138 68
-0.278303 -0.0204939 0.140178 88 149 74
-0.278847 -0.019355 0.139708 99 157 81
-0.280408 -0.0181274 0.13836 112 167 98
-0.281582 -0.0169161 0.137346 150 179 136
-0.281732 -0.0157862 0.137217 165 181 164
-0.278678 -0.0380697 0.138417 172 184 162
-0.278622 -0.0369666 0.138467 104 136 114
-0.278566 -0.0358641 0.138516 76 109 63
-0.278511 -0.0347623 0.138565 75 108 61
-0.278455 -0.033661 0.138614 73 107 61
-0.278399 -0.0325603 0.138663 71 108 64
-0.278344 -0.0314602 0.138712 72 107 63
-0.278089 -0.0303647 0.138935 74 107 63
-0.277637 -0.0292771 0.13933 77 114 63
-0.277186 -0.0281944 0.139723 85 123 66
-0.276737 -0.0271167 0.140115 88 129 71
-0.276682 -0.0260272 0.140163 93 141 70
-0.276823 -0.0249289 0.140041 107 158 79
-0.277162 -0.0238184 0.139746 114 168 92
-0.277305 -0.0227157 0.139622 92 139 72
-0.277448 -0.0216114 0.139498 82 139 68
-0.277789 -0.0204914 0.139201 89 146 73
-0.278533 -0.0193372 0.138554 100 155 79
-0.27989 -0.0181248 0.137372 113 166 97
-0.281266 -0.0168955 0.136173 151 175 133
-0.281623 -0.0157452 0.135863 170 183 165
-0.278362 -0.0380721 0.137261 173 183 165
-0.278306 -0.0369679 0.13731 111 154 137
-0.278251 -0.0358642 0.13736 79 110 64
-0.278195 -0.0347612 0.137409 72 110 64
-0.278139 -0.0336587 0.137459 71 110 63
-0.278084 -0.0325568 0.137508 72 108 61
-0.278028 -0.0314555 0.137557 70 108 64
-0.277774 -0.0303589 0.137782 74 112 67
-0.27752 -0.029265 0.138005 81 121 67
-0.276871 -0.0281863 0.138576 85 129 69
-0.276619 -0.0271002 0.138798 86 131 72
-0.276564 -0.0260084 0.138847 92 142 74
-0.276509 -0.0249173 0.138896 106 157 81
-0.276848 -0.0238055 0.138599 115 168 91
-0.27699 -0.0227017 0.138474 93 141 71
-0.277133 -0.0215961 0.138349 81 141 69
-0.277475 -0.020475 0.13805 87 146 73
-0.278017 -0.0193347 0.137573 99 156 79
-0.279574 -0.0181056 0.136207 113 166 98
-0.281156 -0.0168568 0.134817 151 177 137
-0.281513 -0.015704 0.134504 171 184 167
-0.278045 -0.0380746 0.136102 169 182 167
-0.27799 -0.0369692 0.136152 123 164 149
-0.277934 -0.0358644 0.136201 87 108 66
-0.277878 -0.0347601 0.136251 73 108 64
-0.277823 -0.0336564 0.136301 71 109 64
-0.277768 -0.0325534 0.136351 70 110 61
-0.277712 -0.0314509 0.1364 73 112 65
-0.277458 -0.0303531 0.136626 78 117 67
-0.277204 -0.029258 0.136852 83 122 70
-0.276556 -0.0281782 0.137426 87 129 70
-0.276304 -0.0270909 0.13765 88 130 70
-0.276249 -0.025998 0.137699 92 141 73
-0.276194 -0.0249057 0.137748 105 157 80
-0.276533 -0.0237927 0.137449 115 170 92
-0.276675 -0.0226876 0.137323 94 140 73
-0.276818 -0.0215809 0.137198 82 139 69
-0.276961 -0.0204725 0.137071 87 146 72
-0.277902 -0.0193017 0.136239 99 153 78
-0.27946 -0.0180697 0.134858 112 166 96
-0.281252 -0.0167999 0.133272 153 180 134
-0.281819 -0.0156239 0.13277 172 183 165
-0.277728 -0.0380771 0.13494 171 180 165
-0.277672 -0.0369705 0.13499 142 171 148
-0.277816 -0.035866 0.134862 96 108 68
-0.277561 -0.034759 0.13509 74 111 67
-0.277506 -0.0336542 0.135141 74 110 66
-0.277451 -0.0325499 0.135191 73 112 65
-0.277395 -0.0314462 0.135241 77 114 65
-0.277141 -0.0303472 0.135468 81 119 69
-0.276887 -0.029251 0.135695 85 125 71
-0.27624 -0.02817 0.136274 88 128 68
-0.275988 -0.0270816 0.1365 89 130 69
-0.275737 -0.0259959 0.136724 93 138 74
-0.275878 -0.024894 0.136599 106 157 81
-0.27602 -0.0237905 0.136473 120 170 91
-0.276359 -0.0226735 0.13617 97 140 72
-0.276304 -0.0215785 0.13622 83 140 69
-0.276645 -0.020456 0.135916 87 145 72
-0.277585 -0.0192838 0.135077 100 153 78
-0.279143 -0.0180504 0.133686 112 165 94
-0.281348 -0.0167426 0.131717 152 180 132
-0.2815 -0.0156017 0.131582 173 184 163
-0.277754 -0.0369772 0.133467 162 178 150
-0.277698 -0.0358677 0.133518 106 110 72
-0.277443 -0.0347584 0.133748 76 112 68
-0.277387 -0.0336512 0.133798 77 110 65
-0.277332 -0.0325446 0.133849 75 113 67
-0.277078 -0.0314416 0.134078 80 118 67
-0.276824 -0.0303414 0.134308 85 123 67
-0.27657 -0.029244 0.134536 86 128 69
-0.275923 -0.0281619 0.13512 88 128 67
-0.275476 -0.0270796 0.135523 89 130 68
-0.275421 -0.0259854 0.135573 94 139 73
-0.275366 -0.0248918 0.135623 106 156 80
-0.275704 -0.0237776 0.135319 121 170 91
-0.275846 -0.0226712 0.135192 96 139 72
-0.275791 -0.0215761 0.135242 84 138 69
-0.276328 -0.0204395 0.134759 86 145 73
-0.277468 -0.0192506 0.133733 97 153 81
-0.278825 -0.018031 0.132511 111 164 97
-0.281029 -0.0167216 0.130527 151 177 131
-0.281181 -0.0155794 0.13039 172 184 162
-0.278036 -0.0369865 0.131752 171 178 150
-0.277981 -0.0358724 0.131803 109 116 81
-0.277724 -0.0347585 0.132036 77 114 67
-0.277069 -0.0336489 0.132632 77 114 68
-0.277014 -0.0325411 0.132682 80 117 69
-0.276759 -0.0314369 0.132914 84 124 69
-0.276506 -0.0303355 0.133145 86 125 69
-0.276252 -0.0292369 0.133375 86 128 68
-0.275606 -0.0281537 0.133963 86 128 68
-0.275158 -0.0270702 0.134369 87 130 69
-0.274908 -0.0259833 0.134597 91 139 72
-0.275049 -0.0248802 0.13447 104 153 80
-0.27519 -0.0237754 0.134342 120 170 93
-0.275332 -0.0226689 0.134214 94 140 74
-0.275474 -0.0215608 0.134086 83 137 70
-0.275813 -0.020437 0.133778 87 143 74
-0.27735 -0.0192173 0.132383 97 151 81
-0.278506 -0.0180116 0.131334 112 164 97
-0.280709 -0.0167006 0.129334 152 178 130
-0.280861 -0.0155571 0.129197 172 184 161
-0.277716 -0.0369878 0.130576 167 171 149
-0.277661 -0.0358726 0.130627 108 126 98
-0.277605 -0.0347579 0.130679 79 115 67
-0.277149 -0.0336452 0.131097 79 117 70
-0.276495 -0.0325395 0.131696 83 121 71
-0.27644 -0.0314322 0.131747 85 125 70
-0.275989 -0.0303337 0.132161 87 127 70
-0.275736 -0.0292351 0.132392 85 127 71
-0.275091 -0.0281518 0.132983 85 127 70
-0.274841 -0.0270609 0.133213 87 129 69
-0.27459 -0.0259728 0.133442 92 138 72
-0.274731 -0.0248685 0.133314 104 153 80
-0.274873 -0.0237625 0.133185 120 170 92
-0.274818 -0.0226666 0.133236 95 140 73
-0.275156 -0.0215455 0.132927 82 137 69
-0.275495 -0.0204205 0.132617 87 144 74
