ply
format ascii 1.0
element vertex 1197
property float x
property float y
property float z
property uchar diffuse_red
property uchar diffuse_green
property uchar diffuse_blue
end_header
-0.319142 0.00287982 0.156891 120 179 89
-0.318808 0.0040439 0.157108 119 180 90
-0.318207 0.0051603 0.157498 114 175 84
-0.317344 0.00622564 0.158057 111 170 81
-0.317014 0.00737627 0.158271 110 169 81
-0.316685 0.00852368 0.158486 109 168 81
-0.316093 0.0096189 0.158869 110 167 80
-0.315505 0.0107086 0.159251 110 166 79
-0.31544 0.0118954 0.159294 109 166 79
-0.315114 0.0130289 0.159506 108 165 79
-0.31531 0.0142671 0.15938 108 163 80
-0.310265 0.0167414 0.162644 105 161 78
-0.309454 0.01773 0.163169 104 159 77
-0.309143 0.0188265 0.163372 102 157 75
-0.308833 0.01992 0.163574 100 156 73
-0.308523 0.0210106 0.163775 101 154 73
-0.308214 0.0220982 0.163976 101 151 73
-0.307905 0.0231829 0.164176 98 150 71
-0.307598 0.0242646 0.164377 95 148 71
-0.307535 0.0254077 0.164418 93 145 70
-0.307228 0.0264847 0.164618 90 140 70
-0.307166 0.0276254 0.164659 84 134 68
-0.307103 0.0287654 0.164701 81 130 63
-0.307041 0.0299049 0.164743 77 122 59
-0.306978 0.0310438 0.164784 74 119 57
-0.306916 0.0321821 0.164826 72 120 58
-0.306854 0.0333198 0.164867 72 123 60
-0.306791 0.0344568 0.164909 78 128 64
-0.306729 0.0355933 0.16495 83 134 67
-0.306424 0.0366528 0.165149 89 141 72
-0.306362 0.0377869 0.16519 96 150 76
-0.3063 0.0389204 0.165232 103 157 79
-0.306237 0.0400532 0.165273 113 164 81
-0.306418 0.0412668 0.165157 119 173 86
-0.306356 0.0423997 0.165199 124 184 94
-0.306294 0.0435321 0.16524 131 197 102
-0.306232 0.0446638 0.165281 138 206 105
-0.30617 0.0457949 0.165323 142 209 108
-0.305866 0.046838 0.165521 140 207 107
-0.305804 0.0479667 0.165562 135 199 103
-0.305742 0.0490949 0.165603 128 188 97
-0.30568 0.0502224 0.165644 119 178 91
-0.305619 0.0513494 0.165685 110 168 84
-0.305557 0.0524757 0.165726 106 162 82
-0.305495 0.0536015 0.165767 103 155 79
-0.305434 0.0547267 0.165809 98 149 75
-0.305372 0.0558513 0.16585 93 140 70
-0.305552 0.0570736 0.165734 87 132 68
-0.305733 0.0582979 0.165619 80 126 65
-0.305671 0.0594232 0.16566 77 125 64
-0.30561 0.0605479 0.165701 74 126 65
-0.305548 0.0616719 0.165742 77 129 66
-0.305487 0.0627954 0.165783 83 135 71
-0.305911 0.0641306 0.16551 90 142 74
-0.306337 0.0654709 0.165236 96 147 80
-0.306765 0.0668165 0.164961 103 153 85
-0.307936 0.0685027 0.164206 109 161 89
-0.321072 -0.00287897 0.154174 142 160 142
-0.32046 -0.0017315 0.154574 124 147 112
-0.319851 -0.000589882 0.154973 109 143 83
-0.319244 0.000545947 0.15537 107 163 84
-0.318641 0.00167602 0.155765 111 172 87
-0.318307 0.00284216 0.155984 118 178 88
-0.317707 0.003962 0.156376 121 181 90
-0.317641 0.00516467 0.156421 117 177 87
-0.317045 0.00627554 0.156811 111 171 82
-0.316451 0.00738079 0.1572 111 168 80
-0.316122 0.00852829 0.157415 110 169 79
-0.315533 0.00962355 0.157801 109 168 80
-0.314945 0.0107133 0.158186 108 167 80
-0.31488 0.0119002 0.158229 108 166 80
-0.314816 0.0130865 0.158273 108 165 80
-0.315011 0.0143262 0.158147 108 165 80
-0.311985 0.0172519 0.160124 107 164 79
-0.311161 0.0182486 0.160663 106 162 79
-0.310342 0.0192381 0.161199 104 160 79
-0.310278 0.0203994 0.161241 103 159 76
-0.308473 0.021136 0.16242 103 157 76
-0.308163 0.0222259 0.162623 103 156 75
-0.307854 0.0233128 0.162826 100 154 72
-0.307301 0.0243334 0.163188 98 151 72
-0.307239 0.0254779 0.16323 98 152 72
-0.306932 0.026556 0.163431 95 149 72
-0.30687 0.027698 0.163473 92 147 72
-0.306807 0.0288394 0.163515 91 145 70
-0.306501 0.0299109 0.163716 88 138 67
-0.306439 0.0310498 0.163758 84 131 64
-0.306377 0.0321882 0.1638 79 125 62
-0.306315 0.033326 0.163841 75 122 60
-0.306252 0.0344631 0.163883 72 120 59
-0.30619 0.0355997 0.163925 72 119 60
-0.305886 0.0366592 0.164125 74 122 63
-0.305824 0.0377934 0.164167 79 131 66
-0.305762 0.0389269 0.164208 86 137 68
-0.3057 0.0400599 0.16425 96 143 72
-0.305638 0.0411922 0.164292 102 151 76
-0.305576 0.042324 0.164333 107 160 78
-0.305756 0.0435389 0.164217 112 168 83
-0.305694 0.0446707 0.164258 119 179 89
-0.305633 0.0458019 0.1643 126 190 98
-0.305329 0.0468451 0.164499 135 200 105
-0.305267 0.0479739 0.164541 143 207 106
-0.305206 0.0491021 0.164582 146 208 107
-0.305144 0.0502297 0.164624 139 203 104
-0.305082 0.0513568 0.164665 130 192 97
-0.305262 0.0525767 0.164549 123 182 90
-0.305201 0.0537037 0.16459 115 173 87
-0.305139 0.0548302 0.164632 108 165 82
-0.305078 0.0559561 0.164673 105 158 79
-0.305258 0.0571799 0.164557 101 151 77
-0.305196 0.0583058 0.164598 95 144 74
-0.305135 0.0594311 0.164639 88 134 70
-0.305316 0.0606582 0.164523 79 127 67
-0.305254 0.0617836 0.164564 77 122 65
-0.305435 0.0630134 0.164447 77 123 64
-0.305861 0.064352 0.164171 77 127 63
-0.306288 0.0656958 0.163894 80 129 68
-0.307209 0.0672657 0.163294 85 134 74
-0.308139 0.0688488 0.162689 93 142 79
-0.320159 -0.00169055 0.153305 130 148 115
-0.31955 -0.000547645 0.153708 110 140 85
-0.318675 0.000550016 0.154285 107 157 81
-0.318072 0.00168017 0.154683 110 170 86
-0.317739 0.00284638 0.154904 115 176 88
-0.317141 0.00396629 0.155299 121 182 90
-0.316546 0.00508055 0.155692 117 177 88
-0.316216 0.00623453 0.15591 111 172 83
-0.316151 0.00743198 0.155955 110 169 81
-0.315823 0.00858078 0.156172 111 169 79
-0.315233 0.00967726 0.156562 109 169 80
-0.314646 0.0107682 0.15695 109 168 81
-0.314321 0.011905 0.157165 109 167 81
-0.314256 0.0130914 0.157209 108 166 80
-0.314452 0.0143312 0.157081 109 167 78
-0.314387 0.0155176 0.157125 109 166 78
-0.314258 0.0178885 0.157213 107 164 79
-0.311368 0.0184272 0.159116 106 163 80
-0.311305 0.0195968 0.159159 105 163 81
-0.310988 0.0207052 0.159369 105 162 79
-0.310419 0.0217492 0.159745 105 160 79
-0.307866 0.0222926 0.161427 104 159 78
-0.307557 0.0233807 0.161632 103 157 76
-0.307249 0.0244659 0.161836 101 155 74
-0.306942 0.0255481 0.162039 101 156 74
-0.306635 0.0266274 0.162242 97 153 74
-0.306329 0.0277038 0.162445 97 151 73
-0.306267 0.0288452 0.162487 96 152 74
-0.306205 0.0299861 0.162529 94 149 73
-0.306142 0.0311264 0.162572 93 145 70
-0.30608 0.032266 0.162614 91 139 69
-0.306018 0.0334051 0.162656 87 135 67
-0.305713 0.0344694 0.162858 82 129 63
-0.305651 0.035606 0.1629 77 123 59
-0.30559 0.0367421 0.162942 73 119 59
-0.305286 0.0377998 0.163143 72 120 59
-0.305224 0.0389335 0.163185 73 122 60
-0.305162 0.0400665 0.163227 79 126 63
-0.3051 0.0411989 0.163269 82 131 66
-0.305039 0.0423308 0.16331 91 138 69
-0.304977 0.043462 0.163352 97 146 73
-0.304915 0.0445927 0.163394 102 155 77
-0.304854 0.0457227 0.163436 109 163 82
-0.304792 0.0468522 0.163478 116 171 86
-0.30473 0.0479811 0.163519 123 182 91
-0.304669 0.0491094 0.163561 130 195 100
-0.304849 0.0503281 0.163444 138 206 106
-0.304787 0.0514564 0.163486 145 208 107
-0.304726 0.0525841 0.163527 144 208 104
-0.304906 0.0538062 0.16341 135 200 102
-0.304844 0.0549339 0.163452 126 188 95
-0.304783 0.0560611 0.163493 117 177 87
-0.304963 0.0572864 0.163376 110 168 82
-0.304902 0.0584136 0.163418 105 161 81
-0.30484 0.0595402 0.163459 100 154 80
-0.305021 0.0607689 0.163342 97 147 76
-0.304959 0.0618955 0.163383 92 136 72
-0.305141 0.0631268 0.163265 86 128 66
-0.305566 0.0644672 0.162987 78 125 65
-0.305993 0.0658128 0.162707 73 122 66
-0.306914 0.067385 0.162102 73 121 67
-0.308343 0.0691973 0.161162 78 126 68
-0.319586 -0.00168662 0.152214 136 148 117
-0.318978 -0.000543628 0.152619 111 138 90
-0.318105 0.0005541 0.153201 108 156 81
-0.317504 0.0016843 0.153602 111 169 87
-0.316906 0.00280879 0.154 116 174 89
-0.316575 0.00397057 0.154221 125 183 91
-0.315981 0.0050849 0.154617 119 180 88
-0.315652 0.00623898 0.154837 111 174 84
-0.315325 0.00738982 0.155056 110 171 81
-0.31526 0.00858539 0.155101 111 169 81
-0.314933 0.00973107 0.155319 110 168 82
-0.314086 0.0107729 0.155883 110 167 81
-0.314021 0.0119613 0.155927 110 167 80
-0.313956 0.013149 0.155972 110 167 80
-0.313892 0.0143361 0.156016 110 167 79
-0.313827 0.0155226 0.15606 110 166 78
-0.313763 0.0167085 0.156104 109 166 79
-0.313698 0.0178937 0.156148 109 165 79
-0.313375 0.0190189 0.156364 107 163 78
-0.31126 0.0197209 0.157771 106 164 79
-0.310689 0.0207711 0.158152 106 165 80
-0.310625 0.0219396 0.158195 106 163 79
-0.309806 0.0229186 0.158741 106 162 78
-0.307259 0.0234488 0.160434 105 159 78
-0.306706 0.0244715 0.160803 103 159 77
-0.306644 0.0256186 0.160846 104 159 76
-0.306582 0.026765 0.160888 102 155 75
-0.306519 0.0279109 0.160931 102 154 76
-0.306213 0.0289876 0.161136 100 155 76
-0.306151 0.0301311 0.161178 98 153 74
-0.306089 0.0312738 0.161221 98 151 73
-0.305783 0.032344 0.161425 96 149 73
-0.305478 0.0334113 0.161629 95 147 73
-0.305416 0.0345498 0.161671 93 144 69
-0.305113 0.0356124 0.161874 89 138 66
-0.305051 0.0367485 0.161916 84 131 65
-0.304989 0.037884 0.161959 79 126 63
-0.304686 0.03894 0.162161 75 122 60
-0.304624 0.0400732 0.162203 72 120 59
-0.304563 0.0412057 0.162245 71 119 60
-0.304501 0.0423376 0.162288 75 120 62
-0.304439 0.0434689 0.16233 81 126 64
-0.304378 0.0445996 0.162372 86 134 68
-0.304316 0.0457297 0.162414 94 144 73
-0.304255 0.0468593 0.162456 101 152 77
-0.304194 0.0479883 0.162498 106 158 81
-0.304132 0.0491166 0.16254 111 166 84
-0.304311 0.0503354 0.162422 117 176 88
-0.304491 0.0515563 0.162304 124 187 94
-0.30443 0.0526853 0.162346 130 201 104
-0.304368 0.0538137 0.162388 141 213 113
-0.304307 0.0549415 0.16243 148 211 109
-0.304487 0.0561663 0.162311 143 204 102
-0.304667 0.0573932 0.162193 131 193 96
-0.304848 0.058622 0.162074 119 180 90
-0.304787 0.0597512 0.162116 113 170 87
-0.304483 0.0607769 0.162319 106 162 82
-0.304664 0.0620076 0.1622 100 156 81
-0.304603 0.063135 0.162242 98 152 78
-0.305027 0.0644754 0.161961 94 143 75
-0.305942 0.0660391 0.161354 88 134 71
-0.306372 0.0673935 0.16107 81 127 69
-0.319284 -0.00164556 0.150941 142 151 120
-0.318676 -0.0005013 0.15135 111 141 97
-0.317803 0.000597609 0.151937 105 152 82
-0.316936 0.00168845 0.15252 110 166 84
-0.316339 0.00281302 0.152921 116 174 87
-0.315745 0.00393191 0.153321 125 185 91
-0.315416 0.00508927 0.153542 121 183 89
-0.315088 0.0062434 0.153764 113 176 85
-0.314761 0.00739434 0.153984 111 172 83
-0.314435 0.00854207 0.154204 112 171 84
-0.31385 0.00963754 0.154598 112 170 82
-0.313785 0.0108279 0.154643 112 169 82
-0.313461 0.0119661 0.154861 111 169 81
-0.313396 0.0131539 0.154906 111 168 79
-0.313332 0.0143411 0.15495 112 168 78
-0.313268 0.0155277 0.154995 111 167 79
-0.313203 0.0167136 0.155039 110 167 79
-0.313398 0.0179571 0.15491 110 166 79
-0.313075 0.0190836 0.155128 108 165 79
-0.312752 0.0202069 0.155345 107 166 78
-0.311405 0.0210811 0.15625 107 166 79
-0.310579 0.022069 0.156805 107 165 78
-0.306653 0.0246046 0.159442 106 161 79
-0.306346 0.0256892 0.159649 107 161 79
-0.306283 0.026837 0.159692 107 159 76
-0.306221 0.0279841 0.159735 107 160 78
-0.306159 0.0291307 0.159778 105 159 78
-0.305853 0.0302068 0.159985 104 157 75
-0.305547 0.0312799 0.160191 103 155 75
-0.305485 0.0324222 0.160233 101 153 75
-0.305181 0.0334906 0.160439 99 152 74
-0.304877 0.0345561 0.160644 98 151 72
-0.304815 0.0356941 0.160686 97 149 72
-0.304753 0.0368315 0.160729 94 145 73
-0.30445 0.0378905 0.160933 91 141 70
-0.304389 0.0390255 0.160976 87 135 67
-0.304327 0.0401599 0.161018 81 128 64
-0.304025 0.0412124 0.161222 78 122 63
-0.303963 0.0423444 0.161265 73 118 62
-0.303902 0.0434758 0.161307 73 116 58
-0.303841 0.0446066 0.161349 75 119 60
-0.303779 0.0457368 0.161392 77 124 63
-0.303718 0.0468664 0.161434 82 131 67
-0.303657 0.0479954 0.161476 89 139 73
-0.303595 0.0491238 0.161519 96 147 76
-0.303774 0.0503427 0.1614 103 155 78
-0.303953 0.0515637 0.161281 109 162 80
-0.304133 0.0527867 0.161162 116 170 84
-0.304072 0.0539164 0.161204 122 179 91
-0.304252 0.055142 0.161084 129 191 99
-0.304432 0.0563698 0.160964 137 205 108
-0.304613 0.0575996 0.160844 145 214 112
-0.304795 0.0588314 0.160724 148 213 107
-0.304733 0.0599631 0.160766 141 200 98
-0.304429 0.0609908 0.160971 128 185 90
-0.304368 0.06212 0.161014 116 172 87
-0.304549 0.0633544 0.160893 109 165 83
-0.304974 0.0646983 0.16061 103 158 82
-0.305646 0.0661568 0.16016 100 152 81
-0.306076 0.067513 0.159873 96 148 79
-0.318709 -0.00164163 0.149848 145 155 128
-0.318103 -0.000497284 0.15026 116 143 109
-0.3175 0.000641229 0.150669 106 146 83
-0.316633 0.00173324 0.151258 109 163 84
-0.315772 0.00281724 0.151842 115 173 87
-0.315179 0.0039362 0.152244 124 184 90
-0.314851 0.00509364 0.152467 123 186 91
-0.314524 0.00624784 0.15269 115 178 87
-0.314198 0.00739886 0.152912 112 174 83
-0.313873 0.00854666 0.153133 111 171 82
-0.313288 0.0096422 0.15353 112 171 82
-0.313224 0.0108327 0.153575 112 171 81
-0.313159 0.0120225 0.15362 111 170 81
-0.313095 0.0132117 0.153665 111 170 81
-0.313031 0.0144003 0.153709 112 170 81
-0.312966 0.0155883 0.153754 111 169 80
-0.312902 0.0167756 0.153799 110 168 81
-0.312838 0.0179623 0.153844 110 167 80
-0.312774 0.0191484 0.153888 109 167 80
-0.312709 0.0203338 0.153933 108 167 79
-0.312387 0.0214565 0.154153 108 165 79
-0.313099 0.0228302 0.153672 108 165 78
-0.305922 0.0280575 0.158537 110 163 80
-0.305616 0.0291366 0.158745 109 162 80
-0.305554 0.0302826 0.158788 108 161 77
-0.305249 0.0313569 0.158996 107 159 77
-0.304944 0.0324283 0.159203 106 157 77
-0.304882 0.0335701 0.159246 103 156 76
-0.30482 0.0347112 0.159289 101 154 74
-0.304517 0.035776 0.159496 100 152 74
-0.304214 0.036838 0.159702 98 150 74
-0.304152 0.0379749 0.159745 97 149 74
-0.304091 0.0391112 0.159788 95 148 72
-0.303788 0.0401666 0.159994 92 142 70
-0.303727 0.0413004 0.160036 90 137 69
-0.303426 0.0423512 0.160242 85 131 65
-0.303364 0.0434826 0.160284 81 125 62
-0.303303 0.0446135 0.160327 76 119 61
-0.303242 0.0457438 0.160369 72 117 59
-0.303181 0.0468735 0.160412 71 118 58
-0.30312 0.0480026 0.160455 74 120 60
-0.303298 0.0492209 0.160335 77 125 66
-0.303477 0.0504413 0.160215 86 133 70
-0.303656 0.0516638 0.160095 93 142 73
-0.304077 0.0529826 0.159811 103 153 78
-0.304258 0.0542106 0.15969 109 161 81
-0.304196 0.0553434 0.159733 115 169 86
-0.304377 0.0565741 0.159612 120 175 89
-0.304559 0.0578068 0.15949 126 182 92
-0.304741 0.0590417 0.159368 132 193 98
-0.304679 0.0601759 0.159411 139 206 108
-0.304375 0.0612057 0.159618 147 216 113
-0.304313 0.0623374 0.159661 148 208 106
-0.304738 0.0636813 0.159374 135 195 99
-0.305165 0.0650303 0.159087 122 183 95
-0.305594 0.0663847 0.158798 113 174 96
-0.318135 -0.0016377 0.148755 146 162 139
-0.317531 -0.000493274 0.149169 125 146 114
-0.316929 0.000645312 0.149582 109 140 85
-0.316064 0.00173739 0.150174 108 159 83
-0.315469 0.00286327 0.150582 115 172 87
-0.314614 0.00394049 0.151167 124 180 89
-0.314287 0.005098 0.151392 126 188 94
-0.31396 0.00625228 0.151616 119 182 90
-0.313635 0.00740337 0.15184 113 175 85
-0.31331 0.00855125 0.152063 111 173 83
-0.312986 0.00969593 0.152285 111 172 81
-0.312922 0.0108878 0.15233 112 172 81
-0.312857 0.0120791 0.152375 111 172 81
-0.312793 0.0132697 0.152421 110 171 81
-0.312729 0.0144597 0.152466 110 171 81
-0.312664 0.015649 0.152511 111 170 80
-0.3126 0.0168378 0.152556 110 170 80
-0.312536 0.0180259 0.152601 110 169 81
-0.312731 0.0192731 0.152469 110 169 81
-0.312666 0.0204613 0.152514 111 169 81
-0.313905 0.0219631 0.15167 110 166 80
-0.31384 0.0231567 0.151715 110 168 79
-0.305254 0.0303587 0.157589 109 162 79
-0.304949 0.0314341 0.157799 108 162 79
-0.304403 0.0324345 0.158173 108 161 80
-0.304341 0.0335763 0.158217 107 160 78
-0.304279 0.0347175 0.15826 105 158 77
-0.304218 0.0358581 0.158303 104 156 78
-0.304156 0.0369982 0.158346 102 154 76
-0.304094 0.0381376 0.15839 101 153 75
-0.303792 0.039197 0.158598 100 152 74
-0.30349 0.0402535 0.158805 96 149 74
-0.303429 0.0413887 0.158848 95 147 75
-0.303127 0.0424405 0.159055 94 145 71
-0.303066 0.0435733 0.159098 92 140 70
-0.302766 0.0446205 0.159304 89 135 68
-0.302705 0.0457508 0.159347 83 128 65
-0.302644 0.0468806 0.15939 77 123 60
-0.302583 0.0480097 0.159433 72 120 59
-0.302761 0.0492282 0.159312 70 118 60
-0.302939 0.0504487 0.159192 72 118 60
-0.303599 0.0518572 0.158742 73 123 64
-0.303779 0.0530846 0.15862 80 132 70
-0.30396 0.0543141 0.158498 92 143 74
-0.303898 0.0554483 0.158541 105 156 79
-0.304079 0.0566805 0.158418 112 166 83
-0.304748 0.0581155 0.157963 115 170 86
-0.30493 0.0593548 0.15784 119 171 90
-0.304869 0.0604928 0.157883 123 176 94
-0.304563 0.0615257 0.158093 127 185 98
-0.304502 0.0626612 0.158136 133 198 106
-0.304929 0.0640102 0.157845 139 206 111
-0.305113 0.0652556 0.157721 145 209 111
-0.317561 -0.00163376 0.147662 154 170 153
-0.317226 -0.00045083 0.147894 135 152 121
-0.316624 0.000689033 0.14831 111 139 88
-0.31576 0.00178228 0.148908 108 155 81
-0.314901 0.00286749 0.149501 114 168 84
-0.31431 0.00398775 0.14991 121 178 88
-0.313983 0.0051466 0.150136 127 187 94
-0.313657 0.00630221 0.150362 123 184 91
-0.313071 0.00740789 0.150767 115 177 87
-0.313007 0.00860377 0.150813 112 174 85
-0.312683 0.00974976 0.151037 111 172 84
-0.312619 0.0109431 0.151083 112 172 83
-0.312554 0.0121357 0.151128 112 173 82
-0.312749 0.013381 0.150995 111 172 82
-0.312685 0.0145737 0.151041 110 172 82
-0.312621 0.0157658 0.151086 111 172 81
-0.312816 0.0170147 0.150953 111 171 80
-0.313012 0.0182657 0.150819 111 171 81
-0.312947 0.0194586 0.150864 110 172 82
-0.313405 0.0207743 0.15055 111 171 82
-0.31334 0.0219686 0.150596 111 169 81
-0.316185 0.0238812 0.148636 112 170 81
-0.31612 0.0250891 0.148682 111 171 82
-0.316055 0.0262964 0.148728 114 171 81
-0.304103 0.0325128 0.156977 110 163 79
-0.3038 0.0335825 0.157187 110 162 79
-0.303979 0.0347985 0.157064 108 162 81
-0.303918 0.0359404 0.157107 107 160 82
-0.303856 0.0370817 0.157151 106 160 81
-0.303795 0.0382225 0.157195 104 158 80
-0.303733 0.0393626 0.157238 105 155 77
-0.303431 0.0404213 0.157448 102 155 77
-0.303129 0.0414771 0.157657 100 151 77
-0.302828 0.0425301 0.157865 100 150 74
-0.302528 0.0435802 0.158074 97 148 73
-0.302467 0.0447124 0.158117 95 147 73
-0.302167 0.0457578 0.158324 93 144 73
-0.302106 0.0468877 0.158368 90 139 70
-0.302045 0.0480169 0.158411 87 132 67
-0.302223 0.0492355 0.158289 84 124 64
-0.302401 0.050456 0.158168 79 119 62
-0.303059 0.0518646 0.157715 70 117 60
-0.30348 0.0531869 0.157426 69 116 62
-0.303661 0.0544179 0.157303 79 127 67
-0.316653 -0.000446821 0.146802 146 155 128
-0.316052 0.000693115 0.147221 113 141 99
-0.31519 0.00178642 0.147823 106 151 83
-0.314333 0.00287172 0.14842 111 164 83
-0.313743 0.00399206 0.148831 117 176 88
-0.313417 0.00515098 0.149059 128 188 92
-0.313092 0.00630665 0.149287 128 189 92
-0.312508 0.00741241 0.149694 118 181 89
-0.312443 0.00860838 0.14974 112 176 86
-0.312379 0.00980372 0.149786 113 174 85
-0.312315 0.0109984 0.149832 112 173 84
-0.312251 0.0121925 0.149878 112 173 83
-0.313226 0.0136003 0.1492 113 172 82
-0.322392 0.0167483 0.142825 112 172 83
-0.322043 0.0179324 0.143069 113 173 83
-0.321976 0.0191753 0.143117 113 173 81
-0.321909 0.0204176 0.143164 112 174 82
-0.320444 0.0213347 0.144185 112 174 83
-0.317088 0.0217878 0.146521 112 173 83
-0.316484 0.0228733 0.146943 113 172 83
-0.315882 0.0239531 0.147362 115 173 84
-0.315549 0.0250949 0.147595 114 173 84
-0.314952 0.0261647 0.148012 116 173 84
-0.314887 0.0273687 0.148058 115 170 83
-0.303802 0.0325913 0.155777 110 164 79
-0.303499 0.0336622 0.155989 111 164 79
-0.303438 0.0348048 0.156033 111 163 82
-0.303376 0.0359468 0.156077 109 162 82
-0.303556 0.0371655 0.155953 108 163 82
-0.303736 0.0383863 0.155829 106 163 83
-0.303433 0.039449 0.156041 108 158 80
-0.303131 0.0405088 0.156252 107 158 79
-0.30307 0.0416478 0.156296 106 156 78
-0.302528 0.0426198 0.156673 105 155 77
-0.302228 0.043671 0.156883 102 154 76
-0.302167 0.0448046 0.156927 100 153 74
-0.301868 0.0458511 0.157136 99 152 75
-0.301569 0.0468948 0.157345 99 152 77
-0.301508 0.0480241 0.157388 100 150 77
-0.301924 0.0493328 0.157101 98 147 78
-0.301863 0.0504633 0.157144 97 142 75
-0.316079 -0.000442815 0.14571 152 162 139
-0.31548 0.000697211 0.146132 119 144 111
-0.314884 0.00183143 0.146552 107 145 84
-0.314028 0.00291786 0.147154 110 161 81
-0.312916 0.00395337 0.147936 116 172 87
-0.312591 0.00511111 0.148165 126 185 91
-0.312527 0.0063111 0.148211 130 191 93
-0.311944 0.00741694 0.148622 123 185 90
-0.31188 0.00861298 0.148668 116 177 87
-0.311816 0.0098084 0.148714 115 176 85
-0.311752 0.0110032 0.14876 114 175 83
-0.312725 0.0124063 0.148078 113 174 82
-0.322719 0.0156829 0.141063 113 174 82
-0.322868 0.0182442 0.140961 114 174 84
-0.322801 0.0194945 0.141009 113 176 82
-0.321323 0.0204231 0.142048 114 178 82
-0.321256 0.0216647 0.142096 116 179 84
-0.319795 0.0225741 0.143123 116 181 86
-0.3189 0.0236058 0.143752 117 180 89
-0.318012 0.0246298 0.144377 117 180 90
-0.31578 0.025304 0.145945 115 177 90
-0.314913 0.0263081 0.146555 115 176 85
-0.314317 0.0273746 0.146974 115 174 84
-0.314253 0.0285781 0.147021 115 173 85
-0.313923 0.0297083 0.147253 113 170 84
-0.313595 0.0308353 0.147485 112 168 83
-0.313531 0.0320341 0.147531 114 167 81
-0.303374 0.0396157 0.154671 110 163 82
-0.30283 0.0405965 0.155054 109 161 80
-0.302529 0.0416546 0.155266 108 160 78
-0.302228 0.0427098 0.155478 105 160 79
-0.302167 0.0438464 0.155522 103 157 78
-0.301867 0.0448969 0.155734 103 156 76
-0.301568 0.0459445 0.155945 104 157 77
-0.301507 0.047077 0.155989 104 157 80
-0.301446 0.0482088 0.156033 105 156 79
-0.301385 0.04934 0.156076 103 154 77
-0.314908 0.000701305 0.145043 131 149 121
-0.314578 0.00187653 0.145278 109 140 87
-0.313721 0.00296411 0.145886 107 156 80
-0.31235 0.00395766 0.146858 114 170 85
-0.312026 0.00511548 0.147089 122 180 89
-0.311703 0.00627006 0.147319 129 191 94
-0.31138 0.00742146 0.147549 126 189 93
-0.311316 0.00861759 0.147595 118 181 88
-0.311252 0.00981309 0.147642 115 178 85
-0.311446 0.0110587 0.147505 114 177 84
-0.31242 0.0124637 0.146817 114 176 83
-0.321283 0.0155129 0.140539 114 176 83
-0.322629 0.0170587 0.139587 114 177 84
-0.322278 0.0182495 0.139837 114 178 85
-0.322211 0.0194999 0.139886 116 183 87
-0.321861 0.0206851 0.140135 125 190 92
-0.32039 0.0216051 0.141178 138 199 98
-0.320324 0.0228448 0.141226 135 204 101
-0.319146 0.023813 0.142061 132 203 101
-0.318254 0.0248398 0.142695 135 203 102
-0.317367 0.025859 0.143324 133 196 104
-0.315142 0.0265214 0.144901 127 189 93
-0.314012 0.0274506 0.145703 118 181 88
-0.313683 0.028584 0.145937 116 176 85
-0.313355 0.0297143 0.146171 115 172 85
-0.313027 0.0308414 0.146404 113 171 84
-0.312963 0.0320403 0.14645 113 170 83
-0.313162 0.0333151 0.146311 114 169 81
-0.302227 0.0417436 0.154067 110 161 79
-0.301927 0.0427999 0.154281 107 163 80
-0.301866 0.0439379 0.154325 106 162 80
-0.314336 0.000705396 0.143953 146 156 129
-0.314006 0.0018807 0.14419 116 142 97
-0.313152 0.00296835 0.144802 107 150 82
-0.311784 0.00396196 0.145781 112 166 82
-0.311461 0.00511985 0.146013 118 177 88
-0.311138 0.00627451 0.146245 129 190 93
-0.310817 0.00742597 0.146476 130 194 96
-0.310753 0.00862218 0.146522 121 186 92
-0.310689 0.00981776 0.146569 116 180 88
-0.310883 0.0110635 0.146432 115 179 86
-0.312375 0.012574 0.145366 114 178 85
-0.322104 0.0158107 0.138413 114 178 84
-0.322606 0.017185 0.138056 115 180 87
-0.322539 0.0184405 0.138105 118 186 91
-0.322471 0.0196954 0.138154 131 201 101
-0.321554 0.0207551 0.138811 150 221 116
-0.321205 0.0219383 0.139061 165 228 119
-0.319182 0.0227175 0.140509 167 233 119
-0.319116 0.0239538 0.140557 160 235 117
-0.318222 0.0249826 0.141197 161 234 117
-0.317061 0.0259342 0.142028 166 231 121
-0.314569 0.0265273 0.14381 152 216 110
-0.313442 0.0274565 0.144617 131 195 95
-0.313114 0.02859 0.144853 121 181 88
-0.312786 0.0297204 0.145088 118 174 87
-0.312722 0.0309213 0.145135 116 171 84
-0.312395 0.0320465 0.14537 115 171 84
-0.312594 0.0333214 0.145229 114 170 83
-0.31332 0.0347553 0.144711 113 168 82
-0.3302 0.0659835 0.13267 127 180 97
-0.330132 0.0672668 0.132721 120 168 92
-0.313763 0.000709485 0.142864 154 165 145
-0.313435 0.00188486 0.143102 125 147 114
-0.312582 0.00297259 0.143718 109 145 84
-0.311218 0.00396624 0.144703 109 160 80
-0.310638 0.00508006 0.145123 115 173 87
-0.310317 0.00623357 0.145355 126 184 91
-0.310253 0.00743049 0.145402 134 196 97
-0.310189 0.0086268 0.145449 128 194 96
-0.310125 0.00982246 0.145496 120 184 91
-0.310318 0.0110682 0.145358 116 181 87
-0.319337 0.0141069 0.138855 115 180 85
-0.322364 0.0159932 0.136673 116 181 85
-0.322297 0.0172509 0.136722 119 186 90
-0.32223 0.018508 0.136772 128 198 97
-0.321879 0.0197008 0.137026 147 221 112
-0.321529 0.0208902 0.13728 168 244 131
-0.320616 0.0219439 0.13794 172 244 136
-0.318598 0.0227231 0.139396 173 239 128
-0.317705 0.023757 0.140041 162 233 119
-0.31764 0.0249884 0.140089 158 231 116
-0.316754 0.0260095 0.140729 164 236 121
-0.313996 0.0265331 0.14272 158 231 121
-0.313135 0.0275326 0.143341 146 216 108
-0.312544 0.028596 0.143769 131 194 98
-0.31248 0.029799 0.143816 122 179 89
-0.312153 0.0309275 0.144053 118 173 86
-0.312089 0.0321279 0.1441 116 172 86
-0.312025 0.0333277 0.144147 114 171 84
-0.31275 0.0347617 0.143626 113 170 83
-0.312686 0.0359643 0.143673 112 168 83
-0.333548 0.0569313 0.128642 108 165 81
-0.331607 0.0575527 0.130043 108 167 83
-0.330306 0.0583913 0.130982 110 169 85
-0.329931 0.0595651 0.131253 112 172 87
-0.329863 0.0608518 0.131304 117 177 91
-0.329794 0.0621379 0.131355 128 190 97
-0.329726 0.0634233 0.131405 135 195 103
-0.329657 0.0647081 0.131456 130 184 100
-0.329589 0.0659921 0.131506 122 171 95
-0.32952 0.0672755 0.131557 114 162 96
-0.329452 0.0685583 0.131607 121 162 108
-0.312601 0.00184807 0.142205 145 157 130
-0.311752 0.00293479 0.142823 117 142 92
-0.310651 0.00397053 0.143625 108 153 81
-0.310073 0.00508443 0.144047 112 168 85
-0.309753 0.006238 0.144282 121 179 89
-0.309689 0.00743502 0.144329 134 196 96
-0.309625 0.00863139 0.144376 136 203 101
-0.309562 0.00982713 0.144424 127 194 96
-0.309498 0.0110222 0.144471 119 185 89
-0.321704 0.0172562 0.135593 125 195 93
-0.321637 0.0185134 0.135642 138 212 103
-0.321286 0.0197063 0.135898 150 225 111
-0.320655 0.0208308 0.136359 160 229 119
-0.320026 0.0219494 0.136818 156 222 123
-0.318013 0.0227288 0.138284 145 210 112
-0.317123 0.0237627 0.138932 134 199 101
-0.316239 0.0247888 0.139577 130 196 99
-0.316174 0.0260153 0.139625 134 202 102
-0.313688 0.0266085 0.141435 141 211 110
-0.312564 0.0275385 0.142254 147 216 110
-0.312237 0.0286734 0.142493 143 209 105
-0.31191 0.0298051 0.142732 127 188 92
-0.311846 0.0310076 0.14278 118 176 87
-0.311782 0.0322095 0.142827 116 174 86
-0.311718 0.0334107 0.142875 115 172 86
-0.31218 0.0347681 0.14254 114 170 84
-0.312116 0.0359708 0.142588 114 169 85
-0.334994 0.0482879 0.125946 113 167 82
-0.334924 0.0496074 0.125999 111 170 82
-0.334854 0.0509262 0.126051 113 167 83
-0.334466 0.0521362 0.126334 110 167 85
-0.33408 0.0533425 0.126616 112 168 85
-0.333694 0.0545451 0.126898 114 168 85
-0.332996 0.0556321 0.127407 114 171 84
-0.331678 0.0564879 0.128367 111 174 85
-0.330374 0.0573346 0.129317 112 175 88
-0.329692 0.0583994 0.129815 117 177 91
-0.329318 0.0595733 0.130088 122 186 95
-0.32925 0.0608601 0.130139 134 198 102
-0.329182 0.0621463 0.13019 139 198 107
-0.329113 0.0634318 0.13024 132 185 99
-0.329045 0.0647166 0.130291 122 172 93
-0.328977 0.0660007 0.130342 115 163 95
-0.328909 0.0672842 0.130393 124 163 108
-0.32884 0.068567 0.130444 146 173 132
-0.328772 0.0698492 0.130494 172 184 157
-0.312029 0.00185225 0.141118 162 168 146
-0.310665 0.00285523 0.142121 131 150 113
-0.310085 0.00397483 0.142547 110 148 86
-0.309508 0.00508878 0.142972 109 162 82
-0.309188 0.00624244 0.143208 117 175 87
-0.309125 0.00743954 0.143255 128 190 95
-0.309061 0.00863599 0.143303 139 206 104
-0.308998 0.00983181 0.143351 136 206 104
-0.309446 0.0111286 0.143023 126 197 97
-0.321043 0.0185188 0.134513 142 217 104
-0.32013 0.0195848 0.135184 143 212 103
-0.319503 0.0207071 0.135646 137 199 98
-0.318323 0.0216925 0.136513 130 184 92
-0.317428 0.0227344 0.137171 122 178 86
-0.316541 0.0237684 0.137824 116 175 85
-0.315388 0.0247264 0.138671 115 175 87
-0.313445 0.0254692 0.140099 117 176 86
-0.31338 0.026684 0.140147 122 180 89
-0.312256 0.0276148 0.140974 130 193 96
-0.311666 0.0286794 0.141408 141 206 102
-0.311602 0.029884 0.141456 133 193 97
-0.311539 0.0310879 0.141504 122 180 89
-0.311475 0.0322913 0.141552 119 174 88
-0.311411 0.0334939 0.141599 116 173 88
-0.31161 0.0347745 0.141455 114 171 86
-0.311809 0.0360573 0.14131 115 169 85
-0.334438 0.0469751 0.124701 113 170 85
-0.334368 0.0482954 0.124754 113 170 87
-0.334298 0.049615 0.124807 114 169 85
-0.334228 0.0509339 0.124859 112 170 88
-0.334158 0.0522521 0.124912 112 171 87
-0.333456 0.0533503 0.125428 113 170 87
-0.333071 0.054553 0.125712 115 173 88
-0.332374 0.0556401 0.126224 116 175 89
-0.33137 0.0566083 0.126963 117 180 90
-0.330066 0.0574556 0.127921 122 186 94
-0.329384 0.0585215 0.128423 131 193 101
-0.32901 0.0596967 0.128698 141 205 107
-0.328637 0.0608684 0.128973 139 202 108
-0.328569 0.0621546 0.129024 132 184 102
-0.328501 0.0634402 0.129075 122 169 94
-0.328433 0.0647251 0.129127 114 163 95
-0.328365 0.0660093 0.129178 124 165 109
-0.328297 0.0672929 0.129229 147 173 132
-0.328229 0.0685758 0.12928 169 182 154
-0.328161 0.069858 0.129331 178 185 165
-0.310097 0.00285946 0.14104 151 163 139
-0.309519 0.00397912 0.141469 121 147 100
-0.308943 0.00509315 0.141897 109 153 82
-0.308624 0.00624689 0.142134 113 168 85
-0.308561 0.00744407 0.142182 121 182 92
-0.308753 0.00868869 0.142041 135 201 101
-0.308945 0.00993546 0.1419 146 217 109
-0.309651 0.0112867 0.141377 145 221 114
-0.319605 0.018338 0.134009 139 209 100
-0.318144 0.0192755 0.135092 130 193 92
-0.317802 0.0204559 0.135347 122 180 86
-0.316909 0.0215028 0.136009 117 172 83
-0.316296 0.0226077 0.136464 114 171 81
-0.315686 0.0237069 0.136917 111 170 84
-0.314808 0.0247322 0.137568 112 171 83
-0.31287 0.025475 0.139005 112 172 83
-0.312012 0.0264813 0.139642 114 172 83
-0.311422 0.0275503 0.14008 117 177 87
-0.311358 0.028757 0.140128 129 191 94
-0.311294 0.029963 0.140176 130 194 99
-0.31123 0.0311684 0.140225 122 184 94
-0.310905 0.0322975 0.140467 118 176 90
-0.311103 0.0335774 0.140321 118 174 89
-0.311301 0.0348595 0.140175 117 172 85
-0.334338 0.043114 0.123115 117 172 84
-0.334198 0.0457616 0.123221 115 171 86
-0.333811 0.0469825 0.123509 115 171 86
-0.333741 0.0483029 0.123561 115 172 88
-0.333671 0.0496225 0.123614 117 170 86
-0.333601 0.0509415 0.123667 114 174 88
-0.333532 0.0522598 0.12372 115 175 89
-0.333146 0.0534676 0.124007 116 174 90
-0.332447 0.0545609 0.124525 120 178 94
-0.331752 0.055648 0.125041 125 187 97
-0.330751 0.0566164 0.125784 130 197 100
-0.329449 0.0574636 0.126749 138 205 105
-0.329075 0.0586438 0.127027 146 207 111
-0.328397 0.0597049 0.127531 141 200 108
-0.328328 0.0609935 0.127582 131 183 99
-0.327957 0.062163 0.127859 120 169 95
-0.327889 0.0634486 0.12791 115 160 98
-0.327821 0.0647336 0.127962 128 164 113
-0.327753 0.0660179 0.128013 152 177 137
-0.327685 0.0673016 0.128065 171 186 157
-0.327617 0.0685846 0.128116 177 185 164
-0.309209 0.00402644 0.140199 138 156 124
-0.308633 0.00514171 0.14063 114 147 91
-0.308314 0.00629674 0.140869 111 160 82
-0.308251 0.00749534 0.140918 117 174 88
-0.308443 0.0087415 0.140776 126 190 95
-0.309148 0.0100895 0.14025 144 213 107
-0.310116 0.0114976 0.139527 163 236 122
-0.31652 0.0177925 0.134746 133 195 96
-0.316455 0.0190318 0.134796 120 179 88
-0.31639 0.0202704 0.134846 113 172 83
-0.315778 0.0213789 0.135304 112 168 81
-0.315441 0.0225474 0.135557 109 165 80
-0.314833 0.0236455 0.136012 108 166 81
-0.31396 0.0246699 0.136666 111 168 81
-0.312295 0.0254807 0.137911 112 169 82
-0.311439 0.0264871 0.138551 113 171 81
-0.31085 0.0275562 0.138992 115 171 84
-0.310787 0.028763 0.139041 121 179 88
-0.310723 0.0299691 0.139089 125 186 93
-0.310659 0.0311746 0.139138 123 182 90
-0.310596 0.0323794 0.139186 119 176 89
-0.310532 0.0335837 0.139235 117 175 89
-0.334415 0.0419874 0.121391 116 174 88
-0.334345 0.0433156 0.121445 115 173 87
-0.33364 0.0444454 0.121973 116 174 86
-0.33357 0.0457689 0.122026 117 175 86
-0.3335 0.0470917 0.122079 118 174 87
-0.33343 0.0484138 0.122133 115 174 90
-0.333361 0.0497352 0.122186 116 174 89
-0.332975 0.0509492 0.122475 116 176 91
-0.332905 0.0522675 0.122528 118 181 97
-0.332521 0.0534754 0.122817 137 190 104
-0.331824 0.0545688 0.123338 144 201 110
-0.33113 0.055656 0.123858 144 209 110
-0.33044 0.0567371 0.124374 147 212 111
-0.328833 0.0574717 0.125576 148 210 112
-0.328459 0.0586519 0.125857 141 196 106
-0.328087 0.0598286 0.126136 130 181 97
-0.327715 0.0610017 0.126415 119 167 94
-0.327647 0.0622897 0.126467 114 162 101
-0.327579 0.0635771 0.126519 130 167 118
-0.327511 0.0648637 0.126571 154 177 142
-0.327443 0.0661497 0.126622 174 186 161
-0.327375 0.067435 0.126674 182 190 168
-0.30967 0.00420384 0.138344 153 170 147
-0.308578 0.00523473 0.139168 123 150 107
-0.308004 0.00634673 0.139602 109 150 82
-0.307941 0.00754675 0.139651 112 165 85
-0.308644 0.00889139 0.139122 119 178 91
-0.30961 0.0102948 0.138394 131 194 98
-0.310065 0.0116061 0.138053 152 218 111
-0.311044 0.0130302 0.137315 169 233 123
-0.314166 0.0149166 0.134963 164 227 121
-0.314911 0.0163224 0.134402 142 205 108
-0.314846 0.0175566 0.134452 124 181 91
-0.315053 0.0188517 0.134298 114 170 85
-0.314988 0.0200862 0.134348 110 165 82
-0.314923 0.0213199 0.134398 102 157 78
-0.314316 0.0224216 0.134856 97 149 75
-0.313982 0.0235843 0.135109 96 151 74
-0.31338 0.0246756 0.135563 102 156 77
-0.312515 0.0256924 0.136217 108 166 82
-0.311656 0.0267015 0.136866 111 170 82
-0.310802 0.0277032 0.13751 114 169 83
-0.310477 0.0288408 0.137756 117 174 86
-0.310025 0.0323857 0.1381 118 176 87
-0.333398 0.0432254 0.120485 116 175 88
-0.333012 0.0444526 0.120777 117 175 89
-0.332942 0.0457762 0.120831 118 176 90
-0.332872 0.0470991 0.120885 117 178 91
-0.332803 0.0484213 0.120938 117 177 93
-0.332418 0.0496377 0.121229 117 181 98
-0.332348 0.0509568 0.121283 133 189 106
-0.332279 0.0522753 0.121336 153 213 120
-0.331582 0.0533737 0.121863 157 220 128
-0.3312 0.0545766 0.122152 165 224 125
-0.330508 0.0556639 0.122674 164 222 120
-0.32982 0.0567451 0.123194 149 208 115
-0.328522 0.057593 0.124173 139 193 106
-0.328149 0.0587746 0.124456 127 175 96
-0.327776 0.0599527 0.124738 118 165 94
-0.327404 0.0611272 0.125019 115 159 105
-0.327336 0.0624169 0.125072 131 170 125
-0.327268 0.0637058 0.125124 157 183 148
-0.326898 0.0648723 0.125404 174 188 164
-0.309358 0.00425167 0.137063 162 175 158
-0.309295 0.00546253 0.137113 137 153 123
-0.308973 0.0066265 0.137358 111 142 89
-0.30891 0.00783472 0.137407 105 154 84
-0.309362 0.00914036 0.137064 113 168 88
-0.309557 0.0104006 0.136917 121 177 91
-0.310013 0.0117152 0.136571 127 187 94
-0.310732 0.0130891 0.136025 134 191 98
-0.312516 0.0146956 0.13467 132 188 96
-0.31352 0.0161524 0.133907 123 180 89
-0.313724 0.0174421 0.133753 116 170 85
-0.314199 0.0187956 0.133393 111 166 83
-0.314134 0.0200286 0.133443 105 158 80
-0.3138 0.0211968 0.133699 92 144 71
-0.313735 0.0224272 0.133749 83 133 70
-0.313401 0.0235899 0.134003 82 133 67
-0.313337 0.0248175 0.134054 86 138 70
-0.312737 0.0259055 0.134511 100 156 77
-0.311874 0.0269175 0.135168 110 168 81
-0.31181 0.0281361 0.135218 113 169 84
-0.332453 0.0431354 0.119528 120 178 91
-0.332383 0.0444598 0.119582 119 178 90
-0.331999 0.0456833 0.119875 119 181 92
-0.33193 0.0470046 0.119929 118 183 96
-0.33186 0.0483253 0.119983 127 191 103
-0.331791 0.0496452 0.120037 150 207 115
-0.331722 0.0509644 0.12009 156 224 134
-0.331339 0.0521748 0.120383 171 227 131
-0.330957 0.0533815 0.120674 173 231 133
-0.330576 0.0545845 0.120965 166 223 125
-0.330196 0.0557838 0.121255 154 204 111
-0.3292 0.0567531 0.122013 135 187 104
-0.32821 0.0577145 0.122767 123 173 97
-0.327837 0.0588976 0.123052 116 162 96
-0.327464 0.060077 0.123336 122 158 108
-0.327093 0.0612529 0.12362 134 169 133
-0.327025 0.0625443 0.123672 157 182 154
-0.326654 0.0637143 0.123955 173 190 169
-0.309304 0.00434335 0.135581 168 176 159
-0.309499 0.00560223 0.135432 149 157 131
-0.309695 0.00686331 0.135283 118 139 100
-0.309632 0.00807846 0.135333 102 143 87
-0.309568 0.00929297 0.135382 105 155 83
-0.309764 0.0105577 0.135233 114 168 86
-0.310222 0.0118773 0.134883 116 174 87
-0.311208 0.0133109 0.134127 117 174 86
-0.311937 0.0147007 0.133569 115 172 86
-0.312405 0.0160414 0.133211 113 169 86
-0.312875 0.0173877 0.132851 112 167 85
-0.313078 0.0186783 0.132696 111 163 83
-0.313014 0.0199086 0.132747 100 153 79
-0.312949 0.0211383 0.132797 99 148 71
-0.312885 0.0223673 0.132848 98 150 76
-0.313089 0.0236625 0.132692 93 144 73
-0.313024 0.0248916 0.132743 84 136 67
-0.312692 0.0260503 0.132999 94 150 72
-0.31236 0.0272057 0.133254 107 167 79
-0.3131 0.0286478 0.132688 111 169 83
-0.332209 0.0419128 0.118036 122 180 92
-0.33151 0.0430457 0.118573 122 182 93
-0.331441 0.0443685 0.118627 123 184 97
-0.331372 0.0456906 0.118681 131 193 106
-0.331302 0.047012 0.118735 155 207 114
-0.331233 0.0483328 0.11879 159 231 131
-0.331164 0.0496528 0.118844 169 230 132
-0.330782 0.0508656 0.119138 179 242 137
-0.330713 0.0521826 0.119192 173 230 133
-0.330332 0.0533893 0.119485 161 214 122
-0.329952 0.0545924 0.119777 146 198 108
-0.329573 0.0557918 0.120069 132 180 98
-0.328887 0.0568742 0.120597 119 169 96
-0.327898 0.0578364 0.121357 115 163 100
-0.327524 0.0590209 0.121644 127 160 114
-0.327152 0.0602017 0.121931 147 170 140
-0.32678 0.061379 0.122217 164 184 160
-0.326713 0.062672 0.12227 172 186 168
-0.309509 0.00447947 0.133891 171 177 157
-0.309706 0.00574287 0.13374 151 158 130
-0.309903 0.0070085 0.133588 120 139 104
-0.309839 0.00822788 0.133639 105 136 92
-0.309775 0.00944662 0.133689 101 143 82
-0.309711 0.0106647 0.133739 107 158 82
-0.310695 0.0120935 0.132979 112 169 85
-0.311423 0.0134798 0.132417 113 170 85
-0.311889 0.0148185 0.132057 112 169 84
-0.312091 0.0161046 0.131901 112 168 85
-0.312294 0.017393 0.131746 111 167 85
-0.312497 0.0186837 0.13159 110 159 82
-0.312433 0.0199141 0.13164 100 148 78
-0.312368 0.0211438 0.131691 105 160 83
-0.312572 0.0224383 0.131535 109 166 86
-0.312775 0.0237353 0.131378 104 156 80
-0.312711 0.0249659 0.131429 92 148 75
-0.312647 0.0261958 0.131479 98 156 76
-0.312583 0.0274251 0.13153 108 166 82
-0.312518 0.0286538 0.131581 110 169 86
-0.331021 0.0404049 0.117269 121 187 98
-0.330952 0.0417292 0.117324 126 191 103
-0.330258 0.0428598 0.117861 143 203 109
-0.330189 0.0441794 0.117916 166 221 121
-0.330432 0.045598 0.117729 166 237 140
-0.330363 0.0469178 0.117783 171 231 135
-0.330294 0.048237 0.117838 183 244 135
-0.330225 0.0495554 0.117892 175 239 138
-0.330156 0.0508732 0.117947 166 224 126
-0.330087 0.0521903 0.118001 152 205 115
-0.329707 0.0533971 0.118296 136 187 105
-0.329328 0.0546003 0.11859 124 175 97
-0.32895 0.0557997 0.118884 118 166 97
-0.328266 0.0568822 0.119415 119 162 107
-0.32789 0.058073 0.119706 132 167 122
-0.327211 0.0591445 0.120233 155 170 146
-0.326839 0.0603267 0.120522 170 185 165
-0.326467 0.0615053 0.12081 176 186 170
-0.310239 0.00470548 0.131781 172 178 157
-0.310438 0.00597644 0.131627 151 157 128
-0.311429 0.00739297 0.130854 117 133 98
-0.311365 0.00862361 0.130905 106 132 93
-0.310246 0.00965155 0.131779 101 134 85
-0.310182 0.0108753 0.13183 100 144 77
-0.311438 0.0123653 0.130851 108 160 81
-0.311639 0.0136499 0.130694 112 169 85
-0.311575 0.0148802 0.130745 112 169 85
-0.311777 0.0161679 0.130589 111 169 84
-0.31198 0.0174579 0.130432 111 165 83
-0.312182 0.0187503 0.130274 101 152 79
-0.312386 0.020045 0.130116 84 134 71
-0.312322 0.0212776 0.130167 86 147 77
-0.312257 0.0225096 0.130219 101 159 86
-0.312461 0.0238082 0.13006 102 157 79
-0.312397 0.0250403 0.130112 105 161 79
-0.312333 0.0262718 0.130163 111 170 85
-0.312001 0.0274311 0.130423 111 171 85
-0.312204 0.0287328 0.130265 111 168 84
-0.330081 0.0403185 0.116317 148 217 114
-0.329701 0.0415465 0.116615 153 230 129
-0.329632 0.0428669 0.116669 161 238 136
-0.329563 0.0441866 0.116724 182 242 133
-0.329805 0.0456053 0.116536 192 250 141
-0.329736 0.0469252 0.116591 176 240 141
-0.329667 0.0482445 0.116646 167 224 124
-0.329599 0.049563 0.116701 154 210 118
-0.32953 0.0508809 0.116755 140 193 107
-0.329151 0.0520901 0.117052 128 178 99
-0.328773 0.0532956 0.117348 118 168 97
-0.328396 0.0544975 0.117644 118 163 103
-0.328327 0.0558077 0.117698 128 164 117
-0.327644 0.0568902 0.118232 141 171 136
-0.32727 0.0580811 0.118525 161 180 152
-0.327202 0.0593843 0.118579 172 182 167
-0.326524 0.060452 0.119109 177 185 167
-0.316393 0.00585735 0.125382 173 179 157
-0.31278 0.0064944 0.128228 147 153 122
-0.312715 0.00773577 0.12828 112 127 89
-0.31265 0.00897648 0.128332 102 128 89
-0.311783 0.0100623 0.129015 101 129 87
-0.311719 0.0112974 0.129067 97 135 79
-0.311921 0.012586 0.128908 103 151 78
-0.311857 0.0138213 0.12896 111 166 84
-0.311793 0.0150558 0.129011 112 168 85
-0.311728 0.0162897 0.129063 113 166 84
-0.311932 0.017583 0.128904 109 158 81
-0.312135 0.0188786 0.128745 83 130 69
-0.312071 0.0201134 0.128796 68 116 54
-0.312007 0.0213475 0.128848 64 115 58
-0.312211 0.022647 0.128688 77 131 65
-0.312146 0.0238813 0.12874 95 155 78
-0.312082 0.0251149 0.128791 115 176 90
-0.31175 0.0262776 0.129054 117 178 92
-0.311686 0.0275085 0.129105 113 170 88
-0.312427 0.0289586 0.128522 112 166 86
-0.329385 0.0416483 0.115178 173 246 134
-0.329316 0.0429704 0.115233 177 248 141
-0.329247 0.0442918 0.115288 171 238 137
-0.329178 0.0456125 0.115343 168 224 125
-0.32942 0.0470342 0.115154 153 208 116
-0.329352 0.0483552 0.115209 139 192 104
-0.328972 0.0495705 0.115509 129 180 98
-0.328904 0.0508885 0.115564 119 171 96
-0.328526 0.0520978 0.115862 116 163 100
-0.328148 0.0533034 0.11616 123 164 111
-0.32808 0.054616 0.116215 137 168 128
-0.327704 0.0558156 0.116512 154 174 148
-0.327329 0.0570116 0.116808 169 186 164
-0.326955 0.0582039 0.117104 175 186 170
-0.317189 0.00609953 0.123146 166 179 157
-0.315733 0.00712294 0.124303 135 151 119
-0.314842 0.00823326 0.125012 103 124 82
-0.313142 0.00918273 0.126363 95 125 85
-0.312269 0.010273 0.127057 99 128 87
-0.311937 0.0114608 0.127322 98 132 83
-0.311872 0.0126996 0.127374 101 146 77
-0.311808 0.0139378 0.127426 111 164 84
-0.311477 0.015118 0.12769 113 168 86
-0.311412 0.0163535 0.127742 113 165 84
-0.311615 0.0176484 0.127582 103 153 79
-0.311551 0.0188839 0.127634 77 120 60
-0.311487 0.0201188 0.127686 64 116 56
-0.311959 0.0214823 0.127312 62 115 57
-0.311895 0.0227187 0.127364 75 133 64
-0.312099 0.0240222 0.127202 104 165 84
-0.312035 0.0252588 0.127254 119 179 92
-0.311971 0.0264947 0.127306 117 174 91
-0.311907 0.02773 0.127358 114 169 89
-0.312651 0.029186 0.126767 112 167 88
-0.328999 0.0430742 0.113793 153 212 116
-0.32893 0.0443973 0.113849 146 201 110
-0.328861 0.0457198 0.113904 136 189 101
-0.328793 0.0470416 0.11396 126 179 96
-0.328724 0.0483626 0.114015 120 169 95
-0.328656 0.049683 0.114071 116 163 101
-0.328277 0.0508961 0.114372 122 163 108
-0.328209 0.0522135 0.114427 131 166 124
-0.327832 0.0534206 0.114728 147 173 143
-0.327456 0.0546239 0.115027 163 182 157
-0.327388 0.0559359 0.115082 172 186 169
-0.316871 0.00615195 0.121784 157 174 148
-0.316526 0.00737269 0.122062 118 144 108
-0.315074 0.00838806 0.123225 96 126 80
-0.314185 0.00949333 0.123938 92 125 81
-0.31249 0.0104334 0.125297 95 126 84
-0.311888 0.011572 0.12578 96 131 82
-0.311555 0.0127591 0.126047 100 147 77
-0.311224 0.0139428 0.126314 111 163 83
-0.31116 0.0151804 0.126366 112 165 85
-0.311095 0.0164174 0.126418 109 159 83
-0.311031 0.0176536 0.12647 86 138 74
-0.310967 0.0188893 0.126523 73 124 60
-0.311438 0.0202506 0.126146 71 127 58
-0.311374 0.0214878 0.126199 73 128 63
-0.311578 0.0227906 0.126036 90 146 72
-0.311782 0.0240958 0.125873 113 175 90
-0.311987 0.0254034 0.12571 119 182 94
-0.312193 0.0267134 0.125546 116 173 89
-0.312129 0.0279531 0.125599 112 168 87
-0.312877 0.029415 0.125 112 167 87
-0.328681 0.0431782 0.11235 127 180 98
-0.328302 0.0444045 0.112654 122 173 93
-0.328544 0.0458273 0.112461 116 166 94
-0.328475 0.0471508 0.112517 116 163 100
-0.328407 0.0484736 0.112573 127 161 110
-0.328028 0.0496906 0.112877 137 166 130
-0.32796 0.0510104 0.112933 149 171 141
-0.327583 0.0522212 0.113236 160 179 154
-0.327515 0.053538 0.113291 168 185 167
-0.327139 0.0547428 0.113593 172 185 169
-0.317958 0.00644618 0.119283 153 166 132
-0.316206 0.00742669 0.120698 113 139 92
-0.315862 0.00864536 0.120977 94 133 82
-0.314414 0.00965266 0.122148 92 129 81
-0.312442 0.0105426 0.123742 93 129 82
-0.311569 0.0116302 0.124448 95 133 80
-0.311237 0.0128187 0.124717 103 149 77
-0.310906 0.0140038 0.124986 113 164 83
-0.310575 0.0151855 0.125254 111 164 83
-0.310511 0.0164225 0.125306 104 155 79
-0.310447 0.0176589 0.125359 89 136 68
-0.31065 0.0189563 0.125196 86 142 71
-0.310853 0.0202561 0.125033 81 139 67
-0.311056 0.0215582 0.124869 76 140 70
-0.31126 0.0228627 0.124705 101 164 82
-0.311465 0.0241696 0.124541 119 182 92
-0.31221 0.0256187 0.12394 118 178 93
-0.312417 0.0269336 0.123774 115 172 90
-0.312624 0.0282509 0.123608 114 171 90
-0.313378 0.0297209 0.123 113 168 89
-0.328985 0.0434776 0.110399 111 160 103
-0.328294 0.0446092 0.110958 118 160 103
-0.328225 0.0459351 0.111015 131 164 113
-0.328157 0.0472604 0.111071 136 168 132
-0.328088 0.0485849 0.111127 151 172 144
-0.32771 0.0498033 0.111434 169 181 160
-0.327333 0.051018 0.111739 173 185 169
-0.327265 0.0523372 0.111795 174 184 169
-0.318271 0.00531251 0.117387 167 177 156
-0.317921 0.00654824 0.117673 140 158 119
-0.317289 0.00773014 0.118189 111 140 84
-0.315264 0.00865007 0.119839 98 140 83
-0.314095 0.00970919 0.120793 97 137 81
-0.312664 0.010705 0.12196 96 136 80
-0.31125 0.0116885 0.123112 99 141 82
-0.310651 0.0128236 0.123602 108 157 82
-0.31032 0.0140088 0.123872 111 165 86
-0.309991 0.0151906 0.124141 107 159 81
-0.309927 0.0164277 0.124194 91 146 76
-0.309863 0.0176642 0.124247 90 142 71
-0.310332 0.0190235 0.123866 89 145 74
-0.310535 0.020325 0.123702 84 140 68
-0.311006 0.021694 0.123318 90 147 76
-0.311211 0.0230017 0.123153 113 175 90
-0.311956 0.0244491 0.122546 122 182 92
-0.312434 0.0258354 0.122158 119 174 90
-0.312642 0.0271553 0.121989 115 169 89
-0.31285 0.0284776 0.12182 114 167 90
-0.32992 0.0439767 0.107921 131 165 132
-0.328285 0.0448148 0.109254 143 171 139
-0.328216 0.0461442 0.109311 160 176 145
-0.327837 0.0473702 0.109621 165 182 162
-0.327769 0.0486965 0.109677 170 186 170
-0.317949 0.00536451 0.116001 159 172 143
-0.317316 0.00655282 0.116523 124 155 107
-0.316686 0.00773479 0.117041 108 147 83
-0.314667 0.00865477 0.118701 104 146 83
-0.3135 0.00971396 0.119661 103 145 80
-0.312073 0.0107098 0.120834 102 145 78
-0.310931 0.011747 0.121774 106 155 82
-0.310065 0.0128286 0.122486 113 168 86
-0.309735 0.0140139 0.122758 110 168 86
-0.309671 0.0152532 0.122811 105 157 81
-0.309343 0.0164329 0.123082 93 143 72
-0.309544 0.0177298 0.122917 93 147 75
-0.310012 0.0190909 0.122533 87 144 74
-0.310483 0.0204578 0.122148 85 141 72
-0.310687 0.0217648 0.121981 105 165 83
-0.311701 0.023276 0.121149 119 181 92
-0.312451 0.0247313 0.120533 120 178 91
-0.312933 0.0261249 0.120138 117 172 89
-0.313143 0.0274514 0.119966 111 166 91
-0.315853 0.0294584 0.11774 113 160 99
-0.330549 0.0443821 0.105673 164 179 160
-0.329216 0.0453225 0.106769 169 187 166
-0.327896 0.0462528 0.107854 172 185 167
-0.327517 0.0474803 0.108167 173 183 168
-0.317978 0.00417425 0.11432 173 182 160
-0.317343 0.00536903 0.114847 154 169 128
-0.316711 0.00655741 0.115372 121 152 92
-0.315243 0.00758949 0.116589 107 152 88
-0.313793 0.0086087 0.117792 106 150 86
-0.312632 0.00966695 0.118755 105 152 82
-0.311482 0.0107146 0.119709 108 157 82
-0.310342 0.0117519 0.120654 115 169 85
-0.309479 0.0128336 0.12137 116 171 87
-0.30915 0.0140189 0.121643 109 165 84
-0.309086 0.0152583 0.121697 97 151 81
-0.309023 0.016497 0.12175 91 146 75
-0.309224 0.0177955 0.121584 91 147 76
-0.309692 0.0191584 0.121197 85 142 73
-0.310163 0.0205271 0.120808 93 148 76
