ply
format ascii 1.0
element vertex 1205
property float x
property float y
property float z
property uchar diffuse_red
property uchar diffuse_green
property uchar diffuse_blue
end_header
-0.30466 0.0116112 0.197103 108 164 82
-0.304374 0.0126319 0.19725 112 169 84
-0.304312 0.0136981 0.197283 116 174 86
-0.304251 0.0147638 0.197316 123 183 91
-0.304189 0.0158289 0.197349 133 199 100
-0.304577 0.0169965 0.197153 148 219 114
-0.304516 0.0180626 0.197186 162 237 128
-0.30468 0.019182 0.197104 173 239 129
-0.304844 0.0203031 0.197022 176 235 126
-0.304782 0.0213697 0.197055 169 232 126
-0.304721 0.0224357 0.197088 169 218 133
-0.304659 0.0235012 0.19712 166 206 142
-0.304598 0.0245661 0.197153 158 183 148
-0.319167 -0.0060563 0.188401 129 149 119
-0.318593 -0.00497412 0.188698 110 139 93
-0.317519 -0.00396165 0.189251 109 141 86
-0.316703 -0.0029252 0.189673 112 150 83
-0.315151 -0.00199804 0.190472 119 164 87
-0.313862 -0.00104835 0.191136 126 175 90
-0.313312 -2.1016e-06 0.191421 123 174 90
-0.312522 0.00100245 0.191828 115 167 86
-0.311022 0.00188765 0.192601 110 164 85
-0.310011 0.00283764 0.193122 108 158 82
-0.309243 0.00381835 0.193519 90 141 73
-0.308479 0.00479247 0.193913 76 124 63
-0.30772 0.00576006 0.194304 71 120 59
-0.307427 0.00680476 0.194457 71 122 58
-0.306674 0.00776116 0.194845 75 127 60
-0.306154 0.00875479 0.195114 80 132 64
-0.305409 0.00969933 0.195499 85 137 68
-0.304894 0.0106829 0.195765 90 144 73
-0.304607 0.0117083 0.195914 96 151 76
-0.304096 0.0126837 0.196178 103 157 78
-0.30381 0.0137029 0.196327 106 161 81
-0.303748 0.0147686 0.19636 109 164 82
-0.303911 0.0158842 0.196278 115 169 81
-0.304074 0.0170015 0.196195 121 176 85
-0.304013 0.0180677 0.196228 129 190 96
-0.304176 0.0191871 0.196146 139 208 108
-0.304115 0.0202533 0.196179 155 229 120
-0.304053 0.0213189 0.196212 168 241 126
-0.303992 0.0223839 0.196245 179 237 128
-0.303931 0.0234484 0.196278 173 234 130
-0.304094 0.0245716 0.196196 165 212 137
-0.304033 0.025636 0.196229 161 197 144
-0.304197 0.0267614 0.196146 159 183 149
-0.318376 -0.0060829 0.187511 140 159 138
-0.317553 -0.00503289 0.18794 118 139 99
-0.316486 -0.00402226 0.188496 109 135 88
-0.315675 -0.0029877 0.188919 107 140 84
-0.314133 -0.00206202 0.189722 109 152 81
-0.313094 -0.00107924 0.190263 115 165 83
-0.312546 -3.39598e-05 0.190549 113 168 85
-0.31176 0.000969737 0.190959 111 164 82
-0.310504 0.00189165 0.191614 110 161 83
-0.309731 0.00287996 0.192017 103 157 82
-0.308728 0.00382248 0.192539 83 133 64
-0.307966 0.00479666 0.192936 73 124 58
-0.307672 0.00584619 0.193091 72 123 60
-0.307147 0.006851 0.193365 71 122 59
-0.306854 0.00789408 0.193519 69 122 58
-0.306103 0.00884667 0.193911 70 124 59
-0.30513 0.00974832 0.194418 71 127 60
-0.304615 0.0107329 0.194687 73 130 62
-0.304328 0.0117593 0.194837 80 134 65
-0.304041 0.0127831 0.194988 87 140 69
-0.303755 0.0138042 0.195138 93 146 74
-0.303694 0.0148722 0.195171 101 152 77
-0.303632 0.0159396 0.195204 105 158 79
-0.303571 0.0170064 0.195238 108 163 80
-0.30351 0.0180727 0.195271 112 166 81
-0.303673 0.0191923 0.195188 117 169 85
-0.303612 0.0202585 0.195221 123 179 92
-0.30355 0.0213241 0.195255 131 198 100
-0.303489 0.0223893 0.195288 149 221 114
-0.303428 0.0234538 0.195321 163 237 125
-0.303591 0.0245771 0.195238 174 239 130
-0.30353 0.0256416 0.195271 171 230 133
-0.303694 0.0267671 0.195188 164 214 138
-0.303632 0.0278315 0.195221 162 197 143
-0.304248 0.0290873 0.194903 156 197 142
-0.317335 -0.00613948 0.186755 153 159 146
-0.316268 -0.0051224 0.187317 132 142 115
-0.315457 -0.0040826 0.187744 115 136 98
-0.314651 -0.00304997 0.188169 106 136 86
-0.313119 -0.00212575 0.188975 101 141 78
-0.312328 -0.00111009 0.189392 103 152 78
-0.311782 -6.57377e-05 0.18968 109 158 79
-0.311239 0.00097368 0.189966 111 160 80
-0.309985 0.00189566 0.190626 113 162 82
-0.309214 0.00288404 0.191033 105 158 85
-0.308447 0.00386575 0.191437 90 136 69
-0.307918 0.004881 0.191716 83 131 63
-0.307391 0.00589151 0.191994 81 131 63
-0.306866 0.00689732 0.192271 80 130 62
-0.306573 0.0079415 0.192427 77 127 61
-0.306281 0.00898297 0.192581 74 124 60
-0.305077 0.00984211 0.193215 71 122 59
-0.30411 0.0107374 0.193724 68 122 59
-0.304048 0.0118104 0.193758 69 123 57
-0.303762 0.0128352 0.19391 72 126 58
-0.303476 0.0138574 0.194062 77 130 63
-0.303414 0.0149266 0.194095 85 133 68
-0.303353 0.0159951 0.194129 91 141 72
-0.303292 0.0170631 0.194163 97 149 75
-0.303231 0.0181305 0.194196 103 154 75
-0.303169 0.0191974 0.19423 107 157 77
-0.303332 0.0203187 0.194146 108 161 81
-0.303271 0.0213855 0.194179 112 168 83
-0.30321 0.0224518 0.194213 120 175 87
-0.303149 0.0235174 0.194247 126 189 94
-0.303312 0.024642 0.194162 139 210 107
-0.303251 0.0257076 0.194196 153 231 123
-0.30319 0.0267727 0.194229 167 236 130
-0.303129 0.0278373 0.194263 175 234 132
-0.303518 0.029029 0.194061 168 220 129
-0.303908 0.030225 0.193857 164 217 124
-0.314991 -0.00521133 0.186697 153 155 139
-0.314432 -0.0041427 0.186995 132 145 114
-0.3129 -0.00320998 0.187809 113 137 96
-0.312351 -0.00215564 0.188102 97 133 83
-0.311804 -0.00110627 0.188394 98 142 75
-0.31102 -9.74535e-05 0.188812 106 153 76
-0.310479 0.000941025 0.1891 108 161 79
-0.30923 0.0018623 0.189764 111 167 84
-0.308697 0.00288811 0.190049 117 172 88
-0.307932 0.00386989 0.190456 114 171 83
-0.307636 0.0049254 0.190614 107 163 79
-0.307109 0.00593693 0.190895 101 157 75
-0.306585 0.00694375 0.191175 95 150 72
-0.306292 0.00798901 0.191332 88 142 69
-0.306 0.00903157 0.191488 84 135 65
-0.304569 0.00984663 0.192249 79 128 62
-0.304055 0.0108331 0.192523 73 124 60
-0.303543 0.011815 0.192796 70 123 58
-0.303481 0.0128875 0.19283 67 121 58
-0.303195 0.0139108 0.192983 68 121 59
-0.303134 0.014981 0.193017 72 124 61
-0.303073 0.0160507 0.193051 76 127 63
-0.303236 0.0171718 0.192966 81 130 64
-0.303175 0.0182414 0.193 87 139 69
-0.303114 0.0193105 0.193034 93 146 74
-0.303053 0.020379 0.193068 99 153 77
-0.302991 0.021447 0.193102 105 157 81
-0.30293 0.0225144 0.193136 107 161 80
-0.302869 0.0235812 0.19317 109 164 82
-0.302808 0.0246475 0.193203 116 172 84
-0.302972 0.0257738 0.193118 121 182 91
-0.303135 0.0269019 0.193033 132 199 102
-0.303074 0.0279686 0.193067 148 221 117
-0.303238 0.0290989 0.192981 162 236 127
-0.303402 0.0302309 0.192896 172 237 131
-0.304475 0.0316321 0.192328 174 227 128
-0.304641 0.0327724 0.192242 169 222 126
-0.305037 0.0339842 0.192033 167 218 132
-0.305205 0.0351294 0.191946 167 206 142
-0.312924 -0.00426574 0.186511 157 161 141
-0.311889 -0.00327132 0.187067 133 146 115
-0.311344 -0.00221896 0.187361 107 132 92
-0.3108 -0.00117157 0.187653 94 134 75
-0.310259 -0.000129107 0.187945 100 149 75
-0.309958 0.000944976 0.188108 108 157 78
-0.308947 0.00190368 0.188651 112 166 83
-0.30818 0.00289218 0.189064 122 179 90
-0.307649 0.00391328 0.18935 131 193 96
-0.307121 0.0049296 0.189634 130 193 97
-0.306596 0.00594119 0.189918 122 185 91
-0.306303 0.00699026 0.190076 114 174 85
-0.305551 0.00795029 0.190481 106 163 80
-0.30526 0.0089919 0.190638 99 153 74
-0.304061 0.00985114 0.191282 93 145 69
-0.303548 0.0108377 0.191559 86 137 65
-0.303037 0.0118197 0.191834 80 131 61
-0.302976 0.0128922 0.191868 74 126 58
-0.302915 0.0139642 0.191903 71 122 56
-0.302853 0.0150356 0.191937 72 120 56
-0.302792 0.0161065 0.191971 71 120 57
-0.302731 0.0171768 0.192005 71 122 57
-0.30267 0.0182465 0.192039 73 125 58
-0.302609 0.0193156 0.192074 77 128 63
-0.302548 0.0203842 0.192108 82 135 69
-0.302711 0.0215086 0.192022 89 142 73
-0.30265 0.0225771 0.192056 97 148 77
-0.302589 0.0236451 0.19209 102 153 80
-0.302977 0.024832 0.191884 107 158 78
-0.302916 0.025901 0.191918 108 163 80
-0.30308 0.0270315 0.191831 112 167 83
-0.303019 0.0281005 0.191866 118 176 89
-0.302958 0.0291689 0.1919 125 190 97
-0.303348 0.0303678 0.191692 139 210 110
-0.303967 0.031638 0.191362 155 229 124
-0.304133 0.0327785 0.191275 168 236 129
-0.304072 0.0338512 0.191309 174 231 127
-0.304011 0.0349233 0.191343 172 226 126
-0.30395 0.0359949 0.191377 167 220 133
-0.304116 0.0371387 0.19129 167 208 145
-0.311364 -0.00326764 0.186066 153 160 147
-0.310819 -0.00221522 0.186363 129 143 113
-0.310038 -0.00120222 0.186787 100 128 80
-0.309737 -0.00012523 0.186952 97 141 73
-0.309436 0.00094894 0.187116 105 155 77
-0.308428 0.00190769 0.187663 109 160 81
-0.307896 0.00293462 0.187953 117 172 84
-0.307366 0.00395674 0.188242 127 189 94
-0.306839 0.00497409 0.188529 136 199 102
-0.306313 0.0059867 0.188815 142 202 104
-0.30579 0.00699459 0.1891 136 200 101
-0.30504 0.00795468 0.189508 127 192 95
-0.304749 0.00899638 0.189666 118 181 86
-0.303553 0.00985566 0.190316 110 169 79
-0.303041 0.0108423 0.190594 102 159 75
-0.302756 0.0118709 0.19075 95 151 70
-0.30247 0.0128969 0.190906 89 143 67
-0.302409 0.013969 0.190941 83 135 65
-0.302348 0.0150405 0.190975 78 127 61
-0.302287 0.0161114 0.19101 73 122 59
-0.302226 0.0171818 0.191044 70 120 57
-0.302165 0.0182515 0.191079 68 121 58
-0.302104 0.0193208 0.191113 69 122 58
-0.302267 0.0204447 0.191027 72 124 60
-0.30243 0.0215703 0.19094 75 126 62
-0.302369 0.02264 0.190974 82 130 68
-0.302532 0.0237678 0.190887 87 138 73
-0.302696 0.0248974 0.1908 94 144 77
-0.30286 0.0260287 0.190713 100 151 77
-0.303025 0.0271617 0.190625 104 158 78
-0.303189 0.0282965 0.190537 106 161 78
-0.303581 0.0294979 0.190327 110 164 81
-0.30352 0.0305712 0.190361 115 168 86
-0.303459 0.031644 0.190396 122 180 92
-0.303625 0.0327845 0.190307 131 198 101
-0.303564 0.0338573 0.190342 145 219 115
-0.303503 0.0349295 0.190376 160 231 125
-0.303442 0.0360011 0.190411 170 234 127
-0.303381 0.0370722 0.190445 174 234 132
-0.303547 0.0382166 0.190357 164 218 135
-0.303713 0.0393628 0.190268 163 199 145
-0.304337 0.0406641 0.189932 163 186 150
-0.310295 -0.00221146 0.185364 152 162 145
-0.309516 -0.00119839 0.185792 123 144 109
-0.309215 -0.000121338 0.185958 98 132 79
-0.308915 0.000952885 0.186124 99 145 75
-0.308616 0.00202432 0.186289 105 154 80
-0.307847 0.00301566 0.186711 109 161 80
-0.307316 0.0040398 0.187003 114 170 82
-0.306787 0.00505915 0.187294 120 179 89
-0.306261 0.00607373 0.187583 126 190 97
-0.305737 0.00708358 0.187872 135 199 103
-0.304985 0.00804543 0.188284 141 203 104
-0.304239 0.00900083 0.188694 138 202 101
-0.303271 0.00990496 0.189225 132 197 95
-0.302984 0.0109383 0.189384 124 186 89
-0.302473 0.0119223 0.189664 116 173 83
-0.302188 0.0129493 0.189822 106 163 78
-0.301904 0.0139738 0.189979 96 155 76
-0.301843 0.0150453 0.190014 90 147 73
-0.302005 0.0161673 0.189926 87 136 67
-0.301944 0.0172388 0.189961 81 129 61
-0.301884 0.0183097 0.189996 73 124 58
-0.301823 0.0193801 0.19003 71 120 57
-0.301985 0.0205053 0.189943 71 118 56
-0.302148 0.0216321 0.189855 67 119 61
-0.302088 0.022703 0.18989 71 121 59
-0.302251 0.0238321 0.189802 71 125 61
-0.302415 0.024963 0.189714 75 129 64
-0.302804 0.0261569 0.189502 83 135 67
-0.303195 0.0273551 0.18929 88 143 73
-0.303134 0.0284297 0.189325 95 149 76
-0.3033 0.0295687 0.189236 103 154 78
-0.303239 0.0306432 0.18927 106 157 79
-0.303178 0.0317172 0.189305 108 160 80
-0.303117 0.0327906 0.18934 111 167 82
-0.303056 0.0338634 0.189375 116 176 88
-0.302995 0.0349357 0.18941 125 188 97
-0.302934 0.0360074 0.189444 137 209 108
-0.302873 0.0370786 0.189479 156 230 122
-0.303039 0.0382231 0.18939 171 238 129
-0.303205 0.0393693 0.189301 176 232 132
-0.303371 0.0405174 0.189211 168 218 133
-0.303766 0.041745 0.188996 164 203 124
-0.309469 -0.00112559 0.184534 150 162 144
-0.30893 -8.19158e-05 0.184834 123 137 96
-0.30863 0.000993471 0.185001 98 131 74
-0.308331 0.00206605 0.185168 99 144 72
-0.308032 0.00313581 0.185334 103 156 76
-0.307734 0.00420277 0.1855 106 161 79
-0.307203 0.00522607 0.185796 110 164 81
-0.306906 0.00628642 0.185961 112 168 84
-0.306378 0.0073011 0.186254 118 175 87
-0.305391 0.00822362 0.186802 125 183 92
-0.304183 0.00909369 0.187471 132 193 97
-0.303666 0.0100896 0.187758 137 201 98
-0.302701 0.0109888 0.188293 138 202 98
-0.302415 0.0120206 0.188452 134 199 97
-0.301906 0.0130018 0.188735 126 191 93
-0.301621 0.0140273 0.188894 117 180 88
-0.30156 0.0151 0.188929 108 169 83
-0.3015 0.0161722 0.188964 101 158 76
-0.301662 0.0172959 0.188875 94 151 71
-0.301601 0.018368 0.18891 90 143 67
-0.30154 0.0194395 0.188946 86 132 63
-0.30148 0.0205105 0.188981 81 125 61
-0.301642 0.0216374 0.188892 74 120 58
-0.301805 0.0227661 0.188803 71 118 54
-0.301969 0.0238965 0.188715 67 120 56
-0.302357 0.0250889 0.188501 66 122 55
-0.302748 0.0262856 0.188287 71 123 58
-0.302913 0.0274237 0.188197 74 126 63
-0.303079 0.0285635 0.188107 81 130 66
-0.303017 0.0296397 0.188142 88 137 71
-0.302956 0.0307154 0.188177 94 144 74
-0.302895 0.0317905 0.188212 100 152 77
-0.302835 0.0328651 0.188247 104 157 79
-0.302774 0.0339391 0.188283 106 158 80
-0.302713 0.0350125 0.188318 108 162 81
-0.302426 0.0360137 0.188478 114 167 84
-0.302365 0.0370849 0.188513 122 178 90
-0.302757 0.0383035 0.188298 133 198 100
-0.302696 0.0393758 0.188333 148 220 116
-0.303089 0.0406005 0.188117 164 235 128
-0.303256 0.0417517 0.188026 175 237 132
-0.303652 0.0429839 0.187809 172 227 129
-0.309183 -0.00108715 0.183404 165 166 147
-0.308882 -6.70007e-06 0.183574 138 149 115
-0.308819 0.00110778 0.183611 117 135 92
-0.308756 0.00222168 0.183647 97 131 77
-0.308455 0.00329579 0.183816 95 144 75
-0.308156 0.00436709 0.183985 103 157 78
-0.307857 0.0054356 0.184153 106 161 80
-0.307794 0.00654368 0.18419 109 164 81
-0.307261 0.00756421 0.184489 111 165 81
-0.305799 0.00840327 0.185307 115 166 80
-0.304814 0.00932076 0.185858 116 170 81
-0.30361 0.0101847 0.186532 118 179 85
-0.303094 0.0111779 0.186821 124 188 91
-0.302356 0.0121193 0.187235 132 196 98
-0.30207 0.0131505 0.187396 138 201 100
-0.301561 0.01413 0.187681 138 201 98
-0.301501 0.0152049 0.187717 131 196 95
-0.30144 0.0162793 0.187752 122 186 88
-0.301379 0.0173531 0.187788 115 175 80
-0.301318 0.0184264 0.187823 107 163 76
-0.301257 0.0194991 0.187858 99 153 73
-0.301197 0.0205712 0.187893 92 144 70
-0.301359 0.0216994 0.187804 88 136 66
-0.301522 0.0228294 0.187715 81 128 59
-0.301686 0.023961 0.187625 74 123 58
-0.3023 0.0252154 0.187283 69 120 59
-0.302465 0.026353 0.187193 68 119 57
-0.30263 0.0274923 0.187102 71 118 58
-0.302569 0.0285692 0.187137 73 119 58
-0.302508 0.0296456 0.187173 74 125 61
-0.302674 0.0307877 0.187082 77 129 64
-0.302613 0.031864 0.187117 83 133 66
-0.302552 0.0329398 0.187153 90 140 71
-0.302491 0.0340149 0.187188 97 146 75
-0.30243 0.0350895 0.187223 102 151 78
-0.302369 0.0361636 0.187259 106 156 82
-0.302309 0.0372371 0.187294 108 161 82
-0.302474 0.0383842 0.187203 111 167 84
-0.302641 0.0395331 0.187112 118 175 89
-0.30258 0.0406071 0.187147 129 188 96
-0.302746 0.0417583 0.187055 139 207 107
-0.302913 0.0429114 0.186964 155 226 121
-0.30308 0.0440662 0.186872 169 233 128
-0.303936 0.0454687 0.186396 175 230 128
-0.304799 0.0468823 0.185915 173 223 127
-0.308658 -0.00108333 0.182406 166 173 150
-0.308595 3.29731e-05 0.182443 134 151 121
-0.30877 0.00118571 0.182346 120 144 109
-0.308707 0.002302 0.182383 110 133 93
-0.308644 0.00341769 0.18242 95 129 73
-0.308343 0.00449229 0.182591 96 144 72
-0.30828 0.00560566 0.182628 104 155 77
-0.308218 0.00671842 0.182665 107 159 79
-0.308155 0.0078306 0.182701 108 160 79
-0.307148 0.00876255 0.183271 109 163 80
-0.305452 0.00955016 0.184229 107 165 79
-0.304238 0.0104175 0.184915 107 165 79
-0.303491 0.0113686 0.185338 110 167 81
-0.303202 0.0124085 0.185502 115 173 85
-0.302687 0.0133971 0.185794 120 182 89
-0.3024 0.0144307 0.185957 127 192 94
-0.301889 0.0154111 0.186247 134 199 97
-0.301828 0.0164899 0.186283 136 202 97
-0.301543 0.0175155 0.186445 133 199 95
-0.301258 0.0185384 0.186607 126 191 92
-0.300974 0.0195587 0.186769 119 180 87
-0.300913 0.020632 0.186804 112 167 80
-0.301076 0.0217615 0.186714 103 157 76
-0.301239 0.0228928 0.186623 94 148 71
-0.301852 0.0241445 0.186279 90 141 68
-0.302016 0.0252816 0.186188 84 132 65
-0.302181 0.0264205 0.186096 75 127 62
-0.30212 0.0274981 0.186132 72 122 60
-0.302059 0.028575 0.186168 68 118 58
-0.302225 0.0297167 0.186076 67 117 58
-0.302164 0.0307937 0.186112 68 119 59
-0.302329 0.0319377 0.18602 71 122 60
-0.302269 0.0330146 0.186055 74 126 63
-0.302208 0.0340909 0.186091 79 130 67
-0.302374 0.0352378 0.185999 87 135 69
-0.302313 0.0363141 0.186035 95 141 74
-0.302252 0.0373898 0.18607 100 149 78
-0.302418 0.0385395 0.185978 103 154 81
-0.302585 0.039691 0.185885 108 159 81
-0.302297 0.0406904 0.186049 112 163 83
-0.302463 0.041843 0.185957 117 168 87
-0.302403 0.0429181 0.185992 123 180 92
-0.302569 0.044073 0.1859 133 197 102
-0.302965 0.0453116 0.185678 146 215 114
-0.303362 0.0465546 0.185456 160 229 124
-0.303992 0.0478871 0.185102 168 233 128
-0.304393 0.0491408 0.184877 173 228 130
-0.304332 0.0502236 0.184913 171 222 130
-0.304735 0.0514836 0.184687 166 205 140
-0.30514 0.0527483 0.18446 164 194 151
-0.305312 0.0539257 0.184365 162 187 151
-0.305485 0.055105 0.184269 158 192 140
-0.309086 -0.000940295 0.180865 161 169 149
-0.309023 0.000180772 0.180902 126 145 120
-0.309679 0.00141345 0.18053 112 137 101
-0.310339 0.00265333 0.180155 116 139 100
-0.310276 0.00377968 0.180193 99 128 84
-0.309971 0.00486414 0.180368 93 132 71
-0.309907 0.00598811 0.180406 101 150 77
-0.310085 0.00715512 0.180306 105 157 80
-0.310022 0.00827908 0.180343 107 159 79
-0.309236 0.00926474 0.180792 106 159 79
-0.307506 0.0100578 0.181779 105 158 78
-0.306034 0.0108855 0.182619 106 159 77
-0.305042 0.0117975 0.183186 106 160 78
-0.304288 0.0127497 0.183617 106 162 78
-0.303539 0.0136955 0.184045 107 163 78
-0.303249 0.0147352 0.184211 111 166 80
-0.30296 0.0157722 0.184377 115 173 84
-0.302672 0.0168065 0.184543 121 183 90
-0.302158 0.0177849 0.184837 128 195 96
-0.301646 0.0187588 0.18513 134 200 99
-0.301137 0.0197281 0.185422 134 197 98
-0.301076 0.0208047 0.185458 129 195 97
-0.301015 0.0218808 0.185494 121 185 89
-0.301403 0.0230729 0.185274 114 175 83
-0.301567 0.0242095 0.185182 107 163 76
-0.301732 0.025348 0.18509 96 154 75
-0.301897 0.0264882 0.184997 91 147 72
-0.301836 0.0275669 0.185033 86 140 64
-0.301775 0.028645 0.185069 80 131 61
-0.301715 0.0297226 0.185105 75 124 59
-0.30188 0.0308661 0.185013 71 119 59
-0.301819 0.0319437 0.185049 70 116 59
-0.301985 0.0330895 0.184956 69 117 59
-0.301924 0.0341671 0.184992 69 120 60
-0.301863 0.035244 0.185028 73 123 61
-0.302029 0.0363927 0.184935 77 128 64
-0.301968 0.0374696 0.18497 82 133 69
-0.302135 0.0386207 0.184877 87 140 75
-0.302074 0.0396976 0.184913 97 146 74
-0.302013 0.0407739 0.184949 103 150 78
-0.301953 0.0418497 0.184985 105 154 81
-0.301892 0.0429249 0.185021 107 158 82
-0.302058 0.0440799 0.184928 110 164 83
-0.302225 0.0452367 0.184834 119 174 88
-0.302621 0.0464783 0.18461 129 187 96
-0.303018 0.0477246 0.184385 137 205 106
-0.303416 0.0489754 0.18416 152 222 120
-0.303817 0.0502309 0.183933 168 234 126
-0.303756 0.0513132 0.183969 172 227 129
-0.304158 0.052575 0.183742 169 218 131
-0.304562 0.0538414 0.183513 163 205 128
-0.304501 0.0549266 0.183549 155 193 117
-0.304906 0.0561994 0.18332 147 193 112
-0.316202 0.000183398 0.175464 166 172 148
-0.315375 0.00122671 0.175941 127 142 111
-0.314805 0.00230206 0.176271 106 128 91
-0.311756 0.00297173 0.178026 111 132 95
-0.311693 0.00410771 0.178065 102 133 95
-0.311139 0.0051592 0.178384 92 128 74
-0.311075 0.00629159 0.178423 96 143 74
-0.310768 0.00737916 0.178601 103 154 77
-0.310704 0.00850914 0.178639 106 157 77
-0.309913 0.00949932 0.179096 107 158 76
-0.309367 0.0105299 0.179412 106 157 76
-0.308583 0.0115073 0.179864 103 154 75
-0.30733 0.0123803 0.180586 100 151 75
-0.305623 0.0131449 0.18157 99 149 75
-0.304171 0.0139477 0.182407 101 152 75
-0.30342 0.0148912 0.18284 103 156 77
-0.30313 0.0159313 0.183008 104 158 78
-0.302386 0.0168638 0.183438 107 163 79
-0.302099 0.0178965 0.183605 113 167 81
-0.301586 0.0188722 0.183901 116 175 88
-0.301076 0.0198433 0.184196 123 187 94
-0.301015 0.0209222 0.184232 128 196 98
-0.300955 0.0220005 0.184269 132 199 99
-0.301118 0.0231368 0.184176 132 197 97
-0.301282 0.0242747 0.184083 125 190 94
-0.301447 0.0254145 0.183989 117 180 87
-0.301386 0.0264938 0.184026 112 170 80
-0.301326 0.0275726 0.184062 101 160 74
-0.301491 0.0287152 0.183969 93 150 71
-0.30143 0.0297939 0.184005 87 141 68
-0.301369 0.0308721 0.184041 83 133 65
-0.301534 0.0320175 0.183947 78 125 62
-0.301474 0.0330956 0.183984 73 121 60
-0.301639 0.0342433 0.18389 68 119 60
-0.301579 0.0353215 0.183926 67 118 60
-0.301518 0.036399 0.183962 69 118 61
-0.301684 0.0375496 0.183868 70 122 62
-0.301623 0.0386271 0.183905 73 127 65
-0.301563 0.0397041 0.183941 81 127 67
-0.301502 0.0407805 0.183977 89 135 70
-0.301668 0.0419345 0.183883 93 142 76
-0.301608 0.0430109 0.183919 97 147 77
-0.301774 0.0441672 0.183825 101 152 77
-0.301714 0.0452436 0.183861 105 156 78
-0.302108 0.0464853 0.183635 109 161 82
-0.302504 0.0477317 0.183409 114 169 86
-0.302673 0.0488966 0.183313 120 179 95
-0.302842 0.0500633 0.183218 132 195 102
-0.303241 0.0513205 0.182989 143 211 112
-0.303642 0.0525824 0.18276 157 225 122
-0.303813 0.0537573 0.182663 165 227 125
-0.303984 0.0549342 0.182566 166 222 126
-0.303923 0.0560188 0.182603 161 212 122
-0.304327 0.0572934 0.182372 154 200 115
-0.304266 0.0583792 0.182408 150 202 110
-0.304438 0.0595623 0.18231 150 209 127
-0.317708 0.000488692 0.173235 166 172 147
-0.317127 0.00157921 0.173575 128 139 106
-0.315781 0.0025442 0.174358 102 126 86
-0.314199 0.00345749 0.175279 101 126 85
-0.312142 0.00427594 0.176476 100 128 87
-0.311585 0.00533162 0.176801 92 124 72
-0.311031 0.00638224 0.177125 95 140 71
-0.310967 0.0075165 0.177163 102 154 76
-0.310416 0.00855905 0.177485 105 157 77
-0.310109 0.00964311 0.177665 105 156 77
-0.309319 0.0106292 0.178125 101 151 77
-0.309015 0.0117053 0.178303 90 140 72
-0.308472 0.012729 0.178621 80 130 67
-0.306744 0.0134968 0.179626 78 125 65
-0.305274 0.0143033 0.180482 83 128 65
-0.303592 0.0150483 0.18146 86 137 69
-0.302844 0.0159879 0.181897 91 145 74
-0.302555 0.0170264 0.182066 98 150 75
-0.301813 0.017955 0.182499 101 154 76
-0.3013 0.0189316 0.182798 103 157 77
-0.301015 0.019959 0.182965 108 164 80
-0.30073 0.0209838 0.183132 113 171 82
-0.300893 0.0221208 0.183038 117 182 86
-0.300833 0.0232008 0.183075 125 191 95
-0.300997 0.0243401 0.182981 131 193 99
-0.300936 0.0254201 0.183018 134 198 97
-0.301101 0.0265616 0.182923 130 192 91
-0.30104 0.0276416 0.18296 121 184 88
-0.30098 0.028721 0.182996 115 175 85
-0.300919 0.0297998 0.183033 107 164 78
-0.301084 0.0309447 0.182939 99 155 73
-0.301023 0.0320235 0.182975 91 146 70
-0.301189 0.0331708 0.182881 85 137 66
-0.301128 0.0342495 0.182917 80 129 61
-0.301294 0.0353991 0.182822 75 122 59
-0.301233 0.0364778 0.182859 71 117 59
-0.301173 0.037556 0.182895 69 116 58
-0.301112 0.0386336 0.182932 69 119 56
-0.301052 0.0397106 0.182968 70 121 58
-0.301217 0.0408642 0.182873 76 124 60
-0.301384 0.0420195 0.182778 80 127 65
-0.301323 0.0430971 0.182815 83 133 68
-0.301263 0.044174 0.182851 87 138 70
-0.301429 0.0453323 0.182756 93 144 73
-0.301596 0.0464923 0.18266 98 149 76
-0.301991 0.0477387 0.182432 102 154 79
-0.302159 0.0489037 0.182336 104 160 82
-0.302557 0.0501579 0.182106 111 166 85
-0.302726 0.0513279 0.182009 118 177 90
-0.303126 0.0525898 0.181778 128 190 96
-0.303296 0.0537648 0.181681 139 204 106
-0.303467 0.0549417 0.181583 150 218 116
-0.303406 0.0560265 0.18162 160 226 123
-0.303577 0.0572058 0.181522 165 225 125
-0.303749 0.058387 0.181423 162 219 122
-0.303688 0.0594723 0.18146 160 206 118
-0.303627 0.060557 0.181497 159 211 119
-0.303799 0.0617413 0.181399 157 208 130
-0.317159 0.000492683 0.172189 161 164 143
-0.316579 0.00158329 0.172531 127 135 100
-0.315746 0.00262838 0.173022 100 127 87
-0.31416 0.00354316 0.173954 97 124 83
-0.313343 0.00457062 0.174435 96 125 82
-0.311542 0.00542053 0.175494 92 124 69
-0.310986 0.00647328 0.175821 96 140 69
-0.310434 0.00752093 0.176147 102 152 74
-0.31037 0.00865467 0.176186 104 154 77
-0.30982 0.00969429 0.17651 105 154 78
-0.309272 0.0107289 0.176833 93 138 72
-0.308967 0.0118073 0.177013 77 120 61
-0.308423 0.012833 0.177334 69 115 56
-0.307881 0.0138538 0.177654 68 115 58
-0.306158 0.0146129 0.178666 71 115 58
-0.304459 0.0153603 0.179665 74 118 58
-0.303014 0.0161484 0.180514 77 124 62
-0.302268 0.0170842 0.180954 82 131 66
-0.301752 0.0180672 0.181257 87 138 69
-0.301014 0.0189912 0.181692 94 146 72
-0.300728 0.0200197 0.181861 100 153 73
-0.300443 0.0210455 0.18203 104 155 73
-0.300607 0.0221838 0.181935 108 160 77
-0.300547 0.023265 0.181972 112 167 81
-0.300486 0.0243456 0.182009 115 173 86
-0.30065 0.0254867 0.181914 120 181 90
-0.30059 0.0265673 0.181951 128 192 95
-0.300754 0.0277107 0.181855 132 196 98
-0.300694 0.0287912 0.181892 131 195 96
-0.300633 0.0298712 0.181929 125 189 92
-0.300798 0.0310175 0.181834 119 180 86
-0.300738 0.0320975 0.181871 111 170 80
-0.300677 0.0331769 0.181907 102 159 76
-0.300842 0.034326 0.181812 94 150 71
-0.300782 0.0354053 0.181849 88 141 67
-0.300721 0.0364842 0.181885 83 133 65
-0.300661 0.0375624 0.181922 79 126 60
-0.300601 0.0386401 0.181959 73 121 55
-0.300766 0.0397931 0.181863 70 118 56
-0.300932 0.040948 0.181767 71 116 58
-0.300872 0.0420262 0.181804 71 119 60
-0.300811 0.0431038 0.181841 72 121 61
-0.300977 0.0442616 0.181745 75 124 62
-0.301144 0.0454212 0.181648 78 129 66
-0.301538 0.046666 0.181418 83 134 70
-0.301934 0.0479154 0.181187 90 141 73
-0.302103 0.0490831 0.18109 96 147 76
-0.302271 0.0502526 0.180992 102 150 78
-0.302671 0.0515129 0.180759 105 157 81
-0.302841 0.0526875 0.180661 109 162 84
-0.30278 0.0537723 0.180698 114 171 87
-0.30295 0.0549493 0.1806 124 183 94
-0.302889 0.0560341 0.180637 134 196 102
-0.30306 0.0572135 0.180538 144 209 112
-0.302999 0.0582983 0.180575 156 221 119
-0.30317 0.0594802 0.180476 164 222 122
-0.30311 0.060565 0.180513 165 222 122
-0.302817 0.0615493 0.180686 164 216 122
-0.302757 0.0626318 0.180723 163 215 127
-0.317644 0.000649364 0.17053 168 173 149
-0.316802 0.00170507 0.171031 131 135 101
-0.315965 0.00275325 0.171528 103 126 86
-0.315134 0.00379398 0.172022 97 122 83
-0.313553 0.00470071 0.172961 95 125 80
-0.311992 0.0055952 0.173888 91 127 70
-0.310696 0.00652113 0.174657 94 141 71
-0.310388 0.00761446 0.174841 102 152 76
-0.309836 0.00865918 0.17517 104 155 76
-0.30953 0.00974558 0.175353 104 153 76
-0.308982 0.0107813 0.175679 90 129 65
-0.308678 0.0118608 0.175861 74 115 57
-0.308374 0.0129375 0.176042 70 114 57
-0.307831 0.0139603 0.176365 70 113 57
-0.307291 0.0149782 0.176687 69 112 56
-0.305572 0.0157285 0.177707 69 112 56
-0.303878 0.0164674 0.178713 69 114 56
-0.302208 0.017195 0.179704 71 116 58
-0.301465 0.0181261 0.180145 74 120 61
-0.301178 0.0191603 0.180317 78 125 65
-0.300441 0.0200804 0.180755 84 132 67
-0.300381 0.0211639 0.180792 90 141 68
-0.300096 0.0221891 0.180962 95 146 72
-0.300035 0.0232704 0.180999 100 150 75
-0.300199 0.024411 0.180903 104 156 76
-0.300139 0.0254923 0.180941 107 162 79
-0.300303 0.0266352 0.180845 113 168 84
-0.300243 0.0277164 0.180882 117 177 89
-0.300182 0.0287971 0.180919 123 185 91
-0.300347 0.0299429 0.180823 129 193 94
-0.300286 0.0310235 0.18086 132 194 94
-0.300451 0.0321716 0.180764 129 192 93
-0.300391 0.0332521 0.180801 122 185 90
-0.30033 0.0343321 0.180838 114 175 84
-0.30027 0.0354116 0.180875 107 165 79
-0.30021 0.0364905 0.180912 99 153 74
-0.300375 0.0376425 0.180815 92 144 70
-0.300315 0.0387214 0.180852 87 138 65
-0.300254 0.0397997 0.180889 83 128 62
-0.30042 0.0409546 0.180793 79 121 60
-0.30036 0.0420329 0.18083 73 119 58
-0.300525 0.0431902 0.180733 70 117 58
-0.300465 0.0442684 0.18077 69 117 59
-0.300858 0.0455102 0.180539 70 118 61
-0.30148 0.0468404 0.180171 73 122 63
-0.301648 0.0480076 0.180073 77 128 64
-0.302046 0.0492632 0.179839 80 131 67
-0.302215 0.0504354 0.17974 87 137 69
-0.302384 0.0516095 0.179641 92 143 74
-0.302324 0.0526949 0.179678 98 149 78
-0.302494 0.0538714 0.179579 101 155 80
-0.302433 0.0549568 0.179616 106 160 82
-0.302373 0.0560417 0.179653 112 166 86
-0.302312 0.057126 0.17969 119 176 92
-0.302251 0.0582098 0.179728 130 187 97
-0.302422 0.0593904 0.179628 138 201 107
-0.302361 0.0604741 0.179665 147 213 115
-0.30207 0.0614576 0.179839 157 220 120
-0.30201 0.0625391 0.179876 164 222 124
-0.301719 0.0635183 0.18005 167 221 128
-0.328673 0.0828904 0.16409 163 171 154
-0.317611 0.000730251 0.169169 168 176 151
-0.317026 0.00182764 0.16952 131 135 104
-0.316187 0.00287894 0.170024 106 126 87
-0.315352 0.00392275 0.170525 99 127 86
-0.313513 0.00478934 0.171628 95 126 81
-0.312198 0.00572824 0.172417 92 128 70
-0.310896 0.00665651 0.173197 96 142 70
-0.310097 0.00766362 0.173677 102 153 76
-0.309546 0.00870941 0.174008 104 157 78
-0.308997 0.00975017 0.174338 102 155 80
-0.308692 0.0108337 0.174522 92 134 68
-0.308388 0.0119144 0.174705 84 125 60
-0.308084 0.0129922 0.174889 83 127 60
-0.307781 0.0140672 0.175071 80 123 58
-0.307239 0.0150871 0.175397 76 118 57
-0.306463 0.0160491 0.175863 71 115 57
-0.304518 0.0167371 0.177028 69 114 55
-0.302148 0.0173064 0.178448 68 112 55
-0.301177 0.0181851 0.179031 69 112 57
-0.300664 0.0191655 0.179339 68 114 60
-0.300603 0.020253 0.179377 71 117 60
-0.300318 0.0212829 0.179549 76 123 61
-0.300032 0.0223101 0.179721 79 129 64
-0.299972 0.0233937 0.179758 86 135 69
-0.299912 0.0244766 0.179796 90 140 70
-0.299851 0.025559 0.179833 98 148 73
-0.299791 0.0266409 0.179871 101 152 76
-0.299955 0.0277857 0.179774 106 159 77
-0.299895 0.0288675 0.179811 110 165 78
-0.300059 0.0300146 0.179714 115 173 81
-0.299999 0.0310964 0.179751 119 179 86
-0.299939 0.0321776 0.179789 124 187 92
-0.299879 0.0332582 0.179826 128 193 95
-0.299818 0.0343383 0.179864 130 194 95
-0.299758 0.0354178 0.179901 125 190 92
-0.299698 0.0364968 0.179938 118 180 87
-0.299863 0.0376489 0.179841 111 170 83
-0.299803 0.0387278 0.179878 104 160 77
-0.299743 0.0398062 0.179916 98 148 73
-0.299908 0.0409612 0.179818 90 140 70
-0.300073 0.0421181 0.179721 84 132 64
-0.300013 0.0431969 0.179758 78 127 61
-0.300178 0.0443561 0.17966 73 122 60
-0.300571 0.0455995 0.179426 72 118 59
-0.301193 0.0469314 0.179055 72 115 60
-0.30159 0.0481854 0.178819 70 117 59
-0.301759 0.0493571 0.17872 69 122 61
-0.301928 0.0505307 0.17862 75 126 61
-0.301868 0.0516168 0.178657 77 130 66
-0.302037 0.0527928 0.178557 84 135 69
-0.301977 0.0538789 0.178595 89 141 72
-0.302146 0.0550573 0.178494 95 146 76
-0.302086 0.0561434 0.178532 101 151 79
-0.301795 0.0571337 0.178707 106 157 83
-0.301735 0.0582175 0.178745 111 160 83
-0.301905 0.0593982 0.178645 114 168 88
-0.301844 0.0604821 0.178682 122 180 96
-0.301554 0.0614656 0.178857 131 193 102
-0.301264 0.0624465 0.179032 143 206 110
-0.301204 0.0635264 0.179069 153 215 118
-0.301144 0.0646057 0.179106 161 222 125
-0.327163 0.0836958 0.163549 161 174 151
-0.325955 0.0843478 0.164273 163 172 153
-0.317578 0.000811474 0.167801 167 174 150
-0.316733 0.00187141 0.168313 132 134 101
-0.316409 0.00300546 0.168511 107 127 88
-0.315315 0.00401046 0.169173 100 126 88
-0.31322 0.00483594 0.170441 95 125 81
-0.311905 0.00577569 0.171237 92 131 70
-0.310851 0.00674872 0.171876 97 143 71
-0.31005 0.00775775 0.172362 101 152 75
-0.309254 0.00875974 0.172844 103 156 78
-0.308706 0.00980159 0.173177 102 157 81
-0.308159 0.0108384 0.173508 96 147 73
-0.307856 0.0119192 0.173693 91 142 68
-0.307793 0.0130471 0.173733 89 141 68
-0.30749 0.0141232 0.173917 89 139 67
-0.306949 0.0151442 0.174245 86 134 64
-0.30641 0.0161603 0.174573 83 128 61
-0.304462 0.0168488 0.175751 79 123 58
-0.30163 0.0173114 0.177464 74 117 57
-0.300888 0.0182442 0.177914 71 113 57
-0.30015 0.0191706 0.178361 68 111 57
-0.30009 0.0202582 0.178399 66 112 57
-0.299805 0.0212882 0.178573 67 113 58
-0.299744 0.0223735 0.17861 69 116 60
-0.299684 0.0234582 0.178648 74 119 62
-0.299624 0.0245424 0.178686 76 123 62
-0.299563 0.025626 0.178723 82 130 64
-0.299503 0.026709 0.178761 88 137 68
-0.299443 0.0277914 0.178799 94 145 71
-0.299607 0.0289381 0.178701 98 151 72
-0.299547 0.0300205 0.178739 101 156 75
-0.299487 0.0311024 0.178776 106 160 78
-0.299427 0.0321836 0.178814 111 167 81
-0.299367 0.0332644 0.178852 116 174 85
-0.299306 0.0343445 0.178889 122 182 89
-0.299246 0.0354241 0.178927 126 189 92
-0.299186 0.0365031 0.178964 128 192 95
-0.299351 0.0376553 0.178866 127 189 92
-0.299291 0.0387343 0.178904 123 184 89
-0.299455 0.0398889 0.178806 117 176 87
-0.299395 0.0409678 0.178843 108 165 81
-0.29956 0.0421248 0.178745 99 154 74
-0.299725 0.0432835 0.178646 91 146 69
-0.299891 0.044444 0.178548 85 139 66
-0.300057 0.0456064 0.178449 81 130 63
-0.300906 0.0470226 0.177937 79 123 61
-0.301303 0.0482781 0.177699 75 118 58
-0.301471 0.0494512 0.177598 71 118 58
-0.301411 0.050538 0.177636 70 117 60
-0.30158 0.0517135 0.177535 70 119 61
-0.30152 0.0528002 0.177573 72 122 63
-0.301689 0.0539782 0.177472 77 126 66
-0.301629 0.0550649 0.17751 82 131 70
-0.301568 0.0561511 0.177547 88 136 73
-0.301738 0.057332 0.177446 94 144 76
-0.301448 0.0583217 0.177623 100 146 77
-0.301387 0.0594061 0.177661 102 150 78
-0.301327 0.06049 0.177698 107 156 82
-0.301267 0.0615733 0.177736 112 164 85
-0.300977 0.0625552 0.177912 118 174 90
-0.300688 0.0635345 0.178088 126 187 99
-0.300857 0.0647168 0.177988 137 200 107
-0.301026 0.0659009 0.177887 149 209 115
-0.325381 0.0843575 0.163182 162 180 150
-0.323347 0.0845919 0.164412 163 174 155
-0.321896 0.0850941 0.165291 164 172 156
-0.317546 0.000893068 0.166427 169 175 153
-0.316439 0.0019153 0.167104 135 136 101
-0.315858 0.00300963 0.16746 109 128 88
-0.314766 0.00401471 0.168128 101 129 88
-0.312927 0.00488265 0.169252 95 127 81
-0.311613 0.00582322 0.170055 92 131 71
-0.310805 0.00684133 0.17055 95 145 72
-0.310249 0.00789748 0.170891 100 153 76
-0.308962 0.00881018 0.171677 104 159 78
-0.308172 0.00980617 0.172161 104 160 81
-0.307627 0.0108431 0.172495 101 154 77
-0.307324 0.0119239 0.172681 98 149 73
-0.307261 0.013052 0.17272 94 147 72
-0.307199 0.0141794 0.17276 93 144 71
-0.306658 0.0152014 0.173092 92 141 69
-0.306119 0.0162185 0.173422 90 138 67
-0.304405 0.016961 0.174469 87 135 65
-0.301113 0.0173165 0.176479 85 131 63
-0.300372 0.0182493 0.176932 81 125 60
-0.299861 0.0192307 0.177246 75 120 57
-0.299576 0.0202634 0.177421 71 116 56
-0.299516 0.0213505 0.177459 69 113 54
-0.299455 0.022437 0.177497 68 111 56
-0.299171 0.0234637 0.177672 70 112 58
-0.299111 0.0245479 0.17771 68 112 59
-0.299051 0.0256315 0.177748 72 116 59
-0.298991 0.0267146 0.177786 77 121 60
-0.299154 0.0278608 0.177687 80 125 64
-0.299094 0.0289439 0.177725 84 132 67
-0.299034 0.0300264 0.177763 88 139 70
-0.299198 0.0311755 0.177664 94 146 73
-0.299138 0.0322579 0.177702 99 151 73
-0.299078 0.0333398 0.17774 103 156 76
-0.298794 0.0343507 0.177915 108 161 80
-0.298734 0.0354303 0.177953 113 169 82
-0.298675 0.0365094 0.17799 117 175 87
-0.298838 0.0376617 0.177892 122 183 90
-0.298779 0.0387408 0.17793 126 189 93
-0.298943 0.0398954 0.177831 128 190 93
-0.299107 0.0410519 0.177732 126 186 91
-0.299047 0.0421315 0.177769 119 179 88
-0.299212 0.0432903 0.17767 111 171 82
-0.299378 0.0444509 0.177571 104 160 76
-0.299996 0.0457786 0.177195 97 149 73
-0.30039 0.0470296 0.176956 91 140 69
-0.300786 0.0482853 0.176715 84 132 64
-0.300954 0.0494584 0.176614 80 126 61
-0.300894 0.0505452 0.176652 75 120 61
-0.301063 0.0517208 0.17655 71 118 60
-0.301232 0.0528983 0.176448 69 117 61
-0.301171 0.0539857 0.176487 70 117 62
-0.301111 0.0550725 0.176525 72 119 64
-0.301281 0.056253 0.176423 74 123 66
-0.30122 0.0573398 0.176461 80 129 67
-0.30116 0.058426 0.176499 87 133 70
-0.3011 0.0595116 0.176537 91 138 71
-0.30104 0.0605967 0.176575 96 143 75
-0.300979 0.0616812 0.176613 101 148 78
-0.300919 0.0627652 0.176651 104 152 80
-0.30063 0.0637464 0.176829 108 159 84
-0.30057 0.0648281 0.176867 113 167 88
-0.300739 0.0660137 0.176765 120 177 93
-0.301369 0.0674134 0.176382 133 192 103
-0.321121 0.0837878 0.164342 165 189 148
-0.321056 0.0849676 0.164383 164 178 152
-0.32099 0.0861467 0.164424 164 173 154
-0.317251 0.000936032 0.165208 170 173 153
-0.316145 0.00195927 0.165891 136 138 106
-0.315563 0.00305479 0.166251 110 132 91
-0.314472 0.00406084 0.166925 103 131 87
-0.312634 0.00492945 0.168059 96 127 82
-0.311319 0.00587085 0.168871 92 132 73
-0.310512 0.00688999 0.169369 95 144 73
-0.310202 0.00799263 0.169562 100 153 76
-0.309401 0.00899937 0.170056 105 158 79
-0.308121 0.00990473 0.170847 106 160 82
-0.307094 0.0108477 0.171481 102 158 79
-0.307032 0.0119777 0.171521 99 154 76
-0.306969 0.013107 0.171561 97 151 74
-0.306907 0.0142357 0.1716 96 150 72
-0.306366 0.0152587 0.171935 96 148 71
-0.305827 0.0162769 0.172268 94 145 68
-0.305528 0.0173445 0.172454 92 142 68
-0.303818 0.0180782 0.173508 89 139 70
-0.300308 0.0183627 0.175673 87 136 67
-0.299571 0.0192909 0.176128 84 131 62
-0.299062 0.0202687 0.176443 83 127 58
-0.299002 0.0213558 0.176481 77 122 58
-0.298942 0.0224424 0.17652 73 115 58
-0.298882 0.0235283 0.176558 70 113 59
-0.298821 0.0246138 0.176596 68 112 57
-0.298761 0.0256986 0.176635 68 112 57
-0.298701 0.0267829 0.176673 70 113 57
-0.298641 0.0278666 0.176711 70 114 59
-0.298581 0.0289497 0.176749 72 117 61
-0.298745 0.0300983 0.17665 75 123 63
-0.298685 0.0311814 0.176688 80 128 66
-0.298625 0.032264 0.176726 85 134 67
-0.298565 0.0333459 0.176764 91 141 70
-0.298282 0.0343569 0.17694 97 147 75
-0.298222 0.0354366 0.176978 102 152 77
-0.298386 0.0365884 0.176879 105 157 78
-0.298326 0.0376681 0.176917 109 164 80
-0.29849 0.0388223 0.176817 113 171 84
-0.29843 0.039902 0.176855 118 178 88
-0.298819 0.0411361 0.176617 123 183 92
-0.298759 0.0422169 0.176655 125 187 94
-0.298924 0.043377 0.176555 125 186 92
-0.299089 0.044539 0.176455 122 182 89
-0.299707 0.0458684 0.176075 115 175 86
-0.299874 0.0470366 0.175974 107 164 80
-0.300269 0.0482924 0.175732 100 155 75
-0.300437 0.0494656 0.175629 92 145 70
-0.300377 0.0505525 0.175668 85 136 68
-0.300545 0.0517282 0.175565 81 130 65
-0.300714 0.0529058 0.175463 77 124 63
-0.300653 0.0539932 0.175501 73 120 61
-0.300593 0.0550801 0.17554 70 116 61
-0.300762 0.0562606 0.175437 70 116 62
-0.300702 0.0573475 0.175475 70 119 62
-0.300642 0.0584338 0.175513 73 121 64
-0.300811 0.0596174 0.17541 78 125 64
-0.300751 0.0607037 0.175449 83 130 68
-0.300691 0.0617894 0.175487 87 134 72
-0.300631 0.0628745 0.175525 91 139 76
-0.300571 0.0639591 0.175564 95 145 79
-0.300511 0.0650432 0.175602 101 150 80
-0.300681 0.0662315 0.175499 104 153 81
-0.300851 0.0674218 0.175395 110 161 86
-0.301947 0.0690466 0.174721 116 170 90
-0.319738 0.0833946 0.163771 161 211 133
-0.319673 0.0845705 0.163812 163 198 142
-0.320426 0.0861565 0.16335 164 183 150
-0.320909 0.0876132 0.163054 163 172 155
-0.317479 0.00105733 0.163661 166 169 148
-0.31585 0.00200334 0.164676 134 141 108
-0.315011 0.00305898 0.165199 109 132 92
-0.314177 0.00410708 0.165719 103 131 90
-0.312591 0.00501905 0.166708 97 127 85
-0.311025 0.00591862 0.167683 93 131 73
-0.310218 0.00693875 0.168187 96 145 74
-0.309662 0.00799711 0.168534 102 154 78
-0.309353 0.00909687 0.168728 106 158 78
-0.30807 0.0100037 0.169527 106 162 81
-0.307041 0.0109484 0.170168 104 160 79
-0.306499 0.0119824 0.170507 102 157 76
-0.306437 0.0131118 0.170547 101 156 74
-0.306374 0.0142406 0.170587 100 155 73
-0.306312 0.0153688 0.170627 98 153 73
-0.305772 0.0163889 0.170964 96 149 71
-0.305473 0.0174588 0.171152 95 148 70
-0.305173 0.0185258 0.17134 91 145 72
-0.302304 0.0189719 0.173126 91 141 71
-0.299731 0.0194618 0.174728 89 141 67
-0.298996 0.0203861 0.175186 90 140 65
-0.298488 0.0213611 0.175504 85 136 66
-0.298428 0.0224477 0.175542 84 130 64
-0.298368 0.0235338 0.175581 78 124 62
-0.298308 0.0246193 0.175619 75 121 58
-0.298248 0.0257042 0.175658 72 116 56
-0.298188 0.0267886 0.175696 68 114 56
-0.298352 0.0279362 0.175596 67 112 56
-0.298292 0.0290205 0.175635 67 112 56
-0.298455 0.0301704 0.175534 68 113 57
-0.298395 0.0312547 0.175573 70 116 59
-0.298336 0.0323384 0.175611 75 119 61
-0.298052 0.033352 0.175788 79 123 63
-0.297993 0.0344335 0.175827 83 129 67
-0.297933 0.0355144 0.175865 89 134 69
-0.297873 0.0365947 0.175904 94 142 71
-0.297814 0.0376745 0.175942 98 148 73
-0.297977 0.0388288 0.175842 99 153 76
-0.298141 0.0399848 0.175741 104 159 80
-0.298305 0.0411427 0.17564 111 164 83
-0.298694 0.0423815 0.175399 116 170 86
-0.298635 0.0434639 0.175438 121 178 89
-0.2988 0.0446273 0.175336 122 185 92
-0.299418 0.0459584 0.174953 122 188 94
-0.299585 0.047128 0.174851 122 185 91
-0.299752 0.0482995 0.174748 118 179 88
-0.299919 0.0494728 0.174645 111 171 82
-0.299859 0.0505598 0.174684 103 161 80
-0.300027 0.0517356 0.17458 98 152 75
-0.300196 0.0529132 0.174477 91 142 70
-0.300135 0.0540007 0.174516 84 134 66
-0.300304 0.0551808 0.174412 78 126 64
-0.300244 0.0562683 0.174451 75 120 62
-0.300184 0.0573552 0.174489 71 118 61
-0.300353 0.0585383 0.174385 68 116 61
-0.300522 0.0597234 0.174281 72 116 60
-0.300692 0.0609103 0.174177 73 120 63
-0.300632 0.0619984 0.174216 75 122 65
-0.300802 0.0631878 0.174111 77 126 69
-0.300742 0.0642758 0.17415 82 131 72
-0.300913 0.0654677 0.174045 89 136 73
-0.301083 0.0666616 0.17394 95 141 76
-0.301023 0.0677502 0.173979 99 147 80
-0.303063 0.069821 0.172712 102 151 82
-0.319446 0.0835382 0.162531 136 201 112
-0.319381 0.0847154 0.162573 151 209 126
-0.320408 0.0864417 0.161936 160 201 140
-0.321721 0.0883241 0.161121 162 181 154
-0.32249 0.0899402 0.160644 163 170 155
-0.317182 0.00110066 0.162433 171 172 149
-0.315554 0.0020475 0.163458 137 144 111
-0.314458 0.00306318 0.164148 113 134 94
-0.313881 0.00415343 0.164511 106 131 91
-0.312548 0.00510904 0.16535 98 128 84
-0.310979 0.00601004 0.166337 94 131 73
-0.31017 0.00703218 0.166846 98 145 74
-0.309613 0.00809269 0.167197 102 153 77
-0.309058 0.00914805 0.167547 106 158 78
-0.308262 0.0101506 0.168049 107 163 82
-0.307229 0.0110978 0.168699 105 163 79
-0.306445 0.0120855 0.169193 103 159 77
-0.306143 0.0131669 0.169384 103 157 75
-0.306081 0.014297 0.169424 102 156 74
-0.306019 0.0154265 0.169464 101 155 73
-0.305718 0.0165015 0.169655 99 154 72
-0.305417 0.0175736 0.169845 98 152 72
-0.305118 0.0186428 0.170034 96 150 73
-0.304818 0.0197092 0.170223 94 147 72
-0.303345 0.0204835 0.17115 93 145 71
-0.300058 0.0207876 0.173215 93 144 69
-0.298869 0.0215957 0.173964 89 140 71
-0.298137 0.0225114 0.174424 90 139 67
-0.298077 0.0235986 0.174463 87 138 67
-0.298017 0.0246853 0.174502 84 133 63
-0.297958 0.0257714 0.174541 82 128 62
-0.297898 0.0268569 0.17458 77 124 61
-0.298061 0.0280058 0.174479 75 118 58
-0.298001 0.0290914 0.174517 70 115 55
-0.297941 0.0301763 0.174556 68 113 54
-0.297882 0.0312606 0.174595 68 111 55
-0.297822 0.0323444 0.174634 69 111 56
-0.29754 0.0333582 0.174812 70 112 59
-0.29748 0.0344397 0.174851 71 115 61
-0.29742 0.0355207 0.17489 75 119 60
-0.297361 0.0366011 0.174928 79 126 63
-0.297524 0.0377549 0.174827 82 132 65
-0.297687 0.0389105 0.174726 87 138 69
-0.297628 0.0399914 0.174764 92 143 73
-0.298015 0.0412271 0.174522 100 149 73
-0.29818 0.0423882 0.17442 103 153 75
-0.298345 0.043551 0.174318 107 160 79
-0.298285 0.0446342 0.174357 111 168 83
-0.298901 0.0459654 0.173971 116 176 88
-0.299068 0.0471351 0.173868 120 181 91
-0.299235 0.0483066 0.173764 123 185 93
-0.299402 0.04948 0.17366 123 187 91
-0.299342 0.0505671 0.173699 121 182 89
-0.299509 0.0517429 0.173595 116 176 86
-0.299677 0.0529206 0.173491 108 166 82
-0.299617 0.0540082 0.17353 99 156 77
-0.299786 0.0551884 0.173426 93 146 72
-0.299726 0.0562759 0.173465 87 137 68
-0.299894 0.0574586 0.17336 82 130 66
-0.300063 0.0586431 0.173255 76 124 63
-0.300233 0.0598295 0.17315 75 119 60
-0.300402 0.0610179 0.173045 73 117 61
-0.300573 0.0622082 0.172939 71 116 62
-0.300743 0.0634004 0.172833 70 117 62
-0.300683 0.0644908 0.172872 72 120 64
-0.301085 0.0657906 0.172621 77 124 65
-0.301722 0.0672022 0.172222 81 128 71
-0.302363 0.0686221 0.171821 85 134 73
-0.303008 0.0700506 0.171418 91 139 76
-0.322116 0.0863732 0.15943 121 172 101
-0.32205 0.0875662 0.159473 134 179 123
-0.323104 0.0893292 0.158813 149 174 146
-0.315257 0.00209177 0.162237 139 148 119
-0.314161 0.00310844 0.162933 116 136 99
-0.313585 0.00419986 0.1633 108 134 92
-0.312252 0.00515636 0.164147 99 131 84
-0.310683 0.0060581 0.165143 95 133 72
-0.309628 0.0070366 0.165813 99 144 73
-0.309564 0.00818868 0.165855 103 154 77
-0.309009 0.00924618 0.166208 108 158 80
-0.308211 0.0102507 0.166716 109 163 82
-0.307661 0.0112969 0.167065 106 162 78
-0.306631 0.0122386 0.16772 104 160 76
-0.306328 0.0133234 0.167913 102 158 77
-0.306026 0.0144053 0.168106 100 158 76
-0.305724 0.0154843 0.168299 102 157 75
-0.305424 0.0165604 0.168491 102 155 74
-0.305123 0.0176337 0.168682 101 153 74
-0.305061 0.0187603 0.168723 100 152 73
-0.305 0.0198862 0.168763 98 151 72
-0.305176 0.0210703 0.168653 97 150 73
-0.299479 0.0218904 0.172267 93 146 72
-0.298293 0.0226923 0.173021 92 145 67
-0.298009 0.0237232 0.173202 92 142 66
-0.297726 0.0247515 0.173383 89 140 67
-0.297666 0.0258388 0.173422 88 137 69
-0.297607 0.0269255 0.173461 86 134 67
-0.29777 0.0280757 0.173359 85 130 64
-0.29771 0.0291624 0.173398 81 125 60
-0.29765 0.0302485 0.173437 78 120 58
-0.297591 0.0313341 0.173476 72 117 55
-0.297308 0.0323505 0.173656 70 114 54
-0.297249 0.0334338 0.173695 69 112 56
-0.296967 0.0344459 0.173875 67 111 58
-0.296908 0.0355269 0.173914 67 112 57
-0.29707 0.0366803 0.173812 66 115 58
-0.297233 0.0378354 0.17371 69 119 59
-0.297174 0.038917 0.173749 75 123 60
-0.297337 0.0400744 0.173646 79 126 65
-0.297501 0.0412338 0.173544 85 133 66
-0.297665 0.0423949 0.173441 90 139 69
-0.298054 0.0436383 0.173196 95 145 71
-0.298445 0.0448864 0.172949 100 150 74
-0.298385 0.0459723 0.172988 104 155 77
-0.298551 0.0471421 0.172884 108 162 82
-0.298717 0.0483137 0.17278 113 170 86
-0.298884 0.0494872 0.172676 117 177 87
-0.298824 0.0505743 0.172715 122 183 91
-0.298992 0.0517503 0.17261 125 185 92
-0.299159 0.0529281 0.172505 122 183 91
-0.299327 0.0541077 0.1724 118 178 88
-0.299267 0.055196 0.172439 111 170 84
-0.299435 0.0563781 0.172334 104 162 81
-0.299604 0.0575621 0.172228 99 151 77
-0.299773 0.0587481 0.172122 92 143 71
-0.299942 0.059936 0.172016 85 133 67
-0.300112 0.0611258 0.17191 80 126 65
-0.300282 0.0623175 0.171803 75 120 63
-0.300222 0.0634085 0.171842 71 116 63
-0.300393 0.0646027 0.171736 69 115 62
-0.301027 0.0660097 0.171335 71 116 60
-0.301665 0.0674251 0.170932 73 118 63
-0.302543 0.0689582 0.170377 72 120 65
-0.330414 0.0920973 0.152723 122 158 117
-0.314959 0.00213615 0.161013 138 153 126
-0.313864 0.00315381 0.161716 116 138 102
-0.313288 0.0042464 0.162086 108 134 94
-0.311955 0.00520377 0.162941 101 130 87
-0.310387 0.00610626 0.163946 95 132 75
-0.309332 0.00708568 0.164623 97 145 75
-0.309022 0.00819319 0.164822 101 154 77
-0.308713 0.00929769 0.165021 107 159 80
-0.30816 0.0103511 0.165377 111 163 82
-0.307366 0.0113505 0.165886 107 163 79
-0.307061 0.0124427 0.166083 104 159 75
-0.306515 0.0134809 0.166433 103 158 76
-0.306211 0.0145662 0.166629 102 158 77
-0.305669 0.0155953 0.166977 102 156 76
-0.305129 0.0166195 0.167324 103 155 75
-0.305067 0.0177492 0.167365 102 156 75
-0.305005 0.0188782 0.167406 101 154 73
-0.304943 0.0200067 0.167447 100 153 73
-0.304881 0.0211345 0.167488 99 152 73
-0.30452 0.0233272 0.167722 98 149 72
-0.298615 0.0240287 0.171504 94 146 69
-0.297434 0.0248178 0.172261 92 144 69
-0.297374 0.0259062 0.1723 92 143 71
-0.297315 0.0269941 0.172339 90 141 69
-0.297478 0.0281457 0.172236 89 139 67
-0.297418 0.0292336 0.172276 87 135 66
-0.297359 0.0303209 0.172315 85 132 65
-0.297076 0.03134 0.172497 82 129 61
-0.296795 0.0323565 0.172679 79 125 58
-0.296735 0.0334399 0.172718 77 120 57
-0.296676 0.0345227 0.172757 72 115 57
-0.296616 0.0356049 0.172796 68 112 56
-0.296779 0.0367596 0.172693 63 112 57
-0.29672 0.0378418 0.172733 66 111 55
-0.296883 0.0389988 0.172629 68 112 57
-0.297046 0.0401577 0.172526 69 113 59
-0.29721 0.0413183 0.172422 71 118 60
-0.29715 0.0424016 0.172462 76 123 63
-0.297538 0.0436451 0.172215 80 128 65
