ply
format ascii 1.0
element vertex 1222
property float x
property float y
property float z
property uchar diffuse_red
property uchar diffuse_green
property uchar diffuse_blue
end_header
-0.222617 0.110084 0.0230067 85 81 73
-0.224869 0.114235 0.0177814 81 67 61
-0.22476 0.115607 0.0178898 78 75 69
-0.224802 0.117161 0.0176584 79 74 67
-0.224844 0.118721 0.0174265 73 73 71
-0.224735 0.120098 0.0175353 73 76 78
-0.224927 0.121854 0.0169614 82 92 93
-0.224969 0.123427 0.0167281 108 125 123
-0.225314 0.125393 0.0158054 152 169 161
-0.241071 0.0334586 -0.0128928 89 62 64
-0.240959 0.034874 -0.0127814 88 61 57
-0.233632 0.0382757 0.00282165 113 73 70
-0.233196 0.0394457 0.00366058 75 48 48
-0.232761 0.0406109 0.00449546 46 36 32
-0.232491 0.0418651 0.00496442 40 38 31
-0.232222 0.0431172 0.0054323 43 41 34
-0.232115 0.044464 0.00553834 45 40 34
-0.232008 0.0458117 0.00564444 45 36 29
-0.231901 0.0471604 0.00575063 40 32 26
-0.231633 0.0484082 0.00621724 39 30 29
-0.230884 0.0493458 0.00775572 37 29 30
-0.229828 0.0500698 0.00998323 37 34 27
-0.229409 0.0511967 0.0107885 29 29 24
-0.229147 0.0524238 0.0112421 29 26 23
-0.228731 0.0535427 0.0120415 33 16 19
-0.228163 0.0545503 0.0131816 40 13 17
-0.227599 0.0555516 0.0143135 43 20 18
-0.227342 0.0567641 0.0147583 36 30 22
-0.227085 0.0579746 0.0152022 32 31 24
-0.226829 0.0591831 0.015645 34 32 26
-0.226725 0.0605027 0.0157489 34 32 29
-0.226771 0.061938 0.0155142 36 32 30
-0.227578 0.0639652 0.01357 38 33 28
-0.227625 0.0654186 0.0133309 37 33 27
-0.227673 0.0668763 0.0130913 37 31 27
-0.227567 0.0682148 0.0131967 37 31 29
-0.22746 0.0695541 0.0133021 37 34 32
-0.226896 0.0705154 0.0144385 36 30 32
-0.226487 0.0715974 0.0152266 35 30 29
-0.225779 0.0724201 0.0166872 30 26 23
-0.22493 0.0731085 0.0184676 29 24 21
-0.224825 0.0744303 0.0185717 25 22 19
-0.224279 0.0753632 0.0196712 21 19 16
-0.223446 0.0760307 0.0214178 20 19 18
-0.22291 0.076951 0.0224972 27 26 21
-0.22252 0.0779968 0.0232469 24 26 21
-0.222274 0.0791708 0.0236719 19 20 18
-0.22217 0.0804766 0.0237747 22 17 18
-0.222066 0.0817834 0.0238776 24 21 22
-0.222821 0.0839178 0.0220387 23 24 24
-0.22286 0.085376 0.0218163 28 28 28
-0.2229 0.0868385 0.0215934 55 48 41
-0.222795 0.0881612 0.0216976 55 44 41
-0.22269 0.0894848 0.0218017 62 43 46
-0.222584 0.0908093 0.021906 65 56 59
-0.222335 0.0919862 0.0223367 50 38 41
-0.221944 0.0930119 0.0230911 38 30 31
-0.221554 0.0940338 0.0238421 37 34 34
-0.221308 0.0952028 0.0242682 43 37 36
-0.22078 0.096066 0.0253338 46 40 37
-0.220396 0.0970764 0.0260746 47 41 36
-0.219598 0.0976247 0.0277576 49 44 37
-0.219219 0.0986253 0.028487 55 49 43
-0.21857 0.0993152 0.0298338 61 58 56
-0.219012 0.101237 0.0286927 67 60 65
-0.219874 0.103656 0.0265926 60 62 80
-0.22421 0.11464 0.0161403 68 63 70
-0.223951 0.115834 0.0165904 80 79 82
-0.223842 0.117208 0.0166986 76 71 68
-0.223882 0.118768 0.0164652 70 73 79
-0.223773 0.120145 0.0165737 89 101 105
-0.223963 0.121901 0.0159971 114 131 127
-0.224153 0.123666 0.0154178 132 149 139
-0.224194 0.125247 0.0151818 156 170 163
-0.238979 0.0329742 -0.0114788 91 64 66
-0.238688 0.03429 -0.0109681 87 59 59
-0.234774 0.0380417 -0.00273837 130 76 70
-0.232668 0.0383165 0.00185673 128 79 73
-0.232071 0.0393953 0.00306372 105 69 66
-0.231801 0.0406517 0.00353463 67 44 44
-0.231371 0.0418121 0.00436754 42 33 35
-0.231103 0.0430629 0.00483522 37 34 34
-0.230996 0.0444081 0.0049408 44 38 32
-0.231049 0.0458529 0.00468466 48 39 32
-0.231264 0.0474028 0.00406446 46 35 31
-0.231156 0.0487558 0.00417065 42 30 33
-0.230407 0.0496953 0.00572443 38 30 32
-0.229507 0.0505229 0.00761922 39 30 26
-0.229087 0.0516542 0.00843376 38 23 20
-0.228668 0.052781 0.00924444 35 18 18
-0.228096 0.0537966 0.010401 37 14 16
-0.227682 0.0549133 0.0112023 42 12 14
-0.22727 0.0560256 0.0119997 44 20 19
-0.226708 0.0570238 0.013137 38 29 24
-0.22615 0.0580158 0.0142663 32 31 27
-0.225745 0.059113 0.0150492 35 31 28
-0.225641 0.0604311 0.0151526 35 33 29
-0.225835 0.0619796 0.0145773 36 32 28
-0.226332 0.0637713 0.0133145 38 32 27
-0.226529 0.0653407 0.0127308 39 34 27
-0.226727 0.0669187 0.0121445 38 31 28
-0.22662 0.0682572 0.0122495 37 28 27
-0.226514 0.0695967 0.0123547 37 31 29
-0.226103 0.0706841 0.0131502 37 28 30
-0.225846 0.0718945 0.013599 38 29 27
-0.225439 0.0729743 0.0143889 32 25 24
-0.224884 0.0739205 0.0155145 26 24 20
-0.224778 0.0752519 0.015619 24 20 17
-0.224228 0.0761886 0.0167364 21 18 16
-0.223682 0.0771195 0.0178461 18 19 19
-0.223139 0.0780448 0.0189479 26 22 21
-0.2226 0.0789645 0.0200421 28 26 21
-0.222495 0.0802818 0.0201455 23 24 22
-0.222247 0.0814637 0.0205773 20 18 23
-0.222142 0.0827813 0.0206807 20 18 27
-0.222037 0.0840998 0.0207842 17 20 27
-0.222075 0.08556 0.0205597 24 24 24
-0.22197 0.0868819 0.0206634 32 30 28
-0.221865 0.0882046 0.0207673 35 30 25
-0.221759 0.0895283 0.0208712 43 33 31
-0.221654 0.090853 0.0209751 47 38 38
-0.221406 0.0920299 0.0214065 40 32 34
-0.220875 0.0929066 0.0224878 34 29 31
-0.220488 0.0939276 0.023239 35 33 34
-0.220102 0.0949448 0.0239868 40 38 37
-0.219719 0.0959582 0.0247312 45 41 37
-0.219199 0.0968158 0.02579 45 42 38
-0.218545 0.0975162 0.0271564 45 43 41
-0.217763 0.0980592 0.0288214 49 49 48
-0.217525 0.0992057 0.0292337 58 55 59
-0.217421 0.100505 0.0293356 122 87 82
-0.223031 0.117438 0.0153957 87 78 80
-0.222921 0.118815 0.0155038 71 74 86
-0.222811 0.120193 0.0156119 103 123 128
-0.222998 0.121948 0.0150327 148 175 164
-0.223186 0.123714 0.0144507 156 179 168
-0.237445 0.0327556 -0.0112801 101 75 83
-0.236982 0.0339789 -0.0103742 86 62 60
-0.23687 0.0353756 -0.0102649 95 64 59
-0.236759 0.0367734 -0.0101556 107 66 62
-0.23475 0.0371615 -0.00574216 107 67 64
-0.233628 0.0379919 -0.00333715 116 69 65
-0.23203 0.0385381 0.000150596 124 78 70
-0.23111 0.0394361 0.00210188 114 74 71
-0.230841 0.0406926 0.00257363 87 57 56
-0.230413 0.041853 0.00340857 56 39 40
-0.230146 0.0431038 0.0038771 41 31 33
-0.230198 0.0445461 0.00361926 41 33 30
-0.23041 0.0460921 0.00299607 46 37 29
-0.231108 0.0479517 0.00126516 46 33 28
-0.230676 0.0491061 0.0021088 46 31 31
-0.230407 0.0503603 0.00258222 54 25 30
-0.229026 0.050876 0.00559189 56 21 24
-0.228448 0.0519054 0.00677109 49 16 16
-0.22803 0.0530344 0.00758743 41 13 13
-0.227613 0.0541589 0.0083999 40 14 12
-0.227045 0.0551705 0.00955927 41 11 13
-0.226633 0.056285 0.0103623 42 19 17
-0.226223 0.057395 0.0111615 39 29 23
-0.225664 0.0583894 0.0123016 35 31 26
-0.224961 0.0592658 0.0137747 37 31 30
-0.224855 0.0605856 0.0138779 39 33 30
-0.225047 0.0621364 0.0132987 37 30 27
-0.225391 0.0638132 0.0123727 38 30 27
-0.225585 0.0653829 0.0117865 42 33 28
-0.225629 0.0668391 0.0115446 41 32 27
-0.225674 0.0682997 0.0113023 37 30 26
-0.225567 0.0696393 0.0114071 38 34 26
-0.225309 0.0708531 0.0118587 36 34 26
-0.225052 0.0720649 0.0123092 37 32 23
-0.224945 0.0734041 0.012414 35 28 22
-0.224688 0.0746133 0.0128636 26 24 20
-0.224432 0.0758205 0.0133121 20 16 18
-0.223732 0.0766271 0.0147831 17 15 20
-0.223332 0.0776931 0.0155654 19 18 20
-0.222788 0.0786209 0.0166802 21 18 17
-0.222536 0.0798128 0.0171193 30 24 19
-0.222141 0.0808666 0.0178908 39 33 25
-0.221748 0.0819163 0.0186588 41 34 31
-0.221499 0.0831001 0.0190931 41 31 37
-0.221251 0.0842821 0.0195266 44 40 39
-0.221288 0.0857444 0.0193 50 36 27
-0.22104 0.0869252 0.0197333 47 30 27
-0.220935 0.0882481 0.0198368 33 26 22
-0.220829 0.0895719 0.0199404 31 26 23
-0.220581 0.0907496 0.0203726 33 25 25
-0.220053 0.0916298 0.0214572 32 27 27
-0.219668 0.092653 0.0222104 32 30 28
-0.219284 0.0936724 0.0229601 36 34 30
-0.218902 0.0946879 0.0237065 40 38 34
-0.218659 0.0958506 0.0241298 44 38 36
-0.218007 0.0965563 0.0255066 43 40 40
-0.217495 0.097408 0.0265564 43 42 44
-0.216719 0.0979511 0.0282227 49 52 50
-0.216482 0.0990965 0.0286348 58 60 59
-0.221959 0.118862 0.0145422 83 77 91
-0.221849 0.12024 0.01465 100 116 124
-0.221886 0.121807 0.0144134 155 176 165
-0.235811 0.0339328 -0.0109743 91 67 72
-0.235353 0.0351495 -0.0100729 90 65 63
-0.233877 0.0358235 -0.00683494 97 65 63
-0.232927 0.0367525 -0.00480395 91 64 63
-0.232818 0.0381243 -0.00469697 100 67 65
-0.232541 0.0394042 -0.00420837 111 79 72
-0.230149 0.0394768 0.00113989 112 80 77
-0.229881 0.0407334 0.0016125 99 71 67
-0.229773 0.042082 0.00171769 75 55 50
-0.231936 0.0491326 -0.00383843 65 28 23
-0.230841 0.0498774 -0.0014622 70 29 25
-0.229602 0.050507 0.00124817 79 20 24
-0.228227 0.051022 0.00427422 78 13 20
-0.227495 0.0519468 0.00581754 62 11 14
-0.227233 0.0531823 0.00627949 47 11 14
-0.226818 0.0543079 0.00709581 43 12 11
-0.226099 0.0552119 0.00861279 42 12 11
-0.225689 0.0563264 0.00941778 41 18 15
-0.225432 0.057547 0.00987069 39 31 21
-0.225025 0.0586537 0.0106699 38 32 26
-0.224174 0.059419 0.012497 40 32 31
-0.224068 0.0607404 0.0126001 43 35 33
-0.22411 0.0621781 0.0123604 41 32 31
-0.224449 0.0638551 0.0114308 38 28 31
-0.224641 0.0654251 0.010842 42 29 32
-0.224684 0.0668814 0.0105987 45 31 29
-0.224577 0.0682186 0.010703 40 29 27
-0.22447 0.0695567 0.0108073 38 35 27
-0.224363 0.0708958 0.0109117 37 35 27
-0.224255 0.0722358 0.0110163 38 32 27
-0.224148 0.0735767 0.0111208 33 28 25
-0.22404 0.0749185 0.0112255 27 23 18
-0.223784 0.0761284 0.0116767 18 18 16
-0.22338 0.0772024 0.0124717 15 15 16
-0.222685 0.0780035 0.0139464 18 18 17
-0.222287 0.0790673 0.0147305 19 19 16
-0.22189 0.080127 0.015511 24 20 17
-0.221496 0.0811826 0.0162878 39 32 25
-0.22096 0.0820965 0.0173948 56 47 36
-0.220711 0.0832817 0.0178307 63 46 44
-0.220605 0.084605 0.0179339 70 47 42
-0.220499 0.0859293 0.0180372 74 41 28
-0.220252 0.0871113 0.0184722 68 33 26
-0.220004 0.0882915 0.0189063 43 28 23
-0.219758 0.0894699 0.0193393 32 27 23
-0.219232 0.0903538 0.0204271 31 26 23
-0.218987 0.0915261 0.0208565 32 26 25
-0.218466 0.0924007 0.021934 34 28 27
-0.218086 0.0934183 0.0226824 36 32 28
-0.217844 0.0945817 0.0231065 38 36 30
-0.217466 0.0955927 0.0238497 43 41 33
-0.216955 0.0964488 0.0249073 45 40 36
-0.216447 0.0973 0.0259577 48 42 40
-0.215678 0.0978432 0.0276251 54 51 49
-0.215574 0.09914 0.0277263 62 63 57
-0.221033 0.120473 0.0133422 109 111 119
-0.220923 0.121854 0.0134499 155 177 164
-0.233848 0.0349251 -0.00988243 90 70 75
-0.232893 0.0358648 -0.00781995 90 67 67
-0.232115 0.0368834 -0.0061671 84 65 65
-0.231839 0.0381656 -0.00567647 90 68 67
-0.231008 0.0506623 -0.0050959 105 24 18
-0.228794 0.050654 -8.92988e-05 101 20 18
-0.22727 0.0510635 0.00331621 91 10 17
-0.226389 0.0518831 0.00522242 73 8 14
-0.226128 0.0531173 0.00568419 53 10 17
-0.225868 0.0543494 0.00614495 46 10 13
-0.225153 0.0552534 0.00766619 46 13 11
-0.224745 0.0563678 0.00847311 43 20 16
-0.224489 0.0575885 0.00892684 40 31 23
-0.224232 0.0588072 0.00937957 39 32 27
-0.22368 0.0597976 0.0105254 39 29 27
-0.223426 0.0610097 0.0109742 42 32 31
-0.223319 0.0623353 0.0110773 42 36 34
-0.223508 0.0638971 0.0104887 41 34 31
-0.223697 0.0654672 0.00989734 44 32 28
-0.22359 0.066802 0.0100011 44 33 28
-0.223631 0.0682611 0.00975655 40 32 29
-0.223524 0.0695993 0.00986059 37 35 28
-0.223416 0.0709385 0.0099647 39 32 24
-0.223308 0.0722786 0.0100689 39 33 25
-0.223349 0.0737497 0.00982443 34 30 24
-0.223241 0.0750932 0.00992888 25 21 20
-0.223133 0.0764378 0.0100334 17 17 16
-0.22273 0.0775137 0.0108339 15 15 15
-0.222182 0.0784502 0.0119755 17 17 16
-0.221493 0.0792455 0.0134506 19 18 17
-0.221241 0.0804426 0.0138949 21 18 17
-0.220561 0.0812256 0.0153525 31 24 22
-0.220312 0.0824152 0.015792 51 43 33
-0.220205 0.0837424 0.0158952 67 53 43
-0.219957 0.0849294 0.0163338 73 35 36
-0.21985 0.0862569 0.016437 71 29 23
-0.219461 0.0872979 0.017208 56 27 16
-0.219214 0.0884794 0.0176437 36 24 21
-0.218411 0.0890785 0.0193975 27 27 25
-0.218305 0.0903973 0.0195001 28 27 25
-0.217649 0.0911297 0.0209085 30 26 26
-0.21727 0.0921495 0.0216589 30 27 29
-0.217164 0.0934619 0.0217609 32 29 29
-0.216788 0.0944758 0.0225077 34 34 29
-0.216278 0.095336 0.0235708 43 41 29
-0.215905 0.0963416 0.0243093 43 40 36
-0.215534 0.0973435 0.0250444 46 41 39
-0.214769 0.0978866 0.0267168 50 48 47
-0.214665 0.0991835 0.0268176 61 60 57
-0.231909 0.0359062 -0.00880511 94 77 78
-0.231136 0.0369247 -0.00714767 86 70 73
-0.226312 0.051105 0.00235806 98 13 17
-0.225285 0.0518196 0.00462857 82 8 16
-0.225177 0.0531588 0.00473235 60 12 15
-0.224766 0.0542833 0.00555075 51 15 13
-0.224207 0.0552948 0.00671943 44 12 14
-0.223801 0.0564093 0.00752831 43 20 18
-0.223545 0.05763 0.00798285 42 30 27
-0.22329 0.0588487 0.00843639 42 33 31
-0.222888 0.0599522 0.00923752 41 33 29
-0.222634 0.0611656 0.00968809 39 34 28
-0.222527 0.062493 0.00979094 42 35 30
-0.222566 0.063939 0.0095465 47 38 31
-0.222606 0.0653894 0.00930151 48 38 30
-0.222646 0.0668443 0.00905602 46 35 31
-0.222685 0.0683035 0.00881 43 36 29
-0.222577 0.0696419 0.00891371 41 40 33
-0.222469 0.0709811 0.0090175 38 31 26
-0.222362 0.0723214 0.00912137 37 29 26
-0.222401 0.0737926 0.00887545 32 28 25
-0.22244 0.0752684 0.00862901 24 20 21
-0.222331 0.0766146 0.00873334 18 16 16
-0.222075 0.0778265 0.00918806 16 15 15
-0.221383 0.0786287 0.0106849 17 17 17
-0.220697 0.0794242 0.0121675 18 18 18
-0.220445 0.0806226 0.0126136 21 17 17
-0.219626 0.0812687 0.0144169 25 18 18
-0.219519 0.0825967 0.0145198 32 25 22
-0.219412 0.0839256 0.0146228 50 45 33
-0.219163 0.0851139 0.0150631 65 43 38
-0.219056 0.0864431 0.0151661 48 29 17
-0.218809 0.0876289 0.0156053 35 26 18
-0.218422 0.0886677 0.0163781 28 22 23
-0.217485 0.0891219 0.0184707 27 23 23
-0.217378 0.0904408 0.0185729 28 27 21
-0.21659 0.091027 0.020311 27 28 22
-0.216349 0.0921929 0.0207375 24 27 24
-0.215974 0.0932089 0.0214863 25 26 27
-0.2156 0.0942212 0.0222317 27 29 26
-0.215228 0.0952298 0.0229737 36 34 24
-0.214858 0.0962346 0.0237124 42 36 29
-0.214489 0.0972357 0.0244478 45 39 35
-0.213731 0.0977789 0.0261214 51 48 47
-0.213627 0.0990745 0.0262218 60 58 57
-0.224334 0.0518609 0.00367691 99 13 13
-0.224075 0.0530939 0.00413938 81 13 14
-0.223667 0.0542173 0.00495789 64 12 15
-0.223261 0.0553363 0.00577253 50 12 15
-0.222857 0.0564508 0.00658336 44 22 21
-0.222455 0.0575609 0.00739035 41 35 29
-0.222201 0.0587783 0.00784375 42 38 30
-0.221947 0.0599938 0.00829613 41 36 29
-0.22184 0.0613219 0.00839873 39 34 29
-0.221732 0.062651 0.00850141 40 35 28
-0.221771 0.0640991 0.00825478 44 36 30
-0.221809 0.0655515 0.00800764 45 37 31
-0.221701 0.0668866 0.00811077 47 38 31
-0.221886 0.0684697 0.00751183 42 37 29
-0.221777 0.0698098 0.00761534 42 40 33
-0.221669 0.0711508 0.00771893 39 30 28
-0.221561 0.0724927 0.0078226 37 28 26
-0.221598 0.0739661 0.00757449 29 25 25
-0.22149 0.0753115 0.00767842 23 21 21
-0.221381 0.0766579 0.00778244 19 18 17
-0.221272 0.0780052 0.00788651 18 17 17
-0.220727 0.0789435 0.00904217 18 18 18
-0.220041 0.0797395 0.0105359 19 20 17
-0.219363 0.0805289 0.0120155 21 21 16
-0.218831 0.0814489 0.0131418 23 20 16
-0.218583 0.0826398 0.0135838 23 21 18
-0.218476 0.0839688 0.0136865 28 24 23
-0.218368 0.0852988 0.0137892 39 22 24
-0.218121 0.0864866 0.0142302 33 25 18
-0.217874 0.0876724 0.0146703 29 26 17
-0.217489 0.0887113 0.0154449 28 25 19
-0.216694 0.08931 0.017213 28 23 19
-0.216451 0.0904843 0.0176456 28 21 17
-0.215803 0.0912165 0.019062 25 22 16
-0.215428 0.0922363 0.0198161 22 24 18
-0.214921 0.0931046 0.0208901 23 22 24
-0.214418 0.0939678 0.0219568 24 24 24
-0.214181 0.0951238 0.022378 29 29 23
-0.213813 0.0961278 0.0231169 40 33 21
-0.213447 0.0971282 0.0238524 46 38 30
-0.212567 0.0975211 0.0258399 59 51 45
-0.212462 0.0988138 0.0259397 69 62 55
-0.202636 0.113728 0.0469826 155 170 163
-0.202428 0.114791 0.0473448 164 176 167
-0.223234 0.0517975 0.00308539 124 29 17
-0.222827 0.0529232 0.00390604 104 18 14
-0.222571 0.0541515 0.00436628 83 11 15
-0.222315 0.0553777 0.00482549 62 11 18
-0.221766 0.0563828 0.005992 48 22 22
-0.221512 0.0576023 0.00644721 42 36 29
-0.221259 0.0588199 0.00690141 42 40 31
-0.221006 0.0600354 0.0073546 43 38 32
-0.220899 0.0613637 0.00745688 42 37 32
-0.220936 0.0628094 0.00720862 42 35 30
-0.220973 0.0642595 0.00695984 41 34 30
-0.220865 0.0655937 0.00706257 41 35 30
-0.220901 0.0670507 0.00681346 45 39 30
-0.220938 0.0685122 0.00656386 40 38 30
-0.220975 0.0699781 0.0063137 41 39 31
-0.220721 0.0711935 0.00677032 40 32 29
-0.220612 0.0725356 0.00687366 37 32 25
-0.220648 0.0740091 0.00662409 28 24 25
-0.220685 0.0754871 0.00637397 21 21 20
-0.220576 0.0768352 0.00647778 19 21 18
-0.220321 0.0780485 0.00693514 17 20 17
-0.219923 0.0791232 0.00774308 17 20 19
-0.219098 0.0797828 0.00959179 20 22 21
-0.218423 0.0805721 0.0110756 24 22 19
-0.218035 0.0816296 0.0118634 23 19 18
-0.217787 0.0828218 0.0123072 22 22 17
-0.21754 0.0840122 0.0127501 22 20 19
-0.217432 0.0853422 0.0128525 28 22 20
-0.217185 0.08653 0.0132942 26 23 20
-0.216939 0.087716 0.0137351 28 27 20
-0.216556 0.0887548 0.0145116 28 24 18
-0.216038 0.089644 0.0156187 27 20 15
-0.215524 0.0905278 0.0167182 25 19 15
-0.21488 0.0912598 0.0181386 23 19 16
-0.214506 0.0922797 0.0188944 20 22 17
-0.213871 0.0930005 0.0202951 23 20 21
-0.213502 0.0940112 0.0210409 25 21 23
-0.213266 0.0951672 0.0214628 27 27 24
-0.21277 0.0960214 0.0225225 34 32 24
-0.212149 0.0967205 0.023891 39 38 29
-0.211661 0.0975644 0.0249342 50 44 35
-0.211556 0.0988572 0.0250337 62 50 41
-0.203521 0.113526 0.0421188 93 94 99
-0.201481 0.116054 0.0465907 159 172 161
-0.20149 0.117435 0.0464161 165 175 170
-0.222284 0.0518388 0.00213459 138 35 18
-0.221732 0.0528589 0.00331589 122 25 12
-0.221477 0.0540859 0.00377597 98 15 14
-0.221077 0.0552027 0.00459087 75 10 18
-0.220678 0.0563151 0.00540193 56 22 23
-0.220425 0.0575333 0.005857 46 36 30
-0.220173 0.0587496 0.00631104 43 39 33
-0.219922 0.0599639 0.00676406 44 41 34
-0.219957 0.0614054 0.00651488 46 42 36
-0.220137 0.0629682 0.0059126 45 39 34
-0.220029 0.0643016 0.00601495 42 36 33
-0.220064 0.0657563 0.00576418 40 36 31
-0.2201 0.0672154 0.00551292 42 36 30
-0.220135 0.0686789 0.00526111 37 38 32
-0.220026 0.0700208 0.00536412 40 40 33
-0.219917 0.0713636 0.00546719 38 38 34
-0.219808 0.0727074 0.00557032 34 32 27
-0.219699 0.0740521 0.00567355 28 27 22
-0.219733 0.0755303 0.00542196 23 23 20
-0.219624 0.0768786 0.00552546 20 21 20
-0.219514 0.0782277 0.00562901 18 20 19
-0.219117 0.0793033 0.00644076 18 22 18
-0.218437 0.0800998 0.00794979 21 24 20
-0.217764 0.0808895 0.00944456 23 23 20
-0.217236 0.0818107 0.010582 23 22 18
-0.216989 0.0830042 0.0110275 23 23 18
-0.216742 0.0841959 0.011472 21 19 17
-0.216495 0.0853856 0.0119156 24 22 19
-0.216387 0.0867167 0.0120177 26 24 21
-0.216141 0.087904 0.0124602 29 26 22
-0.215759 0.0889437 0.0132404 28 22 19
-0.215108 0.0896875 0.0146882 25 18 14
-0.214731 0.0907176 0.0154578 22 18 14
-0.213956 0.0913033 0.017215 21 21 19
-0.213585 0.0923232 0.0179727 20 20 22
-0.212823 0.0928967 0.0197014 22 22 22
-0.211941 0.0933179 0.02173 28 21 22
-0.211579 0.0943208 0.0224663 26 22 20
-0.211219 0.09532 0.0231994 25 23 22
-0.210861 0.0963156 0.0239292 29 30 25
-0.210378 0.0971581 0.0249683 38 37 29
-0.210273 0.0984466 0.0250672 48 40 32
-0.202872 0.11249 0.0408841 77 73 69
-0.201351 0.111684 0.0445563 80 72 73
-0.20093 0.112438 0.0454614 85 72 77
-0.200618 0.113344 0.0460927 94 77 85
-0.20054 0.118702 0.0456604 163 172 164
-0.200122 0.119437 0.0465604 166 175 165
-0.22104 0.0516711 0.00190612 139 35 21
-0.220785 0.0529002 0.00236805 129 29 12
-0.220386 0.0540204 0.00318693 108 20 14
-0.219988 0.0551361 0.00400193 86 11 17
-0.219592 0.0562475 0.00481315 65 23 24
-0.219341 0.0574645 0.00526804 50 34 32
-0.21909 0.0586795 0.00572192 44 39 34
-0.218698 0.0597798 0.00652538 46 42 35
-0.218873 0.0613324 0.00592488 48 45 38
-0.218907 0.0627766 0.00567446 46 44 38
-0.219084 0.0643437 0.00506992 42 41 38
-0.219118 0.0657985 0.00481771 43 38 35
-0.219153 0.0672577 0.004565 41 32 30
-0.219187 0.0687215 0.00431171 36 35 30
-0.219077 0.0700635 0.00441438 41 40 33
-0.218968 0.0714065 0.00451714 37 34 31
-0.218858 0.0727504 0.00461995 33 29 27
-0.218892 0.0742262 0.00436673 27 25 23
-0.218782 0.0755736 0.00446981 23 22 23
-0.218672 0.0769219 0.00457297 21 19 24
-0.218562 0.0782712 0.0046762 20 19 21
-0.218167 0.0793468 0.00548991 20 22 18
-0.217773 0.0804183 0.00629979 22 25 20
-0.217382 0.0814855 0.00710588 24 22 18
-0.216713 0.0822698 0.0086044 23 23 18
-0.216188 0.0831871 0.00974454 22 23 19
-0.215942 0.08438 0.0101908 23 19 17
-0.215696 0.0855711 0.010636 24 23 19
-0.21545 0.0867603 0.0110804 29 26 21
-0.215341 0.0880924 0.0111823 31 24 22
-0.214825 0.0889874 0.0123056 28 20 20
-0.214178 0.089731 0.0137575 24 18 16
-0.213404 0.090323 0.0155284 22 20 16
-0.212509 0.0907637 0.0176064 22 22 20
-0.211754 0.0913441 0.0193329 24 21 22
-0.211136 0.0920636 0.0207198 24 27 20
-0.210397 0.0926324 0.0224111 36 30 26
-0.209915 0.0934858 0.0234561 30 30 34
-0.209685 0.0946266 0.0238684 29 28 34
-0.209208 0.0954711 0.024904 33 31 32
-0.20849 0.0960168 0.0265493 38 35 31
-0.208264 0.0971459 0.0269542 40 36 32
-0.211438 0.11267 0.0175809 64 63 59
-0.210941 0.113485 0.0186665 68 62 60
-0.20201 0.112533 0.0400224 78 73 66
-0.200715 0.112037 0.0431605 84 76 70
-0.200295 0.112792 0.0440716 86 79 74
-0.200089 0.113856 0.0444362 87 83 76
-0.199989 0.115077 0.0445296 91 81 78
-0.198653 0.119887 0.0471423 150 165 158
-0.198347 0.120777 0.0477657 161 175 166
-0.219947 0.0516082 0.00131842 133 42 36
-0.219838 0.0529415 0.0014201 127 29 17
-0.219297 0.0539551 0.00259917 112 24 15
-0.219045 0.0551775 0.00305787 92 15 17
-0.218651 0.0562888 0.003871 72 21 22
-0.218258 0.0573958 0.00468034 55 32 31
-0.217868 0.0584984 0.00548588 47 38 34
-0.217619 0.0597089 0.00593761 49 40 35
-0.217511 0.0610312 0.00603846 49 40 37
-0.217966 0.0628184 0.00473186 44 40 36
-0.21814 0.0643857 0.00412474 44 37 33
-0.218315 0.0659615 0.00351482 44 36 33
-0.218348 0.0674228 0.00325988 43 35 34
-0.21838 0.0688886 0.0030044 40 34 31
-0.218271 0.0702324 0.00310688 40 35 31
-0.218161 0.071577 0.00320943 37 34 30
-0.21805 0.0729227 0.00331205 33 31 25
-0.218083 0.0744006 0.00305663 26 26 23
-0.217972 0.0757497 0.00315951 22 22 24
-0.21772 0.0769652 0.00362034 21 20 26
-0.217609 0.0783146 0.00372326 21 19 24
-0.217357 0.0795274 0.00418301 21 21 20
-0.217247 0.0808771 0.00428594 24 25 18
-0.216855 0.0819472 0.0050994 26 22 17
-0.216325 0.0828725 0.00626124 23 22 18
-0.216076 0.084075 0.00671497 21 22 21
-0.215414 0.084848 0.0082134 25 22 19
-0.21503 0.0858998 0.00900823 28 25 20
-0.214649 0.0869475 0.0097994 30 27 20
-0.21454 0.0882813 0.00990112 28 22 19
-0.213891 0.089031 0.0113708 24 18 19
-0.21285 0.0893388 0.0138344 23 20 20
-0.212217 0.0900758 0.0152672 22 22 19
-0.211203 0.0903731 0.0176684 21 23 22
-0.210331 0.09081 0.0197101 26 21 24
-0.209596 0.0913852 0.0214068 27 29 23
-0.208994 0.0920982 0.0227699 49 46 38
-0.208519 0.0929496 0.0238087 58 59 55
-0.208047 0.0937962 0.0248405 56 54 54
-0.207578 0.094638 0.0258655 51 45 43
-0.207353 0.0957666 0.0262704 47 44 38
-0.207009 0.0967466 0.0269806 46 45 42
-0.206666 0.097723 0.0276878 41 46 40
-0.206324 0.0986961 0.0283918 57 59 57
-0.20622 0.0999646 0.0284886 61 60 57
-0.210122 0.112203 0.0176382 63 60 58
-0.208377 0.111331 0.0219385 65 61 59
-0.20827 0.112639 0.0220383 64 60 61
-0.204631 0.116201 0.0303539 66 64 62
-0.200606 0.111789 0.0405579 65 59 58
-0.200076 0.112392 0.0417585 69 57 56
-0.199763 0.113304 0.0424018 72 59 57
-0.199662 0.114529 0.0424952 72 62 62
-0.199456 0.115596 0.0428625 74 65 64
-0.199356 0.116822 0.042956 80 67 66
-0.199045 0.117725 0.0435949 89 76 72
-0.197505 0.120819 0.0469235 150 163 152
-0.197201 0.121706 0.0475458 162 174 163
-0.197001 0.122755 0.0479022 166 175 169
-0.219144 0.0517536 8.39543e-06 128 59 61
-0.218891 0.0529828 0.000471984 118 34 33
-0.218353 0.0539963 0.00165414 106 24 19
-0.218101 0.0552188 0.00211365 91 18 17
-0.217709 0.0563302 0.00292873 74 20 21
-0.217319 0.0574371 0.00373999 58 32 30
-0.21721 0.0587624 0.00384073 50 39 37
-0.216822 0.0598628 0.00464803 49 40 37
-0.216853 0.0613011 0.00439597 48 42 36
-0.217024 0.0628603 0.00378912 44 44 36
-0.217336 0.0645467 0.00282273 44 43 34
-0.217651 0.0662463 0.00184946 44 38 34
-0.21754 0.0675883 0.00195148 43 40 34
-0.217714 0.0691813 0.0013332 42 37 33
-0.218175 0.0710388 -1.51728e-05 40 35 33
-0.218064 0.0723934 8.77978e-05 38 33 30
-0.217953 0.0737489 0.000190834 33 31 26
-0.217985 0.0752387 -7.05541e-05 27 26 23
-0.217874 0.0765978 3.27487e-05 23 22 23
-0.217476 0.0776849 0.000863782 21 22 25
-0.216939 0.0786309 0.00205152 21 22 24
-0.216687 0.0798464 0.00251405 22 21 21
-0.216576 0.0811994 0.0026169 25 24 18
-0.216184 0.0822714 0.00343602 28 22 16
-0.215794 0.0833393 0.00425126 22 22 19
-0.215544 0.0845456 0.00470871 24 22 21
-0.215573 0.0860389 0.00445648 29 27 24
-0.215185 0.087098 0.00526759 33 26 22
-0.214388 0.0877147 0.00712574 31 22 18
-0.213871 0.0886167 0.00827078 26 19 17
-0.212956 0.0890747 0.0104358 22 17 19
-0.211661 0.0890933 0.0135768 22 18 21
-0.210906 0.0896857 0.0153377 24 19 19
-0.209906 0.0899852 0.0177298 24 24 21
-0.209046 0.0904234 0.0197639 25 25 23
-0.208197 0.0908565 0.0217704 27 26 25
-0.207725 0.0917114 0.0228121 48 46 39
-0.207014 0.0922756 0.0244684 70 67 59
-0.206669 0.093263 0.0251838 75 67 61
-0.206565 0.0945357 0.0252805 65 56 48
-0.206222 0.0955176 0.0259926 53 53 43
-0.20588 0.0964961 0.0267016 64 64 57
-0.20554 0.097471 0.0274074 57 53 47
-0.205084 0.0982949 0.0284125 65 62 55
-0.204516 0.0989666 0.0297104 62 56 53
-0.204297 0.100078 0.0301049 56 46 43
-0.204078 0.101187 0.0304985 54 45 39
-0.203975 0.102446 0.0305942 57 52 46
-0.203987 0.103858 0.0303922 63 57 53
-0.20481 0.106364 0.0280835 62 61 55
-0.205411 0.108595 0.0263492 64 60 55
-0.205425 0.11004 0.0261393 65 61 60
-0.205319 0.111326 0.026237 69 66 63
-0.20486 0.112119 0.0272545 72 68 63
-0.204754 0.113402 0.0273521 72 66 60
-0.204066 0.113857 0.0289678 67 56 51
-0.203845 0.114968 0.0293665 63 51 51
-0.202598 0.114589 0.0324411 58 51 49
-0.200286 0.112619 0.0382986 58 53 50
-0.199541 0.112906 0.0400726 61 55 50
-0.199227 0.11382 0.0407212 64 56 49
-0.198915 0.114731 0.0413671 61 55 51
-0.198709 0.115798 0.0417356 63 57 56
-0.198503 0.116865 0.0421035 64 61 60
-0.198403 0.118091 0.0421967 67 64 63
-0.197989 0.11883 0.0431097 71 70 67
-0.197475 0.119403 0.0442871 78 78 75
-0.19616 0.122798 0.0470619 147 161 154
-0.19576 0.123515 0.0479449 163 175 166
-0.195561 0.124559 0.0482993 162 174 168
-0.219754 0.0515012 -0.00472539 143 84 77
-0.218196 0.0517948 -0.000940665 133 73 69
-0.217943 0.0530241 -0.000476276 114 55 54
-0.21755 0.0541443 0.000348469 98 32 29
-0.217158 0.0552601 0.0011693 86 21 21
-0.216908 0.0564806 0.00162863 74 21 25
-0.216519 0.0575887 0.00244364 59 31 32
-0.21627 0.0588039 0.00289993 49 43 38
-0.216161 0.0601302 0.00300042 50 45 41
-0.216191 0.0615724 0.00274549 51 46 41
-0.21636 0.0631361 0.0021329 50 46 39
-0.216811 0.0649475 0.000797526 46 43 35
-0.216842 0.0664104 0.000537998 43 40 34
-0.217298 0.0682505 -0.000813043 44 41 35
-0.217902 0.0702371 -0.00254599 43 39 34
-0.218079 0.0718571 -0.00318304 40 37 34
-0.217966 0.0732217 -0.00307963 38 35 33
-0.217854 0.0745873 -0.00297618 37 36 32
-0.217742 0.0759538 -0.00287264 31 28 25
-0.217629 0.0773213 -0.00276903 25 21 22
-0.216944 0.0781385 -0.00119117 22 24 22
-0.216548 0.0792243 -0.000356433 22 25 20
-0.216153 0.0803058 0.000474365 22 21 21
-0.215761 0.081383 0.00130121 24 23 21
-0.21565 0.0827387 0.00140393 24 19 17
-0.215259 0.0838094 0.00222668 23 22 21
-0.215148 0.0851637 0.00232929 30 26 25
-0.214759 0.0862279 0.00314802 33 29 26
-0.21451 0.0874343 0.00360712 29 23 23
-0.214124 0.0884911 0.00442001 24 19 18
-0.213199 0.0889536 0.00663257 21 19 17
-0.212153 0.0892642 0.00915771 20 19 18
-0.210736 0.0891366 0.0126511 20 20 21
-0.209351 0.0890128 0.0160642 25 19 21
-0.208493 0.0894579 0.018114 25 22 21
-0.207892 0.0901813 0.0194975 24 25 22
-0.207053 0.0906152 0.021501 24 24 23
-0.206225 0.0910442 0.0234776 37 35 31
-0.205882 0.0920335 0.0241948 59 53 46
-0.205658 0.0931622 0.0246003 71 59 51
-0.205435 0.0942893 0.0250051 60 46 41
-0.205331 0.0955602 0.0251014 44 39 39
-0.204991 0.0965386 0.025812 65 56 55
-0.204536 0.0973667 0.0268242 66 60 60
-0.204199 0.0983375 0.0275273 65 57 54
-0.20352 0.0988616 0.0291286 56 50 45
-0.203302 0.0999716 0.0295229 50 42 37
-0.203084 0.10108 0.0299165 52 43 38
-0.202867 0.102187 0.0303092 58 53 47
-0.202651 0.103292 0.0307012 63 58 49
-0.202547 0.104549 0.0307964 62 61 51
-0.20267 0.106115 0.030298 64 59 51
-0.202793 0.10769 0.0297974 66 61 57
-0.202689 0.108954 0.0298933 70 67 62
-0.202585 0.11022 0.0299892 72 68 59
-0.202481 0.111486 0.0300851 65 51 46
-0.20215 0.112429 0.0307764 60 45 41
-0.201822 0.113369 0.0314647 55 48 43
-0.201718 0.114633 0.0315604 54 50 42
-0.199638 0.112979 0.0368696 55 51 44
-0.199108 0.113581 0.0380945 57 52 47
-0.198477 0.114021 0.0395877 59 54 47
-0.19827 0.115092 0.039959 56 54 45
-0.19796 0.116001 0.0406062 56 55 50
-0.197651 0.116908 0.0412509 56 57 55
-0.19755 0.118134 0.0413438 58 60 59
-0.197138 0.118873 0.0422592 62 61 59
-0.196628 0.119446 0.0434399 65 63 59
-0.195919 0.119692 0.0451467 73 64 63
-0.195619 0.12058 0.045772 82 72 71
-0.194625 0.124436 0.0477245 151 163 157
-0.194427 0.125478 0.0480781 158 172 166
-0.219602 0.0492547 -0.0073941 124 74 66
-0.219491 0.05061 -0.00729175 134 78 69
-0.217642 0.0507079 -0.00272256 136 79 73
-0.217248 0.0518361 -0.00188989 129 75 70
-0.216996 0.0530654 -0.00142467 111 63 60
-0.216604 0.0541857 -0.000597981 91 37 36
-0.216354 0.0554096 -0.000135833 74 22 24
-0.215965 0.0565221 0.000684946 59 20 25
-0.215716 0.0577406 0.00114405 52 32 31
-0.215607 0.0590693 0.00124439 50 45 39
-0.215497 0.0603989 0.0013448 51 48 43
-0.215526 0.061845 0.00108694 53 48 45
-0.215693 0.0634131 0.000468621 55 45 41
-0.216002 0.0651099 -0.000515051 49 43 35
-0.216454 0.0669429 -0.00187157 42 41 33
-0.217052 0.0689208 -0.00361135 43 40 36
-0.21737 0.0706654 -0.00462415 41 40 34
-0.217546 0.0722925 -0.00526896 39 39 35
-0.217432 0.0736623 -0.00516551 43 40 36
-0.217319 0.075033 -0.00506199 49 48 43
-0.217206 0.0764046 -0.0049584 42 36 35
-0.216949 0.0776395 -0.00448081 27 21 22
-0.216407 0.0785953 -0.00326127 23 23 22
-0.216153 0.0798234 -0.00278794 25 24 21
-0.215757 0.0809089 -0.00194756 26 22 20
-0.215363 0.08199 -0.00111118 25 23 20
-0.214693 0.0827826 0.000447273 24 22 20
-0.214443 0.0839962 0.000911304 29 22 22
-0.214193 0.0852078 0.00137428 34 28 24
-0.213944 0.0864175 0.00183625 31 27 22
-0.213695 0.0876251 0.00229717 24 22 21
-0.21331 0.0886829 0.0031138 21 18 19
-0.212793 0.089588 0.00428075 21 18 17
-0.212145 0.090339 0.00579003 21 19 18
-0.211108 0.0906392 0.00832187 21 22 21
-0.208062 0.0886299 0.0161311 24 20 21
-0.207337 0.0892173 0.0178509 25 21 20
-0.2065 0.089658 0.0198697 24 22 20
-0.205674 0.0900936 0.0218614 23 22 19
-0.205094 0.0908047 0.0232064 26 25 21
-0.204872 0.091934 0.0236127 44 41 29
-0.204649 0.0930617 0.0240181 64 63 45
-0.204545 0.0943318 0.024114 60 61 51
-0.204323 0.0954573 0.0245186 48 40 31
-0.204101 0.0965812 0.0249224 50 34 36
-0.203649 0.0974093 0.0259372 62 54 55
-0.203314 0.0983801 0.0266419 63 58 51
-0.202753 0.0990516 0.0279471 52 46 40
-0.202309 0.0998659 0.0289421 46 39 35
-0.202092 0.100973 0.0293356 50 43 39
-0.201876 0.102079 0.0297282 56 54 49
-0.201661 0.103184 0.0301201 62 58 48
-0.201446 0.104286 0.0305112 63 59 48
-0.201453 0.105695 0.0303098 64 59 49
-0.20135 0.106952 0.0304047 67 61 54
-0.201357 0.108367 0.0302031 68 60 54
-0.201253 0.109627 0.0302982 64 56 48
-0.201149 0.110888 0.0303935 53 48 40
-0.201045 0.11215 0.0304888 55 44 39
-0.200941 0.113413 0.0305842 56 46 42
-0.200394 0.114023 0.0318601 55 49 41
-0.19931 0.113821 0.0345731 54 50 41
-0.198459 0.113943 0.0366678 55 50 44
-0.197935 0.114541 0.0378906 56 50 47
-0.197519 0.115295 0.0388243 57 54 44
-0.197209 0.116204 0.0394744 55 52 44
-0.196798 0.11695 0.0403981 56 52 46
-0.196696 0.118177 0.0404908 57 55 50
-0.196288 0.118916 0.0414085 58 59 56
-0.19578 0.119489 0.0425926 58 61 57
-0.195077 0.119734 0.0443044 62 58 56
-0.194679 0.120461 0.045198 67 60 57
-0.19448 0.121509 0.0455555 72 66 63
-0.194183 0.122392 0.0461773 81 76 76
-0.193887 0.123272 0.0467965 95 98 94
-0.193591 0.125521 0.0472419 153 167 158
-0.193394 0.126561 0.0475954 165 180 169
-0.219191 0.0482473 -0.00960272 106 66 73
-0.218639 0.0492963 -0.00835877 110 69 64
-0.217802 0.050131 -0.00637324 119 68 65
-0.216692 0.0507492 -0.00367389 125 69 66
-0.216299 0.0518773 -0.00283926 119 68 65
-0.215908 0.053001 -0.00200857 103 61 56
-0.215658 0.054227 -0.00154456 85 37 38
-0.215409 0.055451 -0.0010816 62 23 26
-0.21516 0.056673 -0.000619711 43 21 24
-0.214912 0.0578929 -0.000158813 43 34 31
-0.214664 0.0591109 0.000301051 52 46 38
-0.214829 0.0606689 -0.000318901 51 45 42
-0.214857 0.0621189 -0.000579679 51 47 44
-0.215023 0.0636916 -0.00120383 56 41 39
-0.21533 0.0653936 -0.00219623 51 44 32
-0.216203 0.0676051 -0.00467614 41 42 33
-0.21666 0.0694715 -0.00606816 42 39 36
-0.216834 0.0710969 -0.00671772 40 41 34
-0.216721 0.0724675 -0.00661455 38 38 35
-0.216607 0.073839 -0.00651131 61 48 41
-0.216493 0.0752115 -0.00640799 77 60 55
-0.21638 0.076585 -0.0063046 65 43 43
-0.216266 0.0779594 -0.00620114 39 19 20
-0.216009 0.079195 -0.0057217 25 22 20
-0.21547 0.0801473 -0.0044964 25 24 22
-0.214934 0.0810936 -0.00327997 25 26 19
-0.214403 0.082034 -0.00207229 26 24 20
-0.213737 0.0828266 -0.000509537 21 27 24
-0.213487 0.0840402 -4.46754e-05 33 33 26
-0.213238 0.0852519 0.000419134 33 26 23
-0.213126 0.0866074 0.000521177 28 21 20
-0.212742 0.0876693 0.00134366 23 19 19
-0.212359 0.0887271 0.00216225 20 18 19
-0.211844 0.0896322 0.00333226 22 18 18
-0.211733 0.0909802 0.00343374 24 20 18
-0.210301 0.0908309 0.00703916 25 22 22
-0.20715 0.0886727 0.0152186 25 21 20
-0.206187 0.0889779 0.017589 26 23 18
-0.20524 0.0892792 0.019922 25 23 16
-0.204542 0.0898556 0.0215934 24 21 17
-0.204085 0.0907065 0.0226255 26 22 19
-0.203864 0.0918348 0.0230317 32 28 25
-0.203759 0.0931041 0.0231272 48 44 38
-0.203654 0.0943743 0.0232229 66 62 52
-0.203317 0.0953547 0.023937 55 40 35
-0.203096 0.0964776 0.0243406 40 30 29
-0.202762 0.0974519 0.0250501 50 43 40
-0.202429 0.0984227 0.0257565 56 51 41
-0.201871 0.0990941 0.0270652 49 43 35
-0.20143 0.0999084 0.0280628 43 36 34
-0.201214 0.101016 0.028457 50 45 41
-0.200777 0.101822 0.0294458 55 53 49
-0.200562 0.102924 0.0298369 57 53 47
-0.200459 0.104177 0.0299312 62 57 46
-0.200135 0.105125 0.0306165 63 59 51
-0.200031 0.106376 0.0307108 66 62 57
-0.200037 0.107784 0.03051 67 59 55
-0.200043 0.109196 0.030309 59 46 42
-0.200159 0.110772 0.0298108 47 45 40
-0.200055 0.112032 0.0299057 49 45 41
-0.19995 0.113294 0.0300007 52 45 41
-0.199517 0.114067 0.030983 54 47 42
-0.198441 0.113865 0.0337042 54 48 42
-0.197807 0.114306 0.0352348 53 49 41
-0.197389 0.115064 0.0361825 55 50 44
-0.196869 0.115658 0.037406 57 49 41
-0.196457 0.116408 0.0383399 54 50 42
-0.195945 0.116993 0.0395452 54 49 44
-0.195843 0.11822 0.0396376 56 49 47
-0.195336 0.118797 0.0408325 54 54 52
-0.194832 0.11937 0.0420174 55 58 54
-0.194135 0.119616 0.0437308 58 56 54
-0.193838 0.120504 0.0443579 61 56 52
-0.193542 0.121389 0.0449824 63 59 53
-0.193345 0.122435 0.0453392 64 61 59
-0.192954 0.123151 0.0462239 67 63 64
-0.192854 0.124357 0.0463147 85 76 83
-0.192462 0.126438 0.0470223 132 148 143
-0.192075 0.127142 0.0478976 154 163 158
-0.21753 0.0492349 -0.00894374 99 75 76
-0.216701 0.050069 -0.00695741 103 65 68
-0.215741 0.0507904 -0.00462538 109 65 63
-0.21535 0.0519186 -0.00378877 104 60 61
-0.214961 0.0530423 -0.00295612 92 55 53
-0.214712 0.0542683 -0.00249129 77 37 41
-0.214602 0.0556008 -0.00239132 51 26 29
-0.214353 0.0568242 -0.00192759 34 27 26
-0.214105 0.0580456 -0.00146493 40 37 33
-0.213995 0.0593777 -0.00136498 52 47 38
-0.214158 0.0609402 -0.00199071 51 43 39
-0.214185 0.0623941 -0.00225446 47 43 39
-0.21435 0.0639714 -0.00288446 50 40 33
-0.215073 0.0660447 -0.00499578 50 45 36
-0.215807 0.0681493 -0.00713797 43 40 36
-0.215978 0.0697706 -0.00779056 46 38 37
-0.215865 0.0711404 -0.00768778 43 40 39
-0.215751 0.0725111 -0.00758495 53 45 44
-0.215779 0.0740162 -0.00786057 73 57 52
-0.215665 0.0753905 -0.00775746 86 66 60
-0.215551 0.0767658 -0.00765426 75 48 46
-0.215295 0.0780035 -0.00717284 48 21 23
-0.215181 0.0793789 -0.00706965 28 21 22
-0.214643 0.0803319 -0.00583826 24 24 23
-0.214389 0.0815621 -0.00536119 24 28 20
-0.213857 0.0825043 -0.00414186 25 24 22
-0.212917 0.0830126 -0.00183137 26 29 26
-0.212532 0.0840843 -0.0010008 33 35 26
-0.212419 0.0854406 -0.000899042 31 25 22
-0.212171 0.0866516 -0.000434448 26 17 20
-0.211923 0.0878607 2.91136e-05 23 17 19
-0.211542 0.0889194 0.0008515 22 19 19
-0.210896 0.0896764 0.00238365 22 22 20
-0.210784 0.0910245 0.00248479 23 22 19
-0.204923 0.0885996 0.0176493 27 22 19
-0.203871 0.088764 0.0202891 27 22 14
-0.2033 0.0894797 0.0216389 26 22 15
-0.203079 0.0906085 0.0220458 26 22 18
-0.202858 0.0917357 0.0224519 28 23 21
-0.202753 0.0930037 0.022547 38 33 29
-0.202418 0.0939854 0.0232615 67 59 44
-0.202313 0.0952523 0.0233566 59 52 47
-0.20198 0.0962285 0.0240678 38 33 29
-0.201875 0.0974944 0.0241628 38 34 28
-0.201543 0.0984653 0.0248708 43 38 29
-0.200989 0.0991366 0.0261832 43 37 29
-0.20055 0.0999509 0.0271834 40 37 31
-0.200225 0.100909 0.027878 49 48 39
-0.199791 0.101715 0.0288674 56 51 43
-0.199143 0.102218 0.0304399 55 49 46
-0.198931 0.103314 0.0308271 59 52 45
-0.198613 0.104257 0.0315058 63 57 49
-0.19851 0.105501 0.0315991 64 60 54
-0.198406 0.106745 0.0316924 64 57 53
-0.19841 0.108145 0.0314939 55 41 39
-0.198737 0.110021 0.0304135 48 43 38
-0.198632 0.111275 0.0305076 45 44 41
-0.198528 0.11253 0.0306017 46 44 41
-0.197995 0.113141 0.0318687 49 44 41
-0.197467 0.113747 0.0331248 53 46 42
-0.196942 0.114349 0.0343701 52 44 37
-0.196631 0.115268 0.0350353 53 46 38
-0.19601 0.115701 0.0365472 54 48 38
-0.1956 0.116451 0.0374836 53 48 40
-0.195091 0.117036 0.0386922 52 47 42
-0.19499 0.118263 0.0387843 55 46 44
-0.194485 0.11884 0.0399825 54 51 50
-0.193886 0.119251 0.0414434 53 54 50
-0.193098 0.119336 0.0434268 56 54 52
-0.192804 0.120223 0.0440529 59 53 52
-0.192606 0.12127 0.0444103 61 55 52
-0.192314 0.122152 0.0450326 60 60 56
-0.192213 0.123358 0.0451232 63 61 59
-0.192017 0.1244 0.0454785 68 64 65
-0.191822 0.125441 0.0458332 79 76 78
-0.215602 0.0500072 -0.00754027 96 82 88
-0.21479 0.0508317 -0.005577 98 76 76
-0.214263 0.0518554 -0.00437049 91 66 71
-0.214015 0.0530835 -0.00390381 82 61 68
-0.213904 0.0544169 -0.0038041 64 42 57
-0.213655 0.0556423 -0.0033385 41 28 39
-0.213544 0.0569759 -0.00323877 34 31 32
-0.213433 0.0583104 -0.00313897 44 43 37
-0.213322 0.0596458 -0.00303911 51 53 41
-0.213484 0.0612128 -0.00367073 49 53 41
-0.21351 0.0626707 -0.00393744 45 46 42
-0.214227 0.0647337 -0.00605683 49 42 38
-0.214813 0.0667037 -0.00782967 48 44 41
-0.215123 0.0684451 -0.00886279 44 42 39
-0.215009 0.069814 -0.00876043 45 39 41
-0.215037 0.071314 -0.00903797 52 49 52
-0.214922 0.0726865 -0.00893533 73 61 59
-0.214808 0.07406 -0.00883262 88 65 61
-0.214693 0.0754344 -0.00872985 90 64 59
-0.213561 0.0817485 -0.00670457 24 29 22
-0.213031 0.0826914 -0.00547918 26 25 25
-0.211959 0.0830566 -0.00278963 34 30 28
-0.211711 0.0842716 -0.00232209 32 27 24
-0.211463 0.0854847 -0.00185562 28 23 21
-0.211216 0.0866958 -0.00139021 26 20 20
-0.211103 0.0880525 -0.00128876 23 18 18
-0.210722 0.0891121 -0.000462529 22 18 17
-0.209948 0.0897206 0.00143489 22 20 18
-0.209836 0.0910688 0.0015357 21 22 17
-0.203667 0.0882238 0.0177091 26 23 20
-0.202861 0.0886675 0.0197099 26 22 17
-0.202294 0.0893829 0.0210605 27 22 17
-0.202074 0.0905107 0.0214673 26 21 19
-0.201741 0.0914962 0.0221837 26 21 21
-0.201635 0.0927615 0.0222783 30 26 23
-0.201417 0.0938845 0.0226826 57 48 33
-0.201198 0.0950059 0.0230861 60 63 54
-0.201093 0.096271 0.0231807 44 39 32
-0.200875 0.0973902 0.0235833 32 30 22
-0.200434 0.0982132 0.0245973 31 33 25
-0.199996 0.0990315 0.0256046 36 37 30
-0.199561 0.0998454 0.0266054 39 39 32
-0.199238 0.100803 0.0273002 49 48 41
-0.198376 0.101015 0.0294759 53 50 41
-0.197845 0.101667 0.0307441 55 47 44
-0.197529 0.10261 0.0314204 58 49 45
-0.197321 0.103699 0.0318038 64 58 51
-0.197217 0.104937 0.0318964 66 61 53
-0.19722 0.106329 0.0316985 59 52 47
-0.197116 0.10757 0.0317914 49 41 38
-0.197329 0.109279 0.0310095 48 42 35
-0.197226 0.110527 0.0311028 45 41 38
-0.197016 0.111616 0.0314882 46 40 41
-0.196807 0.112704 0.0318727 47 42 41
-0.196181 0.113151 0.0334125 49 45 39
-0.196078 0.114392 0.0335053 47 44 36
-0.195871 0.115473 0.0338855 50 44 37
-0.195767 0.116715 0.0339783 52 45 36
-0.194947 0.116817 0.0360634 51 46 38
-0.194439 0.117402 0.0372803 50 46 40
-0.194136 0.118306 0.0379309 52 46 41
-0.193834 0.119208 0.0385787 55 49 46
-0.19304 0.119294 0.0405974 54 50 45
-0.192258 0.119379 0.0425867 56 53 47
-0.191965 0.120266 0.0432143 57 55 49
-0.191768 0.121312 0.0435723 56 53 49
-0.191572 0.122357 0.0439296 59 59 54
-0.191376 0.123401 0.0442863 62 57 55
-0.191181 0.124443 0.0446422 62 58 57
-0.19108 0.12565 0.0447325 63 60 59
-0.190791 0.126524 0.0453521 69 63 63
-0.212956 0.0544583 -0.00475226 87 71 83
-0.212845 0.0557926 -0.0046528 46 34 46
-0.212733 0.0571279 -0.00455328 34 31 30
-0.212622 0.0584641 -0.00445367 44 39 34
-0.212782 0.0600293 -0.00508984 49 48 38
-0.212943 0.0616031 -0.00572898 50 49 41
-0.213519 0.0635428 -0.00749171 45 45 42
-0.213962 0.0653846 -0.008897 45 43 43
-0.214268 0.0671203 -0.00993447 43 42 45
-0.214295 0.0686152 -0.0102139 43 44 43
-0.21418 0.0699859 -0.0101117 52 47 50
-0.214066 0.0713576 -0.0100095 73 68 66
-0.213951 0.0727302 -0.0099072 91 76 72
-0.212065 0.0827356 -0.00644541 29 28 29
-0.211001 0.0831006 -0.00374801 36 34 33
-0.210888 0.0844595 -0.00364673 32 26 27
-0.21064 0.0856739 -0.00317842 28 24 24
-0.210393 0.0868863 -0.00271119 26 22 22
-0.210147 0.0880968 -0.00224499 24 19 18
-0.210033 0.0894546 -0.0021438 23 21 17
-0.20913 0.0899135 0.000127346 22 20 19
-0.209017 0.0912634 0.00022797 19 23 22
-0.202767 0.0882661 0.0168093 25 23 19
-0.201852 0.0885713 0.0191319 26 22 18
-0.20129 0.0892864 0.0204832 28 21 19
-0.200959 0.0902738 0.0212015 27 21 21
-0.20074 0.0913979 0.0216065 24 22 22
-0.200635 0.0926619 0.0217007 24 22 20
-0.200417 0.0937839 0.0221049 32 30 26
-0.200312 0.0950482 0.0221992 59 55 47
-0.200094 0.0961681 0.0226025 54 43 32
-0.199877 0.0972863 0.0230049 37 30 20
-0.19955 0.0982557 0.0237134 31 29 23
-0.199115 0.099074 0.0247233 36 33 31
-0.198682 0.0998878 0.0257267 40 37 35
-0.198145 0.100549 0.0270234 46 44 39
-0.197081 0.100469 0.0297845 51 47 40
-0.196767 0.101414 0.0304625 55 46 41
-0.196454 0.102356 0.0311377 58 50 46
-0.196351 0.103592 0.0312298 64 59 54
-0.196248 0.104829 0.031322 69 65 58
-0.196144 0.106067 0.0314143 59 43 40
-0.196041 0.107306 0.0315066 47 42 35
-0.196146 0.108855 0.0310171 47 42 33
-0.196146 0.110255 0.030818 44 41 35
-0.195938 0.111343 0.0312025 42 39 38
-0.195626 0.11227 0.0318766 44 38 39
-0.195008 0.112718 0.0334111 45 41 38
-0.194905 0.113955 0.0335033 45 42 35
-0.191418 0.119422 0.0417465 53 49 41
-0.191221 0.12047 0.0421064 56 51 44
-0.19093 0.121355 0.0427341 58 50 45
-0.190829 0.122563 0.0428242 58 55 48
-0.190633 0.123608 0.0431821 59 54 51
-0.190438 0.124651 0.0435393 60 54 53
-0.190243 0.125693 0.0438957 60 56 55
-0.189955 0.126567 0.0445168 60 60 58
-0.18939 0.126937 0.0459244 62 61 61
-0.189014 0.127637 0.0467977 69 66 68
-0.212032 0.0559433 -0.00597038 52 36 48
-0.21192 0.0572803 -0.00587106 34 31 32
-0.212079 0.0588438 -0.00651182 40 38 34
-0.212102 0.0603006 -0.00678338 45 45 38
-0.212673 0.0622316 -0.00855289 49 45 44
-0.213389 0.0643083 -0.010725 47 45 45
-0.213414 0.0657962 -0.0110055 43 43 47
-0.213439 0.0672886 -0.0112867 40 44 52
-0.213324 0.0686585 -0.011185 48 48 48
-0.21321 0.0700294 -0.0110831 63 57 57
-0.213095 0.0714012 -0.0109812 90 79 72
-0.21298 0.0727739 -0.0108792 101 82 75
-0.210984 0.0841495 -0.00731004 36 32 31
-0.20993 0.0845036 -0.0046056 32 27 29
-0.209683 0.0857181 -0.00413646 29 26 26
-0.209569 0.0870774 -0.00403548 26 24 24
-0.209323 0.0882892 -0.00356748 22 21 21
-0.209077 0.0894991 -0.00310051 22 22 20
-0.208832 0.090707 -0.0026346 22 22 22
-0.208718 0.0920651 -0.0025337 20 23 25
-0.201645 0.0894486 0.0163259 27 22 18
-0.200853 0.0898847 0.0183331 30 22 20
-0.200071 0.0903159 0.0203136 30 23 23
-0.199853 0.09144 0.0207194 27 25 26
-0.199636 0.0925625 0.0211243 24 23 23
-0.199531 0.0938261 0.0212181 24 25 23
-0.199314 0.0949465 0.0216222 44 40 29
-0.199098 0.0960653 0.0220254 45 41 28
-0.198772 0.0970366 0.0227356 35 31 22
-0.198557 0.0981512 0.0231363 31 28 23
-0.198234 0.0991165 0.0238419 39 34 31
-0.197804 0.0999303 0.0248479 43 38 37
-0.197269 0.100591 0.0261481 45 41 38
-0.196005 0.100219 0.029505 48 45 39
-0.195694 0.101162 0.0301819 52 46 40
-0.195487 0.10225 0.0305651 58 52 47
-0.195281 0.103336 0.0309476 63 60 58
-0.195177 0.104571 0.0310393 67 60 59
-0.195074 0.105806 0.0311311 57 39 36
-0.195073 0.107195 0.0309325 47 40 35
-0.195072 0.108588 0.0307336 46 40 32
-0.194968 0.109829 0.0308258 43 39 34
-0.194864 0.11107 0.030918 41 39 37
-0.194658 0.112155 0.0313009 43 38 38
-0.194349 0.113078 0.0319724 43 39 38
-0.190476 0.120675 0.0409961 53 49 41
-0.19028 0.121723 0.0413566 59 50 42
-0.190084 0.12277 0.0417163 59 51 42
-0.189889 0.123815 0.0420754 57 52 45
-0.189694 0.12486 0.0424339 57 53 48
-0.189406 0.125736 0.0430589 60 54 51
-0.189119 0.12661 0.0436814 60 56 51
-0.18865 0.127147 0.0448297 58 57 56
-0.188458 0.128181 0.0451822 60 59 60
-0.211083 0.0559849 -0.00692029 53 37 46
-0.21124 0.0575444 -0.00756397 35 34 36
-0.211262 0.0589989 -0.00783719 39 39 37
-0.212237 0.0612715 -0.0107499 44 45 41
-0.212675 0.0631073 -0.0121772 47 45 47
-0.21256 0.0644728 -0.0120761 48 48 53
-0.212445 0.0658392 -0.0119749 47 51 57
-0.212331 0.0672066 -0.0118736 51 58 67
-0.212354 0.0687019 -0.0121561 64 61 62
-0.212239 0.0700728 -0.0120546 76 68 65
-0.208497 0.088482 -0.00489327 27 27 27
-0.208382 0.0898433 -0.00479247 26 28 27
-0.208137 0.0910538 -0.00432375 24 25 27
-0.198644 0.0938684 0.0203312 24 24 23
-0.198428 0.0949889 0.0207359 33 29 22
-0.198212 0.0961078 0.0211398 36 33 23
-0.19778 0.0969335 0.0221598 33 31 24
-0.197566 0.098047 0.0225605 32 29 24
-0.197352 0.099159 0.0229603 40 37 31
-0.197139 0.100269 0.0233593 46 39 35
-0.196713 0.10108 0.0243656 45 39 37
-0.196183 0.101736 0.0256662 46 43 38
-0.19483 0.101204 0.0293182 46 47 41
-0.194624 0.102292 0.029702 56 55 49
-0.194418 0.103378 0.0300851 72 65 56
-0.194315 0.104613 0.0301765 66 55 48
-0.194109 0.105697 0.0305588 52 40 37
-0.194005 0.106933 0.0306503 46 40 36
-0.193901 0.108168 0.0307418 45 39 35
-0.193899 0.10956 0.0305428 44 38 35
-0.193795 0.110799 0.0306345 42 39 37
-0.193792 0.112198 0.0304354 45 40 38
-0.193688 0.11344 0.0305274 43 41 38
-0.189533 0.121929 0.040245 56 53 39
-0.189431 0.123141 0.0403348 57 54 42
-0.189142 0.124023 0.0409664 57 52 46
-0.188948 0.125069 0.041326 56 50 48
-0.188753 0.126113 0.041685 58 51 45
-0.188467 0.126987 0.0423114 59 53 49
-0.188366 0.128196 0.0424009 59 55 52
-0.210267 0.0561359 -0.00824247 49 40 43
-0.210288 0.0575862 -0.00851663 40 40 42
-0.210981 0.0596113 -0.0106735 43 44 44
-0.211822 0.0617855 -0.0132467 46 48 47
-0.211707 0.0631501 -0.013146 49 51 51
-0.196897 0.0969758 0.0212767 32 28 24
-0.196684 0.0980895 0.0216781 36 31 25
-0.196577 0.0993493 0.021771 38 36 29
-0.193654 0.104956 0.028728 61 44 40
-0.193247 0.10574 0.0296965 49 39 34
-0.193143 0.106975 0.0297876 44 38 34
-0.193039 0.108211 0.0298789 44 39 36
-0.192934 0.109448 0.0299701 44 38 36
-0.19283 0.110686 0.0300615 42 38 36
-0.192826 0.112082 0.0298616 44 41 41
-0.209317 0.0561776 -0.00919382 42 47 48
-0.210136 0.0583023 -0.011733 45 47 49
-0.19228 0.107017 0.0289249 42 36 28
-0.192076 0.1081 0.0293077 41 36 30
-0.191972 0.109336 0.0293985 40 36 32
-0.191966 0.110729 0.0291979 44 34 32
-0.191961 0.112125 0.0289968 45 39 36
-0.191109 0.109378 0.028536 40 38 32
-0.191201 0.110928 0.0280409 41 34 28
-0.188263 0.117487 0.0286114 53 41 35
-0.188158 0.118724 0.0287015 57 43 40
-0.188052 0.119963 0.0287917 54 45 42
-0.187947 0.121203 0.0288819 49 47 37
-0.184894 0.119964 0.037596 52 43 37
