# .PCD v0.7 - Point Cloud Data file format
VERSION 0.7
FIELDS x y z rgb
SIZE 4 4 4 4
TYPE F F F F
COUNT 1 1 1 1
WIDTH 1015
HEIGHT 1
VIEWPOINT 0 0 0 1 0 0 0
POINTS 1015
DATA ascii
-0.31275001 -0.0065253 0.156188 7.8502253e-39
-0.31205899 -0.0055391798 0.15674201 8.8665283e-39
-0.31200799 -0.0044670398 0.15686101 9.0516384e-39
-0.311957 -0.00339419 0.15697999 9.2367457e-39
-0.31190601 -0.00232061 0.15709899 9.3296602e-39
-0.31206799 -0.00121255 0.157074 9.3296616e-39
-0.312444 -6.6570101e-05 0.156904 9.5144102e-39
-0.315207 0.00148785 0.15511701 9.6977211e-39
-0.315815 0.00269676 0.154792 9.7899139e-39
-0.31620499 0.0038741301 0.154614 9.8817522e-39
-0.316374 0.0050161402 0.154587 1.0065063e-38
-0.31676599 0.0062034 0.15440799 9.8817536e-39
-0.317384 0.0074398699 0.15407801 1.0065786e-38
-0.31755599 0.0085948799 0.15404999 1.0343085e-38
-0.31795299 0.0097991899 0.15387 1.1173207e-38
-0.318351 0.0110092 0.153689 1.0156583e-38
-0.31852499 0.0121762 0.153661 7.1033739e-39
-0.31272799 -0.00856278 0.154744 5.2734336e-39
-0.312462 -0.00751387 0.155011 5.8251669e-39
-0.312197 -0.00646633 0.155276 7.3910493e-39
-0.311932 -0.0054201698 0.155542 9.0509195e-39
-0.31166801 -0.00437538 0.15580601 9.3285812e-39
-0.31161699 -0.0033002901 0.15592501 9.4218558e-39
-0.31156501 -0.00222447 0.15604401 9.6051667e-39
-0.31172699 -0.00111398 0.156018 9.5133312e-39
-0.31210199 3.45974e-05 0.155845 9.4218558e-39
-0.31508601 0.0016309 0.153891 9.6977197e-39
-0.315474 0.00280545 0.15371101 9.7895566e-39
-0.315642 0.0039456901 0.15368199 9.6970036e-39
-0.31603301 0.0051301001 0.153501 9.7888377e-39
-0.31664801 0.00636259 0.15316799 9.7891978e-39
-0.317267 0.00760348 0.152833 9.8810361e-39
-0.317664 0.0088075697 0.15265 1.0065785e-38
-0.317837 0.0099708503 0.15262 1.052784e-38
-0.31800899 0.0111373 0.15258899 1.135474e-38
-0.31841001 0.012356 0.15240499 7.3716973e-39
-0.31217301 -0.0085058603 0.15382899 5.0893997e-39
-0.311694 -0.0074834698 0.15424401 5.4571032e-39
-0.31164199 -0.0064072199 0.15436199 6.838237e-39
-0.311591 -0.0053302399 0.15448099 9.0498391e-39
-0.31153899 -0.0042525199 0.15459999 9.5126123e-39
-0.31127399 -0.00320601 0.154866 9.604808e-39
-0.311223 -0.00212792 0.154985 9.604808e-39
-0.31138399 -0.0010150101 0.154957 9.5133298e-39
-0.31197301 0.00017156699 0.154634 9.4222132e-39
-0.31430399 0.0016624701 0.153111 9.5140473e-39
-0.31491101 0.00287581 0.152777 9.6973609e-39
-0.315079 0.0040174001 0.15274701 9.7888363e-39
-0.31546801 0.0052032601 0.152564 9.7888349e-39
-0.31652901 0.0065227798 0.15192001 9.6048066e-39
-0.31692401 0.0077239401 0.15173499 9.6966449e-39
-0.31754699 0.0089763897 0.151393 9.8810361e-39
-0.31772 0.0101436 0.151361 1.0250896e-38
-0.317893 0.0113139 0.15132999 1.1907542e-38
-0.317839 0.0124382 0.151454 8.2943613e-39
-0.31135201 -0.0073977099 0.153179 5.1815995e-39
-0.31108701 -0.0063479901 0.153447 6.2861436e-39
-0.31103501 -0.0052698301 0.153565 8.5881449e-39
-0.310983 -0.0041909502 0.15368401 9.5129725e-39
-0.310931 -0.0031113301 0.15380301 9.5126123e-39
-0.31087899 -0.0020309801 0.15392201 9.5129711e-39
-0.31125301 -0.00088131003 0.153744 9.5136885e-39
-0.312058 0.00034509 0.153266 9.3300203e-39
-0.31374201 0.0017314299 0.152179 9.4214957e-39
-0.314347 0.00294633 0.151842 9.6044478e-39
-0.31429401 0.0040492802 0.151963 9.6048038e-39
-0.31490201 0.0052765901 0.15162501 9.5126095e-39
-0.316185 0.0066409102 0.15082 9.2371058e-39
-0.31680501 0.0078892997 0.150475 9.3289427e-39
-0.31720299 0.00910044 0.150286 9.6040933e-39
-0.317148 0.0102233 0.150409 1.0065786e-38
-0.317321 0.011395 0.15037601 1.1816421e-38
-0.317267 0.0125206 0.1505 8.7636029e-39
-0.311488 -0.0083379503 0.15168899 4.0781204e-39
-0.311436 -0.0072557 0.15180799 4.8138918e-39
-0.310743 -0.0062597399 0.15237901 5.7340503e-39
-0.31068999 -0.00517932 0.15249699 7.5754377e-39
-0.31085101 -0.0040670098 0.152466 9.3282225e-39
-0.310799 -0.0029840299 0.152585 9.4207768e-39
-0.31095999 -0.00186692 0.15255401 9.5133284e-39
-0.311335 -0.00071216503 0.152372 9.4211356e-39
-0.31214401 0.00052001502 0.151887 9.4207782e-39
-0.313178 0.00180056 0.151244 9.328584e-39
-0.31356201 0.00297813 0.151058 9.4204181e-39
-0.31394801 0.0041612899 0.15087201 9.3285812e-39
-0.315 0.0054748398 0.150218 9.2360268e-39
-0.31606299 0.0068028001 0.14955799 9.236387e-39
-0.316459 0.0080110002 0.14936601 9.2360268e-39
-0.31685701 0.0092250099 0.14917301 9.2360296e-39
-0.317029 0.0103975 0.149138 9.6962875e-39
-0.31697401 0.0115247 0.149262 1.126289e-38
-0.31692001 0.0126527 0.149386 9.2314068e-39
-0.31066301 -0.0072251102 0.15103599 4.2621558e-39
-0.31061 -0.0061420398 0.15115499 5.364909e-39
-0.31055799 -0.0050582299 0.151274 6.7460456e-39
-0.31071901 -0.0039423401 0.151241 9.0509195e-39
-0.31130901 -0.00275817 0.150903 9.3289427e-39
-0.31147099 -0.00163391 0.15087 9.4207754e-39
-0.311418 -0.00054161903 0.15098999 9.420058e-39
-0.31222999 0.00069639197 0.15049601 9.3285812e-39
-0.31239399 0.00183219 0.150463 9.2367471e-39
-0.31277701 0.00300991 0.15027501 9.3285812e-39
-0.31426299 0.0043951799 0.149306 9.2360282e-39
-0.31509799 0.0056747301 0.148799 9.1434739e-39
-0.315716 0.00692213 0.14844701 9.234952e-39
-0.31611201 0.0081332 0.148252 9.2353094e-39
-0.31673601 0.0093964003 0.14789601 9.2353108e-39
-0.316908 0.0105729 0.14786001 9.5115361e-39
-0.31685299 0.0117037 0.147984 1.080155e-38
-0.316798 0.0128353 0.14810801 9.9707557e-39
-0.31095901 -0.0070535 0.149497 3.6189458e-39
-0.31047699 -0.0060236198 0.149923 4.5376651e-39
-0.310853 -0.0048754001 0.149735 6.192869e-39
-0.31123 -0.0037217501 0.149545 8.4959521e-39
-0.31117699 -0.00262862 0.149665 9.1445557e-39
-0.31133899 -0.00150068 0.14963 9.328584e-39
-0.31150201 -0.000369691 0.14959501 9.420058e-39
-0.31188199 0.00080091198 0.149405 9.1445515e-39
-0.31182799 0.0019015 0.149526 9.1449116e-39
-0.313306 0.0032766601 0.148553 9.1445501e-39
-0.314136 0.0045495699 0.14804199 9.1434739e-39
-0.314527 0.0057492401 0.147847 9.0509209e-39
-0.31491899 0.0069546802 0.147651 9.1431165e-39
-0.31598899 0.0083010802 0.146972 9.1431165e-39
-0.31684199 0.0096155899 0.146449 9.2345933e-39
-0.31724301 0.0108455 0.146247 9.1438382e-39
-0.31718701 0.0119824 0.14637201 1.0340216e-38
-0.31782001 0.0132722 0.146007 1.0799425e-38
-0.31055799 -0.0058748699 0.14852899 3.6189458e-39
-0.31050399 -0.00478314 0.14864799 5.1815911e-39
-0.31088099 -0.00362685 0.14845601 7.5743587e-39
-0.31104401 -0.00249827 0.14841899 9.0520013e-39
-0.31120601 -0.00136663 0.14838301 9.3275064e-39
-0.312022 -0.000124931 0.147875 9.2360268e-39
-0.31196699 0.000979534 0.14799599 9.1441941e-39
-0.31191301 0.00208475 0.14811601 9.143834e-39
-0.31339699 0.0034670499 0.147129 9.0519971e-39
-0.313786 0.0046637999 0.14693099 9.1431151e-39
-0.31373101 0.0057816301 0.147053 9.0509223e-39
-0.31434399 0.0070308698 0.146694 9.0512797e-39
-0.31609201 0.0085155703 0.145521 8.9587281e-39
-0.31672001 0.0097894901 0.145153 9.0502049e-39
-0.316892 0.0109753 0.14511301 8.8672569e-39
-0.31706601 0.0121643 0.145073 9.879604e-39
-0.317469 0.0134078 0.144868 1.1167481e-38
-0.31042299 -0.00575476 0.14727999 3.5263928e-39
-0.31015399 -0.0046905 0.14755601 4.4458296e-39
-0.31031501 -0.00356365 0.14751901 6.5620103e-39
-0.310909 -0.0023671 0.147166 8.7750529e-39
-0.31128901 -0.00119711 0.14696901 9.2353122e-39
-0.31210801 5.0518898e-05 0.14645299 9.3271463e-39
-0.312493 0.00123431 0.146254 9.2353108e-39
-0.31310099 0.00246253 0.14589401 9.1434753e-39
-0.31304601 0.0035789399 0.146015 9.0512797e-39
-0.31299001 0.0046960898 0.146137 9.0509195e-39
-0.31315699 0.0058563398 0.146098 8.9587281e-39
-0.313546 0.0070634498 0.145897 8.9587267e-39
-0.31596699 0.0086858999 0.144223 8.774697e-39
-0.31659701 0.0099645099 0.143849 8.6821454e-39
-0.31676999 0.0111543 0.14380699 8.7739837e-39
-0.31671301 0.0122974 0.143932 9.4193461e-39
-0.310072 -0.0056639202 0.146183 3.7089834e-39
-0.309802 -0.0045974799 0.14646 4.0774058e-39
-0.310179 -0.0034358699 0.146262 5.6418518e-39
-0.310774 -0.0022351199 0.145904 8.4966667e-39
-0.31159201 -0.00099115795 0.145383 9.0523573e-39
-0.31175601 0.00015471299 0.14534301 9.1434753e-39
-0.312361 0.00137889 0.144979 9.3264288e-39
-0.31230599 0.0024946399 0.1451 9.0512811e-39
-0.312471 0.0036511701 0.145059 8.8672499e-39
-0.312859 0.0048522502 0.14485601 8.7750529e-39
-0.31347099 0.0061018998 0.14448901 8.7746984e-39
-0.31589901 0.0077176499 0.142792 8.6825027e-39
-0.3163 0.00895005 0.142581 8.6824985e-39
-0.31624299 0.0100929 0.14270499 8.5892295e-39
-0.31618601 0.0112366 0.142829 8.7725432e-39
-0.31728199 0.0126328 0.142112 9.050565e-39
-0.30944899 -0.0045040599 0.14535999 3.7093421e-39
-0.31004199 -0.0033072799 0.144998 4.8131716e-39
-0.31085601 -0.0020683999 0.144473 7.7580283e-39
-0.31167701 -0.00081847003 0.143943 8.9598029e-39
-0.31184199 0.00033242401 0.14390101 8.9590854e-39
-0.311566 0.0014109201 0.14418501 9.1420404e-39
-0.31195101 0.0026046501 0.14398 8.8665339e-39
-0.31233799 0.00380413 0.143774 8.6828629e-39
-0.31272599 0.0050093899 0.143567 8.5906644e-39
-0.31423801 0.00643693 0.14252999 8.5906658e-39
-0.31554401 0.0078411 0.141646 8.589947e-39
-0.316405 0.0091700796 0.141092 8.4977513e-39
-0.31657901 0.0103661 0.141046 8.4966751e-39
-0.31061199 -0.0041891201 0.143117 3.5249537e-39
-0.31055701 -0.00307928 0.14323699 4.3525577e-39
-0.310938 -0.0019003 0.14303 6.7442477e-39
-0.311322 -0.00071564701 0.142822 8.6828587e-39
-0.31148601 0.00043786399 0.14277799 8.8665311e-39
-0.31121001 0.00151858 0.14306299 8.8658136e-39
-0.31159499 0.0027151301 0.142855 8.6817839e-39
-0.31198099 0.0039174301 0.142646 8.5899484e-39
-0.31348801 0.0053362399 0.14160199 8.5895868e-39
-0.31433401 0.0066447202 0.14105099 8.5895854e-39
-0.31564599 0.00805631 0.14015301 8.7725362e-39
-0.31720799 0.00953444 0.139071 8.4048411e-39
-0.318086 0.0108873 0.13850001 8.4963178e-39
-0.31041899 -0.0029483701 0.14195199 4.1678106e-39
-0.31058201 -0.00179981 0.14190599 5.8233774e-39
-0.310745 -0.00064808602 0.14186101 8.4048354e-39
-0.31134999 0.00058077899 0.14148299 8.7743368e-39
-0.310853 0.0016267101 0.141937 8.6817811e-39
-0.31145799 0.0028655301 0.141559 8.6817811e-39
-0.31251401 0.0041949898 0.14084201 8.4973912e-39
-0.31312999 0.00545396 0.140458 8.4970325e-39
-0.31375 0.0067217001 0.140071 8.5888694e-39
-0.31714299 0.0085519599 0.1376 8.6799832e-39
-0.31731799 0.00975959 0.137549 8.4959577e-39
-0.31819999 0.0111194 0.136968 8.5874344e-39
-0.31028 -0.0028166401 0.14065801 4.075252e-39
-0.310224 -0.00169889 0.14077801 5.0868914e-39
-0.31060699 -0.00050866598 0.14056399 8.1250144e-39
-0.31165701 0.00079945498 0.139842 8.6817825e-39
-0.31093499 0.00181201 0.14047 8.6810608e-39
-0.31176499 0.0030966401 0.139916 8.5892267e-39
-0.312379 0.0043514501 0.139529 8.4970297e-39
-0.312996 0.0056150299 0.139138 8.4048354e-39
-0.316376 0.0074267201 0.13665199 8.4963164e-39
-0.31748801 0.0088207303 0.13588899 8.4037621e-39
-0.31742901 0.0099866996 0.136014 8.403046e-39
-0.31008399 -0.00156271 0.139476 4.5344365e-39
-0.31090999 -0.00029582399 0.138918 7.5704071e-39
-0.311297 0.00090699398 0.138699 8.6807021e-39
-0.31123999 0.0020377201 0.13882001 8.588505e-39
-0.31162801 0.00324954 0.13860001 8.4048368e-39
-0.31201801 0.0044672699 0.13837799 8.4044767e-39
-0.312635 0.0057339701 0.13798299 8.4041166e-39
-0.31099299 -0.000117458 0.137428 6.6495382e-39
-0.310491 0.00093938998 0.137894 8.4963122e-39
-0.31110001 0.00218733 0.137499 8.4966695e-39
-0.31149 0.0034034201 0.137274 8.3126426e-39
-0.31143099 0.0045417701 0.13739599 8.1286115e-39
-0.310572 0.00112347 0.13639601 8.2190093e-39
-0.31073701 0.0022984899 0.136343 8.3122811e-39
-0.31112599 0.0035174901 0.136116 8.2200869e-39
-0.31174201 0.0047846301 0.135712 8.1278912e-39
-0.31042999 0.00127072 0.135061 7.7573164e-39
-0.31037199 0.0024101399 0.13518199 8.2193694e-39
-0.310985 0.0036730501 0.134775 8.2193666e-39
-0.32870299 0.0081625897 0.120907 8.2197253e-39
-0.32864001 0.0094045401 0.12104 8.3112077e-39
-0.32857499 0.0106473 0.121172 8.5874316e-39
-0.32798499 0.0117832 0.121719 8.6814307e-39
-0.32818401 0.01308 0.121645 8.7739851e-39
-0.328383 0.0143807 0.121571 9.1406124e-39
-0.32884699 0.0157438 0.121289 9.4154043e-39
-0.327492 0.0093893502 0.120365 8.4966751e-39
-0.32742801 0.0106308 0.120497 8.8647332e-39
-0.32710099 0.0118193 0.120837 8.5895896e-39
-0.327299 0.0131163 0.120761 8.5895882e-39
-0.32749701 0.0144171 0.120686 8.7714698e-39
-0.32769501 0.0157218 0.120611 9.4168364e-39
-0.327894 0.017030301 0.120535 1.13515e-38
-0.32809299 0.0183428 0.120459 1.0428139e-38
-0.32686901 0.0094763897 0.119273 8.4977527e-39
-0.326543 0.0106668 0.119614 8.6817839e-39
-0.32647899 0.0119092 0.119746 8.497394e-39
-0.326675 0.0132079 0.119669 8.8647346e-39
-0.326873 0.0145105 0.119592 9.1413201e-39
-0.32707 0.015816901 0.119515 9.5111802e-39
-0.327005 0.017067 0.119648 1.1262885e-38
-0.32720301 0.018379601 0.119571 1.2090152e-38
-0.32740101 0.019695999 0.119494 9.5915755e-39
-0.325984 0.0095123304 0.118389 8.2204498e-39
-0.325919 0.0107554 0.118521 8.4044837e-39
-0.325854 0.0119994 0.118653 8.9580078e-39
-0.325789 0.0132442 0.118785 9.417907e-39
-0.32624701 0.014604 0.118495 9.5118963e-39
-0.32618099 0.015853399 0.118628 1.0158695e-38
-0.32637799 0.0171638 0.118549 1.135831e-38
-0.32631299 0.0184163 0.118682 1.3384819e-38
-0.32651001 0.019733001 0.118604 1.0794777e-38
-0.32509899 0.0095482701 0.117505 8.497394e-39
-0.32503399 0.0107915 0.117637 9.0509209e-39
-0.32496801 0.0120355 0.117768 9.6037332e-39
-0.32516301 0.0133361 0.117688 1.0063988e-38
-0.325358 0.0146405 0.117608 1.0526757e-38
-0.32529199 0.0158899 0.11774 1.0898414e-38
-0.325488 0.0172005 0.117661 1.163741e-38
-0.32568401 0.018515 0.117581 1.3573508e-38
-0.32587999 0.019833401 0.117501 1.2646919e-38
-0.326603 0.021286299 0.116993 9.6837781e-39
-0.32427901 0.0083417501 0.11649 8.8654493e-39
-0.324213 0.0095842304 0.116621 9.1431151e-39
-0.324148 0.0108275 0.116752 9.697005e-39
-0.32408199 0.0120717 0.116884 1.0341293e-38
-0.324276 0.0133724 0.116802 1.0618951e-38
-0.324469 0.0146769 0.116721 1.1173199e-38
-0.32466301 0.015985399 0.11664 1.1728526e-38
-0.32485801 0.0172977 0.116558 1.2467525e-38
-0.32505301 0.018613899 0.116477 1.3298357e-38
-0.325773 0.0200618 0.115965 1.4402554e-38
-0.326498 0.0215207 0.11545 1.0702943e-38
-0.32141399 0.00675144 0.117173 8.9580036e-39
-0.32211101 0.00812939 0.11667 9.5111746e-39
-0.32332799 0.0096201701 0.115737 9.9735891e-39
-0.32326201 0.0108636 0.115868 1.0435283e-38
-0.32345399 0.0121621 0.115785 1.0620752e-38
-0.32364699 0.0134646 0.115702 1.1082442e-38
-0.32358 0.0147134 0.115834 1.182072e-38
-0.323773 0.016022 0.115751 1.2467165e-38
-0.32422599 0.017395001 0.115453 1.3113968e-38
-0.32494399 0.018837901 0.114937 1.3390909e-38
-0.32566601 0.0202918 0.114418 1.4497614e-38
-0.325863 0.021624099 0.114333 1.2647642e-38
-0.32685801 0.0231645 0.11359 1.0236945e-38
-0.32060301 0.00555724 0.116168 9.2353094e-39
-0.320537 0.0067868801 0.116297 9.7877601e-39
-0.320977 0.00811568 0.116003 1.0249814e-38
-0.322442 0.0096561303 0.114853 1.0528557e-38
-0.322633 0.0109525 0.114769 1.0621109e-38
-0.322824 0.0122528 0.114684 1.0898774e-38
-0.32275799 0.0135009 0.114815 1.145302e-38
-0.32269099 0.0147499 0.114946 1.209946e-38
-0.32314101 0.016117699 0.114647 1.2468961e-38
-0.32359299 0.0174927 0.114345 1.2930298e-38
-0.32483301 0.019063501 0.113387 1.3391989e-38
-0.32502899 0.020393699 0.113301 1.3668572e-38
-0.32522601 0.0217278 0.113214 1.4403274e-38
-0.32568699 0.023134001 0.112907 1.1072078e-38
-0.319475 0.0055463398 0.115505 9.788479e-39
-0.31940901 0.0067746602 0.115633 1.0342729e-38
-0.32009801 0.0081513003 0.115125 1.0528555e-38
-0.32130101 0.0096407002 0.114184 1.0621109e-38
-0.32148999 0.0109357 0.114099 1.1082085e-38
-0.321679 0.0122346 0.114014 1.1452302e-38
-0.32186899 0.0135373 0.113928 1.2006189e-38
-0.32180199 0.0147863 0.114059 1.2467163e-38
-0.32225001 0.0161543 0.113757 1.2561157e-38
-0.32295901 0.0175905 0.113235 1.3114685e-38
-0.32393399 0.0191007 0.11249 1.3298716e-38
-0.32439101 0.0204958 0.112181 1.3391988e-38
-0.324323 0.021765299 0.112314 1.4496538e-38
-0.32478201 0.023171701 0.112004 1.2832391e-38
-0.32524401 0.024585599 0.111693 1.0790469e-38
-0.31816599 0.0042646099 0.114927 5.3602581e-39
-0.31810001 0.0054894001 0.115055 9.6015738e-39
-0.318533 0.0068100598 0.114759 1.0620391e-38
-0.318717 0.0080884099 0.114674 1.0529277e-38
-0.31990901 0.0095741199 0.113732 1.0990968e-38
-0.32034901 0.0109189 0.113431 1.1360465e-38
-0.320537 0.0122164 0.113344 1.1820723e-38
-0.32072499 0.0135176 0.113258 1.2190941e-38
-0.32091299 0.0148228 0.113171 1.2376405e-38
-0.321358 0.016191 0.112867 1.2745185e-38
-0.32206401 0.017627399 0.112342 1.2746624e-38
-0.32329601 0.0192011 0.11137 1.3115407e-38
-0.32348901 0.0205332 0.111281 1.3483466e-38
-0.32368299 0.0218693 0.111191 1.3668215e-38
-0.32387799 0.0232093 0.111101 1.449583e-38
-0.32407299 0.0245535 0.111011 1.1900037e-38
-0.324532 0.0259733 0.110697 1.0790113e-38
-0.316798 0.0042106099 0.11448 4.4404514e-39
-0.31673199 0.0054327101 0.114607 8.0342579e-39
-0.317408 0.0067978501 0.114097 1.0529275e-38
-0.31759 0.00807482 0.114012 1.0991328e-38
-0.31902501 0.0096099796 0.112851 1.1268271e-38
-0.319464 0.010955 0.112547 1.1637052e-38
-0.319397 0.0121982 0.112676 1.1821799e-38
-0.319583 0.0134981 0.112589 1.2098745e-38
-0.32002401 0.0148593 0.112283 1.2285289e-38
-0.32046601 0.016227599 0.111976 1.2745185e-38
-0.32116801 0.0176643 0.111448 1.3022491e-38
-0.322395 0.019238301 0.110471 1.3115407e-38
-0.32258701 0.0205706 0.11038 1.3206523e-38
-0.32304099 0.0219735 0.110065 1.320796e-38
-0.32323501 0.0233154 0.109974 1.4313581e-38
-0.32316601 0.024591301 0.110107 1.3382686e-38
-0.32336 0.025939601 0.110015 1.0698643e-38
-0.31592599 0.00424565 0.113609 4.4400871e-39
-0.31586 0.00546786 0.113736 5.3620504e-39
-0.316039 0.0067382301 0.11365 9.5111802e-39
-0.316466 0.00806126 0.113351 1.117572e-38
-0.31789199 0.0095946798 0.112186 1.1636692e-38
-0.318578 0.010991 0.111663 1.1729967e-38
-0.31851101 0.0122343 0.111792 1.2006551e-38
-0.318948 0.0135903 0.111485 1.2099463e-38
-0.319134 0.0148958 0.111395 1.2469317e-38
-0.31957501 0.016264301 0.111086 1.2837379e-38
-0.32027301 0.017701199 0.110554 1.3022484e-38
-0.32149401 0.0192755 0.109572 1.3022848e-38
-0.32194501 0.020672999 0.109255 1.3023568e-38
-0.322137 0.022011099 0.109162 1.3207597e-38
-0.32232901 0.0233531 0.109069 1.3484185e-38
-0.32252201 0.0246992 0.108976 1.4863532e-38
-0.32245201 0.0259776 0.109109 1.088841e-38
-0.31474301 0.0054571298 0.113079 4.7159551e-39
-0.31492099 0.0067261499 0.112992 6.8378755e-39
-0.31558999 0.0080967396 0.112476 1.0988094e-38
-0.317009 0.0096305003 0.111306 1.172853e-38
-0.31769201 0.0110271 0.110779 1.1729967e-38
-0.31812799 0.0123795 0.110468 1.200727e-38
-0.31831199 0.0136828 0.110378 1.2283495e-38
-0.318497 0.0149899 0.110287 1.2651199e-38
-0.31868199 0.016301 0.110196 1.2745542e-38
-0.31937799 0.0177381 0.10966 1.2562234e-38
-0.320593 0.019312801 0.108672 1.3023208e-38
-0.321042 0.0207105 0.108353 1.3022135e-38
-0.32123199 0.0220486 0.108259 1.3023208e-38
-0.321684 0.0234595 0.107938 1.3300153e-38
-0.321614 0.024737099 0.10807 1.422031e-38
-0.32180601 0.026087301 0.107976 1.2924582e-38
-0.32173601 0.027368199 0.108109 1.0328059e-38
-0.31411499 0.0055381502 0.111994 5.4499314e-39
-0.31404799 0.0067613898 0.112121 5.1758584e-39
-0.31446901 0.0080831898 0.111817 8.9558498e-39
-0.316127 0.0096663199 0.110425 1.1359749e-38
-0.316807 0.0110631 0.109894 1.1913634e-38
-0.31749099 0.0124704 0.10936 1.2098388e-38
-0.31767499 0.0137755 0.109268 1.2466809e-38
-0.317606 0.0150265 0.109397 1.2650843e-38
-0.31779 0.0163377 0.109305 1.2561517e-38
-0.31822801 0.0177138 0.10899 1.2562596e-38
-0.31969199 0.01935 0.107773 1.3113966e-38
-0.32039699 0.020813201 0.107224 1.3114328e-38
-0.320586 0.022153201 0.107128 1.3114685e-38
-0.32077599 0.0234972 0.107032 1.3024642e-38
-0.32096699 0.0248453 0.106936 1.3575658e-38
-0.32089701 0.026125399 0.107069 1.477277e-38
-0.32082701 0.0274064 0.107201 1.0980593e-38
-0.31366101 0.0068916599 0.110817 4.8085122e-39
-0.315312 0.0084644603 0.109416 5.7308259e-39
-0.315492 0.0097534303 0.109323 1.0249097e-38
-0.31592101 0.0110992 0.10901 1.191328e-38
-0.31660199 0.0125067 0.108473 1.2098026e-38
-0.31678399 0.0138119 0.108379 1.2192374e-38
-0.31696701 0.0151209 0.108285 1.2652273e-38
-0.31715 0.0164339 0.108191 1.2836303e-38
-0.31733301 0.017750699 0.108097 1.2837746e-38
-0.31878999 0.019387299 0.106873 1.3022489e-38
-0.31949201 0.020850699 0.106321 1.283882e-38
-0.31968001 0.022190901 0.106224 1.2931013e-38
-0.32012799 0.023603899 0.105897 1.3206879e-38
-0.32005799 0.024883199 0.106029 1.3116123e-38
-0.319987 0.0261635 0.106161 1.4221746e-38
-0.32017699 0.027518099 0.106064 1.3291204e-38
-0.320366 0.0288768 0.105966 1.0236223e-38
-0.31535199 0.0099440003 0.107775 7.3906891e-39
-0.315532 0.0112416 0.10768 1.1358675e-38
-0.315712 0.012543 0.107585 1.2190582e-38
-0.31589299 0.0138483 0.10749 1.2192018e-38
-0.316075 0.0151575 0.107394 1.2468967e-38
-0.31625599 0.0164706 0.107299 1.2744832e-38
-0.31643799 0.0177876 0.107204 1.292922e-38
-0.317889 0.0194245 0.105974 1.2930651e-38
-0.31832999 0.020822801 0.105647 1.2931732e-38
-0.31877401 0.0222285 0.105319 1.2838464e-38
-0.31921899 0.0236417 0.10499 1.2930298e-38
-0.31914899 0.024921199 0.105121 1.302393e-38
-0.31933701 0.026273601 0.105022 1.3208676e-38
-0.319525 0.0276301 0.104923 1.4680577e-38
-0.31971401 0.028990701 0.104824 1.1624167e-38
-0.31489199 0.0113311 0.106568 9.6934107e-39
-0.315072 0.0126343 0.106472 1.2097672e-38
-0.31525201 0.0139413 0.106375 1.2466807e-38
-0.31543201 0.0152523 0.106278 1.255972e-38
-0.315613 0.0165671 0.106181 1.2744833e-38
-0.31579399 0.0178858 0.106084 1.2836665e-38
-0.31698799 0.019461799 0.105074 1.2837382e-38
-0.317426 0.020860201 0.104745 1.2839537e-38
-0.31786701 0.0222662 0.104414 1.302321e-38
-0.31830999 0.023679599 0.104082 1.3115403e-38
-0.318497 0.025029801 0.103982 1.3206878e-38
-0.31868401 0.026384 0.103881 1.3206519e-38
-0.318872 0.027742401 0.10378 1.4128471e-38
-0.31906 0.029104801 0.103679 1.3567788e-38
-0.31924799 0.030471301 0.103578 9.590858e-39
-0.31467801 0.0127811 0.105129 1.0896257e-38
-0.31460899 0.0140346 0.105258 1.2467882e-38
-0.31453899 0.0152889 0.105386 1.2652273e-38
-0.31496799 0.016663801 0.10506 1.2652273e-38
-0.31514901 0.017984301 0.104961 1.2837382e-38
-0.31633899 0.019562799 0.103943 1.292922e-38
-0.31677699 0.020963199 0.103611 1.2931015e-38
-0.31721601 0.0223711 0.103277 1.2930654e-38
-0.31740099 0.0237174 0.103175 1.3021772e-38
-0.317844 0.0251386 0.102839 1.3021773e-38
-0.31803 0.0264947 0.102737 1.3024284e-38
-0.31821701 0.027854901 0.102634 1.3483103e-38
-0.318663 0.029295299 0.102296 1.4863528e-38
-0.31937301 0.030821601 0.101719 1.0523218e-38
-0.31396401 0.014128 0.104137 1.1729248e-38
-0.314143 0.0154424 0.104037 1.2559723e-38
-0.31407201 0.016700599 0.104166 1.274411e-38
-0.31450099 0.018083001 0.103836 1.2746267e-38
-0.31543601 0.019600101 0.103042 1.2837384e-38
-0.315871 0.0210007 0.102707 1.28381e-38
-0.31630799 0.022408901 0.102371 1.3021772e-38
-0.31649199 0.023755301 0.102268 1.3205804e-38
-0.31693199 0.0251767 0.101929 1.2930297e-38
-0.31737399 0.026605699 0.10159 1.3022488e-38
-0.31781799 0.0280423 0.101248 1.3114688e-38
-0.31878501 0.0296403 0.100428 1.4129193e-38
-0.31897399 0.031017501 0.100322 1.3292279e-38
-0.319426 0.032479402 0.099975102 9.7745304e-39
-0.31349501 0.0155378 0.102912 1.2376051e-38
-0.313674 0.0168579 0.10281 1.2560079e-38
-0.31410199 0.018244 0.102476 1.2929215e-38
-0.314533 0.0196374 0.10214 1.2929938e-38
-0.31496599 0.021038201 0.101803 1.2929936e-38
-0.31540099 0.022446601 0.101465 1.2837738e-38
-0.31558299 0.023793099 0.10136 1.2930297e-38
-0.31602001 0.0252147 0.101019 1.2839177e-38
-0.316717 0.026716899 0.10044 1.3021773e-38
-0.31793699 0.028381201 0.099376298 1.3113609e-38
-0.318124 0.0297562 0.099268198 1.3299797e-38
-0.31857401 0.031214301 0.098918401 1.4863887e-38
-0.318762 0.0325993 0.0988096 1.0525367e-38
-0.31327301 0.0170159 0.101448 1.2468605e-38
-0.31345099 0.0183433 0.101344 1.2652992e-38
-0.31388101 0.0197387 0.101005 1.292886e-38
-0.31406 0.0210758 0.100899 1.3021772e-38
-0.314493 0.022484301 0.100558 1.2746265e-38
-0.31467301 0.023831001 0.100452 1.3021771e-38
-0.31536299 0.025323899 0.099871702 1.2837742e-38
-0.31631401 0.0269017 0.099047303 1.2930294e-38
-0.31727499 0.0284955 0.098214999 1.3114322e-38
-0.31772199 0.029949799 0.097862303 1.3114325e-38
-0.317909 0.031332601 0.097751804 1.4037356e-38
-0.318097 0.0327195 0.097641103 1.329264e-38
-0.31828499 0.034110699 0.097530298 9.8681666e-39
-0.31304801 0.018505501 0.099972799 1.2560798e-38
-0.312976 0.0197761 0.100102 1.2560804e-38
-0.313155 0.021113301 0.0999953 1.2837025e-38
-0.313584 0.022522001 0.099651799 1.2929576e-38
-0.31376401 0.0238689 0.099544503 1.2653351e-38
-0.31445 0.0253621 0.098960303 1.2929576e-38
-0.31539699 0.0269401 0.098131299 1.2837742e-38
-0.31635201 0.0285342 0.097294301 1.2746982e-38
-0.31679699 0.029988701 0.096939102 1.2747343e-38
-0.31698301 0.031371601 0.096827202 1.3116123e-38
-0.31716901 0.032758702 0.0967151 1.4680932e-38
-0.31735599 0.034150101 0.096602798 1.0985985e-38
-0.31728199 0.035461102 0.096735999 8.8572601e-39
-0.31239301 0.0186055 0.098833203 1.256116e-38
-0.31232101 0.0198777 0.098962098 1.2652634e-38
-0.312498 0.0212167 0.098853797 1.2837384e-38
-0.31267601 0.022559701 0.098745197 1.2836665e-38
-0.31285399 0.023906801 0.098636597 1.265407e-38
-0.313537 0.025400201 0.098048799 1.2837742e-38
-0.314224 0.026905101 0.097456902 1.2838097e-38
-0.31542999 0.0285729 0.096373498 1.27459e-38
-0.31587201 0.0300276 0.096015699 1.2929576e-38
-0.31605601 0.031410702 0.095902398 1.3205804e-38
-0.316241 0.032798 0.095788904 1.3943724e-38
-0.316167 0.034106601 0.095921598 1.3477027e-38
-0.31635201 0.035500601 0.095808104 1.0141162e-38
-0.31191301 0.0200442 0.097580299 1.2837025e-38
-0.31184101 0.021320401 0.097709402 1.2836663e-38
-0.31201699 0.022665201 0.097599097 1.2929574e-38
-0.31194401 0.0239447 0.097728498 1.2653355e-38
-0.31262299 0.025438299 0.097137101 1.256224e-38
-0.313054 0.0268702 0.0967841 1.2745547e-38
-0.31450701 0.0286116 0.095452502 1.274662e-38
-0.314946 0.0300666 0.095092297 1.2929218e-38
-0.31513 0.031449798 0.094977498 1.2929936e-38
-0.31531301 0.032837201 0.094862603 1.3299432e-38
-0.315238 0.034145899 0.094994903 1.4681289e-38
-0.315422 0.0355401 0.094880097 1.1171446e-38
-0.31534699 0.0368522 0.095012702 9.775608e-39
-0.311005 0.020081701 0.096674003 1.2282779e-38
-0.31093201 0.021358 0.096802801 1.3111812e-38
-0.31110799 0.022702999 0.096691102 1.3020692e-38
-0.31128299 0.024052 0.096579298 1.2745188e-38
-0.31145999 0.0254051 0.096467301 1.2745908e-38
-0.311887 0.0268353 0.096112803 1.2928496e-38
-0.31332901 0.0285745 0.094777703 1.2837734e-38
-0.31402099 0.0301055 0.094168603 1.2837378e-38
-0.31420299 0.031488799 0.094052501 1.2837742e-38
-0.314385 0.032876499 0.093936197 1.2837742e-38
-0.314567 0.034268301 0.093819603 1.3667495e-38
-0.31449199 0.035579599 0.093951903 1.3662852e-38
-0.314417 0.036891799 0.0940843 1.0418821e-38
-0.31027099 0.021462001 0.095654398 1.2652992e-38
-0.31019801 0.0227408 0.095783003 1.2835587e-38
-0.31037199 0.024089999 0.095669799 1.2928862e-38
-0.31054699 0.0254432 0.095556401 1.2928857e-38
-0.31097201 0.0268736 0.095199503 1.2837382e-38
-0.312154 0.028537599 0.094104201 1.2929932e-38
-0.312841 0.0300666 0.093493201 1.2837379e-38
-0.31327599 0.031527899 0.093127303 1.2745185e-38
-0.313456 0.0329157 0.093009599 1.2745907e-38
-0.313638 0.0343077 0.092891604 1.2931732e-38
-0.31356201 0.035619099 0.093023598 1.4496541e-38
-0.31348699 0.036931399 0.0931556 1.1815017e-38
-0.31366801 0.0383326 0.093038 9.9618014e-39
-0.309288 0.0227786 0.094874799 1.2928502e-38
-0.309214 0.024058299 0.095003299 1.2652992e-38
-0.309634 0.0254813 0.094645403 1.292814e-38
-0.30980799 0.0268388 0.0945305 1.2745551e-38
-0.31098199 0.0285007 0.0934323 1.2837379e-38
-0.311663 0.0300279 0.092819303 1.292886e-38
-0.31234899 0.031567 0.092202 1.2836303e-38
-0.31252801 0.032954901 0.092082903 1.2745186e-38
-0.31270799 0.034347098 0.0919635 1.2746265e-38
-0.31263199 0.035658602 0.092095099 1.3300517e-38
-0.312812 0.0370575 0.091975801 1.403127e-38
-0.31299201 0.038460601 0.091856301 1.0881588e-38
-0.308624 0.022884499 0.093722202 1.1915078e-38
-0.30855 0.0241659 0.093850501 1.2745548e-38
-0.30872101 0.025519401 0.093734302 1.2835946e-38
-0.30889401 0.0268771 0.093617998 1.2929215e-38
-0.30981201 0.0284639 0.0927618 1.2835944e-38
-0.31048799 0.0299893 0.092146903 1.274411e-38
-0.31116799 0.031526498 0.091527604 1.3020334e-38
-0.31159899 0.0329942 0.091155998 1.2745185e-38
-0.311777 0.034386501 0.091035202 1.2653711e-38
-0.31195599 0.035783 0.090914197 1.3022136e-38
-0.31213501 0.037183899 0.090792999 1.4496905e-38
-0.312314 0.038589001 0.090671599 1.1632425e-38
-0.31223801 0.0399081 0.090803698 1.0050401e-38
-0.30788299 0.0242736 0.092694797 1.2560802e-38
-0.30780801 0.025557499 0.092823103 1.2836665e-38
-0.30797899 0.026915301 0.092705399 1.3111451e-38
-0.308893 0.028502399 0.091844499 1.2836665e-38
-0.30956501 0.030028099 0.091225997 1.2836307e-38
-0.30998999 0.031486101 0.0908546 1.2836665e-38
-0.31066999 0.033033501 0.090228997 1.2929218e-38
-0.31084701 0.034425899 0.0901068 1.2745548e-38
-0.31102401 0.0358226 0.089984298 1.2746628e-38
-0.31145701 0.0373106 0.089607202 1.3391275e-38
-0.31163499 0.038717601 0.089483902 1.4030191e-38
-0.31155801 0.040038399 0.089615896 1.1247131e-38
-0.311481 0.041360099 0.089747898 9.8678051e-39
-0.30713999 0.0256672 0.091664404 1.2835227e-38
-0.30730999 0.0270268 0.091544896 1.2928139e-38
-0.30822101 0.028616499 0.090677202 1.2744469e-38
-0.30889201 0.0301445 0.090053402 1.2745186e-38
-0.30906501 0.031525102 0.089931101 1.283666e-38
-0.30974099 0.033072699 0.089301899 1.2928857e-38
-0.309917 0.034465302 0.089178197 1.2745186e-38
-0.31034499 0.035947401 0.088799201 1.2836663e-38
-0.310776 0.037437599 0.088418402 1.3021056e-38
-0.31069899 0.0387576 0.088549897 1.4495463e-38
-0.31087601 0.040169101 0.088425003 1.2367466e-38
-0.31105399 0.041584998 0.088299803 1.0050759e-38
-0.30737701 0.02736 0.089629799 1.2651916e-38
-0.307796 0.028806699 0.0892547 1.2561157e-38
-0.30796799 0.0301833 0.089131199 1.2835946e-38
-0.30838901 0.0316437 0.0887537 1.2928495e-38
-0.30881199 0.033112001 0.0883746 1.2744469e-38
-0.30898601 0.034504801 0.088249497 1.2560439e-38
-0.309412 0.035987001 0.087867901 1.2745185e-38
-0.30984101 0.0374774 0.087484598 1.2561874e-38
-0.31001699 0.038886599 0.087357998 1.3299076e-38
-0.31044799 0.040391199 0.086972199 1.4123104e-38
-0.31088099 0.041904099 0.086584598 1.0973062e-38
-0.307942 0.0278465 0.0871851 1.2652273e-38
-0.30736801 0.028997799 0.087825298 1.2652273e-38
-0.30753899 0.0303781 0.087699503 1.2744469e-38
-0.30746201 0.031682801 0.087828897 1.2927778e-38
-0.30788299 0.033151299 0.087447204 1.2928499e-38
-0.30805501 0.0345442 0.0873207 1.283666e-38
-0.30847901 0.036026701 0.086936504 1.2745545e-38
-0.30915701 0.037604801 0.086291499 1.2562233e-38
-0.30958599 0.039105501 0.085902698 1.2654431e-38
-0.31001699 0.0406144 0.085512102 1.4403263e-38
-0.31019399 0.042037901 0.085382201 1.2552572e-38
-0.31037101 0.043465801 0.085252099 9.7741759e-39
-0.30718601 0.0292667 0.086131498 1.2560081e-38
-0.30686 0.030495301 0.086518101 1.2836303e-38
-0.30703101 0.031881701 0.0863901 1.2744469e-38
-0.306954 0.033190601 0.086519599 1.2744832e-38
-0.307125 0.034583598 0.086391702 1.2743393e-38
-0.30754599 0.036066301 0.086005002 1.2653351e-38
-0.30847201 0.037732501 0.085095398 1.2561514e-38
-0.30940801 0.039415698 0.084177002 1.2471121e-38
-0.309329 0.040746599 0.084308602 1.3206881e-38
-0.30950499 0.0421721 0.084176801 1.4401479e-38
-0.309681 0.043602001 0.084044702 9.5011777e-39
-0.30618 0.030612901 0.085333697 1.2652272e-38
-0.30610201 0.031920899 0.085462801 1.2835944e-38
-0.306272 0.033311699 0.085333198 1.2928139e-38
-0.30619401 0.034623101 0.0854626 1.2836303e-38
-0.30761299 0.036449701 0.0840284 1.2744826e-38
-0.30829 0.0380372 0.083368897 1.256116e-38
-0.30846399 0.039455999 0.083235599 1.2469679e-38
-0.30863899 0.040879101 0.0831021 1.2745189e-38
-0.30881399 0.042306699 0.082968198 1.4496175e-38
-0.30898899 0.0437386 0.082834199 1.1169997e-38
-0.30599299 0.030888701 0.083624102 1.2652275e-38
-0.305419 0.032040399 0.084275201 1.2836662e-38
-0.30608401 0.033597901 0.083620898 1.2652991e-38
-0.306005 0.034914099 0.083750501 1.2837023e-38
-0.306925 0.036575999 0.082828097 1.2836665e-38
-0.30759999 0.038166001 0.0821632 1.2469681e-38
-0.30777401 0.039586801 0.082027897 1.2469321e-38
-0.30794701 0.041012 0.081892401 1.2561158e-38
-0.308121 0.042441498 0.081756599 1.339019e-38
-0.30804101 0.043779399 0.081888303 1.4124169e-38
-0.30555499 0.031086899 0.082166404 1.2744114e-38
-0.30522799 0.0323219 0.082559302 1.2835587e-38
-0.30515 0.033637401 0.082688399 1.2743749e-38
-0.30556601 0.035122599 0.082290404 1.2651916e-38
-0.305985 0.036615901 0.081890501 1.2837021e-38
-0.30665699 0.038206201 0.081221797 1.2560795e-38
-0.30682901 0.039627101 0.081085101 1.2652635e-38
-0.30725399 0.041145202 0.080679603 1.2745547e-38
-0.307174 0.042482201 0.080810897 1.2929572e-38
-0.307347 0.0439163 0.080673397 1.4219949e-38
-0.30586299 0.031527098 0.079898998 1.2005477e-38
-0.30478799 0.0325239 0.081096798 1.2835233e-38
-0.30470899 0.033842601 0.081225999 1.2652635e-38
-0.30487701 0.035247099 0.081089497 1.2652635e-38
-0.30529499 0.036742602 0.080685899 1.2928496e-38
-0.30571401 0.038246401 0.080280401 1.2744469e-38
-0.305884 0.039667498 0.0801422 1.2560441e-38
-0.306306 0.041185699 0.079733998 1.2560441e-38
-0.30647799 0.0426175 0.079594903 1.2652992e-38
-0.30665001 0.044053599 0.079455398 1.2839896e-38
-0.30592301 0.0318911 0.0778763 1.0706118e-38
-0.30459401 0.032808799 0.0793586 1.2743038e-38
-0.30426601 0.0340489 0.079756297 1.2743396e-38
-0.30418599 0.0353719 0.079885498 1.2927783e-38
-0.304602 0.036869701 0.079478197 1.2836303e-38
-0.30502 0.038375702 0.079069003 1.2835946e-38
-0.30518901 0.0397988 0.078928798 1.2560798e-38
-0.30561 0.041319299 0.078516901 1.256116e-38
-0.30577999 0.0427531 0.078375697 1.2652994e-38
-0.30569899 0.044094499 0.078506798 1.2470762e-38
-0.30587 0.0455353 0.078365602 1.3943004e-38
-0.305812 0.0308415 0.0759793 3.0593064e-39
-0.30547899 0.0320944 0.0763845 6.4662259e-39
-0.30489701 0.033261798 0.077062398 1.1818927e-38
-0.30357301 0.0341723 0.0785494 1.283559e-38
-0.30349299 0.035496999 0.078678504 1.3019978e-38
-0.30390701 0.036997002 0.078267403 1.2468963e-38
-0.304075 0.038415901 0.078126103 1.2559363e-38
-0.304243 0.039839201 0.0779844 1.2559359e-38
-0.30466101 0.041359901 0.077569902 1.2468244e-38
-0.30483001 0.042793799 0.077427298 1.2561157e-38
-0.30499899 0.044232201 0.077284403 1.246932e-38
-0.30491799 0.0455763 0.077415399 1.320508e-38
-0.305087 0.047021698 0.0772724 1.3666423e-38
-0.30511501 0.030962 0.074755304 2.7823608e-39
-0.304782 0.0322164 0.075162202 3.3341108e-39
-0.30419999 0.033385102 0.075843602 9.9681955e-39
-0.30337301 0.0344644 0.076794997 1.2375692e-38
-0.303045 0.0357081 0.077196702 1.2744107e-38
-0.302964 0.037037101 0.077325903 1.2468961e-38
-0.30313 0.038456101 0.077183001 1.2651912e-38
-0.303296 0.039879601 0.077039897 1.2376768e-38
-0.30371201 0.0414005 0.076622799 1.2284573e-38
-0.304129 0.042929798 0.076203696 1.2376764e-38
-0.30404699 0.044273201 0.076334298 1.2376408e-38
-0.303965 0.045617402 0.076465003 1.2561511e-38
-0.304133 0.0470629 0.076320603 1.3850448e-38
-0.30627099 0.0303056 0.071425401 1.8503656e-39
-0.304416 0.031082699 0.073528104 2.1334082e-39
-0.30383301 0.032256301 0.074214801 2.3224714e-39
-0.30350199 0.033508599 0.074621603 5.5432074e-39
-0.30267599 0.034588899 0.075578302 1.1540185e-38
-0.30234799 0.0358341 0.075981699 1.2652273e-38
-0.302266 0.0371648 0.076110698 1.2376407e-38
-0.302185 0.038496401 0.076239899 1.2651553e-38
-0.30235001 0.039919998 0.076095298 1.2467884e-38
-0.302762 0.041441102 0.075675502 1.2192739e-38
-0.303177 0.042970698 0.0752538 1.2377482e-38
-0.30309501 0.044314101 0.075384103 1.2560435e-38
-0.303013 0.045658398 0.075514399 1.2375691e-38
-0.303179 0.047104198 0.075368501 1.2651915e-38
-0.307192 0.0295562 0.068320401 2.2162754e-39
-0.30531201 0.030345799 0.070467897 2.1247931e-39
-0.30371401 0.031203801 0.072297797 1.7603237e-39
-0.30338201 0.0324612 0.0727081 1.8604185e-39
-0.30280101 0.033632401 0.073396496 2.4139496e-39
-0.30197701 0.0347137 0.074358597 8.6796203e-39
-0.30140299 0.035874099 0.075038999 1.2283501e-38
-0.301321 0.037204899 0.075167701 1.2466803e-38
-0.30124 0.038536601 0.075296499 1.2467162e-38
-0.30115801 0.0398692 0.075425401 1.2467879e-38
-0.30156699 0.0413885 0.075004198 1.2283851e-38
-0.30197799 0.042916201 0.074580997 1.2377123e-38
-0.30214301 0.044355001 0.074433699 1.2468601e-38
-0.30206001 0.0456995 0.074563697 1.2283495e-38
-0.30222499 0.0471454 0.074416399 1.2098026e-38
-0.30239099 0.048595801 0.074268699 1.2004396e-38
-0.306308 0.0282373 0.067223601 2.4917987e-39
-0.30622399 0.029596601 0.067354701 2.4006653e-39
-0.30486 0.030548001 0.068935499 2.6758102e-39
-0.30351299 0.031488601 0.070496902 1.6652611e-39
-0.302679 0.032584101 0.071476303 1.7614027e-39
-0.30209899 0.033756498 0.072168298 2.1341243e-39
-0.301276 0.034838799 0.073135696 4.3432405e-39
-0.30070299 0.036000501 0.0738196 1.1352201e-38
-0.300376 0.037245002 0.074224599 1.2651915e-38
-0.30029401 0.038576901 0.074353099 1.2375328e-38
-0.300212 0.039909601 0.074481703 1.24686e-38
-0.300374 0.041336101 0.074334398 1.2192373e-38
-0.30053601 0.042766899 0.074186899 1.2283848e-38
-0.300944 0.044298999 0.0737615 1.2375328e-38
-0.30110699 0.045740601 0.073612899 1.2559e-38
-0.30102399 0.047086101 0.073742703 1.2373531e-38
-0.30118799 0.048534799 0.073594101 1.2004393e-38
-0.30828801 0.027780401 0.062854797 6.6474432e-39
-0.30585501 0.0284358 0.065670103 3.6842183e-39
-0.30525601 0.029637 0.066388898 2.6765319e-39
-0.30440599 0.030751299 0.067395397 2.8609218e-39
-0.303561 0.031858198 0.0683944 2.4006597e-39
-0.302223 0.032790601 0.069956899 1.8503726e-39
-0.301395 0.033881001 0.070936903 2.1305356e-39
-0.30057299 0.034964301 0.071909703 2.2263255e-39
-0.299757 0.0360405 0.0728755 7.2041371e-39
-0.299431 0.037285201 0.073281303 1.1820723e-38
-0.29934901 0.038617101 0.073409498 1.200691e-38
-0.29926601 0.039949998 0.073537797 1.2192016e-38
-0.29918399 0.041283701 0.073666103 1.2192013e-38
-0.299344 0.042712901 0.073517703 1.2099463e-38
-0.29950401 0.044146501 0.0733689 1.2558999e-38
-0.299665 0.0455845 0.073219903 1.2559002e-38
-0.299826 0.047026999 0.073070601 1.2558639e-38
-0.299988 0.048473801 0.072921097 1.2097307e-38
-0.30730799 0.027821099 0.061875999 7.7530607e-39
-0.30514199 0.028555701 0.064405799 4.1491691e-39
-0.304544 0.0297582 0.065128297 2.4928679e-39
-0.303949 0.0309556 0.065847397 3.5023395e-39
-0.302852 0.031981502 0.067144997 4.1505746e-39
-0.30226499 0.033166401 0.067853898 3.6002889e-39
-0.30093601 0.034090601 0.069417603 2.7719687e-39
-0.29986799 0.035089999 0.070680603 2.4074896e-39
-0.29905301 0.036167301 0.071651697 3.5145532e-39
-0.29848599 0.037325401 0.072337903 1.0429172e-38
-0.29840299 0.038657401 0.072465703 1.2006908e-38
-0.29807901 0.039899301 0.072871402 1.2098384e-38
-0.29799601 0.041231599 0.072999299 1.2191295e-38
-0.29767299 0.042470701 0.073403999 1.2007624e-38
-0.29782999 0.043898799 0.073255301 1.2374968e-38
-0.29822999 0.0454292 0.072828703 1.2282415e-38
-0.298388 0.046868 0.072678901 1.2190576e-38
-0.29879001 0.048413102 0.072249502 1.2098025e-38
-0.29894999 0.049862798 0.072098702 1.1452662e-38
-0.30711401 0.028101301 0.059981201 8.8561741e-39
-0.30494201 0.0288359 0.062539302 5.3552737e-39
-0.304086 0.029960901 0.063567102 2.6736719e-39
-0.30323601 0.0310784 0.064587198 2.5825496e-39
-0.30264401 0.0322721 0.0653065 3.6896076e-39
-0.30155399 0.033291198 0.066605002 4.0641397e-39
-0.300475 0.034301199 0.067890704 4.244229e-39
-0.29940599 0.035302199 0.069163904 4.0637683e-39
-0.29859099 0.036381401 0.070142701 3.2376076e-39
-0.29778099 0.037453599 0.071114503 6.6412887e-39
-0.29745701 0.038697701 0.071521901 8.6836e-39
-0.29713401 0.039939601 0.0719283 1.0253783e-38
-0.29657301 0.041087199 0.072611302 1.1821083e-38
-0.29649001 0.042417299 0.072738603 1.2558996e-38
-0.29616901 0.0436529 0.073142402 1.2190222e-38
-0.296085 0.044983201 0.073269799 1.2006549e-38
-0.296718 0.046610601 0.072567098 1.2099107e-38
-0.29711401 0.048149601 0.0721386 1.182252e-38
-0.29751199 0.0496969 0.071708098 1.1729244e-38
-0.298154 0.051358499 0.0709939 1.2096591e-38
-0.29904699 0.053141601 0.069990203 9.6934303e-39
-0.30500001 0.0291992 0.060354501 7.6572707e-39
-0.303882 0.0302465 0.061696999 4.3285185e-39
-0.303029 0.031367298 0.0627276 2.6750942e-39
-0.30218199 0.032480601 0.063750699 2.6750942e-39
-0.30159301 0.0336718 0.064471804 2.6761858e-39
-0.30050799 0.034685001 0.065774202 3.3201189e-39
-0.299187 0.035602201 0.067352198 4.5186354e-39
-0.297883 0.036509 0.0689108 4.0612586e-39
-0.29683399 0.037493799 0.070169598 4.7048176e-39
-0.29627201 0.0386484 0.070858002 5.6256935e-39
-0.29571301 0.039798301 0.071543097 6.9117575e-39
-0.29492 0.040851898 0.072501503 7.2805471e-39
-0.29436699 0.041991401 0.073178701 7.7580381e-39
-0.29428399 0.043314401 0.073305003 9.7899335e-39
-0.29420099 0.044638399 0.073431499 9.9797085e-39
-0.29458699 0.046158701 0.073008299 8.3069309e-39
-0.295212 0.047787499 0.072306097 1.1269714e-38
-0.29607999 0.049531899 0.071319297 1.1451942e-38
-0.29647499 0.051083699 0.070886597 1.2004038e-38
-0.29759899 0.052967001 0.069601603 1.1081384e-38
-0.29898199 0.054985698 0.068012699 7.1883725e-39
-0.30453801 0.029402699 0.058763299 8.8550881e-39
-0.30393299 0.030617099 0.0595074 5.3520283e-39
-0.30256501 0.0315747 0.0611558 2.5814706e-39
-0.29921299 0.035992101 0.065235101 2.6772522e-39
-0.29765901 0.036812801 0.067102097 2.9560041e-39
-0.29612699 0.0376224 0.068941697 4.1512949e-39
-0.29508999 0.038599301 0.0701956 4.1545305e-39
-0.294063 0.039567601 0.071437299 3.8772415e-39
-0.29351199 0.040709399 0.072116703 4.521878e-39
-0.292963 0.041846599 0.072792903 5.3491164e-39
-0.29288 0.0431665 0.072918698 6.8181242e-39
-0.292797 0.044487402 0.073044501 6.5451414e-39
-0.29294601 0.045906398 0.072896101 6.4554779e-39
-0.293329 0.047428999 0.072471902 9.785972e-39
-0.29418299 0.049163301 0.0714904 1.0620391e-38
-0.295046 0.050915498 0.070499398 9.8810403e-39
-0.295917 0.052685801 0.069498703 8.9440159e-39
-0.29801601 0.055027898 0.067048602 7.2812799e-39
-0.30407301 0.0296073 0.057163801 8.4845203e-39
-0.30320999 0.030741099 0.0582215 6.8289548e-39
-0.30235299 0.031867299 0.059271201 3.95938e-39
-0.296377 0.0381082 0.066565096 2.5829056e-39
-0.29438201 0.0387289 0.068971798 3.1375101e-39
-0.29312399 0.0396077 0.070499599 3.1389548e-39
-0.29211101 0.040567499 0.071733698 3.9672693e-39
-0.29192501 0.0472713 0.072085999 7.0082734e-39
-0.29230401 0.0487983 0.071659699 7.7440419e-39
-0.293623 0.050748099 0.070113897 7.0997571e-39
-0.294723 0.052620299 0.068829797 6.9142939e-39
-0.29656199 0.0548479 0.0666648 6.5458757e-39
-0.30360499 0.0298129 0.0555561 8.3919673e-39
-0.302742 0.0309489 0.0566222 9.3164207e-39
-0.30214 0.0321621 0.057372101 5.26019e-39
-0.30128801 0.033284001 0.058424801 2.4903512e-39
-0.31224701 0.0167553 0.0425907 6.0049591e-39
-0.31215501 0.0181915 0.042726502 5.1680154e-39
-0.31206399 0.0196288 0.0428624 5.2612802e-39
-0.31197199 0.0210669 0.042998299 6.0024396e-39
-0.31188101 0.022506099 0.043134399 8.6710569e-39
-0.30252901 0.031242 0.054701101 9.2249552e-39
-0.301669 0.0323737 0.0557703 7.2874246e-39
-0.30107 0.0335843 0.056522101 4.1426909e-39
-0.31140399 0.0139271 0.041295599 9.4972121e-39
-0.31131199 0.0153615 0.041430801 9.7737989e-39
-0.31121999 0.0167969 0.041566201 8.7614491e-39
-0.311129 0.018233201 0.0417016 7.5582312e-39
-0.311037 0.0196706 0.0418371 4.3328485e-39
-0.310945 0.021108899 0.041972701 3.9629758e-39
-0.310853 0.022548201 0.042108402 5.7139795e-39
-0.310761 0.0239885 0.0422442 6.7371193e-39
-0.310669 0.0254297 0.042380098 9.0384003e-39
-0.301709 0.032758601 0.0535299 9.1327511e-39
-0.30136299 0.0340623 0.053976402 5.4449414e-39
-0.300762 0.035274401 0.0547355 2.7644284e-39
-0.31037799 0.0139684 0.040271498 1.0141501e-38
-0.31028599 0.0154029 0.040406398 1.023406e-38
-0.31019399 0.0168384 0.040541399 1.0049311e-38
-0.31010199 0.0182749 0.040676501 9.5886888e-39
-0.31000999 0.0197124 0.040811699 8.1110462e-39
-0.309917 0.021150799 0.040947001 5.7128738e-39
-0.309825 0.022590199 0.0410823 3.0449641e-39
-0.309733 0.0240306 0.0412178 3.5963498e-39
-0.30936199 0.025391901 0.041698001 5.4438554e-39
-0.308992 0.026750499 0.042176999 8.3008479e-39
-0.30174899 0.033147499 0.051266398 9.775964e-39
-0.30114299 0.034368802 0.052036799 7.2881393e-39
-0.300796 0.0356749 0.052486099 3.9586415e-39
-0.30991 0.0141401 0.038549598 9.6790838e-39
-0.30926001 0.0154444 0.039381798 9.9567525e-39
-0.309167 0.01688 0.039516501 1.004931e-38
-0.309075 0.0183166 0.039651301 1.0141861e-38
-0.30898201 0.019754199 0.0397861 9.6801628e-39
-0.30889001 0.0211928 0.039921001 5.7175738e-39
-0.30851999 0.022555901 0.040402401 2.5832713e-39
-0.30842701 0.0239946 0.040537398 2.4903624e-39
-0.30805799 0.025354199 0.041017499 3.5045087e-39
-0.30768999 0.026711199 0.0414964 7.9205383e-39
-0.30732301 0.0280656 0.041974202 6.5520022e-39
-0.302836 0.033895299 0.0476726 7.7491146e-39
-0.30092099 0.034677599 0.050082002 6.731353e-39
-0.30031601 0.035897601 0.0508563 4.3252689e-39
-0.30851001 0.0155529 0.038007598 9.3103041e-39
-0.30814001 0.0169216 0.038491499 9.6798055e-39
-0.30804801 0.0183583 0.0386259 1.0048582e-38
-0.30758601 0.0211602 0.039242901 8.0181317e-39
-0.307493 0.0225979 0.039377399 4.2374131e-39
-0.306851 0.023880601 0.040204301 2.7673178e-39
-0.30675799 0.025316499 0.040338598 5.5338874e-39
-0.305484 0.027859 0.041979201 5.900163e-39
-0.30404699 0.0288704 0.043806501 7.191978e-39
-0.30297399 0.032875899 0.04521 9.1316792e-39
-0.30209199 0.034026701 0.046338402 7.3763636e-39
-0.30121699 0.035169501 0.047458101 6.2700091e-39
-0.299833 0.036121499 0.049217802 4.6050899e-39
-0.30591899 0.022487599 0.039047599 6.6406077e-39
-0.305554 0.0238449 0.039527599 5.5292225e-39
-0.30250299 0.028745901 0.0434682 5.7164934e-39
-0.30241099 0.030165199 0.0436006 8.753536e-39
-0.302055 0.031498801 0.0440684 8.6660221e-39
-0.301963 0.032918099 0.0442008 7.5632843e-39
-0.301608 0.0342484 0.0446674 7.2820016e-39
-0.30073199 0.035393398 0.045796201 5.8997832e-39
-0.30012199 0.036622901 0.046587799 5.8011052e-39
-0.29848999 0.0374736 0.048677001 3.4123131e-39
-0.30104399 0.0315409 0.043059401 9.5764513e-39
-0.300598 0.034290601 0.043659002 6.8199459e-39
-0.29972601 0.035435598 0.0447914 5.3405012e-39
-0.299117 0.036665101 0.045585301 6.5429736e-39
-0.297492 0.037515599 0.047681902 3.4097922e-39
-0.29967999 0.032914199 0.042518899 7.7346897e-39
-0.299328 0.034242999 0.0429863 6.3578733e-39
-0.29820499 0.0352959 0.044451699 5.2465119e-39
-0.29760101 0.036522701 0.045244101 6.0823668e-39
-0.29649499 0.037557699 0.046686701 3.5023423e-39
-0.287734 0.072193503 0.058328301 5.6185244e-39
-0.286486 0.072906896 0.0599529 5.4298172e-39
-0.298154 0.0327802 0.0421842 6.7198245e-39
-0.29729301 0.0339274 0.043318599 5.9916075e-39
-0.29669201 0.035156898 0.044113498 5.7150304e-39
-0.29559001 0.036198001 0.0455616 4.7026848e-39
-0.29524699 0.0375068 0.0460185 4.0576741e-39
-0.29490599 0.0388132 0.0464743 3.3165217e-39
-0.28685099 0.070855498 0.057228401 2.7647927e-39
-0.28560701 0.071576297 0.0588594 7.2784003e-39
-0.28483301 0.072552703 0.059879199 8.0058928e-39
-0.28451601 0.073789299 0.0603019 4.7826569e-39
-0.296128 0.032472499 0.0425204 7.9162125e-39
-0.29502699 0.033527002 0.043977998 7.2812771e-39
-0.29468501 0.034839101 0.044436999 5.8079505e-39
-0.29434299 0.036148801 0.0448949 4.1516704e-39
-0.294002 0.037456099 0.0453518 4.1513089e-39
-0.29341501 0.038667001 0.046133298 4.1469957e-39
-0.29307699 0.039967999 0.046587002 3.3215454e-39
-0.284729 0.070246398 0.057766501 2.3048978e-39
-0.283732 0.071096599 0.059087299 7.3709546e-39
-0.28364199 0.072464302 0.0592135 9.0203964e-39
