# .PCD v0.7 - Point Cloud Data file format
VERSION 0.7
FIELDS x y z rgb
SIZE 4 4 4 4
TYPE F F F F
COUNT 1 1 1 1
WIDTH 1039
HEIGHT 1
VIEWPOINT 0 0 0 1 0 0 0
POINTS 1039
DATA ascii
-0.318625 0.109564 0.149874 7.8484527e-39
-0.31856301 0.11081 0.15001 7.9395721e-39
-0.318501 0.112057 0.15014599 8.676784e-39
-0.31820101 0.113144 0.150446 1.0792617e-38
-0.31813899 0.114391 0.150582 1.2265959e-38
-0.33702001 0.0518535 0.130557 1.2640126e-38
-0.33695599 0.053143099 0.130697 1.3570661e-38
-0.33717 0.054538399 0.130637 1.4036636e-38
-0.33766499 0.056044701 0.13037699 1.2749495e-38
-0.33872601 0.057777502 0.129711 1.2105208e-38
-0.341232 0.060091499 0.128012 1.1736067e-38
-0.34232599 0.061872501 0.127326 1.0721206e-38
-0.34226 0.063198604 0.127469 9.2453679e-39
-0.34190401 0.064406298 0.127821 8.2312202e-39
-0.34125799 0.0654919 0.128379 8.5078029e-39
-0.34090301 0.066694401 0.128729 1.0349909e-38
-0.33969 0.067528397 0.129692 1.0630095e-38
-0.339055 0.068600297 0.13024101 9.7992563e-39
-0.33842301 0.069668002 0.130787 9.7992563e-39
-0.33779401 0.070731603 0.131332 1.044462e-38
-0.33716699 0.071791098 0.131873 1.0260226e-38
-0.33626601 0.072720103 0.13261101 1.053394e-38
-0.33537 0.073643401 0.133343 1.0717254e-38
-0.33420801 0.074433804 0.13426401 1.053322e-38
-0.333599 0.075473502 0.134792 9.8878548e-39
-0.33299199 0.0765092 0.135317 9.5187178e-39
-0.332928 0.0778016 0.13545799 9.2396226e-39
-0.33259299 0.0789629 0.13578901 8.0407291e-39
-0.33226001 0.080122396 0.136121 8.6828573e-39
-0.331927 0.081280202 0.13645101 9.4236509e-39
-0.331595 0.082436197 0.13678101 9.8860598e-39
-0.33099601 0.083454102 0.137299 1.0161926e-38
-0.32960901 0.084058598 0.138375 1.0163005e-38
-0.328758 0.084929697 0.13907 1.0347755e-38
-0.327654 0.085658699 0.139943 1.0531785e-38
-0.32707399 0.086656697 0.14044601 1.0531426e-38
-0.32624099 0.087512799 0.14112701 1.0163727e-38
-0.32515901 0.088225499 0.141983 1.0071171e-38
-0.32383701 0.088794403 0.14300799 9.7945844e-39
-0.322034 0.089082398 0.14436901 9.6087582e-39
-0.320746 0.089640804 0.14536799 9.2403386e-39
-0.319713 0.0903311 0.146185 8.8715589e-39
-0.31868899 0.0910163 0.14699601 8.5946133e-39
-0.31791201 0.091834299 0.147633 8.409506e-39
-0.31737599 0.092786297 0.1481 8.5921008e-39
-0.31660801 0.093595803 0.148729 9.2371044e-39
-0.31607801 0.094540603 0.14919101 1.0159057e-38
-0.316017 0.095764004 0.149324 1.0342017e-38
-0.31548899 0.096703798 0.149784 9.6966561e-39
-0.31542799 0.097926296 0.14991701 9.0509349e-39
-0.31536701 0.0991496 0.15005 8.773632e-39
-0.315539 0.10052 0.15002 8.6810804e-39
-0.315712 0.101894 0.14999001 8.5892449e-39
-0.31541699 0.102973 0.150286 8.4970493e-39
-0.316057 0.104653 0.14993 8.4970493e-39
-0.31693801 0.106499 0.149407 8.4044963e-39
-0.31830499 0.108675 0.148546 8.2190303e-39
-0.31824201 0.109923 0.148681 8.2168821e-39
-0.31817999 0.111172 0.148817 9.3203612e-39
-0.31811801 0.112422 0.14895201 1.1898961e-38
-0.317817 0.113511 0.14925499 1.309536e-38
-0.317278 0.114434 0.149721 1.3370519e-38
-0.31769201 0.116012 0.149526 1.3186848e-38
-0.33556101 0.051690601 0.13005 1.2547937e-38
-0.33549601 0.052977201 0.13019 1.356922e-38
-0.33570799 0.0543692 0.13012899 1.394372e-38
-0.336198 0.055871699 0.129868 1.2840974e-38
-0.33724901 0.0575996 0.12920199 1.2289239e-38
-0.33944699 0.059793498 0.127708 1.2013011e-38
-0.34024099 0.0614517 0.12722901 1.1459483e-38
-0.340175 0.062771499 0.127372 1.0259872e-38
-0.34010899 0.064092197 0.127515 9.3361244e-39
-0.33975601 0.065294102 0.127865 1.0257356e-38
-0.338833 0.066253103 0.128626 1.0905597e-38
-0.3382 0.067327201 0.129177 9.7996151e-39
-0.33785099 0.068519503 0.12952299 9.5230268e-39
-0.33694199 0.069462903 0.130272 9.9836448e-39
-0.336317 0.070524603 0.130816 1.0076558e-38
-0.335419 0.071457297 0.131556 1.0258787e-38
-0.334526 0.072384201 0.132292 1.0810524e-38
-0.33336699 0.073179699 0.13321801 1.1178228e-38
-0.33275899 0.074221499 0.13374799 1.1271142e-38
-0.33215401 0.075259402 0.134275 1.0625058e-38
-0.33208999 0.076550998 0.134415 9.8857024e-39
-0.33202499 0.077843398 0.134555 9.0559502e-39
-0.33169201 0.079004802 0.13488699 8.4102276e-39
-0.331359 0.080164403 0.13521899 1.0255921e-38
-0.33102599 0.081322201 0.13555101 1.0346676e-38
-0.330695 0.0824783 0.13588101 1.0070091e-38
-0.33009899 0.083496198 0.136401 1.0163366e-38
-0.32871601 0.084100597 0.137481 1.0347755e-38
-0.32786801 0.084971599 0.138179 1.0531785e-38
-0.32676801 0.085700601 0.139056 1.0531785e-38
-0.32542199 0.086286999 0.140108 1.0531426e-38
-0.324597 0.087141499 0.14078701 1.0163726e-38
-0.323526 0.087853603 0.14164101 9.8874989e-39
-0.321969 0.088285699 0.142841 9.7023916e-39
-0.32018799 0.088576399 0.144197 9.516564e-39
-0.31939799 0.0894081 0.144849 9.148143e-39
-0.31837299 0.090098001 0.145667 8.779722e-39
-0.31735799 0.090782903 0.146478 8.7786444e-39
-0.31705901 0.091875397 0.146779 9.4225733e-39
-0.31652501 0.092827499 0.147248 1.0066145e-38
-0.316228 0.093915999 0.14754701 1.0341656e-38
-0.31569701 0.094862297 0.148013 1.015655e-38
-0.315402 0.095946699 0.148311 9.4189944e-39
-0.315341 0.097172402 0.148444 8.8654661e-39
-0.31645301 0.099123999 0.147747 8.6817965e-39
-0.317577 0.101098 0.147043 8.5892449e-39
-0.31751499 0.102339 0.14717799 8.4974108e-39
-0.32059699 0.10558 0.14509401 8.5892449e-39
-0.32053399 0.106841 0.14523099 8.5892435e-39
-0.31780601 0.106379 0.147245 8.5888848e-39
-0.317983 0.107783 0.147212 8.5885275e-39
-0.31792101 0.109033 0.147347 8.7714894e-39
-0.31785801 0.110284 0.14748301 1.0333077e-38
-0.31755599 0.111376 0.14778601 1.2084802e-38
-0.317494 0.112627 0.14792199 1.2819502e-38
-0.317193 0.113716 0.14822499 1.355419e-38
-0.33383399 0.0514277 0.129746 1.2363548e-38
-0.33349699 0.052607998 0.13008399 1.3384471e-38
-0.33370501 0.053993199 0.130024 1.3667136e-38
-0.334737 0.055699401 0.129362 1.2749138e-38
-0.33577901 0.057422701 0.128694 1.2289239e-38
-0.337111 0.059274402 0.12781601 1.2104846e-38
-0.33845901 0.061149001 0.126927 1.1920817e-38
-0.33867699 0.062580198 0.126862 1.1090704e-38
-0.33861101 0.0638979 0.127004 1.0812324e-38
-0.33769399 0.064859897 0.127766 1.0996714e-38
-0.33706301 0.065935202 0.128318 1.007548e-38
-0.336997 0.067247801 0.12846 9.5223051e-39
-0.33609101 0.068194903 0.12921301 9.7992535e-39
-0.33546799 0.069258802 0.129759 9.8925296e-39
-0.33457199 0.070195101 0.130503 9.6141476e-39
-0.332863 0.070755199 0.131835 9.9822071e-39
-0.331716 0.071554698 0.132759 1.0349192e-38
-0.331651 0.072845198 0.132899 1.0993121e-38
-0.33131701 0.074010201 0.133233 1.3201491e-38
-0.330984 0.075173497 0.13356701 1.5590656e-38
-0.33092001 0.076463699 0.133706 1.190861e-38
-0.33085501 0.077754803 0.133846 9.0559502e-39
-0.33079001 0.079046696 0.133985 1.117535e-38
-0.33045799 0.080206402 0.13431799 1.0533949e-38
-0.32986 0.081230201 0.13484199 9.9789785e-39
-0.32926601 0.0822502 0.135363 1.0163366e-38
-0.32867399 0.083266497 0.135883 1.0439595e-38
-0.32782301 0.084142603 0.13658801 1.0531787e-38
-0.32620201 0.084604897 0.13784701 1.0532142e-38
-0.325113 0.085333198 0.138722 1.0439948e-38
-0.32403401 0.0860558 0.13959 1.0347754e-38
-0.32296401 0.086772799 0.14045 9.9796931e-39
-0.32165599 0.087347902 0.14148 9.7945844e-39
-0.320362 0.087917402 0.142499 9.6094799e-39
-0.31884101 0.088345699 0.143681 9.3328916e-39
-0.317817 0.089040399 0.144504 9.3318154e-39
-0.31727701 0.090002403 0.14498 9.424367e-39
-0.31674001 0.090961203 0.145454 9.7917146e-39
-0.316441 0.092054799 0.14575601 1.034309e-38
-0.31614301 0.093147002 0.14605901 1.0157629e-38
-0.315611 0.094097301 0.14652801 9.6952211e-39
-0.31554899 0.095326699 0.146661 9.1413341e-39
-0.31690499 0.097419597 0.14578199 8.7729117e-39
-0.321455 0.101493 0.14262301 8.7721956e-39
-0.323392 0.104001 0.141332 8.6807189e-39
-0.32182401 0.104338 0.142543 8.5892477e-39
-0.32176101 0.105609 0.14268 8.5892463e-39
-0.321697 0.106881 0.14281701 8.5892449e-39
-0.321136 0.107834 0.143308 8.6814406e-39
-0.318867 0.107672 0.145014 8.9565953e-39
-0.31832001 0.108613 0.145494 9.9675173e-39
-0.31801599 0.109711 0.14580201 1.1438344e-38
-0.31747201 0.110647 0.14627901 1.2357806e-38
-0.31716999 0.11174 0.146584 1.3002092e-38
-0.31663001 0.11267 0.147058 1.3001379e-38
-0.332661 0.051367 0.12904499 1.2086964e-38
-0.33259699 0.0526479 0.12918299 1.2926014e-38
-0.33253199 0.053929701 0.12932099 1.3207602e-38
-0.332739 0.055317301 0.12925901 1.2472194e-38
-0.33403999 0.057138499 0.128392 1.2104849e-38
-0.33535701 0.0589821 0.127514 1.2013011e-38
-0.336128 0.060621899 0.127039 1.182934e-38
-0.33662301 0.062159099 0.12676799 1.1736068e-38
-0.336557 0.063470602 0.126909 1.1274021e-38
-0.33621001 0.064664997 0.127257 1.0076561e-38
-0.33586401 0.065857403 0.12760399 9.154603e-39
-0.33524001 0.066927597 0.12815399 9.7063362e-39
-0.334896 0.068115003 0.128499 1.0719405e-38
-0.33372501 0.068933703 0.12944999 1.1178945e-38
-0.33202299 0.069501802 0.130789 1.0808728e-38
-0.330879 0.070306301 0.13171799 1.0072969e-38
-0.33054599 0.071472697 0.132053 9.889294e-39
-0.33021399 0.0726372 0.132387 1.0808728e-38
-0.33014801 0.073925696 0.132526 1.4026929e-38
-0.329817 0.075087897 0.13286 1.3936178e-38
-0.32948601 0.076248199 0.133193 1.1082449e-38
-0.32942101 0.077536397 0.133332 1.1080286e-38
-0.329622 0.078956902 0.133277 1.1363346e-38
-0.32902601 0.079982802 0.133803 9.9789785e-39
-0.32843301 0.081005 0.134326 9.9789757e-39
-0.327842 0.082023203 0.134848 1.0348476e-38
-0.326994 0.082902901 0.135556 1.044067e-38
-0.32537901 0.083372898 0.136822 1.0532144e-38
-0.324294 0.084105998 0.137701 1.0531784e-38
-0.32347 0.084968299 0.13839 1.0439589e-38
-0.32240099 0.0856902 0.139256 1.0255198e-38
-0.32109401 0.086271197 0.140294 9.9789743e-39
-0.32004601 0.086981803 0.14114299 9.7023902e-39
-0.318766 0.087551601 0.14216 9.701314e-39
-0.31773901 0.0882513 0.142993 9.7927907e-39
-0.31695899 0.089081503 0.143646 1.0067943e-38
-0.31689599 0.090317503 0.14377899 1.0435283e-38
-0.316358 0.091277704 0.144256 1.0159065e-38
-0.31582299 0.092234597 0.144731 9.5126263e-39
-0.31575999 0.093467802 0.14486399 9.0498587e-39
-0.31617099 0.094985299 0.144656 8.7725572e-39
-0.32070601 0.099005803 0.141473 8.6803602e-39
-0.32364601 0.102107 0.139443 8.6807175e-39
-0.32332799 0.103233 0.139764 8.6807189e-39
-0.32326299 0.104516 0.139902 8.6807203e-39
-0.322442 0.105323 0.14058501 8.588889e-39
-0.32212701 0.106444 0.140903 8.7721985e-39
-0.32156199 0.107402 0.14140099 8.7729201e-39
-0.32100001 0.108358 0.14189599 9.7831246e-39
-0.32019401 0.109149 0.14256699 1.1254666e-38
-0.318661 0.109453 0.143758 1.2358868e-38
-0.317388 0.109914 0.144761 1.2909539e-38
-0.31708401 0.111011 0.145069 1.2909183e-38
-0.316542 0.111945 0.145548 1.3094646e-38
-0.331761 0.0514067 0.128144 1.2271339e-38
-0.33142599 0.0525859 0.128482 1.2467191e-38
-0.331361 0.053866301 0.12862 1.2747346e-38
-0.331296 0.055147599 0.128758 1.210377e-38
-0.33204201 0.0567494 0.12829299 1.1828622e-38
-0.33361501 0.0586919 0.127215 1.1920817e-38
-0.33437699 0.060325 0.12673999 1.1919738e-38
-0.33486599 0.061856199 0.126469 1.1734273e-38
-0.335078 0.063279197 0.126403 1.0536817e-38
-0.33473399 0.064471103 0.12675001 9.1546044e-39
-0.33439001 0.065660998 0.127096 9.0624074e-39
-0.33404601 0.066849098 0.127442 9.9829245e-39
-0.33342901 0.067914203 0.12799101 1.1088189e-38
-0.33199501 0.068610899 0.129142 1.2193093e-38
-0.33030999 0.069179296 0.13047899 1.3020331e-38
-0.32971001 0.070225596 0.13101301 1.1915068e-38
-0.32937801 0.071390897 0.131348 1.0442103e-38
-0.32931301 0.072678603 0.131486 1.0716892e-38
-0.328982 0.0738414 0.13182101 1.2189496e-38
-0.32865199 0.075002402 0.132155 1.0902367e-38
-0.32832301 0.076161601 0.132488 1.0622557e-38
-0.32799399 0.077319004 0.13282 1.1825039e-38
-0.328192 0.078736201 0.132765 9.3379279e-39
-0.32733801 0.079628602 0.13348299 9.1506555e-39
-0.326231 0.0803838 0.134387 1.007189e-38
-0.326166 0.081663802 0.134525 1.0716534e-38
-0.32506901 0.082408004 0.13542099 1.0808725e-38
-0.323728 0.083012797 0.13649499 1.0716172e-38
-0.322653 0.0837451 0.137373 1.0531425e-38
-0.32183701 0.084605798 0.13806 1.0438871e-38
-0.32053199 0.0851928 0.13910501 1.0162645e-38
-0.31973001 0.086042702 0.139781 9.8867786e-39
-0.319177 0.087023199 0.140274 9.8857038e-39
-0.31790099 0.087592803 0.141295 1.0252333e-38
-0.31711701 0.088428102 0.141956 1.0802988e-38
-0.316576 0.089395098 0.14243899 1.0434937e-38
-0.316037 0.090358697 0.14292 9.5122676e-39
-0.31597501 0.091595702 0.143053 8.9580218e-39
-0.316149 0.092973702 0.143013 8.6807217e-39
-0.31897601 0.095936701 0.141039 8.5885275e-39
-0.32364899 0.100045 0.137723 8.5885261e-39
-0.323329 0.101176 0.13804699 8.5885247e-39
-0.323264 0.102461 0.13818499 8.5888834e-39
-0.32269201 0.103433 0.13869201 8.5892449e-39
-0.32262701 0.104717 0.13883001 8.6807217e-39
-0.32231 0.105842 0.13915201 8.6803686e-39
-0.32199299 0.106966 0.13947199 9.3235828e-39
-0.321426 0.107927 0.139975 1.0795837e-38
-0.320862 0.108885 0.14047401 1.1991159e-38
-0.31980699 0.109515 0.141331 1.2910968e-38
-0.31900501 0.110302 0.142002 1.3370154e-38
-0.31772301 0.110761 0.14302 1.3645302e-38
-0.33059201 0.051346101 0.127444 1.3007795e-38
-0.33025801 0.052524101 0.127783 1.2374623e-38
-0.33019301 0.053803101 0.127921 1.2286009e-38
-0.33012801 0.0550831 0.128058 1.2102693e-38
-0.33033001 0.056469899 0.127994 1.1919739e-38
-0.331343 0.058185901 0.127324 1.2012293e-38
-0.33291301 0.060141899 0.126238 1.2103051e-38
-0.333397 0.0616691 0.125965 1.0997071e-38
-0.333606 0.063088603 0.125899 9.3386383e-39
-0.33353999 0.0643951 0.126039 8.6014348e-39
-0.333197 0.065583803 0.126386 9.4293948e-39
-0.33258101 0.066651098 0.126936 1.0258432e-38
-0.33196801 0.067714296 0.12748501 1.0811965e-38
-0.330277 0.068290301 0.128837 1.2378925e-38
-0.32914099 0.069099799 0.129774 1.3944086e-38
-0.32880899 0.070266902 0.13011099 1.2838098e-38
-0.32847801 0.071432099 0.130447 1.1639203e-38
-0.32814801 0.072595596 0.13078199 1.0626135e-38
-0.32781801 0.073757298 0.131117 1.0166596e-38
-0.32749 0.0749171 0.131451 9.7967396e-39
-0.327162 0.076075204 0.13178401 1.2100896e-38
-0.32683399 0.077231497 0.132117 1.0811966e-38
-0.32624701 0.078256004 0.132642 7.7716896e-39
-0.32540399 0.079146199 0.133357 8.2305027e-39
-0.32533899 0.080425397 0.133494 9.6123568e-39
-0.32475799 0.081439503 0.134014 1.0625061e-38
-0.32367 0.0821831 0.13491 1.0625058e-38
-0.322339 0.082787901 0.135984 1.0256637e-38
-0.32177201 0.083786599 0.136492 1.0072247e-38
-0.32071099 0.084513202 0.137366 9.9796973e-39
-0.31965801 0.085234098 0.13823199 1.0162292e-38
-0.31934899 0.086354002 0.138548 1.0621111e-38
-0.318795 0.087336101 0.139044 1.0621474e-38
-0.31800199 0.088177897 0.139718 1.0067595e-38
-0.316733 0.088741504 0.14074101 9.6030283e-39
-0.31619099 0.089710101 0.14122701 9.0487825e-39
-0.31612799 0.0909518 0.141361 8.6807217e-39
-0.318232 0.093466297 0.139897 8.4966906e-39
-0.32187799 0.096920997 0.1373 8.5878086e-39
-0.32282299 0.0988039 0.136694 8.5881673e-39
-0.32275701 0.100089 0.136832 8.5881687e-39
-0.32269201 0.101374 0.13697 8.6800028e-39
-0.322373 0.102505 0.13729399 8.5885275e-39
-0.32230699 0.103791 0.13743199 8.5888918e-39
-0.32224199 0.105078 0.13756999 9.0484336e-39
-0.321924 0.106205 0.13789301 1.0242668e-38
-0.32160601 0.107331 0.138216 1.1256831e-38
-0.32103899 0.108294 0.138722 1.2636174e-38
-0.32022601 0.10909 0.13940801 1.318756e-38
-0.31966501 0.110045 0.139908 1.346307e-38
-0.31885999 0.110833 0.140586 1.364674e-38
-0.32969201 0.051385701 0.126544 1.273479e-38
-0.32935899 0.052563801 0.126884 1.2006191e-38
-0.329027 0.053740099 0.127223 1.1733198e-38
-0.328962 0.055018701 0.127359 1.2287089e-38
-0.32916301 0.056403998 0.127295 1.2564034e-38
-0.329631 0.0579012 0.127028 1.2564748e-38
-0.33091199 0.0597375 0.126148 1.1551324e-38
-0.33193401 0.061482899 0.12546401 9.6148679e-39
-0.33241501 0.063014299 0.12519 8.2319404e-39
-0.332349 0.064319298 0.12533 8.6003614e-39
-0.331734 0.065388799 0.125883 9.8900128e-39
-0.33112299 0.066454098 0.126433 1.0350628e-38
-0.329974 0.067276202 0.127388 1.0720131e-38
-0.32883701 0.068091497 0.128333 1.2011223e-38
-0.32823899 0.069140904 0.12887201 1.3025731e-38
-0.32764301 0.070186302 0.129408 1.2196689e-38
-0.32731399 0.0713505 0.12974399 1.1549882e-38
-0.326985 0.072512798 0.13008 1.0167319e-38
-0.326657 0.0736733 0.13041399 9.3379223e-39
-0.32633001 0.074832097 0.130748 1.1179664e-38
-0.32600299 0.075989 0.131082 1.0998154e-38
-0.325418 0.077015601 0.13160899 9.5219506e-39
-0.325093 0.0781679 0.13194101 6.9401394e-39
-0.32451099 0.079187699 0.13246401 7.4011092e-39
-0.32393301 0.080203801 0.13298599 8.9669859e-39
-0.323356 0.081216097 0.133505 9.6123497e-39
-0.32278201 0.082224801 0.134022 9.6127127e-39
-0.32145599 0.082829401 0.13510101 9.9796973e-39
-0.32089099 0.083828099 0.135611 1.0806218e-38
-0.32057801 0.084958099 0.135932 1.1082089e-38
-0.31952199 0.085679501 0.13680699 1.0529644e-38
-0.31872001 0.086530901 0.137492 9.8824837e-39
-0.31841201 0.087650403 0.13780899 9.5108271e-39
-0.31834701 0.088906102 0.137944 9.1399006e-39
-0.31828299 0.090162799 0.138078 8.7714838e-39
-0.318463 0.091561399 0.13803101 8.49562e-39
-0.32037199 0.093972899 0.13669699 8.4034229e-39
-0.32105601 0.095686503 0.13627601 8.404139e-39
-0.32199699 0.097562999 0.135665 8.5874499e-39
-0.321931 0.098846897 0.135802 8.4956158e-39
-0.32186601 0.100132 0.13594 8.4952584e-39
-0.32179999 0.101418 0.136078 8.5874555e-39
-0.32173401 0.102704 0.136216 9.1395516e-39
-0.321668 0.103992 0.136353 9.9671599e-39
-0.32160199 0.10528 0.136491 1.079621e-38
-0.321284 0.106409 0.13681599 1.2358152e-38
-0.32096699 0.107536 0.13714001 1.318792e-38
-0.32065001 0.108662 0.137464 1.3187567e-38
-0.31983599 0.109459 0.138155 1.3279402e-38
-0.32966101 0.050443999 0.124893 1.2731951e-38
-0.32879201 0.051425502 0.125644 1.1818939e-38
-0.32846001 0.052603599 0.125984 1.1177872e-38
-0.32812899 0.0537799 0.126324 1.0442471e-38
-0.32806301 0.055058599 0.12646 1.0536107e-38
-0.32826301 0.056444101 0.126394 1.1366221e-38
-0.32846299 0.057833601 0.12632801 1.2471839e-38
-0.32866299 0.059227299 0.12626199 1.1641724e-38
-0.32993799 0.061072402 0.125378 9.8882192e-39
-0.330412 0.062595703 0.125104 9.0581012e-39
-0.330345 0.063894697 0.12524299 9.7049041e-39
-0.33000699 0.065077297 0.125588 1.0351707e-38
-0.329133 0.0660218 0.126341 1.0627574e-38
-0.327999 0.066842198 0.12729099 1.1088549e-38
-0.32740301 0.067893699 0.127832 1.1734992e-38
-0.32680899 0.068941198 0.12837 1.1736432e-38
-0.32648101 0.070106 0.12870701 1.0815199e-38
-0.326152 0.071268998 0.129043 1.0169472e-38
-0.32582501 0.072430201 0.129379 9.5233911e-39
-0.32549801 0.073589601 0.129713 1.0533583e-38
-0.32517201 0.074747197 0.13004801 1.1183268e-38
-0.32458901 0.075775899 0.130577 9.8925296e-39
-0.324523 0.077057101 0.130714 8.785473e-39
-0.32368499 0.077950701 0.13143501 7.4911538e-39
-0.32336301 0.079098903 0.13176499 8.0428843e-39
-0.32278699 0.080114201 0.132287 9.7920677e-39
-0.32221401 0.081125699 0.132807 1.0898408e-38
-0.321895 0.082266398 0.13313501 1.0807657e-38
-0.320824 0.083004102 0.13403 1.0438527e-38
-0.32050899 0.084137999 0.134354 1.0250906e-38
-0.31994501 0.085134797 0.134865 9.8792523e-39
-0.31963199 0.086264201 0.135187 9.325368e-39
-0.31956699 0.087529697 0.135322 8.8640396e-39
-0.319502 0.088795997 0.13545799 8.7711251e-39
-0.319933 0.090345196 0.13522001 8.6792882e-39
-0.320117 0.091759101 0.135168 8.4948997e-39
-0.32055101 0.093322098 0.134929 8.5870953e-39
-0.320986 0.094893001 0.134689 8.5870953e-39
-0.321172 0.096322797 0.134637 8.4037831e-39
-0.32110599 0.097605899 0.134774 8.4952598e-39
-0.32129201 0.0990422 0.13472199 8.5870995e-39
-0.321226 0.100329 0.134859 9.1381167e-39
-0.32115901 0.101616 0.134997 9.8753244e-39
-0.32084101 0.102748 0.135323 1.1162835e-38
-0.320775 0.104035 0.135461 1.2634016e-38
-0.32070899 0.105324 0.135598 1.3096437e-38
-0.32064301 0.106613 0.135736 1.3279403e-38
-0.32032499 0.107742 0.136062 1.355455e-38
-0.32902601 0.0505835 0.123782 1.2550046e-38
-0.32815799 0.051565699 0.124538 1.117608e-38
-0.32756099 0.0526434 0.125084 1.0256283e-38
-0.32723099 0.053819802 0.125424 8.9655566e-39
-0.32716399 0.0550985 0.125561 7.6748248e-39
-0.32709801 0.056378201 0.125697 8.0443234e-39
-0.32729599 0.057766199 0.12563001 1.0165169e-38
-0.32749501 0.059158299 0.125563 1.1179315e-38
-0.32742801 0.060443599 0.1257 1.0993125e-38
-0.32789299 0.061954901 0.125429 1.0993477e-38
-0.32782599 0.063244902 0.125567 1.1364054e-38
-0.32670099 0.064074598 0.126518 1.1181102e-38
-0.32637101 0.065244302 0.126857 1.1089625e-38
-0.326042 0.066412203 0.127195 1.1458405e-38
-0.32571399 0.067578197 0.127533 1.1550599e-38
-0.325387 0.068742499 0.12786999 1.0814119e-38
-0.32532001 0.070025899 0.12800699 9.7988976e-39
-0.324994 0.071187697 0.128343 9.980412e-39
-0.324927 0.072471403 0.12848 1.0807296e-38
-0.32434201 0.073506102 0.129014 1.2099107e-38
-0.324018 0.074662603 0.12934799 1.1456971e-38
-0.32369399 0.075817302 0.129682 1.0902723e-38
-0.32362801 0.077098601 0.12981801 1.0256646e-38
-0.32279199 0.077992201 0.130542 9.5194507e-39
-0.32196301 0.078880496 0.13126101 9.7027685e-39
-0.32164401 0.080024697 0.13158999 9.9753982e-39
-0.321073 0.081035398 0.132111 1.0065074e-38
-0.32075599 0.082175002 0.132438 9.7874126e-39
-0.32019001 0.083179101 0.132955 9.5097565e-39
-0.319875 0.084314302 0.13328101 9.2321004e-39
-0.31980899 0.085583799 0.133416 9.0469945e-39
-0.31999299 0.0869921 0.133362 8.7711279e-39
-0.32017699 0.088404402 0.13330799 8.6792924e-39
-0.32011101 0.089679398 0.133444 8.679291e-39
-0.320546 0.0912413 0.13319901 8.5874541e-39
-0.32047999 0.092521101 0.13333599 8.5870939e-39
-0.320665 0.093948103 0.13328201 8.4948997e-39
-0.32059899 0.095230997 0.13341799 8.8622431e-39
-0.32053199 0.096514903 0.133555 8.7704146e-39
-0.32071701 0.097950801 0.13350201 9.0462854e-39
-0.32065099 0.099237897 0.13363899 9.8746154e-39
-0.320333 0.100372 0.133966 1.1896447e-38
-0.32026601 0.101659 0.134104 1.3278662e-38
-0.3202 0.102948 0.134241 1.3740729e-38
-0.31988201 0.104079 0.13456801 1.3740738e-38
-0.31981599 0.105367 0.13470501 1.3648541e-38
-0.328724 0.049536198 0.122324 1.2915982e-38
-0.32812199 0.050623301 0.122878 1.1909699e-38
-0.32725701 0.0516054 0.123636 1.0531789e-38
-0.327191 0.052887 0.123772 9.6101988e-39
-0.32659501 0.0539627 0.12432 8.4109479e-39
-0.32626599 0.055138499 0.124661 6.5641725e-39
-0.326462 0.056524299 0.124593 5.6422204e-39
-0.32639599 0.057806399 0.124729 6.7496441e-39
-0.32632899 0.0590894 0.124866 9.3336231e-39
-0.32626301 0.060373299 0.125002 1.0810534e-38
-0.32567099 0.061434399 0.12554599 1.173176e-38
-0.32508099 0.062491398 0.12608799 1.2562952e-38
-0.32371899 0.063205197 0.12722901 1.2196327e-38
-0.32365301 0.064479299 0.12736499 1.1551681e-38
-0.32332999 0.065638803 0.127699 1.1643516e-38
-0.32352099 0.067030102 0.127636 1.1365853e-38
-0.32396999 0.068544596 0.127373 1.0626856e-38
-0.32416201 0.069945902 0.12730899 1.0255924e-38
-0.32409599 0.071228899 0.127445 1.0253416e-38
-0.323771 0.072388999 0.127781 1.0894471e-38
-0.32344601 0.073547304 0.128117 1.1263247e-38
-0.32337901 0.074830003 0.128254 1.0894106e-38
-0.322799 0.075858697 0.128787 1.0800477e-38
-0.322732 0.077140197 0.128923 1.0339505e-38
-0.32113901 0.0776475 0.130236 9.7884972e-39
-0.32082099 0.078792296 0.130566 9.6952309e-39
-0.320503 0.079935499 0.130895 9.3250149e-39
-0.32018599 0.081076898 0.13122299 8.955875e-39
-0.31987 0.082216598 0.131551 8.8633193e-39
-0.31980401 0.0834888 0.131687 8.8633207e-39
-0.31948799 0.084626302 0.13201401 8.8626074e-39
-0.31942201 0.085898802 0.132149 8.7704132e-39
-0.319855 0.087449603 0.131901 8.7707705e-39
-0.31978899 0.088726699 0.132037 8.6789336e-39
-0.31997299 0.090146899 0.131981 8.5870995e-39
-0.32015699 0.0915711 0.131925 8.5874583e-39
-0.320342 0.092999503 0.131869 8.4952654e-39
-0.32027599 0.094284602 0.13200501 8.6785833e-39
-0.319958 0.095422097 0.13233501 9.2299648e-39
-0.31989101 0.096707501 0.132471 1.070078e-38
-0.31982401 0.097993799 0.132608 1.2726197e-38
-0.31975701 0.099281102 0.132745 1.3372659e-38
-0.31944001 0.100415 0.133073 1.3925843e-38
-0.31937301 0.101703 0.13321 1.4200994e-38
-0.319056 0.102834 0.13353799 1.4016963e-38
-0.32808599 0.049674898 0.121206 1.2549331e-38
-0.32748401 0.0507631 0.121764 1.1175366e-38
-0.32662001 0.051746 0.122526 1.0071176e-38
-0.326289 0.052926902 0.12287 9.1488661e-39
-0.326222 0.054209501 0.123006 8.132566e-39
-0.325892 0.055387899 0.123349 6.2868695e-39
-0.325562 0.056564402 0.123692 4.8117478e-39
-0.325495 0.057846598 0.123828 4.6266461e-39
-0.32542801 0.0591297 0.123964 7.6719549e-39
-0.32483801 0.060192902 0.12451 9.7027573e-39
-0.32425001 0.061252099 0.125054 1.0441034e-38
-0.32289299 0.061972201 0.12620001 1.1826473e-38
-0.32054001 0.062240999 0.128124 1.2749498e-38
-0.32022399 0.063390397 0.128454 1.256511e-38
-0.320409 0.064764202 0.128392 1.2102698e-38
-0.32084599 0.066257201 0.128133 1.1362625e-38
-0.32230401 0.068229198 0.127077 1.0806224e-38
-0.32300699 0.069866203 0.12661199 1.0434576e-38
-0.32319799 0.071269996 0.12654699 9.880697e-39
-0.323131 0.072554 0.126683 9.7859902e-39
-0.32255 0.073588602 0.12722 9.78527e-39
-0.322483 0.074871399 0.12735599 9.8771069e-39
-0.32241601 0.076154999 0.12749299 9.8756705e-39
-0.32209301 0.077310503 0.127828 9.8753104e-39
-0.32025 0.077688798 0.129346 9.4157784e-39
-0.31993201 0.078833699 0.129676 9.4150609e-39
-0.31961501 0.079976998 0.130006 9.2310284e-39
-0.31929901 0.081118397 0.130336 9.0466372e-39
-0.31898299 0.082258202 0.13066401 8.8629648e-39
-0.31891701 0.083530501 0.130799 8.7711307e-39
-0.31885001 0.0848037 0.130935 8.7704146e-39
-0.319033 0.086215198 0.130877 8.7704132e-39
-0.31921601 0.087630801 0.13081899 8.6789378e-39
-0.319399 0.089050598 0.130761 8.7704146e-39
-0.319583 0.090474397 0.130703 9.0455666e-39
-0.319516 0.091757797 0.13083901 9.4136358e-39
-0.31944901 0.093042202 0.13097499 1.0517108e-38
-0.31938201 0.094327398 0.13111199 1.2356698e-38
-0.31931499 0.095613502 0.131248 1.3095707e-38
-0.31899801 0.096750498 0.131578 1.3373034e-38
-0.318681 0.097885698 0.131907 1.3832214e-38
-0.31861401 0.099171601 0.132044 1.392369e-38
-0.31854701 0.100458 0.13218001 1.4107362e-38
-0.32804999 0.048720598 0.119524 1.2915628e-38
-0.32717901 0.0497148 0.120299 1.1909697e-38
-0.32684499 0.050903302 0.120647 1.0623628e-38
-0.326511 0.0520899 0.120994 9.6098414e-39
-0.325914 0.053171702 0.12155 8.6875334e-39
-0.32558301 0.0543533 0.121895 7.6723109e-39
-0.32551599 0.055638399 0.122031 6.0110043e-39
-0.32544899 0.056924298 0.122167 4.4444031e-39
-0.32485601 0.057994701 0.122719 3.9834347e-39
-0.324527 0.059170101 0.123062 6.0120847e-39
-0.323679 0.060123201 0.123816 7.5804768e-39
-0.32335299 0.061292499 0.124156 7.7655855e-39
-0.31972301 0.061020501 0.127106 8.8737197e-39
-0.31890801 0.061950501 0.127831 1.0903087e-38
-0.31809899 0.062875099 0.12854999 1.2193822e-38
-0.31877601 0.064465404 0.128097 1.2006558e-38
-0.31945801 0.066067398 0.12764101 1.1265405e-38
-0.319893 0.067564398 0.127379 1.0616817e-38
-0.32211 0.069907203 0.125715 1.0062217e-38
-0.32229999 0.071311198 0.12564801 9.6008871e-39
-0.32249001 0.072719298 0.12558199 9.4165001e-39
-0.322422 0.074005798 0.125718 9.324666e-39
-0.322355 0.075293101 0.125854 9.3250247e-39
-0.32203001 0.076452702 0.126193 9.5079796e-39
-0.32094201 0.077223197 0.127131 9.7838463e-39
-0.31961101 0.077858701 0.128259 9.6912933e-39
-0.31904301 0.078875199 0.128787 9.5983788e-39
-0.31872699 0.080018401 0.129118 9.4150637e-39
-0.31841099 0.081160001 0.129448 9.322508e-39
-0.318344 0.082433 0.129583 9.1384754e-39
-0.31827801 0.083706804 0.12971801 8.9544471e-39
-0.31821099 0.084981598 0.129853 8.7704202e-39
-0.31864199 0.086533099 0.12959801 8.8622641e-39
-0.31907499 0.088092603 0.129342 9.5054769e-39
-0.31900799 0.089375898 0.12947799 1.0975924e-38
-0.31894001 0.090659998 0.129614 1.1988994e-38
-0.31887299 0.091945 0.12975 1.2359943e-38
-0.31880599 0.093230903 0.129887 1.309716e-38
-0.318488 0.094370201 0.130218 1.3648542e-38
-0.31817201 0.095507801 0.130548 1.3924767e-38
-0.31785601 0.096643701 0.130878 1.4292828e-38
-0.32740799 0.048859 0.118398 1.2731927e-38
-0.32680401 0.049953502 0.118964 1.1267199e-38
-0.326204 0.051043801 0.119527 1.0162651e-38
-0.32587001 0.052231699 0.119876 9.1488675e-39
-0.32580301 0.0535211 0.120012 8.4105892e-39
-0.32600001 0.054916602 0.119936 7.3957254e-39
-0.325932 0.0562093 0.120073 5.9184513e-39
-0.32586399 0.057502799 0.120209 4.5362413e-39
-0.32552999 0.058687702 0.120558 4.7202711e-39
-0.32388601 0.059319802 0.121952 6.1017566e-39
-0.32381901 0.0606055 0.122088 6.5616543e-39
-0.32271299 0.061444201 0.123052 6.3765498e-39
-0.318093 0.060734101 0.126816 6.4712594e-39
-0.31728601 0.061662 0.12753899 8.2244029e-39
-0.316975 0.062804498 0.127867 1.0530004e-38
-0.31715399 0.064168602 0.127804 1.1173577e-38
-0.317828 0.065764301 0.12734801 1.0800847e-38
-0.319006 0.067604899 0.12649199 1.0338802e-38
-0.32146901 0.070069097 0.124614 9.9696696e-39
-0.32217199 0.071721204 0.124138 9.6008899e-39
-0.32210401 0.073009796 0.124274 9.416863e-39
-0.322036 0.074299298 0.12441 9.4168658e-39
-0.32196799 0.075589702 0.124546 9.8764076e-39
-0.32113099 0.076494299 0.125293 1.1254306e-38
-0.32080799 0.077652298 0.125631 1.2175176e-38
-0.31897101 0.078028999 0.127169 1.2266291e-38
-0.31815401 0.078916602 0.12789799 1.2356692e-38
-0.31783801 0.080059901 0.12822901 1.2264496e-38
-0.317523 0.081201598 0.12856001 1.1896793e-38
-0.31745601 0.082474597 0.128694 1.2172657e-38
-0.31738901 0.083748601 0.128829 1.2449601e-38
-0.31781799 0.085296601 0.128572 1.2543601e-38
-0.31824899 0.086852498 0.128313 1.2545054e-38
-0.31893301 0.088557601 0.127856 1.2821651e-38
-0.31836399 0.0895603 0.128387 1.3096802e-38
-0.31829599 0.090846002 0.12852301 1.3096083e-38
-0.31797901 0.091987602 0.128856 1.3003896e-38
-0.317911 0.093273699 0.12899201 1.3371603e-38
-0.31734601 0.094265804 0.129519 1.3924772e-38
-0.32710099 0.047800001 0.116916 1.2456094e-38
-0.32676399 0.0489976 0.11727 1.1908621e-38
-0.326161 0.050093301 0.117839 1.0531072e-38
-0.325827 0.051285699 0.11819 9.7935096e-39
-0.32549301 0.052476302 0.118541 8.8715617e-39
-0.32569 0.053872999 0.118463 8.3176733e-39
-0.32588699 0.055273902 0.118385 7.2106153e-39
-0.32581899 0.0565712 0.118521 5.9177311e-39
-0.32574999 0.057869501 0.118658 5.1801702e-39
-0.32541499 0.059058201 0.119009 6.3797798e-39
-0.32534701 0.060356699 0.119146 7.4850428e-39
-0.31721199 0.060773801 0.125935 6.2865122e-39
-0.31591901 0.061484002 0.12705401 8.3122867e-39
-0.315853 0.062734097 0.127185 1.0617885e-38
-0.31603101 0.064096697 0.127121 1.0802643e-38
-0.31670001 0.065690398 0.126663 1.0339877e-38
-0.31811801 0.067645296 0.125604 9.970743e-39
-0.321596 0.070596702 0.122894 9.7845609e-39
-0.321785 0.072009899 0.122823 9.6920094e-39
-0.32171699 0.073301598 0.122959 9.9682417e-39
-0.321648 0.0745942 0.123096 1.1255393e-38
-0.32106599 0.075631402 0.123644 1.245358e-38
-0.32074201 0.076793499 0.123985 1.3556695e-38
-0.31990901 0.077693999 0.124732 1.438465e-38
-0.31807899 0.078070499 0.126277 1.4108423e-38
-0.31751299 0.079087801 0.12681 1.419954e-38
-0.31645599 0.079840399 0.12773401 1.4014436e-38
-0.31638899 0.081111297 0.127868 1.3463779e-38
-0.31656799 0.082516298 0.12780599 1.3739647e-38
-0.31699499 0.084060699 0.127546 1.3924039e-38
-0.317424 0.085612997 0.127285 1.3834005e-38
-0.31911001 0.0878755 0.126022 1.4110238e-38
-0.319042 0.0891684 0.126158 1.4385747e-38
-0.317718 0.089745201 0.127294 1.410916e-38
-0.31740099 0.090888597 0.127628 1.3740739e-38
-0.31708401 0.092030302 0.12796099 1.3555992e-38
-0.31652099 0.093024403 0.128491 1.3739661e-38
-0.32645601 0.047937699 0.115784 1.2548977e-38
-0.32585201 0.049037602 0.116357 1.1082814e-38
-0.32551599 0.050233401 0.11671 9.8867842e-39
-0.32491699 0.051325802 0.117279 9.2414162e-39
-0.324848 0.0526191 0.117415 8.5956937e-39
-0.32504401 0.0540177 0.117336 8.133282e-39
-0.32550699 0.055527002 0.117039 7.2098964e-39
-0.32543799 0.0568275 0.117176 5.9177311e-39
-0.325369 0.058128901 0.117313 6.5623732e-39
-0.32529899 0.0594313 0.11745 7.947816e-39
-0.32523 0.060734499 0.117587 8.3169572e-39
-0.31431699 0.0611987 0.126766 9.7899251e-39
-0.31424999 0.062444702 0.12689701 1.0803718e-38
-0.315153 0.064136498 0.126243 1.0525343e-38
-0.317298 0.0664187 0.124582 1.0248043e-38
-0.32231101 0.070078999 0.120601 9.8785488e-39
-0.32224199 0.071376599 0.120738 9.6916492e-39
-0.321913 0.072549701 0.121084 1.0335225e-38
-0.321327 0.073594801 0.121639 1.1808564e-38
-0.32074401 0.074635901 0.122191 1.3648173e-38
-0.32041901 0.075801097 0.122534 1.475524e-38
-0.320095 0.076964498 0.122876 1.4663053e-38
-0.31900999 0.0777357 0.123833 1.4846724e-38
-0.31718701 0.078111902 0.125384 1.4662692e-38
-0.31687099 0.079259403 0.125719 1.466233e-38
-0.31606099 0.0801429 0.126451 1.4294271e-38
-0.31659901 0.084374197 0.126257 1.3833658e-38
-0.31777599 0.086346902 0.12538899 1.3925855e-38
-0.32554099 0.047977701 0.114868 1.2001534e-38
-0.325205 0.0491767 0.115224 1.0346327e-38
-0.324604 0.0502734 0.115798 9.4247313e-39
-0.32427099 0.051467299 0.116151 8.7804409e-39
-0.324202 0.052762199 0.116287 8.3191096e-39
-0.324662 0.054267701 0.115988 7.9492509e-39
-0.32459301 0.055567499 0.116124 7.0265841e-39
-0.324523 0.056868199 0.116261 6.379784e-39
-0.324985 0.058389701 0.115961 8.1325646e-39
-0.32491601 0.059695199 0.116098 8.9633972e-39
-0.324846 0.061001599 0.116235 8.7782899e-39
-0.31434199 0.062923796 0.12523299 1.0802645e-38
-0.32336801 0.068370998 0.117925 1.0617179e-38
-0.32329899 0.069677599 0.118062 1.0524269e-38
-0.32296601 0.070860699 0.118414 1.0154774e-38
-0.322373 0.071916603 0.118979 1.0612527e-38
-0.32204199 0.073094703 0.119329 1.245285e-38
-0.320678 0.0737627 0.120522 1.3926917e-38
-0.32035199 0.0749323 0.120868 1.4754528e-38
-0.31977099 0.075971298 0.121422 1.5122589e-38
-0.31919199 0.077006303 0.121973 1.475489e-38
-0.32455701 0.049316101 0.114089 9.609124e-39
-0.323957 0.050413899 0.114665 8.9633958e-39
-0.32335901 0.051507398 0.115239 8.5953336e-39
-0.32328999 0.052802399 0.115375 8.2269154e-39
-0.32374799 0.054308198 0.115073 7.7652198e-39
-0.32367799 0.055608001 0.115209 6.5659703e-39
-0.32413799 0.057125799 0.114906 7.8552574e-39
-0.32406801 0.0584305 0.115043 9.5162067e-39
-0.32426399 0.0598481 0.11496 9.7924334e-39
-0.32446 0.061269999 0.114876 9.5154892e-39
-0.32238299 0.0697193 0.117146 1.052499e-38
-0.32231301 0.071026802 0.117283 1.0799786e-38
-0.32198101 0.072209403 0.117635 1.254684e-38
-0.32165 0.07339 0.117987 1.4570484e-38
-0.32028499 0.074058004 0.119191 1.512259e-38
-0.31970099 0.075101897 0.11975 1.5306263e-38
-0.32364199 0.0493562 0.113173 8.9648364e-39
-0.323044 0.050453998 0.113752 8.6878865e-39
-0.32271099 0.051649299 0.114107 8.5956923e-39
-0.32264099 0.052946001 0.114243 8.2261951e-39
-0.32283401 0.054348599 0.114158 7.2116943e-39
-0.32302701 0.0557555 0.114074 7.1173434e-39
-0.323221 0.057166498 0.113989 9.2399827e-39
-0.323681 0.058692601 0.113682 1.0162291e-38
-0.32361001 0.060001399 0.113819 1.0069019e-38
-0.32380599 0.061425298 0.113734 9.5158493e-39
-0.322061 0.068697803 0.115657 1.0526064e-38
-0.321729 0.069884203 0.116012 1.0709744e-38
-0.32165799 0.071193397 0.116148 1.2180214e-38
-0.32132599 0.072377302 0.116503 1.4295336e-38
-0.32073501 0.073431902 0.117072 1.5215146e-38
-0.32014701 0.074482597 0.117639 1.5398457e-38
-0.32272699 0.049396299 0.112257 8.7804437e-39
-0.32212999 0.050494101 0.112837 8.4123828e-39
-0.321798 0.051689502 0.113194 8.3194669e-39
-0.32172799 0.052986301 0.113329 7.8581357e-39
-0.32192001 0.054389 0.113243 6.8425558e-39
-0.32211199 0.055796102 0.113157 8.5946119e-39
-0.322568 0.0573163 0.112849 1.0162651e-38
-0.322761 0.058733501 0.112762 1.0254486e-38
-0.32295501 0.060155101 0.112675 1.0069019e-38
-0.32288399 0.0614665 0.112812 9.4236551e-39
-0.32307801 0.062894799 0.112725 9.8824767e-39
-0.32180899 0.066361003 0.114025 1.0617898e-38
-0.32121399 0.067430399 0.114602 1.0526062e-38
-0.321143 0.068739504 0.114738 1.0617902e-38
-0.32081199 0.069925897 0.115094 1.1628828e-38
-0.320741 0.071235299 0.11523 1.346809e-38
-0.32041001 0.072419196 0.115585 1.5032192e-38
-0.320079 0.073601201 0.11594 1.5583567e-38
-0.321549 0.049336899 0.111565 8.7804423e-39
-0.321217 0.0505342 0.111923 8.5045743e-39
-0.32114601 0.0518318 0.112058 8.3191068e-39
-0.32107601 0.053130198 0.112193 7.1205762e-39
-0.32100499 0.054429501 0.112328 8.0389312e-39
-0.32119599 0.0558367 0.112241 9.9778995e-39
-0.32164899 0.057357099 0.11193 1.0715463e-38
-0.32184201 0.058774501 0.111841 1.0162651e-38
-0.322034 0.060196199 0.111753 9.7927907e-39
-0.32196301 0.061507799 0.11189 9.6069646e-39
-0.32189101 0.062820204 0.112026 1.0804787e-38
-0.32181999 0.064133503 0.112163 1.0987752e-38
-0.32122299 0.065210298 0.112746 1.0801929e-38
-0.32062799 0.066283002 0.113326 1.0709733e-38
-0.32029599 0.067472003 0.113684 1.0709736e-38
-0.320225 0.068781197 0.11382 1.1077449e-38
-0.32015401 0.0700913 0.113956 1.3008538e-38
-0.319823 0.071277097 0.114312 1.4756319e-38
-0.319493 0.072461098 0.114668 1.5492452e-38
-0.32070601 0.048079599 0.110515 8.7808024e-39
-0.32037401 0.0492776 0.110874 8.5967713e-39
-0.32030299 0.0505744 0.111009 8.3205431e-39
-0.320232 0.051872 0.111143 7.8584916e-39
-0.320162 0.053170498 0.111278 7.0283792e-39
-0.32009101 0.054469999 0.111413 9.4247313e-39
-0.32054099 0.055984501 0.1111 1.0624702e-38
-0.32073101 0.057397898 0.11101 1.1083883e-38
-0.32118401 0.058926601 0.110695 1.0438156e-38
-0.321376 0.060350299 0.110605 9.5172857e-39
-0.32130399 0.061663501 0.110742 1.0436002e-38
-0.32096899 0.062861599 0.111103 1.0988463e-38
-0.320636 0.064057603 0.111465 1.0711167e-38
-0.32030201 0.065251797 0.111825 1.0801929e-38
-0.31970999 0.066324502 0.112407 1.0709733e-38
-0.319379 0.0675136 0.112765 1.0801577e-38
-0.319307 0.068822898 0.112901 1.2456438e-38
-0.31923601 0.070133097 0.113037 1.4388254e-38
-0.31890601 0.071318999 0.113394 1.5400978e-38
-0.31979099 0.0481195 0.1096 8.689683e-39
-0.31946099 0.049317598 0.10996 8.6889641e-39
-0.31938899 0.050614499 0.110094 8.3205431e-39
-0.319318 0.0519122 0.110229 7.1223713e-39
-0.31924701 0.053210899 0.110363 8.0425213e-39
-0.319435 0.0546159 0.110272 9.9786225e-39
-0.31962401 0.0560252 0.110182 1.0347041e-38
-0.32007301 0.057548098 0.109865 1.0622907e-38
-0.320263 0.058967602 0.109774 9.8853465e-39
-0.32045299 0.060391501 0.109682 9.7002406e-39
-0.32038099 0.0617048 0.109818 1.0897346e-38
-0.32030901 0.063019 0.109954 1.1079586e-38
-0.31971401 0.064099103 0.110543 1.0710809e-38
-0.31938201 0.065293297 0.110904 1.0710452e-38
-0.318791 0.066366002 0.111488 1.0618259e-38
-0.318461 0.0675551 0.111847 1.1629544e-38
-0.318389 0.068864599 0.111982 1.4021615e-38
-0.318317 0.070174903 0.112118 1.5677196e-38
-0.31869 0.0467664 0.108778 8.9644734e-39
-0.318618 0.048061602 0.108912 8.6893229e-39
-0.31854701 0.049357601 0.109046 8.5045729e-39
-0.31847599 0.050654601 0.10918 7.7673778e-39
-0.31840399 0.0519525 0.109314 7.7648652e-39
-0.318333 0.053251199 0.109448 9.4254516e-39
-0.318519 0.054656502 0.109356 1.0069382e-38
-0.31870601 0.056065898 0.109264 1.0069742e-38
-0.31915399 0.057588998 0.108944 9.7006021e-39
-0.31934199 0.059008699 0.108852 9.3321797e-39
-0.31953099 0.060432699 0.108759 1.0621474e-38
-0.31945801 0.061746102 0.108895 1.098811e-38
-0.31938601 0.0630605 0.10903 1.0802646e-38
-0.31905299 0.064258002 0.109394 1.0526421e-38
-0.318461 0.065334901 0.109982 1.0526782e-38
-0.31812999 0.066527203 0.110344 1.098597e-38
-0.317543 0.067596696 0.110928 1.365282e-38
-0.317471 0.0689063 0.111064 1.5953056e-38
-0.317848 0.0455117 0.107731 9.0570292e-39
-0.31777701 0.046806201 0.107865 8.8733554e-39
-0.31770501 0.0481015 0.107998 8.5971328e-39
-0.317633 0.0493977 0.108131 8.1361561e-39
-0.31756201 0.0506947 0.108265 7.3060437e-39
-0.31749001 0.0519927 0.108399 8.965551e-39
-0.31741801 0.0532916 0.108532 1.0163373e-38
-0.31786099 0.054802801 0.108211 1.0436362e-38
-0.31804699 0.056214198 0.108118 1.0159414e-38
-0.31849301 0.057739601 0.107795 9.5165682e-39
-0.31867999 0.059161302 0.1077 1.0067224e-38
-0.31939101 0.060814802 0.107145 1.0989543e-38
-0.319318 0.0621331 0.107281 1.0895557e-38
-0.318984 0.063335203 0.107647 1.0711167e-38
-0.31839001 0.064417303 0.108242 1.0710092e-38
-0.31805801 0.065614201 0.108606 1.0802293e-38
-0.31720999 0.066568799 0.109423 1.2457154e-38
-0.316881 0.067759402 0.109784 1.4848869e-38
-0.316935 0.045551401 0.106818 8.6893243e-39
-0.316863 0.046845999 0.106951 8.6893271e-39
-0.31628001 0.047946099 0.10754 8.6882481e-39
-0.316719 0.049437702 0.107217 7.5829893e-39
-0.31664699 0.0507349 0.10735 8.4095088e-39
-0.31657499 0.052033 0.107483 1.0530716e-38
-0.31650299 0.053332001 0.107617 1.080802e-38
-0.31720099 0.0549496 0.107064 1.0347044e-38
-0.31764501 0.056471199 0.106738 9.7938711e-39
-0.31783101 0.057890601 0.106642 9.4243754e-39
-0.31853801 0.0595387 0.106083 1.0989176e-38
-0.318988 0.0610849 0.105752 1.117106e-38
-0.31891501 0.062406398 0.105888 1.089448e-38
-0.31857899 0.063611202 0.106257 1.0803005e-38
-0.31824499 0.064814001 0.106625 1.080229e-38
-0.31687701 0.0655367 0.107911 1.1446591e-38
-0.31654701 0.066730499 0.108274 1.4943559e-38
-0.31602201 0.045591202 0.105904 8.964835e-39
-0.31544101 0.0466935 0.106495 8.7815269e-39
-0.315115 0.047888599 0.106856 8.4127416e-39
-0.31529701 0.049279299 0.10676 7.8574196e-39
-0.31547901 0.0506742 0.106664 9.79459e-39
-0.31566101 0.052073199 0.106568 1.163095e-38
-0.315588 0.053372301 0.106701 1.2463939e-38
-0.31679699 0.055203401 0.105683 1.0898414e-38
-0.31698099 0.056620501 0.105585 9.6091212e-39
-0.31768501 0.058263399 0.105021 1.0436002e-38
-0.31865701 0.060032401 0.104218 1.10803e-38
-0.31858301 0.061356299 0.104353 1.0895198e-38
-0.31850901 0.062681101 0.104489 1.0803004e-38
-0.31843501 0.064006798 0.104625 1.0986317e-38
-0.31809899 0.065213501 0.104996 1.0986687e-38
-0.31750399 0.066297397 0.105599 1.3560631e-38
-0.315182 0.044337001 0.104857 8.5042211e-39
-0.31485501 0.045536101 0.105221 1.053107e-38
-0.31427699 0.0466373 0.105813 1.1085682e-38
-0.313701 0.047734302 0.106402 1.0896253e-38
-0.31312901 0.048827 0.106989 1.0435278e-38
-0.31380799 0.050413001 0.106438 9.7942341e-39
-0.31398699 0.051806901 0.106341 9.7927964e-39
-0.31467301 0.053412698 0.105785 1.0255219e-38
-0.31587601 0.055244099 0.104761 9.8864283e-39
-0.31683299 0.056988701 0.10396 9.9746723e-39
-0.31779999 0.058750801 0.103151 1.1081017e-38
-0.31798801 0.060187701 0.103049 1.1079228e-38
-0.31817499 0.061629001 0.102947 1.0895555e-38
-0.31810099 0.062957101 0.103083 1.0895199e-38
-0.31802699 0.064286001 0.103219 1.09874e-38
-0.31434101 0.0430835 0.103812 8.3183992e-39
-0.31426901 0.044376601 0.103944 9.0530789e-39
-0.31343901 0.045386702 0.10477 1.0896976e-38
-0.31286499 0.0464858 0.105361 9.885701e-39
-0.31154999 0.0472924 0.106632 1.007225e-38
-0.31073999 0.048283201 0.10744 1.1729609e-38
-0.31165299 0.0499552 0.106667 1.0436009e-38
-0.31158099 0.051240001 0.106798 1.0155112e-38
-0.313003 0.053141799 0.105561 1.0345963e-38
-0.314955 0.055284899 0.103839 9.4247327e-39
-0.31668401 0.057359502 0.102323 1.0895903e-38
-0.31713 0.058904499 0.101982 1.1079942e-38
-0.31731701 0.0603434 0.101878 1.0895198e-38
-0.31750399 0.0617867 0.101774 1.0987395e-38
-0.31742901 0.063116498 0.10191 1.1079233e-38
-0.31350201 0.0418307 0.102767 8.5017016e-39
-0.313429 0.043122999 0.102898 7.7637932e-39
-0.31285301 0.044229701 0.103496 9.9746709e-39
-0.31227899 0.0453321 0.10409 9.6091282e-39
-0.31071901 0.0460511 0.105598 8.6871733e-39
-0.30991101 0.047045499 0.106408 1.0435286e-38
-0.30935201 0.048129901 0.106989 1.2376412e-38
-0.30952299 0.049502701 0.106894 1.2376059e-38
-0.30945101 0.050780199 0.107024 1.1912562e-38
-0.31060299 0.052565601 0.106023 1.0347039e-38
-0.31531301 0.055863701 0.101736 1.0342732e-38
-0.316273 0.0576219 0.100914 1.1264692e-38
-0.316459 0.059058499 0.100809 1.098811e-38
-0.31664401 0.0604995 0.100704 1.0987752e-38
-0.316569 0.061828502 0.100839 1.1079233e-38
-0.31649399 0.063158303 0.100974 1.1355833e-38
-0.31258899 0.041870099 0.101853 7.6715892e-39
-0.31226501 0.0430707 0.102219 9.2331598e-39
-0.311692 0.044176199 0.102817 1.0345611e-38
-0.31087399 0.0451837 0.103643 8.6864572e-39
-0.30908301 0.045808401 0.105378 8.959447e-39
-0.30852601 0.046894901 0.10596 1.1082088e-38
-0.30821201 0.048073102 0.106315 1.1728172e-38
-0.30789801 0.0492495 0.106669 9.9779079e-39
-0.30806699 0.050621402 0.106574 8.781164e-39
-0.308478 0.0520982 0.106253 8.9634042e-39
-0.31541699 0.056340002 0.099848002 1.1172851e-38
-0.31586099 0.057885598 0.099499002 1.1171782e-38
-0.31578499 0.059212901 0.099633798 1.0987751e-38
-0.31571001 0.060541101 0.099768601 1.1080308e-38
-0.31563401 0.061870199 0.099903502 1.1263985e-38
-0.31174999 0.040617902 0.100809 7.9481789e-39
-0.311676 0.041909501 0.10094 7.3003026e-39
-0.311104 0.043018401 0.101541 1.0798676e-38
-0.310534 0.044122901 0.102139 9.790644e-39
-0.30996701 0.045223098 0.102735 7.9496166e-39
-0.30818301 0.045847699 0.104477 1.006686e-38
-0.30762699 0.046934199 0.105061 1.1359033e-38
-0.30707401 0.0480165 0.105643 1.0439601e-38
-0.30700099 0.049288899 0.105772 8.2254791e-39
-0.30716899 0.050661001 0.105675 7.6723067e-39
-0.307096 0.0519366 0.105804 1.0066145e-38
-0.31492701 0.057927102 0.098564401 1.1079949e-38
-0.31485099 0.0592544 0.098698899 1.1079949e-38
-0.31477499 0.060582701 0.098833397 1.1263624e-38
-0.31470001 0.0619119 0.098967999 1.1632425e-38
-0.310837 0.0406572 0.099895298 7.3020934e-39
-0.31076401 0.041949 0.100026 6.4719824e-39
-0.310193 0.043057799 0.100629 7.7616366e-39
-0.309625 0.0441624 0.101229 7.5797607e-39
-0.30905899 0.045262601 0.101827 9.3257155e-39
-0.307042 0.045793299 0.103804 1.1082453e-38
-0.30648899 0.046878699 0.10439 1.1358676e-38
-0.30617699 0.048055802 0.104745 8.7775752e-39
-0.306104 0.049328301 0.104874 7.3028109e-39
-0.30603099 0.050601602 0.105002 8.6835803e-39
-0.30619699 0.0519762 0.104904 1.1265407e-38
-0.310247 0.039493199 0.098612897 7.9481789e-39
-0.30992499 0.040696502 0.098981701 6.8407608e-39
-0.30985001 0.041988399 0.0991119 6.2872268e-39
-0.30952901 0.043189101 0.099479802 6.2868667e-39
-0.308961 0.0442947 0.100083 6.5627431e-39
-0.30839601 0.045396101 0.100684 9.6030199e-39
-0.30614299 0.0458325 0.102904 1.1172851e-38
-0.30559099 0.046918001 0.103491 9.6084065e-39
-0.305518 0.0481911 0.103619 7.579395e-39
-0.30544499 0.049465202 0.103748 7.4882798e-39
-0.305372 0.0507401 0.103876 1.0343449e-38
-0.30990499 0.0384138 0.097087003 8.9605246e-39
-0.309582 0.039620399 0.097458102 8.1304122e-39
-0.309259 0.040825099 0.097828403 7.0240674e-39
-0.30893701 0.042027801 0.0981979 6.2868639e-39
-0.30861601 0.0432286 0.098566599 6.2868653e-39
-0.30854201 0.044520799 0.0986965 7.3910535e-39
-0.30797601 0.045624301 0.099301703 8.4023299e-39
-0.30524299 0.045871701 0.102004 8.7729061e-39
-0.30469301 0.046957199 0.102592 7.6690795e-39
-0.30462 0.048230499 0.102721 7.0255135e-39
-0.304546 0.0495046 0.102849 9.0516468e-39
-0.309313 0.037244301 0.095797896 9.1459934e-39
-0.30898899 0.038453002 0.096170597 8.3165999e-39
-0.308667 0.039659701 0.096542403 7.8552616e-39
-0.30859199 0.040954001 0.0966722 6.9322291e-39
-0.30802399 0.0420672 0.097283803 6.196106e-39
-0.30794901 0.0433602 0.097413398 6.9315116e-39
-0.30762899 0.044560399 0.097782798 8.7750557e-39
-0.307309 0.045758702 0.098151498 8.1286199e-39
-0.30458099 0.046004701 0.100871 8.0360599e-39
-0.30379501 0.0469964 0.101694 7.5761594e-39
-0.30372199 0.048269801 0.101821 7.8559847e-39
-0.30364799 0.0495441 0.101949 1.1080657e-38
-0.308644 0.037369099 0.094636001 8.5009869e-39
-0.308321 0.038579199 0.095010199 8.0396543e-39
-0.307998 0.0397873 0.095383503 7.3939275e-39
-0.307677 0.0409934 0.095756099 6.5645312e-39
-0.307111 0.042106699 0.096369497 6.2890247e-39
-0.307035 0.043399699 0.096498802 8.4084298e-39
-0.30695999 0.044693701 0.096628301 1.0159784e-38
-0.306885 0.045988601 0.096757799 8.6810706e-39
-0.30656499 0.0471876 0.0971279 7.9460181e-39
-0.30289701 0.047035702 0.100795 7.5797551e-39
-0.30282301 0.0483092 0.100922 9.8810375e-39
-0.30854601 0.036365401 0.092847198 8.9619595e-39
-0.307726 0.0374084 0.093717404 8.3162341e-39
-0.30740401 0.038618501 0.094092302 7.8549015e-39
-0.30732799 0.0399151 0.094221704 7.3924898e-39
