# .PCD v0.7 - Point Cloud Data file format
VERSION 0.7
FIELDS x y z rgb
SIZE 4 4 4 4
TYPE F F F F
COUNT 1 1 1 1
WIDTH 995
HEIGHT 1
VIEWPOINT 0 0 0 1 0 0 0
POINTS 995
DATA ascii
-0.35392499 -0.035714999 -0.134571 9.6823194e-39
-0.352694 -0.033957001 -0.13154399 9.9574671e-39
-0.351982 -0.032221898 -0.129765 9.7741563e-39
-0.35127699 -0.030502001 -0.128003 1.0968011e-38
-0.34984601 -0.028818799 -0.124494 1.0693236e-38
-0.348681 -0.027155999 -0.121627 9.8634849e-39
-0.34800699 -0.0254931 -0.119942 9.7676991e-39
-0.347574 -0.023829401 -0.118839 9.0358794e-39
-0.34691101 -0.022191901 -0.11718 9.2127162e-39
-0.344877 -0.020685701 -0.112226 8.4819811e-39
-0.34378901 -0.0191331 -0.109547 8.5730992e-39
-0.34271699 -0.017602401 -0.106909 9.860587e-39
-0.34166101 -0.0160932 -0.10431 9.5847246e-39
-0.34105 -0.0145491 -0.102783 9.400699e-39
-0.34065899 -0.0129872 -0.101783 9.0337102e-39
-0.340698 -0.011368 -0.101817 9.0344276e-39
-0.33101699 -0.0083233695 -0.078384697 8.574904e-39
-0.32957801 -0.0070994301 -0.074873202 8.1128455e-39
-0.32925001 -0.0056757899 -0.074030504 8.4776735e-39
-0.32910401 -0.0042189402 -0.073626399 8.3894212e-39
-0.328778 -0.0028063401 -0.072790504 7.1033753e-39
-0.328814 -0.00131324 -0.072821401 6.6409538e-39
-0.32884899 0.000181187 -0.072852403 6.8228227e-39
-0.32888499 0.0016769 -0.0728833 7.2802051e-39
-0.32892099 0.0031739101 -0.072914302 6.8228339e-39
-0.32895601 0.0046722102 -0.072945297 6.3625873e-39
-0.32899201 0.00617183 -0.072976299 7.1887354e-39
-0.32920799 0.0077285799 -0.073440403 6.915017e-39
-0.32960701 0.0093491301 -0.074341401 7.0968901e-39
-0.32982501 0.0109192 -0.074809298 6.8235598e-39
-0.332313 0.0148023 -0.080661103 6.8210235e-39
-0.33216101 0.016276401 -0.080240302 6.1767429e-39
-0.33219799 0.017818701 -0.080272198 6.4522423e-39
-0.332234 0.019362301 -0.080304101 6.724879e-39
-0.33227101 0.0209073 -0.080336101 6.2657071e-39
-0.33230799 0.022453601 -0.080368102 5.6242978e-39
-0.33253399 0.0240811 -0.080853097 6.2671294e-39
-0.35710099 0.043506298 -0.13932499 6.0827326e-39
-0.355537 -0.041109301 -0.143342 1.0050376e-38
-0.35505101 -0.0393028 -0.142092 9.774508e-39
-0.354307 -0.037500001 -0.14021499 9.5890448e-39
-0.35280201 -0.035702001 -0.13647801 8.6717744e-39
-0.35132501 -0.033937398 -0.13281301 9.0383975e-39
-0.350618 -0.032199498 -0.131026 9.40395e-39
-0.35016301 -0.0304721 -0.12985601 1.0966935e-38
-0.34873801 -0.028783699 -0.12631901 1.0417728e-38
-0.34710199 -0.027135501 -0.12227 1.0135761e-38
-0.34643501 -0.025472499 -0.120582 8.7610932e-39
-0.34624001 -0.0237938 -0.120047 7.7462336e-39
-0.34511799 -0.0221886 -0.117254 8.2975857e-39
-0.34311199 -0.0206847 -0.112307 7.8402131e-39
-0.34203801 -0.019134199 -0.109632 7.1026634e-39
-0.340763 -0.0176294 -0.106468 8.5727516e-39
-0.34015301 -0.0160728 -0.104925 8.664227e-39
-0.33954799 -0.0145286 -0.103395 9.1233947e-39
-0.33873799 -0.013027 -0.101365 9.215949e-39
-0.33877599 -0.0114124 -0.101399 8.4827084e-39
-0.33756 -0.0100039 -0.098381899 8.5745383e-39
-0.33455601 -0.0089383302 -0.091017999 8.5741782e-39
-0.33186901 -0.0078804903 -0.084427603 8.0220918e-39
-0.32965299 -0.0067888601 -0.078986302 7.5636276e-39
-0.32822901 -0.0055803 -0.075468503 7.5614696e-39
-0.32790399 -0.00415937 -0.074624397 8.2028789e-39
-0.327759 -0.00270316 -0.074219704 7.0083e-39
-0.32743701 -0.00129327 -0.073382601 6.6402391e-39
-0.327472 0.000201255 -0.0734137 6.7302894e-39
-0.32750699 0.00169711 -0.073444903 7.2823561e-39
-0.32754201 0.0031942299 -0.073476098 6.6380671e-39
-0.32757699 0.0046926602 -0.073507398 6.7284747e-39
-0.32778999 0.0062462599 -0.073972501 7.3688078e-39
-0.32782599 0.00774932 -0.074003801 7.188364e-39
-0.32822001 0.0093700401 -0.074906498 6.8210179e-39
-0.328255 0.0108799 -0.074937999 6.5462513e-39
-0.32883301 0.0125791 -0.076285698 6.4536857e-39
-0.32886899 0.0140977 -0.0763174 6.4522494e-39
-0.33018801 0.016092001 -0.0794634 5.8094037e-39
-0.33041 0.0176987 -0.079945303 6.1763799e-39
-0.330632 0.019311201 -0.0804286 6.1742247e-39
-0.33085501 0.0209295 -0.080913201 6.3575356e-39
-0.33107799 0.0225536 -0.081399202 5.6246523e-39
-0.33167899 0.0243445 -0.082800597 5.9912726e-39
-0.35568601 0.043659899 -0.140641 4.7066182e-39
-0.354947 0.0451128 -0.138787 6.0834444e-39
-0.35473099 0.046813902 -0.138198 6.1767232e-39
-0.355869 -0.046615999 -0.14915 9.6668519e-39
-0.35564199 -0.044790599 -0.148525 9.8652687e-39
-0.35515001 -0.042953599 -0.14724401 9.1273519e-39
-0.35413301 -0.041101601 -0.144668 8.7614463e-39
-0.35365099 -0.039292101 -0.14341199 8.9472781e-39
-0.35291299 -0.037486199 -0.141525 8.9458389e-39
-0.35167101 -0.035689 -0.13839699 9.2170308e-39
-0.349951 -0.0339178 -0.134087 9.3106502e-39
-0.34949499 -0.032175001 -0.1329 9.7723542e-39
-0.348553 -0.030451501 -0.130512 9.773436e-39
-0.34738201 -0.028755801 -0.127561 1.0045352e-38
-0.34599301 -0.0270952 -0.124073 9.3131837e-39
-0.34486201 -0.025451999 -0.121223 8.1135686e-39
-0.34466901 -0.023773201 -0.120687 7.1937787e-39
-0.343559 -0.022167999 -0.117889 6.5505631e-39
-0.341573 -0.0206642 -0.112933 6.5480519e-39
-0.34051001 -0.019113701 -0.110254 6.0888744e-39
-0.339248 -0.017609 -0.107085 7.3745728e-39
-0.33864501 -0.0160523 -0.105539 8.9422404e-39
-0.33804601 -0.0145081 -0.104007 9.1230331e-39
-0.33766299 -0.012946 -0.103004 8.7571345e-39
-0.336041 -0.0115852 -0.098952003 8.5738194e-39
-0.33425701 -0.010288 -0.094501302 8.6649333e-39
-0.333105 -0.0089180404 -0.091609098 8.755338e-39
-0.33177999 -0.0076067499 -0.088291697 8.2961479e-39
-0.33048099 -0.0063199298 -0.085039601 8.1114064e-39
-0.32828799 -0.0052527701 -0.079588503 7.1033753e-39
-0.32687801 -0.0040595899 -0.076064304 7.1026522e-39
-0.326379 -0.00268328 -0.0747822 7.0065007e-39
-0.32623601 -0.00122964 -0.074378103 7.2816513e-39
-0.32627001 0.00026705899 -0.074409597 6.452971e-39
-0.326305 0.00176505 -0.074441098 6.9088961e-39
-0.32633901 0.0032643499 -0.074472599 6.7255656e-39
-0.32637399 0.0047649601 -0.0745041 5.9927005e-39
-0.326408 0.00626685 -0.074535698 5.7182899e-39
-0.32662001 0.0078261402 -0.075003102 5.9945152e-39
-0.32683301 0.0093909698 -0.075471804 6.1774631e-39
-0.32686701 0.0109009 -0.075503498 6.0877814e-39
-0.326902 0.0124122 -0.075535297 5.8111945e-39
-0.327115 0.0139893 -0.076005399 6.268591e-39
-0.32750899 0.015639201 -0.0769177 5.8090449e-39
-0.328632 0.0175795 -0.079620302 5.7164878e-39
-0.329218 0.019333299 -0.081004702 5.8065296e-39
-0.32962301 0.021027301 -0.081944898 6.2678553e-39
-0.33021799 0.0228105 -0.083348803 5.8083177e-39
-0.33025399 0.0243671 -0.083381496 6.2685573e-39
-0.353275 0.045140199 -0.139468 5.7139556e-39
-0.35306099 0.046841301 -0.138879 5.1651063e-39
-0.35284701 0.048538599 -0.138292 5.1654748e-39
-0.354635 -0.0502607 -0.151095 7.6392416e-39
-0.35467601 -0.048451301 -0.151134 7.8236455e-39
-0.35471699 -0.046640299 -0.151172 9.7640683e-39
-0.354491 -0.0448085 -0.15054201 9.7705521e-39
-0.35399899 -0.0429652 -0.149249 9.9556553e-39
-0.35351199 -0.041132599 -0.147966 8.4844923e-39
-0.35224599 -0.039281201 -0.14473701 8.0235253e-39
-0.351513 -0.0374723 -0.142841 7.5639919e-39
-0.35053301 -0.035675898 -0.140329 8.2050355e-39
-0.34956601 -0.033901401 -0.137849 8.023161e-39
-0.34836501 -0.0321505 -0.13478599 8.6645815e-39
-0.34766999 -0.0304166 -0.13298699 9.3992725e-39
-0.34626001 -0.028720301 -0.129403 9.3992697e-39
-0.34464201 -0.0270647 -0.125302 9.1215996e-39
-0.34375 -0.0254065 -0.123015 7.8380495e-39
-0.343328 -0.023737499 -0.1219 7.6543673e-39
-0.34245199 -0.0221125 -0.119654 6.639879e-39
-0.34025499 -0.0206242 -0.114109 6.4547871e-39
-0.33941701 -0.0190499 -0.111959 5.9026741e-39
-0.33858901 -0.017493101 -0.109835 5.717201e-39
-0.33755901 -0.0159798 -0.107207 8.293634e-39
-0.336963 -0.0144312 -0.105663 9.1230401e-39
-0.336164 -0.0129255 -0.103615 8.480556e-39
-0.33435699 -0.0115967 -0.099050798 8.3879806e-39
-0.33279401 -0.0102677 -0.0950974 8.5705698e-39
-0.332239 -0.00879193 -0.093659297 8.1114078e-39
-0.33110899 -0.0074391402 -0.090786897 7.561471e-39
-0.330378 -0.0060305502 -0.0889102 7.3760049e-39
-0.329092 -0.0047577899 -0.085652299 7.1955597e-39
-0.32656199 -0.00379693 -0.079293303 7.193036e-39
-0.32534999 -0.0025794699 -0.0762209 7.1912381e-39
-0.325032 -0.00116581 -0.075376503 6.9128618e-39
-0.32488999 0.00028718199 -0.074971899 6.9128534e-39
-0.32492399 0.00178529 -0.075003602 6.6362525e-39
-0.324958 0.00328473 -0.075035401 6.7255852e-39
-0.325167 0.0048374501 -0.075503699 5.9912726e-39
-0.325201 0.00634151 -0.075535499 6.6359161e-39
-0.32523501 0.0078469096 -0.075567402 6.545154e-39
-0.32526901 0.0093535902 -0.075599298 5.4431379e-39
-0.32530299 0.0108616 -0.075631201 6.1774589e-39
-0.32533699 0.0123709 -0.075663202 6.2689329e-39
-0.325371 0.0138815 -0.075695202 5.6260942e-39
-0.32575801 0.0155267 -0.076604404 5.6257299e-39
-0.32596999 0.017113101 -0.077076897 6.1745877e-39
-0.327804 0.019355301 -0.081580997 5.7150543e-39
-0.32875699 0.021277601 -0.083896697 5.6235733e-39
-0.32879201 0.0228329 -0.083929598 6.0809263e-39
-0.32882801 0.024389699 -0.083962597 5.8997748e-39
-0.35160199 0.045167498 -0.14015 4.6076389e-39
-0.35139 0.046868801 -0.13956 4.794184e-39
-0.351179 0.0485662 -0.138972 4.793112e-39
-0.35343599 -0.052111901 -0.153091 7.6424716e-39
-0.35321 -0.050269101 -0.152456 7.3658974e-39
-0.35325 -0.048456501 -0.152494 7.8243602e-39
-0.35302499 -0.0466199 -0.151861 9.3016553e-39
-0.35306501 -0.044807199 -0.15189999 9.4017668e-39
-0.35310599 -0.042993002 -0.151939 9.2177441e-39
-0.35261801 -0.041150998 -0.15064 8.4830643e-39
-0.351872 -0.0393098 -0.148688 8.2975941e-39
-0.35036299 -0.037465099 -0.144806 8.206476e-39
-0.349893 -0.035670199 -0.143554 8.5734621e-39
-0.34867299 -0.033883199 -0.140405 9.1244765e-39
-0.347473 -0.0321237 -0.137306 8.9426076e-39
-0.346535 -0.0303862 -0.13487101 8.6663864e-39
-0.34513 -0.0286847 -0.131258 8.7567702e-39
-0.34328699 -0.0270341 -0.126535 7.7447888e-39
-0.34240201 -0.025373399 -0.124237 7.2859603e-39
-0.34198201 -0.023701699 -0.123116 7.0072196e-39
-0.341113 -0.0220742 -0.12086 5.8115771e-39
-0.34047699 -0.0204455 -0.119196 5.1687328e-39
-0.33875 -0.0189416 -0.114772 5.257676e-39
-0.33792099 -0.017375899 -0.112619 6.0841871e-39
-0.33710101 -0.0158277 -0.110491 8.7578225e-39
-0.33587199 -0.0143539 -0.10733 8.9397195e-39
-0.33507699 -0.0128439 -0.105266 9.309574e-39
-0.33287701 -0.0115762 -0.099653602 8.4794574e-39
-0.33152601 -0.0102139 -0.096187703 8.2943529e-39
-0.33097601 -0.0087360404 -0.094742998 7.3767224e-39
-0.330046 -0.0073444298 -0.092340603 7.2845239e-39
-0.32931799 -0.0059322198 -0.090449899 7.5600276e-39
-0.32841101 -0.00457547 -0.088108502 7.0079371e-39
-0.32624 -0.0035299 -0.082576297 7.0986908e-39
-0.32449001 -0.0024327 -0.078110702 6.6398594e-39
-0.323998 -0.00105774 -0.0768172 6.2725188e-39
-0.32368299 0.00035319899 -0.075971402 6.0841829e-39
-0.323717 0.00185349 -0.076003499 5.5320979e-39
-0.32374999 0.00335507 -0.0760355 5.1600966e-39
-0.32378301 0.0048579602 -0.076067597 4.7019925e-39
-0.32381701 0.00636217 -0.076099701 5.6228558e-39
-0.32385001 0.0078676799 -0.076131798 5.440624e-39
-0.323883 0.0093745003 -0.076163903 5.2587494e-39
-0.32374299 0.0108224 -0.075758703 5.1683433e-39
-0.32377699 0.0123298 -0.075790897 5.8083205e-39
-0.32363701 0.0137743 -0.075386703 5.7168437e-39
-0.32401699 0.0154149 -0.076292798 5.3480696e-39
-0.32440001 0.0170657 -0.0772039 5.2558754e-39
-0.32638901 0.019377399 -0.082157403 4.5218963e-39
-0.32678601 0.021071799 -0.083101302 5.8965364e-39
-0.32736701 0.022855399 -0.084510498 4.7927154e-39
-0.32740101 0.0244123 -0.084543698 4.7001849e-39
-0.349929 0.045194902 -0.14083201 4.609441e-39
-0.34946901 0.046765599 -0.139613 4.7005366e-39
-0.34951001 0.048593801 -0.139652 3.2246947e-39
-0.35174 -0.0520919 -0.153782 7.6410367e-39
-0.35178 -0.050277598 -0.15382101 7.4562895e-39
-0.35181901 -0.048461702 -0.15386 7.5481306e-39
-0.35212299 -0.046666801 -0.154577 7.641778e-39
-0.35216299 -0.044844799 -0.154616 8.1099588e-39
-0.352202 -0.043021198 -0.15465499 8.2036062e-39
-0.35224199 -0.041196 -0.154695 7.6500919e-39
-0.35175401 -0.039349001 -0.15338001 7.742984e-39
-0.350748 -0.037498999 -0.150739 7.6525932e-39
-0.348737 -0.035656899 -0.145523 7.6511555e-39
-0.34777099 -0.033864699 -0.142985 8.294713e-39
-0.347065 -0.0320924 -0.141114 7.9288116e-39
-0.34515101 -0.030360499 -0.136149 7.7451476e-39
-0.343757 -0.028656401 -0.13251799 8.4827e-39
-0.34192699 -0.0270034 -0.127773 7.1937618e-39
-0.34127599 -0.025327399 -0.126047 6.6380854e-39
-0.34063101 -0.023665801 -0.124337 6.0852857e-39
-0.34021699 -0.0220004 -0.123218 5.8108498e-39
-0.339582 -0.020364299 -0.121535 5.0733058e-39
-0.33895299 -0.0187419 -0.119868 4.9818206e-39
-0.33746001 -0.0172325 -0.115989 8.5720104e-39
-0.33663699 -0.0156733 -0.113825 8.9425963e-39
-0.335823 -0.0141316 -0.111687 8.7549751e-39
-0.334396 -0.0127002 -0.107981 9.4907437e-39
-0.33299899 -0.0112971 -0.104352 9.7698445e-39
-0.330841 -0.0100583 -0.0987795 9.1255499e-39
-0.32990199 -0.0086442502 -0.096323699 8.2957934e-39
-0.328596 -0.0073240302 -0.0929313 8.2010881e-39
-0.32806301 -0.0058726398 -0.091517404 8.3858408e-39
-0.32716399 -0.0045142602 -0.0891653 8.1124755e-39
-0.32554999 -0.0033426201 -0.084988102 9.0297501e-39
-0.32432899 -0.0021124301 -0.081818402 9.0311836e-39
-0.32295901 -0.00094904797 -0.078265801 9.0301074e-39
-0.32264501 0.00046554499 -0.077414103 8.9382621e-39
-0.32250601 0.00192186 -0.077006102 7.835174e-39
-0.32253799 0.00342561 -0.0770384 6.9139478e-39
-0.32257101 0.0049306899 -0.077070802 7.0075685e-39
-0.32243201 0.0063828202 -0.076663896 7.0983306e-39
-0.322465 0.0078884503 -0.076696299 7.1001271e-39
-0.32249701 0.0093954001 -0.076728702 6.5512791e-39
-0.322359 0.0108434 -0.076322898 6.9168232e-39
-0.32222 0.0122888 -0.075918302 7.0983348e-39
-0.32225299 0.0137956 -0.075950697 7.7397372e-39
-0.32228601 0.0153037 -0.0759831 7.2809198e-39
-0.32283401 0.017018501 -0.077330701 6.4522465e-39
-0.32497501 0.019399401 -0.082733802 5.9008706e-39
-0.325187 0.021018401 -0.083222702 5.7161262e-39
-0.32576001 0.022799401 -0.084630698 5.8068743e-39
-0.34800801 0.045094099 -0.140882 2.3967613e-39
-0.347554 0.046662699 -0.13966601 2.2087603e-39
-0.34734899 0.048355199 -0.13908 2.6668279e-39
-0.35030499 -0.052103601 -0.15515199 7.8225595e-39
-0.350344 -0.050285999 -0.155191 7.3630401e-39
-0.35064501 -0.048492599 -0.155912 7.3634058e-39
-0.35094699 -0.0466915 -0.156635 6.7173288e-39
-0.351515 -0.044902399 -0.158049 5.8004284e-39
-0.35208699 -0.043099299 -0.159472 5.8097694e-39
-0.35212699 -0.041255198 -0.159512 7.0079343e-39
-0.352166 -0.0394095 -0.15955199 6.9153757e-39
-0.35167199 -0.037548002 -0.158208 6.5455422e-39
-0.35039401 -0.035685699 -0.154828 6.360086e-39
-0.34862599 -0.033851601 -0.15017501 6.5440905e-39
-0.345907 -0.032067101 -0.143058 6.7291866e-39
-0.34376201 -0.0303348 -0.137431 7.3734882e-39
-0.342379 -0.0286279 -0.133783 7.0068791e-39
-0.34102201 -0.0269522 -0.13020401 6.7306285e-39
-0.339917 -0.025294 -0.12728 5.9037545e-39
-0.33950099 -0.023614399 -0.12614501 5.5346287e-39
-0.33886501 -0.0219617 -0.124438 5.4409953e-39
-0.338456 -0.0203027 -0.123321 4.4318712e-39
-0.33805001 -0.018652599 -0.122211 6.8206801e-39
-0.33764699 -0.017011199 -0.121108 9.4035759e-39
-0.33616501 -0.0155165 -0.11721 8.4834217e-39
-0.33577201 -0.0139045 -0.116137 8.4805518e-39
-0.335383 -0.0123008 -0.115071 9.3085118e-39
-0.33332899 -0.0109778 -0.109696 1.0326251e-38
-0.330937 -0.0097623896 -0.103447 1.0604253e-38
-0.32940099 -0.0084433202 -0.099414699 1.0783971e-38
-0.32771099 -0.0071910699 -0.0949848 1.0508482e-38
-0.32699201 -0.00577342 -0.093071401 9.9581818e-39
-0.32609701 -0.00441177 -0.090701804 1.0140416e-38
-0.32485101 -0.0031532301 -0.087427102 1.0324443e-38
-0.32363099 -0.0019179099 -0.084216297 9.7709151e-39
-0.32295799 -0.00056937401 -0.082423598 9.2209769e-39
-0.32177299 0.00062511401 -0.079309396 8.4834287e-39
-0.32163399 0.00208731 -0.078897297 8.851128e-39
-0.32149401 0.0035468 -0.078486502 8.6660053e-39
-0.32135499 0.0050035901 -0.078076802 8.756403e-39
-0.321217 0.0064577502 -0.077668302 8.5720146e-39
-0.32124901 0.0079655601 -0.077701002 8.0217204e-39
-0.32111099 0.0094163204 -0.0772935 7.4696299e-39
-0.32097399 0.0108644 -0.076887198 8.2028705e-39
-0.32083601 0.0123099 -0.076482102 8.0177674e-39
-0.320869 0.0138168 -0.076514699 7.3738427e-39
-0.32090101 0.015325 -0.076547399 7.7418952e-39
-0.32317501 0.0177374 -0.082367897 7.3727581e-39
-0.323208 0.019275401 -0.082401201 7.1915884e-39
-0.32359299 0.020965099 -0.083343796 6.6384385e-39
-0.32380301 0.0225877 -0.083833799 6.2689455e-39
-0.34584999 0.0448661 -0.140305 1.9303503e-39
-0.34492201 0.046172701 -0.137852 1.7484744e-39
-0.34520099 0.0481181 -0.138512 2.483866e-39
-0.348903 -0.0502945 -0.15656599 7.5459628e-39
-0.34920201 -0.0484979 -0.15729 7.8211106e-39
-0.35002601 -0.046739198 -0.159398 7.6334963e-39
-0.351125 -0.044980701 -0.16223 5.886831e-39
-0.351432 -0.043145299 -0.162974 4.3241772e-39
-0.35147101 -0.041288301 -0.16301499 3.4069251e-39
-0.35150999 -0.039429698 -0.163055 2.9531552e-39
-0.35128099 -0.0375623 -0.16239201 3.4134187e-39
-0.34999499 -0.0356838 -0.15894701 4.7949056e-39
-0.34977099 -0.033838701 -0.158298 4.7037918e-39
-0.34876901 -0.032005399 -0.15560099 6.0852689e-39
-0.34260601 -0.030303899 -0.139342 6.3604195e-39
-0.340996 -0.0285994 -0.135051 5.9015979e-39
-0.33964899 -0.0269212 -0.131455 5.5335357e-39
-0.33923 -0.0252218 -0.13029701 5.3495073e-39
-0.33836401 -0.0235627 -0.127964 5.2580334e-39
-0.337953 -0.0218869 -0.126827 4.2482045e-39
-0.33732301 -0.0202408 -0.125117 4.0616692e-39
-0.33691901 -0.018585499 -0.123999 8.8529146e-39
-0.33651701 -0.0169391 -0.122887 9.1284309e-39
-0.336117 -0.0153015 -0.121782 8.4819867e-39
-0.33593601 -0.013642 -0.121251 8.023168e-39
-0.33511201 -0.0120849 -0.119032 8.7600072e-39
-0.333877 -0.010615 -0.115735 1.0140414e-38
-0.33184499 -0.0093157701 -0.11035 1.0693227e-38
-0.330071 -0.0080160098 -0.105643 1.0784708e-38
-0.327959 -0.00682675 -0.100051 1.0324811e-38
-0.326287 -0.0055939099 -0.095612697 1.0140065e-38
-0.32557601 -0.0041839299 -0.093695998 1.0049305e-38
-0.32414499 -0.0029616901 -0.0898939 1.0509189e-38
-0.32292399 -0.00172121 -0.086641103 1.0506315e-38
-0.32207501 -0.000412024 -0.084366001 9.4961331e-39
-0.32158399 0.00097527902 -0.083029397 8.3923148e-39
-0.321098 0.00235243 -0.081703998 8.6660235e-39
-0.320786 0.00377055 -0.080837399 8.2982989e-39
-0.320306 0.0051294002 -0.079530098 8.6674444e-39
-0.31999901 0.00653288 -0.078675501 8.0213729e-39
-0.31986201 0.00798639 -0.078266397 7.7462182e-39
-0.319893 0.0094956299 -0.078299299 8.0195681e-39
-0.319756 0.0109457 -0.077891402 8.1117707e-39
-0.31945199 0.012331 -0.077045903 7.5593158e-39
-0.319484 0.013838 -0.077078797 7.2852372e-39
-0.31934899 0.0152803 -0.076674297 6.8256968e-39
-0.32141799 0.0176182 -0.082037203 7.0961796e-39
-0.321623 0.0192247 -0.082522899 7.0986851e-39
-0.32182899 0.020836901 -0.083009899 6.5501945e-39
-0.322209 0.0225324 -0.083954401 6.9146652e-39
-0.34299099 0.044262201 -0.137869 2.4842303e-39
-0.34279299 0.045943599 -0.137291 2.392392e-39
-0.347458 -0.050303001 -0.15794501 7.7289107e-39
-0.348272 -0.048555002 -0.16005699 8.0054892e-39
-0.34962299 -0.046833701 -0.163598 7.451612e-39
-0.35019299 -0.045019899 -0.165057 5.7053194e-39
-0.35023099 -0.043157902 -0.165098 4.6018543e-39
-0.350537 -0.041308101 -0.165851 3.2218066e-39
-0.350575 -0.0394396 -0.165892 1.8417812e-39
-0.35008001 -0.037555099 -0.16451 1.381536e-39
-0.34958801 -0.0356819 -0.163138 1.8388875e-39
-0.34989101 -0.033822399 -0.163885 2.7575942e-39
-0.339378 -0.0285786 -0.135711 2.6697188e-39
-0.33827201 -0.02689 -0.13270999 1.8435665e-39
-0.33785599 -0.0251879 -0.13154601 2.0268675e-39
-0.33766699 -0.0234793 -0.13098601 2.3030747e-39
-0.33680999 -0.0218296 -0.128649 2.3002202e-39
-0.33640301 -0.0201577 -0.12751099 6.9964422e-39
-0.33599901 -0.0184948 -0.12638 8.4845007e-39
-0.33559701 -0.016840801 -0.125255 8.4834189e-39
-0.33519799 -0.0151956 -0.124138 8.5745355e-39
-0.33480099 -0.0135592 -0.123028 7.4718005e-39
-0.33355701 -0.0120635 -0.119665 8.0235267e-39
-0.332335 -0.0105937 -0.116363 8.8504021e-39
-0.331545 -0.0090756798 -0.114208 9.1269862e-39
-0.33036 -0.0076520299 -0.111005 1.0230804e-38
-0.330394 -0.0060080001 -0.111041 9.8652547e-39
-0.322743 -0.00138709 -0.090512298 9.9560224e-39
-0.32153499 -0.000160569 -0.087253697 9.4946897e-39
-0.32069501 0.0011391999 -0.084974699 8.7610763e-39
-0.32055399 0.00262123 -0.084549703 8.3915876e-39
-0.32007 0.0039968099 -0.083214402 8.3908561e-39
-0.31942001 0.0053090402 -0.081440203 8.572739e-39
-0.31877699 0.0066082301 -0.079685502 8.4801889e-39
-0.31864101 0.0080637299 -0.079274699 8.2036048e-39
-0.31850499 0.00951658 -0.078865103 7.8369775e-39
-0.31853601 0.0110273 -0.078898303 8.0195709e-39
-0.318234 0.0124143 -0.078049198 7.3767098e-39
-0.31809899 0.0138593 -0.077643 7.3741958e-39
-0.31812999 0.0153678 -0.077676199 7.8337307e-39
-0.32001099 0.017640101 -0.082610503 7.0997641e-39
-0.320214 0.019246699 -0.083097197 6.8231857e-39
-0.32041699 0.020858999 -0.083585203 5.8137197e-39
-0.340372 0.0419949 -0.136042 2.8515695e-39
-0.34040901 0.043791302 -0.136081 3.3078743e-39
-0.34600699 -0.050311599 -0.15933 7.2693927e-39
-0.34785399 -0.0486653 -0.164263 7.179718e-39
-0.34841701 -0.046859302 -0.165723 7.1793719e-39
-0.348719 -0.045019001 -0.16647799 6.7191042e-39
-0.348757 -0.043153599 -0.16652 6.8065985e-39
-0.34879401 -0.041286599 -0.16656099 4.7862498e-39
-0.34883201 -0.039418001 -0.166602 3.1314088e-39
-0.34887001 -0.037547801 -0.16664401 1.9364852e-39
-0.34838 -0.035668101 -0.16526 2.3005747e-39
-0.34841701 -0.033801101 -0.165301 2.2094469e-39
-0.33753201 -0.028565399 -0.135757 2.5771336e-39
-0.33666599 -0.0268692 -0.13336401 1.2900143e-39
-0.33647701 -0.0251539 -0.1328 7.3936711e-40
-0.33628899 -0.023442499 -0.132237 1.0141491e-39
-0.336101 -0.0217351 -0.131676 1.8414099e-39
-0.335473 -0.020073799 -0.12992699 8.5716516e-39
-0.334851 -0.0184267 -0.128195 8.5756229e-39
-0.33445099 -0.016767601 -0.12706199 8.3905058e-39
-0.33405399 -0.0151174 -0.125936 8.2993863e-39
-0.33365899 -0.013476 -0.124817 6.9200686e-39
-0.33326599 -0.0118434 -0.123705 7.7419036e-39
-0.33120501 -0.0105027 -0.1181 8.7542394e-39
-0.33001199 -0.0090543795 -0.114832 8.8453602e-39
-0.33004501 -0.0073967199 -0.114869 8.7560513e-39
-0.31948501 0.00274224 -0.0860449 8.1153636e-39
-0.31917399 0.0041733398 -0.0851584 8.2075438e-39
-0.31869501 0.0055439398 -0.083820902 8.0213645e-39
-0.31755099 0.0066837799 -0.080698401 7.9280997e-39
-0.317251 0.0080845701 -0.0798411 8.2061187e-39
-0.31711599 0.0095375301 -0.079430997 7.8348293e-39
-0.317146 0.0110483 -0.079464398 7.7465825e-39
-0.31684801 0.0124355 -0.078614101 7.2859617e-39
-0.316715 0.0138805 -0.078207299 7.3741902e-39
-0.31658199 0.015323 -0.077801697 7.6478975e-39
-0.31860399 0.017661899 -0.083183803 7.0986795e-39
-0.318973 0.0193415 -0.084126599 7.0018316e-39
-0.338622 0.0366414 -0.136591 6.633363e-39
-0.33820301 0.038203798 -0.13541099 4.688278e-39
-0.33528101 -0.0268379 -0.134625 2.3906026e-39
-0.335094 -0.0251198 -0.134058 1.2907514e-39
-0.334907 -0.0234056 -0.13349199 6.4610509e-40
-0.33471999 -0.0216954 -0.132928 1.9364922e-39
-0.334535 -0.019989099 -0.132366 8.1160797e-39
-0.333913 -0.0183345 -0.130615 8.6663794e-39
-0.333298 -0.016694 -0.12887999 8.5752586e-39
-0.33290201 -0.0150387 -0.127745 8.3008339e-39
-0.33250901 -0.0133923 -0.126617 6.4576528e-39
-0.331907 -0.0117883 -0.12492 6.8267786e-39
-0.32986301 -0.0104462 -0.119287 6.5466002e-39
-0.32847899 -0.0090330597 -0.115457 7.0075699e-39
-0.328311 -0.0074145901 -0.114948 7.2841792e-39
-0.32834399 -0.0057578501 -0.114985 8.1096155e-39
-0.31779301 0.0057270601 -0.085767798 7.4692627e-39
-0.316158 0.00670456 -0.081266202 6.9171904e-39
-0.31586 0.0081054298 -0.080407597 7.1019362e-39
-0.315727 0.0095584597 -0.079996899 7.1923269e-39
-0.31559399 0.0110089 -0.0795874 8.2900383e-39
-0.31529999 0.0123944 -0.078738101 7.4653237e-39
-0.31532899 0.0139018 -0.078771703 7.0976118e-39
-0.315359 0.0154105 -0.078805402 7.0940258e-39
-0.33694699 0.0348773 -0.137219 5.7157717e-39
-0.336757 0.036555599 -0.136647 3.8696955e-39
-0.33389199 -0.0268065 -0.13588899 2.2134014e-39
-0.33370501 -0.0250855 -0.13531899 1.6620339e-39
-0.33352 -0.0233685 -0.13475101 1.6602402e-39
-0.33333501 -0.0216555 -0.134185 6.0762936e-39
-0.33315 -0.019946501 -0.13361999 8.854365e-39
-0.33296701 -0.0182414 -0.133058 8.8511252e-39
-0.33213699 -0.0166199 -0.13070901 8.7582065e-39
-0.33153099 -0.0149884 -0.128977 7.9302535e-39
-0.33114001 -0.0133394 -0.12784401 7.5557299e-39
-0.33054301 -0.011733 -0.126138 7.1033641e-39
-0.32851601 -0.0103896 -0.120479 5.6275404e-39
-0.327943 -0.0088257398 -0.118841 5.3477179e-39
-0.32697701 -0.0073537999 -0.116119 6.2696504e-39
-0.32780701 -0.0055256202 -0.118361 7.006142e-39
-0.32824099 -0.00376439 -0.119511 7.4685579e-39
-0.314794 0.0082399901 -0.081868097 7.0097363e-39
-0.314338 0.0095794201 -0.080563001 7.4667572e-39
-0.314046 0.0109695 -0.079710104 7.3738315e-39
-0.31391501 0.0124155 -0.079302303 7.3734686e-39
-0.31410399 0.0139874 -0.079777896 7.1898046e-39
-0.33527401 0.0331144 -0.13784701 5.8987e-39
-0.33530799 0.0349034 -0.137887 5.9905523e-39
-0.33228001 -0.026785601 -0.136546 3.4958683e-39
-0.332095 -0.0250645 -0.135975 2.4885463e-39
-0.33212799 -0.0233314 -0.136015 2.3970794e-39
-0.33194399 -0.0216155 -0.135446 9.3967207e-39
-0.331761 -0.019903701 -0.13487899 8.9429691e-39
-0.331579 -0.0181958 -0.134313 9.3099509e-39
-0.33118299 -0.0165186 -0.133149 8.4801889e-39
-0.33057699 -0.0148797 -0.13139699 6.2739804e-39
-0.32976699 -0.0132864 -0.12907401 7.3767168e-39
-0.329175 -0.0116776 -0.12736 6.0870794e-39
-0.32838199 -0.0101184 -0.12508801 5.3484367e-39
-0.326996 -0.0086911898 -0.121149 5.5295924e-39
-0.32642901 -0.00713353 -0.119508 5.5317364e-39
-0.32646099 -0.0054613198 -0.119546 5.6235733e-39
-0.32892299 -0.00323546 -0.126394 5.531749e-39
-0.32999501 -0.0012795 -0.129346 5.5313847e-39
-0.33356699 0.0295667 -0.13843399 5.8983525e-39
-0.333381 0.031249201 -0.13786 4.9764242e-39
-0.333415 0.0330339 -0.13790099 5.6235705e-39
-0.33066699 -0.0267647 -0.13720299 5.0577766e-39
-0.33070001 -0.025030101 -0.137243 3.8642949e-39
-0.33051699 -0.023310199 -0.13667101 4.7902071e-39
-0.330549 -0.021575401 -0.136711 9.0355038e-39
-0.330367 -0.0198608 -0.136141 8.759654e-39
-0.33018601 -0.0181501 -0.135573 9.1248338e-39
-0.32979301 -0.016470199 -0.13440301 8.1132084e-39
-0.32961401 -0.01477 -0.13384099 7.1887522e-39
-0.32859701 -0.0132015 -0.130899 7.3767266e-39
-0.327802 -0.011622 -0.12858699 5.7186626e-39
-0.32742399 -0.0099879699 -0.127461 5.4417212e-39
-0.327048 -0.0083626704 -0.126342 5.5310245e-39
-0.32728299 -0.00662169 -0.126959 3.6957313e-39
-0.327519 -0.0048738299 -0.12757701 3.5102597e-39
-0.327755 -0.00311902 -0.128198 2.6765992e-39
-0.32840499 -0.00125687 -0.129994 4.5219145e-39
-0.32969201 0.00078577298 -0.133596 5.2573159e-39
-0.330789 0.0028113001 -0.136658 5.9916341e-39
-0.33168 0.027709801 -0.138445 4.7945511e-39
-0.33171299 0.0294916 -0.138486 5.2537216e-39
-0.33174601 0.0312749 -0.13852701 4.6105172e-39
-0.331779 0.033059798 -0.138567 5.0714883e-39
-0.33203 0.034955598 -0.13922299 5.7143242e-39
-0.32926801 -0.0267331 -0.138474 6.2548695e-39
-0.32908699 -0.025009001 -0.13789999 5.5198366e-39
-0.32911801 -0.0232729 -0.13794 7.1865676e-39
-0.32914999 -0.021535199 -0.13798 8.6699863e-39
-0.328969 -0.019817701 -0.137407 8.7600156e-39
-0.328789 -0.018104199 -0.13683701 8.9415159e-39
-0.32860899 -0.016394701 -0.136268 6.8274947e-39
-0.32822099 -0.0147188 -0.135096 7.2859659e-39
-0.32783401 -0.0130519 -0.13393199 6.7313544e-39
-0.32683301 -0.0114977 -0.13099501 6.0834696e-39
-0.32625201 -0.0098930299 -0.12927 5.9008622e-39
-0.32628301 -0.0081843399 -0.129309 4.6141101e-39
-0.326518 -0.0064320299 -0.129935 3.7868578e-39
-0.32654899 -0.0047176802 -0.12997399 4.4253958e-39
-0.32719499 -0.0028585701 -0.13178401 2.4010941e-39
-0.32722601 -0.00113316 -0.131824 4.794907e-39
-0.32829499 0.00086296699 -0.13485201 5.4431463e-39
-0.328958 0.0027769699 -0.13670801 5.6235719e-39
-0.32962701 0.0047108699 -0.13858201 5.7154088e-39
-0.329873 0.00653661 -0.139238 4.7974182e-39
-0.33019501 0.024268299 -0.139645 4.0580679e-39
-0.33001301 0.0259549 -0.13907 2.8656512e-39
-0.32983199 0.0276377 -0.13849699 4.7034289e-39
-0.33007801 0.0295172 -0.13915201 5.8036626e-39
-0.33011001 0.031300701 -0.139193 4.6108787e-39
-0.330143 0.033085801 -0.13923401 5.2576648e-39
-0.33039001 0.034981702 -0.139891 5.3484143e-39
-0.32765201 -0.026712099 -0.13913199 6.4399698e-39
-0.32747301 -0.024987999 -0.138557 5.7960717e-39
-0.32750401 -0.023251601 -0.138597 9.2144931e-39
-0.327535 -0.021513799 -0.13863701 9.5872469e-39
-0.327566 -0.0197745 -0.138678 9.0355206e-39
-0.32738701 -0.018058199 -0.13810501 8.1157167e-39
-0.327209 -0.0163459 -0.13753299 7.8322985e-39
-0.326823 -0.0146673 -0.136356 6.8231997e-39
-0.32644001 -0.0129978 -0.135186 5.6264698e-39
-0.32605901 -0.0113375 -0.13402399 6.0852703e-39
-0.325275 -0.0097604701 -0.13168199 5.9934306e-39
-0.32510301 -0.0080832699 -0.13112999 4.5219201e-39
-0.32553899 -0.0062826402 -0.13235401 3.8783485e-39
-0.325773 -0.0045146798 -0.132989 3.1404262e-39
-0.326213 -0.0026912501 -0.134224 2.0333808e-39
-0.32665601 -0.00085476 -0.13546699 5.1640441e-39
-0.32710201 0.00099494099 -0.136718 5.6264628e-39
-0.32754999 0.0028579501 -0.137977 5.3487885e-39
-0.32800201 0.0047344202 -0.139245 5.8058108e-39
-0.328244 0.0065603401 -0.139902 5.349157e-39
-0.328275 0.00832674 -0.139943 4.9803703e-39
-0.32834801 0.0242013 -0.139695 2.5897635e-39
-0.32837901 0.025980299 -0.139736 2.8681525e-39
-0.32820001 0.027663101 -0.139162 4.7963406e-39
-0.32844299 0.029542901 -0.139818 5.0696834e-39
-0.32847399 0.031326499 -0.13986 3.5074206e-39
-0.32600701 -0.0284274 -0.13975 5.7953613e-39
-0.32603699 -0.0266912 -0.13979 6.6207821e-39
-0.326067 -0.024953401 -0.13983101 6.9924653e-39
-0.32589 -0.0232304 -0.139255 9.3106502e-39
-0.32591999 -0.0214925 -0.139295 8.9418929e-39
-0.32595 -0.019753 -0.139336 8.393747e-39
-0.325773 -0.0180366 -0.138762 6.9193414e-39
-0.32559699 -0.016324099 -0.13819 8.0188436e-39
-0.325216 -0.0146455 -0.13701101 6.6380797e-39
-0.324837 -0.012976 -0.135839 5.626118e-39
-0.32486701 -0.0112456 -0.13587999 5.4427918e-39
-0.32469401 -0.0095514804 -0.135317 5.4402624e-39
-0.32431799 -0.0079014804 -0.134156 4.5222648e-39
-0.324348 -0.00617482 -0.134196 3.1411717e-39
-0.32478401 -0.00435512 -0.135438 2.7698682e-39
-0.32501799 -0.0025712301 -0.13608199 1.5666461e-39
-0.325252 -0.00078018103 -0.136728 4.704861e-39
-0.32569399 0.00107284 -0.13798501 5.7193731e-39
-0.32613799 0.00293921 -0.13925099 5.2587592e-39
-0.32637599 0.0047579799 -0.139907 5.1644112e-39
-0.32661501 0.0065841102 -0.14056499 5.3480822e-39
-0.326646 0.0083506396 -0.140607 5.3484297e-39
-0.32667699 0.0101187 -0.14064801 4.7974168e-39
-0.32689199 0.022538399 -0.140937 1.8432274e-39
-0.32671401 0.0242265 -0.14036 1.8511489e-39
-0.326745 0.0260056 -0.140402 2.5811792e-39
-0.326776 0.0277863 -0.140443 3.1357767e-39
-0.32680699 0.029568501 -0.140485 3.9658652e-39
-0.32683799 0.0313523 -0.140526 4.2442458e-39
-0.32439101 -0.0284066 -0.14040799 6.6247478e-39
-0.32442099 -0.026670201 -0.140449 6.0712293e-39
-0.32444999 -0.024932301 -0.140489 8.1946113e-39
-0.32427499 -0.023209199 -0.13991299 9.2206266e-39
-0.32430401 -0.0214711 -0.139954 9.1266345e-39
-0.324334 -0.019731499 -0.139994 8.2979626e-39
-0.324159 -0.0180149 -0.13942 7.0057987e-39
-0.323984 -0.016302399 -0.13884699 7.287412e-39
-0.32360801 -0.0146237 -0.137666 5.9941719e-39
-0.32343501 -0.0129217 -0.137099 5.8090618e-39
-0.32326299 -0.0112236 -0.13653301 5.2566167e-39
-0.32329199 -0.0094915498 -0.136574 5.0732792e-39
-0.32312101 -0.00779858 -0.13601001 4.0612909e-39
-0.32315001 -0.0060663 -0.136051 2.4061107e-39
-0.32338101 -0.0042865099 -0.136696 1.3923133e-39
-0.323612 -0.0024995401 -0.137343 1.9335873e-39
-0.32384399 -0.00070539 -0.13799199 2.7680255e-39
-0.32407701 0.0010959801 -0.13864399 5.5360692e-39
-0.32451501 0.00296259 -0.13991199 5.7183011e-39
-0.32475001 0.00478154 -0.140569 5.5317476e-39
-0.32498601 0.0066078501 -0.141229 5.3434117e-39
-0.32501599 0.0083745196 -0.141271 4.5172187e-39
-0.325046 0.0101427 -0.141312 4.0637894e-39
-0.32507601 0.0119125 -0.14135399 5.5310259e-39
-0.32510599 0.0136838 -0.141395 5.3477137e-39
-0.32513601 0.0154566 -0.14143699 4.9810793e-39
-0.32516599 0.017231001 -0.141478 5.2544404e-39
-0.32519701 0.019006999 -0.14151999 4.5158048e-39
-0.32501999 0.0206978 -0.14094301 1.5723774e-39
-0.32505101 0.0224739 -0.140984 1.105277e-39
-0.32508099 0.024251699 -0.14102601 1.3865358e-39
-0.325111 0.026031001 -0.141068 1.9383111e-39
-0.32534799 0.027909899 -0.141729 2.7687752e-39
-0.325378 0.029695099 -0.141771 2.770936e-39
-0.32540801 0.031481899 -0.141813 2.4064695e-39
-0.325232 0.0331636 -0.14123499 2.4982853e-39
-0.32248801 -0.0335861 -0.14032499 6.0751838e-39
-0.32254499 -0.030126 -0.140407 6.6287065e-39
-0.32257399 -0.028393701 -0.140448 6.8051986e-39
-0.32280499 -0.026649199 -0.14110699 5.795748e-39
-0.32283401 -0.024911201 -0.141148 9.3999676e-39
-0.32266 -0.0231879 -0.140571 9.2202664e-39
-0.322689 -0.0214497 -0.14061201 8.5741866e-39
-0.32271799 -0.019710001 -0.140653 7.28561e-39
-0.32254401 -0.017993299 -0.14007699 8.0206513e-39
-0.32237199 -0.0162807 -0.139504 7.2874022e-39
-0.322 -0.0146019 -0.138321 6.086006e-39
-0.32182899 -0.0128997 -0.13775299 5.8101324e-39
-0.32185799 -0.0111663 -0.137794 5.2565956e-39
-0.321886 -0.0094314199 -0.137835 4.6148192e-39
-0.321915 -0.0076950002 -0.137876 3.1372074e-39
-0.321944 -0.0059571001 -0.137917 3.2286771e-39
-0.321973 -0.0042176801 -0.13795801 1.1074532e-39
-0.32220101 -0.0024276201 -0.13860901 1.3829316e-39
-0.322431 -0.00063036202 -0.13926101 1.0170246e-39
-0.32266101 0.00117414 -0.139916 5.8094009e-39
-0.32289201 0.0029859501 -0.14057299 6.4547857e-39
-0.32312399 0.0048051002 -0.141232 5.6239432e-39
-0.32335699 0.00663159 -0.141893 4.5204781e-39
-0.32338601 0.0083984304 -0.14193501 3.5999596e-39
-0.32341501 0.0101668 -0.141977 3.0493179e-39
-0.32344499 0.0119367 -0.14201801 4.3368043e-39
-0.32326999 0.0136328 -0.14144 4.0580637e-39
-0.32309699 0.015325 -0.140864 4.6984206e-39
-0.32312599 0.017093901 -0.14090601 4.8864006e-39
-0.323156 0.0188643 -0.140948 4.6083676e-39
-0.323185 0.0206363 -0.14099 2.3978094e-39
-0.32341701 0.022499001 -0.14165001 1.0144966e-39
-0.32344699 0.024276899 -0.141692 9.2158916e-40
-0.32368001 0.026151599 -0.142354 1.4729819e-39
-0.32370999 0.027935401 -0.142396 1.292206e-39
-0.32373899 0.0297208 -0.14243799 2.4010521e-39
-0.323769 0.031507701 -0.142481 2.6808829e-39
-0.32359499 0.033189598 -0.141902 1.6689114e-39
-0.323421 0.0348676 -0.141326 3.2308239e-39
-0.320849 -0.035293601 -0.14094 6.9906576e-39
-0.32093301 -0.0301053 -0.141064 6.6247506e-39
-0.320961 -0.028372901 -0.141105 6.6229653e-39
-0.32118899 -0.0266282 -0.141765 7.0914951e-39
-0.321217 -0.02489 -0.141807 8.853279e-39
-0.32104501 -0.023166699 -0.141229 8.6649445e-39
-0.321073 -0.0214283 -0.14127 8.1146335e-39
-0.32090199 -0.0197103 -0.14069401 7.2823716e-39
-0.32093 -0.0179717 -0.140735 7.8373334e-39
-0.320759 -0.016258899 -0.14016099 5.9981025e-39
-0.32019401 -0.0146099 -0.138366 5.3531017e-39
-0.32022199 -0.0128778 -0.13840801 5.9026671e-39
-0.32025 -0.0111442 -0.138449 5.3484143e-39
-0.32027799 -0.0094092097 -0.13849001 4.4304321e-39
-0.32030699 -0.0076726498 -0.138531 2.9546224e-39
-0.32053199 -0.0058909501 -0.139183 1.6588333e-39
-0.32056001 -0.0041486202 -0.13922399 9.2266816e-40
-0.320786 -0.0023554701 -0.139878 7.3612871e-40
-0.321013 -0.00055508601 -0.140534 6.4609808e-40
-0.32124099 0.00125259 -0.141192 4.8823943e-39
-0.32146901 0.00306756 -0.141853 5.901249e-39
-0.32169801 0.0048898901 -0.142515 5.71542e-39
-0.32172701 0.0066553298 -0.142557 5.3487899e-39
-0.32175601 0.0084223105 -0.142599 4.0591539e-39
-0.32178399 0.0101908 -0.14264099 3.5988946e-39
-0.321612 0.0118884 -0.14206199 5.4399009e-39
-0.321641 0.0136571 -0.142105 5.530663e-39
-0.32146901 0.0153495 -0.141528 5.342676e-39
-0.321298 0.0170379 -0.140953 3.7822097e-39
-0.32132599 0.018805699 -0.140995 3.9651352e-39
-0.32155499 0.020661101 -0.141654 2.9513336e-39
-0.32178399 0.0225241 -0.142315 1.1063406e-39
-0.32181299 0.024302101 -0.14235801 5.5317938e-40
-0.322043 0.026177 -0.143021 7.3649164e-40
-0.322072 0.0279609 -0.14306401 1.1953258e-39
-0.322101 0.029746501 -0.143106 1.1989047e-39
-0.32212999 0.031533599 -0.143149 1.3858393e-39
-0.32195699 0.0332155 -0.14257 1.5749207e-39
-0.321785 0.034893699 -0.141993 2.4057478e-39
-0.31923801 -0.035273399 -0.141596 6.7183769e-39
-0.31929299 -0.0318157 -0.141679 7.1707133e-39
-0.31931999 -0.030084699 -0.141721 6.8988067e-39
-0.319545 -0.028344 -0.142382 6.074825e-39
-0.319572 -0.026607201 -0.142424 8.8450015e-39
-0.319599 -0.0248689 -0.14246599 8.3934009e-39
-0.31942901 -0.023145501 -0.14188699 7.8394984e-39
-0.31926 -0.0214261 -0.14131001 7.1937661e-39
-0.31928799 -0.0196888 -0.141352 8.1132056e-39
-0.31911901 -0.0179746 -0.14077599 6.4569451e-39
-0.31895 -0.0162645 -0.140203 5.809052e-39
-0.31839401 -0.0146178 -0.138412 5.8072471e-39
-0.31842199 -0.0128884 -0.13845301 5.6246579e-39
-0.318643 -0.0111222 -0.13910399 4.7966965e-39
-0.31867 -0.0093870005 -0.139145 2.4979378e-39
-0.318892 -0.0076093902 -0.139798 1.2979695e-39
-0.31891999 -0.0058684298 -0.13984001 9.1981792e-40
-0.319143 -0.0040793801 -0.140495 9.2197311e-40
-0.31936601 -0.00228308 -0.14115199 4.613607e-40
-0.31959099 -0.00047957001 -0.141812 8.2726916e-40
-0.31981599 0.00133129 -0.142473 3.219287e-39
-0.31984299 0.00309099 -0.142515 6.270372e-39
-0.32006899 0.0049134898 -0.143179 5.9945124e-39
-0.320097 0.0066791 -0.14322101 5.6250194e-39
-0.32012501 0.0084462296 -0.143263 5.1647742e-39
-0.320153 0.0102149 -0.143306 5.2540901e-39
-0.31998301 0.0119125 -0.142726 5.1597421e-39
-0.32001099 0.0136814 -0.14276899 4.9782193e-39
-0.32003799 0.0154519 -0.142811 5.1593665e-39
-0.31967101 0.0170625 -0.141615 3.7854228e-39
-0.31969899 0.018830299 -0.14165799 4.2399382e-39
-0.319727 0.020599701 -0.1417 4.3331876e-39
-0.31995299 0.022459799 -0.142361 1.8392505e-39
-0.320178 0.0243273 -0.143024 5.5391086e-40
-0.320207 0.026107 -0.143066 7.3864404e-40
-0.32023501 0.0278883 -0.14310899 1.2878535e-39
-0.320461 0.0297722 -0.143774 8.2761388e-40
-0.32029101 0.031455498 -0.143194 1.1967579e-39
-0.32012099 0.033135101 -0.142616 1.110323e-39
-0.320149 0.034919702 -0.14265899 2.3121032e-39
-0.31762701 -0.035253201 -0.142253 6.6233311e-39
-0.31768 -0.0317952 -0.142336 6.8058922e-39
-0.317707 -0.030064 -0.142378 6.8995242e-39
-0.31792799 -0.0283232 -0.143041 5.3440997e-39
-0.31795499 -0.026586199 -0.14308301 9.2188035e-39
-0.31778699 -0.024861399 -0.14250299 8.760003e-39
-0.31762001 -0.0231406 -0.14192601 7.5647038e-39
-0.317646 -0.0214047 -0.141967 8.2990192e-39
-0.31747901 -0.0196892 -0.14139099 7.1001411e-39
-0.31731299 -0.017977601 -0.140817 5.440645e-39
-0.31714699 -0.01627 -0.14024501 5.4399037e-39
-0.316791 -0.0145961 -0.139065 5.5328042e-39
-0.31681699 -0.0128665 -0.139107 5.258032e-39
-0.31703499 -0.0111001 -0.139759 4.0577189e-39
-0.31725401 -0.00932658 -0.140413 1.480909e-39
-0.31728101 -0.0075869798 -0.14045499 4.6387603e-40
-0.3175 -0.0058020302 -0.141111 1.6544795e-39
-0.31772101 -0.0040098801 -0.14177001 1.8403015e-39
-0.31794101 -0.0022104599 -0.14242999 1.6555571e-39
-0.31816301 -0.00040377799 -0.143093 1.6587941e-39
-0.31819001 0.00135455 -0.143135 2.0239865e-39
-0.31841299 0.0031729001 -0.14380001 6.084543e-39
-0.31843999 0.00493711 -0.143843 5.9945264e-39
-0.31846699 0.0067028501 -0.143885 5.4409939e-39
-0.31849399 0.0084701404 -0.14392801 5.4413624e-39
-0.31852099 0.010239 -0.143971 5.1647657e-39
-0.31854901 0.0120093 -0.144013 5.4388303e-39
-0.31838 0.0137057 -0.143433 4.3346534e-39
-0.318407 0.0154763 -0.14347599 4.24425e-39
-0.31804499 0.017086999 -0.142278 4.0598657e-39
-0.31807199 0.018855 -0.14232101 4.3335758e-39
-0.31809899 0.0206246 -0.142363 5.0703757e-39
-0.31832099 0.0224848 -0.14302599 2.3016411e-39
-0.318349 0.024260299 -0.143068 1.7470577e-39
-0.318376 0.0260373 -0.14311101 2.1140143e-39
-0.31840301 0.027815901 -0.143154 2.7554236e-39
-0.31843099 0.0295961 -0.143197 2.0221774e-39
-0.31845799 0.031377699 -0.14324 1.8399651e-39
-0.31848499 0.033160999 -0.14328299 1.655927e-39
-0.31851301 0.034945801 -0.143326 1.6580822e-39
-0.31618199 -0.036965501 -0.143489 7.1728965e-39
-0.316208 -0.0352359 -0.14353099 6.8948859e-39
-0.31623399 -0.033504698 -0.143573 7.1768258e-39
-0.31626001 -0.031772099 -0.14361501 6.7155127e-39
-0.316286 -0.030037999 -0.143657 6.2552702e-39
-0.31631199 -0.028302399 -0.14369901 5.8011248e-39
-0.316338 -0.0265652 -0.143742 9.2191748e-39
-0.316172 -0.024840301 -0.143161 8.6642144e-39
-0.316006 -0.023119399 -0.142583 7.193759e-39
-0.31584099 -0.021402501 -0.14200599 8.2057488e-39
-0.31586701 -0.0196677 -0.142048 6.5430227e-39
-0.315703 -0.017956 -0.14147399 5.4399121e-39
-0.31572899 -0.016221 -0.141516 4.79417e-39
-0.31556499 -0.0145146 -0.14094301 4.3350051e-39
-0.31540099 -0.012812 -0.14037199 3.9683806e-39
-0.315617 -0.0110426 -0.141027 2.0229719e-39
-0.315833 -0.00926599 -0.141684 1.2893151e-39
-0.31585899 -0.0075234799 -0.141727 1.0134233e-39
-0.31607601 -0.0057354099 -0.142386 8.2868727e-40
-0.31629401 -0.0039401501 -0.143048 1.4715259e-39
-0.31670499 -0.00208755 -0.144336 1.1953104e-39
-0.31673101 -0.000327774 -0.14437801 6.4466596e-40
-0.31675699 0.00143354 -0.144421 1.1960391e-39
-0.31678399 0.0031963701 -0.144464 5.249393e-39
-0.317004 0.0050222599 -0.145133 6.0856445e-39
-0.31703001 0.0067909802 -0.145175 5.9948767e-39
-0.31705701 0.0085612498 -0.145218 5.6246677e-39
-0.31689 0.010263 -0.14463501 5.5324595e-39
-0.31691599 0.0120335 -0.144678 5.6250096e-39
-0.31674999 0.0137301 -0.144097 5.4398897e-39
-0.31677601 0.0155008 -0.14414001 5.7135927e-39
-0.31641799 0.017111501 -0.142941 5.5302931e-39
-0.31625301 0.0187965 -0.14236601 5.713234e-39
-0.31628001 0.020563399 -0.142409 6.1727534e-39
-0.31630599 0.0223318 -0.142451 3.4058405e-39
-0.316333 0.024101799 -0.14249399 1.4740539e-39
-0.31616801 0.025779201 -0.141921 1.2885934e-39
-0.31619501 0.027549401 -0.141964 2.8494129e-39
-0.31660399 0.029521201 -0.143242 2.2994747e-39
-0.31682301 0.031403501 -0.143906 2.1154534e-39
-0.31685001 0.033186901 -0.143949 1.7491834e-39
-0.31687599 0.0349719 -0.14399301 1.2867858e-39
-0.314569 -0.036945399 -0.144146 7.2661669e-39
-0.31497499 -0.035221498 -0.145441 7.0803351e-39
-0.315 -0.033484701 -0.145483 6.9006032e-39
-0.31483501 -0.031748898 -0.144899 6.8966656e-39
-0.31467 -0.0300173 -0.144316 6.9935317e-39
-0.314695 -0.028281501 -0.14435799 6.3485491e-39
-0.31472099 -0.0265442 -0.1444 7.5542809e-39
-0.314556 -0.024819201 -0.143819 7.3720575e-39
-0.31458199 -0.023081699 -0.14386199 7.6536638e-39
-0.31441799 -0.021361999 -0.14328299 6.6395259e-39
-0.314255 -0.019646199 -0.14270499 5.6235775e-39
-0.31428 -0.017909801 -0.142748 4.8867439e-39
-0.314118 -0.0161993 -0.14217199 4.0580651e-39
-0.314143 -0.0144626 -0.142215 2.953514e-39
-0.31416801 -0.0127245 -0.142257 1.3836715e-39
-0.31438199 -0.0109491 -0.14291801 8.2905862e-40
-0.314596 -0.0091665899 -0.143581 1.3814841e-39
-0.314621 -0.0074183401 -0.14362299 1.2882123e-39
-0.31464699 -0.0056686099 -0.143666 9.1980671e-40
-0.315052 -0.0038229199 -0.14495599 5.5354793e-40
-0.31526801 -0.00201426 -0.145625 7.3793778e-40
-0.315294 -0.000251494 -0.145668 1.2918024e-39
-0.31531999 0.0015127599 -0.145711 1.5669474e-39
-0.31534499 0.00327859 -0.14575499 2.0254494e-39
-0.31556299 0.0051076799 -0.14642601 6.0838368e-39
-0.315588 0.00687942 -0.14647 6.1782072e-39
-0.31542301 0.00858521 -0.14588401 5.9059223e-39
-0.31525701 0.0102871 -0.1453 5.5346245e-39
-0.315283 0.0120577 -0.145344 5.5339056e-39
-0.315119 0.0137544 -0.14476199 6.0831179e-39
-0.314955 0.0154472 -0.144182 5.900156e-39
-0.31460199 0.017055601 -0.142985 5.5338916e-39
-0.31444001 0.018738201 -0.14241 5.2555124e-39
-0.31427801 0.020416901 -0.141838 5.5317252e-39
-0.31430399 0.0221799 -0.141881 2.7680339e-39
-0.314329 0.0239444 -0.14192399 1.7513554e-39
-0.31435499 0.0257104 -0.141967 2.3023614e-39
-0.314381 0.027478 -0.142011 2.7608074e-39
-0.314594 0.029346701 -0.14267001 2.5767749e-39
-0.314998 0.031325899 -0.143951 2.3931039e-39
-0.31521401 0.0332129 -0.14461599 2.0246983e-39
-0.31505001 0.034888901 -0.14403801 2.2076589e-39
-0.31333101 -0.0369367 -0.14605799 7.081054e-39
-0.313923 -0.035209998 -0.14799801 6.254166e-39
-0.31394801 -0.033464599 -0.148041 7.261474e-39
-0.31378299 -0.031720299 -0.147449 6.4396321e-39
-0.313429 -0.0299857 -0.146229 6.351035e-39
-0.31307799 -0.0282606 -0.145017 6.3460127e-39
-0.31310299 -0.026523201 -0.145059 6.5340025e-39
-0.31312799 -0.0247843 -0.14510199 6.2664204e-39
-0.31296501 -0.023060501 -0.14452 6.4554765e-39
-0.31299001 -0.021321399 -0.144563 5.4424176e-39
-0.312828 -0.0196028 -0.14398301 5.4402596e-39
-0.31285301 -0.017863501 -0.144026 3.9658638e-39
-0.31287801 -0.0161226 -0.144069 2.5771742e-39
-0.312902 -0.0143803 -0.14411201 1.565532e-39
-0.31292701 -0.0126364 -0.144154 1.5637188e-39
-0.31295201 -0.0108911 -0.144197 1.8410259e-39
-0.31316301 -0.0091054197 -0.14486399 9.2124584e-40
-0.31318799 -0.00735426 -0.144907 1.9321468e-39
-0.3134 -0.00555705 -0.145575 1.7502764e-39
-0.313613 -0.0037525501 -0.146246 1.5651691e-39
-0.313638 -0.00199119 -0.14628901 1.8417504e-39
-0.31385201 -0.00017499 -0.146962 1.2006984e-39
-0.31387699 0.00159227 -0.14700601 1.9335719e-39
-0.31390199 0.0033610801 -0.14704899 1.8424665e-39
-0.31392699 0.0051314002 -0.147093 4.0558636e-39
-0.313952 0.0069032498 -0.147136 6.4547605e-39
-0.313788 0.0086091701 -0.14655 6.1785561e-39
-0.31362501 0.0103111 -0.14596599 5.8104995e-39
-0.31365001 0.0120819 -0.146009 5.7204436e-39
-0.31330001 0.0137034 -0.144802 6.1753191e-39
-0.31313899 0.0153937 -0.144224 6.449734e-39
-0.312792 0.0169999 -0.14302801 5.9023112e-39
-0.31244799 0.0185975 -0.14184099 6.1760156e-39
-0.312289 0.020271299 -0.141271 5.8958358e-39
-0.31213 0.0219413 -0.14070401 3.2272086e-39
-0.31197199 0.0236076 -0.140138 2.7608298e-39
-0.311997 0.0253626 -0.14018101 3.0356006e-39
-0.312022 0.027119201 -0.14022399 3.0348762e-39
-0.31222999 0.028975699 -0.14087699 3.1263641e-39
-0.31262299 0.030941401 -0.14214399 2.9455588e-39
-0.31320399 0.033026598 -0.14403901 2.5760728e-39
-0.312271 -0.036933601 -0.148617 7.2668662e-39
-0.31323999 -0.035204299 -0.151869 6.6225814e-39
-0.31288499 -0.0334443 -0.15062299 7.2668634e-39
-0.31234401 -0.031696901 -0.148747 6.7147798e-39
-0.31218001 -0.029953901 -0.148155 5.4330401e-39
-0.31183201 -0.0282233 -0.146933 6.1637598e-39
-0.31167001 -0.026491201 -0.146346 5.9761344e-39
-0.31150901 -0.0247632 -0.145762 4.9648859e-39
-0.311533 -0.0230227 -0.145805 3.9615212e-39
-0.31155699 -0.0212806 -0.14584801 2.8562793e-39
-0.31139699 -0.019559201 -0.145265 2.1194359e-39
-0.31142101 -0.017816899 -0.145308 2.2083903e-39
-0.311445 -0.016073201 -0.14535201 1.8388721e-39
-0.31146899 -0.0143279 -0.145395 1.9346453e-39
-0.31149301 -0.0125811 -0.145438 1.8410245e-39
-0.311517 -0.0108328 -0.14548101 1.291106e-39
-0.311726 -0.00904408 -0.14615101 2.3931109e-39
-0.31174999 -0.0072899498 -0.146194 2.6636021e-39
-0.31177399 -0.0055343001 -0.146238 2.5742806e-39
-0.311984 -0.00372963 -0.14691 1.9307146e-39
-0.31219399 -0.0019176 -0.14758401 2.0272052e-39
-0.31240499 -9.8239499e-05 -0.148261 1.3811366e-39
-0.31242901 0.00167203 -0.148305 1.4719085e-39
-0.31245399 0.0034438299 -0.148348 2.39169e-39
-0.31247801 0.0052171499 -0.14839201 2.3005775e-39
-0.31250301 0.0069920202 -0.14843599 5.8079589e-39
-0.312154 0.0086331395 -0.14721601 6.7327949e-39
-0.311993 0.0103352 -0.146631 5.8130064e-39
-0.31183201 0.0120334 -0.146047 5.9037531e-39
-0.31148699 0.0136525 -0.144843 6.1778289e-39
-0.31114501 0.0152629 -0.143646 6.635563e-39
-0.31080499 0.0168646 -0.142456 6.2682028e-39
-0.31083 0.018622 -0.1425 6.7270384e-39
-0.30977401 0.019874601 -0.13889 6.9092464e-39
-0.309798 0.0216185 -0.138933 4.6011201e-39
-0.30982301 0.023363899 -0.13897701 3.5823158e-39
-0.30966899 0.025019201 -0.138418 2.7590432e-39
-0.30969301 0.026764899 -0.13846099 3.0359538e-39
