# .PCD v0.7 - Point Cloud Data file format
VERSION 0.7
FIELDS x y z rgb
SIZE 4 4 4 4
TYPE F F F F
COUNT 1 1 1 1
WIDTH 984
HEIGHT 1
VIEWPOINT 0 0 0 1 0 0 0
POINTS 984
DATA ascii
-0.35741001 0.026627099 -0.068327099 5.4290745e-39
-0.37663999 -0.045218199 -0.14475399 6.0733649e-39
-0.37680301 -0.043399099 -0.144135 6.3485112e-39
-0.37654701 -0.041724499 -0.142803 6.8066181e-39
-0.37629199 -0.040054299 -0.14147501 6.070865e-39
-0.37687299 -0.0380852 -0.141565 4.5096671e-39
-0.37703699 -0.036263298 -0.140946 3.5913262e-39
-0.37720001 -0.034439798 -0.14032499 3.4995019e-39
-0.37569499 -0.033259001 -0.136902 4.1427063e-39
-0.37585801 -0.0314456 -0.13628501 5.6131476e-39
-0.375606 -0.029796701 -0.134975 6.4436216e-39
-0.37535599 -0.0281523 -0.13367 7.3670128e-39
-0.37551799 -0.026340799 -0.133054 9.4878556e-39
-0.375269 -0.0247024 -0.131753 1.0140778e-38
-0.37461099 -0.0232451 -0.129779 1.014114e-38
-0.37395799 -0.021796601 -0.127818 1.0415929e-38
-0.37412 -0.019995101 -0.127205 9.9578203e-39
-0.37674701 -0.0170714 -0.130647 9.8667064e-39
-0.35621199 -0.0200381 -0.093638398 9.6772789e-39
-0.355676 -0.018712999 -0.091958404 9.401062e-39
-0.35412899 -0.0179023 -0.088644199 9.2166679e-39
-0.35394001 -0.0164262 -0.087540403 8.8514881e-39
-0.35375199 -0.0149535 -0.086439699 9.0344388e-39
-0.35389999 -0.0133094 -0.085880503 8.9425949e-39
-0.35271499 -0.0123702 -0.0831808 8.7596526e-39
-0.345824 -0.0145178 -0.071346797 9.2181112e-39
-0.34504199 -0.0134392 -0.069332696 9.0347878e-39
-0.34366199 -0.012704 -0.066370703 8.574181e-39
-0.343501 -0.0113076 -0.065358303 8.4805546e-39
-0.34334001 -0.0099141896 -0.064348601 8.755701e-39
-0.34347999 -0.0083509004 -0.063817002 9.1255583e-39
-0.34332001 -0.0069614002 -0.062810197 8.6674556e-39
-0.34316099 -0.0055747898 -0.061806101 8.7560457e-39
-0.34300199 -0.0041910401 -0.060804501 9.033706e-39
-0.343142 -0.0026295001 -0.060273401 8.7582065e-39
-0.34328201 -0.00106659 -0.059741899 8.6652976e-39
-0.343422 0.00049763703 -0.059209902 9.3092223e-39
-0.34326401 0.0018754801 -0.0582119 9.5854322e-39
-0.343703 0.0036301599 -0.058144499 8.2053984e-39
-0.34414399 0.0053915698 -0.0580763 8.9382958e-39
-0.34488899 0.00735632 -0.058474801 8.7571289e-39
-0.34563899 0.0093344403 -0.058875199 9.0319165e-39
-0.34608701 0.0111222 -0.0588063 9.7658774e-39
-0.35353199 0.017622801 -0.0694663 9.7676655e-39
-0.354009 0.019494699 -0.0694106 9.1262477e-39
-0.354157 0.0211464 -0.0688489 9.7673123e-39
-0.354637 0.023029801 -0.068791099 9.6743908e-39
-0.355452 0.025155099 -0.069239497 7.0047113e-39
-0.35593599 0.027056901 -0.0691811 6.2527367e-39
-0.37034401 -0.048043001 -0.13857 6.0719426e-39
-0.37171099 -0.0458537 -0.140046 5.5213121e-39
-0.37187099 -0.044060402 -0.13943601 6.1677591e-39
-0.372031 -0.042265601 -0.138826 7.7336247e-39
-0.371786 -0.0406151 -0.137523 9.2998504e-39
-0.37194699 -0.038820501 -0.136913 9.8566157e-39
-0.372107 -0.037024301 -0.13630199 9.401048e-39
-0.37186301 -0.0353816 -0.135004 9.311739e-39
-0.37162 -0.033743199 -0.13371 9.4975652e-39
-0.37178099 -0.031948902 -0.1331 9.7745108e-39
-0.37153801 -0.0303165 -0.13181099 1.0051106e-38
-0.37169901 -0.0285223 -0.131201 1.032733e-38
-0.37185901 -0.0267266 -0.13059101 1.0235136e-38
-0.371618 -0.0251018 -0.129306 9.7752395e-39
-0.37137699 -0.0234812 -0.12802599 9.4975638e-39
-0.370343 -0.022218101 -0.125424 9.7737807e-39
-0.37050301 -0.0204322 -0.124817 9.7723458e-39
-0.37226 -0.017910199 -0.126862 9.4946897e-39
-0.35699001 -0.020103799 -0.099048801 8.941153e-39
-0.35472301 -0.0196079 -0.094502203 8.8482455e-39
-0.35419101 -0.018284 -0.092819698 9.0333542e-39
-0.35366201 -0.0169673 -0.091147698 9.4003305e-39
-0.35313699 -0.0156576 -0.0894861 9.3999676e-39
-0.35228199 -0.0145284 -0.087292098 9.4936023e-39
-0.35376799 -0.0121764 -0.088910297 8.5731062e-39
-0.351253 -0.0119472 -0.0840284 9.0301355e-39
-0.34349501 -0.0146069 -0.070683599 9.0347906e-39
-0.34302899 -0.0133662 -0.069169298 8.6649389e-39
-0.34226599 -0.0122995 -0.067180403 8.4816168e-39
-0.34180799 -0.0110726 -0.065687403 8.6685206e-39
-0.34194699 -0.0095103299 -0.065156497 8.4826972e-39
-0.34178799 -0.0081201298 -0.064148501 8.7592869e-39
-0.34192801 -0.0065575801 -0.063617498 8.5723831e-39
-0.34176999 -0.0051712901 -0.062612399 8.2965137e-39
-0.34161299 -0.00378784 -0.061609901 7.6525876e-39
-0.34175199 -0.002226 -0.0610791 8.2972255e-39
-0.34159499 -0.00084644899 -0.060079601 8.2057432e-39
-0.34173501 0.00071572798 -0.059548698 8.3883366e-39
-0.341874 0.0022792299 -0.059017401 8.3861828e-39
-0.34201401 0.0038441101 -0.058485501 7.7426266e-39
-0.34245101 0.0056034299 -0.0584183 8.8486057e-39
-0.34288999 0.0073694801 -0.0583505 8.7560373e-39
-0.343932 0.0095421998 -0.059218701 8.9400586e-39
-0.344679 0.0115317 -0.0596219 8.8460777e-39
-0.352072 0.018047599 -0.070312001 8.7553184e-39
-0.35254699 0.0199205 -0.070257999 8.3901456e-39
-0.352694 0.0215725 -0.069696598 9.1244653e-39
-0.352842 0.0232259 -0.069134697 9.2148546e-39
-0.35364899 0.025348799 -0.069583699 7.7411833e-39
-0.35412899 0.027248099 -0.0695263 7.3551102e-39
-0.36778301 -0.0496196 -0.13872699 6.810553e-39
-0.36873299 -0.0475807 -0.139505 8.1935028e-39
-0.368891 -0.045798201 -0.138899 9.3978053e-39
-0.36905 -0.044014201 -0.138294 9.7741367e-39
-0.36920899 -0.042228699 -0.137687 9.8677714e-39
-0.36936799 -0.040441599 -0.13708 9.7752185e-39
-0.36952701 -0.038653102 -0.136473 9.7741423e-39
-0.36849499 -0.037315801 -0.133817 9.9571028e-39
-0.36747399 -0.035991199 -0.131189 9.8652785e-39
-0.367632 -0.034217101 -0.130586 9.8649128e-39
-0.36779001 -0.0324414 -0.12998299 1.0140415e-38
-0.36639199 -0.031304199 -0.126728 1.0417012e-38
-0.36654899 -0.029538 -0.126128 1.0233338e-38
-0.36670601 -0.027770299 -0.12552799 9.4979351e-39
-0.36686301 -0.026001099 -0.124927 8.9462033e-39
-0.36624801 -0.0245717 -0.123022 8.7603743e-39
-0.36563799 -0.023150699 -0.12113 8.9425949e-39
-0.36503199 -0.0217382 -0.11925 9.3099313e-39
-0.361451 -0.0217197 -0.112388 9.1255457e-39
-0.360145 -0.020682 -0.109358 9.2177385e-39
-0.35849801 -0.0198285 -0.105772 8.3890764e-39
-0.35444999 -0.0201739 -0.098200202 8.387996e-39
-0.35357401 -0.0190094 -0.095929801 8.6656381e-39
-0.35304299 -0.017685 -0.094240203 8.663843e-39
-0.35285401 -0.016195601 -0.093117602 8.389061e-39
-0.35266399 -0.0147098 -0.091998197 8.6660109e-39
-0.35214099 -0.0134036 -0.090330899 8.7553436e-39
-0.35228801 -0.0117482 -0.089768797 8.6652976e-39
-0.349466 -0.0117006 -0.084342897 8.2061159e-39
-0.342089 -0.0141998 -0.071498998 8.6667185e-39
-0.341627 -0.0129601 -0.069982499 8.6670786e-39
-0.34086901 -0.0118949 -0.067990199 8.3901274e-39
-0.340415 -0.010669 -0.066495098 8.6674416e-39
-0.340554 -0.0091064395 -0.065964498 8.758561e-39
-0.340397 -0.00771655 -0.0649556 8.4837776e-39
-0.34053501 -0.0061536902 -0.064424798 8.9418789e-39
-0.340379 -0.0047677099 -0.063418798 8.4812553e-39
-0.34022301 -0.0033845899 -0.062415499 7.9288102e-39
-0.34036201 -0.00182247 -0.061884999 8.4783798e-39
-0.34050101 -0.000258985 -0.061354101 8.3876177e-39
-0.34064001 0.00130585 -0.060822699 9.3999563e-39
-0.34048399 0.00268305 -0.059822898 8.2972269e-39
-0.34032899 0.0040574698 -0.058825701 9.0308445e-39
-0.340763 0.0058147502 -0.058759399 8.3890554e-39
-0.34149399 0.0077754101 -0.059159402 7.929885e-39
-0.34222999 0.0097494004 -0.059561301 8.2943501e-39
-0.34357399 0.0121466 -0.060911499 8.2035824e-39
-0.34773299 0.0164962 -0.066655301 8.2950675e-39
-0.350759 0.0201208 -0.070598103 8.3861842e-39
-0.35123101 0.0219988 -0.070544399 8.8450071e-39
-0.35137799 0.0236525 -0.069982797 8.6609732e-39
-0.35152501 0.025307599 -0.069420703 7.0972642e-39
-0.352328 0.0274389 -0.069870502 7.3533235e-39
-0.36563101 -0.051058602 -0.139569 7.2675766e-39
-0.36617899 -0.049159199 -0.139658 8.661657e-39
-0.36712199 -0.047118299 -0.14044 9.495389e-39
-0.36728001 -0.045335501 -0.139835 9.4032088e-39
-0.36743799 -0.043551099 -0.13923 9.2199007e-39
-0.367596 -0.041765299 -0.138624 9.4042892e-39
-0.36775401 -0.039977901 -0.138017 9.3135271e-39
-0.36673099 -0.038634799 -0.135354 9.3135257e-39
-0.36571899 -0.037304401 -0.132718 9.405008e-39
-0.36548799 -0.035683699 -0.13144501 9.3128236e-39
-0.36449 -0.034375198 -0.128847 9.127003e-39
-0.36464599 -0.032611702 -0.128249 9.4028612e-39
-0.36403799 -0.031164801 -0.126335 9.7727143e-39
-0.36419401 -0.0294045 -0.125737 9.4957715e-39
-0.36434999 -0.0276426 -0.125139 8.8507693e-39
-0.36336699 -0.026380001 -0.122595 9.0337242e-39
-0.36276901 -0.0249613 -0.120715 9.3124551e-39
-0.36069301 -0.024225401 -0.116327 8.3908673e-39
-0.357584 -0.0240013 -0.1102 8.391219e-39
-0.357023 -0.022626899 -0.108414 8.2079096e-39
-0.356819 -0.0210912 -0.107237 8.4801721e-39
-0.355214 -0.0202411 -0.103699 8.0210002e-39
-0.35295099 -0.0197412 -0.099069603 8.4823385e-39
-0.35208201 -0.0185785 -0.096795201 8.6642032e-39
-0.35189199 -0.0170839 -0.095665596 8.5712929e-39
-0.35203901 -0.0154189 -0.095100597 8.5705754e-39
-0.35117999 -0.0142807 -0.092858903 8.4798245e-39
-0.35066101 -0.0129756 -0.091189198 8.5727446e-39
-0.348185 -0.0127368 -0.086279303 8.2053984e-39
-0.34514099 -0.0128477 -0.080452196 8.574174e-39
-0.34128401 -0.0134586 -0.073306397 8.8478924e-39
-0.340224 -0.0125539 -0.070795901 8.577048e-39
-0.33976901 -0.0113213 -0.069286101 8.0206499e-39
-0.33931601 -0.0100949 -0.067785002 8.1121266e-39
-0.33916 -0.0087024597 -0.066772602 8.0192107e-39
-0.33929801 -0.0071383002 -0.066241801 7.8348307e-39
-0.33914301 -0.0057497402 -0.065232299 8.1099672e-39
-0.33898801 -0.0043640798 -0.064225398 7.375635e-39
-0.33912599 -0.00280064 -0.063694902 6.824615e-39
-0.338972 -0.00141885 -0.062690899 7.3741972e-39
-0.33910999 0.000144925 -0.062160298 7.9288031e-39
-0.33924901 0.00171005 -0.061629198 7.834095e-39
-0.339387 0.0032765099 -0.0610977 7.0972558e-39
-0.33923301 0.0046524 -0.0600973 7.5564459e-39
-0.339665 0.0064135501 -0.060033198 8.4794574e-39
-0.34009799 0.0081814099 -0.059968401 8.4801693e-39
-0.34082901 0.0101569 -0.060373101 7.9298793e-39
-0.34216401 0.0125569 -0.0617286 7.8344495e-39
-0.34598199 0.0166984 -0.066995598 7.9244942e-39
-0.348977 0.020320401 -0.070937298 7.5571522e-39
-0.34912199 0.0219678 -0.070378304 7.8315895e-39
-0.34991401 0.024079099 -0.070831098 8.3858254e-39
-0.350061 0.025734499 -0.070269302 7.2783975e-39
-0.350532 0.0276291 -0.070213802 7.1696259e-39
-0.364418 -0.050472502 -0.14119101 7.3648113e-39
-0.365354 -0.048437499 -0.14198001 9.0318941e-39
-0.365511 -0.0466558 -0.14137501 1.0137527e-38
-0.365668 -0.044872701 -0.140771 9.7694675e-39
-0.365825 -0.043088 -0.140166 8.8500336e-39
-0.36598301 -0.041301802 -0.13956 8.6667283e-39
-0.36574799 -0.039660901 -0.138263 8.6681731e-39
-0.364737 -0.038321499 -0.13560399 8.7585694e-39
-0.36373699 -0.0369948 -0.132971 9.0319179e-39
-0.36274701 -0.035680499 -0.130367 8.9415215e-39
-0.36176699 -0.034378599 -0.12778801 8.9418831e-39
-0.361922 -0.032623898 -0.127193 9.4014207e-39
-0.36132601 -0.031184301 -0.125293 9.2199077e-39
-0.36148 -0.0294328 -0.124699 8.8518441e-39
-0.36126101 -0.0278433 -0.123458 8.6678101e-39
-0.36067 -0.026423199 -0.121579 8.3908659e-39
-0.35898399 -0.0255097 -0.117818 8.2053984e-39
-0.35589901 -0.025267201 -0.11167 8.388345e-39
-0.35534301 -0.0238897 -0.10988 8.3883394e-39
-0.35444099 -0.022686301 -0.107504 7.9266522e-39
-0.35424301 -0.0211579 -0.106334 7.0072322e-39
-0.35335299 -0.0199733 -0.10399 6.9139492e-39
-0.35145199 -0.019308301 -0.0999391 8.3872534e-39
-0.35058999 -0.0181474 -0.097660802 8.7535163e-39
-0.350402 -0.016653299 -0.096530102 8.3843877e-39
-0.34955001 -0.0155101 -0.094282202 8.1113979e-39
-0.349365 -0.0140271 -0.093163297 8.5702167e-39
-0.34754699 -0.0134275 -0.089305602 8.3883534e-39
-0.34640199 -0.0124892 -0.086590096 8.0202911e-39
-0.34370199 -0.0124312 -0.0812869 7.7462252e-39
-0.34077501 -0.0125434 -0.075627603 8.2039537e-39
-0.33971301 -0.0116397 -0.073091596 8.113193e-39
-0.338664 -0.0107459 -0.0705861 8.0199324e-39
-0.33821401 -0.0095190899 -0.069079101 7.4674761e-39
-0.33805799 -0.0081250798 -0.068063401 7.9241382e-39
-0.33790401 -0.00673396 -0.067050397 7.4696229e-39
-0.33804199 -0.0051681399 -0.066519499 7.0090133e-39
-0.337888 -0.0037809601 -0.065509401 6.2746796e-39
-0.33773401 -0.0023966399 -0.064501897 6.1799799e-39
-0.337872 -0.000831554 -0.063971199 6.5455254e-39
-0.33830199 0.00092149503 -0.063914999 6.7288376e-39
-0.33844 0.00249168 -0.063382603 7.3713218e-39
-0.33828601 0.00387187 -0.062376499 7.4617153e-39
-0.33842501 0.00544238 -0.061843999 7.1908864e-39
-0.338563 0.0070142602 -0.061310999 7.7422455e-39
-0.33899501 0.0087860199 -0.061248399 7.5589346e-39
-0.33942801 0.0105645 -0.061184999 7.5575025e-39
-0.34045601 0.0127609 -0.062069401 7.8355243e-39
-0.343007 0.016039601 -0.065376103 7.8315853e-39
-0.34720001 0.020519501 -0.071275599 7.5575053e-39
-0.34766299 0.0223928 -0.071223699 7.8312167e-39
-0.34845001 0.024505701 -0.071679503 8.1067232e-39
-0.34859601 0.026161499 -0.071118101 7.184397e-39
-0.34906399 0.0280571 -0.071064197 6.5275005e-39
-0.36320001 -0.0498842 -0.142819 7.8254167e-39
-0.36374301 -0.047975302 -0.142915 8.5709145e-39
-0.36467999 -0.045922101 -0.143712 8.941153e-39
-0.36444601 -0.044271301 -0.142405 9.0326354e-39
-0.36421299 -0.042624801 -0.141102 9.1255485e-39
-0.364369 -0.040838301 -0.140497 9.1255401e-39
-0.36413699 -0.039197899 -0.139199 8.7567617e-39
-0.363134 -0.037860598 -0.13653401 8.572016e-39
-0.361761 -0.036686201 -0.133224 8.5712971e-39
-0.36003399 -0.035677399 -0.1293 8.2972283e-39
-0.35944301 -0.0342297 -0.12739301 8.4819755e-39
-0.359597 -0.032480899 -0.126801 9.3074174e-39
-0.35937899 -0.0308888 -0.12555701 9.2173812e-39
-0.35953301 -0.029139999 -0.124965 8.2068404e-39
-0.35894799 -0.027716599 -0.123082 8.0202995e-39
-0.35727501 -0.0267931 -0.119308 7.9284486e-39
-0.35527501 -0.026046799 -0.11498 7.1019221e-39
-0.35366401 -0.025151599 -0.111344 7.1930374e-39
-0.35277 -0.023943 -0.108962 7.0983306e-39
-0.35257301 -0.022413701 -0.10779 6.6387958e-39
-0.35272199 -0.0207191 -0.107216 5.9019594e-39
-0.35183901 -0.0195364 -0.104868 6.2685812e-39
-0.349953 -0.0188754 -0.100809 8.1110378e-39
-0.34909701 -0.0177163 -0.0985265 8.3876261e-39
-0.34891099 -0.0162226 -0.097394697 7.926299e-39
-0.347738 -0.0152548 -0.0945841 8.7531716e-39
-0.347229 -0.0139494 -0.092912696 8.1124825e-39
-0.34607899 -0.0130028 -0.090157203 7.9291731e-39
-0.344625 -0.0122423 -0.086899899 7.928457e-39
-0.342572 -0.0118411 -0.082644098 7.3763665e-39
-0.34026101 -0.0116195 -0.077970698 7.2848855e-39
-0.33919701 -0.0107171 -0.0754086 7.1944821e-39
-0.33785099 -0.0099967802 -0.072383203 7.1926842e-39
-0.337401 -0.00876824 -0.070866399 7.5578822e-39
-0.33666199 -0.0077203601 -0.068873003 7.5596633e-39
-0.33650899 -0.0063295602 -0.067859001 7.1901689e-39
-0.33664599 -0.00476345 -0.067328401 6.3632977e-39
-0.33678401 -0.0031959999 -0.066797398 6.3636396e-39
-0.336631 -0.00181017 -0.065786697 6.1796239e-39
-0.33676901 -0.000242389 -0.0652555 6.4540682e-39
-0.33690599 0.00132673 -0.064723901 6.2703818e-39
-0.337044 0.00289724 -0.064191803 6.9117856e-39
-0.33718199 0.0044690701 -0.063659303 6.0841955e-39
-0.33702999 0.00584791 -0.062652603 7.0965356e-39
-0.33716699 0.00742007 -0.062120002 7.6496995e-39
-0.337596 0.0091927703 -0.0620589 7.9252102e-39
-0.338027 0.0109722 -0.061997101 7.3713232e-39
-0.338458 0.0127585 -0.061934698 7.0983278e-39
-0.34007701 0.0153909 -0.063781701 7.4642461e-39
-0.345743 0.0209435 -0.072119497 7.5549956e-39
-0.36197701 -0.049293801 -0.144453 6.8116208e-39
-0.36290601 -0.047246601 -0.145256 7.8297566e-39
-0.36345199 -0.045320801 -0.145357 8.3858198e-39
-0.36360899 -0.043527301 -0.14475 8.2025188e-39
-0.36337501 -0.041875999 -0.143438 7.9270207e-39
-0.36275601 -0.0403747 -0.141433 7.8373348e-39
-0.362526 -0.038734801 -0.14013401 8.1139133e-39
-0.36153001 -0.037399601 -0.137465 8.204318e-39
-0.36016801 -0.036228102 -0.134149 8.0210114e-39
-0.35808399 -0.0353739 -0.129557 8.1146405e-39
-0.357501 -0.033929501 -0.127653 8.1142776e-39
-0.35765299 -0.032183401 -0.12706199 8.2961493e-39
-0.357806 -0.030435801 -0.12647 8.0210002e-39
-0.35722601 -0.029008999 -0.124583 7.5614668e-39
-0.35628799 -0.0277529 -0.122069 7.5593158e-39
-0.35429099 -0.0269954 -0.117699 7.4653209e-39
-0.35303101 -0.025928199 -0.114641 6.5469617e-39
-0.352135 -0.0247108 -0.112231 6.7299138e-39
-0.35159299 -0.0233391 -0.110446 6.6377112e-39
-0.35139701 -0.021807799 -0.10927 5.5356852e-39
-0.35120201 -0.020280199 -0.108098 4.6141017e-39
-0.350326 -0.019099399 -0.105747 5.8998028e-39
-0.349123 -0.018100601 -0.102836 7.4653223e-39
-0.34826699 -0.016941199 -0.100537 8.3851136e-39
-0.34775001 -0.0156179 -0.098827899 8.0210044e-39
-0.34625599 -0.0148265 -0.095443599 8.4801721e-39
-0.34446701 -0.0142199 -0.091564901 8.2961521e-39
-0.34397301 -0.0129288 -0.089919001 7.6511569e-39
-0.34285301 -0.0119961 -0.087208897 7.9252186e-39
-0.34112999 -0.0114237 -0.083480299 7.8341062e-39
-0.33943999 -0.0108608 -0.079821303 7.0065035e-39
-0.33867601 -0.0097857099 -0.077747501 6.7328019e-39
-0.33703199 -0.0092430199 -0.074191503 6.7338697e-39
-0.33658201 -0.0080127101 -0.0726647 6.6395259e-39
-0.33555499 -0.0071404502 -0.0701693 7.0075699e-39
-0.335403 -0.0057481402 -0.069152102 6.8231829e-39
-0.335251 -0.0043587 -0.068137497 6.6384385e-39
-0.335388 -0.00279094 -0.067606799 6.179261e-39
-0.33552501 -0.00122183 -0.067075603 6.4511774e-39
-0.335374 0.00016265101 -0.066064402 7.0936559e-39
-0.335511 0.00173206 -0.065532997 6.3575496e-39
-0.335648 0.0033028501 -0.065001197 6.0859892e-39
-0.335785 0.0048749899 -0.064469002 6.5451596e-39
-0.335922 0.0064484798 -0.063936301 7.7390253e-39
-0.33577099 0.00782598 -0.062929101 7.7401043e-39
-0.336198 0.0095995897 -0.062869497 7.5549914e-39
-0.33662501 0.0113799 -0.062809303 6.9142911e-39
-0.33705401 0.0131671 -0.062748402 7.3727553e-39
-0.337778 0.0151706 -0.063163497 7.4613636e-39
-0.36113399 -0.0485701 -0.1468 4.6007445e-39
-0.36206299 -0.0465126 -0.147615 5.8014457e-39
-0.362609 -0.044578198 -0.14771999 6.7280992e-39
-0.362376 -0.042920101 -0.1464 6.8217479e-39
-0.36214399 -0.041266501 -0.14508399 6.822471e-39
-0.361527 -0.039764501 -0.14307 6.9150268e-39
-0.36129799 -0.038122401 -0.141765 7.007221e-39
-0.36030599 -0.0367878 -0.139083 6.7324362e-39
-0.35857499 -0.035769999 -0.135074 6.7324404e-39
-0.356507 -0.034920201 -0.130472 7.1930542e-39
-0.35592899 -0.033477101 -0.128566 7.562187e-39
-0.35608 -0.0317306 -0.127975 7.928806e-39
-0.355506 -0.0303006 -0.126083 7.927727e-39
-0.35493499 -0.028878899 -0.124204 7.557871e-39
-0.35365501 -0.027788701 -0.121066 6.8228283e-39
-0.352393 -0.0267119 -0.117972 6.7306327e-39
-0.35114801 -0.025648201 -0.114918 6.2703804e-39
-0.35095099 -0.024105299 -0.113728 5.4424274e-39
-0.350411 -0.022732999 -0.111935 5.5331811e-39
-0.350216 -0.021199901 -0.110756 5.6253669e-39
-0.35002199 -0.019670499 -0.109579 7.0943734e-39
-0.34948799 -0.0183178 -0.107811 7.8358802e-39
-0.34795201 -0.0174936 -0.104292 7.6493618e-39
-0.34709999 -0.016334999 -0.101982 8.1056694e-39
-0.34658501 -0.0150112 -0.100266 7.7426308e-39
-0.34477401 -0.0143981 -0.096303098 8.387259e-39
-0.34331599 -0.0136211 -0.0929664 8.7546094e-39
-0.342509 -0.0125053 -0.090768203 8.0224449e-39
-0.341398 -0.011575 -0.088053003 7.5593144e-39
-0.33999401 -0.010831 -0.084843397 7.0065035e-39
-0.338613 -0.0100972 -0.081683703 6.7309998e-39
-0.33785 -0.0090220999 -0.079595 6.7335068e-39
-0.33679801 -0.0081324596 -0.077018999 6.5502001e-39
-0.33546701 -0.0074290098 -0.073976703 6.8256954e-39
-0.334732 -0.0063818698 -0.071960397 6.9150114e-39
-0.33429199 -0.0051648598 -0.070449203 6.4547745e-39
-0.334142 -0.00377391 -0.069431402 6.6380797e-39
-0.33399099 -0.00238583 -0.068416297 5.9019538e-39
-0.33412799 -0.00081643002 -0.067885399 6.3611229e-39
-0.33426401 0.00075432798 -0.067354098 6.5422744e-39
-0.33440101 0.0023264501 -0.066822201 6.1738716e-39
-0.33453801 0.00389993 -0.066289902 6.724879e-39
-0.33467501 0.00547475 -0.0657572 6.4526025e-39
-0.33481199 0.0070509599 -0.065223999 6.1781792e-39
-0.33494899 0.0086285304 -0.064690299 6.6380671e-39
-0.33508599 0.0102074 -0.064156197 7.1872836e-39
-0.33522299 0.0117878 -0.063621603 6.5437317e-39
-0.33593899 0.0137829 -0.064039499 7.1887228e-39
-0.33666 0.015791699 -0.064459503 7.1880067e-39
-0.36028501 -0.047841098 -0.14916401 3.3129162e-39
-0.36082599 -0.045910299 -0.14927299 3.2221513e-39
-0.36175901 -0.0438301 -0.15010101 3.1332123e-39
-0.36152601 -0.042167101 -0.148772 3.5974442e-39
-0.361294 -0.040508602 -0.147447 5.2551579e-39
-0.360677 -0.039003499 -0.145418 6.267498e-39
-0.35968301 -0.0376583 -0.142703 6.1763785e-39
-0.35907701 -0.036173701 -0.140707 5.9934292e-39
-0.357353 -0.0351592 -0.136677 5.994511e-39
-0.35529399 -0.034313999 -0.13205101 6.362932e-39
-0.35435599 -0.033024602 -0.12947901 6.7317117e-39
-0.354507 -0.031277802 -0.128888 7.1912451e-39
-0.353578 -0.030007901 -0.12634499 7.1890899e-39
-0.35265899 -0.0287496 -0.123827 6.6366476e-39
-0.35174999 -0.027502701 -0.121335 5.9934404e-39
-0.35050201 -0.026429299 -0.118244 5.9016021e-39
-0.34961501 -0.025206 -0.115808 5.7168591e-39
-0.34976199 -0.023497701 -0.115231 4.9810962e-39
-0.349224 -0.022124801 -0.11343 5.2576704e-39
-0.349031 -0.020589801 -0.112246 7.4645978e-39
-0.34883699 -0.0190586 -0.111066 8.3905072e-39
-0.34830701 -0.0177054 -0.109289 7.6533051e-39
-0.34711 -0.016710199 -0.106342 7.1923269e-39
-0.345929 -0.015726799 -0.103432 7.0987006e-39
-0.34508899 -0.0145789 -0.101134 8.4798203e-39
-0.343292 -0.0139697 -0.097162902 8.5684216e-39
-0.34184501 -0.0131959 -0.093819499 8.4780295e-39
-0.34104499 -0.0120818 -0.091617502 9.7716311e-39
-0.33994201 -0.0111539 -0.088897198 9.8645456e-39
-0.33885401 -0.0102363 -0.086210899 1.0043905e-38
-0.337479 -0.0095057404 -0.083035797 9.2155903e-39
-0.33701801 -0.00825362 -0.081454203 8.7560457e-39
-0.33656001 -0.00700795 -0.079881899 8.5698706e-39
-0.334638 -0.0066657299 -0.075793199 8.202509e-39
-0.333617 -0.0057971301 -0.073267601 8.0156108e-39
-0.333179 -0.0045797401 -0.071750402 7.0961796e-39
-0.333029 -0.0031872599 -0.070729397 6.8188823e-39
-0.33287901 -0.00179768 -0.069711097 6.2675078e-39
-0.33301499 -0.00022556 -0.069179699 6.1749478e-39
-0.332867 0.0011601 -0.068164296 5.7139725e-39
-0.33300301 0.00273252 -0.067632802 5.5320937e-39
-0.333424 0.0044988799 -0.067582697 5.5317504e-39
-0.33327499 0.0058814101 -0.066568397 5.7200821e-39
-0.33341199 0.0074579101 -0.066035502 6.2692972e-39
-0.33354801 0.0090357699 -0.065502197 6.4558353e-39
-0.33397099 0.0108172 -0.065446898 6.4533227e-39
-0.33439499 0.0126055 -0.065391101 6.1774715e-39
-0.33482099 0.0144006 -0.065334603 6.7263209e-39
-0.33524799 0.016202699 -0.065277502 6.544082e-39
-0.359045 -0.047241502 -0.150824 3.4951621e-39
-0.360358 -0.0450284 -0.152384 2.6679139e-39
-0.36129299 -0.042933401 -0.153229 2.2098126e-39
-0.36144999 -0.0411161 -0.152615 2.4853233e-39
-0.36082599 -0.039596401 -0.15054999 2.7629864e-39
-0.35943699 -0.038387399 -0.14707001 3.3172462e-39
-0.35844699 -0.0370427 -0.14434201 4.1477257e-39
-0.357844 -0.0355573 -0.14233699 5.2547754e-39
-0.355757 -0.034700099 -0.137603 5.8079463e-39
-0.35371399 -0.033859398 -0.13296799 5.7161234e-39
-0.35278299 -0.032572001 -0.130391 5.9008734e-39
-0.352934 -0.0308249 -0.12980101 6.2685728e-39
-0.35201201 -0.029557001 -0.12725399 6.1760226e-39
-0.35110101 -0.028300701 -0.124732 5.5328238e-39
-0.35019901 -0.0270558 -0.122235 4.9821668e-39
-0.348961 -0.025985099 -0.119138 5.0736393e-39
-0.34842199 -0.0245995 -0.117316 5.073991e-39
-0.34822801 -0.0230552 -0.116121 5.0747029e-39
-0.34837499 -0.021345099 -0.115544 7.4671145e-39
-0.34784099 -0.0199777 -0.113742 8.6663766e-39
-0.34764901 -0.018444501 -0.112557 8.1150021e-39
-0.34678501 -0.017266 -0.110172 7.195201e-39
-0.345597 -0.0162734 -0.107219 6.64203e-39
-0.34442601 -0.0152925 -0.104304 6.3647327e-39
-0.343593 -0.0141465 -0.102002 8.2039467e-39
-0.34212801 -0.0133648 -0.098587103 8.2003622e-39
-0.34068799 -0.0125943 -0.0952271 8.6606257e-39
-0.33989099 -0.0114811 -0.093015201 1.00457e-38
-0.33879399 -0.0105551 -0.090281896 1.0691777e-38
-0.33771101 -0.0096395798 -0.087582901 1.0692864e-38
-0.33634201 -0.0089123296 -0.084392302 1.0231532e-38
-0.33588299 -0.0076597999 -0.082804203 9.8649128e-39
-0.33542699 -0.0064137401 -0.081225596 1.0050017e-38
-0.334095 -0.0057176002 -0.0781276 1.0232606e-38
-0.332497 -0.0052105002 -0.074579097 9.8649072e-39
-0.33206099 -0.0039927498 -0.073055796 9.1269862e-39
-0.33191201 -0.0025987199 -0.072031498 9.034792e-39
-0.33176401 -0.00120762 -0.071009897 8.0231694e-39
-0.33161601 0.000180578 -0.069991 7.6540337e-39
-0.331752 0.00175435 -0.069459401 6.9179078e-39
-0.33188701 0.00332945 -0.0689274 6.6409496e-39
-0.33202299 0.0049059298 -0.068394899 7.0054245e-39
-0.33215901 0.0064837602 -0.067861997 7.372398e-39
-0.332295 0.0080629596 -0.067328602 7.4627999e-39
-0.33243099 0.0096435295 -0.066794701 6.3618572e-39
-0.33256701 0.0112255 -0.066260397 5.8111959e-39
-0.33327499 0.0132212 -0.066688098 6.2678609e-39
-0.33369899 0.0150203 -0.066633902 6.726674e-39
-0.33383599 0.016613699 -0.066095702 6.5448009e-39
-0.35818401 -0.0465036 -0.153216 4.7819338e-39
-0.35949501 -0.0442781 -0.15479501 3.311854e-39
-0.36004001 -0.042317498 -0.154916 2.3931333e-39
-0.36019599 -0.040496498 -0.154301 2.3927564e-39
-0.36035201 -0.038674101 -0.153686 1.9339348e-39
-0.35857499 -0.037617199 -0.149446 1.9335859e-39
-0.35758501 -0.036271501 -0.146695 2.5757183e-39
-0.35660601 -0.0349387 -0.14397299 2.9445008e-39
-0.35452801 -0.034086201 -0.13921399 2.7644368e-39
-0.35213301 -0.0334047 -0.133885 2.8609596e-39
-0.35121 -0.032119401 -0.131304 3.6899902e-39
-0.35135999 -0.030371999 -0.130715 4.3342596e-39
-0.35080001 -0.028945699 -0.128814 4.7966783e-39
-0.34989199 -0.027690001 -0.12627999 4.7970384e-39
-0.34899399 -0.0264458 -0.123772 4.1523977e-39
-0.34776199 -0.0253771 -0.120659 3.7829089e-39
-0.34722501 -0.023990899 -0.11883 4.8849419e-39
-0.34703201 -0.0224446 -0.11763 7.008293e-39
-0.34683901 -0.020902099 -0.116435 8.8504049e-39
-0.34664699 -0.0193634 -0.115242 8.7585764e-39
-0.34612 -0.018003199 -0.113444 8.3894226e-39
-0.34559599 -0.0166506 -0.111658 7.8369691e-39
-0.34408501 -0.0158366 -0.108097 7.2848785e-39
-0.342922 -0.0148582 -0.105176 5.7222443e-39
-0.342096 -0.0137141 -0.10287 8.3890582e-39
-0.34096101 -0.0127579 -0.100016 8.4773036e-39
-0.34015399 -0.0116341 -0.097760104 8.6577404e-39
-0.339044 -0.0106993 -0.094970599 9.1233891e-39
-0.33794799 -0.0097751496 -0.092216298 9.218449e-39
-0.33686599 -0.0088613397 -0.089496702 1.0229372e-38
-0.33520001 -0.0083169602 -0.085753202 9.7712808e-39
-0.33444801 -0.0072442498 -0.083636403 9.9563881e-39
-0.33458599 -0.0056354599 -0.083093397 1.0230098e-38
-0.33296499 -0.00512469 -0.079460703 9.8634764e-39
-0.33166 -0.0044411002 -0.076395303 1.0874736e-38
-0.33094001 -0.00340391 -0.074365199 1.0322653e-38
-0.33079201 -0.0020083401 -0.073337696 9.6754965e-39
-0.33064499 -0.00061572198 -0.072312899 8.7596414e-39
-0.33078 0.00096178998 -0.071780503 8.2097172e-39
-0.330351 0.00216084 -0.070271201 8.0231708e-39
-0.330486 0.0037362601 -0.069739498 8.1135629e-39
-0.33062199 0.00531303 -0.069207303 8.4801791e-39
-0.33075699 0.0068911701 -0.068674698 8.5730852e-39
-0.33061099 0.0082720201 -0.067658901 8.2043194e-39
-0.330746 0.0098504899 -0.0671262 7.6518729e-39
-0.33116299 0.0116338 -0.067074001 7.4678208e-39
-0.331866 0.0136311 -0.067504503 7.1894402e-39
-0.332288 0.0154311 -0.067451902 6.5426317e-39
-0.33271 0.017238099 -0.067398503 6.2671196e-39
-0.35571101 -0.0515684 -0.155257 6.3467148e-39
-0.355865 -0.049771201 -0.154651 6.712982e-39
-0.35601801 -0.0479725 -0.154044 6.3438435e-39
-0.357315 -0.0457603 -0.155625 5.2418161e-39
-0.35785401 -0.043807101 -0.15574799 4.3227423e-39
-0.359171 -0.0415527 -0.15734901 3.3114813e-39
-0.35932699 -0.039724801 -0.15673301 2.4853107e-39
-0.358706 -0.038201202 -0.154642 2.1168925e-39
-0.35809001 -0.036687098 -0.152565 2.2076518e-39
-0.35596099 -0.0358047 -0.14763799 2.1147345e-39
-0.35499001 -0.034474101 -0.144912 1.6555613e-39
-0.35292801 -0.033626199 -0.14014301 1.1052714e-39
-0.35091001 -0.032794598 -0.135473 1.3829288e-39
-0.34999099 -0.031509899 -0.13288 2.0268521e-39
-0.35014001 -0.0297591 -0.13228901 2.4842331e-39
-0.349231 -0.0284939 -0.12972499 2.9419813e-39
-0.34832999 -0.0272402 -0.127186 2.8505129e-39
-0.347785 -0.025833599 -0.125314 2.5760812e-39
-0.346558 -0.024767 -0.122186 3.5898688e-39
-0.34602401 -0.023380101 -0.120348 7.0925671e-39
-0.345494 -0.022001199 -0.118523 8.2068376e-39
-0.345303 -0.020459101 -0.117326 8.4794728e-39
-0.34511399 -0.0189208 -0.116132 8.1132112e-39
-0.34459001 -0.0175617 -0.114332 7.8387781e-39
-0.344071 -0.0162104 -0.112542 7.5621772e-39
-0.342246 -0.0155762 -0.108381 7.4671075e-39
-0.34141901 -0.0144239 -0.106049 6.1806917e-39
-0.34060001 -0.0132815 -0.103738 7.0983306e-39
-0.33947301 -0.0123279 -0.100879 7.0050616e-39
-0.33930001 -0.0108455 -0.0997499 7.2823561e-39
-0.33850199 -0.0097310496 -0.0974987 7.8333747e-39
-0.33740401 -0.0088083399 -0.0947152 8.4776511e-39
-0.336016 -0.0080780303 -0.091422901 8.3869114e-39
-0.33375901 -0.0078996802 -0.086589098 8.1160811e-39
-0.33330601 -0.0066477698 -0.0849922 8.9454662e-39
-0.33315 -0.0052195201 -0.083926 1.0047136e-38
-0.33154199 -0.00471234 -0.080285802 9.4032102e-39
-0.331103 -0.0034836901 -0.078729399 9.9552951e-39
-0.33038199 -0.00244576 -0.076679498 9.5854532e-39
-0.32966799 -0.0014161 -0.074648097 9.0337172e-39
-0.32980299 0.000165181 -0.074114799 8.667443e-39
-0.32965699 0.00155829 -0.073087104 8.3915904e-39
-0.32923001 0.0027576601 -0.071571797 8.1157139e-39
-0.32908499 0.0041431398 -0.070551701 8.3908701e-39
-0.32922 0.0057202098 -0.070019796 8.4827098e-39
-0.329355 0.0072986302 -0.069487497 8.2979542e-39
-0.32921001 0.0086791804 -0.068470798 8.2043208e-39
-0.32934499 0.0102579 -0.067938402 8.2028761e-39
-0.32947999 0.011838 -0.0674055 8.2957878e-39
-0.330457 0.014041 -0.068321101 8.1103302e-39
-0.331159 0.0160535 -0.068756603 8.0156066e-39
-0.33158001 0.017864499 -0.068705499 7.0032217e-39
-0.35423699 -0.0493045 -0.155596 6.1641046e-39
-0.35439 -0.047505502 -0.15499 6.5300102e-39
-0.35567701 -0.045290399 -0.15657599 5.79462e-39
-0.35621199 -0.043336 -0.156701 5.5155206e-39
-0.35713401 -0.0412261 -0.157566 4.3227493e-39
-0.35728899 -0.0394012 -0.156951 3.7717349e-39
-0.35667601 -0.037881199 -0.154863 3.67774e-39
-0.356067 -0.036370602 -0.15279 3.0341727e-39
-0.35433599 -0.035337899 -0.148581 2.2072931e-39
-0.35300401 -0.034166001 -0.145147 1.4726119e-39
-0.35132799 -0.033166099 -0.14107101 1.0145093e-39
-0.34932601 -0.032338999 -0.136392 1.1985292e-39
-0.34841499 -0.0310564 -0.13379499 1.3814785e-39
-0.34856299 -0.029305199 -0.133205 1.4726007e-39
-0.34766099 -0.028042 -0.13063601 1.3807722e-39
-0.347114 -0.026626499 -0.12874199 1.3797031e-39
-0.34622699 -0.025385 -0.12621699 2.5742918e-39
-0.345011 -0.0243211 -0.123084 6.1680997e-39
-0.34448099 -0.0229354 -0.121243 8.6652836e-39
-0.344291 -0.0213877 -0.120039 8.4834175e-39
-0.34376699 -0.020016 -0.118217 8.2053914e-39
-0.34357899 -0.018478099 -0.117022 8.2057544e-39
-0.343061 -0.0171203 -0.115219 7.562557e-39
-0.34254599 -0.015769999 -0.113427 6.8253521e-39
-0.34073499 -0.0151399 -0.109258 6.6409538e-39
-0.33991501 -0.0139895 -0.106921 6.7317075e-39
-0.33941999 -0.0126697 -0.105187 5.994504e-39
-0.33892801 -0.0113571 -0.103465 6.1796043e-39
-0.338126 -0.010234 -0.101181 5.9955858e-39
-0.337955 -0.0087532597 -0.100052 6.6380811e-39
-0.337163 -0.0076472699 -0.097798802 7.1901689e-39
-0.33576801 -0.00692133 -0.094460897 7.8319454e-39
-0.33290601 -0.00712041 -0.088488303 7.5607409e-39
-0.33186901 -0.00623143 -0.085826002 7.6504282e-39
-0.331714 -0.0048035402 -0.084758803 8.4787441e-39
-0.33098099 -0.0037489301 -0.082656197 8.9400796e-39
-0.33025399 -0.0027028101 -0.080572903 9.1259044e-39
-0.32981899 -0.0014786799 -0.079015397 8.6667353e-39
-0.329386 -0.00026075999 -0.077467203 8.7567674e-39
-0.32895699 0.00095100602 -0.075928003 8.3901372e-39
-0.32853001 0.00215669 -0.074397698 8.2057642e-39
-0.32782701 0.00316493 -0.072384998 8.2968752e-39
-0.32768399 0.0045500798 -0.071364 8.294713e-39
-0.32781801 0.0061274399 -0.070832498 8.2950815e-39
-0.327952 0.0077061802 -0.070300497 8.0210156e-39
-0.32780901 0.0090864003 -0.0692828 8.7549583e-39
-0.327943 0.0106654 -0.068750702 8.3872421e-39
-0.32807699 0.0122459 -0.068218097 8.0188576e-39
-0.32904801 0.014451 -0.069137797 7.6515198e-39
-0.32974499 0.016465001 -0.0695761 7.5618297e-39
-0.33016399 0.018277001 -0.069526598 7.8348181e-39
-0.352761 -0.047038399 -0.155935 6.3459833e-39
-0.35291299 -0.0452375 -0.155329 5.9779294e-39
-0.35419199 -0.043008201 -0.156918 5.5169597e-39
-0.35472399 -0.0410478 -0.157043 5.0588626e-39
-0.35487801 -0.039229099 -0.15643001 4.5993334e-39
-0.35330299 -0.036364399 -0.151567 3.6806085e-39
-0.351605 -0.035336901 -0.147392 2.8526443e-39
-0.35066199 -0.0340151 -0.14468201 2.0247025e-39
-0.34972799 -0.032705899 -0.142 1.6584409e-39
-0.34774199 -0.031883299 -0.137312 1.3836407e-39
-0.346838 -0.030602699 -0.13471 1.1985376e-39
-0.346986 -0.0288513 -0.13412 1.1974754e-39
-0.34643799 -0.0274268 -0.13220499 7.3866786e-40
-0.34554899 -0.026175801 -0.12965 1.2900312e-39
-0.345011 -0.0247698 -0.127767 4.0526378e-39
-0.34380001 -0.0237079 -0.124618 8.2014272e-39
-0.34327301 -0.022321699 -0.122769 8.8486071e-39
-0.34275001 -0.0209434 -0.120933 8.8493203e-39
-0.342563 -0.019399799 -0.11973 8.2986689e-39
-0.34237599 -0.0178601 -0.118532 8.4823357e-39
-0.34153101 -0.0166787 -0.116107 7.5607633e-39
-0.34101999 -0.0153296 -0.114312 6.9143289e-39
-0.33922401 -0.0147036 -0.110134 6.8257164e-39
-0.338411 -0.013555 -0.107793 6.8228185e-39
-0.33855301 -0.0118746 -0.107228 5.9919676e-39
-0.33806199 -0.0105599 -0.105493 6.2674825e-39
-0.33757401 -0.0092524998 -0.103769 6.4526137e-39
-0.33740199 -0.00776579 -0.10263 6.6373693e-39
-0.33691999 -0.0064710099 -0.100923 6.1778275e-39
-0.33675 -0.0049932399 -0.099792801 5.9937921e-39
-0.334438 -0.00485049 -0.094758697 6.822464e-39
-0.33043101 -0.0058150198 -0.086659797 8.3822395e-39
-0.33027801 -0.00438747 -0.085591599 8.7506451e-39
-0.32983699 -0.00314904 -0.084005103 7.9248543e-39
-0.32968599 -0.00172959 -0.082945101 7.4656712e-39
-0.32925001 -0.00050250202 -0.081373297 7.1001369e-39
-0.329101 0.00090897601 -0.080321401 7.8355425e-39
-0.32895201 0.00231743 -0.079272397 8.1128371e-39
-0.32767799 0.0029490001 -0.076212198 7.9295276e-39
-0.32697701 0.0039569899 -0.074185297 7.8362488e-39
-0.32655799 0.0051509799 -0.072666802 8.0181275e-39
-0.32641599 0.0065347301 -0.0716452 8.5705796e-39
-0.32627401 0.0079156701 -0.070626304 8.2039551e-39
-0.326408 0.0094936602 -0.070095003 7.8366047e-39
-0.32654101 0.011073 -0.069563203 7.6525806e-39
-0.326675 0.0126537 -0.069030903 8.1096085e-39
-0.32708499 0.0144436 -0.068982102 8.1106791e-39
-0.327773 0.0164518 -0.0694189 8.2028719e-39
-0.32874599 0.0186895 -0.070347801 7.8380481e-39
-0.32916301 0.020509399 -0.070299298 7.5585969e-39
-0.349264 -0.035181899 -0.146918 3.1285123e-39
-0.348335 -0.033865299 -0.14421999 2.3924032e-39
-0.34671 -0.032874499 -0.140182 1.7502806e-39
-0.345808 -0.031585399 -0.137557 1.3825799e-39
-0.34526101 -0.0301491 -0.135625 1.3804303e-39
-0.34540901 -0.028397299 -0.13503499 1.3800674e-39
-0.34486499 -0.026974 -0.133118 1.1978257e-39
-0.34398401 -0.0257251 -0.130559 3.1292508e-39
-0.34345099 -0.0243202 -0.128672 7.366633e-39
-0.34224901 -0.023261201 -0.125517 8.8503979e-39
-0.34172699 -0.0218761 -0.123666 8.4812623e-39
-0.34154001 -0.020326899 -0.122456 8.3894268e-39
-0.341023 -0.018955899 -0.120624 8.3890708e-39
-0.34083799 -0.0174165 -0.119424 8.4798161e-39
-0.34000099 -0.016237101 -0.116994 7.834095e-39
-0.339495 -0.0148892 -0.115197 8.1088882e-39
-0.337713 -0.0142672 -0.111011 7.1894501e-39
-0.337538 -0.0127604 -0.109849 5.8083191e-39
-0.33704799 -0.0114397 -0.1081 5.2562215e-39
-0.33719 -0.0097574703 -0.107534 5.5303015e-39
-0.33701599 -0.0082612401 -0.106382 4.5151e-39
-0.336844 -0.0067685 -0.105234 6.3582657e-39
-0.33698499 -0.0050875102 -0.104668 6.2682182e-39
-0.33744201 -0.0032099299 -0.104683 5.6235761e-39
-0.33949399 -0.00032203301 -0.107636 5.8976378e-39
-0.328841 -0.0039713401 -0.086424597 6.4504487e-39
-0.32840499 -0.00273391 -0.084835798 6.0838298e-39
-0.32854 -0.0011261899 -0.0842949 6.1753093e-39
-0.32839 0.00029177801 -0.083234303 5.9026727e-39
-0.32852599 0.00189977 -0.082693301 7.0032637e-39
-0.32809299 0.00311863 -0.081121601 6.8199529e-39
-0.327663 0.0043313 -0.079559296 6.5465946e-39
-0.326121 0.0047539701 -0.075996801 7.1937604e-39
-0.325703 0.00594948 -0.074468397 8.0184764e-39
-0.32528701 0.0071390402 -0.072948903 8.5673412e-39
-0.32487401 0.0083227297 -0.071438298 8.2961423e-39
-0.32500601 0.0099010104 -0.070907198 8.3825982e-39
-0.32486701 0.0112777 -0.069890402 7.9284416e-39
-0.32499999 0.0128564 -0.069359198 7.9252088e-39
-0.32540599 0.0146441 -0.069311403 7.834797e-39
-0.326087 0.016650099 -0.069748797 7.8319342e-39
-0.32677299 0.018669801 -0.0701885 7.9241452e-39
-0.327185 0.0204843 -0.070140101 8.4765917e-39
-0.328159 0.0227508 -0.071074598 5.984112e-39
-0.344973 -0.034180399 -0.141697 3.1267425e-39
-0.34477299 -0.032574002 -0.140422 2.3920571e-39
-0.34334201 -0.0298553 -0.13587201 1.4758447e-39
-0.34348801 -0.0281062 -0.13528401 1.5669572e-39
-0.34295201 -0.0266861 -0.133369 2.8526569e-39
-0.342419 -0.0252742 -0.131467 5.6167223e-39
-0.34189001 -0.023870699 -0.12957799 8.5712859e-39
-0.34069899 -0.0228143 -0.126417 8.4830601e-39
-0.34018099 -0.0214305 -0.124563 8.3890722e-39
-0.33999601 -0.019881699 -0.123352 8.3897841e-39
-0.33948401 -0.0185118 -0.121517 7.9291689e-39
-0.33930099 -0.016972899 -0.120316 7.1919598e-39
-0.33879399 -0.0156168 -0.118499 7.4671033e-39
-0.33796901 -0.0144486 -0.116083 7.1905305e-39
-0.337152 -0.0132906 -0.11369 6.176024e-39
-0.33634299 -0.0121427 -0.11132 5.4399079e-39
-0.33616999 -0.0106377 -0.110157 5.3473549e-39
-0.33662701 -0.0087623997 -0.110184 4.9814423e-39
-0.336768 -0.0070700501 -0.109615 3.0446362e-39
-0.33691001 -0.00537623 -0.109045 5.7125361e-39
-0.33705199 -0.0036809701 -0.108475 5.8094023e-39
-0.339762 -0.00037268701 -0.112697 5.8065282e-39
-0.32754001 -0.00194348 -0.086715899 4.8888893e-39
-0.32710701 -0.000710694 -0.085125998 5.6239236e-39
-0.32752499 0.0010911101 -0.085107103 6.4511704e-39
-0.32765999 0.0027044599 -0.084564596 6.6334022e-39
-0.32722801 0.0039249002 -0.0829826 5.9912726e-39
-0.32679901 0.0051391502 -0.081409901 5.0739966e-39
-0.32581401 0.0059503401 -0.078829899 5.8086792e-39
-0.32484201 0.0067529501 -0.076281197 6.4525997e-39
-0.32442701 0.007944 -0.074751802 7.4645908e-39
-0.324287 0.0093296999 -0.073724002 7.8340754e-39
-0.323605 0.0103084 -0.071719602 7.8290615e-39
-0.32346699 0.0116848 -0.0707018 7.9248543e-39
-0.32359901 0.0132637 -0.070170999 7.3738413e-39
-0.324002 0.0150524 -0.070124701 7.6475415e-39
-0.32467899 0.0170599 -0.070564903 7.4642251e-39
-0.32536 0.0190812 -0.071007401 7.8315755e-39
-0.32576901 0.020896699 -0.070960604 8.2896795e-39
-0.32729399 0.0236143 -0.072891198 6.3460365e-39
-0.34157401 -0.0278161 -0.13553099 1.7509827e-39
-0.34138101 -0.026234001 -0.13428 4.0533441e-39
-0.34085301 -0.024823399 -0.132376 8.0163114e-39
-0.34032899 -0.023421001 -0.130484 9.12591e-39
-0.338819 -0.0225369 -0.12667701 8.7585694e-39
-0.338635 -0.0209847 -0.12546 8.6656535e-39
-0.338126 -0.019610001 -0.123616 8.3887023e-39
-0.337944 -0.018067701 -0.12241 7.1930402e-39
-0.33776301 -0.016529201 -0.121208 7.3756294e-39
-0.33726099 -0.0151743 -0.119389 7.2809282e-39
-0.33676201 -0.0138271 -0.117581 6.7266852e-39
-0.33626601 -0.0124874 -0.115785 5.7157717e-39
-0.33609101 -0.0109704 -0.114606 5.5324609e-39
-0.33623299 -0.0092693297 -0.114035 5.1629707e-39
-0.33669299 -0.0073757102 -0.114068 4.1491859e-39
-0.336835 -0.0056688902 -0.113495 3.7786013e-39
-0.33697701 -0.0039606299 -0.112921 5.255518e-39
-0.338083 -0.0016478701 -0.114166 4.6130311e-39
-0.33919901 0.00068981602 -0.115423 5.0682415e-39
-0.329227 0.0067519401 -0.090163797 6.909629e-39
-0.32592899 0.00595211 -0.083272196 6.1756583e-39
-0.32578301 0.0073629799 -0.082213603 5.9927159e-39
-0.322335 0.0122961 -0.072001301 6.6373511e-39
-0.32246599 0.0138778 -0.071469903 6.2692944e-39
-0.323138 0.0158806 -0.071915098 7.0947419e-39
-0.323814 0.0178972 -0.072362497 6.8192214e-39
-0.324494 0.0199276 -0.0728122 6.5447967e-39
-0.32573199 0.0224171 -0.074260399 7.3683833e-39
-0.33966601 -0.0275269 -0.13577799 3.3139882e-39
-0.33947599 -0.025947699 -0.13452899 6.4482683e-39
-0.33895499 -0.024540201 -0.132627 8.9418677e-39
-0.338438 -0.0231409 -0.13073801 9.2177343e-39
-0.337271 -0.022090601 -0.127575 8.7581981e-39
-0.337089 -0.0205389 -0.126358 7.9298906e-39
-0.336584 -0.0191654 -0.124511 7.4671131e-39
-0.336404 -0.0176236 -0.123304 7.2819988e-39
-0.336225 -0.0160855 -0.1221 7.0972572e-39
-0.33604699 -0.0145511 -0.1209 6.2682252e-39
-0.33586901 -0.0130205 -0.119704 6.2671392e-39
-0.33537501 -0.0116787 -0.117895 5.715413e-39
-0.33551601 -0.0099702301 -0.117322 5.3473493e-39
-0.33565801 -0.0082603004 -0.116748 4.3339303e-39
-0.336119 -0.0063551301 -0.116786 3.9655065e-39
-0.33658099 -0.0044420599 -0.116824 4.3332044e-39
-0.33672401 -0.0027219399 -0.116247 5.6246537e-39
-0.337511 -0.00059211103 -0.116899 5.3455641e-39
-0.33765501 0.00113678 -0.116319 4.6079934e-39
-0.33844799 0.00328992 -0.116973 5.9887461e-39
-0.33776399 -0.027238701 -0.136024 5.4319639e-39
-0.337248 -0.0258279 -0.13411801 8.4776483e-39
-0.33706301 -0.0242579 -0.13287801 9.0355038e-39
-0.33655301 -0.0228616 -0.130992 8.9429439e-39
-0.335722 -0.0216443 -0.128474 8.2993807e-39
-0.33554199 -0.0200931 -0.12725499 7.1952024e-39
-0.335363 -0.0185456 -0.12604 7.0068595e-39
-0.33486399 -0.017179299 -0.124197 6.9143037e-39
-0.33468699 -0.0156417 -0.122993 6.4529724e-39
-0.334829 -0.0139258 -0.122417 6.0841899e-39
-0.33465201 -0.0123933 -0.121216 5.625374e-39
-0.33447701 -0.0108645 -0.120019 5.2562397e-39
-0.334618 -0.0091499398 -0.119444 4.5208369e-39
-0.335078 -0.0072409902 -0.119488 3.7839935e-39
-0.33553901 -0.0053241299 -0.119532 3.3201455e-39
-0.335682 -0.0035993599 -0.118953 4.336447e-39
-0.33582401 -0.00187311 -0.118374 5.8093925e-39
-0.33628801 6.0553499e-05 -0.118415 5.3455585e-39
-0.336431 0.0017927 -0.117834 4.6097829e-39
-0.33689699 0.0037388301 -0.117872 5.3437396e-39
-0.33704099 0.0054769199 -0.117289 5.8972763e-39
-0.33539999 -0.02885 -0.136188 4.7851638e-39
-0.33554301 -0.027114701 -0.135607 7.2765926e-39
-0.33535999 -0.0255436 -0.13436601 8.8500336e-39
-0.33517799 -0.023976499 -0.133128 8.6674514e-39
-0.33435199 -0.0227526 -0.130596 8.5745369e-39
-0.33417299 -0.021198001 -0.129373 8.0210114e-39
-0.33399501 -0.0196472 -0.128153 7.4671244e-39
-0.33381799 -0.0181001 -0.126937 7.1908934e-39
-0.33364099 -0.0165569 -0.125724 6.4533354e-39
-0.33346501 -0.0150174 -0.124515 6.2693e-39
-0.33329001 -0.0134816 -0.12331 5.9008762e-39
-0.33343101 -0.0117639 -0.122734 5.4409827e-39
-0.333572 -0.0100447 -0.122158 5.3473507e-39
-0.33371401 -0.0083240401 -0.121581 4.4261189e-39
-0.333855 -0.0066019199 -0.121004 2.7712849e-39
-0.334315 -0.0046803998 -0.121051 3.414139e-39
-0.33477601 -0.0027508701 -0.121097 5.5324623e-39
-0.33491799 -0.00101844 -0.120516 5.9008818e-39
-0.33538201 0.00092356303 -0.120561 5.3473521e-39
-0.33552399 0.0026619399 -0.119978 5.2515552e-39
-0.33566701 0.0044017802 -0.119395 4.4271741e-39
-0.335489 0.0059261899 -0.118189 3.9683651e-39
-0.336925 0.0085501401 -0.120105 5.439552e-39
-0.33369601 -0.0301347 -0.137676 3.6809756e-39
-0.33383799 -0.0284006 -0.137095 5.8947414e-39
-0.33397999 -0.0266649 -0.13651399 8.7545981e-39
-0.333799 -0.025094399 -0.135271 8.7592855e-39
-0.333298 -0.023696 -0.133378 8.4830615e-39
-0.33280101 -0.022305701 -0.131496 8.4801833e-39
-0.33262399 -0.020751501 -0.130272 8.202523e-39
-0.33244801 -0.0192012 -0.129051 8.0202897e-39
-0.332589 -0.017477401 -0.128473 7.2827289e-39
-0.33209801 -0.0161117 -0.12661999 6.4504641e-39
-0.332239 -0.0143908 -0.12604301 5.991281e-39
-0.332064 -0.0128532 -0.124834 5.807603e-39
-0.332205 -0.0111323 -0.124257 5.2565802e-39
-0.33266199 -0.0092192898 -0.124311 4.427544e-39
-0.33280301 -0.0074924701 -0.123733 3.0421041e-39
-0.33294401 -0.0057641901 -0.123154 3.0374405e-39
-0.33340299 -0.0038343701 -0.123205 5.43811e-39
-0.333545 -0.0021001601 -0.122624 6.4515319e-39
-0.33400601 -0.000157879 -0.122673 5.9008762e-39
-0.33446801 0.0017925299 -0.122722 5.8997874e-39
-0.334611 0.0035371401 -0.122137 5.5299315e-39
-0.33475399 0.0052832402 -0.121553 5.0707596e-39
-0.33457601 0.0068116798 -0.120339 2.9567412e-39
-0.33536199 0.0090028998 -0.121011 4.2449675e-39
-0.33779401 0.0123596 -0.124884 5.7154046e-39
-0.34550101 0.031650499 -0.132618 6.0823976e-39
-0.34565201 0.0334998 -0.131999 6.9110695e-39
-0.34580299 0.0353508 -0.13137899 6.2624589e-39
-0.34595501 0.037203401 -0.130758 4.3227353e-39
-0.34610701 0.039057501 -0.130137 3.7717251e-39
-0.33231401 -0.0312627 -0.13982999 3.6806197e-39
-0.33213499 -0.0296856 -0.13858201 4.8791573e-39
-0.331956 -0.0281124 -0.137337 7.7390113e-39
-0.33209699 -0.026379401 -0.136758 8.9415159e-39
-0.332239 -0.024645001 -0.136177 8.4819839e-39
-0.33174199 -0.023247899 -0.13428099 8.2961535e-39
-0.33125001 -0.0218588 -0.132397 8.1103189e-39
-0.33107501 -0.020305 -0.131171 7.9273626e-39
-0.33121499 -0.0185795 -0.130593 7.1926857e-39
-0.33104101 -0.017031001 -0.129372 6.6384399e-39
-0.33086699 -0.0154863 -0.12815399 6.3596978e-39
-0.33069399 -0.0139453 -0.126939 5.9905551e-39
-0.33083501 -0.0122226 -0.12636299 5.5292281e-39
-0.330975 -0.0104985 -0.12578601 4.8874404e-39
-0.33142999 -0.0085808197 -0.125843 2.9517091e-39
-0.33157 -0.0068507502 -0.125264 1.4747924e-39
-0.33202699 -0.0049206698 -0.125319 2.3005888e-39
-0.33248499 -0.0029825401 -0.125374 5.8057981e-39
-0.33294499 -0.00103629 -0.125429 6.7281174e-39
-0.333087 0.00070861698 -0.124845 5.7175682e-39
-0.33354899 0.00266751 -0.124898 5.9912572e-39
-0.333691 0.0044184299 -0.124312 5.3480682e-39
-0.33383399 0.0061708302 -0.123725 4.9742774e-39
-0.33365601 0.0077033001 -0.122504 3.7832662e-39
-0.33412001 0.0096801799 -0.122551 5.4391708e-39
-0.33523199 0.0121242 -0.123873 6.0830857e-39
-0.33635601 0.014595 -0.12520801 5.4402638e-39
-0.336501 0.0163732 -0.124612 5.4391736e-39
-0.33664599 0.0181529 -0.124017 5.4344919e-39
-0.338117 0.0209205 -0.126008 6.0809249e-39
-0.341317 0.025014499 -0.13135301 5.9909055e-39
-0.34285501 0.027898099 -0.133442 5.8980092e-39
-0.343005 0.029738 -0.132826 5.5324567e-39
-0.343155 0.031579498 -0.13221 6.0827564e-39
-0.34330499 0.033422701 -0.131593 7.1865578e-39
-0.34345499 0.035267401 -0.13097601 6.8184997e-39
-0.343606 0.0371137 -0.130358 4.327787e-39
-0.34375599 0.038961601 -0.12974 4.4142247e-39
-0.33074999 -0.030812999 -0.140738 3.68134e-39
-0.33089101 -0.029076699 -0.140157 6.1720485e-39
-0.33071399 -0.027501499 -0.138908 8.848593e-39
-0.330854 -0.0257653 -0.138328 8.9425963e-39
-0.33067799 -0.0241955 -0.13708299 8.2975899e-39
-0.33018601 -0.0227996 -0.135184 7.8366117e-39
-0.33001199 -0.0212401 -0.13395 7.6532925e-39
-0.32983801 -0.0196844 -0.13271999 7.0079315e-39
-0.32966501 -0.018132599 -0.131493 6.637721e-39
-0.32949299 -0.016584501 -0.13027 6.3600635e-39
-0.329321 -0.0150402 -0.129051 6.1753135e-39
-0.32914999 -0.0134997 -0.12783501 5.8976434e-39
-0.32929 -0.0117767 -0.127259 4.8834943e-39
-0.329741 -0.0098623903 -0.12731899 3.4108698e-39
-0.33019301 -0.0079400996 -0.12738 1.9335943e-39
-0.33064699 -0.0060097799 -0.12743901 1.288948e-39
-0.331103 -0.00407134 -0.127499 2.0272263e-39
-0.332196 -0.0017141 -0.128848 5.4395296e-39
-0.33233801 3.8607501e-05 -0.128262 6.6366322e-39
-0.33248001 0.00179285 -0.127676 6.0849116e-39
-0.332623 0.00354857 -0.127088 5.8076002e-39
-0.33276501 0.0053058001 -0.12650099 5.715399e-39
-0.332908 0.00706456 -0.12591299 5.3455487e-39
-0.33273 0.0086010899 -0.124684 5.2540649e-39
-0.33287299 0.0103598 -0.124096 5.7146843e-39
-0.333657 0.0125805 -0.124786 5.8969218e-39
-0.334773 0.015054 -0.12612601 5.5299455e-39
-0.33491701 0.016832599 -0.125531 4.5154335e-39
-0.335388 0.0188557 -0.12558199 4.326722e-39
-0.33618999 0.021135099 -0.12628201 5.6170853e-39
-0.336997 0.023432 -0.126987 5.4384407e-39
-0.33984199 0.0273111 -0.13168401 5.989095e-39
