# .PCD v0.7 - Point Cloud Data file format
VERSION 0.7
FIELDS x y z rgb
SIZE 4 4 4 4
TYPE F F F F
COUNT 1 1 1 1
WIDTH 1000
HEIGHT 1
VIEWPOINT 0 0 0 1 0 0 0
POINTS 1000
DATA ascii
-0.339726 0.0129239 -0.077731401 8.2979542e-39
-0.33938 0.0146249 -0.077645898 8.2954389e-39
-0.33903599 0.016322101 -0.077560998 8.1117567e-39
-0.33898199 0.017988499 -0.078024097 7.3749203e-39
-0.33863899 0.019680699 -0.0779396 6.6373707e-39
-0.33829701 0.0213692 -0.077855803 6.6369979e-39
-0.33853301 0.0230157 -0.078866199 6.728116e-39
-0.33848 0.0246854 -0.079330102 6.5458813e-39
-0.339008 0.026328599 -0.080897801 6.5447995e-39
-0.338954 0.028006401 -0.081363998 6.8188725e-39
-0.33977899 0.0296591 -0.083502904 6.3607768e-39
-0.340314 0.031335201 -0.085097097 6.5433548e-39
-0.34145099 0.033016 -0.087842502 6.9099709e-39
-0.36699399 0.042416301 -0.13995101 8.7517241e-39
-0.36539999 0.044300798 -0.137536 7.2769583e-39
-0.35721999 -0.023958201 -0.102816 1.0217821e-38
-0.35611501 -0.0218671 -0.10139 9.5757072e-39
-0.35502201 -0.0197955 -0.099978097 9.3898894e-39
-0.35496399 -0.018012401 -0.100474 9.2073044e-39
-0.35456401 -0.016140699 -0.100337 9.3992627e-39
-0.353825 -0.0141905 -0.099569403 1.1890336e-38
-0.35308999 -0.0122517 -0.098807797 1.1611961e-38
-0.351693 -0.0101724 -0.096810602 1.2070052e-38
-0.35031399 -0.0081190197 -0.094840199 1.1060585e-38
-0.34927699 -0.00615928 -0.093501203 1.0784707e-38
-0.347929 -0.0041526398 -0.091575801 1.0783984e-38
-0.34471899 -0.00180865 -0.086158797 1.050812e-38
-0.34251499 0.000296251 -0.082610898 1.0049303e-38
-0.33976901 0.0024597 -0.078031503 1.0233331e-38
-0.339421 0.0041789901 -0.077942997 9.2192015e-39
-0.33907399 0.0058943601 -0.0778552 9.2206252e-39
-0.33902001 0.0075624799 -0.078319103 8.390161e-39
-0.33896601 0.0092320498 -0.0787834 7.4678614e-39
-0.33862001 0.0109412 -0.078695603 7.6554813e-39
-0.33827499 0.0126465 -0.078608401 7.7451546e-39
-0.33793101 0.0143479 -0.078521997 7.8344761e-39
-0.33758801 0.0160455 -0.078436203 8.0199254e-39
-0.33753499 0.017712001 -0.078899696 6.9143205e-39
-0.33719301 0.0194047 -0.078814201 6.2689651e-39
-0.33713901 0.0210714 -0.079277799 6.5455338e-39
-0.33708501 0.0227396 -0.079741701 6.4511774e-39
-0.33703199 0.0244094 -0.080206104 6.0849102e-39
-0.33755401 0.0260517 -0.081776798 5.901249e-39
-0.33779001 0.0277176 -0.0827998 6.360767e-39
-0.33831701 0.029380901 -0.0843869 6.3600411e-39
-0.33884799 0.031056199 -0.085984297 6.5437149e-39
-0.33997399 0.032735199 -0.088735797 6.5426317e-39
-0.36266601 0.042013701 -0.13581599 9.3063314e-39
-0.36260399 0.043938201 -0.136351 8.4798119e-39
-0.35454699 -0.0221697 -0.102338 9.2069401e-39
-0.35346001 -0.0200966 -0.100922 9.2083736e-39
-0.35340199 -0.0183134 -0.101418 9.3905915e-39
-0.35300401 -0.016441301 -0.101279 1.0127827e-38
-0.35226899 -0.01449 -0.10051 1.1707381e-38
-0.35153899 -0.0125502 -0.099745303 1.1243882e-38
-0.35081401 -0.0106219 -0.098986603 1.1243527e-38
-0.34976399 -0.0086316299 -0.097613499 1.1059503e-38
-0.34872499 -0.00665962 -0.096254401 1.0690356e-38
-0.34705201 -0.0045742402 -0.093696699 1.0324823e-38
-0.34353501 -0.0021553901 -0.087643698 1.0141867e-38
-0.341039 1.2991e-05 -0.083503202 9.7712934e-39
-0.33831301 0.0021804599 -0.078911699 9.3099622e-39
-0.33825901 0.0038509001 -0.079376698 9.218114e-39
-0.338204 0.0055228001 -0.079842098 9.0340857e-39
-0.33785799 0.0072401999 -0.079751901 8.2043377e-39
-0.33751199 0.0089537101 -0.079662502 8.2046838e-39
-0.33716801 0.0106633 -0.079573698 7.197359e-39
-0.33711401 0.0123332 -0.080038503 8.113193e-39
-0.33677 0.0140378 -0.079950102 7.6518743e-39
-0.33642799 0.0157385 -0.079862401 6.9157554e-39
-0.33608699 0.0174354 -0.0797754 6.455506e-39
-0.336032 0.0191033 -0.080239601 6.2689497e-39
-0.33569199 0.020795301 -0.080153003 6.4562108e-39
-0.33563799 0.0224635 -0.080617301 5.901242e-39
-0.33586901 0.024115801 -0.081634901 5.81084e-39
-0.33638799 0.025759799 -0.083213001 5.257676e-39
-0.33691099 0.027415499 -0.084801398 5.3495115e-39
-0.33743599 0.029083099 -0.086400203 6.1753051e-39
-0.33825901 0.030755499 -0.088580899 6.5426345e-39
-0.33938599 0.032440599 -0.091362298 6.3582446e-39
-0.342969 0.0341332 -0.098949902 6.4497074e-39
-0.36106801 0.039775699 -0.13628501 7.64718e-39
-0.35916901 0.041642901 -0.133209 7.2816373e-39
-0.36057299 0.043608598 -0.136628 7.3752706e-39
-0.36199701 0.045603901 -0.14009599 7.6500597e-39
-0.351899 -0.0203977 -0.101866 9.3913313e-39
-0.35183999 -0.018614501 -0.102362 9.6657322e-39
-0.35144401 -0.016741799 -0.102223 9.2087464e-39
-0.35071301 -0.0147895 -0.10145 1.1246758e-38
-0.34998801 -0.0128487 -0.100683 1.1244249e-38
-0.34959799 -0.0109968 -0.100548 1.0693593e-38
-0.34822401 -0.0089276703 -0.0985443 1.0599605e-38
-0.34784001 -0.0070945099 -0.098415203 9.9567539e-39
-0.34553099 -0.0048663998 -0.0946161 1.00468e-38
-0.34234801 -0.0025033001 -0.089133501 1.0138986e-38
-0.33986199 -0.00032699999 -0.084967799 9.218477e-39
-0.33714801 0.00184865 -0.080348797 8.573116e-39
-0.33680201 0.0035716 -0.080257401 9.1251897e-39
-0.33674699 0.0052435198 -0.080723204 8.4805546e-39
-0.33669201 0.0069168899 -0.081189401 8.0206639e-39
-0.33605799 0.0086753098 -0.0805417 7.4689082e-39
-0.33600301 0.0103464 -0.081007197 6.6416741e-39
-0.33566099 0.0120553 -0.080917202 7.3749315e-39
-0.33531901 0.0137603 -0.080827899 6.9143149e-39
-0.335264 0.0154305 -0.081293203 6.8224724e-39
-0.334923 0.0171305 -0.081204198 5.9030384e-39
-0.33486801 0.018801101 -0.081669599 6.0845528e-39
-0.33452901 0.0204961 -0.081580997 5.8101296e-39
-0.33447301 0.022167001 -0.082046501 5.5339e-39
-0.334988 0.0238034 -0.083625898 5.5331755e-39
-0.33550501 0.025451601 -0.085215598 5.6253669e-39
-0.33602601 0.027111501 -0.0868157 5.4406254e-39
-0.33655 0.0287834 -0.088426203 5.9001588e-39
-0.33766401 0.030451899 -0.091202296 6.0838298e-39
-0.33969 0.032127801 -0.095784999 6.1745877e-39
-0.34145501 0.0338456 -0.099865504 5.9909013e-39
-0.348721 0.035605699 -0.114835 5.7139654e-39
-0.34999201 0.037439398 -0.117979 6.1749436e-39
-0.35128 0.0392997 -0.121166 6.725574e-39
-0.35502401 0.041258 -0.129242 6.3586006e-39
-0.35638201 0.043196999 -0.13259199 6.1752995e-39
-0.35958499 0.045251898 -0.139632 6.7277446e-39
-0.36026099 0.047225501 -0.14164799 6.9110667e-39
-0.360569 0.0491901 -0.142932 7.2823631e-39
-0.36050501 0.051135201 -0.143474 8.0210016e-39
-0.360441 0.053082101 -0.144016 8.3887079e-39
-0.36037701 0.0550307 -0.144559 8.1135573e-39
-0.36031201 0.056981001 -0.14510199 7.6525834e-39
-0.35027701 -0.0189157 -0.103307 9.1154661e-39
-0.350218 -0.0171309 -0.103804 8.29039e-39
-0.34948999 -0.015174 -0.103026 1.0877621e-38
-0.34876701 -0.0132287 -0.102253 1.1152409e-38
-0.348048 -0.0112948 -0.101485 1.0784724e-38
-0.34668401 -0.0092237601 -0.099475101 1.0413426e-38
-0.346302 -0.0073901 -0.099344999 1.0048584e-38
-0.344643 -0.00529182 -0.096754201 9.4979379e-39
-0.34085 -0.00279076 -0.090038702 9.5897664e-39
-0.33868101 -0.00066815101 -0.0864373 9.1273603e-39
-0.33626899 0.0014625 -0.0823524 8.5745523e-39
-0.33563301 0.0032419499 -0.081697203 7.9291857e-39
-0.335289 0.0049641901 -0.081604503 8.2043279e-39
-0.335233 0.00663757 -0.082071103 7.0083154e-39
-0.33489001 0.0083547104 -0.081978701 6.7306383e-39
-0.334548 0.010068 -0.081887104 6.7342453e-39
-0.334207 0.0117773 -0.081796102 6.640249e-39
-0.334151 0.0134487 -0.082262099 7.0994166e-39
-0.33409601 0.0151215 -0.082728602 6.6377266e-39
-0.333756 0.016824599 -0.082637697 6.2700105e-39
-0.3337 0.0184978 -0.083104201 6.0845528e-39
-0.333361 0.020196 -0.083013698 5.3502416e-39
-0.333588 0.021848399 -0.084038503 5.6246635e-39
-0.33410099 0.023489 -0.0856295 5.4384814e-39
-0.33432999 0.025157301 -0.0866642 5.1658335e-39
-0.334847 0.026819 -0.0882717 4.7959832e-39
-0.33623999 0.02846 -0.091621503 5.3495073e-39
-0.337358 0.030137099 -0.094435997 5.25659e-39
-0.33849099 0.031837199 -0.097287104 5.8058108e-39
-0.33994201 0.033557899 -0.100781 5.9873279e-39
-0.34649399 0.035307001 -0.11448 5.71109e-39
-0.34741601 0.0371296 -0.116952 4.9760487e-39
-0.34834701 0.038972199 -0.119449 4.8856397e-39
-0.34962299 0.040844601 -0.122647 4.7959622e-39
-0.35333499 0.042833999 -0.130752 4.7970384e-39
-0.357191 0.044902399 -0.139172 5.6235537e-39
-0.35785499 0.046867698 -0.141179 5.897998e-39
-0.35815701 0.048824701 -0.14245801 6.3593335e-39
-0.35809201 0.050762899 -0.142998 7.0054147e-39
-0.35802799 0.0527029 -0.143539 6.9143009e-39
-0.35759699 0.054610401 -0.14333799 6.0867094e-39
-0.35753199 0.056550302 -0.143879 5.6253824e-39
-0.35710299 0.058451001 -0.14367799 5.8987323e-39
-0.349383 -0.0194018 -0.105537 9.9433771e-39
-0.348988 -0.0175214 -0.105392 8.7466976e-39
-0.34859401 -0.015645901 -0.105248 1.0963699e-38
-0.34787101 -0.0136924 -0.104465 1.0597816e-38
-0.34715199 -0.0117505 -0.103688 1.0414865e-38
-0.346439 -0.0098200198 -0.102917 1.0598174e-38
-0.345085 -0.0077572102 -0.100898 9.8631303e-39
-0.343117 -0.0055850302 -0.097676903 9.3131893e-39
-0.339353 -0.00307827 -0.090943903 9.2199119e-39
-0.33719999 -0.000952448 -0.087332897 8.9408167e-39
-0.335094 0.00112789 -0.083802097 8.7564226e-39
-0.334461 0.0029112201 -0.083141699 7.5596829e-39
-0.334117 0.00463669 -0.083047003 6.823557e-39
-0.33377501 0.00635823 -0.082952999 7.1916193e-39
-0.33343399 0.0080757998 -0.082859598 6.3622215e-39
-0.33309299 0.0097894799 -0.082767002 5.7211737e-39
-0.33303699 0.011462 -0.083233804 5.9952369e-39
-0.332697 0.0131706 -0.083141498 6.7288418e-39
-0.33264101 0.0148435 -0.083608396 6.3611481e-39
-0.33258399 0.016517799 -0.084075697 5.9023252e-39
-0.332528 0.0181935 -0.0845434 5.901249e-39
-0.33247101 0.0198707 -0.085011497 5.6243006e-39
-0.332697 0.021527801 -0.086043201 5.3491542e-39
-0.33292401 0.023191599 -0.087078497 5.1633266e-39
-0.33315101 0.024862099 -0.088117398 5.8068884e-39
-0.333664 0.026525499 -0.089732498 5.6207104e-39
-0.335049 0.028166801 -0.093099602 5.8068855e-39
-0.33616099 0.029844699 -0.095928401 5.7154102e-39
-0.33699 0.0315517 -0.098195203 6.1727856e-39
-0.33842799 0.033270098 -0.101697 5.8040143e-39
-0.344926 0.035009202 -0.115429 4.702689e-39
-0.34584001 0.036830202 -0.117905 4.0573182e-39
-0.346762 0.0386714 -0.120408 4.0562476e-39
-0.34802699 0.040541701 -0.123613 4.4243084e-39
-0.35170701 0.042525299 -0.13173699 4.3357071e-39
-0.35553101 0.044587702 -0.140176 4.978564e-39
-0.355827 0.046532098 -0.141449 5.5281407e-39
-0.35612401 0.0484851 -0.142727 5.8057939e-39
-0.35569599 0.050393201 -0.142527 5.8997916e-39
-0.355993 0.0523565 -0.14380801 5.9005161e-39
-0.355928 0.054294702 -0.14434899 5.625374e-39
-0.355501 0.056197699 -0.14414699 5.0722156e-39
-0.355075 0.058095701 -0.14394701 4.8856719e-39
-0.354651 0.0599887 -0.143747 4.9753424e-39
-0.34983 -0.020269699 -0.110403 9.3913075e-39
-0.348755 -0.0181855 -0.108936 8.3797074e-39
-0.34735999 -0.016033901 -0.106838 1.0595616e-38
-0.34696901 -0.0141593 -0.106693 1.0231188e-38
-0.346908 -0.0123699 -0.107193 1.0505606e-38
-0.34158999 -0.0058782599 -0.098599799 9.3124649e-39
-0.33785501 -0.0033658301 -0.091849402 8.3905212e-39
-0.33571801 -0.00123679 -0.088228598 8.5738264e-39
-0.333628 0.00084671099 -0.084688298 7.746951e-39
-0.333285 0.0025794101 -0.084590897 7.1033781e-39
-0.33265701 0.0043568602 -0.083929896 6.8239143e-39
-0.3326 0.0060328702 -0.084398098 6.2700231e-39
-0.33197701 0.0077968501 -0.083740599 5.7183053e-39
-0.33163801 0.0095109697 -0.083646998 5.7215212e-39
-0.331581 0.0111835 -0.084114298 5.719359e-39
-0.33152401 0.0128575 -0.084581897 5.7197416e-39
-0.33146599 0.0145329 -0.085049897 5.811217e-39
-0.33140901 0.0162098 -0.085518397 5.7186542e-39
-0.331352 0.0178882 -0.085987203 5.5339056e-39
-0.33129501 0.019568101 -0.0864565 5.4409911e-39
-0.33151799 0.0212273 -0.087492503 5.4420575e-39
-0.331743 0.0228933 -0.088532098 5.4406254e-39
-0.33225101 0.024549 -0.090148397 5.5310287e-39
-0.33247799 0.026231 -0.091197997 5.5292295e-39
-0.334144 0.027860699 -0.095169902 5.9876643e-39
-0.33466801 0.029560501 -0.096831903 5.5295756e-39
-0.33548799 0.031266201 -0.099103399 5.7143298e-39
-0.336914 0.032982301 -0.102613 5.6196132e-39
-0.34367999 0.034710199 -0.117033 5.4373673e-39
-0.344587 0.036532901 -0.119522 4.5143349e-39
-0.345833 0.038380701 -0.12271 4.514688e-39
-0.34843799 0.040289201 -0.12869801 5.0639101e-39
-0.35111701 0.0422525 -0.13485201 5.5274106e-39
-0.35351399 0.044257302 -0.14044701 5.6199818e-39
-0.35416299 0.046216901 -0.142456 5.0678954e-39
-0.35409701 0.048146602 -0.142995 4.6090682e-39
-0.354031 0.050078001 -0.143535 4.5179502e-39
-0.35396501 0.052011199 -0.14407501 4.6112262e-39
-0.353899 0.053946 -0.14461499 4.5197621e-39
-0.35383299 0.055882499 -0.145156 4.2428249e-39
-0.35341001 0.0577811 -0.14495499 4.1499048e-39
-0.35263401 0.059631798 -0.144015 4.4221602e-39
-0.351322 -0.0214504 -0.117407 9.3898754e-39
-0.35125899 -0.019612901 -0.117921 9.4860465e-39
-0.35119599 -0.0177738 -0.118435 1.0880124e-38
-0.33576301 -0.0035280201 -0.091572702 8.7592967e-39
-0.334236 -0.00152116 -0.089124501 8.1128525e-39
-0.33244699 0.00051051599 -0.086144201 7.4703698e-39
-0.33182001 0.0022986301 -0.085476302 6.917189e-39
-0.33147901 0.0040278002 -0.085378602 7.0047155e-39
-0.331139 0.0057529998 -0.085281603 7.0940258e-39
-0.3308 0.0074742301 -0.085185297 5.715413e-39
-0.33046201 0.0091915699 -0.085089803 5.9030258e-39
-0.33012399 0.010905 -0.084994897 6.1770988e-39
-0.33006701 0.012579 -0.085462898 5.6257551e-39
-0.33000901 0.0142544 -0.085931398 5.9016175e-39
-0.32995099 0.015931301 -0.0864003 5.7190003e-39
-0.330172 0.017581999 -0.0874357 5.5335315e-39
-0.33011401 0.019264501 -0.087906197 5.0740065e-39
-0.330336 0.020925799 -0.088946402 4.9821541e-39
-0.330558 0.022593901 -0.0899904 5.3491416e-39
-0.331063 0.024251301 -0.091614299 3.8787031e-39
-0.33185601 0.0259057 -0.093831502 3.7818425e-39
-0.332656 0.0275774 -0.096070297 4.70161e-39
-0.333464 0.0292666 -0.0983309 4.6061844e-39
-0.333987 0.030980701 -0.100012 4.8838432e-39
-0.33539999 0.032694399 -0.103529 5.2551355e-39
-0.34307101 0.034407001 -0.119967 6.0820025e-39
-0.34430501 0.036238901 -0.123159 5.4298059e-39
-0.345557 0.0380974 -0.126394 3.9593758e-39
-0.34783599 0.0400071 -0.13177 3.8693326e-39
-0.34982499 0.041953702 -0.13655899 4.32888e-39
-0.35185599 0.0439432 -0.14145 3.9633569e-39
-0.352144 0.045883 -0.14272401 3.8740409e-39
-0.35207701 0.047809299 -0.143263 3.6917993e-39
-0.352011 0.049737301 -0.143802 3.7836278e-39
-0.352299 0.051695999 -0.145083 4.1506068e-39
-0.35223201 0.053630799 -0.145624 4.1520516e-39
-0.35216501 0.055567399 -0.146166 3.600684e-39
-0.351744 0.0574665 -0.145963 2.585093e-39
-0.35097301 0.0593183 -0.14502101 2.3956613e-39
-0.352927 -0.024533801 -0.124112 9.2069387e-39
-0.35075101 -0.0220601 -0.120442 1.0219301e-38
-0.35034001 -0.020116 -0.120268 1.1334984e-38
-0.35062301 -0.0183642 -0.121477 1.0329845e-38
-0.33427 -0.0038147401 -0.092475504 8.1142972e-39
-0.33304399 -0.0018649501 -0.090603501 7.9306262e-39
-0.33126301 0.000173236 -0.087604903 7.2863358e-39
-0.33063701 0.0019652301 -0.086931698 6.3679781e-39
-0.33001599 0.0037474199 -0.086263202 6.1817833e-39
-0.32967699 0.0054730801 -0.086165197 6.3589859e-39
-0.32934001 0.00719475 -0.086067997 5.4399121e-39
-0.329281 0.0088710897 -0.0865371 4.9825283e-39
-0.32922301 0.0105489 -0.087006703 5.7168549e-39
-0.329164 0.0122281 -0.087476604 6.0845598e-39
-0.329106 0.0139089 -0.087947004 6.359709e-39
-0.32904699 0.015591 -0.088417701 6.2693084e-39
-0.32898799 0.0172747 -0.088888898 6.4533255e-39
-0.32892999 0.0189598 -0.089360498 6.6359189e-39
-0.32914901 0.020623401 -0.090405099 6.0849102e-39
-0.329649 0.022273101 -0.092030399 6.2678581e-39
-0.330152 0.0239347 -0.0936663 5.8097442e-39
-0.33065799 0.025608299 -0.095313102 6.174547e-39
-0.331453 0.027281201 -0.097562902 6.5411701e-39
-0.33225599 0.0289717 -0.099834703 6.0784306e-39
-0.33248499 0.030695099 -0.10092 5.898714e-39
-0.340601 0.0322982 -0.118426 5.808675e-39
-0.34634501 0.035948101 -0.13170201 5.0660625e-39
-0.34628001 0.037822898 -0.132227 3.6863805e-39
-0.34722799 0.039721999 -0.134875 3.50305e-39
-0.34818599 0.0416428 -0.13755199 3.8703948e-39
-0.34950101 0.043599799 -0.14098699 3.5045199e-39
-0.35013199 0.045550201 -0.14299101 3.4130558e-39
-0.35041499 0.047494601 -0.144269 3.4144921e-39
-0.34999701 0.0493978 -0.144068 3.5059759e-39
-0.35027999 0.0513524 -0.145348 3.5978142e-39
-0.35056499 0.053315502 -0.146634 2.7698528e-39
-0.35049701 0.055252101 -0.147176 1.6631437e-39
-0.35007799 0.057151798 -0.146971 1.2911214e-39
-0.350362 0.0591304 -0.148261 1.8410511e-39
-0.35100001 0.0611635 -0.15030999 3.3122071e-39
-0.35271299 -0.0252774 -0.127947 1.0966193e-38
-0.35157999 -0.023087099 -0.126331 1.1335721e-38
-0.34906799 -0.0205249 -0.121938 1.1338964e-38
-0.350743 -0.0191525 -0.12596001 9.5890602e-39
-0.333361 -0.0042287698 -0.094566502 7.6543967e-39
-0.33213601 -0.0022700599 -0.0926755 7.5636444e-39
-0.330641 -0.00027808099 -0.090227701 6.8260807e-39
-0.329732 0.00157739 -0.088966697 5.8165993e-39
-0.32855299 0.0034670201 -0.087148003 5.7215226e-39
-0.328493 0.0051456802 -0.087618098 6.5476792e-39
-0.32815701 0.0068706102 -0.087518901 7.0986866e-39
-0.32809699 0.0085495701 -0.087989204 6.915024e-39
-0.32776201 0.0102694 -0.087890297 7.7444175e-39
-0.327979 0.0119119 -0.088931002 7.9291731e-39
-0.32791901 0.0135953 -0.089402497 8.0202995e-39
-0.32813701 0.0152486 -0.090448 7.0111923e-39
-0.328078 0.0169375 -0.090921097 7.1005054e-39
-0.32801801 0.018627999 -0.091394603 7.4671187e-39
-0.32823601 0.020296199 -0.092446104 7.1905389e-39
-0.328455 0.0219712 -0.093501396 6.6384511e-39
-0.32923499 0.023615999 -0.095731497 6.3614915e-39
-0.32945701 0.0253099 -0.0967995 6.728102e-39
-0.33024701 0.026984099 -0.099060401 7.0036028e-39
-0.33104399 0.028675901 -0.101344 6.6351959e-39
-0.33155999 0.0303935 -0.103041 6.3607712e-39
-0.34566399 0.037526399 -0.135334 4.793779e-39
-0.345934 0.039419699 -0.136576 3.8710996e-39
-0.34654599 0.041331802 -0.13854399 3.8707367e-39
-0.34750399 0.0432727 -0.14125501 3.5037773e-39
-0.34847301 0.045235898 -0.143995 3.2272184e-39
-0.34875301 0.0471798 -0.145275 3.6878336e-39
-0.34833699 0.049083501 -0.145073 3.8711459e-39
-0.34896499 0.0510653 -0.147101 3.132506e-39
-0.34889701 0.053000201 -0.147643 2.1176366e-39
-0.34917799 0.054971501 -0.148936 1.5640943e-39
-0.34911001 0.056913301 -0.14948 1.4726091e-39
-0.349392 0.058898401 -0.15077899 2.208735e-39
-0.35002801 0.060938001 -0.152844 3.4958697e-39
-0.357048 -0.0312427 -0.13969401 1.0773184e-38
-0.35474801 -0.028609799 -0.13572299 1.0508112e-38
-0.352496 -0.0260318 -0.131837 1.0418442e-38
-0.35171199 -0.0239275 -0.130913 1.1243527e-38
-0.35057899 -0.021734999 -0.12927601 1.078687e-38
-0.35086599 -0.019954899 -0.130523 9.5908496e-39
-0.33303201 -0.00477537 -0.097877599 7.3799678e-39
-0.331801 -0.00280048 -0.095953599 6.5520134e-39
-0.33001301 -0.00073379802 -0.092875801 7.8366271e-39
-0.32910201 0.00113272 -0.091596603 9.2170322e-39
-0.32764301 0.0030850901 -0.089177802 9.1277121e-39
-0.32702899 0.0048652398 -0.088503502 8.9465578e-39
-0.326969 0.0065453802 -0.088974498 8.8525573e-39
-0.32663399 0.0082695903 -0.0888739 8.5748998e-39
-0.326574 0.0099500297 -0.089345098 8.391589e-39
-0.32678899 0.0115946 -0.090390101 8.3901582e-39
-0.326729 0.0132807 -0.090862699 8.0206639e-39
-0.32666901 0.0149682 -0.091335803 7.9295388e-39
-0.326884 0.016627699 -0.092386901 7.3763763e-39
-0.32682401 0.018320801 -0.092861503 7.1901829e-39
-0.32703999 0.019991299 -0.093917497 7.2841652e-39
-0.32753399 0.0216468 -0.095562398 6.6398944e-39
-0.32803199 0.023314301 -0.097218297 6.8217605e-39
-0.328814 0.0249775 -0.099481203 6.3611369e-39
-0.329036 0.026685899 -0.100563 6.6369965e-39
-0.32982799 0.028379001 -0.102857 6.6362791e-39
-0.33120799 0.030073 -0.106405 6.1760282e-39
-0.34436801 0.037220199 -0.137035 6.0827269e-39
-0.34463599 0.039116301 -0.138284 4.4206875e-39
-0.34490499 0.041020699 -0.13953701 2.7640486e-39
-0.34585401 0.0429601 -0.142253 2.6722089e-39
-0.34715801 0.044938501 -0.145741 2.7640472e-39
-0.34743601 0.0468853 -0.147027 2.5793182e-39
-0.34736699 0.0488168 -0.147568 2.2101854e-39
-0.347298 0.050749999 -0.14811 1.6577277e-39
-0.34757599 0.0527156 -0.149404 1.5651663e-39
-0.347855 0.054689899 -0.150702 1.8403043e-39
-0.347785 0.0566351 -0.15124799 2.1158079e-39
-0.34806499 0.0586234 -0.15255301 2.9434134e-39
-0.34834501 0.060620401 -0.153863 3.7720951e-39
-0.35845399 -0.034521699 -0.146349 1.0781805e-38
-0.35648 -0.031939302 -0.143014 1.1335356e-38
-0.35454199 -0.029402301 -0.13974001 1.0601404e-38
-0.352276 -0.0267972 -0.135784 1.041917e-38
-0.35076901 -0.0244598 -0.13337 1.1242807e-38
-0.34999001 -0.0223595 -0.132442 1.0508141e-38
-0.349922 -0.0204711 -0.132971 9.1266471e-39
-0.33146101 -0.0033378501 -0.0992743 1.0143648e-38
-0.330239 -0.00137073 -0.097342104 1.0236211e-38
-0.328466 0.00068375497 -0.094251797 1.0144378e-38
-0.327562 0.00254499 -0.092966899 1.0141147e-38
-0.32583901 0.0045363 -0.089962602 9.223509e-39
-0.32577801 0.0062191002 -0.090434797 8.5777795e-39
-0.325717 0.0079033701 -0.090907402 8.5759914e-39
-0.32538301 0.0096296398 -0.090804502 8.2064929e-39
-0.325322 0.0113142 -0.091277197 7.8362824e-39
-0.325535 0.012965 -0.092327803 7.7487489e-39
-0.325748 0.0146226 -0.093382001 7.6525988e-39
-0.32568699 0.0163169 -0.0938574 6.9164785e-39
-0.326731 0.0179026 -0.096677803 7.1905473e-39
-0.32666901 0.019610699 -0.097157001 6.1807085e-39
-0.326886 0.0212979 -0.098228998 5.9973907e-39
-0.32766399 0.022952599 -0.1005 6.4529752e-39
-0.327602 0.024676099 -0.100984 6.0859892e-39
-0.32838699 0.026357999 -0.103281 6.4519004e-39
-0.32975399 0.0280341 -0.106831 6.634491e-39
-0.33143601 0.02973 -0.11107 6.3586146e-39
-0.342471 0.035022799 -0.136778 5.5317322e-39
-0.34240299 0.036907502 -0.137307 5.899793e-39
-0.34299901 0.038805801 -0.139274 4.7905518e-39
-0.343265 0.0407096 -0.14052901 2.2094595e-39
-0.34420499 0.042647298 -0.143252 1.382926e-39
-0.34583899 0.044640001 -0.147494 1.7502582e-39
-0.34611401 0.046589799 -0.148785 1.6562745e-39
-0.346044 0.0485247 -0.14932799 1.1038336e-39
-0.34632 0.050488099 -0.150626 9.2052978e-40
-0.346596 0.052460302 -0.15192901 1.3814995e-39
-0.34687299 0.054441199 -0.153237 2.2083651e-39
-0.34645599 0.056355901 -0.15302201 2.7597368e-39
-0.346733 0.058347199 -0.154333 3.4036713e-39
-0.35834399 -0.0373495 -0.149997 1.0508096e-38
-0.357501 -0.035115499 -0.148963 1.0509918e-38
-0.355905 -0.032643698 -0.14637101 1.0509915e-38
-0.35396099 -0.030086299 -0.143049 9.6823292e-39
-0.35205099 -0.027573699 -0.139788 9.6808929e-39
-0.35053501 -0.0252138 -0.137329 9.4975848e-39
-0.34904 -0.0228862 -0.134905 9.6805369e-39
-0.331642 -0.00226519 -0.104367 1.0326974e-38
-0.331579 -0.00051798898 -0.104857 9.8685113e-39
-0.33270201 0.0010055701 -0.107859 1.0231896e-38
-0.33086401 0.0030868 -0.104596 9.8631205e-39
-0.3308 0.0048328699 -0.105086 8.9436838e-39
-0.33015299 0.00667415 -0.104338 8.851128e-39
-0.32951 0.0085049998 -0.103594 7.839504e-39
-0.328585 0.0103659 -0.102246 7.9302661e-39
-0.32766899 0.0122104 -0.100911 7.6558344e-39
-0.328174 0.0138668 -0.10261 6.7346012e-39
-0.32811099 0.0155994 -0.103096 6.4573024e-39
-0.32833201 0.0173044 -0.104195 7.0075923e-39
-0.32912901 0.0189634 -0.106532 6.1799897e-39
-0.32935399 0.0206881 -0.107644 6.1785407e-39
-0.32929 0.022440899 -0.108136 6.4518934e-39
-0.32951599 0.024177 -0.109253 5.9927243e-39
-0.32974201 0.0259204 -0.110375 5.9001714e-39
-0.32996801 0.027671 -0.1115 5.8976505e-39
-0.33107701 0.0293997 -0.114542 6.1735045e-39
-0.331902 0.0311598 -0.116976 5.3437606e-39
-0.335794 0.032898299 -0.126096 4.0584224e-39
-0.337295 0.0347251 -0.130031 4.7027058e-39
-0.34011701 0.036593601 -0.13686401 5.5317336e-39
-0.341362 0.038495202 -0.140265 5.7135843e-39
-0.34162399 0.040398501 -0.14152201 3.3136323e-39
-0.343227 0.042359199 -0.145726 1.3796918e-39
-0.344515 0.044340499 -0.149252 1.1034735e-39
-0.34444499 0.046273701 -0.149795 1.3782681e-39
-0.344717 0.048231401 -0.151094 1.286434e-39
-0.34464601 0.050171498 -0.151639 1.5637314e-39
-0.345263 0.0521731 -0.153707 2.3019957e-39
-0.34519199 0.054123498 -0.154255 3.038109e-39
-0.345121 0.0560757 -0.15480299 3.7735118e-39
-0.34505001 0.058029599 -0.155352 4.2352116e-39
-0.357844 -0.040075898 -0.15289301 1.0499119e-38
-0.35738301 -0.037958398 -0.15264501 9.9567623e-39
-0.356157 -0.0355809 -0.1508 9.4968505e-39
-0.354945 -0.033228301 -0.148976 8.8540007e-39
-0.35337299 -0.030777801 -0.146394 8.0264106e-39
-0.352191 -0.0284785 -0.144619 8.8504105e-39
-0.351753 -0.0264281 -0.144394 9.3103195e-39
-0.337293 -0.00047107699 -0.121883 9.7709221e-39
-0.331101 0.0024729201 -0.109283 9.3121019e-39
-0.32985899 0.0044402801 -0.107256 8.7596456e-39
-0.32921299 0.0062888898 -0.106498 8.20576e-39
-0.32857001 0.0081269601 -0.105746 7.1033879e-39
-0.32821801 0.0099133197 -0.105617 6.9193554e-39
-0.327582 0.0117338 -0.104872 6.7345998e-39
-0.32751799 0.0134733 -0.105361 6.5530784e-39
-0.327739 0.0151816 -0.106468 7.0057917e-39
-0.327961 0.016897 -0.10758 7.0065035e-39
-0.32818401 0.0186195 -0.108696 6.3622103e-39
-0.32840699 0.020349201 -0.109815 6.2696504e-39
-0.328632 0.022086101 -0.110939 6.0834766e-39
-0.32885599 0.0238302 -0.112067 6.0820431e-39
-0.329373 0.0255656 -0.113836 5.7146955e-39
-0.32960001 0.0273271 -0.114975 5.5313721e-39
-0.330713 0.029065 -0.118061 5.0729106e-39
-0.33214101 0.0308201 -0.121849 4.2406543e-39
-0.33420801 0.032597098 -0.127055 3.2301065e-39
-0.33538201 0.034422901 -0.130308 4.4272007e-39
-0.33816901 0.0362835 -0.137134 5.5313749e-39
-0.33972499 0.038184501 -0.141256 6.0823696e-39
-0.340312 0.040095601 -0.143245 4.9738571e-39
-0.342242 0.042068899 -0.148219 2.3927592e-39
-0.34284601 0.0440243 -0.150262 1.4697407e-39
-0.343115 0.0459764 -0.15156201 1.3789842e-39
-0.34304401 0.047914799 -0.152107 1.8399553e-39
-0.34297201 0.049854901 -0.152652 3.1263627e-39
-0.34358299 0.0518553 -0.154724 3.679161e-39
-0.34351099 0.053805798 -0.15527201 3.9564611e-39
-0.34343901 0.055757999 -0.155821 4.6000327e-39
-0.34370899 0.057751801 -0.157141 4.8762748e-39
-0.356563 -0.042536698 -0.15419701 1.0124921e-38
-0.356103 -0.040412199 -0.153945 1.0774985e-38
-0.35564601 -0.038293999 -0.153695 1.013971e-38
-0.35519001 -0.036182102 -0.153446 9.7702046e-39
-0.35435501 -0.0339466 -0.15239801 8.8518511e-39
-0.35277799 -0.031477101 -0.149777 8.2107991e-39
-0.35233301 -0.029400099 -0.14954001 7.933859e-39
-0.331709 8.3285304e-06 -0.114212 8.4834301e-39
-0.32956299 0.00217837 -0.110213 8.1150035e-39
-0.32833099 0.0041476898 -0.10818 7.9295416e-39
-0.32768899 0.0059972499 -0.10742 7.8369733e-39
-0.32705101 0.0078363102 -0.106665 6.9182638e-39
-0.32698601 0.0095812604 -0.107156 6.9171932e-39
-0.32663599 0.0113668 -0.107025 6.5480547e-39
-0.32657099 0.013112 -0.107516 5.9037755e-39
-0.32650599 0.0148587 -0.108008 5.9016175e-39
-0.32672599 0.016576299 -0.109124 5.9956012e-39
-0.327232 0.0182733 -0.110874 5.7182899e-39
-0.32774299 0.019982999 -0.112635 5.9008748e-39
-0.32767701 0.0217501 -0.113133 5.6235747e-39
-0.32935899 0.0234014 -0.11749 5.6232075e-39
-0.32958701 0.025172399 -0.118645 5.0714855e-39
-0.32981601 0.0269509 -0.119804 4.8871027e-39
-0.33064201 0.0287148 -0.122289 4.1516886e-39
-0.33269 0.030465201 -0.1275 3.5066793e-39
-0.33354399 0.032280199 -0.13006701 3.2311855e-39
-0.334719 0.034113299 -0.133358 4.0591469e-39
-0.336546 0.0359754 -0.138116 5.3451927e-39
-0.33841199 0.0378782 -0.142975 5.8036514e-39
-0.33899599 0.039791599 -0.14497399 5.8965364e-39
-0.340579 0.041753899 -0.149225 4.2388087e-39
-0.34117699 0.043708201 -0.151272 2.5775092e-39
-0.341106 0.0456414 -0.151816 2.2076504e-39
-0.34136999 0.047598101 -0.153119 2.4853135e-39
-0.34129801 0.049538199 -0.15366501 3.5891289e-39
-0.34156299 0.051508699 -0.154975 4.3227283e-39
-0.341829 0.053488001 -0.15628999 4.506042e-39
-0.341757 0.055440199 -0.156839 4.875542e-39
-0.35489401 -0.044853501 -0.15469199 9.8494116e-39
-0.35443699 -0.042726401 -0.15444 9.6650414e-39
-0.35436299 -0.0407486 -0.15499701 9.7633509e-39
-0.354289 -0.0387691 -0.155554 9.6765699e-39
-0.35383299 -0.036652301 -0.155302 8.757873e-39
-0.35337999 -0.0345417 -0.15505099 8.2983298e-39
-0.352552 -0.032310601 -0.153998 7.9302675e-39
-0.35323101 -0.030585499 -0.156165 7.3792559e-39
-0.339517 -0.0095790001 -0.132893 9.2173868e-39
-0.337814 -0.0073379502 -0.129867 9.1230331e-39
-0.337421 -0.0054150699 -0.129685 8.572023e-39
-0.33638901 -0.0033630901 -0.128107 7.0990803e-39
-0.33256999 -0.00077208102 -0.120432 6.639184e-39
-0.32919699 0.00166145 -0.113708 6.0881514e-39
-0.327959 0.00364718 -0.111639 6.8199585e-39
-0.32673699 0.0056084199 -0.109598 6.4526165e-39
-0.32609901 0.0074547501 -0.108834 5.9030384e-39
-0.32546499 0.0092905601 -0.108075 5.9952383e-39
-0.32539999 0.011037 -0.108567 5.7179353e-39
-0.32533401 0.0127851 -0.109059 5.6250222e-39
-0.325268 0.0145346 -0.109552 5.6250152e-39
-0.32576999 0.016223401 -0.111303 5.1647686e-39
-0.32627401 0.017924801 -0.113066 5.3484353e-39
-0.32736 0.0195871 -0.116128 5.5320993e-39
-0.32787499 0.0213197 -0.117925 5.3477025e-39
-0.328688 0.0230448 -0.120392 5.2547824e-39
-0.32950801 0.024788899 -0.122883 3.6968215e-39
-0.33033699 0.0265522 -0.12540101 3.2369308e-39
-0.33117399 0.028334999 -0.12794399 3.7829005e-39
-0.332019 0.0301375 -0.130514 3.5988806e-39
-0.33318299 0.0319543 -0.133807 3.1425828e-39
-0.33499399 0.033792399 -0.13857 3.3280474e-39
-0.33555901 0.035668399 -0.140533 4.3360785e-39
-0.33741999 0.037574701 -0.14543501 5.2526384e-39
-0.33767399 0.039486401 -0.14670999 5.8961917e-39
-0.33891699 0.041438699 -0.150231 5.438075e-39
-0.339176 0.043377701 -0.151526 4.4228413e-39
-0.33943599 0.045325201 -0.15282699 3.5891289e-39
-0.33936301 0.047260199 -0.153372 3.220352e-39
-0.33928999 0.049196798 -0.153917 3.4976564e-39
-0.33921701 0.051135201 -0.15446299 4.6918738e-39
-0.33981201 0.053138401 -0.15653899 5.149975e-39
-0.35164201 -0.044587299 -0.152519 9.6671727e-39
-0.352319 -0.0429154 -0.154682 9.3005735e-39
-0.352622 -0.041085001 -0.156048 9.2087562e-39
-0.35254699 -0.039105501 -0.156606 9.0293956e-39
-0.35247201 -0.037124202 -0.15716501 7.6526058e-39
-0.35201901 -0.035008799 -0.15691 7.4692823e-39
-0.351944 -0.033027899 -0.157469 6.9150366e-39
-0.35224599 -0.031170201 -0.158843 6.729216e-39
-0.34101701 -0.0144062 -0.139369 9.1230303e-39
-0.33993801 -0.0122584 -0.137697 9.7720053e-39
-0.33723399 -0.0097340802 -0.13245 9.0365926e-39
-0.33619499 -0.0076485001 -0.13084599 8.2965179e-39
-0.335805 -0.0057250601 -0.13066199 7.9277494e-39
-0.33541599 -0.00380669 -0.13048001 6.6377378e-39
-0.332524 -0.00138496 -0.124767 5.7179395e-39
-0.33032 0.00084911799 -0.120556 5.2591194e-39
-0.327582 0.0031399999 -0.115144 5.4409897e-39
-0.32664201 0.0050675701 -0.113708 4.9810863e-39
-0.325712 0.0069776298 -0.112287 4.338605e-39
-0.32450801 0.0089137303 -0.11025 3.4181033e-39
-0.32387799 0.0107463 -0.109487 4.0602273e-39
-0.32381201 0.0124943 -0.10998 4.3364484e-39
-0.32430801 0.0141749 -0.111733 4.3389511e-39
-0.325663 0.015771801 -0.115417 3.1418667e-39
-0.32617101 0.017485799 -0.117208 3.3262566e-39
-0.32639199 0.0192394 -0.11836 3.8790604e-39
-0.32719699 0.0209527 -0.120829 4.7966783e-39
-0.328601 0.022642201 -0.124659 4.5172355e-39
-0.32972699 0.024380499 -0.127873 2.8606191e-39
-0.33148101 0.026112599 -0.132517 2.4961512e-39
-0.33264601 0.027907901 -0.135841 3.3240972e-39
-0.33320001 0.029749 -0.137784 3.8758178e-39
-0.333442 0.031610999 -0.139024 3.5095604e-39
-0.334001 0.033477802 -0.14098901 3.4177333e-39
-0.33584499 0.035359301 -0.145895 3.7865074e-39
-0.33609599 0.037265599 -0.14717101 4.8878075e-39
-0.33667299 0.039186899 -0.149196 5.8047149e-39
-0.33692601 0.041113399 -0.15048601 5.8054296e-39
-0.337181 0.0430483 -0.15177999 5.8050583e-39
-0.33743599 0.044991799 -0.153079 5.0649695e-39
-0.337035 0.046902899 -0.15286601 3.8653585e-39
-0.33663401 0.048808999 -0.15265501 3.9564737e-39
-0.33656099 0.050737102 -0.153198 5.1506953e-39
-0.34954199 -0.044771802 -0.15276299 9.8490473e-39
-0.34983701 -0.0429569 -0.154118 9.6657448e-39
-0.35050601 -0.041277099 -0.156288 9.2995015e-39
-0.35080501 -0.039441898 -0.15765899 9.2058611e-39
-0.351105 -0.037597999 -0.159035 7.5528067e-39
-0.35102901 -0.035611399 -0.159595 5.6185258e-39
-0.35095301 -0.033622898 -0.160156 3.319442e-39
-0.351253 -0.0317594 -0.161541 3.6892896e-39
-0.33991301 -0.0204941 -0.13951001 2.3056348e-39
-0.33984101 -0.018602399 -0.140044 2.8537583e-39
-0.33943301 -0.016616199 -0.139837 2.3027622e-39
-0.33869299 -0.0145467 -0.138896 8.9393579e-39
-0.33829001 -0.012575 -0.138693 9.8634736e-39
-0.33625299 -0.0102056 -0.134865 8.2997591e-39
-0.33553699 -0.0081862099 -0.133957 8.2046768e-39
-0.33514401 -0.0062517598 -0.13376801 7.099788e-39
-0.333801 -0.0041161901 -0.131456 5.8104995e-39
-0.33216599 -0.0019442301 -0.128482 5.3487997e-39
-0.33086401 0.00013230099 -0.126242 5.6250236e-39
-0.329882 0.0021259701 -0.124711 5.2569698e-39
-0.32861 0.0041536801 -0.122524 5.3466417e-39
-0.325032 0.00654183 -0.11514 4.5222774e-39
-0.32410899 0.0084461598 -0.113713 2.7738213e-39
-0.32347599 0.0102923 -0.112934 3.5992603e-39
-0.32340899 0.0120518 -0.113431 3.5992603e-39
-0.32562301 0.0135267 -0.119095 3.6006883e-39
-0.325555 0.0153127 -0.119599 2.868514e-39
-0.325486 0.0171002 -0.120103 3.4184522e-39
-0.32570699 0.018862 -0.121266 3.4177333e-39
-0.32709801 0.020532399 -0.1251 5.072196e-39
-0.32821301 0.022254899 -0.128317 3.9611975e-39
-0.32995099 0.0239636 -0.132965 2.9502924e-39
-0.33203501 0.025692699 -0.138423 2.7695081e-39
-0.33258799 0.027534099 -0.140385 2.9567692e-39
-0.333462 0.029379601 -0.143087 3.3269782e-39
-0.333707 0.031260401 -0.14435001 3.7865144e-39
-0.334272 0.033145599 -0.146355 3.8772751e-39
-0.33548701 0.0350447 -0.149867 4.244257e-39
-0.33509001 0.036958199 -0.14965899 4.7966979e-39
-0.33501601 0.038872801 -0.150199 5.1633168e-39
-0.33430001 0.040770002 -0.14924601 5.6228516e-39
-0.33519301 0.042720102 -0.152032 6.3582348e-39
-0.33479601 0.044626798 -0.151822 6.2642371e-39
-0.33408001 0.046508901 -0.150865 5.0649849e-39
-0.33336899 0.048379499 -0.14991499 4.5096503e-39
-0.34773901 -0.043144502 -0.15436 9.5746212e-39
-0.348768 -0.041613001 -0.15733799 9.3905999e-39
-0.34943601 -0.0399202 -0.15953 9.2973322e-39
-0.34935901 -0.037935201 -0.16009 8.1938531e-39
-0.350407 -0.0363543 -0.163131 6.5340011e-39
-0.34957799 -0.0340911 -0.162037 4.6904795e-39
-0.35062999 -0.032481801 -0.165095 2.9448582e-39
-0.33866301 -0.022807 -0.14072099 1.842835e-39
-0.338256 -0.0208131 -0.140512 1.565532e-39
-0.338182 -0.018921301 -0.141046 1.747045e-39
-0.33777699 -0.0169346 -0.140838 1.9336125e-39
-0.337372 -0.0149533 -0.140632 9.2152316e-39
-0.33696899 -0.0129774 -0.14042599 9.4954212e-39
-0.33624101 -0.0109248 -0.139487 8.1142874e-39
-0.33487001 -0.0087296404 -0.13710199 8.205753e-39
-0.33415601 -0.00671027 -0.136186 6.4558605e-39
-0.33250001 -0.00449479 -0.133139 5.3498815e-39
-0.33211499 -0.00257691 -0.132954 5.2580418e-39
-0.33049399 -0.00041655899 -0.129968 5.165849e-39
-0.330423 0.0014195601 -0.13048699 4.8892775e-39
-0.33035201 0.00325727 -0.131005 5.1647812e-39
-0.329974 0.00514849 -0.13082799 5.2566012e-39
-0.32719299 0.00741746 -0.12517001 4.4297259e-39
-0.33044499 0.0087343697 -0.133266 4.0634615e-39
-0.32734901 0.0110008 -0.126872 4.334666e-39
-0.32580501 0.0130074 -0.12401 4.7045149e-39
-0.32573599 0.0148114 -0.12452 3.9716148e-39
-0.32566601 0.016617 -0.12503 4.2464038e-39
-0.325596 0.018424099 -0.12554 4.2435395e-39
-0.32670099 0.0201307 -0.12876 4.7949014e-39
-0.32842201 0.0218162 -0.133413 4.2370529e-39
-0.33048701 0.0235177 -0.13887601 2.9474127e-39
-0.33134601 0.025332499 -0.141561 2.5843825e-39
-0.332214 0.027168101 -0.14427499 2.1298812e-39
-0.33309099 0.0290245 -0.147017 2.8663742e-39
-0.33365601 0.0309102 -0.149042 3.8776395e-39
-0.33390301 0.0328153 -0.15033001 4.1535019e-39
-0.33414999 0.0347289 -0.151623 4.4293629e-39
-0.333754 0.036646299 -0.151411 4.2467695e-39
-0.33272201 0.0385474 -0.14970601 4.3382477e-39
-0.332331 0.040447999 -0.149501 5.2562453e-39
-0.33257401 0.0423682 -0.150785 6.083471e-39
-0.332183 0.044265602 -0.15057901 6.268214e-39
-0.33179399 0.0461579 -0.150374 5.8068813e-39
-0.34703001 -0.041949 -0.158389 9.6661036e-39
-0.34768999 -0.040257301 -0.160584 9.4820808e-39
-0.348728 -0.038691401 -0.163628 8.3782612e-39
-0.34940001 -0.0369679 -0.165865 7.5499425e-39
-0.34894601 -0.0348268 -0.165593 6.8073482e-39
-0.34886801 -0.032821499 -0.16616 5.0603116e-39
-0.33733499 -0.0232314 -0.142471 2.9452197e-39
-0.33692801 -0.021233199 -0.142259 2.4860436e-39
-0.33652401 -0.0192404 -0.142049 2.3938298e-39
-0.33645001 -0.017347001 -0.142584 2.3031041e-39
-0.33604601 -0.0153614 -0.14237399 9.3088565e-39
-0.33564401 -0.0133813 -0.142166 9.4042934e-39
-0.335244 -0.0114065 -0.141959 7.9298934e-39
-0.33452001 -0.0093579004 -0.14101499 7.9295346e-39
-0.333161 -0.00717205 -0.13862 5.9037727e-39
-0.331507 -0.0049447902 -0.135543 5.0732974e-39
-0.33081001 -0.00295286 -0.13464101 4.98325e-39
-0.33073801 -0.00109922 -0.13516501 3.9701952e-39
-0.33066499 0.00075603102 -0.13568901 3.5985443e-39
-0.33059299 0.00261291 -0.136214 4.5219215e-39
-0.33145699 0.0043097502 -0.13889401 5.5342685e-39
-0.331384 0.0061796098 -0.139423 5.2587606e-39
-0.33037499 0.0081933001 -0.13779099 4.7073917e-39
-0.330302 0.0100567 -0.138317 4.8889103e-39
-0.32869199 0.0121233 -0.13528401 5.1618987e-39
-0.32651299 0.0142283 -0.130917 5.3484269e-39
-0.325849 0.0161239 -0.13005701 5.2565956e-39
-0.32577699 0.0179494 -0.130573 4.2453388e-39
-0.32689399 0.0196703 -0.13386001 4.4279168e-39
-0.32894 0.0213442 -0.139329 4.97532e-39
-0.32979 0.0231461 -0.14201599 3.7757174e-39
-0.33064899 0.024968499 -0.144732 2.1208862e-39
-0.33151701 0.026811801 -0.147477 1.6663835e-39
-0.332394 0.028676201 -0.150252 2.4957882e-39
-0.33263901 0.030579099 -0.151544 3.5996107e-39
-0.33288401 0.032490399 -0.152842 3.7865116e-39
-0.33248901 0.034413502 -0.152628 3.5124415e-39
-0.332414 0.0363332 -0.153171 3.3284174e-39
-0.33075601 0.038229201 -0.14996 3.32806e-39
-0.33068201 0.040135399 -0.150499 4.2460605e-39
-0.329983 0.042020001 -0.149551 5.5321147e-39
-0.32959801 0.043908101 -0.149349 5.9005287e-39
-0.34594399 -0.0405946 -0.161639 9.2069429e-39
-0.34771499 -0.039314002 -0.166364 8.839238e-39
-0.34801 -0.037447002 -0.16777401 8.5612105e-39
-0.34644401 -0.034899499 -0.164985 7.6421437e-39
-0.345265 -0.0325162 -0.16306201 6.8155962e-39
-0.345186 -0.0305281 -0.163624 6.3514063e-39
-0.34048399 -0.027011501 -0.153694 6.530404e-39
-0.33600199 -0.023657501 -0.144227 5.0639171e-39
-0.335596 -0.0216548 -0.144013 4.2377634e-39
-0.334865 -0.019559501 -0.143051 4.2366549e-39
-0.33478999 -0.0176661 -0.14358699 4.5100315e-39
-0.33471501 -0.0157711 -0.144123 9.4939596e-39
-0.33431399 -0.0137866 -0.143912 9.5894021e-39
-0.33391401 -0.0118077 -0.143701 7.5611235e-39
-0.33319399 -0.0097539397 -0.14275099 7.7447888e-39
-0.332798 -0.0077893101 -0.142544 5.8105037e-39
-0.33019501 -0.00532693 -0.137242 5.4402891e-39
-0.32981101 -0.00339757 -0.13705 5.3502374e-39
-0.329427 -0.0014733 -0.136859 3.4191809e-39
-0.329974 0.000263172 -0.138823 2.8645736e-39
-0.33083901 0.0019549499 -0.141532 3.3248216e-39
-0.33107999 0.0037776399 -0.14279599 5.4449456e-39
-0.33100501 0.0056606601 -0.143328 5.5353489e-39
-0.330616 0.00759409 -0.14312699 5.0754526e-39
-0.330542 0.0094771096 -0.143659 5.5335455e-39
-0.330154 0.0114038 -0.14345799 5.4373982e-39
-0.33008 0.0132868 -0.14399099 5.1618847e-39
-0.32784599 0.0154158 -0.13944399 4.8892537e-39
-0.32777199 0.0172792 -0.139972 4.3378904e-39
-0.32769799 0.0191443 -0.140499 4.6130297e-39
-0.32823601 0.020961201 -0.142471 4.7023415e-39
-0.32908601 0.0227706 -0.14519 3.9626212e-39
-0.329945 0.024600601 -0.147937 1.6617116e-39
-0.33081299 0.026451699 -0.150714 9.2558566e-40
-0.331054 0.028348999 -0.152007 1.7557009e-39
-0.331296 0.030254699 -0.15330499 2.769857e-39
-0.33122 0.032174401 -0.15384801 2.8649309e-39
-0.33114401 0.034095898 -0.154392 2.5915782e-39
-0.33075199 0.036017802 -0.154177 2.682699e-39
-0.329108 0.037916601 -0.150958 2.500107e-39
-0.32841301 0.0398072 -0.15000901 3.4195396e-39
-0.32802999 0.041697402 -0.14980499 4.9800228e-39
-0.32734299 0.043568499 -0.148866 5.6239446e-39
-0.32726899 0.045463201 -0.14940199 5.9001672e-39
-0.34419799 -0.040931899 -0.16269401 9.4810187e-39
-0.34484801 -0.039228301 -0.16491599 9.2984126e-39
-0.34624299 -0.037788101 -0.168843 8.9303574e-39
-0.34395999 -0.034971699 -0.164382 8.1024086e-39
-0.34244099 -0.032469701 -0.16165 8.011994e-39
-0.339201 -0.029401399 -0.154965 8.1013002e-39
-0.33741301 -0.026882499 -0.15158799 8.0991212e-39
-0.33466399 -0.024085 -0.14599 6.7201832e-39
-0.33393201 -0.0219751 -0.14501899 6.7191112e-39
-0.333206 -0.0198786 -0.144054 6.8999026e-39
-0.33313 -0.017985299 -0.14459001 6.0744873e-39
-0.33305499 -0.016090199 -0.145127 9.7727087e-39
-0.33297899 -0.0141935 -0.14566401 9.7730801e-39
-0.33258 -0.0122103 -0.14545099 8.0188632e-39
-0.332183 -0.0102324 -0.145239 7.2863316e-39
-0.331467 -0.0081826197 -0.144283 6.455492e-39
-0.32887799 -0.00571041 -0.13894799 5.7204591e-39
-0.32849401 -0.0037770199 -0.138753 5.3498857e-39
-0.32842001 -0.00191365 -0.13928001 4.4297329e-39
-0.329276 -0.00023495599 -0.141991 3.0507543e-39
-0.329826 0.00152282 -0.14399201 3.1382808e-39
-0.33006501 0.0033511801 -0.145265 5.3495256e-39
-0.33030501 0.00518766 -0.14654399 5.9959656e-39
-0.33054599 0.0070322901 -0.147827 5.1672909e-39
-0.33047 0.0089319702 -0.14836501 5.165849e-39
-0.33007801 0.0108766 -0.14815401 4.612678e-39
-0.32968801 0.0128161 -0.147945 4.3360883e-39
-0.32805699 0.0148944 -0.14478099 4.3386036e-39
-0.32736701 0.016842101 -0.14385 4.6130325e-39
-0.327292 0.0187202 -0.144382 4.9796556e-39
-0.32721701 0.0206 -0.144914 4.7963392e-39
-0.328374 0.022391099 -0.148396 4.5182879e-39
-0.32923299 0.0242288 -0.15117601 2.9524126e-39
-0.32947099 0.026120501 -0.15246999 1.1078007e-39
-0.32970899 0.028020499 -0.153769 1.107079e-39
-0.32994801 0.0299291 -0.155073 1.3851191e-39
-0.32955599 0.0318584 -0.154855 1.7567897e-39
-0.32947999 0.033779901 -0.15539899 2.2206405e-39
-0.328776 0.0357018 -0.154424 2.4961526e-39
-0.32684499 0.037595998 -0.150466 2.2228069e-39
-0.326464 0.039488401 -0.150261 2.868528e-39
-0.325782 0.041365501 -0.149321 4.4290056e-39
-0.32570699 0.043258499 -0.149857 5.2562355e-39
-0.32532999 0.045136299 -0.149656 5.625011e-39
-0.342291 -0.037297498 -0.164875 8.9310665e-39
-0.34149501 -0.0350434 -0.163783 8.8381323e-39
-0.34035099 -0.032677099 -0.161882 8.8381366e-39
-0.33749199 -0.0297307 -0.15599699 8.4700701e-39
-0.33538401 -0.0270948 -0.151833 8.2856704e-39
-0.33332101 -0.0245142 -0.14776 7.9169089e-39
-0.33226699 -0.022295499 -0.146025 8.0998526e-39
-0.33154601 -0.0201979 -0.14505699 7.2737129e-39
-0.33147001 -0.0183044 -0.145594 6.817076e-39
-0.33139399 -0.016409401 -0.14613099 9.7752353e-39
-0.33131701 -0.0145127 -0.146668 9.4050192e-39
-0.33092099 -0.0125288 -0.14645401 8.294727e-39
-0.33052599 -0.0105504 -0.14624 7.0104664e-39
-0.329815 -0.0084994799 -0.145282 6.5484065e-39
-0.328174 -0.0062409798 -0.14212 5.5360678e-39
-0.327481 -0.0042270301 -0.14118899 4.9821878e-39
-0.327714 -0.0024232799 -0.14245 4.7063169e-39
-0.32825801 -0.00067485002 -0.144453 3.1425954e-39
-0.32849401 0.00114801 -0.14572699 2.9520959e-39
-0.32872999 0.00297893 -0.14700601 3.5981687e-39
-0.32896701 0.0048180399 -0.14828999 5.7200961e-39
-0.32920501 0.0066652899 -0.149579 5.7204577e-39
-0.328814 0.0086157601 -0.14936601 5.0740261e-39
-0.328738 0.0105171 -0.149905 4.705954e-39
-0.32834801 0.0124606 -0.149693 4.15529e-39
-0.32796001 0.014399 -0.149481 4.7988615e-39
-0.326343 0.0164651 -0.14630499 5.073289e-39
-0.32596299 0.0183795 -0.14610299 5.2548048e-39
-0.32588699 0.0202625 -0.14663699 4.8860293e-39
-0.32672799 0.0220777 -0.14939199 4.4268238e-39
-0.32757801 0.023913801 -0.152178 4.0580342e-39
-0.327811 0.0258049 -0.153474 2.2130623e-39
-0.32835901 0.0276909 -0.15553699 1.0134387e-39
-0.328282 0.0296124 -0.15608101 9.2124444e-40
-0.32820401 0.031535599 -0.156626 1.3825855e-39
-0.32781401 0.033463798 -0.156407 1.7535302e-39
-0.32680699 0.0353867 -0.154671 1.939732e-39
-0.32520199 0.0372844 -0.15146001 1.9429774e-39
-0.32482299 0.039177299 -0.151255 2.5894258e-39
-0.324146 0.041055501 -0.15031099 3.8765577e-39
-0.323771 0.042935401 -0.15010899 4.8885376e-39
-0.32339701 0.0448105 -0.149909 5.2565956e-39
-0.32332101 0.046700299 -0.150445 4.886367e-39
-0.338698 -0.034982901 -0.16237 9.2962126e-39
-0.33757499 -0.032630101 -0.16048799 9.021453e-39
-0.33544499 -0.0299397 -0.15623599 8.5622783e-39
-0.333693 -0.0274204 -0.15285499 8.1945762e-39
-0.33164701 -0.024836401 -0.148771 8.0105661e-39
-0.33060199 -0.0226159 -0.14703099 8.6519502e-39
-0.32988599 -0.0205171 -0.146061 7.6432115e-39
-0.32980999 -0.0186237 -0.146598 8.2896781e-39
-0.32973301 -0.0167286 -0.147135 9.7748906e-39
-0.32933801 -0.0147425 -0.14692 9.0366081e-39
-0.329261 -0.0128475 -0.147457 8.3872884e-39
-0.328868 -0.0108685 -0.14724199 7.0111867e-39
-0.328163 -0.0088164099 -0.146281 5.9959656e-39
-0.326536 -0.0065551102 -0.14311101 5.442796e-39
-0.32615301 -0.0046100402 -0.14290801 5.1662105e-39
-0.326691 -0.0028709299 -0.144913 3.7868816e-39
-0.32661399 -0.00098949496 -0.145446 3.0496767e-39
-0.326846 0.000832805 -0.146723 2.1230513e-39
-0.327079 0.00266321 -0.148004 2.0290381e-39
-0.32762399 0.0044470299 -0.150043 4.1552829e-39
-0.32754701 0.0063484702 -0.150582 5.7215381e-39
-0.32747 0.0082515301 -0.151122 5.6264726e-39
-0.32739201 0.0101562 -0.15166201 5.1662091e-39
-0.32700399 0.0121039 -0.151446 4.7066603e-39
-0.32630801 0.0140838 -0.150481 5.0740065e-39
-0.324705 0.016152799 -0.147296 4.7970664e-39
-0.324628 0.018037399 -0.14783099 4.8871083e-39
-0.32425001 0.019950701 -0.147627 4.5183314e-39
-0.32447499 0.021811699 -0.148901 4.2424577e-39
-0.32500401 0.0236605 -0.15092599 4.1498879e-39
-0.32584399 0.025506699 -0.15372001 3.2257694e-39
-0.32638299 0.027388301 -0.155781 1.8417504e-39
-0.32661501 0.0292957 -0.15708999 1.4715245e-39
-0.32622701 0.031226199 -0.15686999 1.4711644e-39
-0.32584101 0.0331515 -0.15665101 1.3804121e-39
-0.32484499 0.0350728 -0.154917 1.1989103e-39
-0.323558 0.036972702 -0.152455 1.385468e-39
-0.32318199 0.0388662 -0.152248 1.9390089e-39
-0.32250899 0.0407455 -0.151301 3.0460809e-39
-0.321841 0.042613301 -0.150361 4.2442612e-39
-0.32176501 0.044501498 -0.150897 4.610157e-39
-0.321394 0.046372399 -0.15069699 3.5945604e-39
-0.33449101 -0.032458398 -0.158309 9.1129354e-39
-0.33307201 -0.030028099 -0.15568399 8.9299748e-39
-0.33167401 -0.0276314 -0.153097 8.4693666e-39
-0.32965299 -0.025049699 -0.149018 8.1945902e-39
-0.32861999 -0.022832099 -0.14728101 8.6516125e-39
-0.32822701 -0.0208364 -0.147064 8.1953119e-39
-0.32814899 -0.018943001 -0.14760099 9.6722356e-39
-0.327757 -0.0169545 -0.147385 9.5908594e-39
-0.32767901 -0.0150612 -0.14792299 8.1157364e-39
-0.327288 -0.0130799 -0.147707 8.5727558e-39
-0.32721099 -0.0111866 -0.14824501 7.1033767e-39
-0.32620099 -0.0090546701 -0.146533 5.995604e-39
-0.32459301 -0.0067952098 -0.14336701 5.3502402e-39
-0.324516 -0.0049236598 -0.143898 4.614836e-39
-0.325048 -0.0031856601 -0.145906 3.0511228e-39
-0.32527599 -0.00136886 -0.147183 2.6809026e-39
-0.325506 0.000456009 -0.14846601 1.2018194e-39
-0.32573599 0.00228899 -0.149753 1.1059972e-39
-0.32596701 0.0041301302 -0.15104499 1.8471636e-39
-0.32588899 0.0060315598 -0.151585 4.9810976e-39
-0.325811 0.0079346299 -0.152125 5.9952467e-39
-0.32573199 0.0098393699 -0.152666 5.6268285e-39
-0.32534599 0.0117876 -0.152449 5.0747309e-39
-0.32465601 0.0137687 -0.15148 4.7070232e-39
-0.32336599 0.0158062 -0.149029 4.4300804e-39
-0.32298899 0.017725 -0.14882299 4.2449717e-39
-0.32261199 0.019638799 -0.148618 4.2449745e-39
-0.32253501 0.0215236 -0.14915299 4.6119563e-39
-0.322458 0.023409899 -0.14968801 4.4268392e-39
-0.32267901 0.025280399 -0.150967 4.2384808e-39
-0.323805 0.027115799 -0.15450799 3.0366866e-39
-0.32433501 0.0290014 -0.156569 2.1147275e-39
-0.32425699 0.0309179 -0.157113 1.6548326e-39
-0.323268 0.0328492 -0.155376 1.3796848e-39
-0.32258901 0.0347609 -0.15440901 1.1049028e-39
-0.32191399 0.036660999 -0.15345 1.0137946e-39
-0.32154 0.038555 -0.15324201 1.2903857e-39
-0.32087201 0.0404354 -0.152292 2.0283137e-39
-0.320209 0.0423043 -0.15134899 3.133948e-39
