# .PCD v0.7 - Point Cloud Data file format
VERSION 0.7
FIELDS x y z rgb
SIZE 4 4 4 4
TYPE F F F F
COUNT 1 1 1 1
WIDTH 967
HEIGHT 1
VIEWPOINT 0 0 0 1 0 0 0
POINTS 967
DATA ascii
-0.54256499 -0.0141506 0.0044971202 6.644216e-39
-0.53941101 -0.0115797 0.0059792502 5.7226577e-39
-0.53630602 -0.0090472801 0.0074385302 6.1821967e-39
-0.536156 -0.0071099401 0.0067417002 6.3651306e-39
-0.53382099 -0.0047639399 0.0076519502 5.9020155e-39
-0.53294998 -0.00270487 0.0074915802 6.7299517e-39
-0.53136498 -0.00052611303 0.0078618703 7.4606896e-39
-0.52979201 0.001637 0.0082291504 8.1993042e-39
-0.52893603 0.003667 0.0080684302 1.3160203e-38
-0.52528799 0.0061423099 0.0099935802 1.152048e-38
-0.52445 0.0081428597 0.00983088 8.6815134e-39
-0.523615 0.0101367 0.0096684797 8.4081733e-39
-0.52141798 0.0123243 0.0105338 7.3979703e-39
-0.520594 0.0142973 0.0103708 6.664731e-39
-0.51910102 0.0163558 0.0107177 7.2153937e-39
-0.51895601 0.018223699 0.0100458 6.4810783e-39
-0.519485 0.020007201 0.0088617001 5.7431545e-39
-0.51934099 0.0218799 0.0081880903 7.6684573e-39
-0.519871 0.023674799 0.00699786 8.2291883e-39
-0.52040303 0.025476901 0.00580301 9.979815e-39
-0.52025801 0.0273587 0.0051261601 9.7961328e-39
-0.52011299 0.029241201 0.0044490602 9.1575976e-39
-0.51996797 0.031124501 0.0037716799 8.2324141e-39
-0.52050102 0.032946501 0.0025676601 9.8864647e-39
-0.52240503 0.0346581 0.00029383801 1.090346e-38
-0.52502602 0.036333099 -0.0025484699 1.0167319e-38
-0.52697998 0.0380877 -0.0048814798 1.0347405e-38
-0.52895701 0.0398628 -0.0072411699 1.0627228e-38
-0.53023702 0.041706201 -0.0090625398 1.035136e-38
-0.53224999 0.043520499 -0.0114691 1.0625067e-38
-0.53724402 0.0451921 -0.016242201 9.4254474e-39
-0.545533 -0.019585799 0.0014991499 1.1529496e-38
-0.54461199 -0.017438101 0.00134702 9.406471e-39
-0.54293197 -0.0151389 0.00175395 7.2813136e-39
-0.54126602 -0.0128568 0.00215745 6.5455646e-39
-0.53664303 -0.0100009 0.0047478401 6.2690058e-39
-0.53429699 -0.0076302299 0.0056728101 6.4587654e-39
-0.53269702 -0.0054218899 0.0060522798 5.5368231e-39
-0.53182799 -0.0033615001 0.0058945701 6.1764304e-39
-0.53024697 -0.00118025 0.0062705302 7.3710093e-39
-0.528678 0.00098536396 0.0066434001 1.1230236e-38
-0.52782398 0.00301663 0.0064853001 1.7847363e-38
-0.527677 0.0049256799 0.0057982998 1.8771098e-38
-0.525428 0.0071694902 0.0066966298 1.2531736e-38
-0.52458602 0.0091763102 0.0065388498 8.9530486e-39
-0.52168697 0.0114833 0.0079452796 8.038281e-39
-0.52017999 0.0135628 0.0083029401 6.7475744e-39
-0.52003503 0.0154404 0.0076272702 6.7472087e-39
-0.51854002 0.0174993 0.0079842499 6.1951363e-39
-0.51839602 0.019371299 0.0073105399 5.275715e-39
-0.518924 0.021160901 0.00611861 7.125726e-39
-0.519454 0.022957699 0.0049220701 8.1405954e-39
-0.51930898 0.0248389 0.0042451299 9.7100735e-39
-0.51916403 0.026720701 0.0035679301 9.066139e-39
-0.51901799 0.0286033 0.0028904399 7.4004954e-39
-0.51955003 0.03042 0.0016847 9.6123582e-39
-0.52008301 0.032244101 0.00047423501 1.1641361e-38
-0.52130097 0.034015499 -0.00127738 1.4131343e-38
-0.52460998 0.035627902 -0.00467955 1.2012646e-38
-0.52727199 0.037326802 -0.0075867102 1.0350265e-38
-0.52925801 0.039104398 -0.0099710496 1.0350636e-38
-0.53054398 0.040952001 -0.0118101 1.1084946e-38
-0.533297 0.042723201 -0.0148228 1.0347392e-38
-0.53683603 0.044479799 -0.018475801 1.0343434e-38
-0.53893101 0.046350598 -0.020989699 1.686338e-38
-0.54345602 -0.018115601 -0.000297814 1.1065278e-38
-0.54178101 -0.015813701 0.000115113 8.3869367e-39
-0.54011899 -0.0135289 0.00052459101 6.271842e-39
-0.53846902 -0.011261 0.00093064801 5.9934782e-39
-0.53462601 -0.0085767303 0.00297988 5.4414115e-39
-0.53301901 -0.0063563399 0.0033706799 5.2613152e-39
-0.53142399 -0.0041520498 0.00375823 6.359014e-39
-0.53055698 -0.0020933 0.00360424 8.0131221e-39
-0.52898002 8.3952502e-05 0.0039881999 1.6007433e-38
-0.52812302 0.0021245601 0.00383413 2.0789692e-38
-0.52797401 0.0040408401 0.0031441899 2.1894572e-38
-0.526416 0.0061850799 0.00352693 1.9689464e-38
-0.52626801 0.0080956398 0.00283906 1.6291593e-38
-0.52195698 0.010636 0.0053373701 1.2710021e-38
-0.52044398 0.0127263 0.0057056202 1.0871873e-38
-0.518942 0.0148021 0.0060708802 1.1601894e-38
-0.51879698 0.016680401 0.0053946101 1.0864345e-38
-0.51865101 0.0185594 0.0047180802 7.3025418e-39
-0.51850599 0.0204391 0.0040413002 9.9790822e-39
-0.51836002 0.0223196 0.0033642601 8.694837e-39
-0.518215 0.0242007 0.0026869599 7.7732576e-39
-0.51806903 0.0260826 0.00200942 8.0458704e-39
-0.51859897 0.027894 0.00080194301 7.5827119e-39
-0.51912999 0.0297128 -0.00041024899 9.7946054e-39
-0.51966298 0.031539101 -0.00162719 1.1918312e-38
-0.52225798 0.033187099 -0.0044789501 1.2564374e-38
-0.525594 0.034800801 -0.00793075 1.1642793e-38
-0.52756602 0.0365601 -0.0103127 9.7034804e-39
-0.52812803 0.038447201 -0.0115794 9.8860808e-39
-0.53230602 0.040090598 -0.015741801 1.0897326e-38
-0.53583598 0.041820999 -0.0194038 1.0711129e-38
-0.53642702 0.043764502 -0.020718399 1.4380947e-38
-0.53776997 0.045675699 -0.0226434 1.8520721e-38
-0.53912401 0.047602501 -0.024583699 1.7871792e-38
-0.54306298 -0.018959999 -0.0025110701 1.1528062e-38
-0.54138601 -0.0166503 -0.0020890799 9.3135733e-39
-0.53972203 -0.0143578 -0.0016706201 6.4573192e-39
-0.53881902 -0.0122345 -0.00181698 5.71975e-39
-0.53717399 -0.0099707702 -0.00140254 4.9840347e-39
-0.53334302 -0.00729805 0.00066833099 5.2602418e-39
-0.53174001 -0.0050817402 0.00106728 6.6345134e-39
-0.53086901 -0.0030133999 0.00091744203 1.1319531e-38
-0.53000098 -0.00095216098 0.000767925 1.9503624e-38
-0.529136 0.00110205 0.00061868498 2.2169375e-38
-0.528274 0.00314923 0.00046977901 2.3455428e-38
-0.52741599 0.0051894202 0.00032113699 2.2444508e-38
-0.52656001 0.0072226799 0.00017281499 2.0606741e-38
-0.52361298 0.0095701199 0.00164183 1.9045538e-38
-0.52139503 0.011782 0.00255848 1.8400181e-38
-0.51988101 0.0138727 0.0029370401 1.8120729e-38
-0.51905501 0.015855299 0.0027856 1.5181303e-38
-0.51823199 0.017831299 0.0026344401 9.4201477e-39
-0.51808602 0.019714599 0.0019560501 8.503236e-39
-0.51793998 0.021598499 0.0012773999 7.6774508e-39
-0.51712 0.0235625 0.00112853 7.2136042e-39
-0.51764798 0.025368501 -8.0664999e-05 6.937725e-39
-0.51750201 0.0272546 -0.00076006597 7.7620444e-39
-0.51870799 0.029002899 -0.0025132201 9.6988043e-39
-0.51992399 0.0307649 -0.00427964 1.0533583e-38
-0.52322501 0.032349199 -0.0077167298 9.7052713e-39
-0.52517599 0.0340873 -0.0100886 8.1390554e-39
-0.52714902 0.035845801 -0.0124876 9.5076013e-39
-0.528427 0.037680302 -0.0143367 1.1804559e-38
-0.53483599 0.0391628 -0.0203315 1.4008573e-38
-0.53542501 0.041100401 -0.021648001 1.5576235e-38
-0.53601599 0.043046299 -0.0229699 1.8245563e-38
-0.53736001 0.044958498 -0.024907799 1.8982065e-38
-0.53795803 0.0469248 -0.0262444 1.8242727e-38
-0.54099 -0.017490299 -0.0043021399 1.0514988e-38
-0.53932399 -0.01519 -0.00387466 8.8479064e-39
-0.53841901 -0.0130609 -0.0040173898 6.3636859e-39
-0.53751802 -0.0109393 -0.0041598598 5.535021e-39
-0.535878 -0.00867985 -0.0037370201 6.2679057e-39
-0.53278702 -0.0061575701 -0.0022001001 7.4646034e-39
-0.53190798 -0.0040752599 -0.0023449101 1.389522e-38
-0.531757 -0.0021311201 -0.0030455999 2.2081506e-38
-0.53016102 6.77399e-05 -0.0026336799 2.3460826e-38
-0.52929199 0.0021285701 -0.00277766 2.3459013e-38
-0.52842599 0.0041823499 -0.00292131 2.3457924e-38
-0.52827603 0.0061146701 -0.00361775 2.3370044e-38
-0.52389401 0.0087058796 -0.00101953 2.3366812e-38
-0.52235597 0.0108269 -0.000624176 2.3089149e-38
-0.52014399 0.0130326 0.000304463 2.2629266e-38
-0.51931399 0.0150241 0.000156984 1.8678584e-38
-0.51848799 0.017008901 9.7628799e-06 1.3536884e-38
-0.518341 0.0188992 -0.00067148398 8.4913586e-39
-0.51751798 0.0208747 -0.00081739802 6.1969244e-39
-0.51669699 0.022843599 -0.00096303399 6.3813072e-39
-0.51655102 0.024729 -0.00164256 6.3755409e-39
-0.51775402 0.026467299 -0.0033990699 8.3101399e-39
-0.51896602 0.028219201 -0.0051688598 9.0538076e-39
-0.52156502 0.029847801 -0.0080582099 9.0523783e-39
-0.52280498 0.031633601 -0.0098659499 8.2251722e-39
-0.52405399 0.033433501 -0.0116876 7.309362e-39
-0.52601999 0.035188399 -0.0140961 9.0473728e-39
-0.528009 0.036963999 -0.016532401 1.3267072e-38
-0.53442299 0.038436901 -0.0225775 1.5936026e-38
-0.53501201 0.040376902 -0.023901301 1.796719e-38
-0.53560299 0.042325299 -0.025230501 1.9435832e-38
-0.53619701 0.044282001 -0.0265652 1.9438723e-38
-0.53679198 0.046247099 -0.027905401 1.8335636e-38
-0.53663599 0.048256598 -0.028629599 1.2537091e-38
-0.54059201 -0.0183337 -0.00652412 1.152877e-38
-0.53968 -0.016186699 -0.0066626202 1.0053996e-38
-0.53801799 -0.0138907 -0.00622663 9.5865645e-39
-0.53711599 -0.0117634 -0.0063654399 8.9393664e-39
-0.53621697 -0.0096435295 -0.0065039899 1.0500191e-38
-0.535321 -0.0075311 -0.0066422699 1.2615997e-38
-0.53442901 -0.0054260599 -0.0067802798 1.6108604e-38
-0.53354001 -0.0033283799 -0.0069180499 2.1432176e-38
-0.53338802 -0.00136851 -0.0076247202 2.3453985e-38
-0.530321 0.00109615 -0.00606253 2.3458658e-38
-0.52944797 0.0031636299 -0.0062011299 2.3460096e-38
-0.528579 0.00522403 -0.0063394802 2.3460815e-38
-0.52487803 0.0077243401 -0.0042522498 2.3465131e-38
-0.52332801 0.0098610399 -0.0038429101 2.3460111e-38
-0.52109802 0.0120844 -0.0028913899 2.3463351e-38
-0.51957601 0.0141865 -0.0024914299 2.1162812e-38
-0.51874602 0.0161804 -0.0026346301 1.8306534e-38
-0.51859802 0.018077601 -0.0033187701 1.3899191e-38
-0.51777101 0.020062 -0.0034606699 8.1989427e-39
-0.51694697 0.022039801 -0.0036023301 6.4626876e-39
-0.51679999 0.0239322 -0.0042847199 7.2024163e-39
-0.51800799 0.025674 -0.0060578999 7.1152499e-39
-0.52060002 0.027282899 -0.0089539997 7.394701e-39
-0.52183598 0.0290583 -0.0107652 7.672388e-39
-0.52238202 0.0309151 -0.0120235 7.9547454e-39
-0.52363199 0.032715801 -0.0138571 7.0360457e-39
-0.52489001 0.0345308 -0.015704799 7.3079368e-39
-0.52687299 0.036302801 -0.0181506 1.2170482e-38
-0.53326702 0.037764098 -0.024224401 1.5383249e-38
-0.53385299 0.0397029 -0.0255518 1.7412964e-38
-0.53444201 0.041650001 -0.026884601 1.8974869e-38
-0.53503299 0.043605398 -0.0282229 1.8978477e-38
-0.53562599 0.0455692 -0.0295667 1.7874312e-38
-0.53547001 0.0475788 -0.0302913 1.152441e-38
-0.53927898 -0.0170276 -0.0088898698 1.1248579e-38
-0.53836799 -0.0148824 -0.0090244301 1.0968392e-38
-0.53746098 -0.0127448 -0.0091586998 1.4003261e-38
-0.53655797 -0.0106148 -0.0092927301 1.7411533e-38
-0.535658 -0.0084922696 -0.00942651 1.8149464e-38
-0.53550398 -0.0065186401 -0.0101385 1.9058455e-38
-0.53460801 -0.0044066599 -0.010271 2.1433594e-38
-0.53371501 -0.0023020401 -0.0104031 2.2442713e-38
-0.53282601 -0.00020480801 -0.0105351 2.2994094e-38
-0.52975702 0.00225643 -0.0089482702 2.3455772e-38
-0.52816403 0.00444509 -0.0085146101 2.3456509e-38
-0.52729702 0.0065037999 -0.00864919 2.3460123e-38
-0.52430999 0.0088841002 -0.0070983502 2.345653e-38
-0.522062 0.0111255 -0.00612352 2.3454725e-38
-0.52121902 0.0131431 -0.0062613501 2.2721098e-38
-0.52107 0.0150574 -0.0069519798 2.0326559e-38
-0.52023 0.0170653 -0.0070885601 1.6745354e-38
-0.51939398 0.019066401 -0.0072248299 9.1198088e-39
-0.51855999 0.0210608 -0.0073608998 6.8386742e-39
-0.51841199 0.0229674 -0.00804873 7.1217337e-39
-0.52032399 0.0246401 -0.0104091 7.4908988e-39
-0.52156103 0.026408199 -0.0122293 9.2422402e-39
-0.521411 0.028334901 -0.0129244 1.0533346e-38
-0.52265698 0.0301251 -0.0147614 9.1507774e-39
-0.52391201 0.031929702 -0.016612699 7.4026758e-39
-0.52446699 0.033810999 -0.017894899 7.0349513e-39
-0.52573597 0.035641398 -0.019769199 1.0149434e-38
-0.53137398 0.037148301 -0.0252627 1.4189404e-38
-0.53269398 0.0390287 -0.0272025 1.6856208e-38
-0.53328001 0.040974598 -0.028538899 1.8239475e-38
-0.53386903 0.042928699 -0.029880799 1.8148719e-38
-0.53445899 0.044891201 -0.0312282 1.6400273e-38
-0.53430301 0.046900801 -0.031953201 8.8464841e-39
-0.53414601 0.048911199 -0.0326785 5.8994876e-39
-0.53705603 -0.0135774 -0.0113875 1.5475846e-38
-0.53615201 -0.0114416 -0.0115178 1.9435861e-38
-0.53599697 -0.0094609996 -0.0122327 2.0722263e-38
-0.53584301 -0.00747969 -0.0129479 2.1180354e-38
-0.53568798 -0.00549762 -0.0136633 2.0707168e-38
-0.53478801 -0.0033786001 -0.01379 2.0973363e-38
-0.53315097 -0.00113574 -0.0133308 2.16137e-38
-0.53152698 0.00109059 -0.0128753 2.2443454e-38
-0.52846801 0.0035426901 -0.0112712 2.2810091e-38
-0.52688003 0.0057272301 -0.0108294 2.345402e-38
-0.52459598 0.0080071203 -0.0098241996 2.3455075e-38
-0.52373999 0.010049 -0.00995644 2.3365042e-38
-0.52218699 0.0121865 -0.0095253196 2.345285e-38
-0.52134103 0.0142104 -0.0096578998 2.0329413e-38
-0.521191 0.016132699 -0.0103517 1.4544194e-38
-0.520347 0.0181469 -0.0104831 7.934229e-39
-0.52019799 0.020067001 -0.0111761 7.3976171e-39
-0.52004802 0.0219879 -0.0118695 7.7707143e-39
-0.52059102 0.0238293 -0.0131298 1.0073443e-38
-0.52113599 0.025678299 -0.0143952 1.0447616e-38
-0.52098501 0.0276086 -0.0150919 9.1572641e-39
-0.521532 0.029469701 -0.0163639 8.141673e-39
-0.52278203 0.0312718 -0.0182216 6.6697981e-39
-0.52404201 0.033088401 -0.0200937 6.667975e-39
-0.52459902 0.034979898 -0.0213881 8.3127239e-39
-0.52948803 0.036534801 -0.0262972 1.2250095e-38
-0.53079802 0.0384093 -0.0282377 1.4921205e-38
-0.53211898 0.040298998 -0.0301935 1.593678e-38
-0.532704 0.0422519 -0.031539001 1.474508e-38
-0.53329301 0.044213101 -0.0328901 1.0778939e-38
-0.53313601 0.046222799 -0.033615399 5.9012784e-39
-0.53297901 0.0482332 -0.034341101 5.3481144e-39
-0.53664899 -0.0144134 -0.0136253 1.4370942e-38
-0.53649402 -0.0124258 -0.014343 1.9067086e-38
-0.53558898 -0.0102872 -0.0144685 2.2471448e-38
-0.53543401 -0.0083020302 -0.0151854 2.2010481e-38
-0.53527898 -0.0063160402 -0.015902599 1.7221015e-38
-0.535124 -0.0043293 -0.0166201 1.7667627e-38
-0.53422201 -0.0022076601 -0.016742 1.9778779e-38
-0.53258401 3.5818401e-05 -0.016271001 2.1426424e-38
-0.53095901 0.0022626901 -0.015804 2.1704458e-38
-0.52717799 0.0048296601 -0.0135954 2.2349086e-38
-0.52488297 0.0071233902 -0.0125711 2.2533119e-38
-0.52331698 0.0092834802 -0.0121277 2.1980325e-38
-0.523166 0.0112189 -0.0128266 2.106052e-38
-0.522313 0.0132561 -0.0129541 1.7477135e-38
-0.52146202 0.0152864 -0.0130813 9.7633803e-39
-0.52061498 0.0173098 -0.0132084 7.0230739e-39
-0.520464 0.0192373 -0.0139044 8.7798173e-39
-0.52031398 0.021165401 -0.0146007 7.8650791e-39
-0.520163 0.0230943 -0.0152973 9.7086232e-39
-0.52001297 0.025024001 -0.0159942 8.6040931e-39
-0.52055699 0.026879501 -0.0172679 8.0494774e-39
-0.52110398 0.0287428 -0.018546799 7.954758e-39
-0.52165198 0.030613899 -0.019830801 6.6654681e-39
-0.52290797 0.032428 -0.021709301 6.110865e-39
-0.52346301 0.034318201 -0.023007199 8.3094911e-39
-0.52833599 0.035864402 -0.027938601 1.0955763e-38
-0.52964097 0.0377362 -0.029885801 1.0314354e-38
-0.53095698 0.039623398 -0.031848401 1.0322992e-38
-0.53153998 0.041575 -0.0331975 9.8717581e-39
-0.53212601 0.043535002 -0.034552202 8.0303903e-39
-0.53196901 0.045544598 -0.035277899 5.6365451e-39
-0.532556 0.047517799 -0.036639899 6.6424168e-39
-0.53624099 -0.0152527 -0.0158721 1.2439541e-38
-0.53533399 -0.0131052 -0.015994901 1.7588734e-38
-0.53517801 -0.0111168 -0.016713301 2.0630066e-38
-0.53502297 -0.0091276597 -0.017432 2.0720469e-38
-0.53486699 -0.0071377801 -0.018151 1.4643547e-38
-0.53471202 -0.00514714 -0.018870199 1.2612038e-38
-0.53380901 -0.0030197201 -0.0189883 1.3901315e-38
-0.53290999 -0.00089979998 -0.019106301 1.7020849e-38
-0.531277 0.00133937 -0.0186268 1.8402333e-38
-0.52965599 0.0035620099 -0.0181513 1.8949744e-38
-0.52588701 0.00611735 -0.015921 1.8766081e-38
-0.52359998 0.0084045297 -0.0148839 1.8946872e-38
-0.52203798 0.0105605 -0.0144324 1.5554707e-38
-0.521887 0.0124967 -0.015132 1.0857836e-38
-0.52103603 0.0145323 -0.0152557 7.8427214e-39
-0.52088398 0.016466299 -0.0159545 7.671309e-39
-0.52003598 0.018492101 -0.016077001 7.9529433e-39
-0.519885 0.0204239 -0.016775001 6.7612623e-39
-0.51903999 0.022439901 -0.016896199 7.6810536e-39
-0.51958299 0.0242898 -0.0181718 7.6799732e-39
-0.51943201 0.0262239 -0.0188706 7.4023115e-39
-0.51997602 0.028085999 -0.0201529 7.1242869e-39
-0.520522 0.029955899 -0.021440201 6.6629528e-39
-0.52107 0.0318336 -0.022732699 6.4749658e-39
-0.52232599 0.0336565 -0.0246266 8.3938086e-39
-0.52645898 0.0352543 -0.028966499 9.7655523e-39
-0.52848399 0.037062999 -0.031534199 7.931708e-39
-0.52979499 0.038947601 -0.033503599 6.6531942e-39
-0.530375 0.040897898 -0.034856301 1.0159152e-38
-0.530958 0.0428566 -0.036214601 8.8716836e-39
-0.530801 0.044866301 -0.036940701 7.0302738e-39
-0.53213102 0.046799399 -0.038947899 8.9598421e-39
-0.53658497 -0.016257999 -0.018731199 1.1706672e-38
-0.53567398 -0.0141 -0.0188493 1.492157e-38
-0.53476602 -0.0119497 -0.0189672 1.8514628e-38
-0.53460997 -0.00995667 -0.019687699 1.9523005e-38
-0.53370601 -0.0078171799 -0.0198042 1.399855e-38
-0.53355002 -0.0058264998 -0.0205239 1.2244682e-38
-0.53339398 -0.0038350599 -0.021243799 1.1419236e-38
-0.53249401 -0.00170939 -0.0213579 1.1604719e-38
-0.53159702 0.00040875701 -0.0214718 1.2709962e-38
-0.53070301 0.0025194001 -0.0215856 1.4832244e-38
-0.52835202 0.00486203 -0.0204999 1.8051153e-38
-0.52317399 0.0076313098 -0.0170775 2.0532494e-38
-0.52231503 0.0096863098 -0.017198101 1.9978244e-38
-0.52146 0.0117343 -0.0173185 1.5468271e-38
-0.52060699 0.0137752 -0.0174386 8.9436599e-39
-0.520455 0.0157129 -0.0181391 7.2110553e-39
-0.52030402 0.0176514 -0.018839899 7.4901645e-39
-0.51945502 0.0196795 -0.018957799 6.1144467e-39
-0.51930302 0.0216158 -0.019657699 6.0233427e-39
-0.51915097 0.0235528 -0.020357899 7.215751e-39
-0.51899999 0.025490601 -0.021058399 7.2153853e-39
-0.51954401 0.027354799 -0.022347599 7.2110861e-39
-0.51939201 0.0292977 -0.0230499 8.2158689e-39
-0.51993698 0.0311742 -0.024345901 9.1317072e-39
-0.52118802 0.032994699 -0.026246199 9.2354117e-39
-0.52530801 0.034584899 -0.030605299 9.3329897e-39
-0.52732599 0.036389701 -0.0331828 8.1341004e-39
-0.52863199 0.038271699 -0.0351591 6.9287287e-39
-0.52921098 0.040220801 -0.0365154 9.3383847e-39
-0.529791 0.042178199 -0.037877198 7.9561915e-39
-0.53111702 0.044100001 -0.039888199 7.2171817e-39
-0.532453 0.0460377 -0.041915301 8.8691052e-39
-0.53916401 0.047730099 -0.048628502 1.0526768e-38
-0.536933 -0.017271301 -0.021613199 1.1613408e-38
-0.536017 -0.0151028 -0.0217265 1.2161512e-38
-0.53510398 -0.012942 -0.0218396 1.5471498e-38
-0.53494698 -0.0109411 -0.0225632 1.8510659e-38
-0.53403902 -0.0087912399 -0.022675 1.4922632e-38
-0.53313398 -0.0066490802 -0.022786601 1.2796764e-38
-0.53223199 -0.00451448 -0.022898 1.215355e-38
-0.532076 -0.00252226 -0.023618599 1.1237727e-38
-0.531178 -0.000398351 -0.0237287 9.9595915e-39
-0.53028297 0.00171802 -0.023838701 1.0516375e-38
-0.529392 0.00382696 -0.023948601 1.2352348e-38
-0.52416998 0.00662605 -0.0204606 1.4839782e-38
-0.521887 0.00891547 -0.0193967 1.9989027e-38
-0.52103001 0.0109688 -0.019513501 1.8981375e-38
-0.52017701 0.0130151 -0.019630101 9.399983e-39
-0.52002501 0.0149566 -0.020332299 5.9134935e-39
-0.51917398 0.016992901 -0.020447699 6.8408476e-39
-0.51902199 0.018932199 -0.021149 6.0179239e-39
-0.51887 0.020872099 -0.0218507 6.1090391e-39
-0.518718 0.022812899 -0.0225526 7.2985762e-39
-0.51856601 0.024754301 -0.023254801 7.9403527e-39
-0.51841301 0.026696499 -0.0239572 9.3146579e-39
-0.51895702 0.0285674 -0.025255 1.3625861e-38
-0.519503 0.030446099 -0.0265579 1.7024458e-38
-0.52075398 0.032267299 -0.028470701 1.8132602e-38
-0.52415699 0.0339153 -0.032244299 1.7674879e-38
-0.526896 0.035656299 -0.035460401 1.0507049e-38
-0.52746999 0.0375957 -0.036814801 7.2009883e-39
-0.52804601 0.039543498 -0.0381747 7.5838063e-39
-0.528624 0.0414996 -0.039540201 7.2175391e-39
-0.53068799 0.043373201 -0.042207401 6.296289e-39
-0.53429103 0.0451851 -0.046231199 9.8828788e-39
-0.53796601 0.047033999 -0.050336 1.0714394e-38
-0.54014099 0.0489926 -0.053139199 1.2987299e-38
-0.53865802 -0.016607 -0.0264968 1.0601054e-38
-0.53696603 -0.0142614 -0.025977099 1.2248311e-38
-0.53680801 -0.0122445 -0.0267069 1.4368748e-38
-0.534374 -0.0097731398 -0.025568601 1.5292482e-38
-0.53346401 -0.00762054 -0.025675399 1.3354258e-38
-0.53255802 -0.0054756501 -0.0257819 1.2614542e-38
-0.53165603 -0.0033384101 -0.0258884 1.1421408e-38
-0.53075701 -0.00120873 -0.025994699 9.1330945e-39
-0.52986097 0.00091338798 -0.0261009 8.8665997e-39
-0.52823502 0.0031515199 -0.025595 1.1163911e-38
-0.52735001 0.0052543702 -0.0257018 1.0332717e-38
-0.52287501 0.0079175504 -0.0227938 1.2164026e-38
-0.52059901 0.0102004 -0.0217172 1.124674e-38
-0.520446 0.0121485 -0.022422099 7.1880347e-39
-0.51959199 0.0141972 -0.0225341 4.9821892e-39
-0.51943898 0.0161431 -0.023238201 5.3592351e-39
-0.51928598 0.018089799 -0.023942599 5.6372626e-39
-0.51843601 0.0201256 -0.0240523 5.6365437e-39
-0.51828301 0.02207 -0.024755901 9.1266219e-39
-0.51813 0.024015199 -0.025459699 1.0778234e-38
-0.517977 0.025961099 -0.0261639 1.4173276e-38
-0.51852101 0.027834199 -0.0274687 1.9318542e-38
-0.519768 0.0296447 -0.029385 2.27211e-38
-0.52031898 0.031537101 -0.030703999 2.2999834e-38
-0.52372402 0.033181202 -0.034506802 2.3003091e-38
-0.52573597 0.0349815 -0.037112899 1.775879e-38
-0.52630699 0.036919601 -0.038470801 9.9524379e-39
-0.527614 0.0388119 -0.0404764 7.1131185e-39
-0.52745599 0.040821001 -0.041203398 6.9305139e-39
-0.52951401 0.042690601 -0.043880802 7.2999789e-39
-0.53462499 0.044407502 -0.0492636 1.0159784e-38
-0.53754002 0.046297099 -0.0527284 1.0528201e-38
-0.53893399 0.0482921 -0.0548576 1.5096984e-38
-0.53963202 -0.0157663 -0.0308192 1.0140428e-38
-0.53792602 -0.0134092 -0.0302798 1.0410166e-38
-0.53699797 -0.0112244 -0.030378601 1.0870763e-38
-0.53379798 -0.0085998299 -0.0285872 1.1243118e-38
-0.53213799 -0.0063009802 -0.028064899 1.1975642e-38
-0.53123403 -0.0041578598 -0.028167401 1.0322622e-38
-0.530334 -0.00202238 -0.0282699 8.0278259e-39
-0.52943701 0.000105525 -0.0283721 8.7743929e-39
-0.528543 0.0022258901 -0.028474299 9.2328599e-39
-0.526923 0.0044596698 -0.0279599 8.0372244e-39
-0.524593 0.0067926701 -0.026838901 7.6641301e-39
-0.52016598 0.0094288597 -0.023929499 6.9207945e-39
-0.52001297 0.0113807 -0.0246362 6.2682392e-39
-0.51915699 0.0134349 -0.024744499 3.6010708e-39
-0.51900399 0.0153845 -0.025450399 2.9596447e-39
-0.51885098 0.017334901 -0.0261565 4.4297371e-39
-0.51869702 0.0192861 -0.026862901 5.2526664e-39
-0.51854402 0.0212379 -0.027569501 1.0489413e-38
-0.51839 0.023190601 -0.028276499 1.6006678e-38
-0.51823699 0.025144 -0.0289836 1.9407112e-38
-0.51878297 0.027022701 -0.0302992 2.2441655e-38
-0.51933098 0.0289093 -0.03162 2.3364682e-38
-0.52129799 0.0306661 -0.034184098 2.3466939e-38
-0.52328801 0.032444101 -0.036778402 2.3464429e-38
-0.52530098 0.034243699 -0.0394031 2.2078999e-38
-0.52587301 0.036184199 -0.0407685 1.3348521e-38
-0.52644598 0.0381331 -0.042139601 7.2830904e-39
-0.527022 0.040090401 -0.043516301 6.367248e-39
-0.52908099 0.041959401 -0.0462129 7.8452227e-39
-0.53343302 0.043715298 -0.0509611 9.4153987e-39
-0.53711301 0.045557 -0.055130702 1.381776e-38
-0.538508 0.0475532 -0.057274401 1.7391787e-38
-0.54070401 0.049531698 -0.060143799 1.4814662e-38
-0.54061699 -0.0149147 -0.035195202 9.8580702e-39
-0.53735 -0.0122299 -0.033344001 8.8435862e-39
-0.536421 -0.0100424 -0.033437502 9.122666e-39
-0.53246599 -0.0072751199 -0.030986801 9.2141428e-39
-0.53081 -0.00498066 -0.0304556 7.9230732e-39
-0.52990901 -0.0028393299 -0.0305542 6.3629376e-39
-0.52901101 -0.00070565502 -0.030652599 6.1886119e-39
-0.52811599 0.00142049 -0.030750901 7.4793465e-39
-0.52722502 0.00353906 -0.030849099 7.295349e-39
-0.52488399 0.00588651 -0.0297073 5.5440146e-39
-0.52257001 0.0082075195 -0.028579 6.5473485e-39
-0.518875 0.0107168 -0.026256399 7.5582564e-39
-0.51872098 0.0126695 -0.0269637 6.1811037e-39
-0.51856703 0.0146229 -0.027671199 4.8028566e-39
-0.51841301 0.0165771 -0.028379001 3.0554318e-39
-0.51825899 0.018532 -0.0290871 5.9884238e-39
-0.51810497 0.020487599 -0.0297955 1.2598402e-38
-0.51865202 0.0223595 -0.031114999 1.8947923e-38
-0.518498 0.024320399 -0.0318252 2.2349072e-38
-0.51904601 0.0262048 -0.033151601 2.3362494e-38
-0.52030498 0.028023001 -0.035105299 2.3456873e-38
-0.52157301 0.029856101 -0.037074398 2.3460488e-38
-0.52285099 0.031704102 -0.039058901 2.3456524e-38
-0.52413899 0.033567298 -0.0410593 2.1983591e-38
-0.52470702 0.035506599 -0.0424283 1.326101e-38
-0.52527797 0.037454098 -0.043802999 6.9189938e-39
-0.52658498 0.039356802 -0.045838401 5.9027175e-39
-0.52864599 0.041225199 -0.048554599 7.1905627e-39
-0.53376502 0.042928599 -0.054025199 1.2427642e-38
-0.53668499 0.044813901 -0.057542998 1.6652078e-38
-0.53729898 0.046851099 -0.058996901 1.8580612e-38
-0.539487 0.048825402 -0.061877199 1.4815023e-38
-0.54098803 -0.0159475 -0.038215801 9.4035899e-39
-0.539258 -0.013565 -0.0376423 7.6511667e-39
-0.53676999 -0.0110453 -0.036421701 7.9252354e-39
-0.53507501 -0.0087045496 -0.0358616 7.9306192e-39
-0.531133 -0.0059496802 -0.033387698 5.6268369e-39
-0.53022701 -0.00379795 -0.033481199 4.9850464e-39
-0.529324 -0.00165396 -0.0335746 5.5367586e-39
-0.52768701 0.00061181199 -0.033036601 6.084899e-39
-0.52753001 0.00261113 -0.0337612 6.45442e-39
-0.52590603 0.0048529999 -0.0332251 5.2656172e-39
-0.52357298 0.00719357 -0.032070201 6.7349781e-39
-0.52126598 0.0095078303 -0.0309289 8.2065111e-39
-0.51898599 0.0117963 -0.029801 6.2700834e-39
-0.51812899 0.0138583 -0.0299008 4.8896839e-39
-0.51797402 0.015816201 -0.030610399 3.7880012e-39
-0.51782 0.0177749 -0.031320199 5.6243216e-39
-0.51836699 0.019644501 -0.032645199 1.0308233e-38
-0.51891601 0.021522 -0.033975501 1.9131608e-38
-0.52017599 0.0233243 -0.035936002 2.3276418e-38
-0.52002001 0.025301 -0.036652401 2.3459732e-38
-0.52057499 0.027202601 -0.037999 2.3458293e-38
-0.52184898 0.0290397 -0.039987199 2.3456869e-38
-0.52241099 0.0309611 -0.041348699 2.3271411e-38
-0.5237 0.032825101 -0.043362301 2.0146876e-38
-0.52426898 0.0347667 -0.044738799 1.2170182e-38
-0.52411002 0.036775101 -0.045466699 8.041539e-39
-0.52614701 0.0386202 -0.04817 5.9152942e-39
-0.52970397 0.0403843 -0.052254301 9.0247685e-39
-0.53409898 0.042135399 -0.057114199 1.591058e-38
-0.53625399 0.044067599 -0.059965398 1.876142e-38
-0.53843498 0.046024099 -0.062851697 1.8392265e-38
-0.543046 0.0478906 -0.067963302 1.2703523e-38
-0.54694802 0.0498395 -0.072450101 8.9426104e-39
-0.53962302 -0.0145925 -0.040673599 7.7440742e-39
-0.53789902 -0.0122146 -0.0400909 6.2671644e-39
-0.53541899 -0.0097021703 -0.038856201 5.9012602e-39
-0.534491 -0.00751366 -0.038940199 5.4431533e-39
-0.53280801 -0.0051900502 -0.0383722 5.3505835e-39
-0.52889502 -0.0024736 -0.035879299 6.3614452e-39
-0.52799499 -0.000331405 -0.035968699 6.5487021e-39
-0.527098 0.00180317 -0.036058001 6.5491057e-39
-0.526205 0.0039301398 -0.0361472 5.5400307e-39
-0.52313697 0.0064024101 -0.034342099 6.2700427e-39
-0.52226001 0.0085013704 -0.0344344 6.8218026e-39
-0.52067202 0.0107011 -0.033902101 5.8094681e-39
-0.51768798 0.0130906 -0.032139301 5.4414073e-39
-0.517533 0.0150523 -0.0328505 3.9680933e-39
-0.51808 0.0169196 -0.034181099 4.9804123e-39
-0.51863003 0.018794701 -0.035517 8.1016813e-39
-0.51989102 0.020589201 -0.037487399 1.6282542e-38
-0.51973498 0.022569099 -0.038205199 2.1527958e-38
-0.52029097 0.0244684 -0.039557502 2.2812937e-38
-0.52084798 0.0263758 -0.040915299 2.2905482e-38
-0.52140802 0.0282913 -0.0422787 2.2444879e-38
-0.52125102 0.0302858 -0.043001901 2.1063764e-38
-0.52253401 0.032147098 -0.045022201 1.4732198e-38
-0.52310097 0.034087501 -0.046402398 1.0615827e-38
-0.523669 0.036036201 -0.0477883 1.0168152e-38
-0.52570701 0.037880599 -0.050511099 8.1344549e-39
-0.53001899 0.0395872 -0.055311501 1.2151469e-38
-0.53366399 0.041386701 -0.059525799 1.6920055e-38
-0.53504401 0.0433653 -0.061688099 1.7838765e-38
-0.53800398 0.045274202 -0.0653053 1.4260405e-38
-0.54261899 0.047135301 -0.070458204 9.8577143e-39
-0.53999001 -0.015628301 -0.0437297 8.8504175e-39
-0.53747702 -0.0130757 -0.042463198 6.6377224e-39
-0.53576499 -0.0107079 -0.041875102 5.4409925e-39
-0.53406602 -0.00835835 -0.041292001 5.6250068e-39
-0.53390402 -0.0063172798 -0.042032398 5.6264389e-39
-0.53146303 -0.00385259 -0.040794801 6.9189364e-39
-0.52756298 -0.0011485399 -0.038278699 7.5707518e-39
-0.52666497 0.000991876 -0.038364001 7.6626125e-39
-0.52577102 0.0031246601 -0.038449299 6.2797383e-39
-0.52415001 0.00536972 -0.037894901 5.9012588e-39
-0.52182198 0.0077126301 -0.0367116 5.2577321e-39
-0.52094698 0.00980986 -0.0367998 5.073345e-39
-0.519364 0.0120054 -0.0362591 5.6257831e-39
-0.51920801 0.0139823 -0.0369762 4.4304882e-39
-0.51905102 0.0159599 -0.037693702 4.4258064e-39
-0.51889497 0.017938299 -0.038411401 9.8436943e-39
-0.52016199 0.0197365 -0.0404009 1.5820497e-38
-0.52000499 0.021724099 -0.0411219 1.7478938e-38
-0.51984698 0.0237124 -0.041843198 2.0420903e-38
-0.52040499 0.0256221 -0.043208499 2.1706581e-38
-0.52024698 0.0276158 -0.043931801 2.0144344e-38
-0.52152699 0.0294661 -0.0459558 1.6196868e-38
-0.52209097 0.031400401 -0.047338001 9.7749074e-39
-0.52265698 0.0333432 -0.048725799 8.0447914e-39
-0.52322602 0.035294302 -0.050119299 8.5090094e-39
-0.52452898 0.037195999 -0.052188799 8.3203007e-39
-0.52958 0.038839102 -0.057700198 1.1606598e-38
-0.53245997 0.040686999 -0.061241399 1.5634003e-38
-0.53383499 0.0426629 -0.063411102 1.5723672e-38
-0.53678399 0.044566099 -0.067042701 1.2241843e-38
-0.54138398 0.046418399 -0.072217502 8.6717912e-39
-0.54035997 -0.016672799 -0.046811 9.4986624e-39
-0.537054 -0.0139403 -0.044845399 8.387996e-39
-0.53611398 -0.0117219 -0.0449186 7.8373292e-39
-0.53440601 -0.0093587805 -0.044321399 1.0140758e-38
-0.53347701 -0.0071613202 -0.044395901 9.5061537e-39
-0.53255099 -0.00497188 -0.044470299 1.0149711e-38
-0.52787101 -0.0021045399 -0.041249398 9.6012094e-39
-0.52549398 0.00030783101 -0.040031899 8.5881533e-39
-0.52460098 0.0024419699 -0.040114298 8.6753337e-39
-0.52298498 0.00468974 -0.039553799 6.7385514e-39
-0.52210301 0.0068043801 -0.0396371 5.442817e-39
-0.52050602 0.0090236198 -0.0390823 5.1665958e-39
-0.51963401 0.0111191 -0.0391666 5.1658812e-39
-0.519476 0.0131037 -0.039886899 5.3488375e-39
-0.519319 0.015089 -0.040607501 5.6218105e-39
-0.519162 0.0170752 -0.0413284 1.2510847e-38
-0.51900399 0.019061999 -0.042049501 1.315908e-38
-0.51955998 0.020961201 -0.043414999 1.1037545e-38
-0.51940203 0.0229534 -0.0441381 1.3616815e-38
-0.51995999 0.0248654 -0.045510899 1.7475323e-38
-0.52051997 0.026785601 -0.046889301 1.4815365e-38
-0.52108198 0.028713999 -0.048273299 1.0128213e-38
-0.52092302 0.030720999 -0.049001701 7.2002863e-39
-0.521487 0.032662399 -0.050393201 6.5689509e-39
-0.522053 0.034612201 -0.051790401 6.4792804e-39
-0.52408499 0.036451899 -0.054543 7.0313738e-39
-0.52838498 0.038144901 -0.059402 9.7698921e-39
-0.53049201 0.040040702 -0.0622508 1.4350455e-38
-0.53262502 0.041960299 -0.065134302 1.5358831e-38
-0.53556401 0.043857802 -0.068780497 1.4442291e-38
-0.54014802 0.045701399 -0.073977098 9.680558e-39
-0.54321098 0.047671199 -0.077773102 7.2063974e-39
-0.54385698 0.0497807 -0.0793171 8.3029863e-39
-0.53898197 -0.0153061 -0.049291499 9.2192071e-39
-0.53568703 -0.0125839 -0.0473065 9.1334364e-39
-0.53474897 -0.0103674 -0.0473755 1.1349336e-38
-0.53304702 -0.0080088796 -0.046769001 1.034274e-38
-0.53211999 -0.0058133299 -0.0468392 1.1539802e-38
-0.53043801 -0.0034855299 -0.0462391 1.0435287e-38
-0.52579302 -0.000640621 -0.043004401 1.0155112e-38
-0.52343202 0.0017592 -0.0417796 1.0889432e-38
-0.52254498 0.0038871199 -0.041859001 9.5086873e-39
-0.521662 0.0060075 -0.041938402 6.8293135e-39
-0.52006298 0.0082342103 -0.041373901 5.809789e-39
-0.519189 0.0103353 -0.0414543 5.9920209e-39
-0.51831901 0.012429 -0.041534699 7.9194915e-39
-0.51816201 0.0144144 -0.0422557 1.1505001e-38
-0.51871598 0.0163031 -0.043621399 1.2884305e-38
-0.51855803 0.0182939 -0.044344299 9.0204147e-39
-0.51840001 0.0202854 -0.0450675 6.2589024e-39
-0.51895499 0.0221914 -0.046442099 7.5517628e-39
-0.52023202 0.0240226 -0.048480202 1.1501048e-38
-0.520073 0.0260281 -0.049208399 9.3917125e-39
-0.51991397 0.0280344 -0.049936999 6.6348736e-39
-0.51975501 0.0300414 -0.0506658 5.8141064e-39
-0.52103901 0.031913601 -0.052729499 5.8263342e-39
-0.52160501 0.033865798 -0.054134399 5.2778547e-39
-0.52290398 0.035765801 -0.056224599 6.9377194e-39
-0.52719003 0.0374505 -0.061104201 8.8619558e-39
-0.52929002 0.039342199 -0.0639636 1.4172196e-38
-0.53064901 0.041308701 -0.0661406 1.6093523e-38
-0.53434402 0.043149501 -0.070518397 1.5725467e-38
-0.53891301 0.0449844 -0.075737 1.1878475e-38
-0.54196501 0.046948198 -0.079548098 8.8623132e-39
-0.54260802 0.049056299 -0.081096098 7.9389121e-39
-0.54243797 0.051206101 -0.081876799 8.300492e-39
-0.53509498 -0.0113843 -0.050454602 1.0062541e-38
-0.53338403 -0.0090121403 -0.049833599 1.0251953e-38
-0.53245199 -0.0068056802 -0.049898401 1.1446145e-38
-0.53076202 -0.0044645602 -0.049284 1.0986289e-38
-0.52908599 -0.0021413499 -0.0486748 1.2732971e-38
-0.52372199 0.00081825 -0.0447537 1.2365978e-38
-0.52210301 0.00308127 -0.044173501 1.1539109e-38
-0.521218 0.0052074199 -0.044248901 9.7787918e-39
-0.52033699 0.0073260199 -0.044324301 7.4681893e-39
-0.51802999 0.0096591897 -0.0431052 1.1318059e-38
-0.51787198 0.0116477 -0.043827701 1.4911151e-38
-0.51771402 0.013637 -0.0445504 1.3988505e-38
-0.51826799 0.0155279 -0.045923602 1.0029893e-38
-0.51810998 0.0175226 -0.046648301 6.7227616e-39
-0.51795101 0.019517999 -0.047373299 5.716883e-39
-0.51922399 0.021338001 -0.049415 7.5582424e-39
-0.51906401 0.023342799 -0.050143398 8.2951138e-39
-0.51890498 0.0253483 -0.050872002 7.0029358e-39
-0.51874501 0.0273546 -0.0516009 5.7161515e-39
-0.51930499 0.0292888 -0.052997999 5.8122707e-39
-0.51986599 0.031231301 -0.054400802 5.7341259e-39
-0.52042902 0.0331822 -0.0558093 7.1181506e-39
-0.52245498 0.0350172 -0.058591899 8.1369702e-39
-0.52599502 0.036756001 -0.062806599 8.2284554e-39
-0.52733302 0.038699701 -0.064966001 1.3352881e-38
-0.529441 0.0406074 -0.067860901 1.5452477e-38
-0.53312403 0.042440999 -0.072256699 1.3155169e-38
-0.53767699 0.0442672 -0.077497199 1.0227237e-38
-0.54071897 0.046225101 -0.081323303 9.5105482e-39
-0.54135901 0.0483317 -0.082875498 7.6698866e-39
-0.54200202 0.0504479 -0.084434398 7.5697611e-39
-0.53622502 -0.0125705 -0.054256599 9.231715e-39
-0.533723 -0.0100236 -0.0529234 9.6037079e-39
-0.53201801 -0.00765611 -0.0522932 1.0342332e-38
-0.53108901 -0.0054515898 -0.052353598 1.0985196e-38
-0.52864802 -0.0029756001 -0.0510487 1.2274856e-38
-0.526236 -0.00052837603 -0.049759701 1.1997916e-38
-0.52238703 0.0021454301 -0.047157701 1.1171036e-38
-0.52077299 0.0044040401 -0.0465688 1.0702885e-38
-0.51989001 0.0065284101 -0.046640199 1.1699427e-38
-0.51829499 0.0087582599 -0.046057299 1.7116978e-38
-0.51742297 0.0108633 -0.0461298 1.6381238e-38
-0.517977 0.0127517 -0.047508899 1.168723e-38
-0.51781797 0.0147495 -0.0482351 7.4638916e-39
-0.51837498 0.016650699 -0.0496215 5.5332148e-39
-0.518215 0.018654 -0.050349701 6.9175757e-39
-0.51805598 0.020657999 -0.0510781 6.4537151e-39
-0.51861298 0.0225768 -0.052473702 5.4432024e-39
-0.518453 0.024586299 -0.053204101 5.3481186e-39
-0.51829302 0.0265966 -0.053934801 5.1676566e-39
-0.51885301 0.028533099 -0.0553395 5.9059153e-39
-0.51941401 0.030478001 -0.0567501 6.3787723e-39
-0.51925302 0.032498501 -0.0574845 7.9482574e-39
-0.521272 0.034329399 -0.060277399 7.7674773e-39
-0.5248 0.036061499 -0.064509302 7.5827301e-39
-0.52613199 0.038002301 -0.066675901 1.3997523e-38
-0.52823299 0.039905898 -0.069581598 1.5456799e-38
-0.53035998 0.041833401 -0.072522998 1.0678505e-38
-0.53644198 0.043549798 -0.079257697 7.5658178e-39
-0.539473 0.045501798 -0.083098903 7.6691622e-39
-0.54092199 0.0475673 -0.085435003 7.1195771e-39
-0.54075003 0.049721699 -0.086218201 7.3860775e-39
-0.53816098 -0.0139366 -0.058818199 9.0426701e-39
-0.53484499 -0.0112016 -0.0567412 9.4171699e-39
-0.53235197 -0.0086622098 -0.055393599 9.3292889e-39
-0.53065097 -0.0062993802 -0.054754 9.9735695e-39
-0.528965 -0.00395475 -0.05412 1.0711129e-38
-0.52654201 -0.00149184 -0.0528078 1.0892659e-38
-0.52488798 0.00081191602 -0.0521883 1.0246227e-38
-0.52105099 0.0034733601 -0.049563099 9.9649613e-39
-0.52016503 0.0056079198 -0.049629301 1.1149115e-38
-0.51928198 0.0077349101 -0.049695399 1.5002259e-38
-0.51768601 0.0099651897 -0.049100101 1.2055295e-38
-0.51752597 0.0119662 -0.0498279 8.1978539e-39
-0.51736701 0.013968 -0.0505559 6.0856473e-39
-0.517923 0.0158714 -0.0519499 5.0733212e-39
-0.51848102 0.0177831 -0.0533497 5.7197668e-39
-0.51832098 0.019795099 -0.054081399 4.3393659e-39
-0.518161 0.021807799 -0.0548134 3.3259651e-39
-0.51800001 0.023821199 -0.055545699 4.339719e-39
-0.51784003 0.025835499 -0.056278199 5.2594837e-39
-0.51767898 0.027850499 -0.057011001 6.0895961e-39
-0.51823801 0.029794101 -0.058425199 6.3759038e-39
-0.51879799 0.031746101 -0.059845202 6.9351858e-39
-0.52008802 0.033641499 -0.061963201 7.1174289e-39
-0.52360398 0.0353668 -0.066212296 9.1313372e-39
-0.52493101 0.037304901 -0.068386197 1.5461829e-38
-0.52702498 0.039204299 -0.0713026 1.4266159e-38
-0.52837998 0.041179098 -0.073519602 8.4755183e-39
-0.53441602 0.042881299 -0.080257297 6.1853945e-39
-0.53903198 0.044732999 -0.085653499 6.1918783e-39
-0.53966999 0.046840899 -0.087218702 6.0099925e-39
-0.53949797 0.048995402 -0.088002302 7.1076773e-39
-0.53676999 -0.0125565 -0.0613239 8.8618577e-39
-0.53346401 -0.0098320004 -0.059227102 9.2349352e-39
-0.53097898 -0.0073000402 -0.057865102 9.0509209e-39
-0.529284 -0.0049418798 -0.057216302 9.7859552e-39
-0.52760297 -0.0026018801 -0.056573 1.0152559e-38
-0.52518702 -0.00014627499 -0.0552468 9.41467e-39
-0.52353901 0.0021529801 -0.054618299 9.2259627e-39
-0.52044201 0.0046800799 -0.0526422 9.3995668e-39
-0.51955402 0.0068172798 -0.052703101 1.0219286e-38
-0.51939303 0.0088333497 -0.0534366 8.0138185e-39
-0.51779002 0.0110688 -0.052825 6.5451807e-39
-0.51834899 0.0129733 -0.054229099 5.8994693e-39
-0.518188 0.0149877 -0.054962002 5.249812e-39
-0.518749 0.0169052 -0.0563737 4.4297595e-39
-0.51858801 0.018925101 -0.0571086 3.6929329e-39
-0.51770598 0.0210355 -0.057162602 2.8671169e-39
-0.51754498 0.023053 -0.057896599 4.7106189e-39
-0.51738399 0.025071301 -0.058630999 6.6452306e-39
-0.517223 0.0270903 -0.0593656 7.3867445e-39
-0.51778102 0.0290363 -0.0607876 7.3907172e-39
-0.51761901 0.0310608 -0.061524302 7.2085007e-39
-0.51963198 0.0328869 -0.064347498 8.5756243e-39
-0.52240801 0.034672 -0.067915604 1.2150363e-38
-0.52373099 0.0366074 -0.070096701 1.6376926e-38
-0.52581698 0.038502499 -0.073023804 1.32556e-38
-0.52716601 0.040474601 -0.075248197 7.7393798e-39
-0.53318202 0.042165201 -0.082014702 5.7179409e-39
-0.53778303 0.044007901 -0.087433301 5.4464071e-39
-0.53841698 0.0461144 -0.089002699 5.0794253e-39
-0.53905499 0.0482306 -0.090578899 6.090308e-39
-0.54051 0.050322201 -0.092962697 7.3803083e-39
-0.53537703 -0.0111757 -0.063830897 8.7725474e-39
-0.53285998 -0.0086148102 -0.062430002 9.0498461e-39
-0.53037298 -0.0060843099 -0.061046399 9.050558e-39
-0.52791601 -0.0035836301 -0.059679899 9.6008395e-39
-0.52623999 -0.00124825 -0.059027299 9.1388062e-39
-0.525325 0.00093785801 -0.059076399 9.0383457e-39
-0.523669 0.00324276 -0.058430701 9.2119301e-39
-0.522026 0.0055301199 -0.057790499 8.6569865e-39
-0.52186298 0.0075662299 -0.058531702 7.0036295e-39
-0.51877898 0.010053 -0.056526002 6.2675246e-39
-0.51861697 0.0120746 -0.057262 6.1749716e-39
-0.51990902 0.013889 -0.059372202 5.9844791e-39
-0.51974702 0.015920101 -0.060111601 3.7829467e-39
-0.518857 0.018048299 -0.06016 3.8780178e-39
-0.518695 0.020076901 -0.060898598 4.7066561e-39
-0.51780897 0.022194199 -0.060945999 6.1871349e-39
-0.51692599 0.024304001 -0.060993399 7.9452852e-39
-0.51676399 0.026327001 -0.0617298 8.963379e-39
-0.51660198 0.0283508 -0.062466599 1.0343445e-38
-0.517883 0.0302321 -0.064595401 1.0249107e-38
-0.51990598 0.0320605 -0.067448601 1.0601727e-38
-0.52121198 0.033976998 -0.069619201 1.361971e-38
-0.52253002 0.035909701 -0.071807504 1.5824475e-38
-0.52460802 0.037800699 -0.074745402 1.3711907e-38
-0.526712 0.039715499 -0.077719301 1.0679911e-38
-0.53194797 0.0414491 -0.083772503 7.3695463e-39
-0.536533 0.043282799 -0.089213401 5.5342966e-39
-0.53797197 0.045343399 -0.0915813 6.1825372e-39
-0.537799 0.047502499 -0.092367299 5.9041455e-39
-0.53925002 0.049591102 -0.094759002 6.1825092e-39
-0.53669298 -0.0144878 -0.067004398 8.3951819e-39
-0.536524 -0.0123782 -0.067772701 7.6640839e-39
-0.53556103 -0.0101092 -0.067804404 8.125048e-39
-0.53225201 -0.0073918998 -0.065647401 8.4019754e-39
-0.52976298 -0.0048628999 -0.064242102 9.8691825e-39
-0.52806598 -0.0025033799 -0.0635662 1.0965465e-38
-0.52638203 -0.00016210599 -0.062895998 1.1231266e-38
-0.52546299 0.0020314499 -0.062938102 1.031074e-38
-0.523799 0.0043420298 -0.0622751 1.0674107e-38
-0.52289099 0.0065149702 -0.062318701 1.0216772e-38
-0.522726 0.0085641304 -0.063065097 7.4595784e-39
-0.52108401 0.0108372 -0.062406301 6.7259762e-39
-0.521658 0.0127725 -0.0638531 8.0091536e-39
-0.52149397 0.0148199 -0.064598799 7.0900784e-39
-0.52133 0.0168681 -0.065344803 5.9909307e-39
-0.52116603 0.018917101 -0.066091098 6.64056e-39
-0.51953202 0.0211484 -0.065422997 7.9424126e-39
-0.51791197 0.0233628 -0.064760603 9.3343279e-39
-0.51702499 0.025479401 -0.064801298 1.025987e-38
-0.51758599 0.0274338 -0.066243298 1.2100554e-38
-0.51887798 0.029322701 -0.068400301 1.191256e-38
-0.51871401 0.0313682 -0.069145299 1.125822e-38
-0.52075303 0.033215299 -0.072043598 1.3718013e-38
-0.522071 0.035148799 -0.074246399 1.4631327e-38
-0.523399 0.037098698 -0.076467201 1.3618633e-38
-0.52549601 0.039009299 -0.079452001 1.3802668e-38
-0.529935 0.040785901 -0.084761702 1.049625e-38
-0.53448498 0.042607602 -0.090204 6.7295957e-39
-0.536717 0.044615202 -0.093369603 6.2751014e-39
-0.53735101 0.046732701 -0.094959199 5.2602278e-39
-0.54044002 0.048747301 -0.099000603 5.351685e-39
-0.54526198 0.050729301 -0.10479 6.549847e-39
-0.53688401 -0.0134294 -0.071015701 7.8423739e-39
-0.53591597 -0.0111488 -0.071041197 7.9345653e-39
-0.53416198 -0.0087211803 -0.070324503 9.2202496e-39
-0.53242099 -0.0063126902 -0.069614097 1.307265e-38
-0.52915102 -0.0036357199 -0.067452103 1.4261848e-38
-0.52669102 -0.00113815 -0.066042401 1.4808905e-38
-0.52501202 0.00119845 -0.065362997 1.3893424e-38
-0.52484602 0.0032625999 -0.066115104 1.4069166e-38
-0.52393001 0.0054508699 -0.066151798 1.3889811e-38
-0.52301699 0.0076311398 -0.066188499 1.0764199e-38
-0.522852 0.0096893497 -0.066938497 1.1687208e-38
-0.52194297 0.0118583 -0.066974103 1.3614308e-38
-0.52177799 0.013914 -0.0677232 1.3889096e-38
-0.521613 0.0159705 -0.068472601 1.1317001e-38
-0.52070802 0.018124901 -0.068506002 9.5821644e-39
-0.51980698 0.020271501 -0.0685395 9.880662e-39
-0.51890898 0.0224103 -0.068573102 1.0809814e-38
-0.51874501 0.0244576 -0.069319099 1.0813763e-38
-0.517851 0.026585501 -0.0693518 1.1641008e-38
-0.51768702 0.028630201 -0.070096903 1.1454823e-38
-0.51825202 0.0306042 -0.071558997 1.1082092e-38
-0.51955402 0.0325187 -0.073751099 1.3450062e-38
-0.52086699 0.034449499 -0.075961202 1.3620785e-38
-0.52218997 0.0363966 -0.078189299 1.3065467e-38
-0.52277303 0.038417399 -0.0796896 1.4535551e-38
-0.526393 0.0402334 -0.084217697 1.3345647e-38
-0.53244603 0.041935101 -0.0911908 8.6577712e-39
-0.53465903 0.043934301 -0.094356403 5.4424737e-39
-0.536093 0.046002898 -0.096751899 3.7890606e-39
-0.53917098 0.048011299 -0.100809 4.8903467e-39
-0.54313701 0.050019499 -0.105777 6.4558507e-39
-0.53547502 -0.0120337 -0.073551603 8.4823497e-39
-0.53451002 -0.0097551104 -0.073572502 1.1236696e-38
-0.53354901 -0.0074851601 -0.073593497 1.6747134e-38
-0.53102601 -0.0049287202 -0.072125897 1.7199145e-38
-0.527767 -0.00226222 -0.069944203 1.7381395e-38
-0.52607298 9.3182804e-05 -0.0692451 1.6923651e-38
-0.52439302 0.0024303501 -0.068552002 1.5539286e-38
-0.52347499 0.0046247402 -0.068584099 1.3796554e-38
-0.52331001 0.0066905199 -0.069337301 1.3979128e-38
-0.52239603 0.0088735102 -0.0693684 1.7660071e-38
-0.52223003 0.0109367 -0.070120603 1.9222359e-38
-0.52131999 0.0131083 -0.070150599 1.9496431e-38
-0.521155 0.0151689 -0.070901901 1.6742465e-38
-0.52024901 0.0173293 -0.070930801 1.2340459e-38
-0.519346 0.019481899 -0.070959903 1.0614268e-38
-0.51844698 0.021626599 -0.070989199 1.080693e-38
-0.518282 0.023677999 -0.071737103 1.0258434e-38
-0.51738697 0.0258117 -0.071765304 1.0442103e-38
-0.517223 0.027860601 -0.072512299 1.0533591e-38
-0.51778799 0.029836999 -0.073982596 1.0714027e-38
-0.51835501 0.0318221 -0.075459003 1.3178879e-38
-0.51966298 0.033750098 -0.077676304 1.343747e-38
-0.52098101 0.035694402 -0.079911701 1.3064373e-38
-0.52081501 0.037772 -0.080669202 1.4167127e-38
-0.52440798 0.039577901 -0.085198499 1.4723898e-38
-0.53041399 0.041265201 -0.092173703 9.9434654e-39
-0.53340602 0.043207299 -0.096141502 5.8076507e-39
-0.53483403 0.045272902 -0.098545 3.7904969e-39
-0.537902 0.0472752 -0.102618 5.2627249e-39
-0.54102099 0.049312599 -0.10676 7.0090217e-39
-0.53486103 -0.0107978 -0.076847702 1.3715525e-38
-0.53389502 -0.0085161999 -0.076862402 1.8676394e-38
-0.53214502 -0.00609273 -0.076121703 1.8211845e-38
-0.52963001 -0.00354402 -0.074639201 1.7929171e-38
-0.52638203 -0.00088795798 -0.072437599 1.7837682e-38
-0.52469403 0.0014627 -0.071729101 1.6274662e-38
-0.52301902 0.00379514 -0.071026698 1.3980578e-38
-0.52210402 0.00598764 -0.071054503 1.6001308e-38
-0.52193803 0.0080542201 -0.071808301 2.0327982e-38
-0.52177101 0.0101216 -0.072562397 2.2076457e-38
-0.52160501 0.0121898 -0.073316798 2.244416e-38
-0.52069402 0.0143641 -0.073341198 1.9871348e-38
-0.51978701 0.016530501 -0.073365703 1.3535044e-38
-0.51888299 0.018688999 -0.073390402 1.0147911e-38
-0.51798302 0.0208396 -0.073415197 9.8817396e-39
-0.51781797 0.0228952 -0.074165002 9.5197954e-39
-0.516922 0.0250347 -0.074188903 9.2442931e-39
-0.51675701 0.0270877 -0.074937798 9.610203e-39
-0.51659101 0.029141501 -0.075686902 1.0617161e-38
-0.51788902 0.031054201 -0.077900797 1.3175632e-38
-0.51845902 0.0330505 -0.079391599 1.3436388e-38
-0.51977199 0.034992099 -0.081634402 1.306616e-38
-0.51960498 0.037069801 -0.082392298 1.416891e-38
-0.52318603 0.038868502 -0.086939499 1.3807694e-38
-0.529172 0.0405441 -0.093943998 9.4864431e-39
-0.53215301 0.042480201 -0.097926997 5.994916e-39
-0.533575 0.044542801 -0.100338 4.8064425e-39
-0.53581899 0.046581399 -0.103597 5.7327022e-39
-0.53974003 0.0485701 -0.108585 7.1091402e-39
-0.54039198 0.0507394 -0.11024 7.9281067e-39
-0.53601801 -0.0120134 -0.0809227 1.5274192e-38
-0.534244 -0.0095559703 -0.080158897 1.8764276e-38
-0.53248501 -0.0071180598 -0.079401702 1.8303311e-38
-0.53074002 -0.0046995101 -0.078651197 1.7010442e-38
-0.52900898 -0.0023000999 -0.077907003 1.654839e-38
-0.52575898 0.00035206199 -0.075675003 1.5815115e-38
-0.52331299 0.0028329401 -0.074214503 1.453157e-38
-0.521644 0.0051607201 -0.073502697 1.5082945e-38
-0.52073097 0.0073512499 -0.073526204 1.9776629e-38
-0.52056497 0.0094186999 -0.074280702 2.2077909e-38
-0.52039802 0.0114869 -0.075035498 2.28133e-38
-0.52023202 0.0135559 -0.075790599 2.0697864e-38
-0.51932299 0.0157283 -0.075810596 1.2798937e-38
-0.51841801 0.0178928 -0.075830802 8.4891334e-39
-0.51825202 0.0199559 -0.076583803 8.77469e-39
-0.51735097 0.022109101 -0.076603003 9.1481416e-39
-0.51718599 0.0241696 -0.077354997 8.597486e-39
-0.51628798 0.026311699 -0.077373102 9.1467095e-39
-0.516123 0.0283696 -0.078124203 1.143578e-38
-0.51742101 0.030283 -0.080352701 1.353398e-38
-0.51799101 0.032281902 -0.0818519 1.3342047e-38
-0.51856202 0.034289598 -0.083357401 1.3617189e-38
-0.51988101 0.036244899 -0.085625999 1.4907547e-38
-0.52271903 0.038100898 -0.089451499 1.2157539e-38
-0.52871001 0.039767299 -0.096512601 8.1139427e-39
-0.5309 0.041753002 -0.099712797 6.3719634e-39
-0.53231603 0.043812599 -0.102132 6.0118128e-39
-0.53455198 0.0458466 -0.105402 6.2930759e-39
-0.538459 0.047827501 -0.11041 6.6578955e-39
-0.53910798 0.049995299 -0.112069 7.4739781e-39
-0.53718901 -0.0132446 -0.085049503 1.4355483e-38
-0.53620601 -0.010929 -0.085048102 1.7662253e-38
-0.53282702 -0.00815209 -0.082709499 1.8211475e-38
