ply
format ascii 1.0
element vertex 1233
property float x
property float y
property float z
property uchar diffuse_red
property uchar diffuse_green
property uchar diffuse_blue
end_header
-0.263414 -0.0401893 0.228922 79 78 63
-0.263365 -0.0393561 0.228948 78 80 64
-0.263315 -0.0385233 0.228973 78 79 68
-0.263134 -0.0376884 0.229065 89 81 69
-0.262953 -0.0368551 0.229157 93 86 72
-0.262904 -0.0360249 0.229183 94 82 67
-0.262986 -0.0351959 0.229142 96 79 65
-0.262937 -0.034366 0.229167 95 71 68
-0.262625 -0.0335376 0.229325 91 70 61
-0.262576 -0.0327098 0.229351 86 70 66
-0.262789 -0.0318789 0.229243 79 73 74
-0.263002 -0.0310459 0.229135 78 80 78
-0.26348 -0.0302047 0.228893 92 89 80
-0.263828 -0.0293625 0.228716 98 92 79
-0.264045 -0.0285212 0.228607 95 85 71
-0.263995 -0.0276879 0.228632 85 78 66
-0.264079 -0.0268493 0.22859 71 60 51
-0.26403 -0.0260162 0.228616 66 56 51
-0.26398 -0.0251835 0.228641 66 60 49
-0.263931 -0.0243513 0.228666 64 60 46
-0.263881 -0.0235195 0.228692 64 56 44
-0.264098 -0.0226704 0.228582 66 54 49
-0.264316 -0.0218192 0.228472 65 56 46
-0.264401 -0.0209759 0.228429 64 54 47
-0.264351 -0.0201427 0.228455 60 51 45
-0.264975 -0.0192522 0.228139 58 52 45
-0.266423 -0.0182808 0.227404 59 45 42
-0.26892 -0.0154771 0.226138 55 48 35
-0.268869 -0.0146235 0.226164 56 49 36
-0.268818 -0.0137703 0.22619 52 40 36
-0.268768 -0.0129176 0.226216 51 41 33
-0.268717 -0.0120654 0.226242 47 38 34
-0.281975 0.00803498 0.219523 35 34 30
-0.281921 0.00894568 0.21955 38 31 27
-0.281867 0.00985589 0.219578 38 32 28
-0.281977 0.0108042 0.219523 35 34 30
-0.282251 0.0117932 0.219384 37 34 27
-0.282362 0.0127446 0.219328 35 34 27
-0.306452 0.0300998 0.207111 42 42 38
-0.305349 0.0308073 0.207671 43 42 40
-0.304462 0.0315707 0.208121 46 42 40
-0.302364 0.0319471 0.209186 46 44 40
-0.3015 0.0326949 0.209625 41 40 42
-0.300841 0.0335007 0.209959 43 45 40
-0.300187 0.0343014 0.210292 46 54 49
-0.299733 0.0351623 0.210522 50 57 53
-0.298693 0.0358218 0.21105 55 61 67
-0.298051 0.0366069 0.211376 97 103 100
-0.297605 0.037454 0.211603 131 138 130
-0.285238 -0.0672254 0.216785 79 60 59
-0.28485 -0.0662238 0.216984 53 36 26
-0.284629 -0.0652525 0.217098 39 23 18
-0.285069 -0.064386 0.216872 35 21 15
-0.264914 -0.051179 0.227214 47 25 28
-0.263932 -0.050248 0.227717 62 51 40
-0.263618 -0.0493849 0.227878 65 52 42
-0.263437 -0.0485357 0.227972 63 49 42
-0.263124 -0.0476781 0.228132 65 47 42
-0.263075 -0.0468427 0.228158 63 48 41
-0.262894 -0.0459988 0.228251 60 53 39
-0.262714 -0.0451566 0.228344 65 52 42
-0.262664 -0.0443238 0.228369 69 62 51
-0.262746 -0.0434985 0.228328 65 55 50
-0.262696 -0.042666 0.228354 70 63 58
-0.262647 -0.0418339 0.228379 67 66 57
-0.262598 -0.0410022 0.228405 68 57 55
-0.262548 -0.040171 0.228431 68 58 53
-0.262499 -0.0393403 0.228456 64 60 58
-0.262189 -0.0385035 0.228615 67 63 61
-0.26188 -0.0376697 0.228774 71 68 66
-0.261831 -0.0368428 0.2288 72 74 73
-0.261782 -0.0360163 0.228825 76 81 79
-0.261862 -0.035191 0.228784 86 94 86
-0.261813 -0.0343648 0.22881 92 94 89
-0.261635 -0.0335396 0.228901 95 91 89
-0.261586 -0.0327149 0.228927 97 88 75
-0.261796 -0.0318871 0.228819 93 88 79
-0.261877 -0.0310596 0.228778 88 72 66
-0.262481 -0.0302192 0.228469 89 73 68
-0.262957 -0.0293765 0.228225 89 79 73
-0.263436 -0.028529 0.227979 81 81 76
-0.26352 -0.0276919 0.227937 81 76 67
-0.263603 -0.0268539 0.227894 69 61 54
-0.263554 -0.0260213 0.22792 65 56 46
-0.263504 -0.0251893 0.227946 65 55 44
-0.263455 -0.0243576 0.227971 66 54 43
-0.263405 -0.0235264 0.227997 64 55 44
-0.263489 -0.0226868 0.227954 64 52 47
-0.263973 -0.0218177 0.227707 62 53 46
-0.263923 -0.0209847 0.227732 62 51 42
-0.264008 -0.0201412 0.227689 59 47 38
-0.264092 -0.0192968 0.227646 54 47 45
-0.264177 -0.0184516 0.227603 52 47 42
-0.268607 -0.0137521 0.225333 45 37 33
-0.268556 -0.0128987 0.225359 40 37 29
-0.306505 0.0292043 0.205913 40 44 37
-0.306025 0.0301049 0.206159 42 45 39
-0.304717 0.0307497 0.20683 42 44 41
-0.304038 0.0315759 0.207179 43 42 40
-0.301944 0.0319523 0.208253 44 43 39
-0.301082 0.0327002 0.208695 44 41 39
-0.301023 0.0336989 0.208726 49 48 41
-0.300366 0.0345014 0.209063 51 55 49
-0.299713 0.0352988 0.209398 51 60 56
-0.299063 0.0360911 0.209732 59 70 75
-0.298223 0.0368118 0.210163 106 116 113
-0.285518 -0.06734 0.215582 78 63 60
-0.285128 -0.0663348 0.215784 55 33 24
-0.28474 -0.0653334 0.215985 40 24 17
-0.285182 -0.0644648 0.215757 37 22 15
-0.263589 -0.0502485 0.226953 64 50 44
-0.263144 -0.0493738 0.227184 65 53 44
-0.262832 -0.0485144 0.227346 59 52 43
-0.262521 -0.047658 0.227507 64 50 36
-0.261951 -0.0467857 0.227803 62 49 40
-0.261643 -0.0459367 0.227963 60 51 41
-0.261594 -0.0451072 0.227988 72 53 44
-0.261545 -0.0442781 0.228014 65 48 47
-0.261367 -0.0434425 0.228107 64 49 45
-0.261447 -0.0426213 0.228066 70 59 49
-0.261269 -0.0417879 0.228158 67 63 57
-0.26122 -0.0409612 0.228184 65 56 50
-0.261171 -0.040135 0.228209 65 59 48
-0.261122 -0.0393092 0.228235 63 53 43
-0.261073 -0.0384838 0.228261 60 61 52
-0.260767 -0.0376537 0.22842 66 58 49
-0.26059 -0.0368286 0.228512 70 59 60
-0.260541 -0.0360064 0.228537 69 58 62
-0.260493 -0.0351847 0.228563 81 69 66
-0.260444 -0.0343634 0.228588 117 116 93
-0.260395 -0.0335426 0.228614 131 138 118
-0.260475 -0.032721 0.228573 114 97 83
-0.260683 -0.0318969 0.228465 109 94 86
-0.260762 -0.0310732 0.228424 96 77 72
-0.261359 -0.0302366 0.228115 84 76 69
-0.26196 -0.029394 0.227804 83 73 65
-0.262435 -0.0285498 0.227558 76 66 62
-0.262912 -0.0277008 0.227311 69 60 56
-0.263128 -0.0268584 0.2272 66 56 50
-0.263078 -0.0260265 0.227226 64 55 44
-0.263029 -0.025195 0.227251 63 57 48
-0.262848 -0.0243715 0.227346 65 49 41
-0.262931 -0.0235333 0.227303 56 48 43
-0.263014 -0.0226943 0.22726 56 50 43
-0.263629 -0.0218163 0.226942 51 46 45
-0.26358 -0.0209832 0.226967 52 43 43
-0.263664 -0.0201396 0.226924 55 45 39
-0.263748 -0.0192952 0.226881 53 45 41
-0.263699 -0.0184622 0.226907 45 41 36
-0.263783 -0.0176167 0.226863 45 38 31
-0.306829 0.0273357 0.204569 37 42 40
-0.306557 0.0283046 0.20471 39 44 37
-0.306076 0.0292093 0.204959 42 45 36
-0.306015 0.0302352 0.204991 44 44 38
-0.305328 0.0310699 0.205348 44 45 40
-0.304231 0.0317716 0.205916 44 47 41
-0.302738 0.0323382 0.206691 43 44 38
-0.301264 0.0328966 0.207455 43 43 37
-0.300605 0.0337042 0.207797 50 53 46
-0.300546 0.0347026 0.207828 53 57 49
-0.299692 0.0354357 0.20827 51 59 59
-0.299239 0.0362958 0.208506 71 81 82
-0.298395 0.0370178 0.208943 114 128 122
-0.285967 -0.0674841 0.214282 79 62 55
-0.285576 -0.0664742 0.214488 56 32 25
-0.285019 -0.0654415 0.21478 44 25 19
-0.285463 -0.0645701 0.214547 41 25 17
-0.285407 -0.0636189 0.214577 37 21 14
-0.26267 -0.0493627 0.22649 63 45 38
-0.262229 -0.0484931 0.226721 59 45 41
-0.26166 -0.0476177 0.227019 60 45 35
-0.261224 -0.0467575 0.227248 59 46 39
-0.261046 -0.0459193 0.227342 60 49 51
-0.260868 -0.0450828 0.227435 79 72 60
-0.260819 -0.0442555 0.227461 69 49 36
-0.26077 -0.0434287 0.227487 58 51 37
-0.260722 -0.0426023 0.227512 64 54 43
-0.260673 -0.0417764 0.227538 68 57 48
-0.260624 -0.0409509 0.227564 65 50 41
-0.260575 -0.0401259 0.22759 60 47 43
-0.260526 -0.0393013 0.227616 61 49 49
-0.260478 -0.0384771 0.227642 58 54 67
-0.260301 -0.0376508 0.227734 67 66 86
-0.260252 -0.0368282 0.22776 114 85 88
-0.260204 -0.036006 0.227786 129 117 86
-0.260155 -0.0351842 0.227812 149 121 86
-0.259979 -0.0343627 0.227904 131 110 97
-0.25993 -0.0335425 0.22793 120 108 86
-0.260137 -0.0327204 0.227822 135 104 85
-0.260217 -0.031898 0.22778 150 111 89
-0.260424 -0.0310724 0.227672 97 82 75
-0.26102 -0.0302357 0.22736 77 69 67
-0.26162 -0.0293931 0.227046 74 67 60
-0.261963 -0.0285532 0.226867 73 65 60
-0.262307 -0.0277098 0.226687 65 59 51
-0.262521 -0.0268687 0.226575 66 58 48
-0.262472 -0.0260379 0.226601 59 51 46
-0.262423 -0.0252076 0.226627 54 44 46
-0.262505 -0.0243703 0.226584 54 45 43
-0.262456 -0.0235402 0.22661 53 50 44
-0.262671 -0.0226929 0.226498 54 47 41
-0.263152 -0.0218244 0.226246 51 44 36
-0.263236 -0.0209817 0.226203 51 43 37
-0.26332 -0.0201381 0.226159 49 44 40
-0.263271 -0.0193052 0.226185 49 36 35
-0.263355 -0.0184605 0.226141 44 35 33
-0.263305 -0.0176278 0.226167 43 38 35
-0.30667 0.0263692 0.203469 37 41 36
-0.306399 0.0273406 0.203612 38 43 38
-0.306338 0.0283706 0.203644 40 43 36
-0.306487 0.0294622 0.203566 42 43 35
-0.306427 0.0304921 0.203598 43 44 37
-0.305945 0.0313933 0.203851 46 48 38
-0.303806 0.0317768 0.204971 46 50 40
-0.302926 0.0325354 0.205432 43 47 41
-0.302053 0.0332877 0.20589 43 44 43
-0.300786 0.0339037 0.206554 51 57 52
-0.299731 0.0345772 0.207106 55 60 51
-0.299672 0.0355732 0.207138 54 60 63
-0.299217 0.0364347 0.207376 91 98 92
-0.28676 -0.0676872 0.212792 92 68 54
-0.285858 -0.0665869 0.21327 61 36 31
-0.285466 -0.0655772 0.213478 43 24 24
-0.28541 -0.0646238 0.213508 37 23 21
-0.285521 -0.0636961 0.213449 34 23 18
-0.285465 -0.0627429 0.213479 31 24 17
-0.286251 -0.0619092 0.213063 30 24 16
-0.286194 -0.0609529 0.213094 29 21 16
-0.261498 -0.0484611 0.226167 55 47 42
-0.260933 -0.0475877 0.226466 58 45 35
-0.260627 -0.0467389 0.226628 55 39 36
-0.260578 -0.0459107 0.226655 56 48 49
-0.260401 -0.0450748 0.226748 101 80 68
-0.260353 -0.0442481 0.226774 75 57 47
-0.260304 -0.0434218 0.226801 60 45 43
-0.260255 -0.042596 0.226827 59 47 51
-0.260206 -0.0417707 0.226853 71 59 58
-0.260158 -0.0409457 0.226879 78 72 63
-0.260109 -0.0401213 0.226905 101 56 52
-0.26006 -0.0392972 0.226931 143 78 67
-0.260012 -0.0384737 0.226957 177 157 95
-0.259963 -0.0376505 0.226983 149 169 128
-0.259787 -0.0368258 0.227076 122 152 128
-0.259739 -0.0360042 0.227102 85 92 89
-0.25969 -0.035183 0.227128 85 58 67
-0.259642 -0.0343622 0.227154 79 54 50
-0.259593 -0.0335419 0.22718 82 63 60
-0.259672 -0.0327208 0.227138 108 92 75
-0.259751 -0.031899 0.227096 130 122 105
-0.259831 -0.0310764 0.227055 84 73 81
-0.260038 -0.03025 0.226945 68 65 59
-0.260632 -0.0294105 0.226631 66 63 57
-0.261231 -0.0285652 0.226314 66 56 50
-0.261442 -0.0277287 0.226203 62 51 46
-0.261916 -0.0268788 0.225952 60 49 43
-0.261998 -0.0260431 0.225909 60 50 38
-0.262081 -0.0252064 0.225866 60 44 36
-0.262295 -0.0243614 0.225753 55 42 34
-0.262378 -0.0235225 0.225709 53 46 36
-0.262858 -0.022656 0.225455 49 45 35
-0.262809 -0.021823 0.225481 51 47 31
-0.262892 -0.0209802 0.225437 49 42 31
-0.262843 -0.0201474 0.225464 46 38 33
-0.262927 -0.0193036 0.22542 42 34 30
-0.262878 -0.018471 0.225446 44 34 27
-0.30645 0.0264333 0.202399 36 42 34
-0.306179 0.0274057 0.202543 38 44 38
-0.30654 0.0285593 0.202353 42 45 36
-0.306479 0.0295919 0.202385 44 45 35
-0.306418 0.0306239 0.202418 45 45 38
-0.306146 0.0315909 0.202562 46 47 40
-0.304413 0.0321021 0.203479 46 49 41
-0.303321 0.0327984 0.204057 45 47 43
-0.302443 0.0335526 0.204522 50 50 47
-0.301169 0.0341695 0.205197 50 59 56
-0.299909 0.0347788 0.205864 59 59 57
-0.299255 0.0355786 0.20621 60 65 71
-0.299196 0.0365742 0.206242 105 112 105
-0.287219 -0.0678342 0.211467 110 72 58
-0.286482 -0.0667566 0.211862 67 35 32
-0.285918 -0.0657142 0.212164 44 23 22
-0.285525 -0.0647039 0.212374 40 23 19
-0.285133 -0.0636975 0.212584 38 24 17
-0.285077 -0.0627442 0.212614 33 24 18
-0.285524 -0.0618627 0.212375 32 23 16
-0.285636 -0.060931 0.212316 32 20 15
-0.285748 -0.0599982 0.212256 31 17 14
-0.260771 -0.0484292 0.225615 55 44 39
-0.260337 -0.0475679 0.225847 60 42 33
-0.260288 -0.0467392 0.225874 53 38 40
-0.260112 -0.0459022 0.225968 54 44 42
-0.259935 -0.0450668 0.226063 72 64 60
-0.259887 -0.0442407 0.226089 63 61 65
-0.259838 -0.043415 0.226115 57 53 50
-0.259789 -0.0425897 0.226142 57 62 65
-0.259741 -0.0417649 0.226168 53 70 81
-0.259692 -0.0409406 0.226194 38 58 80
-0.259644 -0.0401167 0.22622 63 50 57
-0.259595 -0.0392932 0.226246 82 51 59
-0.259547 -0.0384702 0.226273 101 48 59
-0.259498 -0.0376476 0.226299 90 35 45
-0.25945 -0.0368254 0.226325 75 22 34
-0.259401 -0.0360037 0.226351 55 26 26
-0.259353 -0.0351825 0.226377 47 35 29
-0.259305 -0.0343616 0.226403 49 38 30
-0.259256 -0.0335412 0.226429 51 31 30
-0.259208 -0.0327213 0.226455 80 52 40
-0.259287 -0.0319 0.226413 98 91 72
-0.259366 -0.031078 0.226371 75 60 50
-0.259445 -0.0302551 0.226329 66 60 50
-0.260036 -0.0294169 0.226014 64 55 47
-0.260502 -0.0285771 0.225764 62 50 38
-0.260842 -0.0277375 0.225583 51 47 42
-0.261053 -0.0269002 0.22547 52 44 39
-0.261525 -0.0260482 0.225218 52 45 33
-0.261738 -0.0252052 0.225104 54 43 31
-0.261952 -0.0243602 0.22499 57 42 30
-0.262035 -0.0235212 0.224946 53 44 34
-0.262382 -0.0226636 0.224761 47 45 34
-0.262465 -0.0218216 0.224717 48 36 28
-0.262416 -0.0209889 0.224743 45 33 28
-0.262632 -0.020135 0.224628 41 35 30
-0.308576 0.0271582 0.200073 40 43 36
-0.30638 0.0275917 0.201247 43 42 40
-0.308023 0.0291222 0.200369 44 43 39
-0.307962 0.030164 0.200403 45 45 39
-0.307472 0.0310762 0.200665 46 46 42
-0.305715 0.0315961 0.201604 48 47 45
-0.305026 0.0324306 0.201973 48 49 45
-0.303926 0.0331288 0.202561 48 52 43
-0.302632 0.033754 0.203254 53 59 51
-0.301555 0.0344374 0.20383 57 62 57
-0.300488 0.0351138 0.2044 58 63 64
-0.299432 0.0357831 0.204965 75 81 88
-0.287683 -0.0679826 0.21013 130 83 69
-0.28677 -0.0668713 0.210624 77 43 42
-0.286203 -0.0658249 0.21093 51 28 24
-0.28564 -0.0647844 0.211235 46 24 21
-0.285415 -0.0638008 0.211356 40 21 19
-0.285191 -0.0628194 0.211478 38 21 16
-0.285303 -0.0618879 0.211418 34 20 14
-0.285246 -0.0609322 0.211448 33 21 15
-0.28519 -0.0599771 0.211479 32 17 14
-0.285134 -0.0590224 0.211509 31 17 14
-0.260431 -0.0484296 0.224858 57 44 37
-0.259998 -0.0475683 0.225092 58 43 36
-0.259822 -0.0467301 0.225188 55 37 34
-0.259646 -0.0458936 0.225283 52 42 39
-0.259597 -0.045067 0.22531 47 41 38
-0.259548 -0.0442408 0.225336 52 36 36
-0.2595 -0.043415 0.225363 51 36 33
-0.259451 -0.0425898 0.225389 47 35 29
-0.259403 -0.0417649 0.225415 47 32 24
-0.259354 -0.0409405 0.225442 39 28 23
-0.259306 -0.0401165 0.225468 40 27 25
-0.259257 -0.039293 0.225495 38 30 25
-0.259209 -0.0384699 0.225521 34 25 25
-0.259161 -0.0376473 0.225547 37 29 22
-0.259112 -0.0368251 0.225574 38 29 21
-0.259064 -0.0360033 0.2256 38 35 24
-0.259016 -0.035182 0.225626 44 32 26
-0.258967 -0.0343611 0.225652 44 31 29
-0.258919 -0.0335406 0.225679 42 34 29
-0.258871 -0.0327206 0.225705 56 37 46
-0.258823 -0.0319011 0.225731 97 82 67
-0.258901 -0.0310796 0.225689 76 48 39
-0.25898 -0.0302573 0.225647 56 45 43
-0.259697 -0.029416 0.22526 49 42 43
-0.260034 -0.0285804 0.225078 48 41 32
-0.260372 -0.0277415 0.224895 45 39 34
-0.260453 -0.0269102 0.224852 47 37 25
-0.260793 -0.0260658 0.224668 45 35 31
-0.261396 -0.0252041 0.224343 45 40 33
-0.26161 -0.0243589 0.224228 48 40 31
-0.261692 -0.0235199 0.224183 42 36 32
-0.261906 -0.0226711 0.224068 41 34 28
-0.261989 -0.0218297 0.224023 41 34 31
-0.26194 -0.0209976 0.22405 35 32 32
-0.309656 0.0275911 0.198283 41 44 39
-0.308726 0.0283939 0.198786 43 43 42
-0.308664 0.0294415 0.19882 46 44 39
-0.308602 0.0304885 0.198853 47 47 40
-0.307679 0.031275 0.199352 49 49 47
-0.305916 0.0317949 0.200305 53 52 51
-0.305224 0.0326313 0.200679 55 55 49
-0.304328 0.0333964 0.201163 56 58 52
-0.302616 0.0338907 0.202088 55 65 62
-0.301537 0.0345749 0.202671 55 67 64
-0.300871 0.0353851 0.203031 77 80 81
-0.299809 0.0360558 0.203605 111 121 115
-0.287632 -0.0680433 0.209064 159 106 86
-0.286889 -0.0669582 0.20947 95 69 58
-0.286151 -0.0658813 0.209873 64 40 28
-0.285755 -0.0648653 0.210089 55 32 28
-0.285362 -0.0638533 0.210305 45 25 20
-0.285137 -0.0628701 0.210427 40 24 15
-0.284913 -0.0618892 0.21055 37 20 16
-0.284857 -0.0609334 0.210581 33 18 16
-0.284801 -0.0599782 0.210612 30 20 15
-0.284745 -0.0590235 0.210642 30 20 16
-0.259659 -0.0475686 0.224337 49 42 35
-0.259483 -0.0467304 0.224433 55 43 35
-0.259307 -0.0458938 0.22453 52 40 34
-0.259259 -0.0450672 0.224556 52 41 35
-0.25921 -0.0442409 0.224583 47 37 33
-0.259162 -0.0434151 0.22461 48 41 32
-0.258986 -0.0425835 0.224705 45 36 28
-0.258938 -0.0417592 0.224732 48 34 30
-0.25889 -0.0409353 0.224759 42 35 30
-0.258841 -0.0401119 0.224785 41 33 29
-0.258793 -0.039289 0.224812 42 31 31
-0.258745 -0.0384664 0.224838 41 31 29
-0.258696 -0.0376443 0.224865 40 37 26
-0.258648 -0.0368227 0.224891 43 35 25
-0.2586 -0.0360015 0.224918 45 35 26
-0.258552 -0.0351807 0.224944 44 33 31
-0.25863 -0.0343605 0.224902 43 28 30
-0.258582 -0.03354 0.224928 38 29 29
-0.258534 -0.03272 0.224955 49 32 37
-0.258486 -0.0319003 0.224981 86 79 61
-0.258564 -0.0310788 0.224938 71 45 29
-0.258643 -0.0302564 0.224896 47 39 32
-0.259358 -0.0294151 0.224505 42 39 35
-0.259694 -0.0285795 0.224322 44 40 34
-0.259774 -0.0277503 0.224279 44 37 34
-0.259983 -0.0269147 0.224165 42 35 25
-0.260193 -0.0260771 0.224051 39 35 27
-0.260403 -0.0252373 0.223936 38 39 28
-0.261005 -0.0243728 0.223608 38 32 27
-0.261349 -0.0235186 0.22342 35 31 26
-0.261563 -0.0226697 0.223304 37 33 23
-0.261778 -0.0218187 0.223187 35 29 27
-0.310752 0.0280301 0.196468 43 45 39
-0.309373 0.0287111 0.19722 44 46 41
-0.309311 0.0297639 0.197254 46 48 43
-0.308381 0.0305579 0.197762 49 50 46
-0.307244 0.0312802 0.198383 55 55 52
-0.306543 0.0321253 0.198766 58 60 56
-0.305423 0.0328332 0.199377 63 64 58
-0.304524 0.0335998 0.199868 79 78 69
-0.303424 0.0342933 0.200469 76 82 81
-0.302131 0.0349126 0.201175 83 84 81
-0.301054 0.0355913 0.201762 119 123 114
-0.287237 -0.068045 0.208184 184 128 106
-0.286495 -0.0669599 0.208594 116 87 75
-0.285928 -0.0659103 0.208907 75 42 35
-0.285533 -0.0648934 0.209125 55 32 32
-0.285308 -0.0639061 0.209249 44 24 24
-0.284915 -0.0628963 0.209466 41 23 18
-0.284691 -0.0619143 0.20959 41 20 17
-0.284635 -0.0609577 0.209621 34 19 16
-0.284411 -0.0599793 0.209744 30 20 17
-0.284523 -0.059046 0.209683 30 18 14
-0.259447 -0.0475791 0.223512 48 41 32
-0.259271 -0.0467401 0.223609 49 43 32
-0.259095 -0.0459029 0.223706 48 42 31
-0.25892 -0.0450673 0.223803 50 39 31
-0.258872 -0.0442411 0.22383 45 37 30
-0.258823 -0.0434152 0.223856 42 34 30
-0.258648 -0.0425835 0.223953 42 38 28
-0.2586 -0.0417591 0.22398 44 37 31
-0.258552 -0.0409352 0.224007 44 33 30
-0.258504 -0.0401118 0.224033 43 33 29
-0.258455 -0.0392887 0.22406 48 37 34
-0.258407 -0.0384662 0.224087 48 38 32
-0.258359 -0.037644 0.224114 44 38 33
-0.258311 -0.0368223 0.22414 45 39 34
-0.258263 -0.0360011 0.224167 51 45 40
-0.258215 -0.0351803 0.224194 47 39 39
-0.258293 -0.03436 0.224151 46 32 30
-0.258245 -0.0335394 0.224178 38 31 26
-0.258197 -0.0327193 0.224204 37 30 30
-0.258149 -0.0318996 0.224231 76 66 54
-0.258353 -0.0310756 0.224118 57 37 37
-0.258305 -0.0302556 0.224145 39 35 33
-0.259147 -0.0294106 0.223681 41 36 30
-0.259355 -0.0285785 0.223567 39 34 31
-0.259435 -0.0277493 0.223523 42 36 29
-0.259515 -0.0269192 0.223479 41 32 32
-0.259724 -0.0260821 0.223364 36 34 29
-0.259804 -0.0252498 0.22332 38 32 28
-0.260014 -0.0244092 0.223204 36 33 24
-0.260615 -0.0235419 0.222873 35 29 24
-0.26122 -0.0226684 0.22254 35 27 23
-0.280505 -0.00740916 0.211909 35 31 23
-0.31053 0.0280976 0.195361 46 47 40
-0.310027 0.0290314 0.195639 47 49 41
-0.309089 0.0298329 0.196156 52 51 47
-0.30881 0.0308214 0.19631 58 58 55
-0.307666 0.0315453 0.196941 62 65 58
-0.306747 0.0323273 0.197448 63 63 57
-0.306047 0.0331689 0.197834 69 67 65
-0.304302 0.0336715 0.198796 100 95 81
-0.303617 0.034499 0.199174 102 102 93
-0.30273 0.0352537 0.199663 123 119 112
-0.301646 0.0359341 0.200261 146 151 138
-0.286158 -0.0679288 0.207685 210 136 109
-0.285931 -0.066933 0.207812 153 102 87
-0.285536 -0.0659119 0.208032 88 49 48
-0.28531 -0.0649215 0.208158 54 28 28
-0.285085 -0.0639333 0.208284 45 25 23
-0.28486 -0.0629473 0.208409 41 25 20
-0.284636 -0.0619636 0.208534 39 24 19
-0.284412 -0.060982 0.208659 34 20 16
-0.284189 -0.0600027 0.208784 34 19 13
-0.2843 -0.0590686 0.208722 34 17 13
-0.259059 -0.0467499 0.222783 49 40 32
-0.258757 -0.0459031 0.222952 47 39 32
-0.258582 -0.0450675 0.223049 46 36 33
-0.258533 -0.0442412 0.223076 49 37 33
-0.258485 -0.0434153 0.223103 48 40 30
-0.258311 -0.0425835 0.223201 45 41 27
-0.258262 -0.0417591 0.223228 47 38 28
-0.258214 -0.0409351 0.223255 45 36 26
-0.258166 -0.0401116 0.223282 42 33 30
-0.258118 -0.0392885 0.223309 48 36 31
-0.258196 -0.0384691 0.223265 41 36 34
-0.258022 -0.0376437 0.223362 46 41 29
-0.257974 -0.0368219 0.223389 63 48 38
-0.257926 -0.0360006 0.223416 57 41 39
-0.257878 -0.0351797 0.223443 46 32 26
-0.257956 -0.0343594 0.2234 42 35 29
-0.257908 -0.0335388 0.223427 40 26 23
-0.25786 -0.0327186 0.223454 45 33 26
-0.257812 -0.0318989 0.223481 73 62 36
-0.258016 -0.0310748 0.223367 49 37 30
-0.257968 -0.0302548 0.223394 37 34 30
-0.258808 -0.0294097 0.222926 37 35 29
-0.259143 -0.0285733 0.22274 37 32 29
-0.259095 -0.0277483 0.222767 37 31 29
-0.259047 -0.0269237 0.222794 38 33 30
-0.259255 -0.0260872 0.222678 33 35 31
-0.259464 -0.0252486 0.222562 37 27 31
-0.259415 -0.0244229 0.222589 36 33 27
-0.259625 -0.0235813 0.222472 36 30 25
-0.28023 -0.00925347 0.210998 32 33 29
-0.280013 -0.00835207 0.211119 33 30 23
-0.280122 -0.00740668 0.211058 33 31 25
-0.280068 -0.00648403 0.211089 34 32 26
-0.310972 0.0283539 0.193883 45 50 43
-0.310025 0.0291635 0.19441 54 53 47
-0.309523 0.0300947 0.19469 65 60 56
-0.30837 0.0308265 0.195332 67 67 61
-0.307444 0.0316158 0.195848 64 66 59
-0.306739 0.0324643 0.196241 63 62 60
-0.305825 0.0332406 0.19675 73 69 71
-0.304499 0.0338765 0.197489 103 104 88
-0.303603 0.0346386 0.197988 116 112 106
-0.302921 0.0354621 0.198368 142 148 139
-0.302243 0.0362802 0.198746 153 157 145
-0.285594 -0.0679012 0.206904 222 136 112
-0.285199 -0.0668778 0.207126 184 121 106
-0.284974 -0.0658859 0.207253 114 71 72
-0.284918 -0.0649229 0.207285 65 27 30
-0.284862 -0.0639605 0.207317 46 22 20
-0.284637 -0.0629736 0.207443 42 22 18
-0.284413 -0.0619889 0.207569 38 21 14
-0.284357 -0.0610296 0.207601 35 19 14
-0.283966 -0.0600262 0.207821 35 19 14
-0.284077 -0.0590911 0.207759 33 17 14
-0.259022 -0.0476 0.221857 49 35 30
-0.25872 -0.0467502 0.222027 51 38 36
-0.258544 -0.0459122 0.222126 49 36 34
-0.25837 -0.0450759 0.222224 45 36 30
-0.258321 -0.0442489 0.222252 46 37 27
-0.258273 -0.0434223 0.222279 46 35 30
-0.258099 -0.0425898 0.222377 44 38 32
-0.25805 -0.0417647 0.222404 46 34 27
-0.258002 -0.0409401 0.222432 46 35 25
-0.257954 -0.0401159 0.222459 44 33 28
-0.257906 -0.0392921 0.222486 45 30 28
-0.257858 -0.0384688 0.222513 42 34 33
-0.25781 -0.0376459 0.22254 47 57 43
-0.257762 -0.0368235 0.222568 63 61 51
-0.257588 -0.0360002 0.222665 60 51 41
-0.257666 -0.03518 0.222622 46 33 29
-0.257618 -0.0343589 0.222649 40 34 27
-0.25757 -0.0335382 0.222676 58 34 31
-0.257522 -0.032718 0.222703 57 52 35
-0.257475 -0.0318982 0.22273 45 38 31
-0.257678 -0.0310741 0.222616 39 31 26
-0.257757 -0.0302509 0.222572 37 32 28
-0.258596 -0.0294051 0.222099 37 30 26
-0.258803 -0.0285723 0.221983 38 29 26
-0.258755 -0.0277473 0.22201 37 30 31
-0.258707 -0.0269226 0.222037 38 32 27
-0.258659 -0.0260985 0.222065 37 35 26
-0.258867 -0.0252611 0.221948 34 28 28
-0.259075 -0.0244216 0.221831 36 27 26
-0.259027 -0.0235963 0.221858 35 28 25
-0.279523 -0.00929398 0.210329 33 31 26
-0.279469 -0.00837187 0.21036 34 31 24
-0.311194 0.0285487 0.192517 54 57 49
-0.309802 0.0292323 0.193301 63 62 57
-0.309081 0.0300998 0.193706 68 65 62
-0.308147 0.0308966 0.194232 66 66 61
-0.307221 0.0316865 0.194753 65 65 61
-0.30673 0.0326019 0.195029 70 69 68
-0.305815 0.0333793 0.195544 81 85 83
-0.304907 0.03415 0.196055 96 106 98
-0.304007 0.0349141 0.196562 131 137 125
-0.303113 0.0356717 0.197065 151 160 149
-0.284863 -0.0678444 0.206219 221 137 116
-0.284638 -0.0668511 0.206347 208 137 115
-0.284582 -0.0658875 0.206379 156 108 91
-0.284526 -0.0649244 0.206411 82 56 47
-0.28447 -0.0639619 0.206443 47 26 20
-0.284414 -0.0629999 0.206475 41 23 16
-0.28419 -0.0620142 0.206603 37 20 18
-0.284134 -0.0610541 0.206635 33 19 19
-0.284078 -0.0600945 0.206667 33 19 18
-0.284022 -0.0591353 0.206698 31 17 13
-0.258937 -0.0476206 0.220955 50 35 30
-0.258634 -0.0467694 0.221127 47 34 34
-0.258332 -0.0459212 0.221299 48 35 35
-0.258157 -0.0450843 0.221398 45 38 29
-0.257982 -0.044249 0.221497 49 37 25
-0.257934 -0.0434223 0.221525 49 34 30
-0.25776 -0.0425898 0.221624 45 32 32
-0.257712 -0.0417647 0.221651 46 35 27
-0.257664 -0.04094 0.221679 47 40 30
-0.257616 -0.0401157 0.221706 45 35 28
-0.257568 -0.0392919 0.221734 44 33 33
-0.25752 -0.0384685 0.221761 41 34 31
-0.257472 -0.0376456 0.221788 41 50 39
-0.257424 -0.0368231 0.221816 58 46 38
-0.257376 -0.0360011 0.221843 60 57 39
-0.257329 -0.0351795 0.22187 67 37 30
-0.257281 -0.0343583 0.221898 46 55 37
-0.257233 -0.0335376 0.221925 39 25 28
-0.257185 -0.0327173 0.221952 40 24 18
-0.257137 -0.0318974 0.22198 34 25 17
-0.257341 -0.0310733 0.221864 30 29 21
-0.257797 -0.0302411 0.221605 33 25 24
-0.258257 -0.0294042 0.221344 35 23 25
-0.258591 -0.028567 0.221154 35 32 26
-0.258543 -0.0277413 0.221181 38 28 26
-0.258495 -0.026916 0.221209 36 33 27
-0.258319 -0.0260973 0.221309 37 33 24
-0.258399 -0.0252667 0.221264 35 29 22
-0.258734 -0.0244204 0.221073 36 26 27
-0.279141 -0.00929164 0.209479 32 31 25
-0.279087 -0.00836945 0.20951 34 31 25
-0.317699 0.029415 0.187574 58 61 51
-0.311194 0.0286809 0.191271 63 66 56
-0.309578 0.0293012 0.192189 64 64 60
-0.308639 0.030105 0.192723 63 64 61
-0.307707 0.0309018 0.193252 67 68 64
-0.306998 0.0317573 0.193655 76 77 71
-0.306293 0.0326072 0.194056 82 85 82
-0.305592 0.0334515 0.194455 87 97 92
-0.304684 0.0342227 0.194971 107 113 110
-0.304413 0.0351917 0.195125 148 163 144
-0.303306 0.0358825 0.195754 159 164 152
-0.284245 -0.0668527 0.205473 218 140 117
-0.284189 -0.065889 0.205505 194 130 109
-0.284133 -0.0649259 0.205538 136 84 75
-0.284077 -0.0639633 0.20557 74 32 34
-0.284021 -0.0630012 0.205602 43 24 21
-0.283966 -0.0620397 0.205634 37 22 22
-0.28391 -0.0610786 0.205667 33 20 21
-0.283854 -0.0601181 0.205699 34 19 18
-0.283798 -0.0591581 0.205731 30 19 17
-0.283742 -0.0581986 0.205763 26 18 17
-0.258167 -0.0467602 0.220443 47 36 29
-0.257992 -0.0459215 0.220543 48 35 30
-0.257818 -0.0450844 0.220643 44 32 30
-0.257644 -0.0442491 0.220743 43 32 26
-0.257596 -0.0434224 0.220771 44 33 26
-0.257422 -0.0425898 0.220871 38 33 30
-0.257374 -0.0417646 0.220898 44 33 28
-0.257326 -0.0409399 0.220926 45 35 30
-0.257278 -0.0401156 0.220954 44 30 26
-0.25723 -0.0392917 0.220981 40 32 27
-0.257308 -0.0384715 0.220937 37 31 33
-0.25726 -0.0376479 0.220964 51 40 33
-0.257087 -0.0368227 0.221064 66 58 40
-0.257039 -0.0360006 0.221091 56 60 47
-0.256991 -0.035179 0.221119 39 31 33
-0.256943 -0.0343578 0.221146 31 27 21
-0.256896 -0.033537 0.221174 29 23 20
-0.256848 -0.0327166 0.221201 29 23 21
-0.257051 -0.0318932 0.221085 33 27 20
-0.257254 -0.0310677 0.220968 34 30 24
-0.257965 -0.0302281 0.22056 35 27 22
-0.258299 -0.0293923 0.220369 31 32 26
-0.258506 -0.0285575 0.22025 30 28 28
-0.258458 -0.0277304 0.220278 32 30 28
-0.258282 -0.0269094 0.220379 35 31 27
-0.258107 -0.02609 0.22048 36 30 23
-0.258186 -0.0252587 0.220434 34 27 25
-0.278759 -0.00928929 0.208629 31 32 27
-0.278705 -0.00836704 0.20866 32 33 25
-0.321296 0.0225733 0.18422 43 42 38
-0.320987 0.0236364 0.184398 44 47 39
-0.320678 0.0246966 0.184575 47 46 40
-0.318969 0.0287766 0.185556 63 60 57
-0.315829 0.0290243 0.187359 64 66 57
-0.312545 0.0292 0.189243 63 66 58
-0.309796 0.0294986 0.190821 62 65 61
-0.308415 0.0301746 0.191614 68 73 67
-0.307483 0.030972 0.192149 77 83 75
-0.306774 0.0318283 0.192556 84 88 83
-0.305855 0.0326125 0.193083 86 92 91
-0.305368 0.0335238 0.193363 101 104 106
-0.304672 0.0343632 0.193762 141 144 134
-0.30419 0.0352656 0.194039 156 164 151
-0.303709 0.0361638 0.194315 161 164 152
-0.283685 -0.066826 0.204696 218 137 116
-0.283629 -0.0658631 0.204729 213 136 115
-0.283574 -0.0649008 0.204761 170 108 94
-0.283685 -0.0639647 0.204696 90 53 50
-0.283629 -0.0630026 0.204729 48 23 21
-0.283574 -0.0620409 0.204761 41 21 21
-0.283518 -0.0610798 0.204794 37 21 19
-0.283462 -0.0601192 0.204826 35 20 17
-0.283406 -0.0591591 0.204859 32 20 17
-0.283518 -0.0582204 0.204794 31 17 16
-0.257701 -0.0467511 0.219759 45 30 28
-0.257527 -0.0459129 0.21986 47 30 28
-0.257353 -0.0450764 0.219961 42 30 28
-0.257305 -0.0442492 0.219989 38 29 27
-0.257131 -0.0434155 0.220089 38 31 26
-0.257083 -0.0425898 0.220117 37 34 26
-0.257036 -0.0417646 0.220145 43 31 23
-0.256988 -0.0409398 0.220173 39 32 27
-0.25694 -0.0401154 0.220201 41 36 30
-0.257017 -0.0392953 0.220156 48 33 31
-0.25697 -0.0384712 0.220184 73 50 36
-0.256922 -0.0376475 0.220212 55 63 55
-0.256874 -0.0368243 0.220239 38 30 34
-0.256701 -0.0360002 0.22034 35 23 24
-0.256653 -0.0351785 0.220367 26 24 20
-0.256606 -0.0343572 0.220395 27 27 20
-0.256558 -0.0335363 0.220423 29 27 22
-0.256761 -0.0327137 0.220305 31 26 22
-0.256713 -0.0318925 0.220333 34 23 21
-0.257168 -0.0310622 0.22007 28 28 25
-0.258245 -0.0277244 0.219445 30 28 28
-0.258197 -0.0268971 0.219473 31 31 27
-0.2787 -0.00924406 0.207592 32 30 26
-0.278646 -0.00832016 0.207623 31 30 25
-0.320958 0.0203273 0.183101 47 44 40
-0.320649 0.021394 0.18328 45 44 41
-0.320584 0.0225179 0.183318 45 45 39
-0.320276 0.0235799 0.183497 48 45 39
-0.32021 0.0247014 0.183535 47 48 43
-0.319903 0.0257589 0.183713 58 52 49
-0.319596 0.0268135 0.183891 58 63 55
-0.318569 0.0276697 0.184486 66 65 58
-0.316841 0.0283218 0.185488 65 64 61
-0.315138 0.0289639 0.186475 62 64 59
-0.31232 0.02927 0.188108 66 66 62
-0.30935 0.0295036 0.18983 72 77 71
-0.308628 0.0303741 0.190249 79 87 79
-0.307476 0.0311077 0.190917 84 90 84
-0.30655 0.0318993 0.191454 84 88 88
-0.305631 0.0326841 0.191986 95 100 103
-0.305357 0.0336636 0.192145 131 135 131
-0.304659 0.0345043 0.19255 160 168 155
-0.304176 0.0354082 0.19283 161 164 152
-0.283293 -0.0668276 0.203823 215 134 111
-0.283237 -0.0658647 0.203855 216 134 113
-0.283182 -0.0649022 0.203888 182 122 107
-0.283293 -0.0639661 0.203823 110 77 71
-0.283237 -0.0630039 0.203856 62 25 23
-0.283349 -0.0620664 0.20379 41 21 20
-0.283461 -0.0611277 0.203725 35 21 19
-0.283405 -0.0601654 0.203758 32 20 18
-0.283349 -0.0592036 0.20379 30 21 15
-0.283294 -0.0582423 0.203823 28 20 14
-0.257235 -0.0467419 0.219076 40 33 29
-0.257187 -0.0459132 0.219105 39 30 26
-0.257014 -0.0450766 0.219206 36 29 25
-0.256966 -0.0442494 0.219234 35 31 28
-0.256793 -0.0434156 0.219336 35 30 23
-0.256745 -0.0425899 0.219364 34 29 26
-0.256697 -0.0417646 0.219392 40 29 24
-0.256649 -0.0409397 0.21942 45 32 25
-0.256727 -0.0401197 0.219375 50 54 34
-0.256679 -0.0392951 0.219403 52 46 36
-0.256757 -0.0384741 0.219357 55 28 21
-0.256709 -0.0376498 0.219385 36 26 22
-0.256661 -0.0368259 0.219413 29 22 24
-0.256488 -0.0360011 0.219515 34 22 25
-0.256441 -0.0351787 0.219543 31 24 23
-0.256518 -0.0343568 0.219497 29 28 22
-0.25647 -0.0335347 0.219525 26 29 26
-0.256423 -0.032713 0.219553 31 26 21
-0.2565 -0.03189 0.219508 31 26 21
-0.278317 -0.00924169 0.20674 33 29 25
-0.278263 -0.00831775 0.206771 35 31 26
-0.323082 0.0186386 0.180539 45 44 42
-0.321042 0.019319 0.181733 49 48 41
-0.320489 0.0203318 0.182057 48 47 43
-0.320181 0.0213986 0.182238 45 47 42
-0.320115 0.0225225 0.182276 47 49 43
-0.319808 0.0235847 0.182456 56 51 47
-0.319501 0.024644 0.182636 66 63 54
-0.319195 0.0257005 0.182816 69 63 63
-0.318409 0.0266259 0.183275 65 69 60
-0.31739 0.0274802 0.183872 63 65 59
-0.315676 0.0281318 0.184875 63 64 62
-0.313757 0.0287084 0.185999 69 73 67
-0.311869 0.029275 0.187104 77 80 74
-0.309567 0.0297022 0.188451 82 87 81
-0.308623 0.0305095 0.189004 83 90 84
-0.307468 0.031244 0.18968 84 87 88
-0.306325 0.0319706 0.190349 96 100 101
-0.30562 0.0328226 0.190762 125 136 128
-0.304919 0.0336689 0.191172 157 169 153
-0.304435 0.0345778 0.191456 166 169 157
-0.283068 -0.0668575 0.20285 212 126 105
-0.283012 -0.0658937 0.202883 212 127 108
-0.282956 -0.0649304 0.202916 195 127 107
-0.282901 -0.0639676 0.202949 142 91 79
-0.283012 -0.0630303 0.202883 77 35 35
-0.283291 -0.0621161 0.202718 41 23 21
-0.283403 -0.0611758 0.202652 36 21 18
-0.283348 -0.0602118 0.202685 35 19 16
-0.282957 -0.0592047 0.202916 33 20 15
-0.282901 -0.0582433 0.202949 29 21 14
-0.282846 -0.0572825 0.202982 28 18 12
-0.256848 -0.0459134 0.218349 38 29 26
-0.256675 -0.0450768 0.218451 37 27 23
-0.256502 -0.0442419 0.218554 35 27 26
-0.256454 -0.0434157 0.218582 34 28 21
-0.256407 -0.0425899 0.21861 34 29 23
-0.256359 -0.0417645 0.218638 38 35 25
-0.256311 -0.0409396 0.218667 34 27 26
-0.256388 -0.0401195 0.218621 33 23 19
-0.256341 -0.0392949 0.218649 31 23 18
-0.256418 -0.0384739 0.218604 30 21 19
-0.256495 -0.037652 0.218558 28 25 17
-0.256573 -0.0368294 0.218512 24 21 26
-0.2564 -0.0360033 0.218614 30 23 27
-0.256352 -0.0351796 0.218643 32 26 23
-0.25643 -0.0343565 0.218597 29 27 24
-0.256382 -0.033533 0.218625 25 28 26
-0.256335 -0.0327101 0.218653 30 28 22
-0.279669 -0.00806793 0.204862 39 33 28
-0.323804 0.015435 0.178777 43 45 39
-0.323738 0.0165808 0.178816 45 45 38
-0.322674 0.0175034 0.179445 45 44 40
-0.321372 0.0183615 0.180214 46 46 44
-0.320572 0.0193234 0.180687 47 49 42
-0.32002 0.0203364 0.181014 47 48 43
-0.319955 0.0214621 0.181052 49 58 48
-0.319647 0.0225272 0.181234 72 64 54
-0.31934 0.0235894 0.181416 71 74 63
-0.318793 0.0245867 0.181739 74 71 60
-0.318008 0.0255163 0.182203 66 66 64
-0.316992 0.0263759 0.182804 61 65 61
-0.315514 0.0270999 0.183677 65 67 63
-0.313365 0.0276225 0.184948 73 77 72
-0.312387 0.028455 0.185526 81 86 78
-0.310967 0.0291505 0.186365 84 89 82
-0.30912 0.0297073 0.187457 81 88 83
-0.308178 0.0305146 0.188014 84 89 88
-0.307242 0.0313149 0.188567 101 105 107
-0.306315 0.0321082 0.189115 129 139 132
-0.305395 0.0328946 0.189659 158 173 152
-0.304694 0.0337417 0.190073 165 172 158
-0.282675 -0.0668592 0.201976 208 118 100
-0.282619 -0.0658952 0.202009 208 121 102
-0.282564 -0.0649318 0.202042 206 123 100
-0.282842 -0.0640207 0.201876 165 102 86
-0.282954 -0.0630818 0.201809 88 55 52
-0.283065 -0.0621417 0.201743 43 25 22
-0.283178 -0.0612005 0.201676 37 22 18
-0.282954 -0.0602129 0.201809 36 21 18
-0.282899 -0.0592493 0.201842 32 19 17
-0.282509 -0.0582443 0.202075 31 17 15
-0.256509 -0.0459136 0.217593 37 30 21
-0.256211 -0.0450688 0.217771 38 26 21
-0.256163 -0.0442421 0.2178 36 26 21
-0.256116 -0.0434158 0.217828 35 24 19
-0.256068 -0.0425899 0.217856 39 36 22
-0.25602 -0.0417645 0.217885 35 21 17
-0.255973 -0.0409395 0.217913 33 21 13
-0.25605 -0.0401194 0.217867 26 25 21
-0.256002 -0.0392947 0.217896 28 28 20
-0.256079 -0.0384736 0.21785 30 25 19
-0.256282 -0.0376543 0.217729 30 28 19
-0.256234 -0.036829 0.217758 24 22 22
-0.256186 -0.0360042 0.217786 28 20 23
-0.256139 -0.0351799 0.217814 29 26 24
-0.256091 -0.0343559 0.217843 24 26 22
-0.256169 -0.0335319 0.217797 30 23 22
-0.279282 -0.00806549 0.204002 40 35 31
-0.323394 0.0142928 0.177676 44 45 39
-0.323327 0.0154392 0.177716 44 47 40
-0.323011 0.0165305 0.177904 46 45 39
-0.322199 0.0175077 0.178389 48 46 41
-0.3209 0.0183659 0.179164 46 48 46
-0.320346 0.0193848 0.179495 48 51 47
-0.319793 0.0203987 0.179825 60 55 52
-0.319486 0.0214667 0.180009 61 73 60
-0.319421 0.022592 0.180047 80 69 62
-0.318631 0.0235331 0.180519 73 73 65
-0.317608 0.0244059 0.18113 65 65 60
-0.316356 0.0252087 0.181876 65 64 64
-0.315118 0.0260024 0.182616 71 76 69
-0.312972 0.0265358 0.183897 77 82 76
-0.312223 0.0274368 0.184343 83 89 81
-0.31148 0.0283316 0.184787 84 88 83
-0.310516 0.0291556 0.185362 81 87 84
-0.308453 0.0296478 0.186594 89 93 91
-0.307732 0.0305198 0.187024 110 110 111
-0.307017 0.031386 0.187451 137 142 138
-0.306089 0.0321799 0.188005 162 174 156
-0.305169 0.0329669 0.188554 166 174 160
-0.282783 -0.066946 0.200799 207 113 96
-0.28256 -0.0659519 0.200934 206 113 95
-0.282504 -0.0649867 0.200967 206 115 96
-0.282616 -0.0640481 0.2009 174 108 92
-0.28256 -0.0630831 0.200933 108 72 64
-0.282839 -0.0621673 0.200765 60 30 24
-0.282951 -0.0612253 0.200698 40 21 17
-0.282728 -0.0602367 0.200832 35 20 19
-0.282505 -0.0592504 0.200967 32 19 16
-0.282116 -0.0582453 0.201201 33 17 13
-0.281894 -0.0572643 0.201335 33 17 12
-0.255872 -0.045069 0.217017 38 26 22
-0.255825 -0.0442422 0.217045 38 26 19
-0.255777 -0.0434158 0.217074 34 24 20
-0.255605 -0.0425836 0.217178 52 38 22
-0.255558 -0.0417587 0.217206 39 24 18
-0.255634 -0.0409394 0.21716 30 22 15
-0.255587 -0.0401148 0.217189 30 24 19
-0.255539 -0.0392906 0.217217 31 28 23
-0.255616 -0.0384701 0.217171 27 27 23
-0.255693 -0.0376488 0.217125 30 24 19
-0.25602 -0.0368306 0.216928 30 22 24
-0.255972 -0.0360051 0.216956 29 23 22
-0.255925 -0.0351801 0.216985 27 23 20
-0.255877 -0.0343555 0.217014 26 24 21
-0.278623 -0.00903974 0.203307 39 36 32
-0.278896 -0.00806305 0.203142 41 36 29
-0.27917 -0.00708346 0.202977 40 34 30
-0.324186 0.00989456 0.17585 44 41 40
-0.323616 0.0109509 0.176193 46 41 38
-0.32355 0.0121017 0.176233 45 41 39
-0.322983 0.0131498 0.176575 43 43 41
-0.322917 0.0142969 0.176615 44 45 42
-0.322601 0.01539 0.176805 46 46 42
-0.322286 0.0164803 0.176994 47 44 44
-0.321477 0.0174567 0.177482 52 49 48
-0.320428 0.0183703 0.178114 59 58 54
-0.319875 0.0193892 0.178448 60 69 58
-0.319324 0.0204032 0.17878 67 62 60
-0.319016 0.0214713 0.178965 66 72 62
-0.318228 0.0224166 0.17944 66 64 62
-0.317206 0.0232948 0.180056 64 65 63
-0.315957 0.024104 0.180808 70 71 67
-0.314256 0.0247814 0.181834 75 77 76
-0.312579 0.0254485 0.182844 79 84 80
-0.311832 0.0263534 0.183295 81 89 84
-0.311089 0.0272522 0.183742 81 89 84
-0.310576 0.0282086 0.184051 86 89 89
-0.309841 0.0290961 0.184494 98 106 100
-0.308006 0.0296529 0.1856 123 128 119
-0.307287 0.0305249 0.186033 151 149 140
-0.30679 0.0314572 0.186333 163 171 156
-0.306079 0.0323183 0.186762 170 174 159
-0.283396 -0.0671194 0.19931 211 116 97
-0.282668 -0.0660364 0.199753 205 111 92
-0.282445 -0.0650418 0.199888 202 109 92
-0.282389 -0.0640755 0.199922 186 108 91
-0.282501 -0.0631348 0.199854 139 82 72
-0.282613 -0.062193 0.199786 79 40 38
-0.282725 -0.0612501 0.199718 43 27 22
-0.282502 -0.0602606 0.199854 34 24 19
-0.281945 -0.0592297 0.200192 33 21 16
-0.281558 -0.0582255 0.200428 34 20 15
-0.281006 -0.0572054 0.200764 34 16 15
-0.280786 -0.0562291 0.200897 30 17 14
-0.278615 -0.055039 0.202218 26 18 14
-0.276965 -0.0539256 0.203222 25 17 15
-0.275967 -0.0528943 0.203829 31 16 16
-0.275601 -0.0519334 0.204052 55 27 20
-0.255486 -0.0442423 0.216291 37 25 18
-0.255314 -0.043409 0.216395 37 27 21
-0.255267 -0.0425836 0.216424 47 39 27
-0.255096 -0.041753 0.216528 39 43 35
-0.255172 -0.0409342 0.216482 30 21 19
-0.255125 -0.0401102 0.216511 30 26 20
-0.255201 -0.0392904 0.216464 34 24 20
-0.255154 -0.0384666 0.216493 30 20 19
-0.25523 -0.0376459 0.216446 28 25 21
-0.255556 -0.0368283 0.216248 28 24 21
-0.255633 -0.0360047 0.216201 32 29 22
-0.255586 -0.0351796 0.21623 31 27 19
-0.278291 -0.00996928 0.202415 37 36 29
-0.278237 -0.00903736 0.202448 39 36 29
-0.278509 -0.00806061 0.202282 40 37 29
-0.278946 -0.00705734 0.202016 37 36 32
-0.323772 0.00874378 0.174742 43 43 37
-0.323204 0.00980327 0.175088 47 43 39
-0.323137 0.0109548 0.175128 46 41 41
-0.322821 0.0120558 0.175321 43 41 41
-0.322256 0.0131029 0.175664 42 43 42
-0.321942 0.0141969 0.175856 41 46 46
-0.321876 0.015341 0.175896 50 49 50
-0.321068 0.0163218 0.176387 63 57 55
-0.320266 0.0172958 0.176875 68 69 61
-0.319712 0.0183187 0.177212 67 63 61
-0.318919 0.01928 0.177695 65 71 61
-0.318612 0.0203499 0.177882 64 64 60
-0.317585 0.0212409 0.178506 62 66 62
-0.316805 0.022183 0.178981 69 68 67
-0.315323 0.0229389 0.179883 74 81 75
-0.31386 0.0236848 0.180773 83 87 80
-0.312186 0.0243604 0.181792 81 83 81
-0.31144 0.0252693 0.182245 73 79 80
-0.310699 0.0261721 0.182696 79 87 88
-0.310411 0.0271942 0.182871 95 102 98
-0.309676 0.0280862 0.183319 116 120 116
-0.308945 0.0289723 0.183763 141 146 134
-0.307559 0.029658 0.184606 162 170 151
-0.30706 0.0305954 0.18491 167 173 159
-0.306563 0.0315286 0.185213 169 171 157
-0.284015 -0.0672946 0.197804 217 122 103
-0.282944 -0.0661493 0.198462 212 117 99
-0.282385 -0.0650971 0.198806 205 111 94
-0.282329 -0.064129 0.19884 194 107 90
-0.282274 -0.0631614 0.198874 158 92 78
-0.282553 -0.0622432 0.198702 96 57 51
-0.282666 -0.0612986 0.198633 56 31 27
-0.282107 -0.0602617 0.198976 39 22 19
-0.281552 -0.0592307 0.199317 34 22 16
-0.281165 -0.0582265 0.199554 33 21 16
-0.28045 -0.0571864 0.199994 32 18 16
-0.278444 -0.0560037 0.201226 29 19 15
-0.276952 -0.0548982 0.202142 27 18 13
-0.275953 -0.0538596 0.202756 25 20 15
-0.275274 -0.0528635 0.203173 27 16 14
-0.27491 -0.0519042 0.203397 40 19 18
-0.275012 -0.050991 0.203334 60 37 27
-0.254805 -0.0425774 0.215747 35 31 30
-0.254757 -0.041753 0.215776 56 44 41
-0.254834 -0.0409341 0.215729 37 25 25
-0.254786 -0.04011 0.215758 31 28 21
-0.254863 -0.0392902 0.215711 30 26 23
-0.254816 -0.0384664 0.21574 30 25 19
-0.255016 -0.0376481 0.215617 31 24 21
-0.255341 -0.0368299 0.215417 30 23 22
-0.255294 -0.0360042 0.215446 33 24 24
-0.278121 -0.0108792 0.201423 40 33 28
-0.277905 -0.00996695 0.201556 40 33 29
-0.278013 -0.00901314 0.201489 40 35 33
-0.278123 -0.00805817 0.201422 41 35 33
-0.278722 -0.00703115 0.201053 38 35 33
-0.32361 0.00763744 0.173479 44 44 38
-0.322791 0.0086549 0.173982 45 45 38
-0.322725 0.00980709 0.174023 48 45 40
-0.322409 0.01091 0.174217 46 45 43
-0.321845 0.0119603 0.174563 44 46 45
-0.321284 0.0130055 0.174908 50 49 48
-0.320725 0.0140456 0.175251 63 59 55
-0.319924 0.0150281 0.175743 68 70 63
-0.319371 0.0160572 0.176083 72 68 64
-0.319306 0.0171905 0.176123 73 74 63
-0.318513 0.0181559 0.17661 65 62 62
-0.317726 0.0191147 0.177093 62 64 61
-0.317182 0.0201241 0.177427 69 69 65
-0.315458 0.0208388 0.178487 74 83 75
-0.31399 0.0216006 0.179388 82 86 82
-0.313232 0.0225284 0.179854 88 93 87
-0.311792 0.0232716 0.180738 84 92 88
-0.311048 0.0241845 0.181195 82 84 87
-0.310308 0.0250912 0.18165 94 95 93
-0.31002 0.0261151 0.181826 110 119 116
-0.309287 0.0270111 0.182277 137 144 132
-0.309225 0.0280912 0.182315 160 166 151
-0.308496 0.0289773 0.182763 168 176 162
-0.307332 0.0297277 0.183478 171 175 162
-0.306614 0.0306006 0.183918 171 175 161
-0.284298 -0.067413 0.196495 223 122 104
-0.283391 -0.0662912 0.197057 221 124 104
-0.282829 -0.0652339 0.197406 216 122 102
-0.282437 -0.0642089 0.197649 209 117 98
-0.282381 -0.0632387 0.197684 179 104 88
-0.282326 -0.062269 0.197718 122 76 67
-0.28227 -0.0612998 0.197752 74 42 39
-0.281713 -0.0602629 0.198098 47 25 22
-0.281159 -0.0592318 0.198441 37 22 17
-0.280608 -0.0582067 0.198783 35 21 18
-0.280059 -0.0571874 0.199123 32 18 18
-0.278218 -0.0560232 0.200265 31 16 14
-0.277044 -0.0549518 0.200993 28 17 14
-0.275885 -0.0538936 0.201712 25 18 14
-0.275205 -0.0528956 0.202133 24 17 13
-0.274841 -0.0519346 0.202359 32 16 16
-0.274788 -0.0510056 0.202392 58 27 19
-0.254543 -0.0417586 0.214946 61 42 35
-0.254495 -0.040934 0.214976 44 45 39
-0.254448 -0.0401099 0.215005 30 24 19
-0.254524 -0.03929 0.214958 28 24 21
-0.254601 -0.0384693 0.21491 29 26 21
-0.254801 -0.0376504 0.214786 29 22 21
-0.255002 -0.0368295 0.214661 29 25 21
-0.277896 -0.0108567 0.200462 37 34 32
-0.277843 -0.00992253 0.200495 39 36 32
-0.277789 -0.00898887 0.200528 40 35 34
-0.277899 -0.00803298 0.20046 41 34 34
-0.279984 -0.00678967 0.199167 39 34 35
-0.322879 0.00759591 0.172565 47 46 38
-0.322312 0.00865864 0.172917 47 46 41
-0.321997 0.00976351 0.173112 47 47 45
-0.321186 0.0107686 0.173615 57 52 49
-0.320627 0.0118159 0.173961 67 62 55
-0.32007 0.0128582 0.174307 69 70 62
-0.319029 0.0137929 0.174953 74 68 64
-0.318479 0.0148231 0.175293 74 73 64
-0.317931 0.0158483 0.175633 66 66 64
-0.317386 0.0168686 0.175971 66 67 62
-0.317322 0.0179942 0.176011 71 68 66
-0.316303 0.0188945 0.176643 76 82 75
-0.314823 0.0196738 0.17756 82 86 80
-0.312899 0.0203293 0.178754 88 95 87
-0.311461 0.0210872 0.179645 84 95 92
-0.310718 0.0220081 0.180106 88 93 95
-0.310429 0.0230401 0.180285 105 106 102
-0.309916 0.0240097 0.180603 116 123 120
-0.30963 0.0250353 0.180781 139 144 133
-0.30912 0.0259967 0.181096 156 168 154
-0.308613 0.0269536 0.181411 166 178 163
-0.308551 0.0280327 0.181449 170 178 164
-0.308046 0.0289824 0.181762 172 176 164
-0.306884 0.0297328 0.182483 173 176 163
-0.283899 -0.0674147 0.195605 229 123 103
-0.283332 -0.0663492 0.19596 227 122 102
-0.282938 -0.0653171 0.196207 227 125 105
-0.282545 -0.0642892 0.196453 223 126 106
-0.282153 -0.0632655 0.196698 207 120 103
-0.282098 -0.0622949 0.196732 160 99 88
-0.281875 -0.0613011 0.196872 95 62 56
-0.281319 -0.060264 0.19722 56 35 29
-0.2806 -0.0592112 0.197669 41 25 20
-0.280216 -0.0582077 0.19791 38 22 18
-0.279669 -0.0571883 0.198253 35 18 17
-0.278152 -0.0560616 0.199202 32 18 16
-0.277137 -0.0550058 0.199838 28 18 15
-0.275816 -0.0539278 0.200664 27 19 13
-0.275136 -0.0529279 0.20109 26 17 15
-0.274771 -0.0519651 0.201318 28 16 17
-0.274718 -0.0510345 0.201351 44 25 14
-0.254157 -0.0409339 0.214222 64 41 33
-0.25411 -0.0401097 0.214252 39 25 23
-0.254186 -0.0392898 0.214204 32 23 23
-0.254386 -0.0384722 0.214079 31 23 22
-0.254462 -0.0376501 0.214031 30 24 22
-0.254787 -0.0368311 0.213828 30 23 23
-0.278051 -0.0117306 0.199262 41 32 31
-0.277997 -0.0107934 0.199295 42 32 32
-0.277456 -0.00992021 0.199634 40 33 33
-0.277565 -0.00896457 0.199566 37 37 34
-0.277512 -0.00803055 0.199599 41 37 34
-0.321899 0.00750943 0.17181 53 48 41
-0.321336 0.00857016 0.172162 64 54 47
-0.320528 0.00957872 0.172668 66 63 57
-0.319971 0.0106281 0.173016 69 66 62
-0.319173 0.0116235 0.173516 75 67 62
-0.318137 0.0125623 0.174164 72 71 64
-0.31735 0.0135429 0.174657 65 66 65
-0.317286 0.0146715 0.174697 65 66 63
-0.316982 0.0157467 0.174887 70 70 68
-0.316202 0.0167114 0.175376 79 83 75
-0.314486 0.0174523 0.17645 83 87 82
-0.314423 0.0185655 0.176489 88 95 85
-0.312272 0.0191755 0.177836 87 95 90
-0.31084 0.0199404 0.178732 86 94 95
-0.309649 0.0207517 0.179477 100 102 102
-0.309812 0.0218973 0.179376 116 126 125
-0.309525 0.0229274 0.179555 152 154 139
-0.309463 0.0240144 0.179594 164 172 158
-0.30873 0.024919 0.180052 167 176 164
-0.308446 0.0259401 0.18023 167 177 165
-0.308162 0.0269585 0.180408 169 179 165
-0.307879 0.0279743 0.180585 172 179 165
-0.307596 0.0289874 0.180762 173 178 164
-0.283499 -0.0674163 0.194715 239 133 112
-0.282934 -0.0663508 0.195072 234 127 107
-0.282878 -0.0653734 0.195107 233 125 107
-0.282653 -0.06437 0.195249 231 129 110
-0.281925 -0.0632923 0.19571 227 131 112
-0.281702 -0.0622962 0.195851 190 119 105
-0.281479 -0.0613023 0.195991 120 84 75
-0.280924 -0.0602652 0.196342 72 46 39
-0.280208 -0.0592122 0.196794 50 29 23
-0.279824 -0.0582087 0.197037 40 23 18
-0.279278 -0.0571893 0.197382 35 20 18
-0.277925 -0.0560812 0.198236 33 20 17
-0.27707 -0.0550422 0.198777 30 18 17
-0.276221 -0.0540125 0.199313 30 20 18
-0.27538 -0.052992 0.199845 27 19 15
-0.274701 -0.0519958 0.200273 25 18 15
-0.275273 -0.0511207 0.199912 35 22 16
-0.276007 -0.0502538 0.199448 57 34 25
-0.253942 -0.0409389 0.213391 65 50 32
-0.253895 -0.040114 0.213421 46 43 38
-0.253971 -0.0392934 0.213373 37 20 22
-0.25417 -0.0384752 0.213247 31 26 24
-0.254246 -0.0376523 0.213198 35 25 24
-0.254944 -0.0368386 0.212757 33 25 24
-0.277554 -0.0126848 0.198467 44 33 28
-0.277663 -0.0117284 0.198398 42 35 31
-0.320923 0.00742333 0.171057 64 62 54
-0.320117 0.00843628 0.171567 70 64 57
-0.319561 0.0094888 0.171918 72 67 61
-0.318521 0.0104409 0.172575 68 66 62
-0.317249 0.011336 0.173379 66 62 60
-0.316229 0.0122701 0.174024 65 64 61
-0.315217 0.0131957 0.174663 67 71 67
-0.315153 0.0143161 0.174703 77 82 74
-0.315325 0.0154881 0.174594 84 87 81
-0.313387 0.0161845 0.175819 91 96 87
-0.310345 0.0166059 0.177742 88 96 92
-0.309606 0.0175411 0.178208 87 97 94
-0.309544 0.0186322 0.178247 103 101 102
-0.309034 0.0196122 0.17857 115 131 124
-0.308972 0.0206999 0.178609 143 146 137
-0.309133 0.0218444 0.178507 163 174 159
-0.309071 0.0229321 0.178546 175 186 170
-0.30834 0.0238407 0.179008 175 179 168
-0.308056 0.0248635 0.179187 175 178 166
-0.307994 0.025945 0.179226 174 177 166
-0.307711 0.0269635 0.179405 173 178 167
-0.30765 0.0280427 0.179444 173 181 167
-0.282535 -0.0663523 0.194185 242 139 118
-0.28248 -0.0653749 0.19422 239 135 116
-0.282424 -0.064398 0.194256 237 133 113
