ply
format ascii 1.0
element vertex 1330
property float x
property float y
property float z
property uchar diffuse_red
property uchar diffuse_green
property uchar diffuse_blue
end_header
-6.32467 -2.47629 -6.25714 108 57 19
-6.31927 -2.44146 -6.25809 107 55 19
-6.53384 -2.48972 -6.4922 105 54 16
-6.76429 -2.54153 -6.74366 107 56 14
-6.75848 -2.50404 -6.74468 105 56 18
-7.00642 -2.55835 -7.01552 103 57 23
-7.00038 -2.51937 -7.01658 101 57 28
-6.99434 -2.48037 -7.01764 103 53 32
-6.98829 -2.44133 -7.0187 107 52 16
-6.98224 -2.40228 -7.01976 102 52 14
-6.97618 -2.3632 -7.02083 97 53 22
-6.2651 -2.09185 -6.26759 95 54 31
-6.25967 -2.05677 -6.26854 98 53 25
-6.25423 -2.02167 -6.2695 98 56 23
-5.20412 -1.65955 -5.14929 99 54 23
-4.46136 -1.40341 -4.35694 99 53 25
-4.16415 -1.28993 -4.04212 98 53 23
-4.07154 -1.24035 -3.94692 98 50 16
-4.06802 -1.21765 -3.94754 93 53 20
-4.15336 -1.22031 -4.04401 93 50 20
-5.0375 -1.44551 -5.00338 95 51 20
-6.00873 -1.68469 -6.05892 96 53 20
-6.65328 -1.82517 -6.76313 96 50 19
-6.87266 -1.69507 -7.03898 94 47 19
-6.61795 -1.59716 -6.76933 93 45 13
-6.16673 -1.45701 -6.28484 90 44 15
-5.77373 -1.33492 -5.86287 89 40 22
-5.42836 -1.22761 -5.49205 89 40 20
-5.26856 -1.16353 -5.32341 91 45 17
-5.26386 -1.13321 -5.32424 91 46 17
-5.25916 -1.10287 -5.32506 89 48 22
-5.40899 -1.10261 -5.49545 88 44 24
-5.56818 -1.10232 -5.67648 89 44 23
-5.56317 -1.07002 -5.67736 89 43 23
-5.55817 -1.03771 -5.67824 88 40 23
-5.55316 -1.00537 -5.67912 87 41 22
-6.51712 -0.946429 -6.78701 82 42 18
-6.28414 -0.87833 -6.536 83 38 18
-6.50519 -0.86941 -6.7891 83 36 25
-6.74322 -0.859778 -7.06168 82 35 25
-6.46929 -0.637766 -6.7954 82 32 18
-6.02823 -0.563212 -6.30913 80 38 24
-5.64408 -0.498256 -5.88561 81 38 12
-5.63886 -0.464512 -5.88653 82 36 10
-0.498392 0.0180196 -0.14057 245 59 27
-0.498034 0.0203302 -0.140633 240 53 20
-0.495497 0.0219957 -0.138088 217 48 10
-0.492281 0.0234258 -0.134723 194 43 13
-0.490518 0.0252684 -0.133093 179 40 0
-0.488769 0.0270971 -0.131476 143 24 2
-0.488418 0.0293621 -0.131538 75 1 4
-0.487374 0.0313983 -0.130765 29 2 5
-0.486334 0.0334276 -0.129996 26 1 0
-0.485984 0.0356877 -0.130057 38 1 6
-0.484949 0.0377068 -0.129291 114 19 1
-0.483918 0.0397191 -0.128528 159 56 23
-0.483568 0.0419741 -0.128589 174 44 10
-0.483219 0.0442307 -0.12865 167 45 5
-0.482869 0.0464887 -0.128712 150 31 1
-0.483197 0.0490128 -0.129598 123 15 15
-0.482846 0.0512784 -0.129659 134 26 11
-0.482495 0.0535455 -0.129721 152 29 10
-0.482822 0.056094 -0.130611 171 34 2
-0.482469 0.0583687 -0.130673 178 38 5
-0.482117 0.060645 -0.130735 179 40 11
-0.481087 0.0626287 -0.129968 174 39 13
-0.480735 0.0649032 -0.13003 150 43 12
-0.480382 0.0671792 -0.130092 102 31 15
-0.478688 0.0688441 -0.128505 74 23 14
-0.479676 0.0717357 -0.130215 75 19 7
-2.7579 1.20858 -2.95143 71 23 5
-2.63123 1.16479 -2.79853 70 21 7
-2.66841 1.20268 -2.8485 74 18 13
-2.66564 1.22051 -2.84898 77 17 15
-2.83584 1.32922 -3.06458 71 20 11
-2.83288 1.34831 -3.0651 67 26 8
-3.02807 1.47456 -3.31268 64 22 5
-3.13527 1.55564 -3.45104 59 19 3
-3.54518 2.15656 -4.03924 50 18 7
-3.39722 2.08525 -3.85652 46 22 10
-3.32605 2.0635 -3.7712 50 22 6
-3.38983 2.13294 -3.85782 56 18 5
-2.99113 2.48585 -3.47632 39 17 6
-2.98773 2.5078 -3.47691 42 16 3
-2.98433 2.52977 -3.47751 44 13 4
-2.9276 2.50211 -3.4074 43 11 5
-2.87297 2.47549 -3.33988 42 9 4
-1.69805 1.38503 -1.7824 44 10 8
-1.6644 1.36665 -1.74041 44 9 8
-1.64719 1.36359 -1.72021 45 9 6
-1.64537 1.37529 -1.72053 41 11 6
-4.21956 -2.82299 -3.82779 118 61 18
-4.12986 -2.74385 -3.74118 118 61 16
-4.04389 -2.66801 -3.65818 117 60 17
-4.04074 -2.64767 -3.65874 115 58 26
-4.03758 -2.62731 -3.6593 116 58 29
-3.54066 -2.28521 -3.15973 118 58 25
-3.36292 -2.15424 -2.98281 119 59 20
-3.3603 -2.13736 -2.98327 120 60 15
-3.47206 -2.19338 -3.09993 119 61 18
-3.59211 -2.25354 -3.22523 119 61 19
-3.72138 -2.31831 -3.36016 120 61 19
-3.78832 -2.34297 -3.43187 120 62 15
-4.01224 -2.46401 -3.66377 120 62 13
-4.00906 -2.44354 -3.66433 121 60 17
-6.54142 -2.71085 -6.51331 116 59 17
-6.3158 -2.58535 -6.28036 113 58 24
-6.10522 -2.46819 -6.06295 110 58 26
-6.1 -2.43455 -6.06387 109 60 25
-6.09478 -2.4009 -6.06479 109 58 26
-6.29419 -2.44612 -6.28418 109 55 29
-6.50785 -2.49455 -6.51924 105 57 28
-6.73733 -2.54654 -6.7717 109 56 26
-6.73151 -2.50905 -6.77273 108 55 26
-6.72569 -2.47153 -6.77376 108 54 21
-6.4854 -2.34989 -6.5232 109 54 13
-6.47978 -2.31367 -6.52419 105 56 18
-6.47416 -2.27742 -6.52519 102 55 20
-5.65466 -1.81193 -5.68106 100 52 11
-5.17873 -1.63428 -5.17179 100 53 13
-4.77795 -1.48466 -4.74294 100 53 18
-4.89861 -1.49507 -4.87917 100 52 19
-4.89433 -1.46747 -4.87993 97 54 22
-5.02158 -1.47765 -5.02375 96 56 20
-5.98962 -1.72328 -6.08337 97 51 20
-6.63204 -1.86807 -6.7903 97 50 21
-6.87505 -1.8975 -7.06292 96 49 19
-6.84444 -1.70024 -7.06833 92 48 22
-6.59077 -1.60213 -6.79759 91 47 18
-6.58486 -1.56405 -6.79864 88 46 21
-6.13591 -1.42616 -6.31214 88 43 25
-5.5702 -1.26769 -5.69598 89 41 22
-5.40125 -1.20045 -5.51605 87 43 24
-5.24224 -1.13715 -5.34672 90 43 20
-5.23754 -1.10681 -5.34755 87 46 27
-5.3867 -1.10667 -5.51862 86 46 24
-5.54519 -1.10651 -5.70039 89 48 23
-5.37698 -1.04405 -5.52034 90 44 25
-5.53516 -1.04189 -5.70217 90 42 23
-6.72723 -0.94495 -7.08903 85 39 18
-6.72102 -0.904946 -7.09013 85 37 21
-6.68992 -0.704541 -7.09562 82 33 18
-6.21735 -0.622577 -6.57055 85 32 14
-5.80778 -0.551519 -6.11549 82 34 20
-5.6202 -0.502556 -5.91044 80 36 14
-5.61496 -0.468811 -5.91137 83 34 13
-0.496783 0.0177399 -0.142241 238 61 29
-0.495698 0.0198396 -0.141428 236 54 25
-0.492467 0.0212926 -0.138021 221 47 10
-0.490695 0.0231505 -0.136371 190 47 10
-0.48824 0.024777 -0.13389 180 35 0
-0.487194 0.0268242 -0.133111 137 25 1
-0.486843 0.0290893 -0.133173 59 1 8
-0.485802 0.0311262 -0.132398 31 0 8
-0.484765 0.0331562 -0.131626 33 2 0
-0.483732 0.0351792 -0.130856 33 2 8
-0.483382 0.0374361 -0.130918 63 1 11
-0.483031 0.0396944 -0.13098 144 26 5
-0.482003 0.0417041 -0.130214 166 45 1
-0.481653 0.0439608 -0.130276 159 47 3
-0.481978 0.0464783 -0.131166 126 34 4
-0.481627 0.0487425 -0.131228 90 4 8
-0.481275 0.0510082 -0.13129 117 12 10
-0.4816 0.05355 -0.132185 146 34 8
-0.481247 0.0558234 -0.132247 163 35 4
-0.480894 0.0580982 -0.132309 172 40 1
-0.479867 0.0600858 -0.131539 179 39 4
-0.478843 0.0620667 -0.130772 173 38 2
-0.477824 0.0640408 -0.130009 146 38 9
-0.477472 0.0663075 -0.130071 97 25 9
-0.476457 0.0682719 -0.129311 72 22 13
-0.476768 0.0708454 -0.130195 70 22 11
-3.26325 1.46351 -3.61148 68 25 11
-2.74234 1.22482 -2.96512 68 20 14
-2.97444 1.36345 -3.25975 73 17 9
-3.02348 1.41064 -3.32567 73 17 5
-3.0203 1.43113 -3.32623 68 18 8
-3.1272 1.51051 -3.46512 63 19 10
-3.1239 1.53182 -3.4657 59 17 6
-3.30216 1.65307 -3.69502 58 18 4
-3.45101 2.12949 -3.96355 52 15 5
-3.44723 2.15385 -3.96422 53 18 5
-3.44345 2.17822 -3.96488 57 20 7
-3.3028 2.10754 -3.78909 56 18 11
-2.97282 2.50535 -3.49239 42 16 6
-2.91296 2.4997 -3.42259 45 12 5
-1.91394 1.58139 -2.08841 33 12 7
-1.65822 1.35353 -1.74839 38 13 9
-1.62606 1.33615 -1.70794 37 13 3
-1.60957 1.33346 -1.68848 38 14 1
-1.5934 1.33083 -1.6694 39 14 5
-1.56374 1.31459 -1.63206 38 12 10
-3.02136 3.02225 -3.65421 33 14 13
-3.01777 3.04537 -3.65484 35 12 8
-4.20405 -2.82596 -3.84395 117 61 25
-4.11467 -2.74677 -3.757 118 62 17
-4.02901 -2.67086 -3.67367 119 61 14
-4.02585 -2.65052 -3.67423 116 60 24
-4.02269 -2.63016 -3.6748 116 59 26
-3.52766 -2.2877 -3.17327 117 59 22
-3.35059 -2.1566 -2.99565 119 60 21
-3.34797 -2.13972 -2.99612 121 61 21
-3.45928 -2.19582 -3.11323 119 61 24
-3.57885 -2.25607 -3.23903 117 62 23
-3.77727 -2.3649 -3.44596 117 62 20
-3.84666 -2.39099 -3.52081 119 62 16
-3.99731 -2.46686 -3.67931 122 62 14
-6.51548 -2.71569 -6.54029 113 58 21
-6.29075 -2.59002 -6.30643 110 60 27
-6.081 -2.4727 -6.08815 107 59 26
-6.07577 -2.43906 -6.08908 107 59 30
-6.07054 -2.4054 -6.09001 107 58 36
-6.0653 -2.37172 -6.09094 106 56 41
-6.26369 -2.41592 -6.31124 104 57 40
-6.47625 -2.46324 -6.54727 106 57 42
-6.47063 -2.42709 -6.54827 106 57 34
-6.465 -2.39091 -6.54927 108 57 25
-6.45938 -2.35471 -6.55027 110 56 21
-6.23655 -2.24127 -6.31607 106 53 20
-6.02857 -2.13537 -6.09748 101 56 33
-6.1984 -1.99584 -6.32285 96 54 24
-5.62688 -1.78429 -5.70568 95 55 24
-5.62192 -1.75242 -5.70657 97 55 21
-5.9811 -1.82995 -6.10592 100 53 18
-5.97581 -1.79591 -6.10686 100 51 17
-6.17106 -1.81987 -6.32772 96 54 23
-6.61081 -1.91095 -6.81746 95 53 20
-6.853 -1.94205 -7.09113 96 53 13
-6.84688 -1.90267 -7.09222 96 51 11
-6.82236 -1.74491 -7.09658 95 51 21
-6.81622 -1.70541 -7.09767 92 51 20
-6.56359 -1.60711 -6.82586 91 48 19
-6.329 -1.51581 -6.57346 90 47 21
-6.11059 -1.43078 -6.33848 89 48 23
-5.54724 -1.27189 -5.71985 89 47 24
-5.37898 -1.20452 -5.53921 89 45 25
-5.37413 -1.17328 -5.54008 89 42 20
-5.21591 -1.11075 -5.37004 86 45 23
-5.5272 -1.14297 -5.72341 86 46 20
-5.52219 -1.1107 -5.72431 88 48 19
-5.35468 -1.04811 -5.54354 90 44 20
-5.3498 -1.01677 -5.5444 91 40 17
-6.6677 -0.749807 -7.12409 83 41 17
-6.19671 -0.664632 -6.597 81 33 21
-5.98278 -0.608436 -6.36121 81 37 21
-5.7831 -0.555965 -6.14114 82 31 18
-5.59631 -0.506857 -5.93528 83 33 18
-5.77227 -0.486245 -6.14307 82 37 18
-0.495174 0.0174601 -0.143912 239 55 8
-0.494092 0.0195606 -0.143096 240 51 17
-0.490874 0.021016 -0.139676 215 48 14
-0.488408 0.0226613 -0.137164 211 45 9
-0.486663 0.0245034 -0.135528 197 40 0
-0.48562 0.0265513 -0.134747 138 40 3
-0.484581 0.0285921 -0.133968 67 1 4
-0.483546 0.030626 -0.133193 35 0 1
-0.483195 0.0328847 -0.133256 36 1 0
-0.482165 0.0349083 -0.132484 30 2 0
-0.481814 0.0371653 -0.132546 35 9 1
-0.481463 0.0394237 -0.132609 93 17 0
-0.481112 0.0416836 -0.132671 133 42 8
-0.48076 0.043945 -0.132734 136 28 2
-0.481084 0.0464678 -0.133631 94 6 7
-0.480731 0.0487368 -0.133694 46 1 4
-0.480379 0.0510073 -0.133757 68 5 1
-0.480025 0.0532793 -0.13382 127 21 1
-0.479672 0.0555527 -0.133882 156 37 9
-0.479319 0.0578277 -0.133945 173 40 2
-0.477626 0.0595289 -0.13234 182 41 2
-0.476608 0.0615069 -0.131574 176 41 3
-0.475595 0.0634783 -0.130811 139 38 9
-0.474586 0.065443 -0.130051 95 22 3
-0.471633 0.066506 -0.126856 76 14 3
-0.473883 0.0699623 -0.130176 66 22 6
-3.37689 1.52508 -3.78968 72 18 20
-3.37332 1.54809 -3.79031 73 18 18
-3.36974 1.57111 -3.79095 72 19 10
-3.43448 1.62975 -3.878 67 17 9
-3.43082 1.6533 -3.87865 60 22 10
-3.35899 1.64028 -3.79286 56 22 8
-3.29009 1.6278 -3.71058 56 19 4
-3.28657 1.65043 -3.7112 58 21 3
-1.90672 1.56607 -2.09774 43 10 2
-1.71644 1.40147 -1.84352 39 10 4
-1.62001 1.3233 -1.71577 36 15 7
-1.60358 1.32073 -1.69623 35 15 6
-1.58747 1.31822 -1.67708 36 13 5
-1.55792 1.30222 -1.63958 36 12 8
-1.55619 1.31336 -1.63989 36 11 12
-3.00575 3.01972 -3.6704 39 11 7
-2.94633 2.98162 -3.59377 41 14 5
-2.9428 3.00431 -3.5944 34 12 8
-2.93927 3.02701 -3.59502 31 10 14
-2.88227 2.98955 -3.52132 31 10 15
-4.18853 -2.82894 -3.86011 115 59 28
-4.09947 -2.74968 -3.77282 117 61 21
-4.01413 -2.67371 -3.68917 118 62 19
-4.01096 -2.65337 -3.68973 117 60 24
-4.0078 -2.63301 -3.6903 117 60 24
-4.00463 -2.61264 -3.69087 118 60 23
-3.45195 -2.23324 -3.12556 120 60 26
-3.44923 -2.21576 -3.12605 121 60 28
-3.56841 -2.27675 -3.25233 118 60 27
-3.62994 -2.29972 -3.31929 118 60 24
-3.76322 -2.36758 -3.46057 118 62 20
-3.83233 -2.39372 -3.53573 121 62 13
-3.98238 -2.4697 -3.69485 123 62 11
-6.2711 -2.62944 -6.33152 111 58 24
-6.062 -2.51083 -6.11242 109 61 25
-6.05677 -2.47721 -6.11336 108 59 21
-6.05153 -2.44357 -6.1143 108 59 30
-5.85625 -2.33472 -5.90927 108 57 32
-5.85118 -2.30213 -5.91018 107 55 30
-6.03581 -2.34253 -6.11711 106 56 30
-6.45025 -2.46807 -6.57432 108 58 32
-6.44462 -2.43191 -6.57533 110 58 22
-6.43899 -2.39574 -6.57634 110 58 14
-6.21685 -2.2809 -6.34124 108 58 14
-6.00953 -2.1737 -6.12182 106 55 20
-6.00426 -2.13987 -6.12276 105 57 29
-5.99899 -2.10602 -6.12371 105 57 26
-6.17321 -2.00049 -6.34906 101 53 15
-5.60403 -1.7885 -5.72944 98 53 21
-6.16226 -1.93016 -6.35102 95 52 23
-6.15679 -1.89497 -6.352 93 50 17
-6.1513 -1.85975 -6.35298 91 51 16
-6.14582 -1.82451 -6.35397 94 43 15
-6.14033 -1.78925 -6.35495 99 48 16
-6.5778 -1.87803 -6.84672 98 54 16
-6.8187 -1.90784 -7.12152 95 53 18
-6.81257 -1.86844 -7.12262 94 49 21
-6.80643 -1.82901 -7.12372 94 51 16
-6.80029 -1.78956 -7.12482 91 46 23
-6.54825 -1.68819 -6.85201 90 51 19
-6.3142 -1.59404 -6.59869 92 49 14
-6.0963 -1.50636 -6.36284 94 47 16
-6.09078 -1.4709 -6.36383 94 46 18
-6.08526 -1.43541 -6.36482 92 48 20
-5.52428 -1.27608 -5.74373 89 49 25
-5.51927 -1.24388 -5.74463 88 47 28
-5.35185 -1.17734 -5.56325 87 43 19
-5.19427 -1.1147 -5.39254 87 46 19
-5.33236 -1.05217 -5.56674 90 43 10
-5.17535 -0.993135 -5.39593 92 39 11
-6.63925 -0.754941 -7.15367 82 41 17
-6.17028 -0.669398 -6.62447 83 35 15
-5.95725 -0.613037 -6.38775 83 36 16
-5.95165 -0.577008 -6.38875 83 33 14
-5.94603 -0.540957 -6.38975 83 32 15
-6.14704 -0.520089 -6.62863 80 39 18
-0.493565 0.0171803 -0.145583 226 53 17
-0.492486 0.0192815 -0.144764 232 60 20
-0.488577 0.0205291 -0.140465 231 54 16
-0.48613 0.0221742 -0.137955 231 50 20
-0.484397 0.0240146 -0.136319 205 48 16
-0.484045 0.0262784 -0.136382 138 38 15
-0.483009 0.0283198 -0.135601 65 1 7
-0.481977 0.0303543 -0.134823 29 4 1
-0.480949 0.0323818 -0.134049 29 4 5
-0.480598 0.0346374 -0.134112 26 4 2
-0.480246 0.0368945 -0.134175 30 2 7
-0.479895 0.039153 -0.134237 47 3 4
-0.479543 0.041413 -0.134301 78 4 1
-0.479864 0.0439291 -0.135202 77 2 4
-0.480186 0.0464572 -0.136107 47 0 9
-0.479832 0.0487311 -0.13617 32 0 7
-0.479478 0.0510064 -0.136234 36 2 1
-0.478451 0.0530085 -0.135455 84 4 2
-0.478097 0.055282 -0.135518 130 23 15
-0.477074 0.0572742 -0.134743 165 36 3
-0.475394 0.0589742 -0.133138 180 42 8
-0.474383 0.0609494 -0.132372 175 41 6
-0.471426 0.0620485 -0.129153 134 39 4
-0.470433 0.0640002 -0.128403 91 26 3
-0.469443 0.0659454 -0.127656 76 17 3
-0.469735 0.0684829 -0.128528 66 23 1
-3.36101 1.52237 -3.80616 65 19 18
-3.35743 1.54538 -3.80681 69 17 11
-3.35385 1.56841 -3.80745 70 18 7
-3.41825 1.62699 -3.89485 65 18 16
-3.41458 1.65054 -3.89551 57 25 19
-3.34308 1.63757 -3.80938 56 29 9
-3.2745 1.62515 -3.72676 59 26 2
-3.27098 1.64778 -3.72739 60 24 2
-3.26745 1.67043 -3.72802 60 21 4
-1.66141 1.34196 -1.78554 42 10 10
-1.65956 1.35387 -1.78587 47 11 6
-1.61216 1.32201 -1.72391 36 17 17
-1.59581 1.31945 -1.70429 37 14 9
-1.57977 1.31695 -1.68506 35 14 5
-1.56405 1.31451 -1.66621 38 15 3
-1.54864 1.31212 -1.64773 45 16 1
-1.5469 1.32327 -1.64804 41 13 4
-2.99013 3.01718 -3.6866 38 14 2
-2.93101 2.97914 -3.60965 39 15 1
-2.92748 3.00182 -3.61029 37 16 4
-2.8707 2.96484 -3.53629 35 14 7
-2.81606 2.92926 -3.46509 33 10 12
-4.08751 -2.77335 -3.78806 114 54 28
-4.08428 -2.7526 -3.78864 117 55 27
-3.99925 -2.67657 -3.70466 118 56 26
-3.99607 -2.65622 -3.70523 118 58 26
-3.9929 -2.63587 -3.70581 119 59 27
-3.91146 -2.56373 -3.62524 121 60 28
-3.49889 -2.27489 -3.20084 120 60 28
-3.55799 -2.29743 -3.26562 120 59 27
-3.61931 -2.3208 -3.33284 119 59 23
-3.75218 -2.38949 -3.47465 120 59 22
-3.74918 -2.37026 -3.4752 122 60 22
-3.97063 -2.49301 -3.70982 123 61 11
-6.24605 -2.63411 -6.35758 111 60 26
-5.6701 -2.36308 -5.73716 109 61 23
-5.66519 -2.33156 -5.73805 109 60 21
-5.66027 -2.30002 -5.73894 109 60 30
-5.65535 -2.26846 -5.73983 110 58 29
-5.8277 -2.30649 -5.9346 109 56 26
-5.82262 -2.27388 -5.93551 108 56 26
-6.00629 -2.31331 -6.1433 108 59 25
-6.00102 -2.27956 -6.14425 113 57 15
-5.99576 -2.2458 -6.1452 112 56 12
-5.99049 -2.21201 -6.14615 108 57 14
-5.98522 -2.1782 -6.1471 105 56 16
-5.61589 -2.01529 -5.74694 108 55 22
-5.61094 -1.98355 -5.74784 106 54 25
-5.60599 -1.95179 -5.74873 99 54 27
-6.14801 -2.00514 -6.37527 93 53 30
-5.94294 -1.90696 -6.15473 93 51 33
-6.13705 -1.93481 -6.37725 95 52 25
-6.13156 -1.89961 -6.37824 95 54 11
-6.12607 -1.8644 -6.37923 90 50 14
-6.12058 -1.82916 -6.38022 94 50 12
-6.11508 -1.79389 -6.38121 93 47 17
-6.10958 -1.75861 -6.3822 92 50 19
-5.72026 -1.61722 -5.95398 90 50 22
-5.71511 -1.58417 -5.95491 89 48 24
-5.70995 -1.5511 -5.95584 91 51 18
-5.53136 -1.47305 -5.76219 93 55 21
-5.52636 -1.44097 -5.76309 88 46 23
-5.20568 -1.33065 -5.40907 87 50 24
-5.20097 -1.30042 -5.40992 90 54 22
-5.05222 -1.23614 -5.24848 93 50 17
-5.19154 -1.2399 -5.41162 93 43 18
-5.50131 -1.28027 -5.76761 91 41 25
-5.49629 -1.24808 -5.76852 90 42 21
-5.49127 -1.21586 -5.76942 88 47 15
-0.491956 0.0169005 -0.147255 201 46 22
-0.49088 0.0190023 -0.146433 225 47 19
-0.486289 0.0200443 -0.141252 234 54 24
-0.483861 0.021689 -0.138742 238 55 6
-0.482823 0.0237415 -0.137955 217 51 15
-0.481789 0.0257869 -0.137171 149 42 31
-0.480759 0.0278252 -0.13639 77 1 12
-0.479733 0.0298566 -0.135613 31 0 3
-0.479382 0.0321108 -0.135676 33 3 2
-0.47903 0.0343665 -0.13574 29 5 5
-0.478678 0.0366236 -0.135803 31 5 10
-0.478326 0.0388822 -0.135867 36 4 15
-0.478644 0.0413917 -0.136772 41 2 7
-0.478963 0.0439132 -0.13768 34 6 2
-0.479284 0.0464466 -0.138593 32 4 6
-0.478928 0.0487252 -0.138657 30 4 4
-0.478573 0.0510054 -0.138721 29 1 1
-0.477545 0.0530118 -0.137936 34 3 0
-0.476521 0.0550113 -0.137155 90 11 3
-0.475502 0.0570041 -0.136376 148 34 1
-0.473827 0.0587054 -0.134765 173 41 3
-0.470223 0.0595402 -0.130701 171 38 5
-0.469232 0.0614956 -0.129949 129 30 3
-0.467609 0.0631554 -0.12839 82 19 12
-0.466629 0.0650946 -0.127647 66 22 10
-3.34872 1.49667 -3.82201 65 26 8
-3.34513 1.51966 -3.82265 66 24 9
-3.34155 1.54267 -3.8233 67 21 5
-3.33796 1.5657 -3.82395 65 18 6
-3.33437 1.58874 -3.8246 62 19 14
-3.33077 1.6118 -3.82524 60 23 16
-3.32718 1.63487 -3.82589 60 25 12
-3.25891 1.6225 -3.74295 60 23 7
-3.19337 1.61065 -3.66332 60 23 7
-3.1304 1.59927 -3.58681 60 22 10
-3.12701 1.62104 -3.58742 64 18 8
-1.65518 1.32872 -1.7936 41 15 6
-1.65332 1.34063 -1.79393 45 16 7
-1.62092 1.32333 -1.75215 44 14 4
-1.58982 1.30673 -1.71203 44 9 4
-1.58803 1.31818 -1.71235 44 6 6
-1.57207 1.31569 -1.69305 40 8 7
-1.55643 1.31326 -1.67412 38 12 6
-1.52776 1.29752 -1.63705 42 14 5
-1.50016 1.28238 -1.60138 50 14 6
-1.47359 1.26781 -1.56703 40 9 6
-3.092 3.14355 -3.86831 38 12 4
-2.9157 2.97665 -3.62554 38 12 0
-2.85914 2.94014 -3.55126 38 12 3
-2.75564 2.84975 -3.41035 39 9 5
-2.65953 2.76584 -3.2795 37 8 7
-2.6563 2.78654 -3.28008 32 9 8
-4.07232 -2.77627 -3.80387 115 60 27
-3.98753 -2.69976 -3.71958 116 61 21
-3.98436 -2.67942 -3.72016 117 61 19
-3.9031 -2.60642 -3.6393 118 59 23
-3.89998 -2.58648 -3.63987 119 59 22
-3.89687 -2.56653 -3.64043 121 59 20
-3.54756 -2.31809 -3.2789 120 60 24
-5.64739 -2.36731 -5.76079 111 59 20
-5.64247 -2.33579 -5.76169 113 59 17
-5.63754 -2.30425 -5.76258 111 59 22
-5.63262 -2.27269 -5.76348 111 58 24
-5.62769 -2.24111 -5.76437 110 57 26
-5.79913 -2.27824 -5.95994 109 56 25
-5.79404 -2.2456 -5.96087 109 57 21
-5.78894 -2.21294 -5.9618 112 55 14
-5.78384 -2.18026 -5.96272 111 55 15
-5.77873 -2.14756 -5.96365 109 56 21
-5.59804 -2.05122 -5.76976 107 53 23
-5.4283 -1.96071 -5.58762 104 53 30
-5.26853 -1.87549 -5.41619 104 53 30
-5.26387 -1.84561 -5.41704 102 53 28
-5.2592 -1.8157 -5.41788 101 53 26
-6.12281 -2.00979 -6.40148 99 54 26
-5.91857 -1.91145 -6.18008 97 54 26
-6.11183 -1.93946 -6.40348 94 52 24
-6.10633 -1.90426 -6.40448 92 51 22
-6.10083 -1.86904 -6.40548 91 53 17
-6.09533 -1.8338 -6.40647 95 53 15
-5.892 -1.74122 -6.1849 97 51 15
-5.70178 -1.65459 -5.97763 93 52 16
-5.52344 -1.57336 -5.78331 90 53 21
-5.35591 -1.49703 -5.60076 90 53 26
-5.35106 -1.46597 -5.60164 91 52 23
-5.04956 -1.35741 -5.26697 92 56 23
-4.90915 -1.29338 -5.11398 92 53 21
-4.90469 -1.26485 -5.11479 93 54 17
-5.03582 -1.26936 -5.26947 96 53 12
-4.89578 -1.20773 -5.11641 95 54 12
-5.02664 -1.21057 -5.27113 92 50 20
-0.491063 0.0168251 -0.149821 160 38 9
-0.489273 0.0187231 -0.148102 201 47 8
-0.484703 0.0197687 -0.1429 228 53 10
-0.482283 0.0214153 -0.14038 237 56 12
-0.48057 0.0232551 -0.138739 220 54 12
-0.480217 0.0255144 -0.138804 149 42 18
-0.478518 0.0273326 -0.137176 65 1 7
-0.477499 0.0293609 -0.136399 32 3 0
-0.477148 0.0316105 -0.136463 34 2 0
-0.476796 0.0338616 -0.136527 32 7 0
-0.47711 0.0363527 -0.137432 30 1 4
-0.478769 0.039347 -0.140041 33 5 10
-0.478414 0.0416213 -0.140105 39 9 2
-0.478059 0.0438971 -0.14017 33 4 0
-0.478377 0.0464359 -0.14109 29 6 1
-0.477348 0.0484531 -0.140299 28 4 0
-0.476992 0.0507333 -0.140363 27 3 5
-0.476636 0.053015 -0.140428 28 1 1
-0.475611 0.0550188 -0.13964 49 1 2
-0.473929 0.056734 -0.13801 119 18 4
-0.47226 0.0584364 -0.136393 153 35 5
-0.469958 0.0598411 -0.13396 155 37 4
-0.467683 0.0612301 -0.131557 111 29 12
-0.466699 0.0631797 -0.130805 66 15 31
-0.469547 0.0668996 -0.134981 61 18 13
-3.20572 1.43104 -3.67417 68 22 10
-3.26447 1.48438 -3.75529 70 17 10
-3.26095 1.50692 -3.75593 68 18 11
-3.32206 1.56299 -3.84045 65 16 13
-3.31847 1.58603 -3.8411 61 16 16
-3.31487 1.60909 -3.84176 57 21 14
-3.31126 1.63216 -3.84241 54 22 12
-3.24332 1.61986 -3.75913 57 22 9
-3.11881 1.57497 -3.60176 61 22 7
-3.0037 1.53349 -3.45626 59 22 12
-2.89695 1.49504 -3.32134 58 19 14
-1.68074 1.34516 -1.84572 40 12 4
-1.6628 1.3422 -1.82379 37 13 7
-1.64523 1.3393 -1.80233 40 12 5
-1.59827 1.30787 -1.73987 39 14 2
-1.56792 1.29174 -1.70039 41 11 1
-1.56615 1.30308 -1.70072 42 14 2
-1.56437 1.31443 -1.70104 40 13 7
-1.53527 1.29851 -1.66309 38 11 10
-1.49451 1.27035 -1.60869 38 10 8
-1.46804 1.25599 -1.57421 45 10 5
-1.46638 1.26663 -1.57451 39 9 4
-1.46472 1.27728 -1.57481 38 14 4
-2.90038 2.97417 -3.64143 35 12 1
-2.79337 2.88078 -3.49446 33 8 8
-2.69414 2.7942 -3.35818 34 6 15
-2.51892 2.61903 -3.11278 34 8 12
-2.59869 2.73404 -3.23204 32 11 1
-4.05712 -2.77918 -3.8197 117 60 27
-3.97265 -2.70261 -3.73508 119 60 20
-3.96947 -2.68228 -3.73566 119 60 19
-3.96629 -2.66193 -3.73624 118 60 26
-3.88539 -2.58928 -3.65506 118 59 24
-3.88227 -2.56932 -3.65563 119 59 21
-5.61974 -2.34002 -5.78533 118 57 11
-5.61481 -2.30848 -5.78623 112 59 17
-5.60988 -2.27692 -5.78713 109 59 23
-5.60494 -2.24534 -5.78803 108 57 27
-5.6 -2.21374 -5.78894 108 56 26
-5.59506 -2.18212 -5.78984 108 56 23
-5.59011 -2.15048 -5.79075 109 55 18
-5.58516 -2.11882 -5.79165 109 56 21
-5.58021 -2.08714 -5.79256 108 55 24
-5.411 -1.99556 -5.60973 109 52 24
-5.25174 -1.90934 -5.43766 107 54 29
-5.24707 -1.87947 -5.43852 107 54 26
-5.2424 -1.84958 -5.43937 107 53 22
-5.5554 -1.92845 -5.79709 107 53 23
-6.30414 -2.04715 -6.66794 101 54 18
-6.52599 -2.08225 -6.92596 100 53 15
-6.52008 -2.04445 -6.92705 98 53 12
-6.07559 -1.87369 -6.43173 99 53 9
-5.87291 -1.7798 -6.20932 95 53 16
-5.6833 -1.69195 -6.00126 97 51 15
-5.50554 -1.60957 -5.80621 98 53 14
-5.33855 -1.53216 -5.62298 96 54 13
-5.33369 -1.50111 -5.62387 95 52 12
-5.03318 -1.39056 -5.28793 97 46 13
-4.89322 -1.32563 -5.13437 92 46 24
-4.88876 -1.29712 -5.13518 95 47 17
-4.8843 -1.26858 -5.136 99 46 10
-5.01483 -1.2732 -5.29129 100 45 7
-5.01024 -1.24382 -5.29213 97 50 8
-5.00564 -1.21441 -5.29297 91 52 13
-4.86643 -1.15427 -5.13927 86 46 18
-0.48945 0.0165446 -0.151497 93 10 1
-0.487666 0.0184439 -0.149771 139 39 5
-0.483115 0.0194931 -0.144549 194 54 22
-0.480706 0.0211415 -0.142019 211 54 18
-0.478998 0.0229825 -0.140372 193 48 7
-0.477973 0.0250254 -0.139586 132 29 4
-0.476952 0.0270613 -0.138803 54 1 7
-0.475935 0.0290902 -0.138023 31 6 4
-0.475584 0.0313399 -0.138087 31 1 4
-0.475895 0.0338244 -0.138996 32 2 7
-0.497532 0.0439809 -0.167093 30 6 6
-0.497155 0.0463946 -0.167162 26 9 11
-0.481599 0.0431313 -0.147834 33 11 1
-0.479181 0.0446559 -0.145268 31 11 0
-0.478143 0.0466882 -0.144464 28 10 4
-0.476437 0.0484466 -0.1428 29 7 6
-0.47541 0.0504612 -0.142006 26 5 7
-0.475053 0.052743 -0.142071 25 1 4
-0.474696 0.0550262 -0.142136 27 4 3
-0.473014 0.056745 -0.140493 71 6 5
-0.470692 0.0581675 -0.13802 113 25 13
-0.469689 0.0601446 -0.137246 108 29 23
-0.46869 0.062115 -0.136475 78 15 10
-0.468982 0.064668 -0.137375 58 12 9
-3.19048 1.42843 -3.69 67 21 6
-3.24891 1.48173 -3.77145 68 19 11
-3.24538 1.50427 -3.77209 68 18 14
-3.30617 1.56028 -3.85696 67 17 12
-3.30256 1.58333 -3.85761 60 19 16
-3.29896 1.60638 -3.85827 57 19 19
-3.29535 1.62946 -3.85893 58 21 14
-3.22773 1.61721 -3.77532 58 23 11
-3.10382 1.57243 -3.61732 61 21 7
-2.98927 1.53104 -3.47124 63 20 6
-2.88305 1.49268 -3.33578 62 18 8
-1.67058 1.35596 -1.85464 43 15 9
-1.66868 1.36812 -1.85498 39 12 1
-1.56199 1.27914 -1.70805 38 11 4
-1.56022 1.29048 -1.70838 40 9 7
-1.55845 1.30182 -1.7087 38 13 11
-1.52945 1.28613 -1.67061 36 12 13
-1.48886 1.25832 -1.616 37 8 12
-1.4625 1.24418 -1.58138 41 9 6
-1.46083 1.25481 -1.58169 46 8 2
-1.45917 1.26545 -1.58199 40 9 8
-1.4575 1.2761 -1.5823 38 12 8
-2.73003 2.82362 -3.43977 28 10 11
-2.43156 2.5095 -3.01464 28 10 17
-2.42859 2.52849 -3.01518 28 11 15
-2.46346 2.59128 -3.07048 28 13 3
-2.92155 3.14855 -3.73917 35 14 2
-4.04192 -2.7821 -3.83552 117 60 28
-3.95776 -2.70547 -3.75058 119 61 25
-3.95458 -2.68513 -3.75117 120 61 25
-3.95139 -2.66478 -3.75175 119 60 28
-3.87079 -2.59207 -3.67026 121 59 22
-3.86766 -2.57212 -3.67083 123 58 17
-5.58713 -2.28115 -5.81079 106 59 29
-5.41773 -2.1838 -5.62742 107 57 31
-5.57724 -2.21797 -5.81261 107 56 34
-5.57229 -2.18635 -5.81352 105 57 31
-5.56734 -2.15471 -5.81444 107 56 23
-5.56238 -2.12305 -5.81535 109 57 21
-5.39371 -2.03039 -5.63184 110 58 22
-5.23495 -1.94316 -5.45913 110 54 23
-5.23028 -1.91331 -5.45999 110 56 24
-5.2256 -1.88344 -5.46085 108 57 24
-5.53755 -1.96445 -5.81992 108 54 20
-5.70604 -1.99246 -6.0173 109 51 17
-6.74289 -2.16448 -7.23199 100 52 17
-6.73674 -2.12522 -7.23312 101 53 13
-6.48705 -2.01161 -6.95633 102 52 13
-5.8485 -1.78429 -6.23471 96 54 21
-5.48765 -1.64575 -5.82911 96 52 23
-5.32119 -1.56727 -5.64519 98 49 20
-5.31633 -1.53624 -5.64608 99 50 19
-5.15981 -1.46324 -5.47296 98 53 17
-5.01222 -1.3944 -5.30973 97 51 15
-4.87284 -1.32937 -5.15557 95 47 18
-4.86837 -1.30085 -5.15639 90 52 25
-4.99845 -1.30641 -5.31226 95 49 28
-4.99385 -1.27704 -5.31311 98 45 17
-4.98925 -1.24765 -5.31396 97 47 11
-4.98464 -1.21825 -5.31481 93 52 11
-4.846 -1.158 -5.16051 91 49 14
-6.52541 -0.775487 -7.27203 85 42 14
-0.48855 0.0164682 -0.154078 42 6 2
-0.486765 0.0183719 -0.152338 79 3 4
-0.481528 0.0192174 -0.146198 134 26 3
-0.479806 0.0210767 -0.144523 159 47 15
-0.478098 0.022922 -0.142862 149 33 6
-0.477072 0.0249693 -0.14207 94 7 4
-0.476051 0.0270096 -0.141281 41 0 11
-0.475697 0.0292673 -0.141346 32 1 7
-0.498894 0.0396566 -0.171624 36 1 4
-0.500052 0.0426255 -0.173669 30 3 17
-0.4989 0.0447876 -0.17275 34 12 5
-0.498519 0.0472229 -0.17282 37 7 6
-0.4951 0.0485204 -0.168974 38 7 1
-0.485933 0.0475745 -0.157697 38 8 5
-0.477907 0.0469426 -0.147866 37 7 11
-0.476194 0.0487074 -0.146182 38 6 8
-0.474494 0.0504589 -0.144511 33 7 5
-0.473471 0.0524709 -0.143714 27 5 1
-0.473114 0.0547543 -0.14378 30 3 0
-0.471437 0.0564742 -0.14213 35 1 6
-0.469774 0.0581815 -0.140494 55 4 8
-0.469419 0.0604505 -0.140559 56 7 23
-0.469063 0.0627209 -0.140625 49 10 18
-3.17523 1.42583 -3.70583 62 20 11
-3.23334 1.47907 -3.78761 62 19 15
-3.22981 1.50162 -3.78826 64 17 15
-3.29027 1.55758 -3.87346 68 20 9
-3.28666 1.58062 -3.87413 65 23 12
-3.28305 1.60368 -3.87479 61 21 18
-3.27944 1.62675 -3.87546 61 22 18
-3.27582 1.64984 -3.87612 60 22 17
-3.20859 1.63719 -3.79217 60 19 16
-2.97484 1.5286 -3.48622 61 20 12
-2.97156 1.54955 -3.48682 62 19 7
-3.30517 1.92328 -3.97115 56 15 11
-5.74151 4.23095 -7.41634 51 11 4
-1.5543 1.27788 -1.71604 45 9 9
-1.53882 1.2758 -1.69689 46 7 11
-1.52364 1.27377 -1.67812 40 13 15
-1.48321 1.24629 -1.62331 35 17 13
-1.46912 1.24463 -1.60592 34 17 7
-1.45529 1.243 -1.58886 37 14 5
-1.45362 1.25363 -1.58917 44 9 0
-1.45196 1.26428 -1.58948 41 7 5
-2.38515 2.44703 -2.97421 31 12 6
-2.38223 2.46571 -2.97475 31 12 8
-2.41576 2.52642 -3.02848 31 11 6
-2.41279 2.54542 -3.02903 29 12 6
-2.90589 3.14602 -3.75541 29 12 6
-3.01673 3.30459 -3.92382 30 11 4
-4.02672 -2.78502 -3.85134 117 60 28
-3.94287 -2.70832 -3.76608 119 62 27
-3.93968 -2.68799 -3.76667 121 61 25
-3.93649 -2.66764 -3.76726 121 60 22
-3.9333 -2.64728 -3.76785 124 59 18
-3.93011 -2.62691 -3.76845 125 59 15
-5.40047 -2.21852 -5.64948 111 57 25
-5.39566 -2.1879 -5.65037 112 57 32
-5.39086 -2.15725 -5.65126 111 57 38
-5.54952 -2.19057 -5.83721 108 59 32
-5.54456 -2.15893 -5.83813 109 57 21
-5.5396 -2.12727 -5.83905 111 58 17
-5.37161 -2.03449 -5.65483 111 57 20
-5.06896 -1.89377 -5.31713 107 55 28
-5.06442 -1.86476 -5.31797 105 56 30
-5.51971 -2.00043 -5.84273 106 58 27
-5.68762 -2.02962 -6.04086 108 54 20
-6.45993 -2.0166 -6.98453 101 55 17
-5.64121 -1.73363 -6.04946 95 55 29
-5.46475 -1.64996 -5.85292 95 54 32
-5.29898 -1.57135 -5.66829 96 54 36
-5.14296 -1.49734 -5.49452 98 52 30
-5.13824 -1.4672 -5.49539 101 51 20
-4.99126 -1.39825 -5.33153 100 52 17
-4.98667 -1.36893 -5.33238 97 52 22
-4.98207 -1.3396 -5.33323 93 54 22
-4.97746 -1.31025 -5.33408 97 51 23
-5.11456 -1.31623 -5.49978 98 50 19
-5.10982 -1.28598 -5.50066 96 51 21
-5.10507 -1.2557 -5.50154 94 50 18
-4.95903 -1.19266 -5.3375 93 47 14
-5.24529 -1.22892 -5.67824 91 44 24
-6.50322 -0.820741 -7.30046 86 42 15
-6.49693 -0.780625 -7.30162 85 40 18
-6.49064 -0.740483 -7.30279 86 36 20
-0.512592 -0.0222985 -0.178546 82 31 17
-0.511406 -0.0200081 -0.177605 80 32 17
-0.487645 0.0163915 -0.156671 42 6 6
-0.486569 0.0185083 -0.155826 44 5 14
-0.48409 0.0201932 -0.153177 72 2 2
-0.479583 0.0212219 -0.147913 87 4 3
-0.477868 0.0230744 -0.146232 75 3 4
-0.476838 0.0251301 -0.145429 44 7 8
-0.476482 0.0274005 -0.145495 41 0 13
-0.499127 0.0426048 -0.176427 28 4 12
-0.497209 0.0444953 -0.174506 34 8 12
-0.496827 0.0469308 -0.174577 38 5 7
-0.494173 0.0485133 -0.171692 40 5 1
-0.491554 0.0500765 -0.168846 41 8 1
-0.483929 0.0496487 -0.159463 40 7 12
-0.475948 0.0489703 -0.149592 44 7 7
-0.473574 0.0504566 -0.147028 45 3 7
-0.47255 0.0524728 -0.146224 40 5 1
-0.471531 0.0544822 -0.145424 35 1 1
-0.470515 0.0564847 -0.144627 23 3 10
-0.469503 0.0584804 -0.143834 25 1 3
-0.468495 0.0604693 -0.143044 37 6 5
-0.468788 0.0630388 -0.143966 44 12 10
-3.22131 1.45389 -3.80312 65 21 9
-3.21778 1.47642 -3.80377 65 21 14
-3.21424 1.49896 -3.80443 65 19 16
-3.27437 1.55487 -3.88997 67 19 10
-3.27075 1.57791 -3.89064 69 20 6
-3.26714 1.60097 -3.89131 66 21 9
-3.26352 1.62405 -3.89198 61 20 14
-3.2599 1.64714 -3.89266 61 17 17
-3.25627 1.67024 -3.89333 62 17 22
-3.07043 1.5891 -3.64908 60 20 18
-3.24902 1.7165 -3.89467 59 16 9
-3.29629 1.87307 -3.98671 52 22 9
-3.2272 1.85563 -3.89871 56 18 10
-3.22356 1.87887 -3.89939 57 17 7
-3.28513 1.94428 -3.98878 57 19 7
-5.51913 3.98307 -7.15889 54 15 2
-5.51258 4.0248 -7.1601 56 17 5
-5.31492 3.9185 -6.89592 53 14 7
-5.30861 3.95879 -6.8971 49 14 5
-5.30228 3.99911 -6.89827 48 13 7
-5.48637 4.192 -7.16496 46 10 10
-1.60399 1.33252 -1.80623 42 13 12
-1.5312 1.27455 -1.7048 44 9 12
-1.51609 1.27253 -1.68595 41 12 9
-1.47587 1.24509 -1.63092 36 16 8
-1.47418 1.25591 -1.63123 34 16 9
-1.46016 1.25416 -1.61378 35 14 9
-2.37254 2.44499 -2.98729 32 8 6
-2.36961 2.46366 -2.98783 32 11 7
-2.40294 2.52434 -3.04179 33 13 6
-2.69098 2.88329 -3.47167 33 9 4
-2.94605 3.20926 -3.85413 34 7 8
-3.00041 3.30195 -3.94075 32 9 8
-4.01152 -2.78794 -3.86717 118 58 24
-3.92798 -2.71118 -3.78158 120 59 22
-3.92479 -2.69084 -3.78218 121 60 19
-3.92159 -2.6705 -3.78277 122 61 18
-3.91839 -2.65013 -3.78337 123 61 18
-2.40384 -1.06325 -2.27502 114 58 17
-2.40178 -1.05017 -2.27541 115 56 13
-2.39973 -1.03708 -2.27579 115 55 14
-5.37841 -2.22262 -5.67243 113 58 28
-5.3736 -2.192 -5.67333 115 58 30
-5.36878 -2.16135 -5.67422 113 59 31
-6.08246 -2.41367 -6.49509 108 62 33
-6.07698 -2.37875 -6.49612 110 58 24
-5.87427 -2.26832 -6.27158 111 56 21
-5.51184 -2.09982 -5.86368 109 54 23
-5.19204 -1.95111 -5.50377 107 54 27
-5.18735 -1.92126 -5.50464 104 57 34
-6.44469 -2.09724 -7.01053 99 57 28
-6.43875 -2.05943 -7.01163 100 54 23
-5.99985 -1.88763 -6.51051 101 53 25
-5.61758 -1.73798 -6.07404 100 55 35
-5.28164 -1.60644 -5.69048 96 53 40
-5.12613 -1.53142 -5.51606 94 57 41
-5.1214 -1.5013 -5.51695 95 56 34
-4.9749 -1.43139 -5.35247 98 53 25
-4.9703 -1.40209 -5.35333 98 52 21
-5.10719 -1.41083 -5.5196 96 52 25
-5.10245 -1.38063 -5.52048 96 51 25
-5.0977 -1.35042 -5.52137 95 53 22
-5.24259 -1.35779 -5.69777 98 54 13
-5.2377 -1.32662 -5.69868 94 55 17
-5.2328 -1.29543 -5.69959 90 51 24
-5.2279 -1.26422 -5.70051 90 43 25
-5.38137 -1.26905 -5.88802 93 42 25
-6.26492 -0.952504 -7.04406 84 40 18
-6.49363 -0.946082 -7.32653 84 39 15
-6.46846 -0.785764 -7.33123 86 36 16
-6.46215 -0.745621 -7.33241 87 33 14
-6.45584 -0.705452 -7.33358 88 36 11
-0.511701 -0.0224692 -0.181331 80 32 23
-0.511319 -0.0200395 -0.181402 83 31 13
-0.487451 0.01652 -0.1602 50 8 4
-0.485659 0.018436 -0.158423 38 3 16
-0.484586 0.0205499 -0.157574 41 0 3
-0.482119 0.0222234 -0.154915 34 4 0
-0.477636 0.0232281 -0.14963 33 2 1
-0.475929 0.0250738 -0.147942 33 7 3
-0.497428 0.0423111 -0.178191 29 1 8
-0.495517 0.0442031 -0.176263 31 3 11
-0.495134 0.0466386 -0.176335 37 4 11
-0.492491 0.0482232 -0.173439 42 5 8
-0.492111 0.0506457 -0.17351 37 9 9
-0.485859 0.0507662 -0.165855 36 13 13
-0.47435 0.0486951 -0.151252 43 8 8
-0.471985 0.0501832 -0.148678 45 7 11
-0.471626 0.0524748 -0.148745 38 7 9
-0.470605 0.0544885 -0.147938 38 5 5
-0.470245 0.0567782 -0.148005 28 5 7
-0.468576 0.0584951 -0.146335 19 8 3
-0.468217 0.0607783 -0.146402 27 8 1
-0.468511 0.0633593 -0.147336 43 12 3
-3.20575 1.45123 -3.81928 67 18 10
-3.20221 1.47376 -3.81994 65 20 14
-3.13779 1.4648 -3.73879 63 18 16
-3.0759 1.4562 -3.66083 64 19 14
-3.25484 1.5752 -3.90716 68 18 7
-3.25122 1.59826 -3.90784 68 16 5
-3.2476 1.62134 -3.90851 66 17 10
-3.24397 1.64443 -3.90919 63 18 16
-3.24034 1.66754 -3.90987 60 19 23
-3.23671 1.69066 -3.91054 62 19 19
-3.23308 1.71379 -3.91122 60 16 9
-3.22216 1.78329 -3.91326 61 19 15
-3.156 1.76801 -3.82856 56 22 12
-3.15243 1.79075 -3.82923 52 20 16
-3.21123 1.85293 -3.9153 53 20 9
-3.20758 1.87617 -3.91598 58 18 7
-3.2688 1.94153 -4.00573 61 18 4
-5.71619 4.00451 -7.47157 53 13 9
-5.70939 4.04777 -7.47284 46 14 15
-5.30633 3.79318 -6.92098 51 19 8
-4.95701 3.57256 -6.4427 49 18 6
-4.7964 3.49111 -6.22724 49 16 9
-4.79069 3.52748 -6.2283 51 18 14
-4.78497 3.56388 -6.22937 47 15 16
-4.63474 3.48532 -6.02731 47 12 13
-4.49361 3.41154 -5.83749 52 11 7
-4.36078 3.34212 -5.65885 52 13 3
-4.01496 3.0953 -5.17905 45 16 8
-3.47222 2.67869 -4.41953 44 17 5
-2.94837 2.26831 -3.68462 41 12 12
-2.94488 2.29053 -3.68527 48 10 15
-2.40497 1.89322 -2.93353 32 17 19
-2.01774 1.57081 -2.38605 41 16 10
-1.94474 1.52255 -2.28563 46 13 7
-1.92013 1.51675 -2.2541 46 12 9
-1.92157 1.83674 -2.32699 36 13 6
-1.87514 1.80326 -2.2625 31 10 12
-1.87287 1.81768 -2.26292 31 9 12
-2.35992 2.44294 -3.00037 28 9 10
-2.39309 2.50327 -3.05454 28 12 13
-2.67986 2.85948 -3.48608 28 16 13
-2.87821 3.11775 -3.78722 29 14 6
-2.98788 3.27513 -3.95697 27 11 11
-2.98409 3.29931 -3.95767 25 11 11
-3.30882 3.71917 -4.45002 28 11 7
-3.99631 -2.79085 -3.883 117 58 21
-3.91309 -2.71404 -3.79709 118 61 23
-3.90989 -2.6937 -3.79769 119 64 24
-3.90669 -2.67335 -3.79829 120 65 24
-3.90349 -2.65299 -3.79889 122 64 25
-2.31437 -1.05321 -2.18831 116 56 32
-2.07268 -0.93379 -1.91553 113 58 35
-2.25784 -1.0049 -2.12908 119 60 18
-2.30844 -1.01545 -2.18942 119 58 11
-2.30645 -1.00285 -2.18979 118 56 11
-2.33168 -1.00177 -2.2213 115 57 18
-2.32967 -0.988991 -2.22168 111 61 28
-5.20336 -2.16356 -5.51994 112 61 33
-5.35153 -2.1961 -5.69628 112 60 34
-5.50895 -2.23065 -5.88365 111 58 35
-6.05733 -2.41833 -6.52124 105 57 43
-6.05184 -2.38342 -6.52227 111 56 31
-5.84996 -2.27283 -6.29687 109 56 28
-5.48904 -2.10404 -5.88739 108 56 25
-5.48405 -2.07234 -5.88833 109 57 20
-6.41758 -2.10223 -7.03872 100 58 30
-6.41163 -2.06442 -7.03984 99 55 30
-5.97459 -1.89228 -6.53677 100 53 31
-5.59395 -1.74232 -6.09862 102 55 28
-5.41895 -1.65838 -5.90056 97 54 39
-5.25455 -1.57951 -5.71449 99 56 31
-5.09983 -1.50526 -5.53938 100 54 23
-5.09509 -1.47512 -5.54027 99 54 22
-5.09034 -1.44496 -5.54116 95 56 25
-5.0856 -1.41479 -5.54205 91 54 27
-5.08085 -1.38459 -5.54294 93 54 27
-5.22522 -1.39302 -5.72 98 50 21
-5.37862 -1.40195 -5.90813 99 47 11
-5.37356 -1.36981 -5.90908 94 51 13
-5.3685 -1.33764 -5.91003 90 49 21
-5.36344 -1.30546 -5.91098 90 43 23
-5.85744 -1.14739 -6.55877 89 42 13
-5.85183 -1.11167 -6.55983 89 45 13
-5.65649 -1.0427 -6.3332 90 46 13
-5.82932 -0.96857 -6.56405 86 36 13
-5.82368 -0.932738 -6.56511 86 34 14
-6.0203 -0.92609 -6.81031 84 40 16
-6.23148 -0.918926 -7.07367 82 41 19
-6.22541 -0.880366 -7.07481 83 39 16
-6.45259 -0.871117 -7.35847 87 38 12
-0.512431 -0.022383 -0.186201 80 27 29
-0.512046 -0.0199365 -0.186273 80 38 21
-0.511661 -0.0174885 -0.186346 84 32 2
-0.489799 0.014915 -0.166522 66 19 10
-0.487256 0.0166496 -0.163759 54 14 8
-0.485456 0.0185733 -0.16196 43 8 16
-0.484378 0.0206962 -0.161101 31 4 16
-0.484011 0.0230306 -0.16117 26 6 1
-0.484352 0.0255916 -0.162167 30 4 0
-0.496495 0.0422896 -0.180967 34 4 1
-0.494583 0.044186 -0.179022 31 6 2
-0.494199 0.0466271 -0.179094 31 8 13
-0.490809 0.047933 -0.175186 37 8 15
-0.490428 0.0503556 -0.175257 39 9 11
-0.485647 0.0510484 -0.169486 41 13 9
-0.472751 0.0484199 -0.152912 45 14 17
-0.471722 0.0504518 -0.152093 43 14 17
-0.470697 0.0524767 -0.151276 38 16 7
-0.469675 0.0544946 -0.150463 39 10 9
-0.469314 0.0567893 -0.150531 34 9 7
-0.468298 0.0587971 -0.149721 25 11 8
-0.467937 0.0610899 -0.149789 28 12 4
-3.19018 1.44857 -3.83544 69 19 14
-3.126 1.4401 -3.75399 65 20 13
-3.06434 1.43198 -3.67573 64 19 10
-3.00504 1.42418 -3.60049 65 21 8
-3.17599 1.53879 -3.8381 65 21 6
-3.2353 1.59556 -3.92436 67 17 3
-3.23167 1.61863 -3.92505 70 17 5
-3.22804 1.64173 -3.92573 67 19 10
-3.22441 1.66483 -3.92641 58 20 16
-3.22077 1.68795 -3.92709 56 18 17
-3.21713 1.71109 -3.92778 59 19 7
-3.15107 1.69724 -3.84278 61 17 5
-3.20985 1.75741 -3.92914 58 20 13
-3.14393 1.74264 -3.84413 60 21 12
-2.91504 1.62616 -3.53427 56 20 10
-3.01984 1.71488 -3.68409 56 21 14
-3.1332 1.81086 -3.84614 57 18 9
-3.19159 1.87348 -3.93257 57 19 9
-3.25247 1.93878 -4.02268 59 18 6
-3.31599 2.00693 -4.11671 54 19 11
-5.69336 3.95633 -7.50104 62 10 7
-5.11432 3.57763 -6.69832 55 9 15
-4.94311 3.49322 -6.46716 49 9 22
-4.93722 3.53073 -6.46827 47 17 12
-4.63279 3.34031 -6.04818 46 21 12
-4.62725 3.37552 -6.04922 50 16 10
-4.48635 3.305 -5.85875 55 14 9
-4.48097 3.33919 -5.85976 51 12 12
-4.47559 3.37341 -5.86077 45 13 12
-4.22362 3.2084 -5.51141 45 15 8
-3.99888 3.06125 -5.19982 48 14 5
-3.89304 3.00838 -5.05677 47 14 5
-3.45424 2.6757 -4.43819 47 17 2
-2.9332 2.26579 -3.70036 50 19 4
-2.92971 2.28801 -3.70102 48 12 4
-2.63449 2.05875 -3.28364 46 16 4
-2.39551 1.87316 -2.94576 35 18 14
-2.14053 1.66918 -2.58393 28 17 22
-1.96004 1.52686 -2.32827 33 13 21
-1.89098 1.48142 -2.23246 42 7 19
-1.88877 1.49547 -2.23288 43 9 14
-4.96064 4.55483 -6.72718 40 10 8
-1.86765 1.78725 -2.27219 35 11 5
-1.86538 1.80167 -2.27262 34 12 8
-1.86311 1.81609 -2.27305 33 12 8
-1.86084 1.83053 -2.27347 33 11 9
-2.18913 2.2183 -2.76743 35 10 12
-2.42039 2.52489 -3.12289 38 8 4
-2.92525 3.13309 -3.88519 38 8 8
-2.8662 3.09203 -3.80278 35 10 10
-2.97537 3.24831 -3.97318 29 12 5
-2.97157 3.27249 -3.97389 28 12 15
-3.09006 3.44345 -4.15914 27 13 17
-3.29059 3.71623 -4.46892 28 13 12
-3.60751 4.1353 -4.95581 31 9 5
-3.98111 -2.79377 -3.89883 121 59 24
-3.89819 -2.71689 -3.8126 121 63 21
-3.89499 -2.69656 -3.8132 122 63 17
-3.89178 -2.67621 -3.81381 123 61 14
-3.88858 -2.65584 -3.81441 121 61 19
-3.66897 -1.69277 -3.75817 118 61 30
-2.02481 -0.927622 -1.87592 118 61 25
-2.04361 -0.925888 -1.89982 116 61 25
-2.08428 -0.933603 -1.94891 118 61 19
-2.22184 -0.983236 -2.10965 117 59 24
-2.27091 -0.993114 -2.16877 117 59 28
-2.26895 -0.980659 -2.16914 119 59 27
-2.26699 -0.968197 -2.16951 114 60 29
-2.26502 -0.955727 -2.16989 109 64 40
-5.17726 -2.13782 -5.5431 112 62 36
-5.48618 -2.23488 -5.90734 116 58 30
-5.82565 -2.27734 -6.32216 111 55 31
-5.82033 -2.24354 -6.32316 109 57 26
-5.46124 -2.07656 -5.91206 107 60 23
-6.16777 -2.03479 -6.8049 103 57 32
-6.16202 -1.99833 -6.80598 100 55 33
-5.75619 -1.83633 -6.33529 101 53 30
-5.75082 -1.80226 -6.3363 103 57 24
-5.21766 -1.49043 -5.74038 95 56 22
-5.21276 -1.45934 -5.7413 94 52 24
-5.36577 -1.47039 -5.9301 92 56 25
-5.36071 -1.43828 -5.93106 97 51 16
-5.52342 -1.44896 -6.13207 98 48 9
-5.51819 -1.41578 -6.13306 96 48 11
-5.51296 -1.38258 -6.13404 94 48 17
-5.68615 -1.39169 -6.34852 93 47 22
-5.64821 -1.15075 -6.3557 90 39 19
-5.64277 -1.11625 -6.35672 88 43 20
-5.63733 -1.08172 -6.35775 85 45 25
-5.63189 -1.04717 -6.35878 85 41 24
-5.44994 -0.982483 -6.14595 84 41 19
-5.44467 -0.949004 -6.14695 83 41 19
-5.43939 -0.915504 -6.14795 81 39 20
-5.43411 -0.881983 -6.14895 86 39 10
-5.60463 -0.874085 -6.36393 90 39 7
-5.7869 -0.86562 -6.59375 87 45 15
-6.19801 -0.88532 -7.10329 84 41 17
-6.42413 -0.87626 -7.38806 84 36 20
-0.511916 -0.025006 -0.188957 83 32 18
-0.51153 -0.0225555 -0.18903 83 34 16
-0.511961 -0.0199681 -0.190155 82 33 16
-0.511574 -0.0175087 -0.190228 81 34 8
-0.510371 -0.0151943 -0.189249 81 31 14
-0.509984 -0.0127375 -0.189322 85 29 7
-0.51041 -0.0101212 -0.190448 82 23 10
-0.512482 -0.00716054 -0.19371 79 26 7
-0.488881 0.0148333 -0.169188 72 25 13
-0.487782 0.0169891 -0.168302 66 14 19
-0.485251 0.0187118 -0.165528 63 10 8
-0.484881 0.0210599 -0.165598 50 8 3
-0.48739 0.0243048 -0.16947 39 8 0
-0.494792 0.0419952 -0.182735 49 8 0
-0.492133 0.0436185 -0.179778 39 10 1
-0.491749 0.0460542 -0.179851 36 8 11
-0.489127 0.0476428 -0.176933 38 10 13
-0.488745 0.0500655 -0.177005 38 9 13
-0.487626 0.0521986 -0.176089 41 12 7
-0.473163 0.0489533 -0.157269 45 14 19
-0.470126 0.0501772 -0.15375 47 17 14
-0.469103 0.0522027 -0.152931 52 16 3
-0.468741 0.0545009 -0.152999 49 19 5
-0.469038 0.0570859 -0.153956 40 15 6
-3.11074 1.4375 -3.76984 68 20 12
-3.04937 1.42942 -3.69128 66 18 7
-2.93686 1.39336 -3.54243 62 19 9
-3.1604 1.53614 -3.85429 59 21 11
-3.21938 1.59285 -3.94089 60 22 7
-3.21575 1.61593 -3.94158 64 22 6
-3.21211 1.63902 -3.94227 64 19 7
-3.20847 1.66213 -3.94296 61 17 8
-3.20483 1.68525 -3.94364 54 18 12
-3.13902 1.67191 -3.85833 59 20 4
-3.13544 1.69459 -3.85901 61 15 3
-3.13187 1.71728 -3.85968 55 20 11
-3.12829 1.74 -3.86036 58 17 5
-2.95338 1.65646 -3.62273 57 23 6
-3.00481 1.71234 -3.6997 58 21 6
-3.11755 1.80822 -3.86239 57 18 13
-3.11396 1.83099 -3.86307 59 17 11
-3.17194 1.89404 -3.94986 56 17 10
-3.16828 1.91732 -3.95055 47 21 19
-3.29547 2.02842 -4.13476 48 20 8
-5.09387 3.53442 -6.72473 54 12 10
-4.76951 3.33755 -6.27456 56 10 5
-4.7638 3.37383 -6.27564 51 9 8
-4.61423 3.30109 -6.07214 45 13 12
-4.60869 3.33628 -6.07319 41 18 14
-4.46835 3.26693 -5.882 45 16 15
-4.46297 3.3011 -5.88302 53 13 6
-4.45758 3.33529 -5.88404 51 15 4
-4.3258 3.26808 -5.70403 46 18 7
-4.20155 3.20473 -5.53432 44 17 10
-4.0842 3.14491 -5.37403 44 14 11
-3.97318 3.08836 -5.22241 46 15 6
-3.51438 2.73823 -4.56939 47 15 0
-3.09073 2.40967 -3.96521 45 13 5
-2.91453 2.2855 -3.71676 45 14 7
-2.62091 2.05649 -3.29773 45 15 9
-2.38322 1.87112 -2.95851 41 12 9
-2.12962 1.66738 -2.59525 39 12 9
-1.92738 1.50491 -2.30556 42 12 7
-1.88141 1.47984 -2.24239 44 10 6
-1.85817 1.47471 -2.21217 38 10 10
-5.10452 4.71577 -7.00586 39 15 9
-1.85789 1.78566 -2.28232 31 13 5
-1.83462 1.77688 -2.25123 30 13 6
-1.85335 1.81451 -2.28317 31 12 6
-1.85107 1.82894 -2.2836 32 11 6
-3.38136 3.58278 -4.59453 31 6 14
-3.29785 3.55143 -4.48301 41 8 1
-3.79272 4.23412 -5.25652 26 13 8
-3.78778 4.26548 -5.25745 28 10 6
-3.42889 3.86994 -4.71906 29 11 5
-3.42443 3.89828 -4.7199 29 12 3
-3.5874 4.13206 -4.97667 30 8 2
-3.5827 4.16189 -4.97756 30 10 5
-3.76303 4.4226 -5.26213 32 12 4
-4.04874 -2.85577 -4.00563 117 59 27
-3.88329 -2.71975 -3.8281 115 60 25
-3.88009 -2.69941 -3.82872 116 59 22
-3.87688 -2.67906 -3.82933 117 58 19
-3.87366 -2.6587 -3.82994 116 57 21
-3.65415 -1.69554 -3.77359 118 61 29
-1.99689 -0.919956 -1.86097 118 62 27
-2.01518 -0.918158 -1.88446 117 63 29
-2.05476 -0.925615 -1.93267 117 61 29
-2.21307 -0.984869 -2.11877 115 59 33
-2.26193 -0.994787 -2.17812 115 59 29
-2.28628 -0.993623 -2.20909 116 60 24
-2.28429 -0.981004 -2.20947 114 59 27
-2.25603 -0.957399 -2.17924 111 59 30
-2.22846 -0.934362 -2.14974 113 58 25
-5.80133 -2.28185 -6.34745 111 57 28
-5.796 -2.24805 -6.34847 111 59 22
-5.27833 -2.02013 -5.74774 109 60 21
-4.59998 -1.73802 -4.95678 110 58 20
-4.37372 -1.62967 -4.69622 107 55 27
-4.47778 -1.64337 -4.82433 105 56 27
-6.14162 -2.03961 -6.83209 104 56 31
-6.13587 -2.00315 -6.83319 103 53 29
-5.92407 -1.90157 -6.58932 103 52 25
-6.12435 -1.93015 -6.83538 101 56 27
-6.11859 -1.89362 -6.83647 107 55 19
-5.51539 -1.55273 -6.15374 98 54 15
-5.51016 -1.51961 -6.15474 97 55 19
-5.68327 -1.53338 -6.36991 97 52 19
-5.67786 -1.49911 -6.37094 97 52 19
-5.67246 -1.46482 -6.37197 94 51 22
-5.66704 -1.43051 -6.373 92 51 26
-5.62906 -1.18971 -6.38022 86 48 23
-5.62362 -1.15523 -6.38126 85 49 21
-5.61818 -1.12072 -6.38229 84 43 27
-5.61273 -1.08619 -6.38333 85 39 27
-5.60728 -1.05164 -6.38437 87 38 20
-5.26139 -0.958439 -5.96946 85 39 21
-5.25628 -0.926005 -5.97043 81 38 22
-5.25116 -0.893551 -5.97141 82 41 27
-5.24604 -0.861076 -5.97238 90 46 14
-5.24091 -0.828581 -5.97336 89 42 13
-5.57451 -0.843863 -6.3906 90 42 12
-5.75573 -0.834332 -6.62134 86 42 14
-6.39565 -0.881404 -7.41766 83 38 22
-0.5114 -0.0276398 -0.191724 84 37 5
-0.511013 -0.0251851 -0.191798 83 35 18
-0.510626 -0.0227289 -0.191872 79 37 18
-0.510238 -0.020271 -0.191945 82 31 15
-0.50985 -0.0178116 -0.192019 80 27 17
-0.509462 -0.0153505 -0.192093 77 27 19
-0.509888 -0.0127357 -0.193229 83 25 7
-0.509498 -0.0102659 -0.193303 83 28 11
-0.511568 -0.00729932 -0.196593 79 25 9
-0.494274 0.0140118 -0.17966 78 26 18
-0.49239 0.0159997 -0.177739 78 25 8
-0.486136 0.0167028 -0.170012 78 15 10
-0.485044 0.0188515 -0.169127 72 10 10
-0.483957 0.0209923 -0.168246 62 12 6
-0.491191 0.0435999 -0.182546 40 12 4
-0.490806 0.0460412 -0.182619 39 9 13
-0.489671 0.0481993 -0.181682 39 18 6
-0.487062 0.0497753 -0.178753 42 10 8
-0.48668 0.0521996 -0.178825 45 16 10
-0.481946 0.0528699 -0.173009 48 19 16
-0.471187 0.0509957 -0.15901 53 14 13
-0.468826 0.0524804 -0.156372 55 17 4
-3.09199 1.45699 -3.78635 65 17 9
-3.0885 1.4791 -3.78701 63 19 11
-3.2071 1.56708 -3.95673 60 21 14
-3.20346 1.59014 -3.95743 58 20 14
-3.19982 1.61322 -3.95812 55 22 12
-3.19618 1.63631 -3.95881 54 21 10
-3.19253 1.65942 -3.9595 57 16 9
-3.18888 1.68254 -3.9602 56 17 10
-3.18523 1.70568 -3.96089 56 18 8
-3.18158 1.72884 -3.96159 53 17 11
-3.17793 1.75201 -3.96228 55 19 14
-3.17427 1.77519 -3.96298 60 13 5
-2.99322 1.68795 -3.71465 60 22 7
-3.16695 1.82161 -3.96437 55 18 6
-3.16328 1.84484 -3.96507 53 21 13
-3.15962 1.86808 -3.96576 59 17 13
-3.15595 1.89134 -3.96646 54 14 13
-3.2826 2.0013 -4.15137 44 19 16
-5.07342 3.49124 -6.75113 45 17 15
-4.75038 3.29713 -6.29926 53 20 9
-4.60123 3.22675 -6.09504 62 9 2
-4.59569 3.26189 -6.09609 55 8 7
-4.59014 3.29706 -6.09715 50 13 1
-4.58459 3.33225 -6.09821 41 12 9
-4.44497 3.26303 -5.90626 46 16 18
-4.43958 3.2972 -5.90729 49 15 15
-4.43419 3.33139 -5.90831 48 13 7
-4.30309 3.26429 -5.72761 46 9 8
-4.17948 3.20105 -5.55722 43 6 18
-4.06273 3.14134 -5.39631 42 9 21
-3.95229 3.08488 -5.24409 44 12 10
-3.49597 2.73517 -4.5885 46 17 3
-3.13673 2.45989 -4.07239 37 12 16
-3.07089 2.43061 -3.98264 35 13 18
-2.60733 2.05424 -3.31182 37 15 16
-2.37092 1.86909 -2.97127 38 12 14
-2.11871 1.66557 -2.60657 39 9 13
-1.94017 1.52357 -2.34888 44 10 9
-1.9153 1.51768 -2.31617 49 10 4
-5.07676 4.7112 -7.03465 41 13 4
-5.07032 4.75204 -7.03588 44 13 7
-1.84813 1.78407 -2.29244 37 9 3
-1.82498 1.77531 -2.26124 37 9 2
-1.84358 1.81292 -2.2933 37 11 6
-2.9082 3.03347 -3.91549 36 13 11
-3.36274 3.57975 -4.61384 34 11 11
-3.2839 3.52156 -4.50108 34 7 11
-3.01372 3.23975 -4.0958 35 6 7
-3.96775 4.5433 -5.5975 32 10 4
-3.7567 4.32484 -5.2813 32 11 2
-3.56729 4.12881 -4.99752 32 7 3
-3.56258 4.15865 -4.99842 30 10 6
-3.17117 3.70355 -4.40057 29 12 8
-3.10006 3.64538 -4.29756 31 11 6
-3.09597 3.67129 -4.29834 35 10 2
-4.0332 -2.85875 -4.02181 116 58 21
-3.86839 -2.72261 -3.84362 116 56 16
-3.86518 -2.70227 -3.84423 116 58 18
-3.86197 -2.68192 -3.84485 117 59 20
-3.85875 -2.66156 -3.84546 116 58 20
