ply
format ascii 1.0
element vertex 1166
property float x
property float y
property float z
property uchar diffuse_red
property uchar diffuse_green
property uchar diffuse_blue
end_header
-0.483539 0.00727208 -0.133398 130 125 76
-0.477666 0.00891777 -0.125841 132 129 75
-0.476407 0.0108158 -0.124703 127 128 78
-0.475649 0.0127402 -0.12426 135 128 81
-0.475385 0.0147016 -0.124508 132 128 80
-0.475613 0.0167107 -0.125446 124 127 83
-0.475347 0.0186782 -0.125694 132 128 77
-0.474591 0.0205932 -0.125251 135 125 78
-0.474325 0.0225597 -0.125499 128 131 78
-0.473571 0.0244667 -0.125056 133 134 78
-0.473306 0.026432 -0.125304 137 124 74
-0.470152 0.027997 -0.121457 134 125 71
-0.468469 0.0297355 -0.119687 130 125 75
-0.466805 0.0314566 -0.117935 132 129 75
-0.464699 0.0330863 -0.115549 130 130 73
-0.461723 0.0345422 -0.111913 129 131 72
-0.46102 0.0363599 -0.111514 131 128 75
-0.460765 0.0382546 -0.111753 130 125 75
-0.461852 0.0404084 -0.113917 129 121 81
-0.462497 0.0424958 -0.115454 128 125 74
-0.462692 0.0445048 -0.116347 130 124 75
-0.462887 0.0465222 -0.117244 123 126 79
-0.463999 0.0487521 -0.119465 126 126 81
-0.464198 0.050794 -0.120374 126 121 77
-0.463477 0.0526252 -0.119954 121 126 77
-0.463215 0.0545635 -0.120198 124 122 79
-0.462954 0.0565032 -0.120443 122 122 79
-0.46315 0.0585639 -0.121354 121 117 73
-0.461451 0.0641444 -0.120757 127 125 79
-0.4621 0.0663539 -0.122336 124 119 73
-0.460927 0.0680306 -0.121247 122 116 67
-0.461574 0.0702564 -0.122828 121 117 67
-0.46131 0.0722096 -0.123075 122 119 74
-0.461047 0.074164 -0.123321 126 117 74
-0.460783 0.0761197 -0.123568 125 116 74
-0.460519 0.0780766 -0.123815 122 116 77
-0.458902 0.0795621 -0.122055 123 115 76
-0.458639 0.0815111 -0.122301 123 114 76
-0.458376 0.0834614 -0.122546 119 111 77
-0.458113 0.085413 -0.122793 115 110 79
-0.45785 0.0873658 -0.123039 116 109 77
-0.457586 0.0893199 -0.123285 117 108 69
-0.492724 -0.0294678 -0.138164 125 126 76
-0.491358 -0.0273682 -0.136928 129 128 79
-0.490002 -0.0252833 -0.135702 127 130 81
-0.488656 -0.0232129 -0.134484 126 131 78
-0.488384 -0.0212041 -0.134738 126 131 82
-0.48758 -0.0191742 -0.134259 127 128 81
-0.485724 -0.0171189 -0.13233 134 129 74
-0.48493 -0.0151093 -0.13186 134 130 76
-0.48362 -0.0130977 -0.130674 135 128 79
-0.481806 -0.0110954 -0.128787 134 125 80
-0.480012 -0.00911399 -0.12692 136 129 78
-0.479241 -0.00714758 -0.126469 130 130 79
-0.478976 -0.00518068 -0.126717 127 133 85
-0.48379 0.00497515 -0.136578 128 127 80
-0.481956 0.00690605 -0.134641 131 131 82
-0.476115 0.00855919 -0.12706 135 128 77
-0.474371 0.0104235 -0.125225 130 130 81
-0.474106 0.0123837 -0.125473 130 128 79
-0.473841 0.0143451 -0.125721 133 129 81
-0.473576 0.0163077 -0.125968 131 128 84
-0.47331 0.0182717 -0.126216 131 126 80
-0.473045 0.0202369 -0.126465 132 126 77
-0.472293 0.0221469 -0.126021 125 127 79
-0.472028 0.024111 -0.126269 126 129 77
-0.471762 0.0260764 -0.126517 133 129 75
-0.468624 0.0276452 -0.122657 133 127 79
-0.467418 0.0294541 -0.121553 134 129 75
-0.465292 0.0311087 -0.119124 131 126 80
-0.463196 0.0327409 -0.116729 131 127 85
-0.460235 0.0342005 -0.113081 133 125 81
-0.459535 0.0360188 -0.11268 133 130 80
-0.458837 0.0378321 -0.112281 131 128 79
-0.458581 0.0397246 -0.11252 126 127 79
-0.458325 0.0416185 -0.112759 124 122 76
-0.460739 0.0440669 -0.116874 127 122 74
-0.46093 0.04608 -0.11777 128 123 84
-0.461961 0.0522783 -0.121144 127 124 78
-0.461699 0.0542167 -0.121389 126 122 80
-0.461893 0.0562722 -0.122302 126 120 80
-0.463332 0.0668156 -0.127605 127 117 73
-0.460314 0.0679573 -0.123778 127 119 64
-0.460051 0.0699093 -0.124025 124 117 61
-0.459787 0.0718625 -0.124272 121 116 69
-0.459523 0.0738169 -0.124518 120 115 73
-0.458808 0.0756221 -0.124093 122 114 74
-0.457648 0.0772692 -0.123001 119 115 79
-0.456495 0.0789058 -0.121916 120 116 74
-0.455351 0.0805322 -0.12084 121 117 71
-0.45509 0.0824687 -0.121085 124 117 74
-0.455267 0.0845711 -0.12199 120 116 78
-0.455445 0.0866821 -0.122899 115 109 78
-0.455182 0.0886293 -0.123145 113 107 75
-0.49003 -0.0297615 -0.13793 125 119 75
-0.489217 -0.0277049 -0.137441 125 124 78
-0.487338 -0.0255906 -0.135479 128 128 83
-0.487066 -0.023583 -0.135733 129 126 83
-0.486264 -0.0215499 -0.135253 125 131 85
-0.485464 -0.019523 -0.134774 129 134 82
-0.484144 -0.0174861 -0.133571 133 131 74
-0.482317 -0.0154504 -0.131657 135 127 76
-0.48051 -0.0134362 -0.129764 130 131 83
-0.478723 -0.011443 -0.127893 129 128 77
-0.477955 -0.00947351 -0.12744 132 127 75
-0.477189 -0.00750999 -0.126988 134 130 80
-0.476923 -0.00554668 -0.127236 131 133 86
-0.473806 0.0101357 -0.127828 135 127 80
-0.472562 0.0120271 -0.126685 130 129 82
-0.472297 0.0139885 -0.126934 136 131 77
-0.472031 0.0159512 -0.127182 137 133 74
-0.471765 0.0179152 -0.12743 129 132 81
-0.471499 0.0198804 -0.127679 130 130 77
-0.470749 0.0217912 -0.127233 129 129 76
-0.470002 0.0236962 -0.12679 126 126 73
-0.470218 0.0257207 -0.127731 129 124 80
-0.467095 0.0272935 -0.123858 127 126 87
-0.470167 0.0297254 -0.128925 126 128 81
-0.465632 0.0310445 -0.122995 132 127 83
-0.461434 0.0343113 -0.118152 129 127 78
-0.45805 0.0356777 -0.113847 122 127 82
-0.456478 0.0373306 -0.11217 119 127 81
-0.457537 0.0394684 -0.114327 125 130 79
-0.459497 0.0418077 -0.11781 128 131 82
-0.459686 0.0438156 -0.118708 126 127 84
-0.46126 0.0704095 -0.129313 119 117 72
-0.458263 0.0715153 -0.125469 121 116 67
-0.457999 0.0734698 -0.125716 120 116 70
-0.455508 0.0746812 -0.122613 118 116 75
-0.455246 0.0766209 -0.122859 117 117 76
-0.454106 0.0782541 -0.121779 119 117 72
-0.452109 0.0795669 -0.1194 119 116 72
-0.45228 0.0816481 -0.120296 120 114 70
-0.452451 0.0837379 -0.121196 119 113 72
-0.452623 0.0858364 -0.122099 118 109 71
-0.452794 0.0879435 -0.123005 115 108 68
-0.452532 0.0898851 -0.123251 113 105 63
-0.487892 -0.0300937 -0.138441 126 110 69
-0.486551 -0.0280037 -0.137212 125 125 79
-0.485748 -0.0259608 -0.136728 128 128 83
-0.484948 -0.0239243 -0.136246 130 127 81
-0.484151 -0.0218943 -0.135766 124 131 85
-0.483356 -0.0198707 -0.135288 134 127 76
-0.482046 -0.0178361 -0.134085 136 132 76
-0.479215 -0.0157758 -0.130742 132 131 80
-0.476935 -0.0137615 -0.128161 130 129 81
-0.476668 -0.0117983 -0.12841 129 131 79
-0.475905 -0.00983173 -0.127957 136 130 77
-0.475638 -0.00786965 -0.128206 135 131 82
-0.474878 -0.00591142 -0.127754 130 130 77
-0.474612 -0.00395043 -0.128003 133 132 77
-0.470752 0.0136319 -0.128147 130 126 80
-0.470486 0.0155946 -0.128396 129 128 79
-0.47022 0.0175586 -0.128644 124 127 76
-0.469953 0.0195239 -0.128894 130 126 76
-0.469206 0.0214353 -0.128446 131 128 81
-0.468461 0.0233411 -0.128001 134 129 77
-0.468673 0.0253649 -0.128944 131 128 83
-0.468885 0.0273975 -0.129891 132 130 80
-0.454568 0.0369118 -0.112695 126 130 77
-0.456739 0.0711681 -0.126666 123 116 69
-0.45426 0.0723986 -0.123555 124 115 68
-0.453123 0.0740443 -0.122473 121 117 72
-0.451133 0.0753841 -0.120089 118 114 74
-0.450873 0.0773047 -0.120333 119 111 72
-0.450612 0.0792265 -0.120576 117 114 70
-0.450352 0.0811496 -0.12082 120 114 71
-0.450091 0.083074 -0.121064 121 113 70
-0.450257 0.0851639 -0.121964 114 110 65
-0.449995 0.0870941 -0.122208 109 111 67
-0.449733 0.0890256 -0.122453 108 111 67
-0.449471 0.0909583 -0.122698 110 104 63
-0.485232 -0.0303835 -0.138207 125 109 56
-0.484431 -0.0283373 -0.137722 126 125 75
-0.484158 -0.026331 -0.137976 128 124 73
-0.482317 -0.0242351 -0.136023 128 126 76
-0.481527 -0.022212 -0.135546 126 131 86
-0.481256 -0.020217 -0.135799 132 128 78
-0.480469 -0.0182027 -0.135324 132 133 74
-0.476647 -0.0161114 -0.130545 129 126 80
-0.475383 -0.014122 -0.12938 130 127 86
-0.474621 -0.0121524 -0.128926 128 132 84
-0.474355 -0.0101915 -0.129175 137 131 79
-0.473596 -0.00823019 -0.128721 135 131 77
-0.473329 -0.00627042 -0.12897 126 132 80
-0.473063 -0.00430939 -0.129219 135 132 77
-0.472796 -0.0023471 -0.129468 134 131 81
-0.479049 -0.00018031 -0.139077 132 128 80
-0.468941 0.015238 -0.129609 125 131 84
-0.468674 0.017202 -0.129859 131 126 78
-0.468407 0.0191673 -0.130108 131 128 80
-0.467662 0.0210794 -0.129659 130 127 79
-0.466919 0.0229859 -0.129212 127 130 83
-0.467605 0.0250707 -0.130858 124 128 81
-0.467815 0.0271065 -0.13181 127 129 80
-0.446036 0.0504358 -0.108241 126 119 76
-0.444971 0.0520826 -0.10725 123 120 81
-0.445125 0.0540378 -0.108097 125 122 77
-0.452141 0.0698392 -0.123166 124 113 70
-0.451016 0.0714869 -0.12209 123 111 69
-0.449047 0.0728387 -0.119717 118 116 73
-0.448788 0.0747514 -0.11996 117 116 72
-0.448528 0.0766653 -0.120203 119 113 70
-0.447846 0.0784284 -0.119796 116 113 72
-0.447586 0.0803415 -0.120039 117 112 71
-0.447746 0.0824146 -0.120932 119 112 70
-0.447486 0.0843335 -0.121176 117 112 68
-0.447225 0.0862536 -0.12142 114 110 65
-0.446964 0.088175 -0.121664 113 107 65
-0.446703 0.0900976 -0.121908 112 103 65
-0.483114 -0.0307128 -0.138715 129 104 56
-0.482841 -0.0287077 -0.13897 130 127 78
-0.482046 -0.0266673 -0.138485 126 124 78
-0.480219 -0.0245733 -0.136533 123 129 82
-0.479435 -0.0225534 -0.136056 129 128 77
-0.479163 -0.0205621 -0.136309 129 134 78
-0.478382 -0.0185509 -0.135834 131 132 78
-0.47509 -0.0164733 -0.131768 131 127 78
-0.474326 -0.0144933 -0.131308 132 128 82
-0.473071 -0.0125122 -0.130143 130 130 82
-0.472804 -0.0105513 -0.130392 135 132 80
-0.47156 -0.00858948 -0.129235 137 127 76
-0.470808 -0.006637 -0.128784 134 134 80
-0.471027 -0.00467578 -0.129733 133 125 75
-0.472225 -0.00268405 -0.132099 136 128 75
-0.472941 -0.000683687 -0.133776 133 127 82
-0.467395 0.0148813 -0.130823 129 126 81
-0.466652 0.0167988 -0.130373 127 126 85
-0.465911 0.0187105 -0.129925 125 130 83
-0.466117 0.0207235 -0.130872 127 126 84
-0.466532 0.0247754 -0.132778 131 130 82
-0.466264 0.0267494 -0.133029 126 129 86
-0.465995 0.0287246 -0.13328 128 128 82
-0.460601 0.0299233 -0.125906 129 123 82
-0.460337 0.031862 -0.126153 130 127 80
-0.446064 0.0485439 -0.111003 125 121 71
-0.444181 0.0500041 -0.108764 126 121 71
-0.443525 0.0517521 -0.108386 124 123 75
-0.443274 0.0536009 -0.108621 130 124 77
-0.445459 0.0561109 -0.112576 127 121 76
-0.44935 0.0690847 -0.122365 123 113 69
-0.447396 0.0704497 -0.119995 122 112 68
-0.447136 0.0723578 -0.120237 122 118 75
-0.446458 0.074123 -0.119831 120 118 72
-0.445782 0.0758832 -0.119427 120 112 70
-0.445522 0.0777885 -0.119669 116 114 75
-0.445263 0.079695 -0.119912 119 115 73
-0.445418 0.0817597 -0.120802 118 114 75
-0.445158 0.083672 -0.121046 117 112 69
-0.444898 0.0855855 -0.121289 116 108 64
-0.445052 0.0876678 -0.122184 116 107 65
-0.444791 0.0895871 -0.122428 116 104 65
-0.481005 -0.0310409 -0.139222 126 93 59
-0.480732 -0.0290395 -0.139476 129 123 81
-0.479426 -0.0269678 -0.138254 127 124 79
-0.47813 -0.0249104 -0.137041 128 126 81
-0.477858 -0.0229202 -0.137294 132 127 78
-0.477078 -0.0209059 -0.136817 130 131 78
-0.476807 -0.018917 -0.13707 132 129 78
-0.474028 -0.0168504 -0.133707 130 128 82
-0.473264 -0.0148659 -0.133242 137 127 79
-0.471521 -0.0128721 -0.13136 132 132 80
-0.471254 -0.0109111 -0.13161 131 128 79
-0.470015 -0.00894796 -0.130449 134 125 81
-0.469265 -0.00699482 -0.129996 136 132 78
-0.471918 -0.0050004 -0.134499 129 133 82
-0.471649 -0.00302351 -0.13475 131 130 81
-0.471379 -0.00104535 -0.135002 133 129 79
-0.474588 0.0010604 -0.140348 130 126 75
-0.476341 0.00315596 -0.143576 128 129 75
-0.460538 0.0121056 -0.123537 133 131 74
-0.459823 0.0139857 -0.123109 131 126 77
-0.459561 0.0159042 -0.123354 128 124 84
-0.460206 0.017919 -0.124946 129 130 82
-0.4633 0.0262005 -0.132134 128 128 79
-0.460714 0.0278324 -0.12891 127 126 81
-0.459079 0.0295733 -0.127102 130 127 80
-0.458815 0.031512 -0.127349 131 127 77
-0.449442 0.0474059 -0.118907 125 124 81
-0.445838 0.0485042 -0.11403 122 122 72
-0.443136 0.0497723 -0.110519 123 118 75
-0.442481 0.0515237 -0.110137 128 117 75
-0.44263 0.0534814 -0.110991 126 115 78
-0.448375 0.0649064 -0.123053 125 116 75
-0.448114 0.0668243 -0.123298 124 113 74
-0.446168 0.0682038 -0.120921 122 113 73
-0.445908 0.0701108 -0.121164 119 112 71
-0.445231 0.0718786 -0.120756 119 113 73
-0.444557 0.0736416 -0.120351 119 112 70
-0.443474 0.0752542 -0.119302 116 112 74
-0.443215 0.0771529 -0.119544 115 111 78
-0.443366 0.0792049 -0.120431 117 110 77
-0.443106 0.0811093 -0.120673 117 113 73
-0.443257 0.0831742 -0.121565 114 112 71
-0.442996 0.0850844 -0.121808 113 110 71
-0.443147 0.0871623 -0.122703 115 110 69
-0.442886 0.0890783 -0.122947 116 107 70
-0.478903 -0.0313678 -0.139726 120 83 49
-0.478117 -0.0293312 -0.139242 127 125 79
-0.476825 -0.0272661 -0.138025 128 127 79
-0.476047 -0.0252462 -0.137547 129 125 74
-0.475776 -0.0232598 -0.1378 128 126 76
-0.475504 -0.021272 -0.138054 134 132 71
-0.475232 -0.0192831 -0.138307 134 129 72
-0.472468 -0.017213 -0.134933 133 128 77
-0.471706 -0.0152279 -0.134466 131 129 77
-0.470946 -0.0132488 -0.134002 130 129 79
-0.470677 -0.0112806 -0.134253 130 128 80
-0.468469 -0.00930649 -0.131663 130 132 86
-0.470358 -0.00536219 -0.135725 131 131 82
-0.470087 -0.00338526 -0.135977 131 131 86
-0.469817 -0.00140707 -0.136229 133 128 86
-0.472505 0.000676402 -0.140853 130 127 82
-0.473231 0.00272209 -0.142589 128 129 78
-0.458575 0.0117199 -0.124051 126 131 80
-0.457416 0.0135578 -0.122954 127 126 84
-0.455381 0.0152987 -0.120543 132 129 75
-0.456004 0.01729 -0.122109 126 130 82
-0.458426 0.0194972 -0.126383 129 126 84
-0.459524 0.0215891 -0.128679 132 123 79
-0.461559 0.0238228 -0.132395 127 127 79
-0.45945 0.0255336 -0.129864 127 125 81
-0.459184 0.0274804 -0.130112 126 131 79
-0.458463 0.0293598 -0.12967 128 124 74
-0.458197 0.0313056 -0.129919 134 125 77
-0.447957 0.0470659 -0.120074 128 124 74
-0.445609 0.048464 -0.11709 127 124 70
-0.444117 0.0500408 -0.11542 122 119 72
-0.443046 0.0517061 -0.114396 127 120 75
-0.444476 0.0598907 -0.119175 122 119 73
-0.444631 0.0619052 -0.120063 123 117 77
-0.444371 0.063802 -0.120304 121 119 79
-0.444941 0.0659591 -0.121847 122 114 71
-0.444266 0.0677317 -0.121438 124 113 72
-0.444006 0.0696354 -0.121681 120 114 69
-0.443333 0.0714011 -0.121274 120 116 65
-0.442254 0.0730202 -0.120222 118 114 70
-0.441587 0.0747733 -0.11982 116 114 75
-0.440519 0.076375 -0.118779 120 112 73
-0.440664 0.078415 -0.119661 120 109 73
-0.44081 0.0804633 -0.120545 117 112 72
-0.441362 0.0826781 -0.122082 113 114 71
-0.441509 0.084747 -0.122976 114 111 69
-0.441248 0.0866585 -0.12322 113 108 69
-0.440987 0.0885712 -0.123464 112 108 72
-0.440725 0.0904852 -0.123708 111 106 73
-0.4763 -0.0316503 -0.139491 112 78 54
-0.475522 -0.0296208 -0.139009 126 123 82
-0.474746 -0.0275977 -0.138529 126 122 79
-0.47248 -0.0254866 -0.135873 130 126 76
-0.47221 -0.0235149 -0.136125 131 126 79
-0.472434 -0.0215659 -0.137101 132 127 81
-0.472164 -0.019588 -0.137354 129 131 84
-0.470907 -0.0175758 -0.136159 129 130 81
-0.470147 -0.0155899 -0.135691 126 131 79
-0.467459 -0.013574 -0.132378 128 130 85
-0.467191 -0.0116202 -0.132628 132 129 83
-0.460851 -0.00964232 -0.123897 130 128 82
-0.460589 -0.00773156 -0.124141 132 125 79
-0.465437 -0.00576195 -0.131966 129 126 82
-0.466597 -0.00378339 -0.134338 133 126 81
-0.466329 -0.00181974 -0.134588 133 128 81
-0.467984 0.000210626 -0.137709 135 128 80
-0.470157 0.00229303 -0.141612 127 126 76
-0.469883 0.00429356 -0.141868 133 126 75
-0.457327 0.00945512 -0.124992 132 123 78
-0.456172 0.0112999 -0.123892 122 123 80
-0.452407 0.0129031 -0.118849 121 129 84
-0.452149 0.014788 -0.11909 134 125 80
-0.452755 0.0167634 -0.120641 128 122 82
-0.453804 0.0188026 -0.122866 126 123 78
-0.457546 0.0211837 -0.12919 132 128 78
-0.45728 0.023121 -0.129438 132 126 81
-0.457467 0.0251204 -0.130374 129 123 80
-0.457201 0.0270637 -0.130622 126 129 82
-0.456484 0.0289405 -0.130181 128 125 69
-0.456218 0.0308829 -0.130429 132 122 76
-0.456402 0.0329012 -0.131368 131 127 77
-0.45267 0.0401738 -0.128248 122 125 83
-0.451967 0.0420159 -0.127817 117 128 80
-0.451267 0.0438527 -0.127387 127 125 80
-0.451003 0.0457808 -0.127633 128 125 78
-0.450305 0.0476101 -0.127205 123 124 80
-0.446212 0.0486227 -0.121482 127 121 76
-0.444704 0.0502124 -0.119776 121 118 73
-0.442438 0.0574331 -0.118808 119 121 75
-0.44218 0.0593176 -0.119048 120 118 75
-0.442739 0.0614455 -0.120578 124 116 78
-0.44289 0.063464 -0.121468 122 116 77
-0.44263 0.065362 -0.121711 118 114 73
-0.44237 0.0672612 -0.121954 114 115 75
-0.44211 0.0691617 -0.122196 114 114 76
-0.441034 0.0707874 -0.121142 117 114 73
-0.440369 0.0725431 -0.120738 118 115 67
-0.439305 0.0741512 -0.119694 118 115 71
-0.439046 0.0760402 -0.119935 118 114 74
-0.438388 0.0777816 -0.119537 119 114 74
-0.438529 0.0798218 -0.120419 117 114 74
-0.43867 0.0818703 -0.121304 114 111 70
-0.439213 0.0840873 -0.122841 115 110 67
-0.439761 0.086321 -0.124389 115 108 69
-0.439499 0.0882338 -0.124633 114 106 67
-0.439237 0.0901478 -0.124877 114 106 65
-0.473717 -0.0319307 -0.139257 100 71 44
-0.472945 -0.0299083 -0.138778 124 124 77
-0.471188 -0.0278207 -0.136848 125 125 82
-0.469938 -0.0257867 -0.135657 130 126 76
-0.469181 -0.0237943 -0.13519 129 129 76
-0.468912 -0.0218322 -0.135441 128 127 79
-0.468643 -0.0198689 -0.135692 127 126 85
-0.466928 -0.0178535 -0.133801 126 125 83
-0.465231 -0.015859 -0.131931 128 132 79
-0.461695 -0.0138475 -0.127318 128 128 81
-0.459603 -0.0119022 -0.124839 134 129 80
-0.459341 -0.00999261 -0.125083 126 128 81
-0.459079 -0.00808185 -0.125328 129 129 76
-0.45927 -0.00616531 -0.126251 129 126 79
-0.461759 -0.00420033 -0.130625 133 133 81
-0.462423 -0.00223818 -0.132269 133 126 80
-0.462623 -0.000275779 -0.133221 128 129 84
-0.462355 0.00167608 -0.133471 130 125 84
-0.461621 0.00360678 -0.133017 132 127 79
-0.46089 0.00553168 -0.132565 128 126 82
-0.45608 0.00719148 -0.125933 131 132 77
-0.455373 0.00907472 -0.125503 131 124 79
-0.451181 0.0106768 -0.119774 125 126 76
-0.450067 0.0124863 -0.118712 128 124 74
-0.449809 0.0143646 -0.118953 130 124 79
-0.450405 0.0163317 -0.120498 134 129 83
-0.451005 0.0183138 -0.122054 128 126 77
-0.452479 0.020414 -0.124955 133 129 76
-0.455757 0.0227701 -0.130635 134 125 79
-0.455491 0.0247087 -0.130883 134 123 76
-0.455225 0.0266486 -0.131131 126 126 80
-0.454958 0.0285897 -0.131379 129 124 75
-0.454246 0.0304616 -0.130938 133 128 78
-0.453093 0.0322548 -0.129813 133 123 74
-0.452388 0.0341126 -0.129378 136 128 75
-0.451684 0.0359651 -0.128944 133 126 81
-0.45142 0.0378951 -0.129191 128 127 78
-0.451155 0.0398263 -0.129438 128 128 78
-0.450454 0.0416691 -0.129005 128 122 73
-0.45019 0.0435994 -0.129252 129 122 78
-0.449925 0.0455309 -0.129499 130 122 75
-0.450529 0.0476643 -0.131112 126 121 82
-0.450263 0.0496052 -0.13136 129 119 76
-0.440561 0.0569833 -0.119322 123 119 76
-0.440303 0.0588646 -0.119563 126 120 69
-0.440853 0.0609874 -0.121092 125 117 71
-0.440594 0.0628776 -0.121334 119 116 77
-0.441147 0.0650241 -0.122876 118 114 76
-0.440887 0.0669233 -0.123119 117 116 73
-0.440626 0.0688238 -0.123362 116 115 76
-0.439555 0.0704507 -0.122303 115 112 73
-0.438893 0.0722071 -0.121898 117 118 68
-0.437435 0.0736747 -0.120209 118 115 71
-0.437176 0.0755604 -0.12045 117 113 73
-0.436917 0.0774474 -0.120692 116 113 75
-0.436659 0.0793356 -0.120933 114 113 75
-0.436399 0.081225 -0.121175 115 113 72
-0.437331 0.0835913 -0.123355 115 112 72
-0.43747 0.0856559 -0.124249 113 110 72
-0.437208 0.0875621 -0.124493 112 107 69
-0.436947 0.0894696 -0.124737 113 104 64
-0.436685 0.0913783 -0.124981 114 100 62
-0.470167 -0.0321216 -0.13757 101 67 32
-0.468921 -0.0300741 -0.136376 127 122 73
-0.468166 -0.0280763 -0.135908 125 129 82
-0.467414 -0.0260845 -0.135442 126 127 76
-0.466186 -0.0240705 -0.134265 128 129 72
-0.465918 -0.0221193 -0.134515 127 125 79
-0.465649 -0.0201668 -0.134766 125 128 89
-0.46396 -0.0181608 -0.13289 126 126 81
-0.460439 -0.0161214 -0.128266 131 126 81
-0.458355 -0.0141609 -0.12578 134 126 78
-0.458093 -0.0122526 -0.126025 132 128 78
-0.45783 -0.010343 -0.12627 124 127 83
-0.457568 -0.00843216 -0.126515 133 130 76
-0.457756 -0.00651625 -0.127441 131 129 83
-0.45931 -0.00457 -0.130437 129 132 81
-0.459962 -0.00261625 -0.132076 128 130 84
-0.459695 -0.000676199 -0.132324 129 130 82
-0.459428 0.00126506 -0.132573 130 130 78
-0.458247 0.00316458 -0.131428 128 125 81
-0.456622 0.0050269 -0.129603 127 128 86
-0.454571 0.00684268 -0.127118 134 127 75
-0.451678 0.00857275 -0.123336 131 127 78
-0.449271 0.0103009 -0.120286 122 131 78
-0.448165 0.0121085 -0.119224 129 129 75
-0.447907 0.0139837 -0.119465 130 124 76
-0.44892 0.0159892 -0.121664 134 127 80
-0.449514 0.0179701 -0.123225 131 124 80
-0.450544 0.020017 -0.125464 128 124 76
-0.452022 0.0221418 -0.128406 134 132 73
-0.453966 0.0243577 -0.132081 126 125 77
-0.453699 0.0262976 -0.132329 128 125 79
-0.452989 0.0281725 -0.131886 131 124 75
-0.452722 0.0301114 -0.132135 135 128 77
-0.4507 0.0317611 -0.129639 133 123 78
-0.450435 0.0336886 -0.129886 133 126 76
-0.449736 0.0355386 -0.129452 133 124 81
-0.449905 0.0375475 -0.13038 127 126 78
-0.449207 0.0393931 -0.129946 126 123 78
-0.448941 0.0413222 -0.130193 123 124 76
-0.448676 0.0432525 -0.130441 126 124 75
-0.449276 0.0453765 -0.132057 131 122 72
-0.449443 0.0474164 -0.132994 124 124 81
-0.43909 0.0566475 -0.120478 125 118 71
-0.438832 0.0585288 -0.120719 123 114 70
-0.438974 0.0605307 -0.121605 119 116 72
-0.438715 0.0624177 -0.121847 117 115 77
-0.439665 0.0646861 -0.12404 119 114 73
-0.439404 0.0665854 -0.124284 118 113 71
-0.439143 0.0684859 -0.124527 120 112 72
-0.438478 0.0702506 -0.124117 118 113 71
-0.437416 0.071871 -0.123058 115 116 71
-0.435965 0.0733404 -0.121364 116 114 73
-0.435706 0.0752261 -0.121606 118 114 73
-0.435053 0.076966 -0.121205 116 110 74
-0.434794 0.078851 -0.121447 115 108 74
-0.434535 0.0807372 -0.121688 114 109 73
-0.435455 0.083097 -0.123867 115 110 75
-0.43559 0.0851572 -0.124761 114 110 76
-0.435328 0.0870601 -0.125005 110 107 73
-0.435067 0.0889643 -0.125249 112 103 66
-0.434411 0.0906981 -0.124842 116 100 63
-0.433757 0.0924271 -0.124436 106 91 61
-0.467152 -0.0323535 -0.136625 96 64 34
-0.466401 -0.0303563 -0.136158 124 112 69
-0.465654 -0.0283652 -0.135693 127 124 78
-0.464909 -0.0263803 -0.135229 124 126 77
-0.46464 -0.0244302 -0.135479 126 130 76
-0.463426 -0.0224284 -0.134308 130 126 73
-0.462688 -0.0204614 -0.13385 130 130 81
-0.461023 -0.0184648 -0.13199 126 127 76
-0.457108 -0.0164186 -0.126721 129 127 78
-0.456846 -0.0145114 -0.126966 131 130 80
-0.456135 -0.012596 -0.126532 135 130 75
-0.455873 -0.0106898 -0.126776 126 129 85
-0.456057 -0.00878253 -0.127701 133 132 71
-0.456242 -0.00686721 -0.12863 129 131 78
-0.45733 -0.00493025 -0.130942 127 128 80
-0.457518 -0.00299164 -0.131883 124 129 84
-0.456799 -0.00107234 -0.131437 126 128 81
-0.456533 0.00085844 -0.131685 132 129 82
-0.455368 0.00274921 -0.13055 130 125 81
-0.453767 0.0046038 -0.128739 133 126 83
-0.451746 0.00641297 -0.126275 130 128 73
-0.448048 0.00807952 -0.121208 126 126 77
-0.446527 0.00986139 -0.119494 127 131 82
-0.445852 0.0116966 -0.119087 124 128 77
-0.44643 0.0136429 -0.120625 126 127 77
-0.447012 0.015604 -0.122174 128 126 77
-0.447175 0.0175341 -0.123074 133 130 79
-0.448615 0.0196214 -0.125973 128 123 75
-0.450077 0.0217396 -0.128913 129 125 74
-0.451559 0.0238895 -0.131895 122 127 80
-0.451732 0.0258845 -0.132834 126 127 81
-0.451466 0.0278222 -0.133083 127 126 71
-0.450322 0.0296236 -0.131951 124 125 75
-0.448324 0.0312709 -0.129466 126 124 77
-0.448059 0.0331917 -0.129712 131 127 75
-0.447795 0.0351136 -0.129959 128 120 80
-0.447959 0.0371182 -0.130887 123 126 79
-0.447694 0.0390461 -0.131134 129 121 74
-0.447858 0.0410638 -0.132067 131 121 75
-0.448455 0.0431825 -0.133692 129 124 77
-0.449493 0.0454148 -0.136027 134 122 73
-0.452322 0.0480833 -0.141235 124 127 79
-0.437221 0.0561998 -0.120989 121 119 67
-0.436963 0.0580779 -0.12123 116 117 69
-0.4375 0.0601943 -0.122763 118 116 68
-0.43724 0.0620814 -0.123005 116 115 69
-0.43778 0.0642215 -0.124551 121 116 68
-0.43792 0.0662474 -0.125449 121 110 69
-0.437659 0.0681479 -0.125693 120 114 73
-0.437397 0.0700497 -0.125937 119 113 69
-0.436735 0.071813 -0.125525 113 114 71
-0.434888 0.0731466 -0.123164 114 113 73
-0.434235 0.0748918 -0.122761 117 112 71
-0.433585 0.0766323 -0.122359 117 114 70
-0.432937 0.078368 -0.121958 115 114 71
-0.432677 0.080251 -0.1222 109 111 76
-0.433586 0.0826042 -0.124378 113 108 76
-0.433716 0.0846601 -0.125272 116 106 73
-0.433455 0.0865598 -0.125516 111 106 72
-0.433193 0.0884608 -0.12576 113 107 68
-0.432541 0.0901925 -0.125353 116 103 65
-0.431504 0.0917469 -0.124299 109 96 64
-0.464644 -0.0326269 -0.136407 92 64 37
-0.464375 -0.0306769 -0.136658 126 104 62
-0.463632 -0.0286889 -0.136192 123 123 76
-0.462891 -0.0267069 -0.135729 127 126 77
-0.462153 -0.024731 -0.135268 127 127 81
-0.460952 -0.0227353 -0.134101 132 128 77
-0.459759 -0.020753 -0.132944 132 131 82
-0.458119 -0.0187655 -0.131099 129 129 75
-0.455599 -0.0167692 -0.127907 127 128 74
-0.454891 -0.0148509 -0.127471 127 128 78
-0.454628 -0.0129459 -0.127716 128 129 81
-0.454365 -0.0110396 -0.127961 125 126 76
-0.454102 -0.00913215 -0.128206 132 131 76
-0.454727 -0.00721822 -0.129819 129 127 78
-0.455807 -0.00528314 -0.132138 126 131 78
-0.455541 -0.00335477 -0.132386 127 127 81
-0.455275 -0.00142516 -0.132634 128 130 78
-0.454114 0.00047259 -0.131496 126 128 84
-0.453404 0.00237782 -0.131053 128 126 86
-0.452255 0.00425423 -0.129927 133 127 79
-0.450245 0.00606592 -0.127454 129 127 76
-0.445728 0.00768007 -0.121063 123 125 80
-0.444638 0.00948942 -0.120003 128 130 78
-0.44438 0.0113569 -0.120243 135 121 75
-0.444122 0.0132256 -0.120483 135 125 78
-0.444694 0.0151784 -0.122027 125 124 76
-0.445269 0.0171462 -0.123581 126 126 74
-0.447118 0.0192764 -0.127149 130 127 72
-0.448568 0.0213923 -0.130098 133 125 75
-0.449603 0.023482 -0.132399 123 128 79
-0.449772 0.0254727 -0.133338 125 124 76
-0.44907 0.0273424 -0.132896 126 128 72
-0.447509 0.0290718 -0.131085 129 126 71
-0.445964 0.0307841 -0.129294 120 125 79
-0.446124 0.0327715 -0.130218 127 125 73
-0.44586 0.0346901 -0.130464 132 126 78
-0.446447 0.0367711 -0.132075 125 122 74
-0.446181 0.0386991 -0.132323 125 124 74
-0.446771 0.0408044 -0.133947 129 121 76
-0.449105 0.0432986 -0.138385 125 122 75
-0.450599 0.0456505 -0.141482 126 124 74
-0.450772 0.0477282 -0.142454 120 125 73
-0.435753 0.0558645 -0.122142 123 117 73
-0.435889 0.0578572 -0.12303 119 116 70
-0.436025 0.0598579 -0.123922 117 114 72
-0.435765 0.061745 -0.124164 117 117 69
-0.435901 0.0637584 -0.125059 118 113 71
-0.436038 0.06578 -0.125957 114 112 72
-0.436175 0.0678099 -0.126859 115 111 73
-0.435912 0.0697117 -0.127103 118 112 71
-0.435252 0.0714756 -0.12669 117 112 69
-0.434594 0.0732346 -0.126278 115 113 71
-0.433154 0.0747007 -0.124564 116 113 73
-0.432504 0.0764445 -0.124159 116 112 69
-0.431085 0.0778866 -0.122469 116 112 67
-0.430825 0.0797665 -0.12271 113 111 68
-0.431335 0.0819574 -0.12424 113 109 71
-0.431461 0.0840052 -0.125131 113 108 72
-0.4312 0.0858984 -0.125374 110 109 68
-0.430939 0.0877928 -0.125618 109 109 67
-0.430292 0.0895197 -0.125213 110 103 69
-0.429266 0.0910712 -0.124164 109 97 66
-0.427234 0.0941461 -0.122088 68 36 25
-0.462625 -0.0329428 -0.136905 95 63 30
-0.462356 -0.0309964 -0.137155 128 98 59
-0.461617 -0.0290114 -0.136691 129 121 75
-0.460881 -0.0270324 -0.136228 126 122 80
-0.459684 -0.0250295 -0.135058 127 122 85
-0.458496 -0.0230401 -0.133897 132 125 74
-0.456862 -0.0210414 -0.132048 132 126 77
-0.456597 -0.0191193 -0.132295 129 127 83
-0.454535 -0.0171349 -0.129777 127 123 81
-0.453383 -0.0152008 -0.128655 126 126 80
-0.45312 -0.0132958 -0.1289 125 126 84
-0.452857 -0.0113895 -0.129145 127 127 82
-0.453034 -0.00948342 -0.130076 131 128 80
-0.453657 -0.00756729 -0.131699 134 128 77
-0.454284 -0.00563608 -0.133335 129 128 74
-0.454017 -0.00370767 -0.133583 128 124 74
-0.45286 -0.00180288 -0.132441 130 126 78
-0.452152 0.000105213 -0.131998 125 129 76
-0.451008 0.00198859 -0.130868 126 128 82
-0.450743 0.00390465 -0.131115 134 124 78
-0.447884 0.00566783 -0.127285 129 126 80
-0.443837 0.00731113 -0.121569 122 124 84
-0.443166 0.00914963 -0.121159 128 131 79
-0.442908 0.0110171 -0.1214 134 123 75
-0.44265 0.0128858 -0.12164 136 127 81
-0.443216 0.0148376 -0.123188 125 125 74
-0.443785 0.0168042 -0.124747 125 128 77
-0.446044 0.0189803 -0.128999 129 124 76
-0.44792 0.021151 -0.132654 130 123 72
-0.447654 0.023076 -0.132902 128 133 78
-0.447819 0.0250624 -0.13384 125 129 78
-0.447121 0.0269295 -0.133398 126 129 72
-0.444725 0.0285259 -0.130228 127 126 77
-0.443203 0.0302321 -0.128452 122 123 80
-0.443357 0.032208 -0.129369 123 124 76
-0.443932 0.034268 -0.130968 126 128 80
-0.444088 0.036264 -0.131895 126 124 68
-0.444668 0.038352 -0.133512 124 122 76
-0.446108 0.0406322 -0.13653 128 118 80
-0.448444 0.0431337 -0.141012 124 123 74
-0.449052 0.045296 -0.142697 122 123 73
-0.450109 0.047578 -0.145121 117 128 75
-0.434544 0.0536521 -0.123054 118 115 77
-0.434284 0.0555291 -0.123296 122 116 75
-0.434025 0.0574073 -0.123538 123 116 70
-0.434551 0.0595215 -0.12508 117 114 75
-0.43429 0.0614086 -0.125323 116 114 67
-0.434423 0.0634214 -0.12622 117 117 73
-0.434556 0.0654425 -0.127121 116 114 76
-0.43469 0.0674719 -0.128025 118 112 71
-0.434427 0.0693737 -0.12827 115 110 69
-0.434164 0.0712768 -0.128515 117 111 70
-0.433113 0.0728978 -0.127441 116 111 71
-0.43246 0.0746526 -0.127029 113 114 72
-0.43142 0.0762561 -0.125965 112 112 68
-0.430003 0.0777017 -0.124263 114 110 70
-0.42936 0.0794339 -0.123861 114 111 68
-0.42872 0.0811614 -0.123461 114 109 63
-0.429604 0.0835125 -0.125639 113 107 64
-0.429343 0.0854025 -0.125882 110 107 64
-0.4287 0.0871294 -0.125477 110 107 62
-0.428059 0.0888516 -0.125074 108 104 66
-0.426668 0.0902315 -0.123389 107 100 69
-0.425032 0.0934692 -0.121962 82 52 32
-0.460613 -0.0332576 -0.137401 92 62 25
-0.460344 -0.0313147 -0.137651 121 91 56
-0.45961 -0.0293327 -0.137187 133 124 76
-0.458417 -0.0273227 -0.136014 131 123 78
-0.457233 -0.025326 -0.13485 129 125 80
-0.455606 -0.0233161 -0.132996 126 125 81
-0.45534 -0.0213953 -0.133243 128 125 82
-0.454625 -0.0194537 -0.132795 129 128 83
-0.453466 -0.0175021 -0.131655 128 129 80
-0.451876 -0.0155508 -0.129839 128 123 81
-0.451612 -0.0136458 -0.130084 130 128 79
-0.451348 -0.0117394 -0.13033 128 129 83
-0.451523 -0.00983398 -0.131263 129 126 78
-0.452139 -0.00791904 -0.132891 128 125 85
-0.452316 -0.00599393 -0.133834 130 124 76
-0.45205 -0.00406896 -0.134082 131 129 70
-0.451783 -0.00214277 -0.134331 128 129 78
-0.451075 -0.000230603 -0.133883 125 132 78
-0.443864 0.00517473 -0.124457 120 127 80
-0.441953 0.00694346 -0.122074 125 129 79
-0.441286 0.00877943 -0.121664 125 124 76
-0.441027 0.0106437 -0.121905 127 124 74
-0.441177 0.0125461 -0.122797 124 125 80
-0.441327 0.0144563 -0.123693 125 126 78
-0.441477 0.0163743 -0.124592 125 124 73
-0.445816 0.0187805 -0.132221 126 123 82
-0.446405 0.0208023 -0.133843 127 122 78
-0.446139 0.0227273 -0.134092 131 131 78
-0.445872 0.0246535 -0.13434 130 130 79
-0.445179 0.0265181 -0.133898 130 127 77
-0.441971 0.0279857 -0.129381 128 121 78
-0.440881 0.0297531 -0.128285 128 123 79
-0.441444 0.0317924 -0.129872 123 125 77
-0.441594 0.0337723 -0.130793 130 125 76
-0.44258 0.0359181 -0.133079 131 125 74
-0.443154 0.0380048 -0.134701 127 121 74
-0.444583 0.0402826 -0.137727 125 119 79
-0.446902 0.0427803 -0.142223 124 123 76
-0.447066 0.044844 -0.143194 123 121 77
-0.448552 0.0472215 -0.146344 120 123 77
-0.433075 0.0533166 -0.124208 119 119 72
-0.432815 0.0551937 -0.12445 118 116 72
-0.432945 0.0571853 -0.125343 119 114 72
-0.433076 0.059185 -0.126239 119 112 73
-0.433206 0.0611928 -0.127138 119 112 66
-0.432945 0.0630844 -0.127382 117 117 72
-0.433075 0.065105 -0.128285 114 117 72
-0.433206 0.0671338 -0.129191 115 113 68
-0.433336 0.0691708 -0.130101 114 113 72
-0.432679 0.0709388 -0.129682 119 113 74
-0.432023 0.0727018 -0.129265 119 111 69
-0.431369 0.07446 -0.128849 118 110 67
-0.430718 0.0762133 -0.128435 116 109 67
-0.428917 0.077516 -0.126064 116 111 70
-0.427517 0.0789514 -0.124368 113 114 70
-0.42688 0.0806768 -0.123967 113 111 66
-0.426997 0.0827085 -0.124852 111 108 66
-0.426361 0.0844299 -0.124452 109 108 66
-0.425727 0.0861468 -0.124052 107 107 63
-0.425467 0.0880232 -0.124294 107 105 62
-0.424835 0.0897335 -0.123896 108 101 65
-0.423837 0.0912697 -0.122863 106 92 63
-0.423211 0.0929682 -0.12247 96 62 41
-0.458147 -0.0335258 -0.137182 90 57 33
-0.457878 -0.03159 -0.137432 113 81 52
-0.457151 -0.0296147 -0.13697 126 124 77
-0.455971 -0.0276109 -0.135802 130 126 76
-0.453902 -0.0255593 -0.133245 125 127 77
-0.453191 -0.0236161 -0.132797 129 124 80
-0.453371 -0.0217257 -0.133741 128 126 79
-0.45266 -0.019787 -0.133292 127 126 76
-0.452394 -0.0178705 -0.13354 127 127 71
-0.450368 -0.0159009 -0.131023 128 128 76
-0.450104 -0.0139958 -0.131269 130 126 78
-0.44984 -0.0120894 -0.131515 127 131 82
-0.449575 -0.0101819 -0.131762 128 127 76
-0.449746 -0.00827234 -0.132698 131 131 81
-0.450795 -0.00634634 -0.135029 126 130 81
-0.450528 -0.00442134 -0.135277 124 123 77
-0.450261 -0.00249511 -0.135526 124 124 79
-0.442383 0.00483239 -0.12562 126 127 77
-0.440481 0.00660353 -0.12323 125 127 78
-0.439816 0.00844012 -0.122819 128 128 78
-0.439558 0.0103045 -0.12306 129 126 78
-0.440111 0.0122427 -0.12461 127 125 78
-0.439851 0.0141159 -0.124852 124 125 77
-0.439998 0.0160334 -0.125753 128 128 81
-0.444308 0.0184329 -0.133406 126 130 83
-0.444891 0.0204536 -0.135033 123 124 82
-0.444199 0.0223232 -0.13459 126 126 78
-0.443932 0.024246 -0.134839 130 124 74
-0.442402 0.0259846 -0.133025 131 122 78
-0.440476 0.027642 -0.130555 124 125 83
-0.438982 0.0293439 -0.128787 120 125 84
-0.439947 0.0314488 -0.131047 118 125 78
-0.440095 0.0334281 -0.13197 129 123 73
-0.441489 0.0356507 -0.134951 126 123 74
-0.442481 0.0378231 -0.137277 123 123 71
-0.443484 0.0400202 -0.139628 126 124 77
-0.44536 0.0424269 -0.143435 125 123 74
-0.445087 0.0443937 -0.143689 119 124 78
-0.445681 0.0465619 -0.145385 117 122 79
-0.431219 0.0528752 -0.124712 118 117 69
-0.431346 0.0548582 -0.125604 116 115 74
-0.431473 0.0568493 -0.126499 119 114 70
-0.431991 0.0589653 -0.128055 120 114 70
-0.432119 0.0609762 -0.128959 114 114 71
-0.432248 0.0629954 -0.129867 109 113 76
-0.431984 0.0648949 -0.130112 110 115 71
-0.432113 0.0669269 -0.131024 113 112 68
-0.432241 0.0689671 -0.131939 113 111 71
-0.431584 0.0707386 -0.131516 115 109 73
-0.430929 0.0725051 -0.131095 117 107 68
-0.430275 0.0742667 -0.130676 116 107 68
-0.429624 0.0760234 -0.130259 116 107 67
-0.428591 0.0776263 -0.129183 116 110 65
-0.426054 0.0786193 -0.125517 113 113 67
-0.425419 0.0803453 -0.125115 111 109 69
-0.425159 0.0822213 -0.125358 110 108 69
-0.423787 0.0836267 -0.123677 108 110 69
-0.423528 0.0854956 -0.123919 104 107 68
-0.423268 0.0873657 -0.12416 103 106 64
-0.422642 0.0890713 -0.123764 104 102 63
-0.422018 0.0907723 -0.12337 105 95 63
-0.421758 0.0926398 -0.123611 98 74 51
-0.421136 0.0943344 -0.123217 69 36 27
-0.455699 -0.0337921 -0.136964 89 56 22
-0.455431 -0.0318633 -0.137214 106 74 47
-0.45471 -0.0298947 -0.136754 126 124 74
-0.453095 -0.0278624 -0.13489 130 126 74
-0.45194 -0.0258817 -0.133741 127 125 76
-0.451674 -0.0239689 -0.133989 129 126 79
-0.451408 -0.0220549 -0.134236 129 128 78
-0.451142 -0.0201397 -0.134484 125 124 81
-0.450876 -0.0182232 -0.134732 130 126 72
-0.448861 -0.016251 -0.132207 127 127 74
-0.448596 -0.0143459 -0.132454 129 127 78
-0.447898 -0.0124328 -0.132012 127 127 79
-0.447634 -0.0105286 -0.132259 125 131 76
-0.447369 -0.00862321 -0.132505 125 130 76
-0.447967 -0.00670949 -0.134133 124 129 80
-0.449006 -0.00477378 -0.136473 125 129 78
-0.441313 0.00451313 -0.12745 124 126 81
-0.439415 0.00628962 -0.125043 125 127 80
-0.43875 0.00812999 -0.124628 123 125 79
-0.438895 0.0100301 -0.125527 130 122 77
-0.439041 0.0119382 -0.12643 134 122 71
-0.439186 0.013854 -0.127336 126 128 74
-0.438925 0.0157351 -0.127579 121 126 83
-0.44196 0.0179904 -0.133218 124 120 78
-0.442532 0.0200023 -0.134839 122 124 79
-0.442686 0.021975 -0.135778 128 130 75
-0.442419 0.0238978 -0.136027 130 125 75
-0.440897 0.0256384 -0.134208 124 123 77
-0.439391 0.0273617 -0.132408 125 125 79
-0.437494 0.029002 -0.129956 122 121 81
-0.438861 0.0311752 -0.132901 124 123 82
-0.440246 0.0333806 -0.135889 125 120 76
-0.441231 0.0355397 -0.13822 119 125 75
-0.442226 0.0377233 -0.140577 120 125 76
-0.443661 0.0400197 -0.143674 121 120 76
-0.444681 0.042258 -0.146091 121 119 72
-0.444407 0.044232 -0.146346 112 119 76
-0.444566 0.0463072 -0.147329 112 122 75
-0.428607 0.0522262 -0.123923 118 118 67
-0.429877 0.0545226 -0.126758 118 114 72
-0.430001 0.0565132 -0.127656 116 113 76
-0.430901 0.0587447 -0.129878 119 112 72
-0.431028 0.0607588 -0.130787 111 116 72
-0.431939 0.0630306 -0.133041 109 115 83
-0.432068 0.0650688 -0.133963 110 113 76
-0.431802 0.0669828 -0.13421 111 110 68
-0.431143 0.0687627 -0.133783 114 110 66
-0.430485 0.0705376 -0.133357 114 110 67
-0.429442 0.072167 -0.132263 113 113 69
-0.428791 0.0739292 -0.131843 114 112 68
-0.428142 0.0756866 -0.131423 115 110 65
-0.427113 0.0772906 -0.130344 114 109 62
-0.424591 0.0782871 -0.126667 112 108 64
-0.423958 0.0800137 -0.126263 111 106 65
-0.422592 0.0814292 -0.124578 111 106 65
-0.422332 0.0832969 -0.12482 110 106 70
-0.421707 0.085007 -0.124423 106 103 71
-0.421448 0.086874 -0.124665 105 104 65
-0.421188 0.0887422 -0.124906 104 102 60
-0.420566 0.0904438 -0.12451 106 95 61
-0.419945 0.0921409 -0.124116 100 83 58
-0.419327 0.0938336 -0.123722 73 54 42
-0.453717 -0.0341027 -0.137456 90 55 22
-0.453 -0.0321347 -0.136997 101 67 46
-0.451841 -0.0301338 -0.135837 127 124 73
-0.45069 -0.0281461 -0.134685 126 125 77
-0.449984 -0.026203 -0.134235 125 125 77
-0.449719 -0.0242936 -0.134483 126 126 78
-0.449453 -0.022383 -0.134731 129 125 77
-0.449186 -0.0204712 -0.134978 127 125 81
-0.448484 -0.0185405 -0.13453 130 126 79
-0.447352 -0.0166012 -0.133392 129 129 77
-0.446657 -0.0146853 -0.132949 126 128 79
-0.446392 -0.0127823 -0.133196 129 129 82
-0.446127 -0.010878 -0.133443 126 128 81
-0.445862 -0.00897261 -0.133689 128 128 81
-0.445169 -0.00706882 -0.133248 125 126 77
-0.444904 -0.00516435 -0.133494 123 128 76
-0.447216 -0.00319997 -0.137918 122 128 79
-0.441896 0.00428386 -0.131989 118 128 82
-0.438345 0.00597453 -0.126863 118 126 82
-0.43768 0.00781868 -0.126444 125 126 80
-0.437823 0.00972167 -0.127348 124 130 79
-0.437966 0.0116325 -0.128256 127 125 77
-0.437705 0.0135124 -0.1285 123 126 77
-0.437443 0.0153934 -0.128743 125 126 76
-0.438807 0.0174585 -0.131674 129 127 72
-0.440606 0.0196043 -0.135335 122 125 75
-0.440339 0.0215191 -0.135583 120 129 78
-0.440488 0.0234923 -0.136522 124 127 74
-0.439805 0.0253524 -0.13608 125 122 73
-0.439124 0.0272072 -0.135639 120 128 77
-0.437627 0.0289235 -0.133832 122 129 84
-0.426395 0.0516865 -0.123783 117 115 67
-0.42879 0.0542955 -0.128569 117 115 74
-0.428528 0.056177 -0.128813 114 115 78
-0.429808 0.0585234 -0.131707 117 112 72
-0.431105 0.0609037 -0.134642 117 111 63
-0.431627 0.0630662 -0.136249 115 112 67
-0.430966 0.0648567 -0.135816 111 111 72
-0.430699 0.0667741 -0.136065 113 110 70
-0.43004 0.0685575 -0.135634 115 108 66
-0.429383 0.0703359 -0.135204 116 107 67
-0.427955 0.0718288 -0.133431 114 110 68
-0.427306 0.0735916 -0.133009 112 109 68
-0.426659 0.0753497 -0.132588 112 107 64
-0.425258 0.0768075 -0.130845 113 105 60
-0.423127 0.0779548 -0.127816 111 104 61
-0.422129 0.0795318 -0.126765 109 105 59
-0.421137 0.0810993 -0.125721 110 104 62
-0.420514 0.0828119 -0.125323 109 102 68
-0.420254 0.0846777 -0.125564 108 100 66
-0.419994 0.0865447 -0.125806 108 100 61
-0.419734 0.0884129 -0.126049 111 98 56
-0.419114 0.0901152 -0.125651 107 93 57
-0.418495 0.0918129 -0.125255 102 84 59
-0.417879 0.0935062 -0.12486 85 59 50
-0.449707 -0.0323187 -0.13538 96 67 38
-0.44944 -0.0304095 -0.135628 127 116 64
-0.448737 -0.0284635 -0.135177 125 122 74
-0.448036 -0.0265232 -0.134728 124 125 77
-0.447337 -0.0245887 -0.134281 126 124 76
-0.447071 -0.0226849 -0.134528 125 128 77
-0.446806 -0.0207799 -0.134775 122 127 82
-0.44611 -0.0188555 -0.134329 123 126 85
-0.445416 -0.0169367 -0.133885 124 128 78
-0.444725 -0.0150235 -0.133443 131 126 77
-0.44446 -0.0131239 -0.133689 131 129 80
-0.443772 -0.0112185 -0.133248 127 125 76
-0.442247 -0.00931645 -0.131445 126 128 84
-0.441983 -0.00742661 -0.13169 123 127 80
-0.440889 -0.0055467 -0.13058 124 124 84
-0.438577 -0.00370507 -0.127473 126 125 83
-0.438316 -0.00183479 -0.127716 123 130 83
-0.44123 0.00398256 -0.134536 121 126 82
-0.437271 0.00565832 -0.128688 124 126 76
-0.436606 0.00750627 -0.128266 126 127 82
-0.436345 0.00938048 -0.128509 122 126 81
-0.436083 0.0112559 -0.128753 125 127 71
-0.436223 0.0131706 -0.129664 125 128 77
-0.43596 0.0150517 -0.129908 119 127 70
-0.436099 0.0169789 -0.130822 122 122 74
-0.437456 0.0190601 -0.133774 117 123 80
-0.438419 0.0211191 -0.136077 121 123 77
-0.438564 0.0230881 -0.137016 125 123 72
-0.438297 0.0250055 -0.137265 125 126 69
-0.424715 0.0474506 -0.123163 121 116 72
-0.424457 0.0492999 -0.123403 116 115 72
-0.424941 0.0513542 -0.124925 114 115 74
-0.427318 0.0539592 -0.129725 116 114 72
-0.427056 0.0558409 -0.12997 110 111 72
-0.430662 0.0588888 -0.13693 115 114 69
-0.430789 0.060928 -0.137863 117 114 67
-0.432108 0.0633562 -0.140879 113 113 66
-0.431042 0.0650318 -0.139741 112 112 70
-0.429984 0.0666969 -0.138612 114 112 70
-0.428932 0.0683515 -0.137491 116 107 68
-0.427888 0.0699959 -0.136378 114 105 70
-0.426087 0.0713516 -0.133929 112 104 68
-0.425441 0.0731123 -0.133506 110 106 66
-0.424421 0.0747241 -0.132421 111 107 66
-0.423408 0.076326 -0.131343 114 104 63
-0.420931 0.077329 -0.127668 113 102 61
-0.420306 0.0790515 -0.127265 110 101 59
-0.419683 0.0807693 -0.126864 106 97 60
-0.419061 0.0824826 -0.126464 100 93 61
-0.418801 0.0843484 -0.126706 95 91 61
-0.418541 0.0862155 -0.126948 95 89 57
-0.41828 0.0880837 -0.127191 94 89 54
-0.417661 0.0897866 -0.126792 89 84 52
-0.417045 0.0914849 -0.126394 90 70 44
-0.416785 0.0933505 -0.126636 81 47 35
-0.44689 -0.0325429 -0.134478 95 66 42
-0.446625 -0.0306439 -0.134725 128 105 64
-0.446359 -0.0287437 -0.134972 127 121 75
-0.445665 -0.0268098 -0.134525 124 122 77
-0.444972 -0.0248817 -0.134081 125 122 74
-0.444707 -0.0229847 -0.134327 126 126 77
-0.444868 -0.0211086 -0.135267 121 127 79
-0.444176 -0.019187 -0.134821 125 125 79
-0.443487 -0.017271 -0.134377 127 127 77
-0.443221 -0.0153725 -0.134624 134 127 71
-0.442535 -0.0134643 -0.134182 126 128 74
-0.441016 -0.0115515 -0.132373 129 126 73
-0.439925 -0.00965943 -0.13126 127 126 78
-0.438433 -0.00778101 -0.129484 128 122 81
-0.437361 -0.00591626 -0.128391 128 123 81
-0.436696 -0.00405525 -0.127968 127 127 80
-0.436435 -0.0021882 -0.128211 122 126 81
-0.436174 -0.000319964 -0.128454 123 128 77
-0.439992 0.00173131 -0.135469 129 125 77
-0.439726 0.00363517 -0.135717 126 127 76
-0.436596 0.00536552 -0.131193 123 129 75
-0.435128 0.007165 -0.129427 127 128 78
-0.434468 0.00900834 -0.129005 123 128 79
-0.434206 0.0108805 -0.129248 121 122 72
-0.433944 0.0127539 -0.129492 120 123 78
-0.433287 0.0145879 -0.129071 122 129 72
-0.43342 0.0165042 -0.12998 121 127 73
-0.43435 0.0185234 -0.132235 120 126 76
-0.435693 0.0206168 -0.135197 126 120 77
-0.437056 0.0227411 -0.138201 123 123 78
-0.437198 0.0247178 -0.139146 119 120 75
-0.423524 0.0452712 -0.124061 113 117 78
-0.422532 0.0469305 -0.123026 113 114 76
-0.423008 0.0489687 -0.124542 114 116 75
-0.423487 0.0510219 -0.126068 110 114 72
-0.432194 0.0635223 -0.144882 112 111 69
-0.430721 0.0650783 -0.14302 113 108 69
-0.429658 0.0667521 -0.141874 113 107 69
-0.428211 0.0682798 -0.140044 112 103 67
-0.427165 0.0699302 -0.138919 111 102 67
-0.426126 0.0715703 -0.137801 106 100 62
-0.423959 0.0727752 -0.134671 99 98 62
-0.423317 0.0745317 -0.134249 94 95 68
-0.421935 0.0759913 -0.132501 94 91 65
-0.41911 0.0768523 -0.128167 96 86 52
-0.418849 0.0787209 -0.12841 93 82 46
-0.418588 0.0805906 -0.128653 86 78 50
-0.417967 0.0823071 -0.12825 80 75 52
-0.417348 0.084019 -0.127848 75 74 53
-0.417087 0.0858861 -0.128091 76 73 49
-0.416826 0.0877544 -0.128334 76 71 40
-0.416209 0.0894579 -0.127933 75 69 34
-0.415948 0.0913254 -0.128176 77 56 26
-0.415334 0.0930224 -0.127776 65 28 15
-0.444955 -0.0328508 -0.134967 95 64 37
-0.44469 -0.0309552 -0.135214 128 102 63
-0.444424 -0.0290584 -0.135461 129 120 74
-0.443733 -0.0271273 -0.135015 125 122 74
-0.443468 -0.0252315 -0.135262 125 123 71
-0.443202 -0.0233345 -0.135509 128 123 73
-0.442937 -0.0214362 -0.135756 126 126 77
-0.442671 -0.0195367 -0.136004 125 127 79
-0.441983 -0.0176201 -0.135558 128 127 78
-0.441299 -0.015709 -0.135114 126 128 78
-0.439786 -0.0137855 -0.133301 124 126 77
-0.43829 -0.011881 -0.131508 130 128 77
-0.437214 -0.00999774 -0.130404 125 124 75
-0.436145 -0.00812638 -0.129308 129 124 77
-0.435883 -0.00625844 -0.129551 126 127 76
-0.435221 -0.00439679 -0.129127 126 127 77
-0.43496 -0.00252969 -0.12937 126 125 79
-0.434698 -0.000661416 -0.129614 124 130 81
-0.439733 0.00143775 -0.138735 123 127 81
-0.438635 0.00330899 -0.137591 126 127 76
-0.437545 0.00516821 -0.136455 119 127 79
-0.434446 0.00687798 -0.131931 122 131 81
-0.433387 0.00869793 -0.130833 119 127 76
-0.432336 0.0105064 -0.129742 120 119 77
-0.431682 0.01234 -0.129322 118 120 83
-0.43142 0.0142081 -0.129565 123 124 76
-0.431158 0.0160774 -0.129808 118 124 79
-0.431679 0.0180407 -0.131385 121 126 76
-0.432996 0.0201197 -0.134326 122 122 76
-0.434332 0.0222292 -0.137308 120 119 76
-0.422851 0.0394026 -0.124477 114 115 71
-0.422226 0.0411626 -0.124078 119 113 66
-0.42124 0.0428305 -0.123045 119 111 66
-0.421346 0.0447584 -0.12392 115 111 72
-0.421088 0.0466003 -0.12416 112 111 72
-0.433916 0.0642144 -0.151847 95 97 68
-0.432006 0.0656553 -0.149198 91 91 68
-0.429328 0.0668078 -0.14517 91 88 65
-0.429055 0.0687539 -0.145423 88 86 61
-0.417654 0.0765216 -0.129311 77 69 39
-0.417392 0.0783902 -0.129555 74 66 39
-0.41713 0.08026 -0.129798 70 64 42
-0.416868 0.082131 -0.130042 70 63 37
-0.416249 0.0838462 -0.129637 68 64 35
-0.415987 0.0857165 -0.12988 68 62 38
-0.415725 0.087588 -0.130124 69 60 33
-0.415109 0.0892946 -0.12972 71 55 21
-0.414495 0.0909967 -0.129317 67 46 21
-0.414233 0.0928655 -0.129561 53 19 3
-0.443027 -0.0331577 -0.135455 92 62 36
-0.442761 -0.0312654 -0.135702 127 92 56
-0.442495 -0.0293719 -0.135949 130 121 71
-0.44223 -0.0274773 -0.136196 124 123 73
-0.441964 -0.0255814 -0.136444 122 123 74
-0.441278 -0.0236576 -0.135997 123 126 73
-0.441431 -0.021786 -0.136939 127 127 76
-0.441165 -0.0198865 -0.137186 124 126 75
-0.44048 -0.0179692 -0.136739 126 126 75
-0.439382 -0.0160445 -0.135603 123 125 79
-0.437882 -0.0141225 -0.133791 125 126 75
-0.435994 -0.0122134 -0.131324 129 126 80
-0.434929 -0.0103354 -0.130225 125 126 81
-0.434269 -0.00846902 -0.1298 126 126 80
-0.434007 -0.0066043 -0.130043 124 127 79
-0.433745 -0.00473839 -0.130286 126 126 75
-0.433484 -0.00287125 -0.13053 122 123 79
-0.437541 0.00298163 -0.139472 126 126 80
-0.436043 0.00482133 -0.137634 122 122 77
-0.43336 0.0065621 -0.133773 120 121 76
-0.432699 0.00841628 -0.133341 122 123 77
-0.431253 0.0101991 -0.131569 124 124 76
-0.430209 0.0120005 -0.130478 120 124 82
-0.42956 0.0138295 -0.130058 126 124 75
-0.429298 0.0156956 -0.130301 120 122 77
-0.429423 0.0176085 -0.13121 118 120 76
-0.421921 0.0353855 -0.125134 119 113 76
-0.421298 0.0371499 -0.124733 118 113 74
-0.420676 0.0389095 -0.124334 115 107 65
-0.419696 0.0405811 -0.123302 118 109 64
-0.419439 0.0424145 -0.123541 115 110 69
-0.419541 0.0443384 -0.124416 106 104 70
-0.430194 0.067271 -0.150662 75 68 47
-0.419556 0.0795577 -0.137319 68 61 29
-0.418922 0.0813044 -0.136895 69 59 28
-0.417562 0.0827317 -0.135137 70 55 22
-0.417297 0.0846232 -0.135384 67 56 28
-0.416671 0.086353 -0.134966 66 57 28
-0.414976 0.0875844 -0.132574 71 58 23
-0.414005 0.0891308 -0.131513 70 50 17
-0.413391 0.0908361 -0.131107 57 30 17
-0.412779 0.0925368 -0.130703 45 16 0
-0.441524 -0.0335077 -0.136636 90 60 30
-0.441258 -0.0316154 -0.136883 118 90 55
-0.440992 -0.029722 -0.13713 127 124 75
-0.440308 -0.0277931 -0.136683 127 121 75
-0.440042 -0.0259006 -0.13693 123 125 78
-0.43936 -0.0239796 -0.136484 121 124 76
-0.439509 -0.0221119 -0.137425 122 127 75
