ply
format ascii 1.0
element vertex 1241
property float x
property float y
property float z
property uchar diffuse_red
property uchar diffuse_green
property uchar diffuse_blue
end_header
-0.283002 0.0217096 0.206197 41 39 37
-0.282269 0.0224445 0.206618 42 40 38
-0.281877 0.0232749 0.206843 45 41 37
-0.281655 0.0241532 0.206971 45 41 37
-0.281601 0.0250816 0.207002 44 43 38
-0.281547 0.0260096 0.207033 45 43 40
-0.28183 0.0270449 0.206871 43 43 39
-0.281944 0.0280284 0.206805 39 41 36
-0.282909 0.0292936 0.206252 41 41 38
-0.282854 0.030227 0.206283 44 43 39
-0.2828 0.0311599 0.206315 42 45 42
-0.282236 0.0319163 0.206639 44 47 42
-0.281675 0.0326681 0.206961 47 50 42
-0.2648 -0.0636372 0.215643 167 100 79
-0.263531 -0.0625689 0.216378 130 86 71
-0.262281 -0.0615159 0.217103 96 64 51
-0.261571 -0.0605586 0.217514 83 50 40
-0.260218 -0.0595122 0.218299 70 58 48
-0.259525 -0.0585744 0.218701 67 50 37
-0.258456 -0.057591 0.219321 63 47 37
-0.257902 -0.0566873 0.219642 58 42 34
-0.257476 -0.0558057 0.219888 58 39 32
-0.257178 -0.054944 0.220061 62 42 37
-0.25688 -0.0540854 0.220234 75 63 47
-0.256459 -0.0532156 0.220478 56 54 48
-0.256288 -0.0523772 0.220578 44 28 24
-0.25624 -0.0515534 0.220605 43 31 24
-0.256069 -0.0507178 0.220705 39 26 25
-0.256144 -0.0499072 0.220661 39 27 25
-0.256097 -0.0490848 0.220689 40 31 24
-0.256297 -0.0482838 0.220573 37 29 25
-0.257121 -0.0475307 0.220095 39 31 26
-0.290924 0.00527556 0.200508 36 35 28
-0.290867 0.00625635 0.200541 37 34 27
-0.291178 0.00731298 0.20036 40 33 27
-0.291121 0.00829452 0.200394 41 33 29
-0.291065 0.00927556 0.200427 40 34 30
-0.291008 0.0102561 0.20046 41 37 31
-0.290951 0.0112361 0.200493 42 39 33
-0.291079 0.0122583 0.200419 42 39 33
-0.284256 0.0173938 0.204374 40 40 33
-0.284374 0.0183856 0.204306 41 38 33
-0.284319 0.0193309 0.204338 41 36 33
-0.284264 0.0202756 0.204369 42 37 31
-0.284209 0.0212199 0.204401 41 38 33
-0.282611 0.0217141 0.205327 40 39 39
-0.282048 0.0224991 0.205654 43 40 40
-0.281825 0.023381 0.205783 46 40 36
-0.281603 0.0242608 0.205912 45 43 36
-0.281549 0.0251909 0.205944 47 45 35
-0.281495 0.0261205 0.205975 48 44 39
-0.281441 0.0270497 0.206006 43 42 41
-0.281555 0.0280332 0.20594 42 43 35
-0.282008 0.02913 0.205678 47 43 40
-0.282464 0.0302321 0.205414 46 44 41
-0.282409 0.031165 0.205445 46 46 41
-0.282185 0.0320387 0.205575 46 49 42
-0.281792 0.0328509 0.205803 48 52 44
-0.264582 -0.0636617 0.214775 181 109 83
-0.263314 -0.0625923 0.215517 153 96 76
-0.262064 -0.0615383 0.216249 115 68 58
-0.261355 -0.0605801 0.216664 83 46 45
-0.260003 -0.0595327 0.217456 71 60 47
-0.259182 -0.0585755 0.217936 69 49 35
-0.257988 -0.0575744 0.218635 64 45 37
-0.257562 -0.0566883 0.218885 58 42 35
-0.257137 -0.0558066 0.219133 60 40 32
-0.256839 -0.0549449 0.219308 60 42 36
-0.256294 -0.0540565 0.219627 69 52 42
-0.255999 -0.0532022 0.2198 70 65 53
-0.255828 -0.0523644 0.2199 54 32 27
-0.25578 -0.0515411 0.219928 43 30 24
-0.255732 -0.0507184 0.219956 41 29 24
-0.255685 -0.049896 0.219984 40 30 23
-0.25576 -0.0490852 0.21994 38 31 22
-0.255836 -0.0482737 0.219895 34 30 26
-0.290332 0.00524268 0.199708 40 35 29
-0.290275 0.00622263 0.199741 37 35 29
-0.290402 0.00724013 0.199667 39 34 30
-0.290345 0.00821995 0.1997 40 35 32
-0.290289 0.00919923 0.199734 39 36 32
-0.290232 0.010178 0.199767 43 36 30
-0.290175 0.0111563 0.1998 45 38 32
-0.290119 0.012134 0.199833 45 40 33
-0.284846 0.0186258 0.20292 40 39 34
-0.28427 0.019431 0.203257 43 37 32
-0.284215 0.0203775 0.20329 44 40 32
-0.283987 0.0212738 0.203423 41 40 35
-0.283244 0.0220174 0.203858 40 39 38
-0.282336 0.0227048 0.20439 43 39 39
-0.282112 0.0235896 0.204521 47 41 36
-0.281888 0.0244724 0.204652 48 45 34
-0.281834 0.0254059 0.204684 47 45 36
-0.281274 0.0261786 0.205012 47 44 38
-0.28122 0.0271086 0.205043 40 45 41
-0.281166 0.0280381 0.205075 50 51 38
-0.281626 0.0319851 0.204806 47 52 44
-0.281403 0.0328561 0.204937 51 56 50
-0.2645 -0.0637094 0.213825 194 120 92
-0.263231 -0.0626379 0.214575 173 109 82
-0.261847 -0.0615607 0.215393 130 81 66
-0.261139 -0.0606016 0.215812 86 55 48
-0.259787 -0.0595532 0.216611 77 57 38
-0.258966 -0.0585951 0.217096 70 49 36
-0.257647 -0.0575754 0.217876 65 47 37
-0.257222 -0.0566893 0.218128 59 43 34
-0.256798 -0.0558076 0.218378 56 40 32
-0.256501 -0.0549458 0.218554 53 37 31
-0.255833 -0.0540425 0.218949 58 40 34
-0.255539 -0.0531888 0.219123 70 60 48
-0.255491 -0.0523651 0.219151 55 52 51
-0.255444 -0.0515418 0.219179 42 30 28
-0.255396 -0.050719 0.219207 41 32 24
-0.255348 -0.0498966 0.219235 40 29 21
-0.255424 -0.0490857 0.219191 39 30 23
-0.255623 -0.0482846 0.219073 38 33 26
-0.255946 -0.0474915 0.218882 39 29 28
-0.290038 0.00328447 0.198734 38 37 31
-0.289981 0.00426552 0.198768 40 36 31
-0.289559 0.0051737 0.199017 40 34 31
-0.289503 0.00615193 0.199051 38 33 31
-0.289811 0.00720557 0.198868 38 36 31
-0.289938 0.00822353 0.198794 40 40 33
-0.289881 0.00920288 0.198827 42 39 32
-0.289459 0.0101003 0.199077 44 38 32
-0.289403 0.0110768 0.19911 46 40 34
-0.289346 0.0120528 0.199144 46 42 33
-0.289472 0.0130717 0.199069 43 39 32
-0.285851 0.0190121 0.20121 42 40 33
-0.285268 0.0198221 0.201555 43 40 33
-0.28434 0.0205288 0.202103 43 41 33
-0.283765 0.0213279 0.202443 42 40 36
-0.283366 0.0221726 0.202679 42 40 37
-0.282796 0.0229628 0.203016 43 42 36
-0.28206 0.0236968 0.203451 44 44 37
-0.281836 0.0245812 0.203583 47 46 37
-0.281444 0.0254106 0.203815 47 46 39
-0.28139 0.0263437 0.203847 49 46 39
-0.280831 0.0271134 0.204178 48 50 43
-0.280777 0.028043 0.204209 62 59 46
-0.264145 -0.0637108 0.213035 205 127 97
-0.263013 -0.0626615 0.213711 187 119 88
-0.26163 -0.0615832 0.214536 144 96 77
-0.260922 -0.0606232 0.214959 93 66 55
-0.259571 -0.0595738 0.215765 79 51 35
-0.258879 -0.0586334 0.216178 70 49 37
-0.257432 -0.0575941 0.217042 65 46 36
-0.256882 -0.0566903 0.21737 61 44 36
-0.256459 -0.0558085 0.217623 57 43 36
-0.256162 -0.0549467 0.2178 52 38 30
-0.25525 -0.0540138 0.218345 53 38 33
-0.255079 -0.0531754 0.218446 66 51 43
-0.255032 -0.0523522 0.218475 66 65 56
-0.255107 -0.0515424 0.21843 48 32 31
-0.25506 -0.0507195 0.218458 41 32 27
-0.255135 -0.0499088 0.218413 42 33 25
-0.25521 -0.0490973 0.218368 41 30 21
-0.255533 -0.0483061 0.218176 42 27 24
-0.255609 -0.0474918 0.21813 40 28 26
-0.290421 0.00244075 0.197355 40 38 33
-0.289813 0.00332219 0.197718 39 38 32
-0.289209 0.00419827 0.198078 40 38 33
-0.289335 0.00521323 0.198003 40 36 33
-0.289278 0.00619241 0.198037 39 36 33
-0.289222 0.00717108 0.198071 41 39 31
-0.289165 0.00814922 0.198105 42 40 31
-0.289109 0.00912686 0.198138 42 37 32
-0.28887 0.0100633 0.198281 43 38 33
-0.288814 0.011039 0.198314 45 40 35
-0.288758 0.0120142 0.198348 43 41 36
-0.288883 0.0130322 0.198273 40 39 35
-0.288827 0.0140072 0.198307 42 41 34
-0.285451 0.0190164 0.200322 45 40 32
-0.28522 0.019924 0.200459 43 39 34
-0.284814 0.0207798 0.200702 42 39 34
-0.28337 0.0213324 0.201564 44 40 34
-0.283143 0.0222275 0.201699 44 42 35
-0.282917 0.0231205 0.201834 42 45 37
-0.282349 0.0239077 0.202173 42 46 38
-0.281784 0.0246903 0.202511 44 45 38
-0.281391 0.0255211 0.202745 48 49 39
-0.280999 0.0263485 0.202979 55 51 45
-0.280442 0.0271182 0.203312 66 60 55
-0.280221 0.027993 0.203444 63 59 51
-0.280341 0.0318199 0.203372 59 58 50
-0.280455 0.0328072 0.203304 52 55 50
-0.26379 -0.0637123 0.212245 214 131 100
-0.262795 -0.062685 0.212845 199 123 91
-0.261412 -0.0616057 0.213678 161 109 85
-0.260574 -0.0606245 0.214183 106 70 59
-0.259225 -0.059575 0.214996 78 43 37
-0.258534 -0.0586345 0.215412 68 53 42
-0.257217 -0.0576129 0.216206 66 45 37
-0.256667 -0.0567082 0.216538 61 44 37
-0.25612 -0.0558094 0.216867 58 44 32
-0.255453 -0.054901 0.217269 53 39 28
-0.254913 -0.0540146 0.217595 51 36 29
-0.254865 -0.0531903 0.217623 58 39 31
-0.254818 -0.0523665 0.217652 70 59 41
-0.254771 -0.0515431 0.21768 55 53 46
-0.254846 -0.0507325 0.217635 44 30 27
-0.254921 -0.0499211 0.21759 44 32 27
-0.255243 -0.0491312 0.217396 44 30 23
-0.255319 -0.0483171 0.21735 43 31 21
-0.289701 0.00139244 0.196631 43 37 33
-0.290011 0.00244394 0.196444 42 38 33
-0.289588 0.00336 0.196699 39 37 31
-0.289348 0.00430754 0.196843 39 36 31
-0.288927 0.00521662 0.197097 40 37 32
-0.288871 0.00619585 0.197131 40 38 33
-0.288815 0.00717459 0.197165 44 40 32
-0.288577 0.00811395 0.197309 44 39 30
-0.288339 0.00905109 0.197452 41 37 32
-0.288102 0.00998599 0.197595 40 37 34
-0.288046 0.01096 0.197628 42 38 35
-0.28799 0.0119334 0.197662 41 37 38
-0.287934 0.0129064 0.197696 41 38 37
-0.287338 0.0137472 0.198055 42 39 35
-0.287462 0.0147611 0.197981 40 40 35
-0.287406 0.0157307 0.198014 41 39 35
-0.28735 0.0166999 0.198048 42 41 32
-0.285868 0.0172921 0.198941 43 39 32
-0.285635 0.0182056 0.199081 43 41 35
-0.285228 0.0190688 0.199327 45 40 35
-0.284997 0.0199772 0.199466 44 41 34
-0.284766 0.0208835 0.199605 44 42 33
-0.283492 0.0214863 0.200373 45 42 33
-0.283093 0.0223331 0.200614 45 43 35
-0.282694 0.0231763 0.200854 44 43 37
-0.282468 0.0240681 0.20099 44 44 39
-0.281731 0.0247998 0.201434 48 49 43
-0.281338 0.0256319 0.201671 59 63 51
-0.280946 0.0264606 0.201907 71 62 58
-0.279885 0.0270689 0.202546 69 64 60
-0.279665 0.027943 0.202679 59 52 46
-0.279445 0.0288151 0.202812 56 54 50
-0.279558 0.0297977 0.202744 136 74 67
-0.279671 0.0307816 0.202675 140 87 73
-0.279785 0.0317668 0.202607 87 73 60
-0.2633 -0.0636906 0.211537 227 139 106
-0.262442 -0.0626864 0.212059 211 128 96
-0.261062 -0.061607 0.212898 180 118 89
-0.260225 -0.0606257 0.213407 126 76 64
-0.25888 -0.0595762 0.214226 82 41 38
-0.25819 -0.0586356 0.214646 69 53 36
-0.256875 -0.0576139 0.215446 69 45 34
-0.256326 -0.0567092 0.21578 64 45 35
-0.255533 -0.055778 0.216263 60 43 30
-0.255238 -0.0549174 0.216442 56 42 28
-0.254944 -0.0540598 0.216621 52 37 28
-0.254529 -0.0531911 0.216873 51 33 28
-0.254481 -0.0523672 0.216902 64 43 36
-0.254556 -0.0515567 0.216857 67 55 49
-0.254754 -0.0507577 0.216736 54 28 31
-0.254953 -0.0499569 0.216615 46 33 28
-0.255028 -0.0491428 0.216569 45 32 26
-0.255104 -0.048328 0.216523 43 32 22
-0.289715 0.000474772 0.195464 40 36 31
-0.289659 0.00146122 0.195498 41 35 32
-0.289969 0.00251486 0.195309 41 38 32
-0.289913 0.00350207 0.195344 40 39 31
-0.289306 0.00438182 0.195713 40 37 30
-0.288884 0.00529249 0.19597 42 37 31
-0.288464 0.00619931 0.196225 41 38 33
-0.288045 0.00710227 0.19648 43 38 32
-0.287989 0.00807876 0.196514 44 37 30
-0.287752 0.00901513 0.196658 42 38 33
-0.287516 0.00994928 0.196802 41 36 34
-0.28746 0.0109224 0.196836 41 37 35
-0.287404 0.0118951 0.19687 41 37 37
-0.286989 0.0127813 0.197122 43 38 35
-0.286576 0.0136637 0.197374 42 40 35
-0.28652 0.0146313 0.197407 40 42 35
-0.286465 0.0155983 0.197441 41 39 34
-0.286409 0.0165648 0.197475 44 39 32
-0.285466 0.0172963 0.198049 45 38 34
-0.285411 0.0182574 0.198082 44 41 38
-0.285179 0.0191696 0.198223 44 41 40
-0.284773 0.0200306 0.198471 45 43 36
-0.284367 0.020888 0.198718 44 43 34
-0.283789 0.0216914 0.199069 44 43 35
-0.283042 0.022439 0.199524 44 43 37
-0.282471 0.0232322 0.199871 47 44 41
-0.282245 0.0241248 0.200009 56 51 49
-0.281508 0.024857 0.200457 69 71 59
-0.280946 0.0256367 0.200799 86 80 65
-0.280555 0.0264654 0.201037 72 61 62
-0.27933 0.0270197 0.201782 64 53 48
-0.27911 0.0278932 0.201916 51 49 44
-0.279057 0.02882 0.201948 66 60 60
-0.279004 0.0297464 0.201981 104 92 86
-0.279117 0.0307294 0.201912 113 102 94
-0.27923 0.0317137 0.201843 89 76 73
-0.262945 -0.0636921 0.210747 236 147 113
-0.262089 -0.0626878 0.211273 223 136 104
-0.260712 -0.0616083 0.212118 203 128 96
-0.259877 -0.060627 0.212632 150 92 77
-0.258534 -0.0595774 0.213456 93 54 49
-0.257846 -0.0586367 0.213879 77 51 35
-0.256534 -0.057615 0.214685 70 44 34
-0.255737 -0.0566764 0.215175 63 49 35
-0.255317 -0.0557951 0.215432 58 44 34
-0.255146 -0.0549493 0.215537 56 42 33
-0.254852 -0.0540903 0.215718 52 34 32
-0.254559 -0.0532344 0.215898 48 34 29
-0.254512 -0.0524086 0.215927 56 38 32
-0.254587 -0.0515962 0.215881 72 59 45
-0.254785 -0.0507955 0.215759 55 46 45
-0.254861 -0.049981 0.215712 44 30 27
-0.254937 -0.0491657 0.215666 43 29 28
-0.255013 -0.0483496 0.215619 42 32 22
-0.255213 -0.0475428 0.215496 42 33 21
-0.291773 -0.000100337 0.193037 41 37 32
-0.289856 0.000574056 0.194214 42 36 30
-0.2898 0.0015633 0.194248 39 36 32
-0.290297 0.00265426 0.193943 38 37 32
-0.29024 0.00364521 0.193978 40 38 29
-0.289446 0.0044921 0.194466 41 36 31
-0.289023 0.00540515 0.194725 44 36 30
-0.288419 0.00627707 0.195096 41 37 30
-0.287819 0.00714366 0.195465 41 37 32
-0.287403 0.00804363 0.195721 44 37 30
-0.287167 0.00897924 0.195866 43 39 31
-0.287111 0.00995298 0.1959 42 36 32
-0.286876 0.010885 0.196044 42 38 34
-0.28682 0.0118568 0.196079 39 39 36
-0.286585 0.0127852 0.196223 41 40 33
-0.285995 0.0136241 0.196585 42 41 34
-0.285939 0.0145908 0.196619 41 41 34
-0.286597 0.0157389 0.196215 42 40 33
-0.286541 0.0167082 0.196249 42 39 35
-0.285951 0.0175351 0.196612 46 39 36
-0.285363 0.018357 0.196973 48 41 37
-0.284955 0.0192224 0.197224 45 42 39
-0.284724 0.0201333 0.197366 43 41 37
-0.283968 0.0208924 0.19783 42 41 37
-0.283565 0.0217462 0.198078 46 44 40
-0.283337 0.0226476 0.198218 51 49 44
-0.282591 0.0233914 0.198676 60 56 52
-0.282022 0.0241816 0.199026 75 67 63
-0.281285 0.0249144 0.199478 82 86 69
-0.280723 0.0256946 0.199823 70 63 58
-0.280332 0.026524 0.200064 64 49 46
-0.278941 0.0270246 0.200918 56 55 46
-0.278722 0.027898 0.201052 49 51 47
-0.278669 0.0288249 0.201085 63 60 60
-0.278616 0.0297514 0.201118 96 82 76
-0.278728 0.0307345 0.201048 105 93 79
-0.278841 0.0317188 0.200979 88 79 70
-0.261869 -0.0627114 0.210404 232 142 109
-0.260362 -0.0616096 0.211339 219 135 103
-0.259528 -0.0606283 0.211856 175 110 92
-0.25806 -0.0595592 0.212766 132 77 66
-0.257248 -0.0586007 0.21327 111 55 45
-0.255693 -0.0575455 0.214234 78 43 39
-0.255521 -0.0566943 0.214341 64 45 35
-0.255102 -0.0558122 0.214601 60 43 34
-0.254931 -0.0549657 0.214707 59 40 34
-0.25476 -0.054121 0.214812 57 37 31
-0.254589 -0.0532779 0.214918 52 38 28
-0.254542 -0.0524502 0.214947 55 35 28
-0.254495 -0.0516229 0.214977 69 45 39
-0.25457 -0.0508085 0.21493 60 55 51
-0.254646 -0.0499933 0.214883 48 28 25
-0.254599 -0.0491662 0.214912 43 32 26
-0.254674 -0.0483501 0.214865 42 31 26
-0.254874 -0.0475432 0.214741 43 31 25
-0.25495 -0.0467249 0.214694 41 29 24
-0.290797 -0.000192538 0.192461 41 37 30
-0.290369 0.000738695 0.192727 42 37 30
-0.290127 0.00169924 0.192877 38 37 32
-0.290255 0.00272597 0.192797 37 36 31
-0.290013 0.00368363 0.192947 41 35 29
-0.289587 0.00460299 0.193211 42 34 30
-0.288979 0.00548174 0.193588 43 35 31
-0.288557 0.00639251 0.19385 43 36 31
-0.287955 0.00726124 0.194223 42 38 33
-0.287357 0.00812469 0.194594 45 39 31
-0.286403 0.00890402 0.195185 43 41 31
-0.286169 0.00983586 0.19533 41 40 33
-0.286114 0.0108065 0.195365 41 37 35
-0.286058 0.0117766 0.195399 39 39 37
-0.285647 0.0126607 0.195654 40 40 33
-0.285591 0.013628 0.195688 42 39 37
-0.285536 0.0145948 0.195723 42 39 37
-0.286193 0.015743 0.195316 43 41 34
-0.286137 0.0167123 0.19535 43 42 34
-0.285548 0.0175393 0.195715 45 39 37
-0.285315 0.018457 0.19586 47 38 36
-0.284906 0.0193238 0.196113 45 42 39
-0.284499 0.0201869 0.196366 45 42 40
-0.283918 0.0209965 0.196726 49 45 43
-0.28334 0.0218011 0.197084 58 53 50
-0.283112 0.0227034 0.197225 68 63 58
-0.282885 0.0236035 0.197367 72 70 61
-0.281969 0.0242909 0.197934 66 63 59
-0.281231 0.0250246 0.198392 63 55 48
-0.280668 0.025806 0.198741 58 50 39
-0.280108 0.0265828 0.199088 57 51 43
-0.278552 0.0270294 0.200053 55 51 48
-0.278334 0.0279029 0.200188 53 54 45
-0.278281 0.0288299 0.200221 55 58 53
-0.278228 0.0297564 0.200254 66 69 68
-0.27834 0.0307395 0.200185 73 74 71
-0.278784 0.0318405 0.199909 74 74 68
-0.260012 -0.061611 0.210559 230 140 110
-0.25905 -0.0606092 0.211161 207 130 105
-0.257587 -0.059541 0.212076 186 117 92
-0.255774 -0.0584362 0.213212 150 91 74
-0.255352 -0.0575466 0.213475 87 51 50
-0.255181 -0.0566953 0.213583 65 39 33
-0.254886 -0.0558294 0.213767 62 42 35
-0.254592 -0.0549666 0.213952 59 42 34
-0.254544 -0.0541367 0.213981 55 40 31
-0.254497 -0.0533073 0.214011 52 40 29
-0.254449 -0.0524782 0.21404 49 33 27
-0.254402 -0.0516497 0.21407 57 37 33
-0.254355 -0.0508216 0.214099 70 52 41
-0.25443 -0.0500057 0.214052 49 30 30
-0.254506 -0.0491891 0.214004 41 33 28
-0.254582 -0.0483717 0.213957 43 31 26
-0.254658 -0.0475536 0.213909 42 34 25
-0.254611 -0.0467252 0.213939 39 31 26
-0.254564 -0.0458972 0.213968 41 30 25
-0.291229 -0.00509793 0.191011 41 35 30
-0.291171 -0.00409614 0.191047 42 36 30
-0.291677 -0.00300751 0.190731 43 36 30
-0.291432 -0.00203409 0.190884 40 36 29
-0.291 -0.00109394 0.191154 40 39 29
-0.290384 -0.000189514 0.19154 42 39 31
-0.289956 0.000741779 0.191808 42 37 31
-0.289899 0.00173575 0.191843 39 36 32
-0.289842 0.0027292 0.191879 38 37 30
-0.289601 0.00368691 0.19203 41 36 29
-0.289176 0.00460633 0.192296 42 35 31
-0.288752 0.00552184 0.192561 42 36 31
-0.28833 0.00643345 0.192825 43 37 31
-0.28791 0.00734116 0.193088 42 40 32
-0.28713 0.00816712 0.193576 44 39 33
-0.28582 0.00886833 0.194396 43 40 33
-0.28541 0.00975935 0.194653 41 42 34
-0.285 0.0106466 0.194909 41 37 34
-0.284945 0.0116133 0.194944 42 38 36
-0.284714 0.0125369 0.195089 43 40 35
-0.284659 0.0135017 0.195123 44 39 38
-0.284956 0.0145544 0.194937 42 40 37
-0.285078 0.0155652 0.19486 40 42 37
-0.2852 0.0165773 0.194784 44 43 35
-0.285144 0.0175435 0.194819 41 42 39
-0.285089 0.0185092 0.194853 42 42 41
-0.284681 0.0193768 0.195109 50 49 46
-0.284273 0.0202407 0.195364 56 54 53
-0.283868 0.021101 0.195618 67 60 57
-0.283289 0.0219069 0.19598 72 68 60
-0.282887 0.0227592 0.196231 63 67 61
-0.28266 0.0236602 0.196374 59 56 51
-0.281916 0.0244006 0.196839 56 50 40
-0.281177 0.0251353 0.197301 54 50 41
-0.280614 0.0259179 0.197654 53 49 41
-0.280221 0.02675 0.1979 55 52 46
-0.279663 0.0275238 0.19825 51 53 50
-0.27811 0.0279625 0.199221 45 54 45
-0.277892 0.0288348 0.199358 48 53 47
-0.278004 0.0298177 0.199287 58 60 56
-0.279785 0.0313804 0.198173 67 73 68
-0.280577 0.0326132 0.197677 71 79 74
-0.258702 -0.0606104 0.210385 230 142 112
-0.256356 -0.0594077 0.211867 221 140 109
-0.255432 -0.0584373 0.212451 174 118 97
-0.255012 -0.0575476 0.212717 99 66 64
-0.25484 -0.0566963 0.212825 68 34 31
-0.254546 -0.0558304 0.213011 64 43 33
-0.254375 -0.0549831 0.213119 61 42 35
-0.254205 -0.0541375 0.213226 57 38 31
-0.254158 -0.053308 0.213256 52 39 29
-0.25411 -0.0524789 0.213286 47 34 29
-0.254186 -0.0516634 0.213238 53 36 30
-0.254262 -0.0508471 0.21319 74 50 37
-0.254214 -0.0500181 0.21322 54 46 43
-0.25429 -0.0492009 0.213172 43 33 29
-0.254366 -0.0483828 0.213124 44 33 28
-0.254442 -0.047564 0.213076 43 34 26
-0.254395 -0.0467349 0.213105 40 33 28
-0.254348 -0.0459063 0.213135 39 32 26
-0.291 -0.00506804 0.189969 40 35 30
-0.290756 -0.00409338 0.190123 40 35 28
-0.290699 -0.00309204 0.190159 41 34 28
-0.290642 -0.00209125 0.190195 41 34 28
-0.290585 -0.00109098 0.190231 40 36 30
-0.290528 -9.12402e-05 0.190267 41 36 32
-0.289543 0.000744861 0.190889 41 35 33
-0.289486 0.0017389 0.190925 39 36 32
-0.289429 0.00273242 0.19096 38 38 30
-0.289188 0.00369019 0.191113 39 37 30
-0.288948 0.00464566 0.191264 40 36 31
-0.288708 0.00559885 0.191416 40 37 31
-0.288285 0.00651207 0.191683 41 38 31
-0.287864 0.00742139 0.191949 40 39 33
-0.287083 0.00824862 0.192442 40 38 34
-0.285238 0.00883271 0.193608 41 36 34
-0.284829 0.00972304 0.193867 43 40 33
-0.284598 0.0106503 0.194013 44 38 34
-0.284366 0.0115755 0.194159 44 39 36
-0.284311 0.0125408 0.194194 42 41 37
-0.284256 0.0135056 0.194228 42 41 34
-0.284377 0.0145142 0.194152 42 40 34
-0.284675 0.0155693 0.193964 40 39 40
-0.284973 0.0166277 0.193775 46 48 43
-0.284741 0.0175477 0.193922 53 53 48
-0.284686 0.0185135 0.193956 56 53 52
-0.284631 0.0194787 0.193991 69 63 55
-0.283872 0.0202451 0.194471 73 70 60
-0.283642 0.0211556 0.194616 65 64 60
-0.283412 0.0220639 0.194761 58 53 50
-0.282835 0.0228668 0.195125 53 50 41
-0.282781 0.0238216 0.19516 51 51 41
-0.282207 0.0246166 0.195522 51 51 41
-0.281465 0.0253532 0.195991 53 54 45
-0.280728 0.026084 0.196457 55 53 49
-0.280675 0.0270275 0.19649 57 55 52
-0.282759 0.0335265 0.195173 72 77 73
-0.255887 -0.0593897 0.211182 233 144 113
-0.255091 -0.0584384 0.211691 193 133 107
-0.254671 -0.0575487 0.211958 122 81 73
-0.2545 -0.0566973 0.212067 78 31 30
-0.254206 -0.0558313 0.212254 67 42 31
-0.254159 -0.0549996 0.212284 62 43 36
-0.253989 -0.0541533 0.212393 58 39 32
-0.253941 -0.0533231 0.212423 53 38 30
-0.253894 -0.0524934 0.212453 48 36 32
-0.25397 -0.0516772 0.212405 51 35 30
-0.253922 -0.0508477 0.212435 63 41 36
-0.253998 -0.0500305 0.212386 59 53 47
-0.254074 -0.0492126 0.212338 48 32 30
-0.25415 -0.0483939 0.212289 41 34 34
-0.254226 -0.0475744 0.212241 40 33 28
-0.254179 -0.0467446 0.212271 41 33 25
-0.254131 -0.0459153 0.212301 39 30 27
-0.254208 -0.0450947 0.212252 41 31 24
-0.290828 -0.00604242 0.188887 39 34 29
-0.290584 -0.00506534 0.189043 39 33 30
-0.290341 -0.0040906 0.189198 39 35 31
-0.290284 -0.00308922 0.189234 39 36 31
-0.290227 -0.00208834 0.189271 39 35 29
-0.29017 -0.00108801 0.189307 40 34 30
-0.289741 -0.000151779 0.18958 40 34 31
-0.28913 0.000747956 0.18997 39 35 32
-0.289073 0.00174206 0.190006 38 37 32
-0.288833 0.00270134 0.190159 37 38 31
-0.288776 0.00369348 0.190195 39 36 33
-0.288536 0.00464902 0.190348 40 35 32
-0.28848 0.00563918 0.190384 41 37 29
-0.28824 0.00659099 0.190537 40 38 31
-0.287819 0.0075019 0.190805 38 38 33
-0.286856 0.00829129 0.19142 39 39 32
-0.28626 0.00915236 0.1918 40 38 33
-0.284779 0.00980678 0.192744 43 39 33
-0.284195 0.0106541 0.193117 45 38 33
-0.28414 0.0116209 0.193152 45 39 35
-0.284085 0.0125871 0.193187 42 39 40
-0.28403 0.0135529 0.193222 42 44 41
-0.284151 0.0145625 0.193144 54 46 43
-0.284272 0.0155733 0.193067 59 54 51
-0.284924 0.0167248 0.192651 67 64 58
-0.284869 0.0176938 0.192686 82 72 59
-0.284991 0.0187106 0.192608 75 67 60
-0.284936 0.0196794 0.192643 65 60 54
-0.283821 0.0203485 0.193354 60 50 46
-0.283416 0.0212103 0.193612 55 45 44
-0.283186 0.0221194 0.193758 48 48 45
-0.283132 0.0230784 0.193793 47 51 45
-0.283077 0.0240368 0.193828 50 52 47
-0.282848 0.0249411 0.193974 49 53 46
-0.282794 0.0258976 0.194008 53 51 47
-0.282739 0.0268536 0.194043 54 55 47
-0.284974 0.0285483 0.192617 54 50 49
-0.284521 0.0333134 0.192905 72 76 71
-0.255544 -0.0593909 0.210418 233 142 114
-0.254749 -0.0584395 0.21093 206 136 108
-0.25433 -0.0575498 0.211199 148 91 79
-0.25416 -0.0566983 0.211309 86 36 36
-0.253989 -0.0558485 0.211419 63 40 30
-0.253819 -0.0550005 0.211528 62 45 36
-0.253772 -0.0541691 0.211558 59 39 32
-0.253725 -0.0533382 0.211589 55 38 30
-0.253677 -0.0525078 0.211619 51 37 32
-0.253753 -0.051691 0.21157 49 33 30
-0.253706 -0.0508608 0.2116 55 36 31
-0.253781 -0.050043 0.211551 66 51 37
-0.253734 -0.0492131 0.211582 50 28 29
-0.253933 -0.048405 0.211454 40 30 30
-0.254009 -0.0475848 0.211404 41 32 28
-0.253962 -0.0467544 0.211435 41 32 25
-0.253915 -0.0459244 0.211465 38 30 28
-0.253991 -0.0451031 0.211416 39 30 22
-0.290656 -0.0070193 0.187803 41 36 30
-0.290412 -0.00603979 0.18796 40 34 31
-0.290168 -0.00506264 0.188117 38 33 31
-0.290111 -0.00405971 0.188154 36 35 33
-0.289868 -0.00308638 0.18831 36 36 33
-0.289811 -0.00208545 0.188346 37 35 30
-0.289384 -0.00114676 0.188622 40 36 29
-0.288957 -0.000212083 0.188896 39 36 30
-0.288533 0.000718587 0.189169 36 36 31
-0.288476 0.00171184 0.189205 37 36 31
-0.28842 0.00270457 0.189241 39 36 32
-0.28818 0.00366163 0.189396 41 35 33
-0.288124 0.00465237 0.189432 40 36 31
-0.288068 0.0056426 0.189468 41 38 31
-0.287829 0.00659447 0.189621 41 38 31
-0.287773 0.00758272 0.189657 40 39 29
-0.286808 0.00837326 0.190278 41 41 30
-0.286211 0.00923575 0.190662 43 41 33
-0.285618 0.010093 0.191044 41 41 35
-0.285206 0.0109863 0.19131 42 38 36
-0.284088 0.0117081 0.192029 50 40 37
-0.284033 0.0126762 0.192064 57 47 47
-0.283978 0.0136438 0.1921 56 65 61
-0.28463 0.0147892 0.19168 78 67 65
-0.284574 0.0157593 0.191715 89 82 65
-0.284697 0.0167755 0.191637 78 81 69
-0.284819 0.017793 0.191558 69 66 59
-0.284942 0.0188118 0.191479 61 50 45
-0.285065 0.019832 0.191399 53 45 39
-0.284476 0.0206522 0.191778 50 48 41
-0.284599 0.0216712 0.191699 50 52 44
-0.284721 0.0226915 0.19162 50 55 45
-0.284666 0.0236602 0.191655 54 56 45
-0.284611 0.0246283 0.19169 53 58 45
-0.284556 0.025596 0.191726 47 56 47
-0.284679 0.0266188 0.191646 44 52 50
-0.284802 0.027643 0.191567 54 56 57
-0.285462 0.0288423 0.191142 64 64 63
-0.28476 0.0315718 0.191593 73 75 71
-0.284172 0.0323551 0.191972 71 74 70
-0.283764 0.0331952 0.192235 69 72 69
-0.255201 -0.0593921 0.209654 227 136 110
-0.254407 -0.0584406 0.210169 216 135 107
-0.25399 -0.0575508 0.21044 166 103 89
-0.253819 -0.0566992 0.210551 88 47 50
-0.253772 -0.0558657 0.210581 57 36 30
-0.253602 -0.055017 0.210692 60 43 35
-0.253555 -0.0541849 0.210722 57 40 33
-0.253508 -0.0533534 0.210753 56 38 30
-0.25346 -0.0525223 0.210783 53 39 31
-0.253413 -0.0516916 0.210814 51 35 31
-0.253489 -0.0508739 0.210764 52 35 29
-0.253442 -0.0500435 0.210795 62 45 34
-0.253517 -0.0492248 0.210746 46 36 35
-0.253716 -0.0484161 0.210616 41 30 27
-0.253792 -0.0475953 0.210567 40 34 26
-0.253745 -0.0467642 0.210597 40 33 24
-0.253698 -0.0459335 0.210628 40 29 27
-0.254021 -0.045128 0.210418 43 28 21
-0.254595 -0.0443346 0.210045 40 32 21
-0.290239 -0.00701675 0.186875 45 33 30
-0.289995 -0.00603717 0.187033 45 31 30
-0.289752 -0.00505995 0.187191 40 35 30
-0.289509 -0.00408508 0.187349 35 36 30
-0.289453 -0.00308354 0.187385 37 35 29
-0.289211 -0.0021125 0.187542 40 34 28
-0.288969 -0.0011438 0.187699 42 35 28
-0.288544 -0.000209057 0.187975 41 35 30
-0.28812 0.000721675 0.188251 39 36 30
-0.288064 0.00171499 0.188287 41 35 29
-0.287825 0.00267356 0.188442 42 35 30
-0.286859 0.00349015 0.18907 42 36 31
-0.286622 0.00444072 0.189223 39 38 31
-0.286747 0.00546212 0.189142 39 38 32
-0.287235 0.00656019 0.188825 41 38 33
-0.286455 0.0073936 0.189332 41 39 30
-0.286399 0.00837685 0.189368 41 40 34
-0.285803 0.0092394 0.189755 47 44 39
-0.28539 0.0101374 0.190023 54 48 42
-0.285156 0.011073 0.190175 55 52 50
-0.284745 0.0119641 0.190442 63 54 52
-0.28363 0.0126801 0.191167 78 63 56
-0.283575 0.0136477 0.191202 80 80 69
-0.284225 0.0147933 0.19078 70 72 72
-0.284524 0.0158549 0.190585 64 60 58
-0.284469 0.0168263 0.190621 59 50 48
-0.284769 0.0178926 0.190425 56 49 40
-0.28507 0.0189622 0.190229 52 50 39
-0.284659 0.0198364 0.190497 50 51 39
-0.28496 0.0209086 0.190301 52 51 38
-0.285084 0.0219326 0.19022 53 52 40
-0.285028 0.0229054 0.190256 54 54 44
-0.285152 0.0239311 0.190175 56 54 45
-0.285276 0.0249582 0.190095 53 56 46
-0.285221 0.0259312 0.19013 59 60 50
-0.285166 0.0269038 0.190166 65 66 60
-0.285111 0.0278758 0.190202 70 72 68
-0.285055 0.0288473 0.190237 70 74 68
-0.285 0.0298183 0.190273 71 74 70
-0.284767 0.0307289 0.190425 71 72 69
-0.284355 0.0315769 0.190692 69 71 67
-0.283945 0.0324213 0.190958 67 70 65
-0.255107 -0.0594315 0.208725 221 130 107
-0.254065 -0.0584417 0.209408 218 132 107
-0.253772 -0.0575695 0.209601 169 113 99
-0.253479 -0.0567002 0.209793 92 62 63
-0.253431 -0.0558667 0.209823 60 32 31
-0.253384 -0.0550335 0.209854 60 40 34
-0.253337 -0.0542008 0.209885 57 41 34
-0.25329 -0.0533686 0.209916 55 39 31
-0.253243 -0.0525368 0.209946 55 38 29
-0.253196 -0.0517054 0.209977 53 37 29
-0.253149 -0.0508745 0.210008 48 33 28
-0.253224 -0.050056 0.209958 51 38 34
-0.253423 -0.049248 0.209828 46 41 37
-0.253499 -0.0484272 0.209778 43 30 27
-0.253575 -0.0476057 0.209728 41 32 27
-0.253528 -0.0467739 0.209758 41 34 24
-0.253727 -0.0459603 0.209627 43 30 25
-0.254051 -0.045153 0.209415 42 28 25
-0.254377 -0.0443424 0.209201 40 31 23
-0.25433 -0.0435073 0.209232 38 28 24
-0.291324 -0.00680901 0.184962 44 33 29
-0.289393 -0.00606085 0.186228 44 33 29
-0.28915 -0.00508446 0.186387 41 35 28
-0.289094 -0.00408231 0.186424 38 36 28
-0.289037 -0.00308071 0.186461 40 35 28
-0.28898 -0.00207965 0.186498 41 35 29
-0.28813 -0.000206034 0.187055 41 35 32
-0.28716 0.000627769 0.187691 42 36 31
-0.28656 0.00151922 0.188084 44 36 30
-0.286268 0.00345865 0.188275 41 37 32
-0.285673 0.00433743 0.188666 37 39 34
-0.285617 0.0053196 0.188702 40 38 38
-0.286101 0.0064133 0.188384 51 41 43
-0.286045 0.00739714 0.188421 61 49 45
-0.28563 0.00830206 0.188693 63 56 53
-0.285395 0.00924305 0.188847 62 61 60
-0.285161 0.0101818 0.189 73 61 54
-0.284927 0.0111183 0.189153 75 68 58
-0.284516 0.0120102 0.189423 67 65 60
-0.28393 0.0128553 0.189807 63 57 52
-0.283523 0.013739 0.190074 59 46 43
-0.28382 0.0147973 0.189879 53 41 39
-0.284473 0.0159508 0.18945 48 43 41
-0.284953 0.0170651 0.189136 45 45 44
-0.284897 0.0180405 0.189172 46 50 45
-0.284842 0.0190154 0.189208 48 51 45
-0.284787 0.0199898 0.189244 52 49 43
-0.284732 0.0209637 0.189279 54 51 43
-0.285213 0.0220924 0.188963 50 52 46
-0.285158 0.0230679 0.188999 48 50 48
-0.285282 0.0240967 0.188918 56 56 51
-0.285227 0.0250721 0.188954 64 67 61
-0.285172 0.026047 0.18899 68 72 67
-0.285117 0.0270214 0.189026 69 74 68
-0.285241 0.0280527 0.188944 69 73 69
-0.285186 0.029027 0.18898 70 72 68
-0.284952 0.0299415 0.189134 69 70 68
-0.28436 0.030734 0.189521 67 69 66
-0.284127 0.0316426 0.189674 66 69 64
-0.253847 -0.0584612 0.208565 215 128 106
-0.253553 -0.0575881 0.20876 177 121 103
-0.253261 -0.0567182 0.208953 110 73 70
-0.253091 -0.0558676 0.209065 68 27 31
-0.253044 -0.0550344 0.209096 59 36 32
-0.252997 -0.0542016 0.209127 58 40 34
-0.25295 -0.0533693 0.209158 56 39 32
-0.252903 -0.0525375 0.209189 57 37 30
-0.252856 -0.0517061 0.20922 55 37 29
-0.252931 -0.0508876 0.20917 49 32 28
-0.253007 -0.0500684 0.20912 49 34 30
-0.253205 -0.0492598 0.208988 57 41 32
-0.253281 -0.0484384 0.208938 45 29 25
-0.253357 -0.0476162 0.208887 41 32 28
-0.253556 -0.0468028 0.208755 41 33 26
-0.253756 -0.0459873 0.208623 43 31 23
-0.253833 -0.0451615 0.208572 40 29 24
-0.25391 -0.0443349 0.20852 40 31 23
-0.253987 -0.0435074 0.208469 37 27 24
-0.266622 -0.0298756 0.200103 37 27 27
-0.266282 -0.0289886 0.200328 39 26 25
-0.266231 -0.0280949 0.200361 38 29 23
-0.266037 -0.0272075 0.20049 37 28 26
-0.288791 -0.0060845 0.185424 41 36 30
-0.288735 -0.00508176 0.185461 39 36 30
-0.288678 -0.00407955 0.185499 38 37 30
-0.288621 -0.00307788 0.185536 39 35 30
-0.284473 -0.000762772 0.188281 38 37 34
-0.284418 0.000216679 0.188318 40 36 33
-0.284963 0.00328904 0.187956 52 44 44
-0.284907 0.00426999 0.187993 61 52 47
-0.285209 0.00532298 0.187793 67 59 58
-0.285691 0.00641676 0.187473 76 67 69
-0.285636 0.00740067 0.18751 88 69 65
-0.28558 0.00838404 0.187546 93 77 66
-0.285166 0.00928671 0.18782 75 72 66
-0.284932 0.0102263 0.187975 61 56 52
-0.284877 0.0112055 0.188011 59 47 44
-0.284643 0.0121414 0.188166 58 43 38
-0.284055 0.0129886 0.188555 50 45 40
-0.284 0.0139625 0.188591 43 46 39
-0.284656 0.0151167 0.188157 44 47 40
-0.285496 0.0163256 0.1876 47 46 40
-0.285441 0.0173061 0.187637 46 48 43
-0.285026 0.0181893 0.187911 47 49 45
-0.284971 0.019167 0.187947 50 49 47
-0.284737 0.0200941 0.188102 49 50 49
-0.284861 0.0211208 0.18802 50 54 51
-0.285164 0.0222009 0.187819 57 60 54
-0.285109 0.0231783 0.187855 63 67 60
-0.285054 0.0241552 0.187891 66 72 66
-0.284999 0.0251316 0.187928 69 74 70
-0.285123 0.0261632 0.187845 72 73 70
-0.285248 0.0271962 0.187762 72 74 67
-0.285193 0.0281729 0.187798 68 73 67
-0.285138 0.029149 0.187835 67 70 66
-0.285082 0.0301246 0.187871 65 67 64
-0.284668 0.0309791 0.188145 65 66 64
-0.253628 -0.0584806 0.207721 212 122 102
-0.253335 -0.0576068 0.207917 190 123 102
-0.25292 -0.0567192 0.208194 132 76 70
-0.252873 -0.0558848 0.208225 75 28 32
-0.252703 -0.0550353 0.208338 55 34 30
-0.252657 -0.0542024 0.208369 59 39 33
-0.25261 -0.0533701 0.2084 57 38 33
-0.252685 -0.052552 0.20835 56 38 31
-0.252638 -0.0517199 0.208381 56 38 30
-0.252713 -0.0509008 0.208331 50 33 30
-0.252789 -0.0500809 0.20828 49 32 29
-0.252987 -0.0492716 0.208147 63 39 29
-0.253063 -0.0484496 0.208097 46 34 29
-0.253385 -0.047647 0.207881 42 31 28
-0.253461 -0.0468222 0.20783 42 31 27
-0.253538 -0.0459965 0.207778 42 31 20
-0.253615 -0.04517 0.207727 39 31 22
-0.253568 -0.044335 0.207758 38 30 22
-0.253645 -0.0435075 0.207707 37 30 26
-0.266158 -0.0307738 0.199345 37 31 26
-0.265964 -0.0298819 0.199474 38 29 27
-0.265769 -0.0289919 0.199604 40 27 27
-0.265719 -0.0280989 0.199637 42 32 25
-0.265669 -0.0272064 0.199671 40 27 24
-0.265618 -0.0263143 0.199704 42 29 21
-0.264219 -0.0192808 0.200637 45 32 29
-0.264169 -0.0183981 0.20067 44 29 30
-0.288319 -0.00507907 0.184536 37 37 31
-0.281449 -0.00121242 0.189124 45 42 44
-0.281051 -0.000307327 0.189389 62 52 44
-0.280997 0.00065668 0.189425 66 58 53
-0.283021 0.00201156 0.188073 67 64 66
-0.284022 0.00318933 0.187404 75 71 69
-0.283967 0.00416765 0.18744 89 75 66
-0.2848 0.00532638 0.186884 98 81 67
-0.285282 0.00642023 0.186562 87 81 71
-0.286308 0.00763568 0.185876 70 63 62
-0.286072 0.00858492 0.186034 64 53 52
-0.286016 0.0095724 0.186071 58 43 42
-0.286141 0.0106009 0.185987 51 43 37
-0.286086 0.0115882 0.186023 48 45 37
-0.285668 0.0124884 0.186302 51 45 39
-0.285073 0.0133409 0.186699 48 47 42
-0.285919 0.0145471 0.186134 49 50 41
-0.286044 0.0155785 0.18605 46 49 42
-0.28617 0.0166113 0.185966 46 48 45
-0.285391 0.0174056 0.186486 46 49 45
-0.284976 0.0182904 0.186763 47 49 47
-0.284921 0.0192699 0.1868 56 55 48
-0.284687 0.0201987 0.186956 64 63 53
-0.284811 0.0212274 0.186873 65 68 62
-0.284935 0.0222576 0.18679 67 73 68
-0.28488 0.023236 0.186826 70 75 67
-0.284825 0.0242138 0.186863 72 74 67
-0.285671 0.025467 0.186297 72 72 67
-0.285797 0.0265048 0.186213 69 72 66
-0.285742 0.0274865 0.186249 67 69 64
-0.285686 0.0284678 0.186286 64 68 65
-0.285631 0.0294485 0.186323 63 66 64
-0.285395 0.0303687 0.18648 63 65 63
-0.253656 -0.0585369 0.206709 209 116 97
-0.253116 -0.0576256 0.207073 199 121 98
-0.252701 -0.0567371 0.207353 150 86 76
-0.252532 -0.0558858 0.207466 79 37 39
-0.252485 -0.0550518 0.207498 52 31 25
-0.252438 -0.0542183 0.207529 58 39 30
-0.252391 -0.0533853 0.20756 54 40 32
-0.252344 -0.0525527 0.207592 53 38 32
-0.252419 -0.0517337 0.207541 54 37 29
-0.252373 -0.0509014 0.207572 49 35 29
-0.252693 -0.0501054 0.207356 47 32 29
-0.252768 -0.0492835 0.207305 54 34 31
-0.25309 -0.0484824 0.207088 46 41 37
-0.253166 -0.0476576 0.207036 42 30 25
-0.253366 -0.0468416 0.206901 44 31 23
-0.253319 -0.0460057 0.206933 43 29 20
-0.253272 -0.0451702 0.206964 40 32 23
-0.253225 -0.0443351 0.206996 39 28 23
-0.253302 -0.0435076 0.206944 37 30 25
-0.265847 -0.0343596 0.198485 39 28 24
-0.265797 -0.0334629 0.198519 39 28 24
-0.265746 -0.0325667 0.198553 39 31 27
-0.26584 -0.0316689 0.198489 39 29 24
-0.265789 -0.0307729 0.198523 39 29 24
-0.265595 -0.029881 0.198654 42 28 25
-0.265401 -0.028991 0.198784 42 27 26
-0.265351 -0.0280979 0.198818 43 30 27
-0.265301 -0.0272053 0.198852 41 28 25
-0.265538 -0.0263001 0.198692 43 28 22
-0.265631 -0.0253998 0.198628 39 27 24
-0.265581 -0.0245064 0.198662 41 27 23
-0.265243 -0.0236309 0.198889 41 27 23
-0.265193 -0.02274 0.198923 40 29 25
-0.264472 -0.0201163 0.199409 45 30 26
-0.263431 -0.0193157 0.20011 45 32 29
-0.263381 -0.018435 0.200143 45 30 30
-0.263472 -0.0175413 0.200081 43 33 28
-0.281673 -0.00305937 0.187809 61 52 50
-0.281102 -0.00217632 0.188194 59 58 63
-0.280705 -0.00126891 0.188461 65 63 65
-0.280139 -0.000395674 0.188843 84 71 62
-0.279915 0.000534599 0.188993 94 80 65
-0.279861 0.00149471 0.189029 88 80 70
-0.282561 0.0029883 0.187209 77 77 72
-0.28356 0.00417096 0.186535 68 66 61
-0.284392 0.00532977 0.185974 67 53 48
-0.285411 0.0065364 0.185287 63 43 39
-0.285897 0.00763922 0.184959 54 39 33
-0.28566 0.00858854 0.185118 48 42 37
-0.285605 0.00957608 0.185155 45 46 43
-0.285911 0.0106462 0.184949 48 49 41
-0.285855 0.0116345 0.184986 48 46 41
-0.2858 0.0126223 0.185023 49 46 40
-0.285563 0.0135653 0.185182 46 48 42
-0.285688 0.0145964 0.185098 48 54 39
-0.285633 0.0155826 0.185135 47 53 43
-0.285759 0.0166155 0.18505 45 50 48
-0.285522 0.0175535 0.185209 53 55 50
-0.284926 0.0183918 0.185611 62 65 58
-0.284512 0.0192742 0.185889 66 71 65
-0.284815 0.0203541 0.185685 68 72 68
-0.28476 0.0213345 0.185721 70 71 68
-0.284705 0.0223144 0.185758 70 72 68
-0.28465 0.0232937 0.185795 70 73 67
-0.285678 0.024599 0.185102 71 70 65
-0.286168 0.0257502 0.184771 68 68 63
-0.286295 0.0267931 0.184685 66 66 62
-0.28624 0.0277795 0.184723 63 66 61
-0.286002 0.0287067 0.184883 62 65 63
-0.285946 0.0296911 0.18492 62 66 63
-0.253436 -0.0585565 0.205861 208 113 95
-0.252774 -0.0576266 0.206311 203 114 94
-0.252482 -0.0567551 0.20651 154 94 84
-0.252313 -0.0559031 0.206624 79 51 49
-0.252144 -0.0550527 0.206739 51 29 21
-0.252097 -0.0542192 0.20677 56 37 26
-0.252051 -0.053386 0.206802 56 41 31
-0.252126 -0.0525672 0.206751 54 37 32
-0.252079 -0.0517344 0.206782 52 37 29
-0.252154 -0.0509146 0.206731 51 36 28
-0.252474 -0.050118 0.206513 47 31 27
-0.252795 -0.0493182 0.206295 47 31 31
-0.252871 -0.0484936 0.206243 51 38 36
-0.253071 -0.0476784 0.206107 44 30 24
-0.253147 -0.0468515 0.206054 45 32 22
-0.2531 -0.0460149 0.206086 44 28 21
-0.253053 -0.0451787 0.206118 42 31 22
-0.253006 -0.0443429 0.206149 39 28 25
-0.265385 -0.0352554 0.197727 41 27 26
-0.265334 -0.0343589 0.197761 39 27 25
-0.265284 -0.0334629 0.197795 41 28 23
-0.265234 -0.0325674 0.197829 39 28 27
-0.265327 -0.0316702 0.197765 41 27 24
-0.265277 -0.0307749 0.197799 44 31 25
-0.265226 -0.02988 0.197833 40 26 25
-0.265176 -0.0289857 0.197867 43 27 26
-0.265269 -0.0280868 0.197803 45 29 26
-0.265219 -0.0271926 0.197837 41 27 27
-0.265313 -0.0262924 0.197773 40 26 26
-0.265263 -0.0253985 0.197807 39 26 24
-0.265212 -0.0245051 0.197841 42 25 22
-0.264347 -0.0218784 0.198429 46 30 25
-0.264297 -0.0209906 0.198463 45 29 27
-0.264105 -0.0201147 0.198593 45 31 29
-0.263348 -0.0192897 0.199108 45 33 28
-0.263017 -0.0184333 0.199333 47 32 29
-0.263108 -0.0175395 0.19927 46 33 27
-0.281671 -0.00397242 0.18664 76 58 51
-0.280926 -0.00311282 0.187146 82 65 57
-0.280188 -0.00225991 0.187649 78 68 64
-0.279793 -0.00135475 0.187917 71 66 63
-0.279569 -0.000423028 0.188069 63 58 56
-0.279346 0.000506503 0.18822 61 54 51
-0.279292 0.00146582 0.188256 60 47 47
-0.281462 0.00285656 0.18678 56 41 42
-0.283153 0.00417427 0.18563 48 41 38
-0.283983 0.00533316 0.185065 45 41 35
-0.28482 0.00650224 0.184495 45 42 34
-0.284765 0.00748816 0.184532 45 44 34
-0.284889 0.00851301 0.184448 48 47 36
-0.284834 0.00949879 0.184485 44 48 45
-0.284958 0.0105254 0.1844 45 44 46
-0.285263 0.0115958 0.184193 49 44 40
-0.285388 0.0126262 0.184107 47 48 44
-0.285332 0.0136136 0.184145 42 49 48
-0.285639 0.0146912 0.183936 48 52 47
-0.286128 0.0158188 0.183602 58 59 57
-0.285528 0.0166669 0.184011 64 67 63
-0.285291 0.0176058 0.184171 66 70 64
-0.285236 0.0185915 0.184209 67 70 65
-0.284461 0.0193775 0.184736 69 72 67
-0.28691 0.0251004 0.183068 66 67 64
-0.286854 0.0260926 0.183106 64 66 63
-0.286798 0.0270842 0.183144 63 66 62
-0.286743 0.0280753 0.183181 63 66 61
-0.253216 -0.0585761 0.205012 211 112 95
-0.252554 -0.0576454 0.205466 203 108 90
-0.25214 -0.0567561 0.205749 160 100 87
-0.251972 -0.055904 0.205865 93 61 55
-0.251803 -0.0550536 0.20598 57 25 22
-0.251757 -0.05422 0.206012 52 33 26
-0.251831 -0.0534013 0.20596 57 38 31
-0.251785 -0.0525679 0.205992 55 37 32
-0.25186 -0.0517482 0.20594 51 38 31
-0.252057 -0.0509404 0.205805 50 36 29
-0.252499 -0.0501547 0.205501 48 31 28
-0.252575 -0.0493302 0.205448 48 32 30
-0.252775 -0.0485157 0.205311 58 35 31
-0.252851 -0.047689 0.205259 44 30 25
-0.252927 -0.0468614 0.205206 43 29 22
-0.252881 -0.0460241 0.205238 44 27 21
-0.252834 -0.0451872 0.20527 40 30 22
-0.252787 -0.0443508 0.205302 37 32 27
-0.264923 -0.0361503 0.19697 40 27 26
-0.264873 -0.035254 0.197004 40 28 28
-0.264822 -0.0343582 0.197038 39 26 27
-0.264629 -0.0334635 0.19717 44 30 23
-0.264722 -0.032568 0.197106 41 29 24
-0.264958 -0.0316694 0.196944 43 28 24
-0.264908 -0.030774 0.196978 45 31 25
-0.265001 -0.0298756 0.196914 42 28 23
-0.264951 -0.0289804 0.196948 44 26 25
-0.264901 -0.0280857 0.196982 46 29 23
-0.265281 -0.0271741 0.196721 42 30 23
-0.265231 -0.0262782 0.196755 42 30 26
-0.280524 -0.00311001 0.186251 58 45 43
-0.279447 -0.00231444 0.18699 56 40 41
-0.279224 -0.00138129 0.187143 53 36 37
-0.27917 -0.000420044 0.18718 46 36 36
-0.279116 0.000540697 0.187216 42 39 37
-0.280596 0.00179164 0.1862 43 42 38
-0.282801 0.00319906 0.184687 43 43 38
-0.283629 0.00435405 0.184118 42 43 41
-0.284465 0.00551919 0.183544 42 45 40
-0.28441 0.00650571 0.183581 43 44 39
-0.284354 0.0074917 0.183619 46 45 38
-0.284478 0.00851662 0.183534 49 50 36
-0.284423 0.00950248 0.183571 49 47 41
-0.284547 0.0105292 0.183486 44 47 49
-0.284851 0.0115997 0.183277 47 48 48
-0.285337 0.0127172 0.182943 58 55 53
-0.288407 0.0144759 0.180835 63 64 59
-0.288351 0.0154805 0.180874 65 68 64
-0.288669 0.0267841 0.180652 61 66 62
-0.252211 -0.0576465 0.204703 204 110 91
-0.251921 -0.0567742 0.204904 172 104 86
-0.25163 -0.0559049 0.205105 115 60 56
-0.251584 -0.0550702 0.205137 65 25 27
-0.251537 -0.0542359 0.205169 48 31 26
-0.25149 -0.053402 0.205201 54 36 32
-0.251565 -0.0525825 0.205149 54 38 32
-0.25164 -0.0517621 0.205097 52 35 31
-0.251837 -0.0509536 0.20496 49 33 32
-0.25228 -0.0501673 0.204653 48 33 32
-0.252478 -0.0493536 0.204515 48 33 31
-0.252555 -0.048527 0.204462 54 37 32
-0.252631 -0.0476996 0.204409 42 34 29
-0.252708 -0.0468714 0.204356 41 29 21
-0.252661 -0.0460333 0.204388 42 27 22
-0.252614 -0.0451957 0.20442 38 31 23
-0.25269 -0.0443663 0.204367 36 30 27
-0.264411 -0.0361483 0.196247 40 29 25
-0.264219 -0.0352518 0.19638 41 29 27
-0.263885 -0.0343572 0.196611 40 27 24
-0.263835 -0.0334647 0.196645 44 30 22
-0.264069 -0.03257 0.196483 39 27 23
-0.264304 -0.0316728 0.19632 42 27 23
-0.264539 -0.0307732 0.196157 42 29 23
-0.264632 -0.0298746 0.196092 42 28 21
-0.264582 -0.0289794 0.196127 41 28 25
-0.264962 -0.0280695 0.195863 44 32 24
-0.28562 0.00685053 0.181545 43 42 40
-0.285383 0.0078057 0.181709 43 47 44
-0.285327 0.00879857 0.181747 50 46 44
-0.285272 0.0097909 0.181785 57 56 47
-0.285216 0.0107827 0.181823 61 62 57
-0.285705 0.0119027 0.181484 61 67 64
-0.289169 0.0137465 0.179085 65 71 64
-0.28949 0.0148506 0.178862 67 69 67
-0.289434 0.0158629 0.178901 68 70 69
-0.289566 0.0169234 0.178809 67 70 68
-0.251991 -0.0576653 0.203855 208 116 96
-0.251579 -0.0567752 0.204143 191 111 91
-0.25141 -0.0559222 0.20426 137 73 69
-0.251243 -0.0550711 0.204377 71 36 37
-0.251196 -0.0542367 0.204409 47 32 23
-0.251271 -0.0534173 0.204357 53 36 28
-0.251345 -0.052597 0.204304 55 36 31
-0.25142 -0.051776 0.204252 53 32 29
-0.251739 -0.0509796 0.204029 50 32 32
-0.252182 -0.0501921 0.203719 49 33 33
-0.252258 -0.0493656 0.203665 47 32 30
-0.252334 -0.0485383 0.203612 45 35 31
-0.252411 -0.0477102 0.203558 43 38 32
-0.252487 -0.0468813 0.203505 40 27 22
-0.25244 -0.0460426 0.203537 39 29 25
-0.252394 -0.0452043 0.203569 36 31 24
-0.252347 -0.0443665 0.203602 35 29 25
-0.263901 -0.0361462 0.195526 40 28 24
-0.263285 -0.0352479 0.195956 41 28 25
-0.263094 -0.0343562 0.196089 42 27 22
-0.263045 -0.0334659 0.196123 43 28 22
-0.263136 -0.0325747 0.196059 41 29 24
-0.263793 -0.0316741 0.195599 43 29 24
-0.26417 -0.0307723 0.195336 41 28 24
-0.264263 -0.0298737 0.195271 41 27 22
-0.264213 -0.0289785 0.195305 41 29 26
-0.28871 0.00759381 0.178175 54 50 47
-0.288654 0.00860611 0.178214 61 59 54
-0.289162 0.00974289 0.177858 65 65 63
-0.289673 0.0108856 0.177501 65 67 65
-0.289616 0.0119021 0.17754 67 69 64
-0.290321 0.0130985 0.177047 68 71 65
-0.290839 0.0142569 0.176685 67 73 63
-0.290782 0.0152786 0.176724 68 71 65
-0.290725 0.0162997 0.176764 68 71 65
-0.290668 0.0173203 0.176803 65 68 64
-0.291189 0.0184921 0.176439 63 66 64
-0.251892 -0.0577019 0.20292 213 118 97
-0.251358 -0.0567932 0.203296 208 119 98
-0.25119 -0.0559396 0.203414 152 95 84
-0.251022 -0.0550877 0.203532 77 52 48
-0.250976 -0.0542526 0.203564 49 31 22
-0.25105 -0.0534325 0.203512 53 34 25
-0.251004 -0.0525977 0.203544 55 35 28
-0.2512 -0.05179 0.203405 53 33 28
-0.251519 -0.0509929 0.203181 50 33 28
-0.251839 -0.0501926 0.202955 48 33 29
-0.252037 -0.0493776 0.202814 46 31 27
-0.251991 -0.0485387 0.202847 46 31 28
-0.252067 -0.0477106 0.202793 52 36 29
-0.252143 -0.0468816 0.202739 42 25 24
-0.252096 -0.0460428 0.202771 36 28 28
-0.25205 -0.0452045 0.202804 37 28 24
-0.252003 -0.0443666 0.202837 36 28 24
-0.289287 0.0067788 0.176533 63 66 61
-0.289041 0.00775655 0.176706 66 71 63
-0.288796 0.00873189 0.176879 65 68 64
-0.289496 0.00991442 0.176385 67 65 68
-0.29001 0.0110621 0.176022 66 69 67
-0.290527 0.0122158 0.175657 67 69 65
-0.290662 0.0132843 0.175562 67 68 63
-0.290413 0.0142609 0.175737 65 68 63
-0.290356 0.0152827 0.175776 63 67 62
-0.290299 0.0163039 0.175816 63 66 63
-0.251137 -0.0568113 0.202448 215 119 99
-0.250969 -0.0559569 0.202567 166 111 94
-0.250923 -0.0551201 0.202599 93 64 56
-0.250755 -0.0542686 0.202718 57 29 23
-0.250709 -0.0534333 0.202751 53 32 24
-0.250783 -0.0526123 0.202698 55 33 26
-0.250979 -0.0518039 0.202558 53 32 27
-0.251298 -0.0510062 0.202331 51 33 27
-0.251618 -0.0502053 0.202103 47 33 27
-0.251694 -0.0493781 0.202049 43 31 27
-0.251647 -0.0485391 0.202082 49 33 27
-0.251723 -0.0477109 0.202027 62 38 27
-0.251799 -0.0468819 0.201973 44 28 27
-0.251752 -0.0460431 0.202006 37 28 27
-0.251706 -0.0452047 0.202038 39 27 24
-0.251659 -0.0443667 0.202071 39 28 24
-0.288863 0.00678232 0.17559 66 68 64
-0.288618 0.00776013 0.175764 68 66 65
-0.288561 0.00877642 0.175804 68 69 64
-0.289071 0.00991817 0.175441 67 67 64
-0.289584 0.0110659 0.175076 65 66 66
-0.290484 0.0123091 0.174435 64 67 65
-0.290619 0.0133797 0.174339 64 64 64
-0.251037 -0.0568465 0.201511 221 126 106
-0.250748 -0.0559743 0.201718 183 122 101
-0.250581 -0.055121 0.201838 119 67 62
-0.250534 -0.0542846 0.201871 70 27 28
-0.250488 -0.0534486 0.201903 52 32 25
-0.250562 -0.052627 0.20185 52 33 25
-0.250758 -0.0518179 0.201709 52 32 26
-0.250955 -0.0510068 0.201567 51 31 26
-0.251274 -0.0502058 0.201338 47 31 26
-0.25135 -0.0493785 0.201283 42 32 27
-0.251303 -0.0485396 0.201316 46 32 27
-0.251379 -0.0477113 0.201262 53 36 30
-0.251455 -0.0468822 0.201207 41 34 32
-0.251409 -0.0460433 0.20124 38 28 26
-0.251362 -0.0452049 0.201273 39 27 25
-0.251315 -0.0443668 0.201306 40 28 24
-0.27118 -0.0014913 0.187035 80 69 61
-0.288439 0.00678585 0.174647 67 68 63
-0.288383 0.00780371 0.174687 68 66 63
-0.288893 0.00894435 0.174321 63 66 62
-0.289406 0.010091 0.173952 63 66 62
-0.251059 -0.056899 0.200483 226 135 115
-0.250648 -0.0560082 0.20078 205 130 105
-0.250359 -0.0551377 0.200988 146 76 71
-0.250192 -0.0542854 0.201109 78 33 37
-0.250267 -0.0534639 0.201055 47 34 30
-0.25022 -0.0526277 0.201088 46 31 28
-0.250416 -0.0518185 0.200946 50 31 27
-0.250612 -0.0510074 0.200804 51 32 28
-0.25093 -0.0502064 0.200573 47 34 28
-0.251006 -0.049379 0.200518 45 33 29
-0.25096 -0.04854 0.200551 43 30 29
-0.250913 -0.0477014 0.200584 43 33 30
-0.250989 -0.0468729 0.200529 40 37 33
-0.251064 -0.0460436 0.200474 40 25 25
-0.251018 -0.045205 0.200507 40 27 26
-0.270793 -0.00148842 0.186174 82 56 54
-0.270741 -0.000558141 0.186211 67 65 63
-0.28877 0.0069462 0.173158 63 63 58
-0.250669 -0.0560588 0.19975 222 139 113
-0.250379 -0.0551861 0.199961 158 93 86
-0.249971 -0.0543014 0.200259 79 47 48
-0.249924 -0.0534647 0.200293 47 34 28
-0.250119 -0.0526563 0.20015 45 31 26
-0.250194 -0.0518325 0.200095 47 32 26
-0.250269 -0.051008 0.20004 49 34 26
-0.250587 -0.0502069 0.199807 48 35 26
-0.25054 -0.049368 0.199841 46 33 26
-0.250616 -0.0485404 0.199785 42 31 28
-0.250569 -0.0477017 0.199819 42 32 26
-0.250523 -0.0468635 0.199852 48 35 27
-0.25072 -0.0460438 0.199708 50 32 26
-0.270355 -0.000555194 0.18535 63 65 60
-0.250446 -0.0560763 0.198895 231 141 115
-0.250157 -0.0552029 0.199108 164 113 104
-0.24999 -0.0543479 0.19923 83 59 58
-0.249944 -0.0535092 0.199264 52 32 28
-0.249897 -0.052671 0.199298 48 31 26
-0.249972 -0.0518465 0.199242 48 31 27
