ply
format ascii 1.0
element vertex 1279
property float x
property float y
property float z
property uchar diffuse_red
property uchar diffuse_green
property uchar diffuse_blue
end_header
-0.224073 0.139706 0.232879 90 149 67
-0.223521 0.139976 0.232358 103 150 68
-0.222852 0.140201 0.231907 100 158 75
-0.2223 0.14047 0.231386 108 158 75
-0.221631 0.140694 0.230937 120 168 85
-0.22108 0.140964 0.230416 107 167 83
-0.222536 0.142019 0.228647 99 152 70
-0.222096 0.142339 0.228044 107 157 76
-0.221537 0.142613 0.227515 109 157 77
-0.220976 0.142886 0.226986 102 150 70
-0.220417 0.14316 0.226456 99 149 69
-0.219856 0.143434 0.225927 100 150 70
-0.218828 0.143516 0.225703 101 151 70
-0.218269 0.143789 0.225176 100 150 71
-0.217825 0.144111 0.22457 101 149 71
-0.217266 0.144385 0.22404 102 149 70
-0.216705 0.144659 0.223511 102 149 71
-0.216146 0.144933 0.222981 96 141 72
-0.215584 0.145207 0.222452 71 100 63
-0.215023 0.145482 0.221922 46 36 26
-0.225619 0.138619 0.23327 98 104 52
-0.224947 0.138844 0.232819 100 162 79
-0.224156 0.139026 0.232438 88 147 66
-0.223486 0.139251 0.231988 106 149 69
-0.222934 0.139521 0.231467 96 153 74
-0.222265 0.139745 0.231018 106 154 74
-0.221597 0.13997 0.230569 117 167 84
-0.221045 0.140239 0.230048 100 161 80
-0.221079 0.140735 0.229162 95 146 66
-0.221942 0.141557 0.227747 105 155 74
-0.221502 0.141876 0.227143 107 156 77
-0.220942 0.14215 0.226614 102 150 69
-0.220383 0.142424 0.226085 100 150 69
-0.219822 0.142697 0.225557 98 150 70
-0.219028 0.142876 0.225181 98 149 69
-0.218352 0.143102 0.224729 99 149 70
-0.217909 0.143423 0.224123 99 149 72
-0.21735 0.143696 0.223594 100 148 72
-0.216674 0.143922 0.223142 101 147 70
-0.216 0.144148 0.222691 95 139 72
-0.215439 0.144421 0.222163 69 98 64
-0.214993 0.144744 0.221554 45 35 29
-0.225703 0.137937 0.232829 97 100 53
-0.225031 0.138163 0.232377 97 156 78
-0.224239 0.138346 0.231998 87 145 64
-0.223569 0.138572 0.231547 105 146 66
-0.223017 0.138841 0.231026 92 148 69
-0.222349 0.139066 0.230577 106 149 69
-0.22168 0.139292 0.230128 116 164 83
-0.221128 0.139561 0.229607 97 156 80
-0.221162 0.140053 0.228719 93 139 65
-0.221669 0.140731 0.227526 103 151 73
-0.221348 0.141095 0.226847 105 155 75
-0.220789 0.141369 0.22632 101 146 70
-0.220467 0.141735 0.225639 99 146 71
-0.219906 0.142008 0.225109 97 147 70
-0.219346 0.142281 0.224579 98 147 68
-0.218552 0.142461 0.224205 98 148 68
-0.217761 0.14264 0.223831 98 148 70
-0.217203 0.142913 0.223303 101 147 71
-0.216527 0.143139 0.222853 101 146 71
-0.215969 0.143412 0.222324 93 136 73
-0.21541 0.143685 0.221795 66 91 64
-0.21485 0.143959 0.221266 43 31 29
-0.225114 0.137483 0.231936 73 121 71
-0.224322 0.137665 0.231557 71 120 61
-0.223652 0.137892 0.231107 92 130 64
-0.223101 0.138161 0.230586 87 138 68
-0.222431 0.138386 0.230136 106 144 69
-0.22188 0.138655 0.229615 119 162 82
-0.221328 0.138925 0.229094 97 154 80
-0.221246 0.139371 0.228277 94 136 65
-0.221515 0.139955 0.227231 104 149 73
-0.221195 0.140317 0.226553 103 153 73
-0.220873 0.140681 0.225873 98 145 69
-0.218404 0.14168 0.223914 96 146 70
-0.217844 0.141953 0.223385 97 145 70
-0.21717 0.142179 0.222935 99 144 70
-0.216612 0.142452 0.222407 101 145 70
-0.215938 0.142678 0.221957 90 132 72
-0.215379 0.14295 0.221428 59 83 60
-0.21482 0.143223 0.220899 37 32 25
-0.225197 0.136801 0.231494 51 64 40
-0.224406 0.136985 0.231115 50 66 37
-0.223854 0.137255 0.230594 68 72 39
-0.223184 0.137481 0.230145 70 82 45
-0.222632 0.13775 0.229623 82 91 47
-0.221963 0.137976 0.229174 87 104 58
-0.221528 0.138289 0.228579 67 108 65
-0.221446 0.138733 0.227761 72 110 61
-0.221245 0.139136 0.227012 86 128 71
-0.221278 0.13963 0.226108 91 138 71
-0.220957 0.139992 0.225427 92 137 68
-0.218371 0.140947 0.223545 96 142 69
-0.217697 0.141173 0.223095 97 141 69
-0.217139 0.141446 0.222567 99 142 69
-0.216581 0.141718 0.222039 99 142 69
-0.216021 0.14199 0.22151 88 127 72
-0.215349 0.142216 0.221061 55 76 57
-0.214564 0.142395 0.220693 35 38 24
-0.226075 0.135934 0.231432 34 31 20
-0.225402 0.136162 0.230981 38 37 22
-0.224729 0.136389 0.230531 40 35 24
-0.223938 0.136574 0.230153 43 36 24
-0.223386 0.136843 0.22963 42 42 28
-0.222834 0.137113 0.229109 47 46 30
-0.222282 0.137382 0.228586 49 51 34
-0.222083 0.13778 0.227842 40 54 33
-0.221766 0.138137 0.227168 47 59 33
-0.221802 0.138627 0.226265 56 65 39
-0.2216 0.139032 0.225509 64 70 39
-0.218687 0.14035 0.222943 79 119 68
-0.21778 0.140486 0.22265 83 124 71
-0.217222 0.140759 0.222122 86 127 71
-0.216664 0.141031 0.221593 89 128 70
-0.214648 0.14171 0.220247 37 37 24
-0.215515 0.140843 0.22017 42 41 32
-0.241538 0.131845 0.246353 107 160 76
-0.241125 0.131504 0.246821 107 158 75
-0.241414 0.132291 0.245441 102 153 74
-0.241001 0.13195 0.245908 104 152 73
-0.240588 0.131609 0.246376 104 151 71
-0.240176 0.131268 0.246844 102 151 70
-0.239763 0.130927 0.247313 100 150 71
-0.24129 0.132737 0.24453 101 151 73
-0.240878 0.132397 0.244997 102 150 73
-0.240465 0.132056 0.245465 102 149 72
-0.240053 0.131715 0.245931 102 148 70
-0.239639 0.131374 0.2464 101 147 69
-0.239226 0.131033 0.246868 100 146 69
-0.238812 0.13069 0.247337 100 146 70
-0.240754 0.132842 0.244086 99 149 73
-0.240342 0.132502 0.244552 100 147 73
-0.239929 0.132161 0.245019 100 147 72
-0.239516 0.13182 0.245487 100 146 70
-0.239103 0.131479 0.245955 100 145 68
-0.238689 0.131137 0.246423 100 144 68
-0.238275 0.130796 0.246892 100 144 69
-0.240218 0.132947 0.243641 97 146 70
-0.239806 0.132607 0.244108 98 144 71
-0.239393 0.132266 0.244575 99 146 73
-0.238979 0.131926 0.245043 100 145 71
-0.238566 0.131584 0.245511 101 144 68
-0.238152 0.131243 0.245979 100 143 67
-0.237738 0.130901 0.246447 99 142 67
-0.237323 0.13056 0.246915 101 144 68
-0.251568 0.161158 0.254899 103 148 73
-0.251022 0.160409 0.255108 103 148 72
-0.239269 0.132713 0.243663 99 144 70
-0.238857 0.132372 0.244131 98 143 71
-0.238443 0.132031 0.244598 99 143 68
-0.238029 0.13169 0.245065 100 143 66
-0.237615 0.131348 0.245533 99 143 65
-0.2372 0.131007 0.246002 99 143 67
-0.236785 0.130665 0.246471 100 145 71
-0.250877 0.16092 0.25406 102 147 72
-0.250404 0.160531 0.254594 102 147 72
-0.238847 0.133581 0.243997 99 144 69
-0.23832 0.132477 0.243686 99 144 68
-0.237906 0.132136 0.244153 98 143 67
-0.237492 0.131795 0.24462 98 143 67
-0.237077 0.131454 0.245089 98 144 68
-0.236662 0.131112 0.245557 98 144 69
-0.236248 0.13077 0.246025 98 145 71
-0.250331 0.161402 0.25387 101 146 71
-0.238321 0.133772 0.243637 99 145 69
-0.237783 0.132582 0.243241 99 144 67
-0.23737 0.132242 0.243708 97 143 67
-0.236955 0.1319 0.244175 97 143 69
-0.23654 0.131559 0.244643 97 144 69
-0.236125 0.131218 0.245111 97 144 69
-0.23571 0.130875 0.24558 98 144 70
-0.249665 0.161285 0.253141 101 146 72
-0.249191 0.160895 0.253675 100 146 72
-0.238259 0.134651 0.243152 100 145 69
-0.237781 0.133878 0.243189 99 143 68
-0.237364 0.133535 0.243659 98 143 68
-0.236947 0.133192 0.244129 96 142 67
-0.235587 0.131323 0.244666 97 142 69
-0.24759 0.153664 0.245705 102 146 72
-0.247098 0.153077 0.246019 99 146 72
-0.23773 0.134844 0.24279 98 142 70
-0.237288 0.134327 0.243087 98 142 69
-0.236881 0.134069 0.243645 99 142 67
-0.250537 0.164183 0.250933 102 145 73
-0.25006 0.163792 0.251469 103 146 71
-0.2494 0.162428 0.251152 103 145 71
-0.247453 0.15415 0.244709 103 144 71
-0.246962 0.153563 0.245024 103 144 71
-0.246434 0.152763 0.245146 101 145 70
-0.245984 0.152394 0.245652 99 145 70
-0.236768 0.134606 0.242811 95 139 68
-0.23635 0.134262 0.243282 95 139 66
-0.25094 0.165459 0.249663 105 145 73
-0.250463 0.165068 0.250199 104 145 73
-0.249915 0.164305 0.250416 103 144 72
-0.249439 0.163915 0.250952 102 145 70
-0.248781 0.162551 0.250638 101 144 70
-0.246865 0.154267 0.244221 100 143 70
-0.246356 0.153572 0.244441 99 142 71
-0.245867 0.152986 0.244755 99 142 70
-0.245398 0.15251 0.245165 99 141 68
-0.244857 0.151609 0.245191 98 142 70
-0.236829 0.136459 0.243282 86 130 63
-0.236338 0.135583 0.243231 85 130 64
-0.235916 0.135236 0.243705 83 129 62
-0.23571 0.136656 0.245965 82 128 61
-0.234853 0.135952 0.246928 83 127 60
-0.250794 0.165973 0.248609 95 138 68
-0.250317 0.165582 0.249145 98 139 70
-0.24984 0.16519 0.249681 98 139 70
-0.249294 0.164429 0.2499 97 139 69
-0.248817 0.164037 0.250435 95 138 68
-0.248207 0.162915 0.250335 94 137 66
-0.245769 0.153688 0.243953 91 135 66
-0.245318 0.153317 0.244459 92 133 67
-0.24483 0.152733 0.244774 92 132 65
-0.243085 0.144662 0.238357 91 132 65
-0.242626 0.14412 0.238664 89 132 64
-0.236281 0.136566 0.242827 71 116 55
-0.235857 0.136218 0.243303 67 113 54
-0.235445 0.135959 0.243867 65 111 53
-0.235156 0.136765 0.245506 63 109 51
-0.234728 0.136413 0.245987 61 109 50
-0.234269 0.135794 0.246197 62 110 50
-0.23386 0.13562 0.246861 69 114 52
-0.250219 0.166347 0.248301 88 125 59
-0.249695 0.165705 0.248627 89 127 63
-0.249172 0.165066 0.248952 89 127 63
-0.248694 0.164675 0.249488 86 128 63
-0.248194 0.16416 0.249918 85 127 62
-0.247782 0.164136 0.250773 85 126 59
-0.242481 0.144484 0.237638 80 121 59
-0.242024 0.143943 0.237945 78 120 55
-0.241597 0.143593 0.238424 79 119 56
-0.236235 0.137646 0.242509 60 103 46
-0.235743 0.136762 0.24246 56 100 36
-0.235319 0.136414 0.242936 52 99 36
-0.234937 0.136421 0.243765 49 98 36
-0.234622 0.137053 0.245227 45 97 35
-0.234193 0.136701 0.245709 44 97 36
-0.233735 0.13608 0.245919 47 96 37
-0.233306 0.135729 0.246401 54 100 40
-0.248594 0.165437 0.248645 77 115 56
-0.248116 0.165045 0.249181 75 117 57
-0.247593 0.164406 0.249506 74 116 55
-0.247158 0.16426 0.250254 74 114 53
-0.241912 0.144498 0.237092 69 114 50
-0.241395 0.143578 0.237059 67 113 47
-0.240954 0.143135 0.23745 69 112 50
-0.235772 0.138477 0.242756 43 95 34
-0.235237 0.137226 0.242354 42 95 31
-0.234801 0.136789 0.242744 39 95 30
-0.234387 0.136529 0.243309 37 94 27
-0.234078 0.137252 0.244857 35 93 26
-0.233677 0.13717 0.24561 33 92 28
-0.233217 0.136547 0.245821 33 91 29
-0.232787 0.136194 0.246304 40 94 31
-0.247493 0.165169 0.248663 63 110 52
-0.247013 0.164776 0.249199 63 108 50
-0.246534 0.164383 0.249736 62 106 49
-0.241799 0.145053 0.236237 63 104 42
-0.241342 0.144512 0.236546 62 105 40
-0.240828 0.143592 0.236515 62 105 39
-0.240373 0.143055 0.236822 63 104 39
-0.239935 0.142613 0.237214 60 102 38
-0.235229 0.138676 0.242385 31 91 28
-0.234759 0.137963 0.242512 32 91 28
-0.234262 0.136986 0.242376 32 90 25
-0.233836 0.136638 0.242852 30 90 20
-0.233618 0.138269 0.245299 29 89 20
-0.233185 0.137914 0.245784 26 89 22
-0.232733 0.137378 0.246087 26 90 24
-0.232257 0.136572 0.246116 32 93 27
-0.247004 0.149044 0.228326 65 105 51
-0.246639 0.148994 0.229033 64 104 51
-0.246164 0.148357 0.229266 62 103 50
-0.246869 0.165292 0.248144 62 105 46
-0.24639 0.164899 0.24868 64 105 45
-0.24591 0.164506 0.249217 65 104 41
-0.241671 0.145512 0.235298 63 105 47
-0.241229 0.145067 0.235692 63 105 45
-0.240787 0.144621 0.236085 61 104 42
-0.240275 0.143702 0.236056 62 104 41
-0.239822 0.143164 0.236364 62 104 40
-0.23937 0.142629 0.236671 62 102 39
-0.238944 0.14228 0.237147 58 101 39
-0.235103 0.139137 0.241446 28 93 26
-0.234665 0.138695 0.241838 27 91 25
-0.234196 0.137982 0.241966 28 89 23
-0.23373 0.137273 0.242094 31 87 21
-0.233331 0.137192 0.242835 29 85 17
-0.233105 0.138838 0.24529 26 86 16
-0.232662 0.13839 0.245685 25 88 18
-0.2322 0.13776 0.245897 26 91 22
-0.231741 0.137133 0.246109 33 94 29
-0.231316 0.136868 0.246687 50 100 36
-0.247315 0.149938 0.227009 68 105 47
-0.246894 0.149594 0.227478 67 105 47
-0.246456 0.149152 0.22787 67 106 47
-0.246054 0.148906 0.228419 68 108 50
-0.245616 0.148465 0.22881 69 109 50
-0.245247 0.148414 0.229519 71 109 49
-0.242885 0.147408 0.23326 71 113 48
-0.242427 0.146864 0.233572 72 112 46
-0.242 0.146515 0.234049 71 112 47
-0.241542 0.145971 0.23436 70 113 49
-0.241116 0.145622 0.234838 69 112 50
-0.240675 0.145176 0.235231 66 112 51
-0.240233 0.14473 0.235625 63 109 48
-0.23975 0.144 0.235765 64 108 48
-0.239283 0.143368 0.23599 63 108 47
-0.238818 0.142737 0.236213 63 107 48
-0.238393 0.142389 0.236689 62 105 45
-0.23455 0.139245 0.240987 31 93 26
-0.234111 0.138803 0.241379 31 94 23
-0.233644 0.13809 0.241508 29 91 18
-0.233207 0.13765 0.241899 32 89 20
-0.232979 0.139304 0.244338 33 87 21
-0.232625 0.139783 0.245648 32 86 19
-0.232143 0.138961 0.245677 31 89 19
-0.231665 0.138144 0.245707 32 94 24
-0.231205 0.137514 0.245919 38 96 31
-0.230778 0.137249 0.246497 51 100 37
-0.247337 0.151188 0.226706 83 119 55
-0.246766 0.150046 0.226553 82 120 53
-0.246346 0.149703 0.227022 80 120 53
-0.245926 0.149359 0.227492 78 121 54
-0.245523 0.149114 0.228041 77 120 56
-0.245119 0.148867 0.22859 77 119 55
-0.244801 0.149113 0.22954 77 119 55
-0.244462 0.149261 0.230417 75 120 58
-0.24361 0.148565 0.231369 73 117 53
-0.242757 0.147867 0.232322 72 119 53
-0.242315 0.14742 0.232716 71 118 52
-0.241872 0.146973 0.233111 71 116 52
-0.241415 0.14643 0.233422 71 116 53
-0.240988 0.14608 0.233899 70 116 53
-0.240561 0.145732 0.234376 71 117 52
-0.240134 0.145382 0.234854 68 116 52
-0.239706 0.145032 0.235332 63 114 51
-0.239237 0.144395 0.235557 63 112 51
-0.238757 0.143666 0.235698 61 111 52
-0.238279 0.14294 0.235839 58 109 52
-0.237854 0.142591 0.236315 55 107 51
-0.233557 0.138912 0.240919 31 92 21
-0.232533 0.140627 0.245057 35 87 21
-0.232078 0.14008 0.245363 39 88 22
-0.231623 0.139535 0.245669 39 91 22
-0.231144 0.138714 0.245699 39 94 25
-0.230669 0.137898 0.245728 45 96 32
-0.230225 0.13745 0.246124 55 99 36
-0.22981 0.137367 0.246887 67 106 46
-0.247266 0.151943 0.226009 78 122 60
-0.246805 0.151397 0.226325 76 121 59
-0.246346 0.150851 0.22664 74 121 56
-0.245906 0.150406 0.227034 73 120 54
-0.245483 0.150062 0.227505 72 119 54
-0.245061 0.149716 0.227977 72 117 55
-0.244672 0.149569 0.228607 72 116 55
-0.244317 0.149619 0.229401 72 116 55
-0.243907 0.149371 0.229956 71 118 59
-0.243482 0.149023 0.230431 70 116 56
-0.243056 0.148674 0.230907 68 115 52
-0.242629 0.148326 0.231383 67 116 51
-0.242202 0.147977 0.23186 65 115 52
-0.241759 0.14753 0.232255 62 112 52
-0.241332 0.14718 0.232732 59 107 52
-0.240889 0.146734 0.233126 58 105 51
-0.240462 0.146384 0.233604 57 104 47
-0.240034 0.146035 0.234082 56 102 38
-0.239606 0.145685 0.23456 53 99 35
-0.239164 0.145239 0.234954 48 100 34
-0.238709 0.144696 0.235265 49 97 35
-0.238255 0.144155 0.235574 46 97 34
-0.237765 0.143332 0.235632 43 97 34
-0.237337 0.142983 0.236108 40 96 31
-0.231537 0.140473 0.24517 43 90 23
-0.231073 0.139833 0.245384 44 92 24
-0.230618 0.139288 0.245691 44 96 30
-0.230143 0.138467 0.24572 51 98 36
-0.229684 0.137835 0.245933 59 100 38
-0.229247 0.137477 0.246422 65 105 46
-0.228828 0.137393 0.247187 78 112 54
-0.247175 0.152601 0.225233 69 109 55
-0.246714 0.152053 0.22555 69 109 53
-0.246272 0.151607 0.225944 69 111 52
-0.245813 0.151061 0.22626 68 112 50
-0.245356 0.150516 0.226575 68 112 49
-0.244933 0.15017 0.227047 68 112 49
-0.244561 0.150124 0.227754 65 110 51
-0.244171 0.149976 0.228386 64 107 51
-0.243779 0.149828 0.22902 63 106 50
-0.243354 0.14948 0.229495 62 105 50
-0.242927 0.149132 0.22997 62 101 47
-0.2425 0.148784 0.230446 63 101 42
-0.242074 0.148436 0.230922 62 101 39
-0.241647 0.148087 0.231398 63 100 39
-0.241219 0.147738 0.231875 64 100 39
-0.240792 0.147388 0.232353 64 101 40
-0.240363 0.147038 0.23283 62 100 42
-0.239935 0.146689 0.233308 61 101 41
-0.239492 0.146241 0.233703 54 99 36
-0.239063 0.145891 0.234181 46 94 30
-0.238621 0.145444 0.234576 41 95 26
-0.238179 0.144998 0.234971 41 93 26
-0.237725 0.144456 0.235281 39 92 28
-0.237235 0.14363 0.23534 38 92 28
-0.236807 0.14328 0.235817 36 93 26
-0.230977 0.140679 0.244792 47 93 26
-0.23053 0.140225 0.24519 48 94 26
-0.230067 0.139585 0.245405 49 98 32
-0.22962 0.139133 0.245804 55 101 41
-0.229154 0.138404 0.245925 62 103 43
-0.228715 0.138046 0.246415 65 105 48
-0.228276 0.137687 0.246905 74 110 55
-0.247064 0.153158 0.224378 72 108 50
-0.246622 0.152711 0.224773 69 107 51
-0.246162 0.152162 0.22509 69 107 49
-0.245721 0.151716 0.225484 69 107 47
-0.24528 0.151271 0.225878 69 106 45
-0.244822 0.150725 0.226195 72 106 43
-0.244399 0.150379 0.226666 72 109 45
-0.24406 0.150533 0.227531 72 111 50
-0.24365 0.150286 0.228084 73 111 50
-0.243226 0.149938 0.228559 74 110 48
-0.242799 0.14959 0.229034 75 114 48
-0.242373 0.149243 0.229509 73 114 51
-0.241946 0.148894 0.229984 73 115 52
-0.241519 0.148546 0.23046 71 114 50
-0.241091 0.148197 0.230937 69 114 50
-0.240678 0.147946 0.231495 67 114 50
-0.240249 0.147596 0.231972 65 112 49
-0.239807 0.147149 0.232368 62 108 48
-0.239378 0.146799 0.232845 59 105 47
-0.238949 0.146449 0.233323 49 100 41
-0.238507 0.146002 0.233719 43 94 32
-0.238077 0.145651 0.234197 38 94 25
-0.237635 0.145203 0.234592 37 92 25
-0.237169 0.144565 0.23482 35 92 26
-0.236739 0.144215 0.235298 33 92 27
-0.230418 0.140884 0.244412 49 98 32
-0.22997 0.140431 0.244812 51 97 29
-0.229522 0.139977 0.245211 53 97 31
-0.229068 0.13943 0.245519 57 100 40
-0.228621 0.138978 0.245918 62 107 50
-0.228174 0.138526 0.246316 64 109 52
-0.227733 0.138166 0.246807 71 108 54
-0.227286 0.137714 0.247206 68 109 55
-0.22554 0.136728 0.249648 65 101 43
-0.246531 0.15337 0.223994 78 115 52
-0.24607 0.15282 0.224312 77 116 53
-0.245646 0.152475 0.224784 77 120 54
-0.245187 0.151926 0.225102 78 123 55
-0.244729 0.151379 0.225419 77 126 57
-0.244305 0.151034 0.225891 76 125 58
-0.243914 0.150889 0.226519 74 121 57
-0.243523 0.150742 0.227149 69 120 57
-0.243097 0.150396 0.227623 67 118 56
-0.242671 0.150048 0.228098 67 115 55
-0.242245 0.1497 0.228572 66 115 54
-0.241818 0.149353 0.229047 64 112 54
-0.24139 0.149004 0.229523 63 109 53
-0.240963 0.148655 0.229998 61 108 49
-0.240536 0.148307 0.230475 59 107 44
-0.240122 0.148056 0.231033 56 108 42
-0.239693 0.147707 0.23151 54 107 42
-0.23925 0.147259 0.231905 51 104 41
-0.238822 0.146909 0.232383 49 101 41
-0.238393 0.146559 0.232861 41 98 36
-0.237937 0.146014 0.233173 38 94 30
-0.237508 0.145664 0.233652 35 93 26
-0.237078 0.145313 0.23413 33 92 26
-0.236648 0.144963 0.234609 31 91 25
-0.236196 0.14442 0.23492 28 91 27
-0.229849 0.140997 0.243942 50 98 36
-0.229401 0.140542 0.244342 50 97 31
-0.228961 0.140182 0.244833 51 97 33
-0.228513 0.139728 0.245232 57 100 41
-0.228071 0.139369 0.245725 63 108 52
-0.22763 0.139008 0.246216 65 110 53
-0.227166 0.138276 0.246338 70 106 52
-0.226725 0.137917 0.246829 67 103 51
-0.226292 0.13774 0.247508 64 98 44
-0.225867 0.137748 0.248376 63 95 40
-0.225414 0.137202 0.248682 62 94 40
-0.224971 0.13684 0.249176 61 94 39
-0.224526 0.136477 0.249671 63 94 39
-0.242969 0.150852 0.226688 68 108 47
-0.242543 0.150505 0.227162 68 110 47
-0.242117 0.150157 0.227636 68 110 51
-0.24169 0.14981 0.228111 66 111 51
-0.241263 0.149462 0.228586 63 109 50
-0.240836 0.149114 0.229061 59 104 48
-0.240408 0.148765 0.229536 53 99 43
-0.23998 0.148416 0.230013 47 96 33
-0.239552 0.148068 0.230489 43 95 28
-0.239123 0.147718 0.230966 39 94 27
-0.238694 0.147368 0.231443 37 91 26
-0.238239 0.146824 0.231757 36 90 26
-0.237811 0.146474 0.232234 33 90 22
-0.237381 0.146124 0.232711 30 90 20
-0.236952 0.145774 0.233189 28 91 23
-0.236521 0.145423 0.233667 26 89 23
-0.236092 0.145073 0.234147 25 86 20
-0.229275 0.141013 0.243381 51 97 37
-0.228834 0.140654 0.243872 50 95 35
-0.228393 0.140294 0.244362 51 96 35
-0.227951 0.139934 0.244854 55 99 39
-0.227514 0.139667 0.245438 60 103 47
-0.227071 0.139306 0.24593 63 107 49
-0.226618 0.138759 0.246238 68 105 53
-0.226167 0.138213 0.246544 64 99 47
-0.225728 0.137945 0.24713 62 93 39
-0.225296 0.13786 0.247905 62 91 37
-0.224849 0.137406 0.248304 61 90 37
-0.224401 0.136951 0.248705 59 91 37
-0.223956 0.136589 0.249199 58 90 38
-0.240709 0.149572 0.228124 63 106 45
-0.240281 0.149224 0.228599 58 103 42
-0.239853 0.148875 0.229075 50 97 35
-0.239452 0.148725 0.229712 41 92 27
-0.23901 0.148276 0.230108 38 93 24
-0.238567 0.147828 0.230504 36 92 26
-0.238113 0.147283 0.230818 32 90 28
-0.237684 0.146933 0.231295 31 92 25
-0.237254 0.146584 0.231772 30 91 20
-0.236825 0.146234 0.232249 30 90 21
-0.236395 0.145883 0.232727 28 91 23
-0.235965 0.145533 0.233205 28 89 25
-0.228701 0.14103 0.24282 53 96 39
-0.22826 0.140671 0.243311 51 94 37
-0.227824 0.140405 0.243892 53 95 34
-0.227388 0.14014 0.244474 56 96 36
-0.22695 0.139873 0.245059 59 101 42
-0.226511 0.139605 0.245644 63 104 46
-0.226059 0.139056 0.245952 66 103 52
-0.225615 0.138695 0.246444 62 98 45
-0.225171 0.138334 0.246938 62 91 38
-0.224726 0.137972 0.247432 60 89 39
-0.224282 0.137609 0.247927 60 89 37
-0.223837 0.137246 0.248422 60 90 35
-0.223397 0.137068 0.249106 58 89 37
-0.238049 0.148234 0.230284 29 89 25
-0.237581 0.147589 0.230518 24 89 26
-0.237128 0.147043 0.230833 25 86 19
-0.236699 0.146693 0.23131 27 87 18
-0.236269 0.146344 0.231787 33 90 19
-0.235839 0.145993 0.232265 34 89 23
-0.235408 0.145643 0.232743 34 87 23
-0.228128 0.141046 0.24226 56 97 41
-0.227687 0.140688 0.24275 54 97 39
-0.227262 0.140611 0.243512 54 97 35
-0.226829 0.140439 0.244186 56 97 37
-0.2264 0.140362 0.244955 58 102 39
-0.225959 0.140094 0.245541 63 104 43
-0.225505 0.139543 0.24585 67 102 52
-0.22506 0.13918 0.246345 61 97 45
-0.224612 0.138724 0.246746 61 91 37
-0.224166 0.138361 0.24724 57 89 42
-0.223717 0.137905 0.247642 59 89 37
-0.223276 0.137728 0.248327 61 89 34
-0.227135 0.141082 0.242549 55 101 41
-0.226707 0.141006 0.243313 54 102 39
-0.226278 0.14093 0.24408 54 102 43
-0.225846 0.140853 0.244851 55 103 41
-0.225404 0.140585 0.245439 66 104 43
-0.224946 0.139937 0.245655 69 101 52
-0.224499 0.139574 0.246151 61 96 45
-0.224049 0.139117 0.246553 61 92 37
-0.223605 0.138848 0.247142 55 91 44
-0.223158 0.138483 0.247639 57 90 35
-0.226586 0.141575 0.242439 49 105 42
-0.225301 0.141635 0.245024 53 105 44
-0.224852 0.14127 0.245521 69 108 51
-0.224386 0.140428 0.245553 67 100 51
-0.223939 0.140064 0.246049 62 94 43
-0.223493 0.139795 0.246639 62 91 38
-0.223054 0.139807 0.247515 62 91 37
-0.224277 0.141383 0.245044 72 112 54
-0.223827 0.141018 0.245542 68 99 50
-0.223377 0.140653 0.24604 62 95 48
-0.239811 0.177357 0.244208 28 85 21
-0.239613 0.177477 0.242786 29 88 24
-0.238997 0.176096 0.242607 27 87 23
-0.238633 0.176936 0.244115 26 88 21
-0.239416 0.177596 0.241371 62 98 36
-0.238834 0.176494 0.241407 44 93 29
-0.238301 0.175812 0.241753 33 90 26
-0.237813 0.175542 0.242411 29 89 23
-0.222813 0.152328 0.248299 75 121 57
-0.222329 0.151613 0.248521 74 113 55
-0.221845 0.15079 0.248642 66 101 48
-0.221362 0.149865 0.248661 60 95 42
-0.220883 0.14916 0.248881 57 91 42
-0.240176 0.178109 0.238553 72 81 49
-0.239691 0.177842 0.239207 106 124 69
-0.239188 0.177436 0.239759 113 138 73
-0.238686 0.17703 0.240312 87 124 60
-0.238139 0.176209 0.240557 66 110 44
-0.237622 0.175666 0.241006 52 101 37
-0.2227 0.153838 0.248178 77 125 58
-0.222201 0.152449 0.247792 77 118 56
-0.221723 0.152062 0.248318 72 107 53
-0.22124 0.151346 0.24854 62 97 45
-0.220754 0.149985 0.248157 57 92 41
-0.220277 0.14928 0.248379 55 92 40
-0.219802 0.148895 0.248902 58 92 34
-0.239511 0.178098 0.237912 70 74 51
-0.239009 0.177693 0.238463 100 125 74
-0.238508 0.177287 0.239015 118 161 87
-0.238006 0.176882 0.239567 99 150 77
-0.237475 0.1762 0.239915 86 136 62
-0.236959 0.175657 0.240364 76 122 54
-0.23394 0.167873 0.238682 28 88 18
-0.233453 0.16748 0.239217 25 87 18
-0.233525 0.193179 0.263158 22 88 19
-0.232929 0.192377 0.263513 27 91 22
-0.232324 0.19141 0.263731 34 94 24
-0.222579 0.155025 0.247747 77 126 61
-0.222088 0.154183 0.24787 78 124 59
-0.221601 0.153457 0.248094 77 115 56
-0.221118 0.152957 0.248522 70 104 52
-0.220633 0.152014 0.248541 61 96 42
-0.220149 0.150753 0.248257 57 91 39
-0.219671 0.149934 0.248378 56 90 35
-0.219193 0.150088 0.249409 58 91 30
-0.238862 0.178226 0.237372 65 66 49
-0.238361 0.177821 0.237923 88 111 67
-0.237844 0.177278 0.238373 110 158 80
-0.237329 0.176734 0.238824 103 159 77
-0.236813 0.176191 0.239273 93 149 70
-0.236311 0.175785 0.239824 87 141 64
-0.233821 0.168644 0.237819 53 100 32
-0.233301 0.167872 0.238062 37 91 23
-0.232754 0.166726 0.238015 27 88 22
-0.232269 0.166335 0.238547 24 87 19
-0.233361 0.193785 0.261919 21 87 18
-0.232765 0.192984 0.262277 22 88 19
-0.232173 0.192183 0.262632 27 89 20
-0.231549 0.190884 0.262582 32 92 21
-0.230981 0.190426 0.263206 38 96 26
-0.221965 0.155489 0.24754 77 122 58
-0.221475 0.154643 0.247664 76 121 58
-0.220989 0.154027 0.247991 75 114 55
-0.220505 0.153525 0.24842 68 101 49
-0.220022 0.152911 0.248745 60 95 40
-0.219539 0.151417 0.248256 59 91 37
-0.219059 0.15103 0.248783 57 89 31
-0.238214 0.178355 0.236832 65 62 42
-0.237697 0.177811 0.237282 77 90 54
-0.237181 0.177267 0.237733 99 141 72
-0.236667 0.176724 0.238183 101 160 79
-0.236151 0.176182 0.238633 90 149 72
-0.235649 0.175777 0.239184 84 141 67
-0.235148 0.175372 0.239735 79 134 62
-0.23397 0.172544 0.239316 67 120 51
-0.233266 0.169664 0.237977 59 108 44
-0.232694 0.168248 0.237734 44 98 35
-0.232129 0.16685 0.237496 32 92 28
-0.231644 0.166459 0.238028 27 89 22
-0.233171 0.194049 0.260414 27 88 20
-0.232602 0.193589 0.26104 26 88 21
-0.23202 0.192958 0.261531 26 90 22
-0.23144 0.192328 0.262023 30 92 20
-0.230848 0.191531 0.262379 33 94 21
-0.230279 0.191071 0.263004 38 98 25
-0.221845 0.15704 0.247413 75 120 56
-0.221352 0.156184 0.247537 76 122 57
-0.220861 0.155219 0.247559 75 120 57
-0.220374 0.154713 0.247989 75 112 54
-0.219888 0.154096 0.248316 65 99 45
-0.219404 0.153367 0.248541 60 93 37
-0.218923 0.151977 0.248153 59 89 34
-0.218441 0.151809 0.248886 56 90 29
-0.237035 0.1778 0.236644 67 74 45
-0.23652 0.177258 0.237094 79 107 60
-0.236005 0.176715 0.237544 92 143 74
-0.235478 0.176036 0.237893 89 142 70
-0.234941 0.175223 0.238142 76 133 63
-0.234345 0.173741 0.237891 70 126 58
-0.233826 0.173072 0.238238 66 119 53
-0.233285 0.172142 0.238385 62 114 49
-0.232665 0.170176 0.237744 55 107 45
-0.232104 0.168881 0.237599 45 100 39
-0.23155 0.167601 0.237457 36 97 31
-0.231063 0.167207 0.237991 34 94 26
-0.232426 0.194022 0.259672 34 93 25
-0.231868 0.193734 0.26043 34 93 26
-0.231275 0.192933 0.260788 34 95 26
-0.230705 0.192473 0.261414 36 97 23
-0.230116 0.191676 0.26177 36 99 24
-0.229546 0.191216 0.262396 42 101 27
-0.226234 0.177118 0.255734 64 116 55
-0.225693 0.176541 0.256201 79 126 60
-0.221221 0.157163 0.246895 72 118 57
-0.220731 0.156537 0.247226 76 120 58
-0.220242 0.155913 0.247555 75 118 56
-0.219755 0.155405 0.247987 72 110 52
-0.219267 0.154784 0.248315 63 97 43
-0.218785 0.153488 0.248028 60 91 33
-0.218303 0.152762 0.248253 55 89 31
-0.21782 0.152372 0.248784 51 89 30
-0.217305 0.154002 0.251191 53 89 29
-0.236373 0.177791 0.236005 65 64 41
-0.235859 0.177248 0.236455 69 77 48
-0.235332 0.176568 0.236806 75 108 60
-0.234782 0.175618 0.236957 80 123 63
-0.234201 0.174269 0.236812 74 122 58
-0.233681 0.1736 0.23716 65 113 49
-0.233163 0.172933 0.237507 59 107 44
-0.232636 0.172136 0.237755 55 104 41
-0.232051 0.17056 0.237412 51 102 38
-0.231521 0.169647 0.237561 46 100 36
-0.230985 0.168611 0.237612 43 99 32
-0.230504 0.168343 0.238247 43 98 29
-0.231693 0.194168 0.259063 43 98 30
-0.231123 0.193708 0.259687 43 100 31
-0.230543 0.193078 0.26018 43 100 31
-0.229963 0.192448 0.260671 43 101 28
-0.229384 0.191821 0.261162 44 102 30
-0.228814 0.191361 0.261787 45 101 32
-0.225546 0.177254 0.255164 63 115 54
-0.225005 0.176676 0.255631 73 121 56
-0.224474 0.176388 0.25634 77 125 59
-0.220108 0.156775 0.246811 75 123 58
-0.219619 0.156265 0.247244 77 120 56
-0.219131 0.155872 0.247779 71 108 52
-0.218643 0.155248 0.248108 62 97 41
-0.218163 0.153947 0.247822 57 91 31
-0.217682 0.153219 0.248048 53 89 31
-0.217197 0.152828 0.248579 53 89 28
-0.216694 0.153332 0.24994 52 87 30
-0.216179 0.154069 0.251529 55 89 31
-0.215686 0.153671 0.252069 48 89 30
-0.235199 0.177238 0.235818 66 66 46
-0.234625 0.176012 0.235776 66 79 49
-0.234057 0.174797 0.235734 70 97 53
-0.233537 0.174128 0.236083 76 114 57
-0.233019 0.17346 0.236431 65 108 48
-0.232492 0.172662 0.23668 56 101 38
-0.231987 0.172131 0.237125 51 100 36
-0.231426 0.170815 0.236982 50 100 32
-0.230906 0.170029 0.23723 50 101 33
-0.230396 0.169375 0.237574 50 100 32
-0.229896 0.16885 0.238015 51 99 31
-0.23095 0.194142 0.258322 50 99 33
-0.229809 0.193223 0.25957 49 102 38
-0.229222 0.192424 0.259929 48 102 33
-0.228651 0.191964 0.260553 48 104 32
-0.228096 0.191842 0.261446 50 103 36
-0.224863 0.177535 0.254714 63 115 53
-0.224322 0.176957 0.255181 71 123 57
-0.223786 0.176524 0.255769 76 125 59
-0.223248 0.17609 0.256358 75 124 57
-0.218994 0.156619 0.246931 75 119 58
-0.218505 0.15611 0.247364 70 107 53
-0.218016 0.155714 0.247901 62 96 39
-0.217536 0.154635 0.247819 57 90 30
-0.217055 0.153789 0.247943 52 90 36
-0.216559 0.153848 0.248888 54 89 31
-0.216054 0.154133 0.250049 48 89 33
-0.215551 0.154193 0.251008 54 91 30
-0.215064 0.153568 0.251336 47 88 31
-0.214564 0.153398 0.25209 47 88 31
-0.233924 0.175459 0.234753 66 64 44
-0.233394 0.174654 0.235006 65 72 43
-0.232876 0.173987 0.235356 76 105 58
-0.232339 0.173055 0.23551 70 114 60
-0.231844 0.172656 0.236052 57 103 45
-0.231302 0.1716 0.236108 50 102 37
-0.23079 0.170941 0.236454 50 101 32
-0.23028 0.170284 0.236799 51 100 31
-0.229771 0.169629 0.237144 50 102 33
-0.22927 0.169104 0.237586 47 102 34
-0.228778 0.168707 0.238125 46 102 35
-0.228489 0.192569 0.259321 48 102 35
-0.227919 0.192109 0.259945 51 104 34
-0.227362 0.191986 0.260836 51 103 36
-0.224179 0.177816 0.254261 62 114 52
-0.223634 0.177092 0.25461 69 122 57
-0.223097 0.17666 0.255198 75 126 59
-0.222558 0.176082 0.255666 76 126 58
-0.218368 0.156974 0.246617 76 119 58
-0.217878 0.156463 0.247051 70 107 53
-0.217388 0.156067 0.247588 61 95 40
-0.216904 0.155213 0.247713 59 91 32
-0.216422 0.154478 0.24794 53 89 37
-0.215933 0.154083 0.248475 54 88 34
-0.215428 0.154256 0.24953 50 88 32
-0.214926 0.154202 0.250384 54 90 27
-0.214433 0.153805 0.250922 52 87 31
-0.213939 0.153407 0.251463 52 86 30
-0.232701 0.174111 0.233993 66 63 40
-0.232186 0.173447 0.234342 70 88 55
-0.231653 0.172521 0.234499 77 118 70
-0.23116 0.172124 0.235039 64 109 54
-0.230649 0.171465 0.235386 53 102 39
-0.230147 0.170937 0.235829 50 100 34
-0.229645 0.17041 0.236272 50 100 32
-0.229137 0.169754 0.236617 48 100 30
-0.228636 0.169229 0.237059 46 101 31
-0.228143 0.168832 0.237598 45 101 34
-0.227166 0.191749 0.258941 49 101 33
-0.226602 0.191458 0.259696 48 101 37
-0.223494 0.178098 0.253809 63 112 51
-0.222947 0.177228 0.254039 69 120 56
-0.222406 0.17665 0.254507 74 126 58
-0.221869 0.176217 0.255095 76 128 58
-0.221333 0.175928 0.255803 75 126 57
-0.217738 0.15733 0.246302 75 120 59
-0.21725 0.156702 0.246635 69 107 53
-0.21676 0.156306 0.247172 60 95 42
-0.216272 0.15568 0.247504 59 91 32
-0.215784 0.15517 0.247938 54 88 34
-0.215293 0.154774 0.248474 54 88 35
-0.214794 0.154608 0.249219 54 89 31
-0.214298 0.154325 0.249863 53 89 26
-0.213805 0.153927 0.250402 54 87 30
-0.213334 0.152964 0.250416 56 86 30
-0.212842 0.152568 0.250955 54 87 28
-0.212343 0.152284 0.251599 54 87 27
-0.231483 0.172649 0.233148 64 66 51
-0.230991 0.172253 0.233686 83 108 62
-0.230498 0.171856 0.234224 78 118 55
-0.230005 0.17146 0.234762 64 107 45
-0.229504 0.170932 0.235205 55 101 37
-0.229004 0.170406 0.235648 52 100 35
-0.228503 0.169879 0.23609 48 100 35
-0.228003 0.169355 0.236532 45 99 35
-0.22751 0.168958 0.237071 46 100 36
-0.226434 0.191893 0.258334 44 101 32
-0.222804 0.178235 0.253237 64 111 51
-0.222255 0.177218 0.25335 68 118 55
-0.221717 0.176641 0.253817 74 125 57
-0.221177 0.175921 0.254167 77 129 59
-0.220641 0.175632 0.254872 77 128 58
-0.216617 0.157174 0.246422 68 107 52
-0.216127 0.156662 0.246857 60 95 41
-0.21564 0.156034 0.247189 58 90 30
-0.215151 0.155523 0.247624 55 89 30
-0.214659 0.155127 0.248162 53 90 36
-0.214162 0.154845 0.248804 54 89 29
-0.213669 0.154448 0.249343 53 89 25
-0.213181 0.153937 0.249777 53 87 30
-0.212708 0.153087 0.249898 56 87 33
-0.212215 0.15269 0.250436 54 88 29
-0.211722 0.152294 0.250974 54 88 29
-0.23034 0.172117 0.23297 86 100 57
-0.229848 0.17172 0.233507 87 125 63
-0.229355 0.171324 0.234044 73 119 55
-0.228863 0.170928 0.234582 62 108 43
-0.228362 0.170401 0.235025 57 103 37
-0.227856 0.169747 0.235371 55 102 36
-0.227369 0.16948 0.236006 52 101 35
-0.222115 0.17837 0.252664 63 112 52
-0.221567 0.177208 0.252661 67 118 55
-0.221027 0.176487 0.253011 73 124 57
-0.220488 0.175483 0.253125 78 130 60
-0.219952 0.174768 0.253473 79 130 59
-0.219416 0.174906 0.254531 77 128 58
-0.215972 0.158 0.246517 69 107 50
-0.215499 0.156784 0.246337 61 95 39
-0.215006 0.156389 0.246875 56 91 31
-0.214517 0.155877 0.24731 54 90 31
-0.214024 0.15548 0.247849 50 91 35
-0.21353 0.155083 0.248387 53 89 28
-0.213036 0.154685 0.248927 56 88 24
-0.212553 0.15406 0.249257 57 87 30
-0.212081 0.153209 0.24938 55 89 35
-0.211588 0.152813 0.249917 56 87 32
-0.211089 0.152529 0.25056 56 87 31
-0.210581 0.152357 0.25131 57 86 30
-0.229699 0.17211 0.232349 79 87 54
-0.229207 0.171715 0.232886 92 128 69
-0.228714 0.17132 0.233423 85 132 64
-0.228221 0.170923 0.23396 72 120 52
-0.227716 0.170268 0.234308 64 114 45
-0.227217 0.169744 0.23475 62 110 43
-0.226724 0.169348 0.235287 59 108 41
-0.220878 0.177198 0.251974 67 119 54
-0.220338 0.176047 0.251973 73 125 58
-0.219802 0.175331 0.252323 77 131 61
-0.219268 0.17476 0.252789 80 132 62
-0.218734 0.17433 0.253372 80 130 60
-0.215331 0.15848 0.246302 69 107 51
-0.21485 0.157609 0.246431 63 95 38
-0.214362 0.156977 0.246765 58 90 33
-0.21388 0.156231 0.246996 55 91 32
-0.213386 0.155834 0.247534 53 90 33
-0.212891 0.155436 0.248074 56 90 33
-0.212402 0.154923 0.24851 54 88 33
-0.211924 0.154182 0.248737 61 88 30
-0.211443 0.153558 0.249068 54 89 33
-0.210955 0.153049 0.249502 55 89 34
-0.210454 0.152764 0.250146 58 87 32
-0.209938 0.152705 0.251001 57 88 30
-0.229051 0.171975 0.231637 71 72 53
-0.22856 0.17158 0.232173 92 123 71
-0.228068 0.171184 0.232708 95 143 70
-0.227575 0.170789 0.233244 83 133 59
-0.227077 0.170265 0.233687 75 126 53
-0.226573 0.169613 0.234035 71 122 50
-0.226081 0.169217 0.234571 67 118 48
-0.220189 0.176755 0.250939 69 119 53
-0.219654 0.175895 0.251174 74 124 56
-0.21912 0.175182 0.251524 77 130 61
-0.218586 0.174752 0.252106 81 132 62
-0.218051 0.174323 0.252688 83 131 61
-0.217515 0.174034 0.253388 81 128 59
-0.214207 0.158086 0.246216 63 95 37
-0.213723 0.157334 0.246449 58 92 30
-0.213237 0.156703 0.246783 58 90 26
-0.212751 0.156073 0.247116 56 88 28
-0.212261 0.155559 0.247552 56 90 30
-0.211766 0.155162 0.248092 56 87 30
-0.211283 0.154534 0.248424 60 90 33
-0.210808 0.153795 0.248653 55 88 35
-0.21032 0.153284 0.249087 53 88 32
-0.209803 0.153226 0.24994 55 88 29
-0.228419 0.1721 0.231111 66 65 49
-0.227921 0.171576 0.231554 91 113 68
-0.227423 0.171051 0.231996 102 147 74
-0.226931 0.170656 0.232532 91 143 65
-0.226433 0.170133 0.232974 84 135 58
-0.225921 0.169226 0.233134 80 131 55
-0.225435 0.168959 0.233763 75 127 54
-0.219505 0.176602 0.25014 68 115 52
-0.218972 0.175744 0.250377 73 124 55
-0.218439 0.175174 0.250842 76 130 60
-0.217905 0.174744 0.251424 80 132 62
-0.217371 0.174316 0.252006 83 132 61
-0.216834 0.174027 0.252704 80 129 60
-0.213569 0.158329 0.245795 62 95 41
-0.213077 0.157812 0.246233 54 93 32
-0.212595 0.15706 0.246466 55 93 28
-0.212121 0.156196 0.246595 56 88 28
-0.211626 0.155799 0.247134 58 92 30
-0.211136 0.155285 0.24757 54 90 31
-0.210654 0.154658 0.247903 54 90 32
-0.210165 0.154146 0.248339 55 89 32
-0.20967 0.153748 0.248879 54 90 33
-0.227775 0.171964 0.230402 64 62 44
-0.227277 0.171441 0.230844 87 101 60
-0.22678 0.170917 0.231286 103 143 73
-0.226289 0.170523 0.231821 96 150 70
-0.225782 0.169744 0.232077 88 140 61
-0.225283 0.169096 0.232425 84 138 60
-0.224792 0.168702 0.232958 80 134 59
-0.218822 0.176737 0.249573 68 117 53
-0.21829 0.175879 0.249811 71 123 55
-0.217757 0.175307 0.250277 75 128 58
-0.217222 0.174879 0.250858 81 131 61
-0.216688 0.17445 0.25144 83 134 62
-0.216152 0.174021 0.252022 79 131 61
-0.212931 0.158571 0.245372 63 96 43
-0.212438 0.158054 0.245812 58 91 33
-0.211958 0.157301 0.246045 57 91 30
-0.211466 0.156786 0.246483 54 88 30
-0.210995 0.155923 0.246612 54 92 31
-0.210507 0.155409 0.247049 53 90 31
-0.210024 0.154781 0.247382 56 89 31
-0.209536 0.154269 0.247819 55 89 32
-0.227137 0.171959 0.229785 62 57 40
-0.226641 0.171436 0.230228 78 85 52
-0.226134 0.170655 0.230487 98 134 71
-0.225643 0.170262 0.23102 99 155 76
-0.225144 0.169613 0.231369 89 143 66
-0.22465 0.169092 0.23181 84 141 63
-0.224156 0.168573 0.23225 82 137 60
-0.223665 0.168179 0.232783 80 133 58
-0.218139 0.176871 0.249006 68 117 54
-0.217608 0.176013 0.249244 70 121 56
-0.217075 0.175442 0.249711 74 126 59
-0.216543 0.174871 0.250178 80 131 61
-0.216008 0.174443 0.250759 82 134 62
-0.21547 0.174155 0.251455 80 131 62
-0.214934 0.173726 0.252038 74 124 59
-0.212292 0.158814 0.244949 63 97 41
-0.211799 0.158296 0.245389 60 91 34
-0.211313 0.157661 0.245726 59 92 34
-0.210827 0.157026 0.246062 55 90 34
-0.210336 0.156511 0.246501 55 90 31
-0.209839 0.156111 0.247041 53 89 30
-0.209394 0.154904 0.246861 56 90 31
-0.208898 0.154507 0.247401 59 88 31
-0.226507 0.172084 0.229261 59 54 37
-0.225995 0.171173 0.229431 69 68 47
-0.2255 0.170651 0.229873 88 118 70
-0.225005 0.170131 0.230314 102 156 80
-0.224511 0.169609 0.230755 92 144 68
-0.224017 0.16909 0.231195 86 142 64
-0.223524 0.16857 0.231636 82 137 60
-0.223033 0.168177 0.232168 79 134 58
-0.216925 0.176147 0.248679 70 121 56
-0.216393 0.175575 0.249146 75 126 58
-0.215861 0.175006 0.249612 80 132 60
-0.215326 0.174577 0.250193 82 134 62
-0.214787 0.174289 0.250889 80 132 62
-0.214251 0.17386 0.251471 75 125 59
-0.211645 0.159178 0.244628 65 98 40
-0.211158 0.158539 0.244966 60 93 35
-0.210666 0.158021 0.245406 58 92 34
-0.210173 0.157503 0.245846 56 91 35
-0.209659 0.157338 0.246595 59 91 29
-0.20915 0.157055 0.247242 57 89 29
-0.225361 0.171167 0.228818 65 58 42
-0.224373 0.170126 0.2297 103 150 76
-0.223879 0.169606 0.230141 92 146 70
-0.223386 0.169087 0.230581 85 139 63
-0.222896 0.168695 0.231113 82 138 60
-0.222405 0.168301 0.231646 80 134 57
-0.216243 0.176282 0.248112 70 122 56
-0.215711 0.17571 0.24858 74 126 56
-0.215179 0.175139 0.249046 80 131 59
-0.214645 0.174711 0.249627 82 134 62
-0.214104 0.174423 0.250323 80 132 62
-0.213568 0.173995 0.250905 76 127 60
-0.210997 0.159542 0.244306 65 98 41
-0.210509 0.158902 0.244644 59 94 36
-0.210008 0.158501 0.245187 57 92 31
-0.209516 0.157981 0.245628 55 91 32
-0.209015 0.157581 0.246171 59 93 29
-0.208513 0.157179 0.246715 59 89 30
-0.208012 0.156778 0.247259 57 91 31
-0.224729 0.171164 0.228205 60 60 39
-0.223741 0.170122 0.229087 101 138 70
-0.223251 0.16973 0.229619 94 148 74
-0.222758 0.169211 0.230059 84 137 62
-0.222267 0.168819 0.230591 82 135 60
-0.221777 0.168426 0.231123 81 135 59
-0.215554 0.176702 0.247772 69 123 55
-0.215029 0.175844 0.248014 73 125 55
-0.214493 0.175416 0.248594 79 130 58
-0.213957 0.174987 0.249175 81 133 62
-0.213421 0.174558 0.249757 79 132 63
-0.212884 0.174128 0.250338 77 128 61
-0.210339 0.160027 0.244083 63 99 41
-0.209866 0.159146 0.24422 59 94 35
-0.209366 0.158745 0.244763 59 93 29
-0.208872 0.158224 0.245204 57 92 31
-0.20837 0.157823 0.245747 57 93 31
-0.207868 0.157421 0.246291 59 90 33
-0.223113 0.170248 0.228565 93 121 63
-0.222622 0.169855 0.229096 97 151 77
-0.22213 0.169335 0.229538 85 137 63
-0.22164 0.168943 0.230069 81 135 62
-0.221148 0.16855 0.230601 81 134 60
-0.214863 0.177125 0.24743 67 123 54
-0.214347 0.175979 0.247447 70 125 55
-0.213811 0.17555 0.248028 78 129 57
-0.213275 0.175121 0.248609 80 133 60
-0.212738 0.174692 0.24919 79 133 62
-0.212201 0.174263 0.249771 77 128 60
-0.209655 0.160879 0.244167 63 100 38
-0.209198 0.15975 0.244099 61 95 32
-0.208712 0.159108 0.244439 59 93 29
-0.208218 0.158587 0.244881 58 94 35
-0.207715 0.158185 0.245425 56 92 35
-0.207213 0.157783 0.24597 60 90 37
-0.206739 0.157027 0.246206 58 91 36
-0.221993 0.169852 0.228484 100 152 78
-0.221502 0.169459 0.229015 87 137 64
-0.22101 0.16894 0.229456 79 134 61
-0.220518 0.168548 0.229988 78 132 60
-0.220027 0.168155 0.230519 78 131 56
-0.214159 0.177839 0.247313 65 122 54
-0.213664 0.176113 0.246882 67 125 56
-0.213128 0.175685 0.247461 74 129 57
-0.212592 0.175256 0.248042 79 130 59
-0.212055 0.174827 0.248623 79 129 61
-0.208997 0.161248 0.243841 65 100 40
-0.208508 0.160601 0.244183 60 94 35
-0.208039 0.159714 0.244319 60 94 35
-0.207562 0.158951 0.244557 60 94 33
-0.207058 0.158548 0.245102 56 93 37
-0.206564 0.158027 0.245545 59 90 39
-0.221365 0.169976 0.227962 102 143 75
-0.220873 0.169583 0.228493 87 139 69
-0.220382 0.169065 0.228934 77 130 58
-0.219891 0.168672 0.229466 74 127 59
-0.219398 0.168279 0.229997 74 126 54
-0.213456 0.178412 0.247081 63 120 53
-0.212976 0.17639 0.246427 65 123 56
-0.212445 0.175819 0.246896 70 126 58
-0.211908 0.17539 0.247476 76 128 60
-0.208346 0.161497 0.243411 64 97 41
-0.207849 0.16097 0.243856 58 94 39
-0.207361 0.160323 0.244198 57 91 38
-0.206884 0.159556 0.244437 57 95 34
-0.206389 0.159032 0.244881 60 94 36
-0.205926 0.158152 0.245016 58 91 35
-0.205421 0.157748 0.245561 55 92 35
-0.220737 0.1701 0.22744 98 123 67
-0.220245 0.169581 0.227882 87 141 74
-0.219754 0.169188 0.228412 74 125 57
-0.219262 0.168796 0.228943 72 122 57
-0.21877 0.168404 0.229475 70 121 53
-0.218277 0.16801 0.230006 69 120 52
-0.212756 0.178841 0.246736 61 118 52
-0.21228 0.176812 0.246082 65 121 54
-0.211743 0.176383 0.246664 69 124 56
-0.207685 0.161869 0.243082 65 98 39
-0.207196 0.161218 0.243426 58 95 35
-0.206699 0.160691 0.243871 53 95 36
-0.206212 0.160044 0.244214 55 93 33
-0.205727 0.159398 0.244556 54 92 36
-0.205275 0.158396 0.244589 58 94 35
-0.20477 0.157992 0.245135 57 92 36
-0.219617 0.169705 0.22736 88 138 74
-0.219125 0.169313 0.22789 73 121 56
-0.218633 0.16892 0.228421 67 117 53
-0.218141 0.168527 0.228952 65 117 52
-0.217649 0.168134 0.229484 63 115 50
-0.217153 0.167867 0.230106 62 115 50
-0.212065 0.178977 0.246163 61 116 47
-0.211523 0.178544 0.246748 65 121 52
-0.207021 0.162242 0.242753 64 98 39
-0.206533 0.16159 0.243098 56 94 35
-0.206046 0.16094 0.243441 56 96 34
-0.205538 0.160535 0.243989 54 95 34
-0.20504 0.160007 0.244435 56 93 37
-0.204578 0.159119 0.244572 58 95 32
-0.204071 0.158715 0.245119 60 92 33
-0.218989 0.169829 0.226838 90 133 72
-0.218498 0.169437 0.227368 72 120 55
-0.218005 0.169045 0.227899 62 112 50
-0.217513 0.168651 0.22843 61 111 49
-0.217019 0.168258 0.228961 59 111 48
-0.216526 0.167865 0.229493 59 109 48
-0.216032 0.167472 0.230025 58 109 43
-0.211375 0.179113 0.245589 58 116 49
-0.210839 0.178533 0.246063 64 121 53
-0.206315 0.163113 0.242831 63 97 40
-0.205868 0.161962 0.242767 58 94 33
-0.205369 0.161433 0.243214 59 93 33
-0.204882 0.160782 0.243559 58 94 36
-0.204385 0.160255 0.244005 60 92 34
-0.203887 0.159727 0.244451 59 95 31
-0.203366 0.159443 0.245103 56 94 33
-0.218361 0.169953 0.226315 92 120 64
-0.217869 0.169561 0.226846 73 118 58
-0.217376 0.169168 0.227376 60 109 49
-0.216883 0.168776 0.227907 57 107 43
-0.21639 0.168383 0.228438 55 109 46
-0.215897 0.16799 0.22897 57 109 44
-0.215402 0.167596 0.229502 57 108 42
-0.214908 0.167202 0.230034 58 106 41
-0.214414 0.166807 0.230568 57 106 42
-0.210685 0.179249 0.245017 56 112 49
-0.21022 0.17736 0.24449 62 120 53
-0.20968 0.176931 0.245071 66 124 56
-0.205622 0.163741 0.242704 62 97 41
-0.205154 0.162833 0.242845 59 95 34
-0.204689 0.161929 0.242986 56 93 36
-0.204202 0.161276 0.243332 56 93 37
-0.203691 0.160869 0.243882 58 93 35
-0.20318 0.160462 0.244433 58 93 34
-0.202602 0.160665 0.245504 55 93 33
-0.217733 0.170077 0.225793 85 95 55
-0.217241 0.169685 0.226323 78 124 64
-0.216748 0.169293 0.226853 63 110 52
-0.216254 0.1689 0.227384 60 107 43
-0.215761 0.168507 0.227915 59 106 41
-0.215267 0.168114 0.228447 60 108 43
-0.214773 0.16772 0.228979 58 107 42
-0.214278 0.167326 0.229511 57 106 44
-0.213796 0.166558 0.229773 57 107 42
-0.213302 0.166164 0.230305 58 106 42
-0.209542 0.177351 0.243811 61 117 51
-0.20903 0.176491 0.244062 66 124 54
-0.2085 0.17592 0.244531 69 126 55
-0.204949 0.16412 0.24237 62 98 37
-0.204459 0.16346 0.242718 60 94 35
-0.203993 0.162551 0.24286 58 92 37
-0.203493 0.162019 0.243309 57 94 39
-0.20298 0.16161 0.243861 58 94 35
-0.202466 0.161201 0.244414 60 93 31
-0.201924 0.161039 0.245176 60 92 31
-0.217108 0.169946 0.225097 68 73 43
-0.216616 0.169555 0.225626 85 124 67
-0.216124 0.169163 0.226155 71 117 55
-0.215628 0.168897 0.226773 62 111 48
-0.215138 0.168379 0.227215 61 110 45
-0.214641 0.168112 0.227835 62 110 45
-0.214147 0.167719 0.228366 59 109 46
-0.213653 0.167325 0.228898 59 108 47
-0.213167 0.166681 0.22925 57 108 45
-0.212673 0.166288 0.229782 57 108 45
-0.208858 0.177486 0.243244 59 116 48
-0.208356 0.176483 0.243386 65 124 53
-0.207933 0.174359 0.242665 70 126 55
-0.2074 0.173934 0.243238 74 128 58
-0.206878 0.173371 0.243704 79 129 58
-0.204274 0.164501 0.242035 62 98 34
-0.203783 0.163838 0.242384 60 93 34
-0.203293 0.163178 0.242733 60 92 37
-0.202805 0.162519 0.24308 58 95 39
-0.202289 0.162109 0.243633 60 93 34
-0.201775 0.161699 0.244187 63 94 29
-0.216483 0.169943 0.22449 52 62 42
-0.215991 0.169552 0.225018 86 115 65
-0.215499 0.16916 0.225547 79 126 61
-0.215006 0.168769 0.226076 68 117 53
-0.214514 0.168377 0.226606 64 113 50
-0.21402 0.167985 0.227135 62 112 50
-0.213522 0.167717 0.227755 61 112 49
-0.213033 0.1672 0.228197 60 111 49
-0.212539 0.166806 0.228728 60 111 47
-0.212043 0.166412 0.22926 59 111 47
-0.207683 0.176474 0.242712 63 122 52
-0.207258 0.174492 0.242104 69 127 56
-0.206735 0.173928 0.24257 72 128 58
-0.206212 0.173365 0.243036 77 130 59
-0.205678 0.172941 0.243609 79 131 58
-0.20357 0.165138 0.241904 62 98 37
-0.203105 0.164219 0.242049 61 93 38
-0.202615 0.163556 0.242398 61 94 40
-0.202113 0.163021 0.24285 59 96 41
-0.201611 0.162486 0.243301 61 95 38
-0.201081 0.1622 0.243959 64 96 36
-0.215862 0.169813 0.223797 55 52 37
-0.215373 0.169296 0.224238 83 97 56
-0.214882 0.168905 0.224766 87 132 66
-0.214391 0.168515 0.225294 77 126 57
-0.213903 0.167998 0.225735 70 119 53
-0.213416 0.167483 0.226176 66 118 52
-0.212903 0.16759 0.227056 65 118 51
-0.212404 0.167323 0.227674 65 116 50
-0.211909 0.16693 0.228205 64 116 50
-0.211414 0.166536 0.228737 64 116 50
-0.206591 0.174486 0.241436 69 128 56
-0.206069 0.173922 0.241903 72 130 58
-0.205547 0.173359 0.242368 76 132 59
-0.205014 0.172935 0.242941 79 131 60
-0.20448 0.172511 0.243514 76 125 59
-0.202809 0.166294 0.242187 63 98 40
-0.202411 0.164727 0.241815 62 95 45
-0.201935 0.163936 0.242063 61 95 45
-0.201447 0.163274 0.242412 61 95 43
-0.20093 0.162863 0.242967 61 96 40
-0.200397 0.162577 0.243625 62 97 43
-0.215259 0.169052 0.222684 55 47 34
-0.21477 0.168664 0.223208 69 74 50
-0.21428 0.168276 0.223733 92 131 70
-0.213795 0.167762 0.224173 87 136 66
-0.21331 0.167249 0.224613 78 128 58
-0.21283 0.166613 0.224966 74 126 55
-0.212314 0.166841 0.225923 72 125 53
-0.211769 0.167573 0.22724 72 123 54
-0.205926 0.174478 0.24077 68 127 56
-0.205405 0.173915 0.241237 73 132 59
-0.204871 0.173493 0.241808 76 132 60
-0.204363 0.172792 0.242168 79 131 62
-0.20383 0.172368 0.24274 78 126 61
-0.202122 0.166681 0.241847 63 98 39
-0.201685 0.165494 0.241786 60 96 46
-0.201238 0.164444 0.24183 59 94 44
-0.200765 0.163653 0.242077 60 94 38
-0.200246 0.163242 0.242632 61 92 35
-0.214643 0.168925 0.221999 53 50 33
-0.214159 0.168412 0.222438 60 57 43
-0.21367 0.168024 0.222962 92 118 66
-0.213186 0.167512 0.223401 96 144 74
-0.212698 0.167124 0.223925 88 139 66
-0.212208 0.166735 0.224449 82 135 61
-0.211719 0.166346 0.224974 80 134 58
-0.204729 0.174049 0.240676 72 133 60
-0.204208 0.173486 0.241142 76 133 61
-0.203701 0.172786 0.241502 78 132 61
-0.203208 0.171951 0.241756 79 127 60
-0.202634 0.17194 0.242645 66 116 53
-0.20177 0.169203 0.2423 68 102 46
-0.201447 0.166941 0.241404 60 97 39
-0.200984 0.166008 0.24155 57 95 38
-0.200508 0.16521 0.2418 58 93 35
-0.199987 0.164796 0.242358 60 93 33
-0.21403 0.168797 0.221316 49 48 29
-0.213546 0.168285 0.221755 53 50 34
