ply
format ascii 1.0
element vertex 1263
property float x
property float y
property float z
property uchar diffuse_red
property uchar diffuse_green
property uchar diffuse_blue
end_header
-0.271709 0.183115 0.278575 34 101 32
-0.270974 0.183719 0.278559 34 98 29
-0.270239 0.184324 0.278542 35 97 26
-0.269668 0.185059 0.27849 40 98 29
-0.224923 0.173419 0.284804 52 109 48
-0.222056 0.171732 0.285351 53 112 46
-0.221047 0.171841 0.285437 44 106 35
-0.220438 0.172341 0.285424 40 103 31
-0.219632 0.172645 0.285461 50 108 43
-0.218828 0.172948 0.285497 59 112 48
-0.218221 0.173447 0.285484 50 103 38
-0.217516 0.173848 0.285495 46 98 37
-0.216526 0.17395 0.285581 44 97 34
-0.215635 0.174151 0.285641 53 102 40
-0.214749 0.174351 0.285702 52 105 42
-0.213866 0.174551 0.285762 51 106 43
-0.212528 0.174258 0.285942 56 108 46
-0.211566 0.174358 0.286025 59 111 51
-0.210609 0.174458 0.286107 70 122 55
-0.209304 0.17417 0.286284 70 116 53
-0.208362 0.17427 0.286365 69 112 52
-0.207597 0.174562 0.286399 75 118 54
-0.206749 0.174757 0.286456 84 135 65
-0.206074 0.175145 0.286466 90 144 67
-0.205231 0.175339 0.286523 94 148 68
-0.204225 0.175339 0.286626 94 150 72
-0.203473 0.175628 0.286659 89 146 72
-0.202723 0.175916 0.286692 82 138 69
-0.201812 0.17601 0.286771 75 131 64
-0.201148 0.176393 0.286781 71 128 60
-0.200485 0.176776 0.286791 73 128 59
-0.199902 0.177255 0.286778 78 129 61
-0.199966 0.185976 0.285458 110 168 89
-0.199277 0.186368 0.285469 102 158 88
-0.198508 0.186651 0.285505 84 140 76
-0.197903 0.187148 0.285492 71 114 61
-0.197297 0.187646 0.285479 62 103 51
-0.196691 0.188144 0.285466 60 99 46
-0.196326 0.188969 0.285379 58 98 45
-0.195798 0.189578 0.285341 59 97 46
-0.195429 0.190408 0.285253 60 97 48
-0.198729 0.197787 0.283806 62 103 51
-0.198093 0.198309 0.283792 67 108 53
-0.197458 0.198831 0.283778 71 113 56
-0.196907 0.199476 0.283737 76 118 58
-0.196271 0.199998 0.283724 81 125 60
-0.195634 0.200522 0.28371 87 132 65
-0.194998 0.201045 0.283696 93 131 71
-0.194443 0.201692 0.283655 93 105 71
-0.19397 0.202465 0.283587 87 79 69
-0.271643 0.182919 0.277668 37 103 34
-0.270742 0.183395 0.277689 35 100 31
-0.270006 0.183999 0.277673 35 98 28
-0.269107 0.184473 0.277694 34 96 29
-0.223693 0.172145 0.284335 53 107 48
-0.222265 0.171858 0.284529 60 115 53
-0.221153 0.171868 0.284643 58 115 48
-0.220245 0.172074 0.284706 50 105 37
-0.219636 0.172575 0.284693 55 111 43
-0.218831 0.172878 0.28473 75 125 55
-0.218028 0.173181 0.284768 74 121 53
-0.217324 0.173582 0.28478 74 119 55
-0.216238 0.173586 0.284892 77 117 54
-0.215349 0.173788 0.284954 79 124 57
-0.214557 0.174087 0.284991 73 120 56
-0.213675 0.174287 0.285052 68 118 55
-0.212338 0.173996 0.285237 70 123 54
-0.211466 0.174195 0.285297 72 128 58
-0.210509 0.174295 0.285382 79 133 62
-0.209469 0.174298 0.28549 84 136 63
-0.208349 0.174204 0.285622 87 143 67
-0.207583 0.174497 0.285656 99 155 75
-0.206819 0.17479 0.285691 107 164 81
-0.205973 0.174985 0.28575 108 168 81
-0.205129 0.175179 0.285808 107 169 81
-0.204122 0.175179 0.285913 102 164 79
-0.203287 0.175372 0.285971 92 152 75
-0.202455 0.175564 0.286028 83 140 70
-0.201708 0.175852 0.286062 80 134 64
-0.201044 0.176236 0.286072 79 134 62
-0.20046 0.176715 0.286059 79 135 62
-0.200546 0.185428 0.28471 86 140 76
-0.199773 0.185713 0.284747 78 126 66
-0.199085 0.186104 0.284758 73 113 60
-0.198397 0.186495 0.28477 66 105 54
-0.197791 0.186993 0.284757 60 100 51
-0.197185 0.187491 0.284744 59 98 49
-0.19674 0.188206 0.28468 59 97 45
-0.196213 0.188814 0.284642 58 98 48
-0.195845 0.189643 0.284553 57 97 51
-0.198527 0.197511 0.283062 61 100 49
-0.197806 0.197913 0.283075 64 103 52
-0.197256 0.198556 0.283034 68 108 54
-0.19662 0.199078 0.28302 73 113 56
-0.196068 0.199723 0.282978 75 118 57
-0.195432 0.200246 0.282964 82 122 62
-0.194795 0.200769 0.28295 87 116 66
-0.194241 0.201416 0.282909 87 94 64
-0.270509 0.18307 0.276819 40 102 34
-0.269774 0.183674 0.276803 38 100 32
-0.269038 0.184279 0.276787 35 98 32
-0.225151 0.172365 0.283355 58 113 50
-0.223498 0.171875 0.283609 63 116 54
-0.222273 0.171786 0.283754 67 123 58
-0.221059 0.171698 0.283898 71 128 60
-0.22025 0.172004 0.283937 76 125 56
-0.219443 0.172308 0.283975 83 134 61
-0.218638 0.172612 0.284013 98 151 69
-0.217932 0.173013 0.284026 103 156 72
-0.217131 0.173315 0.284064 101 159 75
-0.216046 0.173321 0.284179 97 157 77
-0.215158 0.173523 0.284243 87 147 73
-0.214272 0.173725 0.284306 78 133 65
-0.213391 0.173925 0.284368 77 130 63
-0.212148 0.173734 0.284532 78 133 63
-0.211277 0.173933 0.284593 79 134 62
-0.21041 0.174132 0.284655 83 137 64
-0.209457 0.174232 0.284741 90 143 66
-0.208248 0.174042 0.2849 105 161 75
-0.207482 0.174336 0.284936 117 177 85
-0.206632 0.174532 0.284996 121 183 88
-0.20587 0.174824 0.285032 118 183 88
-0.204942 0.174922 0.285116 111 177 86
-0.203936 0.174923 0.285223 101 164 80
-0.203101 0.175117 0.285282 92 150 75
-0.20227 0.175309 0.285341 87 139 70
-0.201685 0.17579 0.285328 84 136 67
-0.200939 0.176078 0.285363 90 136 67
-0.200353 0.185164 0.283997 67 108 55
-0.199663 0.185556 0.28401 63 102 48
-0.198974 0.185948 0.284022 63 96 44
-0.198286 0.186339 0.284034 61 96 44
-0.19768 0.186837 0.284021 58 98 49
-0.197154 0.187444 0.283982 59 96 49
-0.196627 0.188051 0.283942 60 96 47
-0.19626 0.188878 0.283852 58 95 49
-0.198154 0.196996 0.282373 60 98 48
-0.19752 0.197517 0.282359 63 100 51
-0.196969 0.198159 0.282317 65 102 51
-0.196418 0.198803 0.282275 67 107 53
-0.195866 0.199447 0.282233 70 111 57
-0.195229 0.19997 0.282219 74 113 62
-0.194593 0.200494 0.282205 77 99 64
-0.194038 0.20114 0.282163 79 81 63
-0.223303 0.171605 0.282883 74 129 59
-0.22218 0.171616 0.283004 76 133 62
-0.220965 0.171529 0.283151 81 139 67
-0.220056 0.171736 0.283218 94 150 70
-0.21925 0.172041 0.283257 108 163 79
-0.218445 0.172345 0.283296 116 176 87
-0.217739 0.172747 0.283309 115 176 87
-0.216938 0.173049 0.283348 108 168 85
-0.215854 0.173056 0.283466 99 158 79
-0.214966 0.173259 0.283531 87 143 70
-0.214081 0.173461 0.283595 84 136 65
-0.213016 0.173466 0.283711 84 135 66
-0.211958 0.173471 0.283826 84 138 66
-0.211087 0.173671 0.28389 84 139 66
-0.21022 0.173871 0.283953 88 144 70
-0.209268 0.173972 0.284041 103 162 78
-0.208147 0.17388 0.284178 116 178 91
-0.207381 0.174174 0.284215 121 184 96
-0.206444 0.174274 0.284302 122 183 93
-0.205683 0.174566 0.284338 123 181 93
-0.20484 0.174761 0.284399 118 175 92
-0.203833 0.174763 0.284509 107 161 83
-0.202998 0.174957 0.284569 96 147 75
-0.20233 0.175343 0.284581 90 143 72
-0.201581 0.175631 0.284617 88 141 71
-0.202588 0.182905 0.283339 100 150 78
-0.201981 0.183404 0.283326 82 129 67
-0.200767 0.184401 0.283298 64 102 47
-0.20016 0.1849 0.283285 59 98 44
-0.199553 0.185399 0.283271 59 97 41
-0.198863 0.185791 0.283284 63 95 38
-0.198256 0.18629 0.28327 59 93 45
-0.197649 0.186789 0.283257 57 96 51
-0.197042 0.187288 0.283243 56 94 51
-0.196675 0.188113 0.283151 55 95 45
-0.198331 0.195842 0.28173 60 93 44
-0.197698 0.196362 0.281715 59 93 46
-0.19715 0.197002 0.281673 60 94 49
-0.196767 0.197884 0.281573 61 96 51
-0.196216 0.198527 0.28153 64 101 51
-0.195663 0.199172 0.281488 67 105 54
-0.195027 0.199695 0.281473 71 101 59
-0.194472 0.200341 0.28143 76 91 66
-0.193917 0.200988 0.281387 79 86 69
-0.223108 0.171334 0.282157 80 134 63
-0.221985 0.171346 0.28228 84 139 64
-0.220771 0.17126 0.282431 94 150 71
-0.219962 0.171567 0.282471 114 169 80
-0.219056 0.171774 0.282539 122 181 90
-0.218349 0.172176 0.282552 123 183 91
-0.21745 0.172382 0.282619 119 180 89
-0.216746 0.172783 0.282633 109 168 85
-0.215662 0.172791 0.282753 100 154 80
-0.214774 0.172994 0.282819 93 142 75
-0.21389 0.173196 0.282885 99 139 77
-0.212825 0.173203 0.283003 106 143 79
-0.211768 0.173209 0.283121 107 143 77
-0.210897 0.17341 0.283186 104 146 77
-0.210031 0.17361 0.28325 112 166 85
-0.209079 0.173712 0.28334 117 180 92
-0.208133 0.173814 0.283429 117 185 101
-0.207279 0.174011 0.283493 113 183 104
-0.206428 0.174208 0.283556 109 178 101
-0.205581 0.174405 0.283619 103 171 99
-0.204653 0.174504 0.283706 99 161 93
-0.20373 0.174603 0.283794 92 149 82
-0.202894 0.174797 0.283856 85 141 73
-0.202225 0.175183 0.283867 82 139 70
-0.203693 0.181749 0.282627 97 145 73
-0.203001 0.182143 0.28264 100 150 78
-0.202395 0.182641 0.282627 80 129 67
-0.201788 0.18314 0.282613 66 111 54
-0.201181 0.183638 0.2826 62 102 48
-0.200658 0.184243 0.282559 61 97 45
-0.20005 0.184742 0.282546 59 95 43
-0.199443 0.185241 0.282532 59 95 40
-0.198835 0.185741 0.282518 60 94 40
-0.198145 0.186133 0.282531 58 94 46
-0.197537 0.186633 0.282518 58 95 49
-0.199019 0.195403 0.280915 60 91 43
-0.19813 0.195568 0.280988 60 91 43
-0.197497 0.196088 0.280974 59 93 48
-0.196864 0.196608 0.280959 60 93 48
-0.196565 0.197609 0.280829 60 94 48
-0.196014 0.198252 0.280786 61 96 52
-0.195461 0.198896 0.280742 67 95 54
-0.194907 0.199541 0.280698 74 88 59
-0.194269 0.200065 0.280684 79 81 64
-0.221892 0.171175 0.281529 96 148 72
-0.220677 0.17109 0.281682 113 166 79
-0.219768 0.171299 0.281752 121 179 90
-0.218863 0.171507 0.281821 124 185 93
-0.218156 0.171909 0.281834 121 182 91
-0.217257 0.172115 0.281903 112 173 89
-0.216553 0.172517 0.281917 102 161 86
-0.215565 0.172623 0.282012 93 154 85
-0.214583 0.172729 0.282107 90 153 89
-0.213698 0.172932 0.282175 90 152 101
-0.212634 0.17294 0.282295 89 151 101
-0.211577 0.172947 0.282415 89 145 88
-0.210618 0.173051 0.282508 92 146 81
-0.209841 0.173349 0.282547 96 155 81
-0.208891 0.173452 0.282639 98 161 80
-0.208032 0.173651 0.282704 97 160 81
-0.207091 0.173752 0.282795 95 157 83
-0.20624 0.17395 0.28286 90 153 80
-0.205393 0.174147 0.282924 85 150 76
-0.204466 0.174247 0.283014 81 143 72
-0.203543 0.174347 0.283103 77 136 68
-0.202708 0.174542 0.283166 74 132 64
-0.202121 0.175024 0.283153 72 130 61
-0.204193 0.18109 0.281901 90 142 66
-0.203501 0.181485 0.281915 102 153 77
-0.202894 0.181983 0.281901 86 136 70
-0.202287 0.182482 0.281887 68 112 55
-0.201596 0.182876 0.281901 61 103 48
-0.201072 0.18348 0.28186 59 101 48
-0.200548 0.184085 0.281819 59 98 47
-0.200023 0.184691 0.281778 59 97 42
-0.199415 0.185191 0.281764 60 96 41
-0.198888 0.185798 0.281723 58 93 44
-0.197929 0.195293 0.280246 61 90 42
-0.197296 0.195813 0.280232 60 93 47
-0.196663 0.196333 0.280218 59 93 46
-0.196363 0.197334 0.280085 60 94 47
-0.195811 0.197976 0.280041 64 94 53
-0.195341 0.198742 0.279967 72 85 59
-0.221697 0.170906 0.280804 98 160 82
-0.220583 0.170919 0.280933 107 172 89
-0.219673 0.171129 0.281004 107 174 86
-0.218866 0.171435 0.281046 105 170 87
-0.217963 0.171642 0.281116 98 161 84
-0.217161 0.171947 0.281159 94 155 77
-0.216456 0.172349 0.281173 87 145 74
-0.215373 0.172358 0.281298 83 141 69
-0.214391 0.172465 0.281395 81 140 69
-0.213507 0.172668 0.281464 81 140 72
-0.212443 0.172677 0.281587 80 142 71
-0.211297 0.172588 0.281737 79 142 69
-0.210428 0.17279 0.281804 81 142 68
-0.209652 0.173088 0.281844 82 145 68
-0.208702 0.173191 0.281938 82 147 68
-0.207844 0.173391 0.282005 81 147 68
-0.206817 0.173397 0.282124 78 143 67
-0.205967 0.173595 0.28219 75 139 65
-0.204952 0.173601 0.282308 73 135 62
-0.204028 0.173703 0.282399 71 131 60
-0.203108 0.173804 0.28249 69 128 58
-0.202522 0.174286 0.282476 69 126 58
-0.204781 0.180533 0.281146 83 137 63
-0.204087 0.180929 0.28116 103 151 74
-0.203479 0.181428 0.281147 96 148 76
-0.202871 0.181927 0.281133 74 122 58
-0.202263 0.182427 0.281119 65 106 50
-0.201571 0.182821 0.281133 61 100 45
-0.201131 0.183532 0.281063 60 99 46
-0.200606 0.184138 0.281022 58 98 47
-0.20008 0.184745 0.28098 59 98 43
-0.199552 0.185354 0.280938 60 97 43
-0.201766 0.193592 0.279274 58 92 46
-0.201129 0.194116 0.27926 59 89 43
-0.198958 0.195328 0.279307 59 91 43
-0.197897 0.195256 0.279444 61 89 43
-0.197179 0.195657 0.27946 61 91 45
-0.196629 0.196297 0.279415 59 92 46
-0.196245 0.197178 0.27931 63 91 49
-0.195692 0.197822 0.279265 69 87 58
-0.220388 0.170651 0.280211 87 152 72
-0.21948 0.170861 0.280283 87 151 69
-0.218868 0.171363 0.280269 85 146 69
-0.218061 0.171669 0.280312 79 144 68
-0.21716 0.171876 0.280384 75 140 66
-0.216359 0.17218 0.280428 72 135 64
-0.21537 0.172288 0.280527 69 131 60
-0.214199 0.1722 0.280683 69 132 59
-0.213316 0.172404 0.280753 70 130 61
-0.212436 0.172608 0.280823 70 133 61
-0.211378 0.172616 0.280949 72 135 63
-0.210238 0.172528 0.2811 76 137 65
-0.209462 0.172826 0.281142 80 141 66
-0.2086 0.173027 0.28121 84 143 68
-0.207221 0.172651 0.281441 87 143 67
-0.206371 0.172851 0.281508 85 143 66
-0.205355 0.17286 0.281628 84 142 67
-0.204429 0.172963 0.281721 84 140 66
-0.203509 0.173066 0.281813 82 138 66
-0.202757 0.173358 0.281853 79 137 65
-0.202335 0.17403 0.281786 79 135 65
-0.204674 0.180372 0.280404 100 148 76
-0.20398 0.180768 0.280418 105 154 81
-0.203372 0.181267 0.280404 86 131 66
-0.202763 0.181767 0.28039 70 115 54
-0.20207 0.182162 0.280405 65 107 52
-0.201546 0.182767 0.280362 62 101 47
-0.201021 0.183372 0.28032 60 99 44
-0.200747 0.184298 0.280192 59 98 46
-0.20022 0.184907 0.280149 59 98 44
-0.2022 0.192793 0.278542 56 94 49
-0.201475 0.193198 0.278558 57 93 46
-0.200838 0.193721 0.278543 59 90 43
-0.200202 0.194244 0.278529 59 90 43
-0.199478 0.194648 0.278545 56 89 44
-0.198756 0.195052 0.278562 54 91 46
-0.198035 0.195456 0.278578 58 89 46
-0.197314 0.195858 0.278594 62 89 48
-0.196678 0.196381 0.27858 65 86 50
-0.196126 0.197023 0.278534 72 83 55
-0.208499 0.172863 0.280481 102 160 81
-0.206775 0.172107 0.280826 106 161 80
-0.205166 0.171459 0.281137 106 162 79
-0.204329 0.171659 0.281204 102 160 79
-0.203743 0.17214 0.281191 96 155 77
-0.203157 0.172621 0.281177 91 149 75
-0.202571 0.173102 0.281164 90 147 74
-0.204568 0.18021 0.27966 112 159 85
-0.203873 0.180606 0.279675 95 144 75
-0.203178 0.181002 0.27969 79 121 57
-0.20257 0.181502 0.279676 70 115 55
-0.201962 0.182002 0.279662 67 110 53
-0.201437 0.182607 0.279619 62 104 50
-0.201164 0.18353 0.279488 59 101 47
-0.202634 0.191993 0.277809 58 95 47
-0.201997 0.192516 0.277794 59 93 46
-0.201361 0.193039 0.27778 58 93 44
-0.200723 0.193562 0.277765 60 92 41
-0.199999 0.193967 0.277782 59 91 43
-0.199276 0.194372 0.277799 57 87 45
-0.198554 0.194776 0.277816 58 85 46
-0.197917 0.195299 0.277801 63 83 47
-0.197112 0.195583 0.277849 69 83 55
-0.19656 0.196225 0.277803 74 78 58
-0.205313 0.170442 0.280543 111 170 88
-0.204561 0.170737 0.280584 110 166 85
-0.203811 0.17103 0.280625 104 162 81
-0.203227 0.17151 0.280611 96 156 76
-0.202807 0.172177 0.280543 93 153 74
-0.205507 0.180065 0.278781 122 171 89
-0.204548 0.180152 0.278886 109 158 82
-0.203765 0.180445 0.27893 85 131 64
-0.203071 0.180841 0.278946 75 120 56
-0.202462 0.181341 0.278932 71 117 55
-0.201853 0.181841 0.278917 69 112 53
-0.201244 0.182342 0.278903 64 105 51
-0.203615 0.190555 0.277124 60 96 44
-0.202979 0.191077 0.277109 59 98 45
-0.202432 0.191716 0.277062 60 95 46
-0.201795 0.192239 0.277047 60 94 45
-0.201246 0.19288 0.277 59 94 46
-0.200608 0.193403 0.276985 60 93 45
-0.19997 0.193927 0.276971 60 90 48
-0.199246 0.194332 0.276988 65 83 50
-0.198522 0.194737 0.277005 72 76 52
-0.1978 0.195142 0.277023 77 76 53
-0.205545 0.169521 0.279923 103 168 84
-0.204793 0.169817 0.279965 100 159 80
-0.204044 0.170111 0.280006 97 151 76
-0.203461 0.17059 0.279993 98 149 72
-0.202959 0.171162 0.279952 99 151 71
-0.202457 0.171735 0.27991 103 159 74
-0.205313 0.179798 0.278063 116 170 88
-0.204441 0.179989 0.278139 91 139 70
-0.203744 0.180386 0.278155 78 124 58
-0.202963 0.18068 0.2782 73 122 56
-0.202353 0.18118 0.278186 73 120 55
-0.201659 0.181576 0.278202 72 114 53
-0.20387 0.189527 0.276457 59 99 50
-0.203324 0.190163 0.27641 59 98 46
-0.202777 0.190801 0.276362 58 97 43
-0.202229 0.191439 0.276315 61 97 45
-0.201769 0.192196 0.276234 60 95 44
-0.201131 0.19272 0.276219 60 93 49
-0.200493 0.193244 0.276205 63 91 52
-0.199854 0.193768 0.27619 67 83 57
-0.199216 0.194293 0.276175 81 79 59
-0.198491 0.194698 0.276193 81 76 63
-0.234768 0.180793 0.273246 113 175 83
-0.234095 0.181345 0.27323 113 175 85
-0.205192 0.169083 0.279292 99 157 76
-0.204359 0.169287 0.279362 97 153 73
-0.203611 0.169581 0.279404 96 151 73
-0.203029 0.170059 0.279391 98 156 75
-0.202692 0.170814 0.279293 105 164 78
-0.206083 0.179443 0.277235 121 175 90
-0.205206 0.179635 0.277313 98 152 77
-0.204334 0.179826 0.277391 81 127 58
-0.203636 0.180224 0.277407 74 122 56
-0.202855 0.180518 0.277454 72 121 56
-0.20216 0.180914 0.27747 73 120 55
-0.20155 0.181415 0.277456 72 113 55
-0.204303 0.188729 0.275727 60 102 50
-0.203668 0.18925 0.275712 60 100 48
-0.203211 0.190002 0.275631 58 100 51
-0.202664 0.19064 0.275583 58 98 47
-0.202204 0.191395 0.275501 60 98 47
-0.201566 0.191919 0.275486 61 95 46
-0.200928 0.192443 0.275471 63 91 53
-0.20029 0.192967 0.275456 72 84 59
-0.199651 0.193491 0.275441 73 78 65
-0.23786 0.17886 0.272326 111 167 79
-0.237186 0.179414 0.27231 120 178 86
-0.236266 0.179737 0.272371 123 185 89
-0.235227 0.179945 0.272469 122 187 88
-0.234073 0.180038 0.272605 117 183 87
-0.233283 0.180473 0.272627 112 175 85
-0.23214 0.180564 0.272761 103 163 80
-0.231238 0.180883 0.27282 97 154 75
-0.230338 0.181201 0.272879 94 148 71
-0.205006 0.168827 0.278605 98 154 76
-0.204008 0.16885 0.278734 100 154 76
-0.203181 0.169053 0.278805 102 158 77
-0.202681 0.169622 0.278763 104 167 79
-0.205888 0.179175 0.276514 109 161 84
-0.205012 0.179368 0.276594 85 132 64
-0.204226 0.179663 0.276642 77 122 56
-0.203442 0.179958 0.27669 73 121 57
-0.202832 0.180459 0.276675 71 120 56
-0.201966 0.180649 0.276754 72 121 55
-0.201441 0.181254 0.276709 72 116 56
-0.20537 0.187411 0.275012 67 112 54
-0.204736 0.187932 0.274997 62 107 51
-0.204101 0.188453 0.274982 62 102 49
-0.203645 0.189203 0.274899 61 98 48
-0.203098 0.18984 0.27485 58 98 50
-0.202639 0.190594 0.274767 60 99 49
-0.202001 0.191118 0.274752 59 98 51
-0.201451 0.191759 0.274703 64 93 52
-0.200813 0.192283 0.274688 71 80 57
-0.200174 0.192807 0.274673 77 75 65
-0.240127 0.178483 0.27121 103 157 74
-0.238321 0.17801 0.271546 112 170 79
-0.2374 0.178335 0.271608 121 180 86
-0.236359 0.178546 0.271708 125 187 90
-0.235444 0.17887 0.271769 123 188 91
-0.234772 0.179421 0.271753 117 183 88
-0.233741 0.179629 0.271853 112 175 85
-0.232597 0.179723 0.271989 106 165 81
-0.231694 0.180043 0.27205 101 158 78
-0.230677 0.180248 0.272148 97 153 75
-0.229896 0.180681 0.272169 98 153 74
-0.22923 0.181227 0.272154 103 159 77
-0.203577 0.168323 0.278136 104 161 81
-0.202915 0.168709 0.27815 111 169 85
-0.202416 0.169276 0.278108 114 178 87
-0.206307 0.178404 0.275808 116 167 87
-0.205606 0.178805 0.275825 89 137 69
-0.204731 0.178998 0.275906 76 123 56
-0.204032 0.179397 0.275923 75 119 54
-0.203334 0.179795 0.275941 74 119 56
-0.202638 0.180193 0.275958 73 118 56
-0.201942 0.180591 0.275975 74 117 55
-0.205803 0.186614 0.274282 71 115 56
-0.205169 0.187135 0.274267 68 114 55
-0.204534 0.187656 0.274252 65 107 52
-0.203989 0.18829 0.274202 64 102 47
-0.203532 0.189041 0.274118 62 99 44
-0.202985 0.189678 0.274069 59 98 45
-0.202436 0.190317 0.274019 61 100 47
-0.201887 0.190957 0.273969 63 95 52
-0.201248 0.191481 0.273954 71 81 56
-0.20061 0.192005 0.273939 75 80 61
-0.24127 0.177069 0.270441 99 152 72
-0.240591 0.177627 0.270424 105 161 76
-0.239534 0.177841 0.270528 115 172 82
-0.238108 0.177713 0.27075 122 181 87
-0.237063 0.177926 0.270853 123 186 90
-0.236146 0.178251 0.270915 122 186 91
-0.235231 0.178575 0.270977 117 180 87
-0.234199 0.178785 0.271078 110 175 84
-0.233529 0.179335 0.271062 105 166 80
-0.232267 0.179316 0.271241 103 160 78
-0.231365 0.179637 0.271302 101 158 77
-0.230466 0.179956 0.271363 102 157 76
-0.229685 0.180389 0.271385 105 162 79
-0.228904 0.180821 0.271408 112 171 83
-0.228239 0.181367 0.271392 120 182 88
-0.202812 0.168546 0.277438 116 178 90
-0.206112 0.178137 0.275087 97 147 75
-0.205235 0.178332 0.275169 80 124 59
-0.204536 0.178731 0.275187 73 121 57
-0.203751 0.179027 0.275237 73 120 53
-0.20314 0.179529 0.275222 71 118 54
-0.202444 0.179927 0.27524 72 116 55
-0.206236 0.185817 0.273552 73 118 53
-0.205784 0.186563 0.273467 71 118 52
-0.205058 0.186971 0.273487 68 114 53
-0.204422 0.187493 0.273471 67 107 52
-0.203967 0.188242 0.273386 64 102 49
-0.20342 0.188878 0.273336 59 101 50
-0.202871 0.189516 0.273286 61 99 51
-0.202234 0.19004 0.27327 63 102 51
-0.201684 0.190679 0.27322 70 88 56
-0.201045 0.191204 0.273204 72 79 66
-0.241991 0.17644 0.269574 101 156 72
-0.241055 0.176771 0.269639 108 161 77
-0.240123 0.1771 0.269704 115 171 84
-0.239193 0.177429 0.269769 123 182 89
-0.237894 0.177416 0.269954 126 187 91
-0.23685 0.17763 0.270058 122 184 90
-0.235933 0.177956 0.270122 119 182 89
-0.235018 0.178281 0.270185 111 173 84
-0.233987 0.178491 0.270288 105 168 81
-0.232723 0.178475 0.270469 100 162 77
-0.232055 0.179023 0.270453 103 159 75
-0.231154 0.179344 0.270516 103 161 77
-0.230255 0.179664 0.270578 109 165 79
-0.229474 0.180097 0.270601 114 173 85
-0.228694 0.180529 0.270624 118 181 89
-0.228028 0.181075 0.270608 123 187 90
-0.206531 0.177366 0.274381 106 160 84
-0.205653 0.177563 0.274465 82 129 61
-0.204954 0.177963 0.274483 73 119 56
-0.204255 0.178362 0.274501 71 116 55
-0.203557 0.178761 0.274519 72 118 56
-0.202946 0.179263 0.274504 71 118 56
-0.202506 0.179971 0.274424 70 119 56
-0.205673 0.186398 0.272685 71 115 54
-0.204946 0.186807 0.272705 67 112 54
-0.204401 0.187442 0.272654 67 109 51
-0.203854 0.188078 0.272603 64 102 51
-0.203306 0.188716 0.272552 59 103 52
-0.202669 0.189239 0.272537 63 99 51
-0.202119 0.189878 0.272486 70 94 53
-0.201481 0.190402 0.27247 76 77 60
-0.243232 0.176262 0.268537 100 158 75
-0.241776 0.176141 0.268771 109 164 76
-0.24084 0.176472 0.268837 118 174 83
-0.239908 0.176802 0.268903 122 181 91
-0.238979 0.177131 0.268969 125 185 93
-0.23768 0.17712 0.269158 124 186 92
-0.236637 0.177334 0.269264 118 179 88
-0.23572 0.17766 0.269329 115 176 86
-0.234685 0.177873 0.269434 108 168 81
-0.233655 0.178084 0.269538 104 163 80
-0.232511 0.178182 0.269682 102 160 78
-0.231609 0.178504 0.269746 107 163 77
-0.23071 0.178826 0.269809 110 168 79
-0.230044 0.179372 0.269793 115 175 84
-0.229263 0.179805 0.269816 119 181 89
-0.228483 0.180238 0.26984 123 186 91
-0.227818 0.180783 0.269824 125 185 91
-0.206949 0.176595 0.273675 114 167 86
-0.206071 0.176793 0.27376 88 132 67
-0.205371 0.177194 0.273779 75 118 55
-0.204672 0.177594 0.273797 72 115 56
-0.204061 0.178095 0.273782 72 116 56
-0.203449 0.178597 0.273767 73 115 55
-0.206015 0.185488 0.271989 71 115 53
-0.20538 0.186009 0.271974 70 116 55
-0.204744 0.186531 0.271959 69 110 54
-0.204198 0.187165 0.271907 66 107 53
-0.203652 0.187801 0.271855 63 103 50
-0.203104 0.188438 0.271804 63 101 50
-0.202466 0.188962 0.271788 63 98 51
-0.201916 0.1896 0.271736 71 79 54
-0.201278 0.190124 0.271721 74 68 61
-0.253464 0.175559 0.266286 85 151 65
-0.252194 0.175669 0.266449 86 155 69
-0.251353 0.176127 0.266477 92 161 70
-0.250513 0.176584 0.266505 97 165 73
-0.249674 0.177041 0.266532 103 170 76
-0.245014 0.176542 0.267317 102 163 77
-0.243016 0.175962 0.26773 107 167 79
-0.241817 0.176067 0.267883 115 175 83
-0.240625 0.176173 0.268035 122 183 90
-0.239693 0.176504 0.268103 124 186 94
-0.238764 0.176833 0.26817 124 185 94
-0.237467 0.176823 0.268362 119 181 91
-0.236424 0.177038 0.268469 115 174 86
-0.235507 0.177365 0.268535 110 169 84
-0.234352 0.177465 0.268683 107 164 80
-0.233443 0.17779 0.268749 106 163 79
-0.2323 0.177889 0.268895 108 164 80
-0.231398 0.178212 0.26896 112 169 82
-0.230499 0.178534 0.269024 115 177 85
-0.229602 0.178855 0.269088 120 183 89
-0.228937 0.1794 0.269072 123 186 91
-0.228272 0.179946 0.269056 124 186 90
-0.207367 0.175825 0.272969 120 176 91
-0.206488 0.176024 0.273055 92 141 73
-0.205788 0.176425 0.273074 77 120 58
-0.205089 0.176825 0.273093 72 116 55
-0.204478 0.177327 0.273078 70 112 56
-0.203867 0.177829 0.273063 70 116 56
-0.203341 0.178433 0.273014 71 116 54
-0.205905 0.185322 0.271206 72 114 55
-0.205269 0.185844 0.271191 68 114 56
-0.204633 0.186366 0.271175 68 110 55
-0.204086 0.187001 0.271123 66 106 51
-0.203539 0.187638 0.27107 63 105 52
-0.202901 0.188161 0.271055 64 101 52
-0.202263 0.188684 0.271039 67 92 56
-0.201625 0.189208 0.271024 72 73 59
-0.253241 0.175249 0.265455 81 145 61
-0.251831 0.175243 0.265667 80 145 64
-0.250851 0.175585 0.26574 83 150 65
-0.249874 0.175926 0.265813 88 157 70
-0.249038 0.176382 0.265841 96 162 73
-0.248066 0.176721 0.265914 100 162 73
-0.246287 0.176363 0.266255 104 165 77
-0.244796 0.176238 0.266503 109 171 81
-0.243451 0.17623 0.266705 115 177 85
-0.241601 0.175768 0.267078 121 183 89
-0.240665 0.1761 0.267148 123 187 93
-0.239731 0.176431 0.267216 121 186 94
-0.23855 0.176535 0.26737 120 181 92
-0.237253 0.176526 0.267565 115 175 89
-0.23621 0.176742 0.267675 111 170 84
-0.235173 0.176957 0.267784 109 164 81
-0.23414 0.177171 0.267892 108 163 79
-0.233231 0.177496 0.267959 109 167 81
-0.232088 0.177596 0.268108 113 171 82
-0.231187 0.177919 0.268173 116 176 84
-0.230288 0.178241 0.268239 119 183 91
-0.229391 0.178563 0.268304 123 185 94
-0.228726 0.179108 0.268288 126 188 93
-0.228061 0.179654 0.268272 125 183 89
-0.207786 0.175054 0.272263 123 177 91
-0.206906 0.175255 0.272351 99 150 77
-0.206206 0.175657 0.27237 78 123 59
-0.205419 0.175957 0.272424 71 115 54
-0.204721 0.176357 0.272443 69 114 54
-0.204111 0.176858 0.272428 70 113 54
-0.203759 0.177664 0.27231 70 115 54
-0.205703 0.185045 0.270459 70 115 55
-0.205067 0.185567 0.270443 69 113 55
-0.204611 0.186314 0.270353 69 110 54
-0.203974 0.186837 0.270337 68 107 51
-0.203336 0.18736 0.270322 66 102 52
-0.202698 0.187883 0.270306 69 96 54
-0.20206 0.188407 0.27029 72 83 57
-0.251469 0.174819 0.264885 77 141 59
-0.250491 0.175161 0.26496 75 141 61
-0.249515 0.175502 0.265034 81 146 62
-0.248543 0.175843 0.265108 89 151 67
-0.247573 0.176182 0.265182 100 160 72
-0.246068 0.176058 0.265437 108 170 79
-0.244578 0.175935 0.265689 114 179 85
-0.243495 0.176156 0.265806 121 185 89
-0.241899 0.17592 0.266098 125 186 91
-0.240704 0.176027 0.266257 124 185 92
-0.239768 0.176359 0.266327 120 183 90
-0.23846 0.17635 0.266527 115 176 88
-0.236916 0.176118 0.266811 110 172 86
-0.235875 0.176334 0.266922 109 170 84
-0.23496 0.176662 0.266991 109 165 81
-0.233927 0.176876 0.267101 111 167 81
-0.233018 0.177202 0.267169 113 173 84
-0.231877 0.177303 0.26732 116 177 87
-0.230859 0.177515 0.267429 123 183 89
-0.229961 0.177837 0.267495 127 187 95
-0.229181 0.178271 0.26752 123 184 93
-0.228515 0.178817 0.267504 120 182 90
-0.208024 0.174084 0.271627 124 176 95
-0.207234 0.174387 0.271681 104 158 84
-0.206535 0.174788 0.271701 80 128 62
-0.205836 0.175189 0.271721 70 115 54
-0.205051 0.17549 0.271775 70 112 55
-0.204441 0.17599 0.27176 69 113 54
-0.203917 0.176591 0.27171 70 114 53
-0.203564 0.177397 0.27159 68 113 54
-0.20632 0.184469 0.269652 71 113 56
-0.205501 0.184768 0.269712 71 112 54
-0.205046 0.185514 0.26962 70 111 53
-0.204409 0.186037 0.269604 68 108 54
-0.203771 0.186559 0.269589 67 107 53
-0.203133 0.187083 0.269573 67 101 54
-0.202496 0.187606 0.269557 72 83 55
-0.251108 0.174395 0.264105 76 139 58
-0.249992 0.174623 0.264227 71 136 58
-0.249294 0.175195 0.26421 76 138 58
-0.248185 0.17542 0.264331 82 142 62
-0.247217 0.17576 0.264407 99 159 70
-0.245849 0.175753 0.264619 112 175 80
-0.244625 0.17586 0.264784 119 185 87
-0.243277 0.175853 0.264994 123 188 89
-0.24207 0.17596 0.265157 126 186 89
-0.240743 0.175953 0.265363 123 182 89
-0.239553 0.176059 0.265523 118 178 87
-0.238245 0.176052 0.265727 113 174 86
-0.236702 0.175821 0.266015 110 172 84
-0.23554 0.175927 0.266171 108 169 84
-0.234626 0.176254 0.266241 111 170 83
-0.233715 0.176582 0.26631 116 175 83
-0.232688 0.176796 0.266421 120 179 84
-0.231548 0.176898 0.266575 122 183 88
-0.230531 0.177111 0.266685 130 184 91
-0.22975 0.177545 0.266711 129 183 95
-0.22897 0.177979 0.266736 123 182 91
-0.209054 0.172814 0.270937 128 187 94
-0.208352 0.173216 0.270958 128 181 94
-0.207562 0.17352 0.271013 111 162 87
-0.206863 0.173921 0.271033 84 133 69
-0.206164 0.174322 0.271053 70 118 54
-0.205379 0.174624 0.271109 67 113 53
-0.20477 0.175123 0.271093 67 111 54
-0.20416 0.175623 0.271078 68 111 54
-0.203723 0.176325 0.270992 69 112 53
-0.206118 0.184191 0.268903 68 111 56
-0.205481 0.184714 0.268888 70 111 55
-0.204843 0.185236 0.268872 67 111 55
-0.204206 0.185759 0.268856 67 108 54
-0.203568 0.186282 0.26884 65 105 54
-0.20302 0.186918 0.268785 66 91 56
-0.202382 0.187442 0.268769 72 76 60
-0.250608 0.173858 0.263373 78 142 61
-0.249771 0.174315 0.263403 72 136 58
-0.248661 0.174543 0.263526 73 134 58
-0.247692 0.174883 0.263603 78 135 60
-0.246862 0.175338 0.263632 99 158 69
-0.24563 0.175448 0.263801 115 179 81
-0.244539 0.175671 0.263923 121 187 89
-0.243322 0.175779 0.26409 123 188 89
-0.242112 0.175886 0.264256 123 184 87
-0.241168 0.176221 0.26433 120 180 86
-0.23959 0.175986 0.26463 114 177 87
-0.238031 0.175754 0.264926 112 173 86
-0.236244 0.175302 0.265307 112 172 84
-0.235206 0.17552 0.265421 113 171 83
-0.234173 0.175737 0.265535 116 174 86
-0.233145 0.175953 0.265649 119 179 87
-0.232239 0.17628 0.265718 123 185 87
-0.23122 0.176494 0.265831 122 185 90
-0.23032 0.176818 0.2659 132 188 90
-0.229539 0.177253 0.265926 126 182 88
-0.20938 0.171947 0.270269 126 186 97
-0.208679 0.17235 0.270289 128 184 94
-0.207889 0.172654 0.270346 118 169 87
-0.20719 0.173056 0.270366 91 137 68
-0.206492 0.173457 0.270387 71 116 55
-0.205883 0.173957 0.270371 66 112 53
-0.205186 0.174358 0.270392 66 111 53
-0.204576 0.174857 0.270376 66 110 53
-0.204053 0.175457 0.270325 68 110 52
-0.203701 0.17626 0.270202 67 111 54
-0.205915 0.183914 0.268155 67 111 56
-0.205278 0.184436 0.268139 68 110 55
-0.204641 0.184959 0.268123 67 110 56
-0.204003 0.185481 0.268107 67 107 55
-0.203455 0.186117 0.268052 68 96 54
-0.202817 0.18664 0.268036 70 78 56
-0.250248 0.173436 0.262596 81 148 67
-0.249274 0.173779 0.262674 77 140 61
-0.248167 0.174007 0.262799 73 134 59
-0.247336 0.174463 0.262829 77 135 61
-0.246103 0.174575 0.263 99 157 69
-0.245277 0.175028 0.26303 115 180 81
-0.24432 0.175367 0.263106 120 188 89
-0.243234 0.17559 0.26323 121 187 89
-0.242154 0.175812 0.263352 121 183 88
-0.241079 0.176033 0.263474 119 180 89
-0.239501 0.175799 0.263779 114 176 89
-0.237816 0.175455 0.264125 112 173 87
-0.235787 0.174784 0.264601 116 175 85
-0.234631 0.174892 0.264761 118 178 86
-0.233364 0.17489 0.264964 119 180 89
-0.232577 0.175328 0.264991 120 182 90
-0.231675 0.175654 0.265061 123 186 91
-0.230659 0.17587 0.265175 121 183 92
-0.229994 0.176415 0.265158 123 186 95
-0.209798 0.171178 0.269565 126 186 93
-0.209096 0.171582 0.269586 126 184 94
-0.208306 0.171887 0.269643 120 173 90
-0.207607 0.172289 0.269664 95 141 73
-0.206732 0.172495 0.269757 74 117 55
-0.206123 0.172994 0.269742 66 110 51
-0.205602 0.173592 0.26969 64 108 53
-0.204992 0.174092 0.269675 64 110 53
-0.204469 0.174691 0.269623 65 110 54
-0.204119 0.175491 0.269498 67 109 53
-0.20635 0.183114 0.267422 67 108 52
-0.205713 0.183636 0.267406 67 109 55
-0.205076 0.184158 0.26739 67 109 54
-0.204438 0.184681 0.267374 67 109 55
-0.203891 0.185316 0.267318 67 99 56
-0.203252 0.185839 0.267302 71 80 57
-0.250027 0.173128 0.261771 86 154 69
-0.248642 0.173131 0.261995 84 147 64
-0.247675 0.173474 0.262074 79 140 61
-0.246576 0.173702 0.2622 80 139 62
-0.24575 0.174156 0.26223 98 157 70
-0.244925 0.174609 0.26226 114 179 81
-0.244101 0.175062 0.26229 118 187 88
-0.243147 0.1754 0.262368 118 185 88
-0.242066 0.175623 0.262492 117 182 88
-0.24099 0.175845 0.262616 119 179 88
-0.240175 0.176294 0.262646 115 175 89
-0.23835 0.175832 0.263048 112 176 88
-0.23521 0.174158 0.263942 118 178 87
-0.233701 0.17394 0.264237 121 181 89
-0.232561 0.174051 0.264397 120 182 90
-0.231662 0.174378 0.264468 120 185 90
-0.230997 0.174923 0.264451 122 185 89
-0.230101 0.175249 0.264522 120 183 90
-0.229667 0.176013 0.264417 122 182 90
-0.210123 0.170314 0.268898 124 186 94
-0.209513 0.170814 0.268882 126 184 92
-0.208812 0.171217 0.268904 120 175 89
-0.208023 0.171523 0.268962 99 148 76
-0.207147 0.17173 0.269057 77 120 57
-0.206538 0.172229 0.269041 66 109 50
-0.20593 0.172728 0.269026 64 107 51
-0.205321 0.173227 0.26901 63 106 51
-0.204886 0.173924 0.268921 64 107 52
-0.204623 0.174823 0.268758 65 107 52
-0.207236 0.181573 0.266786 67 107 51
-0.206785 0.182314 0.26669 66 107 52
-0.206148 0.182836 0.266674 66 107 51
-0.20551 0.183358 0.266657 66 108 54
-0.204873 0.183881 0.266641 66 108 54
-0.204236 0.184403 0.266625 66 104 56
-0.203688 0.185038 0.266568 70 85 56
-0.24953 0.172594 0.261045 92 160 69
-0.247606 0.17215 0.261466 89 155 66
-0.246915 0.172717 0.261448 86 149 65
-0.245955 0.173059 0.261527 87 147 64
-0.245264 0.173625 0.261509 100 158 69
-0.244706 0.174305 0.261443 114 176 79
-0.243882 0.174758 0.261474 118 185 85
-0.242929 0.175096 0.261552 117 185 85
-0.241848 0.17532 0.261679 116 182 86
-0.240773 0.175542 0.261805 117 179 85
-0.240086 0.176106 0.261787 116 177 85
-0.238134 0.175532 0.262243 117 180 86
-0.234636 0.173535 0.263286 119 179 87
-0.233015 0.173213 0.263628 124 184 89
-0.232115 0.173541 0.263701 123 184 88
-0.230986 0.173653 0.263861 120 184 91
-0.230093 0.17398 0.263933 120 184 91
-0.229431 0.174522 0.263916 121 183 86
-0.229227 0.175501 0.263721 118 179 88
-0.20993 0.170046 0.268179 125 185 93
-0.209229 0.17045 0.268201 122 176 91
-0.20826 0.170563 0.268335 101 153 80
-0.207651 0.171062 0.268319 79 122 59
-0.206954 0.171464 0.268341 67 109 50
-0.206257 0.171866 0.268362 63 106 50
-0.205737 0.172462 0.268309 63 105 50
-0.205215 0.17306 0.268256 64 105 48
-0.205041 0.174054 0.268054 63 105 50
-0.208754 0.179519 0.266168 64 105 50
-0.20767 0.180775 0.266055 65 106 52
-0.207034 0.181296 0.266039 65 105 52
-0.20649 0.181927 0.265982 65 106 53
-0.205945 0.182558 0.265925 64 106 53
-0.205308 0.18308 0.265908 65 106 53
-0.204671 0.183603 0.265892 65 103 52
-0.204033 0.184126 0.265876 67 91 56
-0.202847 0.185283 0.265802 74 66 59
-0.244878 0.163229 0.263106 110 179 86
-0.244216 0.163772 0.263089 102 167 72
-0.243934 0.164619 0.262936 99 167 75
-0.246714 0.17129 0.260892 94 161 70
-0.246025 0.171854 0.260875 93 158 71
-0.245337 0.172419 0.260857 93 155 69
-0.244648 0.172983 0.260839 102 160 70
-0.244355 0.173887 0.260675 112 175 78
-0.2434 0.174227 0.260755 116 186 85
-0.242579 0.174679 0.260786 117 184 84
-0.241371 0.17479 0.260962 116 182 85
-0.240427 0.175126 0.261041 116 182 86
-0.239613 0.175576 0.261072 117 180 87
-0.237668 0.175007 0.261533 120 183 89
-0.234065 0.172914 0.262633 122 185 88
-0.232569 0.172705 0.262934 123 186 92
-0.231438 0.172819 0.263097 123 186 91
-0.230545 0.173147 0.263169 120 184 92
-0.229311 0.173152 0.263375 122 183 90
-0.228539 0.173585 0.263402 122 184 89
-0.210529 0.169471 0.2674 124 186 93
-0.209645 0.169683 0.267498 122 178 92
-0.208945 0.170087 0.26752 105 155 83
-0.207977 0.170201 0.267656 80 125 63
-0.207369 0.1707 0.26764 66 110 50
-0.206761 0.171198 0.267624 62 105 48
-0.206152 0.171697 0.267609 62 105 48
-0.205543 0.172196 0.267593 62 105 49
-0.205196 0.17299 0.267464 63 104 49
-0.205109 0.174085 0.267219 64 104 49
-0.208104 0.179977 0.265324 63 105 51
-0.207468 0.180498 0.265307 62 105 52
-0.206832 0.181019 0.265291 64 105 52
-0.206288 0.181649 0.265233 63 104 53
-0.205743 0.18228 0.265176 63 104 54
-0.205105 0.182803 0.265159 64 101 52
-0.204468 0.183325 0.265143 67 93 50
-0.203282 0.184482 0.265069 76 69 60
-0.245331 0.162393 0.262339 121 159 81
-0.244669 0.162936 0.262322 112 184 90
-0.243879 0.163379 0.262351 103 168 74
-0.243343 0.164022 0.262288 99 168 75
-0.242806 0.164667 0.262225 97 167 74
-0.247185 0.170422 0.260096 95 163 71
-0.246229 0.170765 0.260177 95 161 72
-0.245541 0.171329 0.260159 96 162 73
-0.244854 0.171893 0.260141 98 161 72
-0.244297 0.172568 0.260074 102 162 72
-0.24374 0.173245 0.260007 109 174 79
-0.243051 0.17381 0.259989 116 186 86
-0.242101 0.174149 0.26007 119 185 85
-0.240896 0.174261 0.260248 119 186 86
-0.239699 0.174374 0.260426 118 185 89
-0.238259 0.174261 0.260699 120 182 87
-0.23585 0.173268 0.261348 122 185 90
-0.233734 0.172513 0.261891 121 187 90
-0.232359 0.172413 0.262149 121 188 90
-0.231112 0.172421 0.26236 121 185 89
-0.229876 0.172429 0.26257 120 184 90
-0.228989 0.172756 0.262643 122 184 90
-0.22833 0.173296 0.262625 123 182 91
-0.211131 0.168894 0.266618 126 184 92
-0.210244 0.169107 0.266718 124 178 92
-0.209361 0.16932 0.266818 108 159 84
-0.208661 0.169724 0.26684 83 128 66
-0.207784 0.169935 0.26694 67 110 52
-0.207176 0.170434 0.266924 62 105 45
-0.206567 0.170932 0.266908 60 103 47
-0.206134 0.171625 0.266816 61 103 47
-0.206052 0.172714 0.266568 60 105 48
-0.205439 0.173216 0.266553 61 104 49
-0.208537 0.179178 0.264593 64 102 48
-0.207902 0.179699 0.264576 63 104 51
-0.207266 0.18022 0.26456 62 105 51
-0.20663 0.180741 0.264543 63 104 51
-0.206177 0.18148 0.264443 63 103 52
-0.20554 0.182002 0.264427 64 101 52
-0.204903 0.182525 0.26441 66 95 52
-0.204265 0.183047 0.264394 70 80 54
-0.203718 0.183681 0.264335 71 76 58
-0.245122 0.1621 0.261555 117 147 77
-0.244332 0.162543 0.261584 118 188 93
-0.24367 0.163086 0.261567 105 168 77
-0.243007 0.163629 0.26155 99 167 76
-0.24247 0.164273 0.261486 98 168 75
-0.242184 0.165122 0.261329 97 166 72
-0.246032 0.169354 0.25963 95 163 71
-0.24548 0.170024 0.259563 94 161 72
-0.244795 0.170586 0.259545 96 163 73
-0.244109 0.171148 0.259527 99 166 74
-0.244079 0.172264 0.25926 100 165 73
-0.243391 0.172829 0.259242 104 172 77
-0.242571 0.173281 0.259274 114 185 87
-0.241365 0.173397 0.259455 119 185 88
-0.240167 0.173511 0.259635 123 187 88
-0.239102 0.173737 0.259765 121 185 90
-0.23742 0.173407 0.260137 121 186 89
-0.235394 0.172753 0.260648 121 188 89
-0.233523 0.172219 0.261103 123 186 89
-0.232148 0.172121 0.261365 123 185 88
-0.230787 0.172023 0.261625 123 186 90
-0.230011 0.172458 0.261654 123 184 89
-0.229007 0.172679 0.261774 122 181 91
-0.210936 0.168626 0.265897 126 179 93
-0.209959 0.168744 0.266038 112 161 84
-0.209168 0.169053 0.2661 87 132 67
-0.208468 0.169457 0.266123 68 110 54
-0.207591 0.169669 0.266223 62 105 49
-0.206983 0.170167 0.266207 62 104 45
-0.206462 0.170763 0.266153 61 101 47
-0.206381 0.171846 0.265903 60 102 48
-0.208971 0.17838 0.263862 62 101 48
-0.208336 0.178901 0.263845 62 102 48
-0.2077 0.179422 0.263829 62 103 51
-0.207156 0.180051 0.26377 62 104 50
-0.20652 0.180572 0.263753 62 103 50
-0.205975 0.181202 0.263694 62 101 52
-0.205338 0.181725 0.263678 66 97 53
-0.2047 0.182247 0.263661 71 84 55
-0.204153 0.182879 0.263602 71 72 59
-0.244912 0.161807 0.260771 111 132 72
-0.244122 0.162251 0.260801 126 188 94
-0.24346 0.162794 0.260783 109 173 80
-0.242798 0.163336 0.260766 101 168 76
-0.242135 0.163879 0.260748 99 169 75
-0.241722 0.164625 0.260637 97 167 73
-0.244501 0.16798 0.259318 95 165 73
-0.245131 0.169613 0.258803 92 162 73
-0.243922 0.16974 0.258985 93 161 74
-0.24324 0.170299 0.258967 97 162 74
-0.243337 0.171518 0.258648 97 161 75
-0.24265 0.17208 0.25863 99 167 78
-0.241834 0.172532 0.258662 112 185 86
-0.240634 0.172649 0.258845 119 186 87
-0.239696 0.172988 0.258927 123 186 88
-0.238258 0.172882 0.259206 123 187 90
-0.236957 0.172888 0.259434 123 185 88
-0.23506 0.172349 0.259902 120 187 88
-0.233192 0.171818 0.260362 122 185 89
-0.231821 0.171722 0.260628 124 183 89
-0.230809 0.171945 0.260751 125 184 90
-0.229916 0.172275 0.260827 121 184 91
-0.210559 0.168167 0.265255 115 165 87
-0.209675 0.168382 0.265358 90 134 68
-0.208884 0.168691 0.265421 70 112 54
-0.208275 0.16919 0.265405 62 104 50
-0.207487 0.169498 0.265468 61 103 49
-0.206878 0.169997 0.265452 61 102 47
-0.206622 0.170883 0.265278 61 101 47
-0.210485 0.176332 0.26325 59 102 48
-0.209404 0.177582 0.263131 58 101 47
-0.208769 0.178103 0.263114 60 100 47
-0.208227 0.17873 0.263055 60 101 48
-0.207683 0.179359 0.262995 60 101 51
-0.207047 0.179881 0.262978 61 101 50
-0.20641 0.180402 0.262962 62 101 50
-0.205773 0.180925 0.262945 63 97 53
-0.205226 0.181556 0.262885 69 87 56
-0.204588 0.182078 0.262868 71 73 61
-0.244575 0.161416 0.260034 100 112 65
-0.243786 0.161859 0.260064 133 188 94
-0.243124 0.162401 0.260047 115 182 87
-0.242462 0.162944 0.260029 104 173 78
-0.241925 0.163587 0.259964 100 169 76
-0.241262 0.16413 0.259947 96 167 75
-0.241725 0.165591 0.259497 95 166 73
-0.243737 0.168343 0.258447 93 163 71
-0.243446 0.169223 0.258278 94 161 71
-0.243023 0.169998 0.258159 96 161 71
-0.24247 0.170667 0.258091 95 160 73
-0.241786 0.171227 0.258073 94 164 77
-0.240974 0.171677 0.258105 109 180 82
-0.240163 0.172127 0.258137 120 190 88
-0.2391 0.172356 0.25827 123 189 88
-0.237668 0.172254 0.258552 123 189 91
-0.236128 0.172044 0.258881 122 186 91
-0.234365 0.171621 0.259303 122 187 90
-0.232863 0.171418 0.259623 123 187 90
-0.23161 0.17143 0.259844 124 186 92
-0.230946 0.171974 0.259827 131 186 95
-0.210182 0.167709 0.264615 91 138 71
-0.2093 0.167925 0.264719 71 113 55
-0.208691 0.168424 0.264703 62 104 49
-0.207903 0.168733 0.264767 61 102 49
-0.207294 0.169232 0.264751 62 102 48
-0.20695 0.170019 0.264615 62 101 48
-0.206782 0.171004 0.264398 61 101 48
-0.210378 0.176159 0.26246 61 102 47
-0.209744 0.176679 0.262444 61 102 45
-0.209203 0.177305 0.262383 60 102 47
-0.208661 0.177931 0.262323 59 100 46
-0.208118 0.178559 0.262263 59 100 47
-0.207481 0.179081 0.262246 59 100 50
-0.206844 0.179603 0.262229 60 98 50
-0.206299 0.180233 0.262169 63 98 51
-0.205661 0.180755 0.262152 68 86 54
-0.205024 0.181278 0.262135 72 76 60
-0.244239 0.161025 0.259299 87 89 64
-0.243577 0.161567 0.259281 131 181 91
-0.242789 0.16201 0.259312 121 190 94
-0.242127 0.162552 0.259294 108 180 80
-0.241466 0.163094 0.259277 101 173 76
-0.240928 0.163737 0.259211 98 169 74
-0.240389 0.164381 0.259145 96 168 74
-0.24323 0.168922 0.257472 95 162 70
-0.242548 0.169481 0.257454 95 161 70
-0.241995 0.170148 0.257385 93 161 71
-0.241312 0.170707 0.257367 95 162 72
-0.240502 0.171157 0.2574 108 174 76
-0.239566 0.171497 0.257483 119 191 87
-0.238633 0.171836 0.257567 122 192 87
-0.237454 0.171955 0.257751 123 191 89
-0.234943 0.170884 0.25848 122 188 92
-0.233318 0.170579 0.258853 124 187 91
-0.232416 0.170912 0.258933 124 186 92
-0.231517 0.171244 0.259012 126 185 94
-0.230852 0.171789 0.258994 125 188 97
-0.209625 0.167065 0.264058 71 114 56
-0.208837 0.167375 0.264122 63 104 50
-0.208318 0.167968 0.264066 60 101 49
-0.207709 0.168467 0.26405 60 101 49
-0.207278 0.169156 0.263953 63 100 47
-0.206934 0.169945 0.263815 63 101 49
-0.210811 0.175362 0.26173 60 101 50
-0.210177 0.175882 0.261713 62 100 47
-0.209542 0.176402 0.261697 62 100 46
-0.209001 0.177027 0.261636 62 101 48
-0.208552 0.17776 0.261531 60 99 48
-0.207916 0.178281 0.261514 58 99 48
-0.207464 0.179017 0.261409 59 99 49
-0.206734 0.179432 0.261436 60 96 49
-0.206188 0.180062 0.261375 63 90 51
-0.20555 0.180585 0.261358 73 75 55
-0.244029 0.160732 0.258516 78 74 60
-0.243241 0.161176 0.258547 120 157 81
-0.242454 0.161619 0.258577 125 191 95
-0.241793 0.162161 0.25856 114 184 83
-0.241132 0.162702 0.258542 105 177 79
-0.24047 0.163244 0.258524 97 173 76
-0.239808 0.163786 0.258507 96 170 74
-0.243048 0.167531 0.256941 96 167 73
-0.243014 0.168621 0.256666 96 164 71
-0.241946 0.168857 0.256802 96 162 69
-0.241394 0.169523 0.256733 94 162 69
-0.240713 0.17008 0.256714 93 159 70
-0.240031 0.170639 0.256696 102 165 73
-0.239098 0.170979 0.256781 117 191 87
-0.238417 0.171536 0.256763 120 190 88
-0.237487 0.171875 0.256847 121 190 89
-0.233773 0.16974 0.258084 122 189 94
-0.232871 0.170074 0.258165 124 188 93
-0.231971 0.170407 0.258245 140 185 95
-0.231306 0.170952 0.258227 138 192 100
-0.20986 0.166113 0.263439 71 114 55
-0.209162 0.166518 0.263463 63 104 49
-0.208644 0.167109 0.263406 62 101 49
-0.208036 0.167607 0.26339 60 100 48
-0.207516 0.1682 0.263333 60 101 48
-0.207351 0.169176 0.263111 60 100 49
-0.21061 0.175085 0.260983 60 101 50
-0.209975 0.175605 0.260966 61 99 49
-0.209341 0.176124 0.260949 62 98 46
-0.208893 0.176855 0.260844 60 98 46
-0.20835 0.177482 0.260782 59 98 46
-0.207899 0.178216 0.260676 59 98 47
-0.207354 0.178846 0.260614 60 96 47
-0.206624 0.179261 0.260641 64 89 50
-0.206077 0.179892 0.26058 67 78 54
-0.243693 0.160342 0.257781 71 71 56
-0.242906 0.160786 0.257813 105 128 67
-0.241995 0.161131 0.257894 129 186 92
-0.241335 0.161671 0.257876 119 187 89
-0.240551 0.162113 0.257907 109 179 84
-0.239891 0.162654 0.257889 102 173 78
-0.239108 0.163095 0.257921 99 170 74
-0.238448 0.163636 0.257903 96 167 73
-0.241731 0.168557 0.255998 95 162 71
-0.24105 0.169115 0.25598 95 162 70
-0.240243 0.169564 0.256013 92 158 70
-0.239562 0.170122 0.255995 92 159 71
-0.238882 0.170679 0.255977 112 185 83
-0.23266 0.169781 0.257379 127 192 97
-0.231994 0.170326 0.257361 163 214 115
-0.212059 0.162725 0.263091 123 182 92
-0.211364 0.163129 0.263116 123 178 93
-0.210851 0.163714 0.263059 112 163 86
-0.210428 0.164392 0.262961 90 136 70
-0.210003 0.165072 0.262862 70 113 56
-0.209577 0.165754 0.262764 62 104 48
-0.208969 0.166251 0.262747 61 100 46
-0.208361 0.166749 0.262731 61 100 49
-0.207843 0.167341 0.262673 61 100 46
-0.207679 0.168313 0.262449 60 101 45
-0.210408 0.174807 0.260237 59 100 47
-0.209774 0.175327 0.260219 60 98 47
-0.209139 0.175847 0.260202 61 97 46
-0.208784 0.176682 0.26005 60 97 48
-0.208335 0.177415 0.259942 58 97 47
-0.20779 0.178044 0.25988 59 97 50
-0.207244 0.178674 0.259817 63 90 50
-0.206513 0.17909 0.259846 68 77 53
-0.243484 0.160049 0.256999 67 69 57
-0.242446 0.160298 0.25713 86 97 61
-0.241289 0.160449 0.25731 123 167 84
-0.240508 0.16089 0.257342 123 188 92
-0.23985 0.161429 0.257324 113 181 85
-0.239192 0.161968 0.257306 106 175 81
-0.238291 0.16231 0.257387 102 172 76
-0.237272 0.162552 0.257517 97 169 73
-0.240708 0.168708 0.255228 97 165 72
-0.240027 0.169265 0.255209 94 161 71
-0.239347 0.169822 0.255191 88 155 70
-0.214657 0.160837 0.262279 120 187 92
-0.213958 0.161244 0.262304 121 187 91
-0.213261 0.161649 0.262329 122 186 90
-0.212564 0.162055 0.262354 125 185 92
-0.211868 0.16246 0.262379 121 178 91
-0.211173 0.162864 0.262404 106 159 84
-0.210659 0.163449 0.262346 85 131 68
-0.210055 0.163944 0.26233 70 111 55
-0.20972 0.164714 0.262189 61 103 49
-0.209204 0.165303 0.262131 60 102 45
-0.208776 0.165985 0.262031 61 100 45
-0.208258 0.166576 0.261973 60 101 48
-0.207917 0.167357 0.261831 60 100 46
-0.211032 0.174217 0.259416 61 100 48
-0.210396 0.174737 0.259398 60 99 44
-0.209572 0.17505 0.259472 60 98 46
-0.209125 0.175778 0.259364 61 97 46
-0.208582 0.176404 0.259301 61 98 45
-0.208225 0.177243 0.259146 60 97 47
-0.20768 0.177872 0.259083 61 89 52
-0.207134 0.178502 0.25902 67 76 53
-0.241739 0.159619 0.25655 73 74 61
-0.240342 0.159579 0.25683 105 135 74
-0.239687 0.160116 0.256812 124 180 91
-0.23891 0.160556 0.256844 116 181 86
-0.238256 0.161092 0.256826 105 173 80
-0.23736 0.161433 0.256907 101 170 77
-0.237065 0.162263 0.256741 98 169 74
-0.236409 0.1628 0.256723 95 166 73
-0.215732 0.160699 0.261285 118 185 87
-0.214465 0.160572 0.261565 122 189 91
-0.213766 0.160978 0.26159 124 187 91
-0.213069 0.161384 0.261616 124 185 91
-0.212372 0.16179 0.261641 118 176 88
-0.211768 0.162284 0.261625 103 155 79
-0.211072 0.162689 0.26165 83 130 65
-0.210468 0.163184 0.261634 67 110 53
-0.210044 0.163861 0.261533 62 101 49
-0.209528 0.164449 0.261475 61 100 47
-0.209011 0.165037 0.261416 61 101 43
-0.208583 0.165719 0.261315 60 102 44
-0.208243 0.166497 0.261171 60 101 43
-0.211561 0.173521 0.258638 60 99 48
-0.210925 0.174042 0.258621 61 99 49
-0.210194 0.174459 0.25865 61 97 45
-0.209559 0.17498 0.258633 60 98 46
-0.209017 0.175605 0.258569 59 98 48
-0.208661 0.176441 0.258413 61 96 46
-0.20821 0.177176 0.258302 65 90 50
-0.20757 0.177699 0.258285 68 76 55
-0.24079 0.158754 0.256073 66 68 52
-0.239769 0.159003 0.256205 90 105 60
-0.239115 0.159538 0.256187 117 158 81
-0.238341 0.159978 0.256219 121 181 89
-0.237448 0.16032 0.256301 109 176 82
-0.236676 0.160758 0.256333 99 169 75
-0.23638 0.161583 0.256166 96 167 73
-0.235253 0.161729 0.256347 94 166 73
-0.234601 0.162263 0.256329 94 165 73
