ply
format ascii 1.0
element vertex 1283
property float x
property float y
property float z
property uchar diffuse_red
property uchar diffuse_green
property uchar diffuse_blue
end_header
-0.222127 0.133603 0.29748 58 52 36
-0.289301 0.0993248 0.295185 62 57 33
-0.28896 0.100104 0.295098 90 99 51
-0.22701 0.118235 0.298612 72 114 54
-0.226384 0.118695 0.298604 76 116 57
-0.225952 0.119294 0.298555 65 102 48
-0.225519 0.119893 0.298506 61 98 45
-0.225086 0.120492 0.298457 60 97 47
-0.224653 0.121092 0.298407 58 98 47
-0.224219 0.121692 0.298358 58 96 48
-0.22407 0.12251 0.298245 59 96 50
-0.226341 0.131043 0.296679 62 94 50
-0.225288 0.131183 0.296765 62 96 52
-0.224935 0.131891 0.29669 68 98 52
-0.224482 0.132518 0.296639 65 81 53
-0.22393 0.133063 0.29661 56 52 36
-0.223379 0.133608 0.296582 58 54 32
-0.289448 0.099232 0.294286 62 54 33
-0.288935 0.099942 0.294227 97 97 52
-0.227527 0.118534 0.297764 77 116 54
-0.226412 0.118645 0.297865 68 109 54
-0.226076 0.119315 0.297794 60 98 41
-0.225642 0.119915 0.297744 59 96 40
-0.225112 0.120445 0.297716 59 95 42
-0.224678 0.121045 0.297666 59 97 40
-0.224339 0.121718 0.297595 59 96 45
-0.224382 0.122683 0.297437 58 96 45
-0.226723 0.130299 0.295978 60 96 46
-0.226268 0.130928 0.295926 61 95 45
-0.225814 0.131557 0.295874 61 97 49
-0.225359 0.132186 0.295822 71 98 53
-0.224805 0.132733 0.295794 62 63 43
-0.22435 0.133363 0.295742 51 47 35
-0.289595 0.0991389 0.293384 57 51 34
-0.289254 0.0999201 0.293294 89 83 44
-0.22819 0.118021 0.297025 71 117 53
-0.227754 0.118624 0.296975 77 115 56
-0.226927 0.118946 0.297013 64 103 49
-0.226491 0.119548 0.296963 60 96 37
-0.226056 0.120151 0.296913 60 94 35
-0.225331 0.12054 0.296929 58 94 37
-0.224895 0.121142 0.296879 59 94 34
-0.224652 0.121889 0.296785 58 94 37
-0.224215 0.122493 0.296735 53 95 39
-0.226903 0.129393 0.295325 57 92 37
-0.22655 0.130101 0.295249 57 93 39
-0.226196 0.130811 0.295172 60 94 41
-0.225841 0.131523 0.295096 61 96 50
-0.225386 0.132153 0.295043 68 92 57
-0.22493 0.132784 0.294991 59 51 35
-0.224474 0.133415 0.294939 50 50 35
-0.289916 0.0991149 0.292447 57 49 33
-0.289401 0.0998278 0.292388 66 61 30
-0.289231 0.100683 0.292266 66 90 46
-0.287166 0.102611 0.292181 40 95 31
-0.288118 0.120817 0.289076 61 111 44
-0.287567 0.121578 0.289013 63 112 44
-0.286837 0.122246 0.288985 58 108 43
-0.286287 0.123008 0.288921 51 100 34
-0.285736 0.12377 0.288858 44 94 28
-0.285007 0.124437 0.28883 40 93 29
-0.284633 0.125296 0.288731 36 95 28
-0.282625 0.127391 0.288611 27 91 18
-0.282423 0.128353 0.288476 26 89 22
-0.228757 0.117435 0.296304 77 125 56
-0.22832 0.11804 0.296254 80 123 60
-0.227588 0.118433 0.296272 77 115 58
-0.227053 0.118966 0.296244 63 98 46
-0.226617 0.11957 0.296194 59 94 38
-0.226083 0.120102 0.296166 58 94 35
-0.225454 0.120563 0.296161 58 93 34
-0.225017 0.121167 0.29611 58 94 34
-0.224869 0.121988 0.295992 56 94 35
-0.224528 0.122667 0.295918 53 94 36
-0.224474 0.123568 0.295776 53 93 37
-0.227082 0.128488 0.294673 55 91 36
-0.22673 0.129195 0.294596 55 91 32
-0.226477 0.129985 0.294494 56 93 36
-0.226123 0.130695 0.294417 60 93 41
-0.225768 0.131407 0.29434 68 100 53
-0.225412 0.13212 0.294262 63 78 56
-0.224956 0.132752 0.29421 54 49 32
-0.289203 0.099595 0.291542 53 46 36
-0.28886 0.100379 0.29145 55 55 32
-0.288343 0.101093 0.29139 57 68 36
-0.287484 0.101665 0.291394 57 80 35
-0.286968 0.102379 0.291334 58 86 32
-0.286451 0.103093 0.291274 59 86 34
-0.285934 0.103808 0.291215 58 87 39
-0.288457 0.11981 0.288243 37 88 23
-0.287726 0.120479 0.288216 40 86 21
-0.287177 0.121239 0.288152 38 87 20
-0.286626 0.122001 0.288088 33 89 22
-0.286076 0.122762 0.288024 30 89 22
-0.285525 0.123524 0.287961 28 89 23
-0.284796 0.124191 0.287933 25 91 25
-0.284422 0.12505 0.287833 24 93 26
-0.284047 0.125911 0.287732 27 94 29
-0.283494 0.126675 0.287668 34 95 28
-0.282414 0.127146 0.287714 39 95 25
-0.282212 0.128107 0.287576 44 94 26
-0.282184 0.129173 0.287401 64 110 42
-0.22859 0.117244 0.2956 79 131 63
-0.228153 0.117848 0.295549 83 123 62
-0.227716 0.118453 0.295499 74 113 57
-0.227083 0.118916 0.295494 61 97 43
-0.226548 0.11945 0.295467 58 95 37
-0.225917 0.119912 0.295463 59 94 34
-0.22548 0.120516 0.295412 60 94 36
-0.22514 0.121192 0.295338 57 93 38
-0.224895 0.121942 0.295241 56 94 37
-0.22465 0.122695 0.295143 57 94 34
-0.224307 0.123376 0.295069 56 92 32
-0.22701 0.128371 0.29392 58 91 36
-0.226658 0.129078 0.293842 58 90 35
-0.226405 0.129868 0.293739 59 93 38
-0.226151 0.13066 0.293636 60 95 42
-0.225695 0.131291 0.293583 74 105 56
-0.225339 0.132005 0.293505 57 65 48
-0.224882 0.132637 0.293452 52 50 32
-0.288489 0.100076 0.290635 46 51 34
-0.287802 0.100718 0.290608 48 52 32
-0.287115 0.101361 0.29058 53 52 29
-0.286769 0.102146 0.290488 55 54 27
-0.286253 0.102861 0.290428 54 57 30
-0.285566 0.103502 0.2904 54 57 31
-0.285218 0.104291 0.290307 54 62 32
-0.286402 0.105758 0.289916 56 67 30
-0.288801 0.117775 0.287585 38 93 26
-0.288253 0.118532 0.287521 32 92 24
-0.288065 0.119473 0.287383 31 91 23
-0.287516 0.120233 0.287319 31 90 19
-0.286966 0.120994 0.287255 29 90 18
-0.286415 0.121755 0.287191 27 91 20
-0.285865 0.122517 0.287127 26 90 20
-0.285314 0.123279 0.287063 25 88 20
-0.284762 0.124042 0.286999 23 88 19
-0.284565 0.124997 0.28686 22 86 16
-0.284012 0.125762 0.286795 21 85 14
-0.283636 0.126625 0.286693 26 85 16
-0.283082 0.127392 0.286628 38 94 23
-0.282527 0.128159 0.286564 56 103 35
-0.282324 0.129127 0.286423 72 117 48
-0.228184 0.117797 0.294797 84 121 58
-0.227549 0.118261 0.294794 71 112 54
-0.227112 0.118866 0.294743 61 98 41
-0.226577 0.1194 0.294716 59 95 36
-0.226042 0.119934 0.294688 60 93 34
-0.225604 0.120539 0.294637 61 93 37
-0.22536 0.121289 0.294539 58 93 40
-0.225115 0.122042 0.29444 58 93 40
-0.224579 0.122577 0.294413 60 93 35
-0.224331 0.123332 0.294313 57 91 32
-0.227744 0.12692 0.293296 57 92 31
-0.227291 0.127546 0.293244 59 92 33
-0.226838 0.128173 0.293191 59 91 37
-0.226686 0.129041 0.293061 61 91 38
-0.226433 0.129832 0.292957 61 93 41
-0.226078 0.130543 0.292878 62 96 45
-0.225622 0.131175 0.292825 75 103 58
-0.225165 0.131806 0.292771 55 55 44
-0.285368 0.10327 0.289553 52 44 30
-0.284851 0.103985 0.289493 53 50 30
-0.286031 0.105448 0.289095 54 53 29
-0.285679 0.106246 0.289 54 53 28
-0.285157 0.106969 0.288939 55 53 31
-0.288416 0.116418 0.286905 51 74 36
-0.287871 0.117173 0.286841 54 89 32
-0.287504 0.118018 0.28674 40 95 29
-0.287495 0.119046 0.286563 35 94 28
-0.287125 0.119896 0.286461 34 92 24
-0.286755 0.120749 0.286359 33 91 22
-0.286204 0.12151 0.286294 32 91 22
-0.285654 0.122271 0.28623 31 91 21
-0.285817 0.123413 0.286012 28 91 21
-0.285622 0.12437 0.28587 24 90 24
-0.285785 0.125527 0.28565 27 88 22
-0.285228 0.126297 0.285585 27 87 18
-0.284849 0.127167 0.285481 26 87 15
-0.284112 0.127839 0.285455 33 92 22
-0.282844 0.128211 0.285546 57 107 42
-0.282818 0.129282 0.285363 75 123 53
-0.282969 0.130462 0.285141 77 127 55
-0.227678 0.118281 0.294016 70 110 51
-0.227141 0.118816 0.293989 61 98 41
-0.226507 0.11928 0.293986 60 96 36
-0.226069 0.119886 0.293935 60 94 34
-0.225631 0.120492 0.293884 61 93 36
-0.22529 0.12117 0.293808 60 93 37
-0.225238 0.122069 0.293659 60 93 39
-0.22807 0.125162 0.292777 61 92 34
-0.227673 0.126801 0.292542 59 91 34
-0.227219 0.127428 0.292489 59 91 33
-0.226766 0.128055 0.292436 60 91 37
-0.226614 0.128923 0.292304 61 93 39
-0.22636 0.129714 0.292198 62 93 43
-0.225904 0.130345 0.292145 64 97 50
-0.225448 0.130976 0.292092 73 98 59
-0.224991 0.131608 0.292038 56 49 44
-0.287669 0.115911 0.286128 53 51 33
-0.287303 0.116752 0.286026 65 79 34
-0.286936 0.117595 0.285924 53 98 37
-0.286747 0.11853 0.285783 44 100 35
-0.286735 0.11956 0.285604 41 96 32
-0.286186 0.120319 0.285539 41 94 27
-0.285993 0.121264 0.285397 42 93 23
-0.285979 0.122308 0.285215 41 94 24
-0.285964 0.123357 0.285033 35 94 26
-0.286128 0.124509 0.284809 30 94 27
-0.286113 0.125572 0.284624 30 92 23
-0.285554 0.126344 0.284559 32 89 20
-0.284995 0.127117 0.284493 32 88 17
-0.284077 0.127691 0.284508 36 92 23
-0.28334 0.128363 0.284482 57 107 46
-0.282604 0.129035 0.284456 74 123 54
-0.282755 0.130214 0.28423 81 131 59
-0.228006 0.118441 0.293185 70 108 50
-0.227073 0.118695 0.293258 61 99 41
-0.226536 0.11923 0.293231 62 97 35
-0.225902 0.119694 0.293229 62 94 31
-0.225561 0.120372 0.293153 61 95 34
-0.225413 0.121195 0.293026 61 94 35
-0.225753 0.12239 0.292774 61 94 36
-0.2275 0.126603 0.291813 60 92 35
-0.227148 0.127309 0.291733 59 90 34
-0.227099 0.128255 0.291573 61 92 37
-0.226744 0.128966 0.291492 62 94 38
-0.226288 0.129597 0.291439 63 94 43
-0.225831 0.130228 0.291385 67 98 52
-0.225374 0.13086 0.291331 70 96 60
-0.225017 0.131574 0.291251 57 47 38
-0.286916 0.116421 0.285175 70 73 37
-0.286549 0.117262 0.285072 75 104 47
-0.286181 0.118106 0.284969 71 112 50
-0.286168 0.119133 0.284787 65 107 46
-0.285797 0.119982 0.284683 62 103 40
-0.285426 0.120834 0.284579 55 100 36
-0.285588 0.121968 0.284355 42 98 34
-0.286291 0.123396 0.284009 35 94 30
-0.286458 0.124551 0.283781 32 91 28
-0.28608 0.125421 0.283674 31 92 26
-0.285521 0.126194 0.283608 31 91 23
-0.284781 0.126869 0.283583 30 90 23
-0.284042 0.127542 0.283558 32 89 25
-0.283304 0.128215 0.283533 60 103 40
-0.282568 0.128888 0.283508 72 129 56
-0.228436 0.118674 0.292322 68 108 50
-0.227102 0.118644 0.2925 62 100 41
-0.226466 0.119109 0.292499 62 96 35
-0.22593 0.119645 0.292472 62 93 31
-0.225588 0.120323 0.292395 61 95 32
-0.225733 0.121366 0.29219 60 95 37
-0.225584 0.122197 0.292061 59 94 36
-0.227429 0.126484 0.291057 60 94 36
-0.227177 0.127269 0.290949 58 91 35
-0.227026 0.128137 0.290813 62 94 38
-0.226671 0.128848 0.290732 62 94 37
-0.226215 0.129479 0.290678 64 94 43
-0.225758 0.130111 0.290624 71 103 54
-0.225401 0.130825 0.290543 68 87 60
-0.225043 0.13154 0.290461 54 48 33
-0.286707 0.116177 0.284286 63 66 44
-0.286162 0.11693 0.284222 98 123 64
-0.285971 0.117862 0.284078 104 148 70
-0.285602 0.118708 0.283973 94 144 67
-0.285409 0.119646 0.283828 91 141 63
-0.285038 0.120496 0.283723 86 134 59
-0.285377 0.121721 0.283456 75 122 53
-0.286078 0.123148 0.283104 60 108 44
-0.286244 0.124303 0.282872 47 99 34
-0.285866 0.125172 0.282764 35 95 27
-0.285306 0.125945 0.282698 31 91 22
-0.284746 0.126719 0.282632 27 93 22
-0.284007 0.127393 0.282607 28 93 22
-0.28309 0.127967 0.282625 50 98 26
-0.282531 0.12874 0.282558 57 112 42
-0.228467 0.118623 0.291558 68 108 51
-0.227527 0.118877 0.291636 63 99 41
-0.226495 0.119059 0.29174 62 96 37
-0.226055 0.119667 0.291688 62 94 35
-0.225713 0.120347 0.29161 61 95 34
-0.225858 0.121392 0.291401 60 97 38
-0.225709 0.122224 0.291269 58 96 37
-0.228265 0.12511 0.290407 57 94 35
-0.228117 0.125971 0.29027 57 95 33
-0.227459 0.126443 0.290271 60 95 36
-0.227207 0.127229 0.290162 61 94 35
-0.226954 0.128018 0.290052 61 94 38
-0.226599 0.128729 0.28997 63 95 38
-0.226243 0.129442 0.289888 64 95 46
-0.225785 0.130075 0.289834 75 107 57
-0.225427 0.130789 0.289751 63 74 55
-0.224969 0.131423 0.289697 47 50 33
-0.286321 0.115846 0.283437 60 60 43
-0.285776 0.116599 0.283373 102 131 70
-0.285231 0.117352 0.283308 114 167 80
-0.285215 0.118374 0.283122 107 167 78
-0.284845 0.11922 0.283016 103 163 76
-0.28465 0.12016 0.282869 101 160 75
-0.284809 0.121289 0.282639 96 154 73
-0.285865 0.122901 0.282198 84 139 64
-0.28603 0.124054 0.281963 71 123 53
-0.285652 0.124924 0.281854 56 109 43
-0.284912 0.125599 0.28183 41 98 29
-0.284532 0.12647 0.281721 29 93 23
-0.283972 0.127244 0.281655 27 93 23
-0.283411 0.128019 0.281588 41 93 24
-0.228499 0.118571 0.290791 68 108 51
-0.227657 0.118898 0.290845 64 100 43
-0.226917 0.119294 0.290872 61 98 40
-0.226083 0.119617 0.290926 61 97 35
-0.226034 0.120515 0.290767 62 96 37
-0.225984 0.121417 0.290608 60 97 39
-0.225736 0.122178 0.290501 60 96 39
-0.228092 0.124912 0.289677 60 95 37
-0.227944 0.125773 0.289538 60 95 35
-0.227285 0.126245 0.28954 61 94 36
-0.227135 0.12711 0.289401 61 95 39
-0.226983 0.127979 0.289262 61 95 40
-0.226627 0.128691 0.289179 62 95 40
-0.226271 0.129405 0.289096 65 96 47
-0.225812 0.130038 0.289041 79 108 56
-0.225555 0.130836 0.288929 62 64 44
-0.225095 0.131471 0.288874 48 51 36
-0.285935 0.115516 0.28259 62 59 35
-0.285391 0.116268 0.282525 97 108 56
-0.284846 0.11702 0.28246 112 155 76
-0.284477 0.117861 0.282354 108 169 79
-0.283931 0.118615 0.282289 105 164 75
-0.284087 0.119733 0.282058 101 162 75
-0.284598 0.121044 0.281741 97 159 73
-0.286013 0.122843 0.281207 91 151 69
-0.285816 0.123806 0.281054 84 138 64
-0.285438 0.124675 0.280944 74 128 56
-0.284698 0.12535 0.280921 61 114 46
-0.284138 0.126123 0.280854 51 101 35
-0.283757 0.126995 0.280743 36 95 29
-0.22833 0.118377 0.290076 67 108 49
-0.227587 0.118775 0.290105 63 102 46
-0.226946 0.119244 0.290107 62 99 40
-0.226406 0.119783 0.290081 62 98 37
-0.226258 0.120611 0.289946 62 97 39
-0.225913 0.121297 0.289866 60 97 36
-0.227771 0.125574 0.288806 61 95 40
-0.227315 0.126203 0.288752 63 95 37
-0.227266 0.127149 0.288582 61 95 44
-0.226911 0.12786 0.288498 59 94 39
-0.226656 0.128653 0.288385 61 96 43
-0.226401 0.129448 0.288271 65 97 47
-0.225941 0.130083 0.288217 78 108 57
-0.225582 0.130801 0.288132 58 57 37
-0.225222 0.13152 0.288048 49 48 35
-0.285197 0.115013 0.281827 59 54 34
-0.284654 0.115763 0.281762 75 82 48
-0.284111 0.116513 0.281697 95 133 72
-0.283568 0.117264 0.281632 100 157 78
-0.283024 0.118015 0.281567 93 152 70
-0.283701 0.119397 0.281207 91 150 68
-0.284484 0.125101 0.280011 69 122 52
-0.283033 0.125385 0.280164 61 113 48
-0.283186 0.126549 0.279921 47 102 42
-0.228161 0.118183 0.289361 66 109 48
-0.227518 0.118653 0.289364 64 102 44
-0.226976 0.119193 0.289338 63 99 41
-0.226533 0.119805 0.289285 62 98 39
-0.226188 0.12049 0.289204 61 97 40
-0.225842 0.121176 0.289123 60 98 40
-0.227597 0.125376 0.288074 61 93 42
-0.227142 0.126005 0.28802 62 94 38
-0.227194 0.127029 0.287817 59 95 43
-0.227042 0.1279 0.287673 60 96 39
-0.226787 0.128695 0.287559 62 97 41
-0.226429 0.129411 0.287474 65 100 52
-0.225968 0.130047 0.287418 73 104 61
-0.225609 0.130765 0.287333 55 46 36
-0.225148 0.131402 0.287278 47 46 33
-0.284639 0.114599 0.281026 55 56 38
-0.283922 0.115261 0.281003 59 61 43
-0.28338 0.116009 0.280938 74 93 56
-0.282665 0.11667 0.280915 82 122 65
-0.282122 0.117419 0.280849 80 124 63
-0.282271 0.118524 0.280614 77 121 57
-0.28282 0.125138 0.279258 50 107 42
-0.278961 0.124081 0.280025 44 102 40
-0.277903 0.124554 0.280089 38 100 36
-0.228636 0.117518 0.288643 78 119 56
-0.227992 0.117989 0.288647 65 109 49
-0.227449 0.11853 0.288621 64 103 44
-0.226906 0.119071 0.288596 63 101 42
-0.226364 0.119611 0.288571 62 98 40
-0.226018 0.120296 0.28849 62 98 41
-0.225673 0.120982 0.288408 61 98 40
-0.227627 0.125333 0.287282 62 96 42
-0.227171 0.125963 0.287227 60 94 40
-0.227326 0.127067 0.286992 61 97 40
-0.227174 0.127941 0.286845 62 98 41
-0.226816 0.128656 0.286759 63 98 46
-0.226457 0.129373 0.286673 68 102 53
-0.226098 0.130092 0.286587 70 97 63
-0.225636 0.13073 0.286532 57 44 36
-0.283367 0.114847 0.280205 52 58 34
-0.281451 0.114907 0.28048 55 66 40
-0.280914 0.11565 0.280415 62 82 51
-0.279868 0.116133 0.280476 71 99 57
-0.279331 0.116874 0.280411 81 117 60
-0.279505 0.122139 0.279354 61 110 43
-0.2793 0.123081 0.2792 56 108 40
-0.277902 0.123368 0.279353 51 105 40
-0.277019 0.123934 0.279374 44 104 38
-0.276473 0.124687 0.279308 42 104 34
-0.22891 0.116712 0.287981 93 135 66
-0.228266 0.117183 0.287985 76 116 51
-0.227823 0.117795 0.287932 65 108 45
-0.227279 0.118336 0.287907 64 105 41
-0.226737 0.118877 0.287882 63 102 42
-0.226293 0.119489 0.287828 61 100 41
-0.225948 0.120174 0.287746 63 98 41
-0.227495 0.122265 0.287105 62 98 37
-0.227658 0.12529 0.286488 62 98 44
-0.227201 0.125921 0.286433 60 97 42
-0.227458 0.127106 0.286162 62 99 42
-0.227203 0.127901 0.286044 60 98 44
-0.226743 0.128537 0.285989 64 99 50
-0.226486 0.129336 0.285871 71 105 54
-0.226024 0.129973 0.285815 64 89 62
-0.225562 0.130611 0.285759 51 45 31
-0.279892 0.113992 0.279945 53 55 34
-0.279357 0.114729 0.27988 57 60 38
-0.278157 0.115127 0.279984 64 73 45
-0.276964 0.115523 0.280088 83 107 60
-0.275942 0.116002 0.280149 106 150 74
-0.275412 0.116733 0.280085 92 146 67
-0.274881 0.117466 0.28002 86 140 62
-0.274512 0.118285 0.279914 83 140 64
-0.279296 0.121896 0.278465 82 135 59
-0.277396 0.121911 0.278752 79 132 54
-0.276518 0.122477 0.278774 73 124 51
-0.275477 0.122948 0.278839 62 118 47
-0.275265 0.123883 0.278686 56 114 44
-0.228782 0.115628 0.287436 90 139 71
-0.22834 0.116238 0.287383 89 131 65
-0.227997 0.116919 0.2873 74 114 48
-0.227554 0.11753 0.287246 66 107 44
-0.22711 0.118142 0.287192 64 105 42
-0.226568 0.118683 0.287168 63 103 40
-0.226223 0.119367 0.287084 61 101 42
-0.225975 0.120125 0.286971 64 99 44
-0.227222 0.121994 0.286409 62 97 40
-0.227736 0.124307 0.285871 62 98 38
-0.227688 0.125247 0.285691 62 99 43
-0.227435 0.126035 0.285573 61 98 42
-0.227489 0.127065 0.28536 62 98 42
-0.227131 0.127781 0.285273 61 99 42
-0.226772 0.128498 0.285185 66 103 46
-0.226412 0.129216 0.285097 77 110 58
-0.22595 0.129855 0.285041 60 73 56
-0.225487 0.130493 0.284985 45 45 32
-0.277493 0.113655 0.279437 54 59 33
-0.276963 0.114387 0.279373 58 61 38
-0.276269 0.115034 0.279351 79 90 54
-0.275046 0.116412 0.279264 109 169 84
-0.274516 0.117144 0.279199 101 156 72
-0.274308 0.118049 0.279049 99 158 73
-0.273938 0.11887 0.278941 99 157 72
-0.274867 0.120403 0.278487 94 153 70
-0.274986 0.121505 0.278246 90 147 66
-0.274446 0.12225 0.27818 82 139 59
-0.274398 0.123271 0.277982 74 131 55
-0.228613 0.115434 0.286723 90 135 68
-0.228171 0.116044 0.286669 85 128 67
-0.227828 0.116725 0.286585 71 111 49
-0.227385 0.117336 0.286531 65 106 45
-0.226941 0.117948 0.286477 66 104 41
-0.226497 0.118561 0.286423 65 101 39
-0.226251 0.119317 0.286309 64 100 39
-0.226102 0.120148 0.286165 62 99 41
-0.226549 0.121426 0.285837 61 99 42
-0.227103 0.122795 0.285474 60 98 41
-0.227971 0.124416 0.285011 61 98 38
-0.227821 0.125281 0.28486 61 98 41
-0.227465 0.125993 0.284773 62 99 43
-0.227416 0.126944 0.284588 61 100 40
-0.227057 0.12766 0.2845 62 99 44
-0.226698 0.128378 0.284411 64 103 49
-0.226236 0.129016 0.284355 79 112 59
-0.225774 0.129654 0.284299 63 58 41
-0.225311 0.130292 0.284242 47 47 33
-0.276269 0.113901 0.278639 59 58 29
-0.27574 0.114631 0.278574 75 77 45
-0.274682 0.116091 0.278444 118 183 97
-0.27399 0.116737 0.278423 105 160 74
-0.273782 0.11764 0.278271 101 162 73
-0.273251 0.118372 0.278206 100 162 74
-0.273041 0.11928 0.278054 98 159 73
-0.273962 0.120816 0.277593 95 157 72
-0.27375 0.121738 0.277438 92 151 66
-0.2737 0.122755 0.277238 86 144 61
-0.229088 0.114767 0.286003 91 137 64
-0.228545 0.115309 0.285979 93 135 64
-0.228102 0.11592 0.285925 83 125 63
-0.227659 0.116531 0.285871 69 110 48
-0.227315 0.117213 0.285786 66 107 44
-0.226871 0.117825 0.285732 65 104 40
-0.226526 0.118509 0.285647 65 100 41
-0.22618 0.119194 0.285562 63 100 41
-0.22613 0.120099 0.285385 61 100 43
-0.226378 0.121229 0.285114 63 99 42
-0.22693 0.122598 0.284746 60 98 43
-0.228208 0.124527 0.284147 61 99 43
-0.227749 0.12516 0.284091 63 98 41
-0.227393 0.125872 0.284002 61 98 41
-0.227343 0.126823 0.283815 59 101 44
-0.226984 0.12754 0.283726 64 100 45
-0.226522 0.128177 0.283669 68 104 53
-0.22606 0.128815 0.283613 79 107 59
-0.225597 0.129453 0.283556 64 50 34
-0.274156 0.115687 0.27767 121 186 101
-0.273788 0.116501 0.277561 101 158 72
-0.273258 0.117232 0.277496 94 157 69
-0.272887 0.11805 0.277386 95 158 70
-0.272356 0.118782 0.277321 95 156 69
-0.271984 0.119603 0.277212 93 154 68
-0.273219 0.121318 0.276654 91 151 66
-0.27333 0.122424 0.276406 88 148 64
-0.229564 0.114099 0.285282 86 138 66
-0.228919 0.114573 0.285289 90 139 67
-0.228476 0.115184 0.285234 95 138 67
-0.227933 0.115726 0.285211 81 120 58
-0.227589 0.116407 0.285125 68 108 47
-0.227146 0.117019 0.285071 65 105 49
-0.226801 0.117702 0.284985 64 104 45
-0.226455 0.118386 0.2849 63 102 46
-0.226208 0.119143 0.284783 62 101 42
-0.226158 0.120049 0.284603 62 98 46
-0.226306 0.121107 0.284359 63 97 44
-0.22778 0.125116 0.283287 63 100 41
-0.22732 0.12575 0.28323 62 99 43
-0.22727 0.126702 0.283041 61 98 42
-0.226808 0.127339 0.282984 64 101 46
-0.226346 0.127976 0.282927 69 104 52
-0.225986 0.128695 0.282837 73 101 60
-0.225523 0.129333 0.28278 61 52 32
-0.273264 0.116097 0.276788 98 151 71
-0.272735 0.116826 0.276723 88 149 67
-0.272205 0.117556 0.276657 89 150 66
-0.271676 0.118287 0.276592 89 148 66
-0.271304 0.119105 0.276482 88 147 65
-0.27109 0.120012 0.276326 88 146 64
-0.272637 0.121912 0.275669 86 145 64
-0.2298 0.114178 0.284441 85 135 67
-0.228851 0.114447 0.284543 88 137 69
-0.228407 0.115059 0.284488 95 137 69
-0.227964 0.11567 0.284434 77 117 53
-0.22752 0.116282 0.284379 66 108 46
-0.227175 0.116965 0.284293 63 105 48
-0.226731 0.117578 0.284238 64 103 45
-0.226484 0.118334 0.28412 64 101 41
-0.226236 0.119092 0.284002 63 104 42
-0.225987 0.119853 0.283883 62 99 45
-0.226135 0.120911 0.283636 61 100 45
-0.227811 0.125072 0.28248 60 101 43
-0.22735 0.125707 0.282424 61 98 43
-0.227094 0.126501 0.282299 62 100 38
-0.226632 0.127138 0.282242 63 102 47
-0.226272 0.127856 0.282151 72 105 54
-0.225911 0.128575 0.28206 67 92 62
-0.225448 0.129214 0.282003 55 56 40
-0.27359 0.115132 0.275993 126 163 84
-0.272742 0.115693 0.276018 95 145 73
-0.272214 0.116421 0.275952 83 142 62
-0.271685 0.11715 0.275887 83 142 60
-0.270998 0.117793 0.275866 84 140 61
-0.270155 0.11835 0.275891 83 141 62
-0.269315 0.118905 0.275916 84 142 63
-0.270354 0.12051 0.275396 82 142 63
-0.230895 0.113917 0.283523 86 141 68
-0.230038 0.114257 0.283596 85 134 64
-0.229186 0.114596 0.283669 88 135 65
-0.22854 0.115071 0.283678 91 133 66
-0.228095 0.115684 0.283623 73 112 52
-0.22765 0.116297 0.283567 65 106 47
-0.227205 0.116911 0.283512 64 104 44
-0.22676 0.117525 0.283457 65 106 47
-0.226512 0.118282 0.283338 65 104 43
-0.226264 0.119041 0.283218 65 102 44
-0.225817 0.119658 0.283162 64 102 49
-0.227635 0.124872 0.28174 60 100 44
-0.22738 0.125664 0.281614 61 98 41
-0.226918 0.1263 0.281557 63 99 39
-0.226559 0.127017 0.281466 64 102 46
-0.226198 0.127735 0.281374 77 110 55
-0.225837 0.128455 0.281282 60 72 54
-0.225475 0.129175 0.281189 55 55 37
-0.272381 0.115374 0.275204 92 144 74
-0.271695 0.116018 0.275184 78 134 56
-0.271167 0.116745 0.275119 76 134 54
-0.270481 0.117388 0.275099 77 134 56
-0.26964 0.117944 0.275124 77 135 56
-0.268647 0.118414 0.275196 79 137 57
-0.268121 0.119139 0.27513 76 138 59
-0.267594 0.119865 0.275064 75 137 59
-0.230725 0.113721 0.282801 88 142 69
-0.230073 0.114199 0.282811 86 135 64
-0.229422 0.114676 0.282821 89 134 65
-0.228976 0.115291 0.282766 87 131 65
-0.228428 0.115837 0.282743 72 110 50
-0.227982 0.116452 0.282687 66 105 45
-0.227435 0.116997 0.282664 66 105 43
-0.226988 0.117613 0.282609 64 104 45
-0.22674 0.118372 0.282487 64 101 46
-0.226492 0.119134 0.282366 64 100 50
-0.226043 0.119753 0.28231 63 102 50
-0.227714 0.123881 0.281126 61 100 44
-0.22746 0.124671 0.281 62 100 47
-0.227204 0.125463 0.280873 60 98 45
-0.226948 0.126258 0.280745 61 101 40
-0.226588 0.126976 0.280653 65 103 48
-0.226226 0.127695 0.28056 77 104 58
-0.225865 0.128415 0.280467 66 62 42
-0.2254 0.129055 0.280409 59 53 36
-0.271546 0.114807 0.274531 91 146 78
-0.27102 0.115532 0.274465 72 127 54
-0.270493 0.116258 0.274399 69 125 52
-0.26981 0.116899 0.27438 70 125 52
-0.268972 0.117455 0.274406 70 126 53
-0.267983 0.117924 0.274479 72 129 53
-0.267458 0.118648 0.274413 70 130 54
-0.266322 0.119028 0.274531 69 129 54
-0.230554 0.113525 0.28208 91 144 75
-0.230005 0.114072 0.282057 87 139 70
-0.229456 0.114619 0.282035 91 135 66
-0.229009 0.115235 0.281979 83 125 62
-0.228561 0.115851 0.281923 69 109 48
-0.228013 0.116397 0.2819 64 104 49
-0.227465 0.116943 0.281878 65 104 48
-0.227117 0.117631 0.281789 63 103 47
-0.226769 0.11832 0.281699 64 104 47
-0.22652 0.119083 0.281576 63 101 46
-0.226071 0.119702 0.28152 61 101 45
-0.227745 0.123836 0.280317 61 103 45
-0.227387 0.124548 0.280224 62 100 43
-0.227234 0.125419 0.28006 61 99 43
-0.226874 0.126136 0.279966 62 101 42
-0.226514 0.126854 0.279873 66 102 51
-0.226152 0.127573 0.279779 73 100 60
-0.225688 0.128213 0.279721 61 50 39
-0.27103 0.114408 0.273768 89 148 84
-0.270505 0.115132 0.273703 69 123 55
-0.269823 0.115773 0.273683 64 118 52
-0.269297 0.116497 0.273618 64 119 50
-0.268462 0.117052 0.273645 64 120 51
-0.267782 0.117691 0.273626 65 121 51
-0.266646 0.118074 0.273746 64 122 52
-0.265366 0.11837 0.273912 64 121 52
-0.264844 0.119089 0.273847 63 121 50
-0.230384 0.113329 0.281358 90 139 71
-0.229834 0.113876 0.281336 91 138 70
-0.229387 0.114492 0.28128 94 134 65
-0.228838 0.115039 0.281258 79 122 59
-0.228492 0.115725 0.281168 68 106 47
-0.228044 0.116342 0.281112 65 104 46
-0.227495 0.116889 0.281089 64 102 45
-0.227147 0.117577 0.280999 61 103 49
-0.226798 0.118267 0.280909 63 103 48
-0.226349 0.118886 0.280852 62 102 43
-0.225999 0.119578 0.280762 63 101 40
-0.228548 0.123386 0.279455 62 99 42
-0.227673 0.123712 0.27954 63 102 41
-0.22752 0.124581 0.279375 61 100 41
-0.227367 0.125455 0.279208 62 100 43
-0.227007 0.126173 0.279114 64 99 44
-0.226645 0.126892 0.279019 69 104 53
-0.226283 0.127613 0.278925 67 93 63
-0.22592 0.128336 0.27883 58 51 36
-0.270516 0.11401 0.273009 92 141 81
-0.269991 0.114733 0.272943 73 124 56
-0.269466 0.115456 0.272876 63 118 51
-0.268786 0.116096 0.272858 61 116 51
-0.268106 0.116735 0.272839 62 116 51
-0.267581 0.117458 0.272773 62 116 49
-0.266445 0.117842 0.272896 61 116 50
-0.265166 0.118139 0.273065 59 117 50
-0.264644 0.118858 0.272999 59 117 49
-0.230213 0.113132 0.280637 87 138 64
-0.229664 0.11368 0.280615 92 138 67
-0.229216 0.114296 0.280558 93 134 66
-0.228769 0.114912 0.280502 75 113 52
-0.228321 0.115529 0.280446 67 103 45
-0.227974 0.116216 0.280355 65 100 43
-0.227525 0.116834 0.280298 64 102 42
-0.227076 0.117452 0.280242 63 101 41
-0.226627 0.118071 0.280185 60 101 50
-0.226178 0.11869 0.280129 60 100 44
-0.228893 0.123572 0.278528 61 98 39
-0.22791 0.123821 0.278653 63 99 41
-0.227965 0.12485 0.278411 64 100 41
-0.227708 0.125648 0.278279 65 97 40
-0.227347 0.126369 0.278183 63 100 46
-0.22688 0.127011 0.278125 77 105 55
-0.226517 0.127734 0.278029 60 69 58
-0.22605 0.128378 0.27797 55 54 34
-0.270003 0.113614 0.272251 102 131 73
-0.269479 0.114335 0.272185 83 132 63
-0.268955 0.115057 0.272119 68 125 54
-0.268431 0.115779 0.272052 66 122 53
-0.267906 0.116502 0.271986 67 121 54
-0.267074 0.117057 0.272016 66 121 53
-0.266093 0.117525 0.272093 65 121 51
-0.264817 0.117823 0.272265 63 119 50
-0.264295 0.118542 0.272199 60 117 49
-0.229595 0.113552 0.279858 88 136 64
-0.229046 0.1141 0.279837 90 134 64
-0.228598 0.114716 0.27978 71 107 48
-0.228251 0.115402 0.279688 65 103 40
-0.227803 0.11602 0.279632 64 101 43
-0.227354 0.116638 0.279575 64 100 38
-0.227005 0.117327 0.279483 62 100 40
-0.226656 0.118018 0.279391 61 98 43
-0.226206 0.118638 0.279334 60 99 43
-0.228717 0.12337 0.277782 60 99 42
-0.228253 0.124009 0.277724 63 98 36
-0.2281 0.124884 0.277553 64 97 34
-0.227739 0.125605 0.277456 63 98 43
-0.227377 0.126327 0.277359 64 99 49
-0.227013 0.12705 0.277263 78 105 56
-0.226649 0.127775 0.277166 64 59 47
-0.226181 0.128419 0.277106 57 51 34
-0.269648 0.1133 0.271448 107 120 67
-0.269124 0.11402 0.271381 93 144 75
-0.2686 0.114742 0.271315 78 137 61
-0.268076 0.115463 0.271248 74 134 57
-0.267398 0.116102 0.271231 75 133 58
-0.266417 0.116572 0.27131 75 132 58
-0.26544 0.117041 0.271388 74 131 57
-0.264467 0.117508 0.271467 71 128 54
-0.263946 0.118226 0.2714 67 124 52
-0.229424 0.113356 0.279136 90 137 63
-0.228875 0.113903 0.279115 87 129 63
-0.228427 0.11452 0.279058 69 105 46
-0.22808 0.115206 0.278966 62 100 40
-0.227632 0.115823 0.278909 60 102 43
-0.227284 0.116512 0.278816 60 100 39
-0.226934 0.117202 0.278724 61 102 43
-0.226785 0.118036 0.278559 60 101 42
-0.226334 0.118657 0.278502 61 97 37
-0.228854 0.123401 0.276923 59 97 44
-0.228389 0.124041 0.276864 60 99 40
-0.228236 0.124918 0.27669 61 98 37
-0.227874 0.12564 0.276592 61 98 42
-0.227511 0.126364 0.276494 65 100 50
-0.227043 0.127008 0.276435 70 99 58
-0.226575 0.127653 0.276376 66 51 36
-0.269138 0.112905 0.270695 92 96 60
-0.268615 0.113625 0.270628 100 153 84
-0.267938 0.114263 0.270611 91 148 68
-0.267415 0.114983 0.270544 84 144 62
-0.26674 0.11562 0.270526 82 144 62
-0.265762 0.116091 0.270607 84 143 63
-0.264789 0.116559 0.270687 83 141 62
-0.264119 0.117193 0.270669 80 138 60
-0.263598 0.117911 0.270603 75 135 58
-0.228704 0.113707 0.278393 80 123 60
-0.228257 0.114323 0.278336 66 102 41
-0.227909 0.11501 0.278243 61 100 41
-0.227561 0.115697 0.27815 57 100 43
-0.227313 0.116456 0.27802 61 99 39
-0.227064 0.117218 0.27789 59 101 43
-0.227016 0.118127 0.277687 61 97 39
-0.226563 0.11875 0.277629 61 97 41
-0.228991 0.123432 0.276059 60 96 41
-0.228525 0.124073 0.275999 60 98 41
-0.228268 0.124873 0.275862 58 98 42
-0.2278 0.125517 0.275803 62 98 42
-0.227437 0.126241 0.275704 70 100 52
-0.227072 0.126966 0.275605 64 78 60
-0.226603 0.127611 0.275545 62 50 34
-0.267955 0.11315 0.269927 108 153 85
-0.26728 0.113787 0.26991 101 158 74
-0.266606 0.114423 0.269893 93 151 67
-0.266085 0.115141 0.269826 90 152 66
-0.265111 0.115612 0.269908 90 152 68
-0.264441 0.116246 0.26989 89 150 68
-0.263622 0.116796 0.269922 86 149 66
-0.262954 0.117428 0.269905 84 146 63
-0.228187 0.114196 0.277577 62 100 41
-0.227738 0.114813 0.27752 61 102 41
-0.227491 0.11557 0.277389 58 101 42
-0.227444 0.116472 0.277185 61 99 39
-0.227296 0.117307 0.277016 58 99 43
-0.227147 0.118146 0.276846 58 98 44
-0.226693 0.11877 0.276788 60 97 40
-0.229024 0.123384 0.275231 59 97 40
-0.228557 0.124027 0.275171 60 98 39
-0.2283 0.124828 0.275032 59 96 44
-0.227936 0.125552 0.274932 62 98 46
-0.227572 0.126278 0.274833 77 104 56
-0.227102 0.126924 0.274773 62 62 49
-0.266994 0.112517 0.269329 115 140 75
-0.266323 0.113152 0.269312 108 162 79
-0.265803 0.113867 0.269245 96 156 71
-0.265133 0.114501 0.269228 92 154 68
-0.264613 0.115216 0.269162 91 155 69
-0.263944 0.11585 0.269145 90 156 70
-0.263127 0.1164 0.269178 90 156 71
-0.262608 0.117115 0.269111 90 154 69
-0.262088 0.11783 0.269044 89 152 67
-0.228218 0.114137 0.27678 62 98 41
-0.227769 0.114755 0.276722 61 97 37
-0.227723 0.115654 0.276516 60 98 38
-0.227677 0.116558 0.276308 57 98 44
-0.227427 0.117324 0.276174 57 97 43
-0.227075 0.11802 0.276078 59 98 41
-0.226621 0.118645 0.27602 60 96 38
-0.229843 0.122928 0.274339 60 96 41
-0.228846 0.123181 0.27448 60 96 38
-0.228906 0.124217 0.274219 60 97 39
-0.228436 0.124862 0.274159 58 97 45
-0.228177 0.125668 0.274018 63 98 48
-0.227812 0.126396 0.273917 74 100 54
-0.227446 0.127125 0.273815 64 52 30
-0.265823 0.112762 0.268569 111 163 86
-0.265154 0.113395 0.268552 99 162 76
-0.264635 0.114109 0.268485 93 156 71
-0.263967 0.114741 0.268469 91 156 70
-0.263448 0.115455 0.268402 91 156 70
-0.262781 0.116087 0.268385 92 157 72
-0.261969 0.116636 0.268419 92 157 71
-0.26145 0.117349 0.268352 91 156 69
-0.228351 0.114148 0.275943 61 99 38
-0.228002 0.114836 0.275847 60 98 39
-0.227957 0.115738 0.275637 61 97 39
-0.22781 0.116573 0.275464 58 96 43
-0.227559 0.117341 0.275329 57 95 43
-0.227512 0.118256 0.275116 59 97 43
-0.230068 0.121053 0.27391 60 99 40
-0.230239 0.122157 0.273606 58 95 37
-0.229664 0.122723 0.273586 61 95 36
-0.229196 0.123368 0.273526 61 98 35
-0.229044 0.12425 0.273342 60 95 39
-0.228892 0.125136 0.273158 59 96 45
-0.22842 0.125785 0.273097 66 97 52
-0.227948 0.126433 0.273037 64 85 61
-0.227581 0.127164 0.272934 56 53 30
-0.264806 0.113085 0.26776 102 163 78
-0.264288 0.113798 0.267693 93 155 70
-0.263621 0.11443 0.267677 92 155 68
-0.262807 0.114981 0.267712 92 155 69
-0.262289 0.115693 0.267645 92 156 71
-0.261333 0.116159 0.26773 90 157 71
-0.26096 0.116954 0.267613 91 157 71
-0.228834 0.113469 0.275199 63 99 48
-0.228383 0.114089 0.275141 60 98 43
-0.228237 0.114918 0.274967 61 98 39
-0.22809 0.115751 0.274792 62 96 35
-0.227942 0.116589 0.274617 61 96 39
-0.227794 0.11743 0.274441 59 96 40
-0.227338 0.118057 0.274382 61 96 34
-0.230125 0.122988 0.272583 61 95 37
-0.229654 0.123635 0.272523 61 96 41
-0.22929 0.124362 0.27242 59 95 42
-0.228924 0.125091 0.272317 62 98 45
-0.228452 0.12574 0.272256 76 104 58
-0.228085 0.126471 0.272152 60 64 47
-0.227612 0.127122 0.272091 51 50 33
-0.264311 0.112695 0.267021 105 157 78
-0.263645 0.113327 0.267006 93 151 68
-0.26298 0.113959 0.26699 89 149 66
-0.262169 0.114508 0.267025 89 150 67
-0.261652 0.115219 0.266958 89 153 68
-0.260555 0.115604 0.267096 89 153 70
-0.260183 0.116395 0.266978 89 154 71
-0.229626 0.112994 0.274336 71 111 52
-0.228968 0.113478 0.274356 61 100 38
-0.228619 0.114168 0.274258 58 99 39
-0.228473 0.115 0.274081 60 96 36
-0.228224 0.115765 0.273944 62 96 36
-0.228076 0.116604 0.273766 60 97 34
-0.228752 0.118029 0.273266 60 95 36
-0.230267 0.123018 0.271699 60 94 41
-0.229795 0.123667 0.271638 62 96 41
-0.229323 0.124316 0.271577 61 93 40
-0.228851 0.124965 0.271515 63 97 47
-0.228484 0.125696 0.271411 69 98 60
-0.228116 0.126428 0.271307 62 52 32
-0.263669 0.112229 0.266337 106 154 81
-0.263005 0.112859 0.266321 93 153 72
-0.262342 0.113489 0.266306 87 147 66
-0.261389 0.113958 0.266394 86 148 66
-0.260585 0.114506 0.26643 86 147 66
-0.26007 0.115214 0.266363 85 148 68
-0.259268 0.115759 0.266399 85 150 70
-0.229763 0.113002 0.273488 65 105 48
-0.229001 0.113417 0.273548 59 100 35
-0.228754 0.114178 0.27341 55 98 39
-0.228505 0.114942 0.273271 59 96 36
-0.228358 0.115779 0.273091 57 96 37
-0.228622 0.116908 0.272749 60 95 38
-0.230302 0.122969 0.270855 60 96 44
-0.22983 0.123619 0.270793 60 96 38
-0.229357 0.124269 0.270731 60 99 40
-0.228883 0.12492 0.27067 68 99 51
-0.228516 0.125651 0.270564 59 78 57
-0.228042 0.126303 0.270503 54 48 31
-0.262222 0.112315 0.265692 95 152 77
-0.261562 0.112943 0.265677 86 144 66
-0.260903 0.113571 0.265662 84 143 64
-0.259957 0.114038 0.265751 84 143 63
-0.2593 0.114664 0.265736 84 145 63
-0.258787 0.11537 0.265669 85 145 63
-0.258273 0.116076 0.265601 85 144 64
-0.230458 0.112455 0.272655 79 124 63
-0.229693 0.112872 0.272717 64 101 41
-0.22924 0.113495 0.272658 59 97 37
-0.228992 0.114258 0.272517 57 97 41
-0.228743 0.115024 0.272376 62 96 35
-0.228699 0.115935 0.272153 64 96 38
-0.231136 0.122506 0.269937 63 98 44
-0.230445 0.123 0.269963 62 97 44
-0.229971 0.123651 0.269901 61 98 47
-0.229497 0.124302 0.269839 61 97 45
-0.229023 0.124954 0.269777 75 103 56
-0.228548 0.125606 0.269715 63 61 42
-0.26159 0.111852 0.265015 102 151 75
-0.261076 0.112557 0.264948 91 147 68
-0.260274 0.113105 0.264985 86 144 64
-0.259618 0.113731 0.264971 85 144 63
-0.258394 0.114038 0.265165 85 145 62
-0.257883 0.114741 0.265098 85 145 63
-0.257371 0.115445 0.265031 85 145 64
-0.231474 0.11211 0.271694 89 133 61
-0.230285 0.112255 0.271922 70 113 56
-0.229831 0.112879 0.271863 61 100 43
-0.229376 0.113504 0.271803 60 95 39
-0.229128 0.114269 0.271661 55 94 38
-0.228982 0.115107 0.271477 60 96 36
-0.232194 0.122197 0.268923 62 96 41
-0.231064 0.122378 0.26913 60 98 42
-0.230589 0.12303 0.269068 61 95 44
-0.230114 0.123682 0.269005 60 98 50
-0.229639 0.124335 0.268943 61 98 52
-0.229163 0.124989 0.26888 68 97 59
-0.228687 0.125642 0.268818 62 45 33
-0.261104 0.111468 0.264288 107 151 80
-0.260447 0.112095 0.264273 100 156 76
-0.259935 0.112799 0.264206 92 150 67
-0.258994 0.113267 0.264297 88 149 66
-0.257496 0.113418 0.264599 87 149 66
-0.256986 0.114118 0.264532 87 149 67
-0.232392 0.111694 0.270765 76 133 57
-0.231722 0.112185 0.270789 86 134 65
-0.230738 0.112468 0.270939 64 108 50
-0.230282 0.113095 0.270879 59 99 42
-0.229825 0.113722 0.270819 59 96 42
-0.229785 0.114631 0.27059 56 95 41
-0.229744 0.115547 0.27036 54 96 40
-0.232013 0.121989 0.268157 60 97 45
-0.231536 0.122644 0.268094 60 96 48
-0.231169 0.123378 0.267986 59 96 46
-0.230691 0.124034 0.267923 60 96 46
-0.230105 0.12461 0.267905 71 100 54
-0.229627 0.125266 0.267842 61 66 51
-0.229149 0.125923 0.267779 52 47 33
-0.260108 0.11179 0.263495 109 162 81
-0.25931 0.112337 0.263534 98 156 71
-0.258232 0.112727 0.263681 93 153 69
-0.256882 0.112958 0.263932 91 152 68
-0.256374 0.113656 0.263864 91 152 67
-0.236326 0.111318 0.269122 90 153 72
-0.234867 0.11133 0.269456 82 153 75
-0.233535 0.111412 0.269742 76 136 55
-0.232431 0.11163 0.26994 88 129 57
-0.231653 0.112053 0.270008 80 120 60
-0.23109 0.112613 0.26999 63 100 45
-0.230631 0.113242 0.269929 60 94 38
-0.230278 0.113941 0.269826 60 97 35
-0.230028 0.114714 0.269679 57 96 40
-0.230728 0.116137 0.26914 59 99 41
-0.232418 0.121205 0.267407 62 96 38
-0.231941 0.12186 0.267344 61 96 41
-0.231574 0.122594 0.267235 59 96 45
-0.231096 0.12325 0.267172 61 96 45
-0.230618 0.123906 0.267108 62 96 50
-0.230248 0.124644 0.266998 67 98 56
-0.229769 0.125302 0.266935 54 53 32
-0.259484 0.11133 0.262826 114 162 80
-0.258548 0.1118 0.26292 102 165 76
-0.257476 0.11219 0.263068 96 158 69
-0.256272 0.1125 0.263268 94 156 69
-0.255764 0.113197 0.2632 93 157 69
-0.236614 0.110474 0.268431 80 138 59
-0.235153 0.110491 0.26877 87 148 67
-0.234254 0.110851 0.268885 82 151 71
-0.233359 0.111209 0.268999 77 138 58
-0.232576 0.111635 0.269069 91 138 63
-0.231797 0.112058 0.269138 69 114 54
-0.231338 0.112689 0.269077 60 100 40
-0.230878 0.11332 0.269016 57 98 40
-0.230523 0.114022 0.268912 59 97 36
-0.230802 0.115153 0.268543 59 97 36
-0.231513 0.11659 0.267991 60 97 39
-0.232678 0.12131 0.266453 62 99 42
-0.2322 0.121967 0.266389 62 95 45
-0.231721 0.122624 0.266326 60 95 51
-0.231242 0.123281 0.266262 61 96 51
-0.230763 0.123939 0.266198 71 100 54
-0.230284 0.124597 0.266135 60 70 48
-0.229804 0.125256 0.266071 45 44 31
-0.25779 0.111266 0.26231 109 174 84
-0.257002 0.11181 0.262351 100 165 74
-0.255802 0.112122 0.262553 95 162 72
-0.255295 0.112817 0.262485 94 160 71
-0.235881 0.109926 0.267904 73 137 60
-0.234977 0.110288 0.268022 90 148 69
-0.234077 0.110648 0.268139 83 152 73
-0.233399 0.111144 0.268166 85 135 60
-0.232722 0.111639 0.268194 82 129 65
-0.232048 0.112133 0.268221 64 106 48
-0.231587 0.112766 0.268159 60 96 37
-0.231126 0.113399 0.268098 61 96 37
-0.231089 0.114315 0.267858 60 99 42
-0.230838 0.115094 0.267707 60 101 43
-0.231335 0.116385 0.267238 60 98 44
-0.232939 0.121415 0.265492 62 96 48
-0.232349 0.121995 0.265476 60 97 53
-0.231869 0.122653 0.265412 61 98 51
-0.231389 0.123312 0.265348 62 97 53
-0.230799 0.123891 0.265332 66 99 60
-0.230319 0.12455 0.265268 59 55 33
-0.257316 0.110888 0.261595 111 165 80
-0.256392 0.111355 0.261691 105 168 80
-0.255197 0.111668 0.261895 100 163 75
-0.254691 0.112362 0.261827 99 162 73
-0.235704 0.109721 0.267155 81 146 63
-0.2348 0.110084 0.267274 92 147 64
-0.233901 0.110445 0.267393 84 152 71
-0.233439 0.111079 0.267331 88 137 63
-0.232762 0.111575 0.26736 76 117 59
-0.2323 0.112209 0.267298 63 102 44
-0.231945 0.112913 0.267191 61 100 41
-0.231696 0.11369 0.267038 64 99 41
-0.231446 0.114469 0.266885 63 99 43
-0.231516 0.115468 0.266594 61 101 46
-0.231912 0.116695 0.266162 61 100 50
-0.233989 0.122078 0.264182 65 97 49
-0.232944 0.122341 0.264363 64 97 51
-0.232351 0.122923 0.264348 65 96 52
-0.231536 0.123343 0.26443 70 99 57
-0.231055 0.124004 0.264366 60 61 52
-0.230464 0.124584 0.26435 51 51 33
-0.255784 0.110903 0.261034 108 170 81
-0.25473 0.111292 0.261185 100 163 73
-0.254226 0.111985 0.261117 98 160 72
-0.236081 0.109859 0.266174 90 152 65
-0.234733 0.109949 0.26648 98 152 67
-0.234051 0.110447 0.26651 91 149 70
-0.233263 0.110876 0.266585 84 133 63
-0.232801 0.11151 0.266523 67 110 51
-0.232446 0.112215 0.266415 59 100 42
-0.232305 0.113061 0.266215 58 97 43
-0.231948 0.11377 0.266106 61 97 45
-0.231805 0.114623 0.265905 62 99 51
-0.232202 0.115845 0.265468 63 101 50
-0.232058 0.116711 0.265264 63 98 52
-0.233918 0.121947 0.263354 65 98 53
-0.233321 0.122531 0.263339 62 100 55
-0.232724 0.123115 0.263324 67 98 54
-0.232129 0.123698 0.263309 63 83 57
-0.231645 0.124362 0.263244 60 49 33
-0.255179 0.110452 0.260379 110 158 76
-0.253724 0.110616 0.260697 104 165 77
-0.253222 0.111306 0.260629 97 159 72
-0.236928 0.109357 0.265248 92 155 68
-0.236461 0.109998 0.265185 93 157 70
-0.234995 0.110018 0.265546 103 156 68
-0.234093 0.110381 0.265669 98 147 68
-0.233412 0.110879 0.2657 76 121 57
-0.232948 0.111515 0.265637 62 108 48
-0.232592 0.112221 0.265528 59 101 44
-0.232451 0.113069 0.265326 57 100 47
-0.232202 0.113851 0.265169 60 100 48
-0.232493 0.114996 0.264775 61 100 50
-0.232459 0.115933 0.264521 64 101 52
-0.23582 0.122193 0.261925 65 98 53
-0.2343 0.122136 0.262321 65 100 54
-0.2337 0.122722 0.262306 65 96 54
-0.233101 0.123308 0.262292 66 93 59
-0.232503 0.123893 0.262277 53 59 43
-0.253129 0.11017 0.260049 109 161 80
-0.252628 0.110858 0.259981 102 162 76
-0.236975 0.109288 0.264397 91 155 69
-0.235948 0.109586 0.264573 93 153 69
-0.235481 0.110226 0.26451 103 151 70
-0.234353 0.110452 0.264732 88 130 65
-0.23367 0.110951 0.264764 68 111 53
-0.233205 0.111589 0.264701 61 104 45
-0.232956 0.112367 0.264543 60 100 43
-0.232816 0.113219 0.264337 61 101 45
-0.232783 0.114147 0.264082 61 103 43
-0.23275 0.115081 0.263825 60 99 40
-0.234044 0.116914 0.262977 59 99 45
-0.236728 0.120718 0.261218 59 100 52
-0.236239 0.121388 0.261151 64 98 53
-0.235749 0.12206 0.261085 65 97 53
-0.235029 0.122569 0.261123 64 98 55
-0.234196 0.122996 0.261214 69 101 60
-0.233594 0.123584 0.2612 56 61 42
-0.251771 0.110263 0.259446 112 169 85
-0.237134 0.109287 0.263494 92 157 70
-0.236216 0.109655 0.263625 91 151 68
-0.235303 0.110021 0.263755 94 141 66
-0.234615 0.110523 0.263788 76 119 56
-0.234148 0.111163 0.263725 63 104 47
-0.233681 0.111803 0.263662 61 99 38
-0.233433 0.112585 0.263501 61 101 41
-0.233402 0.113513 0.263243 59 102 43
-0.233151 0.114302 0.263082 60 102 48
-0.233229 0.115313 0.262771 61 101 47
-0.233863 0.116705 0.262209 60 103 51
-0.234393 0.118043 0.261689 62 101 53
-0.236542 0.120504 0.26043 61 102 53
-0.236052 0.121175 0.260363 64 99 52
-0.235563 0.121846 0.260297 64 101 54
-0.234958 0.122436 0.260283 69 101 57
-0.234353 0.123027 0.26027 60 74 55
-0.250555 0.11043 0.258792 111 174 85
-0.237748 0.109563 0.262389 95 159 74
-0.236486 0.109724 0.262672 93 151 69
-0.235569 0.110091 0.262805 87 132 64
-0.234989 0.110664 0.26279 67 107 54
-0.234521 0.111306 0.262727 59 99 50
-0.234052 0.111949 0.262663 62 98 42
-0.233803 0.112734 0.2625 62 100 44
-0.233442 0.11345 0.262387 59 102 51
-0.233411 0.114385 0.262123 61 102 50
-0.233712 0.115547 0.261708 61 103 51
-0.233793 0.116572 0.26139 59 101 52
-0.23421 0.117833 0.260915 60 100 53
-0.236123 0.120131 0.259749 61 98 51
-0.235866 0.120961 0.259575 60 102 50
-0.235376 0.121632 0.259509 61 100 51
-0.234886 0.122304 0.259442 72 101 56
-0.234396 0.122976 0.259375 57 61 43
-0.249712 0.109841 0.258266 119 176 90
-0.23791 0.109563 0.261475 96 160 73
-0.236644 0.109725 0.261763 95 153 70
-0.235837 0.110162 0.261849 82 126 61
-0.235144 0.110666 0.261885 66 102 48
-0.234674 0.11131 0.26182 62 98 40
-0.234315 0.112025 0.261706 62 99 42
-0.234176 0.112884 0.261491 60 99 43
-0.233704 0.113531 0.261427 58 100 46
-0.233784 0.114542 0.261109 61 99 42
-0.233753 0.115486 0.26084 61 101 43
-0.233834 0.116512 0.260518 60 100 43
-0.234478 0.117928 0.259932 59 100 44
-0.235937 0.119917 0.258962 59 95 44
-0.235679 0.120747 0.258787 61 96 44
-0.235189 0.121418 0.25872 62 98 46
-0.234699 0.12209 0.258653 68 98 59
-0.234323 0.122843 0.258532 53 44 43
-0.238073 0.109563 0.260557 96 159 72
-0.236916 0.109795 0.260799 96 149 70
-0.235993 0.110163 0.260938 80 121 61
-0.235299 0.110669 0.260975 66 102 47
-0.234828 0.111314 0.26091 64 99 38
-0.234468 0.11203 0.260795 62 100 43
-0.23444 0.112963 0.260526 60 103 46
-0.234524 0.113974 0.260203 60 100 43
-0.234383 0.114846 0.259983 64 99 40
-0.233906 0.1155 0.259917 62 102 43
-0.233875 0.116453 0.259643 60 99 46
-0.234634 0.117947 0.258996 59 97 42
-0.235867 0.119783 0.258121 60 91 43
-0.235493 0.120533 0.257999 62 90 44
-0.235118 0.121284 0.257877 65 96 51
-0.234627 0.121957 0.25781 66 96 64
-0.234251 0.122711 0.257687 52 47 37
-0.248449 0.109862 0.25676 118 177 90
-0.238007 0.109424 0.259738 109 159 74
-0.237076 0.109795 0.259881 99 146 70
-0.236151 0.110164 0.260023 76 120 58
-0.235342 0.110601 0.260112 65 101 47
-0.234871 0.111248 0.260047 62 99 45
-0.234733 0.112107 0.259827 60 100 49
-0.234706 0.113043 0.259554 59 100 49
-0.234566 0.113911 0.259332 62 99 44
-0.234425 0.114784 0.259109 62 100 46
-0.234284 0.115662 0.258885 61 100 47
-0.235161 0.117227 0.258177 58 95 50
-0.234677 0.117889 0.25811 59 93 45
-0.23568 0.119569 0.257333 59 93 48
-0.235422 0.120398 0.257155 60 95 48
-0.234931 0.12107 0.257088 70 99 54
-0.234555 0.121823 0.256965 68 89 64
-0.234179 0.122578 0.256841 54 50 34
-0.248004 0.109497 0.256072 111 165 83
-0.237941 0.109285 0.258919 107 157 76
-0.237123 0.109726 0.259011 101 141 68
-0.236196 0.110096 0.259155 81 121 59
-0.235611 0.110674 0.259142 66 104 49
-0.235137 0.111322 0.259077 60 102 50
-0.234776 0.112041 0.258959 60 100 50
-0.234749 0.112978 0.258683 60 97 50
-0.234609 0.113848 0.258458 62 99 49
-0.234356 0.114649 0.258286 62 98 46
-0.234101 0.115452 0.258113 60 95 51
-0.235205 0.117167 0.257288 58 95 50
-0.236099 0.118763 0.256558 60 95 46
-0.235841 0.119592 0.256378 62 95 50
-0.235351 0.120264 0.25631 63 99 51
-0.23486 0.120936 0.256242 79 107 56
-0.234483 0.121689 0.256118 63 82 64
-0.234221 0.122526 0.255937 57 47 33
-0.247815 0.109279 0.255271 108 155 77
-0.247319 0.109957 0.255202 99 154 72
-0.237056 0.109587 0.258192 101 140 68
-0.236129 0.109958 0.258338 85 124 58
-0.235542 0.110536 0.258326 70 112 51
-0.235069 0.111184 0.25826 64 104 48
-0.234931 0.112047 0.258035 64 99 44
-0.234679 0.112842 0.257862 61 96 43
-0.234427 0.113639 0.257689 61 97 44
-0.234286 0.114513 0.257461 62 96 38
-0.233919 0.115242 0.25734 62 94 44
-0.235134 0.117032 0.256452 63 92 44
-0.236145 0.118706 0.255656 64 95 47
-0.23577 0.119456 0.255532 65 100 49
-0.235279 0.120129 0.255464 67 100 50
-0.235019 0.120962 0.255282 79 109 52
-0.234642 0.121717 0.255156 61 81 60
-0.234264 0.122474 0.25503 52 48 32
-0.247498 0.108988 0.254527 103 141 69
-0.24713 0.109738 0.2544 94 150 70
-0.236875 0.109378 0.257425 98 143 71
-0.236174 0.109889 0.257467 87 132 66
-0.235474 0.110398 0.257508 77 118 53
-0.235112 0.111117 0.257388 70 109 48
-0.234862 0.11191 0.257214 68 101 42
-0.23461 0.112705 0.25704 66 96 39
-0.234357 0.113502 0.256865 65 96 38
-0.234103 0.114303 0.25669 67 96 36
-0.233736 0.115032 0.256568 66 97 46
-0.236332 0.117743 0.254992 66 98 51
-0.236074 0.11857 0.25481 71 99 51
-0.235583 0.119242 0.254741 72 101 50
-0.235208 0.119994 0.254616 72 105 50
-0.234947 0.120827 0.254432 78 109 52
-0.2348 0.121745 0.254189 62 84 63
-0.234306 0.122422 0.254121 50 45 33
-0.246941 0.10952 0.253598 91 144 67
-0.246572 0.110272 0.253469 86 138 61
-0.236694 0.109169 0.256658 91 131 69
-0.236106 0.10975 0.256646 92 141 71
-0.235406 0.11026 0.256689 86 129 56
-0.234931 0.110909 0.256622 80 120 53
-0.23468 0.111701 0.256447 74 112 52
-0.23454 0.112567 0.256217 71 105 48
-0.234287 0.113366 0.25604 67 102 49
-0.233921 0.114093 0.255918 68 104 48
-0.233554 0.114823 0.255796 68 105 49
-0.236378 0.117684 0.254088 73 108 52
-0.236003 0.118434 0.253962 76 110 54
-0.235512 0.119106 0.253893 75 110 52
-0.235021 0.119779 0.253824 75 108 53
-0.235106 0.120853 0.253464 81 111 56
-0.234728 0.121611 0.253336 63 88 63
-0.234233 0.122288 0.253267 48 49 25
-0.246752 0.109301 0.252795 88 144 68
-0.246636 0.1102 0.252545 81 132 58
-0.235925 0.109541 0.25588 98 147 74
-0.235225 0.110051 0.255923 92 135 62
-0.23475 0.110701 0.255856 89 130 60
-0.234611 0.111563 0.255625 84 125 59
-0.234471 0.11243 0.255392 81 120 54
-0.234105 0.113156 0.255269 79 114 53
-0.233738 0.113884 0.255146 78 113 53
-0.233371 0.114613 0.255023 80 117 53
-0.236191 0.117469 0.253298 81 118 56
-0.235933 0.118297 0.253112 85 120 58
-0.235441 0.11897 0.253043 82 119 56
-0.234949 0.119643 0.252974 85 118 55
-0.235034 0.120718 0.25261 87 119 59
-0.234655 0.121476 0.252481 67 96 67
