ply
format ascii 1.0
element vertex 1258
property float x
property float y
property float z
property uchar diffuse_red
property uchar diffuse_green
property uchar diffuse_blue
end_header
-0.277059 0.158423 0.284625 60 114 42
-0.275726 0.15864 0.284717 63 120 47
-0.274069 0.158627 0.284878 70 127 53
-0.263061 0.159752 0.285748 29 95 23
-0.262127 0.160182 0.285766 27 93 26
-0.261196 0.16061 0.285785 28 93 28
-0.260417 0.16115 0.28577 36 98 28
-0.259638 0.161688 0.285756 44 103 30
-0.258567 0.162001 0.285807 48 104 35
-0.257792 0.162538 0.285792 48 104 38
-0.222637 0.152817 0.290774 62 118 55
-0.304516 0.149586 0.282451 61 80 40
-0.30362 0.150184 0.282439 58 86 37
-0.302932 0.150895 0.282387 53 91 38
-0.302243 0.151607 0.282335 49 93 34
-0.301554 0.152319 0.282283 46 95 29
-0.300864 0.153032 0.282231 43 95 27
-0.299972 0.153627 0.282219 38 94 27
-0.299081 0.154222 0.282207 38 95 25
-0.298392 0.154934 0.282155 45 91 31
-0.284611 0.155411 0.283437 74 129 56
-0.283231 0.15564 0.283534 72 122 54
-0.282037 0.155982 0.283595 64 122 52
-0.280674 0.156208 0.283691 57 117 50
-0.279321 0.156433 0.283787 53 112 45
-0.278149 0.15677 0.283846 49 108 42
-0.276812 0.156992 0.283941 49 108 37
-0.276159 0.157667 0.283892 51 108 33
-0.274333 0.157545 0.284093 51 107 34
-0.273352 0.15799 0.284115 55 107 38
-0.272539 0.158546 0.284101 56 111 48
-0.271727 0.159102 0.284088 61 123 53
-0.271078 0.159772 0.284039 67 125 53
-0.262999 0.159577 0.28487 32 95 26
-0.262215 0.160119 0.284856 28 93 21
-0.261283 0.160548 0.284876 30 93 21
-0.260204 0.160864 0.28493 37 98 26
-0.259426 0.161403 0.284916 51 104 34
-0.258355 0.161716 0.284969 66 110 43
-0.25758 0.162253 0.284955 70 118 51
-0.222652 0.152752 0.290008 63 117 53
-0.302494 0.150464 0.281502 65 78 46
-0.301806 0.151175 0.28145 62 84 41
-0.301525 0.152119 0.281317 59 89 35
-0.300835 0.152832 0.281264 53 92 31
-0.283186 0.155452 0.28261 76 127 55
-0.281814 0.15568 0.28271 63 118 49
-0.280277 0.155794 0.282847 54 107 39
-0.279099 0.156133 0.282908 47 102 32
-0.277927 0.156471 0.28297 40 101 32
-0.276253 0.156469 0.28314 38 101 32
-0.274596 0.156466 0.283309 40 104 32
-0.273948 0.157137 0.28326 40 105 37
-0.272968 0.157581 0.283283 44 106 36
-0.272156 0.158138 0.28327 50 105 34
-0.271344 0.158694 0.283258 50 107 30
-0.270697 0.159363 0.283209 48 106 31
-0.270211 0.160147 0.283123 44 107 45
-0.262153 0.159943 0.283978 37 94 24
-0.261069 0.160261 0.284034 47 96 25
-0.259991 0.160578 0.284089 62 109 37
-0.259213 0.161117 0.284075 72 124 51
-0.258142 0.161431 0.28413 80 131 58
-0.257514 0.162081 0.284083 82 135 63
-0.223508 0.152395 0.289204 59 119 51
-0.222668 0.152687 0.28924 73 121 54
-0.283319 0.155376 0.281645 69 126 58
-0.282121 0.155719 0.28171 68 124 56
-0.280055 0.155494 0.281966 63 115 48
-0.278878 0.155834 0.282029 52 106 35
-0.277877 0.156285 0.282055 41 100 29
-0.276033 0.156171 0.282268 35 98 28
-0.274544 0.156282 0.282404 34 97 27
-0.273894 0.156953 0.282355 33 96 25
-0.272749 0.157286 0.282417 32 96 26
-0.271937 0.157843 0.282404 33 97 27
-0.271126 0.158399 0.282392 37 104 35
-0.270316 0.158954 0.28238 43 107 37
-0.269668 0.159623 0.28233 46 104 35
-0.269181 0.160407 0.282244 42 97 27
-0.26209 0.159768 0.283098 49 102 38
-0.260856 0.159975 0.283191 59 112 44
-0.259778 0.160292 0.283248 74 125 55
-0.259 0.160832 0.283235 83 135 64
-0.25793 0.161146 0.283292 85 137 65
-0.257301 0.161796 0.283244 86 139 66
-0.223868 0.151591 0.288525 66 128 57
-0.223226 0.152062 0.28851 67 125 57
-0.221944 0.153003 0.28848 101 141 70
-0.283452 0.155301 0.280676 50 108 43
-0.28243 0.155759 0.280704 60 113 46
-0.280882 0.155873 0.28085 63 115 49
-0.279001 0.15576 0.281073 54 110 44
-0.277827 0.156099 0.281139 44 103 33
-0.276659 0.156437 0.281204 40 100 28
-0.275161 0.156547 0.281346 35 100 28
-0.273509 0.156545 0.281524 33 97 22
-0.27286 0.157216 0.281474 29 92 21
-0.271718 0.157548 0.281538 27 92 25
-0.270907 0.158104 0.281526 33 93 26
-0.270097 0.15866 0.281514 43 100 29
-0.269288 0.159215 0.281502 54 105 40
-0.268641 0.159883 0.281453 52 108 46
-0.267993 0.160552 0.281404 49 102 34
-0.260792 0.159799 0.282312 67 119 52
-0.259565 0.160006 0.282407 77 129 60
-0.258787 0.160546 0.282395 83 138 67
-0.257718 0.160861 0.282453 84 138 66
-0.257089 0.161511 0.282406 86 139 66
-0.223685 0.151347 0.287805 84 141 67
-0.223043 0.151819 0.28779 82 138 68
-0.222401 0.152289 0.287776 97 148 75
-0.221859 0.152849 0.287734 103 146 73
-0.282384 0.15557 0.279774 38 92 26
-0.281364 0.156027 0.279804 42 98 37
-0.279997 0.156254 0.279914 40 103 43
-0.277949 0.156026 0.280181 41 103 38
-0.276778 0.156364 0.280249 45 101 32
-0.275445 0.156588 0.280356 39 100 30
-0.273954 0.156698 0.280501 36 97 22
-0.272641 0.15692 0.280605 34 93 20
-0.271991 0.157591 0.280556 30 91 28
-0.270851 0.157922 0.280622 56 96 38
-0.269717 0.158252 0.280687 68 112 45
-0.268909 0.158807 0.280676 75 126 52
-0.268102 0.159361 0.280665 71 124 54
-0.267456 0.160029 0.280615 63 113 48
-0.267126 0.160927 0.280489 65 113 48
-0.259946 0.160166 0.28142 79 129 59
-0.258722 0.160371 0.281518 84 138 65
-0.258091 0.161023 0.281469 84 139 66
-0.256876 0.161226 0.281567 85 140 66
-0.223502 0.151103 0.287085 88 149 73
-0.22286 0.151575 0.28707 93 145 73
-0.222318 0.152134 0.287029 103 151 78
-0.221676 0.152605 0.287015 96 143 73
-0.281317 0.155838 0.278873 32 93 24
-0.280651 0.156525 0.278822 30 91 24
-0.27981 0.157096 0.278812 28 91 25
-0.276898 0.156291 0.279291 30 94 29
-0.2759 0.156743 0.27932 35 99 35
-0.27457 0.156966 0.27943 43 101 31
-0.273082 0.157074 0.279579 42 94 24
-0.27243 0.157748 0.279529 56 103 36
-0.270795 0.15774 0.279716 75 123 51
-0.269498 0.157957 0.279822 80 131 59
-0.26837 0.158287 0.27989 82 136 61
-0.267725 0.158953 0.27984 83 135 60
-0.267237 0.159735 0.279751 78 129 57
-0.26659 0.160403 0.279702 75 127 56
-0.257878 0.160737 0.280628 82 137 64
-0.223319 0.150859 0.286365 91 145 68
-0.222677 0.151331 0.286351 106 155 76
-0.222134 0.151891 0.286309 109 157 80
-0.221592 0.152451 0.286267 90 137 68
-0.28482 0.156808 0.27731 37 95 26
-0.281624 0.155878 0.277857 35 94 27
-0.280427 0.156221 0.277931 31 93 25
-0.279761 0.156908 0.27788 27 91 20
-0.278746 0.157364 0.277913 28 88 17
-0.275848 0.156557 0.278401 31 89 24
-0.274853 0.157008 0.278432 53 100 33
-0.273694 0.157343 0.278504 57 107 40
-0.271552 0.156999 0.278818 60 113 48
-0.270902 0.15767 0.278768 77 130 58
-0.269441 0.157776 0.278918 80 137 61
-0.267993 0.15788 0.279066 81 138 62
-0.267347 0.158547 0.279017 86 140 63
-0.26686 0.159327 0.278927 88 141 66
-0.266372 0.160109 0.278837 83 137 65
-0.223136 0.150615 0.285644 98 152 74
-0.222494 0.151087 0.28563 109 163 82
-0.221951 0.151647 0.285589 104 154 79
-0.221409 0.152207 0.285547 85 132 63
-0.283321 0.155687 0.276713 43 99 31
-0.281755 0.155803 0.276877 39 97 28
-0.280555 0.156147 0.276955 34 95 25
-0.279536 0.156604 0.276989 30 93 22
-0.278522 0.157061 0.277023 28 90 19
-0.276478 0.156826 0.277312 32 90 22
-0.2748 0.156822 0.277512 64 102 34
-0.273975 0.157386 0.277503 66 119 52
-0.271989 0.157154 0.277784 65 117 53
-0.270194 0.157036 0.278021 75 129 59
-0.269545 0.157706 0.27797 82 136 61
-0.267934 0.157699 0.278164 83 139 63
-0.267288 0.158366 0.278114 87 143 66
-0.266642 0.159033 0.278064 89 146 69
-0.223495 0.149811 0.284966 96 152 74
-0.222952 0.150371 0.284924 107 160 77
-0.222311 0.150843 0.28491 112 164 82
-0.221768 0.151402 0.284868 97 148 76
-0.221324 0.152052 0.284798 82 125 59
-0.283094 0.155381 0.275814 60 108 45
-0.281707 0.155612 0.275939 48 103 40
-0.280683 0.156072 0.275975 38 100 32
-0.279663 0.156531 0.27601 35 97 23
-0.278297 0.156757 0.276133 33 93 23
-0.276769 0.156868 0.276299 29 93 26
-0.275085 0.156864 0.276505 69 110 44
-0.273753 0.157087 0.276625 67 123 56
-0.27243 0.157309 0.276743 70 117 56
-0.271116 0.15753 0.276861 76 129 59
-0.270463 0.158204 0.27681 81 139 64
-0.268677 0.158081 0.277053 81 140 65
-0.267229 0.158185 0.277209 81 141 65
-0.223854 0.149007 0.284287 97 150 75
-0.223312 0.149567 0.284245 102 159 77
-0.222769 0.150127 0.284203 113 166 81
-0.222128 0.150599 0.28419 110 157 79
-0.221585 0.151158 0.284148 88 135 66
-0.221141 0.151807 0.284076 78 124 56
-0.282196 0.155767 0.274863 76 129 55
-0.280812 0.155997 0.274991 64 115 45
-0.279437 0.156226 0.275118 50 101 33
-0.278073 0.156454 0.275244 36 97 27
-0.276545 0.156566 0.275413 32 95 28
-0.275032 0.156677 0.27558 71 111 47
-0.273699 0.156901 0.275703 71 129 59
-0.272541 0.157238 0.275782 67 122 57
-0.271719 0.157801 0.275774 70 125 56
-0.27057 0.158134 0.275852 73 132 59
-0.269915 0.15881 0.275801 71 134 59
-0.269914 0.159948 0.275577 69 133 58
-0.223671 0.148763 0.283567 99 153 77
-0.223129 0.149323 0.283525 108 163 83
-0.222586 0.149882 0.283482 115 169 89
-0.222043 0.150442 0.28344 105 153 78
-0.2215 0.151003 0.283398 85 129 58
-0.281298 0.156153 0.273911 85 141 63
-0.279916 0.156383 0.274042 71 122 51
-0.278022 0.156265 0.274308 53 106 41
-0.276322 0.156264 0.274527 41 99 32
-0.274809 0.156377 0.274698 64 108 43
-0.273812 0.156829 0.274735 65 124 55
-0.272819 0.157281 0.274772 60 121 53
-0.271994 0.157845 0.274765 60 120 49
-0.271006 0.158294 0.274801 61 122 50
-0.270843 0.159318 0.274617 61 124 51
-0.270184 0.159998 0.274566 63 126 52
-0.223488 0.148519 0.282846 103 157 78
-0.222946 0.149078 0.282804 113 168 86
-0.222403 0.149638 0.282761 111 164 87
-0.22186 0.150198 0.282719 92 142 71
-0.221317 0.150758 0.282676 81 124 56
-0.276269 0.156076 0.273595 60 113 45
-0.274586 0.156076 0.273815 63 113 46
-0.273422 0.156416 0.273899 60 118 50
-0.272596 0.156981 0.273892 56 116 49
-0.271938 0.15766 0.27384 58 116 46
-0.27128 0.158339 0.273789 66 120 48
-0.270621 0.159019 0.273737 69 126 52
-0.224249 0.14806 0.282046 100 154 76
-0.223305 0.148275 0.282126 107 162 79
-0.222763 0.148834 0.282083 114 168 86
-0.22222 0.149394 0.282041 107 155 82
-0.221677 0.149954 0.281998 85 131 64
-0.274194 0.155662 0.272979 71 125 54
-0.273032 0.156003 0.273064 63 121 51
-0.272374 0.156681 0.273012 60 117 49
-0.271716 0.15736 0.27296 65 119 49
-0.271057 0.158039 0.272908 79 125 53
-0.270563 0.158834 0.27281 86 135 59
-0.231681 0.147996 0.280264 107 168 85
-0.224066 0.147815 0.281323 105 159 79
-0.223222 0.148116 0.281374 114 167 84
-0.222579 0.14859 0.281362 114 165 86
-0.222037 0.149149 0.281319 98 146 74
-0.221494 0.149709 0.281277 82 124 57
-0.273636 0.155137 0.27219 73 130 58
-0.27281 0.155703 0.272184 69 126 54
-0.272152 0.156381 0.272132 66 123 52
-0.271493 0.15706 0.27208 72 127 54
-0.271 0.157854 0.271981 79 133 58
-0.232051 0.147167 0.279565 112 172 82
-0.23073 0.147125 0.279755 106 163 81
-0.230174 0.147699 0.27971 99 157 79
-0.225546 0.147959 0.28029 102 157 78
-0.223983 0.147656 0.280568 109 164 82
-0.223138 0.147958 0.280621 117 170 88
-0.222496 0.148432 0.28061 112 160 83
-0.221853 0.148905 0.280598 89 135 66
-0.22131 0.149465 0.280555 78 121 55
-0.269954 0.145035 0.273883 105 134 76
-0.269325 0.145683 0.273833 116 176 87
-0.268696 0.146332 0.273783 98 160 72
-0.273413 0.154837 0.271309 76 131 57
-0.272588 0.155403 0.271304 74 127 54
-0.272096 0.156195 0.271205 71 124 53
-0.271437 0.156874 0.271152 73 127 55
-0.270943 0.157669 0.271052 80 135 57
-0.231753 0.146827 0.278855 110 168 82
-0.230543 0.146874 0.279014 104 159 79
-0.229557 0.147096 0.279105 97 152 76
-0.228789 0.147492 0.279128 94 147 75
-0.227918 0.147799 0.279185 96 148 75
-0.226012 0.147234 0.279573 101 153 77
-0.225258 0.147625 0.279595 106 162 80
-0.223799 0.147411 0.279845 112 168 83
-0.223055 0.147799 0.279867 114 168 87
-0.222411 0.148273 0.279856 102 150 77
-0.22167 0.14866 0.279877 83 125 59
-0.269428 0.14455 0.273128 95 117 74
-0.2688 0.145198 0.273078 118 174 87
-0.268484 0.146044 0.27294 100 163 76
-0.267854 0.146693 0.27289 96 160 72
-0.273526 0.154761 0.270332 91 146 62
-0.272699 0.155328 0.270328 85 137 58
-0.27204 0.156008 0.270275 77 130 57
-0.27138 0.156688 0.270223 75 129 57
-0.232563 0.14635 0.278017 108 167 82
-0.231564 0.146574 0.278111 105 162 80
-0.230247 0.146535 0.278308 100 156 77
-0.229156 0.146671 0.278435 96 149 74
-0.228284 0.14698 0.278493 95 147 73
-0.226582 0.146594 0.278821 98 151 77
-0.225827 0.146986 0.278844 103 158 79
-0.224971 0.147292 0.2789 108 165 81
-0.223616 0.147165 0.279121 115 170 84
-0.222871 0.147554 0.279144 111 162 82
-0.222228 0.148029 0.279133 92 139 69
-0.221585 0.148502 0.279123 78 119 55
-0.268747 0.14397 0.27242 87 105 71
-0.26812 0.144616 0.27237 113 162 83
-0.267804 0.145459 0.272231 94 155 74
-0.267641 0.146406 0.272047 89 153 68
-0.272644 0.15514 0.269397 98 163 73
-0.271983 0.15582 0.269344 98 162 71
-0.233267 0.145782 0.27721 111 171 84
-0.232374 0.146097 0.277271 106 164 83
-0.231376 0.146322 0.277368 101 159 81
-0.230059 0.146284 0.277569 96 151 77
-0.228863 0.146334 0.277733 95 147 73
-0.227781 0.146469 0.277861 97 150 73
-0.226293 0.14626 0.278125 101 156 77
-0.225436 0.146567 0.278182 106 162 80
-0.224685 0.146959 0.278206 110 167 83
-0.223432 0.14692 0.278398 115 169 86
-0.222688 0.147309 0.278421 106 153 77
-0.222044 0.147784 0.278411 83 127 60
-0.267606 0.143103 0.271849 85 96 65
-0.266982 0.143745 0.271799 110 153 77
-0.266819 0.144681 0.271615 87 145 70
-0.266347 0.145424 0.27152 81 140 61
-0.233078 0.145529 0.276462 109 166 80
-0.232185 0.145843 0.276525 105 161 80
-0.231187 0.146069 0.276624 99 156 80
-0.229657 0.145859 0.276899 95 151 76
-0.228464 0.14591 0.277066 96 149 73
-0.227072 0.14579 0.277301 101 155 75
-0.226005 0.145927 0.277429 108 163 80
-0.225149 0.146234 0.277489 112 168 84
-0.224399 0.146626 0.277513 115 170 87
-0.223248 0.146675 0.277674 112 164 85
-0.222504 0.147064 0.277698 94 142 71
-0.221861 0.147539 0.277689 76 119 54
-0.267088 0.142626 0.271105 86 91 63
-0.266465 0.143267 0.271054 109 147 74
-0.265995 0.144006 0.270959 84 140 68
-0.265524 0.144746 0.270863 75 132 57
-0.265509 0.145783 0.270631 74 134 58
-0.232888 0.145275 0.275715 107 163 79
-0.231996 0.14559 0.27578 104 159 78
-0.231108 0.145904 0.275844 100 157 78
-0.229256 0.145435 0.276232 98 153 76
-0.228066 0.145488 0.276401 100 153 75
-0.226575 0.145285 0.276674 105 158 77
-0.225717 0.145594 0.276735 110 165 82
-0.224863 0.145902 0.276796 114 170 86
-0.224113 0.146294 0.276821 115 169 86
-0.222964 0.146344 0.276985 106 155 79
-0.22232 0.146819 0.276975 83 127 61
-0.266572 0.142151 0.270362 85 85 62
-0.266103 0.142887 0.270266 110 140 74
-0.265632 0.143624 0.27017 83 142 71
-0.265009 0.144266 0.27012 72 129 58
-0.264689 0.145104 0.269977 70 127 54
-0.266008 0.150239 0.268594 75 138 57
-0.265369 0.150897 0.268542 76 140 60
-0.232248 0.145687 0.274885 105 157 77
-0.231247 0.145914 0.274988 102 155 76
-0.229069 0.145185 0.275494 101 155 75
-0.227146 0.144642 0.275918 104 157 77
-0.226183 0.144867 0.276015 108 161 79
-0.225327 0.145177 0.276077 110 168 82
-0.224576 0.14557 0.276104 114 170 84
-0.223827 0.145963 0.27613 112 163 82
-0.22288 0.146184 0.276226 95 142 70
-0.222236 0.146659 0.276217 77 118 53
-0.266209 0.141772 0.269576 81 80 59
-0.265588 0.142412 0.269526 113 134 74
-0.265118 0.143147 0.269429 90 152 77
-0.264496 0.143788 0.269378 75 132 57
-0.264025 0.144526 0.269281 70 128 52
-0.266431 0.149289 0.267791 68 126 51
-0.265481 0.149739 0.267837 68 127 51
-0.264534 0.150188 0.267882 68 130 53
-0.263742 0.15074 0.267879 68 134 56
-0.262496 0.150977 0.268022 71 138 59
-0.261257 0.151212 0.268163 80 142 62
-0.230171 0.145975 0.274309 103 158 77
-0.226753 0.144224 0.275259 106 162 79
-0.225895 0.144535 0.275322 110 166 81
-0.22504 0.144845 0.275385 111 170 83
-0.22429 0.145239 0.275413 113 169 84
-0.223643 0.145716 0.275404 107 154 78
-0.222697 0.145938 0.275502 83 127 62
-0.222152 0.146499 0.275458 70 112 50
-0.265696 0.1413 0.268838 79 79 59
-0.265227 0.142033 0.268741 113 126 73
-0.264757 0.142768 0.268643 103 166 85
-0.264136 0.143408 0.268593 87 144 61
-0.263514 0.144048 0.268542 76 136 56
-0.266216 0.148998 0.266936 62 123 51
-0.264956 0.149241 0.267082 61 123 48
-0.264164 0.149794 0.26708 60 124 48
-0.262916 0.150034 0.267225 61 124 51
-0.261676 0.150272 0.267369 63 126 54
-0.260893 0.15082 0.267366 72 132 60
-0.26026 0.151472 0.267314 93 148 67
-0.226464 0.143892 0.274565 108 166 82
-0.225402 0.144036 0.274703 112 169 83
-0.224652 0.14443 0.274731 114 170 84
-0.224005 0.144908 0.274723 111 164 84
-0.223459 0.14547 0.274678 96 144 73
-0.222612 0.145777 0.274742 74 116 55
-0.265184 0.140829 0.268103 79 77 57
-0.264716 0.14156 0.268005 106 115 64
-0.264096 0.142198 0.267954 112 179 93
-0.263476 0.142837 0.267903 96 159 72
-0.263304 0.143764 0.267709 86 150 65
-0.262681 0.144405 0.267658 84 146 61
-0.265688 0.148501 0.266182 70 131 54
-0.264586 0.148848 0.26628 65 125 50
-0.263337 0.149091 0.266428 60 121 48
-0.26255 0.149641 0.266426 57 118 48
-0.261463 0.149984 0.266522 57 117 49
-0.26068 0.150532 0.26652 65 121 53
-0.260046 0.151184 0.266468 90 141 63
-0.225867 0.14331 0.273983 111 168 83
-0.224912 0.143538 0.274086 112 171 83
-0.224265 0.144016 0.274078 114 169 84
-0.22372 0.144578 0.274033 107 156 81
-0.223074 0.145055 0.274025 83 131 65
-0.222428 0.145532 0.274017 67 110 50
-0.264524 0.140266 0.267417 76 72 57
-0.263906 0.140902 0.267366 96 103 67
-0.263289 0.141538 0.267316 122 185 98
-0.262819 0.142269 0.267217 107 170 81
-0.262497 0.143097 0.26707 99 162 73
-0.262471 0.144121 0.266825 94 160 70
-0.26391 0.148251 0.265581 77 138 59
-0.26297 0.148699 0.265629 69 130 54
-0.261882 0.149044 0.265728 63 123 51
-0.261099 0.149593 0.265726 59 117 49
-0.260466 0.150244 0.265674 61 117 50
-0.259833 0.150896 0.265622 81 133 57
-0.259199 0.151548 0.26557 108 173 78
-0.225273 0.14273 0.273405 111 170 83
-0.224323 0.14296 0.273509 114 170 83
-0.223779 0.14352 0.273464 112 163 83
-0.223435 0.144248 0.273345 96 142 73
-0.22289 0.144809 0.2733 74 116 55
-0.263421 0.13943 0.266879 71 75 59
-0.262807 0.140063 0.266829 87 89 66
-0.262339 0.140788 0.26673 123 175 93
-0.261723 0.141422 0.266679 110 171 81
-0.261107 0.142056 0.266628 102 166 75
-0.260637 0.142785 0.266529 100 165 74
-0.261194 0.144187 0.266088 98 164 74
-0.263111 0.146502 0.265191 96 160 74
-0.262934 0.147454 0.264987 91 153 69
-0.26215 0.148003 0.264985 83 145 64
-0.261518 0.148654 0.264933 75 136 59
-0.260885 0.149305 0.264881 68 128 54
-0.260252 0.149957 0.264829 62 122 52
-0.259619 0.150608 0.264776 74 127 57
-0.258985 0.15126 0.264724 105 170 77
-0.225635 0.141923 0.272724 106 164 81
-0.224279 0.141827 0.27298 110 168 82
-0.223837 0.142467 0.272897 113 167 83
-0.223595 0.143274 0.27274 106 153 79
-0.223051 0.143835 0.272695 83 127 65
-0.222705 0.144563 0.272575 68 108 50
-0.262451 0.13969 0.266054 74 80 62
-0.261837 0.140322 0.266003 120 165 85
-0.261222 0.140955 0.265952 109 171 82
-0.260607 0.141587 0.265901 102 164 75
-0.260137 0.142315 0.265801 99 166 75
-0.259666 0.143043 0.265701 99 167 75
-0.260805 0.144835 0.265056 99 167 76
-0.261218 0.146166 0.264652 97 166 75
-0.261486 0.147413 0.264294 93 161 72
-0.260855 0.148062 0.264242 88 154 68
-0.260075 0.148609 0.264241 82 144 62
-0.259889 0.149566 0.264034 74 135 60
-0.259256 0.150217 0.263982 72 127 59
-0.224336 0.140781 0.272416 99 158 74
-0.223795 0.141338 0.272371 107 163 80
-0.223554 0.14214 0.272213 108 160 83
-0.223111 0.142781 0.27213 94 141 73
-0.222867 0.143589 0.271971 73 114 54
-0.26195 0.139226 0.26533 68 72 63
-0.261336 0.139857 0.265279 114 145 77
-0.260723 0.140489 0.265228 108 168 83
-0.260254 0.141213 0.265127 99 161 75
-0.259639 0.141846 0.265076 96 160 71
-0.259168 0.142573 0.264976 96 162 72
-0.259422 0.143779 0.264625 96 164 74
-0.259971 0.145192 0.26417 97 166 74
-0.260083 0.146327 0.263863 97 165 74
-0.259603 0.147072 0.26376 96 162 71
-0.259862 0.148322 0.263398 92 158 69
-0.258935 0.148768 0.263449 87 150 67
-0.258305 0.149416 0.263397 77 136 61
-0.225134 0.139345 0.271824 75 139 61
-0.224594 0.1399 0.271779 75 142 61
-0.224054 0.140456 0.271734 86 148 66
-0.223613 0.141094 0.271651 103 158 77
-0.223271 0.141813 0.27153 103 154 80
-0.222928 0.142536 0.271408 81 126 64
-0.222783 0.143426 0.271208 65 107 47
-0.26145 0.138764 0.264607 71 72 58
-0.260983 0.139485 0.264507 111 129 71
-0.26037 0.140116 0.264455 108 166 85
-0.259756 0.140747 0.264404 96 161 75
-0.259142 0.141379 0.264353 91 154 68
-0.258816 0.142198 0.264202 91 156 69
-0.258777 0.143211 0.263949 92 158 70
-0.259175 0.14452 0.263542 92 160 71
-0.259136 0.14555 0.263285 93 162 71
-0.258658 0.14629 0.263181 94 162 70
-0.258764 0.147432 0.262869 94 161 70
-0.257844 0.147876 0.262921 92 158 70
-0.256782 0.14822 0.263024 83 146 66
-0.256589 0.149167 0.262816 93 148 66
-0.225255 0.139339 0.270989 64 131 54
-0.224512 0.139736 0.271021 67 133 56
-0.223971 0.140293 0.270976 83 140 62
-0.22363 0.141011 0.270853 100 151 74
-0.223287 0.141732 0.27073 93 142 73
-0.222844 0.142373 0.270646 71 111 54
-0.260952 0.138303 0.263888 74 67 57
-0.26034 0.138932 0.263837 99 107 62
-0.259728 0.139561 0.263785 111 162 84
-0.259116 0.140191 0.263734 101 164 78
-0.258647 0.140913 0.263632 91 153 69
-0.258177 0.141637 0.263531 88 151 69
-0.258136 0.142645 0.263276 88 152 70
-0.258674 0.144044 0.262814 88 153 68
-0.258488 0.144973 0.262607 87 154 67
-0.258447 0.146006 0.262346 88 155 67
-0.257822 0.146649 0.262293 89 157 67
-0.257197 0.147292 0.262241 90 156 68
-0.256427 0.147835 0.262241 87 152 68
-0.255945 0.148579 0.262136 88 144 62
-0.225072 0.139095 0.270268 69 132 55
-0.224531 0.139652 0.270223 81 138 61
-0.22419 0.14037 0.270099 96 146 69
-0.223748 0.141009 0.270014 101 146 73
-0.223204 0.141568 0.269968 80 125 62
-0.22306 0.142456 0.269764 65 104 47
-0.259845 0.138472 0.263119 87 88 60
-0.259234 0.1391 0.263068 113 154 82
-0.258623 0.139728 0.263016 108 168 81
-0.258011 0.140357 0.262965 95 158 72
-0.257541 0.141079 0.262863 91 153 70
-0.257213 0.141895 0.262709 89 151 68
-0.257312 0.142998 0.2624 87 149 66
-0.257843 0.144399 0.261932 84 149 63
-0.25809 0.145623 0.261563 83 148 64
-0.257466 0.146266 0.261511 83 149 63
-0.256841 0.146908 0.261458 83 150 64
-0.256072 0.147451 0.261459 86 151 66
-0.225295 0.139169 0.269387 85 142 64
-0.22455 0.139567 0.269422 99 154 74
-0.224309 0.140367 0.269256 104 153 77
-0.223966 0.141089 0.26913 91 137 68
-0.223623 0.141813 0.269003 70 110 50
-0.258778 0.137655 0.262608 79 77 58
-0.25817 0.13828 0.262557 112 140 75
-0.257562 0.138905 0.262505 115 171 83
-0.256953 0.139531 0.262454 102 166 77
-0.256344 0.140157 0.262403 95 159 72
-0.255735 0.140783 0.262351 92 157 70
-0.256392 0.142247 0.261836 89 154 66
-0.257634 0.144117 0.261101 85 150 62
-0.25759 0.145144 0.260836 82 146 61
-0.256966 0.145785 0.260783 80 145 59
-0.256342 0.146426 0.260731 78 145 60
-0.256005 0.147267 0.260571 82 145 61
-0.225621 0.139323 0.268461 100 158 75
-0.224872 0.139723 0.268496 106 161 80
-0.224632 0.140526 0.268328 99 147 74
-0.224187 0.141169 0.268241 76 119 58
-0.22364 0.141731 0.268195 64 104 49
-0.258289 0.1372 0.261897 72 72 57
-0.257681 0.137824 0.261845 104 119 69
-0.256933 0.138358 0.261845 118 167 83
-0.256326 0.138982 0.261794 109 175 82
-0.255718 0.139607 0.261743 101 168 76
-0.255111 0.140231 0.261691 98 166 74
-0.254641 0.140948 0.261588 96 162 70
-0.257424 0.143834 0.260271 92 156 67
-0.257234 0.144763 0.260057 87 151 64
-0.256611 0.145403 0.260004 82 147 61
-0.256131 0.146142 0.259897 76 143 59
-0.226393 0.138836 0.267615 99 157 71
-0.225744 0.139318 0.26761 108 165 80
-0.225197 0.13988 0.267564 105 156 79
-0.224752 0.140523 0.267476 85 132 66
-0.224205 0.141086 0.26743 67 107 52
-0.2578 0.136746 0.261188 69 68 56
-0.256588 0.137992 0.261085 116 156 81
-0.255981 0.138615 0.261033 116 181 86
-0.255234 0.139149 0.261034 105 173 78
-0.254627 0.139773 0.260982 103 171 76
-0.254436 0.140671 0.260774 103 168 74
-0.25607 0.142789 0.259874 101 165 74
-0.256736 0.144286 0.259333 94 161 71
-0.256545 0.145217 0.259116 89 155 68
-0.227614 0.137704 0.266853 83 147 64
-0.227066 0.138267 0.266807 91 153 68
-0.226312 0.138669 0.266845 106 166 77
-0.225764 0.139232 0.266798 108 165 82
-0.225319 0.139875 0.26671 94 141 73
-0.224873 0.14052 0.266621 73 114 57
-0.224325 0.141084 0.266574 63 102 49
-0.257314 0.136293 0.260481 69 69 56
-0.256103 0.137537 0.260378 111 139 75
-0.255358 0.138071 0.260379 121 178 86
-0.254614 0.138604 0.26038 109 177 81
-0.25387 0.139136 0.260381 105 173 77
-0.253815 0.14012 0.260119 106 172 77
-0.253208 0.140744 0.260067 105 171 76
-0.256526 0.144003 0.258502 101 171 75
-0.22829 0.137132 0.266042 94 162 72
-0.227429 0.137457 0.266124 87 155 68
-0.226881 0.138019 0.266077 96 160 73
-0.226333 0.138582 0.266031 109 166 79
-0.225785 0.139145 0.265984 101 150 76
-0.225339 0.13979 0.265894 79 123 63
-0.22479 0.140354 0.265847 66 104 51
-0.254738 0.137529 0.259728 120 168 84
-0.253721 0.137884 0.259834 114 180 86
-0.253666 0.13886 0.259571 106 173 78
-0.253061 0.139482 0.25952 106 173 77
-0.252183 0.139923 0.259574 105 173 76
-0.251578 0.140544 0.259522 104 174 76
-0.229607 0.137033 0.264964 108 179 84
-0.22821 0.136962 0.265267 94 166 73
-0.227661 0.137526 0.265221 91 158 71
-0.227112 0.138091 0.265174 101 161 76
-0.226562 0.138655 0.265127 104 158 78
-0.225909 0.139139 0.265123 84 130 66
-0.225359 0.139704 0.265076 67 109 54
-0.253108 0.137345 0.259187 118 180 88
-0.252914 0.138228 0.258976 108 173 80
-0.252311 0.138848 0.258924 105 170 76
-0.251437 0.139289 0.258979 103 170 75
-0.250565 0.139728 0.259034 102 171 74
-0.249963 0.140347 0.258982 103 170 75
-0.229634 0.136942 0.264139 103 177 82
-0.228657 0.13719 0.26427 96 168 74
-0.228105 0.137757 0.264223 99 162 74
-0.227553 0.138324 0.264176 103 156 75
-0.226897 0.13881 0.264173 91 141 70
-0.226137 0.139214 0.264214 71 115 57
-0.225586 0.13978 0.264167 62 103 51
-0.252905 0.13707 0.258382 118 170 85
-0.252303 0.137688 0.25833 112 177 85
-0.251566 0.138218 0.258332 105 168 76
-0.250696 0.138658 0.258388 103 168 74
-0.249962 0.139187 0.25839 99 168 73
-0.248832 0.139447 0.258551 100 166 74
-0.247839 0.139794 0.258659 100 168 73
-0.23009 0.137172 0.26313 100 175 78
-0.228894 0.13726 0.263355 101 169 75
-0.228341 0.137828 0.263307 104 163 77
-0.227682 0.138316 0.263305 96 146 72
-0.226919 0.138722 0.263348 77 120 60
-0.226262 0.139208 0.263345 65 106 52
-0.252295 0.136535 0.25774 110 147 75
-0.25156 0.137064 0.257742 118 177 88
-0.25096 0.13768 0.25769 109 172 80
-0.250226 0.138208 0.257693 104 169 76
-0.248965 0.138383 0.25791 99 168 74
-0.247843 0.138644 0.258072 99 165 73
-0.246471 0.138729 0.258339 97 165 71
-0.245877 0.139339 0.258288 93 163 69
-0.230659 0.137484 0.262064 102 171 75
-0.229347 0.137491 0.262341 104 165 76
-0.228472 0.137819 0.262432 97 149 74
-0.227811 0.138308 0.26243 79 124 61
-0.227046 0.138715 0.262474 67 107 51
-0.250956 0.13653 0.257103 117 163 84
-0.250091 0.13697 0.25716 117 179 87
-0.249361 0.137497 0.257162 106 172 79
-0.248238 0.137761 0.257327 103 168 74
-0.247382 0.138198 0.257383 101 166 72
-0.246014 0.138285 0.257653 98 165 72
-0.245421 0.138893 0.257602 96 163 70
-0.234373 0.13614 0.260799 94 163 74
-0.232695 0.135912 0.261228 98 164 75
-0.232025 0.136406 0.261227 107 179 87
-0.231247 0.136819 0.261274 108 178 84
-0.23047 0.137231 0.26132 107 166 78
-0.229588 0.137562 0.261413 101 152 75
-0.228817 0.137972 0.261459 83 127 63
-0.228047 0.138381 0.261504 69 109 51
-0.249229 0.136266 0.256634 120 174 87
-0.248502 0.136791 0.256637 116 180 85
-0.247776 0.137316 0.256639 108 171 77
-0.246664 0.13758 0.256804 104 169 75
-0.245431 0.137755 0.257022 102 168 73
-0.244839 0.138362 0.256971 102 167 73
-0.23486 0.135386 0.260047 92 161 71
-0.233288 0.135243 0.260434 95 163 72
-0.232506 0.135658 0.260482 110 169 77
-0.231836 0.136152 0.260481 112 180 88
-0.231058 0.136566 0.260528 110 178 87
-0.23039 0.137059 0.260528 107 162 80
-0.229831 0.137633 0.260479 90 137 70
-0.229057 0.138044 0.260526 71 112 55
-0.24765 0.136092 0.256115 126 182 89
-0.247057 0.1367 0.256063 115 181 85
-0.245822 0.136879 0.256284 108 174 79
-0.24485 0.137228 0.256395 107 172 78
-0.243883 0.137576 0.256505 108 172 75
-0.234669 0.13513 0.259294 98 168 74
-0.233099 0.134988 0.259686 98 166 75
-0.232317 0.135404 0.259735 116 174 82
-0.231647 0.135899 0.259734 115 175 85
-0.230978 0.136393 0.259734 109 168 84
-0.230419 0.136967 0.259685 98 147 75
-0.229859 0.137542 0.259637 75 119 59
-0.245959 0.135834 0.255655 121 188 93
-0.245241 0.136354 0.255658 113 178 82
-0.244147 0.136619 0.255824 109 178 82
-0.243059 0.136882 0.25599 110 177 78
-0.242472 0.137484 0.255938 107 175 79
-0.234479 0.134874 0.258541 103 175 77
-0.233021 0.134813 0.258889 102 172 78
-0.232128 0.13515 0.258988 115 180 83
-0.231568 0.135725 0.258939 117 174 80
-0.230898 0.136219 0.258939 105 159 80
-0.23023 0.136714 0.258939 86 133 69
-0.229778 0.137369 0.258841 68 109 51
-0.245125 0.135144 0.255141 128 188 95
-0.244537 0.135748 0.25509 117 180 85
-0.243573 0.136097 0.255203 110 179 81
-0.24249 0.136361 0.255369 109 179 79
-0.241904 0.136962 0.255318 107 178 82
-0.234288 0.134618 0.257788 104 175 77
-0.232831 0.134559 0.25814 106 173 78
-0.232049 0.134975 0.258191 110 181 87
-0.231379 0.135471 0.258191 114 172 82
-0.230818 0.136046 0.258142 102 146 74
-0.230149 0.13654 0.258143 81 123 63
-0.229697 0.137196 0.258044 68 107 50
-0.244548 0.134627 0.254522 134 180 90
-0.243962 0.135228 0.25447 116 181 91
-0.24325 0.135746 0.254474 110 178 82
-0.242169 0.136011 0.254642 109 175 77
-0.241583 0.136611 0.254591 107 175 78
-0.234211 0.134442 0.256984 104 174 78
-0.232642 0.134304 0.257392 112 174 80
-0.23186 0.134721 0.257443 109 177 88
-0.23119 0.135217 0.257444 108 170 84
-0.230629 0.135792 0.257395 100 145 70
-0.230068 0.136367 0.257345 80 121 59
-0.229507 0.136942 0.257296 68 110 53
-0.244225 0.134277 0.253793 137 162 84
-0.243639 0.134878 0.253742 118 185 98
-0.24268 0.135229 0.253857 110 175 82
-0.241848 0.135661 0.253916 108 173 79
-0.241263 0.136261 0.253864 107 171 77
-0.234132 0.134265 0.256178 105 174 77
-0.232563 0.134129 0.256592 116 176 81
-0.231781 0.134546 0.256644 114 176 86
-0.23111 0.135042 0.256646 106 167 84
-0.23044 0.135538 0.256647 97 143 70
-0.229879 0.136113 0.256597 82 123 58
-0.229426 0.136769 0.256497 73 116 55
-0.243653 0.133762 0.253179 131 139 80
-0.243067 0.134362 0.253127 120 183 103
-0.242235 0.134796 0.253187 112 172 82
-0.241405 0.135229 0.253247 111 172 80
-0.241066 0.135995 0.253083 110 171 79
-0.234054 0.134088 0.255372 110 174 79
-0.232373 0.133874 0.255842 114 173 83
-0.231591 0.134292 0.255896 118 175 88
-0.230921 0.134788 0.255898 112 166 85
-0.230251 0.135283 0.255899 97 143 70
-0.229689 0.135859 0.25585 87 129 59
-0.229344 0.136595 0.255696 80 123 58
-0.22889 0.137253 0.255595 72 114 55
-0.243207 0.133332 0.25251 116 121 70
-0.242499 0.133849 0.252515 120 179 94
-0.24167 0.134283 0.252576 111 171 76
-0.241086 0.134881 0.252524 111 170 78
-0.234089 0.13399 0.25451 117 171 82
-0.232184 0.133619 0.255093 112 167 83
-0.231292 0.133958 0.255199 115 167 85
-0.230622 0.134454 0.255201 113 162 84
-0.230061 0.135029 0.255151 100 145 72
-0.2295 0.135604 0.255101 90 132 61
-0.229046 0.13626 0.254999 84 128 59
-0.2287 0.136998 0.254845 77 120 57
-0.231432 0.140079 0.253184 70 110 54
-0.242393 0.13266 0.252014 102 108 63
-0.241688 0.133175 0.252019 116 179 91
-0.240985 0.13369 0.252024 107 168 76
-0.240767 0.134533 0.251801 105 168 79
-0.231774 0.133207 0.254449 106 155 80
-0.231103 0.133704 0.254451 113 156 76
-0.230433 0.1342 0.254454 110 156 76
-0.229872 0.134775 0.254403 99 148 73
-0.229311 0.13535 0.254353 94 138 64
-0.228749 0.135925 0.254303 93 135 62
-0.22851 0.136743 0.254094 89 129 61
-0.232369 0.140677 0.251857 80 120 59
-0.232015 0.141446 0.251692 70 110 54
-0.241951 0.132234 0.251351 99 101 61
-0.241248 0.132748 0.251356 114 177 90
-0.240546 0.133263 0.251361 105 165 75
-0.240086 0.13394 0.251252 102 161 71
-0.231474 0.132875 0.253753 67 122 66
-0.230804 0.133371 0.253756 94 136 70
-0.230243 0.133946 0.253706 109 151 74
-0.229682 0.134521 0.253655 100 150 74
-0.229121 0.135096 0.253605 95 142 67
-0.228559 0.135671 0.253555 95 141 67
-0.228319 0.136488 0.253344 93 137 67
-0.232401 0.140587 0.250969 90 133 64
-0.231932 0.14127 0.25086 84 125 59
-0.231236 0.14178 0.250865 76 114 55
-0.23088 0.142553 0.250698 71 103 52
-0.230409 0.14324 0.250588 69 100 50
-0.229824 0.143839 0.250536 69 104 50
-0.22924 0.144438 0.250483 75 102 55
-0.241511 0.131809 0.25069 98 97 60
-0.240931 0.132404 0.250637 115 174 90
-0.240229 0.132918 0.250643 103 160 75
-0.239769 0.133594 0.250533 97 155 70
-0.231176 0.132543 0.253058 42 98 35
-0.230615 0.133117 0.253008 84 120 53
-0.229946 0.133613 0.253011 112 147 71
-0.229385 0.134188 0.252961 102 148 72
-0.228932 0.134841 0.252857 96 141 66
-0.22837 0.135417 0.252806 94 141 65
-0.228129 0.136234 0.252594 94 141 65
-0.232318 0.14041 0.250136 93 139 64
-0.23185 0.141094 0.250026 93 134 64
-0.231266 0.141691 0.249973 88 126 62
-0.230796 0.142377 0.249863 83 120 56
-0.230212 0.142976 0.24981 79 116 53
-0.229627 0.143575 0.249758 78 113 53
-0.229154 0.144263 0.249647 80 109 58
-0.241194 0.131465 0.249972 96 94 62
-0.240614 0.132059 0.24992 113 173 90
-0.239913 0.132573 0.249926 102 157 73
-0.239453 0.133248 0.249815 95 152 68
-0.230986 0.132288 0.252311 43 102 36
-0.230426 0.132863 0.25226 85 124 51
-0.229756 0.133359 0.252264 112 148 70
-0.229196 0.133933 0.252213 100 148 71
-0.228742 0.134587 0.252108 95 142 66
-0.22818 0.135162 0.252058 95 141 66
-0.227939 0.135979 0.251843 95 140 65
-0.232236 0.140233 0.249302 95 140 64
-0.231767 0.140917 0.249191 95 138 64
-0.231183 0.141515 0.249138 95 135 65
-0.230599 0.142113 0.249085 93 132 63
-0.230014 0.142712 0.249033 90 130 62
-0.229542 0.1434 0.248921 89 128 60
-0.229068 0.144089 0.248809 89 117 62
-0.240998 0.131201 0.249197 89 91 62
-0.240297 0.131715 0.249203 111 170 89
-0.239717 0.132309 0.249151 101 157 74
-0.239137 0.132904 0.249098 93 152 69
-0.230236 0.132608 0.251512 87 126 52
-0.229567 0.133105 0.251516 110 149 70
-0.229006 0.133679 0.251465 99 148 71
-0.228445 0.134254 0.251415 95 142 67
-0.227991 0.134908 0.251309 94 143 67
-0.227749 0.135724 0.251093 95 142 66
-0.232039 0.139969 0.248525 96 143 67
-0.23157 0.140653 0.248413 96 143 68
-0.230986 0.141251 0.24836 97 144 69
-0.230402 0.141849 0.248308 97 142 69
-0.22993 0.142536 0.248195 94 141 69
-0.229457 0.143224 0.248083 96 140 68
-0.228983 0.143914 0.24797 97 127 72
-0.240681 0.130858 0.248481 85 86 63
-0.240101 0.131452 0.248428 112 169 88
-0.239521 0.132046 0.248376 102 159 73
-0.238941 0.13264 0.248323 94 153 68
-0.230047 0.132354 0.250764 89 127 57
-0.22927 0.132773 0.250824 111 150 70
-0.228709 0.133347 0.250773 98 147 70
-0.228256 0.134 0.250666 94 142 65
-0.227694 0.134575 0.250615 93 143 66
-0.227559 0.135469 0.250342 95 142 67
-0.227208 0.136207 0.250179 96 142 69
-0.231259 0.140302 0.247696 97 143 70
-0.230789 0.140987 0.247583 99 146 71
-0.230317 0.141673 0.24747 101 147 71
-0.229845 0.14236 0.247356 99 146 72
-0.229371 0.143048 0.247243 99 146 73
-0.228785 0.143649 0.24719 97 130 73
-0.240485 0.130594 0.247706 86 85 63
-0.239906 0.131188 0.247653 113 168 88
-0.239325 0.131782 0.247601 103 159 71
-0.238745 0.132376 0.247548 95 154 66
-0.238283 0.133051 0.247435 94 152 67
-0.229858 0.132099 0.250016 92 133 60
-0.229081 0.132519 0.250076 112 152 72
-0.22852 0.133093 0.250025 98 150 72
-0.228066 0.133745 0.249918 93 145 67
-0.227505 0.13432 0.249867 94 143 66
-0.227369 0.135213 0.249591 97 143 66
-0.227018 0.135951 0.249427 98 145 68
-0.231062 0.140038 0.246919 98 146 71
-0.230591 0.140723 0.246805 101 146 71
-0.230233 0.141496 0.24663 102 149 71
-0.229647 0.142095 0.246577 103 153 72
-0.229173 0.142784 0.246463 104 149 72
-0.228699 0.143473 0.246348 96 131 72
-0.24029 0.13033 0.246931 81 80 65
-0.23971 0.130924 0.246878 112 169 89
-0.239129 0.131518 0.246825 102 159 75
-0.238549 0.132112 0.246772 96 153 68
-0.238087 0.132787 0.246659 94 151 67
-0.22956 0.131768 0.249324 94 138 62
-0.228892 0.132265 0.249329 113 152 73
-0.228331 0.132839 0.249278 100 148 73
-0.227877 0.133491 0.24917 96 143 70
-0.227315 0.134066 0.249118 97 143 68
-0.227285 0.135038 0.248783 99 144 66
-0.226827 0.135696 0.248674 100 146 69
-0.230865 0.139774 0.246141 99 148 71
-0.230394 0.140459 0.246027 100 148 71
-0.229922 0.141144 0.245912 101 149 71
-0.229449 0.141831 0.245797 103 153 71
-0.228975 0.142519 0.245682 105 151 72
-0.2285 0.143208 0.245567 96 130 74
-0.240094 0.130066 0.246157 82 77 64
-0.239514 0.13066 0.246103 112 167 88
-0.238934 0.131254 0.24605 101 159 74
-0.238472 0.131928 0.245936 94 153 70
-0.237891 0.132523 0.245882 92 151 68
-0.23004 0.131016 0.24857 72 131 58
-0.229263 0.131437 0.248633 96 142 64
-0.228702 0.132011 0.248581 113 155 73
-0.228141 0.132585 0.24853 102 148 72
-0.227687 0.133237 0.248421 100 144 68
-0.227232 0.13389 0.248313 101 146 67
-0.227095 0.134783 0.248031 100 147 68
-0.226743 0.13552 0.247864 98 146 70
-0.230555 0.139425 0.245426 98 147 71
-0.230197 0.140194 0.245249 101 151 73
-0.229612 0.140793 0.245195 105 152 74
-0.229252 0.141566 0.245018 106 152 73
-0.228666 0.142166 0.244964 105 149 74
-0.228191 0.142855 0.244848 94 126 73
-0.239778 0.129724 0.245443 77 76 65
-0.239318 0.130396 0.245328 112 162 86
-0.238738 0.13099 0.245275 100 159 73
-0.238276 0.131664 0.245159 93 154 70
-0.237695 0.132259 0.245106 92 153 68
-0.229851 0.130762 0.247822 79 137 64
-0.229074 0.131183 0.247885 99 146 68
-0.228513 0.131756 0.247834 113 155 73
-0.227952 0.13233 0.247782 102 149 71
-0.227497 0.132982 0.247673 100 145 68
-0.227042 0.133635 0.247563 100 146 67
-0.226904 0.134527 0.24728 101 148 69
-0.226552 0.135265 0.247111 100 148 71
-0.230246 0.139075 0.244711 100 149 73
-0.23 0.13993 0.244471 102 152 73
-0.229415 0.140528 0.244417 105 153 74
-0.228942 0.141214 0.244301 107 154 73
-0.228356 0.141813 0.244247 106 148 74
-0.227881 0.142501 0.24413 94 122 73
-0.239582 0.12946 0.244669 73 77 63
-0.239002 0.130054 0.244615 110 165 88
-0.238422 0.130647 0.244561 102 159 74
-0.237961 0.13132 0.244446 93 154 69
-0.237498 0.131994 0.244329 93 154 67
-0.229661 0.130507 0.247073 86 146 68
-0.228884 0.130929 0.247138 103 151 71
-0.228324 0.131502 0.247086 112 155 75
-0.227763 0.132076 0.247034 101 149 72
-0.227308 0.132728 0.246924 100 146 69
-0.226852 0.133381 0.246814 101 146 70
-0.226714 0.134272 0.246528 101 146 71
-0.226255 0.134929 0.246417 100 148 72
-0.230049 0.138812 0.243935 101 150 72
-0.22969 0.13958 0.243756 102 153 71
-0.229218 0.140264 0.243639 105 154 73
-0.228633 0.140863 0.243585 107 154 74
-0.228159 0.141549 0.243467 105 149 74
-0.227573 0.142148 0.243413 91 119 74
-0.239267 0.129119 0.243957 75 77 62
-0.238807 0.12979 0.24384 112 164 87
-0.238227 0.130383 0.243786 102 160 74
-0.237765 0.131056 0.24367 94 154 68
-0.237302 0.13173 0.243553 92 153 67
-0.229472 0.130253 0.246325 88 147 67
-0.228695 0.130674 0.24639 102 153 72
-0.228134 0.131248 0.246338 110 156 76
-0.227573 0.131822 0.246286 101 150 73
-0.227118 0.132473 0.246175 99 147 69
-0.226662 0.133126 0.246064 100 147 68
-0.226523 0.134016 0.245776 101 149 68
-0.226064 0.134673 0.245664 101 149 70
-0.229852 0.138548 0.243159 103 150 71
-0.229493 0.139316 0.242978 104 153 72
-0.228908 0.139914 0.242924 105 154 73
-0.228435 0.140598 0.242806 107 154 73
-0.22785 0.141197 0.242752 104 146 74
-0.227375 0.141884 0.242634 89 116 75
-0.239071 0.128855 0.243182 76 75 61
-0.238492 0.129448 0.243129 113 162 85
-0.237912 0.130041 0.243075 102 158 74
-0.237569 0.130792 0.242894 95 153 69
-0.237106 0.131466 0.242776 93 154 68
-0.229282 0.129998 0.245576 87 148 66
-0.228506 0.13042 0.245642 103 155 72
-0.227945 0.130994 0.24559 111 157 75
-0.227384 0.131568 0.245538 103 149 72
-0.226929 0.132219 0.245426 99 146 68
-0.226472 0.132871 0.245315 99 148 67
-0.226227 0.133682 0.245084 101 150 69
-0.225768 0.134338 0.244971 103 151 70
-0.22988 0.138454 0.242254 105 151 70
-0.229296 0.139052 0.2422 104 154 73
-0.228711 0.139649 0.242146 105 155 73
-0.228238 0.140334 0.242027 106 154 71
-0.227652 0.140933 0.241973 102 147 74
-0.227066 0.141532 0.241918 90 114 75
-0.238756 0.128514 0.242472 72 73 62
-0.238296 0.129184 0.242354 112 165 84
-0.237716 0.129777 0.2423 101 159 72
-0.237372 0.130528 0.242118 93 153 68
-0.236909 0.131201 0.241999 93 155 66
-0.229093 0.129743 0.244827 86 145 64
-0.228317 0.130166 0.244894 103 154 71
-0.227756 0.130739 0.244842 111 157 74
-0.227194 0.131313 0.24479 103 151 71
-0.226739 0.131964 0.244677 99 148 68
-0.226282 0.132617 0.244565 100 148 69
-0.226036 0.133427 0.244332 102 149 70
-0.225577 0.134083 0.244219 103 151 70
-0.229683 0.13819 0.241476 103 152 72
-0.229098 0.138788 0.241422 104 154 74
-0.228514 0.139385 0.241367 104 154 73
-0.227929 0.139983 0.241313 106 153 73
-0.227454 0.140668 0.241194 103 144 75
-0.226869 0.141267 0.241139 87 108 74
-0.238561 0.128251 0.241698 74 74 61
-0.237982 0.128843 0.241644 112 162 81
-0.23752 0.129513 0.241525 99 160 72
-0.237176 0.130264 0.241342 92 155 68
-0.236713 0.130937 0.241222 91 154 68
-0.228903 0.129489 0.244078 84 143 64
-0.228127 0.129912 0.244146 103 154 73
-0.227566 0.130485 0.244094 110 160 76
-0.227005 0.131059 0.244041 102 153 72
-0.226443 0.131633 0.243989 100 150 70
-0.226092 0.132362 0.243815 100 150 71
-0.225846 0.133172 0.24358 101 151 72
-0.225281 0.133749 0.243527 101 152 73
-0.229486 0.137926 0.240698 103 153 73
-0.229013 0.138609 0.240578 105 154 73
-0.228317 0.139121 0.240589 105 153 72
-0.227842 0.139805 0.240469 104 153 73
-0.227257 0.140404 0.240414 100 143 74
-0.226671 0.141003 0.24036 84 101 72
-0.238247 0.127911 0.240989 71 72 63
-0.237786 0.128579 0.24087 111 160 79
-0.237207 0.129172 0.240816 101 160 71
-0.236862 0.129921 0.240631 94 155 67
-0.236516 0.130673 0.240445 91 153 69
-0.228714 0.129234 0.243329 83 142 64
-0.227938 0.129657 0.243398 102 153 72
-0.227377 0.130231 0.243345 111 158 77
-0.226815 0.130804 0.243293 103 151 73
-0.226254 0.131379 0.24324 102 149 70
-0.225902 0.132107 0.243065 101 150 70
-0.22555 0.132838 0.24289 101 153 71
-0.225091 0.133493 0.242775 104 153 73
-0.229288 0.137662 0.23992 106 153 73
-0.228815 0.138344 0.2398 105 153 72
-0.228119 0.138857 0.239811 104 154 73
-0.227534 0.139455 0.239756 103 153 74
-0.226949 0.140053 0.239701 99 142 76
-0.226473 0.140738 0.23958 80 98 69
-0.238051 0.127647 0.240216 73 71 62
-0.237472 0.128239 0.240161 112 156 78
-0.237247 0.129063 0.23991 100 159 73
-0.236666 0.129657 0.239855 92 154 69
-0.236202 0.130329 0.239734 90 154 68
-0.228524 0.128979 0.24258 83 141 62
-0.227962 0.129553 0.242527 104 151 69
-0.227187 0.129976 0.242597 113 157 75
-0.226626 0.13055 0.242544 104 151 73
-0.226064 0.131124 0.242491 102 149 69
-0.225818 0.131929 0.242253 103 151 69
-0.225359 0.132583 0.242138 103 153 72
-0.2249 0.133238 0.242023 103 154 73
-0.229091 0.137398 0.239142 103 153 74
-0.228507 0.137995 0.239087 103 153 74
-0.227922 0.138592 0.239032 101 154 76
-0.227337 0.13919 0.238977 104 153 76
-0.226751 0.139789 0.238922 102 139 76
-0.226166 0.140387 0.238867 79 93 68
-0.237738 0.127308 0.239508 71 72 62
-0.237277 0.127975 0.239388 112 153 77
-0.236815 0.128644 0.239267 99 158 75
-0.236588 0.129471 0.239012 93 152 70
-0.236006 0.130065 0.238958 92 154 67
-0.237588 0.135169 0.236474 79 141 65
-0.226998 0.129722 0.241848 115 159 74
-0.226436 0.130296 0.241795 106 153 71
-0.225875 0.13087 0.241742 103 151 71
-0.225628 0.131674 0.241503 104 151 73
-0.229366 0.136453 0.238486 105 154 72
-0.228894 0.137133 0.238364 105 154 73
-0.228309 0.137731 0.238309 105 155 75
-0.227724 0.138328 0.238254 104 153 74
-0.227139 0.138926 0.238198 106 153 74
-0.226554 0.139524 0.238143 100 136 74
-0.225968 0.140123 0.238088 78 88 67
-0.237307 0.126893 0.238868 72 70 60
-0.236729 0.127483 0.238813 115 152 74
-0.236502 0.128304 0.238559 101 157 75
-0.236391 0.129206 0.238236 94 153 70
-0.229281 0.136272 0.237641 105 154 71
-0.228697 0.136869 0.237586 105 153 73
-0.228001 0.137382 0.237598 106 154 74
-0.227416 0.137979 0.237543 106 152 73
-0.226832 0.138576 0.237487 106 152 72
-0.226247 0.139174 0.237432 100 136 71
-0.225661 0.139772 0.237376 79 86 64
-0.236877 0.126479 0.23823 73 75 61
-0.2363 0.127069 0.238175 114 151 74
-0.235956 0.127811 0.237986 101 159 75
-0.23596 0.128787 0.237595 92 154 71
-0.228972 0.135924 0.236931 104 153 71
-0.228388 0.136521 0.236875 105 154 72
-0.227693 0.137034 0.236888 106 154 73
-0.227109 0.137631 0.236833 106 151 72
-0.226524 0.138227 0.236777 105 151 73
-0.22594 0.138825 0.236722 102 135 73
-0.225355 0.139422 0.236666 82 81 61
-0.236449 0.126067 0.237594 69 72 59
-0.235872 0.126655 0.237539 113 150 74
-0.235296 0.127244 0.237484 99 160 74
-0.235182 0.128138 0.237159 93 153 69
-0.228664 0.135577 0.236222 103 155 71
-0.22808 0.136174 0.236166 104 154 71
-0.227496 0.13677 0.236111 103 155 72
-0.226912 0.137367 0.236055 104 152 73
-0.226327 0.137963 0.235999 106 151 73
-0.225633 0.138476 0.236012 103 132 72
-0.225157 0.139158 0.235888 83 78 58
-0.236022 0.125656 0.236959 70 71 58
-0.235446 0.126243 0.236904 114 147 73
-0.234871 0.126831 0.236849 100 160 74
-0.234295 0.127419 0.236794 92 154 68
-0.234408 0.128466 0.236331 90 154 69
-0.228356 0.135231 0.235514 102 155 72
-0.227772 0.135827 0.235458 104 154 71
-0.227189 0.136423 0.235402 104 153 71
-0.226495 0.136935 0.235416 104 152 73
-0.225912 0.137531 0.23536 105 150 74
-0.225328 0.138127 0.235304 100 129 72
-0.224743 0.138724 0.235248 81 75 60
-0.235827 0.125394 0.23619 71 70 58
-0.235252 0.125982 0.236135 117 148 73
-0.234676 0.126569 0.23608 102 157 73
-0.233986 0.127082 0.236093 92 153 68
-0.23341 0.127669 0.236038 89 152 68
-0.23272 0.128181 0.236051 89 152 68
-0.228159 0.134967 0.234737 103 153 72
-0.227465 0.13548 0.234751 104 152 73
-0.226882 0.136076 0.234695 104 154 73
-0.226298 0.136671 0.234639 103 153 74
-0.225714 0.137267 0.234583 104 150 74
-0.225022 0.137779 0.234597 99 127 74
-0.224546 0.13846 0.234471 82 71 62
-0.235517 0.125058 0.23549 74 73 56
-0.234942 0.125645 0.235435 117 145 73
-0.234367 0.126233 0.23538 101 156 74
-0.233791 0.12682 0.235324 90 152 68
-0.233102 0.127332 0.235338 99 156 68
-0.232413 0.127844 0.235351 101 160 73
-0.231838 0.128431 0.235296 109 163 79
-0.231798 0.131374 0.234085 110 161 77
-0.231215 0.131969 0.234029 112 159 75
-0.230632 0.132565 0.233973 106 154 72
-0.230048 0.13316 0.233917 103 153 70
-0.227268 0.135217 0.233974 104 153 72
-0.226575 0.135729 0.233988 104 152 72
-0.225883 0.136241 0.234002 103 151 73
-0.2253 0.136836 0.233946 102 148 74
-0.224717 0.137432 0.23389 96 122 73
-0.224241 0.138112 0.233764 78 70 61
-0.235323 0.124797 0.234722 73 74 56
-0.234748 0.125384 0.234666 117 142 72
-0.234173 0.125971 0.234611 98 154 74
-0.233483 0.126483 0.234625 90 150 68
-0.232794 0.126995 0.234638 103 155 71
-0.232219 0.127582 0.234583 103 157 72
-0.231643 0.12817 0.234527 115 165 81
-0.231067 0.128757 0.234472 121 173 87
-0.231616 0.130122 0.233717 103 158 77
-0.231261 0.130872 0.23352 109 157 73
-0.230905 0.131625 0.233322 112 158 74
-0.230322 0.13222 0.233266 105 153 71
-0.229738 0.132815 0.23321 102 151 70
-0.229378 0.133573 0.233011 103 152 71
-0.226962 0.134871 0.233268 104 151 72
-0.226269 0.135383 0.233283 104 151 71
-0.225578 0.135895 0.233297 101 151 75
-0.224995 0.13649 0.233241 99 146 75
-0.224413 0.137085 0.233185 92 118 73
-0.223829 0.13768 0.233129 76 68 60
-0.235129 0.124535 0.233953 72 75 56
-0.234554 0.125122 0.233898 114 139 70
-0.233864 0.125635 0.233912 96 153 73
-0.233175 0.126147 0.233926 89 146 68
-0.2326 0.126734 0.23387 104 155 72
-0.232025 0.127321 0.233815 100 151 71
-0.231449 0.127908 0.233759 113 162 79
-0.230427 0.128191 0.233982 117 170 84
-0.229852 0.128777 0.233926 97 146 73
-0.230839 0.130451 0.232886 106 152 72
-0.230483 0.131202 0.232688 111 157 73
-0.230125 0.131956 0.232488 104 152 70
-0.229766 0.132712 0.232288 102 151 70
-0.229181 0.133309 0.232232 102 150 72
-0.226655 0.134526 0.232564 101 150 72
-0.225964 0.135038 0.232578 102 152 72
-0.225273 0.13555 0.232593 101 151 74
-0.224691 0.136144 0.232537 99 143 74
-0.224109 0.136738 0.232481 90 114 72
-0.223633 0.137416 0.232353 78 66 60
-0.23482 0.1242 0.233255 73 73 57
-0.234245 0.124787 0.233199 112 136 69
-0.23367 0.125373 0.233144 96 151 73
-0.232981 0.125886 0.233158 88 143 66
-0.232406 0.126473 0.233102 100 155 73
-0.23183 0.12706 0.233046 96 146 69
-0.231255 0.127647 0.232991 110 161 81
-0.230344 0.128007 0.233146 113 167 84
