ply
format ascii 1.0
element vertex 1194
property float x
property float y
property float z
property uchar diffuse_red
property uchar diffuse_green
property uchar diffuse_blue
end_header
-0.257107 0.0522591 0.310716 94 111 62
-0.256482 0.0528049 0.31071 99 123 72
-0.255974 0.0533903 0.310692 107 136 74
-0.254905 0.0537643 0.310738 113 147 78
-0.254738 0.0544717 0.31068 114 155 81
-0.257157 0.0506808 0.310184 96 115 63
-0.256989 0.0513914 0.310126 106 130 69
-0.256706 0.0520616 0.310081 110 146 75
-0.256196 0.0526488 0.310064 111 154 82
-0.255688 0.0532345 0.310046 113 158 83
-0.254621 0.0536093 0.310095 115 159 85
-0.254454 0.0543167 0.310037 115 161 85
-0.257038 0.0498147 0.309595 114 143 74
-0.256871 0.0505244 0.309537 117 159 83
-0.256703 0.0512349 0.309478 114 160 84
-0.25642 0.0519052 0.309434 110 155 80
-0.256024 0.0525341 0.309403 109 153 80
-0.255403 0.0530787 0.3094 109 152 80
-0.254225 0.0534128 0.309466 110 155 82
-0.254058 0.0541196 0.309408 110 158 85
-0.256745 0.048126 0.309108 118 158 81
-0.256691 0.0488715 0.309035 125 169 90
-0.256638 0.0496189 0.308962 127 171 91
-0.256584 0.050368 0.30889 124 168 90
-0.256302 0.0510381 0.308845 117 163 87
-0.256134 0.0517489 0.308786 112 156 82
-0.255738 0.0523779 0.308756 110 157 81
-0.255118 0.0529229 0.308755 109 151 80
-0.253941 0.0532578 0.308824 109 150 79
-0.253774 0.0539646 0.308766 109 153 78
-0.256794 0.0465589 0.30858 126 167 87
-0.256513 0.0472263 0.308536 128 180 94
-0.256346 0.0479317 0.308477 126 186 97
-0.256292 0.0486766 0.308404 118 179 100
-0.256238 0.0494233 0.30833 114 168 97
-0.256184 0.0501717 0.308257 114 161 91
-0.256016 0.0508817 0.308198 116 159 89
-0.255734 0.0515517 0.308153 121 160 87
-0.255452 0.0522216 0.308109 124 166 86
-0.254832 0.052767 0.308109 119 164 85
-0.253658 0.0531029 0.308182 112 158 83
-0.253047 0.0536428 0.308181 111 158 81
-0.25288 0.0543485 0.308123 108 157 84
-0.256843 0.0449951 0.308054 134 170 89
-0.256676 0.0456986 0.307995 130 183 96
-0.256395 0.0463657 0.307951 115 175 95
-0.256228 0.0470703 0.307892 106 163 87
-0.256061 0.0477757 0.307833 109 156 81
-0.255893 0.0484819 0.307773 114 156 82
-0.255839 0.0492279 0.307699 121 162 85
-0.255671 0.0499361 0.30764 127 171 89
-0.255616 0.0506852 0.307565 127 179 95
-0.255335 0.0513548 0.307521 120 177 97
-0.255053 0.0520244 0.307477 114 166 91
-0.254434 0.0525699 0.307478 112 163 88
-0.253152 0.0528655 0.307569 113 158 85
-0.252654 0.0534468 0.307555 115 159 85
-0.252486 0.0541519 0.307496 120 162 87
-0.256664 0.0433641 0.307558 132 178 91
-0.256726 0.0441364 0.307469 123 178 96
-0.256673 0.0448754 0.307394 114 167 92
-0.256506 0.0455793 0.307335 110 158 83
-0.256224 0.0462469 0.307291 109 154 78
-0.255943 0.0469144 0.307247 114 154 77
-0.255608 0.0483259 0.307128 123 172 88
-0.255554 0.0490718 0.307053 119 173 91
-0.255386 0.0497799 0.306994 118 169 89
-0.255217 0.0504889 0.306934 118 167 88
-0.254936 0.0511582 0.30689 116 165 88
-0.254317 0.0517052 0.306892 116 163 87
-0.253813 0.0522911 0.306879 122 166 88
-0.252648 0.0526288 0.306958 125 171 91
-0.252261 0.0532509 0.30693 125 178 96
-0.25631 0.0409426 0.307171 127 161 86
-0.256145 0.0416389 0.307112 126 178 93
-0.256319 0.0424392 0.307006 119 171 94
-0.25638 0.0432084 0.306916 113 165 89
-0.256555 0.0440161 0.30681 108 158 83
-0.256502 0.0447554 0.306734 107 154 79
-0.256335 0.0454598 0.306675 115 153 78
-0.256053 0.0461279 0.306631 121 163 81
-0.255886 0.0468334 0.306571 124 169 86
-0.254818 0.0502928 0.306303 119 161 84
-0.254425 0.0509216 0.306275 122 166 88
-0.253808 0.0514685 0.306279 123 174 91
-0.253529 0.0521356 0.306235 123 174 92
-0.252364 0.0524742 0.306318 123 175 94
-0.252197 0.053179 0.306258 121 176 95
-0.256184 0.0386076 0.306756 117 147 82
-0.256132 0.0393325 0.306681 124 167 88
-0.255967 0.0400264 0.306622 121 173 93
-0.256028 0.0407875 0.306531 115 168 93
-0.255862 0.0414838 0.306472 110 165 88
-0.256149 0.0423181 0.306349 105 155 81
-0.256438 0.0431577 0.306226 105 150 78
-0.256499 0.0439312 0.306134 112 151 75
-0.256331 0.0446353 0.306073 118 163 81
-0.256164 0.0453401 0.306013 122 168 86
-0.255882 0.0460087 0.305969 123 173 90
-0.2556 0.0466772 0.305926 121 174 91
-0.255319 0.0473456 0.305882 114 165 86
-0.253355 0.0520208 0.305574 115 170 89
-0.256232 0.03707 0.306238 119 153 80
-0.256068 0.0377611 0.306178 121 171 87
-0.255903 0.0384529 0.306119 119 174 94
-0.255851 0.0391777 0.306044 115 171 92
-0.255685 0.0398715 0.305984 108 161 87
-0.255746 0.0406324 0.305892 98 147 79
-0.256032 0.0414636 0.305767 101 142 73
-0.255597 0.0458524 0.305324 110 163 85
-0.255202 0.0464837 0.305297 113 155 79
-0.254808 0.047114 0.305269 119 158 78
-0.256445 0.0348467 0.30578 116 140 75
-0.256393 0.0355653 0.305704 122 163 84
-0.256229 0.0362553 0.305644 120 172 91
-0.255951 0.0369153 0.305601 118 175 91
-0.255786 0.0376064 0.305542 111 171 87
-0.255622 0.0382982 0.305482 99 157 82
-0.255569 0.0390228 0.305406 96 144 74
-0.255516 0.0397491 0.305329 102 137 69
-0.254917 0.0463275 0.304651 127 168 86
-0.254523 0.0469581 0.304625 134 181 94
-0.254243 0.0476256 0.304581 127 185 97
-0.256266 0.0332605 0.305297 120 151 76
-0.256215 0.0339754 0.305221 123 169 86
-0.256164 0.0346921 0.305144 123 174 92
-0.256113 0.0354105 0.305068 117 174 92
-0.255948 0.0361005 0.305008 102 163 87
-0.255783 0.0367912 0.304948 94 148 77
-0.255505 0.0374517 0.304905 92 138 67
-0.25534 0.0381434 0.304845 100 135 63
-0.255287 0.0388679 0.304768 111 146 67
-0.254351 0.0468395 0.303962 110 167 89
-0.253958 0.0474697 0.303936 106 155 79
-0.256201 0.0317086 0.304799 122 160 83
-0.25615 0.0324206 0.304723 125 173 91
-0.256099 0.0331342 0.304646 122 178 92
-0.256048 0.0338496 0.304569 110 172 89
-0.255996 0.0345666 0.304492 96 156 82
-0.255945 0.0352854 0.304414 89 141 72
-0.255667 0.0359457 0.304371 90 132 64
-0.255502 0.0366364 0.304311 102 133 63
-0.255336 0.0373278 0.304251 115 147 69
-0.255663 0.0351305 0.303778 103 137 64
-0.247574 0.0596928 0.286685 44 99 29
-0.247283 0.0603829 0.286642 46 98 32
-0.248081 0.0582436 0.286041 44 97 26
-0.247679 0.0588883 0.286028 43 98 27
-0.247167 0.059485 0.286045 45 99 29
-0.246877 0.0601747 0.286002 47 98 32
-0.246697 0.0609122 0.285929 47 98 33
-0.247784 0.0580824 0.28537 43 99 26
-0.247382 0.0587273 0.285358 41 99 29
-0.246981 0.0593711 0.285345 43 98 30
-0.246581 0.0600141 0.285333 48 99 32
-0.2464 0.0607515 0.28526 47 100 35
-0.247668 0.0571841 0.284773 44 95 29
-0.247487 0.0579212 0.284699 41 99 31
-0.247086 0.0585662 0.284687 42 100 32
-0.246795 0.0592571 0.284644 45 98 31
-0.246176 0.0598063 0.284695 49 99 34
-0.245995 0.0605432 0.284621 50 100 36
-0.24719 0.05776 0.284028 43 98 33
-0.246789 0.0584051 0.284017 43 102 35
-0.246389 0.0590494 0.284006 45 101 33
-0.24588 0.0596457 0.284026 48 100 35
-0.245049 0.0600988 0.28414 49 100 36
-0.244869 0.0608334 0.284066 48 101 37
-0.246674 0.0575072 0.283421 46 97 32
-0.246383 0.0581979 0.283378 44 100 31
-0.246092 0.0588885 0.283335 43 102 32
-0.245693 0.059532 0.283325 45 102 35
-0.245078 0.0600801 0.283378 45 102 35
-0.244897 0.0608162 0.283303 47 103 36
-0.245977 0.0579909 0.28274 46 101 32
-0.245796 0.0587276 0.282665 45 103 33
-0.245615 0.059465 0.28259 47 102 33
-0.245215 0.0601085 0.28258 50 103 37
-0.245034 0.0608466 0.282505 51 103 38
-0.245681 0.05783 0.28207 47 103 34
-0.2455 0.0585666 0.281995 46 102 32
-0.245318 0.0593041 0.28192 46 104 37
-0.245136 0.0600423 0.281844 49 103 38
-0.244954 0.0607814 0.281768 53 102 39
-0.245312 0.0584519 0.281291 50 100 38
-0.245021 0.0591431 0.281249 53 102 41
-0.244839 0.0598813 0.281173 53 101 37
-0.244657 0.0606203 0.281097 54 101 37
-0.245088 0.0575081 0.28073 53 100 33
-0.245015 0.0582908 0.28062 52 101 34
-0.244725 0.058982 0.280578 52 102 36
-0.244542 0.0597202 0.280502 53 103 39
-0.24436 0.0604592 0.280425 55 103 41
-0.244684 0.0573016 0.280094 53 101 35
-0.24461 0.0580836 0.279983 51 102 35
-0.244428 0.058821 0.279907 51 102 36
-0.244138 0.0595121 0.279865 52 105 41
-0.243955 0.0602506 0.279788 53 105 39
-0.244461 0.0563608 0.279536 53 102 40
-0.244279 0.0570954 0.279459 51 102 36
-0.244205 0.0578767 0.279348 50 103 38
-0.244023 0.0586135 0.279271 54 102 41
-0.243841 0.0593511 0.279194 55 102 41
-0.243551 0.0600422 0.279151 57 102 39
-0.244273 0.0562447 0.278832 54 102 38
-0.244091 0.0569798 0.278754 54 101 39
-0.243909 0.0577158 0.278677 52 103 42
-0.243727 0.0584525 0.2786 55 102 42
-0.243437 0.0591434 0.278558 57 103 39
-0.243254 0.0598813 0.27848 58 103 38
-0.243178 0.0606677 0.278367 57 104 37
-0.244085 0.0561284 0.278126 56 104 37
-0.243795 0.0568189 0.278084 53 103 40
-0.24372 0.0576004 0.277971 53 103 42
-0.24343 0.0582915 0.277929 57 103 39
-0.24314 0.0589824 0.277887 59 103 38
-0.242957 0.0597203 0.277809 58 103 40
-0.242881 0.0605066 0.277695 57 104 39
-0.243789 0.0559674 0.277456 56 105 40
-0.243499 0.0566579 0.277414 52 103 41
-0.243423 0.0574393 0.2773 55 102 41
-0.243133 0.0581304 0.277258 58 102 37
-0.242843 0.0588215 0.277216 56 103 39
-0.242234 0.059372 0.277283 58 105 40
-0.242477 0.060298 0.27706 57 105 41
-0.243492 0.0558063 0.276786 57 104 42
-0.243202 0.0564969 0.276744 55 103 39
-0.243127 0.0572781 0.276629 56 102 41
-0.242836 0.0579694 0.276587 58 102 37
-0.242121 0.0584756 0.276691 56 104 41
-0.241832 0.0591649 0.276649 57 106 40
-0.282272 0.0677668 0.263351 43 41 29
-0.242906 0.0563359 0.276074 57 104 41
-0.24283 0.057117 0.275958 58 103 41
-0.24254 0.0578083 0.275916 59 102 39
-0.241402 0.0581316 0.276169 57 103 42
-0.24101 0.0587731 0.276164 56 104 42
-0.241037 0.0596 0.276012 58 105 41
-0.242533 0.0569558 0.275286 58 104 41
-0.242136 0.0576015 0.275282 58 104 44
-0.240897 0.0578804 0.275576 57 103 44
-0.24061 0.0585671 0.275534 56 104 44
-0.240532 0.0593466 0.275418 57 104 44
-0.24184 0.0574405 0.274611 58 105 44
-0.240497 0.057675 0.274947 57 104 44
-0.240002 0.05827 0.27498 57 104 44
-0.239716 0.0589554 0.274938 55 104 46
-0.23871 0.0593168 0.275157 56 104 46
-0.240307 0.0575604 0.274242 59 104 42
-0.239708 0.0581104 0.274315 58 104 44
-0.238496 0.0583848 0.274611 56 105 47
-0.238315 0.0591122 0.274532 56 105 46
-0.237523 0.0595632 0.274677 58 107 43
-0.236338 0.0598273 0.274968 58 106 43
-0.236158 0.0605494 0.274889 62 102 46
-0.240326 0.0575361 0.27346 61 106 42
-0.239725 0.0580873 0.273534 59 106 44
-0.239025 0.0585906 0.273646 58 106 47
-0.237615 0.0587709 0.274021 58 106 45
-0.237232 0.0594052 0.274017 58 107 44
-0.236048 0.0596703 0.274312 58 107 45
-0.235868 0.0603924 0.274233 61 104 48
-0.233742 0.0609989 0.274739 62 95 39
-0.239847 0.0581098 0.272711 60 108 46
-0.239351 0.0587063 0.272748 58 107 48
-0.238548 0.0591624 0.272901 58 107 45
-0.237142 0.0593389 0.273282 58 108 47
-0.236759 0.0599731 0.273278 58 108 47
-0.235083 0.0600053 0.273765 61 106 49
-0.233634 0.0601286 0.274169 64 99 49
-0.233455 0.0608437 0.27409 63 96 45
-0.233277 0.0615596 0.274012 61 94 43
-0.281876 0.0703136 0.257123 36 43 25
-0.233347 0.0599734 0.27352 64 101 50
-0.233168 0.0606884 0.273441 64 98 46
-0.232989 0.0614043 0.273362 62 94 43
-0.23281 0.0621209 0.273284 60 93 40
-0.282115 0.0713828 0.255855 36 45 32
-0.23306 0.0598181 0.272871 64 105 49
-0.232881 0.0605331 0.272792 65 99 46
-0.232702 0.0612489 0.272713 63 95 42
-0.232522 0.0619655 0.272634 61 94 41
-0.232343 0.0626829 0.272554 61 94 39
-0.281739 0.0711787 0.255006 35 38 27
-0.282525 0.0725333 0.254509 47 65 37
-0.232594 0.0603778 0.272143 65 101 48
-0.232415 0.0610936 0.272063 63 96 43
-0.232235 0.0618101 0.271984 61 95 42
-0.232055 0.0625275 0.271904 62 94 41
-0.282147 0.0723281 0.253655 37 46 29
-0.282767 0.0736244 0.253216 69 95 52
-0.282281 0.0723356 0.252598 35 41 24
-0.282388 0.0734182 0.252357 51 70 40
-0.282494 0.0745056 0.252115 81 121 65
-0.282008 0.073212 0.251498 38 48 31
-0.281942 0.0742259 0.251323 72 100 54
-0.281876 0.0752427 0.251147 84 132 67
-0.281628 0.0730057 0.250639 39 41 24
-0.281562 0.0740195 0.250463 56 74 37
-0.281495 0.075036 0.250286 87 128 67
-0.281011 0.0737404 0.249673 42 46 28
-0.280774 0.0746825 0.249566 77 103 53
-0.280292 0.0733898 0.248955 37 41 25
-0.279886 0.0742573 0.248919 55 71 41
-0.279648 0.0751979 0.248811 90 127 73
-0.279743 0.0731119 0.248168 42 40 26
-0.279338 0.073979 0.248132 42 44 32
-0.279101 0.0749187 0.248024 77 100 56
-0.278959 0.0737732 0.247275 44 37 23
-0.278721 0.0747129 0.247166 59 64 35
-0.231513 0.0662692 0.265085 59 88 40
-0.231134 0.0669029 0.265087 55 87 34
-0.229892 0.0670775 0.265478 51 87 32
-0.229139 0.067503 0.265651 49 85 31
-0.278342 0.0745071 0.246308 39 42 31
-0.229826 0.0596943 0.266213 65 104 50
-0.229645 0.0604105 0.26613 67 97 50
-0.231122 0.0660601 0.264463 53 88 35
-0.230166 0.0663907 0.264728 51 87 30
-0.229032 0.0666182 0.265077 50 86 32
-0.228005 0.0668936 0.265378 48 86 34
-0.227822 0.067618 0.265294 47 86 32
-0.279307 0.0748869 0.244855 37 39 25
-0.22972 0.0588232 0.265646 60 108 48
-0.229538 0.0595387 0.265562 62 106 51
-0.229357 0.0602549 0.265479 66 98 50
-0.229175 0.060972 0.265395 63 94 43
-0.230828 0.0659015 0.263798 49 87 31
-0.229874 0.0662329 0.264067 48 86 30
-0.228741 0.0664614 0.264419 48 85 32
-0.227715 0.0667376 0.264724 49 86 33
-0.227532 0.067462 0.264639 49 86 30
-0.227348 0.0681873 0.264555 49 86 30
-0.229613 0.057953 0.265079 60 107 48
-0.229432 0.0586676 0.264995 60 106 46
-0.22925 0.059383 0.264912 61 104 48
-0.229069 0.0600993 0.264828 66 98 50
-0.228887 0.0608163 0.264744 62 91 39
-0.228705 0.0615341 0.26466 54 91 35
-0.228523 0.0622527 0.264576 52 88 33
-0.229295 0.0659251 0.263538 47 86 32
-0.227609 0.0658582 0.264154 50 85 31
-0.227426 0.0665817 0.264069 51 85 30
-0.227242 0.0673061 0.263985 51 86 29
-0.227058 0.0680312 0.2639 52 88 33
-0.226874 0.0687572 0.263815 53 89 34
-0.229687 0.0563707 0.264596 68 109 50
-0.229507 0.0570837 0.264513 63 106 47
-0.229325 0.0577975 0.264429 61 105 47
-0.229144 0.058512 0.264345 59 104 47
-0.228963 0.0592274 0.264261 60 101 44
-0.228781 0.0599436 0.264177 66 99 49
-0.228599 0.0606606 0.264092 62 92 39
-0.228417 0.0613784 0.264008 50 88 33
-0.228234 0.062097 0.263923 48 86 32
-0.228052 0.0628164 0.263839 49 85 30
-0.229003 0.0657675 0.262877 51 87 32
-0.22732 0.0657022 0.2635 55 85 31
-0.227136 0.0664257 0.263415 57 88 32
-0.226952 0.0671501 0.26333 58 91 33
-0.226768 0.0678752 0.263244 59 93 36
-0.226584 0.0686012 0.263159 60 95 38
-0.227606 0.0700044 0.262495 60 96 40
-0.229329 0.0761166 0.260592 46 36 25
-0.229581 0.0555031 0.264031 59 82 44
-0.2294 0.0562152 0.263947 66 108 52
-0.229219 0.0569281 0.263863 64 104 44
-0.229038 0.0576419 0.263779 62 103 44
-0.228856 0.0583564 0.263694 59 103 46
-0.228675 0.0590717 0.26361 59 101 44
-0.228493 0.0597879 0.263525 66 100 48
-0.228311 0.0605048 0.263441 63 92 40
-0.228128 0.0612226 0.263356 53 88 33
-0.227946 0.0619412 0.263271 49 86 32
-0.227763 0.0626606 0.263186 48 86 30
-0.22758 0.0633808 0.263101 53 86 29
-0.228896 0.0648804 0.262302 54 87 32
-0.22871 0.0656099 0.262216 54 90 36
-0.228525 0.0663403 0.26213 57 92 37
-0.227776 0.0667688 0.262314 56 92 37
-0.22759 0.0674979 0.262228 57 95 38
-0.227312 0.0681766 0.262187 59 96 37
-0.227126 0.0689069 0.262101 58 95 38
-0.227407 0.0698994 0.261788 56 96 40
-0.228636 0.0714358 0.261013 57 95 41
-0.228925 0.0724518 0.260693 60 95 46
-0.228927 0.0733086 0.260511 64 96 53
-0.228929 0.0741686 0.260329 71 98 59
-0.229027 0.0750887 0.260098 67 77 48
-0.229029 0.0759557 0.259915 48 35 27
-0.229294 0.0553476 0.263382 40 61 23
-0.229113 0.0560597 0.263298 67 106 50
-0.228932 0.0567725 0.263213 61 103 41
-0.22875 0.0574862 0.263128 59 100 43
-0.228568 0.0582007 0.263044 57 100 41
-0.228387 0.058916 0.262959 57 100 44
-0.228205 0.0596322 0.262874 68 101 50
-0.228022 0.0603491 0.262789 63 93 42
-0.22784 0.0610668 0.262704 56 89 34
-0.227657 0.0617853 0.262619 50 87 34
-0.227474 0.0625047 0.262533 49 89 32
-0.227291 0.0632249 0.262448 53 91 32
-0.228603 0.0647228 0.261642 56 93 36
-0.228607 0.0655516 0.261464 55 94 36
-0.228232 0.0661826 0.261469 57 94 39
-0.227952 0.0668632 0.261428 57 93 37
-0.227766 0.0675947 0.261341 56 94 38
-0.227486 0.0682756 0.2613 57 94 37
-0.2273 0.0690083 0.261213 52 92 37
-0.227676 0.0700571 0.26085 49 90 36
-0.22834 0.0712766 0.260344 53 88 32
-0.228627 0.072292 0.260021 56 89 36
-0.228821 0.0732596 0.259743 61 93 48
-0.229111 0.0742896 0.259416 73 101 58
-0.22892 0.0750418 0.259326 74 89 53
-0.228729 0.0757948 0.259237 51 48 32
-0.229007 0.055192 0.262733 32 34 20
-0.228826 0.0559041 0.262648 63 83 38
-0.228644 0.0566169 0.262563 62 102 45
-0.228462 0.0573306 0.262478 59 99 37
-0.228281 0.0580451 0.262393 58 99 36
-0.228099 0.0587603 0.262308 59 99 40
-0.227916 0.0594764 0.262223 71 104 52
-0.227734 0.0601933 0.262137 65 96 46
-0.227551 0.060911 0.262052 58 93 35
-0.227368 0.0616295 0.261966 54 92 34
-0.227185 0.0623488 0.26188 55 94 34
-0.227002 0.063069 0.261795 56 93 32
-0.226818 0.0637899 0.261709 58 92 35
-0.228314 0.0653937 0.260802 60 92 36
-0.228506 0.0663258 0.26053 59 94 33
-0.227753 0.066756 0.26072 56 93 33
-0.227567 0.067488 0.260633 53 90 31
-0.227381 0.0682207 0.260546 51 89 31
-0.227569 0.0691625 0.260272 50 88 34
-0.228042 0.0702692 0.259857 52 87 33
-0.228043 0.0711173 0.259674 53 84 30
-0.228521 0.0722417 0.259253 53 82 31
-0.228906 0.0733217 0.258876 58 87 39
-0.228908 0.0741852 0.25869 73 105 52
-0.228909 0.0750518 0.258503 78 104 59
-0.228717 0.0758063 0.258414 57 62 44
-0.228622 0.0766199 0.258275 43 32 21
-0.22872 0.0550364 0.262084 31 38 20
-0.228538 0.0557485 0.261998 52 62 24
-0.228357 0.0564613 0.261913 65 98 49
-0.228175 0.0571749 0.261828 62 96 34
-0.227993 0.0578893 0.261742 53 94 32
-0.227811 0.0586046 0.261657 56 96 38
-0.227628 0.0593206 0.261571 66 100 50
-0.227445 0.0600375 0.261485 64 98 46
-0.227263 0.0607552 0.261399 59 94 38
-0.22708 0.0614736 0.261313 56 94 37
-0.226896 0.0621929 0.261227 59 94 36
-0.226713 0.062913 0.261141 58 93 34
-0.226529 0.0636339 0.261055 58 92 38
-0.228307 0.0662177 0.259818 55 90 31
-0.22812 0.0669522 0.259731 53 90 29
-0.227932 0.0676875 0.259643 50 90 29
-0.227934 0.0685274 0.25946 49 90 31
-0.227935 0.0693704 0.259277 52 87 34
-0.227936 0.0702164 0.259093 50 84 31
-0.227936 0.0710656 0.258909 48 81 29
-0.228414 0.0721911 0.258483 51 81 31
-0.228703 0.0732167 0.258151 59 87 37
-0.228704 0.0740805 0.257964 73 105 49
-0.228802 0.0750047 0.257726 81 113 62
-0.228609 0.0757602 0.257636 68 76 52
-0.228417 0.0765166 0.257545 49 33 26
-0.228251 0.0555928 0.261349 37 38 23
-0.228069 0.0563056 0.261263 59 79 40
-0.227887 0.0570192 0.261177 61 96 38
-0.227705 0.0577336 0.261091 49 93 30
-0.227522 0.0584488 0.261005 49 90 31
-0.22734 0.0591648 0.260919 65 95 43
-0.227157 0.0598817 0.260833 63 97 49
-0.226974 0.0605993 0.260747 58 95 38
-0.226791 0.0613177 0.260661 55 93 37
-0.226607 0.062037 0.260574 55 92 33
-0.226424 0.0627571 0.260488 51 90 34
-0.227258 0.0640069 0.259893 50 89 35
-0.228773 0.066463 0.258772 49 88 32
-0.228204 0.0669971 0.258875 49 88 31
-0.228016 0.0677343 0.258787 51 89 27
-0.228017 0.0685764 0.258602 50 87 28
-0.227923 0.069369 0.258465 49 84 28
-0.227829 0.0701634 0.258328 49 82 29
-0.227924 0.0710675 0.258093 48 82 31
-0.228307 0.0721405 0.257712 51 85 36
-0.2285 0.0731115 0.257425 58 92 44
-0.2285 0.0739757 0.257236 70 108 53
-0.228501 0.0748432 0.257046 84 121 61
-0.228405 0.0756563 0.256906 81 94 54
-0.228308 0.0764713 0.256765 54 42 29
-0.227963 0.0554372 0.260699 30 31 23
-0.227781 0.0561499 0.260613 45 64 24
-0.227599 0.0568635 0.260527 61 95 43
-0.228162 0.0579306 0.260072 47 92 28
-0.229587 0.0594198 0.259187 45 88 29
-0.229593 0.0602405 0.259004 64 95 42
-0.226868 0.0597258 0.260181 63 95 44
-0.226685 0.0604434 0.260094 58 94 35
-0.226502 0.0611618 0.260008 53 91 34
-0.226318 0.061881 0.259921 50 90 34
-0.228379 0.0654161 0.258338 50 91 34
-0.228477 0.0663037 0.258104 50 91 33
-0.228384 0.0670932 0.257967 49 90 33
-0.228195 0.0678329 0.257877 53 90 32
-0.228006 0.0685735 0.257788 53 88 31
-0.227817 0.0693149 0.257698 52 85 30
-0.227817 0.0701636 0.257511 54 84 29
-0.228008 0.0711236 0.257225 56 84 31
-0.228104 0.0720348 0.256987 58 88 36
-0.228296 0.0730061 0.256698 62 95 45
-0.228392 0.0739271 0.256457 69 109 52
-0.228296 0.0747386 0.256316 85 125 60
-0.228199 0.0755521 0.256175 85 112 59
-0.228199 0.0764258 0.255982 59 63 38
-0.228804 0.0565992 0.25931 37 38 25
-0.229379 0.0576741 0.258844 57 74 37
-0.229672 0.0586249 0.258517 51 92 34
-0.229677 0.0594448 0.258333 42 90 33
-0.229683 0.0602677 0.258148 64 95 44
-0.2294 0.0609523 0.258108 64 93 41
-0.229213 0.0616843 0.258019 56 91 34
-0.229026 0.0624172 0.25793 55 90 30
-0.228838 0.0631509 0.257841 50 90 31
-0.228937 0.0640326 0.257606 50 89 31
-0.228749 0.0647694 0.257517 51 90 31
-0.228465 0.0654569 0.257476 51 89 30
-0.228372 0.0662455 0.257338 50 91 33
-0.228373 0.0670873 0.25715 50 90 34
-0.22828 0.0678803 0.257011 55 89 32
-0.228185 0.0686752 0.256872 58 88 32
-0.227995 0.0694191 0.256781 55 87 33
-0.2279 0.0702172 0.256642 54 86 35
-0.227996 0.0711257 0.256402 59 86 37
-0.2279 0.0719289 0.256261 62 93 40
-0.228092 0.0729005 0.25597 65 102 46
-0.228188 0.0738219 0.255727 72 112 52
-0.228187 0.0746909 0.255534 85 126 60
-0.22809 0.0755055 0.255392 89 125 67
-0.227993 0.076322 0.255249 73 79 53
-0.229559 0.0569242 0.258128 34 36 24
-0.22966 0.0577839 0.257895 41 63 28
-0.22957 0.0585569 0.257758 58 92 43
-0.229479 0.0593318 0.25762 48 88 30
-0.229388 0.0601086 0.257482 66 97 41
-0.229201 0.0608402 0.257393 65 94 38
-0.22911 0.0616202 0.257255 57 91 35
-0.228922 0.062354 0.257166 52 91 32
-0.228734 0.0630886 0.257077 48 91 28
-0.228641 0.0638731 0.256938 51 90 27
-0.228453 0.0646099 0.256848 52 90 28
-0.228264 0.0653475 0.256758 56 90 30
-0.228266 0.0661872 0.256569 58 89 35
-0.228172 0.0669787 0.25643 55 89 36
-0.228078 0.0677721 0.25629 56 88 35
-0.22827 0.068725 0.255999 58 87 35
-0.228175 0.069524 0.255858 57 88 37
-0.227984 0.0702711 0.255767 58 89 39
-0.227792 0.0710192 0.255676 62 91 40
-0.227888 0.0719325 0.255433 67 98 41
-0.227983 0.0728504 0.25519 70 106 46
-0.228079 0.073773 0.254945 74 114 54
-0.227982 0.074586 0.254801 83 124 60
-0.227981 0.0754586 0.254606 92 131 68
-0.228076 0.0763929 0.254359 85 98 62
-0.229655 0.0577595 0.257085 38 39 24
-0.229564 0.0585341 0.256946 60 73 35
-0.229377 0.0592645 0.256857 53 91 36
-0.22919 0.0599958 0.256768 62 94 41
-0.229002 0.0607279 0.256678 63 95 39
-0.228815 0.0614609 0.256588 56 92 33
-0.228627 0.0621946 0.256499 51 91 34
-0.228439 0.0629292 0.256409 50 92 35
-0.228346 0.0637136 0.256269 52 91 34
-0.228252 0.0644998 0.25613 54 91 30
-0.228254 0.0653381 0.255939 59 91 36
-0.228065 0.066078 0.255849 62 90 37
-0.22797 0.0668699 0.255708 61 88 36
-0.228162 0.0678195 0.255416 61 87 37
-0.228067 0.0686169 0.255274 60 88 39
-0.228068 0.0694695 0.255082 61 92 40
-0.227876 0.0702177 0.25499 61 94 40
-0.22778 0.071021 0.254847 65 96 40
-0.227779 0.0718812 0.254653 69 103 44
-0.227778 0.0727445 0.254459 72 109 50
-0.227874 0.0736674 0.254212 76 116 55
-0.227969 0.074595 0.253964 82 124 60
-0.228065 0.0755272 0.253714 92 133 67
-0.22787 0.0762886 0.253621 88 118 66
-0.229462 0.0584657 0.256182 42 57 23
-0.229274 0.0591971 0.256092 58 88 37
-0.229183 0.0599758 0.255952 60 89 34
-0.228995 0.0607094 0.255862 64 98 44
-0.228711 0.0613963 0.255822 62 94 31
-0.228522 0.062131 0.255731 57 90 34
-0.228334 0.0628665 0.255641 55 92 37
-0.228336 0.0637009 0.25545 54 93 37
-0.228147 0.0644391 0.25536 56 93 36
-0.228053 0.0652282 0.255218 57 93 40
-0.227863 0.0659686 0.255127 59 92 41
-0.227959 0.0668634 0.254884 60 90 39
-0.227959 0.0677108 0.254691 61 91 40
-0.227864 0.0685087 0.254548 62 94 41
-0.227768 0.0693086 0.254405 62 96 40
-0.227672 0.0701104 0.254262 64 96 39
-0.227671 0.0709684 0.254067 67 100 43
-0.227575 0.0717747 0.253923 70 105 49
-0.227573 0.0726384 0.253727 73 111 51
-0.227861 0.0736745 0.253373 77 117 54
-0.227956 0.074604 0.253122 81 124 59
-0.227858 0.0754222 0.252976 89 133 65
-0.227759 0.0762425 0.25283 91 130 69
-0.22766 0.0770648 0.252683 72 86 53
-0.229456 0.0584426 0.255364 35 35 22
-0.229268 0.0591754 0.255274 57 73 30
-0.229176 0.0599557 0.255133 57 90 35
-0.228987 0.0606907 0.255042 65 96 41
-0.228702 0.0613789 0.255002 63 94 38
-0.228513 0.0621151 0.254911 58 91 33
-0.228324 0.0628521 0.25482 57 91 34
-0.228135 0.06359 0.254729 58 92 35
-0.228041 0.0643782 0.254587 60 91 34
-0.227851 0.0651182 0.254496 59 91 39
-0.227852 0.0659603 0.254302 60 92 42
-0.227852 0.0668055 0.254108 61 94 44
-0.227756 0.067602 0.253965 61 93 45
-0.227756 0.0684529 0.253769 61 94 42
-0.22766 0.0692537 0.253625 61 95 42
-0.227564 0.0700565 0.253481 63 97 43
-0.227467 0.0708613 0.253336 65 101 48
-0.227465 0.0717229 0.253139 68 106 51
-0.227656 0.0726992 0.252836 73 111 52
-0.227847 0.0736817 0.252531 76 116 52
-0.227749 0.0744984 0.252384 79 122 55
-0.227747 0.075375 0.252183 85 131 61
-0.227552 0.0761379 0.252089 94 136 69
-0.227452 0.0769606 0.251941 87 104 60
-0.229357 0.0591998 0.254401 40 55 25
-0.229168 0.0599354 0.25431 60 87 38
-0.228979 0.0606719 0.254219 66 95 43
-0.22879 0.0614092 0.254128 64 97 47
-0.2286 0.0621473 0.254036 62 94 36
-0.228506 0.062935 0.253893 55 95 38
-0.228316 0.0636753 0.253802 59 95 41
-0.228126 0.0644164 0.25371 61 96 44
-0.228127 0.065259 0.253514 58 95 46
-0.227936 0.0660028 0.253422 60 97 44
-0.22784 0.0667989 0.253278 61 97 42
-0.227649 0.0675449 0.253185 63 94 41
-0.227553 0.0683443 0.253041 63 95 41
-0.227552 0.0691987 0.252843 64 96 44
-0.227359 0.0699488 0.25275 66 99 44
-0.227358 0.0708083 0.252552 68 103 48
-0.227452 0.0717261 0.2523 70 107 51
-0.227739 0.0727603 0.25194 72 112 52
-0.227641 0.0735755 0.251792 76 116 53
-0.227639 0.0744499 0.25159 81 120 56
-0.227443 0.0752119 0.251496 85 128 60
-0.227344 0.076033 0.251348 95 138 67
-0.227244 0.0768562 0.251199 93 124 67
-0.229254 0.0591318 0.253628 36 31 28
-0.229064 0.0598684 0.253536 60 69 34
-0.228875 0.0606058 0.253444 60 90 40
-0.228685 0.061344 0.253353 64 96 43
-0.228495 0.0620831 0.253261 65 96 36
-0.228305 0.0628231 0.253169 63 97 37
-0.228114 0.0635638 0.253076 61 97 41
-0.228019 0.0643552 0.252932 61 99 46
-0.227924 0.0651484 0.252787 63 99 45
-0.227829 0.0659436 0.252642 63 98 43
-0.227637 0.0666892 0.252549 61 99 42
-0.227636 0.0675397 0.252351 63 98 39
-0.227444 0.068288 0.252258 65 96 37
-0.227251 0.0690372 0.252165 64 98 42
-0.22725 0.0698946 0.251965 66 102 47
-0.227344 0.0708096 0.251712 69 105 51
-0.227631 0.0718398 0.251349 72 106 53
-0.227533 0.0726535 0.251201 74 111 53
-0.227337 0.0734126 0.251107 77 115 54
-0.227335 0.0742868 0.250904 79 119 55
-0.227235 0.0751064 0.250754 82 125 59
-0.227135 0.0759281 0.250605 91 134 64
-0.227035 0.0767517 0.250455 94 131 69
-0.227031 0.0776369 0.25025 76 90 55
-0.22896 0.0598011 0.25276 39 52 31
-0.22877 0.0605395 0.252668 58 87 44
-0.22858 0.0612787 0.252575 67 97 43
-0.228293 0.0619706 0.252535 68 97 38
-0.228103 0.062711 0.252443 65 98 36
-0.227912 0.0634522 0.25235 63 98 42
-0.227817 0.064244 0.252205 61 99 46
-0.227721 0.0650376 0.252059 63 98 45
-0.227529 0.0657824 0.251966 64 98 39
-0.227529 0.0666308 0.251767 62 98 41
-0.227336 0.0673782 0.251673 62 99 41
-0.227144 0.0681266 0.25158 63 98 42
-0.227142 0.0689818 0.251379 63 99 45
-0.227236 0.069894 0.251124 64 102 48
-0.227619 0.0709749 0.250705 68 107 50
-0.227424 0.0717323 0.250611 72 109 52
-0.227326 0.0725465 0.250461 74 110 53
-0.22713 0.0733061 0.250366 77 113 54
-0.227127 0.0741807 0.250162 80 119 56
-0.227027 0.0750008 0.250012 82 124 57
-0.226927 0.0758229 0.249861 87 131 61
-0.226826 0.076647 0.24971 96 135 69
-0.226822 0.0775327 0.249504 90 105 62
-0.228856 0.0597336 0.251981 28 38 25
-0.228569 0.0604258 0.251942 57 71 32
-0.228378 0.0611655 0.251849 63 93 35
-0.228091 0.0618579 0.251809 66 101 44
-0.2279 0.0625987 0.251716 66 99 41
-0.227709 0.0633404 0.251623 63 98 43
-0.227614 0.0641326 0.251477 62 100 43
-0.227422 0.0648765 0.251383 61 98 44
-0.227326 0.065672 0.251236 62 98 44
-0.227229 0.0664693 0.251089 63 98 41
-0.227036 0.0672168 0.250995 62 99 41
-0.226939 0.0680174 0.250848 63 98 43
-0.227128 0.0689794 0.250537 64 100 46
-0.227511 0.0700556 0.250116 66 104 47
-0.227413 0.0708669 0.249966 68 109 49
-0.227217 0.0716247 0.249871 71 111 51
-0.227022 0.0723835 0.249776 73 112 52
-0.226826 0.0731431 0.24968 75 115 55
-0.226823 0.0740174 0.249474 80 119 56
-0.226722 0.0748374 0.249323 83 122 56
-0.226622 0.0756593 0.249172 85 127 58
-0.226617 0.0765421 0.248964 94 136 66
-0.226612 0.0774282 0.248756 92 123 68
-0.228463 0.0603591 0.251161 38 46 22
-0.228176 0.0610521 0.251121 59 86 37
-0.227985 0.0617931 0.251028 67 97 38
-0.227698 0.0624863 0.250988 68 101 43
-0.227506 0.0632285 0.250895 64 100 45
-0.227315 0.0639715 0.250801 62 99 44
-0.227218 0.0647654 0.250654 63 97 41
-0.227122 0.0655613 0.250506 61 99 42
-0.226929 0.0663079 0.250412 62 98 38
-0.226832 0.067107 0.250263 62 98 36
-0.227021 0.0680656 0.249951 64 100 43
-0.227307 0.0690837 0.249582 66 102 47
-0.227305 0.0699469 0.249376 67 105 50
-0.227206 0.0707586 0.249225 68 108 52
-0.22701 0.071517 0.24913 70 110 51
-0.226718 0.0722205 0.24909 72 112 52
-0.226522 0.07298 0.248994 75 116 54
-0.226518 0.0738541 0.248787 77 119 56
-0.226417 0.0746739 0.248635 78 122 56
-0.226509 0.075612 0.24837 82 126 56
-0.226407 0.0764371 0.248217 91 134 63
-0.226402 0.0773236 0.248008 94 133 71
-0.2263 0.0781533 0.247854 77 92 59
-0.228165 0.0601978 0.250487 33 37 26
-0.227974 0.0609385 0.250393 57 70 27
-0.227782 0.0616799 0.250299 61 94 32
-0.227495 0.0623737 0.250259 66 100 44
-0.227303 0.0631163 0.250165 64 100 48
-0.227111 0.0638598 0.250071 64 98 42
-0.227014 0.0646542 0.249923 64 98 43
-0.226822 0.0653999 0.249828 62 100 43
-0.226725 0.0661975 0.249679 62 100 40
-0.226722 0.0670489 0.249475 63 98 40
-0.227103 0.068114 0.249049 63 101 45
-0.2271 0.0689744 0.248843 65 104 48
-0.227001 0.069784 0.248691 67 107 50
-0.226902 0.0705955 0.24854 69 107 52
-0.226706 0.0713538 0.248444 72 109 52
-0.22651 0.072113 0.248348 74 113 53
-0.226314 0.0728731 0.248251 74 117 54
-0.226214 0.0736908 0.248099 76 119 56
-0.226113 0.0745104 0.247946 77 121 57
-0.226203 0.0754482 0.24768 80 124 57
-0.226101 0.0762731 0.247526 86 132 62
-0.226095 0.0771594 0.247315 94 140 70
-0.226185 0.0781092 0.247046 90 112 63
-0.227771 0.0608247 0.249663 37 47 23
-0.227483 0.0615186 0.249624 54 84 38
-0.227292 0.0622609 0.249529 64 98 42
-0.2271 0.063004 0.249435 65 102 45
-0.226907 0.063748 0.24934 66 99 39
-0.226715 0.0644928 0.249246 64 99 40
-0.226617 0.0652889 0.249096 64 98 41
-0.226615 0.0661382 0.248891 63 98 43
-0.226899 0.0671466 0.248518 63 99 45
-0.226897 0.0680041 0.24831 66 103 48
-0.226798 0.0688116 0.248159 66 106 50
-0.226698 0.069621 0.248006 68 110 51
-0.226695 0.0704869 0.247797 70 110 50
-0.226499 0.0712457 0.247701 72 111 51
-0.226207 0.0719498 0.247661 73 113 53
-0.22601 0.0727099 0.247564 74 116 55
-0.225909 0.0735274 0.247411 76 119 56
-0.225903 0.0744042 0.247201 78 121 56
-0.225897 0.0752843 0.246989 80 122 57
-0.225891 0.0761677 0.246777 84 128 58
-0.225885 0.0770544 0.246565 93 137 66
-0.225974 0.0780046 0.246293 93 127 70
-0.227664 0.0607583 0.248877 31 33 25
-0.227376 0.0614531 0.248838 53 68 24
-0.227088 0.0621479 0.248798 61 93 37
-0.226896 0.0628915 0.248703 68 100 43
-0.226703 0.0636359 0.248608 67 99 43
-0.226606 0.0644312 0.248458 64 98 44
-0.226508 0.0652284 0.248307 64 97 42
-0.226792 0.0662327 0.247932 63 98 44
-0.226693 0.0670361 0.24778 64 101 45
-0.226594 0.0678414 0.247627 65 104 49
-0.226495 0.0686487 0.247474 66 108 52
-0.226395 0.069458 0.247321 66 111 52
-0.226391 0.0703237 0.247111 68 110 53
-0.226195 0.0710825 0.247014 70 112 53
-0.225998 0.0718421 0.246917 72 115 53
-0.225801 0.0726026 0.24682 74 116 52
-0.225605 0.073364 0.246723 76 119 53
-0.225598 0.0742406 0.246511 78 121 54
-0.225591 0.0751204 0.246299 79 121 57
-0.22568 0.0760622 0.246027 82 125 59
-0.225673 0.0769494 0.245813 89 134 63
-0.225762 0.0779 0.24554 92 133 70
-0.225852 0.0788554 0.245265 77 95 61
-0.227268 0.0613875 0.248049 39 45 22
-0.227075 0.0621317 0.247954 58 80 33
-0.226787 0.0628278 0.247915 68 95 39
-0.226594 0.0635732 0.247819 69 99 39
-0.226401 0.0643194 0.247724 65 99 39
-0.226493 0.0652183 0.247459 63 100 41
-0.226586 0.0661217 0.247193 63 101 47
-0.226487 0.0669255 0.24704 65 103 49
-0.226387 0.0677313 0.246887 65 105 49
-0.226192 0.0684859 0.24679 66 108 50
-0.226092 0.069295 0.246636 67 110 51
-0.225991 0.0701061 0.246482 68 110 53
-0.225891 0.0709191 0.246327 70 112 54
-0.225694 0.0716788 0.24623 73 114 52
-0.225497 0.0724392 0.246133 75 115 52
-0.225395 0.0732571 0.245977 76 117 53
-0.225293 0.0740769 0.245822 77 119 56
-0.225286 0.0749565 0.245608 78 120 58
-0.22547 0.0759565 0.245276 80 124 59
-0.225558 0.0769035 0.245002 86 132 61
-0.22555 0.0777951 0.244785 92 138 67
-0.225543 0.0786901 0.244567 92 115 65
-0.22716 0.0613216 0.247259 34 34 19
-0.226871 0.0620183 0.24722 53 68 24
-0.226678 0.0627638 0.247124 60 94 39
-0.226484 0.0635102 0.247028 66 102 48
-0.226386 0.0643075 0.246875 67 100 41
-0.226478 0.0652081 0.246608 64 100 42
-0.226379 0.0660104 0.246454 64 103 45
-0.22628 0.0668147 0.2463 65 104 45
-0.226085 0.0675684 0.246203 66 107 47
-0.225984 0.068376 0.246048 67 109 50
-0.225884 0.0691856 0.245893 70 112 50
-0.225783 0.0699971 0.245738 70 112 51
-0.225586 0.0707558 0.24564 72 113 52
-0.22539 0.0715154 0.245543 75 115 51
-0.225288 0.0723317 0.245387 76 117 52
-0.225185 0.07315 0.245231 77 118 54
-0.224988 0.0739132 0.245132 78 119 56
-0.225075 0.0748502 0.244858 78 120 58
-0.225258 0.0758506 0.244524 80 122 59
-0.22525 0.0767387 0.244307 83 127 59
-0.225242 0.07763 0.244089 92 136 65
-0.22533 0.0785855 0.24381 95 129 69
-0.226954 0.0620503 0.246313 37 41 23
-0.22676 0.0627978 0.246216 55 77 36
-0.226661 0.0635959 0.246062 65 97 45
-0.226467 0.0643456 0.245965 67 104 48
-0.226272 0.0650962 0.245868 65 103 48
-0.226173 0.065899 0.245713 65 103 49
-0.226073 0.0667037 0.245558 65 105 50
-0.225973 0.0675104 0.245403 67 106 50
-0.225777 0.0682659 0.245305 70 109 50
-0.225676 0.0690759 0.245149 72 112 51
-0.225575 0.0698879 0.244993 72 112 51
-0.225378 0.0706471 0.244895 71 113 52
-0.22518 0.0714072 0.244797 72 115 53
-0.225078 0.072224 0.24464 76 116 54
-0.22488 0.0729863 0.244541 79 119 54
-0.224968 0.0739205 0.244266 78 121 54
-0.224864 0.0747439 0.244108 78 120 56
-0.225047 0.0757446 0.243771 80 122 57
-0.225038 0.0766331 0.243552 82 126 57
-0.22503 0.0775249 0.243332 91 135 59
-0.225021 0.07842 0.243112 96 137 68
-0.225011 0.0793185 0.24289 80 97 62
-0.226844 0.061985 0.245517 36 34 24
-0.22665 0.0627335 0.245419 48 65 26
-0.226455 0.0634829 0.245322 57 94 42
-0.226261 0.0642331 0.245225 66 105 51
-0.226065 0.0649842 0.245128 68 103 47
-0.225966 0.0657874 0.244972 68 104 48
-0.225865 0.0665925 0.244816 67 106 48
-0.225669 0.0673472 0.244718 67 107 49
-0.225569 0.0681557 0.244561 70 109 50
-0.225467 0.0689662 0.244404 72 110 52
-0.225366 0.0697786 0.244247 73 110 52
-0.225168 0.0705383 0.244148 74 112 52
-0.224971 0.0712988 0.24405 74 115 53
-0.224963 0.0721719 0.243832 75 118 54
-0.22486 0.0729917 0.243674 76 121 54
-0.224757 0.0738135 0.243515 76 121 54
-0.224653 0.0746373 0.243356 78 121 55
-0.224835 0.0756384 0.243016 79 121 57
-0.22473 0.0764681 0.242856 82 124 59
-0.224817 0.0774195 0.242574 87 132 61
-0.224711 0.0782545 0.242413 93 138 68
-0.224701 0.0791528 0.24219 92 120 66
-0.22654 0.062669 0.244621 32 43 21
-0.226345 0.0634194 0.244523 52 76 29
-0.22615 0.0641706 0.244425 65 98 45
-0.225954 0.0649227 0.244327 68 105 50
-0.225758 0.0656756 0.244229 68 104 49
-0.225658 0.0664812 0.244072 67 106 49
-0.225461 0.0672364 0.243973 67 108 50
-0.225265 0.0679924 0.243875 69 110 51
-0.225258 0.0688562 0.243658 71 111 50
-0.225061 0.069615 0.243559 72 112 51
-0.224864 0.0703747 0.24346 73 114 53
-0.224666 0.0711352 0.243361 72 116 52
-0.224848 0.0721197 0.243023 74 117 52
-0.224745 0.0729405 0.242863 76 119 53
-0.224545 0.0737063 0.242763 76 120 54
-0.224632 0.074646 0.242482 77 121 56
-0.224527 0.0754735 0.242321 79 122 56
-0.224518 0.0763621 0.242099 81 123 57
-0.224603 0.077314 0.241815 84 127 59
-0.224498 0.0781495 0.241653 90 136 64
-0.224391 0.078987 0.241491 94 130 67
-0.22643 0.0626043 0.243819 34 34 17
-0.226138 0.063306 0.24378 50 63 20
-0.225943 0.0640577 0.243682 60 91 37
-0.225747 0.0648103 0.243584 69 105 51
-0.225551 0.0655637 0.243485 70 105 51
-0.225354 0.0663179 0.243386 70 107 49
-0.225158 0.0670731 0.243288 69 108 49
-0.225056 0.0678818 0.243129 70 109 50
-0.224954 0.0686926 0.24297 71 112 49
-0.224757 0.0694514 0.242871 72 112 51
-0.224654 0.0702655 0.242712 73 113 53
-0.224931 0.0713028 0.24231 73 117 52
-0.225019 0.0722355 0.242028 74 118 54
-0.224819 0.0730025 0.241928 76 119 56
-0.224524 0.0737131 0.241888 77 120 57
-0.22442 0.0745391 0.241727 75 121 58
-0.224219 0.0753086 0.241626 76 122 57
-0.224209 0.076197 0.241403 77 122 58
-0.224294 0.0771485 0.241117 82 125 57
-0.224284 0.0780442 0.240892 89 132 60
-0.224177 0.0788822 0.240728 96 136 67
-0.224166 0.0797841 0.240502 77 98 58
-0.225931 0.0631924 0.243037 38 41 21
-0.225735 0.0639446 0.242938 56 75 35
-0.225444 0.064647 0.242899 69 97 48
-0.225247 0.0654004 0.2428 73 107 50
-0.225051 0.0661547 0.242701 71 108 49
-0.224949 0.0669619 0.242542 67 109 50
-0.224847 0.0677711 0.242382 69 110 50
-0.22465 0.068529 0.242283 69 110 51
-0.224547 0.0693416 0.242123 71 112 52
-0.224539 0.0702107 0.241902 73 115 53
-0.225103 0.071416 0.241313 73 116 51
-0.224903 0.0721831 0.241212 74 117 52
-0.224703 0.0729511 0.241111 75 119 55
-0.224408 0.0736627 0.241072 76 120 57
-0.224207 0.0744319 0.240971 76 121 58
-0.224007 0.075202 0.240869 75 122 57
-0.223996 0.0760908 0.240645 76 122 59
-0.22408 0.0770426 0.240357 82 125 58
-0.223974 0.0778784 0.240192 85 130 60
-0.223962 0.0787773 0.239965 92 137 66
-0.223951 0.0796796 0.239737 94 120 64
-0.225724 0.0630786 0.242292 31 36 22
-0.225432 0.0637813 0.242253 43 63 25
-0.225236 0.0645343 0.242154 58 91 38
-0.225039 0.0652881 0.242054 70 105 50
-0.224842 0.0660429 0.241955 71 109 51
-0.22474 0.0668506 0.241795 68 110 50
-0.224543 0.0676075 0.241695 68 109 49
-0.22444 0.0684186 0.241534 70 110 50
-0.224432 0.0692855 0.241312 70 112 51
-0.224996 0.0704848 0.240719 72 113 51
-0.224987 0.0713623 0.240494 74 115 50
-0.224787 0.0721305 0.240393 75 118 52
-0.224587 0.0728995 0.240292 75 119 54
-0.22429 0.0736121 0.240252 75 120 56
-0.223994 0.0743245 0.240213 76 120 57
-0.223889 0.0751534 0.240049 76 121 56
-0.223782 0.0759844 0.239885 78 122 57
-0.223771 0.076877 0.239658 81 124 57
-0.223759 0.0777729 0.239429 83 127 59
-0.223747 0.0786722 0.239201 90 133 63
-0.223735 0.079575 0.238971 97 131 68
-0.225224 0.0636679 0.241507 31 41 21
-0.225027 0.0644213 0.241407 48 70 29
-0.224831 0.0651757 0.241308 67 96 44
-0.224633 0.0659309 0.241208 73 108 50
-0.224436 0.066687 0.241108 70 109 50
-0.224333 0.0674965 0.240946 70 109 50
-0.22423 0.068308 0.240784 71 110 51
-0.224316 0.0692293 0.240499 71 112 50
-0.224976 0.070485 0.239838 72 114 51
-0.224775 0.0712527 0.239736 73 116 51
-0.224575 0.0720214 0.239635 75 117 52
-0.224374 0.0727909 0.239533 75 119 54
-0.224078 0.073504 0.239494 75 119 56
-0.223781 0.0742171 0.239454 77 119 55
-0.223675 0.0750464 0.239289 78 121 55
-0.223473 0.0758189 0.239187 80 122 55
-0.223556 0.0767708 0.238895 81 123 56
-0.223449 0.0776069 0.238729 81 126 60
-0.223436 0.078506 0.238499 87 128 61
-0.223423 0.0794085 0.238268 94 134 65
-0.223315 0.080252 0.2381 76 103 60
-0.224914 0.0643587 0.240598 33 58 14
-0.224622 0.0650631 0.24056 60 88 31
-0.224424 0.0658187 0.240459 74 106 49
-0.224321 0.0666273 0.240297 71 110 50
-0.224123 0.0673853 0.240196 68 108 50
-0.224114 0.0682504 0.239971 70 109 51
-0.224677 0.0694438 0.23937 71 112 50
-0.224668 0.0703196 0.239143 71 114 51
-0.224563 0.071143 0.238977 72 115 51
-0.224362 0.0719121 0.238875 74 117 53
-0.224161 0.0726822 0.238773 74 119 55
-0.22396 0.0734531 0.23867 74 119 56
-0.223663 0.0741671 0.238631 75 119 55
-0.223461 0.0749392 0.238529 76 120 54
-0.223354 0.075771 0.238362 78 119 54
-0.223247 0.076605 0.238196 79 120 56
-0.223234 0.0775011 0.237964 80 122 58
-0.223221 0.0784006 0.237733 82 126 61
-0.223112 0.0792419 0.237564 90 134 64
-0.223098 0.0801475 0.237331 90 123 64
-0.224698 0.0651033 0.239624 52 72 32
-0.224309 0.0657579 0.239648 71 103 48
-0.224206 0.0665675 0.239484 72 110 51
-0.224008 0.0673265 0.239383 70 110 50
-0.224093 0.0682461 0.239093 70 111 51
-0.224369 0.0692787 0.238676 70 112 51
-0.224456 0.0702092 0.238383 71 114 50
-0.22435 0.0710331 0.238217 71 115 50
-0.224149 0.0718027 0.238114 73 115 52
-0.223948 0.0725732 0.238012 74 116 54
-0.223746 0.0733446 0.237909 75 117 54
-0.223544 0.0741169 0.237806 75 118 54
-0.223342 0.0748901 0.237702 76 119 56
-0.223139 0.0756641 0.237599 78 119 55
-0.222937 0.0764391 0.237496 79 120 54
-0.223018 0.0773951 0.237199 78 121 55
-0.223005 0.078295 0.236965 80 123 57
-0.222991 0.0791984 0.236731 87 130 61
-0.222977 0.0801052 0.236496 93 131 65
-0.223043 0.0819929 0.235957 25 21 10
-0.22467 0.0659555 0.238518 59 89 35
-0.224567 0.0667691 0.238352 71 107 49
-0.223986 0.0673202 0.238504 72 109 50
-0.224262 0.0683487 0.238084 70 111 51
-0.224157 0.0691678 0.237918 69 112 51
-0.224243 0.0700987 0.237623 69 113 51
-0.224042 0.0708674 0.23752 72 114 51
-0.223936 0.0716931 0.237353 73 115 52
-0.223734 0.0724641 0.237249 73 116 53
-0.223532 0.073236 0.237146 74 116 54
-0.22333 0.0740088 0.237042 74 118 54
-0.223032 0.0747242 0.237003 74 119 54
-0.22283 0.0754983 0.2369 77 120 54
-0.222911 0.0764514 0.236601 78 119 54
-0.222897 0.0773491 0.236366 78 120 54
-0.222883 0.0782502 0.236131 81 122 53
-0.222869 0.0791547 0.235895 85 127 57
-0.222759 0.0800004 0.235724 90 132 61
-0.222825 0.081889 0.235182 38 18 17
-0.224546 0.0667616 0.237467 68 100 44
-0.224346 0.0675258 0.237365 73 111 51
-0.22405 0.0682371 0.237326 72 111 51
-0.223945 0.0690566 0.237159 71 111 50
-0.223935 0.069933 0.236926 71 113 51
-0.223829 0.0707572 0.236758 71 114 51
-0.223627 0.0715273 0.236654 72 114 50
-0.22352 0.0723548 0.236486 73 115 52
-0.223318 0.0731272 0.236382 74 115 54
-0.22321 0.0739583 0.236213 74 117 53
-0.223007 0.074733 0.236108 74 117 54
-0.222804 0.0755086 0.236004 74 116 55
-0.22279 0.0764041 0.235768 76 120 54
-0.222871 0.0773633 0.235466 77 119 53
-0.222857 0.0782663 0.235228 80 119 53
-0.222652 0.0790492 0.235123 82 122 54
-0.222637 0.0799577 0.234884 87 128 59
-0.22251 0.0817211 0.234472 48 29 21
-0.22423 0.0674666 0.23654 71 105 49
-0.223933 0.068179 0.236502 71 110 51
-0.223732 0.0689453 0.236398 69 111 51
-0.223626 0.0697673 0.236229 69 112 51
-0.22352 0.0705913 0.23606 71 113 50
-0.223413 0.0714173 0.235891 72 114 50
-0.223211 0.0721888 0.235787 71 115 51
-0.223103 0.0730183 0.235617 71 115 53
-0.222995 0.0738498 0.235446 72 115 54
-0.222792 0.074625 0.235342 73 117 55
-0.222778 0.0755189 0.235105 73 117 54
-0.222859 0.076476 0.2348 75 117 53
-0.222749 0.077317 0.234628 75 116 52
-0.222639 0.0781601 0.234455 77 116 53
-0.222529 0.0790052 0.234283 81 117 55
-0.222418 0.0798524 0.234109 83 118 58
-0.222196 0.0815532 0.233762 40 30 22
-0.223922 0.067301 0.235844 65 98 45
-0.223721 0.068067 0.235741 69 108 51
-0.223519 0.0688339 0.235637 69 109 51
-0.223318 0.0696016 0.235533 69 110 52
-0.223116 0.0703702 0.235428 71 112 52
-0.223009 0.0711955 0.235258 72 114 51
-0.222901 0.0720228 0.235088 71 115 52
-0.222888 0.0729091 0.23485 71 114 53
-0.222685 0.0736834 0.234745 71 115 54
-0.222671 0.0745751 0.234507 72 115 53
-0.222847 0.0755885 0.234134 73 113 52
-0.222642 0.0763687 0.234028 72 113 53
-0.222532 0.0772102 0.233855 73 114 54
-0.222422 0.0780537 0.233681 74 113 54
-0.222311 0.0788993 0.233508 75 109 53
-0.222088 0.0805968 0.233159 44 52 28
-0.221976 0.0814488 0.232983 28 29 24
-0.224102 0.0665278 0.235055 30 49 13
-0.223709 0.0671883 0.235083 55 88 39
-0.223412 0.0679013 0.235044 69 105 52
-0.223211 0.0686681 0.23494 71 110 52
-0.223009 0.0694359 0.234835 70 110 52
-0.222807 0.0702045 0.234731 70 110 51
-0.222699 0.0710296 0.23456 72 111 51
-0.222591 0.0718567 0.234388 72 112 51
-0.222672 0.0727998 0.234083 71 113 51
-0.222564 0.0736323 0.23391 71 112 51
-0.22274 0.0746421 0.233535 70 111 52
-0.222535 0.0754214 0.233429 72 110 52
-0.222425 0.0762612 0.233255 72 112 52
-0.222314 0.0771032 0.233081 71 111 51
-0.222204 0.0779472 0.232906 69 107 51
-0.221981 0.0796415 0.232556 45 47 21
-0.221869 0.0804918 0.23238 30 29 19
-0.223496 0.0670755 0.23432 41 60 24
-0.223199 0.067789 0.234281 64 94 43
-0.222902 0.0685024 0.234243 69 107 51
-0.222701 0.0692701 0.234138 68 109 52
-0.222498 0.0700386 0.234033 68 109 52
-0.22239 0.0708636 0.233861 70 109 53
-0.222282 0.0716906 0.233689 71 110 52
-0.222362 0.0726333 0.233382 70 111 51
-0.222253 0.0734656 0.233208 70 110 51
-0.222333 0.0744165 0.232899 70 110 51
-0.222223 0.0752542 0.232724 70 108 50
-0.222112 0.0760939 0.232549 70 106 50
-0.222001 0.0769357 0.232374 66 100 49
-0.221779 0.0786255 0.232023 39 50 29
-0.221667 0.0794736 0.231846 33 30 18
-0.222891 0.0676232 0.233584 47 74 28
-0.222594 0.0683367 0.233546 66 98 45
-0.222392 0.0691043 0.233441 68 106 51
-0.222189 0.0698728 0.233336 67 107 51
-0.222081 0.0706976 0.233163 68 107 52
-0.222066 0.0715806 0.232922 68 107 51
-0.222051 0.0724668 0.23268 68 107 50
-0.221942 0.073299 0.232506 68 106 50
-0.222021 0.0742495 0.232195 69 104 49
-0.22191 0.075087 0.232019 67 101 49
-0.221705 0.0758671 0.231912 59 91 47
-0.221577 0.0776119 0.231491 32 41 26
-0.221465 0.0784577 0.231314 26 32 24
-0.222285 0.0681709 0.232849 51 76 28
-0.222083 0.0689385 0.232744 70 102 43
-0.221881 0.069707 0.232638 67 107 51
-0.221866 0.070587 0.232396 65 102 50
-0.221756 0.0714143 0.232222 67 101 49
-0.221835 0.0723571 0.23191 66 102 50
-0.221631 0.0731323 0.231804 62 96 48
-0.221709 0.0740824 0.23149 58 88 43
-0.221598 0.0749198 0.231314 54 81 37
-0.221281 0.0765407 0.23103 28 35 23
-0.221263 0.0774442 0.230783 24 27 21
-0.221868 0.0688268 0.231978 58 90 37
-0.221665 0.0695957 0.231872 60 94 47
-0.221556 0.0704209 0.231697 51 84 37
-0.221446 0.071248 0.231522 46 73 30
-0.22143 0.0721337 0.231277 42 59 28
-0.22132 0.0729656 0.231101 38 50 27
-0.221397 0.0739153 0.230786 35 44 24
-0.221192 0.0746939 0.230678 33 40 22
-0.22108 0.0755326 0.230501 23 30 17
