ply
format ascii 1.0
element vertex 1199
property float x
property float y
property float z
property uchar diffuse_red
property uchar diffuse_green
property uchar diffuse_blue
end_header
-0.279771 -0.00944963 0.247837 125 181 90
-0.279998 -0.00867653 0.247735 119 172 85
-0.280476 -0.0078606 0.247548 109 160 79
-0.286408 -0.00612544 0.245555 105 154 76
-0.286647 -0.00532163 0.245447 101 149 73
-0.278207 -0.0118215 0.247747 119 174 87
-0.278062 -0.0111099 0.247768 125 183 91
-0.278163 -0.0103621 0.247706 128 186 93
-0.278511 -0.00957512 0.247562 126 182 90
-0.279356 -0.00870568 0.247252 117 172 84
-0.281472 -0.00762083 0.246515 108 159 79
-0.285607 -0.00617958 0.245101 104 152 75
-0.285712 -0.00539979 0.245038 100 147 74
-0.286536 -0.00219814 0.244647 107 164 79
-0.286374 -0.00146449 0.244672 104 165 77
-0.285948 -0.000784323 0.244787 102 165 75
-0.285656 -8.07211e-05 0.244857 106 168 75
-0.277081 -0.0119195 0.247433 119 175 87
-0.27706 -0.011192 0.247412 126 183 92
-0.277282 -0.0104275 0.24731 128 185 92
-0.277996 -0.0095843 0.247041 125 181 90
-0.279337 -0.00863482 0.246559 118 171 85
-0.27994 -0.00779638 0.246327 109 159 78
-0.283366 -0.00647692 0.245138 104 151 75
-0.284255 -0.00556855 0.244809 99 147 75
-0.285893 -0.00299157 0.244167 107 164 77
-0.285733 -0.00225749 0.244193 106 165 79
-0.285573 -0.00152473 0.244219 104 165 78
-0.285413 -0.000793279 0.244245 102 166 75
-0.285122 -8.96066e-05 0.244315 105 170 75
-0.286156 0.00088264 0.243935 112 171 81
-0.274523 -0.0122259 0.247612 119 175 88
-0.27558 -0.0113456 0.247224 126 183 93
-0.276648 -0.0104553 0.246831 127 185 91
-0.278819 -0.00864402 0.246033 117 170 85
-0.278921 -0.00788803 0.245971 109 159 79
-0.28053 -0.00687644 0.245392 102 152 76
-0.281779 -0.0059143 0.244936 97 147 75
-0.285092 -0.00304988 0.243714 105 164 77
-0.285197 -0.00226658 0.24365 106 165 80
-0.28517 -0.00150818 0.24363 105 165 78
-0.285143 -0.000750106 0.243611 102 167 76
-0.285381 6.09139e-05 0.243501 104 169 76
-0.285753 0.000901052 0.243344 112 170 81
-0.273918 -0.0129718 0.24716 115 168 87
-0.274017 -0.0122351 0.247099 119 175 90
-0.274116 -0.0114976 0.247037 125 183 94
-0.277806 -0.0087332 0.245679 117 170 85
-0.277907 -0.00797918 0.245617 109 159 79
-0.278504 -0.00714045 0.245382 103 153 76
-0.280109 -0.00612202 0.244798 98 147 74
-0.284556 -0.00305904 0.243171 105 164 78
-0.284661 -0.00227568 0.243106 106 165 80
-0.284767 -0.00149161 0.243041 104 165 78
-0.284872 -0.000706828 0.242976 102 166 77
-0.284977 7.86736e-05 0.242911 104 168 78
-0.285481 0.000946817 0.242707 112 170 80
-0.273313 -0.0137173 0.246707 113 166 86
-0.273411 -0.0129811 0.246646 115 169 87
-0.27351 -0.0122443 0.246585 120 175 90
-0.273609 -0.0115068 0.246523 127 184 92
-0.276675 -0.00884173 0.245369 116 169 84
-0.276531 -0.00813073 0.245392 109 159 79
-0.277244 -0.00727538 0.245115 104 153 75
-0.278583 -0.00630555 0.244619 99 148 73
-0.284152 -0.00304364 0.242581 106 164 79
-0.284125 -0.00228478 0.242562 107 165 79
-0.28423 -0.00150065 0.242497 104 164 78
-0.284468 -0.00068964 0.242385 102 165 77
-0.284838 0.000150016 0.242227 105 167 77
-0.272905 -0.0129904 0.246133 116 170 87
-0.273003 -0.0122535 0.246071 121 176 89
-0.275431 -0.00896917 0.245105 116 167 85
-0.275289 -0.00826079 0.245128 110 159 79
-0.275874 -0.00742995 0.244893 104 153 75
-0.276951 -0.00650855 0.244485 99 148 73
-0.283721 -0.0022688 0.241972 109 164 79
-0.283826 -0.00148407 0.241906 105 164 78
-0.284195 -0.000646176 0.241747 102 165 76
-0.284565 0.000194757 0.241587 105 168 76
-0.274197 -0.00909561 0.244842 116 167 85
-0.272989 -0.00856802 0.245247 110 159 79
-0.274396 -0.00760357 0.244717 104 153 75
-0.275581 -0.00666675 0.244265 100 148 73
-0.276534 -0.00576183 0.243896 97 146 72
-0.283553 -0.00144177 0.241268 105 165 77
-0.322771 -0.0150347 0.227084 96 142 71
-0.323287 -0.0140491 0.226864 106 156 79
-0.323805 -0.0130594 0.226643 107 160 81
-0.272383 -0.00931732 0.244794 117 169 83
-0.272481 -0.00857698 0.244732 110 158 78
-0.27258 -0.00783597 0.244669 104 152 76
-0.274223 -0.00682348 0.244048 99 148 73
-0.275165 -0.00592346 0.243679 97 146 72
-0.283015 -0.00145084 0.240722 104 165 77
-0.321731 -0.0150871 0.226564 103 150 76
-0.322245 -0.0141033 0.226343 108 159 81
-0.32276 -0.0131153 0.226121 108 159 81
-0.323081 -0.0121455 0.22597 111 161 84
-0.271875 -0.00932633 0.244279 115 167 81
-0.271973 -0.00858594 0.244217 110 158 79
-0.272071 -0.00784487 0.244154 104 153 75
-0.273471 -0.00687436 0.243615 99 148 72
-0.274409 -0.00597573 0.243245 96 147 71
-0.276781 -0.00331966 0.242294 106 164 79
-0.276883 -0.00255697 0.242229 105 164 77
-0.277355 -0.0017193 0.242029 102 165 76
-0.277954 -0.000852097 0.241781 103 169 76
-0.321467 -0.01506 0.225762 107 157 79
-0.321981 -0.0140743 0.225539 109 159 80
-0.322301 -0.0131062 0.225387 111 159 81
-0.322426 -0.012158 0.225306 112 162 83
-0.322747 -0.0111856 0.225154 112 165 84
-0.321501 -0.00761447 0.225476 115 165 88
-0.271465 -0.0085949 0.243701 110 158 78
-0.271563 -0.00785379 0.243638 106 152 76
-0.271661 -0.007112 0.243575 101 147 72
-0.276014 -0.0033758 0.241856 107 164 80
-0.276115 -0.00261407 0.241791 106 164 77
-0.276462 -0.00180233 0.241635 102 166 76
-0.277181 -0.000911668 0.241341 104 169 76
-0.277531 -9.23668e-05 0.241184 108 173 79
-0.320884 -0.0159968 0.225109 106 155 78
-0.321202 -0.0150327 0.224957 108 158 80
-0.32191 -0.0140245 0.224659 110 159 81
-0.322036 -0.0130754 0.224579 111 160 82
-0.321771 -0.0121704 0.224643 112 162 83
-0.321897 -0.0112213 0.224562 113 163 83
-0.321178 -0.0094442 0.224761 113 163 83
-0.321303 -0.0084965 0.22468 114 165 85
-0.320466 -0.00767872 0.224958 115 167 86
-0.328944 -0.00556451 0.221765 115 168 85
-0.275371 -0.00340823 0.241373 108 164 79
-0.275472 -0.00264697 0.241308 107 166 78
-0.275817 -0.00183574 0.241152 104 167 77
-0.276657 -0.000920394 0.24081 104 168 77
-0.277006 -0.000101043 0.240651 109 171 79
-0.3203 -0.0169345 0.224456 100 142 69
-0.320811 -0.015952 0.22423 109 160 83
-0.321324 -0.0149653 0.224003 108 157 80
-0.321839 -0.0139743 0.223775 110 160 82
-0.321965 -0.0130227 0.223694 110 160 82
-0.3217 -0.0121155 0.223759 112 161 83
-0.321242 -0.0112337 0.223897 113 163 84
-0.320979 -0.0103316 0.223962 114 163 83
-0.320332 -0.00948105 0.224171 115 164 84
-0.32065 -0.00850868 0.224018 115 166 86
-0.320775 -0.00756005 0.223937 115 168 87
-0.275073 -0.00263165 0.240734 105 165 78
-0.275173 -0.00186912 0.240669 103 165 76
-0.275396 -0.00108076 0.240557 105 167 76
-0.276481 -0.00010972 0.240119 109 170 79
-0.272121 0.00408044 0.241585 107 161 79
-0.319908 -0.0178555 0.223728 96 133 64
-0.320613 -0.0168552 0.223427 109 160 85
-0.320932 -0.0158876 0.223272 110 159 81
-0.321643 -0.0148771 0.222968 109 159 80
-0.321768 -0.0139239 0.222887 108 161 82
-0.321307 -0.0130353 0.223027 109 158 82
-0.321433 -0.0120829 0.222946 112 161 84
-0.320974 -0.0111996 0.223086 114 164 85
-0.320325 -0.010344 0.223298 115 164 84
-0.319872 -0.00946868 0.223436 115 164 83
-0.320768 -0.00841875 0.223062 115 167 86
-0.322648 -0.00722721 0.222312 115 168 87
-0.274896 -0.00182856 0.240046 102 166 76
-0.274996 -0.00106426 0.239981 104 168 76
-0.271609 0.00407237 0.241065 105 157 77
-0.271708 0.00482526 0.241001 108 163 79
-0.319903 -0.0187452 0.222851 90 130 62
-0.320415 -0.0177623 0.222621 106 153 78
-0.32093 -0.0167752 0.22239 109 159 83
-0.321446 -0.0157838 0.222158 111 161 80
-0.321571 -0.0148289 0.222076 107 161 82
-0.321305 -0.0139155 0.222144 108 157 82
-0.321234 -0.0129825 0.222136 109 158 83
-0.320775 -0.0120954 0.222279 112 162 85
-0.320317 -0.0112121 0.22242 114 165 86
-0.31967 -0.0103563 0.222635 115 166 84
-0.319795 -0.00940685 0.222553 114 166 83
-0.32147 -0.00825069 0.221875 114 167 85
-0.271096 0.0040643 0.240546 100 150 74
-0.271195 0.00481725 0.240481 105 159 78
-0.271294 0.00557088 0.240416 109 165 79
-0.319898 -0.0196403 0.221968 87 125 57
-0.320217 -0.0186734 0.221811 103 149 74
-0.320732 -0.0176861 0.221578 109 161 82
-0.321642 -0.0166568 0.221191 110 160 82
-0.321767 -0.0156986 0.221108 110 161 82
-0.321696 -0.0147601 0.221102 108 159 81
-0.321036 -0.0138859 0.221323 109 159 81
-0.32077 -0.0129732 0.221392 111 159 82
-0.320117 -0.0121079 0.221611 113 164 85
-0.320048 -0.0111778 0.221604 113 167 86
-0.319208 -0.0103447 0.221896 112 168 86
-0.319332 -0.00939437 0.221814 113 169 85
-0.321396 -0.00818508 0.220978 114 169 84
-0.270584 0.00405623 0.240026 97 145 71
-0.270683 0.00480923 0.239961 102 154 75
-0.270781 0.00556292 0.239896 109 163 78
-0.319699 -0.0205562 0.221156 86 125 57
-0.320213 -0.0195721 0.220921 103 150 74
-0.320533 -0.0186009 0.220762 108 161 81
-0.321642 -0.0175549 0.220294 109 162 82
-0.321966 -0.0165751 0.220133 111 161 83
-0.322091 -0.0156127 0.22005 110 160 83
-0.321623 -0.0147113 0.220199 109 159 81
-0.321158 -0.0138138 0.220347 109 159 81
-0.3205 -0.012942 0.22057 111 160 82
-0.319846 -0.0120753 0.220792 113 166 87
-0.319971 -0.0111201 0.220709 113 167 87
-0.319128 -0.010285 0.221006 112 167 86
-0.322974 -0.00885131 0.219463 113 167 85
-0.27017 0.00480122 0.239441 99 150 72
-0.270268 0.00555496 0.239375 104 158 76
-0.270367 0.00630939 0.23931 109 163 79
-0.320085 -0.021432 0.220109 87 125 57
-0.320406 -0.0204608 0.219948 103 149 75
-0.320925 -0.0194705 0.219709 108 160 80
-0.321643 -0.0184584 0.219391 109 163 82
-0.321968 -0.0174769 0.219229 111 163 84
-0.321894 -0.016531 0.219223 112 160 83
-0.321623 -0.0156059 0.219296 112 159 83
-0.321551 -0.0146624 0.21929 111 160 82
-0.321084 -0.0137625 0.219441 109 157 82
-0.32062 -0.0128664 0.21959 111 161 82
-0.319963 -0.011997 0.219816 113 166 88
-0.319505 -0.0111091 0.219964 113 167 87
-0.269657 0.00479321 0.23892 96 147 70
-0.269755 0.005547 0.238855 98 152 74
-0.269854 0.00630149 0.238789 104 159 77
-0.32028 -0.0223303 0.219129 83 123 59
-0.320404 -0.0213713 0.219045 102 148 73
-0.320529 -0.0204114 0.218961 108 159 80
-0.32155 -0.0155591 0.218383 112 159 82
-0.321082 -0.0146546 0.218536 109 158 81
-0.320615 -0.0137539 0.218688 110 159 80
-0.320741 -0.0127904 0.218604 113 160 84
-0.320866 -0.011826 0.218519 113 166 90
-0.269144 0.00478519 0.2384 93 143 70
-0.269242 0.00553905 0.238334 95 147 72
-0.26934 0.00629359 0.238268 100 155 75
-0.269438 0.00704881 0.238202 106 163 79
-0.320278 -0.023249 0.218221 81 119 59
-0.320403 -0.0222875 0.218137 100 147 72
-0.32054 -0.0137023 0.217775 111 160 81
-0.268534 0.00402396 0.237945 93 141 69
-0.268632 0.00477717 0.237879 93 140 70
-0.268729 0.00553107 0.237813 94 143 69
-0.268827 0.00628567 0.237747 97 151 73
-0.268925 0.00704095 0.237681 103 159 77
-0.3214 -0.0231421 0.216817 100 147 72
-0.267924 0.00326331 0.237491 93 140 69
-0.268021 0.00401588 0.237425 92 141 68
-0.268119 0.00476915 0.237359 93 142 68
-0.268216 0.0055231 0.237293 93 144 68
-0.268314 0.00627776 0.237226 95 147 72
-0.268411 0.00703311 0.23716 99 152 75
-0.268509 0.00778914 0.237093 106 160 78
-0.267314 0.00250325 0.237038 96 143 70
-0.267411 0.00325518 0.236971 92 141 68
-0.267508 0.00400781 0.236905 92 142 68
-0.267606 0.00476112 0.236838 93 143 67
-0.267703 0.00551513 0.236772 93 143 68
-0.2678 0.00626984 0.236705 95 145 72
-0.267898 0.00702524 0.236638 98 147 73
-0.267995 0.00778134 0.236572 103 154 76
-0.268093 0.00853813 0.236505 109 163 82
-0.295853 -0.018806 0.225286 87 134 67
-0.296123 -0.017922 0.225143 105 153 78
-0.297673 -0.0169005 0.224467 110 160 82
-0.266705 0.00174375 0.236584 104 150 74
-0.266802 0.00249505 0.236518 97 141 69
-0.266899 0.00324705 0.236451 92 139 68
-0.266996 0.00399972 0.236384 92 141 68
-0.267092 0.0047531 0.236318 93 142 68
-0.26719 0.00550718 0.236251 93 142 69
-0.267287 0.00626194 0.236184 95 143 70
-0.267384 0.00701737 0.236117 97 144 70
-0.267481 0.00777354 0.23605 100 148 73
-0.267578 0.00853039 0.235983 106 157 78
-0.267676 0.00928791 0.235916 112 167 83
-0.294245 -0.0206212 0.22516 63 110 50
-0.294826 -0.0197143 0.224886 70 113 52
-0.294937 -0.0188485 0.224809 93 138 69
-0.295363 -0.0179498 0.224599 109 158 81
-0.297227 -0.0168952 0.223785 111 161 82
-0.297823 -0.0159648 0.223503 112 162 82
-0.266193 0.00173551 0.236065 104 150 74
-0.26629 0.00248687 0.235998 96 140 71
-0.266386 0.00323892 0.235931 92 139 68
-0.266483 0.00399166 0.235864 92 140 67
-0.266579 0.00474508 0.235797 94 141 67
-0.266676 0.0054992 0.23573 94 143 68
-0.266773 0.00625401 0.235663 95 142 66
-0.26687 0.00700952 0.235595 96 141 68
-0.266967 0.00776572 0.235528 98 144 71
-0.267064 0.00852263 0.235461 102 152 74
-0.29307 -0.021535 0.224829 60 106 43
-0.293491 -0.020647 0.22462 58 100 43
-0.293757 -0.01977 0.224477 81 123 57
-0.294494 -0.0188449 0.224134 101 150 75
-0.29587 -0.0178485 0.223519 109 160 82
-0.296621 -0.016907 0.22317 110 161 82
-0.297215 -0.0159766 0.222886 111 161 83
-0.265681 0.00172727 0.235545 106 150 75
-0.265777 0.00247869 0.235478 97 141 70
-0.265873 0.00323079 0.23541 93 140 68
-0.26597 0.00398358 0.235343 93 140 67
-0.266066 0.00473706 0.235276 94 140 67
-0.266163 0.00549124 0.235209 95 139 66
-0.266259 0.0062461 0.235141 96 141 65
-0.266356 0.00700166 0.235074 96 142 69
-0.266453 0.00775791 0.235006 96 143 69
-0.26655 0.00851488 0.234939 98 148 73
-0.266647 0.00927253 0.234871 103 156 77
-0.292364 -0.0224065 0.224301 56 102 42
-0.292474 -0.0215469 0.224224 50 96 32
-0.293049 -0.0206449 0.223948 66 103 45
-0.293627 -0.019738 0.22367 95 141 68
-0.294364 -0.0188106 0.223323 106 159 81
-0.295743 -0.0178115 0.222702 109 161 82
-0.296014 -0.0169188 0.222555 110 160 82
-0.296446 -0.0160061 0.222338 112 162 84
-0.265168 0.00171904 0.235025 107 150 74
-0.265264 0.00247049 0.234957 100 142 69
-0.26536 0.00322266 0.23489 94 141 69
-0.265456 0.0039755 0.234823 93 140 67
-0.265553 0.00472903 0.234755 94 140 66
-0.265649 0.00548325 0.234687 95 139 66
-0.265745 0.00623819 0.23462 95 139 67
-0.265842 0.0069938 0.234552 95 141 69
-0.265938 0.0077501 0.234484 95 142 68
-0.266035 0.00850712 0.234417 97 144 72
-0.266132 0.00926482 0.234349 99 151 75
-0.292431 -0.0232179 0.22344 56 102 43
-0.292386 -0.0223683 0.223429 45 93 32
-0.292496 -0.021506 0.223352 52 95 36
-0.292917 -0.020615 0.22314 85 123 57
-0.293652 -0.0196911 0.222791 104 155 80
-0.295025 -0.0186983 0.222166 109 162 83
-0.295296 -0.017807 0.222018 109 161 83
-0.295567 -0.0169135 0.22187 110 160 83
-0.296158 -0.0159822 0.221583 113 162 84
-0.264656 0.00171079 0.234505 105 152 75
-0.264752 0.00246231 0.234437 101 143 71
-0.264847 0.00321452 0.23437 94 140 69
-0.264943 0.00396742 0.234302 94 141 67
-0.265039 0.004721 0.234234 95 141 65
-0.265135 0.00547528 0.234166 95 140 66
-0.265232 0.00623027 0.234098 94 139 68
-0.265328 0.00698593 0.23403 93 141 69
-0.265424 0.0077423 0.233962 95 141 67
-0.265521 0.00849938 0.233894 96 143 69
-0.265617 0.00925714 0.233826 98 148 72
-0.265714 0.0100156 0.233758 102 156 76
-0.293486 -0.0248242 0.222171 69 116 54
-0.292188 -0.0240577 0.222708 57 103 45
-0.291988 -0.023218 0.222766 47 94 34
-0.292097 -0.0223551 0.222688 47 95 36
-0.292518 -0.0214648 0.222474 73 109 51
-0.293096 -0.0205569 0.222191 103 153 77
-0.294943 -0.0195246 0.221353 108 163 86
-0.295055 -0.0186476 0.221273 110 161 84
-0.264239 0.00245412 0.233917 98 143 69
-0.264334 0.00320638 0.233849 94 138 67
-0.26443 0.00395933 0.233781 95 141 66
-0.264526 0.00471297 0.233713 95 141 65
-0.264622 0.0054673 0.233645 95 140 66
-0.264718 0.00622235 0.233577 93 140 68
-0.264814 0.00697806 0.233509 92 140 68
-0.26491 0.00773449 0.23344 95 141 66
-0.265006 0.00849161 0.233372 95 142 69
-0.265102 0.00924942 0.233304 95 145 69
-0.265199 0.0100079 0.233235 97 150 72
-0.293402 -0.0256642 0.22136 67 117 52
-0.29304 -0.0248257 0.22149 56 103 43
-0.291744 -0.0240585 0.222032 52 95 36
-0.291853 -0.0231943 0.221953 50 94 36
-0.291963 -0.0223293 0.221875 62 105 49
-0.29254 -0.0214234 0.22159 95 140 68
-0.294542 -0.0203842 0.220675 108 160 83
-0.295133 -0.0194613 0.220384 109 161 83
-0.296048 -0.0185014 0.219949 111 159 82
-0.263726 0.00244593 0.233396 98 143 70
-0.263821 0.00319825 0.233328 94 138 69
-0.263917 0.00395125 0.23326 95 140 67
-0.264012 0.00470494 0.233192 95 138 66
-0.264108 0.00545932 0.233123 94 138 67
-0.264204 0.00621442 0.233055 93 138 66
-0.264299 0.00697021 0.232987 93 140 66
-0.264395 0.00772668 0.232918 94 142 67
-0.264491 0.00848386 0.23285 93 142 69
-0.264587 0.00924172 0.232781 94 143 68
-0.264683 0.0100003 0.232712 95 146 70
-0.293635 -0.0264898 0.220403 69 117 52
-0.292954 -0.0256664 0.220676 55 103 41
-0.292907 -0.0248056 0.220667 50 95 34
-0.292389 -0.0239798 0.220868 53 94 35
-0.292655 -0.0230979 0.220719 64 103 47
-0.292923 -0.0222139 0.22057 85 128 64
-0.294141 -0.0212459 0.219997 106 159 80
-0.295051 -0.0202954 0.21956 109 161 83
-0.295323 -0.0193976 0.219408 110 160 81
-0.296081 -0.0184495 0.219039 110 161 82
-0.263308 0.00319011 0.232807 95 138 69
-0.263403 0.00394317 0.232739 94 139 68
-0.263499 0.00469692 0.232671 95 137 67
-0.263594 0.00545136 0.232602 95 138 66
-0.263689 0.00620651 0.232533 94 140 65
-0.263785 0.00696233 0.232465 94 141 66
-0.263881 0.00771886 0.232396 94 140 67
-0.263976 0.0084761 0.232327 92 142 69
-0.264072 0.00923402 0.232258 94 142 67
-0.264168 0.00999265 0.232189 94 143 69
-0.294352 -0.0272959 0.219222 67 115 52
-0.293504 -0.0264737 0.219573 56 102 42
-0.292979 -0.0256382 0.219778 51 94 33
-0.29309 -0.0247637 0.219699 53 93 32
-0.292568 -0.0239347 0.219903 62 100 43
-0.292679 -0.0230615 0.219823 84 123 61
-0.29358 -0.0221227 0.219388 105 154 77
-0.294648 -0.0211618 0.218876 109 164 84
-0.295081 -0.0202494 0.21865 110 160 81
-0.295354 -0.0193486 0.218497 111 162 80
-0.295466 -0.0184616 0.218416 109 162 83
-0.295902 -0.0175402 0.218189 109 161 82
-0.26289 0.00393508 0.232218 93 137 68
-0.262985 0.00468889 0.232149 94 138 68
-0.26308 0.00544339 0.23208 95 139 66
-0.263175 0.00619857 0.232012 94 139 66
-0.263271 0.00695446 0.231943 94 140 67
-0.263366 0.00771104 0.231874 94 141 68
-0.263462 0.00846834 0.231805 93 141 67
-0.263557 0.00922631 0.231735 93 141 68
-0.263653 0.00998499 0.231666 92 141 69
-0.29395 -0.0281712 0.218536 68 114 51
-0.29406 -0.0272906 0.218455 59 100 40
-0.29369 -0.0264383 0.218593 53 94 35
-0.293801 -0.0255583 0.218513 52 94 34
-0.294072 -0.0246664 0.218359 62 99 41
-0.29275 -0.0238893 0.21893 84 121 59
-0.294294 -0.0229011 0.218198 105 155 77
-0.294405 -0.0220172 0.218117 111 163 84
-0.294839 -0.0211047 0.217889 110 163 83
-0.29495 -0.0202178 0.217808 111 161 82
-0.295062 -0.0193301 0.217727 111 162 81
-0.295174 -0.0184416 0.217646 110 162 83
-0.295771 -0.0175018 0.217343 109 161 83
-0.295884 -0.0166095 0.217261 110 162 84
-0.262471 0.00468085 0.231628 94 140 68
-0.262566 0.0054354 0.231559 95 140 65
-0.262661 0.00619065 0.23149 94 139 66
-0.262756 0.0069466 0.23142 94 140 67
-0.262851 0.00770323 0.231351 94 141 68
-0.262947 0.00846057 0.231282 93 141 67
-0.263042 0.00921861 0.231213 94 142 70
-0.263137 0.00997735 0.231143 92 142 71
-0.295001 -0.0289799 0.217182 67 113 52
-0.293337 -0.0281839 0.217915 55 102 43
-0.293447 -0.0273033 0.217834 54 95 34
-0.293558 -0.026422 0.217753 54 94 36
-0.293829 -0.0255294 0.217598 63 101 44
-0.295294 -0.0227878 0.216835 110 161 82
-0.294757 -0.0219501 0.217051 112 162 83
-0.294868 -0.0210611 0.216969 111 165 83
-0.29498 -0.0201713 0.216888 113 161 80
-0.295092 -0.0192806 0.216806 112 160 79
-0.295204 -0.0183892 0.216724 112 161 82
-0.295154 -0.0175139 0.216717 110 160 83
-0.295266 -0.0166215 0.216635 111 160 83
-0.261957 0.00467282 0.231106 95 141 66
-0.262052 0.00542743 0.231037 94 140 65
-0.262147 0.00618273 0.230968 94 140 65
-0.262242 0.00693872 0.230898 94 141 66
-0.262336 0.00769543 0.230829 93 140 67
-0.262432 0.0084528 0.230759 93 140 68
-0.262527 0.00921089 0.23069 93 141 68
-0.262622 0.00996968 0.23062 92 141 69
-0.295086 -0.0298448 0.216261 69 113 50
-0.294871 -0.0289698 0.21633 56 100 41
-0.294331 -0.0281136 0.216549 50 95 36
-0.294443 -0.0272258 0.216467 55 94 35
-0.294716 -0.0263274 0.21631 67 102 42
-0.295816 -0.0227113 0.215678 112 163 82
-0.294787 -0.0219092 0.216125 113 164 83
-0.294574 -0.0210454 0.216194 111 164 83
-0.294524 -0.0201688 0.216187 110 159 81
-0.294636 -0.0192774 0.216104 110 159 79
-0.294909 -0.018369 0.215947 110 159 81
-0.295021 -0.0174753 0.215865 108 158 84
-0.294648 -0.0166335 0.216008 110 159 85
-0.295245 -0.0156854 0.2157 115 163 87
-0.261443 0.00466478 0.230585 95 141 66
-0.261538 0.00541945 0.230515 91 142 67
-0.261632 0.0061748 0.230446 92 140 68
-0.261727 0.00693084 0.230376 92 139 67
-0.261822 0.0076876 0.230306 93 140 68
-0.261916 0.00844505 0.230236 93 140 69
-0.262011 0.00920319 0.230167 93 141 67
-0.262106 0.00996203 0.230097 92 141 67
-0.296162 -0.0306779 0.214869 65 113 53
-0.294465 -0.0298578 0.215632 57 101 40
-0.294413 -0.028975 0.215625 51 95 33
-0.294525 -0.0280844 0.215543 53 94 37
-0.294636 -0.027193 0.215461 65 101 43
-0.295306 -0.0218275 0.214964 113 164 82
-0.295091 -0.0209589 0.215035 111 163 82
-0.295203 -0.0200625 0.214952 111 160 82
-0.295152 -0.0191809 0.214945 111 160 81
-0.261023 0.00541146 0.229993 92 140 67
-0.261118 0.00616686 0.229924 92 140 68
-0.261212 0.00692298 0.229854 91 139 67
-0.261307 0.00767977 0.229784 91 140 69
-0.261401 0.00843727 0.229714 93 141 68
-0.261496 0.00919549 0.229643 93 142 67
-0.261591 0.00995438 0.229573 92 142 66
-0.261686 0.010714 0.229503 94 142 64
-0.296366 -0.030659 0.213843 57 100 41
-0.29466 -0.0298358 0.214618 50 96 39
-0.294772 -0.0289416 0.214535 52 95 38
-0.260509 0.00540347 0.229471 94 139 66
-0.260603 0.00615895 0.229401 93 140 67
-0.260697 0.0069151 0.229331 91 140 66
-0.260792 0.00767196 0.229261 91 140 65
-0.260886 0.00842952 0.229191 92 140 65
-0.26098 0.00918776 0.22912 93 141 66
-0.261075 0.00994672 0.22905 93 142 67
-0.26117 0.0107064 0.228979 93 142 66
-0.261264 0.0114667 0.228909 94 144 66
-0.261359 0.0122278 0.228838 97 148 69
-0.261454 0.0129896 0.228767 104 157 77
-0.261549 0.013752 0.228697 110 165 84
-0.260748 0.0114592 0.228385 96 144 66
-0.260843 0.0122203 0.228314 99 148 69
-0.260937 0.0129821 0.228243 104 155 74
-0.261032 0.0137446 0.228172 105 161 77
-0.261127 0.0145079 0.228101 105 165 77
-0.261222 0.0152718 0.22803 107 170 78
-0.273831 0.00521377 0.221551 106 156 77
-0.273546 0.00593774 0.221664 101 148 73
-0.273006 0.006595 0.2219 97 141 69
-0.272851 0.00734598 0.221949 94 139 66
-0.260326 0.0122128 0.22779 100 151 70
-0.26042 0.0129747 0.227718 103 159 73
-0.260515 0.0137373 0.227647 104 161 74
-0.260609 0.0145006 0.227576 105 164 76
-0.260704 0.0152645 0.227504 108 170 80
-0.260799 0.0160292 0.227433 114 173 86
-0.273613 0.00289893 0.220896 107 168 76
-0.273456 0.00365854 0.220947 112 170 79
-0.27317 0.00438596 0.221061 113 166 80
-0.272886 0.005111 0.221174 106 156 76
-0.272348 0.00577052 0.221412 100 149 70
-0.272194 0.006522 0.221461 97 141 70
-0.271915 0.00723959 0.221572 95 138 67
-0.271384 0.00788914 0.221807 95 139 65
-0.271233 0.00863453 0.221855 94 140 65
-0.270833 0.00931115 0.222026 94 139 66
-0.270559 0.0100187 0.222134 95 139 68
-0.259903 0.0129672 0.227194 107 163 75
-0.259998 0.0137299 0.227122 106 164 75
-0.260092 0.0144932 0.227051 107 166 77
-0.260187 0.0152573 0.226979 111 169 80
-0.260281 0.016022 0.226907 115 173 87
-0.260376 0.0167875 0.226836 117 171 82
-0.272951 0.00207017 0.220405 103 164 74
-0.272795 0.00283028 0.220456 107 167 77
-0.272638 0.00358895 0.220506 112 169 80
-0.272611 0.00437691 0.220493 113 166 81
-0.272328 0.00510203 0.220607 107 158 79
-0.272046 0.00582481 0.220721 101 149 71
-0.271765 0.00654524 0.220833 98 142 71
-0.270856 0.00710134 0.221259 96 138 67
-0.270705 0.00784771 0.221308 95 138 66
-0.27043 0.00855945 0.221418 95 139 67
-0.269908 0.0092018 0.221652 94 140 67
-0.269144 0.00977277 0.222006 96 140 67
-0.268998 0.0105095 0.222052 95 139 64
-0.267255 0.0115605 0.222869 94 140 67
-0.259387 0.0129598 0.226669 107 165 76
-0.259481 0.0137225 0.226597 106 166 77
-0.259575 0.0144859 0.226525 107 168 78
-0.259669 0.01525 0.226454 110 172 82
-0.259763 0.0160148 0.226382 113 173 87
-0.259858 0.0167803 0.22631 116 173 84
-0.259952 0.0175466 0.226237 115 168 80
-0.273875 0.000791278 0.219146 100 162 72
-0.273454 0.00150096 0.21933 100 162 73
-0.272391 0.00206091 0.219836 104 164 76
-0.272235 0.00282109 0.219887 109 167 79
-0.272079 0.00357983 0.219939 113 169 81
-0.272052 0.00436784 0.219925 113 165 81
-0.271897 0.00512425 0.219976 108 158 79
-0.271743 0.00587924 0.220027 102 150 72
-0.271462 0.00660063 0.220142 99 143 70
-0.270678 0.00718967 0.220508 97 139 66
-0.270277 0.00787184 0.220684 95 138 65
-0.270127 0.00861737 0.220732 95 138 66
-0.269605 0.0092605 0.220968 96 138 66
-0.268474 0.00973064 0.221511 97 138 64
-0.267358 0.010195 0.222046 96 139 64
-0.267095 0.010892 0.222153 93 140 66
-0.265999 0.0113457 0.222679 94 140 67
-0.264567 0.011691 0.223374 93 141 68
-0.264664 0.012479 0.223299 97 149 70
-0.258963 0.0137151 0.226072 108 166 79
-0.259057 0.0144786 0.226 108 167 78
-0.259151 0.0152427 0.225928 108 169 80
-0.259245 0.0160076 0.225856 109 171 83
-0.259339 0.0167731 0.225783 113 174 84
-0.259434 0.0175394 0.225711 115 172 82
-0.259528 0.0183064 0.225639 109 161 77
-0.259622 0.0190742 0.225566 102 148 72
-0.259717 0.0198426 0.225494 95 139 67
-0.273208 -4.33306e-05 0.21865 104 160 75
-0.273049 0.000724853 0.218704 100 160 74
-0.27276 0.00146264 0.218823 101 160 73
-0.271958 0.00208083 0.219202 103 162 75
-0.271674 0.00281189 0.219319 109 167 79
-0.271647 0.00360089 0.219306 115 169 79
-0.271492 0.00435878 0.219358 115 164 78
-0.271465 0.00514649 0.219345 108 157 77
-0.271438 0.00593381 0.219332 102 151 73
-0.270778 0.00655967 0.21964 98 144 70
-0.2705 0.00727837 0.219754 96 140 66
-0.270223 0.00799476 0.219868 95 139 66
-0.269823 0.00867545 0.220045 94 139 66
-0.269301 0.00931933 0.220283 95 138 66
-0.268048 0.00975599 0.220894 95 138 66
-0.266814 0.0101867 0.221494 94 139 66
-0.266074 0.0107474 0.221844 93 141 66
-0.265459 0.0113376 0.222131 93 141 66
-0.264381 0.011786 0.222653 93 143 68
-0.264129 0.0124711 0.222756 98 151 73
-0.264459 0.0133305 0.222563 104 160 77
-0.258446 0.0137077 0.225547 108 167 80
-0.25854 0.0144712 0.225475 108 166 79
-0.258633 0.0152354 0.225402 108 166 79
-0.258727 0.0160004 0.22533 110 169 81
-0.258821 0.016766 0.225257 114 174 82
-0.258915 0.0175323 0.225185 120 175 84
-0.259009 0.0182994 0.225112 115 166 80
-0.259103 0.0190671 0.225039 106 153 73
-0.259198 0.0198356 0.224967 98 141 68
-0.259292 0.0206048 0.224894 94 135 65
-0.272383 -0.000108592 0.218209 104 158 74
-0.272355 0.000686993 0.218197 99 159 74
-0.272197 0.00145326 0.218251 100 159 73
-0.271653 0.00213003 0.218502 102 164 76
-0.27137 0.0028621 0.21862 108 168 80
-0.271214 0.00362199 0.218673 113 169 81
-0.271187 0.00441122 0.21866 113 165 80
-0.271033 0.00516876 0.218712 107 158 76
-0.271006 0.0059567 0.218699 101 151 74
-0.270599 0.00664734 0.218881 98 144 72
-0.270321 0.00736746 0.218997 96 141 67
-0.270295 0.00815159 0.218984 94 140 68
-0.269768 0.00880072 0.219227 93 139 66
-0.268873 0.00934453 0.21966 93 139 66
-0.268233 0.00995098 0.219961 93 138 67
-0.266389 0.0102123 0.22088 93 139 67
-0.265651 0.0107733 0.221233 92 140 67
-0.264919 0.0113296 0.221583 93 142 65
-0.264546 0.011985 0.221749 94 142 68
-0.263593 0.0124632 0.222212 99 151 72
-0.26369 0.0132519 0.222137 104 158 75
-0.26367 0.0140056 0.222122 106 161 76
-0.257928 0.0137003 0.225022 108 167 80
-0.258022 0.0144639 0.224949 108 166 80
-0.258115 0.0152282 0.224877 110 165 80
-0.258209 0.0159931 0.224804 114 169 81
-0.258303 0.0167588 0.224731 118 175 84
-0.258396 0.0175252 0.224658 124 179 88
-0.25849 0.0182923 0.224585 122 173 87
-0.258584 0.0190602 0.224512 114 159 79
-0.258678 0.0198287 0.224439 104 145 72
-0.258772 0.0205979 0.224366 94 136 68
-0.258867 0.0213679 0.224293 90 132 65
-0.262744 -0.00207216 0.222312 102 157 72
-0.262607 -0.0013412 0.222357 99 159 73
-0.271504 0.001415 0.217745 99 158 73
-0.271348 0.00217937 0.217799 102 163 76
-0.271192 0.00294229 0.217853 109 166 79
-0.270909 0.00367342 0.217972 112 168 80
-0.271009 0.00449471 0.217894 111 164 79
-0.270854 0.00525383 0.217947 106 158 76
-0.2707 0.00601151 0.218 100 150 72
-0.270546 0.00676778 0.218053 97 147 71
-0.27052 0.00755557 0.21804 95 143 69
-0.270494 0.00834299 0.218028 94 140 70
-0.269838 0.00896048 0.21834 94 139 67
-0.269437 0.00964171 0.218521 93 139 67
-0.269162 0.0103544 0.218637 93 139 67
-0.267293 0.0106135 0.219578 93 139 67
-0.265108 0.0107651 0.220683 93 139 65
-0.264497 0.0113558 0.220974 93 141 65
-0.264124 0.0120116 0.221142 92 141 69
-0.263987 0.0127348 0.221187 97 150 72
-0.263154 0.0132441 0.221593 102 158 74
-0.262789 0.0138907 0.221757 105 162 75
-0.26277 0.0146427 0.221742 107 165 76
-0.261271 0.0149227 0.222494 106 165 79
-0.257504 0.0144566 0.224424 109 165 81
-0.257597 0.0152209 0.224351 115 167 83
-0.257691 0.0159859 0.224278 119 172 86
-0.257784 0.0167517 0.224205 122 176 89
-0.257878 0.0175181 0.224132 124 178 90
-0.257971 0.0182853 0.224059 126 177 92
-0.258065 0.0190531 0.223985 121 165 83
-0.258159 0.0198218 0.223912 110 151 75
-0.258253 0.0205911 0.223839 99 139 69
-0.258347 0.0213611 0.223765 92 132 66
-0.261977 -0.00213123 0.221889 99 155 72
-0.261956 -0.00137568 0.221874 98 158 72
-0.262167 -0.000568391 0.221739 99 158 72
-0.271298 0.00228783 0.216961 103 161 75
-0.271141 0.00305286 0.217016 108 164 79
-0.270857 0.00378591 0.217137 112 167 80
-0.270702 0.00454753 0.217191 111 164 79
-0.270674 0.00533925 0.217179 107 158 75
-0.27052 0.0060985 0.217233 101 150 72
-0.270493 0.00688891 0.217221 98 147 71
-0.270593 0.00771211 0.217142 97 145 71
-0.270694 0.00853605 0.217063 95 142 70
-0.27016 0.00918951 0.217315 95 139 68
-0.270134 0.00997732 0.217302 93 139 66
-0.264191 0.0114164 0.220303 93 140 67
-0.263819 0.0120731 0.220472 92 140 67
-0.263565 0.012762 0.220579 96 148 70
-0.262618 0.0132363 0.221049 102 156 74
-0.262139 0.0138474 0.221275 106 162 76
-0.261323 0.0143477 0.221677 107 164 76
-0.261419 0.0151318 0.221602 107 164 78
-0.260499 0.0155876 0.222058 109 164 82
-0.257079 0.0152136 0.223825 119 172 89
-0.257172 0.0159787 0.223752 125 176 93
-0.257266 0.0167445 0.223678 123 176 92
-0.257359 0.017511 0.223605 119 174 88
-0.257452 0.0182782 0.223532 122 177 91
-0.257546 0.0190462 0.223458 122 171 87
-0.257639 0.0198148 0.223385 114 159 80
-0.257733 0.0205842 0.223311 105 146 73
-0.257827 0.0213542 0.223237 96 137 67
-0.261326 -0.00216523 0.221406 100 153 71
-0.261306 -0.0014101 0.221392 97 155 70
-0.261516 -0.000603333 0.221256 99 157 71
-0.271118 0.00236724 0.216185 103 160 76
-0.271219 0.00319428 0.216106 109 164 79
-0.270933 0.00392974 0.216229 113 168 81
-0.270777 0.00469398 0.216285 111 165 79
-0.270622 0.00545674 0.21634 107 158 76
-0.270594 0.00625035 0.216328 103 150 72
-0.270694 0.00707639 0.216249 101 145 71
-0.270795 0.0079032 0.21617 98 144 71
-0.27064 0.00866274 0.216225 97 144 68
-0.27074 0.00948987 0.216145 95 141 66
-0.263513 0.0121347 0.219801 93 140 64
-0.263259 0.0128245 0.219909 95 145 69
-0.263006 0.0135122 0.220017 100 154 74
-0.261948 0.0139466 0.220551 105 160 77
-0.261018 0.0144116 0.221017 110 163 78
-0.26134 0.0152696 0.220822 115 163 82
-0.256654 0.0159715 0.223225 121 174 94
-0.256747 0.0167373 0.223152 118 172 88
-0.25684 0.0175039 0.223078 112 170 83
-0.256933 0.0182712 0.223005 113 172 86
-0.257027 0.0190392 0.222931 118 174 88
-0.25712 0.0198079 0.222857 118 166 84
-0.257213 0.0205773 0.222783 112 154 78
-0.291292 -0.00634267 0.205056 73 112 52
-0.260771 -0.00141907 0.220849 98 152 71
-0.271067 0.00247679 0.215338 105 158 75
-0.27091 0.00324555 0.215395 109 163 78
-0.270753 0.00401284 0.215452 112 166 80
-0.270853 0.00484147 0.215372 110 164 79
-0.27044 0.00554305 0.215565 106 157 76
-0.270541 0.00637078 0.215485 103 150 73
-0.270641 0.00719929 0.215405 101 146 71
-0.270998 0.00809597 0.215189 97 144 70
-0.271099 0.0089272 0.215109 96 143 67
-0.263068 0.0129225 0.219175 93 143 68
-0.262699 0.0135757 0.219347 98 150 72
-0.261986 0.014118 0.219702 105 157 76
-0.260711 0.0144756 0.220356 115 164 82
-0.260807 0.015262 0.22028 125 171 90
-0.256136 0.0159642 0.222699 115 171 87
-0.256228 0.0167302 0.222625 111 167 83
-0.256321 0.0174968 0.222551 108 165 80
-0.256414 0.0182641 0.222478 107 166 80
-0.256507 0.0190322 0.222404 110 170 81
-0.2566 0.0198009 0.22233 119 170 86
-0.290709 -0.00724712 0.204416 70 107 48
-0.290337 -0.00640665 0.204584 70 108 50
-0.290448 -0.00548886 0.204496 71 111 51
-0.271506 0.00351093 0.214196 106 156 74
-0.270443 0.00406537 0.214739 108 159 78
-0.270543 0.00489525 0.214659 109 158 77
-0.270258 0.00562972 0.214785 105 155 75
-0.270359 0.00645931 0.214705 102 150 72
-0.270844 0.00738948 0.214418 100 147 70
-0.270945 0.00822242 0.214338 97 144 68
-0.271175 0.00909071 0.214188 96 143 67
-0.26358 0.0132352 0.21806 93 141 68
-0.262623 0.0137112 0.218549 98 146 68
-0.261563 0.0141461 0.219094 104 154 74
-0.260631 0.0146119 0.219571 116 167 85
-0.26141 0.0156212 0.219126 124 175 94
-0.255617 0.015957 0.222173 112 166 82
-0.25571 0.016723 0.222099 110 165 80
-0.255802 0.0174896 0.222025 107 163 78
-0.255895 0.018257 0.22195 103 163 75
-0.255988 0.0190251 0.221876 102 165 76
-0.289594 -0.00733518 0.204032 69 105 43
-0.289704 -0.00641816 0.203943 70 106 46
-0.289815 -0.00550031 0.203854 70 107 50
-0.289926 -0.00458162 0.203765 71 109 51
-0.271065 0.00353229 0.213547 103 146 73
-0.270132 0.00411804 0.214025 103 149 75
-0.269975 0.00488606 0.214083 106 152 74
-0.270075 0.00571676 0.214002 103 151 73
-0.270891 0.00834962 0.213482 98 145 65
-0.263132 0.0140288 0.217429 96 142 66
-0.263582 0.0149423 0.217159 100 151 71
-0.260892 0.0148581 0.218596 108 162 82
-0.257033 0.0166021 0.220594 110 164 79
-0.255191 0.0167158 0.221572 112 166 81
-0.255283 0.0174825 0.221498 111 164 79
-0.255376 0.01825 0.221423 106 161 76
-0.288374 -0.00833685 0.203738 67 103 46
-0.288484 -0.00742284 0.203649 67 104 49
-0.288912 -0.00645583 0.203388 66 103 50
-0.288863 -0.0055655 0.203385 67 104 49
-0.288181 -0.00478557 0.203726 69 107 49
-0.288291 -0.0038712 0.203637 71 110 51
-0.271173 0.00287001 0.212623 105 146 71
-0.270623 0.00355368 0.212896 103 144 70
-0.26982 0.00417086 0.213308 100 148 72
-0.269791 0.0049716 0.213297 100 148 73
-0.283424 0.0126826 0.205715 98 142 66
-0.264004 0.0144611 0.2161 94 140 64
-0.254764 0.0174754 0.22097 115 166 83
-0.287792 -0.0092379 0.203101 68 101 42
-0.287744 -0.00834846 0.203098 68 101 44
-0.287537 -0.00748487 0.203182 67 102 48
-0.287647 -0.00657145 0.203093 66 102 50
-0.287599 -0.00568387 0.20309 66 102 49
-0.287551 -0.00479689 0.203088 68 103 48
-0.287503 -0.00391051 0.203085 69 105 48
-0.270599 0.00286052 0.212041 106 150 73
-0.270051 0.00354429 0.212316 103 147 72
-0.270022 0.0043489 0.212306 100 147 71
-0.283446 0.0119726 0.204771 96 142 67
-0.283405 0.0128336 0.204765 96 141 67
-0.283215 0.0136533 0.204841 95 139 68
-0.283323 0.0145542 0.204753 95 137 68
-0.282986 0.0153294 0.204911 93 139 68
-0.283094 0.0162298 0.204823 94 141 68
-0.287319 -0.00922573 0.202374 66 101 46
-0.287113 -0.00836007 0.202459 67 100 45
-0.287064 -0.00747119 0.202456 66 101 49
-0.286859 -0.00660884 0.202541 66 101 48
-0.286969 -0.00569527 0.202451 66 101 45
-0.287078 -0.00478085 0.202362 67 102 45
-0.284857 -0.00428237 0.203562 67 104 47
-0.284966 -0.00337732 0.203474 68 106 49
-0.270968 0.0022531 0.210961 106 154 76
-0.270025 0.00285104 0.211458 105 152 75
-0.269479 0.0035349 0.211736 104 149 74
-0.26945 0.00433957 0.211725 102 146 71
-0.28317 0.0111794 0.203986 95 142 69
-0.282831 0.0119629 0.204147 95 139 67
-0.28279 0.012824 0.204141 94 135 65
-0.282601 0.0136437 0.204218 91 132 66
-0.282709 0.0145447 0.20413 91 132 64
-0.282373 0.01532 0.204289 89 136 66
-0.28248 0.0162205 0.204201 92 139 68
-0.282588 0.0171219 0.204112 95 141 69
-0.286796 -0.00832257 0.201643 66 99 46
-0.286748 -0.0074322 0.201641 65 99 50
-0.286857 -0.00651641 0.201551 65 100 47
-0.286026 -0.00575983 0.201987 67 99 43
-0.283929 -0.00434831 0.203101 67 101 46
-0.281924 -0.00383337 0.204193 66 103 43
-0.281584 -0.00302321 0.204355 65 106 46
-0.270391 0.00224349 0.210375 104 152 75
-0.269451 0.00284155 0.210876 104 153 75
-0.26865 0.00346403 0.211299 104 151 75
-0.26875 0.00429892 0.211217 104 147 71
-0.283042 0.0104217 0.203114 96 143 70
-0.282553 0.0111696 0.203361 95 140 70
-0.282512 0.0120326 0.203356 95 137 68
-0.282471 0.0128951 0.20335 92 131 65
-0.282431 0.013757 0.203345 88 124 64
-0.282538 0.0146602 0.203256 88 125 62
-0.282646 0.0155642 0.203168 87 129 61
-0.282309 0.0163398 0.203329 90 132 64
-0.282122 0.0171561 0.203406 93 137 66
-0.282673 0.0181921 0.203068 95 140 68
-0.287062 -0.00729122 0.200467 64 99 49
-0.283458 -0.00433206 0.202384 67 100 44
-0.281012 -0.00389911 0.203736 66 101 41
-0.280822 -0.00306205 0.203815 67 103 41
-0.269006 0.00286247 0.21022 103 150 74
-0.268206 0.00348536 0.210647 104 150 74
-0.268562 0.00438368 0.210419 104 148 72
-0.282424 0.0104118 0.202487 97 141 69
-0.281937 0.0111598 0.202735 96 138 68
-0.282044 0.0120627 0.202646 93 133 65
-0.282003 0.0129259 0.202641 87 124 62
-0.282111 0.0138297 0.202552 80 118 59
-0.282218 0.0147343 0.202463 76 117 59
-0.282623 0.0157251 0.202205 76 119 59
-0.282285 0.0165028 0.202369 83 124 60
-0.281949 0.0172778 0.202532 89 132 63
-0.282205 0.0182274 0.202359 94 136 65
-0.282684 -0.00437054 0.201838 65 99 44
-0.280545 -0.00388265 0.203028 66 99 42
-0.279913 -0.00312876 0.203359 67 101 40
-0.279579 -0.00232314 0.203522 67 101 42
-0.268302 0.00282256 0.209711 99 142 70
-0.268402 0.0036611 0.209628 100 144 71
-0.281509 0.0103248 0.20203 97 139 67
-0.281172 0.011111 0.202194 94 137 68
-0.28128 0.0120132 0.202105 89 126 63
-0.281387 0.0129162 0.202016 81 114 57
-0.281494 0.0138201 0.201926 72 106 53
-0.281897 0.0148087 0.201667 69 104 53
-0.282302 0.0158012 0.201407 71 109 53
-0.282261 0.0166669 0.201403 75 115 54
-0.28222 0.0175321 0.201398 81 122 58
-0.283075 0.0186667 0.20088 88 128 61
-0.282017 -0.00350583 0.201204 65 98 41
-0.279888 -0.0030277 0.2024 66 99 40
-0.278096 -0.00250373 0.203402 66 99 40
-0.278201 -0.00161798 0.203314 67 100 40
-0.268113 0.00290439 0.208906 91 132 62
-0.28108 0.00948788 0.201322 95 139 67
-0.280597 0.0102381 0.201573 94 137 66
-0.280409 0.0110622 0.201654 91 133 68
-0.280516 0.0119638 0.201564 84 119 62
-0.28077 0.0129066 0.20139 74 105 54
-0.280877 0.0138105 0.2013 67 98 51
-0.281575 0.0148832 0.200869 65 98 50
-0.282129 0.0159205 0.200521 67 101 49
-0.282237 0.016832 0.20043 69 106 51
-0.282345 0.0177443 0.20034 73 111 53
-0.281395 -0.00351688 0.200573 65 96 40
-0.279419 -0.0030105 0.20169 65 97 38
-0.277487 -0.00251441 0.202784 65 97 38
-0.27716 -0.00171497 0.202946 66 98 38
-0.280462 0.00947793 0.200695 90 131 64
-0.279834 0.0101899 0.201033 91 129 62
-0.279501 0.0109747 0.201199 87 124 65
-0.279608 0.0118749 0.201109 76 109 59
-0.280153 0.0128969 0.200764 67 97 54
-0.280554 0.0138833 0.200502 63 92 52
-0.278909 -0.00212647 0.200976 64 96 37
-0.276982 -0.00163921 0.202077 64 96 36
-0.279218 0.0101801 0.200408 80 117 58
-0.278741 0.0109262 0.20066 74 109 60
-0.278847 0.0118257 0.20057 67 95 55
-0.279829 0.0129683 0.199965 64 88 53
-0.278127 0.0109164 0.200037 64 92 53
-0.278232 0.011816 0.199947 61 84 52
-0.245296 0.00290445 0.214531 55 81 40
-0.245384 0.00365941 0.214454 56 80 41
-0.245471 0.00441507 0.214377 57 81 36
-0.245646 0.00592845 0.214222 61 81 39
-0.245733 0.00668619 0.214145 61 81 38
-0.245821 0.00744463 0.214067 60 82 36
-0.245908 0.00820378 0.21399 61 82 39
-0.245996 0.00896363 0.213912 61 82 44
-0.244607 0.00138835 0.214161 57 81 37
-0.244694 0.00214197 0.214084 54 81 39
-0.24478 0.00289628 0.214007 54 80 42
-0.244867 0.00365128 0.21393 55 80 42
-0.244954 0.00440699 0.213852 58 80 38
-0.245041 0.00516339 0.213775 59 81 41
-0.245129 0.00592047 0.213697 61 81 41
-0.245216 0.00667827 0.21362 61 82 42
-0.245303 0.00743676 0.213542 61 83 39
-0.245391 0.00819597 0.213465 61 82 41
-0.245478 0.00895587 0.213387 61 82 46
-0.244005 0.000627077 0.213716 59 80 37
-0.244091 0.00138005 0.213638 60 79 38
-0.244178 0.00213372 0.213561 60 80 38
-0.244264 0.0028881 0.213483 58 81 38
-0.244351 0.00364315 0.213406 56 81 38
-0.244438 0.00439889 0.213328 59 81 41
-0.244525 0.00515537 0.213251 58 81 43
-0.244612 0.00591251 0.213173 61 81 43
-0.244699 0.00667036 0.213095 60 82 44
-0.244786 0.00742893 0.213017 62 83 42
-0.244873 0.00818816 0.212939 62 82 42
-0.24496 0.00894813 0.212861 61 82 45
-0.245048 0.00970877 0.212783 60 82 48
-0.243403 -0.000133611 0.21327 56 80 36
-0.243489 0.000618729 0.213192 61 81 36
-0.243575 0.00137176 0.213115 60 82 40
-0.243662 0.00212548 0.213037 60 80 38
-0.243748 0.00287991 0.21296 58 81 38
-0.243835 0.00363502 0.212882 57 81 40
-0.243921 0.00439084 0.212804 58 81 43
-0.244008 0.00514734 0.212726 55 83 44
-0.244095 0.00590456 0.212648 60 81 43
-0.244181 0.00666246 0.21257 61 80 42
-0.244268 0.00742105 0.212492 62 81 42
-0.244355 0.00818037 0.212414 62 82 42
-0.244442 0.00894037 0.212335 62 82 43
-0.244529 0.00970108 0.212257 61 82 46
-0.242802 -0.000893721 0.212825 57 81 39
-0.242888 -0.000142009 0.212747 59 81 35
-0.242974 0.000610377 0.212669 57 82 37
-0.24306 0.00136346 0.212591 57 80 36
-0.243146 0.00211725 0.212514 57 80 37
-0.243232 0.00287171 0.212436 57 81 39
-0.243318 0.00362688 0.212358 59 82 41
-0.243404 0.00438274 0.21228 60 82 44
-0.243491 0.00513931 0.212201 59 83 48
-0.243577 0.00589658 0.212123 59 82 46
-0.243664 0.00665453 0.212045 61 81 44
-0.243751 0.0074132 0.211966 61 81 44
-0.243837 0.00817257 0.211888 61 82 44
-0.243924 0.00893262 0.211809 60 82 45
-0.244011 0.00969338 0.211731 60 83 47
-0.242287 -0.000902176 0.212302 60 80 37
-0.242372 -0.000150412 0.212224 59 80 36
-0.242458 0.000602027 0.212146 58 81 36
-0.242544 0.00135516 0.212068 60 81 38
-0.24263 0.002109 0.21199 60 81 38
-0.242715 0.00286352 0.211912 59 81 40
-0.242802 0.00361875 0.211833 59 81 44
-0.242888 0.00437468 0.211755 60 81 44
-0.242974 0.00513128 0.211677 61 82 42
-0.24306 0.0058886 0.211598 60 83 42
-0.243146 0.00664662 0.21152 59 83 46
-0.243233 0.00740533 0.211441 62 81 43
-0.243319 0.00816476 0.211362 61 82 46
-0.243406 0.00892486 0.211283 59 82 50
-0.243492 0.0096857 0.211205 60 83 50
-0.241686 -0.00166176 0.211857 59 82 39
-0.241771 -0.000910636 0.211779 61 81 38
-0.241857 -0.000158826 0.211701 59 80 39
-0.241942 0.000593673 0.211623 58 82 39
-0.242028 0.00134687 0.211544 60 81 42
-0.242113 0.00210076 0.211466 60 81 42
-0.242199 0.00285534 0.211388 60 82 43
-0.242285 0.00361061 0.211309 61 82 42
-0.242371 0.00436659 0.211231 62 81 42
-0.242457 0.00512327 0.211152 62 80 43
-0.242543 0.00588064 0.211073 62 81 45
-0.242629 0.00663869 0.210994 61 83 47
-0.242715 0.00739747 0.210915 62 83 44
-0.242801 0.00815695 0.210836 61 83 50
-0.242888 0.00891713 0.210757 62 83 52
-0.242974 0.009678 0.210678 62 83 52
-0.24306 0.0104396 0.210599 62 83 52
-0.243407 0.013493 0.210282 63 85 54
-0.243494 0.0142581 0.210202 63 86 55
-0.241256 -0.000919101 0.211256 61 83 39
-0.241341 -0.000167238 0.211178 58 83 42
-0.241426 0.000585322 0.211099 57 83 43
-0.241512 0.00133857 0.211021 60 82 43
-0.241597 0.00209251 0.210942 60 81 44
-0.241683 0.00284714 0.210864 61 82 42
-0.241768 0.00360248 0.210785 62 83 41
-0.241854 0.0043585 0.210706 62 83 43
-0.241939 0.00511522 0.210627 61 83 48
-0.242025 0.00587266 0.210548 61 82 51
-0.242111 0.00663077 0.210469 61 83 51
-0.242197 0.0073896 0.21039 61 84 52
-0.242283 0.00814914 0.210311 62 82 51
-0.242369 0.00890937 0.210231 62 84 53
-0.242455 0.00967031 0.210152 61 84 53
-0.242542 0.0104319 0.210073 61 85 54
-0.242801 0.0127211 0.209834 65 85 56
-0.242887 0.0134856 0.209754 64 84 56
-0.242974 0.0142507 0.209674 64 87 57
-0.243061 0.0150166 0.209594 65 86 56
-0.240825 -0.000175639 0.210655 57 85 43
-0.24091 0.000576967 0.210576 58 85 44
-0.240996 0.00133027 0.210497 60 84 45
-0.241081 0.00208426 0.210418 61 82 46
-0.241166 0.00283895 0.210339 62 84 44
-0.241251 0.00359434 0.21026 62 84 44
-0.241337 0.00435042 0.210181 62 84 46
-0.241422 0.0051072 0.210102 61 85 49
-0.241508 0.00586467 0.210023 60 85 52
-0.241593 0.00662286 0.209943 60 84 53
-0.241679 0.00738175 0.209864 62 83 54
-0.241765 0.00814132 0.209785 64 85 50
-0.241851 0.0089016 0.209705 62 83 53
-0.241937 0.00966259 0.209625 62 84 55
-0.242023 0.0104243 0.209546 62 85 56
-0.242109 0.0111867 0.209466 63 86 56
-0.242195 0.0119498 0.209386 65 86 57
-0.242281 0.0127136 0.209306 66 84 57
-0.242368 0.0134781 0.209226 66 85 58
-0.242454 0.0142434 0.209146 66 85 58
-0.242541 0.0150093 0.209066 66 86 57
-0.403386 -0.0289182 0.101816 65 98 48
-0.40268 -0.0273848 0.102243 67 97 45
-0.401107 -0.0258944 0.103253 65 97 44
-0.400414 -0.0243797 0.103671 65 97 45
-0.400157 -0.0228502 0.103799 65 96 44
-0.240479 0.00132196 0.209973 59 87 50
-0.240564 0.00207601 0.209894 61 83 49
-0.240649 0.00283075 0.209815 61 85 46
-0.240734 0.00358619 0.209736 62 85 46
-0.24082 0.00434234 0.209656 62 85 47
-0.240905 0.00509917 0.209577 61 86 50
-0.24099 0.00585672 0.209498 60 86 53
-0.241076 0.00661493 0.209418 60 85 54
-0.241161 0.00737388 0.209338 63 86 54
-0.241247 0.00813352 0.209259 64 85 53
-0.241332 0.00889385 0.209179 64 85 55
-0.241418 0.00965489 0.209099 66 85 55
-0.241504 0.0104167 0.209019 65 85 55
-0.24159 0.0111791 0.208939 64 86 56
-0.241676 0.0119423 0.208859 65 87 57
-0.241762 0.0127061 0.208779 67 86 58
-0.241848 0.0134707 0.208699 65 86 60
-0.241934 0.014236 0.208618 67 85 59
-0.24202 0.015002 0.208538 68 87 60
-0.405048 -0.0320029 0.0989325 66 99 43
-0.402555 -0.0304939 0.100572 63 98 48
-0.401412 -0.0289687 0.101299 66 98 46
-0.400714 -0.0274394 0.101726 67 97 46
-0.399587 -0.0259351 0.102443 65 96 45
-0.398899 -0.0244224 0.102863 65 95 41
-0.396513 -0.0230037 0.104432 65 96 43
-0.396263 -0.0214895 0.104557 66 91 43
-0.240217 0.00357806 0.209211 62 86 47
-0.240302 0.00433426 0.209132 62 86 50
-0.240387 0.00509114 0.209052 61 87 53
-0.240472 0.00584873 0.208972 60 87 54
-0.240728 0.00812569 0.208733 64 86 55
-0.240814 0.0088861 0.208652 65 86 56
-0.240899 0.00964719 0.208572 65 87 57
-0.240985 0.010409 0.208492 65 87 58
-0.24107 0.0111715 0.208412 65 86 57
-0.241156 0.0119347 0.208332 66 85 57
-0.241242 0.0126986 0.208251 67 86 58
-0.241328 0.0134633 0.208171 68 88 58
-0.241414 0.0142286 0.20809 70 89 60
-0.242365 0.0226945 0.207199 57 83 37
-0.242451 0.0234685 0.207118 60 85 36
-0.242538 0.0242431 0.207036 60 88 39
-0.405563 -0.0335753 0.096752 65 99 43
-0.403496 -0.0320361 0.0981159 65 99 45
-0.401898 -0.0305061 0.0991598 64 98 45
-0.400756 -0.0289785 0.0998935 65 97 46
-0.400058 -0.0274469 0.100324 64 97 45
-0.398932 -0.0259404 0.101048 65 98 43
-0.397815 -0.0244451 0.101765 65 95 45
-0.395438 -0.0230262 0.103343 64 89 44
-0.394769 -0.0215355 0.103755 54 74 33
-0.240465 0.0104013 0.207965 65 87 60
-0.240551 0.0111639 0.207885 66 87 60
-0.241755 0.0219145 0.20675 55 85 35
-0.241842 0.0226878 0.206668 58 84 35
-0.241928 0.0234618 0.206586 62 87 35
-0.242015 0.0242365 0.206505 61 89 39
-0.242102 0.0250119 0.206423 62 92 41
-0.242189 0.0257881 0.206341 64 95 42
-0.407458 -0.0351501 0.0936029 66 100 48
-0.404902 -0.0335922 0.0953145 67 97 42
-0.403282 -0.0320413 0.0963832 66 96 43
-0.402567 -0.0304838 0.0968294 65 97 44
-0.400974 -0.0289612 0.0978799 65 98 43
-0.399836 -0.0274387 0.0986185 65 97 44
-0.398707 -0.0259278 0.0993507 64 93 45
-0.397159 -0.0244481 0.100372 55 81 40
-0.394784 -0.023027 0.101963 44 55 28
-0.393697 -0.0215578 0.102668 35 37 19
-0.241232 0.0219077 0.206219 56 87 38
-0.241319 0.022681 0.206137 59 86 39
-0.241405 0.0234551 0.206055 63 88 37
-0.241492 0.0242298 0.205973 63 90 39
-0.241578 0.0250053 0.205891 64 93 41
-0.241665 0.0257816 0.205809 64 96 43
-0.241752 0.0265585 0.205727 63 98 46
-0.406793 -0.0351697 0.0921463 65 98 47
-0.405145 -0.0335951 0.0932441 66 97 43
-0.403965 -0.0320279 0.0940167 65 95 46
-0.403244 -0.0304613 0.0944718 66 96 48
-0.401637 -0.0289299 0.0955415 64 96 45
-0.40005 -0.0274146 0.0965988 62 88 41
-0.398047 -0.025933 0.0979447 50 72 32
-0.396929 -0.0244313 0.098677 37 46 22
-0.240709 0.0219009 0.205688 57 87 41
-0.240796 0.0226743 0.205606 61 87 41
-0.240882 0.0234484 0.205524 64 89 39
-0.240968 0.0242232 0.205441 64 91 40
-0.241054 0.0249988 0.205359 64 94 42
-0.241141 0.0257751 0.205277 63 97 44
-0.241227 0.0265521 0.205194 62 99 46
-0.241314 0.0273298 0.205112 63 101 47
