ply
format ascii 1.0
element vertex 1269
property float x
property float y
property float z
property uchar diffuse_red
property uchar diffuse_green
property uchar diffuse_blue
end_header
-0.216666 0.186122 0.302543 85 139 66
-0.21606 0.186625 0.302555 104 152 76
-0.215641 0.187349 0.302543 111 159 79
-0.215314 0.188186 0.302521 113 160 80
-0.215458 0.189587 0.302442 113 160 81
-0.215412 0.190777 0.302384 114 161 81
-0.215081 0.191633 0.302361 116 164 82
-0.214748 0.192492 0.302338 118 156 81
-0.214266 0.194458 0.302268 88 94 64
-0.213928 0.195332 0.302244 73 71 54
-0.226915 0.155275 0.302806 69 65 42
-0.225718 0.155178 0.302886 91 87 51
-0.224896 0.155396 0.302926 110 135 70
-0.22426 0.15577 0.302946 110 156 87
-0.223624 0.156144 0.302966 126 162 96
-0.222899 0.156438 0.302996 113 145 89
-0.222354 0.15689 0.303006 96 112 70
-0.221721 0.157263 0.303025 79 80 53
-0.235842 0.182973 0.300769 55 114 44
-0.23498 0.183275 0.300807 71 127 53
-0.234459 0.183914 0.300805 90 141 63
-0.233937 0.184554 0.300804 98 148 70
-0.233415 0.185195 0.300802 96 148 68
-0.217766 0.184972 0.301794 55 105 42
-0.217159 0.185475 0.301805 52 110 45
-0.216647 0.186088 0.301805 65 121 54
-0.216228 0.186812 0.301792 88 137 66
-0.215808 0.187538 0.30178 103 152 75
-0.215198 0.188044 0.301791 109 159 80
-0.21487 0.188885 0.301767 111 160 81
-0.215011 0.190295 0.301683 113 160 81
-0.214774 0.191263 0.301646 113 161 81
-0.214535 0.192236 0.301609 117 163 82
-0.214389 0.193332 0.301559 119 157 83
-0.213808 0.195192 0.301497 86 95 63
-0.213372 0.19595 0.301483 71 72 53
-0.227651 0.154904 0.302103 62 60 45
-0.226913 0.155203 0.302135 71 74 50
-0.226085 0.155421 0.302176 95 125 64
-0.224984 0.155403 0.302249 92 140 71
-0.224164 0.15562 0.30229 87 145 70
-0.223437 0.155916 0.30232 115 163 82
-0.222802 0.156289 0.30234 117 165 88
-0.222167 0.156662 0.302361 109 148 79
-0.221534 0.157035 0.302381 99 122 68
-0.220989 0.157487 0.302391 85 94 58
-0.234989 0.183235 0.30003 54 114 40
-0.234354 0.183762 0.300041 68 125 52
-0.233832 0.184403 0.300039 85 137 63
-0.233309 0.185045 0.300037 94 145 69
-0.233122 0.186032 0.299994 96 146 69
-0.217331 0.185659 0.30104 53 104 40
-0.216722 0.186164 0.301051 55 109 45
-0.216208 0.18678 0.30105 68 119 52
-0.215882 0.187618 0.301024 87 138 66
-0.215365 0.188236 0.301023 102 154 76
-0.215225 0.189305 0.300972 109 159 80
-0.214611 0.189815 0.300983 113 161 81
-0.214467 0.190893 0.300931 112 160 81
-0.214227 0.191865 0.300892 111 159 81
-0.21408 0.192959 0.30084 114 162 83
-0.214027 0.194179 0.300775 116 159 85
-0.213347 0.195931 0.30072 87 95 61
-0.213004 0.196813 0.300693 71 70 56
-0.228218 0.155307 0.301363 62 58 43
-0.226912 0.155131 0.301461 70 74 55
-0.226175 0.155429 0.301493 102 142 74
-0.225348 0.155647 0.301536 77 131 61
-0.224249 0.155628 0.301611 65 123 54
-0.223431 0.155845 0.301653 90 136 59
-0.222705 0.15614 0.301684 106 152 72
-0.22207 0.156514 0.301705 108 157 78
-0.221436 0.156887 0.301725 108 153 77
-0.220891 0.157339 0.301735 106 138 73
-0.220346 0.157792 0.301745 94 108 62
-0.234999 0.183196 0.299251 46 109 36
-0.234249 0.183611 0.299276 52 113 41
-0.233726 0.184252 0.299274 67 121 50
-0.233203 0.184894 0.299271 84 137 63
-0.232903 0.185766 0.299239 91 143 68
-0.23294 0.186991 0.299164 93 143 67
-0.232863 0.18811 0.299103 97 149 70
-0.216894 0.186351 0.300281 59 106 39
-0.216283 0.186858 0.300292 54 109 42
-0.215766 0.187475 0.300291 66 119 50
-0.215533 0.188429 0.30025 87 138 65
-0.215108 0.189163 0.300235 105 155 77
-0.214682 0.1899 0.30022 112 161 81
-0.214443 0.190867 0.300178 112 159 80
-0.213825 0.19138 0.300189 111 159 80
-0.213583 0.192354 0.300148 111 160 80
-0.213718 0.193804 0.300053 114 162 81
-0.213567 0.194913 0.299997 116 159 83
-0.212977 0.196795 0.299925 92 100 62
-0.212727 0.197805 0.299882 74 66 55
-0.226172 0.155357 0.300818 97 132 72
-0.225436 0.155655 0.300851 72 124 57
-0.224519 0.155794 0.300906 57 113 46
-0.223334 0.155696 0.300995 70 119 48
-0.222697 0.15607 0.301016 89 136 60
-0.221972 0.156365 0.301048 100 149 72
-0.221337 0.156738 0.301069 101 151 73
-0.220704 0.157112 0.30109 105 154 75
-0.220159 0.157564 0.301099 109 152 79
-0.219789 0.158177 0.301087 105 121 70
-0.219243 0.15863 0.301096 77 79 56
-0.234257 0.183572 0.298495 46 109 36
-0.233621 0.1841 0.298507 52 110 38
-0.233209 0.184857 0.298488 64 122 49
-0.233021 0.185846 0.29844 81 136 62
-0.232719 0.186725 0.298406 90 143 65
-0.232303 0.187491 0.298387 92 142 65
-0.231997 0.188377 0.298353 93 145 66
-0.21674 0.187379 0.299477 57 107 45
-0.216126 0.187889 0.299488 55 112 44
-0.215511 0.188399 0.299499 66 121 53
-0.214991 0.189021 0.299497 86 138 66
-0.214564 0.189758 0.29948 101 153 76
-0.213948 0.19027 0.299491 109 158 80
-0.213801 0.191354 0.299434 112 158 79
-0.213842 0.192678 0.299348 112 158 78
-0.213219 0.193195 0.29936 112 161 79
-0.213257 0.194536 0.299273 116 160 81
-0.213104 0.195652 0.299214 116 158 82
-0.2127 0.197788 0.299109 100 103 67
-0.212257 0.198559 0.299092 73 69 55
-0.223781 0.15602 0.300266 55 108 37
-0.2226 0.155921 0.300357 67 119 48
-0.221964 0.156295 0.300378 86 136 64
-0.221239 0.15659 0.300411 98 145 72
-0.220693 0.157043 0.300421 100 145 70
-0.220147 0.157496 0.300431 98 145 73
-0.219601 0.157949 0.30044 104 150 77
-0.219055 0.158402 0.30045 98 129 73
-0.218858 0.159179 0.300413 88 100 61
-0.233668 0.185278 0.29764 45 111 38
-0.23314 0.185925 0.297636 60 123 50
-0.232612 0.186574 0.297632 81 137 61
-0.232082 0.187224 0.297627 92 142 64
-0.231776 0.188109 0.297591 92 141 64
-0.231356 0.188881 0.297571 92 141 65
-0.216296 0.188082 0.298707 57 106 44
-0.21568 0.188593 0.298718 54 111 45
-0.214969 0.188992 0.298743 66 120 54
-0.214352 0.189503 0.298754 85 137 66
-0.21383 0.190128 0.298751 102 151 75
-0.213213 0.19064 0.298762 111 157 79
-0.21325 0.191957 0.298673 112 158 78
-0.213477 0.193523 0.298554 111 159 79
-0.213516 0.194871 0.298463 113 160 81
-0.212888 0.195393 0.298474 115 162 82
-0.212733 0.196517 0.298412 117 159 82
-0.212228 0.198543 0.298316 93 99 67
-0.211878 0.199442 0.298282 74 68 57
-0.223044 0.156246 0.299625 50 109 37
-0.221866 0.156146 0.299719 63 117 48
-0.221319 0.156599 0.299729 81 132 61
-0.220683 0.156974 0.29975 96 143 68
-0.220136 0.157427 0.29976 97 144 69
-0.219677 0.157961 0.299757 95 148 72
-0.219218 0.158496 0.299755 99 148 74
-0.218845 0.159113 0.299741 101 138 72
-0.21891 0.160142 0.299665 92 105 67
-0.233147 0.185889 0.296845 38 112 38
-0.232504 0.186423 0.296856 56 123 48
-0.232199 0.187307 0.296819 80 136 61
-0.231554 0.187842 0.29683 92 141 66
-0.231134 0.188613 0.296808 92 141 66
-0.2306 0.189268 0.296803 91 142 65
-0.215563 0.18845 0.297977 55 107 44
-0.214946 0.188962 0.297987 56 111 44
-0.214234 0.189361 0.298013 66 121 53
-0.213617 0.189873 0.298024 86 138 65
-0.213 0.190385 0.298035 103 151 75
-0.212383 0.190898 0.298045 110 157 79
-0.212697 0.192564 0.297908 110 159 80
-0.2133 0.194612 0.297723 111 159 81
-0.213722 0.196457 0.297565 113 160 83
-0.21328 0.197227 0.297545 116 159 81
-0.212933 0.198123 0.29751 116 156 81
-0.211945 0.199552 0.297486 93 98 67
-0.211401 0.200207 0.297481 76 72 50
-0.222577 0.156712 0.298946 47 110 39
-0.221757 0.156928 0.298993 60 117 46
-0.221207 0.157384 0.299003 79 132 59
-0.220658 0.15784 0.299012 93 143 68
-0.220108 0.158296 0.299022 94 142 69
-0.219646 0.158834 0.299019 93 146 69
-0.219184 0.159372 0.299016 98 151 72
-0.218721 0.159912 0.299013 104 144 74
-0.21852 0.1607 0.298972 97 120 67
-0.232735 0.186621 0.296029 43 112 37
-0.231977 0.187039 0.296057 60 122 48
-0.231445 0.187691 0.296051 80 135 62
-0.230912 0.188345 0.296045 91 141 68
-0.230377 0.188999 0.29604 92 141 66
-0.214116 0.189219 0.297271 54 112 43
-0.213405 0.189618 0.297297 66 122 53
-0.212695 0.190017 0.297323 86 138 66
-0.211985 0.190415 0.297348 103 152 76
-0.21183 0.191499 0.297283 109 159 80
-0.213369 0.194709 0.296935 111 159 81
-0.21364 0.1977 0.296701 114 157 81
-0.213002 0.19823 0.296712 115 158 80
-0.212459 0.198883 0.296707 119 162 83
-0.211563 0.200445 0.296664 95 100 64
-0.210921 0.200977 0.296675 75 72 55
-0.221377 0.157476 0.298299 56 116 45
-0.220826 0.157933 0.298309 76 131 60
-0.220363 0.158472 0.298305 92 141 67
-0.2199 0.159011 0.298302 92 143 67
-0.219348 0.15947 0.298311 92 144 65
-0.218795 0.159928 0.298321 94 150 70
-0.21833 0.160469 0.298317 100 153 76
-0.218128 0.161261 0.298274 105 139 73
-0.217661 0.161805 0.29827 93 101 61
-0.217106 0.162266 0.29828 68 65 51
-0.231869 0.186888 0.295278 46 112 37
-0.231336 0.18754 0.295271 60 121 48
-0.230802 0.188194 0.295265 79 133 60
-0.230716 0.189325 0.295187 91 140 66
-0.213286 0.189476 0.296554 54 110 41
-0.21239 0.189649 0.296612 67 120 54
-0.211497 0.189821 0.296669 87 137 67
-0.210517 0.189879 0.296742 103 153 77
-0.210631 0.191298 0.296628 111 159 81
-0.213711 0.197806 0.295899 114 159 81
-0.213071 0.198337 0.29591 113 159 79
-0.212431 0.198868 0.295921 116 163 81
-0.211983 0.199648 0.295898 118 165 85
-0.210795 0.200838 0.295903 91 98 65
-0.210153 0.201371 0.295915 70 69 58
-0.220621 0.158648 0.297584 73 130 56
-0.220067 0.159108 0.297593 91 142 66
-0.219602 0.15965 0.297589 93 145 66
-0.219047 0.16011 0.297599 90 142 65
-0.218493 0.16057 0.297608 90 142 65
-0.217938 0.16103 0.297617 96 149 71
-0.21747 0.161574 0.297613 106 146 77
-0.216915 0.162035 0.297623 101 117 69
-0.216795 0.162919 0.297564 79 86 52
-0.231791 0.187979 0.294398 45 111 36
-0.231708 0.189113 0.294317 59 119 48
-0.21227 0.189507 0.295869 55 109 42
-0.210646 0.188781 0.296057 67 120 54
-0.209764 0.188954 0.296116 88 139 66
-0.209063 0.189349 0.296142 105 153 77
-0.213588 0.197666 0.295128 112 159 81
-0.213044 0.198321 0.295122 112 160 79
-0.212403 0.198852 0.295133 113 158 79
-0.211858 0.199509 0.295126 115 160 83
-0.211312 0.200167 0.29512 124 166 85
-0.210121 0.201359 0.295124 84 76 63
-0.209572 0.20202 0.295117 71 64 46
-0.231895 0.158819 0.295935 93 116 69
-0.231319 0.159296 0.295945 80 92 58
-0.230743 0.159774 0.295954 67 72 49
-0.220594 0.159535 0.296824 70 126 55
-0.220037 0.159997 0.296834 87 138 64
-0.21948 0.160459 0.296843 92 143 66
-0.218922 0.160921 0.296852 89 142 65
-0.218365 0.161383 0.296862 89 143 65
-0.217807 0.161846 0.296871 96 147 68
-0.217249 0.162309 0.296881 100 145 74
-0.216779 0.162856 0.296876 100 130 71
-0.216308 0.163405 0.296871 91 98 61
-0.215363 0.164505 0.296862 66 63 43
-0.231712 0.189082 0.293508 44 109 37
-0.210164 0.188195 0.295386 53 112 42
-0.209464 0.18859 0.295413 69 123 56
-0.208853 0.189096 0.295423 96 146 69
-0.208242 0.189603 0.295433 110 159 80
-0.213367 0.197402 0.294375 111 159 79
-0.21292 0.19818 0.294349 111 160 79
-0.212278 0.198712 0.29436 113 159 79
-0.211733 0.199369 0.294353 115 158 82
-0.211186 0.200028 0.294345 116 161 82
-0.210543 0.200561 0.294356 120 162 84
-0.20935 0.201755 0.29436 80 75 58
-0.208706 0.202289 0.294371 70 61 47
-0.232784 0.158525 0.295163 96 149 72
-0.231697 0.158577 0.295252 100 147 75
-0.231121 0.159055 0.295262 99 133 70
-0.230545 0.159533 0.295271 87 104 61
-0.230069 0.160097 0.295265 69 71 51
-0.229792 0.160836 0.295227 59 64 40
-0.220295 0.16018 0.2961 65 124 52
-0.219736 0.160644 0.29611 82 137 63
-0.219177 0.161107 0.296119 90 143 67
-0.218617 0.161571 0.296129 90 142 65
-0.218058 0.162035 0.296138 90 142 64
-0.217498 0.1625 0.296147 93 145 68
-0.21685 0.162879 0.296171 97 148 72
-0.21629 0.163343 0.296181 107 141 75
-0.21573 0.163807 0.29619 93 102 69
-0.214956 0.165083 0.29615 67 66 52
-0.209864 0.187832 0.294683 53 112 45
-0.209075 0.188116 0.294727 68 122 55
-0.208376 0.188511 0.294754 103 148 70
-0.207943 0.189239 0.294731 114 160 79
-0.21334 0.197384 0.293583 111 159 78
-0.212796 0.198039 0.293575 110 160 78
-0.212154 0.198572 0.293586 112 158 78
-0.211703 0.199354 0.293559 114 157 81
-0.210964 0.199763 0.293589 114 160 83
-0.210511 0.200548 0.293562 115 163 84
-0.209867 0.201082 0.293573 116 157 82
-0.208578 0.202151 0.293594 78 77 60
-0.20784 0.202558 0.293624 65 65 53
-0.232007 0.158762 0.294487 90 145 66
-0.231429 0.159242 0.294496 94 151 73
-0.23075 0.159635 0.294522 104 147 76
-0.230171 0.160115 0.294532 102 121 68
-0.230196 0.161117 0.294443 74 82 53
-0.229716 0.161687 0.294436 62 60 43
-0.220175 0.160998 0.295341 62 123 50
-0.219613 0.161464 0.29535 80 136 62
-0.219141 0.162016 0.295344 91 143 66
-0.218578 0.162482 0.295353 92 142 65
-0.217926 0.162863 0.295378 90 140 62
-0.217363 0.16333 0.295387 86 142 63
-0.216712 0.16371 0.295412 94 152 74
-0.216062 0.16409 0.295437 105 145 79
-0.215412 0.16447 0.295461 98 125 68
-0.214634 0.165752 0.295419 71 73 53
-0.209904 0.186634 0.294024 50 117 50
-0.209206 0.187029 0.294051 52 115 50
-0.208509 0.187424 0.294079 75 129 63
-0.207638 0.187598 0.294141 119 162 81
-0.207557 0.188765 0.294047 118 165 84
-0.213119 0.197119 0.292828 110 160 78
-0.212768 0.198023 0.292781 110 160 76
-0.212028 0.198431 0.292811 110 158 77
-0.211481 0.199089 0.292802 112 158 80
-0.210933 0.199748 0.292793 113 160 82
-0.210289 0.200282 0.292804 113 161 82
-0.209645 0.200817 0.292815 117 164 84
-0.209001 0.201351 0.292825 115 152 83
-0.207618 0.202293 0.292866 76 74 54
-0.289889 0.174403 0.287086 94 127 68
-0.290066 0.175622 0.28696 86 99 53
-0.232937 0.159467 0.293613 90 142 64
-0.232046 0.159689 0.293674 87 142 65
-0.231362 0.160085 0.293701 91 147 70
-0.230679 0.16048 0.293728 98 149 76
-0.230098 0.160962 0.293737 103 141 75
-0.229819 0.161708 0.293695 98 109 63
-0.229236 0.162191 0.293705 71 69 51
-0.228753 0.162763 0.293697 57 65 42
-0.220144 0.16191 0.294558 59 122 50
-0.219579 0.162379 0.294567 79 136 60
-0.219014 0.162847 0.294576 92 142 65
-0.218358 0.16323 0.294601 89 143 64
-0.217793 0.163699 0.294611 89 141 62
-0.217049 0.163994 0.294652 81 138 60
-0.216396 0.164376 0.294677 85 146 68
-0.215656 0.164669 0.294718 99 161 80
-0.215004 0.16505 0.294743 114 145 77
-0.210813 0.180423 0.293741 49 119 42
-0.210218 0.180916 0.293751 53 123 47
-0.209836 0.184084 0.293501 47 119 47
-0.209233 0.184584 0.29351 46 116 46
-0.208806 0.185299 0.293485 46 115 46
-0.208377 0.186016 0.293459 51 116 50
-0.207772 0.186518 0.293469 83 138 69
-0.206992 0.186802 0.293515 128 177 92
-0.206388 0.187304 0.293525 117 166 87
-0.212899 0.196854 0.292073 110 160 79
-0.212546 0.197757 0.292024 110 159 76
-0.211903 0.19829 0.292034 110 159 78
-0.21126 0.198824 0.292045 111 158 80
-0.210616 0.199357 0.292055 113 159 81
-0.210067 0.200017 0.292046 113 159 82
-0.209423 0.200551 0.292056 115 160 82
-0.208685 0.200959 0.292087 116 162 84
-0.20804 0.201493 0.292097 113 146 83
-0.290548 0.173615 0.286181 93 137 65
-0.28964 0.174096 0.286221 93 137 66
-0.289273 0.174944 0.286176 96 137 68
-0.289811 0.176418 0.285989 87 104 62
-0.289623 0.177404 0.285915 69 82 49
-0.289252 0.178268 0.285869 56 69 43
-0.232154 0.159706 0.292932 91 144 65
-0.231571 0.160189 0.292941 88 144 65
-0.230886 0.160585 0.292968 91 144 66
-0.230303 0.161069 0.292978 94 145 68
-0.229619 0.161464 0.293005 105 147 76
-0.229036 0.161947 0.293014 97 118 73
-0.228553 0.162519 0.293006 79 95 56
-0.228369 0.163361 0.292945 67 71 50
-0.220113 0.162832 0.293766 57 119 46
-0.219453 0.163216 0.293791 80 135 60
-0.218885 0.163688 0.293801 92 144 67
-0.218226 0.164072 0.293826 87 142 64
-0.217568 0.164455 0.293852 89 142 66
-0.216911 0.164838 0.293878 84 135 58
-0.216166 0.165133 0.29392 79 139 59
-0.215423 0.165428 0.293962 91 154 72
-0.214333 0.16537 0.294069 107 166 88
-0.214115 0.16619 0.294013 116 159 87
-0.210697 0.180279 0.293021 36 110 34
-0.210101 0.180773 0.293031 38 113 37
-0.210566 0.182518 0.292825 39 114 41
-0.210231 0.183334 0.29278 39 114 43
-0.209451 0.183622 0.292826 39 113 44
-0.209025 0.184334 0.2928 40 113 42
-0.208422 0.184835 0.292809 43 113 40
-0.207906 0.185442 0.292801 53 116 45
-0.207302 0.185943 0.292811 89 140 69
-0.206697 0.186444 0.292821 126 182 95
-0.206007 0.186836 0.292849 112 159 83
-0.205488 0.187446 0.29284 109 158 79
-0.212036 0.197121 0.291328 111 158 77
-0.211394 0.197653 0.291338 110 159 79
-0.211038 0.198558 0.291287 112 158 80
-0.210395 0.199092 0.291298 114 157 80
-0.209656 0.1995 0.291329 113 159 83
-0.209013 0.200034 0.291339 113 157 82
-0.208369 0.200567 0.29135 114 158 81
-0.207725 0.201101 0.29136 118 158 86
-0.289752 0.174033 0.285298 88 132 62
-0.289385 0.174883 0.285251 91 139 66
-0.28956 0.176109 0.285116 94 132 67
-0.289189 0.176968 0.285069 87 120 63
-0.288817 0.177831 0.285022 74 95 56
-0.288262 0.178569 0.285004 61 68 47
-0.231884 0.160382 0.292158 89 144 67
-0.231196 0.16078 0.292186 89 144 63
-0.23061 0.161265 0.292196 88 141 63
-0.230025 0.16175 0.292205 93 148 69
-0.22944 0.162235 0.292214 99 146 76
-0.228854 0.16272 0.292224 100 136 71
-0.228268 0.163206 0.292233 88 102 64
-0.228184 0.164143 0.292151 71 78 51
-0.22149 0.164081 0.292799 42 107 29
-0.220266 0.16394 0.29293 52 113 42
-0.219509 0.164238 0.292974 77 133 59
-0.218846 0.164624 0.293 88 140 66
-0.218002 0.164833 0.293061 88 143 64
-0.217341 0.165218 0.293087 87 142 66
-0.216681 0.165602 0.293113 81 136 62
-0.215228 0.165192 0.293292 73 132 59
-0.214487 0.165486 0.293335 75 140 64
-0.214181 0.16622 0.293294 87 151 72
-0.209846 0.182874 0.292106 32 110 37
-0.209244 0.183373 0.292116 33 110 40
-0.208641 0.183872 0.292126 35 110 40
-0.208214 0.184585 0.292098 40 110 36
-0.207611 0.185085 0.292108 59 118 45
-0.207007 0.185586 0.292118 101 146 70
-0.206403 0.186086 0.292127 117 171 89
-0.205799 0.186587 0.292137 106 152 75
-0.205195 0.187088 0.292147 105 155 77
-0.211528 0.196488 0.290635 109 158 79
-0.210888 0.197019 0.290645 110 159 80
-0.210531 0.197921 0.290593 113 158 80
-0.209889 0.198453 0.290603 113 158 80
-0.209247 0.198985 0.290613 112 158 84
-0.208604 0.199518 0.290624 110 158 82
-0.207961 0.200051 0.290634 112 156 80
-0.207318 0.200584 0.290644 116 156 84
-0.289865 0.17397 0.284371 78 123 58
-0.289135 0.174575 0.284382 84 128 60
-0.289309 0.1758 0.284244 86 134 61
-0.288938 0.176659 0.284195 89 141 67
-0.288565 0.17752 0.284146 95 137 70
-0.287829 0.178131 0.284158 97 110 62
-0.287272 0.178869 0.284139 68 72 47
-0.286715 0.179609 0.28412 56 60 34
-0.232232 0.161597 0.291265 88 145 65
-0.231435 0.161907 0.291313 90 143 64
-0.230743 0.162306 0.291341 87 139 64
-0.230153 0.162794 0.291351 86 142 66
-0.229462 0.163193 0.291379 93 150 72
-0.228671 0.1635 0.291426 104 144 76
-0.228082 0.163988 0.291436 97 122 69
-0.227694 0.164658 0.291407 78 90 58
-0.22148 0.164018 0.292082 55 111 40
-0.220717 0.164318 0.292127 40 109 38
-0.219864 0.164529 0.29219 48 112 42
-0.219106 0.164828 0.292235 68 128 55
-0.21835 0.165126 0.292279 84 140 63
-0.217595 0.165423 0.292324 86 142 65
-0.217022 0.165898 0.292333 82 138 65
-0.215826 0.165749 0.292465 73 132 60
-0.214991 0.165955 0.292527 61 124 54
-0.214422 0.166427 0.292536 58 125 53
-0.21429 0.167347 0.292458 64 132 58
-0.209639 0.182624 0.291397 29 106 30
-0.208948 0.183018 0.291425 31 106 32
-0.208346 0.183517 0.291435 32 107 36
-0.207831 0.184122 0.291425 42 109 37
-0.207403 0.184836 0.291397 74 129 56
-0.206799 0.185336 0.291406 113 161 79
-0.206195 0.185837 0.291416 101 154 81
-0.205591 0.186338 0.291425 96 144 69
-0.211661 0.195329 0.289935 101 151 73
-0.211117 0.19598 0.289924 105 155 78
-0.210478 0.19651 0.289934 108 157 79
-0.210026 0.197286 0.289901 111 157 79
-0.209479 0.19794 0.28989 113 158 80
-0.208931 0.198596 0.289879 113 160 83
-0.208289 0.199128 0.289889 111 158 82
-0.207647 0.199661 0.289899 111 156 80
-0.207097 0.200319 0.289888 110 150 81
-0.289982 0.172815 0.283552 49 98 28
-0.289434 0.173541 0.283533 60 108 45
-0.289065 0.17439 0.283483 75 120 57
-0.289239 0.175615 0.28334 80 128 58
-0.288686 0.176349 0.28332 81 131 56
-0.288313 0.17721 0.28327 85 133 60
-0.287576 0.177821 0.283281 90 138 70
-0.28702 0.178559 0.283262 89 125 68
-0.286282 0.17917 0.283273 86 105 55
-0.285723 0.17991 0.283254 66 76 45
-0.285163 0.180652 0.283234 54 72 38
-0.233181 0.162337 0.290348 77 136 61
-0.232272 0.162558 0.290417 88 144 65
-0.231574 0.16296 0.290447 89 142 68
-0.230773 0.16327 0.290495 88 139 63
-0.230077 0.16367 0.290525 82 136 58
-0.229382 0.16407 0.290554 85 146 66
-0.228384 0.164196 0.290641 100 165 82
-0.227793 0.164685 0.290651 118 166 86
-0.227303 0.165267 0.29064 123 137 74
-0.22194 0.1644 0.291269 87 115 53
-0.220705 0.164256 0.291409 59 112 45
-0.219943 0.164556 0.291455 42 110 37
-0.219184 0.164855 0.2915 46 113 41
-0.218426 0.165153 0.291546 64 126 53
-0.217669 0.165451 0.291592 78 137 61
-0.216826 0.165659 0.291656 82 140 64
-0.216163 0.166045 0.291683 79 137 62
-0.215324 0.166251 0.291746 66 127 56
-0.214665 0.166636 0.291773 51 115 46
-0.214356 0.167379 0.291728 44 112 42
-0.209343 0.18227 0.290706 26 98 28
-0.208478 0.182454 0.290774 29 102 27
-0.207964 0.183057 0.290764 36 107 32
-0.207537 0.183767 0.290735 58 112 42
-0.207108 0.184479 0.290705 105 136 70
-0.206591 0.185087 0.290695 107 160 85
-0.205987 0.185587 0.290704 90 135 64
-0.205383 0.186088 0.290714 90 135 63
-0.211441 0.195065 0.289183 94 142 66
-0.210897 0.195716 0.289171 101 150 71
-0.210257 0.196246 0.289181 105 154 75
-0.209618 0.196776 0.289191 109 158 79
-0.208978 0.197306 0.289201 111 157 81
-0.208524 0.198084 0.289167 111 158 80
-0.207975 0.198739 0.289155 113 156 80
-0.207333 0.199271 0.289165 113 156 79
-0.206783 0.199929 0.289154 103 140 80
-0.290098 0.171664 0.282737 45 96 31
-0.289552 0.172387 0.282717 36 95 28
-0.289184 0.173233 0.282665 41 93 28
-0.288815 0.174082 0.282613 54 103 42
-0.288988 0.175306 0.282466 69 116 53
-0.288434 0.176039 0.282446 78 126 56
-0.288061 0.1769 0.282393 81 130 57
-0.287324 0.17751 0.282405 82 130 61
-0.286767 0.178248 0.282384 81 133 62
-0.286029 0.178859 0.282396 91 135 67
-0.28547 0.179599 0.282375 88 110 62
-0.284731 0.180212 0.282387 73 88 51
-0.28417 0.180954 0.282366 61 80 41
-0.233997 0.161956 0.289552 48 109 38
-0.233188 0.162269 0.289602 53 118 47
-0.232382 0.162581 0.289652 76 136 60
-0.231682 0.162984 0.289682 88 142 65
-0.231087 0.163477 0.289691 87 144 67
-0.230286 0.163787 0.289741 87 142 64
-0.229691 0.164279 0.289751 80 137 57
-0.228892 0.164588 0.2898 75 136 57
-0.227994 0.164805 0.28987 83 145 65
-0.227401 0.165296 0.28988 98 157 77
-0.226808 0.165787 0.289889 108 164 90
-0.2225 0.164875 0.29043 99 154 83
-0.221162 0.164638 0.290593 70 127 59
-0.220116 0.164671 0.290697 53 115 44
-0.219262 0.164882 0.290763 42 109 37
-0.218502 0.165181 0.29081 46 112 38
-0.217744 0.165479 0.290857 60 124 47
-0.216898 0.165688 0.290922 73 135 57
-0.216234 0.166074 0.29095 79 137 62
-0.215482 0.166371 0.290996 74 132 59
-0.214821 0.166756 0.291023 58 120 48
-0.214247 0.167231 0.291032 41 108 38
-0.214201 0.16825 0.290929 32 108 35
-0.208522 0.181291 0.290137 26 96 23
-0.207923 0.181787 0.290146 31 98 25
-0.20767 0.182703 0.290076 56 105 39
-0.207156 0.183306 0.290065 98 132 67
-0.206813 0.184124 0.290014 107 157 85
-0.206383 0.184837 0.289983 87 134 73
-0.205779 0.185338 0.289992 78 122 58
-0.205175 0.185838 0.290002 82 126 58
-0.211221 0.194801 0.288431 88 132 62
-0.210488 0.19521 0.288463 94 139 67
-0.209849 0.195739 0.288473 99 146 72
-0.20921 0.196268 0.288483 105 155 77
-0.208664 0.19692 0.28847 107 158 78
-0.208117 0.197573 0.288458 112 157 79
-0.207569 0.198227 0.288445 111 158 78
-0.20702 0.198882 0.288433 112 155 79
-0.206378 0.199414 0.288443 92 128 78
-0.29185 0.170509 0.281752 58 91 47
-0.290758 0.170874 0.281828 60 101 46
-0.29003 0.171477 0.281839 54 96 35
-0.289302 0.17208 0.28185 37 94 30
-0.289115 0.173047 0.281765 34 94 29
-0.288745 0.173896 0.281711 36 94 30
-0.288736 0.174996 0.281592 47 100 35
-0.288182 0.175729 0.281571 63 111 44
-0.287808 0.176589 0.281517 78 122 56
-0.287252 0.177326 0.281496 83 128 58
-0.286694 0.178064 0.281474 77 128 58
-0.285956 0.178676 0.281486 83 135 63
-0.285217 0.179288 0.281497 90 134 67
-0.284478 0.179901 0.281508 92 124 64
-0.283917 0.180643 0.281487 82 104 56
-0.283177 0.181256 0.281498 69 73 50
-0.234388 0.161212 0.288835 65 99 54
-0.233792 0.161706 0.288845 60 112 48
-0.233089 0.16211 0.288875 45 111 38
-0.232388 0.162514 0.288905 50 115 46
-0.231687 0.162917 0.288935 69 131 59
-0.230987 0.163319 0.288965 84 140 67
-0.230288 0.163721 0.288995 86 144 65
-0.229692 0.164214 0.289005 82 141 61
-0.228995 0.164616 0.289035 75 133 57
-0.228297 0.165017 0.289065 67 126 54
-0.2275 0.165325 0.289115 68 128 57
-0.226705 0.165632 0.289166 74 138 65
-0.226612 0.166589 0.289071 82 149 72
-0.221718 0.165115 0.289749 64 128 58
-0.220477 0.164967 0.289896 58 118 49
-0.21971 0.165267 0.289945 50 113 42
-0.218854 0.165478 0.290012 44 109 36
-0.218093 0.165777 0.29006 42 111 36
-0.216971 0.165717 0.290185 51 121 45
-0.216306 0.166104 0.290213 68 131 56
-0.215641 0.16649 0.290241 75 133 59
-0.215066 0.166967 0.29025 65 126 52
-0.214579 0.167534 0.29024 47 112 41
-0.214092 0.168102 0.29023 29 106 34
-0.213868 0.168946 0.290161 27 104 30
-0.213997 0.170168 0.290015 32 104 30
-0.209531 0.181273 0.289278 30 101 31
-0.208316 0.181043 0.289431 30 98 29
-0.207717 0.18154 0.28944 54 102 39
-0.207377 0.18235 0.289388 96 127 62
-0.206862 0.182952 0.289377 107 152 81
-0.206519 0.183768 0.289324 87 134 74
-0.206175 0.184588 0.289271 74 115 58
-0.205571 0.185088 0.289281 71 115 54
-0.210174 0.194825 0.287734 86 130 63
-0.209629 0.195475 0.287721 92 140 68
-0.20899 0.196005 0.287731 96 148 73
-0.208351 0.196534 0.287741 102 154 76
-0.207804 0.197186 0.287727 109 155 79
-0.207164 0.197716 0.287737 109 158 79
-0.206616 0.19837 0.287724 112 155 80
-0.206066 0.199025 0.287711 86 112 73
-0.293435 0.170312 0.280673 42 45 29
-0.291601 0.170202 0.280884 48 59 32
-0.29069 0.170686 0.280928 57 82 38
-0.289962 0.171289 0.280939 58 97 43
-0.289595 0.172134 0.280885 44 97 37
-0.289226 0.172981 0.280829 36 95 30
-0.289037 0.173955 0.280741 33 94 26
-0.288666 0.17481 0.280685 36 95 24
-0.288111 0.175544 0.280663 45 99 28
-0.287737 0.176404 0.280607 63 107 41
-0.28718 0.177142 0.280585 76 122 55
-0.286441 0.177753 0.280596 80 126 58
-0.285882 0.178493 0.280573 80 126 58
-0.285143 0.179105 0.280585 80 128 58
-0.284403 0.179718 0.280596 85 136 63
-0.283663 0.180331 0.280607 96 145 72
-0.282923 0.180944 0.280619 104 121 68
-0.23299 0.161951 0.288146 63 115 53
-0.232288 0.162355 0.288177 46 110 41
-0.231587 0.162758 0.288207 49 111 41
-0.230886 0.163161 0.288238 63 125 53
-0.230187 0.163564 0.288269 78 138 62
-0.229591 0.164057 0.288278 83 142 61
-0.228995 0.164551 0.288287 78 137 58
-0.228297 0.164952 0.288317 69 127 55
-0.227599 0.165354 0.288348 56 115 47
-0.227004 0.165847 0.288357 49 112 40
-0.226408 0.166341 0.288366 52 117 41
-0.225712 0.166741 0.288396 53 119 44
-0.218932 0.165506 0.289268 51 113 46
-0.217894 0.165536 0.289377 41 110 41
-0.217225 0.165925 0.289405 34 110 36
-0.216557 0.166313 0.289434 45 117 43
-0.21589 0.166701 0.289463 66 127 57
-0.215313 0.167179 0.289472 70 129 58
-0.214736 0.167658 0.28948 55 119 48
-0.214247 0.168227 0.289469 36 108 38
-0.213757 0.168798 0.289458 29 102 30
-0.213443 0.169555 0.289408 26 99 23
-0.213481 0.170689 0.289276 27 98 26
-0.213698 0.172026 0.289103 28 98 29
-0.21329 0.172704 0.289071 31 100 26
-0.213059 0.173577 0.288998 30 99 28
-0.210795 0.180338 0.288486 46 107 42
-0.210014 0.18063 0.288537 55 111 48
-0.208971 0.180609 0.288652 58 109 46
-0.208109 0.180795 0.288725 74 118 50
-0.20751 0.181292 0.288734 95 137 66
-0.207084 0.181997 0.288701 102 145 79
-0.206655 0.182704 0.288668 89 135 73
-0.206226 0.183413 0.288635 70 112 59
-0.205967 0.184338 0.288559 65 106 52
-0.205363 0.184839 0.288569 66 109 52
-0.209954 0.194562 0.286983 79 123 60
-0.209222 0.19497 0.287016 84 132 64
-0.208677 0.19562 0.287002 90 141 68
-0.208131 0.19627 0.286988 96 146 73
-0.207491 0.1968 0.286998 106 151 76
-0.206852 0.19733 0.287008 108 154 78
-0.206212 0.19786 0.287018 111 154 81
-0.205663 0.198513 0.287004 84 94 68
-0.290987 0.170736 0.27996 47 52 30
-0.290256 0.171341 0.279971 50 75 32
-0.289707 0.172067 0.279948 49 87 37
-0.28952 0.173038 0.279857 43 92 32
-0.288786 0.173646 0.279868 37 94 27
-0.288414 0.1745 0.27981 35 95 24
-0.287859 0.175233 0.279787 36 94 23
-0.287484 0.176093 0.279729 43 95 25
-0.286927 0.17683 0.279706 57 107 42
-0.286188 0.177442 0.279717 74 118 52
-0.285629 0.178181 0.279694 80 124 57
-0.284889 0.178794 0.279705 80 126 58
-0.284149 0.179407 0.279716 79 125 55
-0.283409 0.18002 0.279728 75 129 58
-0.282669 0.180633 0.279739 91 139 69
-0.232188 0.162196 0.287447 65 123 53
-0.231591 0.162691 0.287457 52 113 39
-0.23089 0.163094 0.287488 49 113 39
-0.230189 0.163497 0.287519 58 122 49
-0.229592 0.163992 0.287528 72 133 57
-0.228995 0.164486 0.287537 78 138 59
-0.228296 0.164888 0.287568 75 133 58
-0.227699 0.165383 0.287577 61 120 50
-0.227001 0.165784 0.287608 46 108 34
-0.226404 0.166278 0.287617 39 108 30
-0.225807 0.166773 0.287626 39 109 32
-0.22531 0.167362 0.287613 38 110 34
-0.218061 0.165655 0.288611 53 112 46
-0.21739 0.166044 0.288641 43 109 40
-0.216539 0.166253 0.288711 31 105 34
-0.215782 0.166551 0.28876 41 107 40
-0.215204 0.16703 0.288769 61 121 53
-0.214626 0.167508 0.288778 64 126 55
-0.214225 0.16817 0.288746 50 112 45
-0.213823 0.168833 0.288714 36 102 34
-0.213597 0.169685 0.288641 30 98 26
-0.213369 0.170541 0.288567 23 93 28
-0.213229 0.171497 0.288473 29 92 25
-0.21291 0.172268 0.288419 35 94 24
-0.2125 0.172946 0.288386 39 97 26
-0.212266 0.173821 0.288311 37 101 33
-0.212816 0.177888 0.287782 62 114 48
-0.212214 0.178386 0.287791 56 112 46
-0.211703 0.178987 0.287778 48 104 37
-0.2111 0.179486 0.287787 48 102 38
-0.210409 0.179882 0.287818 69 118 50
-0.209718 0.180277 0.287849 89 133 61
-0.208765 0.180361 0.287945 96 142 68
-0.208164 0.180858 0.287954 102 148 74
-0.207477 0.181251 0.287984 98 145 76
-0.206963 0.181853 0.287972 85 131 71
-0.206448 0.182455 0.287959 69 111 56
-0.206018 0.183164 0.287925 61 101 48
-0.205759 0.184088 0.287847 61 99 47
-0.209903 0.193173 0.286342 68 112 55
-0.209267 0.193699 0.286352 73 115 57
-0.208631 0.194226 0.286361 78 123 60
-0.208087 0.194873 0.286347 84 131 63
-0.207542 0.195522 0.286332 90 137 68
-0.206905 0.19605 0.286342 98 145 72
-0.206267 0.196578 0.286352 103 149 75
-0.205629 0.197106 0.286361 105 148 80
-0.205081 0.197757 0.286347 79 82 63
-0.290553 0.171393 0.278996 46 51 27
-0.290002 0.172121 0.278972 47 63 30
-0.289269 0.172729 0.278983 47 78 31
-0.288535 0.173336 0.278994 45 89 31
-0.287801 0.173944 0.279005 40 94 30
-0.287607 0.174923 0.278911 36 95 27
-0.287412 0.175908 0.278817 31 93 24
-0.286674 0.176519 0.278828 37 92 26
-0.286115 0.177258 0.278803 49 101 38
-0.285375 0.17787 0.278815 67 114 52
-0.284636 0.178483 0.278826 78 125 58
-0.283896 0.179095 0.278837 81 131 56
-0.283156 0.179708 0.278848 78 126 55
-0.282415 0.180322 0.278859 79 128 56
-0.230789 0.162936 0.286757 53 112 39
-0.230191 0.163431 0.286766 50 112 40
-0.229593 0.163926 0.286775 54 118 48
-0.228995 0.164421 0.286784 67 129 56
-0.228397 0.164916 0.286793 76 133 60
-0.227799 0.165412 0.286802 71 127 57
-0.227201 0.165907 0.286811 57 112 41
-0.226501 0.166309 0.286843 40 104 32
-0.225702 0.166617 0.286897 33 103 30
-0.225105 0.167112 0.286906 33 105 30
-0.225005 0.168081 0.286802 34 106 30
-0.215942 0.166672 0.287994 32 102 31
-0.215184 0.166971 0.288044 38 102 34
-0.214605 0.16745 0.288053 51 115 48
-0.214204 0.168112 0.28802 54 116 49
-0.213979 0.168961 0.287945 43 106 40
-0.213752 0.169815 0.287869 36 100 28
-0.213613 0.170768 0.287772 29 93 25
-0.213206 0.171443 0.287738 28 92 28
-0.212708 0.172024 0.287726 35 95 35
-0.212298 0.172702 0.287692 44 99 37
-0.212063 0.173576 0.287615 50 102 39
-0.212542 0.175242 0.287363 53 108 43
-0.213028 0.176938 0.287107 63 117 51
-0.212428 0.177435 0.287116 77 126 57
-0.211917 0.178035 0.287103 74 127 59
-0.211405 0.178635 0.28709 74 124 57
-0.210804 0.179134 0.287099 83 130 60
-0.210202 0.179632 0.287108 98 146 71
-0.209599 0.180131 0.287117 105 155 77
-0.208821 0.180422 0.28717 103 153 77
-0.207958 0.180609 0.287246 94 144 74
-0.207357 0.181107 0.287255 79 125 66
-0.206843 0.181709 0.287242 67 108 55
-0.206413 0.182416 0.287206 61 100 47
-0.205897 0.183021 0.287193 59 98 45
-0.209684 0.19291 0.285593 63 106 54
-0.208955 0.193318 0.285627 69 109 53
-0.20832 0.193844 0.285637 73 115 56
-0.207776 0.194491 0.285622 77 123 59
-0.207139 0.195018 0.285631 83 129 63
-0.206503 0.195545 0.285641 89 137 67
-0.205866 0.196072 0.28565 96 143 70
-0.205229 0.1966 0.28566 92 133 75
-0.204592 0.197127 0.285669 73 74 57
-0.289017 0.172419 0.27811 46 58 26
-0.288284 0.173027 0.278121 48 74 30
-0.28755 0.173634 0.278132 47 88 32
-0.287898 0.174985 0.277927 40 96 29
-0.28734 0.175722 0.277902 34 94 28
-0.286601 0.176334 0.277913 29 94 25
-0.285861 0.176946 0.277924 30 93 25
-0.285122 0.177559 0.277935 40 97 33
-0.284382 0.178171 0.277946 56 110 47
-0.283642 0.178784 0.277957 73 125 56
-0.282902 0.179397 0.277968 80 131 57
-0.282162 0.18001 0.277979 77 129 59
-0.229594 0.16386 0.286021 46 110 42
-0.228996 0.164356 0.28603 48 115 44
-0.228397 0.164852 0.286039 65 124 54
-0.227797 0.165348 0.286047 77 131 61
-0.227198 0.165844 0.286056 62 120 52
-0.226598 0.166341 0.286065 47 105 38
-0.225999 0.166837 0.286074 33 102 32
-0.225399 0.167334 0.286083 28 97 30
-0.224799 0.167831 0.286092 28 96 25
-0.224498 0.168614 0.286031 26 97 24
-0.223896 0.169112 0.28604 27 99 25
-0.215031 0.167848 0.287219 35 99 27
-0.214449 0.16833 0.287227 52 111 42
-0.214403 0.169369 0.287106 55 114 50
-0.213997 0.17004 0.287072 54 102 39
-0.21359 0.170714 0.287037 54 102 37
-0.213093 0.171294 0.287024 57 110 42
-0.212683 0.171971 0.286988 57 112 48
-0.212272 0.17265 0.286953 57 111 49
-0.211949 0.173428 0.286896 60 114 49
-0.212877 0.175591 0.286526 65 119 52
-0.21264 0.176487 0.286444 74 128 59
-0.212221 0.177186 0.286407 83 136 66
-0.21171 0.177785 0.286393 87 137 69
-0.211198 0.178386 0.28638 95 146 72
-0.210686 0.178987 0.286366 103 155 78
-0.210083 0.179486 0.286375 101 154 81
-0.20948 0.179985 0.286383 91 145 77
-0.20879 0.18038 0.286415 82 130 67
-0.208099 0.180776 0.286447 73 116 57
-0.207497 0.181274 0.286456 64 105 52
-0.206895 0.181773 0.286465 61 99 48
-0.206292 0.182272 0.286474 60 97 45
-0.205947 0.183088 0.286414 59 97 45
-0.209465 0.192648 0.284844 61 102 50
-0.208736 0.193055 0.284879 65 105 50
-0.208101 0.193582 0.284888 68 110 53
-0.207465 0.194108 0.284898 70 115 57
-0.206738 0.194515 0.284932 77 123 58
-0.206102 0.195042 0.284942 82 129 63
-0.205467 0.195568 0.284951 89 132 66
-0.204831 0.196095 0.28496 78 109 69
-0.204194 0.196622 0.28497 69 67 51
-0.288213 0.172839 0.277211 45 55 23
-0.282648 0.179085 0.277088 68 122 54
-0.281908 0.179699 0.277099 77 128 60
-0.228293 0.164694 0.285305 43 108 35
-0.227693 0.165191 0.285314 59 119 53
-0.227195 0.165781 0.285299 68 128 58
-0.226696 0.166372 0.285284 54 112 46
-0.226196 0.166964 0.285269 41 107 36
-0.225595 0.167462 0.285278 32 97 30
-0.224993 0.167961 0.285287 26 92 25
-0.224291 0.168363 0.285319 29 92 21
-0.223689 0.168862 0.285328 33 95 23
-0.22289 0.169168 0.285384 34 98 27
-0.222289 0.169666 0.285393 36 101 29
-0.217483 0.170318 0.285879 47 99 32
-0.216611 0.170523 0.285957 64 113 46
-0.215285 0.170252 0.286147 76 133 61
-0.214605 0.170645 0.286178 80 130 59
-0.214016 0.171133 0.286187 81 133 61
-0.213337 0.171526 0.286218 79 132 60
-0.212748 0.172014 0.286227 74 128 59
-0.212336 0.172694 0.28619 69 124 58
-0.212727 0.174256 0.285949 69 124 56
-0.213033 0.175742 0.285727 71 127 58
-0.212615 0.17644 0.285689 77 133 63
-0.212104 0.177038 0.285675 86 139 70
-0.211593 0.177638 0.28566 98 145 75
-0.211081 0.178238 0.285646 104 152 77
-0.210568 0.17884 0.285631 96 147 76
-0.209965 0.179339 0.28564 80 130 69
-0.209361 0.179839 0.285649 68 113 59
-0.208758 0.180338 0.285658 64 104 53
-0.208154 0.180838 0.285667 63 101 49
-0.207551 0.181338 0.285676 60 99 48
-0.206947 0.181838 0.285684 60 97 47
-0.206343 0.182338 0.285693 60 96 43
-0.209882 0.191859 0.284086 61 95 45
-0.209246 0.192385 0.284095 61 97 45
-0.208425 0.192675 0.284156 63 101 48
-0.207698 0.193082 0.284191 64 104 52
-0.207063 0.193608 0.2842 67 108 54
-0.206428 0.194133 0.28421 70 116 55
-0.205793 0.194659 0.284219 76 121 59
-0.205158 0.195186 0.284228 83 120 63
-0.204522 0.195712 0.284238 68 81 61
-0.203886 0.196238 0.284247 66 63 47
-0.281654 0.179387 0.276218 65 117 52
-0.280913 0.18 0.276229 73 126 56
-0.228618 0.16597 0.284335 33 99 27
-0.228013 0.16647 0.284344 50 113 47
-0.227305 0.166876 0.284377 59 119 51
-0.226701 0.167377 0.284386 48 111 38
-0.225994 0.167782 0.284419 38 100 29
-0.225289 0.168187 0.284453 30 93 26
-0.224584 0.168591 0.284486 32 91 26
-0.223483 0.168611 0.284616 40 94 30
-0.222684 0.168917 0.284673 46 99 34
-0.221887 0.169223 0.28473 50 104 37
-0.221189 0.169624 0.284763 56 111 44
-0.220492 0.170025 0.284796 69 121 52
-0.219509 0.170136 0.2849 79 128 58
-0.218154 0.169865 0.285098 70 123 55
-0.217372 0.170166 0.285154 75 124 54
-0.216685 0.170563 0.285186 88 138 63
-0.215814 0.170767 0.285265 98 153 73
-0.215038 0.171067 0.28532 98 155 73
-0.214265 0.171365 0.285375 91 154 75
-0.213403 0.171568 0.285453 83 142 69
-0.212813 0.172057 0.285461 78 134 64
-0.2124 0.172739 0.285424 75 130 62
-0.213427 0.174997 0.285011 76 128 61
-0.2131 0.175794 0.284948 77 131 63
-0.212499 0.176291 0.284957 83 136 67
-0.212078 0.176991 0.284918 97 145 73
-0.211476 0.17749 0.284926 104 152 78
-0.210963 0.178091 0.284911 93 141 72
-0.21036 0.17859 0.28492 74 118 60
-0.209846 0.179192 0.284905 62 104 50
-0.209242 0.179692 0.284913 56 99 47
-0.208638 0.180192 0.284922 57 99 48
-0.208122 0.180797 0.284907 59 99 48
-0.20743 0.181193 0.28494 59 99 48
-0.206912 0.181798 0.284925 58 98 47
-0.210111 0.190835 0.28338 60 94 44
-0.209291 0.191127 0.283442 61 92 43
-0.208841 0.191887 0.283399 61 94 43
-0.208114 0.192294 0.283434 61 97 45
-0.207388 0.192702 0.28347 63 99 49
-0.206754 0.193227 0.283479 65 104 52
-0.206209 0.193871 0.283462 66 108 53
-0.205574 0.194397 0.283471 72 109 55
-0.204939 0.194924 0.28348 73 103 60
-0.204303 0.19545 0.283489 67 67 53
-0.282317 0.17859 0.275289 33 93 27
-0.2814 0.179075 0.275338 43 100 37
-0.280659 0.179689 0.275348 57 113 48
-0.231984 0.167898 0.282892 55 109 40
-0.229767 0.166953 0.283289 37 105 34
-0.22853 0.166883 0.283451 32 97 27
-0.227715 0.167195 0.28351 53 107 41
-0.226799 0.167411 0.283595 55 117 49
-0.226193 0.167912 0.283603 55 109 44
-0.225384 0.168222 0.283662 59 106 44
-0.224377 0.168339 0.283771 61 110 45
-0.223276 0.16836 0.283904 62 112 45
-0.222674 0.168858 0.283913 61 113 47
-0.221778 0.169069 0.283995 62 116 50
-0.220983 0.169374 0.284053 68 123 54
-0.219997 0.169488 0.284159 78 132 59
-0.218828 0.16941 0.284314 88 141 65
-0.217949 0.169617 0.284395 90 143 68
-0.217167 0.169919 0.284451 103 158 74
-0.21648 0.170316 0.284484 111 170 82
-0.215702 0.170616 0.28454 109 167 83
-0.215017 0.171012 0.284572 103 162 79
-0.214242 0.171311 0.284629 91 151 75
-0.213559 0.171705 0.284661 85 140 69
-0.212878 0.172099 0.284693 85 136 66
-0.212464 0.172783 0.284654 84 135 67
-0.213677 0.175247 0.284181 81 137 70
-0.213075 0.175745 0.284189 82 140 75
-0.212473 0.176243 0.284198 98 146 80
-0.211961 0.176843 0.284182 108 155 83
-0.211358 0.177342 0.284191 92 141 75
-0.210756 0.177841 0.2842 73 116 59
-0.210331 0.178545 0.284159 63 102 47
-0.209727 0.179045 0.284168 57 98 43
-0.209211 0.179649 0.284152 53 97 42
-0.210527 0.190048 0.282623 57 93 44
-0.209706 0.19034 0.282686 58 94 41
-0.209072 0.190865 0.282695 61 92 37
-0.208438 0.19139 0.282704 59 93 42
-0.207804 0.191915 0.282713 60 93 42
-0.207079 0.192322 0.282749 61 96 43
-0.206444 0.192847 0.282758 61 97 51
-0.2059 0.193491 0.282741 65 104 52
-0.205265 0.194016 0.28275 72 102 57
-0.20472 0.194662 0.282732 64 72 58
-0.275274 0.166856 0.276799 44 51 24
-0.274736 0.167546 0.276774 45 58 28
-0.282063 0.178278 0.274407 29 95 29
-0.281146 0.178764 0.274457 30 93 28
-0.280405 0.179377 0.274468 35 98 31
-0.279664 0.179991 0.274478 49 110 42
-0.234394 0.166787 0.281946 39 97 25
-0.233553 0.167105 0.282009 42 99 26
-0.232934 0.167617 0.282018 49 104 34
-0.231019 0.166961 0.282347 65 116 49
-0.229874 0.166986 0.282488 56 117 50
-0.228842 0.167108 0.282601 56 104 40
-0.227713 0.167133 0.28274 69 111 46
-0.226899 0.167444 0.2828 79 132 60
-0.225985 0.16766 0.282886 82 138 63
-0.225378 0.168162 0.282894 84 136 65
-0.224269 0.168183 0.283031 81 132 63
-0.223565 0.168587 0.283065 76 127 59
-0.222467 0.168608 0.2832 72 125 56
-0.221571 0.168819 0.283284 71 125 57
-0.220776 0.169125 0.283343 74 129 59
-0.219887 0.169334 0.283426 81 136 64
-0.218907 0.169447 0.283534 92 147 70
-0.217838 0.169465 0.283666 106 161 79
-0.217149 0.169862 0.283699 120 179 87
-0.216369 0.170164 0.283757 119 181 91
-0.215682 0.170561 0.28379 112 174 88
-0.214904 0.170861 0.283847 102 165 83
-0.21422 0.171256 0.28388 91 148 79
-0.213446 0.171555 0.283937 88 140 76
-0.212853 0.172046 0.283945 91 137 74
-0.214071 0.174499 0.283462 91 141 73
-0.213561 0.175097 0.283445 87 148 78
-0.212959 0.175595 0.283454 91 152 88
-0.212356 0.176094 0.283462 106 165 96
-0.211844 0.176694 0.283446 96 150 83
-0.211331 0.177295 0.283429 74 119 62
-0.210727 0.177795 0.283438 63 103 48
-0.210123 0.178295 0.283447 60 98 45
-0.209608 0.178898 0.28343 59 98 46
-0.211415 0.189841 0.281729 59 94 46
-0.210308 0.189786 0.281875 58 95 46
-0.209395 0.189962 0.281966 57 92 46
-0.208854 0.190603 0.281948 59 91 42
-0.208128 0.191011 0.281984 60 93 46
-0.207494 0.191535 0.281993 59 94 47
-0.20686 0.19206 0.282002 60 95 46
-0.206226 0.192585 0.282011 63 94 45
-0.205592 0.19311 0.28202 67 97 54
-0.205047 0.193754 0.282002 64 79 57
-0.274337 0.16714 0.275978 45 48 25
-0.273797 0.16783 0.275952 52 61 32
-0.281985 0.178094 0.273486 31 98 30
-0.280892 0.178452 0.273576 30 96 28
-0.280151 0.179065 0.273587 30 94 26
-0.27941 0.179679 0.273597 31 94 27
-0.23407 0.16643 0.281239 53 102 35
-0.232903 0.166458 0.281385 58 109 39
-0.231422 0.166196 0.281611 66 118 48
-0.230808 0.166704 0.28162 77 132 60
-0.229875 0.166923 0.281709 75 136 65
-0.229052 0.167237 0.281771 83 131 60
-0.228022 0.167358 0.281887 95 145 65
-0.226895 0.167382 0.282028 101 157 73
-0.22598 0.167598 0.282115 99 157 74
-0.22517 0.167909 0.282176 92 150 72
-0.224362 0.168218 0.282237 84 140 69
-0.223357 0.168336 0.28235 79 132 65
-0.22226 0.168357 0.282488 78 130 61
-0.221365 0.168568 0.282573 79 130 60
-0.22057 0.168875 0.282633 81 133 62
-0.219681 0.169085 0.282718 87 141 68
-0.218797 0.169294 0.282802 102 158 77
-0.217727 0.169312 0.282937 114 178 89
-0.217038 0.16971 0.282971 118 182 92
-0.216257 0.170012 0.283029 114 176 90
-0.215569 0.170409 0.283062 104 168 87
-0.214883 0.170805 0.283096 95 158 81
-0.214197 0.171202 0.283129 87 149 84
-0.213603 0.171694 0.283137 81 141 84
-0.21337 0.172574 0.283046 79 139 80
-0.213864 0.174249 0.282751 80 138 71
-0.213537 0.175047 0.282683 81 139 68
-0.212934 0.175546 0.282691 105 154 76
-0.21233 0.176046 0.2827 105 156 80
-0.211817 0.176647 0.282683 83 132 64
-0.211123 0.177045 0.282717 67 110 52
-0.210609 0.177647 0.2827 62 101 45
-0.210004 0.178147 0.282708 60 98 42
-0.212119 0.1894 0.280884 63 93 41
-0.211196 0.189578 0.280978 58 92 43
-0.21009 0.189523 0.281127 59 93 43
-0.209269 0.189816 0.281192 57 92 46
-0.208543 0.190225 0.281229 57 91 44
-0.207909 0.190749 0.281238 59 91 48
-0.207276 0.191274 0.281247 58 92 50
-0.206642 0.191798 0.281256 62 94 46
-0.206007 0.192323 0.281265 65 95 51
-0.205373 0.192848 0.281273 62 77 52
-0.274097 0.166846 0.275147 45 46 26
-0.273558 0.167535 0.27512 54 60 36
-0.273495 0.168563 0.274983 102 109 55
-0.280638 0.17814 0.272696 31 99 29
-0.279897 0.178754 0.272706 31 97 28
-0.279156 0.179367 0.272716 28 94 24
-0.266636 0.18024 0.27423 30 93 24
-0.265916 0.180835 0.27424 35 96 27
-0.232691 0.166199 0.280653 66 119 53
-0.231211 0.165939 0.280883 72 127 57
-0.230384 0.166256 0.280947 81 137 65
-0.229771 0.166763 0.280955 92 146 71
-0.228946 0.167078 0.281019 105 160 76
-0.22802 0.167296 0.281109 113 171 82
-0.226789 0.167224 0.28128 112 172 83
-0.225873 0.16744 0.281369 104 163 79
-0.224961 0.167656 0.281458 93 148 72
-0.224154 0.167966 0.28152 85 138 68
-0.22315 0.168084 0.281635 83 135 66
-0.222053 0.168106 0.281775 82 135 66
-0.221061 0.168223 0.281888 84 136 66
-0.220267 0.168529 0.281949 86 138 69
-0.219475 0.168835 0.282009 93 147 73
-0.218591 0.169045 0.282095 105 167 83
-0.217616 0.169159 0.282206 106 171 88
-0.216926 0.169557 0.28224 104 169 87
-0.216144 0.16986 0.2823 94 160 82
-0.215457 0.170257 0.282334 85 150 76
-0.214861 0.17075 0.282342 82 139 67
-0.214266 0.171243 0.28235 79 133 62
-0.213761 0.171832 0.282333 75 134 61
-0.213801 0.173009 0.282161 71 132 58
-0.213749 0.174099 0.282014 69 131 59
-0.213513 0.174997 0.281918 95 137 68
-0.212909 0.175497 0.281927 110 159 84
-0.212395 0.176098 0.281909 97 146 73
-0.2117 0.176497 0.281943 78 123 57
-0.211095 0.176998 0.281952 68 113 54
-0.210401 0.177396 0.281986 63 104 50
-0.214063 0.186566 0.280212 57 97 44
-0.213813 0.187552 0.280105 59 96 40
-0.213176 0.18808 0.280114 60 95 40
-0.212537 0.188608 0.280123 67 91 40
-0.211899 0.189136 0.280132 61 91 40
-0.211071 0.189431 0.280198 57 92 44
-0.209965 0.189377 0.280351 58 93 47
-0.209144 0.18967 0.280417 57 91 49
-0.208417 0.190079 0.280454 58 92 46
-0.207783 0.190604 0.280463 61 93 48
-0.207148 0.191129 0.280472 61 95 51
-0.206423 0.191537 0.280509 64 91 51
-0.205789 0.192062 0.280517 64 73 50
-0.274017 0.166662 0.274278 47 48 26
-0.273796 0.167575 0.274176 60 63 40
-0.273574 0.168493 0.274073 112 134 66
-0.279992 0.178698 0.271741 35 99 28
-0.265297 0.179068 0.273647 40 97 31
-0.264274 0.179413 0.273734 43 100 36
-0.232479 0.165941 0.279921 72 126 60
-0.231 0.165683 0.280156 77 132 61
-0.230173 0.165999 0.28022 90 141 67
-0.229454 0.166411 0.280257 108 159 78
-0.228841 0.166919 0.280265 118 175 85
-0.22781 0.16704 0.280385 118 179 89
-0.226785 0.167162 0.280504 112 173 88
-0.225664 0.167187 0.28065 101 160 82
-0.224753 0.167403 0.28074 92 147 75
-0.223946 0.167713 0.280803 87 139 69
-0.222942 0.167832 0.280919 85 137 67
-0.221846 0.167855 0.281062 83 138 68
-0.220854 0.167972 0.281177 81 139 70
-0.220061 0.168279 0.281239 81 140 72
-0.219269 0.168586 0.2813 86 146 72
-0.218385 0.168796 0.281388 88 151 72
-0.217505 0.169005 0.281475 84 148 72
-0.216721 0.169309 0.281535 83 144 66
-0.216032 0.169707 0.28157 78 139 62
-0.215344 0.170105 0.281604 73 133 57
-0.214748 0.170598 0.281612 69 128 54
-0.214243 0.171188 0.281594 66 123 52
-0.214194 0.172264 0.281445 64 126 55
-0.214144 0.17335 0.281295 64 125 57
-0.214001 0.174346 0.28117 76 130 61
-0.213581 0.175047 0.281125 109 163 80
-0.212975 0.175548 0.281133 106 158 80
-0.212369 0.176049 0.281141 88 135 65
-0.211673 0.176449 0.281176 78 123 57
-0.211067 0.17695 0.281184 72 116 55
-0.214339 0.184352 0.279678 58 99 43
-0.213803 0.184987 0.279658 59 98 42
-0.213555 0.185962 0.27955 59 98 43
-0.213401 0.187058 0.279412 61 97 40
-0.212956 0.187816 0.279362 60 95 39
-0.212318 0.188344 0.27937 60 94 42
-0.211679 0.188872 0.279379 58 93 43
-0.210946 0.189284 0.279417 58 92 45
-0.210026 0.189462 0.279514 59 92 45
-0.208925 0.189408 0.279669 59 92 48
-0.20829 0.189933 0.279678 60 91 51
-0.207655 0.190458 0.279686 62 90 52
-0.20702 0.190984 0.279695 61 84 52
-0.206385 0.191509 0.279704 64 73 46
-0.274257 0.166699 0.273332 49 48 30
-0.274036 0.167615 0.273226 66 63 48
-0.273975 0.168648 0.273082 120 153 76
-0.264589 0.178399 0.272915 71 113 50
-0.263569 0.178744 0.273003 65 116 50
-0.263161 0.179581 0.272935 68 122 53
-0.232267 0.165683 0.279189 82 133 65
-0.230789 0.165426 0.279428 87 139 65
-0.229963 0.165743 0.279493 100 153 75
-0.229244 0.166155 0.27953 112 169 87
-0.228212 0.166279 0.279652 115 175 89
-0.2276 0.166785 0.27966 110 172 87
-0.226576 0.166907 0.279782 101 164 84
-0.225557 0.167029 0.279902 91 152 78
-0.224645 0.167245 0.279994 84 141 73
-0.223837 0.167556 0.280058 81 136 68
-0.222833 0.167675 0.280177 79 134 64
-0.221639 0.167604 0.28035 76 133 62
-0.220648 0.167722 0.280467 74 135 61
-0.219854 0.168029 0.280529 74 138 61
-0.218968 0.168241 0.280618 75 140 61
-0.21818 0.168547 0.28068 75 139 62
-0.2173 0.168757 0.280769 71 136 60
-0.216516 0.169061 0.28083 70 133 56
-0.215827 0.169459 0.280865 66 129 56
-0.215231 0.169953 0.280873 67 125 56
-0.214726 0.170542 0.280854 72 124 57
-0.214771 0.171714 0.280675 79 126 56
