ply
format ascii 1.0
element vertex 1280
property float x
property float y
property float z
property uchar diffuse_red
property uchar diffuse_green
property uchar diffuse_blue
end_header
-0.333991 0.119187 0.186858 52 47 38
-0.336691 0.122122 0.185453 53 53 35
-0.337154 0.123927 0.18513 54 56 34
-0.338001 0.125942 0.18462 53 51 33
-0.341182 0.12921 0.182975 53 47 34
-0.342849 0.131703 0.182064 56 46 34
-0.342944 0.133366 0.181917 57 46 34
-0.344236 0.135688 0.181186 61 49 34
-0.345542 0.138037 0.180448 65 47 36
-0.345642 0.139729 0.180296 61 53 40
-0.32402 0.095155 0.191378 59 99 40
-0.323403 0.0963372 0.191585 58 100 42
-0.322787 0.0975164 0.191791 52 102 38
-0.322511 0.0988459 0.191833 41 108 35
-0.32325 0.100643 0.191379 34 115 31
-0.323312 0.102136 0.191256 35 118 31
-0.324401 0.104116 0.190631 49 120 40
-0.325848 0.106282 0.18983 93 147 69
-0.327666 0.108646 0.188848 123 162 93
-0.329155 0.110872 0.188024 102 112 75
-0.330303 0.112949 0.187366 70 62 55
-0.330738 0.114686 0.187056 62 57 39
-0.331538 0.116615 0.186567 62 58 40
-0.33345 0.119122 0.185532 56 50 39
-0.336143 0.122057 0.184112 52 51 36
-0.336605 0.123862 0.183786 53 53 36
-0.337449 0.125877 0.183271 54 54 33
-0.338301 0.127908 0.182751 57 54 30
-0.341106 0.131002 0.18127 59 51 33
-0.341986 0.133084 0.180735 57 48 36
-0.342079 0.134749 0.180585 58 48 37
-0.344168 0.137523 0.179453 51 45 39
-0.344668 0.139435 0.179101 53 48 43
-0.344767 0.141129 0.178948 63 52 43
-0.324934 0.0971848 0.189315 58 98 39
-0.324312 0.0983719 0.189526 57 100 39
-0.323691 0.099556 0.189736 53 104 35
-0.323413 0.100894 0.189778 43 109 31
-0.323475 0.102391 0.189652 37 116 31
-0.32388 0.104053 0.189356 39 119 36
-0.324978 0.106054 0.188718 58 124 51
-0.326436 0.108243 0.187902 109 161 75
-0.328268 0.110634 0.186899 124 169 88
-0.32941 0.112707 0.186236 99 114 70
-0.330202 0.114621 0.185745 73 60 46
-0.331001 0.116551 0.185251 66 58 41
-0.332539 0.118869 0.184388 64 59 41
-0.335596 0.121991 0.182772 54 51 39
-0.336055 0.123796 0.182442 50 48 37
-0.336898 0.125811 0.181921 54 50 38
-0.337365 0.127638 0.181587 58 46 36
-0.33899 0.130098 0.180675 56 40 33
-0.340638 0.132591 0.179751 50 43 35
-0.341517 0.134683 0.179208 49 51 32
-0.3436 0.137456 0.178064 54 48 28
-0.343697 0.139143 0.17791 58 51 31
-0.344197 0.141062 0.177554 59 46 34
-0.325167 0.0989283 0.18757 58 98 37
-0.324198 0.0999609 0.187955 57 101 37
-0.323576 0.101146 0.188168 48 105 32
-0.323297 0.102487 0.18821 38 111 33
-0.32336 0.10399 0.188081 35 117 32
-0.32411 0.105825 0.187609 38 120 37
-0.325213 0.107842 0.18696 67 131 52
-0.32703 0.110224 0.185953 113 166 79
-0.328163 0.11229 0.185287 117 163 83
-0.329307 0.114377 0.184614 88 110 63
-0.330463 0.116486 0.183934 69 65 48
-0.331631 0.118617 0.183247 62 54 44
-0.334299 0.121539 0.181807 54 52 41
-0.334754 0.123338 0.181475 50 51 39
-0.335967 0.125545 0.180762 52 49 39
-0.336051 0.127167 0.180616 56 46 38
-0.336515 0.128998 0.180278 57 44 36
-0.338909 0.131888 0.178968 54 44 33
-0.339777 0.133968 0.178424 52 46 32
-0.342633 0.137168 0.176877 51 47 31
-0.343129 0.139076 0.17652 48 47 30
-0.325055 0.100527 0.185986 58 98 37
-0.323741 0.101399 0.186549 54 100 34
-0.323461 0.102744 0.186591 45 106 35
-0.323524 0.104251 0.186461 39 112 36
-0.323587 0.105762 0.186329 34 117 35
-0.324341 0.107611 0.185849 40 118 40
-0.325799 0.109816 0.185012 77 136 59
-0.326922 0.111875 0.184343 118 165 83
-0.328414 0.114134 0.183486 113 149 81
-0.329564 0.116239 0.182801 80 101 61
-0.330726 0.118366 0.182109 64 65 43
-0.332638 0.120897 0.181035 59 53 36
-0.333459 0.122882 0.180514 57 52 39
-0.334662 0.125081 0.179797 55 54 42
-0.335121 0.126899 0.179459 56 50 38
-0.335203 0.128523 0.179311 58 45 35
-0.33681 0.130981 0.178386 55 47 36
-0.338051 0.13326 0.177647 48 44 34
-0.342066 0.137101 0.175491 51 44 38
-0.34256 0.139009 0.175129 48 48 32
-0.342256 0.140473 0.175175 49 53 35
-0.324596 0.101973 0.184571 59 99 37
-0.323282 0.102841 0.18514 54 100 39
-0.323345 0.104351 0.185007 46 105 34
-0.323752 0.106029 0.184698 39 113 34
-0.323471 0.10738 0.18474 35 117 36
-0.324921 0.109582 0.183897 46 117 45
-0.326038 0.111636 0.183223 90 145 66
-0.327167 0.113712 0.182542 122 163 87
-0.328308 0.11581 0.181854 109 135 79
-0.329822 0.118115 0.180973 79 83 57
-0.331357 0.12045 0.180081 59 57 40
-0.332541 0.122622 0.179367 54 53 37
-0.333738 0.124817 0.178645 57 53 39
-0.334193 0.126632 0.178304 59 49 36
-0.334275 0.128253 0.178155 58 46 35
-0.335873 0.130707 0.177224 59 47 38
-0.337492 0.133194 0.17628 53 46 34
-0.341103 0.136813 0.174308 53 44 35
-0.341992 0.138943 0.173738 49 45 33
-0.341687 0.140407 0.173784 47 49 39
-0.341781 0.1421 0.173624 47 49 35
-0.341476 0.143566 0.17367 52 47 37
-0.324136 0.103424 0.183151 58 99 42
-0.323509 0.104614 0.183372 56 101 37
-0.323228 0.105965 0.183414 45 107 32
-0.323291 0.107484 0.183279 36 115 35
-0.324046 0.109347 0.182785 35 116 39
-0.325508 0.111572 0.181925 56 124 49
-0.32628 0.11347 0.181421 101 157 72
-0.327414 0.115564 0.180728 122 168 88
-0.328921 0.117865 0.179841 108 128 77
-0.330448 0.120195 0.178942 79 76 54
-0.331257 0.12217 0.178414 57 53 38
-0.332816 0.124554 0.177496 55 53 35
-0.333643 0.126567 0.176957 57 52 33
-0.3341 0.128392 0.17661 57 51 31
-0.335318 0.130642 0.175866 59 50 32
-0.336934 0.133128 0.174914 54 47 35
-0.340536 0.136746 0.172923 58 48 37
-0.341822 0.139101 0.172139 53 46 35
-0.341917 0.140795 0.171976 47 47 37
-0.341611 0.142263 0.172022 49 49 35
-0.341706 0.143964 0.171859 50 43 34
-0.368061 0.161083 0.15794 52 42 37
-0.361712 0.166231 0.160652 53 46 32
-0.359098 0.166392 0.161904 56 47 34
-0.358771 0.167962 0.161954 59 44 33
-0.357992 0.169245 0.162241 59 47 37
-0.357666 0.170812 0.16229 59 47 38
-0.356891 0.172089 0.162577 57 46 35
-0.356565 0.173653 0.162626 54 46 34
-0.325348 0.104176 0.18096 59 97 38
-0.324715 0.105373 0.181185 58 99 37
-0.323392 0.106233 0.181771 52 102 32
-0.323456 0.107757 0.181633 42 109 29
-0.323519 0.109284 0.181495 39 116 34
-0.324628 0.111335 0.180809 36 118 38
-0.325395 0.113229 0.180302 63 132 52
-0.326169 0.115138 0.17979 104 162 75
-0.327663 0.11743 0.178899 120 167 86
-0.329541 0.119941 0.177805 101 127 72
-0.330346 0.121912 0.177274 74 74 50
-0.331526 0.124095 0.176545 60 51 37
-0.332719 0.126301 0.175807 56 51 34
-0.333548 0.128326 0.17526 55 48 32
-0.335524 0.130993 0.174107 56 46 35
-0.337534 0.133704 0.172936 53 47 38
-0.33997 0.136679 0.171537 61 53 41
-0.341253 0.139034 0.170745 57 54 39
-0.341746 0.140956 0.170369 50 54 41
-0.341841 0.142658 0.170204 50 52 37
-0.368058 0.163184 0.155958 60 51 38
-0.361558 0.166444 0.158904 53 43 32
-0.358941 0.166604 0.160171 55 44 34
-0.358161 0.167892 0.160462 57 45 33
-0.357383 0.169175 0.160752 57 45 35
-0.356608 0.170455 0.16104 56 46 36
-0.355835 0.17173 0.161328 57 47 35
-0.355064 0.173002 0.161616 57 47 35
-0.355185 0.174855 0.161427 57 48 37
-0.355753 0.17701 0.160998 62 50 36
-0.326575 0.104938 0.178741 55 99 34
-0.325585 0.105974 0.179155 57 99 38
-0.324252 0.106837 0.179752 56 103 44
-0.323275 0.107861 0.180161 45 105 34
-0.323685 0.109562 0.179838 42 112 31
-0.323749 0.111097 0.179697 35 115 29
-0.324512 0.112989 0.179185 40 119 37
-0.324929 0.114715 0.178856 71 136 56
-0.326057 0.116815 0.17815 110 162 81
-0.327914 0.119312 0.177055 117 161 85
-0.329072 0.121464 0.17633 93 119 66
-0.330243 0.123638 0.175598 65 69 44
-0.331426 0.125836 0.174857 51 46 33
-0.332621 0.128057 0.174109 49 47 32
-0.334968 0.130928 0.172746 51 45 35
-0.336972 0.133638 0.171563 53 48 39
-0.339403 0.136613 0.170151 56 54 51
-0.340286 0.138742 0.169564 52 55 60
-0.341175 0.140889 0.168972 54 56 66
-0.341269 0.142591 0.168804 56 57 66
-0.360942 0.166373 0.157399 54 47 33
-0.358784 0.166817 0.158433 52 48 35
-0.357551 0.167821 0.15897 58 52 35
-0.356774 0.169105 0.159262 60 47 33
-0.355552 0.170098 0.159794 56 46 34
-0.353895 0.170799 0.160562 54 48 34
-0.352692 0.17178 0.161086 55 49 33
-0.354133 0.174493 0.160182 57 48 36
-0.354252 0.176348 0.159991 62 50 37
-0.353927 0.17791 0.16004 54 47 38
-0.326464 0.106582 0.177104 58 86 43
-0.325472 0.107617 0.177524 62 100 51
-0.324485 0.108646 0.177942 56 100 38
-0.323504 0.109669 0.178358 45 105 31
-0.323916 0.111381 0.178028 37 113 30
-0.323981 0.112925 0.177884 32 117 32
-0.323696 0.114294 0.177928 44 119 42
-0.324814 0.116387 0.177219 82 141 63
-0.325944 0.118501 0.176502 117 166 85
-0.327445 0.120827 0.175585 116 154 84
-0.328966 0.123184 0.174656 85 103 61
-0.330139 0.125374 0.173912 55 58 36
-0.331697 0.127789 0.17296 43 42 26
-0.333653 0.130445 0.171793 43 42 29
-0.336411 0.133571 0.17019 42 44 36
-0.338053 0.136106 0.169188 44 62 63
-0.339717 0.138675 0.168172 55 84 93
-0.340205 0.140594 0.16779 93 107 104
-0.340697 0.142524 0.167405 107 119 117
-0.359867 0.166018 0.156142 54 51 55
-0.358171 0.166746 0.156936 53 52 55
-0.357391 0.168035 0.157232 60 55 44
-0.356164 0.169035 0.157772 63 48 35
-0.354945 0.170029 0.158308 57 48 35
-0.352411 0.17016 0.159563 53 51 36
-0.351651 0.171425 0.159851 53 51 34
-0.350893 0.172686 0.160137 54 47 35
-0.351443 0.174813 0.159709 54 49 38
-0.35112 0.176364 0.159758 54 46 38
-0.350362 0.177619 0.160046 54 46 35
-0.326995 0.107026 0.175224 57 82 45
-0.326353 0.108235 0.175459 55 69 40
-0.325358 0.109268 0.175885 57 83 33
-0.324019 0.110122 0.176497 48 105 34
-0.323734 0.111492 0.17654 37 114 36
-0.32345 0.112861 0.176584 33 114 35
-0.323165 0.11423 0.176627 36 115 35
-0.323578 0.11596 0.176291 53 123 44
-0.324345 0.117883 0.175763 91 150 68
-0.32583 0.120196 0.174845 119 167 87
-0.327335 0.122539 0.173915 111 142 81
-0.328859 0.124914 0.172972 82 90 58
-0.330404 0.12732 0.172017 53 51 35
-0.332721 0.130172 0.170639 43 45 28
-0.335081 0.133077 0.169236 41 40 30
-0.335935 0.135167 0.168652 40 52 45
-0.337967 0.137938 0.167425 51 64 62
-0.339238 0.1403 0.16661 92 100 90
-0.339329 0.141996 0.16644 121 136 130
-0.359252 0.165947 0.154638 96 95 99
-0.357559 0.166675 0.155439 90 96 92
-0.357232 0.16825 0.155488 101 100 70
-0.356003 0.169251 0.156034 87 67 55
-0.354337 0.169959 0.156822 66 51 45
-0.351371 0.169807 0.158329 55 54 40
-0.350613 0.171071 0.158618 54 52 37
-0.350291 0.172618 0.158667 57 49 36
-0.349537 0.173876 0.158955 51 48 39
-0.348784 0.17513 0.159243 53 46 36
-0.348034 0.17638 0.159529 57 50 34
-0.348573 0.178508 0.159101 56 51 36
-0.349115 0.180648 0.158671 55 50 38
-0.327103 0.105749 0.173675 43 98 32
-0.326816 0.107131 0.173718 52 95 43
-0.326172 0.108342 0.173956 48 71 37
-0.325531 0.109549 0.174193 47 71 33
-0.324539 0.110578 0.174622 56 107 45
-0.323552 0.111602 0.175048 58 118 47
-0.323267 0.112974 0.175092 52 118 47
-0.322981 0.114345 0.175135 42 114 35
-0.323045 0.115896 0.174987 39 115 32
-0.323109 0.117452 0.174839 60 127 48
-0.323876 0.119383 0.174304 98 155 73
-0.325359 0.121709 0.173375 120 169 87
-0.327224 0.124261 0.172236 110 140 79
-0.329119 0.126853 0.171077 80 85 56
-0.331417 0.129693 0.169695 54 48 34
-0.333759 0.132586 0.168287 41 40 27
-0.334604 0.134668 0.167701 39 42 28
-0.335072 0.136547 0.167323 46 43 33
-0.337097 0.13933 0.166084 59 55 47
-0.338363 0.1417 0.165262 84 84 89
-0.356947 0.166605 0.153941 157 141 117
-0.356619 0.16818 0.153991 180 180 117
-0.355841 0.169467 0.154291 150 119 99
-0.354173 0.170176 0.155088 102 75 73
-0.351642 0.170306 0.156369 69 62 49
-0.350446 0.171288 0.156905 60 52 40
-0.349257 0.172263 0.157438 62 54 40
-0.348505 0.17352 0.157727 55 50 40
-0.347327 0.174484 0.158256 56 47 36
-0.347007 0.176021 0.158304 56 48 35
-0.347115 0.177852 0.158114 58 47 35
-0.347651 0.179984 0.157682 59 50 36
-0.34776 0.181828 0.157489 57 55 37
-0.326854 0.104301 0.172317 24 92 18
-0.326567 0.105684 0.172361 33 93 27
-0.324357 0.110688 0.173121 66 101 50
-0.323719 0.111889 0.173359 79 130 63
-0.323083 0.113087 0.173596 76 128 60
-0.322798 0.11446 0.173639 57 118 45
-0.322512 0.115833 0.173682 38 114 33
-0.322575 0.117388 0.173533 39 115 37
-0.322989 0.119133 0.173188 64 131 54
-0.32411 0.121265 0.17245 101 158 74
-0.325602 0.123612 0.171505 122 170 86
-0.327112 0.125991 0.170547 105 136 74
-0.32938 0.128808 0.169168 69 78 47
-0.332066 0.131887 0.167552 43 41 29
-0.332901 0.133958 0.166966 37 42 27
-0.333744 0.136045 0.166375 41 45 35
-0.334209 0.137928 0.165993 47 43 33
-0.334291 0.139598 0.165824 53 49 49
-0.337488 0.1431 0.163914 95 86 85
-0.356334 0.166534 0.152443 177 139 129
-0.356007 0.168109 0.152493 213 202 165
-0.35523 0.169397 0.152796 208 186 159
-0.353565 0.170106 0.1536 158 131 121
-0.351037 0.170237 0.154891 101 85 81
-0.349843 0.171219 0.155431 69 58 53
-0.348656 0.172195 0.155969 62 59 50
-0.347049 0.172878 0.156745 57 52 44
-0.346729 0.174416 0.156793 56 50 41
-0.346409 0.175954 0.156842 59 52 38
-0.346089 0.177491 0.156891 61 50 38
-0.346195 0.179323 0.156698 62 49 38
-0.346729 0.18146 0.156262 60 53 37
-0.346836 0.183306 0.156067 55 53 36
-0.325963 0.104069 0.171201 26 91 20
-0.323536 0.112001 0.171856 75 116 56
-0.322899 0.1132 0.172096 84 129 61
-0.322613 0.114575 0.172139 75 125 57
-0.322327 0.11595 0.172183 54 112 44
-0.322041 0.117324 0.172226 39 110 36
-0.322104 0.118884 0.172074 41 115 38
-0.322868 0.120823 0.171528 68 130 53
-0.323637 0.122778 0.170978 108 157 77
-0.325486 0.125335 0.169821 120 165 87
-0.327729 0.128134 0.16844 92 122 66
-0.329643 0.130778 0.167242 55 58 35
-0.331212 0.133253 0.166237 37 43 29
-0.332044 0.135329 0.165645 37 42 35
-0.333264 0.137642 0.164833 44 38 33
-0.332963 0.139087 0.164879 42 39 31
-0.332282 0.140308 0.16514 56 46 40
-0.331982 0.141751 0.165185 77 71 66
-0.355722 0.166464 0.150946 134 125 128
-0.355394 0.168039 0.150995 194 182 180
-0.354618 0.169327 0.1513 221 217 199
-0.352956 0.170036 0.152111 201 189 175
-0.349997 0.169884 0.153661 153 130 133
-0.348808 0.170865 0.154205 107 92 101
-0.347626 0.171841 0.154745 81 72 73
-0.346451 0.17281 0.155282 68 55 51
-0.345706 0.174061 0.155574 63 53 43
-0.344963 0.175308 0.155865 63 50 40
-0.345067 0.177132 0.155671 65 49 39
-0.345171 0.178961 0.155477 66 49 39
-0.345276 0.180795 0.155282 64 50 40
-0.345381 0.182635 0.155087 57 51 40
-0.345486 0.18448 0.154891 53 46 39
-0.325427 0.104004 0.169889 34 92 27
-0.323639 0.110734 0.170306 45 79 25
-0.323352 0.112113 0.17035 53 93 33
-0.322715 0.113313 0.170591 76 117 53
-0.322428 0.11469 0.170635 86 128 62
-0.321793 0.115886 0.170876 76 118 57
-0.321507 0.117261 0.170919 55 108 39
-0.321569 0.11882 0.170766 40 107 30
-0.321981 0.120571 0.170414 44 110 36
-0.322746 0.122522 0.16986 72 126 54
-0.323517 0.124489 0.169302 112 158 82
-0.326091 0.127466 0.167718 117 154 84
-0.327252 0.129684 0.166936 80 96 54
-0.328794 0.132135 0.165935 46 40 27
-0.329611 0.134193 0.165346 40 46 29
-0.331564 0.136919 0.164109 41 40 29
-0.331264 0.138358 0.164154 40 39 26
-0.330965 0.139797 0.1642 43 37 25
-0.329914 0.14079 0.164675 55 51 40
-0.329616 0.142225 0.16472 80 73 64
-0.355109 0.166393 0.149447 135 95 110
-0.354781 0.167968 0.149497 172 158 175
-0.353116 0.168685 0.150317 219 223 217
-0.351465 0.169395 0.15113 235 232 205
-0.34896 0.169532 0.152435 219 202 176
-0.347346 0.17023 0.153229 192 169 158
-0.346598 0.171488 0.153524 170 132 115
-0.345428 0.172457 0.154064 108 85 82
-0.344685 0.173707 0.154357 78 63 53
-0.343945 0.174952 0.15465 68 52 40
-0.344048 0.176773 0.154455 67 51 37
-0.34415 0.178599 0.154259 67 52 36
-0.343831 0.180135 0.154308 68 50 36
-0.343933 0.181968 0.154111 65 46 37
-0.34446 0.184109 0.153668 60 50 43
-0.344139 0.185651 0.153717 57 49 41
-0.324891 0.103939 0.168576 48 98 38
-0.323742 0.109463 0.168751 74 111 57
-0.323454 0.110844 0.168795 52 90 33
-0.322816 0.112048 0.169039 40 82 26
-0.32253 0.113427 0.169083 60 99 41
-0.322243 0.114806 0.169127 81 121 58
-0.321607 0.116003 0.16937 81 122 61
-0.321321 0.11738 0.169413 62 108 43
-0.321383 0.118942 0.169258 43 101 29
-0.321445 0.120508 0.169102 34 102 29
-0.321507 0.122078 0.168945 41 103 35
-0.322271 0.124037 0.168385 76 128 57
-0.324467 0.126802 0.167002 117 161 83
-0.325614 0.129009 0.166219 110 141 78
-0.326409 0.131032 0.165638 64 65 39
-0.32648 0.132653 0.165473 42 45 27
-0.329504 0.135986 0.163605 35 42 28
-0.329579 0.137635 0.163435 39 49 30
-0.329281 0.139069 0.163481 43 42 25
-0.326397 0.138962 0.16502 50 44 30
-0.325736 0.140162 0.165276 66 61 49
-0.325806 0.141802 0.16511 88 77 69
-0.354496 0.166322 0.147949 182 134 139
-0.353722 0.167613 0.148259 215 212 219
-0.351622 0.168047 0.149339 240 249 247
-0.349547 0.168476 0.150407 253 253 232
-0.347926 0.16918 0.151212 255 245 212
-0.346319 0.169879 0.15201 246 222 194
-0.345573 0.171136 0.152307 208 185 162
-0.34483 0.172389 0.152603 164 138 130
-0.343668 0.173353 0.153144 107 80 81
-0.34293 0.174598 0.153438 75 58 54
-0.343031 0.176416 0.153241 62 54 43
-0.343132 0.178239 0.153044 63 53 40
-0.343233 0.180067 0.152847 65 50 37
-0.343335 0.181901 0.152648 62 48 37
-0.343015 0.183438 0.152697 56 48 41
-0.343116 0.185279 0.152498 56 46 41
-0.343218 0.187126 0.152299 55 44 40
-0.323493 0.108017 0.167395 46 97 37
-0.323205 0.109398 0.167439 69 107 51
-0.322918 0.110779 0.167483 70 104 48
-0.322631 0.11216 0.167527 52 86 34
-0.322344 0.113541 0.16757 49 87 33
-0.322057 0.114922 0.167614 66 103 46
-0.32177 0.116303 0.167658 67 106 50
-0.321483 0.117683 0.167702 53 98 38
-0.321196 0.119064 0.167746 41 96 29
-0.320909 0.120444 0.167789 33 98 28
-0.32097 0.122014 0.167631 28 93 27
-0.321732 0.123973 0.167066 39 96 32
-0.323566 0.12654 0.165878 85 135 59
-0.324347 0.12854 0.165299 121 167 83
-0.325135 0.130556 0.164716 88 118 66
-0.325204 0.132173 0.16455 57 45 31
-0.326365 0.134425 0.163748 34 36 30
-0.326435 0.136058 0.16358 37 51 35
-0.32614 0.137478 0.163625 43 47 31
-0.325116 0.138463 0.164095 46 43 32
-0.323737 0.139226 0.164774 58 57 46
-0.323444 0.140636 0.164819 74 70 62
-0.359681 0.1681 0.143194 132 105 99
-0.353883 0.166252 0.14645 149 156 131
-0.352222 0.166976 0.147284 203 199 195
-0.349265 0.166852 0.148879 240 236 237
-0.348076 0.167844 0.149438 253 255 250
-0.346467 0.16855 0.150244 255 255 243
-0.345295 0.169529 0.150795 252 250 222
-0.344975 0.171068 0.150844 237 217 189
-0.34381 0.172037 0.151391 195 175 157
-0.342653 0.173001 0.151935 153 133 123
-0.341918 0.174244 0.15223 107 80 82
-0.3416 0.175771 0.152278 71 55 54
-0.342116 0.17788 0.151833 58 56 45
-0.342216 0.179705 0.151634 60 53 42
-0.342316 0.181536 0.151434 57 45 42
-0.341997 0.183071 0.151483 52 50 44
-0.342096 0.184909 0.151283 56 49 43
-0.341777 0.186446 0.151332 57 49 40
-0.323244 0.106571 0.166038 32 84 24
-0.322956 0.107952 0.166082 30 89 24
-0.322669 0.109334 0.166126 48 95 37
-0.322382 0.110715 0.16617 73 106 52
-0.322445 0.112273 0.16601 63 96 47
-0.322158 0.113656 0.166054 51 86 32
-0.32187 0.115038 0.166098 52 89 33
-0.321933 0.116604 0.165937 51 89 35
-0.321645 0.117988 0.165981 45 87 32
-0.321008 0.119186 0.166229 40 90 30
-0.32072 0.120568 0.166273 36 92 30
-0.321482 0.122522 0.165703 29 89 25
-0.321193 0.123909 0.165747 26 80 19
-0.323022 0.126475 0.164548 46 90 31
-0.323444 0.128275 0.164174 94 140 67
-0.32351 0.129879 0.164009 111 151 81
-0.324295 0.131901 0.16342 80 80 46
-0.324723 0.133729 0.16304 46 47 32
-0.324792 0.135354 0.162872 34 38 31
-0.324497 0.136768 0.162917 38 38 32
-0.323482 0.137752 0.163388 45 43 36
-0.32283 0.138946 0.163644 57 56 47
-0.322537 0.140354 0.163689 73 69 62
-0.358133 0.167449 0.142214 118 96 86
-0.35327 0.166181 0.144951 124 113 113
-0.35073 0.166343 0.146314 159 164 153
-0.348227 0.166503 0.147657 211 223 204
-0.346614 0.167216 0.148473 247 253 242
-0.34544 0.168201 0.14903 254 255 253
-0.344696 0.169461 0.149331 255 254 244
-0.343532 0.170436 0.149882 255 248 219
-0.342794 0.171686 0.150181 229 211 184
-0.341641 0.17265 0.150728 191 175 155
-0.340909 0.173892 0.151024 146 129 114
-0.340592 0.175417 0.151073 103 83 74
-0.340688 0.177231 0.150874 73 54 48
-0.340786 0.17905 0.150674 64 51 41
-0.340883 0.180875 0.150473 59 51 40
-0.340981 0.182704 0.150272 56 51 42
-0.341079 0.184539 0.150071 57 47 39
-0.341178 0.186379 0.149869 57 46 35
-0.322995 0.105125 0.164681 73 113 53
-0.323059 0.106676 0.164519 47 91 30
-0.322771 0.108059 0.164563 29 85 22
-0.322483 0.109442 0.164607 32 85 24
-0.322547 0.111001 0.164445 48 89 32
-0.322259 0.112386 0.164489 48 86 34
-0.322322 0.11395 0.164326 42 82 27
-0.322385 0.115518 0.164163 41 84 27
-0.322449 0.117091 0.163999 44 85 30
-0.32216 0.11848 0.164043 44 84 30
-0.32152 0.119682 0.164295 42 84 30
-0.321231 0.12107 0.164339 37 85 29
-0.320942 0.122458 0.164383 33 85 23
-0.32277 0.125013 0.163174 28 78 15
-0.322834 0.126609 0.163008 23 64 16
-0.322899 0.12821 0.162841 48 87 41
-0.322964 0.129815 0.162674 100 139 75
-0.32303 0.131424 0.162506 89 114 71
-0.323454 0.133246 0.162125 65 63 37
-0.32352 0.134866 0.161956 42 36 26
-0.323227 0.136277 0.162001 36 40 32
-0.322575 0.137473 0.162259 44 51 38
-0.322282 0.138882 0.162304 55 59 47
-0.321989 0.140291 0.162349 69 69 59
-0.357511 0.167377 0.140692 114 103 95
-0.352657 0.16611 0.143452 124 105 97
-0.349684 0.165993 0.145089 133 115 113
-0.347192 0.166155 0.146439 170 165 155
-0.345586 0.166869 0.147259 215 222 206
-0.344417 0.167854 0.147818 246 255 246
-0.343675 0.169113 0.148121 255 255 254
-0.342516 0.170087 0.148675 255 255 245
-0.341364 0.171055 0.149226 253 241 218
-0.340632 0.1723 0.149525 224 206 179
-0.33949 0.173257 0.150071 183 168 147
-0.339174 0.174778 0.150119 138 127 108
-0.339681 0.176875 0.14967 99 85 69
-0.339776 0.178691 0.149469 71 49 48
-0.339872 0.180512 0.149267 61 50 44
-0.339969 0.182339 0.149065 60 50 42
-0.340065 0.184171 0.148862 61 48 39
-0.339746 0.185704 0.148911 59 45 35
-0.339428 0.187237 0.148959 53 43 32
-0.323161 0.105395 0.162952 80 120 59
-0.322873 0.106781 0.162996 69 109 49
-0.322937 0.108338 0.162831 41 90 32
-0.322648 0.109725 0.162875 29 82 21
-0.322712 0.111288 0.16271 28 78 17
-0.32313 0.113035 0.162334 24 71 14
-0.323905 0.114972 0.161745 24 74 17
-0.324396 0.118328 0.161195 43 83 29
-0.324104 0.119731 0.16124 47 83 31
-0.323812 0.121134 0.161284 42 81 29
-0.323164 0.122343 0.161542 37 81 25
-0.322872 0.123744 0.161587 35 81 20
-0.322581 0.125145 0.161632 30 80 16
-0.322646 0.126744 0.161463 20 69 13
-0.322711 0.128347 0.161294 17 46 20
-0.322419 0.129751 0.161339 58 86 46
-0.322483 0.13136 0.161169 76 101 64
-0.322906 0.133182 0.160785 65 55 33
-0.322613 0.134591 0.160829 43 34 20
-0.32232 0.136 0.160874 34 36 23
-0.322027 0.137409 0.160919 40 44 29
-0.321734 0.138818 0.160964 53 56 43
-0.321441 0.140227 0.161009 67 66 57
-0.356888 0.167305 0.13917 108 98 89
-0.352044 0.16604 0.141953 121 107 97
-0.349076 0.165923 0.143602 123 109 99
-0.34616 0.165809 0.145223 130 120 114
-0.344561 0.166523 0.146048 170 163 156
-0.343818 0.167785 0.146354 228 225 211
-0.342238 0.168487 0.147168 251 255 245
-0.341087 0.16946 0.147724 255 255 249
-0.340355 0.170707 0.148025 251 254 228
-0.339214 0.17167 0.148575 227 217 196
-0.33808 0.172626 0.149123 195 177 164
-0.337765 0.174143 0.149171 162 145 132
-0.337857 0.175945 0.14897 128 110 99
-0.33877 0.178333 0.148267 85 56 56
-0.338453 0.179857 0.148316 63 52 50
-0.338547 0.181678 0.148113 58 50 44
-0.338641 0.183503 0.147909 58 50 42
-0.338323 0.185032 0.147958 57 48 40
-0.338005 0.186561 0.148006 54 46 37
-0.323747 0.1074 0.160833 80 118 59
-0.323457 0.108792 0.160877 68 109 51
-0.325289 0.119018 0.158994 37 79 24
-0.324996 0.120428 0.159039 43 81 27
-0.324703 0.121839 0.159084 40 80 25
-0.32441 0.123249 0.159129 37 78 23
-0.323757 0.124462 0.159392 36 77 19
-0.322749 0.125474 0.159869 31 76 19
-0.322457 0.126878 0.159914 24 72 14
-0.322165 0.128283 0.159959 17 52 15
-0.322229 0.12989 0.159788 21 36 17
-0.321937 0.131296 0.159832 38 44 21
-0.321644 0.132702 0.159877 37 41 18
-0.321708 0.134317 0.159706 26 30 16
-0.321415 0.135724 0.159751 20 23 19
-0.321123 0.137131 0.159795 22 31 26
-0.321186 0.138754 0.159624 36 48 37
-0.320893 0.140163 0.159669 63 63 53
-0.356266 0.167233 0.137648 91 88 78
-0.351431 0.165969 0.140453 107 107 94
-0.348468 0.165853 0.142116 121 112 101
-0.345131 0.165463 0.144011 124 109 104
-0.343539 0.166178 0.14484 136 122 118
-0.34196 0.166886 0.145661 178 166 155
-0.34081 0.167864 0.146221 231 220 207
-0.340079 0.169114 0.146524 243 248 231
-0.337713 0.16925 0.147833 252 254 224
-0.336992 0.170487 0.148131 243 247 226
-0.336274 0.17172 0.148428 220 221 199
-0.33596 0.17323 0.148477 187 177 152
-0.335646 0.17474 0.148525 145 118 104
-0.335735 0.176535 0.148324 92 58 61
-0.335824 0.178335 0.148123 67 57 51
-0.335913 0.180141 0.147921 61 53 45
-0.335598 0.181657 0.147969 57 49 43
-0.335283 0.183173 0.148017 58 49 41
-0.334565 0.18439 0.148316 58 49 37
-0.332652 0.184712 0.149356 48 45 33
-0.324697 0.109601 0.158475 85 122 62
-0.324764 0.111181 0.158303 70 107 49
-0.324831 0.112765 0.15813 49 90 30
-0.325259 0.114536 0.157737 29 76 17
-0.325898 0.121133 0.156815 33 78 22
-0.325239 0.122356 0.157082 37 79 24
-0.324583 0.123575 0.157348 38 77 22
-0.323928 0.124791 0.157613 37 75 17
-0.323635 0.126203 0.157659 34 73 16
-0.322982 0.127414 0.157923 26 70 17
-0.321975 0.12842 0.158405 24 55 15
-0.321682 0.129826 0.15845 18 34 13
-0.32139 0.131232 0.158495 17 32 12
-0.321098 0.132637 0.15854 26 45 19
-0.320805 0.134043 0.158585 30 44 21
-0.320513 0.135449 0.15863 24 28 16
-0.320221 0.136854 0.158674 18 19 13
-0.320283 0.138475 0.158501 24 28 20
-0.320345 0.1401 0.158328 44 51 41
-0.355311 0.168761 0.136176 92 88 83
-0.348295 0.166063 0.14036 107 108 96
-0.344529 0.165394 0.14254 122 119 104
-0.34294 0.166109 0.143375 134 116 108
-0.341364 0.166818 0.144203 149 120 116
-0.339802 0.167521 0.145023 182 165 145
-0.337438 0.167668 0.146343 239 234 189
-0.336718 0.168907 0.146643 252 252 236
-0.335999 0.170143 0.146943 253 255 249
-0.335283 0.171375 0.147241 241 244 233
-0.334569 0.172604 0.147539 212 196 181
-0.334256 0.174109 0.147587 164 121 110
-0.333943 0.175615 0.147635 104 74 70
-0.33363 0.17712 0.147683 73 60 50
-0.333317 0.178626 0.147731 63 55 45
-0.333004 0.180131 0.147779 58 51 44
-0.332295 0.181345 0.148076 56 49 41
-0.331587 0.182555 0.148372 56 48 37
-0.329318 0.182593 0.149647 49 41 33
-0.326698 0.182342 0.151145 50 43 29
-0.325073 0.114654 0.156176 50 91 34
-0.325503 0.116438 0.155777 29 69 20
-0.31903 0.137982 0.157601 21 19 14
-0.319443 0.139819 0.157207 25 25 22
-0.319504 0.141445 0.157032 34 33 35
-0.343927 0.165325 0.141068 108 110 98
-0.341503 0.165491 0.142434 128 124 106
-0.339525 0.165927 0.143522 140 120 108
-0.338796 0.167178 0.143829 149 114 119
-0.336848 0.167601 0.144901 192 203 163
-0.335725 0.168566 0.145457 231 245 229
-0.334609 0.169525 0.146009 250 255 253
-0.333897 0.170755 0.146308 252 252 244
-0.333584 0.172259 0.146357 238 224 203
-0.333272 0.173762 0.146405 200 157 133
-0.332562 0.174984 0.146703 127 96 97
-0.33225 0.176485 0.146751 83 63 59
-0.331544 0.177701 0.147048 66 57 47
-0.331232 0.1792 0.147096 58 55 45
-0.330136 0.180122 0.14764 54 52 44
-0.327887 0.180177 0.148915 51 47 41
-0.32643 0.180801 0.149691 49 43 37
-0.325363 0.181705 0.15022 46 41 30
-0.323926 0.182318 0.150985 47 39 30
-0.324954 0.116372 0.154432 50 89 34
-0.319248 0.139972 0.155646 20 18 14
-0.318955 0.141382 0.155691 26 18 16
-0.319725 0.143457 0.155067 24 21 24
-0.342481 0.164706 0.14013 96 93 84
-0.340074 0.164876 0.141498 109 105 93
-0.33852 0.165586 0.142329 122 113 95
-0.336573 0.166019 0.14341 131 106 96
-0.335451 0.166988 0.14397 139 134 128
-0.334335 0.167952 0.144527 196 200 197
-0.333624 0.169184 0.144829 236 241 240
-0.333311 0.170688 0.144877 252 255 250
-0.332602 0.171915 0.145177 251 248 232
-0.332289 0.173416 0.145225 234 218 190
-0.331189 0.174356 0.145775 186 152 147
-0.330486 0.175572 0.146073 121 88 86
-0.329785 0.176784 0.14637 79 64 65
-0.329086 0.177992 0.146666 61 57 53
-0.327617 0.178628 0.147454 57 54 45
-0.326161 0.179259 0.148236 55 49 45
-0.325095 0.180167 0.14877 53 46 40
-0.324411 0.181356 0.149059 47 42 32
-0.323354 0.182254 0.149587 46 40 30
-0.324043 0.116119 0.153312 70 105 48
-0.319114 0.141758 0.153901 20 19 16
-0.319886 0.143841 0.153268 19 19 16
-0.323204 0.147551 0.151014 28 31 25
-0.323638 0.149459 0.150593 53 55 47
-0.335628 0.158845 0.142804 75 73 64
-0.335314 0.160352 0.142852 88 82 72
-0.335402 0.162123 0.142644 94 87 79
-0.335089 0.163632 0.142692 91 88 83
-0.334775 0.165141 0.142741 113 108 94
-0.334062 0.166379 0.143045 119 105 100
-0.33335 0.167614 0.143348 154 144 147
-0.333038 0.169118 0.143396 208 198 209
-0.332329 0.170347 0.143699 246 240 249
-0.332017 0.171849 0.143747 254 255 252
-0.330917 0.172793 0.144301 251 252 238
-0.330214 0.174011 0.144601 243 220 195
-0.329513 0.175225 0.1449 184 151 136
-0.328427 0.176155 0.145448 139 100 106
-0.326581 0.176518 0.146488 101 74 78
-0.325512 0.177436 0.147027 76 63 53
-0.324826 0.17863 0.147319 61 51 47
-0.324143 0.17982 0.14761 58 44 41
-0.323461 0.181007 0.1479 54 41 35
-0.322782 0.182191 0.14819 47 39 30
-0.321732 0.183085 0.14872 44 39 29
-0.324282 0.118032 0.151328 61 93 43
-0.334414 0.161792 0.141465 87 79 70
-0.334101 0.163299 0.141514 76 70 69
-0.333788 0.164806 0.141562 87 86 82
-0.333077 0.166042 0.141868 106 96 91
-0.332764 0.167547 0.141916 124 114 110
-0.332452 0.169051 0.141964 169 153 157
-0.331744 0.17028 0.142269 223 204 215
-0.330645 0.17123 0.142827 244 236 245
-0.329942 0.17245 0.143129 229 234 237
-0.329242 0.173667 0.143431 230 230 196
-0.328156 0.174601 0.143983 220 214 184
-0.326311 0.174973 0.14503 216 155 144
-0.325243 0.175895 0.145574 185 109 103
-0.324558 0.177091 0.145868 119 89 74
-0.323875 0.178284 0.146161 66 49 47
-0.323194 0.179474 0.146453 60 46 42
-0.322888 0.180944 0.1465 55 45 38
-0.322209 0.182128 0.146792 49 42 34
-0.321162 0.183022 0.147325 45 40 32
-0.320488 0.184198 0.147615 46 41 32
-0.325253 0.120348 0.148861 42 67 40
-0.333514 0.163231 0.140079 75 69 65
-0.333201 0.164738 0.140127 68 65 68
-0.332491 0.165976 0.140435 98 90 89
-0.332178 0.16748 0.140483 116 105 99
-0.33147 0.168712 0.14079 138 120 111
-0.330372 0.169666 0.141353 177 153 147
-0.329281 0.170614 0.141913 210 190 195
-0.32897 0.172108 0.14196 177 185 206
-0.327885 0.173047 0.142517 169 178 152
-0.326424 0.173703 0.143322 203 208 180
-0.325354 0.174631 0.14387 197 164 151
-0.32429 0.175553 0.144416 167 100 105
-0.323607 0.176748 0.144711 131 76 93
-0.323301 0.17822 0.144759 82 55 59
-0.322621 0.17941 0.145053 61 47 45
-0.322315 0.18088 0.1451 52 47 40
-0.321637 0.182064 0.145394 46 42 37
-0.320591 0.182959 0.145931 44 37 32
-0.319918 0.184135 0.146222 46 40 29
-0.324401 0.12171 0.147548 34 36 26
-0.332614 0.164672 0.138692 66 61 64
-0.332301 0.166179 0.138741 88 82 77
-0.331592 0.167414 0.13905 109 97 90
-0.330885 0.168645 0.139359 121 97 92
-0.329789 0.1696 0.139926 136 106 93
-0.328699 0.170548 0.14049 157 137 112
-0.326462 0.170672 0.141814 149 145 148
-0.325392 0.171608 0.142367 136 120 124
-0.325085 0.173087 0.142414 156 165 143
-0.324021 0.174014 0.142964 159 166 154
-0.323339 0.175212 0.143262 138 119 126
-0.323033 0.176684 0.143309 111 76 77
-0.322353 0.177876 0.143605 72 59 78
-0.322047 0.179346 0.143652 61 49 51
-0.32137 0.180533 0.143948 50 43 37
-0.320694 0.181716 0.144243 44 37 29
-0.319652 0.182611 0.144783 42 34 25
-0.318981 0.183786 0.145075 44 42 24
-0.32312 0.121253 0.146663 39 35 28
-0.322463 0.122482 0.146945 35 32 23
-0.331714 0.166112 0.137305 76 68 64
-0.331401 0.167619 0.137354 89 82 75
-0.330693 0.168852 0.137666 103 92 82
-0.329205 0.169533 0.138499 114 91 81
-0.327729 0.170209 0.139326 120 93 84
-0.325503 0.170335 0.140656 129 109 99
-0.324816 0.171543 0.140958 139 126 127
-0.32413 0.172748 0.141259 180 205 168
-0.323446 0.173949 0.141559 225 218 190
-0.322765 0.175147 0.141859 218 142 157
-0.322085 0.176342 0.142157 139 56 70
-0.321407 0.177533 0.142455 73 58 47
-0.320731 0.17872 0.142752 73 66 52
-0.319689 0.179624 0.143296 60 47 36
-0.319385 0.181086 0.143343 47 34 24
-0.318715 0.182263 0.143637 41 35 23
-0.317682 0.183152 0.144177 39 39 25
-0.321486 0.120606 0.146019 28 24 23
-0.320834 0.121831 0.1463 30 29 21
-0.320539 0.123248 0.146346 34 28 18
-0.330419 0.16728 0.136184 84 76 71
-0.329323 0.16824 0.136761 87 85 74
-0.328232 0.169195 0.137334 98 87 74
-0.325233 0.168788 0.139197 101 66 74
-0.323791 0.16946 0.140012 115 90 97
-0.323484 0.170935 0.140059 131 127 132
-0.323178 0.17241 0.140107 132 172 179
-0.322497 0.17361 0.140408 146 165 170
-0.321817 0.174807 0.140709 154 107 110
-0.32114 0.176001 0.141009 111 65 61
-0.320464 0.17719 0.141308 69 59 51
-0.319423 0.178098 0.141856 55 52 45
-0.318752 0.17928 0.142152 45 40 33
-0.31772 0.180178 0.142696 40 32 23
-0.316693 0.181071 0.143237 38 33 22
-0.315671 0.181959 0.143775 35 35 24
-0.320283 0.121765 0.144952 22 22 15
-0.319633 0.122986 0.145234 22 21 15
-0.32796 0.167632 0.135861 92 83 74
-0.324964 0.167241 0.137738 94 78 61
-0.323522 0.167919 0.138559 83 57 58
-0.322466 0.168859 0.139118 87 73 72
-0.322161 0.17033 0.139165 90 62 61
-0.321855 0.171801 0.139213 83 56 63
-0.321549 0.173272 0.13926 78 71 77
-0.320502 0.174193 0.139816 80 85 83
-0.319828 0.175384 0.140116 76 63 59
-0.319156 0.176572 0.140415 67 53 38
-0.317757 0.177202 0.141215 49 38 28
-0.317091 0.178381 0.141511 37 30 23
-0.316067 0.179278 0.142054 33 30 20
-0.315407 0.180448 0.142348 34 33 20
-0.314392 0.181336 0.142887 33 31 21
-0.313029 0.181938 0.143666 32 33 25
-0.319082 0.122921 0.143887 17 16 16
-0.321893 0.168794 0.137716 120 80 68
-0.321587 0.170265 0.137764 92 53 48
-0.32091 0.171466 0.138067 58 34 35
-0.320234 0.172662 0.138371 47 37 37
-0.319193 0.173583 0.138927 55 52 44
-0.318523 0.174772 0.139228 55 43 39
-0.317491 0.175683 0.13978 52 40 32
-0.315386 0.175768 0.141076 45 35 27
-0.314729 0.17694 0.141371 37 28 21
-0.314073 0.17811 0.141664 32 26 18
-0.313773 0.179552 0.141711 31 31 19
-0.313474 0.180994 0.141757 32 30 19
-0.312117 0.181598 0.142541 30 30 21
-0.320311 0.123839 0.14133 19 16 14
-0.31135 0.174713 0.141967 36 29 24
-0.310706 0.175873 0.142257 31 26 19
-0.310409 0.1773 0.142303 30 28 19
-0.311855 0.180099 0.141125 31 27 19
-0.311556 0.181536 0.141172 30 28 18
-0.307465 0.179934 0.143888 29 29 19
-0.323778 0.117977 0.138007 28 19 12
-0.323479 0.119416 0.138054 24 17 9
-0.323913 0.121248 0.137598 21 17 10
-0.323314 0.124133 0.137692 23 15 14
-0.323014 0.125575 0.137738 23 18 13
-0.308383 0.172796 0.14231 40 37 28
-0.307749 0.173947 0.142597 38 33 26
-0.306779 0.174831 0.143122 31 29 20
-0.306486 0.176241 0.143167 30 25 20
-0.303858 0.175792 0.144871 30 27 20
-0.300955 0.175091 0.146774 30 29 19
-0.32536 0.117426 0.135321 39 33 26
-0.325059 0.118875 0.135367 34 24 21
-0.325129 0.120521 0.135158 26 20 13
-0.324828 0.121972 0.135205 20 16 12
-0.323855 0.12467 0.135555 21 16 13
-0.322819 0.125712 0.136111 21 19 14
-0.30518 0.172316 0.142691 51 37 32
-0.302251 0.17165 0.144624 37 35 24
-0.300345 0.171757 0.145829 29 26 19
-0.29878 0.172116 0.14679 29 27 18
-0.33272 0.119823 0.128596 40 35 27
-0.330082 0.120104 0.130264 41 34 28
-0.329391 0.121379 0.130579 49 35 27
-0.328702 0.122652 0.130894 52 27 20
-0.328015 0.12392 0.131207 28 20 16
-0.326198 0.12457 0.13231 19 16 12
-0.324401 0.125213 0.1334 19 15 12
-0.323359 0.126256 0.133965 19 17 14
-0.322323 0.127295 0.134526 19 18 12
-0.321293 0.128327 0.135084 21 19 10
-0.320268 0.129354 0.13564 21 19 12
-0.319608 0.130583 0.135939 21 20 15
-0.336017 0.120077 0.124628 43 40 29
-0.335304 0.121381 0.124958 43 42 30
-0.333797 0.122267 0.125845 47 40 30
-0.332697 0.123352 0.126448 56 43 27
-0.331993 0.124639 0.126772 60 40 26
-0.32974 0.125087 0.128189 35 32 21
-0.327898 0.125736 0.129318 20 15 10
-0.326077 0.126378 0.130434 18 17 13
-0.323533 0.1266 0.132062 19 16 12
-0.322493 0.12764 0.13263 18 17 9
-0.32146 0.128674 0.133195 22 18 10
-0.320432 0.129703 0.133757 23 19 13
-0.31977 0.130936 0.13406 22 19 15
-0.31911 0.132165 0.134363 23 20 16
-0.318812 0.133603 0.134409 27 21 16
-0.336234 0.120416 0.122622 56 46 35
-0.335117 0.121516 0.12324 66 51 37
-0.334804 0.123025 0.123289 65 41 30
-0.333694 0.124115 0.123903 57 37 21
-0.332197 0.124988 0.124793 44 35 19
-0.331102 0.126064 0.125398 30 29 16
-0.328854 0.126502 0.126825 19 14 14
-0.327018 0.127143 0.127961 18 16 15
-0.325201 0.127777 0.129085 20 15 12
-0.322665 0.127987 0.130724 17 17 11
-0.321262 0.128815 0.131557 19 17 13
-0.31987 0.129637 0.132383 21 18 13
-0.319209 0.130869 0.132688 22 20 14
-0.31891 0.13231 0.132735 23 21 16
-0.318252 0.133537 0.133039 27 23 16
-0.317953 0.134976 0.133086 30 22 17
-0.317297 0.136197 0.133389 27 22 19
-0.336452 0.120756 0.120605 70 52 43
-0.335331 0.121859 0.12123 74 54 39
-0.334217 0.122955 0.121851 70 45 30
-0.333903 0.124464 0.121901 61 34 25
-0.332796 0.125549 0.122518 38 31 19
-0.330911 0.126205 0.123695 23 18 12
-0.329047 0.126853 0.124859 18 15 14
-0.327586 0.127705 0.125735 21 14 15
-0.325005 0.127918 0.127418 21 14 13
-0.323207 0.128545 0.12854 16 16 13
-0.321063 0.128957 0.129914 16 17 14
-0.31967 0.129779 0.130748 19 17 12
-0.319009 0.131013 0.131056 21 20 13
-0.318349 0.132244 0.131363 21 22 16
-0.317692 0.133471 0.131669 23 22 16
-0.317036 0.134695 0.131974 26 22 18
-0.316737 0.136132 0.132021 28 22 21
-0.316439 0.137568 0.132067 30 29 18
-0.315432 0.138565 0.132629 31 29 19
-0.335861 0.120685 0.119159 72 62 48
-0.334742 0.121788 0.119788 70 50 35
-0.333629 0.122884 0.120414 66 43 28
-0.333316 0.124393 0.120463 61 35 27
-0.33221 0.125479 0.121085 37 27 22
-0.330719 0.126347 0.121987 23 16 11
-0.328468 0.126784 0.123442 24 20 14
-0.327009 0.127637 0.124324 31 26 18
-0.324809 0.12806 0.125746 27 21 16
-0.32301 0.128687 0.126879 19 18 13
-0.320864 0.129099 0.128266 16 17 13
-0.31947 0.129921 0.129108 18 17 13
-0.318808 0.131157 0.129419 20 17 14
-0.317788 0.132178 0.12999 22 19 17
-0.317131 0.133405 0.130298 24 21 17
-0.316476 0.13463 0.130605 24 24 17
-0.316178 0.136066 0.130652 30 25 19
-0.315879 0.137503 0.130699 32 30 19
-0.314874 0.1385 0.131264 30 27 21
-0.314576 0.139933 0.13131 29 23 17
-0.334868 0.120408 0.118005 70 65 50
-0.333754 0.12151 0.118637 62 47 34
-0.333042 0.122813 0.118976 59 47 33
-0.332332 0.124113 0.119314 59 45 34
-0.331625 0.125409 0.119652 35 24 27
-0.329746 0.126066 0.120845 29 23 19
-0.327889 0.126715 0.122024 31 31 25
-0.325673 0.127147 0.123468 38 39 27
-0.324236 0.127992 0.124344 36 34 25
-0.323183 0.12904 0.12494 27 27 20
-0.320664 0.129241 0.126614 21 21 16
-0.319632 0.130274 0.127197 18 17 15
-0.318606 0.131301 0.127777 18 16 15
-0.317586 0.132323 0.128354 21 16 16
-0.316571 0.13334 0.128927 24 20 15
-0.316272 0.134778 0.128974 23 21 15
-0.315618 0.136001 0.129283 27 21 15
-0.31532 0.137437 0.12933 27 22 18
-0.313964 0.138217 0.130159 27 22 18
-0.313667 0.139647 0.130205 27 25 18
-0.31337 0.141078 0.130252 26 23 17
-0.334278 0.120336 0.116561 78 73 58
-0.332768 0.121233 0.117489 67 55 43
-0.332059 0.122535 0.117829 59 52 38
-0.331351 0.123833 0.118169 61 52 38
-0.330254 0.124918 0.118796 51 39 38
-0.328003 0.125366 0.120275 53 48 46
-0.326164 0.126017 0.121452 48 52 47
-0.324721 0.126869 0.122339 43 46 40
-0.323663 0.127924 0.122943 39 42 35
-0.322241 0.128762 0.123817 38 38 33
-0.320097 0.129174 0.125227 36 33 26
-0.31943 0.130418 0.125545 29 27 20
-0.318766 0.131658 0.125862 21 20 18
-0.317382 0.132469 0.126712 19 18 16
-0.316724 0.1337 0.127026 22 21 14
-0.316068 0.134927 0.127338 25 19 13
-0.315413 0.136151 0.12765 25 20 17
-0.31476 0.137372 0.127961 22 19 16
-0.313406 0.138152 0.128795 23 19 18
-0.31276 0.139363 0.129103 22 22 17
-0.312463 0.140791 0.129149 23 22 15
-0.312167 0.14222 0.129196 25 22 15
-0.311176 0.143199 0.129762 25 22 17
-0.331785 0.120957 0.116344 84 76 62
-0.330685 0.122051 0.116977 72 63 50
-0.329982 0.123347 0.117317 66 59 43
-0.328504 0.124221 0.118232 84 74 57
-0.325894 0.124466 0.119992 88 85 74
-0.324452 0.125325 0.120885 82 78 69
-0.323396 0.126384 0.121493 66 67 59
-0.321974 0.127229 0.122373 53 55 50
-0.320564 0.128067 0.123247 47 48 46
-0.319166 0.128897 0.124113 47 49 42
-0.318865 0.130351 0.12416 46 48 37
-0.318563 0.131804 0.124208 41 40 35
-0.317179 0.132616 0.125066 32 27 26
-0.31652 0.133848 0.125382 23 22 21
-0.315863 0.135077 0.125698 25 21 21
-0.314853 0.136086 0.126279 23 22 17
-0.313848 0.137089 0.126857 22 18 14
-0.311804 0.137435 0.128218 20 17 15
-0.311508 0.138861 0.128264 20 18 15
-0.311212 0.140286 0.128311 20 19 15
-0.310916 0.14171 0.128357 22 21 16
-0.310276 0.142912 0.128664 25 22 18
-0.30998 0.144334 0.128711 23 21 18
-0.329319 0.12157 0.116129 86 87 73
-0.327462 0.122246 0.117337 84 86 68
-0.325625 0.122915 0.118532 108 104 84
-0.324184 0.12378 0.119431 104 97 84
-0.323128 0.124844 0.120042 99 95 84
-0.321708 0.125695 0.120929 94 90 79
-0.320666 0.126746 0.121532 82 80 71
-0.318902 0.127377 0.12268 70 69 65
-0.3186 0.12883 0.122728 64 64 62
-0.318299 0.130284 0.122775 65 68 62
-0.317997 0.131737 0.122823 68 70 61
-0.316615 0.132549 0.123687 64 64 57
-0.315957 0.133782 0.124005 59 56 49
-0.3153 0.135011 0.124323 44 33 25
-0.314292 0.13602 0.124907 27 18 17
-0.312938 0.136807 0.125755 20 16 15
-0.310903 0.137155 0.127122 17 17 14
-0.310263 0.138361 0.12743 18 17 15
-0.309968 0.139782 0.127477 18 18 15
-0.309673 0.141204 0.127523 20 21 16
-0.309083 0.144046 0.127616 24 22 18
-0.30913 0.145693 0.127401 24 21 18
-0.325356 0.121363 0.117071 101 103 82
-0.323916 0.122235 0.117976 108 103 86
-0.323235 0.123507 0.118308 104 97 85
-0.321812 0.124366 0.119203 103 98 86
-0.320401 0.125217 0.120091 105 102 88
-0.318638 0.125856 0.121248 104 103 90
-0.318336 0.12731 0.121295 99 100 88
-0.318034 0.128763 0.121343 94 95 83
-0.318095 0.130428 0.121114 90 88 76
-0.317431 0.13167 0.121438 86 80 69
-0.316769 0.132909 0.12176 74 72 65
-0.315394 0.133716 0.122628 74 71 63
-0.314738 0.134945 0.122947 55 47 33
-0.313731 0.135954 0.123536 29 20 21
-0.31238 0.136742 0.124389 20 15 17
-0.310348 0.13709 0.125765 18 16 15
-0.309366 0.13808 0.126338 17 16 15
-0.30873 0.139282 0.126647 18 16 15
-0.308436 0.140699 0.126693 20 18 14
-0.308142 0.142117 0.12674 22 22 15
-0.307553 0.144951 0.126832 24 22 16
-0.307599 0.146596 0.126617 23 22 16
-0.307304 0.148015 0.126663 25 20 14
-0.30701 0.149433 0.126709 24 19 14
-0.322967 0.121964 0.116855 102 95 80
-0.321545 0.122829 0.117756 101 96 83
-0.320502 0.12389 0.118369 101 99 86
-0.319831 0.125149 0.118698 103 102 89
-0.318071 0.125789 0.119862 104 104 91
-0.31777 0.127243 0.11991 104 105 92
-0.31783 0.128905 0.119679 106 105 92
-0.318253 0.130784 0.119169 106 101 89
-0.317226 0.131816 0.119775 95 87 75
-0.316203 0.132843 0.120377 78 61 55
-0.314831 0.133649 0.12125 84 78 64
-0.314176 0.134879 0.121571 67 60 51
-0.313523 0.136105 0.121891 53 43 43
-0.31252 0.13711 0.122482 41 34 44
-0.310829 0.137674 0.123607 28 25 34
-0.309155 0.138232 0.12472 21 18 21
-0.308178 0.139218 0.125295 19 15 15
-0.307883 0.140635 0.125342 20 16 14
-0.30725 0.141832 0.125651 22 21 14
-0.320236 0.122358 0.116926 98 94 83
-0.319565 0.123619 0.117257 103 99 84
-0.318532 0.124673 0.117868 103 99 86
-0.317867 0.125926 0.118197 102 100 86
-0.317565 0.127382 0.118244 104 103 88
-0.317988 0.129257 0.11773 107 105 91
-0.318413 0.131142 0.117213 112 105 92
-0.318109 0.132605 0.117261 110 96 83
-0.315638 0.132776 0.118993 85 59 50
-0.314267 0.133583 0.119872 79 72 55
-0.313613 0.134813 0.120195 70 72 65
-0.312961 0.136039 0.120517 91 83 75
-0.31196 0.137045 0.121112 90 84 86
-0.310271 0.137609 0.122244 76 69 75
-0.308601 0.138168 0.123365 55 45 44
-0.307965 0.139371 0.123678 36 26 20
-0.307331 0.140571 0.12399 22 18 15
-0.306361 0.141548 0.124566 22 22 16
-0.306067 0.142962 0.124612 22 23 16
-0.306111 0.144599 0.124394 25 22 15
-0.305817 0.146015 0.12444 25 21 14
-0.318267 0.123147 0.11643 95 94 79
-0.317241 0.1242 0.117043 99 96 84
-0.316939 0.125654 0.11709 101 96 85
-0.316637 0.127108 0.117138 103 97 84
-0.316696 0.128771 0.116904 104 100 85
-0.317116 0.130649 0.116386 107 105 89
-0.316091 0.131682 0.117 119 106 90
-0.315072 0.132709 0.117609 101 77 63
-0.31335 0.133303 0.118772 80 71 55
-0.313051 0.134747 0.118819 93 83 74
-0.312751 0.13619 0.118866 118 111 101
-0.3114 0.136979 0.119741 128 128 122
-0.308683 0.136896 0.121693 127 122 117
-0.307366 0.137671 0.122545 107 90 80
-0.306734 0.138872 0.122858 65 47 39
-0.30644 0.140288 0.122905 29 19 19
-0.305474 0.141264 0.123483 22 23 26
-0.305181 0.142676 0.123529 24 22 20
-0.299666 0.156525 0.125871 12 12 10
-0.316013 0.125383 0.115987 96 92 84
-0.315712 0.126835 0.116035 99 95 84
-0.315769 0.128495 0.1158 96 88 77
-0.315467 0.129949 0.115847 89 74 68
-0.314808 0.131191 0.116178 97 68 58
-0.313795 0.132217 0.116788 98 70 65
-0.312788 0.133237 0.117395 77 68 58
-0.312488 0.134681 0.117443 103 94 84
-0.312189 0.136125 0.11749 124 122 119
-0.31084 0.136914 0.118371 137 141 140
-0.307108 0.136188 0.121146 143 144 139
-0.306138 0.137177 0.121729 130 118 113
-0.305509 0.138376 0.122043 85 65 69
-0.305216 0.139788 0.122089 45 31 35
-0.304923 0.141201 0.122136 27 32 52
-0.297544 0.15691 0.125622 11 14 10
-0.314433 0.126358 0.115217 92 86 76
-0.314488 0.128013 0.114982 85 75 64
-0.314543 0.129672 0.114746 65 45 44
-0.313886 0.130913 0.115077 55 33 36
-0.313231 0.132151 0.115408 85 62 60
-0.312225 0.133171 0.116019 87 80 68
-0.311925 0.134615 0.116066 95 92 88
-0.311275 0.135842 0.116394 110 112 117
-0.309932 0.136631 0.117278 125 122 126
-0.30588 0.135699 0.120334 133 124 123
-0.305587 0.137113 0.12038 125 111 120
-0.304958 0.138312 0.120696 108 74 84
-0.305336 0.14016 0.120204 86 89 71
-0.296334 0.154757 0.125027 12 14 12
-0.295759 0.157527 0.125118 12 12 10
-0.313568 0.12774 0.113884 72 63 53
-0.313622 0.129396 0.113647 46 33 31
-0.313321 0.130846 0.113694 30 29 34
-0.312314 0.131872 0.114311 76 67 62
-0.311662 0.133105 0.114642 106 107 88
-0.311363 0.134549 0.114689 110 102 99
-0.310365 0.13556 0.1153 108 89 93
-0.309027 0.13635 0.116187 106 85 89
-0.305329 0.135634 0.118985 98 77 92
-0.304701 0.136835 0.119302 104 81 110
-0.294875 0.155613 0.124269 14 13 12
-0.294302 0.158376 0.12436 15 12 9
-0.293702 0.159519 0.124663 13 10 8
-0.293104 0.160659 0.124966 12 10 9
-0.312402 0.130569 0.112598 41 38 33
-0.31175 0.131806 0.112932 61 56 55
-0.311099 0.133039 0.113264 93 102 91
-0.310102 0.134054 0.113879 124 130 118
-0.30911 0.135064 0.114491 150 147 126
-0.306418 0.135 0.11649 162 155 126
-0.304443 0.135358 0.117908 157 148 137
-0.302823 0.135922 0.119038 156 147 170
-0.302531 0.137328 0.119084 203 245 240
-0.293112 0.156231 0.123773 15 16 12
-0.292827 0.157608 0.123818 15 15 10
-0.292231 0.158747 0.124121 14 12 10
-0.291638 0.159884 0.124423 14 10 10
-0.291045 0.161018 0.124725 14 10 9
-0.290761 0.162388 0.12477 18 18 15
-0.290171 0.163517 0.12507 29 26 19
-0.310836 0.131528 0.111839 55 51 50
-0.310187 0.13276 0.112173 71 63 65
-0.308848 0.133562 0.113074 100 88 78
-0.306837 0.133934 0.114528 122 119 101
-0.304185 0.133881 0.116513 151 147 134
-0.302566 0.134453 0.117651 188 154 152
-0.299991 0.134395 0.119579 172 171 152
-0.299058 0.135371 0.120156 194 225 203
-0.297811 0.136133 0.120993 234 239 230
-0.291671 0.157078 0.123022 18 14 12
-0.291079 0.158216 0.123326 17 13 11
-0.290182 0.159115 0.123885 15 12 12
-0.289291 0.160009 0.124441 15 10 10
-0.289008 0.161372 0.124486 12 13 12
-0.288423 0.162497 0.124785 19 18 14
-0.28814 0.163859 0.12483 28 23 16
-0.308586 0.13206 0.111656 62 41 62
-0.306577 0.132442 0.11312 59 43 61
-0.304595 0.132819 0.114565 75 73 69
-0.303301 0.133607 0.115441 108 96 91
-0.301035 0.133764 0.117126 146 116 107
-0.299126 0.134125 0.118518 144 131 121
-0.297877 0.134894 0.119362 162 161 142
-0.296638 0.135656 0.1202 197 183 175
-0.294163 0.135588 0.12207 219 219 205
-0.293879 0.136956 0.122116 232 240 224
-0.290827 0.156785 0.121972 37 23 17
-0.289932 0.157687 0.122534 37 22 17
-0.288738 0.158351 0.12335 31 23 17
-0.288456 0.159714 0.123395 24 16 15
-0.288173 0.161076 0.12344 16 13 13
-0.28789 0.162438 0.123485 14 14 11
-0.287308 0.163559 0.123786 20 18 12
-0.287026 0.164919 0.12383 32 24 18
-0.306317 0.13095 0.111712 91 73 78
-0.304336 0.131337 0.113166 89 64 67
-0.303376 0.132338 0.11377 64 53 53
-0.30209 0.133126 0.114647 65 50 69
-0.299839 0.133287 0.116334 109 106 87
-0.298583 0.134062 0.117191 138 127 107
-0.297337 0.134831 0.11804 139 126 118
-0.2961 0.135594 0.118884 153 139 128
-0.294561 0.136144 0.119983 173 167 152
-0.29273 0.136482 0.121329 201 195 179
