# .PCD v0.7 - Point Cloud Data file format
VERSION 0.7
FIELDS x y z
SIZE 4 4 4
TYPE F F F
COUNT 1 1 1
WIDTH 1423
HEIGHT 1
VIEWPOINT 0 0 0 1 0 0 0
POINTS 1423
DATA ascii
0.022053003 -0.198771 0.0045654499
0.019573398 -0.199222 0.0076480098
0.019351505 -0.199351 0.0098352898
0.019889802 -0.199371 0.0117148
0.021939702 -0.199175 0.0129597
0.022475898 -0.199195 0.0148322
0.0222596 -0.199324 0.017028
0.022796698 -0.19934399 0.0189036
0.0233339 -0.199365 0.020779001
0.023118503 -0.199494 0.0229891
0.023656599 -0.199514 0.0248677
0.021926902 -0.199864 0.0277781
0.020944305 -0.20010599 0.0303677
0.019954398 -0.20035 0.032976199
0.019729599 -0.20048299 0.0352403
0.019503899 -0.200616 0.0375125
0.020050503 -0.200637 0.039421301
0.0205971 -0.20065799 0.041329999
0.020372599 -0.200792 0.0436172
0.020920098 -0.200812 0.045529101
0.021467604 -0.20083299 0.047440901
0.022015102 -0.200854 0.049352501
0.0225624 -0.200875 0.051263899
0.023109801 -0.20089599 0.0531753
0.022889204 -0.20103 0.0554878
0.0234375 -0.201051 0.057402398
0.023985699 -0.20107201 0.059316799
0.024534002 -0.201093 0.0612312
0.025082201 -0.201113 0.063145302
0.024864599 -0.201249 0.065479703
0.025413699 -0.20127 0.0673972
0.0259628 -0.20129 0.069314502
0.025746204 -0.201426 0.071664199
0.026296303 -0.201447 0.073584802
0.026079901 -0.201584 0.075946502
0.024317898 -0.20195401 0.079214796
0.023317404 -0.20220999 0.082061201
0.023092903 -0.20234901 0.0844649
0.022867605 -0.202489 0.086877503
0.023425601 -0.20251 0.088826098
0.0232004 -0.20265099 0.091251098
0.023759402 -0.202672 0.093203098
0.025877699 -0.202455 0.094188899
0.0264346 -0.20247599 0.096133202
0.026991405 -0.20249701 0.098077402
0.027548105 -0.202518 0.100022
0.027330801 -0.202659 0.102462
0.027112603 -0.20279901 0.104912
0.026893504 -0.202941 0.107371
0.027453303 -0.202962 0.109325
0.028788604 -0.20286299 0.110764
0.030119002 -0.202764 0.112198
0.0344868 -0.20219401 0.111571
0.036541499 -0.20198099 0.112476
0.037837703 -0.201885 0.113885
0.039868601 -0.201675 0.114777
0.041151401 -0.20158 0.116173
0.0431589 -0.201372 0.117051
0.025090404 -0.195292 -0.0210106
0.026336603 -0.195213 -0.0194389
0.0268576 -0.195233 -0.0176199
0.028098501 -0.19515499 -0.016057
0.029335104 -0.195077 -0.0144998
0.029854104 -0.195097 -0.0126875
0.031085402 -0.19502001 -0.011139
0.031603403 -0.195039 -0.0093301199
0.032121405 -0.195059 -0.0075213201
0.031217799 -0.195274 -0.0051653702
0.028867804 -0.19568799 -0.0022316701
0.025751598 -0.196209 0.00103277
0.022579499 -0.19674 0.0043553598
0.019350402 -0.19728 0.0077376999
0.0191283 -0.197405 0.0099253198
0.019666605 -0.19742601 0.011805
0.021717303 -0.197236 0.0130498
0.022253603 -0.197257 0.0149224
0.022789903 -0.19727699 0.016794899
0.023326099 -0.19729801 0.018667299
0.023862302 -0.197318 0.0205396
0.024398401 -0.197338 0.0224116
0.024185501 -0.197464 0.024620701
0.023971699 -0.19758999 0.0268376
0.022243798 -0.19792899 0.0297588
0.021262303 -0.198164 0.032355599
0.020273603 -0.198401 0.034971401
0.020049401 -0.19853 0.037239101
0.020595104 -0.198551 0.039144602
0.020371005 -0.198681 0.041423898
0.020146102 -0.19881099 0.043711498
0.0206936 -0.19883201 0.0456235
0.021241099 -0.198853 0.047535401
0.021788701 -0.198874 0.049447201
0.022336103 -0.19889501 0.051358901
0.022883601 -0.198916 0.0532704
0.022662602 -0.199047 0.055583201
0.023210898 -0.19906799 0.0574979
0.023759298 -0.19908801 0.059412599
0.024307504 -0.199109 0.061326999
0.0248558 -0.19913 0.0632414
0.025403999 -0.19915099 0.065155603
0.025187001 -0.199283 0.067493699
0.025736101 -0.199304 0.069411203
0.025519304 -0.19943599 0.071761303
0.026069403 -0.199457 0.073682003
0.025852598 -0.19959 0.076044098
0.024089299 -0.199949 0.079313099
0.0223061 -0.200312 0.082618698
0.022863299 -0.200333 0.084564097
0.022637501 -0.20047 0.086976998
0.022410899 -0.200606 0.089398898
0.022183403 -0.200744 0.091829799
0.022743501 -0.200765 0.093785599
0.0240881 -0.20067 0.0952553
0.024647102 -0.200691 0.097207099
0.025206 -0.20071299 0.099158801
0.025764905 -0.200734 0.10111
0.024760202 -0.20098799 0.104065
0.024535999 -0.20112599 0.106532
0.025098003 -0.201148 0.108494
0.026442803 -0.201052 0.109941
0.027782798 -0.200957 0.111382
0.029117502 -0.20086201 0.112817
0.030447304 -0.200767 0.114247
0.035565004 -0.200101 0.113088
0.037611902 -0.19989701 0.113986
0.038903803 -0.19980501 0.11539
0.040190801 -0.199714 0.116788
0.027162001 -0.193371 -0.015715601
0.028402403 -0.193296 -0.0141561
0.029638499 -0.193222 -0.0126021
0.030870199 -0.193148 -0.0110536
0.031388305 -0.193167 -0.00924455
0.031906404 -0.193187 -0.0074356301
0.031001903 -0.193396 -0.0050792401
0.0286505 -0.19379701 -0.00214478
0.025532402 -0.19430099 0.00112057
0.022358499 -0.19481499 0.0044441302
0.018366501 -0.195439 0.0081353998
0.018904902 -0.19545899 0.0100154
0.019443303 -0.19548 0.0118952
0.021494903 -0.195298 0.0131398
0.022782803 -0.195217 0.0146934
0.023318201 -0.195237 0.0165627
0.0231039 -0.19535901 0.0187578
0.023640104 -0.195379 0.020630199
0.0241763 -0.1954 0.022502501
0.024712503 -0.19542 0.0243746
0.0237488 -0.19564401 0.026929099
0.022019804 -0.19597299 0.0298509
0.0218006 -0.196097 0.032093301
0.0208157 -0.196326 0.0347034
0.019823603 -0.196557 0.037332602
0.020369299 -0.196578 0.0392382
0.020915002 -0.19659799 0.0411437
0.020691499 -0.196725 0.0434267
0.020467199 -0.196852 0.045717999
0.021014698 -0.19687299 0.047630101
0.021562301 -0.196894 0.049541999
0.022109799 -0.196915 0.051453799
0.022657305 -0.196935 0.053365499
0.023204699 -0.19695599 0.055277001
0.022984304 -0.19708399 0.057593498
0.024299502 -0.196998 0.0590997
0.0248468 -0.197019 0.0610108
0.025394201 -0.19704001 0.0629218
0.025177598 -0.19716799 0.065251797
0.025725901 -0.197189 0.067166097
0.025509499 -0.197317 0.069508001
0.025292203 -0.197446 0.071858399
0.025842398 -0.197467 0.0737793
0.025625303 -0.197596 0.0761417
0.024635501 -0.197834 0.078961201
0.022858799 -0.198185 0.082258902
0.0226335 -0.19831701 0.084663302
0.022407405 -0.19845 0.0870765
0.022180401 -0.19858301 0.089498803
0.021952502 -0.198716 0.091930002
0.021723703 -0.19885001 0.094370201
0.022284903 -0.198872 0.096329696
0.022845998 -0.198893 0.098289199
0.023407198 -0.19891401 0.100248
0.023968205 -0.198936 0.102207
0.023742601 -0.19907001 0.104671
0.023516104 -0.19920599 0.107144
0.024079204 -0.19922701 0.10911
0.025428705 -0.19913501 0.110558
0.026772998 -0.19904301 0.112001
0.0281123 -0.19895101 0.113438
0.029446401 -0.19886 0.114869
0.034584902 -0.19821499 0.113702
0.036639303 -0.198017 0.114599
0.0386784 -0.19781999 0.11549
0.027466401 -0.191508 -0.0138112
0.029422805 -0.191346 -0.0125167
0.0306549 -0.191275 -0.0109682
0.031173103 -0.191295 -0.0091590201
0.031691201 -0.191315 -0.00734992
0.031498998 -0.191425 -0.0052675102
0.029155202 -0.19181199 -0.0023393601
0.025313199 -0.19239201 0.00120842
0.022137403 -0.192889 0.00453293
0.017379105 -0.193591 0.0085345404
0.016383901 -0.193809 0.0110468
0.018457904 -0.19363201 0.0123015
0.021272503 -0.193358 0.0132299
0.022560902 -0.19328099 0.0147834
0.023096301 -0.19330201 0.016652901
0.0228815 -0.19341999 0.0188483
0.023417905 -0.193441 0.020720899
0.024702303 -0.19336399 0.0222605
0.025237501 -0.19338401 0.024129501
0.024277605 -0.1936 0.026678599
0.021795802 -0.19401699 0.029943001
0.021576203 -0.19413801 0.0321857
0.021355703 -0.194259 0.034436502
0.020367399 -0.194481 0.037060101
0.020143501 -0.19460399 0.039331801
0.020689204 -0.19462501 0.0412375
0.020465299 -0.194748 0.043520901
0.020240605 -0.19487099 0.045812499
0.0207882 -0.194892 0.047724701
0.0213359 -0.194913 0.0496368
0.021883398 -0.194934 0.051548701
0.022431001 -0.19495501 0.053460602
0.0229785 -0.194976 0.055372301
0.023525998 -0.194997 0.0572838
0.0240734 -0.19501799 0.059195299
0.024620801 -0.195039 0.061106499
0.025168099 -0.19506 0.063017704
0.025715403 -0.195081 0.064928703
0.0254995 -0.195205 0.067262501
0.026047699 -0.195226 0.069176704
0.025832005 -0.195351 0.071522303
0.025615402 -0.195476 0.0738765
0.0261655 -0.19549701 0.075797498
0.025179602 -0.19572701 0.078610703
0.024186403 -0.19596 0.081444703
0.023185603 -0.19619399 0.084299698
0.022960998 -0.19632199 0.086708002
0.022735499 -0.19645099 0.089125201
0.021721698 -0.196688 0.092030197
0.021492399 -0.19681901 0.094470903
0.022053704 -0.19684 0.0964306
0.021824598 -0.196971 0.0988838
0.022386804 -0.19699199 0.100847
0.0229491 -0.197014 0.10281
0.022721104 -0.197145 0.105279
0.023284301 -0.19716699 0.107246
0.023847401 -0.197188 0.109212
0.024410501 -0.19721 0.111178
0.025759399 -0.19712199 0.112623
0.027882002 -0.196925 0.11354
0.029216602 -0.19683699 0.114972
0.034357704 -0.19621401 0.113803
0.036412999 -0.196024 0.1147
0.038453102 -0.19583499 0.115591
0.028490201 -0.189558 -0.0121694
0.030439705 -0.189402 -0.0108828
0.030957803 -0.189422 -0.0090734502
0.031475998 -0.18944199 -0.0072642202
0.031994201 -0.18946201 -0.00545508
0.029658005 -0.189834 -0.00253324
0.025094002 -0.190484 0.0012962701
0.0219163 -0.190963 0.0046216999
0.014845103 -0.191927 0.0095595997
0.015387498 -0.191948 0.0114536
0.017468803 -0.19177701 0.0127092
0.021049999 -0.19141901 0.0133199
0.0223388 -0.191346 0.0148735
0.022874303 -0.191366 0.016743099
0.023409702 -0.191387 0.018612601
0.023945101 -0.191407 0.020482
0.024480402 -0.19142801 0.0223512
0.025015801 -0.191449 0.024220301
0.024055101 -0.19165801 0.026769901
0.023087502 -0.19186901 0.029337799
0.021351703 -0.192178 0.032278199
0.021130905 -0.192295 0.034529299
0.020909302 -0.192413 0.036788501
0.020686701 -0.192532 0.039055798
0.0204634 -0.192651 0.041331299
0.021009199 -0.192672 0.043237001
0.020785898 -0.192791 0.045524001
0.020561799 -0.192911 0.047819301
0.0218793 -0.19283301 0.049341701
0.022425905 -0.192854 0.051250301
0.022972405 -0.192875 0.053158801
0.022752203 -0.192995 0.055467598
0.023299702 -0.19301599 0.057379302
0.0238472 -0.193037 0.059290901
0.024394698 -0.193058 0.061202299
0.0249421 -0.19307899 0.0631136
0.025489405 -0.19310001 0.065024801
0.026036799 -0.193121 0.0669358
0.025821403 -0.193242 0.0692733
0.026369698 -0.19326299 0.0711876
0.026154503 -0.19338401 0.073537
0.025938503 -0.193506 0.0758949
0.025721699 -0.193628 0.078261398
0.024732299 -0.19385201 0.081088997
0.0229562 -0.19418 0.084398799
0.0227312 -0.194305 0.0868074
0.022505403 -0.19442999 0.089224897
0.021490701 -0.19465999 0.092130497
0.021261103 -0.194787 0.094571501
0.021030702 -0.194914 0.097021498
0.021593004 -0.19493499 0.098984897
0.0213627 -0.19506299 0.101448
0.021926001 -0.19508401 0.103415
0.022489205 -0.195106 0.105381
0.023052402 -0.19512799 0.107348
0.023615599 -0.195149 0.109314
0.024178803 -0.195171 0.111281
0.0255282 -0.195087 0.112725
0.027651705 -0.194897 0.113642
0.029759198 -0.194709 0.114552
0.034884803 -0.194111 0.113391
0.036934398 -0.193929 0.114288
0.038227603 -0.193849 0.115691
0.0275544 -0.18776301 -0.0118208
0.029510498 -0.187613 -0.0105331
0.030742601 -0.187549 -0.0089878896
0.031260699 -0.18756901 -0.00717847
0.031778999 -0.187589 -0.0053691999
0.0315869 -0.187693 -0.00328316
0.028522 -0.18814 -5.5968801e-05
0.021695204 -0.189037 0.0047105299
0.013843901 -0.19005901 0.0099642696
0.014387399 -0.19008 0.0118619
0.0172446 -0.189823 0.0127998
0.020827405 -0.18947899 0.01341
0.022116698 -0.189409 0.0149636
0.022652298 -0.18943 0.0168334
0.023187704 -0.18945099 0.018703001
0.023723103 -0.18947101 0.0205725
0.024258599 -0.189492 0.022441899
0.024793901 -0.189513 0.0243112
0.024582304 -0.189624 0.0265202
0.024369799 -0.18973599 0.028736999
0.022647299 -0.19003201 0.031663701
0.021669298 -0.190238 0.034263302
0.021449104 -0.19035199 0.036518
0.021228001 -0.190467 0.038780801
0.0210061 -0.19058201 0.041051801
0.020783305 -0.190697 0.043331001
0.021329105 -0.190718 0.045236599
0.0211064 -0.190834 0.047527399
0.021653205 -0.190855 0.049436301
0.022199802 -0.19087601 0.051345099
0.022746503 -0.190898 0.053253699
0.0232931 -0.190919 0.055162199
0.0238396 -0.19093999 0.057070602
0.024386205 -0.190961 0.0589788
0.024932705 -0.190982 0.060887001
0.0247159 -0.191098 0.063209601
0.025263399 -0.19112 0.065120898
0.025810704 -0.19114099 0.067032099
0.026358098 -0.19116201 0.068943202
0.026143402 -0.19127899 0.071284398
0.025927901 -0.191396 0.073634103
0.026477098 -0.19141801 0.0755518
0.0254943 -0.191633 0.078359202
0.024504103 -0.19185001 0.081187397
0.022726804 -0.192167 0.084497802
0.0217169 -0.192388 0.087375201
0.021488704 -0.19250999 0.089798503
0.020468399 -0.192733 0.092712
0.0210298 -0.192754 0.094672099
0.020798899 -0.19287799 0.097122498
0.020567201 -0.193001 0.099582002
0.021130599 -0.193023 0.101549
0.021694005 -0.19304501 0.103516
0.022257298 -0.193067 0.105483
0.022820599 -0.193088 0.10745
0.023383804 -0.19311 0.109416
0.023947001 -0.193132 0.111383
0.026080601 -0.192949 0.112307
0.028198101 -0.19276799 0.113224
0.030299701 -0.192589 0.114135
0.035409905 -0.19201601 0.11298
0.0367084 -0.191939 0.114389
0.026615202 -0.18596099 -0.011471
0.028578103 -0.185818 -0.0101821
0.030527301 -0.18567599 -0.0089022899
0.031045504 -0.18569601 -0.0070927599
0.032272801 -0.185635 -0.00555629
0.032081999 -0.185736 -0.0034740299
0.030463703 -0.186 -0.00082127698
0.022965804 -0.186939 0.00420294
0.014394805 -0.188005 0.0097407801
0.014937401 -0.188026 0.0116351
0.017020404 -0.187869 0.0128904
0.020604804 -0.187539 0.0135001
0.021894604 -0.187473 0.0150537
0.022430204 -0.187493 0.016923601
0.022965804 -0.18751401 0.0187934
0.023501202 -0.187535 0.020663099
0.024036698 -0.187556 0.022532601
0.023823701 -0.187664 0.024738699
0.024360001 -0.187684 0.0266113
0.024147205 -0.187793 0.0288285
0.023933604 -0.187902 0.0310535
0.022205703 -0.188188 0.033998098
0.021986902 -0.188299 0.036248501
0.021767199 -0.188409 0.038506899
0.022310205 -0.18843 0.040402599
0.022090703 -0.188541 0.042672399
0.0218703 -0.18865301 0.044950299
0.0216491 -0.188765 0.047236498
0.0221949 -0.188786 0.0491421
0.022740602 -0.188807 0.0510475
0.023286298 -0.18882801 0.0529528
0.023832001 -0.188849 0.054857999
0.023613803 -0.188962 0.057165898
0.0241604 -0.18898299 0.059074301
0.0247069 -0.189004 0.0609826
0.0252534 -0.189025 0.062890701
0.025037304 -0.18913899 0.065217003
0.025584705 -0.18916 0.067128398
0.026132099 -0.189181 0.069039598
0.025917001 -0.189294 0.071381196
0.025701202 -0.189408 0.073731199
0.025484398 -0.189523 0.076089799
0.025266804 -0.18963701 0.078456998
0.023500502 -0.189941 0.081740201
0.0217143 -0.190249 0.085060097
0.020698704 -0.19046301 0.087945201
0.020468302 -0.19058099 0.090374298
0.020236999 -0.19069999 0.092812397
0.0207984 -0.190722 0.094772801
0.020567201 -0.190841 0.097223498
0.021129601 -0.190863 0.099187203
0.021692 -0.19088501 0.101151
0.0222544 -0.190907 0.103114
0.022025302 -0.191027 0.105585
0.0225887 -0.191048 0.107552
0.023151904 -0.19107001 0.109519
0.025288604 -0.190896 0.11045
0.027409203 -0.190723 0.111375
0.0287425 -0.19064701 0.112808
0.030070603 -0.19057199 0.114236
0.035183504 -0.19002099 0.113081
0.027642399 -0.184016 -0.0098298797
0.030311905 -0.18380199 -0.0088166697
0.030830204 -0.18382201 -0.00700698
0.032057904 -0.18376499 -0.0054705399
0.032575302 -0.18378501 -0.0036642
0.032384999 -0.183883 -0.00157864
0.030051701 -0.18421599 0.00137053
0.014169604 -0.18604299 0.0098313997
0.0147122 -0.186064 0.0117258
0.016026802 -0.186 0.0133
0.018865004 -0.185766 0.014227
0.020918898 -0.185619 0.0154638
0.022208102 -0.18555699 0.0170139
0.022743702 -0.18557701 0.018883901
0.022528604 -0.185682 0.0210838
0.023065001 -0.18570299 0.0229569
0.023601398 -0.18572401 0.024829799
0.023387298 -0.185829 0.027044
0.023172401 -0.18593401 0.0292661
0.023710601 -0.185955 0.031145399
0.023495905 -0.18606 0.033378601
0.022522703 -0.186252 0.035979901
0.022304602 -0.186359 0.038233899
0.022085398 -0.18646599 0.040495899
0.022628404 -0.186487 0.042391598
0.022409499 -0.18659499 0.044665098
0.022189699 -0.186703 0.046946701
0.022734605 -0.18672401 0.048849002
0.022514902 -0.18683299 0.051142201
0.023060702 -0.186854 0.053047702
0.023606405 -0.186875 0.054953001
0.0241521 -0.186896 0.056858201
0.023934402 -0.187005 0.059169799
0.024481103 -0.18702599 0.061078198
0.0250277 -0.187048 0.062986501
0.024811201 -0.18715701 0.065313198
0.025358602 -0.187178 0.067224696
0.025906101 -0.18719999 0.069136098
0.024925001 -0.187398 0.071910203
0.025474399 -0.18742 0.073828399
0.025257304 -0.18753099 0.076187298
0.025039405 -0.18764199 0.078554802
0.021711402 -0.188117 0.082753196
0.020697899 -0.18832301 0.085624598
0.019676603 -0.18853 0.088517398
0.019443899 -0.18864501 0.090952396
0.020005405 -0.188667 0.092913002
0.020567 -0.18868899 0.094873399
0.020335399 -0.188805 0.097324602
0.020897798 -0.18882599 0.099288501
0.023039199 -0.18866099 0.100258
0.023599602 -0.188683 0.102214
0.023373902 -0.188798 0.104674
0.023935199 -0.18882 0.106633
0.0252802 -0.188748 0.108082
0.026620105 -0.188676 0.109525
0.027955003 -0.188605 0.110962
0.029284701 -0.18853401 0.112394
0.029841602 -0.188555 0.114338
0.026703298 -0.182207 -0.0094764
0.028666005 -0.18207701 -0.0081942901
0.030614905 -0.18194801 -0.0069212201
0.031842999 -0.181894 -0.00538474
0.032360405 -0.181914 -0.0035782801
0.032169804 -0.182009 -0.00149241
0.031266503 -0.182179 0.00088524801
0.023056 -0.18312 0.0062342999
0.014486998 -0.184102 0.0118166
0.0158021 -0.18404099 0.0133908
0.017112404 -0.183981 0.0149591
0.019180104 -0.18384001 0.016197899
0.020477198 -0.18378 0.0177524
0.021014802 -0.183801 0.0196293
0.021552302 -0.18382201 0.021506
0.022842601 -0.183762 0.023047799
0.022627205 -0.183864 0.0252591
0.023164704 -0.18388499 0.0271354
0.022949405 -0.18398701 0.0293578
0.022733301 -0.184089 0.0315881
0.023272499 -0.18411 0.033470798
0.023811698 -0.184131 0.0353534
0.022839703 -0.184315 0.0379619
0.022622198 -0.18441901 0.040219501
0.022403702 -0.184523 0.0424852
0.0229467 -0.184544 0.0443809
0.022728398 -0.18464801 0.046658099
0.022509202 -0.184753 0.0489434
0.023054101 -0.184774 0.050845601
0.023598902 -0.18479501 0.052747801
0.024143703 -0.184816 0.0546498
0.0246884 -0.184837 0.056551699
0.023708604 -0.185027 0.059265301
0.024255201 -0.185048 0.061173901
0.024801798 -0.18506899 0.063082397
0.024585001 -0.185175 0.065409303
0.0251325 -0.185197 0.067321002
0.025679998 -0.18521801 0.069232598
0.024698198 -0.18540999 0.072007202
0.025247604 -0.185431 0.073925503
0.024260499 -0.185624 0.076727502
0.023265898 -0.185819 0.079550199
0.020696901 -0.18619099 0.083312199
0.0188848 -0.186479 0.086659998
0.018650599 -0.18659 0.0890918
0.019212298 -0.186612 0.091052704
0.019773901 -0.186634 0.093013503
0.020335503 -0.186656 0.094974101
0.020897001 -0.18667801 0.096934602
0.022248 -0.18661 0.098402202
0.0243764 -0.186453 0.099371299
0.024934605 -0.18647499 0.10132
0.025492802 -0.186497 0.103269
0.026051 -0.186518 0.105218
0.0266091 -0.18653999 0.107167
0.027167201 -0.186562 0.109115
0.028498605 -0.18649501 0.110551
0.025761001 -0.180392 -0.0091216899
0.027730398 -0.180268 -0.0078384103
0.029686004 -0.180145 -0.0065641999
0.030917898 -0.180094 -0.00502552
0.0328523 -0.17997199 -0.00376794
0.033368804 -0.179993 -0.00196458
0.032472901 -0.18015499 0.00040332999
0.030856699 -0.18039 0.0030765701
0.015035704 -0.182061 0.0115904
0.015577301 -0.182082 0.0134816
0.016888104 -0.182026 0.0150499
0.018194102 -0.181969 0.016612399
0.019495301 -0.181913 0.018169099
0.020791799 -0.18185601 0.0197201
0.021329403 -0.181877 0.021597
0.021866903 -0.181899 0.023473701
0.022404499 -0.18192001 0.025350301
0.022941999 -0.181941 0.0272268
0.022726305 -0.18203899 0.029449601
0.022509903 -0.182138 0.0316802
0.023803003 -0.182081 0.033208702
0.0243413 -0.18210199 0.035087999
0.024879605 -0.18212301 0.036967199
0.024666898 -0.18222199 0.039210901
0.022939898 -0.18247899 0.0422053
0.023481898 -0.1825 0.0440978
0.022503302 -0.18268 0.046752099
0.0222838 -0.182781 0.049037699
0.022828698 -0.18280201 0.050940201
0.023373604 -0.182823 0.052842502
0.023918405 -0.182845 0.054744601
0.024463199 -0.18286601 0.056646701
0.023482598 -0.18304799 0.059360798
0.0240293 -0.18306901 0.0612696
0.023811102 -0.183172 0.063593499
0.024358705 -0.183193 0.065505497
0.024906404 -0.18321399 0.067417398
0.024689205 -0.18331701 0.069756597
0.024471298 -0.18342 0.072104201
0.024252504 -0.183524 0.074460402
0.023259804 -0.18370999 0.0772698
0.021479204 -0.183982 0.0805531
0.018887103 -0.184341 0.084336899
0.017857201 -0.184534 0.087230697
0.018419005 -0.18455601 0.089192003
0.018183604 -0.184664 0.091633096
0.019542404 -0.1846 0.093114004
0.020103998 -0.184622 0.095074803
0.021456599 -0.184558 0.096546203
0.023588002 -0.18440901 0.097522601
0.0257034 -0.18426199 0.098491497
0.028570503 -0.18403099 0.098965697
0.029123604 -0.184053 0.100897
0.030439004 -0.183991 0.102335
0.0255436 -0.178501 -0.0090354402
0.027513802 -0.17838401 -0.0077522998
0.029470198 -0.178267 -0.0064782598
0.030702598 -0.17822 -0.0049395701
0.032637805 -0.178104 -0.00368212
0.033154301 -0.17812499 -0.0018786
0.034373902 -0.178077 -0.000356264
0.032775998 -0.17830101 0.0022992601
0.026827998 -0.17894401 0.00675778
0.018417902 -0.179827 0.0123013
0.016663805 -0.18007 0.0151407
0.017204404 -0.18009099 0.0170283
0.019271903 -0.17996401 0.0182599
0.019810505 -0.179985 0.020140501
0.021106504 -0.179933 0.021687901
0.021644101 -0.17995401 0.023564801
0.022181705 -0.179975 0.0254416
0.022719204 -0.179996 0.027318301
0.022503205 -0.18009099 0.029541301
0.023041703 -0.180112 0.031421099
0.02358 -0.180133 0.033300702
0.024869002 -0.18008 0.0348235
0.025406301 -0.18010201 0.0366995
0.0259436 -0.180123 0.038575299
0.024982899 -0.180292 0.041186102
0.024015099 -0.180463 0.043815698
0.023799703 -0.18055999 0.0460838
0.022822298 -0.180732 0.048745401
0.022603303 -0.18083 0.0510347
0.023148201 -0.180851 0.052937198
0.0229294 -0.180949 0.055238102
0.023475304 -0.180971 0.0571438
0.0232566 -0.181069 0.059456401
0.023803301 -0.18109 0.061365299
0.023584798 -0.181189 0.063689597
0.024132505 -0.18121099 0.065601699
0.023914099 -0.18131 0.067937903
0.023694798 -0.181409 0.070282497
0.023474604 -0.181509 0.072635598
0.022479199 -0.181688 0.075438499
0.020694301 -0.18194801 0.078711897
0.019679099 -0.18213101 0.081563398
0.017861404 -0.18239599 0.084901899
0.017625399 -0.1825 0.087330803
0.017388701 -0.182604 0.0897687
0.017951503 -0.18262599 0.091733702
0.018514298 -0.182648 0.093698502
0.019872405 -0.182588 0.095175497
0.022013903 -0.182447 0.096159197
0.024917901 -0.182225 0.096649602
0.028555401 -0.181927 0.096652098
0.030629098 -0.18178999 0.097613499
0.031934604 -0.181733 0.09905
0.027297199 -0.17649899 -0.0076661902
0.029254399 -0.17638899 -0.0063922899
0.030487202 -0.17634501 -0.0048536099
0.032423198 -0.176236 -0.0035963
0.033643998 -0.176192 -0.00207069
0.034860604 -0.176149 -0.00055048597
0.036072902 -0.17610499 0.00096441101
0.033079103 -0.176447 0.0041954
0.018194698 -0.177882 0.0123915
0.016439401 -0.178114 0.0152315
0.016980104 -0.17813499 0.0171193
0.0175208 -0.178157 0.019006999
0.019587204 -0.178037 0.0202315
0.020125799 -0.178058 0.022112099
0.021421202 -0.178009 0.023655999
0.021958902 -0.17803 0.025532899
0.022496402 -0.17805099 0.027409701
0.022280104 -0.17814299 0.029633099
0.022818603 -0.17816401 0.031513002
0.024108998 -0.178115 0.033039398
0.025394604 -0.178066 0.034559999
0.025931001 -0.178087 0.036432799
0.025721103 -0.178178 0.038667802
0.026258498 -0.17819899 0.040543601
0.025298901 -0.178362 0.0431615
0.0243323 -0.178526 0.045798302
0.023358598 -0.178691 0.048454098
0.022377901 -0.178857 0.0511293
0.022157699 -0.17895199 0.053427201
0.0227037 -0.178973 0.0553331
0.023249604 -0.178995 0.057239
0.023030505 -0.17908999 0.059551898
0.0235774 -0.179111 0.061461002
0.023358501 -0.179206 0.063785598
0.023906201 -0.17922799 0.065697998
0.022918001 -0.179398 0.068460301
0.022696503 -0.17949399 0.070810303
0.021698304 -0.179665 0.073606797
0.019909203 -0.179915 0.076870099
0.018891104 -0.180089 0.0797152
0.0178653 -0.18026599 0.082581401
0.016831703 -0.180443 0.085469201
0.016593501 -0.180544 0.087903902
0.017156504 -0.180566 0.089869201
0.017719299 -0.18058801 0.091834299
0.018282205 -0.18061 0.093799204
0.0196409 -0.180554 0.095276304
0.022569202 -0.180342 0.095773697
0.027775601 -0.179905 0.094823599
0.029852204 -0.179775 0.0957921
0.032664903 -0.179573 0.096276298
0.029038601 -0.174511 -0.0063062999
0.030271702 -0.17447001 -0.0047676102
0.032208502 -0.174367 -0.00351045
0.033429801 -0.174327 -0.00198483
0.035345599 -0.174226 -0.00074396998
0.036555104 -0.17418601 0.00076875102
0.036373504 -0.174266 0.00284439
0.026917398 -0.175156 0.0087723304
0.019268602 -0.175891 0.014041
0.017522402 -0.176112 0.016884901
0.0180621 -0.17613301 0.0187693
0.018601902 -0.176155 0.0206536
0.019902401 -0.176109 0.0222032
0.0204411 -0.17613 0.024083801
0.021736003 -0.176085 0.025624201
0.0222736 -0.17610601 0.027501199
0.022057004 -0.176194 0.0297249
0.023348801 -0.176149 0.031254701
0.024635904 -0.176103 0.0327789
0.025172405 -0.17612401 0.034651998
0.025708899 -0.176145 0.036524899
0.026245303 -0.176167 0.0383977
0.026781701 -0.17618801 0.040270299
0.0265733 -0.176276 0.0425121
0.025614999 -0.176432 0.045137201
0.023893103 -0.17665701 0.048163999
0.022916101 -0.176816 0.0508333
0.022697404 -0.176906 0.0531266
0.022477902 -0.17699701 0.055428199
0.023023799 -0.177018 0.0573342
0.022804499 -0.17711 0.059647501
0.023351304 -0.177131 0.061556701
0.023132004 -0.177223 0.063881703
0.023679905 -0.17724501 0.0657942
0.021918304 -0.177478 0.068984598
0.020917304 -0.177642 0.071774602
0.0191238 -0.17788 0.075028002
0.018102899 -0.178047 0.077866398
0.017074302 -0.178216 0.080726102
0.016837604 -0.178312 0.0831431
0.015798204 -0.17848299 0.086038597
0.016361199 -0.178505 0.088004202
0.016924202 -0.178527 0.089969598
0.017487198 -0.17854901 0.091934897
0.019641802 -0.178423 0.092933297
0.020992905 -0.178371 0.0944065
0.025454998 -0.178027 0.093947403
0.029075198 -0.177761 0.093970299
0.0318923 -0.177569 0.094464801
0.0331885 -0.17752001 0.095899597
0.028822705 -0.17263199 -0.00622031
0.030056298 -0.172594 -0.0046815998
0.031993903 -0.172498 -0.00342458
0.033918105 -0.17240401 -0.00217638
0.035829 -0.172309 -0.00093686598
0.038415603 -0.172159 1.52886e-05
0.038926002 -0.17218 0.00179731
0.035278603 -0.172543 0.00530315
0.023547098 -0.173576 0.0122424
0.021092005 -0.17384499 0.0153649
0.017838202 -0.174181 0.018860299
0.019140199 -0.17413899 0.020413499
0.019679002 -0.17416 0.0222944
0.020975299 -0.174118 0.0238383
0.021513104 -0.17413899 0.025715601
0.022050701 -0.174161 0.0275927
0.022588402 -0.174182 0.029469701
0.023877002 -0.17414001 0.030997399
0.024413601 -0.174161 0.032870699
0.024950199 -0.174183 0.034743901
0.0254867 -0.17420401 0.036617
0.026023202 -0.174225 0.038490001
0.026559599 -0.174246 0.040362701
0.0270961 -0.17426801 0.042235401
0.026888303 -0.17435201 0.044480801
0.025931001 -0.174501 0.047113001
0.024211004 -0.174716 0.050150599
0.023235105 -0.174868 0.052827202
0.023779199 -0.174889 0.0547265
0.023561999 -0.17497601 0.0570269
0.0233441 -0.175064 0.0593355
0.023125298 -0.17515101 0.0616524
0.0229057 -0.175239 0.0639778
0.023453504 -0.17526101 0.065890402
0.020914905 -0.175551 0.069510996
0.0183383 -0.175845 0.073185399
0.017314598 -0.17600501 0.076017201
0.016283102 -0.176166 0.0788702
0.016045004 -0.176258 0.081284098
0.015805803 -0.176351 0.0837069
0.015565805 -0.176443 0.086138703
0.016128905 -0.176466 0.088104501
0.016691901 -0.176488 0.090070099
0.0180538 -0.17644 0.091554701
0.021777101 -0.176182 0.091596499
0.0238958 -0.176065 0.0925868
0.028297998 -0.175745 0.092148103
0.031119503 -0.175565 0.092652902
0.032417201 -0.17552 0.094091304
0.029322103 -0.170698 -0.0064062299
0.029840805 -0.170718 -0.0045955898
0.0317792 -0.17062899 -0.00333872
0.033704199 -0.170541 -0.0020906599
0.035615802 -0.170453 -0.00085126603
0.038203601 -0.170313 0.000100598
0.0394 -0.17027999 0.00160176
0.039909601 -0.17030001 0.00338073
0.0327622 -0.170918 0.0083724596
0.023114905 -0.17173301 0.0145018
0.019896902 -0.172049 0.0179707
0.020433798 -0.17207 0.019845201
0.020214498 -0.172151 0.022051901
0.020752303 -0.172172 0.023929499
0.021290101 -0.17219301 0.0258069
0.022581205 -0.17215499 0.027341601
0.0231179 -0.172177 0.029215399
0.024403304 -0.17213801 0.0307409
0.024939001 -0.17216 0.032611098
0.026218705 -0.172122 0.0341276
0.026753403 -0.172143 0.035994101
0.0265458 -0.172224 0.0382207
0.026337601 -0.172305 0.0404552
0.026873998 -0.172326 0.042328
0.0274105 -0.17234699 0.0442008
0.027203202 -0.172429 0.046449699
0.026995204 -0.17251 0.048706502
0.026036598 -0.172653 0.0513587
0.025825202 -0.17273501 0.053636499
0.024857 -0.172879 0.056320801
0.023881704 -0.173025 0.059024699
0.022899203 -0.173171 0.061748199
0.023446098 -0.17319299 0.063657597
0.0224583 -0.17333999 0.066408001
0.019907698 -0.17361601 0.070039302
0.0173188 -0.173897 0.073724702
0.016289398 -0.17405 0.076563999
0.015252203 -0.17420401 0.079424597
0.015011601 -0.174292 0.081844203
0.014770202 -0.174381 0.084272802
0.014527805 -0.17447101 0.086710498
0.015896499 -0.174426 0.088204801
0.016459599 -0.174448 0.090170503
0.019411601 -0.174271 0.0906986
0.024663299 -0.17390101 0.089804299
0.026755504 -0.173794 0.090793997
0.0295908 -0.17362399 0.091307603
0.0316457 -0.173519 0.092282496
0.033685602 -0.17341401 0.0932502
0.0296252 -0.168842 -0.0045095701
0.0315644 -0.16876 -0.0032528299
0.033490203 -0.168678 -0.00200489
0.0354027 -0.168597 -0.00076566602
0.037991501 -0.168466 0.000185892
0.0391884 -0.16843601 0.00168706
0.039698001 -0.168456 0.0034662001
0.040207602 -0.168476 0.0052452101
0.023637503 -0.169753 0.0142758
0.021933399 -0.169939 0.017090701
0.0217181 -0.17001601 0.019280899
0.021501899 -0.170093 0.021478999
0.022037901 -0.170114 0.0233499
0.022573799 -0.17013501 0.0252208
0.023109704 -0.170157 0.027091401
0.024392799 -0.170122 0.028618401
0.0256714 -0.17008799 0.0301397
0.026205204 -0.170109 0.032003298
0.026739001 -0.170131 0.0338668
0.026531905 -0.17020801 0.0360859
0.027066603 -0.170229 0.037952401
0.026859701 -0.170306 0.040182602
0.026651904 -0.170384 0.0424207
0.027188398 -0.170405 0.0442935
0.027724899 -0.17042699 0.046166301
0.028261304 -0.17044801 0.0480389
0.028055504 -0.170526 0.0502945
0.027849004 -0.17060401 0.052558299
0.0261425 -0.17079701 0.055619899
0.025175504 -0.170935 0.0583116
0.024201401 -0.171073 0.061022699
0.023220003 -0.171212 0.063753597
0.022231504 -0.171352 0.066504396
0.018111199 -0.171735 0.0710041
0.0162955 -0.171941 0.074266002
0.0144592 -0.172149 0.077564701
0.013411105 -0.172296 0.08044
0.013166301 -0.172382 0.082870901
0.0137306 -0.17240401 0.084840998
0.0142949 -0.172427 0.086810902
0.0148592 -0.17244899 0.088780701
0.017028101 -0.172346 0.0897936
0.020759299 -0.17211901 0.089849003
0.026743099 -0.17171299 0.088502198
0.028056301 -0.171675 0.089956902
0.030873999 -0.171517 0.090473302
0.032916799 -0.17141999 0.091447897
0.031349599 -0.16689 -0.0031669401
0.0332762 -0.166814 -0.00191915
0.034491599 -0.166787 -0.00040101999
0.036397405 -0.166713 0.00083058298
0.038976703 -0.166592 0.00177237
0.039486401 -0.166612 0.0035516799
0.040678702 -0.166585 0.0050444198
0.0405057 -0.16665301 0.0071098502
0.0232054 -0.16790301 0.016539199
0.022245899 -0.168027 0.0190455
0.022031203 -0.168101 0.021239299
0.022566199 -0.16812199 0.023107
0.023101203 -0.168144 0.0249747
0.0236362 -0.168165 0.026842199
0.024916202 -0.168134 0.028367
0.025449999 -0.168156 0.0302309
0.026724502 -0.168125 0.0317467
0.027257398 -0.168146 0.033606999
0.027051598 -0.16822 0.035821799
0.027585402 -0.16824099 0.037685201
0.0273799 -0.16831499 0.039910998
0.027173504 -0.16838901 0.042144701
0.026966304 -0.16846301 0.044386301
0.027502805 -0.168484 0.046259198
0.028039299 -0.168506 0.048131999
0.028575704 -0.16852701 0.050004601
0.028370604 -0.168602 0.052263901
0.028164603 -0.168677 0.054531202
0.026459798 -0.168859 0.057603601
0.024736404 -0.169044 0.060709499
0.0229939 -0.169231 0.063849501
0.022004604 -0.16936401 0.066600896
0.016301401 -0.16983899 0.071976103
0.014468603 -0.170035 0.075255997
0.012615003 -0.170233 0.078572899
0.012368798 -0.170315 0.081000596
0.012933202 -0.17033701 0.082970902
0.013497598 -0.17036 0.084941097
0.014061898 -0.17038301 0.086911298
0.014626302 -0.170405 0.088881202
0.017594405 -0.170251 0.089418098
0.023652799 -0.16986699 0.0880697
0.0280414 -0.169606 0.087674901
0.029347405 -0.169571 0.089125901
0.032147802 -0.16942599 0.089645199
0.030425005 -0.16506401 -0.00280422
0.031651802 -0.16504 -0.00127644
0.033577301 -0.16497099 -3.5151799e-05
0.035489604 -0.164903 0.0011975199
0.037388705 -0.16483501 0.00242157
0.039274801 -0.164768 0.0036371599
0.0404674 -0.164744 0.0051299301
0.0409762 -0.164765 0.0069061001
0.040803801 -0.164829 0.00897473
0.022771902 -0.16604599 0.0188109
0.022558503 -0.166116 0.021000501
0.023092605 -0.16613699 0.0228651
0.0236267 -0.166159 0.0247295
0.024160802 -0.16618 0.026593899
0.0246948 -0.166201 0.0284581
0.025970601 -0.16617399 0.029977299
0.0265036 -0.166196 0.031837899
0.0270366 -0.166217 0.033698302
0.027569503 -0.16623899 0.035558701
0.027364299 -0.166309 0.037776999
0.027158402 -0.166379 0.040003199
0.0269517 -0.166449 0.0422372
0.027487405 -0.166471 0.044107001
0.0272808 -0.16654199 0.0463522
0.027817301 -0.166563 0.048225101
0.028353699 -0.166585 0.050097901
0.0288902 -0.16660599 0.0519705
0.0286856 -0.166677 0.054233301
0.028480299 -0.166749 0.056504201
0.026024699 -0.166972 0.059991699
0.024295703 -0.167147 0.063116498
0.021004699 -0.167428 0.067120798
0.014477804 -0.16792899 0.072955497
0.011818804 -0.16817001 0.076705299
0.011571102 -0.168247 0.079129703
0.012135603 -0.16827001 0.081100397
0.012700103 -0.168293 0.083071001
0.013264604 -0.16831499 0.085041396
0.013829 -0.168338 0.087011702
0.015199199 -0.16830499 0.088505797
0.018158503 -0.168163 0.089043997
0.024969704 -0.16775399 0.087239198
0.029330105 -0.167513 0.086853698
0.031378701 -0.167431 0.087842099
0.0348906 -0.167247 0.087909803
0.030727699 -0.163211 -0.00091027498
0.032659799 -0.163149 0.00033204301
0.034578599 -0.163087 0.0015657099
0.035789698 -0.163066 0.00307526
0.038376603 -0.162964 0.0040073302
0.040256202 -0.162903 0.0052154702
0.040765103 -0.16292299 0.0069917701
0.041273903 -0.162944 0.0087679299
0.0348695 -0.163378 0.013548
0.023083903 -0.16413701 0.0207626
0.023617104 -0.164159 0.022624001
0.024150304 -0.16418 0.024485299
0.024683498 -0.164202 0.0263464
0.025216602 -0.164223 0.028207401
0.025749601 -0.16424499 0.030068399
0.026282698 -0.16426601 0.031929102
0.026815705 -0.164288 0.033789702
0.027348705 -0.164309 0.035650201
0.027143203 -0.16437601 0.037868898
0.027677104 -0.164397 0.0397324
0.027471699 -0.164464 0.041962098
0.027265601 -0.16453101 0.044199601
0.027801201 -0.164553 0.046069499
0.0275952 -0.16462 0.0483182
0.028131798 -0.16464201 0.050191201
0.028668299 -0.164664 0.052064002
0.029204704 -0.164685 0.053936701
0.029000804 -0.164753 0.056203
0.027303703 -0.164914 0.0592792
0.0240703 -0.165172 0.063212097
0.0192222 -0.16553301 0.068069398
0.012640499 -0.166004 0.073942304
0.010773204 -0.16618 0.077258497
0.011337802 -0.16620199 0.079229496
0.011902399 -0.166225 0.081200302
0.012467004 -0.16624799 0.083171099
0.013031505 -0.166271 0.085141599
0.013595998 -0.166293 0.087112099
0.015769899 -0.16621301 0.088131897
0.0210822 -0.165932 0.087263897
0.027040005 -0.165608 0.085956
0.031357698 -0.165388 0.085584402
0.033387803 -0.165314 0.0865722
0.0375937 -0.16509899 0.0861995
0.031739101 -0.16132 0.000700504
0.034364901 -0.161226 0.00165168
0.0355765 -0.161208 0.0031612101
0.038164601 -0.161116 0.00409301
0.0400449 -0.161061 0.0053009898
0.041234303 -0.161044 0.0067885602
0.041742302 -0.161065 0.0085618598
0.041571502 -0.16112299 0.01063
0.035172403 -0.16152599 0.0154423
0.027819298 -0.161983 0.020748001
0.026149802 -0.162127 0.0235775
0.025204301 -0.16223 0.0260999
0.0257366 -0.16225199 0.0279577
0.025528699 -0.162315 0.030159401
0.026061803 -0.16233601 0.032020301
0.026594803 -0.162358 0.033881102
0.027127899 -0.162379 0.035741702
0.026922002 -0.162443 0.037960701
0.027455904 -0.16246399 0.039824501
0.027250305 -0.16252799 0.0420544
0.0277851 -0.162549 0.043921199
0.027579501 -0.162613 0.0461624
0.028115198 -0.162635 0.048032202
0.028650798 -0.16265599 0.049901899
0.029186398 -0.162678 0.0517716
0.028982803 -0.162742 0.054030299
0.028778404 -0.162807 0.056297
0.028573304 -0.162871 0.058571801
0.024605602 -0.16315401 0.062895201
0.018993899 -0.163533 0.068166398
0.011600405 -0.16401701 0.074487999
0.010539904 -0.164134 0.077358097
0.011104502 -0.164157 0.079329297
0.011669204 -0.16418 0.081300303
0.012233801 -0.164202 0.083271198
0.012798399 -0.164225 0.085241899
0.014170699 -0.16419999 0.086739898
0.017930605 -0.16403501 0.086819299
0.024732605 -0.163688 0.085051201
0.029839799 -0.16344 0.084234402
0.036298603 -0.16311 0.082548
0.036835499 -0.163132 0.084422
0.034151301 -0.159364 0.00173762
0.035363205 -0.15934999 0.0032472101
0.037262902 -0.159302 0.00446459
0.039833602 -0.159219 0.00538655
0.0410234 -0.159205 0.0068741101
0.041531403 -0.159226 0.0086475704
0.042039502 -0.159246 0.0104209
0.041188601 -0.159336 0.0127913
0.035475202 -0.15967301 0.017336801
0.028128102 -0.16009399 0.022679299
0.026460201 -0.160228 0.0255192
0.026254602 -0.16028699 0.027708899
0.026048101 -0.160347 0.0299064
0.025840804 -0.16040599 0.0321116
0.0263739 -0.160428 0.033972502
0.026907004 -0.160449 0.035833299
0.027440004 -0.16047101 0.037694
0.0272348 -0.160531 0.0399165
0.027768701 -0.160552 0.0417802
0.028302602 -0.160574 0.043643799
0.028836399 -0.160596 0.045507301
0.028633103 -0.16065601 0.047747198
0.029167898 -0.160678 0.0496138
0.029702604 -0.16069899 0.0514802
0.029500298 -0.16076 0.0537345
0.0292973 -0.16082101 0.055996802
0.029093601 -0.160881 0.058267102
0.025138803 -0.16114201 0.062579401
0.020322405 -0.161449 0.067410901
0.011367798 -0.16197801 0.074587099
0.0103065 -0.16208801 0.077457704
0.010871202 -0.162111 0.079429001
0.011435904 -0.16213401 0.081400201
0.012000598 -0.162157 0.083371297
0.012565203 -0.16218001 0.085342199
0.013938002 -0.162159 0.086840197
0.023954302 -0.161669 0.083226398
0.029070102 -0.161443 0.082429998
0.0348088 -0.161183 0.081209503
0.036077105 -0.161165 0.082644202
0.033236302 -0.157534 0.00210743
0.035149999 -0.157492 0.0033332
0.037050404 -0.15745001 0.00455043
0.0389379 -0.157408 0.0057592401
0.0408125 -0.15736599 0.0069596898
0.041320503 -0.157387 0.0087332902
0.041149102 -0.157438 0.010802
0.040977102 -0.157491 0.0128776
0.039432801 -0.15760601 0.01557
0.034369804 -0.157885 0.019864701
0.028436899 -0.158206 0.024610899
0.026770703 -0.158329 0.0274611
0.027300999 -0.158351 0.029312501
0.027096905 -0.158406 0.0315089
0.026152998 -0.15849701 0.034063902
0.026686102 -0.158519 0.0359249
0.027219199 -0.15854099 0.037785701
0.027752198 -0.158562 0.039646398
0.028285302 -0.158584 0.041506998
0.028818302 -0.15860599 0.043367401
0.029351205 -0.158627 0.045227699
0.0298841 -0.158649 0.0470879
0.029683001 -0.15870599 0.049326699
0.030216902 -0.15872701 0.051189899
0.030016005 -0.158784 0.0534398
0.0298144 -0.158841 0.055697601
0.0296119 -0.15889899 0.057963502
0.026423201 -0.15910099 0.0618564
0.021641202 -0.159381 0.066660903
0.010323204 -0.159979 0.075135097
0.010072999 -0.160042 0.077557303
0.010637805 -0.160065 0.079528801
0.011202604 -0.160088 0.081500202
0.011767298 -0.160111 0.083471403
0.012332 -0.160134 0.085442498
0.023175798 -0.15965 0.081401199
0.029052801 -0.159409 0.080180898
0.034048803 -0.15921099 0.0794276
0.036774002 -0.159124 0.079990998
0.033537604 -0.15569 0.0039923
0.035450101 -0.155654 0.0052116201
0.037349604 -0.155618 0.0064224498
0.039236002 -0.15558299 0.0076248902
0.040428903 -0.15557501 0.0091113597
0.040937901 -0.155596 0.010888
0.040082 -0.155673 0.0132644
0.039907601 -0.15572201 0.0153514
0.035563305 -0.155946 0.019319501
0.034673803 -0.15602501 0.021766201
0.029472202 -0.156286 0.026208701
0.027081102 -0.15643001 0.0294031
0.027611598 -0.156452 0.031254601
0.027407899 -0.15650401 0.0334545
0.026465103 -0.156588 0.036016501
0.026998304 -0.15661 0.0378775
0.0275314 -0.15663201 0.039738301
0.028064504 -0.156653 0.041599099
0.028597504 -0.156675 0.043459602
0.029130504 -0.15669701 0.045320101
0.029663503 -0.156719 0.047180399
0.030196398 -0.15673999 0.049040601
0.030729301 -0.156762 0.050900701
0.0305297 -0.15681501 0.053146198
0.030329503 -0.15686899 0.0553996
0.030128404 -0.156923 0.057661001
0.029186502 -0.15700901 0.060331699
0.025232799 -0.15722699 0.0646668
0.021962702 -0.157416 0.068671301
0.0098396018 -0.157995 0.077656999
0.010404401 -0.15801799 0.079628602
0.010969199 -0.158041 0.081600197
0.011533998 -0.15806399 0.083571598
0.025467001 -0.15749399 0.077796802
0.029783703 -0.15734901 0.0775019
0.034753904 -0.15717401 0.076780498
0.036017902 -0.15716299 0.078218602
0.034538999 -0.15381999 0.0055871098
0.036444902 -0.153791 0.0067988699
0.036957502 -0.15381201 0.0085881101
0.0395342 -0.15375701 0.0094907396
0.039359301 -0.15380301 0.0115681
0.039183803 -0.15384901 0.0136525
0.0396953 -0.15387 0.0154381
0.037445098 -0.153993 0.0184651
0.035866298 -0.154092 0.021214601
0.034977801 -0.154166 0.023667799
0.0297805 -0.15440001 0.0281373
0.028854601 -0.154476 0.0306582
0.027922101 -0.154552 0.0331969
0.027718998 -0.15460201 0.035400301
0.027515203 -0.154651 0.037611399
0.028047405 -0.154673 0.039469
0.0285796 -0.154695 0.041326601
0.028376698 -0.154744 0.043551899
0.029643804 -0.15473799 0.045041401
0.030175902 -0.15476 0.046898499
0.030707903 -0.154782 0.0487555
0.031239904 -0.15480299 0.050612401
0.0310416 -0.154853 0.052853599
0.030842699 -0.15490299 0.055102602
0.030642904 -0.154954 0.057359599
0.029704705 -0.15503301 0.0600246
0.029501699 -0.155083 0.062302299
0.025551401 -0.15528101 0.066659003
0.023816898 -0.15539201 0.069826603
0.024363205 -0.155414 0.071733497
0.0256695 -0.155407 0.0732079
0.028475404 -0.15534 0.073813401
0.031989798 -0.15524399 0.073983997
0.033996202 -0.15520801 0.075004302
0.035988204 -0.15517201 0.076017097
0.035537101 -0.15195701 0.0071766102
0.036744602 -0.15195601 0.0086744605
0.037257202 -0.151977 0.0104637
0.0384598 -0.151976 0.0119531
0.038971402 -0.151997 0.0137391
0.0394831 -0.152018 0.0155249
0.037925702 -0.152106 0.018240601
0.0377465 -0.15214901 0.0203506
0.036169298 -0.15223899 0.0231099
0.0338668 -0.15235201 0.0262272
0.032249801 -0.15244301 0.029051
0.029164001 -0.152583 0.032593802
0.028232604 -0.15265299 0.035139401
0.028030202 -0.15269899 0.0373463
0.027826898 -0.15274499 0.039560799
0.0283591 -0.152767 0.041418601
0.028891303 -0.152789 0.043276101
0.029423505 -0.15281001 0.045133598
0.030686401 -0.152808 0.046617601
0.031217501 -0.15283 0.048471499
0.0317486 -0.152851 0.050325301
0.032279603 -0.15287299 0.052178901
0.031354003 -0.152944 0.054806799
0.031155601 -0.152991 0.057059299
0.030956499 -0.153038 0.059319802
0.030019298 -0.15311 0.0619918
0.030555904 -0.15313201 0.063864797
0.0296138 -0.15320501 0.0665626
0.030152299 -0.153227 0.068442002
0.031429499 -0.15322401 0.069901399
0.032701902 -0.15322 0.071355298
0.034698598 -0.153192 0.072381601
0.036681004 -0.153163 0.073400497
0.0358373 -0.15011799 0.00905558
0.037044398 -0.150121 0.0105503
0.037557002 -0.150142 0.0123396
0.038069602 -0.15016299 0.0141287
0.038582202 -0.15018401 0.0159178
0.038404703 -0.150224 0.0180168
0.0389181 -0.150245 0.0198087
0.038047902 -0.150305 0.0222362
0.035770498 -0.15040401 0.0253314
0.034171902 -0.15048499 0.028135899
0.032556504 -0.150567 0.0309698
0.029473498 -0.15069 0.0345296
0.028543204 -0.15075301 0.037082098
0.029073603 -0.150775 0.038933501
0.028872699 -0.15081801 0.041147001
0.029403999 -0.15084 0.043001398
0.029935203 -0.150861 0.044855699
0.0304664 -0.150883 0.046709899
0.031725198 -0.150884 0.048188601
0.032255404 -0.150906 0.050039198
0.032785602 -0.15092801 0.051889699
0.033315703 -0.15095 0.053739998
0.032395504 -0.151014 0.056368701
0.0314686 -0.151079 0.059016202
0.031270005 -0.151122 0.061280198
0.031070702 -0.15116601 0.063552201
0.031606399 -0.151188 0.065421797
0.032141998 -0.15121 0.067291297
0.033408701 -0.15121 0.068745002
0.035395898 -0.151189 0.069777302
0.035928503 -0.15121099 0.071636401
0.036137603 -0.14827999 0.0109348
0.036651202 -0.14830101 0.0127273
0.037856802 -0.148306 0.0142156
0.037678201 -0.148344 0.016311901
0.038191702 -0.14836501 0.018104101
0.038705103 -0.148386 0.019896099
0.0392185 -0.148407 0.021687999
0.036257498 -0.148509 0.0250939
0.035370402 -0.148564 0.0275608
0.0344771 -0.148618 0.0300448
0.032863304 -0.14869 0.0328888
0.029783003 -0.14879701 0.0364656
0.029583998 -0.148836 0.038667101
0.0293843 -0.148875 0.0408764
0.029914699 -0.14889701 0.042727701
0.030445099 -0.148919 0.044578899
0.030975401 -0.148941 0.046429899
0.032231204 -0.148945 0.0479066
0.032760501 -0.148967 0.049754102
0.033289805 -0.14898901 0.051601499
0.033819005 -0.149011 0.053448599
0.034348205 -0.149033 0.055295799
0.032707401 -0.14910799 0.058318801
0.032511704 -0.149148 0.060573701
0.033044599 -0.14917 0.0624336
0.033577405 -0.14919201 0.064293303
0.0341103 -0.149214 0.0661529
0.035366803 -0.14921799 0.067601003
0.036618799 -0.149222 0.0690438
0.035742201 -0.14645401 0.0131164
0.036256604 -0.146475 0.014912
0.036771104 -0.146496 0.0167075
0.037978601 -0.146505 0.018191401
0.039181903 -0.146513 0.01967
0.039694402 -0.14653499 0.021459
0.038135603 -0.146595 0.024210099
0.036560498 -0.14665499 0.0269897
0.035674505 -0.146703 0.0294632
0.035489403 -0.14673799 0.031614602
0.033170104 -0.14681301 0.034807999
0.0300925 -0.14690401 0.038401801
0.030621201 -0.146926 0.0402468
0.0311497 -0.146947 0.042091701
0.031678304 -0.14696901 0.043936498
0.032206804 -0.146991 0.045781098
0.032735303 -0.14701299 0.047625601
0.033263698 -0.147035 0.04947
0.033792101 -0.147057 0.051314201
0.035038404 -0.147065 0.052776799
0.035565801 -0.14708599 0.054617599
0.0353771 -0.14712299 0.056846201
0.0337447 -0.14718699 0.059872199
0.034275703 -0.147209 0.061725602
0.034806699 -0.147231 0.063578904
0.036057599 -0.147239 0.0650267
0.036587499 -0.14726099 0.066876501
0.035528503 -0.14459001 0.0132034
0.036043003 -0.144612 0.0149992
0.036557503 -0.144633 0.016794801
0.039145302 -0.14462601 0.017658601
0.039657 -0.144647 0.019444801
0.040168803 -0.144668 0.0212308
0.040680502 -0.14469001 0.023016799
0.038437102 -0.14475 0.026096299
0.037562203 -0.14479101 0.028554101
0.036681205 -0.144832 0.0310288
0.035794102 -0.14487401 0.033520602
0.034189999 -0.144926 0.036377899
0.033286199 -0.144968 0.038910199
0.033811204 -0.14499 0.0407423
0.034336105 -0.14501201 0.042574301
0.035572805 -0.145023 0.044042598
0.0360967 -0.145045 0.045871101
0.036620602 -0.14506701 0.047699399
0.0371444 -0.145089 0.0495276
0.0390772 -0.145089 0.050607
0.039599102 -0.14511099 0.052428599
0.039419603 -0.145143 0.054630101
0.0378258 -0.145197 0.057612602
0.0376417 -0.14523 0.0598385
0.038168103 -0.145252 0.061675601
0.0386944 -0.145274 0.063512601
0.037038699 -0.142763 0.016573399
0.040303901 -0.142759 0.017129499
0.040814001 -0.14278001 0.0189097
0.041324001 -0.142802 0.0206898
0.041152302 -0.142829 0.0227865
0.038223401 -0.142883 0.026184499
0.037347801 -0.14291801 0.0286428
0.036466099 -0.14295299 0.031117899
0.035578303 -0.142988 0.033610199
0.036098801 -0.14301001 0.035426799
0.035206504 -0.14304499 0.0379426
0.0357287 -0.143067 0.039765298
0.036250904 -0.143089 0.041587699
0.037477903 -0.143103 0.0430502
0.037999101 -0.143125 0.0448693
0.038520202 -0.14314701 0.046688199
0.0390414 -0.143169 0.048507102
0.040261302 -0.14318299 0.049954399
0.041476902 -0.143198 0.051396701
0.041996103 -0.14321899 0.053208798
0.041821603 -0.14324801 0.0554002
0.041646402 -0.143277 0.057599101
0.036825404 -0.140902 0.016660601
0.041454703 -0.14090499 0.016604001
0.042640001 -0.14092299 0.0180707
0.043147501 -0.140944 0.0198419
0.042979803 -0.14096899 0.0219266
0.041451201 -0.141 0.024656899
0.0385249 -0.141038 0.0280711
0.036952004 -0.14106999 0.0308709
0.0367698 -0.141095 0.033017602
0.035883002 -0.141123 0.035516601
0.0364035 -0.14114501 0.037333101
0.036924005 -0.141167 0.039149601
0.037444398 -0.14118899 0.0409659
0.038665202 -0.14120699 0.0424245
0.0391846 -0.141229 0.044237401
0.039704002 -0.14125 0.046050198
0.040223401 -0.14127199 0.047862802
