ply
format ascii 1.0
element vertex 1253
property float x
property float y
property float z
property uchar diffuse_red
property uchar diffuse_green
property uchar diffuse_blue
end_header
-0.400851 0.0703867 0.24597 136 183 94
-0.397102 0.0709522 0.246773 135 185 94
-0.393902 0.0716396 0.247456 135 185 93
-0.391695 0.0725828 0.24792 133 184 92
-0.390446 0.0737852 0.248171 142 189 95
-0.389669 0.0751176 0.248318 119 178 92
-0.389052 0.0780524 0.248405 53 118 48
-0.389209 0.0796628 0.248345 52 121 50
-0.389834 0.0814238 0.248181 54 125 49
-0.402657 0.0870601 0.245311 56 132 51
-0.376108 0.114064 0.250634 69 58 48
-0.405558 0.0652838 0.24346 73 66 54
-0.405237 0.0668117 0.243505 106 114 70
-0.404409 0.068207 0.243665 126 169 90
-0.40308 0.0694642 0.243937 129 178 91
-0.39879 0.06991 0.244878 128 176 91
-0.395557 0.0706104 0.245581 125 174 90
-0.392853 0.0714317 0.246165 125 172 87
-0.391125 0.0725086 0.246529 124 171 85
-0.389411 0.0735763 0.246889 127 180 91
-0.388793 0.0765115 0.246976 63 115 51
-0.388485 0.0779789 0.24702 46 110 37
-0.389574 0.079877 0.246747 41 116 37
-0.401883 0.0852954 0.243935 42 120 41
-0.404096 0.0876282 0.243406 46 125 47
-0.402754 0.0888404 0.243682 55 131 52
-0.403309 0.0939577 0.243473 132 208 113
-0.375686 0.115628 0.249214 72 64 55
-0.404968 0.0652059 0.242018 69 67 57
-0.40414 0.0666038 0.24218 110 133 74
-0.402812 0.0678658 0.242457 118 164 85
-0.401492 0.0691206 0.242732 115 163 82
-0.39772 0.0697013 0.243571 112 160 80
-0.394022 0.0702706 0.244395 110 158 80
-0.391808 0.0712244 0.244876 109 155 77
-0.390086 0.0723007 0.245245 111 157 77
-0.388844 0.0735025 0.245504 122 171 84
-0.388535 0.0749703 0.245548 90 133 64
-0.388226 0.076438 0.245591 53 108 43
-0.388382 0.0780466 0.245527 39 108 37
-0.389005 0.0798034 0.245356 36 111 33
-0.403824 0.0860115 0.241907 38 115 36
-0.4035 0.0875515 0.241953 39 117 41
-0.403176 0.0890914 0.241998 44 120 44
-0.403872 0.0909648 0.241808 52 124 47
-0.402388 0.0954232 0.242064 103 183 91
-0.40105 0.096614 0.242344 118 212 113
-0.400223 0.0979742 0.242506 115 221 117
-0.399398 0.0993303 0.242668 115 219 114
-0.398575 0.100682 0.242829 115 213 110
-0.397258 0.101849 0.243106 112 210 110
-0.396442 0.103191 0.243266 111 209 111
-0.395137 0.104346 0.243539 111 203 110
-0.392866 0.105124 0.244037 113 198 111
-0.391101 0.106078 0.244418 119 197 109
-0.386053 0.10574 0.245561 121 189 99
-0.379342 0.104701 0.247092 128 191 94
-0.375931 0.104917 0.247856 128 188 90
-0.37519 0.106179 0.248001 128 188 89
-0.374888 0.107616 0.248043 128 186 88
-0.375023 0.109235 0.247984 126 186 90
-0.37472 0.110674 0.248027 116 191 93
-0.374822 0.117004 0.247892 69 64 54
-0.403872 0.0650002 0.240694 66 71 60
-0.403047 0.0663964 0.240858 101 136 73
-0.401225 0.0675266 0.241255 109 150 74
-0.399913 0.0687789 0.241533 107 147 72
-0.396167 0.0693615 0.242382 104 146 71
-0.393447 0.0701954 0.242991 102 143 69
-0.391237 0.0711498 0.243481 99 140 68
-0.389517 0.0722265 0.243856 103 144 69
-0.388276 0.0734287 0.244118 121 166 81
-0.387967 0.0748966 0.244162 93 134 61
-0.387659 0.0763644 0.244206 55 110 42
-0.38735 0.0778321 0.244249 41 108 33
-0.388435 0.0797298 0.243965 41 108 31
-0.406311 0.0869003 0.239727 41 107 33
-0.405984 0.088454 0.239773 37 113 36
-0.404112 0.089509 0.240184 35 118 37
-0.4043 0.0912237 0.240109 41 119 36
-0.403974 0.0927725 0.240155 44 122 37
-0.403136 0.0941487 0.240321 47 126 45
-0.4023 0.0955208 0.240488 57 132 51
-0.401467 0.0968888 0.240654 72 142 58
-0.399629 0.0978987 0.241057 86 147 65
-0.398805 0.0992551 0.241221 100 150 68
-0.397983 0.100607 0.241384 115 155 68
-0.397163 0.101956 0.241547 124 164 72
-0.396346 0.1033 0.24171 124 177 73
-0.395532 0.10464 0.241872 114 178 77
-0.394229 0.10579 0.24215 110 179 85
-0.393909 0.107309 0.242195 113 177 88
-0.391164 0.107882 0.242815 120 177 86
-0.385167 0.10715 0.244205 124 176 82
-0.376253 0.105198 0.246288 119 175 80
-0.375071 0.106287 0.246539 110 172 80
-0.374768 0.107726 0.246582 96 160 72
-0.374903 0.109347 0.246521 82 149 64
-0.3746 0.110788 0.246564 75 149 59
-0.374297 0.112229 0.246606 93 165 74
-0.374263 0.116935 0.246527 74 62 53
-0.402779 0.064795 0.239374 67 72 57
-0.402458 0.0663189 0.23942 94 126 69
-0.400639 0.0674496 0.239823 100 134 65
-0.399328 0.0687022 0.240105 99 132 63
-0.395588 0.0692857 0.240969 97 132 64
-0.391922 0.0698577 0.241815 96 129 63
-0.390665 0.0710752 0.242085 93 126 61
-0.388948 0.0721524 0.242466 95 130 63
-0.387709 0.0733549 0.242732 113 157 77
-0.3874 0.0748229 0.242776 96 143 66
-0.387091 0.0762908 0.24282 67 121 51
-0.386782 0.0777587 0.242863 50 112 43
-0.386936 0.0793693 0.242796 42 107 39
-0.40571 0.0868228 0.23826 40 105 35
-0.407463 0.0890386 0.237807 35 106 28
-0.405573 0.0900974 0.238228 32 109 27
-0.405764 0.0918232 0.23815 34 111 30
-0.405436 0.0933813 0.238196 40 114 37
-0.404591 0.0947648 0.238367 50 120 44
-0.402723 0.0957934 0.238784 65 130 51
-0.401378 0.0969887 0.239075 83 149 62
-0.400546 0.0983545 0.239243 95 168 78
-0.398712 0.0993581 0.239653 103 177 88
-0.397889 0.100712 0.239819 114 178 89
-0.397567 0.102245 0.239865 126 179 86
-0.397743 0.103962 0.23979 128 182 83
-0.39742 0.105497 0.239835 117 181 85
-0.397098 0.107031 0.239881 105 177 88
-0.402346 0.110711 0.238582 96 169 84
-0.375527 0.108196 0.244903 65 134 50
-0.374783 0.109459 0.245053 60 134 50
-0.374919 0.111086 0.244989 62 138 51
-0.374615 0.112531 0.245032 79 142 61
-0.375022 0.117445 0.244841 72 62 50
-0.40219 0.0647173 0.237936 68 69 53
-0.40187 0.0662414 0.237981 88 110 60
-0.400053 0.0673725 0.238391 93 119 59
-0.398744 0.0686254 0.238677 92 118 57
-0.39501 0.0692099 0.239555 90 118 57
-0.391349 0.0697827 0.240415 91 116 57
-0.390094 0.0710006 0.240689 91 114 56
-0.388379 0.0720782 0.241076 88 117 58
-0.387141 0.073281 0.241346 104 147 72
-0.386832 0.0747492 0.24139 99 152 74
-0.386523 0.0762172 0.241434 84 137 62
-0.386215 0.0776852 0.241477 71 124 53
-0.385906 0.0791531 0.241521 60 116 48
-0.407187 0.0873976 0.236284 49 108 43
-0.408959 0.0896302 0.235817 38 103 34
-0.407576 0.0908622 0.236121 33 106 32
-0.407246 0.0924298 0.236168 40 112 38
-0.406393 0.0938232 0.236343 55 120 45
-0.405543 0.0952124 0.236517 69 128 52
-0.403662 0.0962436 0.236944 88 145 62
-0.401798 0.0972657 0.237368 102 166 74
-0.400963 0.0986352 0.237539 101 172 81
-0.400131 0.100001 0.237709 95 171 83
-0.398798 0.10118 0.238003 89 166 82
-0.398474 0.102719 0.238048 81 155 76
-0.400169 0.105008 0.237598 71 144 65
-0.401884 0.107323 0.237142 66 133 56
-0.40207 0.109076 0.237062 62 126 51
-0.404853 0.111835 0.236344 59 124 49
-0.376569 0.111945 0.243078 77 126 57
-0.375819 0.113211 0.243231 87 127 69
-0.37565 0.11631 0.243208 73 67 52
-0.402103 0.0647668 0.236373 71 66 48
-0.401281 0.0661638 0.236543 79 93 53
-0.399963 0.0674259 0.236835 84 105 55
-0.398159 0.0685487 0.237249 85 107 53
-0.394914 0.0692654 0.238021 83 108 54
-0.392199 0.0701016 0.238662 84 106 54
-0.389522 0.0709259 0.239293 85 105 53
-0.388276 0.0721372 0.23957 83 106 54
-0.387036 0.0733416 0.239845 97 132 64
-0.386727 0.074812 0.239889 106 150 74
-0.386418 0.0762822 0.239933 95 146 69
-0.385647 0.0776117 0.240091 85 138 64
-0.385338 0.0790797 0.240135 78 133 60
-0.408682 0.0879792 0.234285 69 125 55
-0.409409 0.0898893 0.234068 59 116 48
-0.40802 0.0911244 0.234379 53 114 44
-0.407689 0.0926968 0.234426 56 123 49
-0.407359 0.0942691 0.234473 59 130 55
-0.406503 0.0956639 0.23465 61 130 58
-0.405129 0.0968759 0.234958 66 131 61
-0.403763 0.0980807 0.235264 67 130 60
-0.40292 0.0994593 0.235439 66 128 57
-0.401056 0.100469 0.23587 63 125 51
-0.40073 0.102019 0.235916 60 123 45
-0.400913 0.103757 0.235835 56 123 44
-0.402638 0.106072 0.235367 49 123 42
-0.404383 0.108415 0.234894 51 123 43
-0.404574 0.110185 0.23481 56 123 47
-0.405817 0.112366 0.234463 60 123 49
-0.40707 0.114566 0.234112 66 125 52
-0.377036 0.113899 0.24141 69 74 58
-0.376728 0.11536 0.241454 68 63 46
-0.403024 0.0650724 0.23455 72 64 43
-0.402197 0.0664752 0.234723 72 81 47
-0.400371 0.0676104 0.235149 75 96 52
-0.39856 0.0687359 0.235571 79 100 48
-0.394817 0.0693211 0.236482 77 102 51
-0.392577 0.0702905 0.237014 78 100 53
-0.390835 0.0713821 0.23742 79 100 50
-0.388639 0.0723302 0.237941 78 100 49
-0.387395 0.0735376 0.238221 83 117 56
-0.386621 0.074875 0.238383 102 147 71
-0.386311 0.0763474 0.238427 105 159 75
-0.38554 0.0776788 0.238588 94 147 69
-0.38523 0.0791489 0.238632 86 141 65
-0.408467 0.0913881 0.232626 66 128 58
-0.408135 0.0929653 0.232673 55 117 46
-0.407803 0.0945425 0.23272 45 106 33
-0.406419 0.0957635 0.233034 40 108 33
-0.405565 0.0971561 0.233214 41 112 36
-0.404194 0.0983638 0.233526 47 114 40
-0.403347 0.0997462 0.233705 53 118 43
-0.401989 0.100941 0.234014 59 121 47
-0.401661 0.102498 0.23406 63 123 47
-0.402878 0.104623 0.233713 63 126 48
-0.404627 0.106961 0.23323 67 128 48
-0.405343 0.108929 0.233009 98 137 57
-0.405537 0.110708 0.232922 129 148 72
-0.405731 0.112492 0.232835 86 125 73
-0.406456 0.114489 0.232612 69 94 60
-0.407718 0.116709 0.232251 69 83 53
-0.407917 0.118518 0.232162 70 72 53
-0.3781 0.117729 0.23954 68 66 47
-0.37779 0.119201 0.239584 66 66 54
-0.378386 0.121075 0.239396 66 65 57
-0.380359 0.123579 0.238853 67 65 57
-0.381894 0.125906 0.238423 66 64 55
-0.38158 0.1274 0.238468 67 65 52
-0.381265 0.128894 0.238512 67 65 51
-0.380489 0.13017 0.238676 62 65 55
-0.380637 0.131882 0.238601 60 62 56
-0.403122 0.0667892 0.232888 67 70 43
-0.401787 0.0680607 0.233194 69 87 45
-0.399461 0.0690572 0.233756 71 95 43
-0.396181 0.069775 0.234563 70 96 44
-0.393921 0.0707474 0.235109 71 97 47
-0.391209 0.0715744 0.235771 72 98 46
-0.389947 0.0727944 0.23606 71 97 44
-0.387756 0.0737346 0.236589 69 105 48
-0.386515 0.0749381 0.236873 86 132 61
-0.386205 0.0764127 0.236917 104 162 76
-0.384971 0.0776052 0.237199 102 161 75
-0.385122 0.0792183 0.237124 91 147 67
-0.412676 0.0928728 0.229889 76 134 61
-0.408584 0.0932355 0.230909 62 116 49
-0.408251 0.0948175 0.230956 48 102 32
-0.407389 0.0962202 0.23114 48 106 31
-0.406004 0.097438 0.23146 51 113 40
-0.40515 0.0988303 0.231643 50 117 47
-0.404297 0.100218 0.231825 51 121 51
-0.403967 0.101788 0.231872 53 121 50
-0.404158 0.103546 0.231784 55 122 49
-0.405922 0.105888 0.231287 56 127 48
-0.407176 0.10806 0.230922 59 134 51
-0.407374 0.109849 0.230831 79 155 69
-0.407572 0.111643 0.23074 118 191 101
-0.407771 0.113442 0.230649 137 204 111
-0.407435 0.115037 0.230697 157 161 79
-0.4071 0.116632 0.230744 112 98 78
-0.407298 0.118441 0.230653 78 73 75
-0.406963 0.120038 0.230701 70 70 66
-0.407161 0.121855 0.230609 63 68 65
-0.399716 0.127336 0.232353 77 81 64
-0.385072 0.122594 0.236141 75 80 66
-0.383812 0.123681 0.236433 77 85 66
-0.38256 0.124761 0.236722 80 90 66
-0.382245 0.12626 0.236767 81 96 68
-0.38193 0.127758 0.236812 82 101 71
-0.38115 0.12904 0.236978 87 103 73
-0.380835 0.130536 0.237023 93 98 70
-0.380984 0.132252 0.236946 83 83 60
-0.380669 0.13375 0.236991 66 60 56
-0.402204 0.0682487 0.231482 66 78 42
-0.400872 0.069516 0.231792 64 90 42
-0.398551 0.0705042 0.232362 65 92 40
-0.394792 0.0710744 0.233309 66 95 41
-0.392063 0.0719028 0.233987 65 97 43
-0.390318 0.0729908 0.234407 66 98 42
-0.389059 0.0742068 0.2347 64 100 43
-0.386873 0.0751392 0.235236 70 113 51
-0.386098 0.0764782 0.235402 91 142 68
-0.385324 0.0778134 0.235568 106 163 79
-0.385014 0.0792879 0.235612 96 154 73
-0.411721 0.0943923 0.228426 75 126 57
-0.410306 0.0956308 0.228758 62 114 46
-0.409435 0.0970429 0.228947 58 113 44
-0.4091 0.0986343 0.228995 54 112 42
-0.4077 0.0998541 0.229324 46 112 41
-0.407366 0.101441 0.229371 43 113 42
-0.407033 0.103027 0.229419 43 113 40
-0.409368 0.105582 0.228761 44 116 39
-0.40957 0.107378 0.228667 44 120 41
-0.409233 0.108979 0.228714 47 127 46
-0.409435 0.110782 0.22862 58 137 54
-0.409098 0.112385 0.228668 75 152 65
-0.408761 0.113987 0.228716 99 177 84
-0.408424 0.11559 0.228764 124 200 107
-0.407551 0.116979 0.228954 122 209 122
-0.407214 0.118578 0.229002 135 192 107
-0.406344 0.119961 0.229191 142 186 88
-0.406008 0.121558 0.229239 145 182 85
-0.405672 0.123155 0.229287 148 186 83
-0.404805 0.124528 0.229475 145 185 81
-0.40447 0.126122 0.229523 148 186 85
-0.399106 0.127261 0.230867 147 184 82
-0.389765 0.124854 0.233312 144 187 82
-0.38417 0.12403 0.234761 143 188 84
-0.382913 0.125112 0.235057 142 190 88
-0.38213 0.126402 0.235226 141 192 90
-0.381814 0.127902 0.235271 139 193 91
-0.381033 0.129186 0.23544 145 191 93
-0.380718 0.130684 0.235485 152 175 88
-0.380403 0.132182 0.23553 126 140 77
-0.380088 0.13368 0.235574 94 82 69
-0.380701 0.13563 0.235371 71 60 51
-0.403643 0.0687066 0.229488 67 69 42
-0.402299 0.0699801 0.229806 62 83 42
-0.400459 0.0711085 0.230256 63 90 42
-0.397641 0.0719512 0.230968 64 95 38
-0.393892 0.0725071 0.231929 64 98 39
-0.391169 0.0733253 0.232617 63 101 41
-0.389428 0.0744074 0.233043 62 102 42
-0.388171 0.0756194 0.233339 64 104 47
-0.386455 0.076684 0.233759 75 117 57
-0.385216 0.077881 0.234052 99 146 74
-0.384905 0.0793577 0.234096 103 157 80
-0.385057 0.0809802 0.234016 90 142 70
-0.410766 0.095912 0.226964 71 123 54
-0.409891 0.0973281 0.227156 64 117 50
-0.409555 0.0989244 0.227204 59 112 43
-0.40922 0.100521 0.227252 49 110 39
-0.409421 0.102307 0.227155 41 108 37
-0.410163 0.104292 0.226913 39 107 35
-0.410909 0.106289 0.22667 39 110 36
-0.410571 0.107897 0.226718 38 113 35
-0.410233 0.109505 0.226766 39 117 35
-0.409895 0.111113 0.226814 43 120 40
-0.409557 0.11272 0.226862 46 127 47
-0.409219 0.114328 0.22691 56 137 56
-0.408341 0.115723 0.227104 71 148 63
-0.407466 0.117114 0.227297 82 160 73
-0.406594 0.118501 0.227489 93 165 80
-0.406258 0.120101 0.227537 97 171 83
-0.405921 0.1217 0.227585 105 176 84
-0.405053 0.123078 0.227777 109 172 81
-0.404187 0.124451 0.227968 114 169 81
-0.403852 0.126045 0.228016 120 169 79
-0.404576 0.128098 0.227777 123 170 79
-0.401083 0.128317 0.228679 128 173 78
-0.396125 0.127856 0.22998 129 177 79
-0.38885 0.126312 0.231909 126 180 82
-0.385639 0.126537 0.232739 123 182 85
-0.382014 0.126544 0.233681 123 184 87
-0.381698 0.128047 0.233726 124 185 88
-0.380917 0.129332 0.233897 123 185 90
-0.380137 0.130613 0.234068 118 189 93
-0.379822 0.132111 0.234113 116 183 89
-0.380434 0.134057 0.233905 122 145 80
-0.380119 0.135559 0.23395 89 79 68
-0.380268 0.137291 0.233869 65 57 42
-0.40323 0.0703121 0.227935 65 72 41
-0.401885 0.0715827 0.228258 65 86 43
-0.399542 0.0725662 0.228852 65 94 38
-0.396731 0.0733984 0.229574 66 98 39
-0.392991 0.0739399 0.230549 67 101 42
-0.390274 0.074748 0.231247 68 104 46
-0.38901 0.0759643 0.23155 69 104 47
-0.385882 0.0766097 0.23236 71 107 51
-0.385571 0.0780908 0.232404 88 128 61
-0.384796 0.0794276 0.232575 108 158 79
-0.386345 0.0814938 0.232113 93 145 73
-0.411228 0.0961949 0.225158 75 129 57
-0.41035 0.097615 0.225353 71 123 53
-0.409474 0.0990307 0.225549 69 119 49
-0.409138 0.10063 0.225596 61 115 47
-0.409879 0.10261 0.22535 53 110 42
-0.410625 0.104602 0.225102 45 106 35
-0.41083 0.106408 0.225001 39 105 32
-0.411035 0.108219 0.2249 34 106 29
-0.410696 0.109832 0.224949 31 108 29
-0.410902 0.111651 0.224848 34 112 32
-0.410563 0.113266 0.224896 38 116 37
-0.409679 0.11467 0.225094 48 120 45
-0.408798 0.116069 0.225291 63 130 49
-0.408459 0.117679 0.225339 79 144 56
-0.407582 0.119072 0.225535 97 163 68
-0.406707 0.12046 0.225731 103 176 79
-0.405835 0.121843 0.225926 102 180 85
-0.404965 0.123223 0.226121 106 181 90
-0.404629 0.124822 0.226169 109 181 90
-0.405357 0.126878 0.225924 118 180 87
-0.40502 0.128482 0.225972 124 179 84
-0.404683 0.130086 0.22602 128 179 85
-0.406489 0.132639 0.225477 127 180 85
-0.382991 0.128844 0.231786 94 164 78
-0.381733 0.129916 0.232091 81 151 68
-0.380483 0.130981 0.232394 74 145 58
-0.380167 0.132484 0.232439 81 152 62
-0.379851 0.133986 0.232484 103 163 80
-0.380466 0.135943 0.232272 95 116 83
-0.380149 0.13745 0.232317 71 56 43
-0.402305 0.0717826 0.226518 66 79 43
-0.400963 0.073049 0.226845 67 93 40
-0.398126 0.0738827 0.227586 71 99 45
-0.394839 0.0745632 0.228451 74 102 46
-0.391608 0.075232 0.229302 77 105 48
-0.389379 0.0761708 0.229876 76 107 49
-0.387646 0.0772408 0.230314 74 107 49
-0.386863 0.0785885 0.230488 80 117 54
-0.386082 0.0799323 0.230663 106 153 73
-0.386237 0.0815673 0.230578 96 153 81
-0.387332 0.0835087 0.230232 79 132 66
-0.411693 0.0964795 0.22334 79 133 60
-0.41027 0.0977194 0.22369 78 132 59
-0.409933 0.0993233 0.223738 79 132 59
-0.410136 0.101116 0.223636 76 128 58
-0.410883 0.103107 0.223382 70 121 52
-0.411089 0.104914 0.223279 60 113 44
-0.411295 0.106726 0.223176 49 107 38
-0.412051 0.108746 0.222919 38 102 32
-0.41171 0.110366 0.222968 34 103 29
-0.411919 0.112195 0.222863 40 111 33
-0.411577 0.113817 0.222912 50 118 41
-0.411236 0.11544 0.22296 61 127 50
-0.409802 0.116632 0.223314 75 138 56
-0.408918 0.118033 0.223515 98 155 67
-0.408037 0.119429 0.223715 113 173 75
-0.407159 0.120821 0.223914 114 180 78
-0.40682 0.122431 0.223962 111 179 84
-0.406482 0.12404 0.22401 105 180 90
-0.406681 0.125877 0.223908 99 176 88
-0.408508 0.128417 0.22335 92 168 84
-0.408167 0.130038 0.223399 84 160 78
-0.40837 0.131898 0.223295 78 151 74
-0.409671 0.13425 0.222883 74 142 66
-0.384454 0.131393 0.229736 59 132 49
-0.381769 0.131795 0.230447 62 133 51
-0.381451 0.133306 0.230493 76 137 57
-0.381133 0.134818 0.230538 92 132 67
-0.381284 0.136558 0.230451 79 90 69
-0.380966 0.138072 0.230497 68 59 44
-0.403755 0.072265 0.22448 64 71 47
-0.40138 0.0732534 0.225101 68 92 45
-0.398532 0.0740881 0.225857 74 100 48
-0.395232 0.0747689 0.22674 76 103 49
-0.392957 0.0757215 0.227335 78 103 49
-0.3888 0.0760955 0.228461 77 106 49
-0.38754 0.0773082 0.228772 75 108 50
-0.387226 0.0788021 0.228817 77 112 55
-0.385973 0.0800035 0.229126 103 142 68
-0.386128 0.081641 0.229039 107 159 84
-0.386283 0.0832831 0.228951 83 128 65
-0.411276 0.098194 0.221714 82 138 63
-0.410937 0.0998054 0.221763 85 140 65
-0.411143 0.101607 0.221657 85 139 65
-0.410803 0.103221 0.221706 82 135 62
-0.411556 0.105228 0.221445 77 130 58
-0.411764 0.107046 0.221338 68 123 53
-0.412523 0.109073 0.221075 60 116 46
-0.412734 0.110906 0.220968 56 113 41
-0.4135 0.112954 0.220702 59 119 45
-0.413156 0.114587 0.220751 62 128 54
-0.412259 0.116004 0.220958 62 134 60
-0.410815 0.1172 0.22132 67 140 67
-0.409379 0.118388 0.221679 75 143 73
-0.409039 0.120008 0.221728 78 143 67
-0.408155 0.121406 0.221931 77 139 60
-0.407273 0.122799 0.222134 77 137 58
-0.406934 0.124414 0.222182 71 134 56
-0.408765 0.126948 0.221612 68 130 50
-0.410619 0.129514 0.221036 61 129 50
-0.410275 0.131148 0.221085 60 129 49
-0.409931 0.132782 0.221134 57 127 51
-0.410693 0.134907 0.220868 56 125 50
-0.410902 0.136795 0.220759 56 126 47
-0.384497 0.133296 0.228069 80 127 61
-0.382749 0.134139 0.228523 78 118 64
-0.382429 0.135659 0.228569 71 95 57
-0.382109 0.137179 0.228615 66 69 46
-0.38179 0.138699 0.22866 66 63 46
-0.403667 0.0723271 0.22286 64 66 47
-0.4018 0.0734589 0.223347 68 90 47
-0.397937 0.0740105 0.224404 76 101 49
-0.395627 0.0749759 0.225018 80 105 50
-0.393832 0.0760731 0.225485 79 106 50
-0.38917 0.076303 0.226773 80 107 50
-0.387433 0.0773757 0.227225 81 111 52
-0.387118 0.0788719 0.22727 82 115 55
-0.386333 0.0802212 0.22745 104 137 63
-0.386019 0.081715 0.227495 121 167 82
-0.385705 0.0832087 0.22754 95 132 64
-0.411743 0.0984861 0.219878 77 135 61
-0.411403 0.100103 0.219926 82 137 64
-0.411063 0.101719 0.219975 85 138 64
-0.41127 0.103529 0.219866 86 140 65
-0.411477 0.105345 0.219757 85 140 65
-0.412235 0.107368 0.21949 81 136 63
-0.412445 0.109198 0.21938 77 132 60
-0.413766 0.11145 0.218949 71 126 55
-0.41398 0.113297 0.218837 61 118 47
-0.413635 0.114935 0.218887 49 109 39
-0.413291 0.116573 0.218936 42 112 40
-0.412391 0.117992 0.219146 45 119 45
-0.410942 0.119185 0.219514 52 122 50
-0.410049 0.120593 0.219722 57 121 48
-0.40916 0.121996 0.21993 60 122 49
-0.408818 0.123621 0.219978 63 124 49
-0.410121 0.125935 0.219551 63 125 48
-0.411435 0.128271 0.21912 65 128 47
-0.412203 0.130389 0.218847 74 135 53
-0.411858 0.132033 0.218896 106 146 66
-0.410956 0.133433 0.219107 82 123 72
-0.410611 0.135075 0.219157 68 116 62
-0.410265 0.136717 0.219206 68 112 63
-0.40992 0.138358 0.219255 66 108 62
-0.383263 0.136278 0.226716 65 64 45
-0.382942 0.137805 0.226762 65 65 47
-0.382621 0.139331 0.226808 63 65 52
-0.383253 0.141335 0.226576 63 65 47
-0.384853 0.143837 0.226061 64 64 49
-0.385497 0.145871 0.225824 60 61 46
-0.385173 0.147416 0.225871 64 62 45
-0.385333 0.149212 0.225775 64 60 44
-0.385008 0.150759 0.225822 66 58 41
-0.385169 0.152563 0.225726 65 59 41
-0.402549 0.072107 0.221535 65 67 43
-0.398166 0.0725343 0.222759 70 86 46
-0.395357 0.0733697 0.223527 78 102 51
-0.395035 0.0748988 0.223573 82 108 53
-0.393243 0.0759965 0.224047 83 110 53
-0.389064 0.0763693 0.225215 84 112 53
-0.387325 0.0774434 0.225674 88 116 55
-0.386539 0.0787969 0.225856 89 120 57
-0.386224 0.0802931 0.225901 105 138 64
-0.385441 0.0816404 0.226083 127 174 85
-0.385127 0.0831343 0.226128 107 146 71
-0.411117 0.0984061 0.21835 69 126 55
-0.410777 0.100023 0.218398 73 130 59
-0.410983 0.101831 0.218287 78 133 61
-0.410643 0.10345 0.218336 83 137 62
-0.410849 0.105266 0.218225 85 141 65
-0.412157 0.107489 0.217791 85 141 66
-0.413476 0.109734 0.217353 85 140 64
-0.413689 0.111579 0.217239 81 136 61
-0.413903 0.113429 0.217125 66 118 50
-0.413558 0.11507 0.217174 48 101 36
-0.413213 0.116711 0.217224 42 106 36
-0.412868 0.118351 0.217273 47 115 44
-0.411968 0.119769 0.217486 49 115 47
-0.411069 0.121183 0.217698 52 118 51
-0.410726 0.122818 0.217747 54 120 51
-0.411489 0.124912 0.217471 54 122 49
-0.412257 0.12702 0.217192 55 125 48
-0.41303 0.12914 0.216912 58 129 51
-0.412683 0.13079 0.216962 71 150 70
-0.412336 0.13244 0.217012 106 189 95
-0.41199 0.13409 0.217061 128 178 103
-0.411643 0.135739 0.217111 143 153 78
-0.410183 0.136888 0.21749 111 101 80
-0.409837 0.138532 0.217539 75 79 76
-0.408938 0.139922 0.217752 63 74 70
-0.4097 0.142078 0.217474 64 70 67
-0.389141 0.141067 0.223304 65 70 63
-0.388814 0.142625 0.223351 67 73 62
-0.388486 0.144184 0.223398 68 78 64
-0.388159 0.145742 0.223445 72 77 63
-0.387831 0.1473 0.223492 77 80 56
-0.387011 0.148604 0.223685 80 83 55
-0.386684 0.150159 0.223731 84 85 60
-0.386357 0.151714 0.223778 80 76 54
-0.38603 0.15327 0.223825 71 66 47
-0.386685 0.155353 0.22358 63 59 42
-0.401946 0.072028 0.220062 68 65 42
-0.398071 0.0725962 0.221156 74 83 48
-0.395258 0.0734325 0.221936 80 104 52
-0.393462 0.0745384 0.222418 83 111 54
-0.389275 0.0749285 0.223606 88 113 55
-0.38706 0.0758696 0.224213 90 117 57
-0.386745 0.0773683 0.224258 92 122 58
-0.38596 0.078722 0.224442 93 124 60
-0.385645 0.0802183 0.224487 105 141 67
-0.385331 0.0817145 0.224532 126 176 86
-0.385016 0.0832106 0.224578 110 157 75
-0.41083 0.0967092 0.216773 75 125 55
-0.41049 0.0983261 0.216821 68 121 52
-0.410151 0.0999428 0.21687 65 123 55
-0.410356 0.101751 0.216757 68 128 58
-0.410015 0.10337 0.216806 75 132 59
-0.410221 0.105186 0.216692 81 137 62
-0.411526 0.107409 0.216251 84 140 65
-0.412842 0.109654 0.215806 88 142 64
-0.413612 0.111708 0.215524 88 141 64
-0.413826 0.113562 0.215407 78 129 58
-0.414041 0.115422 0.215289 63 114 48
-0.413695 0.117068 0.215339 57 113 48
-0.413349 0.118713 0.215388 52 114 50
-0.413003 0.120359 0.215438 43 111 47
-0.412657 0.122005 0.215488 41 111 45
-0.412311 0.12365 0.215537 43 112 42
-0.413084 0.12576 0.215252 42 114 40
-0.413862 0.127884 0.214965 45 118 40
-0.414079 0.129779 0.214846 46 124 46
-0.41373 0.131437 0.214896 54 134 56
-0.413382 0.133095 0.214946 73 156 67
-0.413033 0.134753 0.214996 99 170 82
-0.412122 0.13616 0.215215 121 192 101
-0.410656 0.13731 0.2156 119 201 117
-0.410309 0.13896 0.21565 120 191 112
-0.409407 0.140353 0.215867 126 190 105
-0.409061 0.142 0.215916 131 190 101
-0.409825 0.14417 0.215632 132 188 96
-0.411155 0.14662 0.215177 133 181 89
-0.405139 0.149155 0.216825 146 185 81
-0.391198 0.144037 0.220975 148 183 78
-0.388871 0.144607 0.221625 149 177 79
-0.388047 0.145919 0.221821 149 177 80
-0.387719 0.14748 0.221868 149 180 81
-0.387391 0.14904 0.221915 149 177 80
-0.387063 0.1506 0.221962 159 168 85
-0.386735 0.152161 0.222009 135 144 81
-0.386407 0.153721 0.222056 102 102 67
-0.386571 0.155545 0.221954 81 68 51
-0.386243 0.157107 0.222001 70 55 40
-0.401343 0.071949 0.218589 68 62 44
-0.397474 0.0725181 0.219698 76 86 51
-0.394666 0.0733551 0.220489 81 108 53
-0.392872 0.0744614 0.220977 87 115 55
-0.38917 0.0749929 0.222038 90 118 58
-0.38648 0.0757943 0.222796 92 122 61
-0.386165 0.0772931 0.222841 93 124 60
-0.385381 0.078647 0.223028 94 127 62
-0.385066 0.0801435 0.223073 107 144 69
-0.384751 0.0816398 0.223118 126 178 87
-0.384437 0.083136 0.223163 112 159 76
-0.410204 0.0966291 0.215244 91 140 64
-0.409321 0.0980602 0.215457 80 128 57
-0.409524 0.099863 0.215342 69 121 55
-0.409185 0.10148 0.21539 63 121 54
-0.409388 0.10329 0.215275 66 124 54
-0.409593 0.105106 0.215159 72 129 58
-0.410894 0.10733 0.214711 78 133 62
-0.412764 0.10978 0.214091 84 138 64
-0.413535 0.111838 0.213803 89 142 66
-0.413749 0.113695 0.213683 85 137 62
-0.413403 0.115341 0.213733 74 124 55
-0.414179 0.117426 0.213442 65 116 52
-0.413832 0.119078 0.213492 55 111 49
-0.413485 0.120729 0.213542 45 109 44
-0.413138 0.122379 0.213591 36 108 40
-0.413353 0.124261 0.213471 35 107 35
-0.414133 0.126383 0.213178 35 107 33
-0.41435 0.12828 0.213056 35 109 32
-0.414001 0.129941 0.213106 33 115 35
-0.413652 0.131601 0.213156 34 119 42
-0.413303 0.133262 0.213206 43 126 47
-0.412954 0.134922 0.213256 57 136 55
-0.412605 0.136582 0.213306 73 151 66
-0.411132 0.137736 0.213699 86 163 76
-0.410784 0.139391 0.213749 97 167 81
-0.410437 0.141045 0.213799 105 167 83
-0.409531 0.14244 0.214019 111 167 82
-0.409184 0.144092 0.214069 114 168 79
-0.410511 0.146542 0.213607 119 169 77
-0.413555 0.149836 0.212618 122 170 75
-0.413775 0.15179 0.212494 125 172 75
-0.410587 0.152072 0.213413 126 175 77
-0.40416 0.150714 0.215326 124 178 79
-0.391262 0.146041 0.219226 121 181 82
-0.388928 0.146601 0.219888 124 182 85
-0.387607 0.14766 0.22024 125 186 87
-0.387278 0.149223 0.220287 130 188 88
-0.38695 0.150786 0.220334 137 194 98
-0.386621 0.152348 0.220381 124 192 99
-0.386293 0.153911 0.220428 126 168 86
-0.386457 0.155739 0.220324 111 111 70
-0.386622 0.157572 0.220219 81 65 51
-0.386292 0.159139 0.220266 65 57 35
-0.40023 0.0717298 0.217271 65 62 45
-0.396877 0.07244 0.218239 77 89 52
-0.394566 0.073418 0.218891 84 111 55
-0.392282 0.0743845 0.219536 91 119 56
-0.388585 0.0749169 0.220611 93 122 59
-0.386371 0.0758597 0.221236 94 125 61
-0.385585 0.0772178 0.221425 94 124 60
-0.384801 0.0785721 0.221613 95 127 63
-0.384487 0.0800686 0.221658 108 146 70
-0.384172 0.0815651 0.221704 129 179 88
-0.409918 0.0949316 0.213666 107 165 77
-0.409578 0.0965489 0.213715 103 159 74
-0.408154 0.0977951 0.214096 93 147 68
-0.408356 0.0995948 0.213979 81 131 61
-0.408017 0.101209 0.214028 70 120 54
-0.408218 0.103017 0.213911 65 117 50
-0.408421 0.10483 0.213793 64 118 53
-0.409715 0.107048 0.213339 67 124 56
-0.412129 0.109699 0.212541 75 131 61
-0.412897 0.111758 0.212248 83 137 64
-0.413111 0.113615 0.212126 85 137 63
-0.413886 0.115695 0.21183 78 130 58
-0.413539 0.117346 0.21188 72 123 53
-0.413754 0.11922 0.211757 67 118 50
-0.413407 0.120874 0.211807 61 117 48
-0.413059 0.122528 0.211857 51 112 45
-0.413838 0.124645 0.211559 43 105 39
-0.415191 0.127012 0.211083 34 102 33
-0.415411 0.128919 0.210957 29 102 28
-0.415632 0.130831 0.210831 30 108 30
-0.41528 0.132503 0.210882 32 113 37
-0.415501 0.134424 0.210755 44 116 42
-0.414578 0.135845 0.210983 55 125 47
-0.41309 0.137008 0.211385 68 138 53
-0.412175 0.138418 0.211611 84 155 66
-0.411825 0.140081 0.211661 94 169 78
-0.411476 0.141744 0.211711 100 177 87
-0.41169 0.143669 0.211587 104 181 90
-0.41134 0.145335 0.211637 109 180 88
-0.413257 0.148082 0.210982 114 179 86
-0.413476 0.150033 0.210856 121 180 84
-0.413123 0.151711 0.210906 127 183 83
-0.41277 0.153389 0.210957 128 183 84
-0.412989 0.155351 0.21083 125 182 86
-0.388487 0.148351 0.218296 118 181 86
-0.388157 0.149921 0.218344 105 167 78
-0.38733 0.151231 0.218546 88 149 68
-0.386507 0.152537 0.218748 80 148 61
-0.386178 0.154102 0.218795 99 170 75
-0.386342 0.155933 0.218688 104 152 83
-0.386507 0.157769 0.218581 84 94 64
-0.399628 0.0716509 0.215799 64 63 46
-0.396779 0.0725019 0.216626 77 91 52
-0.394466 0.073481 0.217288 87 115 55
-0.391691 0.0743076 0.218094 94 122 59
-0.388478 0.0749814 0.219036 94 124 62
-0.38579 0.0757842 0.219817 95 127 62
-0.385005 0.0771426 0.220008 95 127 61
-0.384222 0.0784971 0.220198 97 131 62
-0.383907 0.0799938 0.220244 110 149 71
-0.383593 0.0814903 0.220289 130 180 88
-0.408749 0.0946706 0.212306 115 171 82
-0.407869 0.0961029 0.212523 113 171 81
-0.40753 0.0977153 0.212572 103 162 78
-0.407191 0.0993275 0.21262 92 146 71
-0.406852 0.10094 0.212669 82 131 60
-0.407052 0.102744 0.21255 72 120 51
-0.407252 0.104554 0.212431 65 115 49
-0.408539 0.106768 0.211972 61 117 51
-0.41094 0.109413 0.211164 65 122 55
-0.411704 0.111467 0.210867 74 129 59
-0.413032 0.113748 0.210394 80 133 61
-0.413246 0.115614 0.210268 81 134 60
-0.413461 0.117486 0.210142 81 133 59
-0.413676 0.119364 0.210016 80 132 58
-0.413328 0.12102 0.210066 77 129 57
-0.413543 0.122906 0.20994 71 123 54
-0.414895 0.125265 0.209457 63 115 48
-0.416259 0.127647 0.208969 50 109 40
-0.417058 0.129807 0.208658 38 103 31
-0.417283 0.131733 0.208527 37 107 33
-0.417509 0.133666 0.208396 49 115 42
-0.417155 0.135351 0.208447 63 124 48
-0.416801 0.137035 0.208498 75 135 53
-0.415294 0.138204 0.208912 90 152 62
-0.414941 0.139883 0.208963 103 171 77
-0.414588 0.141561 0.209014 106 177 83
-0.414235 0.14324 0.209064 103 181 86
-0.414456 0.145187 0.208934 100 180 88
-0.414677 0.14714 0.208804 96 176 88
-0.415476 0.149375 0.20849 94 172 85
-0.415121 0.151064 0.208541 91 166 80
-0.414766 0.152753 0.208593 85 160 76
-0.414989 0.154727 0.208461 81 155 73
-0.414634 0.156418 0.208512 76 149 68
-0.388543 0.150365 0.216542 67 129 51
-0.387713 0.151678 0.216747 60 130 49
-0.386887 0.152988 0.216953 66 133 52
-0.386557 0.154557 0.217 89 142 62
-0.386227 0.156127 0.217048 86 113 66
-0.385897 0.157697 0.217095 70 74 55
-0.398518 0.0714323 0.214487 65 64 50
-0.396181 0.0724237 0.215165 77 93 53
-0.394365 0.0735442 0.215681 90 122 59
-0.391588 0.0743717 0.216499 95 125 59
-0.388371 0.075046 0.217457 94 126 63
-0.385679 0.0758497 0.218249 95 128 63
-0.384424 0.0770674 0.218591 96 128 61
-0.383642 0.0784221 0.218783 98 133 62
-0.383328 0.0799189 0.218829 112 150 70
-0.383013 0.0814156 0.218874 129 181 87
-0.407583 0.0944103 0.210949 114 172 82
-0.406706 0.095841 0.211168 115 173 83
-0.406368 0.0974511 0.211217 111 167 82
-0.406566 0.0992478 0.211096 101 156 76
-0.406228 0.10086 0.211145 90 143 66
-0.406426 0.102665 0.211023 80 132 58
-0.407707 0.104867 0.210558 73 125 54
-0.407367 0.106489 0.210608 67 119 53
-0.410306 0.109333 0.209616 64 118 52
-0.411067 0.111387 0.209315 66 122 54
-0.412392 0.113668 0.208834 72 128 58
-0.412605 0.115534 0.208706 78 133 61
-0.413382 0.117626 0.208399 83 138 64
-0.413034 0.119283 0.208449 85 140 64
-0.413249 0.121166 0.20832 85 138 63
-0.413464 0.123056 0.208191 83 135 62
-0.415962 0.125892 0.207334 80 132 59
-0.41676 0.128046 0.207018 73 127 55
-0.417563 0.130215 0.2067 62 119 46
-0.417789 0.132148 0.206566 59 119 46
-0.418016 0.134088 0.206431 55 122 53
-0.417661 0.135778 0.206482 59 121 57
-0.416726 0.137211 0.206719 64 126 56
-0.415793 0.138639 0.206955 74 134 57
-0.415439 0.140323 0.207006 79 138 61
-0.415662 0.142272 0.206872 80 139 60
-0.415307 0.143959 0.206923 76 136 59
-0.415531 0.145917 0.206789 72 133 59
-0.415754 0.14788 0.206655 70 134 59
-0.415979 0.14985 0.20652 66 133 56
-0.416205 0.151826 0.206385 63 133 54
-0.415848 0.153523 0.206436 61 132 53
-0.415491 0.15522 0.206487 60 130 52
-0.413977 0.156339 0.206911 61 129 51
-0.414778 0.158614 0.20659 62 130 52
-0.388099 0.152129 0.214938 80 132 57
-0.387269 0.153441 0.215146 83 132 68
-0.386938 0.155016 0.215194 74 108 66
-0.386607 0.15659 0.215242 65 77 50
-0.386773 0.158436 0.215129 59 58 43
-0.397917 0.0713535 0.213017 66 66 48
-0.396082 0.0724855 0.213545 77 92 55
-0.39377 0.0734665 0.214226 92 123 61
-0.391483 0.0744359 0.214899 95 126 59
-0.387784 0.0749697 0.216025 96 126 62
-0.385097 0.0757741 0.216828 97 129 62
-0.383844 0.0769921 0.217173 96 129 61
-0.383063 0.0783471 0.217368 98 134 63
-0.382748 0.079844 0.217413 111 150 70
-0.382899 0.0814894 0.21731 128 179 87
-0.406421 0.0941508 0.209597 118 176 84
-0.405014 0.0953992 0.209989 119 173 84
-0.405209 0.0971877 0.209866 113 169 83
-0.405406 0.0989814 0.209743 104 158 77
-0.405603 0.100781 0.20962 96 148 70
-0.405264 0.102393 0.209669 86 140 62
-0.406538 0.104591 0.209198 80 135 60
-0.409465 0.107413 0.208196 78 131 59
-0.410776 0.109665 0.207712 73 125 56
-0.4121 0.111938 0.207224 67 122 54
-0.411753 0.113587 0.207274 65 123 55
-0.411965 0.115453 0.207144 69 127 59
-0.412739 0.117546 0.206832 76 133 62
-0.412954 0.119427 0.2067 81 136 63
-0.413169 0.121313 0.206568 84 137 63
-0.413385 0.123206 0.206436 86 138 65
-0.415886 0.126048 0.205564 88 140 66
-0.417264 0.128449 0.205054 85 139 63
-0.417489 0.130379 0.204918 80 135 60
-0.417716 0.132316 0.20478 76 127 57
-0.417943 0.134259 0.204643 55 113 49
-0.417587 0.135952 0.204694 38 108 43
-0.417232 0.137645 0.204745 48 113 44
-0.416295 0.139077 0.204985 60 117 45
-0.41594 0.140767 0.205037 65 122 48
-0.415585 0.142457 0.205088 62 124 50
-0.415809 0.144415 0.204951 61 124 49
-0.416033 0.14638 0.204813 61 126 52
-0.416842 0.148628 0.204485 61 128 51
-0.417657 0.150889 0.204155 70 131 51
-0.417298 0.152595 0.204207 102 145 59
-0.41694 0.154301 0.204258 120 156 68
-0.415996 0.155716 0.204501 102 138 74
-0.414475 0.156837 0.204932 71 104 74
-0.413541 0.158242 0.205173 59 102 63
-0.414342 0.160527 0.204846 60 96 57
-0.387321 0.155477 0.213377 67 63 39
-0.386989 0.157057 0.213425 63 62 37
-0.387156 0.158909 0.213309 64 62 40
-0.386824 0.16049 0.213357 65 61 45
-0.389004 0.163473 0.212579 65 59 47
-0.390193 0.165925 0.212126 64 57 45
-0.389857 0.167525 0.212175 62 55 45
-0.38952 0.169125 0.212223 55 56 43
-0.387665 0.169845 0.212772 64 56 42
-0.38733 0.171438 0.212821 67 54 38
-0.385992 0.172438 0.2132 65 52 39
-0.397315 0.0712747 0.211547 66 65 45
-0.395983 0.0725476 0.211919 77 93 53
-0.393174 0.0733887 0.212771 92 124 62
-0.391379 0.0745004 0.213295 96 127 61
-0.387676 0.0750344 0.214438 96 128 63
-0.384515 0.0756985 0.215406 96 129 63
-0.38373 0.0770593 0.215604 95 130 62
-0.382483 0.078272 0.215952 97 135 64
-0.382168 0.0797691 0.215998 111 150 70
-0.382784 0.0815633 0.215741 127 179 85
-0.404729 0.093714 0.208421 123 182 89
-0.403861 0.0951396 0.208643 119 177 88
-0.404054 0.096925 0.208519 112 170 85
-0.404249 0.0987158 0.208394 104 158 77
-0.404444 0.100512 0.208269 98 150 70
-0.404639 0.102313 0.208144 92 143 65
-0.405372 0.104315 0.207842 84 137 61
-0.408831 0.107333 0.206649 82 137 61
-0.410139 0.109584 0.206159 85 140 63
-0.41146 0.111857 0.205663 80 136 61
-0.411672 0.113721 0.205531 73 128 58
-0.412445 0.115808 0.205214 68 124 56
-0.412659 0.117686 0.20508 68 125 56
-0.41231 0.119346 0.20513 71 128 59
-0.412525 0.121233 0.204996 76 132 61
-0.41274 0.123125 0.204861 82 136 62
-0.415235 0.125966 0.203976 88 142 65
-0.41661 0.128367 0.20346 88 142 65
-0.417415 0.130544 0.203129 86 140 64
-0.417642 0.132484 0.202989 84 132 62
-0.417286 0.134178 0.20304 65 112 49
-0.41693 0.135871 0.203092 44 107 41
-0.416574 0.137564 0.203143 50 112 44
-0.4168 0.139518 0.203003 54 110 41
-0.416444 0.141214 0.203054 56 111 40
-0.41667 0.143177 0.202913 52 114 42
-0.41807 0.145691 0.202385 48 118 43
-0.4183 0.147673 0.202242 51 123 45
-0.419717 0.150225 0.201706 54 127 47
-0.419951 0.152228 0.201562 62 134 50
-0.41959 0.153948 0.201614 88 153 64
-0.418634 0.155376 0.201863 112 182 88
-0.417682 0.1568 0.202111 121 192 106
-0.416146 0.157924 0.202553 128 176 98
-0.414039 0.158748 0.203185 140 162 75
-0.414844 0.161042 0.202851 144 145 71
-0.392119 0.161893 0.209952 88 76 67
-0.391782 0.163501 0.21 78 71 72
-0.391959 0.165397 0.209877 70 73 75
-0.391621 0.167008 0.209926 66 69 73
-0.391282 0.168618 0.209975 68 72 74
-0.39043 0.169933 0.210196 68 74 76
-0.388562 0.170652 0.210756 70 74 69
-0.387719 0.171956 0.210974 74 70 48
-0.387383 0.173553 0.211023 65 62 39
-0.386544 0.17485 0.21124 57 55 36
-0.397723 0.0714747 0.209745 66 65 46
-0.396386 0.0727509 0.210124 79 89 53
-0.393071 0.0734518 0.211154 92 122 62
-0.391274 0.074565 0.211685 95 126 62
-0.388046 0.0752409 0.212689 95 129 63
-0.384873 0.0759052 0.213675 95 131 62
-0.383617 0.0771267 0.21403 96 130 62
-0.382367 0.078341 0.214383 100 135 65
-0.382052 0.0798404 0.214429 108 147 69
-0.382202 0.0814883 0.214321 126 177 85
-0.40147 0.0927522 0.207775 127 186 91
-0.402184 0.0947019 0.207476 123 181 88
-0.402903 0.0966632 0.207176 114 169 84
-0.403095 0.098451 0.207049 105 158 77
-0.403819 0.100432 0.206746 99 149 72
-0.404014 0.102234 0.206618 92 142 66
-0.404209 0.104041 0.20649 88 138 62
-0.408197 0.107253 0.205103 87 140 62
-0.409503 0.109504 0.204605 90 148 65
-0.41082 0.111776 0.204103 93 151 69
-0.411031 0.11364 0.203967 92 145 68
-0.411802 0.115727 0.203646 83 133 61
-0.412015 0.117606 0.203509 72 124 55
-0.412229 0.11949 0.203372 66 122 54
-0.412444 0.12138 0.203235 66 124 55
-0.414937 0.124208 0.202338 73 129 57
-0.414584 0.125885 0.202389 80 136 61
-0.415956 0.128286 0.201864 85 139 65
-0.416759 0.130463 0.201529 87 141 66
-0.416985 0.132403 0.201386 88 141 66
-0.416629 0.134096 0.201438 76 127 59
-0.416855 0.136045 0.201295 62 114 53
-0.417081 0.138001 0.201151 57 113 52
-0.417309 0.139962 0.201007 52 107 43
-0.416951 0.141663 0.201059 44 105 35
-0.417766 0.143903 0.200718 39 104 36
-0.418585 0.146158 0.200374 37 108 36
-0.420603 0.148988 0.199629 38 112 34
-0.42084 0.150995 0.19948 40 116 36
-0.420477 0.152721 0.199532 45 123 40
-0.420115 0.154446 0.199585 56 133 50
-0.419155 0.155879 0.199838 71 148 64
-0.418199 0.157306 0.20009 88 162 76
-0.416656 0.158433 0.20054 102 169 81
-0.415123 0.159552 0.200988 111 174 82
-0.417708 0.162767 0.200047 116 176 88
-0.419133 0.165414 0.199497 115 179 94
-0.397441 0.16691 0.206349 111 202 111
-0.396034 0.167954 0.206759 114 208 110
-0.393587 0.168399 0.207522 120 211 111
-0.392725 0.169724 0.207748 124 209 110
-0.389805 0.169859 0.208673 134 204 109
-0.389467 0.171467 0.208722 153 175 97
-0.38811 0.172477 0.209117 129 133 76
-0.387774 0.174079 0.209165 93 84 57
-0.386426 0.175078 0.209558 72 60 42
-0.386091 0.176676 0.209606 65 55 37
-0.397625 0.0715356 0.208101 66 64 48
-0.396791 0.0729555 0.208318 78 86 52
-0.393463 0.0736568 0.209366 91 120 61
-0.391659 0.0747724 0.209907 95 127 64
-0.388418 0.0754486 0.210929 98 128 62
-0.38476 0.0759711 0.212091 96 130 62
-0.383034 0.0770512 0.212608 98 129 63
-0.382718 0.078555 0.212654 100 133 64
-0.381936 0.0799118 0.212855 108 144 70
-0.382086 0.0815623 0.212745 125 179 88
-0.396364 0.0878089 0.207899 129 184 89
-0.398591 0.0902229 0.207089 125 188 93
-0.398259 0.0918048 0.207137 125 186 93
-0.399476 0.0939131 0.206665 125 182 89
-0.401754 0.0964021 0.205836 117 171 83
-0.402473 0.0983716 0.20553 109 160 76
-0.403195 0.100353 0.205223 100 151 73
-0.403389 0.102154 0.205093 93 142 67
-0.403583 0.103961 0.204962 91 139 65
-0.407564 0.107172 0.203556 90 144 66
-0.408866 0.109423 0.203051 94 151 68
-0.410181 0.111695 0.202542 99 158 72
-0.41039 0.113559 0.202404 102 161 75
-0.4106 0.115429 0.202266 97 151 70
-0.411371 0.117525 0.201939 87 137 62
-0.411584 0.119409 0.201799 73 124 56
-0.411798 0.121299 0.201659 65 118 52
-0.414286 0.124126 0.20075 64 119 52
-0.415656 0.126519 0.200218 67 124 55
-0.416458 0.12869 0.199877 75 131 60
-0.416683 0.130628 0.199732 81 136 64
-0.416909 0.132572 0.199586 85 141 66
-0.416553 0.134268 0.199638 80 135 62
-0.416779 0.13622 0.199492 69 120 56
-0.417006 0.138179 0.199345 64 115 52
-0.417233 0.140144 0.199198 60 112 48
-0.417462 0.142115 0.19905 49 109 43
-0.41828 0.144364 0.198702 38 105 39
-0.420296 0.147183 0.197945 33 102 32
-0.421734 0.149754 0.197384 30 103 27
-0.42137 0.151486 0.197437 33 106 28
-0.421007 0.153217 0.197489 36 113 34
-0.420643 0.154948 0.197542 42 118 41
-0.420279 0.156679 0.197595 53 124 47
-0.419316 0.158113 0.197852 68 135 53
-0.418357 0.159541 0.198108 84 149 61
-0.4174 0.160965 0.198364 98 164 72
-0.418227 0.163296 0.19801 106 175 80
-0.41906 0.165643 0.197653 107 176 83
-0.424167 0.17024 0.195831 107 178 85
-0.395056 0.169512 0.205262 129 185 86
-0.394186 0.170844 0.205493 130 188 87
-0.39072 0.170673 0.206619 128 188 91
-0.389866 0.171989 0.206845 118 187 98
-0.388504 0.173001 0.207247 125 189 106
-0.388166 0.174609 0.207296 116 147 84
-0.387828 0.176216 0.207345 91 84 54
-0.386983 0.177517 0.20757 70 52 36
-0.397527 0.0715966 0.206453 67 62 51
-0.396692 0.0730186 0.206672 74 84 51
-0.39336 0.0737205 0.207736 90 120 59
-0.391553 0.0748376 0.208285 95 127 62
-0.388309 0.0755144 0.209322 97 125 60
-0.38512 0.0761795 0.210342 97 128 60
-0.382919 0.0771186 0.211027 98 130 63
-0.382136 0.0784796 0.211231 99 133 61
-0.38182 0.0799835 0.211277 103 142 70
-0.38197 0.0816366 0.211164 122 178 87
-0.384001 0.0839062 0.210412 130 189 89
-0.395426 0.0893011 0.206461 133 192 93
-0.396621 0.0913827 0.20599 128 186 95
-0.397314 0.0933082 0.205689 124 179 87
-0.400609 0.0961418 0.204501 119 174 81
-0.40185 0.0982922 0.204011 112 166 76
-0.402571 0.100273 0.203699 101 155 75
-0.402764 0.102075 0.203567 93 146 71
-0.403491 0.104077 0.203252 93 142 69
-0.40693 0.107092 0.202009 97 148 69
-0.408229 0.109343 0.201497 101 155 71
-0.409541 0.111615 0.20098 105 163 75
-0.409749 0.113478 0.20084 111 168 78
-0.409958 0.115348 0.2007 109 166 77
-0.410168 0.117223 0.200559 98 156 72
-0.410379 0.119104 0.200418 85 140 64
-0.411152 0.121218 0.200084 73 124 55
-0.413064 0.123811 0.199358 66 116 51
-0.414427 0.126198 0.19882 62 116 51
-0.415224 0.128365 0.198475 64 121 54
-0.416026 0.130546 0.198129 72 128 58
-0.416251 0.13249 0.19798 79 135 62
-0.416476 0.13444 0.197832 82 136 60
-0.417288 0.136654 0.197481 78 128 57
-0.417516 0.13862 0.19733 74 127 56
-0.417157 0.140327 0.197382 73 125 56
-0.417386 0.142302 0.197232 67 119 54
-0.419393 0.145103 0.196467 55 112 46
-0.421425 0.14794 0.195692 46 105 38
-0.422269 0.150242 0.195327 34 101 31
-0.421904 0.151979 0.19538 35 105 31
-0.421539 0.153716 0.195433 44 113 39
-0.421174 0.155453 0.195486 55 122 46
-0.42081 0.15719 0.195539 65 131 52
-0.419843 0.158628 0.1958 81 142 58
-0.418879 0.16006 0.196061 99 158 66
-0.418516 0.161791 0.196114 111 171 74
-0.41875 0.163829 0.195959 117 176 78
-0.418985 0.165873 0.195803 118 178 80
-0.420429 0.168557 0.195227 116 177 82
-0.424969 0.172899 0.193573 114 179 85
-0.424598 0.174667 0.193626 113 182 87
-0.424226 0.176435 0.19368 110 180 86
-0.394605 0.171372 0.20358 83 150 69
-0.391124 0.171196 0.204727 80 143 61
-0.389752 0.172215 0.205138 70 143 54
-0.3889 0.173528 0.205366 82 151 66
-0.388561 0.175141 0.205415 89 149 85
-0.387712 0.176448 0.205644 79 85 63
-0.387373 0.178058 0.205693 66 52 39
-0.397429 0.0716578 0.204799 67 66 54
-0.396087 0.0729395 0.205194 68 77 53
-0.393754 0.0739271 0.205931 90 122 58
-0.39194 0.0750467 0.206489 94 125 60
-0.388683 0.0757238 0.207545 96 126 60
-0.385007 0.076246 0.208746 97 127 63
-0.382803 0.0771861 0.209441 96 130 65
-0.382019 0.0785492 0.209648 96 132 62
-0.381703 0.0800553 0.209694 100 139 69
-0.381853 0.081711 0.209579 120 176 85
-0.383414 0.0838306 0.208977 127 191 92
-0.392307 0.0883928 0.205843 130 190 94
-0.394487 0.0907934 0.205024 128 187 91
-0.395679 0.0928817 0.204546 123 180 88
-0.399989 0.0960626 0.202988 119 176 84
-0.401228 0.0982128 0.202492 112 167 81
-0.402477 0.100383 0.201992 103 156 77
-0.40267 0.102187 0.201857 96 149 73
-0.403398 0.104192 0.201536 98 148 70
-0.406296 0.107012 0.200462 102 155 73
-0.407592 0.109262 0.199943 107 160 76
-0.408901 0.111534 0.199419 111 167 78
-0.409108 0.113398 0.199276 117 174 81
-0.409316 0.115267 0.199134 118 176 83
-0.409525 0.117142 0.198991 109 169 81
-0.409735 0.119023 0.198847 97 154 73
-0.409945 0.12091 0.198703 86 137 63
-0.412414 0.12373 0.197772 75 124 55
-0.413201 0.125879 0.197426 66 116 51
-0.414568 0.128284 0.196877 63 115 51
-0.415368 0.130464 0.196525 63 119 53
-0.415592 0.132408 0.196374 70 127 56
-0.416399 0.134613 0.196019 79 133 57
-0.416626 0.136572 0.195867 83 133 58
-0.416853 0.138538 0.195714 83 138 63
-0.418261 0.141043 0.195148 83 138 61
-0.420279 0.143845 0.194367 81 134 61
-0.422325 0.146684 0.193576 74 128 57
-0.42196 0.148421 0.193629 69 124 52
-0.421595 0.150159 0.193682 56 116 45
-0.421835 0.152186 0.193522 55 117 45
-0.421469 0.153926 0.193575 56 121 52
-0.421104 0.155666 0.193628 59 127 58
-0.420738 0.157406 0.193681 64 133 62
-0.41977 0.158845 0.193947 72 142 68
-0.419405 0.160582 0.193999 81 151 74
-0.41904 0.162319 0.194052 85 154 72
-0.419276 0.164365 0.193894 84 148 67
-0.420117 0.166731 0.193521 87 146 64
-0.4228 0.170076 0.192498 85 144 62
-0.424282 0.172817 0.191898 83 141 63
-0.42391 0.174585 0.191952 84 144 62
-0.423539 0.176353 0.192006 82 140 59
-0.42255 0.177784 0.192278 78 137 56
-0.419732 0.178199 0.193198 74 136 55
-0.418758 0.179615 0.193466 69 135 56
-0.393969 0.171297 0.20203 62 130 51
-0.392575 0.172325 0.202453 64 129 50
-0.390671 0.173044 0.203057 74 135 52
-0.389298 0.174059 0.203474 90 143 69
-0.388958 0.175677 0.203523 77 93 70
-0.388618 0.177294 0.203572 64 60 55
-0.388278 0.178912 0.203622 57 50 39
-0.397839 0.0718604 0.202962 67 65 48
-0.395986 0.0730027 0.203541 66 73 50
-0.39415 0.0741349 0.204114 90 118 57
-0.391835 0.0751126 0.204855 94 121 60
-0.389547 0.0760788 0.205587 95 125 59
-0.385369 0.076456 0.206979 95 127 61
-0.382687 0.0772539 0.207851 94 129 63
-0.381902 0.0786189 0.20806 96 130 61
-0.381585 0.0801273 0.208106 97 137 67
-0.381268 0.0816356 0.208152 117 173 85
-0.382355 0.0836015 0.207707 127 193 93
-0.387284 0.0868526 0.205915 130 189 91
-0.391873 0.0900415 0.204241 128 184 89
-0.393549 0.0922858 0.203586 123 181 88
-0.399892 0.0961642 0.201292 118 179 86
-0.401132 0.0983182 0.200788 113 169 82
-0.401852 0.100303 0.200465 106 160 77
-0.402576 0.1023 0.200141 102 156 75
-0.403305 0.104308 0.199814 103 156 75
-0.405661 0.106931 0.198915 106 161 75
-0.407504 0.109388 0.198195 111 167 78
-0.408261 0.111453 0.197857 116 171 81
-0.408467 0.113317 0.197712 120 177 84
-0.40812 0.11497 0.197763 122 180 87
-0.408327 0.116842 0.197618 116 174 86
-0.409091 0.118943 0.197276 105 162 79
-0.4093 0.120829 0.197129 93 149 69
-0.411198 0.123416 0.196385 82 136 61
-0.412549 0.125798 0.195834 74 127 58
-0.413913 0.128202 0.195278 71 123 55
-0.414711 0.130383 0.194921 67 121 54
-0.415514 0.132577 0.194562 65 122 52
-0.415739 0.134531 0.194408 68 126 53
-0.416549 0.136749 0.194046 75 131 56
-0.417365 0.138981 0.193681 80 137 63
-0.418779 0.141497 0.193103 83 137 63
-0.420207 0.144036 0.19252 84 139 64
-0.42165 0.146601 0.19193 85 142 64
-0.42189 0.148622 0.191768 84 139 59
-0.421524 0.150363 0.191821 80 135 59
-0.421765 0.152393 0.191658 72 128 57
-0.421398 0.154136 0.191712 56 118 48
-0.421032 0.155879 0.191765 47 115 44
-0.420666 0.157622 0.191818 50 119 47
-0.4203 0.159365 0.191871 57 125 53
-0.419934 0.161108 0.191924 61 129 56
-0.420172 0.163159 0.191761 62 130 55
-0.421019 0.165529 0.191381 62 129 52
-0.423101 0.168554 0.190557 64 128 51
-0.423966 0.170966 0.190169 64 128 49
-0.424215 0.173064 0.19 68 131 53
-0.423843 0.174835 0.190055 90 140 57
-0.423471 0.176606 0.190109 117 150 66
-0.421864 0.177702 0.190606 92 129 71
-0.419051 0.178118 0.191537 71 120 72
-0.416274 0.178529 0.192456 65 116 66
-0.418314 0.181624 0.191644 65 114 62
-0.395984 0.172743 0.199526 62 109 62
-0.393515 0.173162 0.20034 60 103 60
-0.391598 0.173881 0.200958 64 98 58
-0.390216 0.174898 0.201382 69 83 60
-0.389874 0.176524 0.201432 67 62 46
-0.389533 0.178149 0.201482 66 56 37
-0.389709 0.180088 0.201344 62 60 36
-0.390406 0.18235 0.201018 57 63 39
-0.390063 0.183983 0.201068 57 61 40
-0.391287 0.186591 0.200551 55 56 39
