ply
format ascii 1.0
element vertex 1248
property float x
property float y
property float z
property uchar diffuse_red
property uchar diffuse_green
property uchar diffuse_blue
end_header
-0.444399 0.152816 0.253461 52 107 40
-0.443394 0.154253 0.253625 50 109 40
-0.44303 0.155979 0.253674 39 102 34
-0.442029 0.157409 0.253837 38 99 30
-0.441031 0.158834 0.253999 45 105 33
-0.440037 0.160254 0.25416 46 110 40
-0.439675 0.161971 0.25421 41 110 38
-0.439944 0.163994 0.254147 37 107 35
-0.439582 0.165714 0.254197 29 107 39
-0.439852 0.167746 0.254134 32 108 42
-0.440123 0.169785 0.254071 34 105 33
-0.441032 0.172152 0.253895 34 101 26
-0.440667 0.173882 0.253945 29 101 26
-0.439667 0.175286 0.254108 29 107 32
-0.43867 0.176685 0.25427 36 113 38
-0.437676 0.178079 0.254432 44 114 41
-0.437313 0.179801 0.254481 48 114 44
-0.436323 0.181187 0.254642 43 114 45
-0.434714 0.182234 0.254913 35 110 39
-0.433733 0.183609 0.255073 32 111 33
-0.431527 0.184306 0.25545 32 114 37
-0.429342 0.184995 0.255824 41 115 39
-0.427778 0.186014 0.256087 53 114 43
-0.426822 0.187363 0.256242 61 113 51
-0.424089 0.187694 0.256714 65 105 54
-0.420228 0.187354 0.257387 71 81 55
-0.417008 0.187349 0.257945 72 73 54
-0.433691 0.054856 0.254452 70 90 45
-0.433352 0.0564675 0.254499 67 91 43
-0.432434 0.0579548 0.254649 66 96 43
-0.432095 0.0595636 0.254695 68 96 43
-0.431757 0.0611723 0.254741 68 105 45
-0.431418 0.0627809 0.254788 74 115 53
-0.431079 0.0643894 0.254834 88 144 70
-0.43074 0.0659977 0.25488 109 149 74
-0.430402 0.067606 0.254927 102 150 75
-0.42949 0.0690732 0.255076 85 141 68
-0.429152 0.0706788 0.255122 78 132 60
-0.429386 0.07243 0.255066 75 130 55
-0.430196 0.0743356 0.254906 72 126 52
-0.434516 0.0771777 0.254114 68 122 53
-0.435947 0.0792866 0.253842 64 120 53
-0.436197 0.0810889 0.253782 61 118 52
-0.435851 0.0827312 0.253829 62 117 51
-0.437298 0.084879 0.253554 63 118 52
-0.438154 0.0868737 0.253384 64 120 53
-0.441459 0.089592 0.252774 64 123 54
-0.442339 0.0916267 0.2526 65 125 56
-0.441987 0.0933023 0.252649 67 128 57
-0.442252 0.0951662 0.252585 71 132 58
-0.441898 0.0968442 0.252634 74 136 61
-0.441545 0.0985221 0.252682 75 136 62
-0.441191 0.1002 0.25273 73 134 63
-0.440838 0.101878 0.252779 73 131 60
-0.441721 0.10396 0.252604 74 130 61
-0.441366 0.105643 0.252653 75 128 60
-0.441632 0.107535 0.252589 74 127 61
-0.441277 0.10922 0.252638 75 128 59
-0.441543 0.11112 0.252574 81 133 63
-0.441809 0.113027 0.25251 84 142 69
-0.441454 0.114717 0.252559 85 146 71
-0.44172 0.116632 0.252495 89 146 69
-0.441988 0.118552 0.252431 91 148 71
-0.442257 0.120479 0.252367 93 150 71
-0.4419 0.122177 0.252416 96 152 72
-0.441542 0.123875 0.252465 91 144 68
-0.441811 0.125813 0.2524 82 131 60
-0.441453 0.127514 0.252449 74 122 54
-0.441094 0.129214 0.252498 71 119 51
-0.440736 0.130914 0.252547 72 121 55
-0.441004 0.132866 0.252483 73 123 58
-0.440646 0.134569 0.252532 75 124 57
-0.441543 0.136789 0.252354 79 127 56
-0.443079 0.139288 0.252059 83 134 60
-0.443992 0.141542 0.251878 88 143 68
-0.44491 0.14381 0.251695 91 151 72
-0.445189 0.145815 0.251628 92 147 70
-0.445469 0.147826 0.251561 88 138 63
-0.445104 0.149559 0.251611 77 128 58
-0.444739 0.151291 0.251661 67 117 52
-0.444375 0.153024 0.251711 63 113 48
-0.443368 0.154463 0.251878 55 108 42
-0.443004 0.156192 0.251927 49 104 38
-0.442001 0.157624 0.252093 52 105 40
-0.441637 0.15935 0.252143 55 109 43
-0.441274 0.161076 0.252193 53 109 45
-0.441547 0.163108 0.252127 50 108 45
-0.441822 0.165146 0.25206 51 109 44
-0.442097 0.167191 0.251994 51 110 46
-0.442373 0.169243 0.251927 51 110 48
-0.442651 0.171301 0.25186 43 107 40
-0.442929 0.173366 0.251793 34 104 30
-0.442562 0.175108 0.251843 24 103 30
-0.441552 0.176519 0.25201 30 108 36
-0.439906 0.177594 0.252293 39 112 39
-0.438906 0.178994 0.252459 38 110 36
-0.437908 0.180389 0.252624 31 106 32
-0.436286 0.181443 0.252903 30 108 33
-0.435923 0.183165 0.252953 28 112 36
-0.434312 0.184206 0.25323 32 112 36
-0.432712 0.185241 0.253505 37 115 42
-0.430511 0.18593 0.25389 55 116 47
-0.430152 0.187631 0.253939 68 105 52
-0.428579 0.188646 0.25421 67 88 54
-0.426415 0.189313 0.254589 66 79 52
-0.424272 0.189972 0.254964 67 66 52
-0.433313 0.0565059 0.252872 69 80 45
-0.432393 0.0579955 0.253025 66 89 43
-0.432054 0.0596069 0.253072 64 91 41
-0.431715 0.0612182 0.253118 66 95 37
-0.4308 0.062698 0.25327 65 101 42
-0.430461 0.0643067 0.253317 68 112 49
-0.430122 0.0659152 0.253363 92 133 64
-0.429211 0.0673852 0.253515 115 162 86
-0.428302 0.0688508 0.253666 114 168 86
-0.427397 0.0703117 0.253817 102 154 71
-0.42706 0.0719125 0.253863 94 145 64
-0.42729 0.0736603 0.253805 88 137 59
-0.428662 0.0757148 0.253536 82 133 57
-0.432957 0.0785695 0.252729 75 127 56
-0.434379 0.0806817 0.252451 71 122 55
-0.435219 0.0826482 0.252279 68 120 55
-0.434874 0.0842905 0.252327 68 120 55
-0.436916 0.0866177 0.251934 69 120 55
-0.442047 0.0898666 0.25097 72 123 55
-0.442312 0.0917254 0.250905 72 124 54
-0.442578 0.0935899 0.250839 72 125 53
-0.442224 0.0952709 0.250887 71 126 55
-0.44187 0.0969518 0.250936 71 126 56
-0.440899 0.0984384 0.251098 69 124 57
-0.43993 0.0999202 0.25126 66 122 55
-0.438965 0.101397 0.251422 64 122 53
-0.439839 0.103472 0.251244 64 120 54
-0.440718 0.10556 0.251064 63 117 54
-0.440364 0.107243 0.251113 63 118 55
-0.440628 0.109137 0.251047 65 121 53
-0.441514 0.111253 0.250866 68 124 56
-0.441158 0.112943 0.250914 70 129 63
-0.441425 0.114855 0.250848 73 131 62
-0.441692 0.116774 0.250781 75 134 63
-0.44196 0.118698 0.250714 77 137 65
-0.441603 0.120396 0.250763 83 141 64
-0.441245 0.122094 0.250812 86 143 66
-0.441513 0.12403 0.250745 83 139 68
-0.441155 0.12573 0.250795 79 131 63
-0.441424 0.127675 0.250727 78 130 61
-0.441065 0.129378 0.250777 79 132 60
-0.440706 0.131081 0.250826 80 131 61
-0.440975 0.133037 0.250758 78 130 63
-0.441244 0.134999 0.250691 80 132 61
-0.442779 0.13749 0.250389 85 137 63
-0.44369 0.139738 0.250202 89 143 69
-0.444607 0.142 0.250014 91 147 72
-0.444886 0.144002 0.249944 92 151 71
-0.445166 0.146011 0.249875 94 153 73
-0.444801 0.147744 0.249925 94 151 71
-0.444436 0.149476 0.249975 88 141 67
-0.444071 0.151209 0.250024 80 130 59
-0.443706 0.152941 0.250074 69 118 52
-0.443341 0.154674 0.250124 62 113 49
-0.442977 0.156406 0.250174 61 113 48
-0.442612 0.158138 0.250224 64 114 49
-0.442247 0.15987 0.250274 65 116 50
-0.441883 0.161602 0.250324 65 117 51
-0.441518 0.163334 0.250374 69 123 53
-0.442434 0.165688 0.250185 75 129 55
-0.442711 0.16774 0.250116 77 133 57
-0.443636 0.17012 0.249925 74 133 59
-0.443269 0.171866 0.249976 74 130 54
-0.443549 0.173939 0.249905 64 119 46
-0.443181 0.175687 0.249955 51 110 43
-0.442166 0.177102 0.250127 41 109 39
-0.440514 0.178178 0.250417 35 105 32
-0.438872 0.179247 0.250705 30 100 27
-0.437873 0.180644 0.250873 28 104 28
-0.436877 0.182037 0.251041 30 109 32
-0.435258 0.183086 0.251325 34 114 37
-0.433649 0.184128 0.251608 41 113 36
-0.433288 0.185844 0.251657 44 116 47
-0.432308 0.187216 0.251823 69 119 58
-0.431331 0.188583 0.251987 75 92 59
-0.429746 0.1896 0.252266 68 65 51
-0.432352 0.0580364 0.251396 67 75 48
-0.432013 0.0596504 0.251443 65 82 44
-0.431673 0.0612643 0.25149 66 90 42
-0.430756 0.0627464 0.251645 65 98 42
-0.429843 0.064224 0.251799 66 102 45
-0.428932 0.0656969 0.251954 72 110 51
-0.428024 0.0671652 0.252107 97 143 70
-0.427118 0.0686289 0.25226 127 174 89
-0.426216 0.0700882 0.252413 117 169 83
-0.425316 0.0715429 0.252566 101 160 75
-0.42498 0.0731388 0.252612 94 152 70
-0.42577 0.0750322 0.252445 90 148 66
-0.427704 0.0772433 0.252063 84 141 64
-0.432572 0.080277 0.251127 80 136 60
-0.433404 0.0822363 0.250953 77 133 60
-0.434242 0.0842076 0.250777 78 134 61
-0.43628 0.0865344 0.250374 82 135 61
-0.44202 0.0899624 0.249272 85 137 60
-0.442285 0.0918244 0.249204 86 137 60
-0.441931 0.0935056 0.249252 86 138 62
-0.441577 0.0951868 0.249301 86 139 65
-0.441223 0.0968678 0.249349 85 138 66
-0.439638 0.0981613 0.249631 81 134 64
-0.438673 0.0996413 0.249795 78 129 58
-0.437104 0.10092 0.250073 73 125 53
-0.437969 0.102987 0.249891 70 119 53
-0.43884 0.105066 0.249708 66 115 52
-0.439716 0.107159 0.249524 62 113 51
-0.439979 0.109054 0.249456 63 113 50
-0.440863 0.111169 0.249269 64 114 52
-0.440507 0.11286 0.249318 63 114 55
-0.440773 0.114772 0.249249 65 117 54
-0.441039 0.11669 0.24918 64 121 55
-0.441306 0.118615 0.249111 63 124 56
-0.440948 0.120313 0.24916 67 127 56
-0.441216 0.122246 0.24909 68 129 57
-0.440858 0.123947 0.249139 69 128 60
-0.441126 0.125889 0.24907 69 126 57
-0.440767 0.127592 0.249119 69 126 56
-0.440408 0.129295 0.249168 69 125 58
-0.440676 0.131248 0.249098 69 123 57
-0.440945 0.133208 0.249028 69 123 57
-0.442479 0.13569 0.248718 73 128 59
-0.443389 0.137933 0.248525 79 136 63
-0.444305 0.14019 0.248332 83 140 67
-0.444583 0.142189 0.24826 84 141 68
-0.444219 0.143919 0.24831 85 145 69
-0.444497 0.145928 0.248237 87 148 70
-0.444132 0.147661 0.248287 91 150 69
-0.443767 0.149394 0.248337 90 145 70
-0.443403 0.151127 0.248388 84 137 64
-0.443038 0.152859 0.248438 75 126 58
-0.442673 0.154592 0.248488 71 122 55
-0.44295 0.15662 0.248415 73 123 53
-0.442584 0.158355 0.248465 74 125 54
-0.442219 0.16009 0.248516 74 125 55
-0.441854 0.161825 0.248566 77 130 57
-0.442772 0.164178 0.248371 83 138 62
-0.443051 0.166232 0.248298 87 143 65
-0.44333 0.168293 0.248225 89 146 66
-0.44361 0.17036 0.248152 86 144 67
-0.443242 0.172109 0.248202 87 145 65
-0.443522 0.174186 0.248129 81 137 59
-0.444456 0.176603 0.24793 66 124 53
-0.442137 0.177354 0.248353 49 112 42
-0.441125 0.178766 0.248527 38 103 31
-0.439475 0.179837 0.248823 34 102 27
-0.437837 0.180901 0.249116 32 106 30
-0.43684 0.182295 0.249287 34 112 33
-0.435846 0.183685 0.249458 38 114 36
-0.43423 0.184728 0.249747 47 114 39
-0.433245 0.186107 0.249916 54 117 49
-0.432263 0.187481 0.250085 80 120 65
-0.431902 0.189197 0.250134 78 86 60
-0.430924 0.190563 0.250302 68 61 48
-0.431971 0.059694 0.249809 66 69 49
-0.431631 0.0613105 0.249856 68 78 47
-0.430713 0.062795 0.250014 66 93 43
-0.429798 0.0642748 0.250171 66 100 47
-0.428314 0.0656144 0.250438 66 103 49
-0.427407 0.067083 0.250594 75 123 55
-0.426503 0.068547 0.25075 115 172 80
-0.425038 0.0698653 0.251013 122 187 94
-0.423025 0.0710331 0.251383 104 166 78
-0.422136 0.0724777 0.251536 101 162 77
-0.421802 0.0740641 0.251582 97 156 72
-0.423135 0.0760989 0.251306 91 151 68
-0.426745 0.0787719 0.25059 88 145 64
-0.432186 0.0819899 0.249521 85 141 63
-0.43361 0.0841247 0.249227 83 141 63
-0.436244 0.0866234 0.248698 85 142 65
-0.441992 0.0900584 0.247568 87 147 66
-0.441638 0.0917399 0.247617 90 151 69
-0.441284 0.0934213 0.247665 95 158 73
-0.44093 0.0951026 0.247714 99 163 77
-0.440576 0.0967838 0.247762 101 163 77
-0.438993 0.0980777 0.248049 100 159 74
-0.436207 0.0989758 0.248568 96 150 67
-0.435857 0.100641 0.248616 90 140 60
-0.435506 0.102305 0.248664 83 132 59
-0.436973 0.104576 0.248361 75 125 57
-0.438453 0.106868 0.248054 70 120 55
-0.438713 0.108759 0.247983 68 121 55
-0.439592 0.110871 0.247793 71 123 56
-0.439856 0.112777 0.247722 74 125 59
-0.44012 0.114689 0.24765 76 127 57
-0.440385 0.116607 0.247579 77 127 56
-0.440652 0.118532 0.247507 75 127 55
-0.440294 0.12023 0.247556 78 123 54
-0.44056 0.122163 0.247484 71 120 55
-0.440202 0.123864 0.247533 66 117 56
-0.440469 0.125806 0.247461 64 116 52
-0.44011 0.127509 0.24751 62 114 51
-0.440378 0.12946 0.247438 61 112 52
-0.440018 0.131166 0.247487 59 112 51
-0.441545 0.133635 0.247169 59 112 51
-0.441817 0.135607 0.247096 62 115 51
-0.442725 0.13785 0.246898 64 121 53
-0.443638 0.140107 0.2467 66 126 55
-0.443915 0.142106 0.246625 68 128 57
-0.443551 0.143837 0.246675 71 132 59
-0.443829 0.145845 0.2466 77 138 60
-0.443464 0.147578 0.24665 79 140 62
-0.443099 0.149311 0.2467 79 138 66
-0.442734 0.151044 0.24675 76 136 66
-0.443011 0.153067 0.246675 72 130 62
-0.442645 0.154803 0.246725 74 130 60
-0.44228 0.156538 0.246776 76 130 58
-0.442556 0.158573 0.2467 75 129 57
-0.44219 0.160311 0.246751 75 131 58
-0.442467 0.162356 0.246675 79 137 62
-0.4421 0.164097 0.246726 84 143 68
-0.442378 0.166151 0.24665 88 148 70
-0.442656 0.168211 0.246575 91 151 70
-0.442935 0.170279 0.246499 92 153 71
-0.442567 0.172027 0.246549 92 153 70
-0.442846 0.174104 0.246473 91 149 68
-0.443777 0.176521 0.246269 79 136 60
-0.441462 0.177273 0.246701 55 114 44
-0.44045 0.178686 0.246877 40 104 31
-0.438803 0.179757 0.247178 34 104 26
-0.437801 0.181158 0.247353 34 109 30
-0.436802 0.182554 0.247528 37 113 35
-0.435807 0.183946 0.247701 40 115 40
-0.434188 0.184991 0.247997 46 114 41
-0.433202 0.186371 0.248169 60 119 50
-0.432219 0.187747 0.248341 78 118 71
-0.431239 0.189119 0.248512 73 82 59
-0.430262 0.190485 0.248682 66 61 45
-0.431009 0.0612271 0.248331 68 66 48
-0.430669 0.0628437 0.248377 67 78 42
-0.429178 0.064192 0.248651 67 95 47
-0.427697 0.0655319 0.248922 68 102 49
-0.426224 0.0668637 0.249192 68 105 52
-0.425323 0.068326 0.24935 100 141 67
-0.422749 0.069363 0.249837 130 180 90
-0.421306 0.0706689 0.250102 113 169 81
-0.420422 0.0721099 0.250256 103 175 91
-0.420089 0.0736916 0.250302 97 161 80
-0.419756 0.0752733 0.250348 93 153 72
-0.422186 0.0776115 0.249848 88 147 68
-0.425787 0.0803007 0.249117 86 144 66
-0.432978 0.0840418 0.247676 86 145 66
-0.436208 0.0867127 0.247017 90 147 68
-0.441345 0.0899737 0.245981 95 152 70
-0.440991 0.0916554 0.246029 101 158 72
-0.440637 0.093337 0.246078 106 164 75
-0.440283 0.0950184 0.246127 109 171 79
-0.439929 0.0966997 0.246175 112 174 81
-0.438348 0.0979941 0.246467 110 172 80
-0.435566 0.0988928 0.246996 104 165 75
-0.435216 0.100558 0.247044 97 155 70
-0.434865 0.102223 0.247093 89 145 66
-0.436328 0.104493 0.246781 83 138 64
-0.437194 0.106578 0.246588 80 132 59
-0.437452 0.108466 0.246516 77 133 58
-0.438942 0.110787 0.246199 79 136 60
-0.439204 0.112694 0.246125 84 141 64
-0.439468 0.114606 0.246051 87 142 63
-0.439111 0.116299 0.2461 88 142 63
-0.439997 0.118448 0.245902 90 146 66
-0.439639 0.120147 0.245952 93 144 67
-0.439282 0.121846 0.246001 90 142 67
-0.439547 0.123781 0.245926 83 137 66
-0.439188 0.125482 0.245975 79 130 59
-0.439454 0.127427 0.245901 75 123 53
-0.43972 0.129377 0.245826 72 118 51
-0.439987 0.131334 0.245751 65 114 50
-0.440884 0.133552 0.24555 62 111 49
-0.440523 0.135266 0.245599 63 109 49
-0.441426 0.137504 0.245398 63 111 49
-0.442334 0.139756 0.245194 62 113 50
-0.442608 0.141752 0.245117 60 115 52
-0.442883 0.143754 0.24504 59 118 53
-0.44316 0.145762 0.244962 60 122 52
-0.442795 0.147496 0.245012 62 124 49
-0.44243 0.149229 0.245063 64 125 50
-0.442065 0.150962 0.245113 62 124 53
-0.442341 0.152985 0.245035 62 122 54
-0.441975 0.154721 0.245085 63 123 55
-0.44161 0.156456 0.245136 63 121 52
-0.441885 0.158491 0.245058 63 122 52
-0.441519 0.160229 0.245108 65 126 55
-0.441153 0.161968 0.245158 69 132 60
-0.441428 0.164015 0.245081 73 138 64
-0.441704 0.166069 0.245002 78 144 65
-0.441337 0.167812 0.245053 83 149 67
-0.44097 0.169556 0.245103 87 153 69
-0.440603 0.171299 0.245154 86 152 69
-0.440879 0.173368 0.245076 87 150 69
-0.441155 0.175443 0.244997 75 135 60
-0.440787 0.177192 0.245048 53 112 42
-0.439136 0.17827 0.245356 39 103 31
-0.438131 0.179676 0.245534 36 104 29
-0.43713 0.181078 0.245711 39 108 32
-0.436132 0.182474 0.245888 41 111 35
-0.435138 0.183866 0.246065 43 114 37
-0.433522 0.184912 0.246366 50 115 45
-0.432536 0.186292 0.246541 82 126 59
-0.432174 0.188014 0.246591 74 94 63
-0.430575 0.18904 0.246889 67 69 50
-0.430047 0.0627604 0.246852 67 67 50
-0.428559 0.0641091 0.24713 68 86 45
-0.427079 0.0654495 0.247406 66 100 46
-0.425608 0.0667816 0.247681 67 103 46
-0.424708 0.0682442 0.247841 84 123 55
-0.421031 0.0690036 0.248561 125 179 83
-0.420147 0.0704473 0.248717 116 181 89
-0.418719 0.0717442 0.248984 102 166 79
-0.418387 0.0733214 0.24903 97 157 75
-0.418055 0.0748984 0.249075 94 151 70
-0.418815 0.0767747 0.248901 90 146 66
-0.421794 0.0792793 0.248278 90 144 65
-0.432345 0.0839588 0.246125 92 146 67
-0.435569 0.0866291 0.245452 93 149 71
-0.440081 0.0897089 0.244518 97 152 73
-0.440344 0.0915709 0.244442 102 159 76
-0.43999 0.0932526 0.24449 106 167 81
-0.439636 0.0949342 0.244539 112 176 84
-0.439282 0.0966157 0.244588 116 179 85
-0.437703 0.0979104 0.244884 113 175 83
-0.434925 0.0988098 0.245424 109 171 80
-0.433974 0.10028 0.245594 104 162 75
-0.434224 0.10214 0.24552 97 153 71
-0.435079 0.104208 0.245324 90 144 66
-0.435332 0.106083 0.24525 86 138 61
-0.435586 0.107964 0.245176 84 137 59
-0.437676 0.11049 0.244729 83 140 61
-0.438553 0.11261 0.244528 86 145 65
-0.438815 0.114523 0.244452 91 150 68
-0.438458 0.116216 0.244501 94 156 70
-0.438721 0.118137 0.244424 99 162 74
-0.438985 0.120064 0.244347 103 166 78
-0.438627 0.121763 0.244396 106 167 79
-0.438269 0.123461 0.244446 102 162 75
-0.438533 0.1254 0.244369 94 149 68
-0.438797 0.127344 0.244291 86 138 61
-0.439062 0.129294 0.244214 79 131 57
-0.438702 0.131001 0.244263 72 126 55
-0.439594 0.133214 0.244058 70 124 55
-0.439862 0.135183 0.24398 72 125 57
-0.440131 0.137159 0.243901 76 129 59
-0.441668 0.139673 0.243564 80 132 59
-0.441941 0.141669 0.243484 83 134 58
-0.442216 0.143671 0.243405 85 133 58
-0.442491 0.145679 0.243324 84 131 56
-0.442126 0.147413 0.243374 79 125 52
-0.441761 0.149146 0.243425 71 121 50
-0.441396 0.150879 0.243475 63 119 50
-0.441031 0.152612 0.243525 60 112 50
-0.440667 0.154345 0.243575 59 112 48
-0.44094 0.156374 0.243495 59 113 47
-0.440574 0.15811 0.243545 56 115 48
-0.440209 0.159845 0.243596 57 119 50
-0.439844 0.16158 0.243646 59 122 52
-0.440116 0.163624 0.243566 62 126 53
-0.43975 0.165362 0.243616 64 131 55
-0.439385 0.1671 0.243667 68 135 58
-0.438383 0.16852 0.243847 70 137 59
-0.438018 0.170255 0.243897 70 137 59
-0.438287 0.172312 0.243818 69 135 58
-0.438558 0.174376 0.243738 62 122 53
-0.438191 0.176116 0.243788 51 110 40
-0.437825 0.177856 0.243838 42 106 34
-0.436824 0.179261 0.244019 40 105 34
-0.435827 0.180661 0.244199 41 108 37
-0.434833 0.182056 0.244378 45 114 42
-0.434469 0.183787 0.244428 62 123 50
-0.432855 0.184832 0.244735 93 133 59
-0.431871 0.186214 0.244913 99 134 73
-0.431508 0.187936 0.244962 76 76 51
-0.430528 0.189309 0.245139 66 59 45
-0.429085 0.0642938 0.245373 70 78 43
-0.427029 0.0655022 0.245773 68 96 43
-0.424992 0.0666995 0.24617 67 102 46
-0.424093 0.0681623 0.246332 70 110 56
-0.420421 0.0689227 0.247065 104 163 80
-0.41899 0.0702263 0.247337 118 189 99
-0.418112 0.0716639 0.247495 108 166 80
-0.417236 0.073097 0.247653 100 157 73
-0.416905 0.0746719 0.247699 94 152 72
-0.417116 0.0763955 0.247633 93 148 70
-0.417873 0.0782762 0.247454 92 148 70
-0.43528 0.0848871 0.243838 93 150 70
-0.439789 0.0879449 0.242883 96 152 71
-0.439435 0.0896244 0.242932 101 156 73
-0.439082 0.0913036 0.242981 105 165 78
-0.438728 0.0929828 0.24303 110 174 83
-0.438375 0.0946619 0.243078 115 179 86
-0.438021 0.0963408 0.243127 115 178 85
-0.437057 0.0978268 0.243302 113 173 83
-0.434284 0.0987269 0.243851 109 167 80
-0.433333 0.100197 0.244024 103 161 76
-0.432983 0.10186 0.244072 96 152 71
-0.433232 0.103723 0.243996 90 144 67
-0.434084 0.105795 0.243796 86 139 63
-0.434335 0.107673 0.243719 84 139 62
-0.436414 0.110193 0.243264 86 142 65
-0.437901 0.112527 0.242931 90 148 68
-0.437545 0.114218 0.24298 97 155 72
-0.437806 0.116133 0.242901 101 162 75
-0.438067 0.118054 0.242822 107 166 77
-0.43771 0.11975 0.242871 110 173 82
-0.437353 0.121446 0.24292 112 177 85
-0.437615 0.123378 0.242841 111 173 80
-0.437257 0.125077 0.24289 105 162 75
-0.43814 0.127261 0.242682 96 151 70
-0.438404 0.129212 0.242602 88 143 64
-0.438044 0.130918 0.242651 82 137 61
-0.438309 0.132878 0.242571 80 134 61
-0.439201 0.135101 0.24236 81 135 60
-0.439468 0.137076 0.242279 83 138 62
-0.440369 0.139324 0.242066 85 143 64
-0.441275 0.141586 0.241851 88 147 65
-0.441548 0.143588 0.241769 92 151 68
-0.441822 0.145596 0.241686 93 155 71
-0.441457 0.14733 0.241736 93 154 71
-0.441092 0.149064 0.241787 90 147 67
-0.440727 0.150797 0.241837 82 138 61
-0.440362 0.15253 0.241887 78 129 56
-0.439998 0.154263 0.241937 75 121 51
-0.439633 0.155996 0.241988 68 118 50
-0.439268 0.157729 0.242038 65 117 50
-0.438903 0.159462 0.242088 67 117 52
-0.438539 0.161194 0.242138 67 119 53
-0.438174 0.162927 0.242189 67 122 53
-0.437809 0.164659 0.242239 66 125 51
-0.437445 0.166392 0.242289 67 126 51
-0.436449 0.167809 0.242471 67 125 51
-0.436085 0.169538 0.242522 65 123 50
-0.435721 0.171267 0.242572 63 121 49
-0.435986 0.173319 0.24249 58 116 49
-0.436252 0.175378 0.242408 58 116 52
-0.435887 0.177112 0.242459 76 120 53
-0.435522 0.178847 0.242509 96 131 58
-0.434528 0.180245 0.242691 105 141 61
-0.434164 0.181976 0.242741 109 152 67
-0.4338 0.183707 0.242791 104 155 74
-0.432188 0.184753 0.243104 95 132 76
-0.431205 0.186135 0.243284 78 84 63
-0.430842 0.187857 0.243334 68 61 47
-0.429039 0.064345 0.243727 69 70 50
-0.42698 0.0655551 0.244135 69 90 44
-0.42494 0.0667541 0.244539 69 100 47
-0.423478 0.0680805 0.244822 68 106 54
-0.419811 0.0688417 0.245569 98 143 69
-0.418382 0.0701457 0.245846 134 186 92
-0.417505 0.0715835 0.246006 118 167 80
-0.41663 0.0730169 0.246166 101 159 74
-0.416299 0.0745919 0.246212 97 154 73
-0.415967 0.0761668 0.246258 95 152 72
-0.41672 0.0780442 0.246075 93 154 73
-0.435242 0.0849735 0.242146 94 155 74
-0.439142 0.0878602 0.241298 99 156 75
-0.438176 0.0893604 0.241476 104 160 77
-0.437823 0.0910372 0.241524 108 167 80
-0.43747 0.0927138 0.241573 114 177 87
-0.437728 0.0945778 0.241493 117 178 87
-0.437375 0.0962569 0.241542 115 175 84
-0.436412 0.0977431 0.241719 114 172 82
-0.434847 0.0990303 0.242024 111 167 79
-0.432693 0.100114 0.242454 105 160 75
-0.432343 0.101777 0.242502 97 151 71
-0.432591 0.10364 0.242424 91 144 66
-0.432839 0.105509 0.242345 89 139 64
-0.433691 0.10759 0.242139 88 139 63
-0.435156 0.109897 0.241803 90 142 65
-0.437249 0.112444 0.241333 95 147 69
-0.436893 0.114135 0.241382 99 156 72
-0.437153 0.11605 0.241301 104 162 77
-0.437413 0.117971 0.241219 110 170 81
-0.437056 0.119667 0.241268 114 176 85
-0.436699 0.121364 0.241318 113 178 87
-0.436342 0.12306 0.241367 113 174 82
-0.436602 0.124994 0.241285 108 166 78
-0.437483 0.127178 0.241072 102 156 76
-0.437745 0.129129 0.240989 93 146 70
-0.437386 0.130836 0.241039 86 140 66
-0.437649 0.132795 0.240956 84 135 64
-0.437914 0.134761 0.240873 84 136 62
-0.438806 0.136994 0.240656 86 141 64
-0.439704 0.139241 0.240438 89 149 67
-0.440608 0.141503 0.240218 93 156 71
-0.44088 0.143505 0.240133 98 163 75
-0.440516 0.145236 0.240183 102 170 78
-0.440788 0.147247 0.240098 107 171 79
-0.440423 0.148981 0.240148 106 164 77
-0.440058 0.150714 0.240198 96 154 72
-0.439693 0.152448 0.240249 88 143 64
-0.439328 0.154181 0.240299 81 136 59
-0.438964 0.155914 0.240349 77 133 59
-0.438599 0.157647 0.2404 72 130 58
-0.438234 0.15938 0.24045 75 133 59
-0.437869 0.161113 0.2405 81 139 63
-0.437505 0.162846 0.240551 85 143 63
-0.435881 0.163962 0.24087 87 141 60
-0.434891 0.165379 0.241054 87 138 57
-0.433284 0.166481 0.241371 86 135 57
-0.432303 0.167886 0.241553 79 130 55
-0.431942 0.169602 0.241603 76 127 56
-0.43344 0.172273 0.241255 89 132 62
-0.434325 0.174645 0.241037 92 155 81
-0.434588 0.176702 0.240953 107 152 85
-0.434224 0.178434 0.241003 118 157 87
-0.433859 0.180165 0.241054 118 154 83
-0.433495 0.181897 0.241104 106 140 78
-0.43313 0.183628 0.241154 90 119 70
-0.431521 0.184674 0.241472 75 89 57
-0.430539 0.186056 0.241655 68 65 47
-0.42693 0.0656082 0.242491 69 84 47
-0.424323 0.0666719 0.243025 70 98 44
-0.422862 0.0679986 0.243313 68 103 47
-0.419752 0.0688992 0.243955 85 124 57
-0.417774 0.0700651 0.244354 125 179 83
-0.416898 0.0715032 0.244517 114 183 91
-0.416024 0.0729369 0.244679 100 165 80
-0.415153 0.0743662 0.244841 99 160 75
-0.414822 0.0759388 0.244887 100 159 73
-0.41557 0.0778129 0.2447 98 160 72
-0.436411 0.0854033 0.240188 98 160 73
-0.437884 0.0875989 0.239843 106 164 78
-0.437531 0.089276 0.239892 114 172 80
-0.437178 0.0909529 0.239941 116 176 81
-0.436825 0.0926297 0.23999 114 179 86
-0.437081 0.0944937 0.239907 114 179 86
-0.436728 0.0961729 0.239956 114 176 82
-0.436375 0.097852 0.240005 114 173 83
-0.434807 0.0991411 0.240315 111 169 81
-0.43265 0.100226 0.240754 106 161 77
-0.432899 0.10209 0.240673 100 153 73
-0.432548 0.103758 0.240721 94 146 70
-0.433398 0.105835 0.24051 92 142 67
-0.43365 0.107716 0.240428 94 143 66
-0.434508 0.109814 0.240215 95 146 68
-0.435984 0.112143 0.239868 98 151 71
-0.436241 0.114052 0.239784 102 158 74
-0.435885 0.115743 0.239834 108 165 77
-0.436143 0.117661 0.23975 114 174 83
-0.435787 0.119355 0.239799 115 176 83
-0.436045 0.121281 0.239715 114 177 84
-0.435688 0.122977 0.239764 112 170 81
-0.435947 0.124912 0.23968 107 165 79
-0.436206 0.126853 0.239596 103 156 76
-0.436467 0.1288 0.239511 91 145 71
-0.436728 0.130753 0.239426 86 139 66
-0.436369 0.13246 0.239475 85 135 64
-0.437253 0.134678 0.239255 87 138 63
-0.438143 0.136911 0.239033 89 144 66
-0.439039 0.139158 0.238809 93 151 69
-0.439308 0.14115 0.238722 98 158 73
-0.440212 0.143422 0.238497 103 166 77
-0.439847 0.145153 0.238547 108 173 82
-0.439483 0.146884 0.238597 112 175 86
-0.439754 0.148898 0.238509 110 171 84
-0.439389 0.150632 0.23856 104 165 80
-0.439024 0.152366 0.23861 101 156 74
-0.438659 0.154099 0.238661 109 146 71
-0.438294 0.155832 0.238711 108 149 72
-0.43793 0.157565 0.238761 84 132 58
-0.437565 0.159298 0.238812 77 132 58
-0.435941 0.160426 0.239137 81 140 61
-0.434327 0.161547 0.23946 85 146 64
-0.432724 0.16266 0.239781 87 148 65
-0.431131 0.163766 0.240101 90 149 65
-0.42894 0.16456 0.24055 90 148 66
-0.428582 0.166261 0.2406 87 147 67
-0.428224 0.167963 0.240649 99 151 74
-0.428472 0.169977 0.240566 130 158 86
-0.429944 0.172632 0.240215 120 176 96
-0.431429 0.175314 0.239861 96 141 88
-0.431686 0.177363 0.239775 90 125 80
-0.432565 0.179751 0.239553 83 108 71
-0.432202 0.18148 0.239603 76 92 64
-0.431217 0.182869 0.23979 68 75 55
-0.430854 0.184595 0.23984 65 64 46
-0.427452 0.0657979 0.240717 68 76 48
-0.424834 0.0668638 0.241263 70 96 48
-0.422807 0.0680552 0.24168 67 102 49
-0.419691 0.0689569 0.242336 72 107 56
-0.417712 0.0701244 0.242743 108 157 76
-0.416291 0.0714228 0.243027 123 186 97
-0.415418 0.0728568 0.243192 112 170 82
-0.414548 0.0742863 0.243356 104 164 76
-0.414217 0.0758592 0.243402 104 164 74
-0.414423 0.0775822 0.24333 104 164 76
-0.436374 0.0854911 0.238478 106 167 79
-0.437238 0.0875143 0.23826 109 171 82
-0.436885 0.0891915 0.238309 117 172 84
-0.436532 0.0908686 0.238357 116 176 86
-0.436179 0.0925456 0.238406 114 180 89
-0.435826 0.0942224 0.238455 116 179 87
-0.436081 0.0960889 0.23837 114 177 85
-0.435728 0.0977682 0.238419 112 174 84
-0.434162 0.0990577 0.238735 110 169 81
-0.43381 0.100731 0.238783 107 163 77
-0.433458 0.102405 0.238832 101 156 73
-0.433709 0.104281 0.238748 96 150 70
-0.433356 0.105957 0.238796 97 148 69
-0.434214 0.10805 0.238578 97 150 69
-0.434467 0.109944 0.238493 97 153 73
-0.435333 0.11206 0.238272 101 158 75
-0.435589 0.113969 0.238186 105 163 78
-0.435233 0.11566 0.238236 112 170 82
-0.43549 0.117578 0.238149 117 175 85
-0.435134 0.119272 0.238199 117 177 84
-0.434777 0.120966 0.238248 116 177 84
-0.434421 0.122659 0.238297 111 169 81
-0.435292 0.124829 0.238075 108 166 79
-0.43555 0.12677 0.237988 103 156 74
-0.435809 0.128717 0.2379 92 145 69
-0.43607 0.13067 0.237813 88 140 64
-0.43571 0.132377 0.237862 89 139 63
-0.435971 0.134339 0.237775 89 140 65
-0.43748 0.136828 0.23741 92 146 69
-0.437746 0.13881 0.23732 96 152 71
-0.438642 0.141067 0.237091 101 160 73
-0.43891 0.143066 0.237001 107 168 78
-0.439179 0.145071 0.236911 111 174 83
-0.438815 0.146802 0.236961 112 174 84
-0.439085 0.148816 0.23687 109 169 81
-0.43872 0.15055 0.236921 105 164 78
-0.438355 0.152283 0.236971 102 155 74
-0.43799 0.154017 0.237022 102 145 73
-0.437625 0.15575 0.237072 95 140 66
-0.43726 0.157484 0.237123 81 134 58
-0.435637 0.158618 0.237454 77 133 57
-0.434024 0.159744 0.237782 79 138 60
-0.432422 0.160864 0.238109 83 143 62
-0.430218 0.161675 0.23857 88 147 64
-0.428035 0.162478 0.239027 91 150 66
-0.425873 0.163273 0.239479 92 154 70
-0.425517 0.164964 0.239528 103 162 78
-0.425161 0.166655 0.239578 122 172 93
-0.425403 0.168654 0.239493 111 149 93
-0.426247 0.170972 0.239274 87 93 63
-0.428311 0.173944 0.238782 74 73 51
-0.429786 0.176628 0.238421 70 65 48
-0.43004 0.178676 0.238333 68 64 48
-0.430294 0.18073 0.238245 65 64 49
-0.429932 0.182453 0.238296 64 61 47
-0.428555 0.0661264 0.238802 70 68 44
-0.42478 0.0669189 0.239617 69 89 45
-0.42275 0.068112 0.240042 67 101 49
-0.420739 0.0692942 0.240463 67 105 52
-0.417648 0.0701839 0.241126 97 138 64
-0.416226 0.0714842 0.241416 130 182 88
-0.414812 0.0727766 0.241705 116 176 81
-0.413942 0.0742065 0.241871 107 171 79
-0.413611 0.0757794 0.241917 108 170 78
-0.41328 0.0773522 0.241963 108 172 80
-0.436239 0.0891071 0.236725 117 182 88
-0.435886 0.0907843 0.236773 116 182 89
-0.434927 0.0922777 0.236958 116 180 87
-0.43518 0.0941384 0.236871 117 180 87
-0.434827 0.0958153 0.23692 117 179 86
-0.434474 0.097492 0.236969 113 174 83
-0.434122 0.0991686 0.237018 109 168 80
-0.433769 0.100845 0.237067 107 164 77
-0.434021 0.102722 0.236979 105 159 73
-0.434274 0.104604 0.236892 102 155 71
-0.43392 0.106286 0.236941 101 154 71
-0.434173 0.108177 0.236853 101 154 72
-0.434427 0.110074 0.236765 101 157 75
-0.434682 0.111977 0.236677 105 162 77
-0.434326 0.113666 0.236726 111 167 78
-0.434581 0.115577 0.236637 114 173 83
-0.434225 0.117269 0.236687 117 176 86
-0.434481 0.119189 0.236598 118 178 87
-0.434124 0.120883 0.236647 116 176 84
-0.433768 0.122577 0.236697 113 173 82
-0.434023 0.124508 0.236608 109 167 79
-0.434279 0.126446 0.236518 102 156 74
-0.434536 0.128389 0.236429 94 147 69
-0.434793 0.130339 0.236339 91 144 65
-0.435052 0.132295 0.236249 93 145 66
-0.435311 0.134257 0.236159 91 145 67
-0.436194 0.136485 0.235927 94 149 70
-0.437082 0.138727 0.235694 99 156 73
-0.437976 0.140984 0.23546 104 163 76
-0.438243 0.142983 0.235367 109 170 79
-0.438511 0.144988 0.235274 111 173 81
-0.438147 0.146719 0.235324 110 172 81
-0.438415 0.148733 0.235231 108 168 79
-0.43805 0.150467 0.235282 103 163 77
-0.437685 0.152201 0.235332 98 154 73
-0.437321 0.153935 0.235383 95 146 71
-0.436956 0.155668 0.235433 87 139 64
-0.435333 0.156809 0.23577 80 137 61
-0.433721 0.157941 0.236104 78 134 58
-0.43212 0.159067 0.236436 81 139 62
-0.429917 0.159887 0.236906 85 142 64
-0.427736 0.160699 0.23737 89 148 68
-0.425576 0.161503 0.237831 91 153 71
-0.424623 0.162895 0.238016 94 158 74
-0.424268 0.164583 0.238065 108 166 85
-0.423913 0.166271 0.238114 113 152 92
-0.424152 0.168267 0.238028 83 78 63
-0.424393 0.170268 0.237941 67 63 49
-0.425233 0.172592 0.237717 64 60 45
-0.425865 0.0672512 0.237706 68 81 43
-0.422694 0.0681689 0.238399 68 98 49
-0.420124 0.0692125 0.238955 68 102 50
-0.417585 0.0702435 0.239505 80 116 57
-0.41616 0.0715457 0.2398 114 167 80
-0.414744 0.0728401 0.240094 119 186 92
-0.413337 0.0741266 0.240385 112 176 83
-0.413006 0.0756997 0.240431 111 174 80
-0.412675 0.0772727 0.240477 114 178 85
-0.436201 0.0892015 0.235001 112 184 90
-0.43524 0.0907 0.235189 117 184 89
-0.434282 0.0921936 0.235377 119 184 86
-0.43393 0.0938681 0.235426 118 182 86
-0.434181 0.0957314 0.235336 117 180 87
-0.433829 0.0974083 0.235385 116 176 84
-0.434081 0.0992799 0.235295 112 170 81
-0.433727 0.100959 0.235344 108 166 79
-0.433979 0.102839 0.235254 106 164 76
-0.433626 0.104521 0.235303 105 161 74
-0.433878 0.106409 0.235213 104 159 74
-0.433524 0.108094 0.235262 105 161 75
-0.433777 0.109991 0.235171 109 165 78
-0.43403 0.111894 0.23508 112 169 82
-0.433675 0.113583 0.23513 115 172 84
-0.433929 0.115494 0.235039 118 174 83
-0.433573 0.117186 0.235088 120 177 85
-0.433827 0.119106 0.234997 122 178 86
-0.433471 0.1208 0.235046 118 177 84
-0.433114 0.122494 0.235096 113 173 82
-0.433368 0.124426 0.235004 109 167 77
-0.433623 0.126363 0.234913 101 157 76
-0.433879 0.128307 0.234821 97 152 72
-0.434136 0.130256 0.234728 96 149 71
-0.434393 0.132212 0.234636 97 149 71
-0.434651 0.134174 0.234543 96 151 69
-0.435532 0.136402 0.234306 97 154 71
-0.436418 0.138645 0.234068 102 161 77
-0.437309 0.140902 0.233828 106 167 80
-0.437575 0.1429 0.233733 109 171 80
-0.437212 0.144629 0.233783 111 173 81
-0.437478 0.146636 0.233687 110 171 80
-0.437746 0.14865 0.233592 107 168 80
-0.437381 0.150385 0.233642 102 163 77
-0.437016 0.152119 0.233693 97 155 74
-0.436651 0.153852 0.233743 91 147 70
-0.435657 0.155292 0.23394 83 139 64
-0.434041 0.156432 0.234281 74 137 59
-0.432436 0.157564 0.23462 77 135 59
-0.430228 0.158394 0.235099 82 139 62
-0.427437 0.15892 0.235714 79 140 64
-0.425278 0.159733 0.236182 80 143 66
-0.424326 0.161128 0.23637 82 147 68
-0.423971 0.162816 0.236419 101 159 75
-0.423616 0.164505 0.236468 111 149 82
-0.42326 0.166193 0.236518 86 97 70
-0.422905 0.167881 0.236567 70 61 46
-0.42255 0.169569 0.236616 65 61 47
-0.426386 0.0674466 0.235911 67 74 41
-0.423201 0.0683658 0.23662 70 96 48
-0.420064 0.069271 0.237318 69 100 46
-0.418621 0.0705862 0.237622 71 106 51
-0.416095 0.0716074 0.238179 101 145 69
-0.414677 0.0729037 0.238478 126 182 91
-0.413267 0.074192 0.238775 116 178 84
-0.4124 0.0756199 0.238946 113 179 82
-0.412069 0.077193 0.238992 115 181 85
-0.435554 0.0891169 0.233414 117 184 87
-0.434594 0.0906157 0.233605 118 185 87
-0.433637 0.0921096 0.233795 119 186 87
-0.433285 0.0937842 0.233844 121 185 87
-0.433535 0.0956475 0.233752 120 182 87
-0.433182 0.0973246 0.233801 117 177 84
-0.433433 0.0991962 0.233708 114 174 81
-0.43308 0.100876 0.233757 111 173 81
-0.433331 0.102756 0.233665 109 169 81
-0.433583 0.104642 0.233572 109 165 77
-0.433836 0.106533 0.233479 110 165 77
-0.433481 0.10822 0.233528 114 168 79
-0.433735 0.110121 0.233435 120 177 85
-0.433379 0.11181 0.233484 120 188 94
-0.433024 0.1135 0.233533 114 181 93
-0.433277 0.115411 0.23344 118 178 85
-0.432921 0.117103 0.233489 122 179 86
-0.432565 0.118795 0.233539 132 180 88
-0.432817 0.120717 0.233445 133 181 88
-0.432461 0.122412 0.233495 118 175 83
-0.432104 0.124106 0.233544 109 168 78
-0.432357 0.12604 0.23345 104 160 76
-0.43261 0.12798 0.233356 105 157 77
-0.433478 0.130174 0.233117 100 154 73
-0.433734 0.13213 0.233022 103 154 73
-0.433375 0.133837 0.233072 102 157 74
-0.43487 0.13632 0.232684 102 160 76
-0.435753 0.138562 0.232441 105 168 80
-0.436643 0.140819 0.232196 108 172 83
-0.436908 0.142817 0.232098 111 174 83
-0.436544 0.144546 0.232148 113 174 82
-0.43681 0.146554 0.23205 111 173 81
-0.437076 0.148568 0.231952 107 169 79
-0.436711 0.150302 0.232002 103 163 76
-0.436346 0.152036 0.232053 98 155 72
-0.435352 0.153479 0.232252 90 147 67
-0.434362 0.154917 0.232451 80 139 61
-0.432753 0.156057 0.232797 71 135 55
-0.43054 0.156895 0.233285 77 137 61
-0.427138 0.15714 0.234056 79 136 60
-0.425578 0.158254 0.234391 74 134 58
-0.424029 0.15936 0.234723 75 139 60
-0.423674 0.161049 0.234773 82 147 67
-0.422726 0.162439 0.234963 106 162 82
-0.422371 0.164125 0.235012 109 132 80
-0.422016 0.165811 0.235061 79 70 55
-0.422252 0.167803 0.23497 64 63 47
-0.42371 0.0685639 0.234829 68 88 45
-0.421119 0.0696117 0.23541 69 100 47
-0.418558 0.0706468 0.235985 68 103 49
-0.416029 0.0716693 0.236552 84 123 58
-0.414609 0.0729674 0.236856 118 172 83
-0.413197 0.0742577 0.237159 119 188 91
-0.412329 0.0756877 0.237333 115 183 84
-0.411997 0.0772633 0.237379 116 184 87
-0.435515 0.0892114 0.231682 120 187 90
-0.433948 0.0905313 0.23202 120 187 88
-0.433595 0.0922089 0.232069 119 187 87
-0.433242 0.0938863 0.232118 122 184 87
-0.432889 0.0955636 0.232167 121 182 85
-0.432536 0.0972408 0.232216 118 180 83
-0.432786 0.0991124 0.232121 116 177 84
-0.432433 0.100792 0.232171 114 176 85
-0.433289 0.102873 0.231931 113 175 84
-0.433541 0.104763 0.231835 113 174 82
-0.433186 0.10645 0.231885 113 173 82
-0.432831 0.108137 0.231934 117 175 84
-0.433083 0.110037 0.231838 121 176 85
-0.432728 0.111727 0.231887 118 175 86
-0.432372 0.113417 0.231937 118 178 87
-0.432624 0.115328 0.231841 121 180 87
-0.432268 0.11702 0.23189 123 184 89
-0.431912 0.118712 0.23194 124 193 95
-0.431556 0.120404 0.231989 120 175 88
-0.431807 0.122329 0.231893 114 172 82
-0.431451 0.124023 0.231943 111 168 80
-0.431094 0.125717 0.231992 113 165 80
-0.431345 0.127654 0.231896 108 166 80
-0.432208 0.129844 0.231653 104 160 76
-0.432461 0.131796 0.231555 109 159 75
-0.432716 0.133755 0.231458 107 163 78
-0.434208 0.136237 0.231063 108 168 81
-0.435089 0.138479 0.230814 109 173 81
-0.435351 0.140468 0.230714 112 177 86
-0.435613 0.142462 0.230614 114 178 86
-0.435877 0.144463 0.230513 114 176 83
-0.436141 0.146471 0.230413 112 174 81
-0.436406 0.148485 0.230312 108 171 79
-0.436041 0.15022 0.230362 104 164 76
-0.435676 0.151954 0.230413 98 156 71
-0.434684 0.153397 0.230615 89 149 65
-0.433071 0.154544 0.230967 77 139 58
-0.430853 0.155391 0.231466 72 133 56
-0.427443 0.155649 0.232253 80 139 63
-0.42588 0.156769 0.232594 74 133 59
-0.424327 0.157882 0.232933 74 135 57
-0.423376 0.159281 0.233126 76 144 61
-0.422429 0.160675 0.233319 101 160 73
-0.422074 0.162361 0.233368 109 152 83
-0.421719 0.164047 0.233417 89 103 72
-0.421365 0.165732 0.233467 71 63 51
-0.424223 0.0687632 0.233027 66 76 45
-0.42162 0.0698131 0.233621 69 98 50
-0.419049 0.0708502 0.234208 67 101 49
-0.417057 0.0720186 0.234656 72 107 52
-0.41454 0.0730314 0.23523 103 147 73
-0.413127 0.0743235 0.235538 125 183 91
-0.412258 0.0757557 0.235714 118 183 85
-0.411926 0.0773338 0.235761 115 185 87
-0.435476 0.0893063 0.229944 121 186 87
-0.433906 0.0906281 0.230288 122 185 87
-0.432949 0.0921246 0.230484 121 186 87
-0.432596 0.0938022 0.230533 122 185 87
-0.432243 0.0954797 0.230582 121 184 87
-0.43189 0.097157 0.230631 120 183 87
-0.431537 0.0988342 0.230681 120 181 86
-0.431184 0.100511 0.23073 120 180 85
-0.432639 0.10279 0.230339 120 180 84
-0.432891 0.104679 0.230241 118 179 84
-0.432536 0.106366 0.23029 118 179 84
-0.432787 0.108264 0.230192 121 179 86
-0.432432 0.109954 0.230241 122 178 86
-0.432076 0.111644 0.23029 120 177 85
-0.431721 0.113334 0.23034 120 179 85
-0.431972 0.115245 0.230241 122 182 85
-0.431616 0.116937 0.230291 123 184 89
-0.43126 0.118629 0.23034 130 185 90
-0.430904 0.120321 0.23039 126 182 90
-0.430548 0.122013 0.23044 119 175 83
-0.430797 0.123941 0.230341 118 173 84
-0.430441 0.125635 0.230391 118 175 85
-0.43069 0.127572 0.230292 115 168 80
-0.430334 0.129268 0.230341 112 167 80
-0.431193 0.131463 0.230093 112 165 79
-0.431445 0.133418 0.229993 111 169 80
-0.432928 0.135895 0.229592 112 174 84
-0.433804 0.138133 0.229339 111 175 82
-0.434685 0.140385 0.229084 114 179 86
-0.434947 0.14238 0.228981 115 181 88
-0.435209 0.144381 0.228878 114 179 84
-0.435472 0.146388 0.228775 112 174 80
-0.435108 0.14812 0.228826 108 170 79
-0.435371 0.150137 0.228722 104 164 78
-0.434379 0.151583 0.228927 97 157 72
-0.434015 0.153315 0.228978 86 150 65
-0.431785 0.154171 0.229488 75 138 58
-0.428356 0.15444 0.230293 77 136 59
-0.426182 0.15528 0.23079 81 140 64
-0.424029 0.156111 0.231283 76 136 58
-0.423079 0.157512 0.231479 80 143 60
-0.422132 0.158909 0.231674 85 152 68
-0.421777 0.160596 0.231723 115 172 86
-0.421422 0.162282 0.231773 106 131 78
-0.421068 0.163968 0.231822 78 78 59
-0.420713 0.165654 0.231871 67 64 50
-0.424739 0.0689636 0.231214 66 69 49
-0.422125 0.0700157 0.231821 67 89 52
-0.420101 0.0711988 0.232284 67 98 48
-0.418095 0.072371 0.232742 67 102 49
-0.416108 0.0735325 0.233196 84 123 60
-0.413596 0.0745363 0.233779 116 171 81
-0.412186 0.0758239 0.234091 120 188 90
-0.411318 0.0772539 0.23427 115 186 87
-0.411521 0.078985 0.234184 117 187 86
-0.435436 0.0894014 0.2282 122 187 87
-0.434472 0.0909073 0.228401 122 187 88
-0.432905 0.0922241 0.22875 120 187 89
-0.431949 0.0937182 0.228948 121 187 88
-0.431596 0.0953957 0.228997 122 186 88
-0.431244 0.0970732 0.229046 122 184 87
-0.430891 0.0987506 0.229096 121 183 87
-0.430538 0.100428 0.229145 120 182 86
-0.431386 0.102505 0.228896 121 180 85
-0.43224 0.104595 0.228646 120 180 84
-0.431885 0.106283 0.228695 120 180 84
-0.432136 0.108181 0.228594 121 179 84
-0.43178 0.109871 0.228644 122 181 84
-0.431425 0.111561 0.228693 121 181 86
-0.431675 0.11347 0.228592 120 180 85
-0.431319 0.115162 0.228642 119 181 86
-0.430963 0.116854 0.228691 118 181 90
-0.430607 0.118546 0.228741 121 182 94
-0.430251 0.120238 0.228791 121 180 92
-0.429895 0.12193 0.22884 120 179 86
-0.429539 0.123622 0.22889 118 175 87
-0.429787 0.125553 0.228789 121 178 85
-0.42943 0.127247 0.228838 124 178 85
-0.429679 0.129186 0.228737 122 175 88
-0.429928 0.131132 0.228636 117 172 85
-0.430178 0.133083 0.228534 115 174 84
-0.431652 0.135555 0.228126 116 178 86
-0.432522 0.137787 0.227868 116 178 84
-0.433398 0.140035 0.227609 117 183 85
-0.43428 0.142297 0.227349 115 184 87
-0.434541 0.144298 0.227243 114 180 84
-0.434803 0.146306 0.227137 112 176 81
-0.434439 0.148038 0.227188 109 171 80
-0.434075 0.149769 0.227238 105 166 78
-0.43371 0.151501 0.227289 96 160 72
-0.432101 0.152654 0.227652 83 149 64
-0.429275 0.153223 0.228321 77 139 60
-0.426485 0.153785 0.228981 82 143 63
-0.424327 0.154625 0.229483 82 141 65
-0.422781 0.155744 0.229831 82 146 61
-0.422426 0.157433 0.229881 85 152 66
-0.42148 0.15883 0.230079 108 167 78
-0.420537 0.160223 0.230276 113 158 88
-0.420183 0.161906 0.230325 90 98 67
-0.419829 0.16359 0.230375 72 64 49
-0.419475 0.165273 0.230424 65 62 47
-0.4232 0.0703635 0.229867 68 80 48
-0.4206 0.0714055 0.230482 68 97 48
-0.418586 0.0725805 0.23095 67 102 48
-0.41659 0.0737447 0.231413 71 110 53
-0.414612 0.0748982 0.231872 100 149 70
-0.412652 0.0760413 0.232328 123 183 90
-0.411245 0.0773245 0.232644 116 186 86
-0.410912 0.0789051 0.232691 115 189 85
-0.435141 0.0876274 0.226555 119 190 88
-0.434786 0.0893163 0.226605 122 190 90
-0.433822 0.0908225 0.226807 122 190 90
-0.432862 0.0923238 0.22701 122 189 90
-0.431303 0.093634 0.227363 122 188 89
-0.43095 0.0953118 0.227412 122 187 88
-0.430597 0.0969894 0.227461 122 186 87
-0.429646 0.0984734 0.227661 122 185 87
-0.429294 0.100148 0.22771 121 184 86
-0.430738 0.102421 0.227306 122 182 85
-0.430986 0.104307 0.227203 122 181 85
-0.431234 0.106199 0.2271 120 183 86
-0.430879 0.107887 0.22715 118 180 86
-0.431128 0.109787 0.227046 120 183 89
-0.430773 0.111477 0.227096 126 187 91
-0.431022 0.113386 0.226992 127 184 88
-0.430666 0.115079 0.227042 120 180 86
-0.43031 0.116771 0.227091 119 180 90
-0.429954 0.118464 0.227141 126 184 92
-0.429598 0.120156 0.227191 124 184 91
-0.429242 0.121848 0.22724 121 181 88
-0.428886 0.12354 0.22729 120 180 88
-0.42853 0.125232 0.22734 119 178 86
-0.428777 0.127165 0.227236 116 179 87
-0.42842 0.128859 0.227286 114 183 92
-0.428667 0.130801 0.227182 116 183 94
-0.428914 0.132749 0.227078 114 180 90
-0.43038 0.135215 0.226664 121 183 90
-0.431245 0.137443 0.226402 126 184 87
-0.432734 0.139952 0.225981 125 186 87
-0.433613 0.142214 0.225715 118 181 86
-0.433873 0.144215 0.225607 114 179 83
-0.434134 0.146223 0.225498 112 178 80
-0.43377 0.147955 0.225549 110 175 79
-0.433406 0.149687 0.2256 105 170 77
-0.432418 0.151132 0.22581 94 161 72
-0.430199 0.151998 0.226335 81 149 64
-0.426789 0.152285 0.227165 82 145 64
-0.424626 0.153134 0.227676 86 149 68
-0.422484 0.153974 0.228183 86 148 67
-0.422128 0.155664 0.228233 87 157 68
-0.421183 0.157064 0.228433 97 161 73
-0.420241 0.15846 0.228633 126 178 90
-0.419886 0.160144 0.228683 101 124 77
-0.419532 0.161828 0.228732 77 76 55
-0.419178 0.163511 0.228782 66 62 45
-0.424286 0.0707145 0.227895 69 70 43
-0.421667 0.0717593 0.228524 68 91 48
-0.419079 0.0727912 0.229146 68 100 49
-0.417075 0.0739581 0.229619 68 104 50
-0.415637 0.0752635 0.229948 83 123 59
-0.413664 0.0764102 0.230414 115 167 80
-0.411708 0.0775465 0.230876 121 187 89
-0.410838 0.0789784 0.23106 117 188 86
-0.410505 0.0805614 0.231107 119 192 89
-0.43378 0.0909202 0.225058 124 193 89
-0.432213 0.0922393 0.225419 124 192 90
-0.431257 0.093736 0.225623 123 190 89
-0.430903 0.0954166 0.225672 123 189 88
-0.42995 0.0969056 0.225876 124 188 88
-0.429001 0.0983898 0.226078 124 187 88
-0.428648 0.100065 0.226127 123 186 87
-0.430089 0.102338 0.225715 121 184 86
-0.429735 0.10402 0.225765 121 184 86
-0.429981 0.105909 0.22566 121 183 86
-0.430228 0.107803 0.225554 120 182 86
-0.429873 0.109491 0.225604 120 182 88
-0.430121 0.111394 0.225498 122 181 87
-0.429765 0.113084 0.225548 123 180 86
-0.430013 0.114996 0.225442 121 182 87
-0.429657 0.116688 0.225491 121 182 87
-0.429301 0.118381 0.225541 122 185 90
-0.428945 0.120073 0.225591 119 191 98
-0.428589 0.121765 0.22564 121 184 88
-0.428233 0.123457 0.22569 122 183 87
-0.427877 0.125149 0.22574 121 183 88
-0.427521 0.126841 0.22579 120 181 86
-0.427766 0.128777 0.225684 116 180 87
-0.428012 0.130719 0.225578 114 181 88
-0.428258 0.132667 0.225471 116 180 87
-0.429112 0.134876 0.225207 119 177 85
-0.429971 0.1371 0.224941 120 177 84
-0.431451 0.139603 0.224514 118 178 84
-0.432325 0.141861 0.224243 116 179 85
-0.432583 0.143858 0.224133 116 179 83
-0.432841 0.145862 0.224022 115 178 82
-0.432478 0.147591 0.224073 112 177 80
-0.432114 0.149321 0.224124 103 172 76
-0.43113 0.150764 0.224336 90 160 70
-0.42831 0.151346 0.225026 86 153 66
-0.424926 0.151637 0.225864 90 153 68
-0.422779 0.152487 0.22638 90 153 70
-0.421831 0.153895 0.226584 91 159 72
-0.420886 0.155298 0.226788 94 164 74
-0.419944 0.156697 0.22699 121 177 85
-0.419589 0.158381 0.22704 119 155 90
-0.419235 0.160065 0.227089 84 89 63
-0.418881 0.161749 0.227139 67 66 47
-0.418527 0.163433 0.227188 62 63 43
-0.422743 0.0721163 0.226549 68 76 48
-0.420137 0.0731509 0.227186 68 97 49
-0.417563 0.0741728 0.227815 67 102 47
-0.416119 0.0754816 0.22815 72 108 52
-0.414684 0.0767824 0.228483 98 146 67
-0.412715 0.0779223 0.228956 124 184 90
-0.410764 0.0790518 0.229424 118 190 89
-0.410967 0.0807937 0.229331 116 192 88
-0.432877 0.0889665 0.223571 122 195 91
-0.432168 0.0923392 0.22367 124 194 90
-0.43121 0.0938383 0.223877 124 192 88
-0.430255 0.0953325 0.224084 124 190 88
-0.429902 0.097013 0.224133 125 189 88
-0.428355 0.0983063 0.224495 124 187 89
-0.428003 0.0999813 0.224544 122 185 89
-0.428842 0.102054 0.224281 121 184 88
-0.429086 0.103937 0.224174 122 184 87
-0.428732 0.105619 0.224224 122 183 86
-0.428977 0.107511 0.224116 120 181 86
-0.429223 0.109408 0.224008 118 180 87
-0.428868 0.111095 0.224058 116 179 86
-0.429113 0.113001 0.22395 115 178 85
-0.42936 0.114913 0.223841 116 179 87
-0.429004 0.116605 0.223891 119 181 87
-0.428648 0.118298 0.223941 119 182 88
-0.428292 0.11999 0.22399 119 185 90
-0.427936 0.121683 0.22404 121 185 87
-0.42758 0.123375 0.22409 122 185 88
-0.427224 0.125067 0.22414 121 182 88
-0.426868 0.126759 0.224189 118 183 85
-0.427112 0.128695 0.224081 118 183 86
-0.427356 0.130637 0.223972 119 182 85
-0.426999 0.132334 0.224022 119 182 86
-0.427848 0.134539 0.223754 120 183 86
-0.428702 0.136758 0.223484 118 182 86
-0.430173 0.139256 0.22305 117 182 85
-0.431042 0.141508 0.222776 116 183 84
-0.431297 0.143502 0.222663 118 183 86
-0.431553 0.145502 0.22255 117 181 86
-0.43119 0.147229 0.222601 111 178 83
-0.430826 0.148956 0.222652 99 169 76
-0.429232 0.150114 0.223029 91 162 71
-0.425829 0.150416 0.223886 95 160 71
-0.423671 0.151275 0.224413 97 160 73
-0.421533 0.152125 0.224935 97 160 74
-0.420588 0.153531 0.225142 98 166 78
-0.419647 0.154933 0.225347 109 172 82
-0.419293 0.156618 0.225396 134 187 98
-0.418355 0.158012 0.225601 96 109 74
-0.418001 0.159693 0.225651 69 69 51
-0.41823 0.16167 0.225545 63 63 43
-0.421205 0.0735139 0.225207 68 89 47
-0.418055 0.0743887 0.225999 66 100 48
-0.416605 0.0757011 0.226341 69 102 50
-0.414615 0.076853 0.226826 81 120 57
-0.413731 0.0783015 0.227018 110 163 80
-0.412308 0.0795898 0.227354 121 186 92
-0.412514 0.0813431 0.227257 116 188 87
-0.412178 0.0829407 0.227304 119 195 91
-0.431873 0.0905681 0.222026 124 195 92
-0.431518 0.0922545 0.222076 125 195 90
-0.431163 0.0939408 0.222126 124 193 88
-0.430207 0.0954374 0.222335 124 191 88
-0.429254 0.0969291 0.222545 124 190 89
