ply
format ascii 1.0
element vertex 1259
property float x
property float y
property float z
property uchar diffuse_red
property uchar diffuse_green
property uchar diffuse_blue
end_header
-0.45393 0.237278 0.175073 43 98 31
-0.453519 0.239237 0.175132 31 104 29
-0.452366 0.240705 0.175465 37 106 31
-0.450482 0.241677 0.176069 41 111 39
-0.449341 0.243132 0.176398 45 117 48
-0.448205 0.244582 0.176726 74 147 66
-0.447072 0.246026 0.177053 105 159 80
-0.445225 0.246969 0.177645 111 135 82
-0.444105 0.2484 0.177969 89 91 71
-0.4437 0.250327 0.178027 85 88 57
-0.438371 0.248768 0.179913 83 82 52
-0.431154 0.245809 0.1825 77 72 48
-0.42419 0.242952 0.184997 68 63 48
-0.421242 0.242931 0.186005 61 59 47
-0.418334 0.242909 0.187 59 57 40
-0.416085 0.243343 0.18775 58 53 36
-0.414473 0.244228 0.188264 54 51 38
-0.413483 0.245563 0.188547 53 54 39
-0.41372 0.247815 0.188373 55 57 37
-0.415192 0.251012 0.187738 55 53 40
-0.442503 0.191887 0.178825 64 59 37
-0.442109 0.193762 0.178882 62 72 50
-0.441027 0.195248 0.179194 90 128 75
-0.441322 0.197511 0.178996 127 188 93
-0.440241 0.198991 0.179308 134 197 94
-0.438483 0.200069 0.179871 134 198 95
-0.435393 0.200351 0.180929 136 199 97
-0.433007 0.201021 0.181727 139 200 96
-0.430645 0.201683 0.182517 138 199 96
-0.429608 0.203121 0.182815 137 200 96
-0.428574 0.204554 0.183113 136 201 96
-0.427543 0.205982 0.183409 143 203 99
-0.427807 0.208204 0.183224 134 181 92
-0.427424 0.210029 0.183279 92 131 67
-0.453247 0.232794 0.173373 89 137 63
-0.453578 0.23523 0.173155 74 121 52
-0.455408 0.238652 0.172377 57 107 43
-0.454994 0.240622 0.172437 50 103 37
-0.452344 0.241109 0.173334 51 106 33
-0.450457 0.242081 0.173946 46 111 40
-0.449314 0.243538 0.17428 48 117 49
-0.448175 0.24499 0.174613 55 126 58
-0.446317 0.24594 0.175216 76 154 76
-0.445191 0.24738 0.175546 96 172 90
-0.444068 0.248813 0.175874 109 160 87
-0.442949 0.250242 0.176201 134 158 75
-0.442545 0.252168 0.176259 128 135 72
-0.430426 0.245727 0.180729 106 116 74
-0.422831 0.242409 0.183499 85 100 74
-0.419897 0.242391 0.184516 76 92 69
-0.415761 0.241465 0.185987 86 89 56
-0.41415 0.242356 0.186508 87 83 50
-0.41255 0.243241 0.187024 80 74 49
-0.412175 0.245029 0.187079 69 65 49
-0.411799 0.246817 0.187133 62 59 51
-0.412643 0.249531 0.186726 59 54 49
-0.41411 0.252737 0.186082 55 54 41
-0.415591 0.255975 0.185432 57 53 36
-0.417718 0.259736 0.184536 57 51 32
-0.440399 0.191038 0.177564 67 60 41
-0.440007 0.192906 0.177621 77 88 54
-0.439614 0.194775 0.177677 106 152 80
-0.439906 0.197033 0.177477 129 195 95
-0.438149 0.198119 0.178047 132 195 93
-0.435061 0.198415 0.179118 133 196 95
-0.43334 0.199484 0.179676 135 197 96
-0.430972 0.200156 0.180478 136 198 96
-0.42928 0.20121 0.181027 134 199 97
-0.428247 0.202646 0.181327 133 200 96
-0.426572 0.203685 0.18187 136 201 96
-0.42619 0.205504 0.181925 138 199 98
-0.426452 0.207721 0.181738 122 173 89
-0.428009 0.210757 0.181059 85 125 62
-0.452156 0.230279 0.171739 84 139 64
-0.451746 0.232232 0.171798 91 146 67
-0.455054 0.236593 0.170448 88 137 62
-0.455391 0.239054 0.170223 85 133 58
-0.454977 0.241029 0.170283 82 133 56
-0.453813 0.242505 0.170628 81 131 54
-0.451169 0.242981 0.171536 78 134 58
-0.449286 0.243946 0.172155 86 141 60
-0.448145 0.2454 0.172492 91 153 68
-0.446284 0.246351 0.173104 96 159 71
-0.445156 0.247792 0.173438 103 162 71
-0.444031 0.249228 0.173771 113 165 72
-0.44291 0.250658 0.174102 120 166 72
-0.443219 0.253094 0.173888 118 172 84
-0.435798 0.250009 0.176627 114 182 97
-0.421477 0.241867 0.182006 111 179 98
-0.417929 0.241397 0.183272 113 167 89
-0.413827 0.240484 0.184751 129 162 80
-0.412838 0.241826 0.18504 133 151 76
-0.411853 0.243164 0.185328 121 137 77
-0.410871 0.244496 0.185615 106 125 81
-0.410496 0.246281 0.185669 94 115 83
-0.411944 0.249454 0.185024 91 104 73
-0.413406 0.252659 0.184372 95 100 60
-0.416132 0.256862 0.183233 94 90 55
-0.418906 0.261138 0.182074 83 70 47
-0.420439 0.264477 0.181392 64 48 36
-0.438701 0.188333 0.176254 65 62 39
-0.43831 0.190195 0.176311 65 64 50
-0.437919 0.192057 0.176368 93 116 66
-0.437528 0.193919 0.176424 120 171 84
-0.437137 0.195781 0.176481 130 193 94
-0.434729 0.196478 0.177307 131 192 93
-0.433673 0.197942 0.177618 132 197 95
-0.4313 0.198623 0.178432 133 196 95
-0.429604 0.199684 0.178988 135 195 94
-0.427919 0.200737 0.179541 134 197 95
-0.426246 0.201783 0.18009 132 197 96
-0.424585 0.202822 0.180635 138 200 96
-0.424204 0.204635 0.18069 131 188 94
-0.4251 0.20724 0.180256 106 158 82
-0.452134 0.230662 0.169603 83 141 63
-0.451723 0.232618 0.169663 92 148 67
-0.455037 0.236991 0.168291 81 131 63
-0.455375 0.239458 0.168061 63 109 49
-0.454959 0.241436 0.168122 50 98 38
-0.454544 0.243414 0.168182 48 107 45
-0.452631 0.244387 0.168819 55 119 56
-0.450732 0.245353 0.169452 61 130 63
-0.449582 0.246812 0.169797 66 142 70
-0.447706 0.247763 0.170422 73 149 75
-0.44512 0.248206 0.171322 81 155 78
-0.443993 0.249643 0.17166 87 157 77
-0.448672 0.255166 0.169751 95 160 76
-0.420763 0.241787 0.180271 110 169 81
-0.417222 0.241317 0.181552 113 170 82
-0.413127 0.240405 0.183049 121 174 83
-0.41214 0.241748 0.183341 125 182 91
-0.411155 0.243086 0.183632 126 194 101
-0.410174 0.244419 0.183922 128 200 107
-0.409799 0.246204 0.183976 129 195 104
-0.411244 0.249376 0.183322 134 185 94
-0.414557 0.254007 0.181938 143 172 90
-0.418575 0.259225 0.180278 135 153 88
-0.420749 0.263056 0.179335 110 114 74
-0.420362 0.264903 0.179392 76 61 48
-0.419974 0.26675 0.179448 58 46 35
-0.435953 0.187132 0.175269 62 62 42
-0.435564 0.188985 0.175325 64 73 54
-0.435175 0.190837 0.175382 101 140 77
-0.436804 0.193833 0.174659 125 184 91
-0.434397 0.194541 0.175495 129 189 93
-0.433342 0.196008 0.175809 130 190 92
-0.432291 0.19747 0.176122 131 193 93
-0.429929 0.198153 0.176942 131 193 93
-0.427592 0.198828 0.177754 132 193 92
-0.42592 0.199881 0.17831 131 193 93
-0.424259 0.200927 0.178861 131 195 93
-0.42135 0.201195 0.179897 138 199 96
-0.420972 0.202996 0.179952 125 179 89
-0.423117 0.206365 0.179027 101 151 75
-0.45585 0.233433 0.166004 82 139 63
-0.454682 0.234927 0.166358 94 149 69
-0.455019 0.237391 0.166125 81 131 63
-0.455358 0.239864 0.165891 56 102 43
-0.455698 0.242345 0.165656 36 90 29
-0.455281 0.244331 0.165717 27 97 30
-0.454109 0.24581 0.166072 29 101 31
-0.453693 0.247791 0.166133 29 105 29
-0.452527 0.24926 0.166487 33 108 29
-0.451365 0.250723 0.16684 38 108 30
-0.448731 0.251154 0.16777 46 108 32
-0.448318 0.253117 0.16783 53 106 35
-0.452363 0.258227 0.166141 61 108 39
-0.419666 0.243536 0.178591 66 127 59
-0.416134 0.243051 0.179887 70 134 65
-0.41205 0.242122 0.181401 75 144 74
-0.411065 0.243461 0.181695 82 151 80
-0.410082 0.244796 0.181989 88 158 82
-0.409707 0.246584 0.182044 94 163 83
-0.411764 0.250231 0.181137 100 168 85
-0.418244 0.257311 0.178481 109 173 91
-0.421061 0.261629 0.177271 108 175 92
-0.421968 0.264492 0.176815 97 143 81
-0.421578 0.266349 0.176871 79 86 59
-0.421188 0.268206 0.176928 69 47 34
-0.420798 0.270062 0.176985 60 48 35
-0.434564 0.186677 0.173774 63 63 45
-0.434175 0.188527 0.173831 75 91 57
-0.433787 0.190376 0.173887 109 159 82
-0.433399 0.192225 0.173943 125 188 92
-0.433011 0.194074 0.174 127 188 91
-0.430641 0.194776 0.174833 129 189 91
-0.430255 0.196615 0.174889 130 190 91
-0.428562 0.197684 0.175458 129 191 91
-0.425593 0.197978 0.176529 129 191 90
-0.423934 0.199031 0.177086 128 192 91
-0.421027 0.199313 0.178135 132 195 92
-0.4194 0.20035 0.178681 134 193 97
-0.418403 0.201761 0.17898 121 172 89
-0.418027 0.203552 0.179035 104 151 76
-0.456592 0.234312 0.16353 81 137 64
-0.455418 0.23581 0.16389 93 150 72
-0.455758 0.238284 0.163652 84 134 63
-0.455341 0.24027 0.163712 71 123 55
-0.456441 0.243261 0.163172 59 119 51
-0.456023 0.245255 0.163233 51 115 49
-0.455604 0.247248 0.163294 58 121 47
-0.455186 0.249241 0.163355 65 122 46
-0.454767 0.251234 0.163416 68 119 45
-0.454349 0.253227 0.163476 68 118 46
-0.453175 0.254694 0.163838 64 114 44
-0.452006 0.256155 0.164197 58 109 43
-0.451589 0.25814 0.164258 48 107 44
-0.451172 0.260125 0.164318 43 109 44
-0.418818 0.247585 0.176714 47 112 42
-0.411583 0.244294 0.179508 54 113 39
-0.410597 0.245633 0.179807 57 113 40
-0.411439 0.248353 0.179374 60 114 45
-0.419828 0.256863 0.175917 66 115 48
-0.420727 0.259699 0.175458 72 118 50
-0.421633 0.262555 0.174995 78 130 51
-0.421892 0.264921 0.174791 84 127 62
-0.422153 0.267295 0.174587 84 101 67
-0.421762 0.269159 0.174643 71 46 34
-0.421371 0.271022 0.1747 61 47 33
-0.434232 0.184742 0.171964 62 62 46
-0.433179 0.186224 0.172284 61 63 49
-0.432791 0.188071 0.172341 91 116 64
-0.432404 0.189917 0.172397 115 169 82
-0.432679 0.19214 0.17219 124 185 88
-0.431629 0.193609 0.17251 125 186 88
-0.42927 0.194312 0.173349 127 188 89
-0.426937 0.195008 0.17418 128 189 90
-0.424627 0.195697 0.175002 128 189 90
-0.421711 0.196003 0.176067 128 190 90
-0.421332 0.197807 0.176122 127 190 90
-0.419078 0.198473 0.176925 138 196 94
-0.418081 0.199888 0.177227 129 183 93
-0.416473 0.200918 0.177774 116 164 84
-0.417329 0.203471 0.177336 109 152 77
-0.456577 0.234708 0.161342 78 136 62
-0.455401 0.236209 0.161707 91 148 72
-0.455741 0.238689 0.161464 86 135 62
-0.456083 0.241178 0.16122 73 115 43
-0.455664 0.243172 0.161281 58 104 33
-0.456007 0.245674 0.161037 48 105 34
-0.455587 0.247672 0.161098 51 111 40
-0.455168 0.249669 0.161159 57 113 43
-0.454749 0.251666 0.16122 59 116 47
-0.45433 0.253662 0.161281 67 121 52
-0.453154 0.255131 0.161647 68 117 57
-0.451982 0.256595 0.162011 65 109 62
-0.450815 0.258052 0.162375 65 114 66
-0.449652 0.259504 0.162736 66 120 63
-0.448494 0.260951 0.163097 68 122 58
-0.444412 0.260266 0.16464 74 123 55
-0.431924 0.257777 0.169378 71 115 47
-0.422858 0.253187 0.172949 66 113 46
-0.417334 0.251169 0.175087 59 113 46
-0.422729 0.257398 0.172798 55 115 47
-0.422338 0.259259 0.172855 56 117 51
-0.421947 0.26112 0.172912 66 125 54
-0.421557 0.26298 0.172968 77 131 58
-0.421817 0.265351 0.172761 83 123 65
-0.422078 0.267731 0.172552 81 93 63
-0.421686 0.269598 0.172609 68 45 35
-0.421294 0.271464 0.172666 60 48 32
-0.432186 0.183929 0.170743 62 62 43
-0.431799 0.185773 0.170799 61 66 56
-0.431412 0.187616 0.170855 102 142 77
-0.431025 0.189459 0.170912 119 175 84
-0.431298 0.191678 0.170703 122 182 87
-0.429595 0.192768 0.171289 123 183 87
-0.427904 0.19385 0.171871 125 184 87
-0.42494 0.194171 0.172966 126 186 88
-0.422649 0.194862 0.173792 126 187 89
-0.419756 0.195173 0.174861 126 188 89
-0.418136 0.196223 0.175418 127 187 89
-0.416527 0.197265 0.175971 140 194 93
-0.416152 0.199051 0.176025 126 175 86
-0.415777 0.200837 0.17608 112 159 79
-0.456562 0.235106 0.159146 74 133 60
-0.455383 0.236609 0.159515 88 144 69
-0.454965 0.238599 0.159576 87 137 63
-0.455306 0.241089 0.159329 70 114 47
-0.455647 0.243588 0.159081 49 99 31
-0.455228 0.245585 0.159142 38 102 27
-0.454809 0.247583 0.159203 41 109 36
-0.454389 0.24958 0.159264 45 113 42
-0.45397 0.251577 0.159325 52 115 47
-0.453551 0.253574 0.159386 73 123 57
-0.453132 0.255571 0.159447 77 102 55
-0.451206 0.256507 0.160124 67 69 44
-0.45004 0.257965 0.160491 62 70 41
-0.448137 0.258886 0.16116 61 67 38
-0.444059 0.258221 0.162721 63 65 40
-0.440055 0.257568 0.164253 67 66 42
-0.438938 0.258989 0.164603 68 72 43
-0.435024 0.258336 0.166101 66 78 45
-0.427804 0.255179 0.16896 64 89 54
-0.425412 0.255567 0.169837 62 98 62
-0.423046 0.25595 0.170706 62 108 65
-0.422654 0.257814 0.170763 63 117 68
-0.422263 0.259679 0.17082 66 127 71
-0.421872 0.261543 0.170877 78 137 76
-0.42148 0.263407 0.170934 84 141 83
-0.421741 0.265783 0.170722 77 109 74
-0.421349 0.267651 0.170779 63 65 53
-0.421609 0.270038 0.170567 59 47 35
-0.431469 0.183843 0.168995 61 62 43
-0.430424 0.185323 0.169319 67 78 59
-0.430038 0.187163 0.169375 105 154 82
-0.430308 0.189374 0.169164 119 179 86
-0.429265 0.190843 0.169488 120 180 86
-0.428226 0.192307 0.169811 121 181 86
-0.425898 0.193014 0.17066 122 182 87
-0.422957 0.19334 0.17176 123 184 88
-0.420057 0.193662 0.172845 123 186 89
-0.417814 0.194348 0.173663 123 186 89
-0.416206 0.195397 0.174222 128 186 89
-0.415219 0.196811 0.174528 137 191 94
-0.414845 0.198594 0.174582 120 169 84
-0.456966 0.233508 0.156879 85 140 69
-0.456546 0.235506 0.156941 75 129 57
-0.454607 0.236519 0.157627 86 142 65
-0.45419 0.23851 0.157688 86 139 63
-0.454528 0.240999 0.157437 69 117 54
-0.454869 0.243498 0.157185 48 102 39
-0.454449 0.245496 0.157247 36 102 28
-0.45403 0.247493 0.157308 40 109 33
-0.453611 0.249491 0.157369 48 113 39
-0.453191 0.251488 0.15743 51 116 47
-0.452772 0.253485 0.157491 76 124 58
-0.451599 0.254955 0.157865 81 96 56
-0.45043 0.256419 0.158236 68 60 45
-0.448522 0.257348 0.158915 59 60 36
-0.447366 0.258799 0.159283 60 57 35
-0.442571 0.257613 0.161162 62 56 41
-0.439297 0.257483 0.162411 63 59 41
-0.435374 0.256843 0.163932 60 61 38
-0.432206 0.256721 0.16514 53 61 37
-0.427068 0.255097 0.16717 54 63 42
-0.425342 0.255982 0.167782 56 61 42
-0.424287 0.25736 0.168115 56 61 42
-0.423893 0.259235 0.168173 56 58 41
-0.422188 0.2601 0.168778 61 58 41
-0.421796 0.261968 0.168835 68 54 36
-0.422057 0.264346 0.168619 63 54 41
-0.421664 0.266217 0.168676 60 55 42
-0.421272 0.268087 0.168734 58 57 41
-0.430751 0.183758 0.167247 57 62 43
-0.429708 0.185237 0.167574 79 100 59
-0.429321 0.187078 0.16763 107 162 82
-0.428935 0.188918 0.167687 118 177 85
-0.427897 0.190385 0.168013 119 177 84
-0.426862 0.191848 0.168337 120 178 85
-0.423905 0.192183 0.169457 121 180 86
-0.420988 0.192514 0.170562 121 181 87
-0.418111 0.192841 0.171652 121 184 87
-0.4165 0.193897 0.172219 122 185 87
-0.414899 0.194946 0.172782 132 189 90
-0.414525 0.196729 0.172836 128 183 94
-0.414151 0.198513 0.172891 116 165 84
-0.456606 0.231419 0.154922 110 160 81
-0.456187 0.233417 0.154983 94 147 75
-0.455007 0.234926 0.155361 76 126 55
-0.454588 0.236921 0.155423 84 140 64
-0.45417 0.238916 0.155484 86 140 63
-0.454509 0.241411 0.155228 74 123 58
-0.45409 0.243409 0.15529 54 105 42
-0.45443 0.245917 0.155034 38 101 26
-0.45401 0.247918 0.155095 39 109 30
-0.452832 0.249402 0.155474 50 112 36
-0.452413 0.2514 0.155535 50 117 46
-0.451993 0.253397 0.155596 73 132 59
-0.450822 0.254867 0.155973 83 121 64
-0.449654 0.256331 0.156349 74 88 57
-0.447749 0.257261 0.157035 63 56 41
-0.445858 0.258184 0.157715 58 56 36
-0.441808 0.257527 0.159305 58 58 41
-0.43854 0.257398 0.160568 59 56 39
-0.43532 0.257271 0.161813 58 57 36
-0.432147 0.257146 0.163039 56 59 38
-0.428344 0.256518 0.164532 55 56 40
-0.425936 0.2569 0.165439 58 52 38
-0.424876 0.258281 0.165777 57 56 39
-0.42382 0.259657 0.166114 57 55 39
-0.422768 0.261028 0.16645 59 48 37
-0.422374 0.262903 0.166508 56 47 36
-0.421981 0.264777 0.166565 53 46 38
-0.43042 0.181828 0.165442 64 61 45
-0.429378 0.183311 0.165772 57 63 43
-0.428991 0.185152 0.165829 97 125 66
-0.427953 0.186626 0.166158 110 167 81
-0.427567 0.188463 0.166214 115 173 83
-0.427181 0.1903 0.166271 118 173 82
-0.425502 0.19139 0.166869 119 174 83
-0.421925 0.191359 0.168263 119 175 84
-0.418409 0.191328 0.169633 119 178 85
-0.416178 0.192025 0.170466 119 181 85
-0.41519 0.193448 0.170779 121 182 87
-0.414204 0.194865 0.17109 136 190 94
-0.41383 0.196648 0.171145 121 173 89
-0.455827 0.231328 0.153026 109 162 81
-0.454648 0.232841 0.153408 99 151 77
-0.454229 0.234836 0.153469 76 123 56
-0.453811 0.236831 0.15353 80 136 63
-0.45415 0.239323 0.153271 86 139 63
-0.45449 0.241824 0.153011 79 129 58
-0.454069 0.243826 0.153073 60 108 42
-0.453649 0.245828 0.153134 40 98 26
-0.453229 0.247829 0.153196 36 106 28
-0.452809 0.249831 0.153257 47 111 34
-0.451633 0.251311 0.153639 48 116 42
-0.451214 0.253308 0.153701 62 131 55
-0.450044 0.254779 0.154081 83 136 71
-0.448878 0.256243 0.15446 93 120 74
-0.446976 0.257174 0.155153 75 83 55
-0.445088 0.258097 0.155841 63 60 45
-0.440327 0.256921 0.157755 62 59 40
-0.437076 0.256797 0.159027 60 55 36
-0.434568 0.257187 0.159983 58 54 35
-0.4314 0.257062 0.161223 55 57 38
-0.427604 0.256435 0.162733 53 55 40
-0.426535 0.257825 0.163078 54 55 37
-0.424805 0.258703 0.163707 53 53 37
-0.429047 0.181384 0.16397 64 62 49
-0.428661 0.183225 0.164026 55 65 51
-0.427623 0.184703 0.164359 100 140 70
-0.427237 0.186541 0.164415 109 166 77
-0.426852 0.188378 0.164472 112 169 80
-0.425819 0.189845 0.164803 114 170 80
-0.423507 0.190564 0.165677 114 171 80
-0.419333 0.190174 0.167342 114 172 81
-0.417089 0.19088 0.16819 116 174 82
-0.414869 0.191579 0.169029 117 176 82
-0.413884 0.192999 0.169343 120 179 87
-0.41351 0.194783 0.169398 134 190 96
-0.413135 0.196567 0.169453 117 169 84
-0.454289 0.230756 0.151453 109 165 80
-0.453871 0.232751 0.151515 104 156 78
-0.453452 0.234746 0.151576 76 121 57
-0.45379 0.237234 0.151313 77 133 62
-0.45337 0.239233 0.151375 85 139 63
-0.453709 0.241734 0.151111 84 134 60
-0.453289 0.243736 0.151173 69 114 46
-0.452869 0.245738 0.151234 49 98 31
-0.452448 0.24774 0.151296 38 104 31
-0.452028 0.249742 0.151357 43 109 34
-0.450854 0.251222 0.151743 43 112 37
-0.450435 0.25322 0.151805 47 122 48
-0.449266 0.25469 0.152189 71 137 69
-0.447359 0.255629 0.152892 92 147 85
-0.445466 0.25656 0.15359 94 140 83
-0.442134 0.256438 0.154909 103 107 61
-0.438852 0.256317 0.15621 99 94 55
-0.43632 0.256712 0.157187 80 73 53
-0.43243 0.25608 0.158753 62 60 51
-0.42997 0.256471 0.159703 52 57 50
-0.426864 0.256352 0.160933 52 57 43
-0.425796 0.257742 0.161282 51 58 38
-0.424733 0.259127 0.161629 53 55 34
-0.423012 0.26 0.162262 52 53 34
-0.421304 0.260866 0.16289 49 54 38
-0.42091 0.262741 0.162948 48 51 41
-0.428331 0.181298 0.162224 65 63 50
-0.427944 0.18314 0.16228 61 70 58
-0.426907 0.184618 0.162616 99 149 75
-0.426522 0.186456 0.162672 106 163 76
-0.425489 0.187926 0.163007 109 164 76
-0.425104 0.18976 0.163063 110 166 77
-0.422159 0.190111 0.16422 110 168 78
-0.417386 0.189363 0.166164 111 169 80
-0.41516 0.190071 0.167015 114 170 80
-0.413563 0.191134 0.167596 116 172 81
-0.413189 0.192918 0.167651 120 178 85
-0.412815 0.194702 0.167706 129 186 96
-0.41244 0.196485 0.167761 113 168 83
-0.45393 0.22867 0.149498 110 167 79
-0.452757 0.230186 0.149886 111 168 79
-0.453093 0.232661 0.149621 105 158 76
-0.45343 0.235145 0.149355 76 124 57
-0.453011 0.237144 0.149417 75 132 60
-0.452591 0.239143 0.149478 85 141 65
-0.452928 0.241644 0.149211 89 142 64
-0.453267 0.244154 0.148943 83 127 55
-0.452846 0.24616 0.149005 71 114 44
-0.452425 0.248166 0.149067 60 115 43
-0.450494 0.249135 0.149786 58 119 44
-0.450075 0.251133 0.149847 56 120 44
-0.448907 0.252608 0.150235 60 128 52
-0.448488 0.254602 0.150296 74 143 65
-0.446584 0.255541 0.151007 93 159 78
-0.443961 0.255948 0.152032 109 166 83
-0.439929 0.255313 0.153675 125 155 70
-0.436674 0.255201 0.154979 116 148 78
-0.434862 0.256113 0.155654 100 138 85
-0.430993 0.255488 0.157231 87 124 82
-0.427868 0.255377 0.158484 87 114 71
-0.426124 0.25627 0.159133 100 105 60
-0.424392 0.257156 0.159777 90 90 54
-0.423333 0.25854 0.160127 75 72 51
-0.422277 0.259918 0.160475 59 61 51
-0.420571 0.260785 0.16111 50 56 50
-0.420178 0.26266 0.161167 50 52 43
-0.419784 0.264535 0.161225 55 50 38
-0.419391 0.26641 0.161283 55 52 36
-0.418997 0.268285 0.16134 54 52 34
-0.418604 0.270159 0.161398 53 47 30
-0.427614 0.181213 0.160477 64 63 45
-0.427228 0.183054 0.160534 66 81 55
-0.426192 0.184533 0.160873 98 151 75
-0.425806 0.18637 0.160929 103 159 74
-0.424775 0.187841 0.161267 105 160 75
-0.423747 0.189306 0.161603 107 162 75
-0.420817 0.189659 0.162768 108 164 76
-0.416067 0.188918 0.164726 108 164 78
-0.413851 0.189628 0.165583 109 165 80
-0.412868 0.191052 0.165903 111 169 82
-0.412494 0.192836 0.165958 122 178 85
-0.41212 0.19462 0.166013 122 181 93
-0.411745 0.196404 0.166068 112 167 82
-0.452398 0.228104 0.147935 110 166 79
-0.45198 0.230096 0.147996 108 164 77
-0.451562 0.232088 0.148058 100 155 73
-0.452651 0.235055 0.147458 76 128 61
-0.452231 0.237054 0.147519 75 130 58
-0.451812 0.239053 0.147581 86 143 65
-0.452147 0.241554 0.147311 93 148 68
-0.452484 0.244064 0.147039 88 136 63
-0.452822 0.246584 0.146766 78 122 55
-0.451642 0.248077 0.147163 71 121 52
-0.450467 0.249563 0.147557 69 128 57
-0.449296 0.251044 0.14795 69 132 60
-0.448876 0.253042 0.148012 76 142 66
-0.446226 0.253467 0.14906 85 152 71
-0.443605 0.253886 0.150096 96 160 73
-0.439576 0.25327 0.151757 108 164 72
-0.439165 0.255227 0.151817 114 169 74
-0.435916 0.255116 0.153135 112 175 87
-0.434107 0.256028 0.153817 112 182 94
-0.430245 0.255404 0.155411 113 178 91
-0.427125 0.255294 0.156677 118 166 82
-0.425383 0.256187 0.157333 130 159 77
-0.423654 0.257074 0.157983 122 150 79
-0.422596 0.258458 0.158336 110 141 85
-0.421542 0.259837 0.158687 101 131 84
-0.420492 0.26121 0.159038 101 123 76
-0.419445 0.262579 0.159386 106 113 65
-0.419052 0.264454 0.159444 100 96 58
-0.418658 0.266329 0.159502 86 79 55
-0.418265 0.268204 0.15956 69 62 49
-0.417872 0.270079 0.159617 58 49 41
-0.418127 0.27248 0.159385 50 48 37
-0.426897 0.181127 0.158731 63 65 49
-0.426511 0.182968 0.158788 70 96 54
-0.425476 0.184447 0.159129 97 152 72
-0.425091 0.186285 0.159186 100 156 73
-0.424061 0.187756 0.159526 102 156 72
-0.422395 0.188853 0.160147 102 158 73
-0.418851 0.188844 0.161597 103 159 74
-0.41414 0.188116 0.163563 104 159 76
-0.412548 0.189186 0.164155 104 161 77
-0.412173 0.19097 0.16421 109 168 80
-0.411799 0.192754 0.164265 125 178 86
-0.411424 0.194539 0.16432 116 173 87
-0.41105 0.196323 0.164375 113 168 82
-0.453969 0.224966 0.145252 114 173 84
-0.45355 0.226966 0.145314 113 170 83
-0.451622 0.228013 0.146044 111 166 81
-0.451204 0.230006 0.146106 108 163 79
-0.450786 0.231998 0.146167 99 154 73
-0.451871 0.234965 0.14556 80 132 65
-0.451452 0.236964 0.145622 75 128 57
-0.451787 0.239462 0.145348 86 143 65
-0.451366 0.241464 0.14541 92 148 69
-0.45246 0.244484 0.144796 78 130 63
-0.452038 0.246494 0.144858 55 107 51
-0.451617 0.248504 0.14492 43 101 43
-0.450439 0.249993 0.14532 43 112 50
-0.449266 0.251476 0.145718 48 121 57
-0.448846 0.253478 0.14578 55 129 60
-0.446932 0.254426 0.14651 64 138 62
-0.444298 0.254841 0.147565 74 142 63
-0.440968 0.254732 0.148932 85 145 65
-0.436978 0.25411 0.150598 92 150 68
-0.434457 0.254518 0.151606 95 153 72
-0.431272 0.254414 0.152914 96 158 74
-0.430869 0.256338 0.152974 99 163 77
-0.426382 0.255211 0.15487 102 166 79
-0.424643 0.256104 0.155532 107 170 83
-0.422916 0.256992 0.156189 112 181 92
-0.42186 0.258376 0.156545 121 191 100
-0.420807 0.259755 0.1569 129 192 99
-0.420412 0.261637 0.156958 137 186 93
-0.419364 0.263008 0.157311 146 180 91
-0.419622 0.265401 0.157074 143 168 92
-0.419228 0.267283 0.157132 129 153 90
-0.418833 0.269165 0.15719 107 124 81
-0.418438 0.271047 0.157248 83 86 64
-0.418043 0.272928 0.157306 62 54 42
-0.417648 0.274809 0.157364 54 46 33
-0.42618 0.181041 0.156984 63 68 49
-0.425794 0.182882 0.157041 77 100 57
-0.425407 0.184724 0.157098 95 147 70
-0.424375 0.1862 0.157442 98 151 71
-0.423346 0.187671 0.157786 98 151 70
-0.421047 0.188402 0.158696 99 153 70
-0.416898 0.188035 0.160434 100 155 72
-0.412834 0.187676 0.162136 101 155 71
-0.411852 0.189104 0.162462 101 157 72
-0.410874 0.190527 0.162787 107 164 77
-0.4105 0.192308 0.162842 125 178 85
-0.410729 0.194457 0.162627 116 169 85
-0.410355 0.196241 0.162682 115 169 82
-0.45319 0.224875 0.143354 114 167 82
-0.451263 0.225931 0.144092 112 167 80
-0.450097 0.22745 0.14449 113 166 81
-0.44968 0.229438 0.144551 112 162 81
-0.450759 0.232391 0.143939 103 153 76
-0.451092 0.234875 0.143663 85 136 68
-0.451426 0.237368 0.143385 74 128 59
-0.451005 0.239371 0.143447 85 144 66
-0.452098 0.242383 0.142826 92 149 70
-0.451676 0.244394 0.142888 79 131 62
-0.452013 0.246919 0.142607 57 109 48
-0.451591 0.248933 0.142669 40 102 39
-0.451168 0.250947 0.142732 36 106 39
-0.450746 0.252961 0.142794 41 106 40
-0.449567 0.254444 0.143198 44 107 37
-0.448394 0.255922 0.143601 48 109 37
-0.445736 0.256332 0.144678 54 110 39
-0.443108 0.256737 0.145743 58 109 42
-0.439787 0.256613 0.147124 58 111 45
-0.435808 0.255974 0.148807 59 115 47
-0.432596 0.255858 0.150142 57 123 52
-0.428067 0.254731 0.15208 57 130 57
-0.424969 0.254625 0.153368 62 137 63
-0.42457 0.256525 0.153427 71 144 70
-0.422179 0.25691 0.154395 82 151 73
-0.421123 0.258294 0.154754 91 155 74
-0.420072 0.259673 0.155112 100 160 77
-0.419677 0.261556 0.15517 108 165 79
-0.419282 0.263438 0.155228 117 172 85
-0.419541 0.265837 0.154987 122 178 92
-0.4198 0.268244 0.154745 126 182 93
-0.419404 0.270133 0.154803 123 166 89
-0.419664 0.272552 0.15456 105 121 77
-0.419925 0.27498 0.154316 76 58 44
-0.419527 0.276875 0.154375 60 47 34
-0.426112 0.181312 0.154944 59 68 42
-0.425076 0.182797 0.155294 80 108 57
-0.42469 0.184638 0.15535 91 143 70
-0.423659 0.186115 0.155698 93 148 69
-0.422631 0.187586 0.156045 94 150 70
-0.420336 0.188318 0.156964 96 151 71
-0.415575 0.187591 0.158999 97 153 71
-0.412137 0.187593 0.160439 97 153 71
-0.411157 0.189022 0.160768 98 154 72
-0.410782 0.190806 0.160824 104 162 78
-0.410408 0.192591 0.160879 123 179 89
-0.410034 0.194375 0.160934 114 165 81
-0.449739 0.22537 0.14254 114 168 83
-0.449322 0.227359 0.142602 115 168 84
-0.44965 0.229825 0.142324 114 163 85
-0.450731 0.232785 0.141703 108 155 80
-0.451065 0.235275 0.141421 92 141 71
-0.451399 0.237774 0.141139 75 128 58
-0.451735 0.240282 0.140855 84 143 66
-0.452073 0.2428 0.14057 90 148 71
-0.45165 0.244815 0.140633 86 138 64
-0.453518 0.248386 0.139647 74 124 55
-0.453861 0.250938 0.139358 61 121 52
-0.453435 0.252968 0.139421 58 123 51
-0.45301 0.254997 0.139483 65 124 50
-0.451818 0.256488 0.139898 68 123 48
-0.449871 0.257435 0.140659 66 121 48
-0.44719 0.257839 0.141759 63 119 48
-0.445279 0.258771 0.142506 60 115 47
-0.442649 0.259163 0.143585 55 110 46
-0.440049 0.259551 0.144652 52 110 43
-0.434638 0.257838 0.147015 48 112 42
-0.430053 0.256681 0.149001 47 115 43
-0.424896 0.255044 0.151254 50 115 43
-0.422498 0.255437 0.152236 55 112 42
-0.420782 0.256326 0.152904 60 112 40
-0.419731 0.257709 0.153265 63 114 43
-0.419336 0.259592 0.153324 64 117 47
-0.418942 0.261474 0.153382 65 120 52
-0.418547 0.263357 0.15344 69 124 54
-0.419459 0.266274 0.152892 73 128 58
-0.419719 0.268687 0.152646 80 132 60
-0.41998 0.271108 0.152398 90 132 67
-0.420242 0.273537 0.15215 98 116 73
-0.420504 0.275976 0.151901 76 59 46
-0.420105 0.277878 0.15196 57 47 35
-0.425393 0.181226 0.153194 65 69 43
-0.425006 0.183071 0.153251 84 118 58
-0.423973 0.184553 0.153603 94 146 70
-0.422943 0.186029 0.153954 96 149 69
-0.421916 0.187501 0.154304 94 149 70
-0.419625 0.188233 0.155232 96 153 70
-0.414873 0.187508 0.157288 97 153 70
-0.41144 0.187511 0.158742 97 153 71
-0.411065 0.189299 0.158798 99 156 72
-0.410087 0.190724 0.15913 106 162 76
-0.409713 0.192509 0.159185 119 175 89
-0.44822 0.224812 0.140995 114 168 84
-0.447804 0.226798 0.141056 113 164 83
-0.448873 0.229735 0.140432 111 159 81
-0.449951 0.232694 0.139804 108 155 79
-0.451038 0.235676 0.139171 101 148 75
-0.451373 0.238181 0.138884 79 127 58
-0.45171 0.240695 0.138595 82 139 64
-0.451287 0.24271 0.138658 86 145 68
-0.453152 0.246269 0.137661 84 133 61
-0.454266 0.249343 0.137011 71 112 43
-0.455388 0.25244 0.136356 52 98 27
-0.454959 0.254481 0.136419 43 108 32
-0.454531 0.256523 0.136482 55 111 37
-0.45333 0.258019 0.136905 56 118 42
-0.450602 0.258424 0.138037 58 123 47
-0.448661 0.259363 0.138805 62 125 56
-0.445986 0.259756 0.139916 68 120 63
-0.44408 0.260681 0.14067 66 104 62
-0.442189 0.2616 0.141418 67 109 59
-0.438863 0.261439 0.142837 72 113 57
-0.433468 0.259702 0.145224 75 115 54
-0.42617 0.256477 0.148503 74 114 52
-0.421759 0.255355 0.150438 67 107 52
-0.420046 0.256244 0.151112 65 113 52
-0.418996 0.257627 0.151477 60 113 48
-0.418601 0.25951 0.151535 55 114 49
-0.418206 0.261393 0.151593 52 117 52
-0.419773 0.26482 0.150731 52 118 51
-0.419376 0.266713 0.150789 61 127 56
-0.419636 0.269131 0.150539 69 134 61
-0.419898 0.271557 0.150287 80 131 69
-0.422156 0.275612 0.149095 87 108 70
-0.421755 0.277524 0.149154 71 56 44
-0.422694 0.280541 0.148582 56 45 35
-0.425324 0.181497 0.151144 64 71 49
-0.424288 0.182985 0.1515 91 133 63
-0.423255 0.184467 0.151855 100 154 71
-0.422227 0.185944 0.152209 103 156 71
-0.421202 0.187416 0.152562 102 157 71
-0.418913 0.188149 0.1535 100 158 73
-0.415405 0.188147 0.155004 101 158 74
-0.411957 0.188145 0.156483 102 157 74
-0.410369 0.189217 0.157101 104 160 74
-0.409391 0.190642 0.157436 109 167 79
-0.409618 0.192793 0.157211 110 169 90
-0.447446 0.224722 0.13911 114 169 84
-0.447029 0.226708 0.139171 110 164 81
-0.448096 0.229645 0.138541 108 159 79
-0.449171 0.232604 0.137905 108 156 79
-0.450255 0.235585 0.137265 105 154 78
-0.451346 0.238589 0.13662 78 127 59
-0.450924 0.240605 0.136682 80 137 61
-0.45126 0.243128 0.136389 85 142 66
-0.453899 0.247218 0.135017 85 136 61
-0.455019 0.250307 0.134354 71 116 48
-0.455368 0.252883 0.134052 45 95 34
-0.455719 0.255469 0.13375 33 107 33
-0.45451 0.256974 0.134179 45 111 38
-0.453306 0.258473 0.134607 50 117 46
-0.452107 0.259966 0.135033 57 124 50
-0.448629 0.259816 0.136533 66 120 58
-0.446698 0.260748 0.137306 70 98 62
-0.444782 0.261673 0.138073 67 58 36
-0.442881 0.262592 0.138834 61 54 36
-0.440994 0.263503 0.139589 61 58 40
-0.437677 0.263328 0.141022 63 62 41
-0.429517 0.259475 0.144748 62 67 44
-0.423009 0.256782 0.147697 57 78 54
-0.419964 0.256663 0.149009 60 94 60
-0.41826 0.257546 0.149688 62 100 61
-0.417216 0.258924 0.150054 64 106 61
-0.41747 0.261312 0.149804 66 111 60
-0.419691 0.265257 0.14862 72 117 59
-0.419952 0.267677 0.148365 87 134 69
-0.422211 0.271704 0.147159 97 140 76
-0.42248 0.274157 0.146899 91 123 74
-0.422078 0.276073 0.146959 69 82 62
-0.422346 0.278539 0.146698 61 49 40
-0.423968 0.282129 0.145791 55 43 36
-0.425254 0.18177 0.149086 67 84 64
-0.424216 0.18326 0.149447 109 165 81
-0.423182 0.184744 0.149806 114 172 81
-0.42151 0.185859 0.150464 114 171 79
-0.420487 0.187331 0.15082 114 169 78
-0.418202 0.188064 0.151767 112 170 80
-0.4147 0.188063 0.153286 110 169 81
-0.413089 0.189145 0.15392 111 169 81
-0.410881 0.189856 0.154835 116 172 81
-0.4099 0.191286 0.155175 119 176 85
-0.411343 0.194184 0.154375 101 167 90
-0.445934 0.224166 0.137572 114 168 81
-0.445518 0.226148 0.137634 109 162 79
-0.447319 0.229554 0.136648 107 157 78
-0.448391 0.232513 0.136006 108 157 77
-0.450226 0.235988 0.135002 107 159 77
-0.45056 0.238499 0.134706 80 133 65
-0.450896 0.241019 0.134409 76 135 63
-0.451233 0.243548 0.134111 82 140 64
-0.453876 0.247649 0.132719 85 138 61
-0.454999 0.250746 0.132046 73 120 49
-0.455349 0.253328 0.131739 47 98 33
-0.4557 0.255921 0.131432 33 105 33
-0.455269 0.257974 0.131495 42 113 39
-0.454059 0.259477 0.13193 49 118 46
-0.452081 0.260424 0.132731 56 126 53
-0.448596 0.26027 0.134252 69 127 62
-0.445912 0.260659 0.135393 82 109 65
-0.444743 0.262128 0.135812 72 56 35
-0.442101 0.262504 0.136936 58 58 38
-0.440217 0.263415 0.137698 55 59 38
-0.436906 0.263242 0.139145 55 55 37
-0.430838 0.260956 0.141914 56 52 36
-0.422266 0.256699 0.145888 51 55 38
-0.419226 0.256581 0.147214 50 53 36
-0.417525 0.257464 0.147899 53 54 35
-0.415835 0.25834 0.148579 57 51 34
-0.416087 0.260723 0.148327 60 48 34
-0.41895 0.265175 0.146818 61 54 35
-0.41921 0.267595 0.14656 66 55 37
-0.422132 0.272158 0.145019 71 53 36
-0.423074 0.275161 0.14443 68 49 35
-0.424023 0.278185 0.143837 58 44 36
-0.424921 0.179831 0.147271 70 72 49
-0.424532 0.181683 0.147328 89 111 66
-0.423496 0.183174 0.147692 122 184 92
-0.422463 0.184658 0.148055 123 181 88
-0.420794 0.185773 0.148719 123 184 89
-0.419771 0.187246 0.149078 125 183 88
-0.41812 0.188346 0.149735 126 185 89
-0.415233 0.188706 0.15098 126 185 89
-0.413615 0.18979 0.151624 125 185 89
-0.412008 0.190866 0.152264 131 189 93
-0.412241 0.193039 0.152029 134 185 92
-0.416202 0.19749 0.150019 97 152 72
-0.444111 0.221176 0.136328 113 173 83
-0.443697 0.223151 0.136389 112 170 81
-0.445481 0.226527 0.135401 108 165 79
-0.447285 0.229942 0.134401 105 161 77
-0.448359 0.232909 0.133749 104 161 76
-0.450197 0.236392 0.13273 103 160 75
-0.450532 0.238909 0.132429 86 145 74
-0.450868 0.241434 0.132128 78 133 60
-0.452738 0.245001 0.131089 83 139 63
-0.453854 0.248082 0.130412 85 141 64
-0.454979 0.251187 0.129729 74 125 54
-0.455329 0.253775 0.129417 51 103 38
-0.454898 0.255829 0.129481 35 102 27
-0.454467 0.257883 0.129545 39 110 36
-0.454037 0.259937 0.129609 45 117 44
-0.452829 0.261436 0.130047 50 124 50
-0.449325 0.261274 0.131595 71 133 61
-0.445874 0.261114 0.133118 97 129 71
-0.443958 0.26204 0.133903 71 80 57
-0.442056 0.262958 0.134681 58 56 40
-0.440901 0.264414 0.135099 62 58 33
-0.436852 0.263693 0.13692 64 59 30
-0.430078 0.260871 0.140065 61 56 29
-0.421522 0.256616 0.144079 57 57 30
-0.417811 0.266989 0.145074 50 52 33
-0.422726 0.273154 0.142542 52 54 31
-0.424352 0.276722 0.14161 53 52 30
-0.424588 0.177892 0.145455 55 68 48
-0.424199 0.179745 0.145513 73 95 63
-0.423163 0.181238 0.14588 119 167 82
-0.422131 0.182727 0.146246 132 194 96
-0.421744 0.184573 0.146303 134 193 93
-0.420077 0.185688 0.146974 133 194 93
-0.419056 0.187161 0.147336 135 194 94
-0.417407 0.188261 0.147999 137 195 93
-0.415147 0.188988 0.148958 136 196 93
-0.414144 0.190439 0.149312 137 198 95
-0.413764 0.192255 0.149369 140 200 98
-0.415247 0.195199 0.148528 130 187 94
-0.416747 0.198173 0.147678 100 148 68
-0.427397 0.206804 0.142415 98 163 76
-0.438006 0.215536 0.137165 108 170 79
-0.438306 0.217927 0.136883 109 169 78
-0.442927 0.223061 0.134514 108 166 77
-0.445443 0.226908 0.133159 105 163 77
-0.44725 0.230332 0.132144 104 161 77
-0.448326 0.233305 0.131482 106 162 76
-0.450167 0.236798 0.130449 107 163 76
-0.450503 0.23932 0.130143 94 153 79
-0.452371 0.242874 0.129094 79 132 60
-0.453485 0.245948 0.128408 80 136 62
-0.453831 0.248516 0.128096 84 140 64
-0.454958 0.251629 0.127402 77 131 60
-0.455309 0.254224 0.127086 57 111 50
-0.454877 0.256282 0.12715 36 99 27
-0.454446 0.25834 0.127214 35 105 37
-0.453235 0.259846 0.127658 38 112 41
-0.452029 0.261345 0.1281 43 119 46
-0.450059 0.262285 0.128916 60 136 58
-0.447345 0.262666 0.130097 92 155 76
-0.443917 0.262496 0.131629 122 143 88
-0.442011 0.263415 0.132418 88 95 66
-0.440121 0.264327 0.133201 68 66 54
-0.43752 0.264688 0.134333 60 55 42
-0.435663 0.265586 0.135101 57 55 32
-0.420778 0.256533 0.142269 52 57 33
-0.415801 0.254919 0.144579 49 57 34
-0.412209 0.254323 0.14621 48 55 35
-0.424255 0.175952 0.143639 63 64 45
-0.423866 0.177805 0.143697 70 77 56
-0.422831 0.179303 0.144067 104 127 79
-0.421799 0.180795 0.144436 137 199 106
-0.420771 0.182282 0.144804 140 203 99
-0.420385 0.184124 0.144861 139 202 99
-0.419361 0.185603 0.145228 141 202 97
-0.418341 0.187076 0.145593 141 204 98
-0.416067 0.187811 0.146567 140 206 99
-0.41506 0.18927 0.146928 141 208 101
-0.414056 0.190723 0.147287 150 211 104
-0.414295 0.192915 0.147041 145 197 103
-0.41516 0.195493 0.14649 113 166 88
-0.416031 0.198089 0.145936 98 158 71
-0.424668 0.205489 0.141592 106 168 80
-0.426931 0.209025 0.140353 109 171 79
-0.436838 0.217394 0.135378 108 169 78
-0.442156 0.222971 0.132639 109 165 75
-0.444667 0.226818 0.131269 107 162 73
-0.44647 0.230241 0.130244 105 161 74
-0.448293 0.233703 0.129207 105 163 76
-0.450138 0.237205 0.128158 106 165 78
-0.452003 0.240747 0.127098 100 156 77
-0.452345 0.243297 0.126783 79 129 58
-0.453462 0.246378 0.126088 79 134 59
-0.453808 0.248953 0.12577 85 143 64
-0.454156 0.251537 0.125451 85 139 65
-0.454505 0.254132 0.125131 75 124 59
-0.454074 0.25619 0.125195 60 106 44
-0.453642 0.258249 0.125259 55 108 44
-0.452433 0.259754 0.125707 53 109 43
-0.452002 0.261808 0.12577 52 113 47
-0.450029 0.262748 0.126597 55 122 54
-0.44731 0.263128 0.127794 68 138 64
-0.443875 0.262954 0.129347 95 168 86
-0.441966 0.263873 0.130146 100 174 100
-0.43934 0.264239 0.131302 114 159 87
-0.438921 0.266237 0.131364 122 134 69
-0.437774 0.267684 0.131787 110 102 57
-0.427459 0.26212 0.136769 78 74 56
-0.414423 0.254342 0.143112 59 59 61
-0.408346 0.251811 0.145999 52 55 51
-0.406722 0.252691 0.146673 48 54 42
-0.405109 0.253565 0.147342 45 53 36
-0.404114 0.254915 0.147703 46 49 35
-0.40373 0.256746 0.14776 48 47 35
-0.423921 0.174012 0.141823 59 65 43
-0.423533 0.175865 0.14188 70 75 56
-0.422498 0.177367 0.142254 98 122 79
-0.421467 0.178863 0.142626 137 202 104
-0.420439 0.180353 0.142997 146 214 108
-0.41878 0.181482 0.143678 147 213 104
-0.41903 0.183678 0.143424 146 214 104
-0.41801 0.185154 0.143793 148 213 104
-0.416365 0.186262 0.144469 150 214 105
-0.415355 0.187727 0.144833 151 218 106
-0.414349 0.189186 0.145197 157 222 110
-0.413967 0.191009 0.145253 154 216 112
-0.414831 0.19358 0.144697 131 193 100
-0.4157 0.196169 0.144136 106 166 80
-0.41721 0.199164 0.143259 104 168 79
-0.423934 0.205403 0.139806 116 178 85
-0.426192 0.208938 0.138554 111 171 82
-0.436079 0.217305 0.133529 111 171 82
-0.441386 0.222881 0.130763 111 167 79
-0.44389 0.226727 0.129379 109 165 76
-0.446433 0.230631 0.127975 106 165 76
-0.44826 0.234103 0.126923 105 165 78
-0.450108 0.237614 0.125859 106 165 78
-0.451209 0.240656 0.125164 100 156 73
-0.453092 0.244239 0.12408 77 129 58
-0.453438 0.24681 0.123758 77 134 60
-0.453785 0.249391 0.123435 84 145 65
-0.454134 0.251981 0.123111 89 147 68
-0.454483 0.254582 0.122785 87 141 66
-0.454051 0.256645 0.12285 77 137 62
-0.453618 0.258707 0.122914 72 133 58
-0.452407 0.260215 0.123367 76 133 57
-0.4512 0.261717 0.123819 82 139 61
-0.449998 0.263214 0.124269 89 149 68
-0.448036 0.264146 0.1251 96 160 74
-0.446089 0.265072 0.125925 102 172 82
-0.442663 0.264883 0.127492 108 170 81
-0.440759 0.265795 0.128298 118 166 77
-0.441817 0.268919 0.127618 122 163 75
-0.413689 0.25426 0.141327 95 147 88
-0.407624 0.25173 0.144243 107 136 77
-0.405388 0.25213 0.145233 110 119 67
-0.403782 0.253004 0.145906 95 94 61
-0.403398 0.254836 0.145963 68 69 62
-0.422941 0.17173 0.140325 62 66 52
-0.421909 0.173236 0.140701 73 81 62
-0.420881 0.174737 0.141075 106 132 83
-0.419856 0.176233 0.141449 137 200 104
-0.418835 0.177723 0.14182 148 217 109
-0.41845 0.17956 0.141878 151 216 109
-0.416803 0.180687 0.14256 152 220 108
-0.417679 0.183233 0.141992 153 219 108
-0.416036 0.184348 0.142674 156 223 109
-0.415026 0.185815 0.143042 157 225 111
-0.414021 0.187278 0.143409 164 225 116
-0.413638 0.189101 0.143466 159 222 116
-0.413877 0.191295 0.143213 141 203 103
-0.41537 0.194249 0.142336 122 180 88
-0.415613 0.196467 0.142079 113 178 88
-0.418401 0.200251 0.140553 121 189 94
-0.424521 0.206134 0.13736 120 180 86
-0.426791 0.209687 0.136087 113 172 83
-0.437441 0.218554 0.13062 111 170 83
-0.440615 0.222791 0.128887 110 167 83
-0.443114 0.226637 0.127489 109 166 81
-0.445651 0.230541 0.12607 109 169 81
-0.448226 0.234504 0.12463 110 169 81
-0.449316 0.237522 0.123933 106 163 75
-0.450415 0.240564 0.12323 100 156 71
-0.452293 0.244147 0.122135 77 132 59
-0.453414 0.247243 0.121419 74 135 60
-0.453762 0.24983 0.121091 84 145 66
-0.45333 0.251889 0.121155 90 147 68
-0.453678 0.25449 0.120826 83 131 59
-0.453246 0.256553 0.12089 63 99 31
-0.452813 0.258615 0.120954 48 103 33
-0.452381 0.260678 0.121019 52 112 42
-0.451172 0.262182 0.121476 60 121 50
-0.449967 0.26368 0.121931 69 134 61
-0.448768 0.265173 0.122385 77 147 70
-0.44681 0.266098 0.123223 83 156 79
-0.445624 0.267577 0.123672 88 159 78
-0.445196 0.269615 0.123735 97 163 78
-0.412955 0.254179 0.139543 117 178 88
-0.406284 0.251169 0.142802 126 175 85
-0.40467 0.25205 0.143486 129 172 87
-0.403066 0.252925 0.144165 126 171 94
-0.402682 0.254756 0.144222 118 170 102
-0.401694 0.256102 0.144588 110 152 94
-0.401311 0.25793 0.144645 115 138 82
-0.420683 0.168784 0.139472 64 68 45
-0.420297 0.170625 0.139529 84 89 62
-0.419275 0.172125 0.139904 119 147 89
-0.418889 0.173963 0.139962 142 207 110
-0.418504 0.1758 0.140019 150 219 111
-0.417487 0.177288 0.140393 154 220 109
-0.415847 0.178422 0.141079 155 223 110
-0.414218 0.179548 0.141761 155 224 110
-0.41508 0.182077 0.141194 155 227 110
-0.414075 0.183546 0.141563 158 229 113
-0.413692 0.18537 0.14162 172 231 118
-0.41331 0.187194 0.141677 156 214 113
-0.412928 0.189017 0.141734 132 192 99
-0.413165 0.191211 0.141479 119 178 88
-0.414654 0.194165 0.140592 116 179 87
-0.415526 0.196765 0.140015 119 190 90
-0.417677 0.200166 0.138792 126 195 94
-0.425779 0.207284 0.13456 116 177 84
-0.427395 0.210442 0.133601 113 172 83
-0.439537 0.22027 0.127314 111 170 83
-0.440568 0.223162 0.126644 111 168 82
-0.443071 0.227018 0.125227 112 168 83
-0.445612 0.230932 0.123788 113 169 84
-0.448193 0.234907 0.122327 113 167 82
-0.450047 0.238436 0.121233 107 163 78
-0.450385 0.240982 0.120908 103 157 74
-0.452267 0.244574 0.119797 81 135 62
-0.452611 0.247151 0.119466 76 137 61
-0.452958 0.249738 0.119134 85 148 67
-0.453305 0.252335 0.118801 92 149 68
-0.452873 0.254398 0.118866 83 132 58
-0.45244 0.256461 0.11893 70 107 40
-0.452008 0.258524 0.118994 60 108 41
-0.451575 0.260586 0.119059 56 108 41
-0.451143 0.262649 0.119123 51 109 40
-0.45071 0.264711 0.119187 48 113 41
-0.450278 0.266773 0.119252 47 119 46
-0.449073 0.268265 0.119713 52 122 49
-0.447873 0.269752 0.120171 58 126 52
-0.447442 0.271805 0.120236 66 130 54
-0.405563 0.251089 0.141048 96 158 76
-0.403951 0.25197 0.141738 102 168 84
-0.40235 0.252846 0.142424 108 178 94
-0.401966 0.254677 0.142481 115 190 103
-0.400979 0.256023 0.14285 122 189 100
-0.400596 0.257852 0.142907 134 186 98
-0.418448 0.165868 0.138627 63 75 51
-0.418695 0.168031 0.138365 89 107 65
-0.418311 0.169865 0.138422 127 163 92
-0.417296 0.171362 0.138798 148 210 111
-0.416912 0.173193 0.138856 152 222 109
-0.415901 0.174682 0.13923 156 224 107
-0.414272 0.175821 0.139918 158 225 108
-0.41327 0.177297 0.140289 158 226 109
-0.412273 0.178767 0.140659 157 228 110
-0.413126 0.181284 0.140089 160 230 114
-0.412744 0.183105 0.140146 172 231 122
-0.412363 0.184926 0.140203 146 202 109
-0.411981 0.186747 0.14026 114 170 84
-0.412217 0.188933 0.140002 106 166 79
-0.412453 0.191127 0.139744 112 177 86
-0.413938 0.19408 0.138849 118 185 89
-0.415438 0.197065 0.137944 128 191 93
-0.416954 0.200081 0.13703 122 179 88
-0.425039 0.207197 0.132757 113 173 84
-0.428002 0.211202 0.131097 111 172 84
-0.439488 0.220636 0.125072 111 171 84
-0.441248 0.223999 0.124019 110 171 84
-0.443766 0.227876 0.122577 111 171 85
-0.445574 0.231326 0.121497 112 171 86
-0.449679 0.236308 0.119235 112 168 85
-0.450016 0.23885 0.118906 108 163 81
-0.450355 0.241401 0.118576 105 157 75
-0.45224 0.245003 0.117449 85 140 65
-0.452585 0.247586 0.117113 77 138 60
-0.452932 0.250179 0.116776 86 147 63
-0.4525 0.252242 0.116841 92 149 66
-0.452067 0.254306 0.116905 81 134 59
-0.452414 0.256916 0.116567 63 118 53
-0.452762 0.259537 0.116228 54 116 49
-0.452328 0.261608 0.116292 53 118 50
-0.451893 0.263679 0.116357 52 122 50
-0.45068 0.265184 0.116825 51 124 50
-0.450247 0.26725 0.11689 52 124 49
-0.44904 0.268744 0.117356 59 122 47
-0.447838 0.270233 0.117821 65 121 46
-0.447406 0.272291 0.117885 66 119 46
-0.446975 0.274348 0.117949 65 117 47
-0.403233 0.251891 0.139991 68 133 59
-0.402847 0.253729 0.140048 74 139 64
-0.40125 0.254598 0.140739 81 145 69
-0.400866 0.25643 0.140797 88 149 71
-0.421569 0.275384 0.129805 99 154 75
-0.422521 0.278439 0.129153 112 162 81
-0.416235 0.162982 0.13779 66 77 51
-0.415853 0.164804 0.137847 97 124 66
-0.415471 0.166626 0.137904 132 177 93
-0.415089 0.168448 0.137961 151 213 111
-0.414087 0.169938 0.138335 154 224 111
-0.413705 0.171756 0.138392 155 226 110
-0.412707 0.173237 0.138765 157 228 109
-0.411712 0.174712 0.139136 159 228 110
-0.410111 0.175842 0.139819 160 228 110
-0.409732 0.177648 0.139876 164 229 113
-0.411185 0.180498 0.138992 173 235 120
-0.411418 0.182666 0.138733 139 187 106
-0.411037 0.184484 0.13879 97 145 74
-0.410656 0.186302 0.138847 79 138 61
-0.410889 0.188483 0.138588 95 162 78
-0.411741 0.191042 0.138009 115 183 92
-0.413222 0.193996 0.137105 122 185 91
-0.414718 0.19698 0.136191 121 184 93
-0.415595 0.199605 0.135596 116 176 85
-0.424298 0.20711 0.130954 113 177 85
-0.427255 0.211115 0.129277 114 178 86
-0.438717 0.220545 0.123194 113 176 85
-0.441201 0.224375 0.121754 111 174 84
-0.442984 0.227785 0.120675 111 173 84
-0.444788 0.231235 0.119584 112 172 85
-0.448884 0.236216 0.1173 109 168 84
-0.44922 0.238758 0.116968 105 163 80
-0.450324 0.241822 0.116234 102 156 74
-0.452213 0.245434 0.115092 89 146 69
-0.452559 0.248023 0.114751 79 139 61
-0.452127 0.250087 0.114815 83 144 62
-0.451694 0.25215 0.11488 88 146 64
-0.45204 0.254757 0.114538 79 134 58
-0.452387 0.257374 0.114195 58 117 52
-0.451953 0.259445 0.114259 42 112 40
-0.451519 0.261516 0.114324 40 117 44
-0.451084 0.263587 0.114389 46 122 50
-0.45065 0.265658 0.114454 53 126 52
-0.44944 0.267159 0.114926 60 128 53
-0.449007 0.269225 0.11499 75 127 56
-0.447802 0.270716 0.115461 74 104 46
-0.446602 0.2722 0.115929 69 101 49
-0.445407 0.273679 0.116395 64 105 54
-0.444976 0.275733 0.116459 62 112 56
-0.44303 0.276619 0.117323 58 116 55
-0.436661 0.274051 0.12052 59 117 54
-0.431905 0.272674 0.122871 63 120 52
-0.42176 0.266993 0.128073 66 121 49
-0.416681 0.265217 0.130605 68 120 48
-0.416279 0.267133 0.130665 66 118 48
-0.420541 0.272812 0.128255 66 119 50
-0.420809 0.2753 0.127958 71 121 52
-0.421079 0.277798 0.12766 79 125 55
-0.422714 0.281432 0.126635 90 132 62
-0.42786 0.288012 0.123744 109 137 75
-0.412203 0.159186 0.13791 66 83 54
-0.411825 0.16099 0.137967 102 144 73
-0.412058 0.163112 0.137708 138 194 98
-0.411679 0.164919 0.137765 152 217 110
-0.410691 0.166402 0.138136 156 224 111
-0.409706 0.167879 0.138507 157 226 112
-0.408724 0.169352 0.138875 157 228 112
-0.408348 0.171149 0.138932 157 230 111
-0.407971 0.172946 0.138988 159 230 111
-0.408196 0.17508 0.138732 169 232 116
-0.409028 0.177563 0.138161 169 234 122
-0.409866 0.180064 0.137586 143 185 99
-0.410097 0.182228 0.137325 101 142 71
-0.409717 0.184043 0.137382 70 122 54
-0.409947 0.186217 0.137121 71 132 57
-0.409566 0.188035 0.137177 96 162 77
-0.411028 0.190958 0.136274 118 187 93
-0.412506 0.193911 0.13536 121 190 92
-0.412744 0.196129 0.135092 112 179 85
-0.414872 0.19952 0.133836 112 177 87
-0.423557 0.207023 0.12915 111 179 86
-0.424491 0.209759 0.128512 112 179 84
-0.437946 0.220455 0.121317 113 178 84
-0.442623 0.225692 0.11871 113 177 82
-0.442203 0.227694 0.118773 112 174 83
-0.444002 0.231143 0.117671 110 172 83
-0.448851 0.236625 0.114965 107 169 81
-0.449187 0.239173 0.114627 104 163 77
-0.450294 0.242245 0.113884 103 158 76
-0.451409 0.245341 0.113134 95 152 75
-0.451753 0.24793 0.11279 82 141 64
-0.451321 0.249994 0.112854 79 140 62
-0.450888 0.252058 0.112919 84 145 64
-0.451232 0.254665 0.112573 80 137 58
-0.451578 0.257282 0.112226 63 117 51
-0.451144 0.259353 0.112291 43 108 32
-0.45071 0.261424 0.112356 36 112 37
-0.450275 0.263495 0.112421 41 118 42
-0.449841 0.265566 0.112485 50 122 45
-0.448632 0.267067 0.112961 58 125 51
-0.448199 0.269134 0.113026 83 124 61
-0.446996 0.270625 0.1135 74 77 42
-0.445798 0.27211 0.113972 60 68 41
-0.444604 0.273589 0.114443 54 74 46
-0.442659 0.274484 0.115314 56 84 51
-0.436295 0.271949 0.118542 58 91 53
-0.432976 0.27171 0.120151 64 89 52
-0.429707 0.271475 0.121736 69 96 50
-0.424411 0.269602 0.124406 73 101 48
-0.421271 0.269387 0.125928 74 104 49
-0.420189 0.270788 0.12635 65 107 52
-0.420457 0.273273 0.126049 62 113 57
-0.420049 0.275217 0.12611 65 121 60
-0.420995 0.278271 0.125445 73 129 64
-0.422634 0.281915 0.124406 86 136 70
-0.426381 0.287342 0.122233 92 119 70
-0.410057 0.156377 0.137089 69 87 60
-0.40968 0.158172 0.137146 108 159 82
-0.409304 0.159967 0.137202 140 204 102
-0.408928 0.161762 0.137258 154 220 110
-0.408552 0.163557 0.137314 157 226 111
-0.407575 0.165032 0.137684 158 228 112
-0.406602 0.166502 0.138053 159 228 112
-0.406227 0.16829 0.138109 158 229 112
-0.405853 0.170079 0.138165 159 232 114
-0.406073 0.172197 0.137909 167 233 117
-0.406295 0.174323 0.137652 161 226 117
-0.407118 0.176796 0.137079 136 179 97
-0.408552 0.179632 0.136184 108 150 76
-0.409389 0.182144 0.135601 85 136 61
-0.409009 0.183959 0.135658 64 121 51
