ply
format ascii 1.0
element vertex 1256
property float x
property float y
property float z
property uchar diffuse_red
property uchar diffuse_green
property uchar diffuse_blue
end_header
-0.416697 0.123595 0.225067 42 109 34
-0.416348 0.125244 0.225116 42 114 42
-0.415998 0.126894 0.225164 45 119 43
-0.415649 0.128543 0.225212 48 124 47
-0.4153 0.130191 0.22526 55 129 49
-0.41495 0.13184 0.225308 72 150 59
-0.414601 0.133489 0.225357 111 199 97
-0.413688 0.13489 0.225557 146 196 113
-0.413339 0.136536 0.225605 161 168 87
-0.41243 0.13793 0.225804 123 115 80
-0.411523 0.13932 0.226003 87 90 83
-0.410065 0.140451 0.226351 77 89 81
-0.409719 0.142086 0.226398 78 91 77
-0.410481 0.14424 0.226147 79 93 72
-0.392887 0.144603 0.230682 92 98 55
-0.391549 0.145668 0.231 95 99 57
-0.391219 0.147229 0.231046 99 101 58
-0.390888 0.148791 0.231091 104 103 59
-0.390557 0.150352 0.231137 107 102 60
-0.390226 0.151913 0.231183 106 97 60
-0.389895 0.153474 0.231228 90 80 59
-0.406295 0.0836668 0.227123 68 62 47
-0.405961 0.0852423 0.22717 69 62 46
-0.406154 0.0869821 0.227073 66 63 48
-0.406347 0.088727 0.226976 66 63 53
-0.406012 0.0903069 0.227023 66 66 51
-0.405151 0.0917147 0.227212 73 88 48
-0.40377 0.0929449 0.227542 74 102 49
-0.401879 0.0939935 0.228011 70 103 49
-0.398477 0.0945113 0.228891 69 104 49
-0.396635 0.0955391 0.229348 68 107 48
-0.394312 0.0963835 0.229936 68 108 49
-0.393491 0.097743 0.230115 69 111 50
-0.392674 0.0990985 0.230294 78 122 55
-0.392349 0.100629 0.230339 105 154 75
-0.392025 0.10216 0.230384 115 160 81
-0.392685 0.10406 0.23016 90 131 65
-0.41676 0.120215 0.22341 59 112 43
-0.41641 0.121864 0.223458 49 108 35
-0.416629 0.123744 0.223351 41 106 34
-0.417419 0.125863 0.223088 37 109 32
-0.417068 0.12752 0.223136 37 113 34
-0.416717 0.129177 0.223185 41 115 38
-0.415796 0.130592 0.223389 45 120 41
-0.415446 0.132246 0.223438 54 128 48
-0.414529 0.133654 0.223642 65 143 57
-0.413615 0.135057 0.223845 87 168 76
-0.413265 0.136706 0.223893 112 202 103
-0.412355 0.138102 0.224095 124 225 118
-0.412006 0.139747 0.224143 133 223 116
-0.410542 0.140881 0.224498 140 211 110
-0.410194 0.142521 0.224546 142 198 102
-0.41096 0.144684 0.224288 144 192 93
-0.41513 0.148474 0.223093 146 188 86
-0.395847 0.146293 0.228215 152 176 78
-0.392454 0.146347 0.229105 151 173 79
-0.391618 0.147661 0.22929 154 171 82
-0.390784 0.148972 0.229475 153 172 85
-0.390453 0.150535 0.22952 151 172 88
-0.389622 0.151839 0.229704 149 170 92
-0.38979 0.153663 0.229612 128 138 89
-0.405688 0.0835862 0.225634 67 63 50
-0.405354 0.0851619 0.22568 69 62 46
-0.405545 0.0869017 0.225581 66 63 48
-0.405737 0.0886467 0.225482 64 63 51
-0.40593 0.0903967 0.225383 65 63 51
-0.405595 0.091979 0.225429 73 90 50
-0.404208 0.0932122 0.225766 74 106 52
-0.40231 0.0942629 0.226244 71 107 50
-0.399404 0.0949542 0.227002 70 107 49
-0.397045 0.0958097 0.227608 69 110 50
-0.393719 0.0963063 0.228483 71 113 51
-0.393394 0.0978419 0.228528 72 116 51
-0.392575 0.0991993 0.22871 77 124 56
-0.391758 0.100553 0.228891 106 159 77
-0.391925 0.102266 0.2288 115 164 81
-0.392092 0.103983 0.228708 85 131 63
-0.417261 0.120583 0.221533 69 120 50
-0.41691 0.122238 0.221581 59 114 44
-0.41713 0.124124 0.221471 47 107 38
-0.417925 0.126251 0.221201 35 103 33
-0.417572 0.127913 0.22125 32 105 31
-0.41722 0.129575 0.221298 29 109 35
-0.416296 0.130994 0.221507 33 111 37
-0.415375 0.132409 0.221714 39 117 39
-0.415024 0.134066 0.221763 46 124 47
-0.414106 0.135473 0.221969 58 132 55
-0.413191 0.136876 0.222175 79 146 61
-0.412279 0.138274 0.222381 99 156 68
-0.41193 0.139922 0.222429 114 162 73
-0.411021 0.141313 0.222634 123 168 76
-0.410672 0.142959 0.222682 129 171 78
-0.4137 0.146191 0.221785 134 175 79
-0.415632 0.148938 0.221194 138 179 81
-0.417008 0.15144 0.220759 137 182 84
-0.416652 0.153119 0.220808 136 183 86
-0.415143 0.154233 0.22118 135 186 86
-0.395235 0.146217 0.226716 132 189 87
-0.391847 0.146272 0.22762 131 191 89
-0.391515 0.147841 0.227666 131 193 93
-0.39068 0.149153 0.227853 130 197 96
-0.389848 0.150461 0.22804 129 194 97
-0.389516 0.152025 0.228085 129 196 100
-0.389185 0.153589 0.228131 126 177 94
-0.404556 0.0833467 0.22429 67 63 51
-0.404223 0.0849201 0.224336 67 62 48
-0.404412 0.0866572 0.224236 65 64 48
-0.405128 0.0885663 0.223988 64 63 47
-0.404793 0.0901465 0.224034 65 63 50
-0.404459 0.0917265 0.22408 73 90 51
-0.4036 0.0931323 0.224274 79 109 54
-0.402223 0.0943585 0.224613 79 113 52
-0.399314 0.0950502 0.225384 76 115 51
-0.397457 0.0960819 0.225859 75 118 53
-0.393622 0.0964032 0.226891 77 120 54
-0.392801 0.0977649 0.227075 77 123 54
-0.391983 0.0991225 0.227259 81 130 60
-0.391658 0.100656 0.227304 110 164 81
-0.391333 0.102189 0.227349 115 166 82
-0.3915 0.103907 0.227256 79 127 61
-0.418339 0.121181 0.219481 82 135 60
-0.417413 0.122614 0.219692 76 130 58
-0.417635 0.124506 0.219579 61 117 48
-0.417857 0.126405 0.219465 45 103 39
-0.41808 0.128309 0.219351 27 99 31
-0.418304 0.130219 0.219236 29 108 30
-0.41795 0.131889 0.219285 44 110 36
-0.416446 0.133065 0.21966 57 120 45
-0.415522 0.13448 0.219872 65 133 54
-0.4146 0.135891 0.220082 76 147 65
-0.413682 0.137298 0.220292 93 169 80
-0.412766 0.1387 0.220501 105 184 90
-0.412416 0.140354 0.220549 115 190 95
-0.412065 0.142008 0.220598 122 192 96
-0.413409 0.14445 0.220164 128 192 94
-0.41534 0.147186 0.219563 130 190 90
-0.416714 0.14968 0.219119 131 189 88
-0.416359 0.151359 0.219169 130 188 89
-0.415426 0.152758 0.219382 129 186 87
-0.414496 0.154153 0.219596 127 184 84
-0.407392 0.152478 0.221572 122 182 83
-0.394287 0.147725 0.225264 117 177 81
-0.391411 0.148021 0.226036 112 175 82
-0.390576 0.149335 0.226226 104 174 82
-0.390243 0.150904 0.226272 94 166 79
-0.38941 0.152211 0.226461 84 152 69
-0.389078 0.153778 0.226507 85 154 67
-0.40395 0.0832662 0.222802 69 62 48
-0.403616 0.0848398 0.222848 68 63 52
-0.403805 0.0865769 0.222745 65 61 45
-0.403994 0.088319 0.222643 66 62 44
-0.404184 0.0900662 0.222539 66 64 49
-0.403849 0.0916464 0.222586 75 91 52
-0.403514 0.0932265 0.222632 85 115 57
-0.401617 0.094279 0.223125 86 120 56
-0.399736 0.095322 0.223614 83 122 55
-0.397363 0.0961794 0.224244 82 126 57
-0.393028 0.0963258 0.225436 84 129 58
-0.392209 0.0976878 0.225622 84 131 59
-0.391883 0.0992236 0.225667 88 139 66
-0.391067 0.100579 0.225853 118 173 86
-0.390742 0.102112 0.225898 116 164 82
-0.390907 0.10383 0.225803 75 120 58
-0.418272 0.121326 0.217742 86 140 64
-0.41792 0.122992 0.217791 84 138 64
-0.418143 0.124891 0.217674 76 130 59
-0.419526 0.127273 0.217223 66 120 52
-0.419171 0.128949 0.217272 50 110 44
-0.419981 0.131115 0.216986 53 110 40
-0.419625 0.132796 0.217035 66 123 48
-0.418686 0.134226 0.217253 76 133 56
-0.417751 0.135651 0.217469 79 141 62
-0.416819 0.137072 0.217685 95 166 79
-0.416465 0.138744 0.217734 99 176 88
-0.41611 0.140417 0.217784 96 180 90
-0.415756 0.142089 0.217833 93 179 90
-0.416554 0.144292 0.217548 91 175 88
-0.417939 0.146781 0.217094 87 169 87
-0.41875 0.149017 0.216805 84 164 83
-0.418392 0.150708 0.216854 79 157 78
-0.41745 0.152117 0.217073 73 149 71
-0.415931 0.153239 0.21746 70 143 66
-0.414422 0.154355 0.217844 71 138 61
-0.414067 0.156031 0.217893 70 136 57
-0.407513 0.154596 0.219744 71 133 52
-0.393339 0.149232 0.223811 69 131 54
-0.390974 0.149776 0.224448 66 131 53
-0.389636 0.150829 0.224786 63 131 49
-0.389304 0.152398 0.224832 63 134 49
-0.403343 0.0831858 0.221313 70 62 46
-0.403009 0.0847595 0.22136 70 63 50
-0.403197 0.0864966 0.221255 69 60 40
-0.403385 0.0882387 0.22115 69 62 46
-0.403574 0.0899859 0.221044 67 65 52
-0.40324 0.0915663 0.221091 79 102 58
-0.402905 0.0931465 0.221137 86 124 61
-0.40101 0.0941995 0.221637 87 128 60
-0.399645 0.095419 0.221983 88 131 61
-0.39727 0.0962772 0.222624 89 135 62
-0.392434 0.0962485 0.22398 90 137 61
-0.391616 0.0976107 0.224169 89 138 62
-0.39129 0.0991466 0.224214 96 149 70
-0.390475 0.100502 0.224402 124 180 88
-0.39015 0.102036 0.224447 120 165 82
-0.390314 0.103754 0.22435 79 118 56
-0.418205 0.121472 0.215997 82 137 62
-0.417852 0.12314 0.216046 85 138 65
-0.419234 0.125514 0.215588 82 135 66
-0.418879 0.12719 0.215637 76 131 61
-0.419688 0.129351 0.215345 70 126 58
-0.419916 0.131278 0.215223 61 123 54
-0.419559 0.132962 0.215273 49 108 47
-0.419202 0.134646 0.215322 52 111 43
-0.418263 0.136075 0.215543 54 112 42
-0.417907 0.137756 0.215592 67 119 46
-0.417551 0.139437 0.215642 69 119 47
-0.417776 0.141379 0.21552 64 120 47
-0.417419 0.143063 0.21557 61 121 47
-0.418228 0.145283 0.215277 59 123 49
-0.418455 0.147245 0.215154 56 123 50
-0.418682 0.149212 0.215031 54 124 49
-0.418324 0.150905 0.215081 54 124 46
-0.41738 0.152317 0.215303 52 122 44
-0.41644 0.153723 0.215525 49 123 46
-0.414924 0.154841 0.215916 50 122 48
-0.413992 0.156236 0.216136 50 124 49
-0.411922 0.157054 0.216692 55 122 48
-0.397905 0.151787 0.22078 57 121 48
-0.391375 0.150219 0.222658 57 120 50
-0.390032 0.151275 0.223003 60 119 50
-0.389197 0.152586 0.223198 72 122 55
-0.402736 0.0831053 0.219825 72 60 44
-0.402403 0.0846792 0.219871 69 59 46
-0.403111 0.0865801 0.21961 69 62 45
-0.402777 0.0881584 0.219657 67 63 47
-0.402965 0.0899057 0.219549 66 68 54
-0.40263 0.0914861 0.219596 83 115 64
-0.401774 0.0928927 0.219796 90 134 65
-0.400403 0.09412 0.220149 91 137 63
-0.39904 0.0953398 0.220499 93 140 65
-0.396668 0.0961987 0.221149 93 141 66
-0.391841 0.0961711 0.222525 93 142 63
-0.391023 0.0975336 0.222716 94 144 65
-0.390207 0.0988919 0.222906 104 157 73
-0.389883 0.100426 0.222951 129 185 90
-0.389558 0.101959 0.222996 122 166 82
-0.389722 0.103677 0.222896 86 128 60
-0.418137 0.121618 0.214247 76 132 59
-0.417783 0.123289 0.214296 83 135 63
-0.418586 0.125431 0.214001 85 137 66
-0.419394 0.127587 0.213704 82 135 62
-0.419622 0.129512 0.21358 79 133 59
-0.419265 0.131196 0.213629 66 123 54
-0.419493 0.133129 0.213505 42 98 35
-0.419135 0.134816 0.213554 36 101 30
-0.418778 0.136502 0.213604 45 107 37
-0.418421 0.138188 0.213654 57 111 40
-0.418648 0.140136 0.213529 60 114 45
-0.418876 0.142089 0.213404 61 119 46
-0.418517 0.143781 0.213453 63 124 48
-0.419333 0.146015 0.213152 62 126 50
-0.420154 0.148263 0.212849 69 129 52
-0.419794 0.149965 0.212899 73 135 59
-0.418843 0.151385 0.213126 73 128 58
-0.41731 0.152517 0.213527 73 118 53
-0.416368 0.153926 0.213752 69 118 55
-0.415429 0.15533 0.213976 65 117 57
-0.413917 0.156442 0.214373 66 111 59
-0.412415 0.157548 0.214767 67 109 62
-0.409228 0.157784 0.215667 67 106 61
-0.394341 0.151981 0.220088 65 102 61
-0.39043 0.151722 0.22121 65 100 62
-0.389592 0.153037 0.221408 68 95 63
-0.388256 0.154082 0.221756 70 79 57
-0.387923 0.155654 0.221802 70 66 46
-0.38759 0.157225 0.221849 66 61 40
-0.387756 0.159067 0.221744 61 62 40
-0.388927 0.161468 0.221337 57 61 41
-0.391638 0.16474 0.220463 56 56 42
-0.402129 0.0830248 0.218336 68 62 50
-0.402837 0.0849211 0.21807 66 62 47
-0.403025 0.0866638 0.217961 65 66 50
-0.40269 0.0882446 0.218007 65 65 46
-0.402355 0.0898254 0.218054 66 72 54
-0.40202 0.091406 0.2181 87 126 67
-0.401165 0.0928129 0.218303 96 141 67
-0.399796 0.0940405 0.21866 96 142 66
-0.398434 0.0952607 0.219015 96 143 66
-0.396067 0.0961201 0.219673 95 144 67
-0.391247 0.0960937 0.221069 95 145 66
-0.39043 0.0974564 0.221262 97 149 69
-0.389615 0.0988151 0.221454 110 162 76
-0.38929 0.100349 0.2215 129 185 91
-0.388966 0.101883 0.221545 119 168 84
-0.419004 0.120319 0.212266 64 121 53
-0.417492 0.121536 0.212664 67 125 56
-0.417138 0.123207 0.212714 75 129 61
-0.417939 0.125349 0.212414 81 134 63
-0.418744 0.127504 0.212112 83 135 63
-0.418971 0.129429 0.211985 84 134 60
-0.419198 0.13136 0.211858 79 127 57
-0.419426 0.133297 0.21173 58 106 44
-0.419068 0.134986 0.21178 52 109 42
-0.419297 0.136932 0.211652 49 111 47
-0.418938 0.138624 0.211702 49 110 48
-0.419755 0.140842 0.211395 47 114 47
-0.420578 0.143074 0.211086 51 117 47
-0.420217 0.144776 0.211136 53 122 47
-0.420449 0.146753 0.211006 53 125 51
-0.420682 0.148736 0.210876 67 144 66
-0.42032 0.150443 0.210926 97 165 87
-0.419366 0.151867 0.211157 118 161 85
-0.417826 0.153002 0.211566 103 114 69
-0.41688 0.154414 0.211795 74 67 59
-0.415356 0.155535 0.212201 65 66 49
-0.413842 0.156649 0.212603 65 64 47
-0.412337 0.157755 0.213004 63 62 47
-0.411411 0.159144 0.213228 65 62 49
-0.410487 0.160529 0.213451 62 62 45
-0.393386 0.153501 0.218623 63 66 46
-0.389989 0.153491 0.219606 64 66 51
-0.389151 0.154805 0.219807 67 62 45
-0.388314 0.156114 0.220008 67 60 43
-0.38798 0.15769 0.220054 64 60 41
-0.38865 0.159813 0.219793 61 60 41
-0.391871 0.163353 0.218748 58 60 43
-0.393597 0.166098 0.218161 57 59 42
-0.393257 0.167705 0.218209 56 59 41
-0.401522 0.0829443 0.216846 69 65 52
-0.402228 0.0848404 0.216577 69 63 47
-0.402415 0.0865832 0.216465 65 65 49
-0.40208 0.0881642 0.216511 66 65 49
-0.401745 0.0897451 0.216558 69 78 57
-0.40089 0.0911547 0.216763 92 129 70
-0.399522 0.0923875 0.217125 100 142 70
-0.399189 0.0939609 0.217171 99 143 70
-0.397829 0.0951815 0.217531 97 144 69
-0.395465 0.0960416 0.218198 96 146 69
-0.390653 0.0960163 0.219613 95 148 69
-0.389837 0.0973793 0.219808 99 153 72
-0.388536 0.0985612 0.220151 116 168 79
-0.388212 0.100093 0.220197 128 184 92
-0.388373 0.101806 0.220093 115 167 86
-0.418356 0.120235 0.210678 71 122 55
-0.416846 0.121453 0.211082 63 118 53
-0.416492 0.123124 0.211131 66 120 55
-0.417291 0.125266 0.210827 72 126 59
-0.418095 0.127421 0.21052 77 132 62
-0.418904 0.12959 0.210211 84 135 62
-0.419131 0.131524 0.210081 86 134 64
-0.418773 0.133214 0.210131 71 118 55
-0.419001 0.135157 0.21 64 113 50
-0.419229 0.137106 0.209869 55 107 45
-0.420049 0.139323 0.209556 46 104 39
-0.42028 0.141288 0.209424 39 108 36
-0.421703 0.1438 0.208923 38 114 38
-0.42314 0.146336 0.208418 42 119 42
-0.422776 0.148055 0.208468 44 122 48
-0.422412 0.149774 0.208519 54 132 54
-0.422048 0.151492 0.20857 76 152 68
-0.419298 0.152068 0.209359 105 186 89
-0.418345 0.15349 0.209593 134 187 96
-0.416809 0.154619 0.210007 145 148 85
-0.415283 0.155741 0.210419 115 107 76
-0.414344 0.157145 0.210649 76 66 71
-0.412833 0.158253 0.211057 64 65 68
-0.411903 0.159646 0.211285 59 68 67
-0.412119 0.161623 0.211156 61 67 64
-0.395539 0.156654 0.216192 69 73 53
-0.392606 0.156888 0.217046 72 73 48
-0.390733 0.157663 0.217571 74 72 45
-0.390396 0.159253 0.217618 77 73 44
-0.393137 0.162526 0.216705 77 74 48
-0.394356 0.16499 0.216267 77 75 50
-0.394536 0.166893 0.216151 74 74 46
-0.394194 0.168507 0.216199 72 70 45
-0.393853 0.170121 0.216246 74 65 46
-0.401433 0.0830221 0.215197 66 66 54
-0.40214 0.0849214 0.214922 64 63 52
-0.401805 0.0865026 0.214969 65 64 47
-0.401991 0.0882505 0.214854 68 65 48
-0.401656 0.0898339 0.214901 73 85 56
-0.400281 0.0910746 0.215269 96 132 69
-0.398915 0.0923078 0.215636 105 145 72
-0.397046 0.0933604 0.216158 102 145 72
-0.395193 0.0944036 0.216676 99 145 71
-0.389895 0.0942289 0.218263 97 147 69
-0.389569 0.0957656 0.218308 96 150 70
-0.389244 0.0973021 0.218354 99 155 73
-0.387945 0.0984844 0.218701 118 169 79
-0.38762 0.100016 0.218747 128 183 92
-0.387781 0.101729 0.218641 115 169 88
-0.419226 0.118927 0.208679 101 156 75
-0.417708 0.120152 0.20909 86 135 65
-0.4162 0.12137 0.209499 71 119 54
-0.415846 0.123042 0.209549 63 114 50
-0.416643 0.125183 0.209239 64 118 53
-0.417445 0.127338 0.208927 70 125 58
-0.418252 0.129507 0.208614 79 132 60
-0.418478 0.131441 0.208481 85 136 63
-0.418705 0.133382 0.208348 76 127 59
-0.418933 0.135329 0.208214 69 118 52
-0.419751 0.13754 0.207896 60 110 46
-0.419982 0.139503 0.207761 49 106 38
-0.421404 0.142006 0.207252 38 104 35
-0.42284 0.144533 0.206739 34 107 31
-0.423683 0.146806 0.206411 32 112 33
-0.423318 0.148531 0.206462 38 117 39
-0.422349 0.149973 0.206702 42 121 46
-0.421984 0.151694 0.206753 52 129 52
-0.421019 0.153128 0.206993 70 148 61
-0.418276 0.153694 0.207792 95 170 78
-0.417325 0.155112 0.208028 115 190 99
-0.415792 0.156237 0.208448 119 200 108
-0.414269 0.157354 0.208865 123 204 108
-0.413332 0.158755 0.209097 133 201 104
-0.412974 0.160445 0.209147 138 194 96
-0.412616 0.162136 0.209197 140 183 88
-0.403325 0.164678 0.211884 159 158 73
-0.400795 0.165149 0.212623 154 152 77
-0.397762 0.165322 0.213522 145 145 78
-0.396886 0.166658 0.213739 135 134 73
-0.395484 0.167695 0.214122 124 126 70
-0.394615 0.169021 0.214337 115 118 72
-0.393749 0.170342 0.214551 105 111 78
-0.392885 0.17166 0.214764 86 87 75
-0.401344 0.0831001 0.213542 64 64 47
-0.40153 0.0848407 0.213426 65 64 49
-0.401716 0.0865863 0.213309 68 65 46
-0.401381 0.08817 0.213356 72 66 46
-0.401045 0.0897535 0.213402 79 89 55
-0.399672 0.0909945 0.213776 98 135 69
-0.398307 0.0922281 0.214146 107 147 72
-0.396441 0.0932812 0.214675 104 148 71
-0.394088 0.0941515 0.215358 100 147 70
-0.389301 0.0941515 0.216808 99 148 68
-0.388488 0.0955155 0.217007 99 150 70
-0.387193 0.0967015 0.217359 100 154 73
-0.386869 0.0982314 0.217404 118 169 78
-0.386545 0.0997612 0.217449 127 184 93
-0.421278 0.118061 0.206294 114 170 81
-0.417995 0.118617 0.20727 113 171 83
-0.41706 0.120069 0.207502 103 154 76
-0.415554 0.121287 0.207917 85 133 63
-0.4152 0.122959 0.207966 68 116 53
-0.415995 0.1251 0.207651 62 112 50
-0.416795 0.127255 0.207334 64 117 51
-0.417599 0.129424 0.207016 72 126 56
-0.417825 0.131358 0.20688 80 133 62
-0.418051 0.133299 0.206745 78 131 59
-0.418865 0.135501 0.206422 74 124 54
-0.419684 0.137716 0.206097 71 119 50
-0.419915 0.139682 0.205959 62 114 46
-0.421938 0.14246 0.205251 46 105 40
-0.423381 0.144998 0.204726 37 99 31
-0.423621 0.147001 0.204584 29 102 27
-0.423255 0.148729 0.204635 32 107 28
-0.422889 0.150457 0.204686 33 112 36
-0.42192 0.151897 0.20493 40 117 42
-0.420954 0.153333 0.205173 52 124 48
-0.41999 0.154764 0.205415 67 138 58
-0.417254 0.155319 0.206225 85 156 68
-0.416304 0.156735 0.206464 105 169 72
-0.414775 0.157854 0.206888 119 177 75
-0.413255 0.158966 0.20731 125 174 76
-0.412319 0.160365 0.207545 129 174 78
-0.411961 0.162055 0.207595 128 174 80
-0.421039 0.168669 0.204617 129 177 80
-0.421277 0.170723 0.204473 130 179 81
-0.418136 0.172905 0.20535 131 188 86
-0.409031 0.169887 0.208212 132 192 92
-0.400352 0.16701 0.210941 133 198 100
-0.397318 0.167169 0.211855 135 205 106
-0.395911 0.168208 0.212245 134 210 110
-0.394513 0.169241 0.212633 137 213 111
-0.393645 0.170564 0.21285 145 213 108
-0.393302 0.172183 0.212898 140 165 94
-0.401776 0.0833378 0.211716 64 62 44
-0.40144 0.0849217 0.211763 67 64 50
-0.401105 0.0865056 0.21181 70 63 48
-0.400769 0.0880894 0.211857 73 68 50
-0.400434 0.089673 0.211904 85 93 56
-0.39958 0.0910852 0.212116 99 136 69
-0.3977 0.0921484 0.212657 107 146 71
-0.396345 0.0933749 0.21303 106 147 70
-0.393487 0.0940729 0.213884 101 148 69
-0.388708 0.094074 0.215353 99 147 68
-0.387411 0.0952661 0.21571 100 149 70
-0.386121 0.0964513 0.216064 101 153 73
-0.385797 0.0979791 0.21611 121 170 80
-0.419807 0.115837 0.205018 116 171 85
-0.419449 0.117525 0.205068 120 177 86
-0.416768 0.118308 0.205865 121 178 87
-0.415263 0.119532 0.206284 115 170 83
-0.413767 0.120748 0.206701 97 152 74
-0.413414 0.122415 0.20675 77 128 62
-0.414773 0.124782 0.206248 66 115 54
-0.416144 0.127172 0.205741 62 112 48
-0.416367 0.129097 0.205605 65 119 54
-0.417172 0.131275 0.20528 72 128 60
-0.417397 0.133216 0.205142 78 131 59
-0.418797 0.135673 0.204624 78 130 58
-0.419617 0.137893 0.204293 82 133 60
-0.420443 0.140127 0.20396 78 129 57
-0.422475 0.142917 0.203236 64 117 50
-0.423319 0.145189 0.202896 52 102 37
-0.423559 0.147196 0.20275 35 97 28
-0.423801 0.14921 0.202605 35 104 30
-0.423434 0.150943 0.202656 45 112 40
-0.423066 0.152677 0.202707 54 122 47
-0.422093 0.154119 0.202955 63 134 55
-0.420522 0.155263 0.203398 76 151 67
-0.419558 0.156694 0.203644 93 167 78
-0.418003 0.157824 0.204082 107 179 86
-0.416458 0.158947 0.204517 116 184 89
-0.416096 0.160657 0.204568 122 185 90
-0.4181 0.163579 0.203847 125 186 89
-0.419529 0.166228 0.203314 128 190 89
-0.420973 0.168903 0.202775 132 191 87
-0.420605 0.170641 0.202827 133 190 88
-0.419633 0.172057 0.203075 134 191 87
-0.416872 0.172503 0.203908 136 191 89
-0.408378 0.169808 0.206616 136 191 90
-0.401345 0.167828 0.208849 136 193 91
-0.398827 0.168279 0.209607 132 192 90
-0.39634 0.168725 0.210356 128 189 90
-0.395465 0.170057 0.210578 119 182 87
-0.393541 0.170787 0.211143 102 168 78
-0.392675 0.172108 0.211363 103 168 77
-0.401686 0.0834165 0.210048 65 63 50
-0.40135 0.085003 0.210095 66 63 53
-0.401015 0.0865894 0.210142 68 64 49
-0.400679 0.0881757 0.210189 66 66 50
-0.399823 0.0895925 0.210405 86 98 59
-0.39897 0.091005 0.21062 100 136 70
-0.397092 0.0920687 0.211167 106 145 71
-0.395739 0.0932955 0.211544 105 146 71
-0.392886 0.0939943 0.212409 102 147 70
-0.388114 0.0939965 0.213898 99 146 70
-0.386819 0.095189 0.214259 100 149 71
-0.38362 0.0956865 0.215239 101 152 74
-0.383298 0.0972057 0.215284 121 171 82
-0.417408 0.115089 0.203988 122 179 88
-0.415325 0.116104 0.204601 124 183 89
-0.413829 0.117332 0.205023 123 182 88
-0.412908 0.118775 0.205258 118 175 87
-0.412556 0.120439 0.205307 107 163 83
-0.41277 0.122332 0.205172 88 143 71
-0.413554 0.124465 0.204849 75 125 59
-0.414918 0.12685 0.204337 66 116 52
-0.415138 0.128772 0.204198 62 115 51
-0.416518 0.131192 0.203679 64 121 54
-0.417326 0.133384 0.203347 74 127 58
-0.418728 0.135846 0.20282 79 133 60
-0.419549 0.13807 0.202482 85 141 66
-0.421573 0.140842 0.20175 86 138 63
-0.422412 0.143104 0.201406 78 131 58
-0.423256 0.145381 0.201059 68 120 48
-0.423497 0.147392 0.200911 56 112 41
-0.423739 0.14941 0.200762 59 117 44
-0.423371 0.151146 0.200813 66 125 50
-0.423003 0.152882 0.200865 71 135 55
-0.422636 0.154619 0.200916 74 145 64
-0.421662 0.15606 0.201168 84 162 78
-0.420691 0.157496 0.201418 91 175 88
-0.420325 0.159226 0.20147 93 179 91
-0.419358 0.160655 0.201719 96 178 92
-0.418992 0.162382 0.201771 96 177 92
-0.421036 0.165344 0.201025 94 174 88
-0.422494 0.168028 0.200472 93 171 86
-0.421514 0.169456 0.200726 91 168 82
-0.419932 0.170558 0.201179 88 164 82
-0.418961 0.171974 0.201431 86 159 79
-0.416204 0.172421 0.202275 84 154 76
-0.411158 0.171597 0.20388 80 150 72
-0.404005 0.169564 0.206186 77 147 69
-0.399811 0.169101 0.207512 75 143 65
-0.396239 0.168946 0.208632 75 139 59
-0.395362 0.17028 0.208857 72 134 54
-0.394488 0.171611 0.209081 64 135 50
-0.401597 0.0834955 0.208375 64 65 53
-0.40126 0.0850846 0.208422 64 66 56
-0.400924 0.0866735 0.208469 66 63 48
-0.400066 0.0880949 0.208688 65 65 49
-0.399731 0.0896812 0.208735 88 101 58
-0.398359 0.0909248 0.209123 100 136 68
-0.396996 0.0921608 0.209508 104 143 70
-0.395133 0.0932162 0.210059 101 145 72
-0.392284 0.0939157 0.210935 99 146 71
-0.387521 0.093919 0.212443 98 146 71
-0.385264 0.0947696 0.213126 99 147 71
-0.381617 0.0950997 0.214268 99 150 74
-0.381296 0.0966125 0.214313 118 172 83
-0.415033 0.114348 0.202968 126 184 91
-0.41297 0.115363 0.203583 129 185 91
-0.412052 0.116807 0.20382 126 182 88
-0.4117 0.118469 0.203869 118 175 86
-0.411913 0.120356 0.203731 108 165 82
-0.412693 0.12248 0.203405 94 151 73
-0.414624 0.125087 0.202696 81 135 62
-0.414269 0.126767 0.202745 73 126 55
-0.414488 0.128689 0.202604 69 121 53
-0.415285 0.130862 0.202271 64 118 51
-0.41667 0.133301 0.201741 67 120 53
-0.41925 0.136278 0.200813 73 130 57
-0.420673 0.138774 0.200269 81 137 62
-0.420908 0.140758 0.20012 87 138 63
-0.422348 0.143293 0.19957 84 137 61
-0.423193 0.145574 0.199217 77 132 56
-0.423435 0.147589 0.199065 74 129 56
-0.423067 0.149325 0.199117 65 116 53
-0.422699 0.151062 0.199168 58 110 39
-0.422331 0.152799 0.19922 57 111 35
-0.421964 0.154535 0.199271 60 117 41
-0.421596 0.156271 0.199323 67 124 49
-0.421229 0.158007 0.199374 69 128 53
-0.420861 0.159743 0.199426 68 131 54
-0.421099 0.161784 0.199274 66 131 54
-0.421337 0.163831 0.199122 64 131 56
-0.422799 0.166512 0.198559 63 132 56
-0.422429 0.168262 0.198611 61 131 52
-0.422058 0.170012 0.198663 59 131 53
-0.420469 0.171117 0.199125 57 130 55
-0.418891 0.172214 0.199584 59 129 54
-0.416725 0.172981 0.200241 58 128 51
-0.413992 0.17342 0.20109 56 127 50
-0.40785 0.171957 0.203089 56 126 49
-0.400804 0.169931 0.205396 57 125 49
-0.396671 0.169467 0.206722 58 124 49
-0.39526 0.170504 0.20713 60 126 49
-0.393857 0.171534 0.207536 71 130 52
-0.402032 0.0837358 0.206522 66 60 48
-0.400647 0.0850034 0.206918 67 64 51
-0.400311 0.0865924 0.206965 65 61 44
-0.399974 0.0881814 0.207013 67 64 45
-0.399118 0.0896006 0.207233 90 100 56
-0.398265 0.0910155 0.207453 99 135 66
-0.396388 0.0920809 0.208015 102 141 68
-0.394527 0.0931368 0.208573 100 143 68
-0.392182 0.0940098 0.209293 97 143 67
-0.386927 0.0938416 0.210987 97 145 69
-0.384674 0.0946927 0.211679 97 145 69
-0.380564 0.0948545 0.212993 98 148 73
-0.380244 0.0963653 0.213038 117 171 84
-0.412679 0.113615 0.201957 129 189 93
-0.411199 0.114844 0.202385 130 186 93
-0.410847 0.116504 0.202435 126 182 89
-0.410496 0.118164 0.202484 118 175 85
-0.410145 0.119823 0.202533 107 164 80
-0.411481 0.122167 0.202014 95 152 73
-0.413975 0.125004 0.201104 83 141 65
-0.414193 0.126923 0.200961 78 134 58
-0.41499 0.129092 0.200622 79 134 58
-0.416958 0.131771 0.199887 74 127 56
-0.419544 0.13474 0.198942 68 118 52
-0.419182 0.136452 0.198993 66 124 52
-0.420009 0.13869 0.198642 71 131 56
-0.420841 0.140942 0.198288 81 134 62
-0.422284 0.143481 0.197727 84 138 65
-0.422523 0.14549 0.197574 83 134 60
-0.422763 0.147504 0.197419 81 133 60
-0.422395 0.149241 0.197471 66 116 56
-0.422635 0.151265 0.197316 48 100 33
-0.422267 0.153005 0.197368 50 101 29
-0.421899 0.154744 0.19742 54 107 38
-0.42153 0.156484 0.197471 57 113 43
-0.421769 0.158522 0.197316 59 119 46
-0.42262 0.160872 0.196953 58 122 46
-0.422863 0.162928 0.196796 57 125 46
-0.424339 0.165619 0.196219 59 128 48
-0.424586 0.167696 0.19606 73 131 53
-0.424213 0.169458 0.196112 104 137 62
-0.422606 0.170572 0.196586 76 123 65
-0.42101 0.171679 0.197056 65 117 60
-0.419425 0.172778 0.197524 64 118 59
-0.417849 0.17387 0.197988 66 116 59
-0.415689 0.174629 0.198653 65 116 60
-0.412378 0.174735 0.199712 65 114 61
-0.406837 0.173568 0.201537 65 113 62
-0.398183 0.170596 0.204431 64 112 64
-0.395689 0.17103 0.205216 66 111 66
-0.39428 0.172062 0.205629 71 109 66
-0.391833 0.172483 0.206399 68 86 58
-0.391489 0.174107 0.206447 66 70 43
-0.391145 0.175732 0.206495 59 62 40
-0.391845 0.177977 0.206185 57 58 38
-0.392024 0.17992 0.206053 58 57 37
-0.392204 0.18187 0.20592 61 56 38
-0.393972 0.184794 0.20524 64 55 39
-0.402469 0.0839775 0.204657 65 61 47
-0.401079 0.0852483 0.20506 65 64 48
-0.400219 0.0866766 0.205285 64 62 44
-0.399361 0.0881005 0.205508 66 62 43
-0.399025 0.0896894 0.205555 87 100 56
-0.397653 0.0909351 0.205953 96 134 65
-0.395779 0.092001 0.206522 100 141 66
-0.394427 0.0932303 0.206915 100 141 65
-0.39158 0.093931 0.207815 97 143 65
-0.386333 0.093764 0.209531 96 144 68
-0.384562 0.0947864 0.210068 96 143 67
-0.381859 0.0954575 0.210923 97 146 71
-0.381537 0.0969771 0.210968 117 170 83
-0.410909 0.113102 0.200764 130 190 92
-0.409997 0.114545 0.201004 129 189 94
-0.409646 0.116202 0.201054 125 186 92
-0.409855 0.118081 0.200912 119 177 87
-0.409503 0.119741 0.200961 110 164 81
-0.410837 0.122085 0.200435 98 152 73
-0.413325 0.124921 0.199513 88 142 66
-0.414118 0.12708 0.19917 84 139 62
-0.415495 0.129497 0.198626 87 143 62
-0.416886 0.131937 0.198077 89 141 64
-0.418882 0.134656 0.19732 79 127 59
-0.419708 0.136888 0.196963 67 119 51
-0.42114 0.1394 0.196398 64 122 53
-0.42198 0.141665 0.196035 71 128 59
-0.421614 0.143397 0.196086 80 134 64
-0.421852 0.145405 0.19593 86 133 61
-0.422091 0.14742 0.195773 84 133 61
-0.42233 0.149441 0.195616 78 125 62
-0.421962 0.151181 0.195668 59 112 48
-0.422812 0.153503 0.195299 55 108 43
-0.422442 0.155249 0.195351 50 110 42
-0.422684 0.157293 0.195192 47 113 41
-0.423541 0.159646 0.194821 46 116 42
-0.425645 0.162636 0.194018 48 120 46
-0.426521 0.165031 0.193638 52 125 48
-0.426146 0.166802 0.193691 56 131 50
-0.425771 0.168573 0.193744 70 143 60
-0.425396 0.170344 0.193796 109 169 85
-0.424398 0.171787 0.194065 120 159 93
-0.422169 0.17257 0.194761 115 145 73
-0.420572 0.173672 0.195238 79 82 71
-0.418985 0.174767 0.195712 67 73 54
-0.417408 0.175854 0.196183 64 72 47
-0.414653 0.176277 0.197064 64 70 47
-0.414287 0.178006 0.197116 62 72 48
-0.407529 0.176138 0.199392 59 72 47
-0.397194 0.172169 0.202915 58 71 43
-0.395772 0.173205 0.203338 60 68 39
-0.392248 0.173012 0.204494 64 63 40
-0.391903 0.174642 0.204542 59 61 43
-0.391558 0.176271 0.204591 59 62 39
-0.391737 0.178213 0.204456 63 61 40
-0.392442 0.180475 0.204138 58 59 41
-0.393682 0.183074 0.203632 56 59 41
-0.394934 0.185697 0.203121 58 60 40
-0.397282 0.189013 0.202225 57 61 40
-0.399117 0.192039 0.201509 56 60 40
-0.402379 0.0840579 0.202962 69 63 54
-0.401513 0.0854947 0.203191 65 64 48
-0.400126 0.086761 0.203599 67 63 44
-0.399267 0.088187 0.203825 67 61 45
-0.398411 0.0896086 0.204051 86 101 57
-0.397557 0.0910259 0.204276 94 132 65
-0.39568 0.0920932 0.204854 97 139 66
-0.394327 0.0933242 0.205251 96 139 65
-0.391476 0.0940254 0.206166 94 140 65
-0.38574 0.0936865 0.208075 95 142 65
-0.383971 0.0947094 0.208619 96 143 66
-0.383647 0.0962402 0.208664 97 145 70
-0.409707 0.112805 0.199385 130 192 93
-0.408799 0.114247 0.199628 129 191 94
-0.409006 0.11612 0.199484 126 186 92
-0.408655 0.117777 0.199533 122 179 88
-0.408862 0.119658 0.199389 114 168 83
-0.410192 0.122002 0.198855 104 155 77
-0.412676 0.124838 0.197921 95 146 71
-0.414042 0.127237 0.197373 91 144 67
-0.41484 0.129413 0.197021 95 150 68
-0.416814 0.132104 0.196261 99 154 72
-0.41822 0.134572 0.195697 93 145 69
-0.419044 0.136804 0.195335 78 126 56
-0.420472 0.139315 0.194762 65 116 53
-0.42131 0.141581 0.194394 62 118 53
-0.422154 0.143861 0.194023 69 125 57
-0.421786 0.145598 0.194075 79 128 58
-0.422025 0.147617 0.193915 81 133 62
-0.421657 0.149357 0.193967 84 134 67
-0.422506 0.151674 0.193593 71 120 57
-0.422747 0.153712 0.193431 60 113 51
-0.422377 0.15546 0.193483 50 109 43
-0.423233 0.157808 0.193106 39 107 36
-0.425335 0.160786 0.192292 35 107 35
-0.426837 0.163488 0.191687 37 111 37
-0.42709 0.16558 0.191519 41 118 39
-0.426714 0.167357 0.191572 46 124 42
-0.426338 0.169134 0.191625 54 135 51
-0.425335 0.170585 0.191898 77 154 67
-0.424335 0.17203 0.19217 102 170 86
-0.423339 0.173471 0.192442 120 198 103
-0.42173 0.174575 0.192929 123 161 96
-0.419522 0.175342 0.193628 135 151 72
-0.418543 0.176762 0.193895 138 139 68
-0.418173 0.178512 0.193947 128 121 68
-0.419626 0.181279 0.193355 110 104 66
-0.395134 0.173128 0.201778 66 66 66
-0.392666 0.173544 0.202577 63 60 67
-0.39232 0.175179 0.202625 61 62 63
-0.391974 0.176814 0.202674 58 62 60
-0.392154 0.178762 0.202536 57 62 53
-0.393925 0.181673 0.201834 59 61 48
-0.394643 0.183968 0.201504 62 60 43
-0.395906 0.186608 0.200981 62 59 38
-0.398273 0.189947 0.200064 60 56 36
-0.398467 0.191962 0.199919 59 51 34
-0.401761 0.0839759 0.201446 73 62 54
-0.401422 0.0855775 0.201494 69 60 47
-0.400557 0.0870121 0.201725 65 63 46
-0.399695 0.0884422 0.201955 72 64 46
-0.398316 0.0896976 0.202365 86 96 56
-0.397461 0.091117 0.202594 94 130 64
-0.395582 0.0921856 0.20318 95 137 66
-0.393719 0.0932445 0.20376 92 135 63
-0.391372 0.0941199 0.204511 93 137 63
-0.385629 0.0937792 0.20645 93 139 65
-0.384339 0.0949748 0.206833 93 140 66
-0.383056 0.0961633 0.207214 94 143 70
-0.407954 0.112297 0.198205 130 191 94
-0.407604 0.11395 0.198255 129 187 93
-0.407809 0.115819 0.198109 126 182 91
-0.408014 0.117695 0.197963 121 176 87
-0.408779 0.119801 0.19762 116 168 83
-0.409548 0.12192 0.197276 109 159 79
-0.412026 0.124755 0.196328 101 152 76
-0.413389 0.127154 0.195773 99 151 74
-0.414765 0.129575 0.195212 103 157 74
-0.416154 0.13202 0.194646 108 165 78
-0.417557 0.134488 0.194074 108 163 77
-0.418379 0.13672 0.193707 96 147 69
-0.419804 0.139231 0.193126 76 125 58
-0.42064 0.141496 0.192752 63 114 51
-0.421482 0.143776 0.192377 60 116 52
-0.42172 0.145792 0.192214 68 122 54
-0.42196 0.147814 0.19205 75 129 59
-0.422811 0.15013 0.19167 83 137 65
-0.422441 0.151879 0.191722 77 126 58
-0.423297 0.154215 0.191339 68 118 53
-0.422925 0.15597 0.191391 59 113 48
-0.424405 0.158631 0.190786 46 108 41
-0.426526 0.161629 0.189952 36 104 34
-0.427408 0.164033 0.189557 32 104 31
-0.427031 0.165814 0.18961 31 110 30
-0.426655 0.167594 0.189663 34 115 33
-0.426278 0.169374 0.189716 39 120 40
-0.425273 0.170827 0.189993 47 130 49
-0.424272 0.172274 0.190269 60 145 60
-0.423274 0.173717 0.190544 82 170 78
-0.42228 0.175155 0.190818 101 173 83
-0.420674 0.176254 0.191311 114 178 88
-0.419689 0.17768 0.191583 119 180 95
-0.419317 0.179438 0.191635 115 180 100
-0.42389 0.183961 0.189917 111 182 102
-0.394148 0.174696 0.200266 113 184 101
-0.393799 0.176342 0.200315 121 181 96
-0.393451 0.177987 0.200364 126 170 85
-0.393634 0.179949 0.200222 136 166 80
-0.394352 0.182239 0.199887 144 160 77
-0.395613 0.184871 0.199356 151 154 75
-0.397978 0.188197 0.198427 151 140 74
-0.398171 0.190209 0.198279 136 112 72
-0.397817 0.191885 0.198329 85 67 62
-0.40167 0.0840564 0.199743 67 65 52
-0.400804 0.0854957 0.199977 67 65 48
-0.400465 0.0870973 0.200025 64 61 43
-0.400126 0.0886988 0.200073 70 63 41
-0.398741 0.0899574 0.20049 85 94 53
-0.397364 0.0912083 0.200906 93 129 64
-0.394971 0.0921054 0.201681 94 135 64
-0.393618 0.0933385 0.202089 90 135 63
-0.391268 0.0942148 0.202851 90 137 63
-0.385518 0.0938722 0.204819 91 136 64
-0.384226 0.0950693 0.205208 90 138 64
-0.38342 0.0964331 0.205424 90 143 69
-0.383095 0.0979685 0.20547 112 169 81
-0.406763 0.112003 0.196837 130 191 95
-0.406413 0.113653 0.196886 128 187 93
-0.406616 0.11552 0.196739 125 182 90
-0.407374 0.117613 0.196393 122 176 87
-0.408136 0.119718 0.196045 117 169 83
-0.408903 0.121837 0.195695 110 162 79
-0.411947 0.124908 0.194532 105 158 78
-0.413889 0.127553 0.193761 105 159 78
-0.414689 0.129737 0.193397 108 165 79
-0.416081 0.132187 0.192821 114 171 82
-0.416895 0.134404 0.192451 119 177 86
-0.417714 0.136636 0.192078 113 170 83
-0.419136 0.139146 0.191489 94 144 69
-0.41997 0.141412 0.191111 75 121 55
-0.420809 0.143691 0.19073 62 111 50
-0.421047 0.145707 0.190564 60 113 49
-0.421285 0.14773 0.190398 69 122 54
-0.422134 0.150045 0.190012 79 132 61
-0.422989 0.152376 0.189623 80 130 59
-0.424468 0.155019 0.189009 76 126 57
-0.425338 0.157386 0.188614 73 125 55
-0.426842 0.160077 0.18799 63 119 50
-0.427096 0.162167 0.187816 50 108 39
-0.426719 0.163948 0.187869 37 100 30
-0.426973 0.166048 0.187694 29 103 28
-0.426595 0.167831 0.187748 34 109 31
-0.426218 0.169615 0.187801 44 115 39
-0.42584 0.171398 0.187854 53 125 48
-0.424835 0.172849 0.188135 62 136 55
-0.424458 0.174629 0.188188 78 150 64
-0.423457 0.176073 0.188467 97 169 77
-0.422459 0.177512 0.188746 107 182 89
-0.422083 0.179285 0.188799 112 187 92
-0.422329 0.181403 0.188626 112 190 92
-0.423825 0.184227 0.187999 112 193 93
-0.426608 0.187799 0.186903 114 193 93
-0.398941 0.183426 0.196489 129 186 88
-0.398586 0.185103 0.196539 133 186 88
-0.39878 0.187114 0.196388 138 193 93
-0.398976 0.189131 0.196237 147 202 103
-0.39862 0.190813 0.196287 154 192 108
-0.398264 0.192494 0.196337 143 143 93
-0.400712 0.0855786 0.198272 64 60 43
-0.399847 0.0870156 0.198508 62 60 44
-0.399508 0.0886173 0.198556 65 61 43
-0.399169 0.0902188 0.198604 79 91 52
-0.397787 0.0914728 0.199026 90 126 62
-0.394871 0.0921979 0.199999 93 132 64
-0.393009 0.0932587 0.200595 89 132 62
-0.390662 0.0941356 0.201366 89 132 60
-0.385407 0.0939654 0.203184 90 135 60
-0.384113 0.0951642 0.203578 90 136 60
-0.382827 0.0963559 0.20397 89 140 66
-0.382502 0.0978914 0.204016 111 166 80
-0.405226 0.113358 0.195521 126 187 91
-0.405977 0.115438 0.195173 124 183 89
-0.406179 0.11731 0.195023 121 177 87
-0.406937 0.119412 0.194671 115 170 84
-0.408258 0.121755 0.194115 111 165 81
-0.411296 0.124825 0.192937 109 166 81
-0.413233 0.127469 0.192155 110 168 82
-0.414613 0.1299 0.191575 112 171 83
-0.41542 0.132103 0.191202 117 176 85
-0.415644 0.134065 0.191041 121 184 90
-0.417049 0.136551 0.19045 121 183 90
-0.418468 0.139062 0.189853 111 163 79
-0.4193 0.141327 0.189469 87 136 65
-0.420137 0.143607 0.189082 71 117 53
-0.420373 0.145623 0.188914 61 109 47
-0.42061 0.147645 0.188745 60 115 49
-0.422068 0.150248 0.188131 69 126 55
-0.424159 0.153171 0.187285 78 131 59
-0.425028 0.155531 0.186884 82 133 61
-0.425902 0.157908 0.18648 84 136 62
-0.426783 0.1603 0.186074 78 132 61
-0.427037 0.162395 0.185897 67 121 50
-0.426659 0.164179 0.18595 54 111 42
-0.426913 0.166283 0.185772 47 107 38
-0.426535 0.168069 0.185825 54 114 41
-0.426157 0.169856 0.185879 65 126 49
-0.425779 0.171642 0.185932 73 135 55
-0.424772 0.173096 0.186216 83 146 61
-0.424395 0.174879 0.18627 104 169 79
-0.424017 0.176662 0.186323 114 178 85
-0.42364 0.178445 0.186376 119 183 87
-0.423263 0.180228 0.186429 120 187 88
-0.423511 0.182358 0.186252 118 187 88
-0.425021 0.185202 0.185609 117 188 90
-0.42591 0.187714 0.185195 117 187 91
-0.399588 0.186024 0.194336 109 179 90
-0.399232 0.187708 0.194387 106 176 87
-0.398875 0.189393 0.194437 100 166 81
-0.398519 0.191077 0.194487 102 161 78
-0.398162 0.192761 0.194538 114 164 86
-0.400092 0.0854966 0.196753 64 61 46
-0.399753 0.087101 0.196801 64 60 48
-0.399413 0.0887052 0.196849 69 63 43
-0.39855 0.0901374 0.197087 76 86 52
-0.39769 0.0915651 0.197325 90 125 62
-0.394259 0.0921176 0.198499 93 127 61
-0.392399 0.0931789 0.199101 89 128 61
-0.390057 0.0940564 0.199881 89 130 60
-0.385781 0.0942308 0.201366 90 132 58
-0.384 0.0952593 0.201943 88 134 59
-0.382712 0.0964525 0.20234 89 136 64
-0.382387 0.0979905 0.202386 110 163 78
-0.38254 0.0997072 0.202257 124 186 91
-0.404589 0.113276 0.19396 124 186 90
-0.404241 0.114923 0.194009 122 181 88
-0.404988 0.117008 0.193656 118 176 86
-0.405741 0.119106 0.193301 115 170 84
-0.407613 0.121672 0.192535 115 168 83
-0.410644 0.124742 0.191341 115 171 84
-0.412578 0.127385 0.190549 115 172 85
-0.413955 0.129816 0.189962 118 175 86
-0.414759 0.132019 0.189584 121 181 88
-0.414983 0.133981 0.18942 123 185 88
-0.415795 0.136208 0.189038 121 182 87
-0.4178 0.138978 0.188216 114 172 84
-0.418629 0.141242 0.187827 98 149 72
-0.419464 0.143522 0.187435 79 130 59
-0.419699 0.145538 0.187264 69 118 52
-0.420542 0.147843 0.186868 61 117 50
-0.422002 0.150451 0.186244 61 122 51
-0.424717 0.153676 0.185153 68 128 55
-0.424966 0.155746 0.184976 78 134 60
-0.425842 0.158127 0.184565 83 138 64
-0.426723 0.160525 0.184152 82 138 65
-0.426346 0.162309 0.184205 76 133 60
-0.426599 0.16441 0.184024 70 127 56
-0.426221 0.166197 0.184077 64 121 53
-0.426475 0.168308 0.183896 58 119 49
-0.426096 0.170098 0.183949 57 122 45
-0.425717 0.171887 0.184003 62 125 45
-0.425339 0.173677 0.184057 73 132 54
-0.42496 0.175466 0.18411 86 145 65
-0.424581 0.177255 0.184164 90 148 69
-0.424203 0.179044 0.184217 91 147 67
-0.424454 0.18118 0.184035 91 149 67
-0.425339 0.183675 0.183617 89 147 66
-0.425593 0.185829 0.183433 89 148 67
-0.427127 0.188715 0.18277 87 147 65
-0.426744 0.190525 0.182825 85 146 63
-0.426361 0.192335 0.182879 86 145 62
-0.426619 0.194518 0.182693 83 143 61
-0.400043 0.186616 0.192321 76 139 57
-0.398578 0.18763 0.192788 71 137 56
-0.398222 0.189315 0.192839 68 137 56
-0.397865 0.190999 0.192889 74 140 58
-0.397509 0.192684 0.192939 90 144 67
-0.397152 0.194368 0.19299 95 127 77
-0.397346 0.196403 0.192832 75 57 43
-0.399998 0.0855797 0.19504 65 63 43
-0.399658 0.0871866 0.195088 68 61 45
-0.399318 0.0887934 0.195136 68 64 50
-0.398454 0.0902277 0.195377 71 85 54
-0.397072 0.0914839 0.19581 87 122 63
-0.393647 0.0920373 0.196997 91 127 61
-0.392296 0.0932728 0.19742 89 127 58
-0.38995 0.0941512 0.198211 88 128 60
-0.385669 0.0943249 0.199718 88 130 60
-0.383404 0.0951816 0.200481 88 132 59
-0.382118 0.0963752 0.200883 88 135 64
-0.381792 0.0979133 0.200929 109 161 74
-0.381467 0.0994513 0.200975 125 187 90
-0.403407 0.112981 0.192601 123 185 90
-0.403058 0.114626 0.192651 121 180 89
-0.404349 0.116926 0.19209 118 175 86
-0.4051 0.119023 0.19173 115 172 85
-0.407527 0.121819 0.190746 116 172 86
-0.410562 0.124894 0.189533 118 174 86
-0.412499 0.127544 0.188729 119 176 87
-0.413877 0.129979 0.188131 122 181 87
-0.414099 0.131935 0.187965 124 185 89
-0.414321 0.133897 0.187798 123 185 87
-0.414544 0.135865 0.187631 118 180 85
-0.417132 0.138893 0.186579 110 170 81
-0.418558 0.141428 0.18596 100 155 75
-0.418791 0.143437 0.185787 85 140 64
-0.419025 0.145453 0.185613 76 129 55
-0.420473 0.148041 0.184985 74 129 55
-0.421935 0.150655 0.18435 65 122 54
-0.424655 0.153888 0.183242 62 123 51
-0.424903 0.155961 0.183061 69 129 54
-0.42578 0.158347 0.182643 77 135 61
-0.426032 0.160439 0.18246 81 140 64
-0.426285 0.162537 0.182276 79 137 62
-0.425907 0.164324 0.182329 78 132 60
-0.42616 0.166432 0.182145 70 128 58
-0.426414 0.168548 0.18196 52 116 48
-0.426035 0.170341 0.182014 41 105 33
-0.425656 0.172133 0.182067 51 110 33
-0.425276 0.173926 0.182121 58 114 41
-0.425529 0.176057 0.181936 61 118 45
-0.427058 0.178884 0.181268 63 124 50
-0.427958 0.181389 0.180836 65 127 51
-0.427574 0.183199 0.180891 66 127 50
-0.427834 0.185368 0.180701 67 128 52
-0.428095 0.187544 0.180511 75 128 55
-0.42771 0.18936 0.180566 76 128 55
-0.426042 0.19044 0.181108 73 128 53
-0.425659 0.19225 0.181162 75 130 52
-0.425276 0.19406 0.181216 75 129 54
-0.423622 0.19512 0.181754 73 127 54
-0.39903 0.188228 0.190768 70 124 53
-0.397568 0.189237 0.19124 72 126 59
-0.397212 0.190922 0.19129 76 130 65
-0.396855 0.192606 0.191341 75 121 67
-0.397048 0.194639 0.191181 70 82 60
-0.397242 0.196678 0.191021 66 61 42
-0.396884 0.198368 0.191071 60 55 38
-0.397631 0.200775 0.190699 61 51 36
-0.398383 0.203199 0.190324 61 51 34
-0.398581 0.205267 0.190161 56 51 34
-0.399378 0.0854975 0.193517 64 61 41
-0.399038 0.0871046 0.193565 68 68 51
-0.398698 0.0887115 0.193614 65 66 55
-0.398358 0.0903184 0.193662 69 80 56
-0.396974 0.0915763 0.1941 86 119 62
-0.393034 0.091957 0.195496 90 125 59
-0.391685 0.0931929 0.195923 88 124 56
-0.389343 0.0940719 0.196723 86 128 59
-0.385557 0.0944193 0.198065 86 129 57
-0.382807 0.0951039 0.19902 87 129 58
-0.381523 0.0962979 0.199425 86 132 63
-0.381198 0.0978361 0.199472 108 158 72
-0.380872 0.0993742 0.199518 127 185 89
-0.381502 0.101274 0.199205 130 188 91
-0.395659 0.108386 0.1938 128 187 89
-0.402227 0.112688 0.191247 125 185 89
-0.40188 0.11433 0.191296 122 180 88
-0.40371 0.116844 0.190524 119 175 86
-0.404459 0.118941 0.190159 117 174 86
-0.407441 0.121966 0.188951 121 176 87
-0.41048 0.125048 0.187719 124 179 89
-0.411842 0.12746 0.18712 124 183 89
-0.413217 0.129895 0.186515 127 186 90
-0.413438 0.131851 0.186346 128 188 90
-0.413659 0.133813 0.186176 126 187 89
-0.413881 0.135781 0.186006 120 179 86
-0.416463 0.138809 0.184941 110 168 81
-0.417886 0.141343 0.184314 101 155 74
-0.418118 0.143353 0.184139 89 143 66
-0.419559 0.145926 0.183504 79 134 59
-0.421014 0.148525 0.182863 85 139 63
-0.421868 0.15086 0.182449 82 135 64
-0.423968 0.153802 0.181561 69 123 53
-0.424841 0.156177 0.181139 63 123 51
-0.425719 0.158568 0.180714 67 130 55
-0.425341 0.160353 0.180767 75 135 60
-0.425593 0.162451 0.180581 79 137 61
-0.425215 0.164239 0.180634 81 136 60
-0.426099 0.166669 0.180206 78 132 59
-0.42572 0.168462 0.180259 65 120 51
-0.425973 0.170584 0.180071 52 108 40
-0.425593 0.17238 0.180125 54 110 40
-0.425848 0.174513 0.179936 54 111 38
-0.42674 0.176994 0.179502 53 115 38
-0.429576 0.180541 0.178321 54 122 44
-0.429841 0.182717 0.178127 54 127 46
-0.430106 0.1849 0.177931 57 130 47
-0.42972 0.186726 0.177986 61 137 56
-0.428684 0.188186 0.178291 82 156 72
-0.427006 0.189275 0.178842 108 159 78
-0.42598 0.190723 0.179144 115 143 74
-0.425596 0.192536 0.179198 95 116 68
-0.424574 0.193976 0.179499 73 86 63
-0.424191 0.195786 0.179553 68 86 52
-0.423808 0.197595 0.179607 67 84 49
-0.398016 0.18984 0.189214 68 80 49
-0.397659 0.191531 0.189265 68 79 48
-0.397301 0.193221 0.189316 64 75 49
-0.396944 0.194911 0.189366 64 63 45
-0.396586 0.1966 0.189417 64 58 35
-0.397332 0.199003 0.189039 59 57 36
-0.398083 0.201421 0.188659 57 57 37
-0.39828 0.203487 0.188493 56 54 37
-0.399037 0.205931 0.188109 54 53 37
-0.399237 0.208014 0.187942 52 53 37
-0.398757 0.0854154 0.191995 67 61 43
-0.398417 0.0870226 0.192043 67 62 51
-0.398077 0.0886296 0.192091 66 65 54
-0.397737 0.0902366 0.192139 69 76 55
-0.396355 0.0914949 0.192583 87 117 58
-0.392422 0.0918766 0.193994 89 123 57
-0.391075 0.0931129 0.194426 89 123 57
-0.388736 0.0939925 0.195235 87 126 55
-0.385445 0.094514 0.196406 84 125 56
-0.382211 0.0950262 0.197558 84 126 59
-0.380929 0.0962206 0.197968 83 130 61
-0.380603 0.0977589 0.198014 108 155 73
-0.380278 0.0992972 0.19806 125 180 88
-0.380428 0.101016 0.197925 128 187 91
-0.381057 0.102924 0.197607 128 188 90
-0.401592 0.112606 0.18969 126 185 89
-0.401245 0.114249 0.189739 123 179 87
-0.403071 0.116762 0.188957 120 177 85
-0.403269 0.118636 0.188798 120 178 84
-0.407354 0.122113 0.18715 121 178 86
-0.409827 0.124964 0.186117 122 178 88
-0.411185 0.127376 0.18551 126 182 89
-0.411979 0.129564 0.18512 131 188 92
-0.412197 0.131517 0.184949 132 189 93
-0.412415 0.133475 0.184778 129 186 91
-0.413218 0.135697 0.184382 121 180 88
-0.415795 0.138724 0.183303 113 170 83
-0.417214 0.141258 0.182668 105 157 76
-0.418046 0.143542 0.182259 95 145 69
-0.419488 0.146121 0.181614 87 138 64
-0.420334 0.14844 0.181198 89 142 66
-0.421801 0.151065 0.180542 93 151 72
-0.423282 0.153716 0.179879 83 138 63
-0.424152 0.156091 0.179452 67 123 52
-0.425028 0.158482 0.179021 59 122 50
-0.425279 0.160578 0.178832 64 126 53
-0.424901 0.162365 0.178885 73 132 58
-0.425152 0.164471 0.178695 78 136 59
-0.425404 0.166583 0.178505 82 137 60
-0.425658 0.168702 0.178313 76 128 57
-0.425912 0.170829 0.178121 61 116 51
-0.425531 0.172628 0.178175 52 111 47
-0.427062 0.175443 0.177487 45 108 40
-0.429256 0.178635 0.17654 39 110 37
-0.430825 0.181515 0.175834 41 115 38
-0.431093 0.183703 0.175634 43 121 39
-0.430705 0.185536 0.175689 46 126 44
-0.429663 0.187004 0.175999 52 137 54
-0.429276 0.188833 0.176054 71 158 67
-0.427591 0.189924 0.176616 107 173 84
-0.425917 0.191006 0.177173 122 176 96
-0.425533 0.192823 0.177228 113 160 98
-0.425149 0.194639 0.177282 112 139 87
-0.424126 0.196077 0.177586 119 130 65
-0.423106 0.197511 0.17789 125 123 61
-0.422723 0.199321 0.177944 121 113 60
-0.39775 0.193839 0.187277 59 67 65
-0.397391 0.195534 0.187328 60 62 61
-0.397033 0.19723 0.187379 57 61 56
-0.398339 0.200002 0.186774 56 60 51
-0.400788 0.203539 0.185718 57 58 45
-0.400424 0.205256 0.18577 57 58 38
-0.400061 0.206973 0.185822 56 58 35
-0.400263 0.209068 0.18565 58 54 33
-0.397613 0.0851685 0.190672 64 60 48
-0.397796 0.0869405 0.19052 70 61 49
-0.397456 0.0885478 0.190569 70 64 53
-0.397116 0.0901549 0.190617 67 70 57
-0.395736 0.0914136 0.191065 88 112 58
-0.392317 0.0919689 0.192297 88 120 56
-0.390464 0.0930329 0.192929 89 121 57
-0.388627 0.0940874 0.193554 86 122 56
-0.384843 0.0944354 0.194931 84 124 54
-0.381615 0.0949485 0.196095 83 125 55
-0.380334 0.0961432 0.19651 81 128 59
-0.380008 0.0976817 0.196556 108 150 69
-0.379683 0.0992201 0.196602 125 181 86
-0.379832 0.100939 0.196465 129 189 89
-0.379982 0.102663 0.196327 128 188 88
-0.394593 0.110038 0.190594 127 185 90
-0.40115 0.114381 0.187972 125 180 89
-0.402432 0.116679 0.18739 121 180 87
-0.402628 0.118554 0.187228 121 181 86
-0.406706 0.12203 0.185561 122 180 87
-0.409173 0.124881 0.184516 123 182 90
-0.409956 0.127051 0.184124 126 186 92
-0.410744 0.129235 0.183729 135 191 95
-0.411537 0.131433 0.183332 139 191 97
-0.411754 0.133391 0.183158 133 187 93
-0.412554 0.135613 0.182757 122 178 89
-0.415719 0.138905 0.181434 115 171 83
-0.416542 0.141174 0.181022 107 161 76
-0.417372 0.143457 0.180608 97 149 72
-0.418811 0.146036 0.179954 93 146 71
-0.420877 0.148927 0.179055 97 150 72
-0.421733 0.151271 0.178628 99 159 76
-0.423216 0.153927 0.177955 96 157 75
-0.423463 0.156005 0.177764 80 136 60
-0.424336 0.158396 0.177328 64 121 51
-0.424586 0.160491 0.177136 61 119 48
-0.424837 0.162594 0.176943 65 125 51
-0.425089 0.164703 0.176749 71 131 55
