ply
format ascii 1.0
element vertex 1234
property float x
property float y
property float z
property uchar diffuse_red
property uchar diffuse_green
property uchar diffuse_blue
end_header
-0.328066 0.0716598 0.223544 47 105 29
-0.32681 0.072588 0.223939 43 106 32
-0.326216 0.0737419 0.224096 43 109 31
-0.325623 0.0748931 0.224253 48 110 37
-0.325357 0.0761606 0.224291 78 122 52
-0.325091 0.0774279 0.22433 80 109 67
-0.324825 0.0786953 0.224368 69 75 48
-0.324559 0.0799625 0.224407 64 61 38
-0.324293 0.0812296 0.224445 64 60 44
-0.357105 0.0150045 0.214419 53 104 38
-0.35682 0.016361 0.21446 59 105 43
-0.356535 0.0177174 0.214501 61 106 48
-0.355479 0.0189653 0.214818 62 107 47
-0.354428 0.0202068 0.215133 62 108 50
-0.354145 0.021556 0.215174 66 111 51
-0.353862 0.0229051 0.215215 69 111 50
-0.353198 0.0241935 0.215393 65 113 51
-0.352915 0.0255408 0.215434 64 112 50
-0.352253 0.0268241 0.215611 68 111 51
-0.351593 0.028104 0.215787 66 115 54
-0.350934 0.0293806 0.215963 64 114 53
-0.350277 0.0306539 0.216138 63 112 49
-0.349996 0.0319938 0.216179 60 112 49
-0.349714 0.0333337 0.21622 58 113 49
-0.348687 0.0345269 0.216529 59 112 49
-0.348407 0.0358632 0.216569 63 114 49
-0.348498 0.0372759 0.216476 65 113 47
-0.348962 0.0387707 0.216249 63 114 49
-0.34868 0.0401118 0.216289 63 116 51
-0.346546 0.0410448 0.216998 66 115 50
-0.344803 0.042048 0.217567 66 113 48
-0.344524 0.0433737 0.217607 67 115 49
-0.344246 0.0446993 0.217647 65 115 47
-0.343968 0.0460248 0.217688 66 117 51
-0.344782 0.0476168 0.217333 65 115 51
-0.344502 0.0489471 0.217374 65 111 47
-0.345321 0.050556 0.217017 59 109 48
-0.346147 0.052177 0.216657 58 107 43
-0.345865 0.0535171 0.216697 60 108 44
-0.345584 0.0548571 0.216738 59 108 47
-0.345303 0.0561971 0.216779 58 108 48
-0.34576 0.0577423 0.216552 60 107 44
-0.345109 0.0589809 0.216727 59 104 42
-0.344827 0.0603222 0.216767 61 103 38
-0.344545 0.0616634 0.216808 59 104 40
-0.344264 0.0630046 0.216849 56 104 34
-0.343615 0.0642345 0.217024 48 102 28
-0.342968 0.0654613 0.217198 47 100 29
-0.341596 0.0664581 0.217636 57 104 44
-0.340954 0.0676758 0.217809 57 110 39
-0.339955 0.0687745 0.218112 39 107 29
-0.338961 0.0698677 0.218413 33 105 21
-0.337618 0.0708377 0.218843 37 105 25
-0.335236 0.071447 0.219653 43 106 32
-0.331864 0.0716969 0.220825 47 107 28
-0.327902 0.0717111 0.222215 44 107 29
-0.326646 0.0726403 0.222616 42 106 29
-0.326051 0.0737957 0.222775 46 109 29
-0.325458 0.0749483 0.222933 54 110 42
-0.325191 0.0762174 0.222972 85 128 59
-0.324599 0.0773655 0.22313 80 97 61
-0.324333 0.0786329 0.223169 69 64 45
-0.324067 0.0799002 0.223207 66 59 38
-0.323801 0.0811675 0.223246 65 60 41
-0.330492 0.000261371 0.223067 56 109 49
-0.359102 0.0124477 0.21235 45 106 34
-0.357643 0.01367 0.212815 54 104 40
-0.356581 0.0149318 0.213137 60 107 46
-0.356296 0.0162884 0.213178 62 108 44
-0.356011 0.017645 0.213219 62 107 47
-0.355726 0.0190014 0.213261 63 109 49
-0.355442 0.0203577 0.213302 66 111 50
-0.354772 0.0216563 0.213483 65 112 51
-0.354488 0.0230107 0.213524 67 111 53
-0.354203 0.024365 0.213565 66 113 53
-0.353919 0.0257192 0.213607 65 114 49
-0.352871 0.0269447 0.213925 65 114 50
-0.351828 0.0281639 0.214242 67 114 51
-0.351168 0.0294438 0.214421 69 114 51
-0.350509 0.0307203 0.214599 63 112 49
-0.350227 0.0320638 0.21464 62 113 48
-0.349945 0.0334071 0.21468 61 112 47
-0.349288 0.0346767 0.214858 63 111 45
-0.349006 0.0360182 0.214899 63 113 47
-0.349098 0.0374366 0.214803 63 114 47
-0.349191 0.0388585 0.214707 63 114 48
-0.348162 0.040042 0.215021 62 116 50
-0.34788 0.0413831 0.215062 66 114 48
-0.345751 0.0423082 0.215779 65 115 48
-0.345471 0.0436407 0.215819 67 115 45
-0.347035 0.0454058 0.215185 64 114 48
-0.346754 0.0467465 0.215226 66 116 49
-0.346472 0.0480871 0.215266 65 113 50
-0.346191 0.0494276 0.215307 65 111 45
-0.346279 0.050862 0.215212 58 107 39
-0.346368 0.0523 0.215117 61 107 35
-0.346086 0.0536436 0.215158 60 108 38
-0.346175 0.0550867 0.215063 61 110 41
-0.345893 0.0564318 0.215104 60 110 47
-0.34524 0.0576739 0.215281 59 107 45
-0.345328 0.0591218 0.215185 60 109 49
-0.345045 0.0604667 0.215226 63 109 50
-0.344763 0.0618114 0.215267 62 112 49
-0.344481 0.0631561 0.215308 60 106 39
-0.34383 0.0643891 0.215485 50 100 29
-0.343548 0.0657319 0.215526 40 97 29
-0.342533 0.0668456 0.215838 42 98 33
-0.341161 0.0678384 0.216282 55 104 40
-0.340159 0.0689396 0.21659 56 106 38
-0.339162 0.0700352 0.216896 39 104 26
-0.33817 0.0711252 0.217201 32 102 25
-0.336477 0.0719717 0.217766 37 104 26
-0.332385 0.0719826 0.219221 43 104 28
-0.328069 0.0718777 0.220761 42 107 30
-0.326809 0.0728086 0.221168 42 107 32
-0.325885 0.0738496 0.221451 45 109 37
-0.325291 0.0750036 0.221611 59 110 46
-0.325024 0.0762743 0.22165 89 125 64
-0.324757 0.077545 0.221688 86 85 60
-0.324166 0.0786929 0.221848 71 61 45
-0.323899 0.0799619 0.221887 65 61 41
-0.323633 0.0812307 0.221925 66 61 40
-0.328366 -0.00119077 0.222562 66 108 47
-0.330017 0.000194478 0.221904 53 111 45
-0.359435 0.00827675 0.210934 58 108 35
-0.359148 0.0096427 0.210976 55 113 32
-0.358861 0.0110085 0.211017 48 110 30
-0.358575 0.0123743 0.211059 55 107 39
-0.357506 0.0136445 0.211387 60 105 40
-0.356832 0.0149573 0.211571 63 105 43
-0.356546 0.0163175 0.211612 64 108 49
-0.356649 0.0177304 0.211511 66 110 52
-0.356363 0.0190921 0.211553 66 108 52
-0.356077 0.0204538 0.211595 66 113 55
-0.355018 0.0216995 0.21192 67 112 51
-0.354733 0.0230575 0.211961 68 116 52
-0.354448 0.0244154 0.212003 69 115 50
-0.354162 0.0257732 0.212044 67 116 48
-0.353111 0.0270018 0.212368 67 113 49
-0.352065 0.028224 0.21269 67 115 52
-0.351025 0.02944 0.21301 65 114 50
-0.350742 0.030787 0.213051 65 112 50
-0.350459 0.032134 0.213092 62 113 49
-0.3498 0.0334087 0.213272 61 110 49
-0.349143 0.0346801 0.213451 62 113 48
-0.348861 0.0360233 0.213492 63 116 48
-0.348953 0.0374436 0.213395 64 114 49
-0.348671 0.0387884 0.213436 65 114 49
-0.348388 0.0401331 0.213477 64 116 50
-0.347361 0.0413135 0.213794 64 113 50
-0.347079 0.0426546 0.213835 64 113 51
-0.346798 0.0439956 0.213876 65 116 49
-0.346887 0.0454236 0.213779 63 113 50
-0.346605 0.0467662 0.21382 67 112 49
-0.346323 0.0481086 0.213861 65 114 49
-0.346412 0.0495434 0.213764 62 111 48
-0.346874 0.0510763 0.213528 57 106 42
-0.346591 0.0524235 0.213569 57 109 44
-0.346681 0.053869 0.213472 59 109 40
-0.346397 0.0552178 0.213513 58 111 41
-0.346114 0.0565664 0.213554 61 112 47
-0.34546 0.0578116 0.213734 60 109 47
-0.345548 0.0592635 0.213636 60 111 50
-0.345265 0.0606119 0.213677 66 113 52
-0.344982 0.0619602 0.213719 68 115 52
-0.344329 0.0631981 0.213898 66 110 50
-0.343677 0.0644328 0.214077 64 102 35
-0.343395 0.0657773 0.214118 51 96 28
-0.342746 0.067007 0.214297 35 93 27
-0.341733 0.0681175 0.214611 42 95 27
-0.340364 0.0691055 0.21506 57 101 37
-0.339364 0.0702036 0.215371 54 105 33
-0.338369 0.071296 0.215681 40 101 25
-0.337024 0.0722632 0.216122 35 102 23
-0.333254 0.0723884 0.217475 41 106 29
-0.329576 0.0725105 0.218795 38 108 30
-0.326973 0.0729777 0.219712 43 109 34
-0.326047 0.0740209 0.219999 46 109 39
-0.325451 0.0751776 0.220162 63 115 47
-0.324857 0.0763314 0.220324 87 122 66
-0.32459 0.0776037 0.220362 81 78 52
-0.324323 0.0788759 0.220401 70 60 40
-0.324056 0.080148 0.22044 67 60 38
-0.325339 -0.00269451 0.222407 75 128 66
-0.326327 -0.00138432 0.221985 58 108 40
-0.327954 -8.29023e-06 0.221328 54 114 43
-0.359588 0.0068758 0.209456 56 109 36
-0.358907 0.00820294 0.209643 57 109 36
-0.358621 0.009569 0.209685 54 113 38
-0.358334 0.010935 0.209727 53 111 34
-0.358832 0.0123931 0.209477 55 109 40
-0.35776 0.0136666 0.20981 59 108 42
-0.357083 0.0149829 0.209996 61 108 48
-0.356797 0.0163467 0.210038 63 111 51
-0.356511 0.0177104 0.21008 64 110 52
-0.356224 0.0190741 0.210121 65 111 51
-0.355938 0.0204376 0.210163 64 112 51
-0.355265 0.021743 0.210349 66 115 52
-0.354979 0.0231046 0.21039 64 114 50
-0.35508 0.0245276 0.210288 66 115 52
-0.354407 0.0258275 0.210474 64 115 50
-0.353352 0.0270592 0.210802 65 116 50
-0.352303 0.0282845 0.211129 66 116 54
-0.351259 0.0295035 0.211454 66 117 52
-0.350976 0.0308541 0.211495 65 113 50
-0.350315 0.0321339 0.211677 63 111 49
-0.349655 0.0334103 0.211859 62 113 46
-0.348997 0.0346834 0.212041 61 111 48
-0.348715 0.0360285 0.212082 63 115 49
-0.348807 0.0374507 0.211983 64 115 49
-0.348524 0.0387973 0.212024 66 114 46
-0.347868 0.0400632 0.212205 65 115 50
-0.347213 0.0413258 0.212386 64 115 50
-0.346931 0.0426687 0.212427 65 116 48
-0.346649 0.0440115 0.212468 65 115 48
-0.346739 0.0454415 0.212369 64 114 50
-0.346456 0.0467859 0.21241 64 113 49
-0.346546 0.048221 0.212311 63 112 47
-0.346635 0.0496596 0.212212 61 114 51
-0.347098 0.0511969 0.211972 56 109 47
-0.347189 0.0526447 0.211872 56 108 42
-0.346905 0.0539971 0.211914 59 113 47
-0.346621 0.0553495 0.211955 59 111 40
-0.346337 0.0567017 0.211996 59 115 46
-0.34568 0.05795 0.212179 59 113 45
-0.345397 0.0593003 0.21222 60 110 51
-0.345113 0.0606505 0.212261 67 114 52
-0.34483 0.0620006 0.212302 65 112 50
-0.344547 0.0633507 0.212343 63 105 49
-0.343893 0.0645884 0.212525 63 105 47
-0.34361 0.0659365 0.212566 58 100 35
-0.342591 0.0670542 0.212887 39 97 24
-0.341943 0.0682822 0.213067 31 93 21
-0.340933 0.0693895 0.213385 42 94 27
-0.339207 0.0702547 0.213975 57 102 39
-0.338568 0.0714677 0.214152 51 106 35
-0.336865 0.0723169 0.214735 38 104 26
-0.335179 0.0731575 0.215312 36 106 26
-0.331787 0.0733903 0.21654 35 109 30
-0.328805 0.0737362 0.217614 42 109 34
-0.326209 0.0741931 0.218541 50 108 38
-0.325284 0.0752334 0.218831 73 118 52
-0.324689 0.0763886 0.218994 82 110 69
-0.324422 0.0776625 0.219033 72 73 53
-0.320769 -0.00669579 0.222967 141 205 104
-0.321118 -0.0054672 0.22278 125 183 89
-0.322373 -0.00416809 0.222254 107 161 79
-0.323032 -0.00290101 0.221951 68 114 50
-0.324618 -0.00155077 0.2213 56 111 38
-0.359059 0.00680175 0.208163 57 109 37
-0.35838 0.00812911 0.208352 57 109 35
-0.358485 0.00953775 0.208247 56 111 36
-0.358984 0.0109943 0.207993 56 112 39
-0.358696 0.0123656 0.208035 58 109 40
-0.358802 0.0137849 0.207929 58 110 45
-0.358514 0.0151577 0.207971 60 108 49
-0.357833 0.0164789 0.208161 60 110 49
-0.357153 0.0177965 0.20835 62 112 48
-0.356475 0.0191106 0.208539 64 114 49
-0.355411 0.0203649 0.208874 64 115 51
-0.355125 0.0217285 0.208916 63 113 50
-0.354839 0.0230919 0.208957 64 118 50
-0.354939 0.0245169 0.208853 63 116 49
-0.354266 0.0258186 0.209041 65 114 50
-0.353595 0.0271168 0.209228 66 116 48
-0.352542 0.0283452 0.209559 64 116 50
-0.351495 0.0295673 0.209889 66 115 50
-0.351211 0.0309215 0.209931 66 116 49
-0.350548 0.0322045 0.210116 64 112 47
-0.34951 0.0334118 0.210443 63 112 46
-0.348851 0.0346867 0.210627 61 112 48
-0.348568 0.0360336 0.210668 65 114 45
-0.348286 0.0373804 0.210709 65 113 48
-0.348377 0.0388062 0.210608 65 115 47
-0.34772 0.0400738 0.210791 64 116 47
-0.347065 0.0413381 0.210974 67 114 48
-0.346783 0.0426828 0.211015 66 118 48
-0.3465 0.0440275 0.211056 65 116 47
-0.34659 0.0454594 0.210956 66 114 47
-0.346679 0.0468949 0.210855 66 110 47
-0.347142 0.0484254 0.210612 65 110 45
-0.347233 0.04987 0.21051 69 116 50
-0.347324 0.0513181 0.210408 68 119 52
-0.347039 0.0526725 0.21045 63 113 47
-0.346755 0.0540268 0.210491 59 114 47
-0.346471 0.055381 0.210532 60 114 44
-0.346186 0.056735 0.210574 58 116 41
-0.345529 0.057985 0.210758 58 116 43
-0.345245 0.0593371 0.210799 60 108 46
-0.344961 0.0606892 0.210841 66 109 50
-0.344307 0.0619322 0.211024 64 103 42
-0.344023 0.0632824 0.211066 59 102 40
-0.34374 0.0646325 0.211107 56 101 45
-0.343088 0.0658686 0.21129 58 103 37
-0.342805 0.0672167 0.211331 48 99 31
-0.341788 0.0683311 0.211655 35 93 21
-0.341141 0.0695576 0.211837 31 91 18
-0.340132 0.0706617 0.212158 41 98 26
-0.33841 0.0715205 0.212755 55 107 39
-0.337061 0.0724907 0.213208 50 109 36
-0.335369 0.0733327 0.213794 35 107 25
-0.334391 0.0744092 0.214106 37 108 25
-0.331008 0.0746282 0.215347 47 110 35
-0.330735 0.0759307 0.215387 59 112 46
-0.320262 -0.00796682 0.22192 163 225 115
-0.319419 -0.00681681 0.222181 139 198 97
-0.319764 -0.00559246 0.221993 119 175 87
-0.320408 -0.00434133 0.221691 82 145 71
-0.321057 -0.00308182 0.221387 57 107 39
-0.32262 -0.00174035 0.220737 51 106 38
-0.359606 0.00543387 0.206529 53 106 37
-0.358531 0.0067277 0.20687 57 105 35
-0.358244 0.00809586 0.206912 56 108 33
-0.357957 0.00946394 0.206954 56 113 37
-0.358454 0.0109205 0.206697 56 115 39
-0.358955 0.0123844 0.206439 58 114 43
-0.358666 0.0137593 0.206481 58 110 47
-0.358377 0.015134 0.206523 59 113 45
-0.358089 0.0165087 0.206565 59 113 43
-0.3578 0.0178832 0.206607 59 114 47
-0.356337 0.0190925 0.207098 61 117 48
-0.35566 0.020405 0.207288 63 114 47
-0.354985 0.021714 0.207478 64 115 48
-0.354698 0.0230793 0.20752 64 120 49
-0.355187 0.0245681 0.207265 65 118 50
-0.3549 0.0259367 0.207307 66 117 50
-0.353453 0.0271097 0.207793 65 116 51
-0.352783 0.0284063 0.207982 65 118 53
-0.351732 0.0296314 0.208317 66 115 50
-0.351447 0.0309892 0.208358 63 115 49
-0.350403 0.0322044 0.208691 63 114 48
-0.349741 0.0334859 0.208878 63 114 48
-0.348705 0.03469 0.209208 62 115 48
-0.348421 0.0360387 0.20925 63 113 46
-0.348138 0.0373874 0.209291 63 114 47
-0.347855 0.038736 0.209332 60 116 49
-0.347572 0.0400844 0.209374 63 116 50
-0.346916 0.0413504 0.209559 63 114 49
-0.346634 0.042697 0.2096 62 118 49
-0.346351 0.0440435 0.209641 65 117 51
-0.34644 0.0454774 0.209539 65 114 50
-0.347277 0.0470944 0.209147 64 113 50
-0.346993 0.0484474 0.209189 65 112 44
-0.347459 0.0499878 0.20894 63 110 50
-0.34755 0.05144 0.208836 71 121 57
-0.347642 0.0528957 0.208732 71 121 54
-0.347356 0.0542553 0.208773 62 115 50
-0.347071 0.0556148 0.208815 60 115 41
-0.346785 0.0569742 0.208856 57 117 43
-0.345378 0.0580201 0.209334 59 122 48
-0.344721 0.0592684 0.20952 58 114 43
-0.344438 0.0606206 0.209561 60 107 45
-0.344154 0.0619727 0.209602 59 102 40
-0.34387 0.0633247 0.209644 57 104 38
-0.343217 0.0645643 0.209829 60 105 43
-0.342933 0.0659144 0.20987 61 110 47
-0.342282 0.0671489 0.210055 58 106 43
-0.341632 0.0683802 0.210239 48 100 31
-0.340984 0.0696082 0.210423 30 95 25
-0.339975 0.0707137 0.210748 22 91 21
-0.338252 0.0715735 0.211353 37 101 27
-0.336546 0.0724245 0.211951 56 107 44
-0.335208 0.0733877 0.212407 52 107 33
-0.334931 0.0747101 0.212447 44 107 33
-0.334653 0.0760324 0.212488 53 109 41
-0.334726 0.0774806 0.21239 70 118 52
-0.319211 -0.00806641 0.221025 149 214 109
-0.318667 -0.0069002 0.221174 133 194 94
-0.318418 -0.00571692 0.221211 113 164 81
-0.319056 -0.00447027 0.220907 66 115 55
-0.320595 -0.00314703 0.220258 49 106 35
-0.357898 0.00524828 0.205685 49 103 35
-0.357611 0.00661489 0.205727 49 105 37
-0.357324 0.00798142 0.205769 54 103 36
-0.357428 0.00939011 0.20566 56 106 34
-0.357924 0.0108466 0.2054 57 109 35
-0.358423 0.0123105 0.205139 57 113 38
-0.358135 0.0136854 0.205181 58 113 43
-0.35824 0.0151102 0.205071 58 119 44
-0.357951 0.0164868 0.205113 57 118 44
-0.357663 0.0178633 0.205156 58 117 44
-0.356981 0.0191843 0.20535 58 115 46
-0.355131 0.0203321 0.205995 64 119 44
-0.354457 0.0216413 0.206187 63 117 47
-0.35417 0.0230068 0.206229 65 120 50
-0.354658 0.0244955 0.205971 64 119 49
-0.354371 0.0258643 0.206013 66 120 50
-0.35331 0.0271026 0.206355 64 120 49
-0.352639 0.028401 0.206546 65 119 49
-0.35197 0.0296959 0.206736 65 119 51
-0.351303 0.0309874 0.206926 65 117 49
-0.350637 0.0322756 0.207116 65 117 49
-0.349595 0.0334876 0.207452 66 117 50
-0.348933 0.0347674 0.20764 63 117 49
-0.348274 0.0360439 0.207828 62 115 48
-0.347991 0.0373944 0.207869 64 115 49
-0.347707 0.0387448 0.207911 63 115 48
-0.34705 0.0400143 0.208098 63 117 49
-0.346767 0.0413628 0.208139 63 119 49
-0.346484 0.0427112 0.20818 62 117 50
-0.346574 0.0441454 0.208076 66 117 50
-0.347037 0.0456713 0.207825 64 113 50
-0.346753 0.0470246 0.207867 62 114 51
-0.347218 0.0485616 0.207615 64 111 49
-0.347309 0.0500121 0.207509 62 108 50
-0.3474 0.0514662 0.207403 58 109 50
-0.347492 0.052924 0.207297 73 120 54
-0.347206 0.0542855 0.207339 68 124 57
-0.34692 0.0556468 0.20738 60 115 47
-0.346635 0.0570081 0.207422 57 117 48
-0.345225 0.0580553 0.207906 58 118 47
-0.344941 0.0594111 0.207947 59 122 45
-0.344284 0.0606593 0.208135 58 114 40
-0.34363 0.0619042 0.208323 57 106 40
-0.343346 0.0632563 0.208364 58 106 38
-0.343062 0.0646083 0.208405 63 113 46
-0.34241 0.0658463 0.208592 70 120 53
-0.342126 0.0671964 0.208634 68 120 56
-0.34111 0.0683125 0.208965 63 113 49
-0.340463 0.0695408 0.20915 48 102 36
-0.339455 0.0706466 0.209479 32 90 21
-0.337734 0.0715068 0.21009 26 89 18
-0.336031 0.0723582 0.210695 42 99 29
-0.335047 0.0734428 0.211015 58 109 41
-0.334418 0.0746443 0.211195 49 110 36
-0.334491 0.076091 0.211096 54 110 44
-0.334213 0.0774149 0.211137 83 123 56
-0.338205 0.0802955 0.20948 82 94 61
-0.342867 0.086419 0.20741 63 60 47
-0.31821 -0.00696506 0.220056 128 187 93
-0.317961 -0.00578168 0.220092 95 151 73
-0.319191 -0.00449275 0.219555 57 102 36
-0.357657 0.00380731 0.204351 42 102 26
-0.35737 0.00517416 0.204393 46 103 29
-0.357083 0.00654091 0.204435 54 104 33
-0.356796 0.00790755 0.204477 57 104 36
-0.356509 0.0092741 0.204519 57 107 39
-0.357003 0.0107285 0.204256 56 107 37
-0.357107 0.0121443 0.204146 55 106 34
-0.357603 0.0136116 0.203881 56 109 35
-0.357315 0.0149866 0.203923 56 113 38
-0.357419 0.0164131 0.203812 57 116 42
-0.35713 0.0177897 0.203854 57 120 46
-0.356842 0.0191662 0.203896 57 121 47
-0.356161 0.0204856 0.204092 60 121 45
-0.354703 0.0216848 0.204592 61 118 47
-0.354804 0.0231139 0.204482 63 121 49
-0.354516 0.0244847 0.204524 63 121 49
-0.354229 0.0258554 0.204566 64 119 48
-0.353941 0.0272259 0.204608 66 124 48
-0.352496 0.0283956 0.205105 65 122 49
-0.352209 0.0297607 0.205147 64 121 50
-0.35154 0.0310556 0.20534 63 120 49
-0.350491 0.0322755 0.205682 61 121 49
-0.349448 0.0334892 0.206022 62 118 51
-0.348786 0.0347708 0.206213 62 117 52
-0.348126 0.036049 0.206402 61 115 47
-0.347842 0.0374013 0.206444 62 113 47
-0.347184 0.0386744 0.206633 63 117 47
-0.346901 0.0400248 0.206674 62 117 48
-0.346618 0.0413752 0.206716 64 117 49
-0.346334 0.0427254 0.206757 63 116 51
-0.346797 0.0442479 0.206503 64 115 50
-0.346513 0.0456014 0.206545 62 113 50
-0.346229 0.0469547 0.206586 64 113 51
-0.346693 0.0484917 0.206331 65 110 50
-0.346783 0.0499422 0.206224 66 110 49
-0.34725 0.0514925 0.205967 62 105 50
-0.346964 0.0528542 0.206008 60 110 47
-0.346679 0.0542158 0.20605 74 125 56
-0.346769 0.0556789 0.205942 68 121 53
-0.346483 0.057042 0.205984 60 116 48
-0.345447 0.0581951 0.206325 56 112 48
-0.344788 0.0594483 0.206515 54 118 43
-0.344131 0.0606981 0.206705 57 122 41
-0.343475 0.0619446 0.206895 56 115 44
-0.342822 0.0631879 0.207084 60 111 44
-0.342538 0.06454 0.207126 69 118 49
-0.342254 0.0658921 0.207167 77 124 58
-0.341603 0.0671284 0.207356 83 133 71
-0.340953 0.0683616 0.207544 71 122 57
-0.339941 0.0694733 0.207877 61 111 46
-0.338574 0.0704605 0.208353 46 101 33
-0.33686 0.0713206 0.208969 28 91 23
-0.335516 0.072292 0.209437 21 91 23
-0.334533 0.0733769 0.209761 38 100 31
-0.334255 0.0747011 0.209802 49 110 42
-0.333977 0.0760253 0.209842 58 111 48
-0.33405 0.0774755 0.209742 93 134 64
-0.335536 0.0794453 0.209072 82 90 63
-0.33885 0.082109 0.207664 68 65 48
-0.340765 0.0842846 0.206819 65 60 42
-0.341963 0.0862097 0.206263 62 55 41
-0.342048 0.0877214 0.206154 66 59 41
-0.355963 0.00362853 0.203518 54 108 36
-0.355677 0.00499023 0.20356 59 111 42
-0.356166 0.00642846 0.203296 65 117 48
-0.35588 0.00779347 0.203338 64 118 50
-0.355593 0.00915838 0.20338 62 118 51
-0.355695 0.0105669 0.203269 60 116 47
-0.356186 0.0120247 0.203003 57 110 41
-0.356289 0.0134422 0.202891 51 106 35
-0.356001 0.0148137 0.202933 48 106 35
-0.356103 0.0162365 0.20282 52 106 34
-0.356206 0.0176628 0.202708 55 112 39
-0.355918 0.0190376 0.20275 50 115 42
-0.355629 0.0204123 0.202792 55 118 43
-0.355341 0.021787 0.202834 58 122 46
-0.354663 0.0231012 0.203031 59 123 47
-0.354764 0.0245359 0.202919 59 124 49
-0.354475 0.0259103 0.202961 59 122 52
-0.353798 0.0272189 0.203158 62 124 50
-0.353123 0.0285241 0.203354 63 123 48
-0.352836 0.0298946 0.203396 62 122 46
-0.352163 0.0311944 0.203592 62 121 47
-0.350726 0.0323471 0.204092 61 119 47
-0.350059 0.0336369 0.204286 61 116 49
-0.348639 0.0347742 0.204781 62 118 51
-0.347978 0.0360541 0.204973 61 116 48
-0.347694 0.0374083 0.205014 62 117 48
-0.347035 0.0386831 0.205206 63 118 47
-0.346751 0.0400354 0.205247 63 119 50
-0.346468 0.0413876 0.205289 64 119 49
-0.346557 0.0428241 0.205181 63 121 51
-0.346273 0.0441778 0.205222 63 119 50
-0.345989 0.0455314 0.205264 63 116 49
-0.346078 0.0469748 0.205156 64 113 50
-0.345794 0.0483299 0.205197 64 114 49
-0.346257 0.0498723 0.204938 64 115 48
-0.346723 0.0514226 0.204678 63 111 49
-0.346437 0.0527844 0.204719 56 100 39
-0.346527 0.0542459 0.20461 57 109 41
-0.346241 0.0556092 0.204652 72 124 55
-0.346331 0.057076 0.204542 67 124 51
-0.345669 0.0583357 0.204735 57 115 48
-0.345008 0.059592 0.204928 47 112 40
-0.344349 0.0608449 0.205121 50 117 38
-0.343321 0.0619852 0.205463 54 120 41
-0.342666 0.0632301 0.205655 61 112 45
-0.342382 0.0645841 0.205696 72 120 51
-0.34173 0.0658239 0.205887 77 121 54
-0.341446 0.0671759 0.205928 73 120 52
-0.34043 0.0682938 0.206267 68 121 54
-0.33942 0.0694058 0.206603 64 117 49
-0.338054 0.0703934 0.207085 58 111 48
-0.335988 0.071135 0.207852 45 101 32
-0.335001 0.0722257 0.20818 27 91 20
-0.33437 0.073432 0.208364 29 90 17
-0.334092 0.074758 0.208405 42 101 30
-0.333814 0.076084 0.208445 59 111 46
-0.334238 0.077663 0.2082 101 139 64
-0.337162 0.0801624 0.206934 104 142 74
-0.338326 0.0820423 0.206385 79 82 61
-0.339869 0.0840792 0.20568 70 60 46
-0.341804 0.0862841 0.204814 68 58 41
-0.342638 0.0880871 0.204398 66 59 44
-0.343102 0.0897564 0.204132 62 60 46
-0.355336 0.0021598 0.202343 56 109 41
-0.355436 0.00355456 0.202231 58 115 46
-0.355151 0.00491639 0.202273 62 119 48
-0.354865 0.00627812 0.202314 68 124 50
-0.354579 0.00763977 0.202356 67 125 52
-0.354679 0.00904296 0.202244 62 120 50
-0.354779 0.0104496 0.202131 61 120 48
-0.35488 0.0118599 0.202018 61 121 49
-0.354593 0.0132264 0.20206 58 114 48
-0.354306 0.0145928 0.202102 56 108 44
-0.354794 0.0160607 0.201834 51 105 35
-0.354895 0.0174833 0.20172 45 105 38
-0.354996 0.0189094 0.201606 45 108 36
-0.354708 0.0202824 0.201648 49 110 34
-0.35442 0.0216554 0.20169 58 112 36
-0.35452 0.0230884 0.201576 56 117 48
-0.354232 0.024463 0.201618 57 118 48
-0.353944 0.0258375 0.201661 56 121 48
-0.353655 0.0272118 0.201703 57 126 50
-0.352979 0.0285188 0.201901 61 127 49
-0.352691 0.0298912 0.201944 61 125 48
-0.352403 0.0312635 0.201986 66 124 51
-0.352115 0.0326357 0.202028 61 122 51
-0.351058 0.0338596 0.202381 61 120 49
-0.349247 0.0349269 0.20304 61 121 49
-0.348583 0.0362118 0.203234 60 121 50
-0.347921 0.0374932 0.203429 63 119 47
-0.346885 0.0386918 0.203775 61 120 49
-0.346601 0.0400459 0.203816 63 121 49
-0.346317 0.0414 0.203858 64 122 50
-0.346406 0.0428385 0.203748 64 125 50
-0.346122 0.044194 0.20379 64 123 49
-0.345837 0.0455495 0.203831 63 121 48
-0.345553 0.0469048 0.203873 64 119 48
-0.345642 0.0483518 0.203763 62 117 51
-0.345731 0.0498025 0.203652 64 113 49
-0.34582 0.0512567 0.203541 62 108 42
-0.345909 0.0527146 0.20343 57 105 36
-0.345999 0.0541761 0.203319 52 107 31
-0.346089 0.0556413 0.203207 61 115 45
-0.345802 0.0570064 0.203249 73 124 54
-0.345892 0.0584769 0.203138 65 123 52
-0.345229 0.0597364 0.203333 56 113 43
-0.344568 0.0609925 0.203529 48 110 34
-0.343537 0.0621354 0.203876 43 112 35
-0.34288 0.0633835 0.20407 59 109 40
-0.342226 0.0646282 0.204263 67 112 49
-0.341573 0.0658697 0.204456 69 111 50
-0.340922 0.0671079 0.204648 65 111 50
-0.340272 0.0683428 0.20484 66 111 51
-0.338898 0.0693384 0.20533 66 112 49
-0.337535 0.0703263 0.205816 64 115 49
-0.335471 0.0710684 0.206591 59 109 46
-0.334486 0.0721594 0.206922 49 98 29
-0.333856 0.0733659 0.207108 41 96 24
-0.333577 0.0746921 0.207149 49 101 30
-0.33365 0.0761428 0.207045 62 110 45
-0.334074 0.0777241 0.206795 101 144 68
-0.337723 0.0804918 0.205213 127 176 90
-0.338894 0.0823806 0.204654 111 151 79
-0.340446 0.0844277 0.203935 82 83 62
-0.342393 0.0866441 0.203052 68 60 51
-0.342856 0.0883098 0.202783 64 60 48
-0.343321 0.0899842 0.202513 63 59 45
-0.34341 0.0915167 0.202398 67 59 39
-0.340461 -0.0173603 0.207813 94 149 77
-0.354326 0.000663626 0.201325 59 108 37
-0.354042 0.00202055 0.201367 59 113 45
-0.354525 0.00344611 0.201099 62 116 46
-0.354239 0.00480631 0.20114 67 122 50
-0.354339 0.00620439 0.201027 71 128 52
-0.354053 0.00756615 0.201069 69 127 52
-0.353767 0.00892782 0.201111 67 124 48
-0.353866 0.0103327 0.200997 64 124 50
-0.35358 0.0116959 0.201039 65 123 49
-0.353679 0.0131059 0.200925 62 119 48
-0.353392 0.0144707 0.200966 58 116 50
-0.353491 0.0158859 0.200852 56 112 43
-0.35359 0.0173047 0.200737 57 113 44
-0.353303 0.0186727 0.20078 61 109 34
-0.353789 0.0201529 0.200507 55 107 34
-0.353501 0.0215242 0.200549 50 106 32
-0.353601 0.0229553 0.200434 47 105 38
-0.3537 0.0243901 0.200318 56 109 39
-0.353412 0.0257647 0.20036 56 111 45
-0.353123 0.0271391 0.200403 55 116 45
-0.352835 0.0285135 0.200445 59 118 41
-0.352547 0.0298878 0.200487 59 118 41
-0.352258 0.031262 0.20053 57 120 47
-0.351584 0.0325636 0.20073 58 123 52
-0.351296 0.0339358 0.200772 60 124 49
-0.350624 0.035232 0.200971 60 127 51
-0.349573 0.0364476 0.201327 59 124 49
-0.348906 0.0377355 0.201524 66 126 48
-0.347863 0.0389397 0.201877 68 123 47
-0.347201 0.0402193 0.202073 69 124 49
-0.346915 0.0415786 0.202115 68 123 50
-0.34663 0.0429378 0.202157 64 125 49
-0.34597 0.0442103 0.202353 67 125 50
-0.345686 0.0455676 0.202395 62 123 49
-0.345401 0.0469248 0.202436 62 122 47
-0.345116 0.0482819 0.202478 62 119 49
-0.344831 0.0496389 0.20252 58 118 48
-0.345293 0.0511868 0.202254 59 113 40
-0.345381 0.0526447 0.202141 58 113 36
-0.34547 0.0541063 0.202028 55 110 36
-0.346313 0.0557755 0.201603 58 108 35
-0.346026 0.0571443 0.201645 61 117 46
-0.345739 0.058513 0.201688 75 129 58
-0.345452 0.0598816 0.20173 66 124 50
-0.345165 0.0612501 0.201772 57 111 40
-0.344127 0.0623968 0.202125 40 108 33
-0.343096 0.0635376 0.202476 49 106 35
-0.342439 0.0647855 0.202672 60 107 43
-0.341784 0.06603 0.202868 65 103 45
-0.340764 0.0671554 0.203215 66 104 44
-0.340114 0.068392 0.203409 64 107 49
-0.338738 0.0693887 0.203905 68 110 49
-0.337015 0.0702591 0.204547 65 114 51
-0.334601 0.0708832 0.205477 62 115 51
-0.333619 0.0719735 0.205811 64 109 45
-0.333341 0.0732998 0.205852 59 108 41
-0.332713 0.0745034 0.206039 54 107 37
-0.333134 0.0760768 0.205787 57 111 46
-0.333558 0.0776581 0.205535 99 142 67
-0.337199 0.080425 0.203935 124 170 86
-0.338732 0.0824492 0.203216 134 189 98
-0.340286 0.0844995 0.202487 116 157 80
-0.342234 0.0867194 0.201592 83 89 61
-0.343075 0.0885337 0.20116 66 62 52
-0.343163 0.0900646 0.201044 64 61 45
-0.343251 0.0915993 0.200928 65 61 41
-0.34334 0.093138 0.200811 62 61 41
-0.339967 -0.0174315 0.206603 87 129 65
-0.354372 -0.00212473 0.199958 50 104 29
-0.353704 -0.000796409 0.200156 59 107 36
-0.35342 0.000559012 0.200198 60 110 44
-0.353517 0.00194672 0.200084 61 116 48
-0.353233 0.00330368 0.200126 66 121 48
-0.353714 0.00473253 0.199854 73 128 52
-0.353428 0.00609277 0.199896 77 133 56
-0.353143 0.00745291 0.199938 73 128 52
-0.352858 0.00881295 0.19998 69 124 48
-0.352767 0.0129858 0.199791 66 122 48
-0.352481 0.0143489 0.199833 59 118 48
-0.352578 0.0157622 0.199718 56 114 46
-0.352676 0.0171792 0.199602 59 119 48
-0.352389 0.0185455 0.199644 62 119 50
-0.352103 0.0199118 0.199686 60 119 49
-0.3522 0.0213355 0.19957 59 117 43
-0.352683 0.0228225 0.199294 60 114 43
-0.352781 0.0242554 0.199177 59 113 43
-0.35288 0.0256918 0.19906 57 109 37
-0.352592 0.0270664 0.199102 54 107 37
-0.352303 0.028441 0.199145 50 109 38
-0.352015 0.0298154 0.199187 52 108 39
-0.351726 0.0311897 0.199229 50 112 42
-0.351053 0.0324915 0.199431 57 109 44
-0.350765 0.0338638 0.199473 55 111 41
-0.350094 0.0351602 0.199674 56 115 46
-0.349806 0.0365306 0.199717 56 115 39
-0.348757 0.0377429 0.200075 56 116 43
-0.348091 0.0390291 0.200275 57 118 49
-0.347427 0.0403119 0.200474 58 121 51
-0.346764 0.0415913 0.200672 57 122 50
-0.346104 0.0428673 0.20087 58 122 52
-0.345818 0.0442266 0.200912 59 124 50
-0.345533 0.0455857 0.200954 58 124 51
-0.344875 0.0468547 0.201152 58 123 48
-0.34459 0.048212 0.201193 58 119 47
-0.344305 0.0495691 0.201235 55 115 42
-0.344766 0.0511169 0.200966 57 114 46
-0.344854 0.0525749 0.200852 55 112 47
-0.344942 0.0540365 0.200737 55 106 43
-0.345783 0.0557055 0.200307 55 102 32
-0.345496 0.0570744 0.200349 48 101 30
-0.345585 0.0585491 0.200234 61 112 47
-0.345298 0.0599196 0.200276 75 128 55
-0.34501 0.06129 0.200318 63 119 48
-0.344723 0.0626603 0.20036 41 105 30
-0.34406 0.0639175 0.20056 26 106 29
-0.342282 0.06483 0.201229 48 105 41
-0.341627 0.0660762 0.201427 59 106 46
-0.340973 0.0673192 0.201624 60 108 50
-0.339589 0.068324 0.202129 60 106 48
-0.338578 0.0694392 0.202477 64 107 46
-0.336495 0.070192 0.203278 61 112 51
-0.334085 0.0708167 0.204217 63 114 52
-0.333105 0.0719073 0.204555 65 112 51
-0.332477 0.0731128 0.204743 63 114 48
-0.332199 0.0744375 0.204784 63 111 42
-0.331921 0.0757621 0.204825 60 109 44
-0.33269 0.0774652 0.204422 88 136 60
-0.335239 0.0798317 0.203265 118 169 81
-0.338205 0.0823821 0.201929 131 188 94
-0.339755 0.0844321 0.201192 138 197 100
-0.341699 0.0866516 0.200287 117 164 84
-0.342538 0.0884657 0.19985 84 92 63
-0.343004 0.0901452 0.199572 71 63 48
-0.343092 0.0916822 0.199453 67 61 45
-0.3428 0.0930701 0.199496 64 61 46
-0.342889 0.0946127 0.199377 62 58 44
-0.339398 -0.0187885 0.205495 99 152 77
-0.339818 -0.0174954 0.205252 76 123 55
-0.353936 -0.00631543 0.198865 57 112 44
-0.35327 -0.00498475 0.199064 51 104 34
-0.352606 -0.00365756 0.199263 47 103 33
-0.352323 -0.00230698 0.199304 57 105 38
-0.352419 -0.000927889 0.199189 59 111 44
-0.351668 0.0156389 0.198586 60 116 45
-0.351764 0.017054 0.198469 63 121 49
-0.351478 0.0184187 0.198511 64 123 50
-0.351191 0.0197833 0.198553 61 122 48
-0.351287 0.0212052 0.198435 60 120 47
-0.351384 0.0226307 0.198318 61 123 48
-0.351865 0.024121 0.198039 63 125 51
-0.351962 0.0255556 0.197921 66 128 52
-0.351674 0.0269285 0.197963 65 127 52
-0.351002 0.0282345 0.198166 63 121 48
-0.350714 0.0296055 0.198208 59 115 46
-0.35081 0.0310468 0.19809 53 110 40
-0.350522 0.0324193 0.198132 46 109 40
-0.349851 0.0337179 0.198335 48 107 37
-0.349182 0.035013 0.198538 46 109 40
-0.349276 0.036459 0.19842 48 108 40
-0.348988 0.0378294 0.198462 44 112 41
-0.347941 0.0390383 0.198824 53 110 40
-0.347276 0.0403228 0.199025 55 109 41
-0.346613 0.041604 0.199226 54 110 47
-0.345952 0.0428818 0.199426 55 112 44
-0.345292 0.0441562 0.199626 57 114 42
-0.345007 0.0455155 0.199668 59 112 43
-0.344349 0.0467847 0.199867 57 110 45
-0.344064 0.048142 0.199909 56 108 44
-0.34378 0.0494993 0.19995 56 108 42
-0.343866 0.0509516 0.199835 50 105 40
-0.343953 0.0524076 0.19972 41 104 42
-0.344413 0.0539666 0.199446 40 102 34
-0.345252 0.0556356 0.199011 44 96 22
-0.345342 0.0571086 0.198894 38 96 20
-0.345431 0.0585853 0.198776 37 93 24
-0.345143 0.0599577 0.198818 62 113 50
-0.344855 0.0613299 0.19886 75 128 59
-0.344567 0.0627021 0.198903 58 108 40
-0.343904 0.0639611 0.199105 28 99 28
-0.343242 0.0652167 0.199307 27 98 32
-0.341468 0.0661225 0.199982 44 102 35
-0.340814 0.0673671 0.200181 57 106 40
-0.339429 0.0683732 0.200692 61 104 41
-0.338417 0.0694898 0.201044 62 106 41
-0.336691 0.0703621 0.201702 67 115 50
-0.334274 0.0709873 0.202656 66 116 49
-0.33294 0.0719605 0.203148 67 116 50
-0.331963 0.0730468 0.203488 70 116 52
-0.331685 0.0743716 0.203529 65 113 50
-0.331407 0.0756963 0.20357 49 112 46
-0.331477 0.0771468 0.203462 62 127 51
-0.332947 0.079115 0.202752 111 158 74
-0.336228 0.0817752 0.201265 133 187 95
-0.339224 0.0843646 0.199897 136 197 99
-0.340791 0.0864408 0.199142 138 199 102
-0.342001 0.0883978 0.19854 117 161 83
-0.342465 0.0900771 0.198258 86 89 63
-0.342553 0.0916141 0.198138 69 62 52
-0.34264 0.0931551 0.198017 65 62 50
-0.34349 0.0950114 0.197567 67 60 46
-0.343963 0.0967233 0.19728 67 59 42
-0.335116 -0.020186 0.205928 116 167 80
-0.338905 -0.0188597 0.204286 93 133 65
-0.350855 0.0169291 0.197338 66 122 49
-0.350569 0.0182922 0.19738 65 124 51
-0.350664 0.0197105 0.197262 61 121 50
-0.350377 0.0210752 0.197304 61 119 48
-0.350091 0.0224397 0.197346 62 126 51
-0.350567 0.0239259 0.197066 65 127 53
-0.350663 0.0253566 0.196946 69 129 53
-0.350376 0.0267261 0.196988 72 132 54
-0.350088 0.0280956 0.197031 70 131 54
-0.349801 0.0294649 0.197073 65 130 55
-0.349896 0.0309042 0.196953 64 124 51
-0.349608 0.0322751 0.196996 60 117 48
-0.348939 0.0335723 0.1972 58 114 43
-0.348272 0.0348661 0.197403 58 112 41
-0.348365 0.0363101 0.197284 60 116 45
-0.348458 0.0377578 0.197165 61 116 47
-0.34817 0.0391282 0.197207 60 112 41
-0.346747 0.0402518 0.197733 61 110 41
-0.346085 0.0415332 0.197935 57 108 41
-0.345424 0.0428111 0.198137 57 108 41
-0.345139 0.0441724 0.198179 57 109 41
-0.34448 0.0454452 0.198381 57 108 40
-0.343823 0.0467146 0.198582 60 107 37
-0.343538 0.0480721 0.198623 61 106 37
-0.343254 0.0494294 0.198665 62 107 36
-0.342969 0.0507867 0.198707 58 109 40
-0.343054 0.0522407 0.19859 56 109 42
-0.343512 0.0537975 0.198314 57 106 39
-0.344346 0.0554637 0.197876 59 102 37
-0.345187 0.0571428 0.197434 50 101 34
-0.344899 0.0585154 0.197476 35 98 29
-0.344611 0.0598879 0.197518 38 94 29
-0.3447 0.06137 0.197399 63 116 50
-0.344035 0.0626325 0.197603 71 123 54
-0.343747 0.0640047 0.197646 40 102 35
-0.343085 0.065262 0.197849 26 91 24
-0.34131 0.0661689 0.198533 34 93 19
-0.340287 0.0672987 0.198893 45 101 29
-0.339269 0.0684225 0.199252 54 103 38
-0.338256 0.0695405 0.199608 64 109 47
-0.336888 0.0705331 0.200119 77 130 60
-0.335174 0.071398 0.20078 76 125 56
-0.333477 0.0722541 0.201434 76 122 54
-0.332145 0.0732225 0.201931 67 113 54
-0.331171 0.0743057 0.202274 56 106 45
-0.330893 0.0756305 0.202315 42 112 35
-0.330615 0.0769553 0.202355 42 120 40
-0.331379 0.078663 0.201944 83 142 60
-0.333206 0.0807774 0.201069 128 180 92
-0.336502 0.0834691 0.199555 137 193 101
-0.339144 0.0859466 0.198323 138 198 100
-0.340714 0.0880386 0.197556 141 202 103
-0.34155 0.0898607 0.197108 119 162 86
-0.342013 0.0915461 0.196822 87 91 67
-0.343241 0.0935478 0.196202 70 63 53
-0.343713 0.0952561 0.195911 66 61 45
-0.343803 0.0968141 0.195787 65 58 42
-0.344664 0.0986997 0.195325 63 55 42
-0.334359 -0.0252918 0.205137 159 200 104
-0.332779 -0.024034 0.205726 167 225 117
-0.331865 -0.0227864 0.206038 145 202 103
-0.332582 -0.0215333 0.205666 126 176 87
-0.333966 -0.0202639 0.205015 102 153 78
-0.349469 0.0209455 0.196175 63 122 48
-0.349183 0.0223084 0.196217 65 126 49
-0.349277 0.0237318 0.196097 69 127 51
-0.34937 0.0251587 0.195976 72 129 53
-0.349084 0.0265248 0.196019 73 132 52
-0.348797 0.0278908 0.196061 72 132 54
-0.34889 0.0293246 0.19594 68 129 54
-0.348603 0.0306923 0.195982 64 126 51
-0.348696 0.0321313 0.195862 61 123 49
-0.34803 0.0334271 0.196067 59 118 47
-0.347743 0.0347945 0.196109 60 119 47
-0.347456 0.0361616 0.196151 60 122 49
-0.347548 0.0376074 0.196031 60 125 51
-0.346882 0.0388958 0.196236 64 127 51
-0.346219 0.0401807 0.196441 64 128 54
-0.345557 0.0414623 0.196645 65 130 54
-0.344897 0.0427405 0.196848 68 132 56
-0.344239 0.0440153 0.197052 68 134 55
-0.343582 0.0452868 0.197254 69 132 57
-0.343297 0.0466445 0.197296 70 131 56
-0.343012 0.0480021 0.197338 68 131 55
-0.342728 0.0493596 0.19738 69 131 55
-0.342443 0.050717 0.197422 66 129 54
-0.342158 0.0520743 0.197464 65 127 52
-0.342613 0.0536287 0.197185 67 127 54
-0.34307 0.055191 0.196905 71 127 56
-0.344279 0.0569686 0.196297 71 129 54
-0.344367 0.0584454 0.196176 69 121 51
-0.344079 0.059818 0.196218 70 112 48
-0.344167 0.0613003 0.196097 58 104 43
-0.343503 0.062563 0.196303 65 118 56
-0.343215 0.0639353 0.196346 65 118 53
-0.342553 0.0651928 0.196551 43 96 23
-0.340781 0.0661002 0.197242 32 95 27
-0.339759 0.0672302 0.197605 52 100 34
-0.339108 0.0684719 0.197807 60 106 44
-0.338094 0.0695914 0.198168 72 111 50
-0.336725 0.0705851 0.198685 73 119 58
-0.335366 0.0715713 0.199198 72 119 57
-0.334372 0.0726713 0.199551 64 112 53
-0.332679 0.073521 0.200212 61 103 45
-0.331351 0.0744847 0.200713 60 100 40
-0.330378 0.0755647 0.201059 48 105 36
-0.330447 0.0770152 0.200948 40 114 37
-0.330168 0.0783416 0.200989 53 121 46
-0.331281 0.080187 0.200418 92 153 68
-0.333111 0.0823184 0.19953 132 184 93
-0.336779 0.0851763 0.197831 141 194 99
-0.339063 0.087537 0.196741 141 201 102
-0.340262 0.0894973 0.196127 142 204 106
-0.341474 0.091478 0.195506 121 167 88
-0.342699 0.0934795 0.194879 89 96 65
-0.343552 0.0953448 0.194415 71 62 46
-0.344413 0.0972248 0.193948 66 57 39
-0.344504 0.0987936 0.19382 66 59 38
-0.345373 0.100697 0.193348 67 61 39
-0.330288 -0.0253382 0.205468 169 211 107
-0.330028 -0.0240989 0.205507 157 219 111
-0.329768 -0.0228598 0.205545 135 196 95
-0.330798 -0.021612 0.205036 120 174 84
-0.348176 0.0263884 0.19489 73 131 54
-0.34789 0.0277528 0.194932 72 130 55
-0.347982 0.0291847 0.19481 68 128 53
-0.348074 0.0306202 0.194688 65 124 51
-0.347787 0.0319879 0.19473 62 121 50
-0.3475 0.0333554 0.194773 60 119 48
-0.346836 0.034648 0.194979 61 118 48
-0.346549 0.0360135 0.195021 61 123 50
-0.346263 0.037379 0.195064 65 127 53
-0.345976 0.0387444 0.195106 67 129 54
-0.345315 0.040028 0.195312 70 130 55
-0.344655 0.0413083 0.195517 70 133 55
-0.343997 0.0425852 0.195722 69 133 53
-0.343341 0.0438587 0.195926 73 135 54
-0.342686 0.0451288 0.19613 73 134 53
-0.342402 0.0464849 0.196172 72 132 52
-0.342117 0.0478409 0.196214 70 133 56
-0.341833 0.0491967 0.196256 69 131 54
-0.341917 0.0506472 0.196136 69 128 51
-0.341632 0.0520046 0.196178 68 128 54
-0.341347 0.053362 0.19622 68 129 55
-0.3418 0.0549197 0.195938 73 132 56
-0.342999 0.0566915 0.195328 75 133 57
-0.343459 0.0582697 0.195041 79 134 60
-0.343546 0.0597482 0.194918 80 135 59
-0.343258 0.0611208 0.194961 76 137 60
-0.342971 0.0624934 0.195003 75 125 51
-0.342309 0.063753 0.195211 81 127 51
-0.341649 0.0650092 0.195417 71 118 52
-0.340252 0.0660314 0.19595 67 111 48
-0.339232 0.0671617 0.196317 65 119 55
-0.338581 0.0684036 0.196521 65 120 54
-0.337932 0.0696423 0.196724 76 115 52
-0.336922 0.0707573 0.197087 71 110 50
-0.335918 0.0718666 0.197448 69 107 48
-0.334563 0.0728479 0.197966 62 106 50
-0.333925 0.074068 0.198165 58 101 41
-0.331882 0.074788 0.19899 60 102 43
-0.330557 0.0757469 0.199496 62 104 43
-0.329932 0.0769494 0.199691 50 109 40
-0.330346 0.0785313 0.199423 45 115 34
-0.330415 0.0799909 0.19931 55 123 44
-0.330832 0.0815863 0.19904 94 155 67
-0.333729 0.0841408 0.197665 133 186 94
-0.337058 0.0868968 0.196095 141 199 102
-0.338981 0.0891358 0.19515 140 204 101
-0.340558 0.0912596 0.194358 142 207 104
-0.342157 0.0934113 0.193556 123 170 87
-0.343008 0.0952763 0.193087 88 95 61
-0.343866 0.0971562 0.192615 66 61 44
-0.343957 0.0987251 0.192485 63 62 37
-0.344824 0.100629 0.192008 65 61 36
-0.345306 0.102379 0.191702 62 59 38
-0.329108 -0.0266362 0.20467 158 192 102
-0.328849 -0.0254011 0.204708 162 220 112
-0.32859 -0.024166 0.204746 144 208 103
-0.32865 -0.0229304 0.204648 129 185 92
-0.32871 -0.021692 0.204549 102 152 81
-0.331355 -0.0204224 0.20334 76 95 56
-0.34709 0.0234063 0.194009 78 136 58
-0.346805 0.0247658 0.194051 78 135 59
-0.346895 0.0261887 0.193929 77 133 56
-0.346609 0.0275497 0.193971 73 133 58
-0.346324 0.0289107 0.194013 69 130 55
-0.346413 0.0303404 0.19389 69 124 51
-0.346128 0.0317029 0.193933 63 119 50
-0.346217 0.0331378 0.19381 61 118 49
-0.345556 0.0344275 0.194017 62 119 48
-0.34527 0.0357897 0.194059 65 121 50
-0.344985 0.0371518 0.194101 66 126 52
-0.344699 0.0385138 0.194144 67 131 55
-0.344041 0.0397946 0.19435 73 129 56
-0.343384 0.041072 0.194556 72 131 56
-0.343099 0.0424302 0.194598 71 133 55
-0.342445 0.0437024 0.194804 75 133 54
-0.34216 0.0450587 0.194846 75 132 54
-0.341508 0.0463257 0.195051 77 132 53
-0.341224 0.0476801 0.195093 74 132 54
-0.34094 0.0490344 0.195135 68 130 55
-0.340656 0.0503885 0.195177 72 129 52
-0.340372 0.0517426 0.195219 73 129 51
-0.340088 0.0530966 0.195261 73 130 53
-0.340169 0.05455 0.19514 77 135 55
-0.341726 0.0564157 0.194363 76 135 57
-0.34181 0.0578845 0.19424 81 137 59
-0.341895 0.0593569 0.194117 82 140 60
-0.34198 0.060833 0.193993 83 141 60
-0.341692 0.0622021 0.194036 84 141 59
-0.341405 0.0635711 0.194078 85 138 58
-0.340009 0.064599 0.194616 78 130 60
-0.338989 0.0657332 0.194987 75 124 52
-0.338339 0.0669772 0.195192 74 126 55
-0.338054 0.0683353 0.195234 80 126 57
-0.337769 0.0696934 0.195276 66 114 53
-0.336759 0.0708098 0.195644 62 105 50
-0.336114 0.0720422 0.195847 59 107 51
-0.335112 0.0731482 0.196212 58 101 41
-0.334471 0.0743727 0.196414 58 101 43
-0.333123 0.0753431 0.196935 57 100 47
-0.331434 0.0761805 0.19761 60 102 47
-0.330456 0.0772618 0.197965 65 103 50
-0.330177 0.0785935 0.198007 56 106 43
-0.330594 0.0801856 0.197734 44 115 37
-0.330314 0.0815204 0.197775 56 124 46
-0.331786 0.083529 0.197026 96 157 68
-0.333635 0.0857024 0.196105 131 188 93
-0.33624 0.0881968 0.194841 141 200 100
-0.338899 0.0907431 0.193551 143 206 103
-0.341614 0.093343 0.192233 144 207 104
-0.342082 0.0950511 0.191932 123 171 87
-0.342935 0.0969277 0.191455 87 99 61
-0.34341 0.0986565 0.19115 68 61 42
-0.343886 0.100394 0.190843 66 61 39
-0.344755 0.10231 0.190358 63 63 42
-0.344458 0.103727 0.190401 60 58 39
-0.328572 -0.0279358 0.203602 154 192 99
-0.328313 -0.0267019 0.20364 149 194 102
-0.328055 -0.0254681 0.203678 147 196 104
-0.327796 -0.0242344 0.203716 144 197 100
-0.327855 -0.0230002 0.203617 127 182 93
-0.327913 -0.0217632 0.203517 88 124 69
-0.345335 0.0273476 0.193015 82 138 59
-0.345423 0.028772 0.192891 73 132 58
-0.345511 0.0301998 0.192767 73 128 53
-0.345226 0.0315607 0.192809 69 121 50
-0.344941 0.0329214 0.192851 65 121 51
-0.344655 0.0342821 0.192893 66 123 50
-0.344743 0.0357185 0.192769 67 124 51
-0.344457 0.0370807 0.192812 68 126 52
-0.343799 0.0383635 0.19302 71 127 55
-0.343143 0.0396429 0.193228 74 133 57
-0.342488 0.040919 0.193435 74 131 54
-0.342204 0.0422756 0.193477 72 132 55
-0.341919 0.0436321 0.193519 71 134 55
-0.341635 0.0449885 0.193561 73 132 53
-0.340983 0.0462558 0.193768 73 133 52
-0.340699 0.0476102 0.19381 74 129 53
-0.340415 0.0489646 0.193852 73 129 55
-0.340131 0.0503189 0.193894 74 128 54
-0.339847 0.0516731 0.193936 74 131 55
-0.339563 0.0530272 0.193978 74 131 56
-0.339279 0.0543812 0.19402 76 138 58
-0.339725 0.0559377 0.193733 81 137 57
-0.339806 0.0573984 0.19361 84 141 58
-0.339521 0.0587574 0.193652 85 141 60
-0.339236 0.0601162 0.193695 85 141 60
-0.339317 0.0615838 0.193571 84 142 59
-0.339032 0.0629442 0.193614 84 140 59
-0.338747 0.0643044 0.193656 82 135 61
-0.338097 0.0655505 0.193863 84 131 58
-0.337812 0.0669088 0.193905 77 124 58
-0.337527 0.068267 0.193947 57 108 50
-0.337242 0.0696252 0.193989 36 99 30
-0.336957 0.0709832 0.194031 31 97 28
-0.335949 0.0720964 0.194402 33 100 29
-0.335305 0.0733271 0.194608 50 99 31
-0.335021 0.0746797 0.194649 59 100 35
-0.334738 0.0760321 0.194691 61 99 40
-0.333739 0.0771278 0.195059 62 99 41
-0.332039 0.0779604 0.195746 62 100 46
-0.330355 0.0787845 0.196427 64 104 51
-0.330075 0.0801195 0.196469 59 107 43
-0.331546 0.0821195 0.195711 46 114 39
-0.331264 0.0834628 0.195752 56 125 46
-0.332397 0.0853578 0.195147 92 155 67
-0.33354 0.0872722 0.194537 131 188 93
-0.335786 0.0896429 0.19342 143 203 102
-0.33994 0.092815 0.191428 146 207 104
-0.341158 0.0948264 0.190779 146 207 105
-0.342007 0.0966998 0.190299 126 171 87
-0.342862 0.0985879 0.189814 91 98 64
-0.343337 0.100326 0.189504 70 61 53
-0.344204 0.102241 0.189013 64 63 45
-0.343907 0.103659 0.189057 65 61 41
-0.343998 0.105249 0.188922 65 59 42
-0.327837 -0.0267713 0.202473 100 156 77
-0.327578 -0.0255374 0.202511 94 143 67
-0.32732 -0.0243035 0.20255 103 153 79
-0.327061 -0.0230698 0.202588 90 130 75
-0.337854 0.0641234 0.192534 96 142 64
-0.337569 0.0654819 0.192576 81 129 58
-0.337284 0.0668404 0.192618 62 99 45
-0.337 0.0681987 0.19266 41 94 24
-0.337078 0.0696763 0.192536 30 94 21
-0.336793 0.0710362 0.192578 28 95 26
-0.336507 0.072396 0.19262 25 97 25
-0.336222 0.0737557 0.192662 29 100 26
-0.335937 0.0751153 0.192704 47 100 32
-0.335652 0.0764748 0.192747 57 101 42
-0.335367 0.0778342 0.192789 61 98 41
-0.334361 0.0789309 0.193163 59 100 41
-0.332649 0.0797586 0.193864 60 102 48
-0.331659 0.0808419 0.194233 62 104 52
-0.331376 0.0821871 0.194274 54 111 47
-0.332155 0.0839412 0.193826 45 115 43
-0.331872 0.0852914 0.193868 54 123 48
-0.332656 0.087064 0.193416 92 155 70
-0.333805 0.0889945 0.192793 130 189 94
-0.336062 0.0913901 0.191657 143 204 103
-0.339859 0.094447 0.189804 146 210 105
-0.3407 0.0963139 0.189321 147 208 106
-0.341548 0.0981957 0.188834 129 173 89
-0.342019 0.099928 0.188522 93 102 62
-0.343265 0.102004 0.187849 67 60 46
-0.343355 0.10359 0.187712 63 61 40
-0.343446 0.10518 0.187576 64 58 38
-0.344318 0.107125 0.187075 60 54 39
-0.336757 0.0667719 0.19133 65 112 49
-0.336835 0.0682478 0.191204 47 99 33
-0.33655 0.069608 0.191247 37 95 25
-0.336991 0.0712108 0.190951 29 95 29
-0.33707 0.0726978 0.190824 26 97 25
-0.337149 0.0741886 0.190697 24 100 25
-0.337594 0.0758113 0.190398 27 101 27
-0.337307 0.0771815 0.190441 46 102 37
-0.33702 0.0785515 0.190484 58 103 43
-0.336367 0.0797881 0.190697 59 100 42
-0.33608 0.0811562 0.190739 58 101 40
-0.334344 0.0819799 0.191459 59 103 45
-0.332269 0.0826595 0.192337 60 105 52
-0.331985 0.0840116 0.192379 53 109 40
-0.332057 0.0855027 0.192255 47 114 37
-0.331773 0.0868563 0.192297 55 124 46
-0.332558 0.0886395 0.191838 91 154 68
-0.33371 0.0905831 0.191206 130 188 94
-0.33634 0.0931511 0.18988 145 205 105
-0.339025 0.0957731 0.188526 147 210 105
-0.339863 0.0976453 0.188038 146 208 104
-0.341089 0.0996958 0.187366 128 176 89
-0.341943 0.101601 0.186869 92 105 63
-0.342417 0.103352 0.18655 65 58 45
-0.342894 0.105112 0.186229 59 59 40
-0.343763 0.107056 0.185723 60 60 39
-0.344247 0.108838 0.185397 57 57 39
-0.336307 0.0681794 0.189915 70 121 52
-0.336748 0.0697788 0.189616 53 103 40
-0.336826 0.0712642 0.189488 37 98 36
-0.33727 0.0728776 0.189187 30 95 29
-0.337717 0.0744991 0.188884 28 95 25
-0.338165 0.076129 0.18858 26 98 24
-0.338246 0.0776358 0.188448 30 98 24
-0.337957 0.0790131 0.188491 48 99 33
-0.3373 0.0802556 0.188708 57 101 40
-0.336644 0.0814948 0.188924 56 100 43
-0.335626 0.0825934 0.189312 58 101 42
-0.33425 0.0835484 0.18987 61 103 46
-0.332528 0.0843576 0.190592 60 105 46
-0.331531 0.085436 0.190971 55 107 40
-0.331958 0.0870722 0.190676 48 114 37
-0.33203 0.0885728 0.19055 56 125 47
-0.332461 0.0902232 0.190252 92 154 67
-0.333977 0.0923297 0.189439 130 188 92
-0.335882 0.0946172 0.188439 145 206 104
-0.338565 0.0972582 0.187068 146 209 104
-0.339403 0.0991388 0.186574 144 207 105
-0.340628 0.1012 0.185894 127 174 91
-0.341481 0.103114 0.18539 89 101 67
-0.342342 0.105043 0.184882 62 52 52
-0.342819 0.106812 0.184556 56 56 41
-0.343691 0.108769 0.184042 57 58 38
-0.344965 0.110924 0.183334 58 54 37
-0.336219 0.0697103 0.188324 69 125 53
-0.337026 0.0714401 0.187846 59 110 47
-0.337472 0.0730582 0.18754 44 101 35
-0.33792 0.0746845 0.187233 37 97 32
-0.338 0.0761897 0.1871 30 94 27
-0.338451 0.0778304 0.18679 27 96 23
-0.338162 0.0792114 0.186833 33 99 22
-0.337872 0.0805923 0.186876 46 99 27
-0.337583 0.0819731 0.186919 57 101 40
-0.336556 0.0830764 0.187314 60 100 43
-0.33517 0.0840345 0.187882 59 100 42
-0.333434 0.0848456 0.188618 59 102 47
-0.332072 0.0857881 0.189176 57 104 45
-0.331787 0.0871472 0.189218 54 106 39
-0.332217 0.0887941 0.188918 49 112 41
-0.333009 0.0905964 0.188443 56 123 49
-0.333444 0.0922627 0.188138 89 152 68
-0.334247 0.09409 0.187657 128 187 91
-0.335791 0.0962437 0.186818 146 206 103
-0.33773 0.0985863 0.185788 148 212 105
-0.338941 0.100636 0.185106 147 210 105
-0.340166 0.102708 0.184417 128 179 92
-0.341018 0.104631 0.183907 93 111 68
-0.341492 0.106394 0.183579 66 59 51
