ply
format ascii 1.0
element vertex 1262
property float x
property float y
property float z
property uchar diffuse_red
property uchar diffuse_green
property uchar diffuse_blue
end_header
-0.419961 0.231666 0.224695 66 56 40
-0.420202 0.233836 0.224584 62 52 39
-0.449414 0.185425 0.216451 66 66 44
-0.449028 0.187258 0.216506 70 90 52
-0.448643 0.189091 0.21656 86 129 62
-0.447572 0.190551 0.216799 88 130 62
-0.447187 0.19238 0.216853 88 130 63
-0.444765 0.193081 0.217455 88 130 63
-0.439713 0.192292 0.218765 89 130 61
-0.43737 0.192982 0.219348 90 130 60
-0.436344 0.1944 0.219576 88 128 60
-0.435969 0.196185 0.219629 90 130 60
-0.436893 0.198724 0.219332 94 137 64
-0.437169 0.200896 0.219209 70 125 65
-0.439421 0.204242 0.218553 38 100 27
-0.442376 0.208034 0.217707 32 104 28
-0.443342 0.210666 0.217397 34 111 35
-0.443635 0.212904 0.217268 49 121 49
-0.444611 0.215566 0.216955 75 149 72
-0.444224 0.217403 0.21701 97 173 88
-0.443838 0.21924 0.217064 112 157 82
-0.442772 0.220651 0.217303 129 157 71
-0.44171 0.222057 0.21754 130 150 73
-0.439981 0.22303 0.217959 121 141 74
-0.43302 0.220623 0.219796 109 137 80
-0.425048 0.217489 0.221908 100 134 85
-0.424679 0.219246 0.221961 95 137 87
-0.42124 0.218978 0.222846 96 133 80
-0.421483 0.221125 0.222732 111 139 80
-0.419901 0.222055 0.223114 120 137 77
-0.418329 0.222979 0.223494 128 135 73
-0.419169 0.225532 0.223218 126 124 68
-0.419409 0.227685 0.223105 115 105 63
-0.419649 0.229846 0.222992 99 85 67
-0.419282 0.23159 0.223043 79 69 68
-0.419522 0.23376 0.22293 67 59 55
-0.420374 0.23637 0.22265 62 55 42
-0.448702 0.18534 0.214717 69 73 47
-0.448316 0.187173 0.214772 79 106 58
-0.447931 0.189006 0.214826 99 149 72
-0.446862 0.190467 0.215068 102 151 71
-0.446477 0.192296 0.215122 101 149 71
-0.444058 0.192998 0.215734 100 148 73
-0.439015 0.19221 0.217064 99 148 72
-0.437327 0.193268 0.217477 99 147 71
-0.436299 0.194688 0.217709 97 146 71
-0.435923 0.196477 0.217762 101 149 71
-0.436849 0.19902 0.217458 103 147 71
-0.439099 0.202354 0.21679 72 123 61
-0.440712 0.205337 0.216296 48 97 29
-0.441668 0.207951 0.215983 48 104 35
-0.442632 0.210583 0.215667 62 114 46
-0.443602 0.213233 0.215349 77 128 54
-0.444579 0.215901 0.215028 89 140 59
-0.444192 0.217742 0.215083 100 149 64
-0.443805 0.219582 0.215138 108 156 68
-0.442737 0.220995 0.21538 110 155 70
-0.441674 0.222403 0.215621 109 161 74
-0.439942 0.223376 0.216047 108 166 82
-0.432969 0.220959 0.21792 109 174 91
-0.428117 0.219848 0.219209 111 180 95
-0.427744 0.221623 0.219262 116 183 95
-0.425742 0.224335 0.219715 133 184 93
-0.420437 0.222792 0.221132 140 184 92
-0.42007 0.224537 0.221184 143 184 94
-0.422765 0.22837 0.220388 143 185 97
-0.423013 0.230553 0.220269 143 191 104
-0.422643 0.232315 0.220322 144 198 111
-0.421656 0.233646 0.220545 133 172 104
-0.421286 0.235404 0.220598 105 109 74
-0.420916 0.237163 0.22065 76 60 46
-0.421161 0.23936 0.220532 58 55 34
-0.44799 0.185255 0.212983 73 84 54
-0.447605 0.187088 0.213038 96 129 69
-0.447219 0.188921 0.213092 113 169 83
-0.446151 0.190382 0.213337 116 169 80
-0.445086 0.191838 0.213581 113 168 80
-0.443351 0.192914 0.214012 112 166 80
-0.439634 0.192865 0.214996 110 166 80
-0.437283 0.193555 0.215599 109 164 78
-0.436254 0.194977 0.215835 108 164 77
-0.435877 0.196769 0.215888 116 168 80
-0.438777 0.200465 0.215026 113 160 76
-0.439058 0.202659 0.214895 69 120 56
-0.44269 0.206843 0.213827 54 112 50
-0.442305 0.208672 0.213882 56 123 53
-0.443274 0.211315 0.213558 63 131 62
-0.44425 0.213977 0.213231 70 138 65
-0.445233 0.216658 0.212902 75 142 65
-0.444844 0.218505 0.212957 80 144 65
-0.443771 0.219925 0.213204 82 144 65
-0.442702 0.22134 0.21345 85 144 65
-0.441637 0.222749 0.213696 85 143 67
-0.439902 0.223724 0.214129 87 146 69
-0.438847 0.225122 0.214372 90 149 70
-0.431893 0.222675 0.216273 93 151 71
-0.428953 0.22279 0.217048 98 155 73
-0.428578 0.224573 0.217101 102 157 74
-0.426307 0.225093 0.217688 104 158 76
-0.42406 0.225607 0.218269 106 158 77
-0.42245 0.226533 0.21867 105 157 77
-0.423939 0.229562 0.218199 105 160 79
-0.423567 0.231329 0.218251 104 161 81
-0.423195 0.233097 0.218304 107 160 83
-0.422824 0.234865 0.218357 110 154 77
-0.422452 0.236632 0.218409 95 119 68
-0.42208 0.2384 0.218462 79 82 51
-0.421709 0.240167 0.218515 68 54 30
-0.447664 0.183336 0.211194 62 68 51
-0.447278 0.18517 0.211248 83 103 65
-0.446893 0.187003 0.211303 118 160 83
-0.446507 0.188836 0.211358 128 185 92
-0.44544 0.190298 0.211606 131 186 89
-0.443701 0.191381 0.212044 126 186 89
-0.441973 0.192457 0.21248 126 185 89
-0.438933 0.192783 0.213288 125 184 88
-0.436586 0.193472 0.213901 123 182 87
-0.435558 0.194895 0.214139 122 182 86
-0.435831 0.197062 0.214008 129 183 89
-0.438735 0.200767 0.213128 119 155 76
-0.441689 0.204536 0.212234 68 93 39
-0.441979 0.20676 0.212097 31 95 29
-0.442947 0.209398 0.211766 32 102 29
-0.444605 0.212466 0.211239 36 103 30
-0.446281 0.215566 0.210705 42 106 30
-0.447975 0.218699 0.210167 49 107 29
-0.447583 0.220562 0.210222 54 107 31
-0.447191 0.222426 0.210278 56 107 35
-0.446799 0.224289 0.210333 56 108 38
-0.445022 0.225272 0.210785 53 108 46
-0.441891 0.225373 0.211624 55 109 45
-0.438805 0.225472 0.212451 56 112 45
-0.437752 0.226867 0.212696 57 115 46
-0.436702 0.228257 0.212941 60 117 45
-0.427884 0.224494 0.215412 62 119 46
-0.426245 0.225434 0.215827 63 120 51
-0.423994 0.225947 0.216419 62 122 52
-0.423622 0.227716 0.216471 63 124 52
-0.424498 0.230337 0.216166 65 126 53
-0.424125 0.232111 0.216219 66 126 55
-0.423752 0.233885 0.216272 70 128 58
-0.422756 0.235222 0.216504 80 138 62
-0.422384 0.236993 0.216557 85 126 72
-0.422012 0.238763 0.21661 81 89 59
-0.421639 0.240534 0.216662 70 52 33
-0.446951 0.183251 0.209459 67 77 59
-0.446181 0.186918 0.209568 133 189 96
-0.445795 0.188751 0.209623 139 197 96
-0.444729 0.190213 0.209874 140 199 95
-0.44232 0.190926 0.210513 137 200 97
-0.439935 0.191632 0.211145 135 200 96
-0.436919 0.191962 0.21196 136 200 95
-0.435238 0.193021 0.21239 135 198 95
-0.434861 0.194813 0.212443 136 198 95
-0.435133 0.19698 0.212309 136 192 98
-0.440024 0.201846 0.210839 113 147 78
-0.443685 0.206044 0.209723 67 87 37
-0.443298 0.207882 0.209778 41 94 29
-0.445649 0.21136 0.20904 41 98 27
-0.448034 0.214887 0.208291 40 101 29
-0.449746 0.218033 0.207736 41 103 31
-0.450765 0.220776 0.207382 41 105 31
-0.45037 0.222657 0.207438 38 105 32
-0.449975 0.224537 0.207494 37 105 33
-0.448873 0.225972 0.207756 40 106 33
-0.447776 0.227401 0.208016 41 107 38
-0.445291 0.227933 0.20868 42 108 38
-0.442148 0.228015 0.209537 40 112 40
-0.437707 0.227221 0.210772 43 114 40
-0.435992 0.228176 0.211214 48 114 39
-0.42974 0.226107 0.212979 51 115 39
-0.426183 0.225776 0.21396 53 115 44
-0.42518 0.227133 0.214197 54 117 44
-0.424806 0.22891 0.21425 56 116 44
-0.424432 0.230688 0.214303 62 117 46
-0.424059 0.232465 0.214356 71 122 50
-0.423061 0.233807 0.214592 81 132 56
-0.422688 0.235581 0.214645 98 143 67
-0.422315 0.237355 0.214698 91 121 72
-0.421942 0.239128 0.214751 75 78 56
-0.422191 0.241349 0.214622 61 48 36
-0.446625 0.181332 0.207669 64 67 54
-0.446239 0.183166 0.207724 87 101 65
-0.445468 0.186833 0.207833 139 202 101
-0.444403 0.188298 0.208087 142 203 98
-0.442667 0.189389 0.208538 143 206 98
-0.440276 0.190104 0.209182 142 207 101
-0.43791 0.190812 0.209819 140 206 99
-0.434918 0.191147 0.21064 141 206 99
-0.43325 0.192205 0.211073 140 205 99
-0.433518 0.194361 0.210937 146 206 99
-0.433788 0.196523 0.2108 130 183 95
-0.440654 0.202544 0.208723 94 137 75
-0.44297 0.20596 0.207982 60 105 50
-0.446701 0.210246 0.206824 46 106 46
-0.449101 0.213778 0.206057 46 111 46
-0.450116 0.216501 0.205698 49 115 46
-0.451139 0.219244 0.205336 51 117 48
-0.451455 0.221567 0.205182 52 120 50
-0.450347 0.223012 0.205448 58 120 52
-0.449951 0.224896 0.205505 66 115 54
-0.448848 0.226333 0.20577 68 112 52
-0.448453 0.228213 0.205826 70 115 54
-0.446653 0.229191 0.206298 73 115 53
-0.444174 0.229713 0.206972 73 114 52
-0.440359 0.229338 0.208042 73 113 50
-0.43661 0.228971 0.209093 72 112 49
-0.432926 0.228609 0.210126 72 108 47
-0.428664 0.227824 0.211332 70 106 47
-0.425745 0.227904 0.21214 69 107 48
-0.424114 0.228832 0.212567 67 104 49
-0.42374 0.230609 0.21262 73 107 52
-0.423367 0.232387 0.212673 82 115 57
-0.422993 0.234164 0.212726 89 122 64
-0.42262 0.235941 0.212779 97 115 66
-0.422246 0.237718 0.212832 82 88 56
-0.421873 0.239495 0.212885 67 65 45
-0.421499 0.241271 0.212938 57 53 39
-0.445231 0.180891 0.206136 65 74 56
-0.444077 0.186383 0.2063 141 203 100
-0.443016 0.187847 0.206557 143 204 99
-0.440619 0.188571 0.207211 143 206 100
-0.438247 0.189288 0.20786 142 206 100
-0.435899 0.189998 0.208501 142 205 100
-0.432931 0.190337 0.209328 141 205 100
-0.431275 0.191395 0.209765 142 206 99
-0.431539 0.193542 0.209627 148 206 101
-0.433091 0.196441 0.209104 122 167 86
-0.440615 0.202853 0.206793 83 125 63
-0.446369 0.208304 0.20501 55 107 46
-0.450884 0.213082 0.203596 41 102 36
-0.450489 0.214964 0.203652 38 109 39
-0.450803 0.217275 0.203495 44 114 40
-0.451832 0.22003 0.203124 49 116 46
-0.451434 0.221922 0.203181 52 120 48
-0.450324 0.223369 0.203451 65 119 57
-0.449218 0.224812 0.203721 75 99 59
-0.448822 0.226695 0.203777 69 66 43
-0.447721 0.228129 0.204046 65 62 43
-0.447326 0.230009 0.204102 66 62 42
-0.444834 0.230529 0.20479 65 60 41
-0.441683 0.230593 0.205677 63 63 39
-0.437232 0.22977 0.206957 62 67 39
-0.434189 0.229839 0.207813 62 71 41
-0.431187 0.229906 0.208658 61 74 45
-0.427587 0.22954 0.209685 62 75 48
-0.424676 0.229609 0.210504 61 79 51
-0.423674 0.230961 0.210747 63 83 54
-0.423299 0.232741 0.2108 66 85 55
-0.422301 0.234086 0.211042 67 84 56
-0.421927 0.235863 0.211096 68 70 50
-0.421554 0.23764 0.211149 66 58 41
-0.42118 0.239417 0.211202 62 55 39
-0.44452 0.180806 0.204403 81 96 59
-0.44375 0.184468 0.204513 138 201 101
-0.443366 0.186298 0.204568 141 202 100
-0.440963 0.187032 0.205234 141 204 100
-0.438585 0.187759 0.205893 141 203 100
-0.435578 0.188116 0.206744 140 204 99
-0.433902 0.189189 0.207192 140 206 100
-0.430957 0.189533 0.208026 141 205 99
-0.430583 0.191313 0.208079 147 205 99
-0.430209 0.193094 0.208132 138 193 99
-0.432394 0.19636 0.207407 110 153 78
-0.439903 0.202769 0.205061 80 121 57
-0.450548 0.211115 0.201758 56 105 43
-0.452289 0.214271 0.201163 40 98 30
-0.452608 0.216593 0.201002 34 105 32
-0.452209 0.218488 0.201058 40 111 36
-0.451096 0.219945 0.201333 47 114 41
-0.450699 0.221836 0.20139 53 120 47
-0.450301 0.223727 0.201447 72 123 63
-0.449193 0.225172 0.20172 83 99 61
-0.448089 0.226611 0.201993 72 59 39
-0.446989 0.228045 0.202265 63 60 37
-0.421483 0.238004 0.209273 57 48 37
-0.443039 0.184382 0.20278 139 202 101
-0.441308 0.185488 0.203249 140 202 99
-0.438924 0.186224 0.20392 140 202 97
-0.43591 0.186592 0.204786 140 202 98
-0.433582 0.187314 0.205441 139 204 99
-0.431277 0.188028 0.20609 139 206 98
-0.430265 0.189451 0.20634 140 204 98
-0.429256 0.19087 0.206589 151 203 101
-0.428882 0.192647 0.206643 123 168 89
-0.447093 0.205224 0.20095 98 141 70
-0.449505 0.208733 0.200138 79 125 58
-0.451951 0.212293 0.199315 61 109 45
-0.452987 0.215041 0.198928 43 97 30
-0.453309 0.217374 0.198761 33 103 29
-0.452189 0.218838 0.199042 39 108 32
-0.451074 0.220297 0.199321 45 113 36
-0.450676 0.222192 0.199378 51 120 46
-0.449565 0.223642 0.199656 81 130 63
-0.448459 0.225087 0.199933 92 108 65
-0.447356 0.226526 0.200209 75 65 48
-0.44696 0.228411 0.200265 66 57 34
-0.442038 0.182109 0.201202 134 197 98
-0.441654 0.183937 0.201257 137 199 99
-0.439264 0.184683 0.20194 138 199 97
-0.436899 0.185421 0.202615 139 200 97
-0.433908 0.185794 0.203487 139 201 98
-0.430959 0.186161 0.204347 138 200 98
-0.429947 0.187588 0.2046 138 201 97
-0.428306 0.188653 0.205051 141 203 97
-0.428565 0.190788 0.204906 146 198 102
-0.428824 0.192931 0.204761 111 148 74
-0.446368 0.205138 0.199183 91 134 63
-0.451613 0.210314 0.197467 80 128 58
-0.452648 0.213056 0.197073 66 112 47
-0.455144 0.216686 0.196218 47 98 33
-0.454742 0.218598 0.196276 34 101 26
-0.453614 0.220069 0.196562 37 107 31
-0.45177 0.221091 0.197074 41 112 37
-0.450653 0.222549 0.197358 47 118 46
-0.44954 0.224001 0.19764 76 138 62
-0.448432 0.225448 0.197921 101 138 73
-0.447327 0.22689 0.198201 102 103 69
-0.446227 0.228326 0.198481 77 58 52
-0.44513 0.229757 0.198759 65 62 40
-0.444038 0.231183 0.199036 59 62 38
-0.441807 0.176193 0.19952 62 67 48
-0.441712 0.180196 0.199416 127 187 95
-0.441327 0.182024 0.199471 135 195 96
-0.439605 0.183136 0.199952 135 196 94
-0.437234 0.183883 0.200639 136 198 95
-0.434236 0.184268 0.201526 137 199 96
-0.431279 0.184647 0.202401 137 199 95
-0.429629 0.185725 0.20286 136 199 94
-0.427989 0.186796 0.203317 136 200 96
-0.426988 0.188215 0.203571 145 203 97
-0.427243 0.190346 0.203424 124 182 98
-0.451274 0.208336 0.195618 84 131 60
-0.455204 0.212773 0.194292 81 130 60
-0.454802 0.214686 0.194349 71 117 53
-0.455129 0.217035 0.194174 52 102 39
-0.454726 0.218952 0.194231 35 97 25
-0.454323 0.220868 0.194289 34 105 30
-0.453194 0.222337 0.194579 36 110 36
-0.451348 0.223353 0.1951 42 115 40
-0.449515 0.224362 0.195617 59 131 54
-0.448405 0.225811 0.195902 89 155 74
-0.447298 0.227254 0.196186 120 155 84
-0.446196 0.228693 0.19647 125 114 73
-0.444398 0.229673 0.196977 91 79 59
-0.444003 0.231554 0.197034 66 67 60
-0.441529 0.232066 0.197759 59 63 53
-0.439082 0.232572 0.198477 57 61 43
-0.435988 0.232622 0.199404 59 60 38
-0.433599 0.233119 0.200105 62 60 41
-0.441098 0.176107 0.197792 65 69 59
-0.440331 0.179758 0.197902 131 191 93
-0.439947 0.181584 0.197957 133 193 95
-0.43757 0.182341 0.198655 133 196 94
-0.435218 0.18309 0.199346 135 197 94
-0.432244 0.183478 0.200239 136 198 93
-0.429311 0.183861 0.20112 136 198 93
-0.427672 0.184939 0.201583 135 199 95
-0.426045 0.186009 0.202042 137 201 98
-0.425673 0.187778 0.202095 151 203 100
-0.425926 0.189905 0.201946 100 142 78
-0.455189 0.213115 0.192243 83 134 61
-0.454786 0.215032 0.192301 77 125 59
-0.455113 0.217386 0.192121 61 107 46
-0.45471 0.219306 0.192179 41 93 26
-0.454307 0.221226 0.192237 32 101 29
-0.453175 0.222697 0.192532 34 107 31
-0.452048 0.224163 0.192825 41 110 35
-0.450206 0.225172 0.193352 49 116 47
-0.448378 0.226175 0.193875 69 139 63
-0.447269 0.22762 0.194164 100 162 80
-0.445461 0.228608 0.194681 121 165 92
-0.444364 0.230042 0.194967 103 156 96
-0.443271 0.23147 0.195252 94 140 85
-0.44149 0.232437 0.195761 109 138 73
-0.438357 0.232489 0.196714 120 126 62
-0.435268 0.23254 0.197654 119 110 59
-0.434212 0.233936 0.197928 105 95 62
-0.431837 0.234425 0.198635 82 72 63
-0.429486 0.234909 0.199335 68 62 63
-0.427805 0.235834 0.199815 63 61 59
-0.426779 0.237202 0.200082 62 60 48
-0.425756 0.238565 0.200347 62 59 38
-0.424099 0.239472 0.200821 59 61 33
-0.420572 0.239026 0.201911 62 63 34
-0.419573 0.240367 0.20217 62 57 38
-0.418578 0.241703 0.202428 61 55 38
-0.440772 0.174196 0.196008 66 66 46
-0.440389 0.176022 0.196063 74 92 65
-0.439621 0.179673 0.196173 131 191 93
-0.437908 0.180792 0.196664 130 192 94
-0.436206 0.181903 0.197152 131 195 94
-0.433215 0.182301 0.198063 134 195 92
-0.429628 0.182345 0.199171 135 196 92
-0.427355 0.183081 0.199848 134 196 92
-0.425729 0.184158 0.200313 134 196 93
-0.424113 0.185227 0.200775 137 198 97
-0.424363 0.187343 0.200624 140 193 97
-0.455173 0.213459 0.190187 83 137 63
-0.45477 0.215379 0.190245 83 135 64
-0.455098 0.217738 0.190061 73 117 52
-0.454694 0.219662 0.190119 57 98 35
-0.45429 0.221585 0.190177 46 104 36
-0.453156 0.223059 0.190476 48 110 38
-0.452027 0.224526 0.190774 56 113 42
-0.450902 0.225989 0.191071 65 123 53
-0.44835 0.22654 0.191841 76 139 64
-0.446532 0.227535 0.192369 91 160 79
-0.444726 0.228524 0.192893 104 179 91
-0.44363 0.229958 0.193181 105 184 93
-0.442539 0.231386 0.193469 112 173 83
-0.441451 0.232809 0.193756 128 172 78
-0.437632 0.232406 0.194951 135 165 75
-0.434549 0.232458 0.195903 132 163 80
-0.43416 0.234306 0.195958 124 167 91
-0.431781 0.234794 0.196677 115 171 100
-0.429427 0.235277 0.197388 113 167 97
-0.428392 0.236653 0.19766 125 163 88
-0.426715 0.237573 0.198147 137 157 80
-0.42569 0.238938 0.198416 141 146 75
-0.424031 0.239845 0.198898 134 125 72
-0.422383 0.240745 0.199376 109 94 68
-0.419498 0.240738 0.200268 83 71 70
-0.417883 0.241626 0.200737 70 60 57
-0.417508 0.243409 0.200791 65 57 42
-0.41775 0.245649 0.200638 61 53 33
-0.419238 0.248822 0.200067 60 51 33
-0.439395 0.173769 0.194501 71 74 51
-0.439012 0.175592 0.194556 100 123 68
-0.438629 0.177415 0.194611 125 191 96
-0.438246 0.179237 0.194666 130 189 91
-0.43654 0.180356 0.195161 131 189 93
-0.434193 0.181115 0.195871 130 191 94
-0.430585 0.18117 0.197001 131 192 93
-0.427668 0.181568 0.197902 133 194 93
-0.425412 0.182306 0.198584 133 195 92
-0.423798 0.183382 0.199052 135 195 93
-0.422194 0.18445 0.199517 138 195 97
-0.42244 0.186558 0.199364 122 179 95
-0.455158 0.213803 0.188123 84 140 66
-0.454754 0.215727 0.188181 87 142 68
-0.455082 0.218092 0.187993 80 129 62
-0.454677 0.220019 0.188051 68 113 52
-0.454272 0.221946 0.188109 60 111 48
-0.453137 0.223421 0.188413 64 119 52
-0.452006 0.224891 0.188715 68 121 54
-0.451602 0.226811 0.188773 76 135 63
-0.449756 0.227815 0.189317 82 148 73
-0.44721 0.228356 0.190096 87 158 79
-0.445396 0.229345 0.19063 90 163 80
-0.443594 0.230327 0.19116 93 165 78
-0.442501 0.231758 0.191452 98 164 79
-0.441411 0.233183 0.191743 106 167 80
-0.437586 0.232776 0.192958 110 170 80
-0.435168 0.233277 0.193699 113 175 84
-0.433441 0.234224 0.194207 116 183 91
-0.431725 0.235164 0.194712 121 191 96
-0.430022 0.236097 0.195213 128 194 98
-0.428331 0.237024 0.195711 137 196 97
-0.426651 0.237944 0.196205 143 196 96
-0.425624 0.239311 0.196478 146 196 100
-0.424601 0.240673 0.19675 147 201 107
-0.422946 0.241574 0.197238 147 211 115
-0.421302 0.242469 0.197722 149 207 113
-0.41967 0.243357 0.198202 123 152 88
-0.419292 0.245153 0.198256 92 94 58
-0.418915 0.246949 0.19831 68 56 36
-0.419162 0.24921 0.198152 63 54 36
-0.438687 0.173684 0.192775 71 82 60
-0.438304 0.175507 0.19283 116 157 78
-0.437921 0.17733 0.192885 127 190 92
-0.436216 0.178455 0.193387 127 188 90
-0.434523 0.179572 0.193885 127 190 92
-0.431549 0.179986 0.194816 129 191 91
-0.427981 0.18005 0.19595 130 190 91
-0.425096 0.180454 0.196854 130 190 90
-0.423483 0.181536 0.197328 130 191 89
-0.421267 0.182268 0.198006 136 196 92
-0.41968 0.183335 0.198473 139 191 92
-0.419312 0.185084 0.198525 111 160 78
-0.457023 0.213086 0.185491 72 127 56
-0.455142 0.214149 0.186051 83 141 65
-0.454737 0.216077 0.186109 89 145 69
-0.454332 0.218004 0.186167 75 128 65
-0.454661 0.220377 0.185975 52 107 53
-0.454255 0.222308 0.186034 37 101 41
-0.45385 0.224239 0.186092 40 107 44
-0.452713 0.225713 0.1864 45 112 47
-0.452308 0.22764 0.186458 49 120 52
-0.451903 0.229566 0.186516 53 126 56
-0.449328 0.230102 0.187317 56 130 59
-0.44607 0.230173 0.188351 60 135 61
-0.44426 0.231156 0.188892 63 137 60
-0.443161 0.23259 0.189189 67 137 61
-0.441371 0.233559 0.189723 73 137 61
-0.438907 0.234061 0.190489 76 139 63
-0.436468 0.234558 0.191248 79 141 64
-0.434056 0.235049 0.191998 84 143 64
-0.432333 0.23599 0.192512 90 145 66
-0.429963 0.236469 0.193249 96 149 69
-0.428922 0.237851 0.193529 98 152 70
-0.427234 0.238772 0.194033 99 154 72
-0.425558 0.239686 0.194533 100 156 74
-0.424534 0.24105 0.194809 101 159 77
-0.423513 0.242409 0.195085 102 161 79
-0.422495 0.243763 0.195359 105 157 78
-0.422115 0.245575 0.195414 107 142 80
-0.420471 0.246457 0.195905 93 99 65
-0.420092 0.248262 0.195959 69 52 41
-0.419712 0.250068 0.196014 55 55 36
-0.438361 0.171775 0.190993 62 66 51
-0.437978 0.173598 0.191048 74 97 69
-0.437595 0.175421 0.191104 122 179 91
-0.436551 0.176898 0.191385 125 185 89
-0.434854 0.178023 0.191891 124 187 91
-0.433168 0.17914 0.192394 124 189 92
-0.429569 0.179212 0.193554 127 189 90
-0.426658 0.179624 0.194478 128 189 90
-0.423787 0.180031 0.19539 128 190 89
-0.420953 0.180432 0.196291 129 191 89
-0.419367 0.181505 0.196763 135 194 92
-0.417791 0.182571 0.197231 135 186 91
-0.417425 0.184315 0.197284 111 153 74
-0.45627 0.212998 0.183658 71 126 56
-0.454392 0.214061 0.184224 84 141 65
-0.453987 0.215989 0.184283 90 146 69
-0.454315 0.218359 0.184087 79 128 62
-0.453909 0.22029 0.184146 53 101 43
-0.454238 0.222671 0.18395 31 93 26
-0.453831 0.224606 0.184009 27 98 27
-0.453425 0.22654 0.184067 33 102 28
-0.453019 0.228474 0.184126 36 107 31
-0.452612 0.230408 0.184184 41 110 34
-0.452206 0.232342 0.184243 44 112 38
-0.449619 0.232864 0.185058 45 112 38
-0.447777 0.233848 0.185617 48 111 36
-0.445947 0.234824 0.186171 51 111 37
-0.443427 0.235327 0.186966 54 110 37
-0.440934 0.235823 0.187753 52 112 42
-0.437783 0.235852 0.188769 51 113 45
-0.434676 0.23588 0.189772 52 114 46
-0.432944 0.236821 0.190296 54 115 47
-0.429904 0.236842 0.191277 58 116 45
-0.428207 0.23777 0.19179 57 120 47
-0.426522 0.238691 0.1923 58 121 48
-0.424848 0.239606 0.192806 59 123 50
-0.423825 0.24097 0.193085 63 125 52
-0.422805 0.242329 0.193364 66 128 54
-0.422424 0.244145 0.193418 69 133 58
-0.422043 0.24596 0.193473 90 133 71
-0.421028 0.247308 0.19375 87 96 64
-0.420647 0.249119 0.193805 69 55 47
-0.420267 0.250931 0.19386 59 55 38
-0.437653 0.171689 0.189266 68 73 48
-0.43727 0.173513 0.189322 88 114 67
-0.436226 0.174993 0.189607 122 185 94
-0.43453 0.176125 0.190119 122 184 88
-0.433496 0.177593 0.190401 124 184 89
-0.431172 0.178365 0.191132 126 187 90
-0.427602 0.178443 0.192299 126 187 89
-0.424091 0.17852 0.193446 127 187 89
-0.421865 0.17927 0.194147 127 187 89
-0.419054 0.179675 0.195052 130 190 89
-0.417479 0.180747 0.195527 133 192 94
-0.415915 0.181812 0.195998 127 180 93
-0.41555 0.18355 0.196051 111 152 73
-0.456256 0.213344 0.181565 73 126 55
-0.454375 0.214408 0.182141 80 137 64
-0.453969 0.216339 0.182199 90 145 71
-0.453563 0.218271 0.182258 87 135 64
-0.453891 0.220649 0.182058 77 120 52
-0.45422 0.223036 0.181859 68 117 47
-0.453813 0.224974 0.181917 60 114 45
-0.453406 0.226912 0.181976 62 117 45
-0.452999 0.22885 0.182035 63 119 45
-0.452592 0.230787 0.182093 64 120 46
-0.452185 0.232725 0.182152 65 120 47
-0.451778 0.234662 0.182211 64 117 48
-0.450641 0.236122 0.182527 61 111 48
-0.448784 0.2371 0.183097 60 109 48
-0.446941 0.23807 0.183664 56 110 46
-0.443695 0.238083 0.184727 53 112 47
-0.439802 0.237627 0.18602 51 113 48
-0.436659 0.237643 0.187049 52 114 50
-0.43356 0.237659 0.188064 53 115 49
-0.429186 0.236761 0.189531 59 116 46
-0.427492 0.237689 0.190051 59 119 47
-0.425809 0.238611 0.190566 61 120 48
-0.424138 0.239526 0.191079 65 119 48
-0.423116 0.24089 0.191361 70 123 50
-0.422734 0.242709 0.191416 80 135 56
-0.421716 0.244065 0.191697 92 146 67
-0.42197 0.246346 0.191526 97 138 73
-0.421588 0.248164 0.191581 84 92 60
-0.420572 0.249511 0.191862 66 51 43
-0.420191 0.251325 0.191917 57 52 39
-0.436944 0.171603 0.187539 75 85 51
-0.435901 0.173087 0.187827 107 141 74
-0.434861 0.174566 0.188115 121 183 91
-0.433172 0.175698 0.188631 122 181 87
-0.432142 0.177164 0.188915 124 183 86
-0.429189 0.177595 0.189879 124 183 87
-0.425648 0.177679 0.191053 124 183 87
-0.422166 0.177762 0.192207 125 183 89
-0.419348 0.178178 0.193126 125 186 89
-0.417167 0.178922 0.193822 133 192 91
-0.415604 0.179994 0.194299 132 187 92
-0.414644 0.181395 0.194562 118 166 88
-0.414874 0.18347 0.194404 109 156 77
-0.455501 0.213255 0.179728 77 124 56
-0.454357 0.214756 0.180049 80 131 60
-0.453217 0.216251 0.180369 87 141 67
-0.453544 0.218626 0.180166 84 136 62
-0.453873 0.22101 0.179963 71 116 48
-0.453465 0.222948 0.180022 55 99 35
-0.453794 0.225344 0.179818 44 99 27
-0.453386 0.227286 0.179877 48 105 34
-0.452978 0.229227 0.179936 53 111 40
-0.452571 0.231168 0.179995 53 117 45
-0.452163 0.23311 0.180053 60 123 51
-0.451023 0.234575 0.180374 64 119 55
-0.450616 0.236513 0.180433 61 102 58
-0.449481 0.23797 0.180752 63 91 56
-0.448351 0.239421 0.181071 63 94 57
-0.44579 0.239903 0.181903 66 94 53
-0.442552 0.239904 0.182978 67 95 50
-0.437981 0.238961 0.184535 67 97 51
-0.43418 0.238502 0.185816 68 96 51
-0.429125 0.237136 0.187549 70 97 48
-0.427428 0.238064 0.188076 71 95 47
-0.425097 0.238531 0.188833 71 97 47
-0.423428 0.239446 0.189351 71 96 47
-0.423045 0.241268 0.189406 74 100 51
-0.422025 0.24263 0.189691 81 111 58
-0.421643 0.244448 0.189747 89 112 63
-0.421261 0.246267 0.189802 83 95 55
-0.420879 0.248085 0.189857 72 68 45
-0.420497 0.249903 0.189912 60 50 39
-0.436618 0.169694 0.185757 62 64 48
-0.435575 0.171181 0.186048 80 97 61
-0.434536 0.172664 0.186338 115 162 80
-0.4335 0.174141 0.186627 120 181 87
-0.431819 0.175272 0.187148 121 179 86
-0.43015 0.176396 0.187665 123 180 84
-0.426588 0.176491 0.188861 122 182 87
-0.423707 0.176921 0.189815 123 181 88
-0.420253 0.17701 0.190975 124 181 87
-0.417457 0.177429 0.1919 124 184 88
-0.41589 0.178508 0.192384 134 192 93
-0.414928 0.179914 0.192652 133 182 91
-0.413969 0.181315 0.192918 116 160 81
-0.413604 0.18305 0.192971 108 159 78
-0.454747 0.213166 0.177891 82 128 61
-0.453604 0.214668 0.178215 77 130 57
-0.453198 0.216603 0.178274 85 137 62
-0.452791 0.218538 0.178332 85 135 62
-0.453118 0.220922 0.178126 73 121 55
-0.453446 0.223314 0.177919 55 104 43
-0.453038 0.225256 0.177978 37 98 25
-0.453367 0.22766 0.17777 38 107 32
-0.452958 0.229606 0.177829 45 112 40
-0.451815 0.231081 0.178154 47 116 47
-0.451407 0.233023 0.178213 61 126 55
-0.450999 0.234964 0.178272 70 119 60
-0.449862 0.236426 0.178596 66 89 55
-0.449455 0.238364 0.178655 60 60 36
-0.448322 0.239817 0.178978 57 59 39
-0.447193 0.241265 0.1793 61 56 39
-0.443928 0.241255 0.1804 64 58 36
-0.438624 0.23982 0.182245 64 60 37
-0.433452 0.23842 0.184045 61 59 39
-0.428406 0.237054 0.1858 59 59 40
-0.426712 0.237983 0.186333 64 57 39
-0.424384 0.23845 0.187099 63 63 42
-0.423358 0.239822 0.187389 62 65 41
-0.422335 0.241188 0.187678 61 67 43
-0.421952 0.24301 0.187734 62 72 47
-0.42157 0.244832 0.187789 63 68 46
-0.421824 0.247122 0.18761 61 58 38
-0.421441 0.248947 0.187666 56 53 37
-0.43525 0.169275 0.184268 65 66 49
-0.434211 0.170761 0.184561 82 107 68
-0.43383 0.172579 0.184616 113 173 85
-0.432144 0.173717 0.185145 117 178 85
-0.429828 0.17451 0.185904 120 179 85
-0.42817 0.175632 0.186423 119 180 85
-0.425264 0.17607 0.187398 121 182 87
-0.421164 0.175833 0.188809 122 181 87
-0.418352 0.176262 0.189751 123 182 87
-0.416177 0.177016 0.190463 124 185 89
-0.414617 0.178095 0.190951 132 190 95
-0.414251 0.179833 0.191004 129 178 90
-0.413886 0.181572 0.191057 115 160 79
-0.412929 0.18297 0.191326 110 162 78
-0.453992 0.213078 0.176053 89 139 69
-0.452851 0.214579 0.176381 75 131 57
-0.452444 0.216515 0.176439 80 135 60
-0.45277 0.218895 0.17623 85 136 62
-0.452363 0.220834 0.176288 79 126 58
-0.45269 0.223226 0.176078 60 108 45
-0.453018 0.225627 0.175866 36 95 28
-0.452609 0.227573 0.175926 35 107 31
-0.452201 0.229518 0.175985 46 111 41
-0.451792 0.231463 0.176044 45 115 46
-0.450651 0.232935 0.176373 56 126 53
-0.450243 0.234877 0.176432 76 132 65
-0.449107 0.23634 0.176759 86 110 66
-0.4487 0.238277 0.176818 68 62 40
-0.447569 0.239731 0.177144 54 61 44
-0.446441 0.241179 0.17747 56 61 45
-0.443891 0.241652 0.178321 61 62 42
-0.439272 0.240685 0.179939 59 60 39
-0.432052 0.237874 0.182522 54 58 38
-0.427687 0.236973 0.18405 55 58 40
-0.425995 0.237902 0.18459 61 54 40
-0.423671 0.23837 0.185364 62 59 41
-0.422646 0.239742 0.185658 60 58 37
-0.421625 0.241109 0.18595 58 56 35
-0.421242 0.242931 0.186005 58 55 37
-0.421496 0.245218 0.185824 58 58 36
-0.421113 0.247043 0.185879 55 52 36
-0.433886 0.168857 0.182784 71 74 50
-0.432852 0.170342 0.183079 89 124 71
-0.432471 0.172157 0.183135 112 176 87
-0.430793 0.173295 0.183667 115 174 82
-0.428487 0.174088 0.184432 119 177 83
-0.426205 0.174873 0.18519 117 178 85
-0.4227 0.174981 0.186399 119 178 85
-0.419864 0.175418 0.187362 121 178 85
-0.417066 0.17585 0.188313 121 179 85
-0.414901 0.176605 0.189031 127 185 88
-0.41394 0.178014 0.189304 130 186 93
-0.412983 0.179419 0.189576 123 174 88
-0.41321 0.181492 0.189409 115 162 80
-0.453645 0.211049 0.174156 120 174 86
-0.453237 0.212989 0.174215 101 152 79
-0.452097 0.214491 0.174546 80 129 57
-0.452423 0.216868 0.174333 80 133 57
-0.452016 0.218807 0.174392 84 138 62
-0.451608 0.220746 0.174451 82 133 61
-0.452669 0.223593 0.173963 68 115 47
-0.452997 0.225999 0.173747 43 92 27
-0.452588 0.227949 0.173806 32 102 30
-0.452178 0.229898 0.173866 40 109 41
-0.451034 0.231376 0.174199 42 115 43
-0.449894 0.232848 0.174532 49 122 49
-0.449487 0.23479 0.174591 78 136 65
-0.448352 0.236253 0.174922 97 132 74
-0.447945 0.238191 0.174981 74 94 63
-0.446815 0.239645 0.175311 53 66 50
-0.446409 0.241579 0.175369 64 63 48
-0.443854 0.242051 0.176234 61 62 47
-0.442032 0.243001 0.176825 56 60 44
-0.438133 0.242499 0.178196 56 59 42
-0.426968 0.236891 0.1823 60 61 41
-0.423342 0.23646 0.183574 63 55 38
-0.421044 0.236933 0.18435 63 58 34
-0.432527 0.168441 0.181305 77 87 55
-0.432146 0.170257 0.18136 99 137 72
-0.429183 0.170737 0.182379 112 173 83
-0.427528 0.171872 0.182911 115 174 81
-0.424626 0.172336 0.18391 116 175 81
-0.424252 0.17412 0.183964 117 175 82
-0.420775 0.174234 0.185179 117 175 83
-0.417356 0.174346 0.186374 118 176 83
-0.415186 0.17511 0.187103 119 179 84
-0.413629 0.176195 0.187603 131 187 88
-0.412672 0.177603 0.187878 129 183 90
-0.412307 0.179339 0.187931 119 172 85
-0.412533 0.181412 0.187762 113 168 81
-0.45289 0.210961 0.172317 116 175 84
-0.45175 0.212467 0.172652 108 164 81
-0.451344 0.214403 0.172711 80 129 59
-0.451668 0.216779 0.172494 77 130 56
-0.451261 0.218719 0.172553 83 136 60
-0.451585 0.221107 0.172336 85 135 61
-0.452647 0.223961 0.17184 76 121 52
-0.452238 0.225911 0.171899 52 95 35
-0.452566 0.228326 0.171679 31 96 26
-0.451419 0.22981 0.172018 38 106 36
-0.450277 0.231288 0.172355 43 112 36
-0.449868 0.233234 0.172414 48 117 43
-0.44873 0.234703 0.17275 65 137 60
-0.447597 0.236166 0.173084 98 157 83
-0.44719 0.238104 0.173143 126 152 95
-0.446783 0.240042 0.173202 93 120 72
-0.445655 0.241493 0.173535 69 73 63
-0.445249 0.243427 0.173594 67 66 53
-0.444126 0.244868 0.173926 66 65 48
-0.422629 0.23638 0.181839 64 57 38
-0.419702 0.236404 0.182866 57 58 40
-0.41312 0.233785 0.185289 53 56 39
-0.431822 0.168356 0.179585 81 99 62
-0.430792 0.169839 0.179886 105 148 74
-0.427843 0.170321 0.180913 111 168 79
-0.425564 0.171126 0.181688 113 170 79
-0.423308 0.171923 0.182456 113 172 79
-0.419233 0.171728 0.183914 115 173 80
-0.41644 0.172185 0.184888 114 174 81
-0.414277 0.172959 0.185623 117 174 82
-0.413911 0.174701 0.185676 118 178 84
-0.412361 0.175786 0.186179 133 189 90
-0.411996 0.177522 0.186232 127 180 86
-0.411632 0.179259 0.186285 116 171 81
-0.411267 0.180995 0.186338 112 171 81
-0.451403 0.210442 0.170758 115 175 83
-0.450997 0.212378 0.170817 112 170 81
-0.45059 0.214314 0.170876 82 130 61
-0.450913 0.216691 0.170656 74 127 57
-0.451237 0.219076 0.170435 80 134 60
-0.451562 0.22147 0.170213 87 140 64
-0.451888 0.223873 0.169991 80 131 60
-0.452216 0.226285 0.169768 60 108 47
-0.451806 0.228238 0.169827 39 91 25
-0.451395 0.230191 0.169887 34 100 30
-0.450251 0.231671 0.170229 36 106 33
-0.44911 0.233146 0.170569 42 111 37
-0.448702 0.235092 0.170628 50 121 47
-0.447566 0.236558 0.170968 65 141 66
-0.446435 0.238018 0.171305 88 168 94
-0.446028 0.239956 0.171364 96 184 115
-0.445621 0.241893 0.171424 123 173 87
-0.445214 0.243831 0.171483 141 149 73
-0.411585 0.231058 0.184011 61 72 57
-0.411211 0.232838 0.184065 62 70 52
-0.410837 0.234617 0.184119 66 67 47
-0.412282 0.237721 0.183468 67 64 42
-0.416217 0.242672 0.181849 64 59 39
-0.418344 0.246337 0.18093 60 55 36
-0.419227 0.249102 0.180494 53 53 40
-0.418843 0.250931 0.18055 52 53 41
-0.418459 0.252759 0.180605 55 53 40
-0.430468 0.167942 0.178113 81 107 66
-0.42816 0.168765 0.178908 105 153 74
-0.426508 0.169907 0.179452 108 163 76
-0.42424 0.170713 0.180233 108 165 77
-0.421994 0.171511 0.181007 110 167 77
-0.417939 0.171321 0.182477 112 169 78
-0.415159 0.171779 0.183459 112 170 78
-0.413006 0.172554 0.1842 114 170 79
-0.41205 0.173969 0.18448 117 176 82
-0.411685 0.175705 0.184533 130 187 92
-0.411321 0.177442 0.184586 123 177 86
-0.410956 0.179178 0.184639 113 170 79
-0.410592 0.180915 0.184692 111 171 78
-0.450649 0.210353 0.168922 114 172 83
-0.450243 0.212289 0.168981 111 169 80
-0.450565 0.214663 0.168758 85 135 66
-0.450158 0.216602 0.168817 73 125 58
-0.45048 0.218988 0.168593 78 133 61
-0.451538 0.221835 0.168083 86 144 66
-0.451129 0.223785 0.168142 86 141 66
-0.451455 0.226196 0.167916 76 124 58
-0.451045 0.22815 0.167975 64 110 45
-0.450635 0.230103 0.168035 60 113 45
-0.450224 0.232056 0.168094 59 117 45
-0.449082 0.233533 0.168439 65 123 49
-0.448673 0.235482 0.168499 75 137 59
-0.447535 0.23695 0.168843 86 154 69
-0.445679 0.237931 0.169467 96 165 74
-0.445272 0.239869 0.169526 110 169 76
-0.444865 0.241807 0.169586 124 171 75
-0.444459 0.243745 0.169645 128 172 76
-0.410517 0.23276 0.182376 144 157 80
-0.411352 0.235414 0.181955 138 138 74
-0.415891 0.240783 0.180077 115 112 71
-0.418016 0.244435 0.179146 90 92 77
-0.418898 0.247194 0.178703 77 85 76
-0.418514 0.249023 0.178759 71 78 65
-0.41813 0.250851 0.178815 70 71 52
-0.417746 0.25268 0.17887 68 60 42
-0.417362 0.254508 0.178926 59 45 37
-0.427837 0.166877 0.177145 79 111 66
-0.427459 0.16868 0.1772 102 155 73
-0.425177 0.169495 0.177995 104 159 74
-0.422919 0.170301 0.178783 104 161 76
-0.420684 0.1711 0.179562 107 163 75
-0.416046 0.170592 0.18128 108 163 76
-0.413882 0.171375 0.182034 109 165 76
-0.412329 0.172473 0.182551 111 167 77
-0.411374 0.173888 0.182834 117 175 79
-0.41101 0.175625 0.182887 127 186 92
-0.410645 0.177362 0.18294 120 176 86
-0.41028 0.179098 0.182993 112 171 80
-0.451439 0.206813 0.166681 112 174 80
-0.451032 0.208753 0.16674 113 173 82
-0.449896 0.210264 0.167086 111 169 81
-0.449489 0.212201 0.167145 107 163 77
-0.44981 0.214574 0.166918 91 143 68
-0.450131 0.216956 0.166691 76 125 56
-0.450454 0.219347 0.166462 78 132 59
-0.450779 0.221746 0.166233 86 144 66
-0.451104 0.224154 0.166003 89 146 69
-0.451431 0.226571 0.165772 79 132 65
-0.45102 0.228528 0.165832 59 111 59
-0.450609 0.230485 0.165892 55 115 55
-0.450198 0.232442 0.165952 57 123 57
-0.449053 0.233921 0.166302 60 132 62
-0.448643 0.235875 0.166361 68 144 69
-0.447504 0.237344 0.16671 77 155 75
-0.446368 0.238809 0.167057 88 163 79
-0.444517 0.239783 0.167688 97 166 78
-0.44411 0.241721 0.167747 104 169 79
-0.446593 0.245638 0.166659 111 172 79
-0.426067 0.248653 0.174017 142 219 116
-0.420479 0.246692 0.176149 140 222 119
-0.420093 0.248531 0.176205 147 215 115
-0.419707 0.250369 0.176261 152 184 96
-0.419321 0.252208 0.176317 135 146 79
-0.418935 0.254046 0.176373 102 98 60
-0.417914 0.255398 0.176684 73 52 38
-0.417528 0.257232 0.17674 60 55 35
-0.427136 0.166792 0.175436 81 116 65
-0.426122 0.168268 0.175741 98 154 73
-0.423851 0.169084 0.176543 99 155 72
-0.422225 0.170218 0.177091 100 156 73
-0.419993 0.171017 0.17788 103 159 73
-0.415363 0.17051 0.179617 105 159 74
-0.412609 0.170973 0.180614 104 161 75
-0.411652 0.172392 0.180901 108 163 75
-0.410698 0.173807 0.181187 118 175 80
-0.410334 0.175544 0.181241 125 185 91
-0.409969 0.177281 0.181294 121 177 86
-0.450041 0.202013 0.165301 117 173 82
-0.451091 0.204783 0.164782 116 176 84
-0.449229 0.20588 0.165419 117 178 84
-0.448823 0.207814 0.165478 117 173 82
-0.449141 0.210175 0.165249 111 168 78
-0.449461 0.212545 0.165019 104 159 74
-0.449054 0.214485 0.165079 94 148 68
-0.450105 0.217311 0.164557 76 127 56
-0.450428 0.219707 0.164324 76 133 57
-0.450753 0.222111 0.164091 87 145 66
-0.451079 0.224525 0.163856 93 147 68
-0.450668 0.226482 0.163916 79 130 58
-0.451735 0.229378 0.163385 49 101 41
-0.45281 0.232295 0.16285 32 98 33
-0.452396 0.234267 0.16291 33 104 36
-0.451982 0.236239 0.16297 35 110 40
-0.451568 0.23821 0.163031 39 114 42
-0.451154 0.240181 0.163091 47 117 44
-0.449999 0.241657 0.163449 56 118 45
-0.448848 0.243127 0.163805 66 120 45
-0.447702 0.244591 0.16416 67 122 51
-0.449499 0.248066 0.163332 71 125 56
-0.449826 0.250548 0.163094 73 128 59
-0.42666 0.249538 0.171713 99 175 93
-0.425607 0.250922 0.172038 106 182 96
-0.424556 0.252301 0.172362 111 186 99
-0.42351 0.253675 0.172684 111 189 105
-0.422467 0.255045 0.173005 111 165 96
-0.420782 0.255917 0.173588 102 116 71
-0.41975 0.257275 0.173906 78 53 38
-0.419362 0.259122 0.173962 66 51 34
-0.426435 0.166707 0.173726 81 118 64
-0.425422 0.168183 0.174035 96 150 71
-0.422529 0.168674 0.175096 96 150 70
-0.42091 0.169808 0.175648 96 152 71
-0.418689 0.170607 0.176442 99 154 71
-0.414082 0.170106 0.178193 101 155 71
-0.411931 0.170891 0.178962 100 156 72
-0.411565 0.172634 0.179015 103 158 73
-0.41061 0.174051 0.179305 121 177 83
-0.410244 0.175792 0.179358 124 182 90
-0.448882 0.203857 0.163527 122 178 87
-0.447754 0.205372 0.163877 121 177 87
-0.447349 0.207302 0.163936 120 172 83
-0.449113 0.210516 0.16312 113 166 80
-0.449434 0.212891 0.162886 105 158 76
-0.449755 0.215275 0.16265 100 151 72
-0.450813 0.218114 0.162118 79 132 59
-0.450402 0.220068 0.162177 74 132 57
-0.450728 0.222478 0.16194 85 143 65
-0.451054 0.224897 0.161701 92 147 68
-0.451382 0.227324 0.161461 80 132 58
-0.452455 0.230234 0.160919 64 112 44
-0.453537 0.233166 0.160373 52 112 39
-0.453872 0.235631 0.160128 51 114 42
-0.453456 0.237614 0.160189 52 114 42
-0.45304 0.239597 0.16025 54 115 44
-0.453375 0.242079 0.160005 56 114 45
-0.452958 0.244065 0.160066 57 112 44
-0.451791 0.245544 0.160432 58 111 40
-0.449885 0.246512 0.1611 58 110 40
-0.449471 0.248486 0.16116 53 111 43
-0.448317 0.249949 0.161522 46 114 45
-0.447903 0.251919 0.161583 43 116 44
-0.430339 0.250504 0.168234 59 122 47
-0.42593 0.249456 0.169937 64 124 50
-0.425537 0.251328 0.169994 66 124 52
-0.424485 0.252709 0.170322 68 127 53
-0.423437 0.254085 0.170649 66 129 57
-0.423046 0.25595 0.170706 89 141 68
-0.422002 0.257317 0.171031 98 122 66
-0.420962 0.25868 0.171356 74 63 45
-0.419926 0.260038 0.171679 63 47 33
-0.425099 0.166298 0.172274 81 117 63
-0.42409 0.167773 0.172584 95 144 69
-0.421833 0.16859 0.173401 97 145 67
-0.420217 0.169724 0.173959 95 148 69
-0.417999 0.170524 0.174762 96 149 69
-0.4134 0.170025 0.176532 96 151 70
-0.412437 0.171453 0.176828 98 152 70
-0.411477 0.172877 0.177122 99 154 72
-0.411111 0.174623 0.177176 122 175 83
-0.413122 0.177699 0.176261 121 176 87
-0.447407 0.203353 0.161987 122 177 87
-0.446284 0.204866 0.162339 122 175 87
-0.446597 0.207214 0.162105 119 171 85
-0.448357 0.210427 0.161279 115 165 82
-0.448676 0.212802 0.161042 106 158 78
-0.448997 0.215186 0.160803 107 154 77
-0.450787 0.218473 0.159962 87 139 66
-0.450376 0.220431 0.160022 75 132 59
-0.451441 0.223305 0.159477 83 140 64
-0.45177 0.225734 0.159233 89 145 67
-0.451357 0.227703 0.159293 84 135 62
-0.453181 0.231097 0.158434 74 118 49
-0.453516 0.233559 0.158186 60 108 36
-0.454607 0.236519 0.157627 55 111 35
-0.45419 0.23851 0.157688 58 116 39
-0.453772 0.2405 0.157749 58 118 45
-0.45411 0.242994 0.157498 58 120 50
-0.452936 0.244481 0.157871 62 121 53
-0.451767 0.245963 0.158242 72 121 58
-0.450602 0.247438 0.158612 69 111 57
-0.448701 0.248399 0.159287 61 112 56
-0.447548 0.249861 0.159652 56 117 55
-0.444939 0.250297 0.160621 57 119 52
-0.443803 0.251745 0.160982 63 120 51
-0.439809 0.251154 0.162527 67 123 51
-0.437285 0.251575 0.163464 69 121 49
-0.430675 0.249018 0.166099 67 120 48
-0.427586 0.248954 0.167275 66 119 47
-0.425861 0.24986 0.167885 64 118 45
-0.424807 0.251246 0.168218 65 119 45
-0.424414 0.253118 0.168275 75 127 50
-0.423364 0.254496 0.168606 90 140 61
-0.422972 0.256364 0.168663 107 146 69
-0.42258 0.258232 0.16872 103 118 64
-0.421535 0.259598 0.16905 73 58 45
-0.420494 0.260959 0.169378 58 52 36
-0.424399 0.166213 0.170567 80 116 59
-0.423391 0.167688 0.17088 91 141 67
-0.421138 0.168506 0.171706 94 143 66
-0.419524 0.169641 0.172269 94 144 66
-0.417309 0.170442 0.173081 94 145 66
-0.413315 0.170264 0.174625 93 146 69
-0.41235 0.171695 0.174925 94 147 70
-0.411983 0.173447 0.174978 95 149 72
-0.412807 0.17586 0.174541 122 174 84
-0.415449 0.179305 0.173353 117 168 83
-0.444511 0.202027 0.161043 119 176 87
-0.444108 0.203947 0.161101 121 175 88
-0.444416 0.206285 0.160866 118 170 86
-0.446878 0.209909 0.159738 114 164 82
-0.447919 0.212713 0.159198 107 156 77
-0.448968 0.215538 0.158653 109 156 78
-0.450024 0.218383 0.158105 98 149 75
-0.450349 0.220795 0.157859 81 133 62
-0.451417 0.223676 0.157305 81 135 61
-0.452492 0.226578 0.156746 87 141 65
-0.453576 0.229502 0.156183 85 134 61
-0.454667 0.232448 0.155616 73 117 49
-0.455007 0.234926 0.155361 50 96 31
-0.454588 0.236921 0.155423 43 102 28
-0.454928 0.239413 0.155167 49 111 34
-0.454509 0.241411 0.155228 52 116 41
-0.45409 0.243409 0.15529 53 120 48
-0.452914 0.244898 0.155667 64 124 57
-0.451743 0.246382 0.156043 86 120 67
-0.449829 0.24735 0.156731 75 76 53
-0.44793 0.248311 0.157413 66 77 45
-0.446779 0.249774 0.157782 61 77 41
-0.44345 0.249703 0.159065 61 80 40
-0.439459 0.24913 0.160628 63 81 42
-0.436938 0.249562 0.161576 65 82 45
-0.434444 0.24999 0.162514 68 81 41
-0.429935 0.248935 0.1643 65 87 46
-0.427519 0.249359 0.165207 64 94 53
-0.426456 0.250754 0.165546 63 102 58
-0.425397 0.252143 0.165884 64 111 63
-0.423683 0.253036 0.166498 70 121 69
-0.42329 0.254908 0.166556 79 127 77
-0.422898 0.25678 0.166613 80 106 71
-0.422505 0.258651 0.16667 75 75 55
-0.421458 0.260019 0.167004 66 51 37
-0.420416 0.261382 0.167337 54 46 37
-0.423698 0.166128 0.168859 80 115 58
-0.422691 0.167603 0.169176 89 138 65
-0.421064 0.168747 0.169751 91 141 65
-0.419448 0.169883 0.170323 92 142 66
-0.41723 0.170684 0.171145 93 143 65
-0.41443 0.171152 0.172211 92 144 66
-0.41286 0.172263 0.172766 93 145 69
-0.412491 0.174021 0.17282 94 148 72
-0.415131 0.17745 0.171617 124 179 86
-0.4172 0.180593 0.170652 110 159 77
-0.43622 0.193366 0.162596 106 164 80
-0.443458 0.199612 0.159459 111 172 84
-0.439552 0.199506 0.160985 118 175 87
-0.440546 0.202217 0.16046 119 173 88
-0.442958 0.205779 0.159339 116 167 86
-0.446124 0.20982 0.1579 111 161 80
-0.447162 0.212624 0.157353 107 156 75
-0.448207 0.215448 0.156802 108 158 79
-0.449261 0.218294 0.156247 109 160 81
-0.451063 0.221617 0.155376 88 137 65
-0.452137 0.224512 0.15481 79 132 59
-0.452469 0.226957 0.154556 83 138 62
-0.453554 0.229888 0.153984 85 135 61
-0.454648 0.232841 0.153408 74 121 52
-0.454988 0.235326 0.153148 50 98 41
-0.454569 0.237324 0.15321 36 101 29
-0.45415 0.239323 0.153271 41 109 34
-0.45373 0.241321 0.153333 49 115 39
-0.453311 0.243319 0.153394 53 120 46
-0.452891 0.245317 0.153455 68 127 57
-0.451718 0.246803 0.153836 94 123 66
-0.449056 0.247262 0.154849 71 62 52
-0.44716 0.248223 0.155538 63 60 38
-0.446011 0.249687 0.155911 56 60 34
-0.442687 0.249616 0.157209 55 61 35
-0.439413 0.249546 0.158487 57 60 37
-0.436887 0.249977 0.159448 58 57 37
-0.433696 0.249905 0.160694 59 59 33
-0.429872 0.249342 0.162211 56 63 38
-0.427452 0.249765 0.163132 56 68 43
-0.426388 0.251162 0.163475 56 70 45
-0.425327 0.252553 0.163817 57 72 46
-0.42427 0.25394 0.164158 62 77 49
-0.423216 0.255322 0.164498 64 70 46
-0.422823 0.257197 0.164555 63 63 44
-0.422429 0.259072 0.164613 61 55 39
-0.421381 0.260442 0.164951 57 49 34
-0.423628 0.166367 0.166887 83 120 61
-0.421992 0.167519 0.167472 92 141 66
-0.420367 0.168663 0.168053 94 142 66
-0.418753 0.169799 0.16863 94 143 67
-0.416538 0.170601 0.169461 94 144 68
-0.414346 0.171395 0.170284 94 146 67
-0.413975 0.173162 0.170338 95 148 68
-0.414813 0.175595 0.169882 96 152 72
-0.416267 0.178384 0.169164 125 179 86
-0.416505 0.18051 0.168959 102 149 69
-0.434133 0.19251 0.161387 97 157 73
-0.436456 0.19594 0.160293 109 170 81
-0.43606 0.197826 0.160351 118 175 85
-0.438414 0.201318 0.159241 119 173 87
-0.439403 0.204036 0.15871 114 167 85
-0.445369 0.209731 0.156062 108 162 80
-0.446404 0.212535 0.155509 106 161 78
-0.447447 0.215359 0.154951 108 161 80
-0.449232 0.218654 0.154076 117 170 85
-0.451781 0.222445 0.152874 93 143 68
-0.452113 0.224887 0.152616 78 132 59
-0.452446 0.227338 0.152358 80 136 60
-0.453533 0.230276 0.151776 84 137 61
-0.454629 0.233237 0.15119 77 127 56
-0.454209 0.235236 0.151252 57 106 50
-0.454549 0.237729 0.150988 35 100 29
-0.45337 0.239233 0.151375 35 107 31
-0.452951 0.241232 0.151436 44 114 38
-0.452532 0.24323 0.151498 50 120 45
-0.451359 0.24472 0.151882 64 130 55
-0.449443 0.245697 0.152587 93 140 67
-0.449026 0.247683 0.152648 96 107 70
-0.447127 0.248645 0.153347 75 68 51
-0.445242 0.249599 0.15404 60 59 41
-0.441924 0.249529 0.155351 52 59 39
-0.423684 0.162673 0.165065 65 63 43
-0.423305 0.164477 0.16512 77 92 54
-0.422926 0.166282 0.165176 90 130 65
-0.421292 0.167434 0.165767 98 149 69
-0.41905 0.168254 0.166618 100 150 69
-0.418058 0.169716 0.166937 99 153 71
-0.416457 0.170845 0.167516 99 154 72
-0.414262 0.171639 0.16835 100 154 71
-0.41389 0.173409 0.168404 100 156 71
-0.414729 0.175847 0.167941 104 164 75
-0.416185 0.178642 0.167212 123 177 89
-0.41581 0.180427 0.167266 95 142 66
-0.432731 0.192042 0.159899 89 151 68
-0.434361 0.195072 0.159088 105 169 79
-0.434645 0.197345 0.158854 117 174 84
-0.436984 0.200827 0.157736 117 171 82
-0.437967 0.203539 0.1572 111 166 79
-0.444614 0.209642 0.154224 107 164 80
-0.44637 0.212881 0.153352 105 165 79
-0.447415 0.215712 0.152785 107 166 79
-0.449941 0.219467 0.151578 117 174 84
-0.451757 0.222816 0.150676 97 152 74
-0.452089 0.225264 0.150414 79 133 61
-0.453175 0.228194 0.149825 77 133 59
-0.453512 0.230666 0.14956 82 138 62
-0.45385 0.233146 0.149294 79 131 58
-0.454189 0.235636 0.149026 66 116 54
-0.453769 0.237639 0.149088 40 96 30
-0.453348 0.239642 0.149149 32 102 31
-0.452172 0.241142 0.14954 36 111 36
-0.451752 0.24314 0.149601 42 117 42
-0.451333 0.245139 0.149663 53 127 51
-0.449414 0.246116 0.150377 78 145 65
-0.44677 0.246578 0.151407 115 161 83
-0.444886 0.24754 0.152108 115 112 71
-0.441571 0.247486 0.153434 88 79 56
-0.44116 0.249443 0.153494 63 65 51
-0.438606 0.249878 0.15449 50 62 49
-0.43608 0.250308 0.155475 51 59 43
-0.4322 0.249737 0.157054 56 56 44
-0.42839 0.249175 0.158605 56 56 40
-0.423613 0.162906 0.163082 59 65 55
-0.422603 0.164392 0.163409 84 109 66
-0.422224 0.166197 0.163465 104 152 74
-0.420593 0.16735 0.164062 108 165 76
-0.418354 0.16817 0.164922 109 164 75
-0.417363 0.169632 0.165243 111 165 77
-0.415764 0.170761 0.165828 113 166 78
-0.414177 0.171883 0.166409 113 168 77
-0.413805 0.173657 0.166464 113 170 76
-0.414644 0.1761 0.165993 123 177 81
-0.416717 0.179244 0.164986 120 176 93
-0.416341 0.181035 0.165041 93 145 68
-0.431334 0.191574 0.158415 87 152 70
-0.432281 0.19421 0.157891 103 168 80
-0.433912 0.197258 0.157068 115 173 82
-0.436245 0.20074 0.155937 114 170 79
-0.437225 0.203451 0.155395 109 167 78
-0.444577 0.209982 0.152073 107 167 80
-0.447063 0.213667 0.150869 106 167 80
-0.448114 0.216512 0.150291 107 169 79
-0.449913 0.219831 0.149385 113 174 83
-0.450985 0.222726 0.148796 102 159 79
-0.452064 0.225642 0.148203 81 135 64
-0.453152 0.228579 0.147605 74 130 58
-0.45349 0.231056 0.147335 79 138 62
-0.45307 0.233056 0.147396 82 137 61
-0.453408 0.235546 0.147125 78 128 57
-0.452988 0.237549 0.147187 50 96 34
-0.452568 0.239552 0.147249 36 99 33
-0.452147 0.241554 0.147311 35 106 35
-0.450973 0.243051 0.147704 40 113 38
-0.450554 0.24505 0.147766 48 119 44
-0.448637 0.246027 0.148487 62 133 56
-0.446736 0.246997 0.149203 92 166 76
-0.444117 0.247452 0.150236 127 166 84
-0.440808 0.247399 0.151576 111 143 85
-0.438255 0.247846 0.152583 90 121 80
-0.435731 0.248288 0.153579 85 110 70
-0.431854 0.247735 0.155175 92 103 59
-0.431452 0.249652 0.155234 93 88 56
-0.427648 0.249092 0.156801 77 71 52
-0.42524 0.249516 0.157751 61 63 51
-0.424179 0.250914 0.158104 53 58 48
-0.423122 0.252307 0.158455 56 54 43
-0.422069 0.253695 0.158806 63 56 38
-0.42102 0.255077 0.159155 54 59 38
-0.420626 0.256953 0.159213 51 56 34
-0.423542 0.163139 0.161091 61 70 57
-0.421901 0.164307 0.161698 97 133 76
-0.421522 0.166112 0.161754 117 172 84
-0.419893 0.167265 0.162356 119 179 85
