ply
format ascii 1.0
element vertex 1227
property float x
property float y
property float z
property uchar diffuse_red
property uchar diffuse_green
property uchar diffuse_blue
end_header
-0.345787 0.155854 0.172808 104 151 71
-0.343037 0.155824 0.174111 100 149 69
-0.341524 0.156545 0.174779 98 145 67
-0.340421 0.15751 0.175238 95 143 66
-0.33893 0.158219 0.175897 94 141 65
-0.337841 0.159173 0.176349 94 137 64
-0.335984 0.159617 0.177198 89 128 60
-0.334912 0.16056 0.177643 78 113 51
-0.333846 0.161497 0.178086 65 92 38
-0.333165 0.162682 0.17833 40 71 21
-0.373001 0.0478995 0.165315 146 214 102
-0.374513 0.0498422 0.164462 157 233 119
-0.375115 0.0515886 0.164057 166 241 119
-0.377121 0.053682 0.162958 176 252 124
-0.381069 0.0562756 0.160896 162 245 118
-0.369084 0.0873131 0.164552 160 233 113
-0.367854 0.0885249 0.16506 160 235 115
-0.367532 0.090058 0.165111 156 225 108
-0.36721 0.091591 0.165163 147 213 103
-0.366438 0.0929549 0.165441 133 199 92
-0.365668 0.0943149 0.165718 123 196 87
-0.365348 0.0958432 0.165769 120 196 89
-0.363247 0.0966762 0.166718 123 203 93
-0.361609 0.0976729 0.167435 127 207 96
-0.359984 0.098661 0.168146 130 208 98
-0.358804 0.0998156 0.168633 129 205 99
-0.357202 0.100787 0.169334 142 204 99
-0.356038 0.101928 0.169815 157 215 104
-0.35488 0.103061 0.170292 164 230 113
-0.354148 0.104368 0.170555 171 242 121
-0.353837 0.105853 0.170605 179 250 127
-0.353526 0.107337 0.170655 181 252 128
-0.353214 0.108821 0.170704 174 246 122
-0.352903 0.110306 0.170754 165 234 115
-0.352592 0.11179 0.170803 159 220 109
-0.35228 0.113274 0.170853 148 209 102
-0.351969 0.114757 0.170903 135 197 96
-0.350828 0.11585 0.171375 127 189 97
-0.350517 0.117329 0.171425 121 181 90
-0.349795 0.118609 0.171685 117 174 82
-0.349897 0.120288 0.171524 116 172 80
-0.349999 0.121971 0.171362 114 172 80
-0.350102 0.123658 0.1712 114 171 79
-0.351037 0.12577 0.170612 112 169 79
-0.35156 0.127686 0.170234 108 169 78
-0.352086 0.129612 0.169853 108 165 76
-0.351772 0.13111 0.169903 107 164 75
-0.351458 0.132607 0.169953 107 163 75
-0.351144 0.134105 0.170003 106 161 74
-0.35125 0.135828 0.169838 105 160 75
-0.350516 0.137099 0.170103 105 159 74
-0.350202 0.138596 0.170154 103 158 74
-0.349888 0.140092 0.170204 102 157 73
-0.349992 0.141824 0.170038 101 154 72
-0.350096 0.14356 0.169872 101 153 72
-0.350201 0.1453 0.169706 99 152 72
-0.349886 0.146803 0.169756 96 152 71
-0.34957 0.148306 0.169806 97 151 70
-0.349255 0.149808 0.169856 98 149 69
-0.34894 0.151311 0.169907 97 148 68
-0.348625 0.152813 0.169957 95 146 68
-0.347478 0.153811 0.170439 94 146 68
-0.345515 0.154299 0.171345 94 146 67
-0.343574 0.154781 0.172241 92 142 65
-0.341255 0.155009 0.173335 90 140 63
-0.340152 0.155979 0.173798 91 136 63
-0.339055 0.156944 0.174258 88 136 62
-0.338356 0.158154 0.174511 87 135 62
-0.337268 0.159109 0.174968 87 129 61
-0.335415 0.159554 0.175824 82 120 57
-0.334345 0.160496 0.176273 72 106 49
-0.33328 0.161434 0.176719 62 86 35
-0.332599 0.162619 0.176966 40 71 19
-0.367923 0.0468107 0.166112 159 229 115
-0.369832 0.0488229 0.165052 166 235 118
-0.370413 0.0505442 0.164655 177 252 123
-0.370546 0.0521666 0.16448 168 250 118
-0.376194 0.0551488 0.161547 159 240 112
-0.367253 0.0884506 0.163607 161 238 115
-0.366481 0.0898194 0.163888 161 234 115
-0.365711 0.0911843 0.164167 158 230 111
-0.36539 0.0927129 0.164219 156 224 107
-0.36507 0.0942414 0.16427 153 225 105
-0.362971 0.0950839 0.165227 153 225 105
-0.361333 0.0960876 0.165951 154 222 103
-0.35971 0.0970827 0.166668 149 217 100
-0.35853 0.098242 0.16716 150 216 102
-0.35693 0.0992207 0.167867 154 225 107
-0.354081 0.0996704 0.169214 163 237 116
-0.353352 0.100979 0.169477 175 247 123
-0.352625 0.102283 0.16974 185 252 129
-0.352315 0.103761 0.169789 185 253 131
-0.352005 0.10524 0.169839 175 246 126
-0.351695 0.106718 0.169888 162 232 116
-0.351385 0.108196 0.169938 150 216 105
-0.351075 0.109674 0.169987 139 202 98
-0.350765 0.111152 0.170037 132 194 93
-0.350455 0.11263 0.170086 125 185 88
-0.349733 0.113916 0.170348 120 176 86
-0.349013 0.115198 0.170609 116 171 82
-0.348704 0.116671 0.170658 114 169 80
-0.347987 0.117947 0.170918 109 167 76
-0.348086 0.119618 0.170757 110 166 76
-0.348595 0.121495 0.170383 110 165 77
-0.349107 0.123383 0.170007 109 165 77
-0.349209 0.125073 0.169844 107 162 76
-0.350974 0.127617 0.168817 103 161 75
-0.350661 0.129111 0.168867 102 160 74
-0.350765 0.130822 0.1687 103 158 72
-0.35087 0.132539 0.168533 102 158 72
-0.351396 0.134484 0.168147 101 156 72
-0.353627 0.137358 0.166873 101 155 71
-0.352457 0.138408 0.167367 100 155 71
-0.350032 0.138758 0.168516 98 154 71
-0.3493 0.140024 0.168784 97 153 70
-0.349403 0.141756 0.168616 97 152 69
-0.349089 0.143255 0.168666 98 149 69
-0.349192 0.144993 0.168499 96 148 69
-0.348877 0.146493 0.168549 93 148 69
-0.348562 0.147994 0.168599 93 147 68
-0.348248 0.149495 0.168649 94 145 67
-0.347517 0.150747 0.168917 94 145 67
-0.346789 0.151996 0.169185 92 143 67
-0.345652 0.152992 0.169667 91 142 66
-0.343707 0.153483 0.170574 91 141 64
-0.342186 0.154216 0.171259 90 139 62
-0.340279 0.154696 0.172149 90 136 62
-0.33918 0.155665 0.172614 91 134 61
-0.33848 0.156879 0.17287 88 134 60
-0.337781 0.15809 0.173126 86 132 61
-0.336696 0.159045 0.173586 85 126 60
-0.33523 0.159742 0.174247 80 116 55
-0.333777 0.160433 0.174903 70 103 48
-0.333093 0.161623 0.175152 61 85 33
-0.332034 0.162556 0.175601 42 72 19
-0.362868 0.0441787 0.167053 159 228 119
-0.363847 0.0459464 0.166453 164 237 119
-0.364834 0.0477288 0.165847 175 254 125
-0.364522 0.0492176 0.165897 171 252 120
-0.36421 0.0507062 0.165947 155 245 112
-0.363898 0.0521948 0.165997 163 242 111
-0.364733 0.0860482 0.163253 165 236 117
-0.364414 0.0875707 0.163304 163 235 116
-0.364094 0.0890931 0.163355 165 232 115
-0.363332 0.0904512 0.163634 163 233 115
-0.363013 0.0919712 0.163685 160 235 117
-0.360938 0.0928221 0.16464 160 237 118
-0.359752 0.0939972 0.165139 163 236 117
-0.359003 0.0953346 0.165413 167 237 117
-0.358257 0.096668 0.165686 169 240 122
-0.355808 0.0973116 0.166838 180 247 128
-0.353811 0.0981166 0.167758 198 252 128
-0.352666 0.0992552 0.168239 200 254 135
-0.351941 0.10056 0.168504 186 255 143
-0.351631 0.102037 0.168553 172 246 134
-0.350909 0.103336 0.168816 161 232 116
-0.3506 0.104811 0.168866 148 216 104
-0.35029 0.106285 0.168915 137 202 97
-0.349981 0.107759 0.168965 129 193 92
-0.350083 0.109419 0.1688 124 186 90
-0.349774 0.110895 0.16885 121 182 88
-0.349464 0.112371 0.168899 119 178 84
-0.348745 0.113655 0.169162 115 174 84
-0.348027 0.114936 0.169425 113 171 80
-0.347719 0.116407 0.169474 113 168 78
-0.34741 0.117879 0.169523 109 165 76
-0.347101 0.11935 0.169572 106 163 76
-0.347199 0.121023 0.169409 108 162 75
-0.347706 0.122904 0.169032 106 160 75
-0.348627 0.125004 0.168437 106 160 74
-0.350388 0.127548 0.167401 104 159 73
-0.350075 0.129042 0.167451 102 158 73
-0.350178 0.130754 0.167282 101 156 72
-0.35324 0.134034 0.165559 100 155 72
-0.355503 0.136925 0.164254 99 154 73
-0.355183 0.13845 0.164305 99 154 72
-0.354431 0.13974 0.164584 99 153 71
-0.352824 0.140553 0.165313 98 151 70
-0.349966 0.140655 0.166703 97 150 68
-0.348815 0.141688 0.167194 97 151 68
-0.3485 0.143187 0.167244 95 148 68
-0.348186 0.144686 0.167295 95 145 68
-0.348288 0.146426 0.167125 93 146 68
-0.347557 0.147683 0.167395 92 145 68
-0.347243 0.149182 0.167445 92 144 68
-0.346515 0.150433 0.167715 92 143 67
-0.345378 0.151433 0.168201 91 142 65
-0.344248 0.152428 0.168685 90 140 64
-0.34272 0.153168 0.169381 90 137 62
-0.340805 0.153655 0.170283 90 135 61
-0.338912 0.154136 0.171175 89 133 63
-0.338212 0.155352 0.171433 89 132 62
-0.337514 0.156565 0.171691 87 131 60
-0.337207 0.158025 0.17174 87 130 58
-0.336511 0.159233 0.171996 85 125 57
-0.335045 0.15993 0.172665 79 115 54
-0.33359 0.160622 0.173328 69 100 47
-0.332526 0.16156 0.173783 59 82 31
-0.331845 0.162747 0.174034 43 72 19
-0.357549 0.0415361 0.168177 159 226 117
-0.359327 0.0434488 0.167165 165 236 116
-0.360705 0.0452921 0.166355 173 247 121
-0.361671 0.0470571 0.165754 175 255 127
-0.361788 0.0486343 0.165586 159 246 115
-0.361906 0.0502159 0.165417 157 241 114
-0.362453 0.0519075 0.165028 166 249 121
-0.351258 0.0736027 0.169039 166 236 115
-0.349741 0.0746505 0.169714 163 236 113
-0.349037 0.0759607 0.16997 164 237 116
-0.348734 0.0774049 0.170019 165 236 114
-0.348431 0.078849 0.170067 161 235 114
-0.352178 0.0817303 0.168014 160 233 117
-0.352282 0.083342 0.16785 160 235 118
-0.360426 0.0878965 0.163509 164 236 116
-0.36011 0.0894037 0.163559 169 235 117
-0.360663 0.091238 0.163157 173 245 121
-0.356475 0.0912726 0.165224 180 250 125
-0.355738 0.0926008 0.165495 185 253 127
-0.355426 0.0940907 0.165545 197 253 135
-0.355113 0.0955805 0.165595 198 254 145
-0.353541 0.0965625 0.166303 187 255 147
-0.351982 0.0975363 0.167005 179 247 135
-0.351259 0.0988423 0.16727 168 231 119
-0.350949 0.100317 0.16732 155 218 109
-0.35064 0.101792 0.167369 144 206 101
-0.350331 0.103267 0.167419 136 196 94
-0.349611 0.104562 0.167683 129 190 89
-0.349302 0.106035 0.167733 125 187 88
-0.348994 0.107507 0.167782 123 185 88
-0.349094 0.109164 0.167616 123 182 88
-0.348785 0.110638 0.167666 121 179 88
-0.348476 0.112112 0.167715 118 176 85
-0.347759 0.113395 0.16798 117 173 80
-0.347044 0.114675 0.168243 113 171 78
-0.346736 0.116144 0.168292 112 168 76
-0.346427 0.117614 0.168342 108 164 77
-0.346119 0.119083 0.168391 106 164 76
-0.346216 0.120753 0.168226 107 160 77
-0.346312 0.122428 0.168061 104 160 77
-0.348045 0.124936 0.16703 103 158 74
-0.349802 0.127479 0.165984 102 159 73
-0.349905 0.129189 0.165813 102 158 72
-0.352964 0.132452 0.164074 101 155 72
-0.354791 0.1351 0.162986 99 154 72
-0.354904 0.136855 0.162807 98 153 72
-0.355017 0.138615 0.162628 98 153 71
-0.354697 0.140143 0.162679 98 152 70
-0.353514 0.141194 0.16319 98 149 70
-0.35191 0.142001 0.163925 97 148 68
-0.349479 0.142326 0.165103 96 148 67
-0.348745 0.143593 0.165377 95 148 67
-0.347597 0.144618 0.165872 93 146 67
-0.347283 0.146117 0.165923 92 144 67
-0.346968 0.147616 0.165973 93 142 67
-0.346241 0.14887 0.166245 91 141 67
-0.345515 0.15012 0.166515 91 141 66
-0.344792 0.151367 0.166785 91 140 65
-0.343663 0.152361 0.167273 89 138 63
-0.342138 0.153102 0.167975 89 135 61
-0.340226 0.153589 0.168885 89 133 62
-0.338336 0.154071 0.169785 87 131 63
-0.337637 0.155287 0.170045 87 130 62
-0.336939 0.1565 0.170304 86 129 60
-0.336633 0.157961 0.170353 87 127 58
-0.335938 0.159168 0.170612 84 123 56
-0.334859 0.160119 0.171079 77 113 54
-0.333021 0.160558 0.171955 68 98 46
-0.332338 0.16175 0.172209 59 82 29
-0.331279 0.162684 0.172667 45 72 20
-0.352804 0.039063 0.169058 155 219 108
-0.354117 0.040843 0.168276 163 233 114
-0.355444 0.0426422 0.167485 172 241 117
-0.356785 0.044461 0.166686 178 255 125
-0.357725 0.0462033 0.166093 164 247 118
-0.357835 0.0477621 0.165927 157 240 114
-0.3609 0.0500382 0.164236 164 248 121
-0.34858 0.0712975 0.168874 162 234 116
-0.348278 0.0727382 0.168922 162 234 119
-0.347578 0.0740459 0.169179 164 235 117
-0.34688 0.0753499 0.169434 169 237 117
-0.346579 0.0767864 0.169483 174 239 118
-0.347467 0.0786392 0.168908 177 245 121
-0.347563 0.0802228 0.168747 180 252 127
-0.346862 0.0815234 0.169004 185 254 128
-0.34656 0.0829653 0.169053 189 254 130
-0.350684 0.0860507 0.166775 195 254 135
-0.356203 0.0897084 0.163759 201 254 137
-0.35171 0.0896041 0.16601 191 255 136
-0.352227 0.0913955 0.165624 177 250 132
-0.351918 0.092871 0.165674 170 236 123
-0.351609 0.0943464 0.165723 162 223 112
-0.351299 0.0958218 0.165773 149 212 105
-0.350578 0.0971286 0.16604 142 203 100
-0.350269 0.0986017 0.166089 135 193 94
-0.34996 0.100075 0.166139 128 187 89
-0.349651 0.101547 0.166188 125 182 87
-0.349343 0.10302 0.166238 124 181 87
-0.348625 0.104315 0.166504 123 183 87
-0.348317 0.105785 0.166553 123 184 87
-0.348009 0.107256 0.166603 123 183 87
-0.3477 0.108726 0.166652 122 181 86
-0.347392 0.110196 0.166701 120 179 85
-0.347084 0.111666 0.166751 118 177 86
-0.346775 0.113136 0.1668 117 175 83
-0.346063 0.114414 0.167065 113 171 81
-0.345352 0.115688 0.167329 111 167 79
-0.345045 0.117154 0.167378 107 163 75
-0.344737 0.118619 0.167427 105 163 76
-0.344832 0.120284 0.167262 104 159 75
-0.34533 0.122156 0.16688 103 159 76
-0.347462 0.124867 0.165623 103 157 73
-0.349631 0.127624 0.164344 101 157 73
-0.352687 0.130869 0.162588 101 156 72
-0.354082 0.13328 0.16172 101 155 70
-0.354625 0.135259 0.161308 99 153 70
-0.354738 0.137017 0.161127 98 152 71
-0.354851 0.13878 0.160945 99 152 71
-0.35453 0.14031 0.160997 98 150 70
-0.353777 0.141601 0.161281 97 149 71
-0.353025 0.142888 0.161564 97 149 70
-0.352706 0.144413 0.161616 95 148 68
-0.351957 0.145694 0.161898 95 146 67
-0.347423 0.144789 0.164226 93 145 66
-0.347108 0.14629 0.164276 92 143 66
-0.345967 0.147306 0.164774 93 142 66
-0.345653 0.148802 0.164824 92 140 66
-0.345339 0.150299 0.164875 91 138 65
-0.344615 0.151547 0.165147 90 137 65
-0.343485 0.152543 0.16564 88 136 65
-0.342362 0.153533 0.166131 89 134 61
-0.339647 0.153524 0.167487 88 132 61
-0.33776 0.154006 0.168394 87 131 61
-0.337062 0.155222 0.168656 87 130 62
-0.336755 0.156685 0.168706 87 129 61
-0.336059 0.157896 0.168967 87 127 59
-0.335752 0.159357 0.169016 82 121 57
-0.334672 0.160308 0.169488 74 111 53
-0.333598 0.161255 0.169957 66 97 46
-0.332149 0.161941 0.170631 60 81 27
-0.331089 0.162876 0.171094 49 74 20
-0.349466 0.038403 0.169147 159 232 115
-0.350748 0.0401628 0.168373 168 241 115
-0.352849 0.0421195 0.167172 177 253 123
-0.354575 0.0440156 0.166164 170 247 120
-0.355912 0.0458419 0.165358 155 241 114
-0.357264 0.0476883 0.164542 165 243 116
-0.350533 0.0612536 0.166959 163 246 123
-0.349829 0.0625796 0.167218 164 240 124
-0.349527 0.064021 0.167267 161 243 124
-0.34792 0.0696588 0.16767 175 246 127
-0.347222 0.0709693 0.167928 181 251 130
-0.34692 0.0724062 0.167976 188 254 131
-0.346619 0.073843 0.168025 190 254 132
-0.345138 0.0748787 0.168697 195 254 134
-0.344447 0.0761747 0.168952 192 254 136
-0.344929 0.0778775 0.168586 187 254 134
-0.346204 0.0798703 0.167799 181 255 134
-0.345902 0.0813105 0.167848 176 253 131
-0.344419 0.0823182 0.168523 168 241 125
-0.345693 0.0843375 0.167735 162 230 118
-0.348184 0.0868327 0.166298 159 219 110
-0.349497 0.0889074 0.165486 152 209 103
-0.350825 0.091005 0.164664 141 201 97
-0.350516 0.0924765 0.164714 132 192 93
-0.350619 0.0941117 0.164544 127 186 91
-0.35031 0.095585 0.164594 123 182 88
-0.350001 0.0970583 0.164643 121 181 88
-0.349692 0.0985315 0.164693 120 179 85
-0.349383 0.100005 0.164742 120 179 84
-0.349074 0.101478 0.164792 120 179 85
-0.348357 0.102774 0.16506 121 178 86
-0.348049 0.104245 0.165109 122 179 88
-0.347334 0.105536 0.165377 123 181 88
-0.347026 0.107005 0.165426 124 182 86
-0.347124 0.108657 0.165258 122 182 86
-0.346815 0.110127 0.165307 120 180 84
-0.346507 0.111597 0.165356 119 177 85
-0.345795 0.112878 0.165623 118 174 85
-0.344683 0.113964 0.166106 114 168 82
-0.344376 0.115427 0.166155 110 165 78
-0.344069 0.116891 0.166204 108 162 76
-0.343762 0.118355 0.166253 104 162 75
-0.343455 0.119818 0.166303 102 160 73
-0.344752 0.122088 0.165485 103 160 73
-0.351033 0.126911 0.161968 102 157 71
-0.351985 0.129068 0.161332 101 156 72
-0.353803 0.131689 0.160225 101 155 73
-0.353914 0.133437 0.160043 101 154 73
-0.354026 0.135189 0.159861 99 152 73
-0.354571 0.13718 0.159442 98 151 73
-0.35425 0.13871 0.159494 98 151 72
-0.353929 0.14024 0.159545 98 150 70
-0.353608 0.14177 0.159596 97 149 70
-0.353287 0.1433 0.159648 96 148 71
-0.352966 0.14483 0.159699 94 147 69
-0.351359 0.145625 0.160453 95 144 67
-0.347248 0.144961 0.162574 94 144 65
-0.346518 0.146223 0.162852 92 143 65
-0.34579 0.147481 0.163128 91 142 66
-0.345476 0.14898 0.163179 91 140 66
-0.345162 0.150479 0.163229 91 138 65
-0.344847 0.151977 0.163279 90 137 64
-0.344123 0.153225 0.163555 88 135 64
-0.342587 0.153967 0.164276 89 132 61
-0.339863 0.153954 0.165651 90 132 60
-0.337969 0.154435 0.166572 88 132 61
-0.336877 0.155406 0.167053 88 130 61
-0.33618 0.15662 0.167317 87 129 60
-0.335873 0.158083 0.167366 85 126 59
-0.335178 0.159292 0.167629 81 120 56
-0.334872 0.160753 0.167679 73 109 51
-0.333794 0.161701 0.168154 65 95 45
-0.332722 0.162643 0.168627 59 80 27
-0.331277 0.163324 0.169306 50 75 21
-0.345714 0.0361911 0.16959 159 227 115
-0.346575 0.0378367 0.169031 165 238 116
-0.347832 0.0395796 0.168263 176 251 122
-0.349497 0.0414284 0.167278 175 254 121
-0.353603 0.04385 0.165008 159 244 115
-0.349265 0.0625081 0.165852 192 254 133
-0.348963 0.0639497 0.165901 200 255 131
-0.346565 0.0693354 0.166729 204 254 146
-0.346264 0.0707706 0.166777 188 255 145
-0.345178 0.0719467 0.167245 175 252 137
-0.344487 0.0732469 0.167502 170 245 130
-0.34341 0.0744113 0.167966 166 236 120
-0.341953 0.0754364 0.168633 158 226 113
-0.341656 0.0768558 0.168681 152 216 106
-0.344068 0.0792404 0.167276 147 209 101
-0.343767 0.080673 0.167325 139 202 98
-0.343858 0.0822488 0.167163 131 193 95
-0.343948 0.0838287 0.167001 128 187 91
-0.347212 0.0866109 0.165134 125 180 87
-0.348114 0.0885267 0.164534 123 176 84
-0.34943 0.0906165 0.163709 120 175 80
-0.34994 0.0924059 0.163319 117 173 79
-0.350041 0.0940411 0.163147 115 173 82
-0.349732 0.0955146 0.163197 116 172 82
-0.349423 0.096988 0.163246 117 174 82
-0.349114 0.0984613 0.163296 118 175 83
-0.348805 0.0999345 0.163346 118 176 83
-0.348089 0.101234 0.163616 118 178 84
-0.34778 0.102705 0.163665 120 178 86
-0.347066 0.103998 0.163935 122 179 88
-0.346758 0.105467 0.163984 123 181 88
-0.34645 0.106935 0.164033 123 183 87
-0.346547 0.108588 0.163863 121 183 87
-0.346238 0.110058 0.163913 119 180 85
-0.34593 0.111528 0.163962 118 176 84
-0.344817 0.11262 0.16445 116 173 84
-0.343709 0.113705 0.164935 113 166 82
-0.343403 0.115167 0.164984 109 163 78
-0.343096 0.116629 0.165033 106 160 74
-0.34279 0.11809 0.165082 103 160 73
-0.342483 0.119552 0.165132 102 159 72
-0.352451 0.12619 0.159564 104 159 72
-0.351709 0.127487 0.159847 103 158 72
-0.351816 0.129217 0.159666 101 156 73
-0.353206 0.131619 0.158782 100 154 73
-0.353316 0.133367 0.158597 100 152 73
-0.353427 0.135119 0.158413 98 151 73
-0.35397 0.13711 0.15799 97 151 71
-0.353649 0.13864 0.158041 97 151 70
-0.353328 0.14017 0.158093 97 150 71
-0.353007 0.141701 0.158144 97 148 70
-0.352686 0.143231 0.158196 96 146 70
-0.352796 0.145005 0.15801 93 146 70
-0.352045 0.14629 0.158299 94 143 67
-0.351724 0.14782 0.15835 95 142 66
-0.350122 0.148602 0.15911 93 142 66
-0.348533 0.149377 0.159863 91 141 66
-0.347376 0.150394 0.160378 90 140 65
-0.346225 0.151405 0.160891 89 138 64
-0.345495 0.152661 0.161171 88 137 63
-0.344766 0.153913 0.161451 88 134 62
-0.343221 0.154655 0.162184 90 132 61
-0.341688 0.15539 0.162912 90 131 60
-0.33818 0.154866 0.164739 89 131 62
-0.337084 0.155839 0.165226 87 129 60
-0.336775 0.157308 0.165276 86 128 59
-0.336076 0.158523 0.165543 84 125 58
-0.335379 0.159735 0.16581 80 118 56
-0.334684 0.160944 0.166076 72 107 51
-0.333991 0.162149 0.166341 65 95 45
-0.332915 0.163093 0.16682 58 81 30
-0.332228 0.16429 0.167083 52 75 25
-0.340932 0.0338053 0.170616 161 224 117
-0.34176 0.0354161 0.17007 165 237 116
-0.34335 0.0371992 0.169118 174 244 122
-0.343816 0.0387576 0.168762 177 255 125
-0.346982 0.0409222 0.166971 163 245 118
-0.332697 0.0548504 0.173294 192 255 137
-0.347905 0.0622029 0.164914 177 255 146
-0.347207 0.0635223 0.165175 175 253 146
-0.342886 0.0682682 0.167048 158 213 106
-0.342588 0.0696882 0.167096 148 205 101
-0.34229 0.0711081 0.167144 138 199 98
-0.341993 0.0725279 0.167192 135 191 95
-0.340548 0.0735567 0.16786 128 188 91
-0.338737 0.0744468 0.168726 126 184 89
-0.338442 0.0758531 0.168774 122 178 85
-0.338524 0.0773935 0.168617 118 175 81
-0.340123 0.0794872 0.167638 115 173 80
-0.342906 0.0820361 0.166015 113 170 81
-0.34575 0.0846406 0.164356 112 170 81
-0.347043 0.0866923 0.163538 113 169 82
-0.347542 0.0884564 0.16315 113 170 81
-0.347639 0.090073 0.16298 113 170 78
-0.348547 0.0920137 0.162367 112 169 77
-0.349054 0.093807 0.161973 112 169 79
-0.349155 0.0954441 0.1618 114 170 80
-0.348846 0.0969177 0.161849 117 173 82
-0.348537 0.0983911 0.161899 117 175 83
-0.348228 0.0998645 0.161948 117 175 82
-0.347512 0.101164 0.162221 118 176 84
-0.347203 0.102635 0.16227 119 178 87
-0.346895 0.104106 0.16232 121 180 88
-0.346587 0.105577 0.162369 122 182 89
-0.346278 0.107048 0.162419 122 183 88
-0.346375 0.108702 0.162246 122 182 86
-0.346066 0.110175 0.162296 119 179 82
-0.345353 0.111459 0.162567 117 175 82
-0.344241 0.112551 0.163059 114 172 83
-0.343136 0.113637 0.163548 113 168 79
-0.342829 0.115099 0.163597 109 165 79
-0.34292 0.116755 0.163427 104 158 74
-0.343012 0.118415 0.163257 104 159 73
-0.345522 0.121287 0.16175 102 157 73
-0.351857 0.126119 0.158128 103 156 72
-0.351116 0.127417 0.158413 102 155 72
-0.351222 0.129147 0.15823 101 153 72
-0.351329 0.130881 0.158046 100 153 72
-0.352718 0.133297 0.157151 99 152 72
-0.352398 0.134821 0.157202 98 151 71
-0.352937 0.136807 0.156777 97 150 70
-0.353048 0.13857 0.156589 97 149 69
-0.352727 0.140101 0.156641 97 148 69
-0.351976 0.141392 0.156931 96 147 69
-0.352085 0.143161 0.156744 96 146 71
-0.352194 0.144935 0.156556 94 145 70
-0.351873 0.146467 0.156607 94 143 67
-0.351552 0.148 0.156659 94 141 67
-0.350802 0.149281 0.15695 92 140 67
-0.349628 0.150307 0.157478 91 140 67
-0.348884 0.151579 0.157767 92 138 65
-0.348143 0.152848 0.158055 92 137 65
-0.346565 0.153603 0.158811 93 137 66
-0.344587 0.154098 0.159793 95 135 65
-0.34386 0.155349 0.160075 97 134 63
-0.341912 0.15583 0.161042 96 129 61
-0.338391 0.1553 0.162896 91 128 63
-0.337291 0.156274 0.16339 87 126 62
-0.336982 0.157747 0.163439 84 124 64
-0.336281 0.158966 0.16371 82 120 65
-0.335582 0.160181 0.16398 77 113 62
-0.335274 0.16165 0.164029 68 102 57
-0.334577 0.162859 0.164299 58 88 49
-0.333882 0.164065 0.164567 51 74 34
-0.337018 0.0316341 0.171224 157 219 113
-0.33782 0.0332161 0.170687 162 232 117
-0.339364 0.034962 0.169752 168 241 118
-0.340184 0.0365732 0.169204 178 249 124
-0.340266 0.0380353 0.169051 167 248 115
-0.340348 0.039501 0.168898 156 241 111
-0.343063 0.0415682 0.167329 167 245 118
-0.331955 0.0504142 0.172443 189 255 133
-0.33167 0.0517701 0.172489 183 255 135
-0.331386 0.0531258 0.172535 171 249 133
-0.33075 0.0543817 0.172771 159 229 117
-0.331879 0.0561435 0.17205 146 213 104
-0.330886 0.0572962 0.17248 139 200 95
-0.329548 0.0583382 0.173098 133 194 95
-0.329965 0.0599034 0.172763 125 188 93
-0.342627 0.0667782 0.165655 121 179 82
-0.341562 0.0679528 0.166121 119 174 79
-0.341648 0.0694936 0.16596 115 170 80
-0.341351 0.0709118 0.166007 113 170 80
-0.34029 0.0720735 0.166472 113 168 79
-0.338481 0.0729716 0.167346 114 167 81
-0.336691 0.0738602 0.16821 117 170 81
-0.333822 0.0743529 0.169666 115 170 80
-0.336476 0.0767908 0.168101 110 168 78
-0.337677 0.0787332 0.16733 109 166 78
-0.350021 0.0863762 0.160329 109 166 78
-0.348489 0.0873854 0.16105 109 166 81
-0.347372 0.0885408 0.161544 110 166 80
-0.347066 0.0900027 0.161594 110 166 78
-0.347972 0.0919433 0.160976 111 168 78
-0.348886 0.0938999 0.160353 112 168 78
-0.348577 0.0953737 0.160402 113 169 79
-0.348268 0.0968474 0.160452 117 171 80
-0.347959 0.0983209 0.160502 119 173 81
-0.34765 0.0997944 0.160551 118 174 82
-0.347341 0.101268 0.160601 118 176 85
-0.346627 0.102565 0.160875 120 178 86
-0.346318 0.104036 0.160925 122 180 87
-0.346415 0.105687 0.16075 124 182 89
-0.346106 0.10716 0.1608 124 182 89
-0.345797 0.108633 0.160849 123 180 87
-0.345488 0.110106 0.160899 120 177 83
-0.34518 0.111578 0.160949 118 173 80
-0.344468 0.112861 0.161222 114 170 80
-0.34296 0.113758 0.16194 110 167 78
-0.342653 0.115223 0.161989 108 164 77
-0.343543 0.117272 0.161371 106 157 72
-0.344038 0.119139 0.160972 103 157 74
-0.348223 0.122858 0.158514 102 156 72
-0.351687 0.126264 0.156454 102 154 71
-0.350945 0.127563 0.156743 101 153 72
-0.350628 0.129077 0.156794 101 151 71
-0.35031 0.130591 0.156845 100 152 71
-0.350416 0.132327 0.156659 99 151 70
-0.351799 0.134751 0.155756 98 149 70
-0.35148 0.136275 0.155807 97 148 71
-0.351588 0.138032 0.155619 96 147 71
-0.351696 0.139794 0.15543 97 147 70
-0.351376 0.141322 0.155481 98 147 71
-0.351055 0.142851 0.155533 101 147 72
-0.351163 0.144622 0.155343 105 148 70
-0.351271 0.146398 0.155153 104 144 69
-0.35095 0.14793 0.155204 100 140 69
-0.350629 0.149462 0.155256 91 134 73
-0.349454 0.15049 0.15579 85 131 75
-0.348709 0.151764 0.156082 83 124 72
-0.347966 0.153034 0.156372 83 117 68
-0.346806 0.154045 0.1569 84 110 63
-0.345652 0.155049 0.157425 89 106 58
-0.34368 0.155537 0.158415 91 100 55
-0.34173 0.156018 0.159393 92 96 49
-0.339802 0.156494 0.160361 86 95 51
-0.3375 0.156712 0.161542 82 95 55
-0.336796 0.157935 0.161817 76 92 59
-0.336487 0.159411 0.161866 72 91 61
-0.336177 0.160886 0.161916 66 86 57
-0.335868 0.162361 0.161966 54 76 52
-0.335559 0.163836 0.162015 35 58 42
-0.333202 0.0295175 0.171816 149 213 106
-0.333626 0.0310018 0.17148 158 231 116
-0.334764 0.0326373 0.170757 159 233 116
-0.335914 0.0342894 0.170026 162 237 119
-0.33635 0.0358047 0.16968 163 234 115
-0.336064 0.0371705 0.169726 159 237 112
-0.335417 0.0384561 0.169968 160 240 114
-0.334772 0.0397384 0.17021 164 243 120
-0.333415 0.0408516 0.170838 161 237 119
-0.331014 0.0417061 0.172035 162 231 116
-0.32934 0.042715 0.172838 168 236 113
-0.32837 0.0438836 0.173259 175 247 123
-0.32809 0.0452196 0.173304 180 255 127
-0.328498 0.0467329 0.172973 187 255 131
-0.328217 0.048072 0.173019 178 251 126
-0.327937 0.0494111 0.173064 165 238 117
-0.328346 0.0509385 0.172732 152 218 104
-0.328757 0.0524737 0.172398 138 201 98
-0.328822 0.0539177 0.172253 129 190 91
-0.329586 0.055567 0.171726 124 178 82
-0.327911 0.0565099 0.172534 115 170 76
-0.327629 0.0578551 0.17258 110 164 77
-0.328387 0.0595171 0.172054 108 162 75
-0.329151 0.0611917 0.171524 106 161 76
-0.340542 0.0662262 0.16515 106 161 75
-0.341008 0.0678831 0.164778 106 161 72
-0.340711 0.0692996 0.164826 107 161 72
-0.340414 0.0707159 0.164874 105 162 74
-0.338602 0.0716227 0.165757 106 163 75
-0.336437 0.0723927 0.166836 108 164 79
-0.334667 0.0732797 0.167699 110 164 80
-0.332915 0.0741574 0.168553 109 163 78
-0.335927 0.0767228 0.166773 108 161 77
-0.349135 0.0877775 0.158983 107 164 77
-0.347607 0.0887809 0.15971 109 164 77
-0.347704 0.0904048 0.159534 110 166 77
-0.348617 0.0923553 0.158905 110 166 78
-0.348717 0.093993 0.158727 111 167 79
-0.348407 0.095469 0.158777 113 169 79
-0.34769 0.096777 0.159054 115 170 81
-0.347381 0.0982507 0.159104 118 172 82
-0.347072 0.0997243 0.159154 118 173 83
-0.346763 0.101198 0.159203 118 175 85
-0.346454 0.102671 0.159253 120 178 86
-0.346146 0.104144 0.159303 122 181 87
-0.345837 0.105618 0.159353 125 182 91
-0.345933 0.107273 0.159176 126 182 91
-0.345623 0.108748 0.159225 124 179 88
-0.345314 0.110223 0.159275 120 176 84
-0.344602 0.111509 0.159551 117 173 79
-0.344293 0.112982 0.159601 114 168 79
-0.343583 0.114263 0.159877 110 165 77
-0.343275 0.115733 0.159926 108 164 76
-0.343769 0.117596 0.159524 106 157 72
-0.34467 0.119669 0.158891 102 156 73
-0.34972 0.123832 0.155918 102 155 74
-0.351092 0.126194 0.155016 102 153 71
-0.350774 0.12771 0.155067 104 154 73
-0.349612 0.128789 0.155596 105 153 73
-0.349295 0.130301 0.155647 108 153 73
-0.349821 0.132258 0.15522 109 151 72
-0.349503 0.133773 0.155272 106 146 71
-0.350031 0.135746 0.154843 100 142 73
-0.350562 0.137729 0.154412 93 138 77
-0.350668 0.139489 0.154222 87 135 79
-0.350775 0.141253 0.15403 85 126 75
-0.350455 0.142781 0.154082 87 116 67
-0.350562 0.144552 0.15389 93 108 57
-0.350669 0.146329 0.153698 97 103 52
-0.350776 0.14811 0.153505 91 97 54
-0.350455 0.149644 0.153557 81 96 58
-0.349705 0.150925 0.153853 70 91 59
-0.348533 0.151948 0.154391 65 85 59
-0.34779 0.15322 0.154685 60 75 52
-0.346209 0.153977 0.155458 58 65 44
-0.345473 0.155238 0.155749 62 54 37
-0.343499 0.155725 0.15675 64 47 37
-0.341955 0.156462 0.157505 64 45 28
-0.34002 0.156936 0.158486 66 45 29
-0.338905 0.157916 0.158998 62 44 30
-0.338593 0.159404 0.159048 58 42 33
-0.338281 0.160892 0.159098 55 42 33
-0.338368 0.162642 0.158918 52 42 29
-0.338056 0.164132 0.158969 42 36 22
-0.330862 0.0277112 0.17164 146 198 93
-0.331277 0.02918 0.171306 167 232 117
-0.330996 0.0305188 0.171351 172 240 119
-0.331063 0.0319278 0.171206 169 240 119
-0.332533 0.0336304 0.170294 171 241 120
-0.332956 0.0351288 0.169953 169 240 120
-0.332673 0.0364808 0.169998 170 240 119
-0.330984 0.0375205 0.170815 173 242 122
-0.329659 0.0386283 0.171433 174 243 124
-0.329032 0.0398877 0.171668 177 248 130
-0.328407 0.0411439 0.171903 188 253 130
-0.327441 0.0423138 0.172325 191 254 129
-0.326821 0.043562 0.172558 194 255 137
-0.327224 0.0450657 0.172227 193 255 142
-0.327287 0.0464883 0.172083 175 246 126
-0.327007 0.0478242 0.172128 155 225 110
-0.326727 0.04916 0.172173 142 210 99
-0.326447 0.0504957 0.172218 130 194 93
-0.326167 0.0518313 0.172264 123 181 86
-0.326228 0.0532637 0.17212 114 173 80
-0.327666 0.0550977 0.171214 112 167 75
-0.326009 0.0560383 0.172021 105 160 72
-0.326071 0.0574794 0.171877 102 157 70
-0.327165 0.059239 0.171159 102 156 71
-0.327923 0.0609084 0.170627 100 156 73
-0.328686 0.0625905 0.170091 102 157 72
-0.340453 0.0678134 0.163435 101 156 73
-0.340537 0.0693544 0.163271 103 156 73
-0.339859 0.0706465 0.163531 105 158 72
-0.339562 0.0720629 0.163579 103 160 74
-0.335889 0.0723243 0.16551 106 160 74
-0.334122 0.0732118 0.16638 109 162 76
-0.332373 0.07409 0.16724 106 161 76
-0.350198 0.0883291 0.156667 107 161 76
-0.348657 0.0893359 0.157407 108 163 77
-0.348348 0.0908103 0.157457 109 166 78
-0.348447 0.0924461 0.157278 110 166 78
-0.348547 0.0940864 0.157098 111 167 79
-0.347829 0.0953984 0.157377 111 168 79
-0.347112 0.0967066 0.157656 114 170 80
-0.346803 0.0981805 0.157706 118 172 82
-0.346494 0.0996542 0.157756 120 174 84
-0.346185 0.101128 0.157806 119 175 84
-0.346282 0.102777 0.157627 121 177 85
-0.345972 0.104253 0.157677 123 179 87
-0.345663 0.105728 0.157726 125 181 91
-0.345354 0.107203 0.157776 127 182 90
-0.345449 0.108863 0.157597 125 178 87
-0.34514 0.11034 0.157647 121 174 84
-0.34483 0.111817 0.157697 118 173 81
-0.343715 0.112913 0.158204 117 169 82
-0.343406 0.114386 0.158254 116 165 81
-0.343499 0.116053 0.158075 119 163 78
-0.344805 0.118318 0.157206 115 156 75
-0.347361 0.121222 0.155622 104 149 75
-0.351239 0.12482 0.153284 96 142 76
-0.35092 0.126339 0.153335 91 135 78
-0.350602 0.127857 0.153386 87 129 75
-0.349018 0.128719 0.154161 84 118 69
-0.348701 0.130231 0.154212 89 110 63
-0.349225 0.132188 0.153782 93 102 55
-0.348907 0.133704 0.153833 93 95 49
-0.349011 0.135448 0.153643 87 93 49
-0.349963 0.13766 0.152965 77 90 51
-0.349643 0.139184 0.153017 67 88 57
-0.349749 0.140945 0.152824 60 81 53
-0.349854 0.142712 0.152631 57 70 49
-0.350388 0.144727 0.152192 60 58 41
-0.350067 0.146259 0.152243 64 51 32
-0.350173 0.148041 0.152048 61 49 34
-0.349851 0.149575 0.1521 58 51 32
-0.349103 0.150856 0.152399 53 51 31
-0.329995 0.027578 0.170566 160 227 120
-0.33006 0.0289782 0.17042 169 240 122
-0.32978 0.0303138 0.170466 169 243 121
-0.330192 0.0317891 0.170129 167 242 124
-0.329912 0.0331278 0.170174 168 242 125
-0.329631 0.0344664 0.170219 166 242 123
-0.329005 0.0357299 0.170456 167 243 124
-0.328381 0.0369901 0.170691 175 247 131
-0.327758 0.0382471 0.170927 184 255 145
-0.327479 0.0395804 0.170972 183 255 153
-0.326858 0.0408323 0.171206 183 255 147
-0.326579 0.0421637 0.171251 174 247 133
-0.3263 0.0434949 0.171296 168 244 132
-0.326702 0.0449986 0.170962 160 224 115
-0.326423 0.046333 0.171007 149 211 101
-0.326143 0.0476673 0.171052 140 201 95
-0.325863 0.0490016 0.171098 131 192 92
-0.325584 0.0503357 0.171143 124 184 92
-0.325644 0.0517647 0.170998 120 177 84
-0.325705 0.0531972 0.170852 111 169 78
-0.325425 0.0545343 0.170898 110 162 73
-0.325485 0.0559719 0.170752 104 157 71
-0.326575 0.0577219 0.17003 100 155 70
-0.327677 0.0594896 0.1693 101 155 71
-0.327393 0.0608417 0.169345 101 153 72
-0.328154 0.0625236 0.168805 101 154 71
-0.340066 0.0708297 0.161759 104 154 71
-0.339768 0.07225 0.161807 104 156 74
-0.338332 0.0732804 0.162497 106 159 74
-0.360601 0.0907758 0.149171 108 163 76
-0.350444 0.0885715 0.154795 107 164 77
-0.349308 0.0897385 0.155313 108 165 77
-0.348178 0.0908988 0.155828 108 164 78
-0.348687 0.0926997 0.155413 110 165 78
-0.347559 0.0938516 0.155927 113 166 79
-0.34725 0.0953278 0.155977 113 167 78
-0.346534 0.0966363 0.156258 116 169 79
-0.346225 0.0981102 0.156308 117 171 81
-0.345916 0.0995841 0.156358 117 173 85
-0.346012 0.101232 0.156177 118 174 87
-0.345703 0.102707 0.156227 120 176 86
-0.345394 0.104183 0.156277 123 178 87
-0.345489 0.105839 0.156095 126 180 90
-0.345179 0.107316 0.156145 129 182 92
-0.345275 0.108979 0.155963 129 178 89
-0.328786 0.0273809 0.169685 128 186 92
-0.328507 0.0287116 0.16973 132 190 94
-0.328571 0.0301098 0.169584 131 196 92
-0.328634 0.0315114 0.169438 131 196 93
-0.328699 0.0329164 0.169291 132 195 93
-0.328419 0.0342518 0.169336 131 195 92
-0.327796 0.0355126 0.169573 134 193 96
-0.327175 0.03677 0.169809 139 196 97
-0.326896 0.0381018 0.169855 146 202 99
-0.326616 0.0394335 0.1699 146 202 101
-0.326337 0.040765 0.169945 146 202 98
-0.326058 0.0420965 0.16999 139 201 97
-0.325779 0.0434279 0.170035 137 198 95
-0.32618 0.0449315 0.169698 134 194 95
-0.325901 0.046266 0.169743 134 194 96
-0.325621 0.0476005 0.169788 133 192 96
-0.325341 0.0489348 0.169833 127 187 91
-0.325062 0.050269 0.169878 124 183 93
-0.325121 0.0516981 0.169732 118 174 86
-0.325182 0.0531306 0.169585 113 167 77
-0.324901 0.0544679 0.16963 108 161 75
-0.324621 0.0558051 0.169675 103 156 72
-0.326049 0.0576553 0.168754 99 156 72
-0.327147 0.0594227 0.168018 100 154 72
-0.327907 0.0610994 0.167472 98 153 72
-0.360322 0.089167 0.147663 106 160 78
-0.356078 0.0892301 0.149959 108 161 78
-0.35576 0.0907449 0.15001 108 162 78
-0.352467 0.0911109 0.151766 108 163 77
-0.348417 0.0911479 0.153958 109 163 76
-0.34729 0.0923044 0.154477 111 164 78
-0.346574 0.0936174 0.15476 113 166 78
-0.346265 0.0950917 0.15481 114 166 79
-0.345956 0.0965659 0.15486 115 167 80
-0.345647 0.09804 0.15491 115 171 82
-0.345338 0.0995139 0.15496 116 173 86
-0.345433 0.101162 0.154777 118 175 88
-0.345124 0.102637 0.154827 121 176 89
-0.345219 0.104291 0.154643 126 177 90
-0.344909 0.105769 0.154693 129 177 93
-0.327924 0.0272485 0.168616 99 152 71
-0.327645 0.0285777 0.168662 103 152 70
-0.327708 0.0299741 0.168514 104 153 70
-0.327429 0.0313048 0.168559 103 154 72
-0.327491 0.0327062 0.168412 105 153 73
-0.327212 0.0340383 0.168457 103 153 72
-0.326592 0.0352963 0.168695 105 154 74
-0.326314 0.0366266 0.16874 108 161 74
-0.326375 0.0380343 0.168592 113 163 77
-0.326096 0.039366 0.168638 115 168 79
-0.325817 0.0406977 0.168683 118 173 81
-0.325537 0.0420293 0.168728 120 177 84
-0.325258 0.0433608 0.168773 121 178 88
-0.325658 0.0448644 0.168433 123 182 87
-0.325378 0.046199 0.168478 128 184 91
-0.325099 0.0475336 0.168523 131 190 94
-0.324819 0.048868 0.168568 127 185 91
-0.324539 0.0502024 0.168613 126 181 92
-0.324599 0.0516314 0.168465 119 172 87
-0.324658 0.053064 0.168317 115 168 76
-0.324378 0.0544014 0.168362 108 161 73
-0.324437 0.0558391 0.168214 103 158 73
-0.325865 0.0576919 0.167282 99 155 70
-0.326618 0.0593558 0.166736 101 152 71
-0.327376 0.0610324 0.166185 101 153 71
-0.328491 0.062833 0.165429 98 153 72
-0.359161 0.0872366 0.146664 107 159 74
-0.355801 0.0876418 0.148471 106 160 75
-0.355484 0.0891568 0.148522 108 161 77
-0.346305 0.0920722 0.153312 110 165 77
-0.345592 0.0933838 0.153596 112 166 78
-0.345283 0.0948562 0.153646 112 167 80
-0.344974 0.0963285 0.153696 113 168 81
-0.344666 0.0978006 0.153746 116 169 81
-0.34476 0.0994438 0.153561 119 171 83
-0.344854 0.101091 0.153376 122 173 87
-0.344949 0.102744 0.153191 125 172 91
-0.343803 0.110319 0.153206 58 60 37
-0.343493 0.111798 0.153256 58 56 36
-0.343183 0.113278 0.153306 53 59 35
-0.343276 0.114951 0.15312 50 57 36
-0.327064 0.0271165 0.16755 92 135 64
-0.326786 0.0284442 0.167595 97 137 65
-0.326847 0.0298387 0.167447 96 142 69
-0.326909 0.0312367 0.167299 94 142 66
-0.32663 0.0325675 0.167344 94 143 65
-0.326351 0.0338981 0.167389 92 143 64
-0.326072 0.0352286 0.167434 92 144 66
-0.325793 0.036559 0.167479 96 148 68
-0.325515 0.0378893 0.167524 98 152 72
-0.325575 0.0392986 0.167375 103 158 72
-0.325296 0.0406304 0.167421 109 162 74
-0.325016 0.0419621 0.167466 113 169 77
-0.325076 0.043378 0.167317 116 171 84
-0.325476 0.0448836 0.166972 120 180 87
-0.325196 0.04622 0.167018 125 183 89
-0.324916 0.0475564 0.167063 130 189 93
-0.324636 0.0488926 0.167108 124 185 90
-0.324356 0.0502288 0.167154 125 181 92
-0.324415 0.0516597 0.167004 121 173 87
-0.324134 0.0529974 0.167049 114 169 81
-0.324193 0.0544335 0.166899 108 161 75
-0.323913 0.0557726 0.166944 104 158 74
-0.325681 0.0577286 0.165806 100 154 70
-0.326088 0.0592889 0.165453 98 152 73
-0.326844 0.0609654 0.164898 98 153 72
-0.327956 0.0627658 0.164135 97 153 72
-0.358882 0.0856317 0.14516 107 158 74
-0.355525 0.0860531 0.146982 106 160 75
-0.353078 0.0867789 0.148276 106 159 75
-0.352763 0.0882833 0.148327 107 159 76
-0.352026 0.0896268 0.148624 108 161 77
-0.345631 0.0903679 0.152099 109 162 76
-0.345323 0.0918406 0.152149 110 164 77
-0.34421 0.092989 0.15267 112 165 78
-0.343903 0.0944574 0.15272 113 168 81
-0.343995 0.0960917 0.152535 116 169 83
-0.344491 0.0978994 0.152113 120 166 84
-0.344182 0.0993737 0.152163 114 160 84
-0.344679 0.101195 0.151738 102 140 80
-0.343843 0.10729 0.151701 62 63 38
-0.343533 0.10877 0.151751 58 57 35
-0.343223 0.110249 0.151801 50 56 35
-0.326545 0.0270482 0.166292 87 131 63
-0.326267 0.028376 0.166337 89 133 66
-0.325989 0.0297037 0.166382 92 136 67
-0.326388 0.0311687 0.166037 90 135 64
-0.326109 0.0324995 0.166083 90 136 63
-0.325831 0.0338302 0.166128 88 137 62
-0.325552 0.0351609 0.166173 89 138 64
-0.325273 0.0364914 0.166218 92 142 66
-0.324994 0.0378219 0.166263 96 146 70
-0.325054 0.0392311 0.166113 100 152 70
-0.324775 0.0405631 0.166158 105 156 73
-0.324495 0.0418949 0.166203 110 165 79
-0.324554 0.0433108 0.166053 114 173 82
-0.324953 0.0448163 0.165705 119 176 83
-0.324673 0.0461529 0.165751 124 180 89
-0.324732 0.0475792 0.165599 128 187 94
-0.324452 0.0489172 0.165645 126 183 88
-0.324171 0.0502552 0.16569 126 182 92
-0.32423 0.0516881 0.165538 123 174 86
-0.32395 0.0530276 0.165583 114 168 81
-0.323669 0.0543669 0.165629 107 160 77
-0.323388 0.0557062 0.165674 103 156 77
-0.325153 0.0576618 0.164526 99 152 70
-0.325904 0.059328 0.163969 99 152 72
-0.326312 0.0608984 0.16361 97 151 72
-0.327422 0.0626985 0.162841 100 155 72
-0.348748 0.0789384 0.149582 107 156 76
-0.349259 0.0807097 0.14915 108 156 76
-0.349773 0.0824908 0.148715 108 157 74
-0.351961 0.0848931 0.147294 106 159 74
-0.351646 0.0863935 0.147345 106 159 74
-0.34925 0.0871098 0.148623 108 159 77
-0.346075 0.0875056 0.150363 108 159 78
-0.340601 0.0869784 0.153464 108 161 77
-0.340687 0.0885807 0.153283 110 164 78
-0.34156 0.0905004 0.152636 115 164 81
-0.342044 0.0922757 0.152218 116 162 82
-0.342928 0.0942237 0.151563 108 153 83
-0.34262 0.0956902 0.151613 95 134 78
-0.343511 0.0976603 0.150952 92 113 67
-0.343603 0.0993035 0.150764 88 94 53
-0.343294 0.100778 0.150814 78 80 44
-0.343789 0.102603 0.150386 70 66 41
-0.343479 0.104082 0.150436 64 57 35
-0.342768 0.10538 0.150725 59 55 33
-0.34286 0.107038 0.150536 56 56 35
-0.326026 0.0269799 0.165034 84 128 61
-0.325748 0.0283079 0.165079 87 130 61
-0.325469 0.0296357 0.165124 89 133 64
-0.325868 0.0311006 0.164776 89 132 63
-0.325589 0.0324315 0.164821 87 134 62
-0.325649 0.0338346 0.164669 87 134 64
-0.32537 0.035167 0.164715 89 136 61
-0.325091 0.0364993 0.16476 92 137 64
-0.324812 0.0378316 0.164805 96 144 71
-0.324533 0.0391637 0.16485 97 149 70
-0.324591 0.0405764 0.164698 103 155 71
-0.324312 0.04191 0.164744 107 160 77
-0.324033 0.0432436 0.164789 115 169 84
-0.32443 0.0447491 0.164438 116 176 84
-0.324489 0.0461738 0.164285 124 177 87
-0.324548 0.047602 0.164131 131 186 93
-0.324267 0.0489419 0.164177 124 183 90
-0.324326 0.0503752 0.164023 128 181 90
-0.324727 0.0519078 0.163668 122 175 87
-0.324445 0.0532524 0.163714 114 167 82
-0.323823 0.0544978 0.16396 107 158 77
-0.323202 0.05574 0.164205 102 154 75
-0.324282 0.0574916 0.163449 100 154 70
-0.325373 0.059261 0.162685 99 152 72
-0.32578 0.0608313 0.162323 99 151 72
-0.348069 0.0772452 0.148371 107 157 75
-0.347759 0.0787232 0.148421 106 155 75
-0.34745 0.0802012 0.148471 106 156 75
-0.34714 0.081679 0.148521 106 156 75
-0.347646 0.0834554 0.148087 107 156 75
-0.347335 0.0849371 0.148137 109 158 75
-0.344999 0.0856546 0.149394 113 159 77
-0.340336 0.0854595 0.15204 115 158 80
-0.339643 0.0867576 0.152322 106 151 79
-0.338953 0.0880521 0.152602 93 136 79
-0.339814 0.0899618 0.151955 89 116 71
-0.339511 0.0914125 0.152005 89 95 59
-0.340771 0.0935048 0.151118 85 84 50
-0.342045 0.0956201 0.150221 72 73 47
-0.341738 0.0970866 0.150271 65 65 43
-0.342625 0.0990625 0.149605 62 61 34
-0.342716 0.100708 0.149415 60 56 29
-0.342407 0.102182 0.149465 60 54 32
-0.325845 0.0269751 0.163577 86 126 61
-0.325228 0.0282397 0.163821 88 131 60
-0.325288 0.0296344 0.163668 89 133 64
-0.325347 0.0310325 0.163515 88 133 63
-0.325407 0.032434 0.163361 88 134 62
-0.325128 0.0337666 0.163406 86 131 63
-0.324849 0.0350992 0.163452 86 133 63
-0.32457 0.0364316 0.163497 88 137 64
-0.32429 0.037764 0.163542 93 141 67
-0.324349 0.0391752 0.163389 97 148 70
-0.32407 0.040509 0.163434 102 155 71
-0.32379 0.0418427 0.163479 104 162 78
-0.323511 0.0431764 0.163525 112 169 82
-0.323907 0.0446818 0.163171 115 174 82
-0.324304 0.0461948 0.162815 125 179 89
-0.324024 0.0475348 0.162861 131 185 95
-0.324082 0.0489666 0.162705 128 184 94
-0.324482 0.0504958 0.162347 129 180 92
-0.324542 0.0519366 0.16219 124 176 90
-0.32426 0.0532831 0.162236 116 166 82
-0.323978 0.0546294 0.162282 109 160 76
-0.323355 0.0558747 0.16253 104 155 73
-0.323754 0.0574248 0.16217 100 151 70
-0.324499 0.0590882 0.161605 100 150 72
-0.324903 0.0606563 0.161241 99 149 73
-0.34749 0.077173 0.146968 110 156 76
-0.346774 0.0785087 0.147262 110 157 76
-0.345656 0.0796969 0.147798 113 159 79
-0.344144 0.0807339 0.14857 110 152 78
-0.343837 0.0821995 0.14862 100 142 78
-0.343929 0.0838136 0.14843 92 131 78
-0.340462 0.0840876 0.150381 86 111 66
-0.339379 0.0852407 0.150899 87 93 52
-0.338689 0.0865374 0.151182 83 82 46
-0.338386 0.0879826 0.151231 70 75 47
-0.338083 0.0894276 0.15128 62 68 42
-0.338941 0.091343 0.150628 63 60 36
-0.338637 0.0927938 0.150677 59 56 33
-0.339893 0.0948937 0.149783 52 52 33
-0.325325 0.0269067 0.162317 87 127 59
-0.325046 0.0282365 0.162362 88 128 60
-0.324768 0.0295662 0.162408 87 131 63
-0.324827 0.0309644 0.162253 90 133 61
-0.324886 0.0323659 0.162098 91 132 63
-0.324607 0.0336987 0.162143 87 130 60
-0.324327 0.0350313 0.162188 85 134 62
-0.324048 0.0363639 0.162234 87 136 64
-0.324107 0.0377736 0.162078 90 143 66
-0.323827 0.0391076 0.162124 94 146 69
-0.323548 0.0404415 0.162169 101 154 75
-0.323268 0.0417754 0.162215 106 160 75
-0.322989 0.0431091 0.16226 112 168 81
-0.323721 0.0447007 0.161701 118 173 83
-0.32378 0.0461274 0.161544 123 179 88
-0.323499 0.0474676 0.16159 129 185 92
-0.323897 0.0489914 0.16123 129 186 97
-0.323956 0.0504286 0.161072 129 183 96
-0.324356 0.0519655 0.160708 124 177 91
-0.324074 0.0533137 0.160754 114 167 81
-0.32345 0.0545625 0.161005 109 161 76
-0.322829 0.055808 0.161255 107 156 73
-0.322886 0.0572552 0.161097 102 148 71
-0.322944 0.058706 0.160938 100 148 71
-0.324372 0.0605893 0.159954 100 147 71
-0.345387 0.0781531 0.146351 83 112 69
-0.34308 0.0789131 0.147612 84 94 61
-0.341589 0.0799463 0.14838 87 83 49
-0.340892 0.0812579 0.148668 81 77 44
-0.340196 0.0825659 0.148955 72 72 41
-0.339892 0.0840174 0.149004 62 65 39
-0.338425 0.0850224 0.149761 57 58 34
-0.337737 0.0863177 0.150045 56 55 31
-0.337434 0.0877611 0.150094 54 55 32
-0.337132 0.0892043 0.150143 53 54 30
-0.324805 0.0268384 0.161056 89 130 60
-0.324864 0.0282334 0.1609 88 129 63
-0.324585 0.0295649 0.160945 88 132 65
-0.324306 0.0308963 0.160991 90 131 61
-0.324365 0.0322978 0.160834 88 131 63
-0.324085 0.0336307 0.16088 86 134 62
-0.324144 0.0350373 0.160723 86 134 62
-0.323864 0.0363716 0.160768 88 134 64
-0.323585 0.0377059 0.160814 92 141 68
-0.323305 0.03904 0.160859 95 148 69
-0.323026 0.0403741 0.160905 100 151 72
-0.322746 0.041708 0.16095 106 158 76
-0.322803 0.0431259 0.160793 113 164 81
-0.323197 0.0446334 0.160432 117 172 82
-0.323255 0.0460601 0.160273 121 177 88
-0.322974 0.0474004 0.160319 130 186 93
-0.323032 0.0488322 0.16016 131 186 98
-0.323089 0.0502676 0.160001 128 182 97
-0.323147 0.0517065 0.159842 126 177 92
-0.323205 0.0531489 0.159682 119 168 83
-0.322584 0.0543964 0.159933 118 163 78
-0.32129 0.0554402 0.160593 110 150 75
-0.322359 0.0571885 0.15982 95 136 73
-0.322416 0.0586393 0.159659 88 128 76
-0.342813 0.0773798 0.146175 68 68 40
-0.341323 0.0784196 0.146949 65 64 40
-0.340626 0.0797335 0.147239 64 58 37
-0.339542 0.0809006 0.147766 64 56 35
-0.339238 0.0823504 0.147816 62 50 32
-0.338935 0.0838 0.147865 56 48 33
-0.324622 0.0268333 0.159592 91 133 62
-0.324343 0.028165 0.159638 90 129 61
-0.324064 0.0294966 0.159683 90 135 64
-0.323785 0.0308281 0.159729 89 133 61
-0.323843 0.0322297 0.15957 90 132 62
-0.323564 0.0335627 0.159616 87 134 59
-0.323285 0.0348956 0.159661 86 135 61
-0.323005 0.0362284 0.159707 89 135 63
-0.323062 0.0376381 0.159548 92 140 66
-0.32312 0.0390513 0.15939 95 146 68
-0.32284 0.0403872 0.159435 100 153 70
-0.32256 0.0417229 0.159481 105 158 74
-0.322617 0.0431427 0.159322 113 163 80
-0.322673 0.044566 0.159162 118 173 83
-0.322393 0.0459048 0.159208 121 177 86
-0.322449 0.0473332 0.159048 127 186 93
-0.322169 0.0486735 0.159094 134 188 100
-0.321888 0.0500138 0.159139 138 181 101
-0.321944 0.0514488 0.158979 119 162 93
-0.322 0.0528874 0.158819 92 121 77
-0.320376 0.053838 0.159687 84 94 61
-0.32043 0.055274 0.159528 82 76 46
-0.321831 0.0571217 0.158542 75 70 38
-0.34224 0.0773085 0.144788 59 56 31
-0.340361 0.0782087 0.145809 57 56 32
-0.339277 0.0793802 0.146341 55 56 33
-0.338973 0.0808302 0.14639 55 56 38
-0.33867 0.0822801 0.14644 57 49 38
-0.324101 0.0267648 0.15833 91 134 63
-0.323822 0.0280966 0.158375 91 130 58
-0.323543 0.0294283 0.158421 88 134 62
-0.323264 0.03076 0.158466 88 132 62
-0.323322 0.0321616 0.158306 87 130 60
-0.323042 0.0334947 0.158352 86 134 61
-0.322763 0.0348277 0.158398 87 134 61
-0.322484 0.0361606 0.158443 89 134 61
-0.322205 0.0374935 0.158489 91 140 66
-0.322597 0.0389836 0.158123 95 145 69
-0.322317 0.0403196 0.158168 100 152 70
-0.322373 0.0417379 0.158008 104 157 73
-0.32243 0.0431596 0.157847 114 163 78
-0.322149 0.0444986 0.157892 116 171 82
-0.321869 0.0458376 0.157938 122 177 86
-0.321588 0.0471764 0.157984 129 183 93
-0.321308 0.0485152 0.158029 138 183 107
-0.321027 0.0498538 0.158075 106 130 88
-0.320413 0.0510981 0.158327 86 87 52
-0.320133 0.0524348 0.158373 73 67 39
-0.32153 0.0542626 0.157382 62 55 37
-0.32358 0.0266963 0.157067 88 136 67
-0.323301 0.0280282 0.157112 87 131 59
-0.323022 0.0293601 0.157158 88 131 59
-0.322743 0.0306918 0.157204 87 132 61
-0.322465 0.0320235 0.157249 87 132 57
-0.322521 0.0334267 0.157088 85 133 62
-0.322241 0.0347598 0.157133 89 134 64
-0.321962 0.0360929 0.157179 89 135 63
-0.321683 0.0374258 0.157225 93 139 66
-0.322074 0.0389159 0.156856 96 147 67
-0.322466 0.0404134 0.156485 102 152 69
-0.322523 0.0418355 0.156322 104 156 72
-0.322242 0.0431764 0.156368 115 164 76
-0.321961 0.0445173 0.156413 118 172 81
-0.321344 0.0457703 0.156668 126 177 86
-0.321064 0.0471093 0.156714 136 177 95
-0.320449 0.0483572 0.156968 105 124 91
-0.320169 0.0496943 0.157013 78 76 49
-0.319889 0.0510313 0.157059 62 55 34
-0.323059 0.0266278 0.155804 86 135 71
-0.32278 0.0279598 0.15585 87 131 62
-0.322501 0.0292918 0.155895 86 131 61
-0.322222 0.0306236 0.155941 85 133 60
-0.321943 0.0319554 0.155986 85 130 58
-0.321665 0.0332871 0.156032 83 132 61
