ply
format ascii 1.0
element vertex 1237
property float x
property float y
property float z
property uchar diffuse_red
property uchar diffuse_green
property uchar diffuse_blue
end_header
-0.45267 0.112619 0.153458 151 214 108
-0.455861 0.115755 0.151994 129 197 94
-0.456185 0.117919 0.151746 119 176 83
-0.455784 0.119832 0.151805 109 161 76
-0.453939 0.121222 0.152479 97 153 72
-0.453539 0.123128 0.152538 96 159 74
-0.453139 0.125034 0.152597 102 166 78
-0.452739 0.126939 0.152657 104 173 85
-0.45234 0.128844 0.152716 107 177 89
-0.45194 0.130749 0.152775 108 180 89
-0.452257 0.132936 0.152529 107 174 83
-0.452574 0.13513 0.152281 101 160 74
-0.454341 0.137915 0.151414 91 145 65
-0.455395 0.140432 0.150851 84 133 59
-0.456457 0.142967 0.150283 77 125 56
-0.456787 0.145211 0.150028 71 120 54
-0.45638 0.14715 0.150088 66 120 56
-0.456711 0.149406 0.149832 63 124 58
-0.457043 0.151669 0.149575 65 130 59
-0.456635 0.153615 0.149636 70 137 58
-0.456227 0.155561 0.149696 75 142 61
-0.455818 0.157506 0.149757 81 144 62
-0.45541 0.159452 0.149817 82 145 64
-0.455002 0.161397 0.149878 82 145 66
-0.455332 0.163686 0.149621 83 142 63
-0.454923 0.165634 0.149681 80 137 63
-0.454514 0.167583 0.149742 78 133 61
-0.454106 0.169531 0.149802 80 131 61
-0.453697 0.171479 0.149863 84 137 62
-0.453288 0.173427 0.149924 85 142 63
-0.453616 0.175742 0.149666 89 147 66
-0.453206 0.177693 0.149727 94 154 73
-0.453534 0.18002 0.149468 96 157 77
-0.453124 0.181974 0.149529 97 159 75
-0.453452 0.184313 0.149269 95 156 71
-0.455271 0.187442 0.148363 89 146 67
-0.45711 0.190607 0.147445 83 136 62
-0.456695 0.192587 0.147507 79 130 60
-0.457034 0.194975 0.14724 78 133 61
-0.457375 0.197373 0.146973 80 137 63
-0.457717 0.199779 0.146704 88 149 70
-0.457299 0.20177 0.146766 96 159 77
-0.456125 0.203332 0.147158 94 160 76
-0.455708 0.205319 0.14722 92 160 76
-0.455291 0.207305 0.147282 94 164 77
-0.454875 0.209291 0.147344 93 161 74
-0.455969 0.212162 0.146744 84 146 65
-0.45631 0.214605 0.146474 65 123 51
-0.455891 0.216602 0.146536 45 107 36
-0.454715 0.218142 0.146931 30 104 23
-0.453543 0.219676 0.147323 29 110 23
-0.452375 0.221204 0.147714 31 114 34
-0.451212 0.222726 0.148104 34 117 39
-0.44638 0.221944 0.150107 44 119 46
-0.44452 0.222988 0.150806 64 118 59
-0.443391 0.224482 0.151183 77 96 58
-0.442266 0.225969 0.151559 68 56 38
-0.446398 0.0927848 0.155025 63 57 34
-0.445327 0.0944301 0.155374 66 60 41
-0.444259 0.0960694 0.155722 63 71 39
-0.443196 0.0977029 0.156069 63 91 37
-0.442809 0.0995439 0.156127 62 96 36
-0.442423 0.101385 0.156184 60 98 53
-0.443389 0.103667 0.155662 111 155 75
-0.445732 0.106419 0.154549 137 211 109
-0.448805 0.109445 0.15312 169 225 117
-0.451933 0.112525 0.151666 150 219 119
-0.455841 0.115911 0.149875 132 201 98
-0.45544 0.117824 0.149935 126 192 93
-0.455038 0.119737 0.149994 118 185 90
-0.453196 0.121128 0.150674 114 181 88
-0.45208 0.122771 0.151042 123 187 89
-0.451681 0.124673 0.151101 133 199 97
-0.451997 0.126845 0.150852 139 212 104
-0.451597 0.12875 0.150912 147 225 110
-0.451197 0.130656 0.150971 150 225 108
-0.450798 0.132561 0.151031 147 212 101
-0.451829 0.135036 0.150471 135 195 94
-0.453592 0.137821 0.149594 116 176 83
-0.453915 0.14004 0.149339 99 157 77
-0.454969 0.142569 0.148767 88 145 73
-0.456031 0.145117 0.148191 84 140 69
-0.455624 0.147056 0.148251 83 140 67
-0.455217 0.148995 0.148312 85 144 67
-0.455546 0.151254 0.148053 90 147 68
-0.455876 0.153521 0.147793 94 147 67
-0.455467 0.155467 0.147853 96 146 65
-0.455059 0.157413 0.147914 92 144 63
-0.454651 0.159358 0.147974 84 141 63
-0.454243 0.161303 0.148035 78 132 62
-0.453835 0.163249 0.148096 71 131 58
-0.454163 0.165541 0.147835 66 126 56
-0.453019 0.167139 0.148217 65 124 53
-0.452611 0.169083 0.148277 67 123 55
-0.452203 0.171028 0.148338 69 126 55
-0.452528 0.173335 0.148078 71 132 56
-0.452119 0.175282 0.148139 76 138 58
-0.452444 0.177601 0.147878 81 144 65
-0.452771 0.179927 0.147616 85 150 70
-0.452361 0.181882 0.147676 90 154 72
-0.452688 0.184221 0.147414 92 154 71
-0.453757 0.186958 0.146824 91 149 69
-0.455584 0.190114 0.1459 89 145 68
-0.455921 0.192494 0.145631 85 141 67
-0.456259 0.194883 0.14536 80 136 63
-0.456599 0.19728 0.145089 80 139 61
-0.456939 0.199687 0.144817 86 147 65
-0.457281 0.202102 0.144544 89 152 69
-0.456863 0.204096 0.144606 94 157 70
-0.456445 0.20609 0.144668 95 158 72
-0.456026 0.208084 0.14473 97 162 73
-0.455608 0.210077 0.144792 96 163 73
-0.455948 0.212516 0.144519 90 153 70
-0.45629 0.214964 0.144244 74 130 56
-0.45587 0.216965 0.144306 49 104 34
-0.454691 0.218507 0.144705 32 104 30
-0.453517 0.220043 0.145103 33 110 32
-0.452348 0.221574 0.145499 37 116 38
-0.451183 0.223098 0.145894 43 120 42
-0.446341 0.222311 0.147925 54 123 49
-0.444478 0.223356 0.148633 71 119 65
-0.442628 0.224393 0.149336 80 91 64
-0.445289 0.0945421 0.15333 63 59 43
-0.443541 0.0959762 0.153977 61 61 43
-0.442479 0.0976101 0.154327 63 77 37
-0.442093 0.0994512 0.154384 60 90 39
-0.441706 0.101292 0.154441 59 97 45
-0.441994 0.103353 0.154207 90 134 61
-0.444322 0.106099 0.153085 142 205 99
-0.448074 0.109351 0.151344 146 210 102
-0.451195 0.11243 0.149874 139 208 100
-0.455821 0.116068 0.147748 133 201 97
-0.456876 0.118498 0.147173 126 197 94
-0.455017 0.119901 0.147867 128 192 92
-0.452453 0.121033 0.14887 123 190 91
-0.451339 0.122676 0.149241 126 191 89
-0.45094 0.124579 0.1493 132 196 94
-0.451254 0.126751 0.149048 138 210 101
-0.450854 0.128656 0.149107 146 218 107
-0.449743 0.130285 0.149478 151 227 111
-0.449344 0.132187 0.149537 150 228 112
-0.450368 0.134657 0.148973 147 223 111
-0.452842 0.137727 0.147773 141 213 106
-0.453164 0.139946 0.147515 132 199 97
-0.453486 0.142173 0.147257 123 184 87
-0.454541 0.144714 0.146676 114 169 80
-0.454867 0.146962 0.146414 105 159 75
-0.454461 0.148901 0.146475 102 159 74
-0.454788 0.15116 0.146212 105 168 79
-0.455116 0.153427 0.145949 109 174 84
-0.454708 0.155373 0.14601 110 177 88
-0.4543 0.157319 0.14607 109 181 90
-0.453892 0.159265 0.146131 109 179 88
-0.453484 0.16121 0.146192 103 167 79
-0.453076 0.163155 0.146252 93 148 68
-0.452668 0.165101 0.146313 85 134 61
-0.45226 0.167046 0.146374 82 126 56
-0.451852 0.168991 0.146434 79 121 55
-0.451444 0.170936 0.146495 74 121 53
-0.451036 0.17288 0.146556 70 125 54
-0.451358 0.17519 0.146292 69 129 59
-0.45095 0.177138 0.146353 69 135 60
-0.451273 0.17946 0.146089 73 141 63
-0.451597 0.18179 0.145824 75 143 62
-0.451187 0.183745 0.145885 76 143 62
-0.452249 0.186475 0.14529 77 141 62
-0.45332 0.189226 0.144691 75 138 62
-0.454398 0.191998 0.144088 72 135 61
-0.454732 0.194381 0.143816 68 134 61
-0.455068 0.196774 0.143542 71 136 60
-0.456161 0.199594 0.14293 77 142 65
-0.456502 0.202009 0.142653 81 145 65
-0.456083 0.204003 0.142715 90 153 67
-0.456424 0.206431 0.142438 94 160 71
-0.456005 0.208429 0.1425 96 162 72
-0.455586 0.210427 0.142562 96 163 74
-0.455927 0.212871 0.142284 90 155 70
-0.455507 0.214872 0.142346 74 133 58
-0.455088 0.216873 0.142409 52 107 41
-0.454668 0.218874 0.142471 34 106 34
-0.453492 0.220412 0.142874 36 112 39
-0.45157 0.221483 0.143613 47 118 38
-0.450406 0.223008 0.144011 51 123 45
-0.445573 0.222222 0.146064 74 131 56
-0.443713 0.223267 0.146778 80 115 65
-0.441866 0.224305 0.147488 70 80 57
-0.443501 0.0960909 0.151934 63 61 42
-0.441762 0.0975172 0.152584 66 66 37
-0.441376 0.0993585 0.152641 64 92 42
-0.440989 0.1012 0.152699 62 97 40
-0.440603 0.103041 0.152756 68 112 58
-0.442918 0.105779 0.151626 128 192 95
-0.447343 0.109257 0.149567 136 214 105
-0.450458 0.112336 0.148082 135 209 100
-0.457262 0.116733 0.144969 133 204 99
-0.456858 0.11866 0.145029 131 199 95
-0.454995 0.120065 0.145733 129 196 92
-0.45171 0.120939 0.147064 126 192 91
-0.450597 0.122582 0.147439 126 195 92
-0.450198 0.124485 0.147498 130 200 98
-0.449799 0.126387 0.147558 141 207 104
-0.4494 0.12829 0.147617 142 210 105
-0.449001 0.130192 0.147677 145 212 106
-0.448602 0.132094 0.147736 145 215 106
-0.449624 0.134563 0.147166 144 215 106
-0.450653 0.13705 0.146591 139 210 104
-0.452413 0.139852 0.145691 132 199 98
-0.452734 0.142079 0.145429 126 192 93
-0.453056 0.144313 0.145166 120 186 91
-0.453379 0.146556 0.144903 117 182 89
-0.453704 0.148807 0.144638 119 185 90
-0.453297 0.150746 0.144698 124 196 96
-0.453622 0.153009 0.144433 133 212 104
-0.453949 0.155279 0.144166 143 225 110
-0.452808 0.156894 0.144554 146 228 112
-0.4524 0.158836 0.144615 145 220 105
-0.451993 0.160778 0.144675 137 201 95
-0.452316 0.163062 0.144409 121 182 85
-0.451908 0.165008 0.14447 103 163 81
-0.4515 0.166953 0.14453 90 148 81
-0.451092 0.168898 0.144591 87 141 72
-0.450684 0.170843 0.144652 90 145 68
-0.450276 0.172788 0.144713 90 149 70
-0.449869 0.174733 0.144773 92 152 72
-0.450189 0.177046 0.144507 96 156 73
-0.44978 0.178994 0.144568 100 155 72
-0.450101 0.181319 0.1443 99 151 69
-0.450423 0.183653 0.144032 91 144 66
-0.450747 0.185995 0.143762 81 137 61
-0.451809 0.188739 0.143159 71 132 56
-0.453626 0.191905 0.142215 65 127 53
-0.453959 0.194289 0.141939 60 125 53
-0.454293 0.196681 0.141662 61 127 53
-0.455383 0.199501 0.141042 65 129 54
-0.455722 0.201917 0.140762 67 137 57
-0.456062 0.204341 0.140481 75 144 59
-0.455643 0.206339 0.140543 78 150 65
-0.455984 0.208776 0.140261 82 159 71
-0.455564 0.210777 0.140324 87 162 73
-0.455144 0.212779 0.140386 83 153 66
-0.454725 0.21478 0.140449 69 132 53
-0.454305 0.216781 0.140511 56 113 43
-0.453885 0.218782 0.140574 45 111 40
-0.45271 0.220321 0.14098 48 116 44
-0.450791 0.221392 0.141726 56 122 47
-0.448887 0.222455 0.142467 76 139 62
-0.44408 0.221677 0.144533 105 153 81
-0.442229 0.222723 0.145252 95 112 71
-0.441104 0.224217 0.14564 69 62 46
-0.443459 0.0962061 0.149883 64 66 44
-0.441718 0.0976345 0.150541 64 66 42
-0.440659 0.0992657 0.150898 64 88 35
-0.440272 0.101107 0.150955 62 97 40
-0.439886 0.102948 0.151013 60 102 55
-0.44017 0.105012 0.150772 116 161 81
-0.443168 0.108 0.149323 141 212 108
-0.44972 0.112241 0.146289 140 206 98
-0.457244 0.116892 0.142817 138 208 100
-0.456839 0.118823 0.142878 135 205 97
-0.454247 0.11997 0.143914 130 200 93
-0.450967 0.120844 0.145259 128 198 95
-0.449856 0.122488 0.145637 131 200 99
-0.449457 0.124391 0.145696 128 201 101
-0.449058 0.126293 0.145756 140 207 107
-0.448659 0.128196 0.145815 141 208 103
-0.44826 0.130098 0.145875 141 212 102
-0.447861 0.132 0.145934 142 216 104
-0.448169 0.134186 0.145676 143 214 104
-0.448479 0.136378 0.145417 139 208 101
-0.450221 0.139166 0.144514 134 201 95
-0.451258 0.141684 0.143927 130 194 92
-0.451577 0.143914 0.143662 126 190 92
-0.451897 0.146152 0.143396 125 188 91
-0.452218 0.148398 0.143129 124 188 91
-0.452541 0.150652 0.142861 127 195 96
-0.452134 0.152592 0.142921 135 205 100
-0.452457 0.154857 0.142652 142 214 103
-0.45205 0.1568 0.142713 144 219 106
-0.451642 0.158742 0.142774 145 222 108
-0.451235 0.160685 0.142835 144 220 108
-0.450827 0.162627 0.142895 140 211 106
-0.45042 0.164569 0.142956 132 209 107
-0.450013 0.166511 0.143017 129 203 106
-0.449606 0.168453 0.143077 150 186 90
-0.449925 0.170751 0.142808 146 174 80
-0.449517 0.172696 0.142869 124 170 78
-0.449109 0.174641 0.14293 117 174 78
-0.448701 0.176585 0.142991 122 184 86
-0.449019 0.178902 0.142721 122 186 89
-0.449339 0.181227 0.14245 119 183 90
-0.44893 0.183179 0.142511 111 175 88
-0.449982 0.185903 0.141905 100 165 82
-0.451041 0.188647 0.141295 92 154 73
-0.452853 0.191813 0.140341 84 140 63
-0.453934 0.194605 0.139719 77 134 57
-0.454269 0.197002 0.139437 75 131 55
-0.455361 0.199829 0.138809 79 130 54
-0.454942 0.201824 0.138871 79 134 56
-0.455281 0.204248 0.138586 79 138 58
-0.455621 0.206681 0.1383 76 141 61
-0.455201 0.208683 0.138363 72 143 63
-0.454782 0.210685 0.138425 72 146 63
-0.454362 0.212686 0.138488 77 145 60
-0.453942 0.214688 0.138551 80 139 59
-0.453522 0.216689 0.138613 72 133 65
-0.453103 0.21869 0.138676 62 129 74
-0.451178 0.21977 0.139432 68 139 74
-0.449269 0.220841 0.140183 104 149 75
-0.447373 0.221904 0.140927 129 172 88
-0.442592 0.221134 0.143007 105 128 81
-0.441465 0.222634 0.1434 75 72 57
-0.443418 0.0963216 0.147825 62 62 47
-0.441674 0.0977523 0.148492 62 64 49
-0.439941 0.0991729 0.149154 64 80 37
-0.439555 0.101014 0.149212 63 96 42
-0.438501 0.102637 0.14957 63 99 48
-0.438783 0.104697 0.149327 101 133 64
-0.440409 0.107219 0.148478 148 208 101
-0.447577 0.111664 0.145129 139 210 102
-0.45576 0.11654 0.141318 135 214 103
-0.455355 0.118468 0.141379 137 209 102
-0.453498 0.119874 0.142095 134 202 94
-0.450224 0.12075 0.143453 132 201 95
-0.449114 0.122394 0.143834 134 204 101
-0.448715 0.124297 0.143894 134 200 103
-0.448316 0.126199 0.143954 141 207 105
-0.447917 0.128102 0.144013 141 208 100
-0.447518 0.130005 0.144073 141 211 102
-0.447826 0.132186 0.143811 142 215 104
-0.447426 0.134092 0.143871 140 214 102
-0.447735 0.136285 0.143609 137 208 99
-0.448044 0.138486 0.143345 135 203 97
-0.449787 0.14129 0.14243 133 199 94
-0.450102 0.143516 0.142163 129 194 92
-0.450419 0.145749 0.141894 127 191 92
-0.450015 0.147678 0.141955 127 191 93
-0.450332 0.149923 0.141686 131 196 96
-0.450651 0.152176 0.141415 134 203 98
-0.45097 0.154437 0.141144 139 206 100
-0.450564 0.156376 0.141205 142 210 102
-0.450157 0.158315 0.141266 144 213 103
-0.44975 0.160254 0.141326 142 213 105
-0.449344 0.162193 0.141387 139 205 103
-0.449662 0.164476 0.141115 133 200 95
-0.449255 0.166418 0.141176 127 190 91
-0.448847 0.16836 0.141237 131 184 88
-0.44844 0.170302 0.141298 128 178 86
-0.448757 0.172603 0.141025 117 183 89
-0.448349 0.174548 0.141086 122 195 93
-0.447941 0.176493 0.141147 131 209 101
-0.448258 0.17881 0.140874 139 221 109
-0.448576 0.181135 0.1406 145 226 113
-0.448896 0.183469 0.140325 145 218 109
-0.449216 0.185811 0.140048 141 204 101
-0.451011 0.188949 0.13909 134 190 95
-0.452826 0.192123 0.138122 116 171 86
-0.453909 0.194922 0.13749 91 149 68
-0.454244 0.197324 0.137204 84 142 63
-0.454581 0.199736 0.136917 85 148 66
-0.454162 0.201731 0.136979 91 153 70
-0.4545 0.204155 0.136691 93 162 76
-0.454081 0.206154 0.136754 94 164 77
-0.453662 0.208152 0.136816 92 162 75
-0.453243 0.21015 0.136879 90 159 73
-0.453579 0.212594 0.13659 100 157 75
-0.453159 0.214596 0.136652 123 168 81
-0.452739 0.216597 0.136715 136 191 92
-0.450817 0.217685 0.137479 125 200 108
-0.448908 0.218765 0.138237 112 196 107
-0.447752 0.220292 0.138644 103 168 99
-0.446599 0.221814 0.139051 92 109 77
-0.441827 0.221045 0.141151 75 71 50
-0.441629 0.0978704 0.146435 64 62 35
-0.439224 0.0990802 0.14741 62 73 40
-0.438838 0.100922 0.147468 63 96 44
-0.437785 0.102544 0.147829 62 98 41
-0.4374 0.104383 0.147886 71 109 59
-0.437679 0.106446 0.147641 127 192 95
-0.439974 0.109208 0.146476 135 218 109
-0.455008 0.116444 0.139492 136 215 103
-0.454604 0.118372 0.139553 140 211 101
-0.453473 0.120039 0.139945 137 206 97
-0.450909 0.121175 0.140994 133 205 95
-0.449081 0.122562 0.141707 138 201 96
-0.447973 0.124203 0.142091 139 201 102
-0.447574 0.126106 0.142151 139 201 99
-0.447882 0.128281 0.141886 140 206 99
-0.447482 0.130187 0.141946 142 211 104
-0.447083 0.132093 0.142006 143 213 105
-0.44739 0.134282 0.14174 142 212 103
-0.447699 0.13648 0.141474 141 209 102
-0.447298 0.138392 0.141533 139 207 100
-0.447608 0.140601 0.141266 137 204 96
-0.448633 0.143119 0.140668 132 199 94
-0.448947 0.145348 0.140398 130 195 95
-0.449262 0.147585 0.140126 130 194 96
-0.448857 0.149514 0.140187 131 197 97
-0.449173 0.151762 0.139915 132 201 98
-0.449489 0.154018 0.139641 135 203 99
-0.449083 0.155954 0.139702 139 210 100
-0.4494 0.158222 0.139428 142 211 101
-0.448993 0.160161 0.139489 143 211 104
-0.448587 0.1621 0.139549 140 205 101
-0.44818 0.164039 0.13961 134 199 97
-0.448496 0.166325 0.139335 130 193 93
-0.448089 0.168267 0.139396 131 188 93
-0.447682 0.170209 0.139457 127 186 92
-0.447997 0.172511 0.139181 123 187 93
-0.447589 0.174456 0.139242 125 194 92
-0.447182 0.176401 0.139303 131 201 97
-0.448223 0.179091 0.138688 136 209 103
-0.447814 0.181043 0.138749 138 214 107
-0.448132 0.183376 0.138471 140 215 106
-0.448451 0.185719 0.138191 140 214 108
-0.451722 0.189651 0.13653 141 216 116
-0.452799 0.192435 0.135894 134 208 113
-0.453883 0.19524 0.135253 111 171 82
-0.454219 0.197648 0.134962 93 154 67
-0.453801 0.199643 0.135025 89 153 69
-0.453382 0.201638 0.135087 92 158 70
-0.453718 0.204063 0.134796 97 164 75
-0.453299 0.206061 0.134858 102 168 75
-0.451378 0.207187 0.135628 103 167 75
-0.45096 0.209178 0.13569 116 169 79
-0.451291 0.211612 0.1354 124 176 92
-0.450873 0.213606 0.135462 112 161 92
-0.449708 0.21515 0.135877 92 115 67
-0.448548 0.216687 0.13629 84 87 51
-0.447392 0.218219 0.136702 82 65 44
-0.44624 0.219746 0.137112 76 57 34
-0.445825 0.221724 0.137174 69 55 34
-0.441584 0.097989 0.144371 62 63 37
-0.439846 0.0994141 0.14505 65 65 45
-0.43812 0.100829 0.145724 63 88 43
-0.437069 0.102452 0.146088 64 99 40
-0.436684 0.104291 0.146145 61 102 51
-0.436962 0.106354 0.145897 111 152 75
-0.437909 0.108654 0.145339 145 205 104
-0.44571 0.113362 0.141614 142 211 98
-0.453853 0.118276 0.137727 138 212 100
-0.452723 0.119943 0.138122 137 209 101
-0.451598 0.121604 0.138517 134 206 100
-0.449762 0.122994 0.139241 138 206 102
-0.448648 0.12464 0.139631 141 207 97
-0.448247 0.12655 0.139691 139 207 98
-0.447847 0.12846 0.139751 138 209 101
-0.446739 0.130093 0.14014 144 213 105
-0.447046 0.132279 0.139871 146 213 105
-0.446646 0.134189 0.139931 144 213 103
-0.446953 0.136386 0.139661 144 211 103
-0.447262 0.138591 0.139391 143 209 102
-0.44686 0.140507 0.139451 139 207 100
-0.446459 0.142423 0.139511 135 203 98
-0.44748 0.144948 0.138907 135 199 97
-0.447792 0.14718 0.138633 133 196 95
-0.448104 0.14942 0.138359 131 196 95
-0.4477 0.15135 0.138419 131 198 95
-0.448013 0.153601 0.138144 134 201 98
-0.448327 0.155861 0.137867 138 207 99
-0.447921 0.157797 0.137928 143 210 100
-0.447516 0.159733 0.137989 143 210 102
-0.44711 0.161668 0.138049 140 207 100
-0.446704 0.163604 0.13811 135 202 101
-0.447738 0.166233 0.137494 138 197 96
-0.44733 0.168175 0.137555 131 195 98
-0.446923 0.170117 0.137616 126 189 92
-0.447237 0.172418 0.137337 130 192 94
-0.446829 0.174364 0.137398 129 194 92
-0.446422 0.176309 0.137459 132 198 94
-0.44746 0.178999 0.136837 134 202 98
-0.447051 0.180951 0.136898 134 206 101
-0.448096 0.183667 0.136272 136 209 101
-0.449149 0.186404 0.135641 138 207 100
-0.451693 0.189957 0.134303 138 202 98
-0.453522 0.193155 0.133302 135 194 95
-0.453858 0.195559 0.133007 122 184 88
-0.453439 0.197555 0.13307 101 167 74
-0.453021 0.19955 0.133133 95 160 72
-0.452602 0.201546 0.133195 98 166 77
-0.452184 0.203541 0.133258 106 172 85
-0.451016 0.205104 0.133677 106 170 84
-0.449111 0.20623 0.134448 108 168 82
-0.448695 0.208214 0.13451 118 177 92
-0.448279 0.210197 0.134572 108 141 82
-0.447863 0.21218 0.134634 79 77 52
-0.447447 0.214163 0.134696 62 62 40
-0.447032 0.216146 0.134759 53 63 35
-0.445881 0.217676 0.135172 53 58 36
-0.441539 0.0981079 0.142299 58 54 39
-0.439798 0.0995353 0.142986 63 63 46
-0.438069 0.100953 0.143669 63 80 43
-0.437016 0.102578 0.144037 63 99 42
-0.435306 0.103977 0.144712 62 101 43
-0.434922 0.105813 0.14477 79 124 58
-0.435858 0.108103 0.14421 139 204 98
-0.437469 0.110643 0.143335 138 219 105
-0.452377 0.117923 0.136239 134 211 101
-0.451973 0.119848 0.136299 135 210 102
-0.450849 0.121509 0.136697 138 210 100
-0.44973 0.123164 0.137093 141 207 101
-0.448614 0.124813 0.137488 142 208 99
-0.447503 0.126456 0.137882 139 210 101
-0.447102 0.128366 0.137942 144 212 103
-0.446702 0.130276 0.138002 147 214 106
-0.446301 0.132186 0.138062 145 218 105
-0.445901 0.134095 0.138122 144 215 103
-0.446207 0.136293 0.137849 144 212 104
-0.446515 0.138498 0.137575 143 211 103
-0.445405 0.140118 0.137969 140 208 100
-0.445004 0.142031 0.138029 135 204 97
-0.444603 0.143943 0.138089 138 204 99
-0.444908 0.146161 0.137815 143 202 98
-0.446636 0.149013 0.136868 139 199 95
-0.446232 0.150939 0.136929 135 198 96
-0.447259 0.153508 0.136312 135 202 100
-0.447571 0.155768 0.136032 137 209 104
-0.447166 0.157704 0.136093 141 212 104
-0.44676 0.15964 0.136154 141 211 103
-0.446354 0.161575 0.136214 139 209 102
-0.445948 0.163511 0.136275 141 206 104
-0.446979 0.16614 0.135652 138 203 104
-0.446572 0.168082 0.135713 130 195 96
-0.446885 0.17038 0.135431 127 192 92
-0.446477 0.172326 0.135492 132 195 94
-0.446069 0.174272 0.135553 129 196 95
-0.446383 0.176585 0.13527 129 198 94
-0.446697 0.178906 0.134986 130 201 96
-0.447013 0.181236 0.1347 132 206 99
-0.44806 0.183959 0.134065 136 209 100
-0.449851 0.187094 0.133072 136 206 100
-0.452411 0.190666 0.131709 137 200 98
-0.453496 0.19347 0.131052 135 194 95
-0.453077 0.195466 0.131115 118 184 89
-0.453412 0.197879 0.130815 100 170 81
-0.45224 0.199457 0.13124 103 170 89
-0.451822 0.201453 0.131303 106 177 90
-0.450655 0.203021 0.131725 151 202 113
-0.448751 0.204155 0.132504 145 184 103
-0.446861 0.20528 0.133276 143 179 95
-0.444258 0.20597 0.134393 116 131 81
-0.443846 0.207935 0.134455 83 77 56
-0.442712 0.209467 0.134866 65 54 36
-0.440815 0.0980141 0.140539 56 55 43
-0.439077 0.099442 0.141232 63 62 50
-0.43735 0.10086 0.141921 64 70 42
-0.436299 0.102486 0.142292 63 95 41
-0.434591 0.103885 0.142974 62 100 39
-0.434206 0.105721 0.143031 61 103 55
-0.433165 0.10733 0.143399 116 165 85
-0.434754 0.109852 0.142524 140 212 109
-0.440406 0.11384 0.139725 139 212 100
-0.44836 0.11872 0.135831 138 213 101
-0.4501 0.121414 0.134877 138 214 103
-0.449698 0.123335 0.134937 140 214 106
-0.447868 0.124718 0.135675 143 212 105
-0.447467 0.126632 0.135735 141 215 104
-0.446357 0.128272 0.136132 142 214 105
-0.445957 0.130182 0.136192 144 213 105
-0.445556 0.132092 0.136252 143 216 106
-0.445156 0.134002 0.136312 144 216 105
-0.445461 0.136199 0.136036 145 213 102
-0.44506 0.138112 0.136096 141 211 100
-0.444659 0.140025 0.136156 138 207 99
-0.443554 0.141639 0.136552 142 204 99
-0.443154 0.143548 0.136612 142 201 99
-0.442754 0.145457 0.136672 138 198 96
-0.443758 0.147984 0.13606 137 200 96
-0.44477 0.150529 0.135443 137 202 100
-0.445077 0.152771 0.135163 138 208 107
-0.446099 0.155347 0.13454 134 217 112
-0.44641 0.157611 0.134257 135 215 108
-0.446004 0.159547 0.134318 141 214 104
-0.446315 0.161821 0.134034 142 212 105
-0.445908 0.163761 0.134095 147 215 105
-0.44622 0.166047 0.133811 141 204 100
-0.445813 0.16799 0.133872 131 201 101
-0.446125 0.170288 0.133586 130 194 94
-0.445717 0.172234 0.133647 130 192 93
-0.44603 0.174543 0.13336 133 196 93
-0.446344 0.176861 0.133073 131 198 94
-0.446659 0.179188 0.132784 131 201 95
-0.447704 0.181904 0.132141 133 205 98
-0.449494 0.185027 0.131138 134 207 99
-0.45056 0.18779 0.130483 134 205 97
-0.452382 0.190976 0.12946 134 199 94
-0.452715 0.193377 0.129159 129 191 90
-0.45305 0.195786 0.128856 115 184 85
-0.452631 0.197786 0.128919 118 181 93
-0.452211 0.199786 0.128982 168 215 128
-0.451042 0.20136 0.12941 139 176 105
-0.449132 0.202503 0.130198 163 207 134
-0.446502 0.203212 0.131339 146 193 120
-0.443178 0.203492 0.13282 129 177 107
-0.441329 0.204607 0.133583 99 109 72
-0.440206 0.206137 0.133993 72 60 45
-0.438355 0.0993486 0.139478 64 59 42
-0.436631 0.100767 0.140173 65 62 38
-0.435581 0.102393 0.140547 63 84 36
-0.433876 0.103793 0.141235 62 97 40
-0.432835 0.105406 0.141606 61 99 45
-0.431799 0.107013 0.141975 84 133 62
-0.430766 0.108614 0.142344 139 205 99
-0.43365 0.111602 0.140837 135 214 100
-0.447615 0.118625 0.134021 136 213 100
-0.449351 0.121318 0.133057 140 215 103
-0.448948 0.123239 0.133117 141 216 104
-0.448546 0.12516 0.133177 142 215 102
-0.44672 0.126538 0.133921 141 214 102
-0.446319 0.128451 0.133982 142 215 103
-0.445211 0.130088 0.134382 142 215 102
-0.444811 0.131998 0.134442 143 214 103
-0.444411 0.133908 0.134502 142 213 102
-0.444714 0.136105 0.134222 142 211 100
-0.444313 0.138018 0.134283 141 208 98
-0.44321 0.139637 0.134682 138 206 98
-0.44211 0.14125 0.13508 140 204 98
-0.44171 0.143155 0.13514 140 204 98
-0.442009 0.145365 0.134862 137 205 97
-0.441609 0.147274 0.134922 137 205 98
-0.442609 0.149807 0.134304 141 208 100
-0.443616 0.152359 0.133681 146 213 103
-0.444631 0.154929 0.133054 144 213 103
-0.445653 0.157517 0.132422 142 213 105
-0.445964 0.159789 0.132134 143 215 105
-0.445557 0.161728 0.132195 148 215 105
-0.445151 0.163668 0.132256 143 206 102
-0.445461 0.165954 0.131968 140 205 101
-0.445054 0.167897 0.132029 133 201 97
-0.445365 0.170195 0.13174 130 196 95
-0.444957 0.172141 0.131802 128 195 94
-0.44599 0.174816 0.131159 132 198 93
-0.446304 0.177139 0.130867 131 201 97
-0.447348 0.179847 0.130217 132 203 97
-0.449136 0.18296 0.129203 134 205 98
-0.4502 0.185715 0.128541 134 206 99
-0.451273 0.18849 0.127874 134 205 98
-0.452353 0.191287 0.127202 132 201 94
-0.452687 0.193693 0.126896 121 191 89
-0.452268 0.195693 0.126959 105 180 87
-0.451849 0.197693 0.127022 123 190 106
-0.451429 0.199692 0.127085 146 215 139
-0.450261 0.201267 0.127516 163 204 115
-0.447615 0.201987 0.128677 166 210 127
-0.442822 0.201439 0.130897 156 193 105
-0.440974 0.202562 0.131667 116 133 85
-0.438433 0.203259 0.132781 81 78 57
-0.435912 0.100674 0.138424 62 60 36
-0.434863 0.102301 0.138802 64 71 34
-0.43316 0.103701 0.139496 63 96 40
-0.432121 0.105314 0.13987 62 97 43
-0.430437 0.106697 0.140556 64 104 55
-0.429408 0.108296 0.140926 118 166 85
-0.429671 0.110349 0.140671 139 209 107
-0.438555 0.115524 0.136239 139 212 98
-0.445763 0.120182 0.132612 140 214 101
-0.447486 0.122879 0.131642 142 216 104
-0.447084 0.124797 0.131703 142 218 104
-0.446682 0.126714 0.131763 142 218 104
-0.445572 0.128357 0.132168 143 216 104
-0.445171 0.130271 0.132228 142 214 102
-0.444066 0.131904 0.132631 142 212 102
-0.443665 0.133814 0.132691 140 212 103
-0.443968 0.136012 0.132409 140 210 100
-0.442865 0.137634 0.132812 138 207 100
-0.441766 0.139251 0.133213 137 205 100
-0.441366 0.141157 0.133273 140 205 97
-0.440966 0.143063 0.133333 140 209 98
-0.440567 0.144969 0.133393 139 210 99
-0.440167 0.146874 0.133453 139 208 99
-0.440463 0.14909 0.133172 143 209 100
-0.441459 0.15163 0.132548 145 211 104
-0.443169 0.154512 0.131572 142 213 105
-0.444184 0.157094 0.130936 142 211 103
-0.444491 0.159361 0.130647 143 211 103
-0.4448 0.161635 0.130356 145 212 103
-0.444393 0.163575 0.130417 146 210 103
-0.444702 0.165861 0.130126 138 206 102
-0.444295 0.167804 0.130187 133 201 99
-0.444604 0.170102 0.129895 133 199 95
-0.444196 0.172049 0.129956 131 199 97
-0.44595 0.17509 0.12895 132 201 97
-0.446992 0.177791 0.128293 134 203 100
-0.448778 0.180892 0.127268 135 203 98
-0.449841 0.18364 0.126599 134 205 97
-0.450912 0.186408 0.125925 133 207 98
-0.451242 0.188796 0.125617 134 207 98
-0.452324 0.191599 0.124936 128 200 94
-0.451905 0.193599 0.124999 114 187 90
-0.451486 0.195599 0.125062 115 182 94
-0.451066 0.197599 0.125125 164 209 121
-0.449153 0.198759 0.125931 159 196 125
-0.447994 0.20033 0.126363 174 214 136
-0.443912 0.200216 0.128252 151 190 115
-0.440619 0.200517 0.12975 135 181 103
-0.43808 0.201226 0.130875 99 104 68
-0.436968 0.202754 0.131288 69 61 44
-0.435193 0.100581 0.136676 62 62 41
-0.434145 0.102208 0.137056 65 61 37
-0.432445 0.103609 0.137756 64 84 37
-0.430756 0.105001 0.138451 60 97 42
-0.429079 0.106382 0.139141 63 98 43
-0.426776 0.10753 0.140139 86 137 59
-0.426395 0.109343 0.140196 135 202 96
-0.42987 0.112552 0.138364 135 216 100
-0.440844 0.118554 0.132852 136 216 102
-0.443219 0.121473 0.131552 141 219 104
-0.446336 0.124702 0.129885 142 221 105
-0.445227 0.126349 0.130293 141 218 104
-0.444826 0.128263 0.130354 141 216 103
-0.443721 0.1299 0.13076 141 215 100
-0.44332 0.13181 0.13082 141 213 100
-0.44292 0.133721 0.130881 140 210 101
-0.44252 0.135631 0.130941 138 210 100
-0.441421 0.137251 0.131346 136 209 99
-0.441022 0.139158 0.131406 136 207 99
-0.440622 0.141064 0.131466 135 204 98
-0.440222 0.14297 0.131526 137 207 102
-0.439823 0.144876 0.131586 142 211 103
-0.439423 0.146782 0.131646 143 211 101
-0.439024 0.148688 0.131706 140 210 100
-0.439317 0.150907 0.131423 141 214 102
-0.440309 0.153454 0.130792 144 215 105
-0.442013 0.156345 0.129806 141 210 103
-0.443024 0.158934 0.129164 142 209 102
-0.442618 0.160867 0.129225 141 207 103
-0.442923 0.16314 0.128932 141 207 103
-0.443229 0.165422 0.128639 136 209 106
-0.443536 0.167712 0.128344 136 203 104
-0.443844 0.17001 0.128049 141 205 98
-0.443436 0.171956 0.12811 143 207 98
-0.445909 0.175364 0.126731 145 206 99
-0.44842 0.178824 0.125332 139 204 99
-0.449482 0.181564 0.124656 137 205 98
-0.450551 0.184324 0.123975 137 207 97
-0.45088 0.186709 0.123664 136 209 98
-0.451211 0.189103 0.123351 133 206 97
-0.451542 0.191505 0.123038 121 193 90
-0.451123 0.193506 0.123101 111 184 90
-0.450703 0.195506 0.123164 128 198 110
-0.449536 0.197089 0.123603 157 222 140
-0.446158 0.197418 0.125156 176 216 133
-0.444281 0.198568 0.125955 152 204 127
-0.440264 0.198471 0.127834 153 196 105
-0.437727 0.199191 0.128969 115 129 81
-0.436616 0.200724 0.129385 82 78 51
-0.433813 0.100273 0.135252 63 61 43
-0.433427 0.102116 0.135311 67 59 37
-0.431729 0.103517 0.136016 63 71 34
-0.430043 0.104909 0.136717 61 95 40
-0.428368 0.106291 0.137414 62 98 39
-0.426068 0.107439 0.13842 66 105 53
-0.425054 0.109026 0.138792 112 159 81
-0.424674 0.110837 0.138849 143 209 109
-0.431379 0.115251 0.135393 140 210 103
-0.4404 0.120604 0.130781 140 219 104
-0.443475 0.123808 0.129117 142 220 105
-0.443075 0.125715 0.129177 143 219 103
-0.443376 0.127895 0.128889 141 218 102
-0.442975 0.129806 0.128949 141 218 103
-0.442575 0.131716 0.129009 141 214 102
-0.441476 0.133344 0.129418 140 210 99
-0.441077 0.135251 0.129478 138 208 98
-0.439983 0.13687 0.129885 136 209 98
-0.439584 0.138773 0.129945 136 206 97
-0.438495 0.140382 0.13035 136 205 97
-0.438096 0.142281 0.13041 138 204 98
-0.438387 0.144481 0.130125 140 204 97
-0.438679 0.14669 0.129839 140 207 96
-0.43828 0.148596 0.129899 140 209 97
-0.43788 0.150501 0.129959 139 209 99
-0.438172 0.152724 0.129672 138 210 103
-0.438464 0.154954 0.129385 138 207 104
-0.439455 0.15752 0.128745 141 208 100
-0.439752 0.159771 0.128454 140 207 100
-0.440752 0.162368 0.127808 139 205 97
-0.441761 0.164984 0.127157 136 203 99
-0.442776 0.167619 0.126501 135 203 98
-0.442369 0.169562 0.126563 139 203 97
-0.443391 0.172223 0.125902 140 204 98
-0.445869 0.17564 0.124505 143 203 98
-0.448384 0.179108 0.123086 139 206 97
-0.449447 0.181855 0.1224 137 207 97
-0.450519 0.184622 0.121709 137 209 97
-0.450848 0.187012 0.121393 136 210 99
-0.451179 0.18941 0.121076 127 201 96
-0.451511 0.191818 0.120758 115 189 91
-0.45034 0.193412 0.121203 125 193 102
-0.449921 0.195412 0.121266 167 218 127
-0.447271 0.196167 0.122464 169 207 129
-0.442473 0.195684 0.124757 173 219 136
-0.440624 0.196832 0.125552 146 188 104
-0.438079 0.197563 0.126702 129 180 101
-0.436263 0.198693 0.127482 94 100 62
-0.43446 0.199814 0.128256 68 63 39
-0.432708 0.102023 0.133564 58 55 39
-0.431013 0.103425 0.134276 64 60 40
-0.429329 0.104817 0.134983 63 80 34
-0.427657 0.1062 0.135686 59 97 38
-0.425361 0.107349 0.136701 61 102 43
-0.424348 0.108936 0.137076 81 129 56
-0.423968 0.110747 0.137133 131 198 92
-0.423589 0.112557 0.13719 136 220 106
-0.438976 0.120254 0.129333 135 217 102
-0.440645 0.122923 0.128356 140 218 103
-0.440939 0.125087 0.128068 143 219 102
-0.441235 0.127258 0.127779 143 218 103
-0.440836 0.129162 0.127839 142 216 102
-0.440437 0.131066 0.1279 140 213 102
-0.440038 0.132969 0.12796 139 211 101
-0.438948 0.134589 0.128368 138 208 99
-0.437861 0.136203 0.128776 137 207 98
-0.437464 0.1381 0.128836 135 205 98
-0.437066 0.139996 0.128896 134 202 96
-0.437355 0.142189 0.128609 131 199 94
-0.436957 0.144088 0.128669 128 198 93
-0.437245 0.146292 0.128381 127 198 93
-0.437535 0.148503 0.128092 130 201 94
-0.437136 0.150409 0.128152 134 203 96
-0.436736 0.152315 0.128212 136 207 100
-0.436337 0.154221 0.128272 139 208 101
-0.436626 0.15645 0.127983 139 207 99
-0.436916 0.158687 0.127692 140 206 97
-0.438597 0.161602 0.126691 137 205 99
-0.439594 0.164205 0.126039 135 205 100
-0.440598 0.166828 0.125381 137 206 98
-0.44161 0.16947 0.124719 137 206 98
-0.442628 0.172131 0.124052 138 206 99
-0.446557 0.176288 0.121896 139 206 99
-0.448347 0.179394 0.120832 138 209 99
-0.450157 0.182534 0.119755 138 210 98
-0.451235 0.185314 0.119051 137 210 98
-0.451568 0.187714 0.118729 132 207 98
-0.451147 0.189719 0.118793 119 194 95
-0.450727 0.191724 0.118856 120 187 99
-0.450307 0.193729 0.118919 148 208 122
-0.448393 0.194906 0.119751 161 225 141
-0.445023 0.195252 0.121333 170 220 133
-0.439554 0.194378 0.123998 148 202 118
-0.438433 0.195928 0.124426 151 200 106
-0.43591 0.196662 0.125578 111 124 79
-0.434109 0.197791 0.12636 73 73 50
-0.430297 0.103333 0.132536 65 61 39
-0.428616 0.104726 0.133249 62 67 37
-0.427588 0.106332 0.133633 62 92 43
-0.425925 0.107707 0.134338 62 97 41
-0.423641 0.108846 0.135359 63 102 52
-0.423262 0.110657 0.135417 106 153 77
-0.422254 0.112236 0.135793 144 201 103
-0.422503 0.114278 0.135531 140 212 102
-0.438528 0.122308 0.127256 138 216 101
-0.439507 0.124727 0.126617 142 218 102
-0.439799 0.126894 0.126326 142 218 104
-0.439401 0.128795 0.126386 142 217 103
-0.439002 0.130695 0.126446 141 215 102
-0.438604 0.132596 0.126507 139 212 102
-0.437519 0.134213 0.126917 137 208 100
-0.437121 0.13611 0.126977 136 204 97
-0.43604 0.137719 0.127386 130 200 95
-0.435643 0.139612 0.127446 118 189 87
-0.435929 0.1418 0.127157 104 176 78
-0.435531 0.143696 0.127217 96 169 74
-0.435817 0.145896 0.126927 96 169 75
-0.436103 0.148102 0.126636 100 174 79
-0.436391 0.150317 0.126344 110 184 85
-0.435992 0.152223 0.126404 122 195 93
-0.435592 0.154129 0.126465 134 204 98
-0.435193 0.156035 0.126525 136 207 98
-0.43548 0.158267 0.126232 136 206 98
-0.435768 0.160508 0.125938 135 207 98
-0.437443 0.163432 0.124928 135 206 97
-0.439137 0.166388 0.123908 135 205 98
-0.44085 0.169377 0.122876 138 210 101
-0.441866 0.172038 0.122202 138 211 102
-0.447251 0.176941 0.119268 138 212 101
-0.449051 0.180062 0.118185 139 213 101
-0.450872 0.183218 0.117089 138 212 100
-0.451204 0.185615 0.116763 134 210 97
-0.450783 0.18762 0.116827 122 200 92
-0.450363 0.189625 0.11689 120 193 96
-0.449943 0.19163 0.116953 145 210 117
-0.449523 0.193635 0.117017 172 234 136
-0.446871 0.194401 0.118241 168 218 123
-0.441347 0.193534 0.120962 151 203 117
-0.437371 0.193484 0.12288 152 200 104
-0.436259 0.195031 0.123309 122 153 95
-0.433757 0.195767 0.124463 87 82 55
-0.430232 0.10346 0.130463 62 60 40
-0.429196 0.105077 0.130853 59 62 37
-0.427519 0.106464 0.131572 62 78 39
-0.425853 0.107841 0.132287 60 96 40
-0.424199 0.109209 0.132996 61 101 44
-0.422556 0.110567 0.1337 73 118 58
-0.421549 0.112146 0.134079 125 181 88
-0.42117 0.113953 0.134136 143 218 107
-0.421417 0.115999 0.133872 139 216 99
-0.438079 0.124369 0.125171 139 216 101
-0.438368 0.126531 0.124878 140 218 104
-0.437971 0.128429 0.124938 141 219 105
-0.437573 0.130326 0.124998 140 218 103
-0.437175 0.132223 0.125058 140 214 101
-0.436778 0.134121 0.125118 137 209 100
-0.435698 0.135733 0.125531 139 207 99
-0.435301 0.137626 0.125591 123 190 88
-0.434904 0.13952 0.125651 104 168 77
-0.434507 0.141413 0.125711 102 160 72
-0.43479 0.143604 0.125419 102 158 69
-0.435075 0.145803 0.125126 95 156 65
-0.43536 0.14801 0.124831 86 156 67
-0.434961 0.149913 0.124892 87 161 72
-0.435247 0.152131 0.124596 102 178 80
-0.434848 0.154037 0.124657 118 195 91
-0.434448 0.155943 0.124717 129 205 98
-0.434049 0.157849 0.124777 134 208 101
-0.434334 0.160085 0.124482 135 207 100
-0.434619 0.162328 0.124185 137 206 99
-0.436984 0.165606 0.122803 137 207 99
-0.438679 0.16858 0.121768 138 210 102
-0.441818 0.172306 0.119978 139 212 101
-0.44795 0.177599 0.11662 139 215 102
-0.450509 0.181121 0.115126 138 215 102
-0.45084 0.183515 0.114797 137 213 99
-0.450419 0.18552 0.11486 125 204 94
-0.449999 0.187526 0.114924 124 193 97
-0.449579 0.189531 0.114987 150 204 116
-0.449159 0.191536 0.115051 177 223 137
-0.447992 0.193131 0.115506 172 210 133
-0.445354 0.193899 0.116737 153 204 121
-0.439145 0.192638 0.119848 142 195 103
-0.435205 0.192598 0.12177 142 197 108
-0.433405 0.193742 0.122565 94 101 69
-0.430249 0.194086 0.124078 72 66 43
-0.429129 0.105208 0.128777 64 59 36
-0.427449 0.106597 0.129505 67 63 39
-0.42578 0.107976 0.130227 63 81 37
-0.424759 0.109574 0.130616 60 98 40
-0.422478 0.110706 0.131657 61 103 45
-0.420844 0.112056 0.132365 85 143 64
-0.420465 0.113864 0.132422 135 205 97
-0.420086 0.115671 0.13248 136 221 102
-0.426045 0.119922 0.129244 134 217 100
-0.436943 0.12617 0.123435 138 219 103
-0.436546 0.128064 0.123495 140 218 105
-0.436149 0.129958 0.123555 142 216 104
-0.435752 0.131852 0.123615 142 213 101
-0.435355 0.133746 0.123675 136 209 100
-0.434958 0.13564 0.123735 134 208 105
-0.434561 0.137534 0.123795 127 193 92
-0.434165 0.139427 0.123855 116 181 83
-0.433768 0.141321 0.123915 114 185 87
-0.43405 0.143512 0.12362 114 186 88
-0.433652 0.145409 0.12368 110 181 85
-0.433935 0.147611 0.123384 102 170 79
-0.434218 0.149821 0.123087 91 158 72
-0.433819 0.151724 0.123147 87 163 70
-0.434103 0.153946 0.122849 103 183 83
-0.433703 0.155852 0.122909 130 204 98
-0.433304 0.157758 0.122969 135 205 99
-0.432905 0.159663 0.12303 134 209 101
-0.433187 0.161902 0.122731 135 210 99
-0.434846 0.164829 0.121706 138 210 99
-0.437921 0.168487 0.119931 138 212 102
-0.442487 0.172938 0.117366 139 212 100
-0.448654 0.178262 0.113952 138 213 101
-0.450476 0.181414 0.11283 137 214 100
-0.450055 0.18342 0.112893 129 206 95
-0.449635 0.185425 0.112957 128 193 99
-0.449215 0.187431 0.113021 150 202 120
-0.448795 0.189436 0.113084 170 217 139
-0.448374 0.191442 0.113148 163 212 136
-0.446468 0.192628 0.114001 147 202 119
-0.44166 0.192184 0.116399 139 200 107
-0.436254 0.191353 0.119118 146 204 107
-0.432362 0.191325 0.121036 111 121 82
-0.430583 0.192468 0.12183 75 72 51
-0.426791 0.192429 0.123698 67 64 44
-0.427378 0.10673 0.12743 66 56 40
-0.425068 0.107885 0.128495 64 69 36
-0.424048 0.109483 0.128886 61 92 39
-0.42177 0.110615 0.129937 61 98 38
-0.420138 0.111966 0.130651 64 105 52
-0.419137 0.113541 0.131035 106 154 81
-0.418759 0.115345 0.131092 142 202 107
-0.419002 0.11739 0.130823 136 213 103
-0.424942 0.12167 0.127558 131 216 102
-0.431759 0.126365 0.123828 139 219 105
-0.433377 0.129048 0.122829 142 219 106
-0.434333 0.131483 0.122176 141 215 105
-0.433937 0.133373 0.122236 128 206 104
-0.434219 0.135548 0.121939 127 209 109
-0.433822 0.137441 0.121999 131 203 100
-0.433425 0.139335 0.122059 127 197 90
-0.433028 0.141229 0.122119 128 203 94
-0.433309 0.14342 0.121821 131 205 97
-0.432911 0.145317 0.121881 132 204 97
-0.433192 0.147519 0.121582 127 195 93
-0.432794 0.149419 0.121642 111 176 83
-0.433076 0.151633 0.121341 93 164 76
-0.432677 0.153535 0.121402 97 178 84
-0.432278 0.155438 0.121462 136 212 105
-0.43188 0.157341 0.121523 136 205 97
-0.43216 0.159572 0.121222 134 207 98
-0.432441 0.161811 0.120919 135 208 99
-0.432723 0.164058 0.120616 136 211 99
-0.436465 0.168045 0.118466 138 213 103
-0.44172 0.172844 0.115505 139 214 101
-0.448617 0.178547 0.111661 138 214 101
-0.449691 0.181319 0.110926 129 209 98
-0.449271 0.183325 0.11099 128 195 101
-0.448851 0.185331 0.111053 151 206 122
-0.44843 0.187337 0.111117 168 222 138
-0.44801 0.189342 0.111181 157 218 130
-0.446846 0.190941 0.111644 139 204 112
-0.443481 0.191319 0.11329 137 204 104
-0.437312 0.190099 0.116447 149 204 105
-0.432702 0.189692 0.118769 119 144 94
-0.426843 0.188526 0.121767 81 71 53
-0.426444 0.190434 0.121828 62 63 41
-0.424355 0.107794 0.126763 61 60 38
-0.423336 0.109392 0.127157 60 78 38
-0.421691 0.110754 0.127884 60 96 42
-0.419433 0.111877 0.128936 61 99 40
-0.418433 0.113451 0.129323 75 116 54
-0.418055 0.115256 0.12938 119 171 85
-0.417677 0.117061 0.129438 146 207 105
-0.418539 0.119351 0.128836 136 209 102
-0.423839 0.123418 0.125873 134 216 102
-0.430634 0.128147 0.12211 138 219 107
-0.432246 0.13084 0.121101 139 214 103
-0.432524 0.133002 0.120803 119 201 99
-0.432803 0.135172 0.120503 123 215 111
-0.433082 0.137349 0.120202 136 219 109
-0.432685 0.139243 0.120263 137 211 102
-0.432289 0.141136 0.120323 139 215 104
-0.431892 0.14303 0.120383 145 217 104
-0.43217 0.145225 0.120081 147 215 102
-0.431773 0.147122 0.120142 139 209 100
-0.431376 0.149018 0.120202 127 195 94
-0.430978 0.150915 0.120262 110 178 84
-0.431256 0.153127 0.11996 104 183 87
-0.430858 0.155026 0.12002 141 219 109
-0.43046 0.156926 0.120081 137 205 95
-0.430737 0.159152 0.119778 136 209 99
-0.431015 0.161387 0.119473 137 209 100
-0.431295 0.163629 0.119168 135 210 98
-0.435014 0.167604 0.117006 138 216 101
-0.439525 0.172027 0.114414 138 214 100
-0.447835 0.178453 0.109764 130 209 100
-0.448907 0.181224 0.109022 127 197 104
-0.448486 0.18323 0.109086 149 210 123
-0.448066 0.185236 0.109149 163 223 137
-0.447646 0.187242 0.109213 153 219 125
-0.447225 0.189248 0.109277 136 208 105
-0.446063 0.190847 0.109744 135 206 101
-0.436956 0.188051 0.114526 148 204 106
-0.43235 0.187666 0.11687 128 159 94
-0.427169 0.186909 0.11953 86 81 58
-0.426097 0.188438 0.119956 63 57 36
-0.424279 0.107928 0.124689 60 61 37
-0.422625 0.109301 0.125427 58 63 37
-0.420981 0.110664 0.12616 61 79 39
-0.419349 0.112018 0.126888 61 96 40
-0.417728 0.113362 0.127611 63 102 43
-0.41735 0.115167 0.127669 80 130 54
-0.417591 0.117211 0.127394 122 188 84
-0.417832 0.119262 0.127119 144 213 102
-0.419322 0.121817 0.126171 132 207 100
-0.424019 0.125683 0.123497 122 205 96
-0.42951 0.12993 0.120391 118 201 92
-0.431116 0.132632 0.119374 107 195 88
-0.430721 0.134516 0.119434 121 216 107
-0.430996 0.136684 0.119132 139 223 112
-0.431946 0.13915 0.118466 142 219 110
-0.431549 0.141044 0.118526 148 230 118
-0.431152 0.142938 0.118586 158 237 118
-0.430755 0.144832 0.118647 160 234 115
-0.430359 0.146725 0.118707 147 221 107
-0.429962 0.148619 0.118767 134 204 96
-0.429565 0.150512 0.118827 118 190 91
-0.429169 0.152405 0.118887 106 186 92
-0.429443 0.154616 0.118583 139 222 110
-0.429045 0.156512 0.118644 136 204 93
-0.429319 0.158734 0.118339 137 213 101
-0.429595 0.160964 0.118032 137 213 100
-0.429871 0.163202 0.117725 135 212 98
-0.432879 0.166819 0.115927 136 213 99
-0.437346 0.171215 0.11333 125 206 98
-0.447796 0.178739 0.107461 128 195 105
-0.448122 0.181129 0.107117 144 212 124
-0.447701 0.183135 0.107181 156 221 132
-0.447281 0.185141 0.107245 149 215 122
-0.446861 0.187147 0.107309 133 208 105
-0.446441 0.189153 0.107373 134 208 100
-0.4366 0.186001 0.112606 145 205 103
-0.431308 0.185258 0.115349 131 170 94
-0.426821 0.184909 0.117654 93 98 61
-0.424415 0.185687 0.118819 70 62 39
-0.423181 0.109668 0.123012 57 60 38
-0.421531 0.111034 0.123756 61 65 41
-0.419891 0.112391 0.124494 63 84 42
-0.418263 0.113739 0.125228 62 97 41
-0.417263 0.115313 0.125622 64 106 46
-0.416885 0.117122 0.125679 81 139 59
-0.417745 0.119416 0.125064 119 192 85
-0.417987 0.121478 0.124784 141 211 100
-0.422018 0.125076 0.122443 120 192 92
-0.422911 0.127438 0.121805 98 175 82
-0.427725 0.131439 0.119032 97 183 81
-0.429985 0.134424 0.117646 119 214 104
-0.42959 0.136308 0.117706 134 221 108
-0.429863 0.13848 0.117402 137 218 104
-0.430809 0.140952 0.116729 149 237 124
-0.430412 0.142846 0.116789 160 248 132
-0.430015 0.14474 0.11685 159 241 122
-0.429619 0.146634 0.11691 153 230 115
-0.429222 0.148527 0.11697 135 207 97
-0.428825 0.15042 0.117031 118 193 88
-0.428429 0.152314 0.117091 106 192 94
-0.428032 0.154207 0.117151 137 224 114
-0.427636 0.1561 0.117211 132 199 91
-0.427907 0.158317 0.116904 133 213 101
-0.428179 0.160543 0.116596 135 217 101
-0.428452 0.162776 0.116287 133 214 98
-0.429401 0.165356 0.115604 122 206 93
-0.4331 0.16935 0.113404 125 194 98
-0.436176 0.173071 0.111544 134 204 117
-0.447337 0.181034 0.105213 144 215 120
-0.446916 0.18304 0.105277 142 211 113
-0.446496 0.185047 0.10534 133 206 103
-0.446076 0.187053 0.105404 136 209 101
-0.433439 0.182429 0.11224 146 207 106
-0.429586 0.182483 0.114214 132 174 95
-0.425134 0.182165 0.116523 96 107 63
-0.424069 0.183697 0.116953 69 66 39
-0.42145 0.111175 0.12168 60 59 39
-0.419808 0.112534 0.122427 60 65 36
-0.419426 0.114355 0.122485 60 83 43
-0.417176 0.115461 0.123567 62 98 46
-0.417417 0.117513 0.123285 65 107 48
-0.417659 0.119571 0.123002 81 140 60
-0.417278 0.121389 0.12306 118 191 86
-0.4194 0.124218 0.121742 143 205 103
-0.420915 0.126825 0.120756 126 193 98
-0.421804 0.129193 0.120113 107 195 90
-0.426602 0.133218 0.117316 121 218 108
-0.427527 0.135651 0.11665 129 217 108
-0.42846 0.1381 0.115978 128 210 96
-0.42873 0.140275 0.115671 139 225 107
-0.429002 0.142458 0.115362 148 230 113
-0.428606 0.144348 0.115423 149 228 109
-0.42821 0.146239 0.115483 146 226 107
-0.428482 0.148436 0.115173 129 209 98
-0.427418 0.150019 0.115603 118 195 90
-0.427022 0.151909 0.115663 108 198 94
-0.426627 0.153799 0.115724 131 223 115
-0.426231 0.155689 0.115784 116 191 84
-0.426499 0.157902 0.115475 116 203 95
-0.426768 0.160123 0.115165 120 209 94
-0.427038 0.162351 0.114854 113 203 91
-0.427981 0.164926 0.114167 117 197 90
-0.428255 0.167175 0.113853 127 199 102
-0.43194 0.171189 0.111633 133 207 109
-0.433611 0.174199 0.110536 133 208 104
-0.433204 0.17614 0.110598 132 207 100
-0.432105 0.177712 0.111047 141 212 104
-0.429639 0.178541 0.112262 148 207 107
-0.426526 0.178994 0.113842 129 169 94
-0.424787 0.180171 0.114653 96 111 64
-0.423061 0.181339 0.115459 71 69 40
-0.419724 0.112677 0.120353 52 57 38
-0.418716 0.114264 0.120758 57 67 41
-0.418334 0.116085 0.120816 61 83 42
-0.41733 0.117664 0.12122 63 100 46
-0.416949 0.119482 0.121277 64 110 51
-0.416568 0.121299 0.121335 79 135 62
-0.418058 0.123874 0.120355 118 178 88
-0.418302 0.125957 0.120064 144 202 108
-0.419811 0.128573 0.11907 137 210 104
-0.421977 0.131487 0.117709 131 222 111
-0.423524 0.134164 0.11669 126 214 107
-0.4264 0.137437 0.114928 121 207 94
-0.427329 0.139893 0.11425 136 225 105
-0.427598 0.142071 0.11394 153 237 115
-0.427867 0.144257 0.113628 163 240 117
-0.427471 0.146147 0.113689 153 228 108
-0.427075 0.148038 0.113749 126 207 97
-0.426679 0.149928 0.113809 117 196 90
-0.425621 0.151506 0.114241 109 197 92
-0.425226 0.153393 0.114301 126 212 112
-0.424831 0.15528 0.114361 103 177 77
-0.424436 0.157166 0.114421 95 189 84
-0.425362 0.159704 0.113738 110 192 87
-0.425629 0.161928 0.113425 115 201 91
-0.425897 0.16416 0.113111 121 202 95
-0.426836 0.166741 0.112419 128 203 101
-0.426437 0.168647 0.112479 128 207 102
-0.42738 0.171254 0.111782 134 209 102
-0.42698 0.173167 0.111843 146 216 107
-0.425908 0.174721 0.112284 146 204 107
-0.42484 0.176271 0.112722 125 161 92
-0.423113 0.177453 0.113535 92 104 64
-0.421399 0.178627 0.114342 71 68 41
-0.41863 0.114411 0.118681 55 58 42
-0.417623 0.115995 0.119088 58 64 38
-0.417242 0.117816 0.119147 57 80 40
-0.41686 0.119637 0.119205 60 96 47
-0.416479 0.121458 0.119263 63 106 52
-0.41672 0.123531 0.118972 79 128 61
-0.416338 0.125354 0.11903 116 173 85
-0.417204 0.127697 0.118387 142 213 106
-0.41934 0.130589 0.117028 144 231 120
-0.420865 0.133248 0.116011 129 217 107
-0.422406 0.135934 0.114983 119 207 91
-0.425273 0.139223 0.113206 134 228 107
-0.426198 0.141685 0.112522 158 248 128
-0.425803 0.143569 0.112582 171 252 134
-0.426069 0.145754 0.112269 170 243 122
-0.425674 0.147641 0.112329 141 216 105
-0.425279 0.149528 0.11239 119 196 90
-0.424883 0.151415 0.11245 109 201 94
-0.42383 0.152988 0.112883 132 220 115
-0.423436 0.154872 0.112943 113 189 84
-0.423041 0.156755 0.113003 105 197 89
-0.422647 0.158638 0.113064 117 198 92
-0.423565 0.161177 0.112377 122 203 94
-0.42449 0.163734 0.111686 125 206 98
-0.424756 0.165969 0.111368 133 207 104
-0.425024 0.168212 0.11105 148 217 108
-0.424625 0.170115 0.111111 150 215 113
-0.424226 0.172017 0.111171 139 186 105
-0.423165 0.173566 0.111611 114 139 83
-0.421451 0.174755 0.112425 85 92 58
-0.421054 0.176647 0.112485 66 63 43
-0.417536 0.116145 0.117008 54 59 39
-0.417153 0.117969 0.117066 55 60 38
-0.416149 0.119547 0.117477 56 73 38
-0.416389 0.121617 0.117183 59 90 40
-0.416007 0.123441 0.117241 63 103 45
