ply
format ascii 1.0
element vertex 1239
property float x
property float y
property float z
property uchar diffuse_red
property uchar diffuse_green
property uchar diffuse_blue
end_header
-0.449782 0.116864 0.214273 74 125 56
-0.449406 0.118649 0.214326 88 143 65
-0.449031 0.120433 0.214379 96 153 72
-0.449324 0.122465 0.214249 99 156 74
-0.448949 0.124252 0.214303 100 155 75
-0.449242 0.126293 0.214172 96 149 74
-0.448866 0.128083 0.214226 88 140 68
-0.44916 0.130134 0.214095 83 132 61
-0.449455 0.132191 0.213964 77 123 57
-0.449752 0.134256 0.213832 69 118 54
-0.450049 0.136327 0.2137 63 115 53
-0.44967 0.138129 0.213754 60 116 53
-0.451328 0.140772 0.213248 64 119 52
-0.453003 0.143442 0.212736 67 123 56
-0.45262 0.145262 0.21279 62 124 54
-0.451551 0.146788 0.213034 62 122 52
-0.449805 0.148015 0.213464 62 116 51
-0.446726 0.148644 0.214261 61 114 50
-0.444351 0.149558 0.214866 64 115 49
-0.441999 0.150462 0.215464 65 113 49
-0.439025 0.151064 0.216235 62 111 50
-0.438009 0.152537 0.216465 59 107 46
-0.434453 0.152827 0.217398 55 104 45
-0.434085 0.154576 0.21745 69 110 54
-0.433717 0.156326 0.217502 101 138 74
-0.433349 0.158075 0.217554 108 156 86
-0.433612 0.160129 0.217432 88 121 76
-0.434509 0.162499 0.217134 71 89 60
-0.426214 0.0255575 0.221168 70 62 51
-0.425875 0.0271715 0.221216 69 62 49
-0.426103 0.0288651 0.22111 71 67 53
-0.425763 0.0304813 0.221158 86 104 69
-0.42656 0.0322673 0.220896 93 158 86
-0.427363 0.0340642 0.220633 69 127 51
-0.43049 0.0362396 0.219734 59 129 52
-0.433676 0.0384557 0.218818 65 132 54
-0.436319 0.0406124 0.218051 98 147 64
-0.440848 0.0431205 0.216766 103 158 80
-0.442353 0.045139 0.216308 108 143 83
-0.441996 0.0468371 0.216359 119 147 97
-0.441639 0.0485351 0.216409 134 157 94
-0.441282 0.050233 0.21646 154 173 90
-0.439072 0.0515699 0.217018 139 166 75
-0.436882 0.052894 0.217572 112 172 84
-0.431726 0.0535965 0.218939 86 163 82
-0.430785 0.0551334 0.219151 65 131 57
-0.430437 0.0567908 0.2192 61 119 47
-0.430088 0.0584482 0.219249 65 125 56
-0.451755 0.0705194 0.213104 64 131 65
-0.451385 0.0722779 0.213156 55 108 42
-0.449699 0.0737134 0.213571 53 105 42
-0.450646 0.0757947 0.213261 52 106 42
-0.45293 0.0782287 0.212582 49 105 42
-0.452558 0.0799985 0.212635 45 104 40
-0.452186 0.0817682 0.212688 44 105 36
-0.451814 0.0835377 0.212741 43 102 36
-0.451442 0.0853071 0.212794 40 101 36
-0.451736 0.0872616 0.212662 60 115 46
-0.451363 0.0890338 0.212715 45 102 39
-0.45099 0.0908058 0.212768 36 99 34
-0.451284 0.0927724 0.212637 55 106 42
-0.451579 0.0947455 0.212505 63 120 53
-0.451875 0.0967252 0.212373 74 129 60
-0.4515 0.0985056 0.212426 92 137 68
-0.451126 0.100286 0.212479 106 149 74
-0.452094 0.10249 0.21216 106 150 73
-0.452392 0.104493 0.212026 96 145 72
-0.452016 0.106282 0.21208 82 131 65
-0.45164 0.10807 0.212133 70 118 55
-0.451264 0.109859 0.212186 63 112 52
-0.450888 0.111648 0.21224 63 111 51
-0.450512 0.113436 0.212293 65 112 50
-0.450136 0.115225 0.212346 70 117 53
-0.44976 0.117013 0.2124 82 132 60
-0.450055 0.119042 0.212266 91 147 67
-0.449678 0.120833 0.21232 94 152 72
-0.449302 0.122624 0.212373 93 152 74
-0.448925 0.124415 0.212427 91 147 72
-0.448549 0.126205 0.21248 85 139 66
-0.448172 0.127996 0.212533 76 131 60
-0.448465 0.130047 0.2124 70 125 55
-0.448759 0.132104 0.212266 66 117 51
-0.449729 0.134437 0.211943 61 111 51
-0.450027 0.136513 0.211808 59 111 51
-0.45169 0.139152 0.21129 59 111 52
-0.45268 0.141533 0.210961 63 114 51
-0.453677 0.143931 0.210629 71 119 53
-0.451914 0.145174 0.211069 78 127 56
-0.451532 0.146994 0.211124 86 134 59
-0.447078 0.14705 0.212319 86 139 62
-0.445361 0.148265 0.212748 83 139 65
-0.442339 0.148888 0.213544 79 137 64
-0.440656 0.150084 0.213964 75 130 60
-0.437696 0.150688 0.214744 68 121 54
-0.434142 0.150994 0.215691 62 113 50
-0.433144 0.152452 0.21592 76 117 57
-0.43215 0.153905 0.216149 107 149 80
-0.431784 0.155649 0.216201 110 152 88
-0.432043 0.157692 0.216076 84 98 67
-0.426159 0.0255459 0.219488 69 58 49
-0.425819 0.0271625 0.219536 69 61 50
-0.425479 0.028779 0.219585 67 65 50
-0.425707 0.0304776 0.219476 78 91 64
-0.426505 0.0322665 0.219208 103 150 76
-0.42962 0.0344221 0.218298 65 119 49
-0.433385 0.0367119 0.217206 50 121 49
-0.437234 0.0390522 0.21609 54 123 50
-0.440551 0.0413411 0.21512 82 134 55
-0.445827 0.0440002 0.213606 90 159 78
-0.447378 0.0460526 0.213125 100 170 86
-0.448945 0.048125 0.21264 105 189 101
-0.449228 0.0499765 0.212512 97 181 99
-0.448863 0.0517107 0.212564 91 162 86
-0.448499 0.0534447 0.212615 81 141 69
-0.448781 0.0553076 0.212487 71 125 54
-0.44777 0.0569124 0.212719 57 118 48
-0.442943 0.0577158 0.214015 50 112 39
-0.442583 0.0594297 0.214067 49 113 41
-0.449267 0.0626771 0.212151 68 127 56
-0.454107 0.0692864 0.210646 73 119 49
-0.453066 0.0708992 0.210886 61 125 63
-0.452695 0.0726667 0.210939 48 105 41
-0.45299 0.0745978 0.210805 49 107 41
-0.453286 0.0765353 0.210671 52 107 44
-0.452913 0.0783083 0.210724 51 108 46
-0.45321 0.080255 0.210589 55 109 47
-0.452837 0.0820308 0.210642 58 108 43
-0.452464 0.0838065 0.210695 54 106 41
-0.45276 0.0857653 0.21056 51 105 39
-0.452386 0.0875437 0.210613 63 114 46
-0.452683 0.0895118 0.210478 57 105 42
-0.452309 0.091293 0.210531 52 108 45
-0.451935 0.093074 0.210584 65 116 50
-0.450891 0.094656 0.210825 80 133 63
-0.451186 0.0966356 0.21069 92 150 74
-0.452154 0.098828 0.210365 99 157 80
-0.451778 0.100615 0.210419 102 155 77
-0.452076 0.102614 0.210282 101 151 73
-0.4517 0.104403 0.210336 93 142 69
-0.451998 0.106412 0.210199 85 130 62
-0.451621 0.108204 0.210252 76 121 56
-0.45192 0.110223 0.210115 70 118 55
-0.451542 0.112018 0.210169 66 116 54
-0.450491 0.11358 0.210413 66 116 52
-0.450114 0.115371 0.210466 71 121 54
-0.449738 0.117163 0.21052 79 132 59
-0.449361 0.118954 0.210573 82 138 62
-0.448985 0.120745 0.210627 80 138 64
-0.448608 0.122536 0.21068 77 134 64
-0.448231 0.124327 0.210734 72 128 60
-0.447855 0.126118 0.210787 69 122 55
-0.447479 0.127908 0.210841 66 116 52
-0.44777 0.129959 0.210705 63 112 49
-0.448735 0.132281 0.210377 63 109 45
-0.449707 0.134619 0.210047 61 108 45
-0.451368 0.137249 0.209521 62 111 50
-0.452357 0.139624 0.209185 66 120 55
-0.453353 0.142016 0.208847 75 130 61
-0.453661 0.144133 0.208704 86 141 67
-0.452585 0.145669 0.208956 92 148 71
-0.450826 0.146907 0.209402 93 151 71
-0.446379 0.146964 0.210616 90 148 68
-0.444001 0.147888 0.21124 86 144 66
-0.441647 0.148802 0.211858 80 138 62
-0.439967 0.149999 0.212284 73 130 58
-0.436371 0.150313 0.213258 69 123 53
-0.432834 0.150622 0.214216 67 122 57
-0.43184 0.152078 0.214447 103 158 79
-0.43085 0.15353 0.214677 116 152 88
-0.430484 0.155271 0.214729 84 93 68
-0.425535 0.0254595 0.217962 69 59 48
-0.425195 0.0270762 0.218011 71 61 52
-0.425422 0.0287725 0.217899 68 62 48
-0.42622 0.0305565 0.217627 73 78 57
-0.429332 0.0326965 0.216702 96 124 61
-0.431912 0.0347856 0.215926 62 120 52
-0.44247 0.0381654 0.212898 42 113 44
-0.445886 0.0404794 0.211884 44 115 41
-0.445525 0.0421946 0.211935 67 125 49
-0.449005 0.0445705 0.210902 85 147 66
-0.449287 0.0464166 0.210771 69 121 49
-0.450874 0.0485046 0.210271 63 119 50
-0.451161 0.0503691 0.210138 60 116 49
-0.452108 0.0523647 0.209818 55 112 47
-0.451739 0.0541161 0.209871 52 107 47
-0.45203 0.0559988 0.209736 54 106 38
-0.450347 0.0574847 0.210161 49 105 37
-0.449327 0.0590965 0.210399 43 104 33
-0.44896 0.0608416 0.210451 37 106 39
-0.45387 0.0637362 0.209005 67 127 54
-0.454167 0.0656532 0.208868 47 93 28
-0.454465 0.0675764 0.208731 35 97 26
-0.454092 0.0693503 0.208784 61 113 45
-0.453719 0.071124 0.208837 60 122 58
-0.453346 0.0728976 0.20889 54 112 45
-0.453644 0.0748358 0.208752 62 120 50
-0.453942 0.0767803 0.208614 72 126 61
-0.454242 0.0787313 0.208475 75 130 67
-0.453867 0.0805133 0.208528 90 126 69
-0.454167 0.0824736 0.208389 91 116 55
-0.453792 0.0842584 0.208443 71 113 49
-0.453417 0.0860431 0.208496 61 110 46
-0.453716 0.0880156 0.208357 64 114 49
-0.453341 0.089803 0.20841 63 111 50
-0.452965 0.0915903 0.208463 65 115 53
-0.452589 0.0933775 0.208517 79 127 58
-0.452214 0.0951646 0.20857 91 144 69
-0.451838 0.0969515 0.208624 98 154 75
-0.452136 0.0989451 0.208484 101 155 74
-0.451759 0.100735 0.208538 99 151 72
-0.451383 0.102524 0.208591 96 145 70
-0.451681 0.10453 0.208452 89 137 65
-0.451304 0.106323 0.208505 83 128 59
-0.451602 0.108338 0.208365 77 121 54
-0.451225 0.110133 0.208419 70 118 53
-0.450847 0.111928 0.208472 65 116 52
-0.45047 0.113723 0.208526 64 116 52
-0.450093 0.115518 0.20858 66 120 53
-0.449715 0.117313 0.208633 70 124 55
-0.449338 0.119107 0.208687 72 126 57
-0.448961 0.120902 0.208741 73 126 57
-0.447914 0.122448 0.208987 77 125 57
-0.447538 0.124239 0.209041 79 125 57
-0.447161 0.12603 0.209094 78 126 58
-0.446785 0.127821 0.209148 72 124 58
-0.447075 0.129871 0.209009 67 119 54
-0.448038 0.132194 0.208675 64 115 50
-0.451046 0.135346 0.207751 62 113 49
-0.451348 0.137438 0.207607 63 118 54
-0.452339 0.139818 0.207264 68 129 58
-0.453336 0.142214 0.206919 81 140 64
-0.452952 0.144044 0.206974 89 151 77
-0.452567 0.145874 0.207028 94 158 90
-0.45012 0.146819 0.207681 98 161 88
-0.445012 0.146587 0.209106 94 154 72
-0.441987 0.147222 0.209928 87 144 66
-0.440302 0.148427 0.210361 82 137 63
-0.438629 0.149623 0.210792 75 130 59
-0.433783 0.149363 0.212145 68 124 55
-0.43153 0.150251 0.212745 85 140 62
-0.43054 0.151706 0.212978 107 163 86
-0.429554 0.153156 0.213211 98 121 78
-0.426047 0.0255225 0.216111 69 60 48
-0.426848 0.0272996 0.215833 70 59 47
-0.426506 0.0289263 0.215882 69 62 48
-0.429044 0.0309704 0.215106 71 71 51
-0.431621 0.0330463 0.214318 82 102 53
-0.44155 0.0362806 0.211422 65 122 56
-0.450076 0.0393853 0.208925 41 106 34
-0.450361 0.0412264 0.208791 36 107 30
-0.449996 0.0429643 0.208843 49 115 42
-0.450933 0.0449264 0.208521 84 139 62
-0.452536 0.0470177 0.208007 56 109 49
-0.452828 0.0488892 0.20787 43 106 37
-0.45445 0.0510139 0.20735 45 105 41
-0.455417 0.0530319 0.207018 43 107 42
-0.455045 0.054801 0.207071 44 105 42
-0.454673 0.0565699 0.207124 47 105 39
-0.454302 0.0583388 0.207177 46 104 37
-0.45393 0.0601075 0.207229 43 104 35
-0.453558 0.0618761 0.207282 36 106 36
-0.453855 0.0637902 0.207142 62 120 48
-0.453482 0.0655615 0.207195 51 101 32
-0.453779 0.0674848 0.207055 46 103 32
-0.454077 0.0694144 0.206914 57 113 42
-0.453704 0.0711912 0.206968 69 129 57
-0.454002 0.07313 0.206826 82 133 58
-0.454302 0.0750753 0.206685 95 147 65
-0.453927 0.0768578 0.206738 98 160 80
-0.454227 0.0788123 0.206596 95 159 87
-0.453852 0.0805975 0.20665 90 145 84
-0.454152 0.0825614 0.206507 85 127 62
-0.453777 0.0843494 0.206561 72 120 55
-0.453401 0.0861372 0.206614 67 116 52
-0.453025 0.0879249 0.206668 67 116 51
-0.452649 0.0897125 0.206721 67 115 51
-0.452273 0.0914999 0.206775 73 120 54
-0.452572 0.0934849 0.206632 86 133 61
-0.452195 0.0952751 0.206686 94 145 69
-0.451819 0.0970652 0.206739 95 148 71
-0.451443 0.0988552 0.206793 93 148 69
-0.451741 0.100855 0.20665 89 143 66
-0.451364 0.102648 0.206704 84 136 61
-0.450987 0.104441 0.206758 77 128 57
-0.451284 0.106454 0.206614 71 120 53
-0.450907 0.108249 0.206668 67 115 52
-0.451205 0.110271 0.206525 64 110 50
-0.450827 0.112069 0.206579 62 112 49
-0.450449 0.113868 0.206632 65 116 50
-0.450071 0.115666 0.206686 70 121 53
-0.449693 0.117463 0.20674 75 127 58
-0.449315 0.119261 0.206794 81 135 63
-0.448266 0.120813 0.207044 86 140 67
-0.447889 0.122608 0.207098 93 143 68
-0.446844 0.124151 0.207347 95 143 67
-0.446467 0.125942 0.207401 90 141 67
-0.446757 0.12799 0.207259 83 138 69
-0.447048 0.130045 0.207117 77 132 68
-0.448012 0.132372 0.206776 76 128 61
-0.451025 0.135531 0.205834 75 127 56
-0.451328 0.137627 0.205687 75 133 59
-0.451631 0.139729 0.205539 79 141 62
-0.452627 0.142125 0.205188 89 150 70
-0.452242 0.143956 0.205243 106 175 99
-0.451168 0.145493 0.205501 101 180 121
-0.448733 0.146438 0.20616 104 175 113
-0.44365 0.146211 0.207601 113 170 80
-0.440639 0.146848 0.208431 92 150 68
-0.439612 0.148341 0.208677 80 138 61
-0.437941 0.149538 0.209113 74 132 59
-0.433102 0.14928 0.210486 71 129 58
-0.43023 0.149881 0.211279 107 155 71
-0.429244 0.151334 0.211514 111 151 88
-0.428865 0.0258888 0.21358 71 65 52
-0.4291 0.0276046 0.21346 69 61 48
-0.430504 0.0294896 0.213001 69 64 50
-0.432512 0.0314779 0.212365 71 66 48
-0.435145 0.0335808 0.211547 75 82 49
-0.447835 0.0372597 0.207799 70 113 54
-0.450706 0.0394996 0.206908 44 101 36
-0.450341 0.0412406 0.20696 34 99 25
-0.450627 0.0430909 0.206822 36 106 34
-0.452228 0.0451733 0.2063 75 123 54
-0.453181 0.047159 0.205967 55 109 52
-0.45615 0.0495223 0.205045 42 104 35
-0.456451 0.05142 0.204901 41 108 41
-0.456753 0.053324 0.204757 45 111 45
-0.45638 0.0551021 0.20481 52 113 48
-0.456006 0.0568801 0.204863 55 113 44
-0.455632 0.058658 0.204916 55 112 44
-0.455258 0.0604358 0.20497 53 110 48
-0.454885 0.0622134 0.205023 53 110 39
-0.454511 0.0639909 0.205076 63 116 47
-0.454811 0.0659183 0.204932 59 112 45
-0.454437 0.0676986 0.204985 61 112 43
-0.454737 0.0696352 0.204841 69 123 52
-0.454362 0.0714182 0.204894 85 141 64
-0.454663 0.0733641 0.204749 96 152 72
-0.454287 0.0751498 0.204802 100 154 73
-0.453912 0.0769354 0.204856 97 156 74
-0.453537 0.0787209 0.204909 95 150 72
-0.453837 0.0806819 0.204764 90 139 66
-0.453461 0.0824702 0.204818 82 129 59
-0.453085 0.0842583 0.204871 76 125 57
-0.452709 0.0860463 0.204925 74 119 55
-0.452333 0.0878342 0.204978 71 117 51
-0.451958 0.0896219 0.205032 69 115 51
-0.451582 0.0914095 0.205086 73 125 53
-0.451879 0.0933944 0.20494 79 133 59
-0.451503 0.0951848 0.204994 82 135 62
-0.451126 0.0969751 0.205048 81 134 62
-0.45075 0.0987652 0.205101 76 131 60
-0.451047 0.100765 0.204956 73 127 56
-0.45067 0.102558 0.205009 72 123 52
-0.450967 0.104568 0.204864 68 118 51
-0.450589 0.106364 0.204917 65 114 50
-0.450886 0.108383 0.204771 63 108 51
-0.451185 0.11041 0.204624 63 107 50
-0.452164 0.112675 0.204275 65 112 50
-0.451784 0.114482 0.204329 70 121 54
-0.450725 0.116051 0.204585 78 132 61
-0.44967 0.117615 0.20484 87 144 67
-0.449292 0.119415 0.204894 93 155 74
-0.448241 0.12097 0.205148 98 161 79
-0.447193 0.122519 0.205401 106 162 80
-0.446816 0.124314 0.205455 113 162 80
-0.446439 0.126108 0.205509 119 164 84
-0.446729 0.12816 0.205364 124 166 89
-0.447693 0.130481 0.205017 121 166 90
-0.447987 0.13255 0.20487 103 155 78
-0.45032 0.135443 0.204114 91 145 68
-0.450622 0.137538 0.203964 90 147 69
-0.450924 0.139641 0.203814 90 149 69
-0.451227 0.14175 0.203663 94 153 73
-0.450843 0.143578 0.203718 107 166 86
-0.449774 0.145113 0.203978 108 172 95
-0.446674 0.145768 0.204846 108 172 87
-0.442292 0.145837 0.2061 116 175 80
-0.439947 0.146763 0.206744 94 156 74
-0.438272 0.147967 0.207188 83 138 61
-0.436609 0.149163 0.207628 76 133 58
-0.431793 0.14891 0.209016 71 137 62
-0.429555 0.149798 0.209631 116 170 79
-0.42857 0.151252 0.209869 111 135 76
-0.430561 0.0261074 0.211347 73 64 50
-0.432569 0.0280749 0.210702 69 63 50
-0.433408 0.0298992 0.2104 67 65 50
-0.434851 0.0318218 0.20992 71 65 49
-0.441839 0.0345895 0.2078 74 76 47
-0.447168 0.0371681 0.206168 76 109 54
-0.450034 0.0394074 0.205264 53 104 48
-0.45032 0.0412549 0.205123 37 97 25
-0.451262 0.0432183 0.204788 37 101 31
-0.452871 0.0453084 0.204254 55 112 46
-0.455838 0.0476565 0.203318 54 119 54
-0.456814 0.0496739 0.20297 55 115 46
-0.457797 0.0517047 0.202621 69 127 54
-0.457422 0.0534891 0.202675 83 134 61
-0.457047 0.0552734 0.202728 93 138 65
-0.456672 0.0570576 0.202782 92 134 60
-0.456297 0.0588416 0.202835 80 131 60
-0.455922 0.0606255 0.202889 67 122 61
-0.456225 0.0625542 0.20274 63 116 50
-0.455849 0.0643408 0.202794 64 115 50
-0.455474 0.0661273 0.202847 65 117 50
-0.455777 0.0680682 0.202699 68 121 51
-0.455401 0.0698575 0.202752 81 135 59
-0.455025 0.0716466 0.202806 91 149 68
-0.454649 0.0734357 0.20286 97 154 73
-0.454273 0.0752246 0.202913 97 154 72
-0.453897 0.0770134 0.202967 96 153 73
-0.453521 0.078802 0.203021 91 147 70
-0.453145 0.0805906 0.203074 85 135 64
-0.452769 0.082379 0.203128 77 128 58
-0.452393 0.0841673 0.203182 71 124 56
-0.452017 0.0859554 0.203235 68 119 54
-0.451642 0.0877434 0.203289 68 116 51
-0.451266 0.0895313 0.203343 68 115 51
-0.45089 0.0913191 0.203396 69 123 53
-0.451186 0.093304 0.203248 70 127 56
-0.45081 0.0950946 0.203302 72 127 56
-0.450433 0.096885 0.203356 75 129 57
-0.450057 0.0986753 0.203409 73 127 59
-0.450352 0.100676 0.203261 74 128 60
-0.449976 0.102469 0.203315 77 127 59
-0.450271 0.104478 0.203166 76 123 57
-0.450568 0.106495 0.203017 73 119 54
-0.450866 0.108518 0.202867 69 117 54
-0.451844 0.110777 0.202512 68 116 53
-0.452829 0.113052 0.202154 70 122 55
-0.452448 0.114866 0.202208 75 132 60
-0.450704 0.1162 0.202674 83 145 67
-0.450325 0.118008 0.202729 95 156 73
-0.448594 0.119327 0.203191 112 165 80
-0.448215 0.121128 0.203245 121 173 87
-0.447166 0.122679 0.203502 122 177 92
-0.446121 0.124226 0.203758 124 181 101
-0.446411 0.126274 0.20361 131 182 104
-0.446702 0.12833 0.203461 140 177 98
-0.446994 0.130393 0.203312 134 172 91
-0.447287 0.132462 0.203162 111 163 81
-0.449615 0.135354 0.202394 97 154 74
-0.449915 0.13745 0.202241 96 154 74
-0.450217 0.139552 0.202088 96 154 73
-0.449833 0.141377 0.202143 97 156 73
-0.44945 0.143201 0.202198 104 160 76
-0.447705 0.144445 0.202667 109 164 80
-0.443962 0.144815 0.203745 111 167 78
-0.440939 0.145464 0.204605 108 170 79
-0.439255 0.146677 0.205057 87 154 74
-0.437583 0.147882 0.205506 80 140 61
-0.435921 0.149078 0.205952 77 138 61
-0.431114 0.148826 0.20736 74 140 68
-0.428879 0.149715 0.207983 124 180 90
-0.427895 0.151169 0.208224 115 117 74
-0.433115 0.0281478 0.208781 71 60 48
-0.434558 0.0300624 0.208293 70 61 41
-0.44154 0.0327965 0.206141 70 62 39
-0.446864 0.035349 0.204485 73 69 42
-0.448431 0.0373738 0.203957 76 102 52
-0.450013 0.0394185 0.203424 65 113 54
-0.450954 0.041376 0.203083 47 97 31
-0.451242 0.043236 0.202938 40 99 33
-0.452854 0.0453299 0.202394 38 105 39
-0.456501 0.0478016 0.201237 66 128 55
-0.457483 0.0498264 0.200882 85 145 62
-0.457788 0.0517378 0.20073 94 161 74
-0.457412 0.0535254 0.200784 97 163 80
-0.457037 0.0553128 0.200838 94 152 77
-0.456661 0.0571001 0.200891 89 141 69
-0.456285 0.0588873 0.200945 77 134 61
-0.45591 0.0606744 0.200999 73 127 56
-0.455534 0.0624613 0.201052 72 123 54
-0.455837 0.0643964 0.200901 72 121 50
-0.455461 0.0661861 0.200955 70 122 52
-0.455085 0.0679757 0.201008 75 127 54
-0.454709 0.0697651 0.201062 86 141 62
-0.454333 0.0715545 0.201116 90 148 67
-0.453957 0.0733436 0.201169 91 150 70
-0.453581 0.0751327 0.201223 89 150 70
-0.453205 0.0769217 0.201277 86 142 65
-0.452829 0.0787105 0.201331 81 135 60
-0.452453 0.0804992 0.201384 75 128 59
-0.452077 0.0822877 0.201438 69 122 55
-0.451701 0.0840762 0.201492 64 119 53
-0.451326 0.0858645 0.201545 61 114 49
-0.45095 0.0876527 0.201599 62 114 49
-0.450574 0.0894407 0.201653 64 115 52
-0.450198 0.0912287 0.201707 69 121 55
-0.449822 0.0930165 0.20176 77 127 58
-0.449447 0.0948041 0.201814 89 135 60
-0.449071 0.0965917 0.201868 97 144 65
-0.449364 0.0985853 0.201717 93 148 69
-0.448988 0.100376 0.201771 91 149 73
-0.449953 0.102592 0.201414 93 147 75
-0.450249 0.104606 0.201262 99 142 72
-0.451224 0.106848 0.200902 98 138 68
-0.452889 0.109333 0.20033 91 135 66
-0.452508 0.111148 0.200385 83 133 61
-0.452812 0.113196 0.200229 80 136 61
-0.45243 0.115013 0.200284 85 142 64
-0.451364 0.11659 0.200548 92 153 70
-0.449624 0.117918 0.20102 104 163 78
-0.448569 0.119481 0.201281 126 168 87
-0.447518 0.121039 0.201542 134 175 92
-0.44647 0.122591 0.201802 125 180 95
-0.446092 0.124389 0.201856 118 183 101
-0.445714 0.126186 0.20191 118 178 98
-0.446004 0.128242 0.201759 118 166 87
-0.446294 0.130304 0.201606 113 159 78
-0.445915 0.132108 0.201661 105 157 74
-0.447554 0.134721 0.201092 100 156 74
-0.447849 0.136808 0.200938 99 157 75
-0.448146 0.138903 0.200783 100 159 75
-0.447764 0.140721 0.200838 101 162 75
-0.447382 0.14254 0.200892 105 164 77
-0.444309 0.14321 0.201779 108 165 78
-0.441937 0.144156 0.20245 109 164 80
-0.43959 0.145092 0.203114 103 166 75
-0.437266 0.146019 0.203771 80 150 66
-0.435606 0.147222 0.204223 81 144 63
-0.433957 0.148417 0.204672 79 142 66
-0.430435 0.148742 0.205703 81 146 72
-0.428202 0.149632 0.206334 124 180 98
-0.42722 0.151086 0.206578 108 105 74
-0.440619 0.0309157 0.204672 71 58 44
-0.445921 0.0334369 0.202997 69 62 40
-0.447481 0.0354492 0.202463 71 66 39
-0.449055 0.0374813 0.201923 75 94 51
-0.449992 0.0394296 0.201578 85 123 58
-0.450278 0.0412835 0.201431 59 101 40
-0.450565 0.0431435 0.201283 43 101 36
-0.452837 0.0453514 0.200528 40 106 40
-0.45649 0.0478276 0.19935 74 135 55
-0.457473 0.0498561 0.198988 93 156 72
-0.457097 0.051644 0.199042 97 161 75
-0.456722 0.0534317 0.199096 96 160 75
-0.456346 0.0552194 0.199149 92 153 74
-0.45597 0.0570068 0.199203 85 144 68
-0.455595 0.0587942 0.199257 76 136 60
-0.455219 0.0605814 0.199311 77 131 56
-0.455522 0.0625136 0.199156 74 128 55
-0.455145 0.0643036 0.19921 69 124 52
-0.454769 0.0660934 0.199264 68 125 52
-0.454393 0.0678831 0.199317 74 132 57
-0.454017 0.0696728 0.199371 77 137 60
-0.453641 0.0714623 0.199425 81 140 63
-0.453265 0.0732516 0.199479 75 137 61
-0.452889 0.0750408 0.199533 74 134 58
-0.452513 0.0768299 0.199586 73 128 55
-0.452137 0.0786189 0.19964 68 122 54
-0.451761 0.0804078 0.199694 65 117 54
-0.451385 0.0821965 0.199748 67 111 53
-0.451009 0.0839851 0.199802 66 111 51
-0.450634 0.0857736 0.199855 64 111 47
-0.450258 0.0875619 0.199909 68 115 51
-0.449882 0.0893501 0.199963 73 124 55
-0.449506 0.0911382 0.200017 81 141 62
-0.44913 0.0929261 0.20007 90 150 69
-0.448755 0.094714 0.200124 98 155 75
-0.448379 0.0965017 0.200178 101 159 77
-0.448003 0.0982892 0.200232 102 162 80
-0.448295 0.100286 0.200078 106 164 87
-0.449258 0.102502 0.199716 119 166 93
-0.449553 0.104516 0.199561 140 167 92
-0.450525 0.106758 0.199195 137 169 94
-0.452187 0.109243 0.198615 120 161 90
-0.45249 0.111289 0.198456 102 155 77
-0.452108 0.113106 0.198511 94 151 71
-0.451043 0.114686 0.198778 93 150 71
-0.450662 0.1165 0.198833 95 155 74
-0.448924 0.117829 0.19931 100 161 80
-0.447198 0.119149 0.199785 107 164 84
-0.446151 0.120705 0.200048 111 164 83
-0.445773 0.122503 0.200102 113 167 82
-0.445395 0.124301 0.200156 114 171 82
-0.445017 0.126098 0.20021 114 172 83
-0.444639 0.127896 0.200264 113 169 81
-0.444927 0.129955 0.20011 110 165 79
-0.444549 0.131755 0.200164 107 163 76
-0.444837 0.133823 0.200009 105 162 75
-0.444458 0.135627 0.200063 106 163 77
-0.444079 0.13743 0.200117 105 166 76
-0.4437 0.139233 0.200172 105 167 77
-0.443321 0.141036 0.200226 106 168 78
-0.441618 0.142273 0.200696 105 167 77
-0.440582 0.143785 0.200957 106 167 77
-0.438246 0.144722 0.201628 100 165 73
-0.435933 0.145649 0.202291 81 146 62
-0.43428 0.146851 0.202748 86 149 66
-0.432006 0.14776 0.2034 82 147 68
-0.429132 0.148374 0.204242 91 156 73
-0.427526 0.149549 0.204686 114 173 101
-0.443084 0.0312638 0.2021 69 57 46
-0.446534 0.0335305 0.200972 68 62 44
-0.447455 0.0354534 0.200626 68 64 45
-0.449032 0.037489 0.200077 74 86 52
-0.449317 0.039337 0.199927 92 126 60
-0.449602 0.041191 0.199778 66 116 57
-0.449888 0.0430509 0.199627 53 104 45
-0.452156 0.0452584 0.198862 49 110 45
-0.455801 0.0477338 0.197667 71 133 51
-0.456104 0.0496389 0.19751 91 156 69
-0.456407 0.0515502 0.197353 97 161 76
-0.456031 0.0533381 0.197407 94 157 74
-0.455655 0.0551259 0.197461 88 151 70
-0.45528 0.0569135 0.197514 80 144 63
-0.454904 0.058701 0.197568 75 136 58
-0.454528 0.0604884 0.197622 75 134 56
-0.454153 0.0622757 0.197676 71 130 54
-0.454453 0.0642107 0.197519 67 127 52
-0.454077 0.0660007 0.197573 66 129 54
-0.453701 0.0677906 0.197626 66 129 56
-0.453325 0.0695804 0.19768 68 130 55
-0.452949 0.0713701 0.197734 70 128 58
-0.452573 0.0731596 0.197788 71 129 58
-0.451525 0.0747829 0.198052 78 130 58
-0.451149 0.0765692 0.198106 86 129 57
-0.451445 0.0785273 0.19795 83 128 58
-0.451069 0.0803163 0.198003 79 127 61
-0.450693 0.0821052 0.198057 74 124 62
-0.450317 0.083894 0.198111 75 122 59
-0.449941 0.0856826 0.198165 72 122 56
-0.449566 0.0874711 0.198219 70 127 59
-0.44919 0.0892595 0.198273 76 136 61
-0.448814 0.0910477 0.198326 85 149 65
-0.448438 0.0928358 0.19838 94 156 70
-0.448063 0.0946238 0.198434 102 165 78
-0.447687 0.0964117 0.198488 108 170 89
-0.447311 0.0981994 0.198542 117 176 96
-0.447601 0.100196 0.198386 136 183 103
-0.448562 0.102412 0.198018 150 193 111
-0.448856 0.104426 0.19786 138 185 102
-0.449826 0.106668 0.197488 119 178 104
-0.451484 0.109153 0.196899 107 170 99
-0.451786 0.111198 0.196737 100 158 82
-0.450721 0.112782 0.197008 97 153 74
-0.448983 0.114124 0.197492 96 152 73
-0.447929 0.115694 0.19776 96 153 73
-0.446879 0.117258 0.198027 98 156 74
-0.445832 0.118818 0.198293 102 160 76
-0.445454 0.120616 0.198347 106 164 78
-0.445076 0.122414 0.198401 113 169 81
-0.444034 0.123962 0.198666 114 171 83
-0.443657 0.125756 0.19872 111 172 83
-0.443279 0.127551 0.198774 113 173 84
-0.443565 0.129606 0.198618 115 173 83
-0.443187 0.131403 0.198672 113 172 81
-0.442809 0.133201 0.198726 110 172 79
-0.442431 0.134998 0.19878 110 171 80
-0.441394 0.136523 0.199044 110 171 79
-0.441017 0.138317 0.199098 108 170 78
-0.44064 0.140111 0.199152 106 169 80
-0.440263 0.141905 0.199206 104 168 77
-0.437928 0.142851 0.199886 104 169 77
-0.436906 0.144352 0.200146 97 165 74
-0.433965 0.144997 0.20102 87 146 64
-0.432324 0.146198 0.201479 94 158 71
-0.430068 0.147107 0.202136 87 152 69
-0.427834 0.148006 0.202786 108 163 75
-0.444316 0.0314386 0.199887 65 60 44
-0.446506 0.0335314 0.199136 68 58 41
-0.447429 0.0354576 0.198784 65 60 47
-0.448359 0.0373965 0.198429 67 72 48
-0.448642 0.0392445 0.198277 81 114 58
-0.448926 0.0410984 0.198124 91 135 73
-0.449211 0.0429584 0.197971 76 118 57
-0.450154 0.0449376 0.197611 66 121 53
-0.453767 0.0474018 0.196408 65 128 49
-0.454738 0.0494223 0.196037 80 151 64
-0.455039 0.0513303 0.195878 87 160 75
-0.454664 0.0531153 0.195932 81 150 68
-0.454289 0.0549002 0.195985 74 143 64
-0.453914 0.056685 0.196039 69 139 60
-0.453539 0.0584697 0.196093 67 132 54
-0.453164 0.0602542 0.196147 66 130 53
-0.452789 0.0620386 0.1962 64 126 50
-0.453086 0.0639701 0.196041 64 123 50
-0.452711 0.0657573 0.196095 67 123 53
-0.453009 0.0676981 0.195935 75 127 56
-0.452633 0.069488 0.195989 86 135 59
-0.452257 0.0712778 0.196043 89 145 64
-0.451881 0.0730675 0.196097 94 154 72
-0.450834 0.0746912 0.196364 96 156 74
-0.450458 0.0764776 0.196418 96 151 71
-0.450753 0.0784357 0.196259 97 147 72
-0.450377 0.0802249 0.196312 89 145 74
-0.450001 0.0820139 0.196366 83 142 81
-0.449625 0.0838029 0.19642 91 138 79
-0.449249 0.0855916 0.196474 90 140 70
-0.448873 0.0873803 0.196528 87 143 69
-0.448498 0.0891688 0.196582 89 146 66
-0.448122 0.0909572 0.196636 95 156 73
-0.447746 0.0927455 0.19669 102 163 75
-0.44737 0.0945336 0.196744 106 168 84
-0.446995 0.0963217 0.196798 111 180 103
-0.446619 0.0981095 0.196851 116 189 111
-0.446908 0.100106 0.196692 118 176 99
-0.447866 0.102322 0.196319 122 170 87
-0.447489 0.104119 0.196373 115 164 79
-0.448452 0.106356 0.195997 108 159 77
-0.448747 0.108384 0.195835 105 161 76
-0.450399 0.110877 0.195238 102 159 75
-0.448663 0.112226 0.195728 102 158 75
-0.446938 0.113566 0.196214 101 156 74
-0.446559 0.115368 0.196269 101 157 75
-0.44618 0.117169 0.196323 102 159 76
-0.445135 0.118729 0.196592 105 163 77
-0.444757 0.120527 0.196646 109 167 78
-0.443715 0.122078 0.196914 114 174 83
-0.443338 0.123873 0.196968 117 177 85
-0.442961 0.125669 0.197022 116 177 85
-0.442584 0.127463 0.197076 120 179 86
-0.442206 0.129258 0.197131 122 181 87
-0.441829 0.131053 0.197185 119 182 87
-0.441452 0.132848 0.197239 117 180 85
-0.440418 0.134374 0.197505 113 177 84
-0.439388 0.135895 0.197771 112 175 81
-0.439012 0.137683 0.197825 110 171 79
-0.438636 0.139471 0.197879 106 169 79
-0.437611 0.140981 0.198143 104 169 77
-0.437236 0.142766 0.198197 103 170 78
-0.434928 0.143703 0.198878 94 163 76
-0.432643 0.144631 0.199552 94 153 68
-0.429755 0.145268 0.200423 99 163 73
-0.428763 0.14674 0.200678 90 154 71
-0.426539 0.14764 0.201335 126 179 83
-0.445837 0.0334391 0.197499 64 60 43
-0.446758 0.0353652 0.197141 63 61 52
-0.447685 0.0373039 0.196781 63 64 48
-0.447967 0.0391519 0.196626 70 92 56
-0.4476 0.0408996 0.196679 91 143 69
-0.447882 0.0427563 0.196524 107 151 76
-0.448819 0.0447318 0.196159 93 142 69
-0.449762 0.0467203 0.195792 81 137 61
-0.452708 0.0490847 0.194783 79 143 60
-0.452335 0.0508611 0.194837 79 142 62
-0.451961 0.0526373 0.19489 70 136 58
-0.451588 0.0544134 0.194944 65 131 59
-0.451215 0.0561894 0.194997 68 127 55
-0.450842 0.0579653 0.195051 70 124 51
-0.451135 0.0598806 0.194891 69 124 51
-0.451429 0.0618023 0.19473 68 124 54
-0.451724 0.0637303 0.194568 72 127 53
-0.45202 0.0656647 0.194406 78 134 58
-0.451644 0.0674519 0.19446 86 145 68
-0.451941 0.0693956 0.194297 88 155 71
-0.451565 0.0711856 0.194351 91 156 73
-0.451189 0.0729754 0.194405 94 160 76
-0.450143 0.0745994 0.194676 99 161 79
-0.449767 0.076386 0.194729 109 164 81
-0.450061 0.0783441 0.194567 137 169 91
-0.449685 0.0801334 0.194621 130 181 91
-0.449309 0.0819226 0.194675 112 183 104
-0.448933 0.0837117 0.194729 118 177 103
-0.448557 0.0855007 0.194783 109 168 91
-0.448181 0.0872894 0.194837 99 166 87
-0.447805 0.0890781 0.194891 96 155 75
-0.44743 0.0908667 0.194945 96 155 75
-0.447054 0.0926551 0.194999 101 159 76
-0.446678 0.0944434 0.195053 105 162 76
-0.446302 0.0962316 0.195107 109 165 78
-0.445927 0.0980196 0.195161 110 168 78
-0.446214 0.100016 0.194999 110 169 81
-0.445838 0.101807 0.195053 112 169 82
-0.446793 0.104029 0.194674 110 166 80
-0.446415 0.105826 0.194728 108 164 79
-0.447375 0.108069 0.194347 108 165 78
-0.446997 0.109872 0.194401 106 165 79
-0.446618 0.111674 0.194456 106 162 78
-0.445571 0.113243 0.194728 105 161 77
-0.445193 0.115042 0.194782 104 164 77
-0.444815 0.116841 0.194836 107 166 78
-0.444437 0.11864 0.194891 110 169 79
-0.443396 0.120194 0.195162 115 172 81
-0.442359 0.121743 0.195432 118 178 85
-0.441982 0.123536 0.195486 121 181 88
-0.441606 0.125328 0.19554 122 182 88
-0.441229 0.12712 0.195594 126 186 89
-0.440853 0.128912 0.195648 127 188 90
-0.440476 0.130704 0.195702 124 187 91
-0.439446 0.132231 0.195971 123 185 90
-0.438419 0.133754 0.196239 118 181 87
-0.438044 0.135539 0.196293 114 176 83
-0.437668 0.137325 0.196346 110 171 80
-0.437293 0.13911 0.1964 107 171 78
-0.436918 0.140895 0.196454 106 169 77
-0.435897 0.142399 0.196721 102 170 77
-0.4336 0.143337 0.197408 90 161 73
-0.431958 0.144546 0.19788 96 160 72
-0.429074 0.145184 0.198762 99 165 74
-0.427463 0.146375 0.199225 93 157 74
-0.425863 0.147557 0.199685 134 184 91
-0.445167 0.0333468 0.195861 64 61 44
-0.446086 0.0352728 0.195498 66 61 44
-0.446365 0.0371116 0.195342 67 60 43
-0.446644 0.0389564 0.195185 69 67 44
-0.446925 0.0408072 0.195028 73 100 52
-0.446557 0.0425549 0.195081 97 150 74
-0.446838 0.0444144 0.194923 118 168 87
-0.447772 0.0463954 0.194553 144 176 85
-0.448711 0.0483894 0.194181 141 169 85
-0.449657 0.0503966 0.193806 134 160 82
-0.449286 0.0521642 0.193859 118 157 80
-0.447601 0.0536743 0.19434 90 153 82
-0.447231 0.0554357 0.194393 83 144 70
-0.446861 0.057197 0.194447 76 137 60
-0.447801 0.0592329 0.194073 71 130 56
-0.448747 0.0612823 0.193696 71 128 55
-0.449036 0.0631999 0.193534 78 133 56
-0.449991 0.0652728 0.193154 79 137 60
-0.450953 0.0673595 0.192771 84 147 64
-0.450578 0.0691467 0.192825 93 161 70
-0.450872 0.0710933 0.19266 98 167 74
-0.450496 0.0728833 0.192714 106 170 80
-0.449451 0.0745076 0.192987 130 176 88
-0.449076 0.0762943 0.193041 126 187 97
-0.448701 0.0780809 0.193095 117 175 99
-0.448325 0.0798674 0.193149 111 166 84
-0.448616 0.0818313 0.192984 107 160 76
-0.447575 0.0834399 0.193256 108 155 75
-0.447865 0.0854097 0.193092 103 157 75
-0.447489 0.0871986 0.193146 102 157 73
-0.447113 0.0889874 0.1932 99 155 75
-0.446737 0.0907762 0.193254 98 156 74
-0.446361 0.0925647 0.193308 100 157 74
-0.445986 0.0943532 0.193362 105 161 75
-0.44561 0.0961416 0.193416 109 165 78
-0.445234 0.0979298 0.19347 110 169 79
-0.444858 0.0997178 0.193524 111 171 82
-0.445144 0.101717 0.19336 114 172 83
-0.444768 0.103508 0.193414 114 170 84
-0.445054 0.105517 0.193249 113 169 84
-0.444678 0.107311 0.193303 111 171 83
-0.444301 0.109104 0.193357 111 171 81
-0.444587 0.111126 0.193192 111 169 80
-0.44421 0.112922 0.193246 111 168 81
-0.443832 0.114718 0.1933 111 170 81
-0.443455 0.116514 0.193355 112 172 82
-0.443078 0.11831 0.193409 114 174 82
-0.442041 0.119863 0.193682 120 178 87
-0.441664 0.121655 0.193736 122 183 89
-0.440631 0.123199 0.194008 125 186 91
-0.440255 0.124988 0.194062 126 188 91
-0.439879 0.126778 0.194116 127 191 91
-0.439504 0.128567 0.19417 126 190 92
-0.438476 0.130096 0.194441 123 187 91
-0.438101 0.131882 0.194495 123 187 90
-0.437726 0.133667 0.194549 121 183 87
-0.437351 0.135453 0.194603 115 176 83
-0.436976 0.137238 0.194657 109 173 81
-0.436601 0.139023 0.194711 107 171 78
-0.436226 0.140809 0.194765 107 169 76
-0.434563 0.142034 0.195249 100 168 73
-0.432912 0.143252 0.19573 87 159 71
-0.431272 0.144461 0.196208 98 167 77
-0.428393 0.1451 0.197101 94 164 76
-0.426784 0.146291 0.19757 98 163 77
-0.425186 0.147474 0.198035 125 179 97
-0.443224 0.0330697 0.194641 63 61 46
-0.444133 0.0349886 0.194275 65 59 41
-0.445049 0.03692 0.193907 66 61 45
-0.445325 0.0387616 0.193748 66 62 42
-0.445603 0.0406091 0.193589 68 67 42
-0.445237 0.0423541 0.193642 70 88 51
-0.44487 0.044099 0.193695 84 115 60
-0.445148 0.045958 0.193535 102 140 71
-0.445426 0.047823 0.193375 108 162 92
-0.445059 0.0495733 0.193428 109 171 100
-0.445338 0.0514471 0.193267 109 185 108
-0.444969 0.0532 0.19332 114 207 114
-0.444601 0.0549528 0.193373 143 185 95
-0.44488 0.0568383 0.193212 114 169 79
-0.444511 0.0585937 0.193265 81 135 63
-0.446746 0.0609079 0.192456 75 135 59
-0.447689 0.062963 0.192074 78 137 60
-0.447976 0.0648835 0.191909 75 136 61
-0.448928 0.066962 0.191524 91 153 66
-0.449886 0.0690545 0.191135 98 165 74
-0.45018 0.071001 0.190967 102 168 79
-0.449804 0.0727912 0.191022 105 171 80
-0.44876 0.0744158 0.191298 114 168 80
-0.448385 0.0762027 0.191352 115 172 82
-0.448009 0.0779895 0.191406 110 169 82
-0.447634 0.0797761 0.19146 106 163 79
-0.447924 0.08174 0.191292 103 165 77
-0.446883 0.0833489 0.191568 107 162 77
-0.447172 0.0853186 0.1914 106 162 74
-0.446796 0.0871078 0.191454 104 160 75
-0.44642 0.0888968 0.191508 105 160 78
-0.446045 0.0906856 0.191563 102 159 75
-0.445669 0.0924744 0.191617 105 162 74
-0.445293 0.094263 0.191671 106 164 78
-0.444917 0.0960515 0.191725 110 168 81
-0.444542 0.0978398 0.191779 113 173 82
-0.444166 0.0996281 0.191833 115 175 83
-0.44379 0.101416 0.191887 119 178 86
-0.443415 0.103204 0.191941 121 179 89
-0.443039 0.104992 0.191995 121 180 89
-0.443322 0.107 0.191828 117 178 87
-0.442946 0.108791 0.191882 116 176 85
-0.44257 0.110581 0.191936 117 174 85
-0.442852 0.112602 0.191769 119 176 87
-0.442476 0.114395 0.191823 118 176 85
-0.442099 0.116188 0.191877 117 176 84
-0.441722 0.117981 0.191932 118 178 84
-0.441346 0.119774 0.191986 120 183 90
-0.440313 0.121322 0.192261 123 185 92
-0.439937 0.123111 0.192315 126 188 91
-0.439561 0.124901 0.192369 128 190 92
-0.439186 0.12669 0.192423 129 190 91
-0.438159 0.128223 0.192697 129 191 92
-0.437784 0.130009 0.192751 127 191 92
-0.437408 0.131795 0.192805 124 186 90
-0.437033 0.13358 0.192859 120 181 86
-0.436658 0.135366 0.192913 114 175 81
-0.436283 0.137152 0.192967 109 173 80
-0.435263 0.138663 0.19324 108 173 78
-0.434247 0.14017 0.193512 107 170 75
-0.433873 0.141949 0.193565 98 165 71
-0.432224 0.143167 0.194052 91 158 71
-0.430586 0.144376 0.194536 103 172 81
-0.428334 0.145296 0.195228 93 162 76
-0.424509 0.147391 0.196385 107 151 95
-0.442193 0.0347063 0.193061 65 57 43
-0.443099 0.0366306 0.19269 70 58 49
-0.444011 0.0385673 0.192316 69 61 46
-0.443646 0.0403069 0.192369 69 60 41
-0.44392 0.042154 0.192208 70 63 41
-0.443554 0.0438962 0.19226 69 72 44
-0.443829 0.0457519 0.192099 71 82 51
-0.443463 0.0474967 0.192152 75 90 52
-0.443096 0.0492414 0.192204 77 93 52
-0.44273 0.050986 0.192257 77 103 55
-0.443004 0.052856 0.192095 80 124 63
-0.442637 0.0546032 0.192148 108 146 77
-0.442912 0.056482 0.191986 123 195 98
-0.443187 0.0583668 0.191823 129 182 86
-0.443463 0.0602578 0.191659 94 140 68
-0.445692 0.0625832 0.190839 82 140 60
-0.446631 0.0646439 0.190452 76 139 56
-0.446917 0.0665672 0.190285 90 158 69
-0.448529 0.0688065 0.18967 99 162 71
-0.448819 0.0707496 0.1895 105 166 77
-0.448444 0.0725368 0.189554 105 168 76
-0.448069 0.074324 0.189608 108 170 79
-0.447693 0.076111 0.189662 108 171 82
-0.447318 0.0778979 0.189716 111 169 78
-0.447607 0.079859 0.189546 109 168 80
-0.447231 0.0816487 0.1896 107 168 79
-0.446855 0.0834382 0.189654 113 169 79
-0.446479 0.0852276 0.189708 111 170 77
-0.446103 0.0870169 0.189763 108 163 77
-0.445728 0.088806 0.189817 110 166 79
-0.445352 0.0905951 0.189871 109 165 77
-0.444976 0.092384 0.189925 108 169 79
-0.445262 0.0943718 0.189755 109 170 80
-0.444886 0.0961635 0.189809 115 174 82
-0.444509 0.0979551 0.189863 116 178 85
-0.443473 0.0995383 0.190142 120 181 86
-0.443098 0.101327 0.190196 122 183 88
-0.442722 0.103115 0.19025 126 188 90
-0.442346 0.104903 0.190304 133 185 91
-0.441971 0.106691 0.190358 127 184 90
-0.441595 0.108478 0.190412 121 181 90
-0.441876 0.110492 0.190243 122 179 90
-0.4415 0.112283 0.190297 118 180 90
-0.441123 0.114073 0.190351 117 179 87
-0.440747 0.115864 0.190405 119 179 85
-0.440371 0.117654 0.190459 120 181 87
-0.439995 0.119444 0.190513 121 187 92
-0.439619 0.121234 0.190568 125 190 94
-0.439243 0.123023 0.190622 126 191 94
-0.438867 0.124813 0.190676 128 192 96
-0.437841 0.126349 0.190953 130 190 93
-0.437466 0.128135 0.191007 133 190 91
-0.437091 0.129922 0.191061 133 191 92
-0.436716 0.131708 0.191115 125 187 90
-0.43634 0.133494 0.191169 117 180 86
-0.435965 0.135279 0.191223 113 176 81
-0.43559 0.137065 0.191277 110 175 80
-0.434571 0.138577 0.191553 107 175 80
-0.432917 0.139809 0.192047 103 170 77
-0.431908 0.141308 0.19232 92 161 71
-0.430271 0.142524 0.192809 97 163 74
-0.428021 0.143454 0.193511 105 171 81
-0.427652 0.145212 0.193564 98 162 74
-0.423832 0.147307 0.194735 97 110 80
-0.441162 0.036343 0.19148 71 60 45
-0.442065 0.0382727 0.191104 70 62 47
-0.442336 0.0401106 0.190941 72 62 38
-0.441971 0.0418474 0.190994 72 61 42
-0.441607 0.043584 0.191046 70 64 45
-0.442515 0.0455465 0.190667 66 64 49
-0.442149 0.0472886 0.19072 67 66 50
-0.441783 0.0490306 0.190772 66 73 47
-0.442055 0.0508946 0.190608 70 72 43
-0.441689 0.0526391 0.190661 72 81 40
-0.441323 0.0543836 0.190714 73 90 52
-0.440956 0.0561279 0.190767 88 132 66
-0.441227 0.0580062 0.190603 121 189 89
-0.4415 0.0598905 0.190438 119 181 87
-0.442416 0.0619221 0.190053 92 143 63
-0.444637 0.0642586 0.189223 72 139 57
-0.445573 0.0663249 0.18883 84 154 65
-0.446515 0.068405 0.188435 96 162 70
-0.447464 0.0704989 0.188037 105 167 74
-0.447752 0.0724449 0.187864 106 170 80
-0.447377 0.0742322 0.187918 108 171 80
-0.447666 0.0761874 0.187745 110 171 81
-0.44729 0.0779775 0.187799 112 173 79
-0.446914 0.0797675 0.187854 120 180 85
-0.446538 0.0815573 0.187908 118 176 83
-0.446162 0.083347 0.187962 119 178 83
-0.445787 0.0851366 0.188016 115 176 82
-0.445411 0.086926 0.18807 114 171 79
-0.445035 0.0887153 0.188125 113 171 80
-0.444659 0.0905045 0.188179 112 171 79
-0.444944 0.0924895 0.188006 112 170 79
-0.444568 0.0942814 0.18806 113 174 83
-0.444192 0.0960733 0.188114 117 178 85
-0.443815 0.097865 0.188169 120 183 89
-0.44278 0.0994485 0.18845 122 185 89
-0.442405 0.101237 0.188504 124 187 91
-0.442029 0.103025 0.188558 128 197 94
-0.441653 0.104813 0.188612 128 187 92
-0.441278 0.106601 0.188667 127 186 90
-0.440902 0.108389 0.188721 122 183 89
-0.440527 0.110177 0.188775 124 185 90
-0.440151 0.111965 0.188829 121 183 91
-0.439776 0.113752 0.188883 121 182 88
-0.4394 0.11554 0.188937 122 182 86
-0.439677 0.117565 0.188765 121 182 88
-0.439301 0.119355 0.18882 124 187 92
-0.438925 0.121146 0.188874 129 193 96
-0.437899 0.122688 0.189154 127 194 98
-0.437524 0.124475 0.189208 125 194 98
-0.437148 0.126262 0.189262 125 192 93
-0.436773 0.128048 0.189316 126 188 89
-0.436398 0.129834 0.189371 125 186 88
-0.436023 0.131621 0.189425 122 183 87
-0.435647 0.133407 0.189479 118 181 86
-0.435272 0.135193 0.189533 115 177 84
-0.434897 0.136979 0.189587 111 176 82
-0.433879 0.138491 0.189865 107 175 79
-0.432228 0.139723 0.190366 100 169 75
-0.43122 0.141223 0.190641 89 160 70
-0.429585 0.142439 0.191136 99 170 78
-0.427962 0.143648 0.191628 102 170 81
-0.440131 0.0379799 0.189899 68 64 48
-0.439768 0.0397085 0.189951 68 62 46
-0.440666 0.0416491 0.18957 68 64 50
-0.440302 0.043383 0.189623 66 62 46
-0.440571 0.0452291 0.189458 66 64 45
-0.440206 0.0469657 0.18951 68 64 47
-0.440474 0.0488204 0.189345 69 63 44
-0.440378 0.052423 0.189232 66 63 38
-0.440648 0.0542925 0.189065 68 67 40
-0.440282 0.056037 0.189118 68 82 53
-0.439915 0.0577813 0.189171 89 132 64
-0.440185 0.0596624 0.189004 128 188 91
-0.440455 0.0615494 0.188837 105 173 82
-0.441368 0.0635865 0.188447 69 139 61
-0.443583 0.0659341 0.187606 75 147 60
-0.44517 0.0681593 0.186981 90 160 72
-0.446112 0.0702491 0.186579 103 169 76
-0.447061 0.0723528 0.186174 105 170 77
-0.446685 0.0741403 0.186228 112 173 81
-0.446973 0.0760956 0.186052 115 176 83
-0.446597 0.0778858 0.186107 117 180 85
-0.446221 0.0796759 0.186161 125 186 89
-0.445845 0.0814659 0.186215 121 180 88
-0.445469 0.0832558 0.186269 116 184 89
-0.445094 0.0850455 0.186324 116 178 86
-0.444718 0.0868351 0.186378 117 176 83
-0.444342 0.0886246 0.186432 117 175 83
-0.444627 0.0906066 0.186256 115 175 83
-0.44425 0.0923989 0.186311 116 176 82
-0.443874 0.094191 0.186365 116 178 86
-0.443498 0.095983 0.186419 120 184 88
-0.443121 0.0977748 0.186474 123 186 90
-0.442087 0.0993587 0.186758 124 189 92
-0.441712 0.101147 0.186812 124 189 94
-0.441336 0.102936 0.186866 125 190 92
-0.44096 0.104724 0.186921 128 191 91
-0.440585 0.106512 0.186975 127 189 91
-0.440209 0.1083 0.187029 124 186 89
-0.439834 0.110088 0.187083 126 187 92
-0.439458 0.111876 0.187138 124 188 100
-0.439083 0.113664 0.187192 123 184 94
-0.438707 0.115451 0.187246 125 186 89
-0.438332 0.117239 0.1873 123 185 88
-0.437956 0.119026 0.187354 123 185 89
-0.437581 0.120813 0.187409 124 189 90
-0.437206 0.1226 0.187463 125 190 90
-0.43683 0.124387 0.187517 125 189 89
-0.436455 0.126174 0.187571 125 189 88
-0.43608 0.127961 0.187626 124 189 89
-0.435705 0.129747 0.18768 122 187 89
-0.435329 0.131534 0.187734 121 184 88
-0.434954 0.13332 0.187788 118 181 86
-0.434579 0.135106 0.187842 115 177 83
-0.434204 0.136892 0.187896 111 175 80
-0.433187 0.138405 0.188178 105 174 77
-0.431538 0.139637 0.188684 96 166 72
-0.430531 0.141137 0.188962 95 162 70
-0.428899 0.142354 0.189463 103 174 80
-0.427278 0.143563 0.18996 100 169 80
-0.439339 0.0540738 0.187638 70 62 37
-0.439607 0.055946 0.187469 64 64 45
-0.439241 0.0576905 0.187522 67 81 54
-0.438874 0.0594349 0.187575 105 136 76
-0.439142 0.0613187 0.187405 133 176 97
-0.439411 0.0632085 0.187235 96 154 77
-0.44032 0.0652511 0.18684 70 140 61
-0.443177 0.0677619 0.18576 84 161 70
-0.444765 0.0700001 0.185125 99 170 77
-0.445048 0.071939 0.184948 109 175 82
-0.445993 0.0740485 0.184538 115 179 85
-0.44628 0.0760037 0.184359 119 184 86
-0.445904 0.0777941 0.184414 122 187 88
-0.445528 0.0795844 0.184468 123 187 90
-0.445152 0.0813745 0.184522 124 188 92
-0.444776 0.0831646 0.184577 123 186 95
-0.444401 0.0849544 0.184631 121 184 89
-0.444025 0.0867442 0.184685 121 180 85
-0.444309 0.0887234 0.184506 121 180 87
-0.443933 0.0905159 0.184561 120 180 90
-0.443556 0.0923083 0.184615 120 182 89
-0.44318 0.0941006 0.18467 127 184 91
-0.442803 0.0958927 0.184724 135 188 89
-0.44177 0.09748 0.185011 131 189 91
-0.441394 0.0992689 0.185066 134 191 91
-0.441019 0.101058 0.18512 127 192 93
-0.440643 0.102846 0.185174 134 195 93
-0.440267 0.104635 0.185229 134 194 94
-0.439892 0.106423 0.185283 131 189 94
-0.439516 0.108211 0.185337 131 185 90
-0.439141 0.109999 0.185392 125 186 90
-0.438765 0.111787 0.185446 130 189 93
-0.43839 0.113575 0.1855 130 189 94
-0.438014 0.115363 0.185554 127 188 92
-0.437639 0.117151 0.185609 125 188 90
-0.437263 0.118938 0.185663 124 189 90
-0.436888 0.120725 0.185717 124 192 89
-0.436513 0.122513 0.185772 125 191 90
-0.436137 0.1243 0.185826 125 189 89
-0.436409 0.12634 0.185649 125 189 89
-0.436033 0.12813 0.185703 125 188 89
-0.435011 0.12966 0.185989 123 186 88
-0.434636 0.131447 0.186043 120 183 87
-0.434261 0.133233 0.186097 117 180 85
-0.433886 0.13502 0.186151 114 178 81
-0.433511 0.136806 0.186206 110 176 78
-0.432495 0.138318 0.18649 99 171 75
-0.430848 0.139552 0.187001 91 165 71
-0.429843 0.141052 0.187283 102 170 74
-0.428213 0.142269 0.187789 107 176 81
-0.438299 0.0557247 0.186044 69 65 41
-0.438566 0.0575997 0.185872 65 67 43
-0.438199 0.0593442 0.185925 74 99 53
-0.437833 0.0610887 0.185979 113 162 79
-0.438099 0.0629752 0.185806 130 181 99
-0.439003 0.0650138 0.185407 92 149 71
-0.439272 0.0669159 0.185234 77 150 63
-0.44277 0.069596 0.183909 91 170 71
-0.443703 0.0716873 0.183497 109 180 80
-0.444642 0.0737925 0.183083 119 188 90
-0.444926 0.0757442 0.182902 123 190 92
-0.445211 0.0777024 0.18272 127 191 90
-0.444835 0.0794928 0.182775 129 195 90
-0.444459 0.0812831 0.182829 124 196 97
-0.444083 0.0830733 0.182884 120 186 97
-0.443707 0.0848633 0.182938 122 187 91
-0.443991 0.0868396 0.182756 124 183 87
-0.443615 0.0886324 0.182811 124 187 91
-0.443238 0.0904251 0.182865 122 190 97
-0.442862 0.0922177 0.18292 122 192 99
-0.442485 0.0940101 0.182974 125 190 97
-0.441452 0.0956009 0.183264 129 188 95
-0.441077 0.09739 0.183319 134 190 93
-0.440701 0.0991791 0.183373 138 192 94
-0.440325 0.100968 0.183428 136 192 97
-0.43995 0.102757 0.183482 135 194 95
-0.439574 0.104545 0.183536 138 197 97
-0.439198 0.106334 0.183591 135 193 96
-0.438823 0.108122 0.183645 135 189 92
-0.438447 0.109911 0.183699 130 185 92
-0.438072 0.111699 0.183754 125 187 91
-0.437696 0.113487 0.183808 124 192 99
-0.437321 0.115275 0.183862 124 189 97
-0.436945 0.117062 0.183917 125 188 92
-0.43657 0.11885 0.183971 125 189 90
-0.436195 0.120637 0.184025 125 189 89
-0.435819 0.122425 0.18408 124 189 89
-0.435444 0.124212 0.184134 124 189 90
-0.435714 0.126252 0.183954 125 188 90
-0.435338 0.128042 0.184009 125 186 89
-0.434962 0.129832 0.184063 123 184 88
-0.433943 0.13136 0.184351 119 183 86
-0.433568 0.133146 0.184406 116 180 84
-0.433192 0.134933 0.18446 112 178 83
-0.432817 0.136719 0.184514 106 175 80
-0.431803 0.138232 0.184802 95 167 73
-0.430158 0.139466 0.185319 94 165 71
-0.428525 0.140691 0.185833 107 177 79
-0.426902 0.141908 0.186343 106 175 82
-0.43726 0.0573758 0.18445 66 66 43
-0.437524 0.0592535 0.184276 63 73 50
-0.437158 0.0609981 0.184329 80 122 55
-0.436792 0.0627425 0.184382 124 187 86
-0.437056 0.0646318 0.184207 125 189 91
-0.437956 0.0666759 0.183803 88 152 69
-0.438862 0.0687335 0.183396 81 162 65
-0.441712 0.0712777 0.182286 98 176 77
-0.442641 0.0733747 0.181869 113 188 86
-0.443576 0.0754856 0.181449 121 194 93
-0.443859 0.0774402 0.181265 124 193 93
-0.443483 0.0792277 0.18132 129 197 93
-0.443766 0.0811917 0.181136 126 194 93
-0.44339 0.082982 0.18119 126 192 94
-0.443014 0.0847722 0.181245 126 188 93
-0.443297 0.0867485 0.18106 124 187 90
-0.44292 0.0885415 0.181114 128 191 93
-0.442544 0.0903343 0.181169 127 189 92
-0.442167 0.092127 0.181224 125 188 89
-0.441135 0.0937213 0.181517 127 189 90
-0.440759 0.0955107 0.181571 126 190 93
-0.440383 0.0973001 0.181626 129 192 93
-0.440008 0.0990892 0.18168 133 192 93
-0.439632 0.100878 0.181735 133 194 94
-0.439256 0.102667 0.181789 130 188 91
-0.438881 0.104456 0.181844 129 190 92
-0.438505 0.106245 0.181898 126 193 102
-0.438129 0.108033 0.181953 129 187 92
-0.437754 0.109822 0.182007 124 184 88
-0.437378 0.11161 0.182061 119 183 87
-0.437003 0.113398 0.182116 119 182 87
-0.436627 0.115186 0.18217 121 184 88
