ply
format ascii 1.0
element vertex 1259
property float x
property float y
property float z
property uchar diffuse_red
property uchar diffuse_green
property uchar diffuse_blue
end_header
-0.401706 0.142945 0.26575 164 237 117
-0.400368 0.143994 0.26596 163 235 119
-0.397039 0.144062 0.266497 165 235 119
-0.394256 0.14437 0.266944 165 236 118
-0.393938 0.145879 0.266988 165 237 118
-0.391196 0.146172 0.267428 166 237 117
-0.389922 0.147184 0.267628 166 237 117
-0.389607 0.148678 0.267672 166 237 118
-0.389292 0.150172 0.267715 165 238 119
-0.388978 0.151666 0.267758 167 240 119
-0.388663 0.15316 0.267801 166 237 121
-0.376648 0.161349 0.269696 165 242 130
-0.375453 0.162287 0.269884 164 243 130
-0.375148 0.163735 0.269926 166 240 125
-0.374401 0.164923 0.270041 168 230 118
-0.374096 0.166368 0.270082 168 218 110
-0.374233 0.168077 0.270051 171 208 108
-0.373928 0.169524 0.270093 170 192 108
-0.373624 0.170971 0.270135 126 130 84
-0.372879 0.172148 0.270249 90 82 60
-0.372574 0.173593 0.270291 69 60 47
-0.405249 0.131239 0.263681 71 68 55
-0.404924 0.132785 0.263726 69 73 57
-0.405114 0.134563 0.263684 83 92 67
-0.404788 0.136112 0.263729 128 165 97
-0.403947 0.137423 0.26386 158 220 117
-0.403107 0.138731 0.263991 163 232 119
-0.402782 0.140274 0.264036 162 234 117
-0.401437 0.141334 0.264252 163 233 117
-0.399091 0.141906 0.264636 163 235 119
-0.396772 0.142471 0.265016 162 235 116
-0.393991 0.14279 0.265474 162 237 117
-0.391731 0.143342 0.265844 164 235 118
-0.389975 0.144126 0.26613 164 235 118
-0.38966 0.14562 0.266173 166 236 117
-0.389345 0.147115 0.266217 166 237 117
-0.38903 0.148609 0.26626 161 235 116
-0.388715 0.150103 0.266303 159 232 114
-0.388401 0.151598 0.266346 162 232 114
-0.387611 0.152841 0.266469 164 232 116
-0.387771 0.154585 0.266432 166 234 115
-0.377737 0.160594 0.268056 165 231 118
-0.376981 0.161795 0.268173 163 229 116
-0.376227 0.162993 0.268291 163 230 115
-0.375476 0.164187 0.268408 164 230 115
-0.37517 0.165638 0.26845 163 229 116
-0.374864 0.16709 0.268492 162 227 118
-0.374558 0.168541 0.268534 159 222 120
-0.374253 0.169992 0.268576 138 201 113
-0.373947 0.171443 0.268618 121 150 87
-0.3732 0.172623 0.268734 94 90 62
-0.372895 0.174072 0.268776 74 61 49
-0.403624 0.130712 0.262398 70 69 57
-0.4033 0.132254 0.262443 70 85 59
-0.403487 0.134027 0.262399 113 152 84
-0.403162 0.135571 0.262444 150 215 112
-0.402325 0.136879 0.262577 160 232 120
-0.402001 0.138421 0.262621 161 231 117
-0.400659 0.139485 0.262841 161 231 116
-0.398823 0.140304 0.263147 161 232 117
-0.396506 0.140879 0.263535 160 232 117
-0.393239 0.140974 0.264088 159 233 116
-0.391468 0.141771 0.264383 160 234 116
-0.389712 0.142562 0.264675 162 232 116
-0.388921 0.143819 0.2648 163 233 117
-0.388132 0.145072 0.264926 168 234 119
-0.388292 0.146804 0.264887 158 226 114
-0.387978 0.148296 0.26493 140 209 104
-0.387664 0.149788 0.264973 131 201 99
-0.387349 0.15128 0.265016 131 198 97
-0.387035 0.152773 0.265059 133 196 97
-0.387194 0.154517 0.265021 134 197 98
-0.385306 0.163479 0.26528 132 211 113
-0.377623 0.160784 0.2666 133 217 116
-0.376866 0.161986 0.26672 137 220 116
-0.376559 0.163444 0.266762 145 223 114
-0.375805 0.164641 0.266881 148 221 114
-0.375053 0.165834 0.267001 145 216 112
-0.375192 0.167552 0.266966 138 208 109
-0.374885 0.169008 0.267008 122 188 97
-0.374579 0.170463 0.26705 93 151 76
-0.373828 0.171648 0.267169 111 150 76
-0.373522 0.173101 0.267211 91 90 61
-0.373216 0.174554 0.267253 74 63 50
-0.40303 0.130639 0.260942 67 69 58
-0.402705 0.132181 0.260986 90 111 67
-0.40238 0.133723 0.261031 135 193 100
-0.402055 0.135265 0.261076 151 223 113
-0.401221 0.136572 0.26121 152 223 114
-0.40039 0.137876 0.261345 153 222 113
-0.399057 0.138939 0.261568 153 223 113
-0.396239 0.139286 0.262054 153 225 113
-0.392974 0.139395 0.26262 152 227 113
-0.391205 0.1402 0.262921 152 227 112
-0.38945 0.140997 0.263219 152 228 112
-0.388659 0.142257 0.263347 158 228 110
-0.38787 0.143513 0.263474 164 231 115
-0.387556 0.145003 0.263517 161 231 122
-0.387242 0.146494 0.26356 123 179 93
-0.387402 0.148227 0.26352 88 139 66
-0.387087 0.14972 0.263563 74 130 59
-0.387246 0.15146 0.263522 73 131 59
-0.386932 0.152954 0.263565 76 135 62
-0.402485 0.162922 0.260791 78 137 67
-0.379632 0.160536 0.264774 83 149 70
-0.377509 0.160974 0.265139 83 149 69
-0.376751 0.162178 0.265262 86 149 71
-0.376444 0.163638 0.265304 89 147 72
-0.375689 0.164836 0.265426 91 144 69
-0.375382 0.166294 0.265468 89 138 65
-0.375075 0.167752 0.26551 86 133 59
-0.374768 0.169209 0.265552 80 133 55
-0.374461 0.170667 0.265595 78 140 57
-0.374154 0.172124 0.265637 107 152 72
-0.373403 0.173309 0.265758 86 88 61
-0.373096 0.174764 0.2658 71 65 51
-0.401924 0.130341 0.259577 67 71 61
-0.4016 0.131881 0.259622 115 146 81
-0.401276 0.13342 0.259667 139 199 102
-0.400444 0.134729 0.259803 142 209 104
-0.40012 0.136266 0.259848 141 208 105
-0.398788 0.137334 0.260076 143 209 105
-0.397464 0.138395 0.260302 143 210 105
-0.393685 0.13828 0.260974 144 212 105
-0.390941 0.138628 0.261458 144 213 105
-0.389188 0.139432 0.261763 144 215 105
-0.388397 0.140694 0.261893 143 213 106
-0.388083 0.142187 0.261936 145 214 106
-0.387295 0.143443 0.262065 152 214 111
-0.386981 0.144934 0.262109 116 177 99
-0.387139 0.146666 0.262066 76 131 60
-0.387299 0.148402 0.262023 54 115 41
-0.386984 0.149897 0.262066 46 113 40
-0.401503 0.159175 0.259409 46 113 41
-0.402209 0.161285 0.259266 51 113 43
-0.40292 0.163406 0.259122 58 113 48
-0.402589 0.164976 0.259168 60 115 45
-0.401739 0.166263 0.259308 61 117 47
-0.401409 0.16783 0.259353 61 118 50
-0.401078 0.169398 0.259399 62 119 51
-0.398179 0.169527 0.259913 63 120 50
-0.384152 0.163343 0.262456 62 121 50
-0.378299 0.161681 0.263509 61 122 51
-0.376636 0.16237 0.263799 61 123 52
-0.376328 0.163832 0.263842 63 125 52
-0.375572 0.165032 0.263966 62 126 50
-0.375264 0.166492 0.264008 61 128 51
-0.374957 0.167952 0.26405 66 131 53
-0.374649 0.169412 0.264093 77 138 59
-0.374342 0.170871 0.264135 96 148 68
-0.374035 0.172331 0.264177 113 146 79
-0.373727 0.17379 0.26422 83 76 60
-0.37342 0.17525 0.264262 69 64 52
-0.401655 0.128727 0.258078 67 66 59
-0.40133 0.130268 0.258123 72 79 64
-0.400499 0.131581 0.258262 121 171 89
-0.400175 0.133119 0.258306 131 191 92
-0.399346 0.134426 0.258445 131 193 94
-0.398519 0.135729 0.258583 131 194 96
-0.397695 0.137028 0.25872 133 195 96
-0.395385 0.137622 0.259135 134 196 95
-0.391643 0.137515 0.259816 134 198 95
-0.389403 0.138096 0.260218 133 199 96
-0.388611 0.139362 0.26035 133 201 97
-0.387821 0.140625 0.260482 134 201 97
-0.387506 0.142118 0.260525 138 201 97
-0.387192 0.143611 0.260568 137 195 102
-0.386877 0.145104 0.260612 91 137 67
-0.387036 0.146838 0.260567 65 122 52
-0.387196 0.148577 0.260522 61 119 53
-0.401229 0.157542 0.257889 63 113 54
-0.401934 0.159647 0.257741 65 108 54
-0.402644 0.161764 0.257592 68 108 54
-0.401793 0.163056 0.257735 69 109 53
-0.400945 0.164344 0.257877 71 111 52
-0.400616 0.165909 0.257923 71 109 52
-0.400286 0.167474 0.257968 67 107 53
-0.399956 0.16904 0.258013 65 107 52
-0.398088 0.169742 0.258346 64 107 52
-0.393726 0.169018 0.259146 62 108 53
-0.380472 0.163178 0.261608 60 109 54
-0.377422 0.163083 0.262164 61 111 54
-0.376662 0.164289 0.262291 65 111 53
-0.375454 0.165229 0.262501 66 113 53
-0.375146 0.166691 0.262544 67 119 55
-0.374839 0.168153 0.262586 74 129 64
-0.374531 0.169615 0.262629 83 141 77
-0.374223 0.171076 0.262671 86 138 84
-0.37347 0.172266 0.262797 74 95 74
-0.373163 0.173725 0.262839 69 64 46
-0.372855 0.175185 0.262882 65 62 46
-0.40106 0.128654 0.256623 68 70 59
-0.400229 0.12997 0.256764 83 96 62
-0.399905 0.131508 0.256809 112 168 86
-0.399077 0.132818 0.256949 118 176 84
-0.398251 0.134124 0.25709 119 177 86
-0.397928 0.135657 0.257134 119 180 88
-0.397105 0.136956 0.257274 121 181 87
-0.393814 0.137086 0.257884 123 182 86
-0.390098 0.136985 0.258576 123 183 86
-0.388348 0.137797 0.258893 121 184 88
-0.387558 0.139062 0.259027 121 185 88
-0.387244 0.140555 0.25907 124 186 88
-0.38693 0.142048 0.259114 132 188 90
-0.386615 0.143541 0.259157 117 175 98
-0.386774 0.145274 0.25911 73 121 56
-0.386459 0.146769 0.259154 73 126 55
-0.401989 0.156443 0.25617 71 108 58
-0.402699 0.158551 0.256017 68 80 53
-0.402368 0.160121 0.256062 68 68 50
-0.402558 0.161969 0.256008 68 67 50
-0.401706 0.163262 0.256153 68 69 48
-0.400857 0.164552 0.256298 69 71 45
-0.40001 0.165838 0.256443 69 72 49
-0.398142 0.166555 0.256783 64 76 54
-0.397304 0.167829 0.256926 63 77 54
-0.396977 0.169385 0.256971 64 81 55
-0.393131 0.168948 0.25769 64 85 54
-0.386467 0.166865 0.258949 63 87 52
-0.380048 0.164858 0.260163 65 86 52
-0.376997 0.164748 0.260731 66 83 54
-0.376236 0.165953 0.26086 67 83 51
-0.375477 0.167155 0.260989 67 83 48
-0.375168 0.168621 0.261032 69 85 49
-0.374859 0.170088 0.261074 71 82 53
-0.374103 0.171282 0.261203 71 73 53
-0.373795 0.172746 0.261245 67 64 47
-0.373042 0.173935 0.261373 64 63 45
-0.399959 0.128359 0.255266 74 69 55
-0.399636 0.129897 0.255311 86 104 62
-0.398807 0.131209 0.255454 102 158 78
-0.398484 0.132745 0.255498 104 157 76
-0.397659 0.134051 0.255641 106 160 76
-0.396836 0.135353 0.255783 106 164 78
-0.396016 0.136651 0.255925 107 166 78
-0.392251 0.136554 0.256641 109 167 78
-0.388562 0.136458 0.257343 110 167 79
-0.387771 0.137727 0.257479 110 167 80
-0.386982 0.138992 0.257616 110 168 80
-0.386667 0.140485 0.257659 115 171 81
-0.386353 0.141979 0.257702 125 176 83
-0.386511 0.143709 0.257653 92 150 84
-0.386196 0.145205 0.257697 60 116 49
-0.40068 0.154275 0.254846 78 134 59
-0.402423 0.156908 0.254486 78 119 68
-0.402092 0.158478 0.254532 73 87 59
-0.402804 0.160599 0.254373 68 67 51
-0.402472 0.162174 0.254419 65 65 51
-0.401619 0.163469 0.254567 67 65 49
-0.400251 0.16448 0.254816 72 68 44
-0.399405 0.165766 0.254962 72 67 47
-0.397539 0.166483 0.255309 66 64 50
-0.395186 0.166914 0.255752 64 63 52
-0.39286 0.167339 0.256189 64 64 52
-0.388609 0.166651 0.257004 63 66 47
-0.388289 0.168173 0.257048 64 66 44
-0.38179 0.166128 0.258305 67 64 47
-0.379162 0.166274 0.258803 65 64 52
-0.377478 0.166951 0.259116 64 65 47
-0.376261 0.16789 0.259337 65 66 46
-0.375499 0.169093 0.259468 65 66 44
-0.37519 0.170563 0.259511 65 63 43
-0.374431 0.17176 0.259642 64 60 43
-0.374122 0.173228 0.259685 62 60 45
-0.399366 0.128286 0.253812 73 72 55
-0.398538 0.129601 0.253958 81 104 61
-0.398215 0.131137 0.254002 87 137 68
-0.397891 0.132672 0.254047 88 139 68
-0.396567 0.13375 0.254291 90 143 70
-0.395747 0.135051 0.254435 94 148 70
-0.39493 0.136347 0.254579 96 149 70
-0.390698 0.136024 0.255404 97 149 71
-0.387508 0.136161 0.256022 99 150 73
-0.387193 0.137657 0.256066 100 150 73
-0.386405 0.138922 0.256204 99 151 72
-0.38609 0.140416 0.256247 106 158 74
-0.386248 0.142144 0.256196 117 165 76
-0.385933 0.14364 0.25624 75 132 68
-0.385618 0.145135 0.256283 50 116 47
-0.400077 0.154203 0.253369 67 134 60
-0.401816 0.156835 0.253001 95 134 79
-0.401485 0.158406 0.253046 89 91 67
-0.402195 0.160526 0.252884 73 66 50
-0.398772 0.128213 0.252358 64 75 60
-0.397945 0.129528 0.252506 69 98 59
-0.397622 0.131064 0.252551 72 119 57
-0.397298 0.1326 0.252595 77 123 56
-0.395976 0.133677 0.252844 80 126 59
-0.394662 0.134749 0.253091 83 129 61
-0.39434 0.136276 0.253136 84 130 62
-0.389633 0.135725 0.254076 85 132 63
-0.38693 0.136091 0.254608 85 132 65
-0.386615 0.137587 0.254651 86 132 64
-0.3863 0.139083 0.254695 86 135 64
-0.385985 0.140579 0.254739 94 146 69
-0.38567 0.142075 0.254782 105 153 72
-0.385356 0.14357 0.254826 66 121 58
-0.385985 0.145546 0.254676 42 115 47
-0.394414 0.151534 0.252929 54 126 55
-0.399144 0.155693 0.251938 101 155 79
-0.400878 0.158333 0.251561 113 136 78
-0.401586 0.160454 0.251394 96 89 64
-0.401255 0.162029 0.25144 75 64 55
-0.400403 0.163325 0.251592 66 66 51
-0.398178 0.128139 0.250904 66 71 53
-0.397854 0.129678 0.250949 67 90 55
-0.397029 0.130991 0.251099 69 107 51
-0.396706 0.132527 0.251144 69 109 50
-0.395385 0.133605 0.251397 70 111 52
-0.394072 0.134677 0.251648 70 111 54
-0.393751 0.136204 0.251693 71 114 54
-0.389051 0.135655 0.252652 73 116 53
-0.386352 0.136021 0.253193 72 118 54
-0.386037 0.137517 0.253237 74 118 54
-0.385722 0.139013 0.253281 75 120 57
-0.385408 0.140509 0.253324 86 131 65
-0.385093 0.142005 0.253368 98 141 69
-0.385249 0.143738 0.253313 61 114 53
-0.38588 0.145718 0.253159 39 112 42
-0.393819 0.151462 0.251474 45 120 47
-0.398029 0.155355 0.250568 76 151 66
-0.400271 0.158261 0.250075 113 174 87
-0.400977 0.160381 0.249904 125 149 87
-0.400646 0.161957 0.24995 112 112 77
-0.398592 0.12851 0.249235 64 71 55
-0.398267 0.130053 0.24928 64 84 53
-0.397439 0.13137 0.249433 69 102 47
-0.397115 0.13291 0.249478 69 102 48
-0.395789 0.133991 0.249736 66 103 49
-0.393976 0.134834 0.250099 67 104 48
-0.393161 0.136132 0.250249 67 106 49
-0.388469 0.135584 0.251227 66 108 49
-0.385775 0.135951 0.251779 67 109 48
-0.38546 0.137447 0.251823 67 109 49
-0.385145 0.138943 0.251866 68 110 52
-0.38483 0.140439 0.25191 82 123 60
-0.384986 0.142171 0.251853 91 132 64
-0.385142 0.143907 0.251796 58 114 50
-0.385773 0.14589 0.251637 35 109 36
-0.393224 0.151391 0.250018 36 115 42
-0.397427 0.155283 0.249093 51 126 54
-0.399663 0.158188 0.248589 85 165 76
-0.39985 0.160034 0.248525 114 178 95
-0.399518 0.161607 0.248571 117 172 106
-0.398671 0.162902 0.248727 113 156 100
-0.397314 0.163914 0.248993 118 141 83
-0.396473 0.165199 0.249149 129 138 74
-0.394623 0.165918 0.249521 126 116 70
-0.392789 0.166631 0.24989 107 94 68
-0.390972 0.167338 0.250255 83 73 71
-0.390153 0.168599 0.250407 70 66 64
-0.388846 0.169574 0.250663 65 66 56
-0.388035 0.170826 0.250813 66 66 48
-0.387225 0.172075 0.250962 71 67 42
-0.400027 0.129332 0.247335 66 71 56
-0.3997 0.130884 0.24738 67 82 51
-0.398357 0.131979 0.247647 70 102 49
-0.397022 0.133066 0.247912 68 101 47
-0.396195 0.134378 0.248066 64 103 51
-0.39388 0.134992 0.248546 66 105 49
-0.393064 0.136292 0.248698 68 103 49
-0.388366 0.135741 0.249697 68 105 50
-0.385669 0.136107 0.250261 68 105 49
-0.384882 0.137377 0.250408 69 106 49
-0.384567 0.138873 0.250451 68 108 52
-0.384722 0.140603 0.250392 80 119 58
-0.384878 0.142337 0.250333 85 129 62
-0.385035 0.144076 0.250274 57 118 54
-0.386143 0.146305 0.250006 37 109 38
-0.392134 0.151065 0.24867 39 114 44
-0.395809 0.154683 0.24784 53 120 50
-0.398541 0.157845 0.247216 77 145 62
-0.399241 0.159961 0.247036 102 176 87
-0.39891 0.161535 0.247082 118 191 103
-0.398064 0.16283 0.247241 130 189 97
-0.396708 0.163842 0.247512 139 182 87
-0.395869 0.165127 0.247669 139 177 89
-0.394021 0.165847 0.248048 130 175 98
-0.39219 0.166561 0.248424 113 173 104
-0.390375 0.167268 0.248796 112 173 104
-0.389557 0.168529 0.248949 124 166 91
-0.388742 0.169787 0.249102 139 156 81
-0.387929 0.17104 0.249255 138 134 74
-0.386633 0.172005 0.249514 124 109 71
-0.385827 0.17325 0.249665 96 80 69
-0.385505 0.174779 0.249709 72 70 69
-0.384221 0.175729 0.249966 71 76 61
-0.383422 0.176963 0.250116 82 78 52
-0.38215 0.177902 0.25037 83 74 48
-0.381357 0.179127 0.250518 80 70 50
-0.37823 0.178892 0.251182 71 64 52
-0.37699 0.179813 0.251429 60 58 50
-0.40045 0.129709 0.24564 67 69 54
-0.400122 0.131266 0.245685 70 84 50
-0.398774 0.132363 0.245958 72 110 51
-0.397434 0.133453 0.246229 69 108 48
-0.396101 0.134537 0.246498 68 108 51
-0.393288 0.13492 0.247097 68 107 51
-0.392966 0.136452 0.247142 69 105 49
-0.387783 0.13567 0.24827 68 105 50
-0.385562 0.136264 0.248738 67 105 50
-0.384774 0.137536 0.248888 67 106 50
-0.384459 0.139034 0.248932 66 107 51
-0.384614 0.140766 0.24887 77 118 55
-0.384771 0.142503 0.248809 81 129 61
-0.385402 0.144485 0.248641 63 124 59
-0.386993 0.146968 0.248259 52 113 47
-0.390555 0.150486 0.247436 56 121 53
-0.394201 0.154086 0.246594 75 138 61
-0.397934 0.157773 0.245732 103 160 71
-0.39915 0.160163 0.245432 121 176 79
-0.399336 0.162017 0.245362 130 180 81
-0.39797 0.163036 0.24564 133 183 82
-0.396102 0.16377 0.24603 131 186 88
-0.395264 0.165056 0.24619 127 190 97
-0.393419 0.165776 0.246575 123 198 104
-0.39159 0.16649 0.246957 120 200 103
-0.389778 0.167198 0.247336 127 197 98
-0.388961 0.168459 0.247492 138 190 93
-0.388147 0.169717 0.247647 142 187 92
-0.387335 0.170971 0.247801 141 190 98
-0.38604 0.171936 0.248065 137 196 107
-0.385235 0.173181 0.248218 135 201 110
-0.384913 0.17471 0.248263 136 189 100
-0.384111 0.175949 0.248416 153 184 91
-0.38331 0.177185 0.248568 159 164 88
-0.382513 0.178416 0.24872 146 137 83
-0.380771 0.179059 0.249084 124 116 83
-0.379512 0.179988 0.24934 102 101 80
-0.377332 0.180327 0.249804 79 83 65
-0.376555 0.181537 0.249952 61 61 45
-0.400361 0.129861 0.244051 68 71 51
-0.400033 0.131421 0.244097 73 93 53
-0.399193 0.13275 0.244259 81 120 57
-0.397848 0.133842 0.244536 81 120 55
-0.396007 0.134695 0.244925 77 120 55
-0.393191 0.135078 0.245537 76 118 55
-0.392374 0.13638 0.245694 76 115 55
-0.3872 0.135599 0.246842 73 115 53
-0.385455 0.136421 0.247211 72 113 52
-0.384666 0.137695 0.247363 70 112 51
-0.38435 0.139196 0.247407 69 112 51
-0.384506 0.140931 0.247344 79 121 55
-0.385136 0.142908 0.247172 81 131 61
-0.38577 0.144897 0.246999 65 126 59
-0.387369 0.147389 0.246607 56 114 48
-0.389963 0.150415 0.245986 61 125 56
-0.393101 0.153754 0.245241 76 145 69
-0.397327 0.1577 0.244247 91 157 72
-0.399577 0.160642 0.243704 103 164 74
-0.399244 0.162223 0.243751 109 168 77
-0.398393 0.163523 0.243915 109 171 81
-0.397031 0.164538 0.244197 110 176 88
-0.395167 0.165265 0.244594 108 180 93
-0.39332 0.165985 0.244987 108 183 95
-0.390991 0.166419 0.245491 109 184 94
-0.389181 0.167127 0.245876 114 185 95
-0.388365 0.168389 0.246034 119 186 95
-0.387551 0.169647 0.246191 126 190 96
-0.38674 0.170901 0.246348 132 196 99
-0.385448 0.171867 0.246615 138 201 101
-0.384643 0.173112 0.246771 146 204 102
-0.384321 0.174642 0.246816 155 211 106
-0.38352 0.175881 0.246971 161 215 109
-0.383198 0.177408 0.247015 163 222 118
-0.382399 0.178641 0.24717 165 238 130
-0.380656 0.179284 0.247542 166 233 127
-0.379865 0.180507 0.247695 155 200 109
-0.378609 0.181432 0.247955 126 138 81
-0.376897 0.182056 0.24832 79 62 54
-0.376118 0.183265 0.24847 62 59 41
-0.400272 0.130014 0.242458 71 76 52
-0.39943 0.131347 0.242622 81 107 59
-0.399102 0.132907 0.242668 91 135 67
-0.397755 0.134 0.24295 92 135 66
-0.396416 0.135087 0.24323 90 135 64
-0.393588 0.135469 0.243856 89 133 64
-0.391783 0.136307 0.244245 87 131 63
-0.386617 0.135528 0.245415 85 130 62
-0.385348 0.136579 0.24568 81 126 60
-0.384558 0.137854 0.245834 81 122 57
-0.384714 0.13959 0.245768 78 122 57
-0.384871 0.141331 0.245702 86 128 57
-0.385504 0.143315 0.245525 81 129 61
-0.38662 0.145554 0.245236 56 114 52
-0.388231 0.148061 0.244831 36 99 30
-0.390351 0.150851 0.244308 36 105 35
-0.392503 0.153682 0.243776 43 111 43
-0.40034 0.159537 0.241919 52 116 47
-0.405845 0.164233 0.240604 57 120 50
-0.405505 0.165846 0.240652 61 124 53
-0.403557 0.166585 0.241075 63 131 58
-0.401627 0.167318 0.241493 66 138 64
-0.397118 0.166608 0.242515 70 144 70
-0.394231 0.16676 0.243158 73 145 73
-0.391387 0.16691 0.243791 77 147 76
-0.388584 0.167057 0.244416 82 152 75
-0.387769 0.168319 0.244576 85 151 71
-0.386956 0.169577 0.244735 92 152 71
-0.386146 0.170832 0.244894 95 154 73
-0.384373 0.171514 0.245279 99 158 76
-0.384051 0.173044 0.245324 103 163 83
-0.383729 0.174573 0.245368 106 173 92
-0.382928 0.175812 0.245526 111 184 101
-0.382607 0.177339 0.24557 114 193 106
-0.381809 0.178573 0.245727 117 197 110
-0.381014 0.179803 0.245883 111 187 104
-0.38022 0.181029 0.246039 110 173 92
-0.379429 0.182251 0.246194 103 141 77
-0.378173 0.183172 0.246459 76 84 61
-0.37646 0.183791 0.246831 66 60 43
-0.399997 0.128378 0.240935 68 65 52
-0.399669 0.12994 0.240981 78 84 55
-0.39934 0.131502 0.241027 94 126 66
-0.3985 0.132833 0.241193 99 150 75
-0.397155 0.133927 0.24148 100 149 73
-0.396322 0.135248 0.241645 100 148 71
-0.39349 0.135628 0.242283 98 147 71
-0.391191 0.136235 0.242796 96 146 70
-0.386989 0.135914 0.24376 95 144 69
-0.38524 0.136737 0.244144 92 142 69
-0.384923 0.138245 0.244188 92 138 66
-0.384606 0.139753 0.244232 89 136 65
-0.385238 0.141733 0.244051 96 139 66
-0.386353 0.143966 0.243755 84 132 64
-0.387478 0.146217 0.243457 55 114 49
-0.3891 0.148739 0.24304 37 103 31
-0.39223 0.152061 0.242265 34 106 29
-0.410272 0.163221 0.237945 36 108 28
-0.410482 0.165146 0.237861 34 110 29
-0.410138 0.166782 0.237909 36 110 33
-0.409794 0.168417 0.237957 41 111 34
-0.40945 0.170052 0.238005 42 112 37
-0.409106 0.171687 0.238053 44 112 38
-0.408211 0.173017 0.238232 47 113 41
-0.401393 0.17103 0.239824 49 113 45
-0.398952 0.171446 0.240372 51 114 48
-0.390458 0.168394 0.242366 53 117 44
-0.387662 0.16853 0.243 56 118 45
-0.386848 0.16979 0.243163 58 120 47
-0.385551 0.170763 0.24344 58 124 50
-0.383781 0.171445 0.243831 58 128 54
-0.383459 0.172975 0.243876 63 132 56
-0.383137 0.174504 0.243921 67 135 58
-0.382337 0.175744 0.24408 69 139 60
-0.382016 0.177271 0.244125 73 138 60
-0.381695 0.178798 0.24417 75 138 60
-0.380898 0.180029 0.244329 72 135 57
-0.380104 0.181257 0.244487 79 140 60
-0.379783 0.182779 0.244532 86 135 70
-0.378992 0.184001 0.244689 80 102 72
-0.377268 0.184618 0.245071 65 59 48
-0.399394 0.128303 0.239457 67 66 55
-0.399065 0.129866 0.239503 86 100 62
-0.398226 0.131199 0.239672 107 148 73
-0.397897 0.132759 0.239718 109 163 78
-0.396554 0.133853 0.240009 109 161 77
-0.395722 0.135174 0.240177 109 160 76
-0.392895 0.135556 0.240826 107 158 77
-0.390599 0.136163 0.241347 105 159 76
-0.386883 0.136072 0.242212 105 157 74
-0.385132 0.136896 0.242603 104 154 75
-0.384815 0.138406 0.242647 101 151 73
-0.384972 0.140151 0.242577 99 149 71
-0.38513 0.1419 0.242506 107 153 73
-0.386246 0.144136 0.242203 87 137 65
-0.388342 0.146886 0.241663 55 117 52
-0.411864 0.16431 0.23586 54 116 46
-0.411518 0.165953 0.235909 58 117 47
-0.411172 0.167597 0.235957 59 115 43
-0.410826 0.16924 0.236005 60 112 49
-0.410481 0.170883 0.236054 59 110 46
-0.409579 0.17222 0.236237 56 110 43
-0.409234 0.17386 0.236285 51 112 44
-0.407785 0.174883 0.236602 48 113 46
-0.406892 0.176207 0.236784 49 113 46
-0.400627 0.174464 0.238273 52 114 42
-0.390525 0.170451 0.240697 55 116 46
-0.387229 0.170288 0.241466 55 115 45
-0.385441 0.170977 0.241868 53 116 46
-0.383669 0.17166 0.242266 52 117 46
-0.382867 0.172906 0.242428 54 117 45
-0.382545 0.174435 0.242473 55 117 45
-0.382223 0.175965 0.242518 55 118 46
-0.381425 0.177202 0.24268 54 119 48
-0.381103 0.178729 0.242724 57 123 51
-0.380782 0.180256 0.242769 67 128 54
-0.379987 0.181486 0.24293 86 136 62
-0.379666 0.18301 0.242975 90 122 67
-0.378873 0.184234 0.243135 73 85 61
-0.378083 0.185453 0.243295 64 61 44
-0.398608 0.126444 0.238059 68 66 51
-0.39828 0.128004 0.238105 69 74 59
-0.397951 0.129564 0.238151 93 122 73
-0.397623 0.131125 0.238197 118 169 84
-0.396787 0.132454 0.238368 120 176 84
-0.395449 0.133548 0.238662 120 176 84
-0.394619 0.134868 0.238831 119 174 84
-0.3923 0.135483 0.239368 118 172 83
-0.389518 0.135859 0.240018 116 172 82
-0.386297 0.136001 0.240777 117 171 81
-0.384549 0.136825 0.241174 115 169 80
-0.384231 0.138335 0.241219 112 166 79
-0.384387 0.14008 0.241146 111 164 77
-0.384544 0.141829 0.241073 117 166 80
-0.385658 0.144066 0.240764 90 134 64
-0.411228 0.164234 0.234305 51 119 45
-0.410882 0.165877 0.234354 58 123 49
-0.411095 0.167819 0.234264 77 129 55
-0.410748 0.169465 0.234313 67 99 60
-0.410402 0.171111 0.234361 66 89 55
-0.410056 0.172756 0.234409 64 93 56
-0.409709 0.174402 0.234458 61 98 57
-0.408808 0.175736 0.234644 61 102 57
-0.406808 0.176443 0.235103 64 102 54
-0.406464 0.178078 0.235151 68 100 52
-0.399668 0.175995 0.236801 69 103 50
-0.389593 0.17194 0.239267 68 100 47
-0.385818 0.171477 0.24017 63 101 50
-0.384039 0.17216 0.240577 61 104 52
-0.382754 0.173123 0.240861 60 106 52
-0.381953 0.174366 0.241025 60 108 51
-0.381631 0.175896 0.24107 59 111 51
-0.381309 0.177426 0.241115 60 116 53
-0.380987 0.178955 0.24116 70 126 60
-0.380191 0.180188 0.241324 83 139 73
-0.379869 0.181715 0.241369 87 135 78
-0.379548 0.183242 0.241414 78 105 68
-0.378755 0.184467 0.241576 65 67 50
-0.397496 0.126148 0.23671 70 68 49
-0.397169 0.127706 0.236756 78 90 61
-0.397349 0.12949 0.236675 106 149 83
-0.396513 0.130822 0.236848 128 188 94
-0.39568 0.13215 0.237021 130 189 92
-0.394849 0.133474 0.237193 129 189 93
-0.39352 0.134562 0.23749 128 189 91
-0.390718 0.134947 0.238157 128 187 89
-0.387956 0.135326 0.238814 125 185 89
-0.384283 0.135244 0.239701 125 185 89
-0.383492 0.136525 0.239864 125 182 86
-0.383175 0.138033 0.239909 123 180 85
-0.382858 0.139541 0.239953 124 180 85
-0.38254 0.141049 0.239997 123 174 87
-0.38364 0.143273 0.239685 89 126 60
-0.411497 0.162805 0.232561 42 116 42
-0.410593 0.164158 0.23275 50 118 43
-0.410804 0.166097 0.232658 58 125 48
-0.410458 0.167743 0.232706 84 142 63
-0.410112 0.169389 0.232755 81 123 73
-0.409765 0.171035 0.232803 72 74 48
-0.409419 0.172681 0.232852 67 65 48
-0.409073 0.174327 0.232901 63 66 53
-0.408727 0.175972 0.232949 64 64 51
-0.40838 0.177618 0.232998 66 62 47
-0.408034 0.179263 0.233046 65 63 46
-0.407688 0.180908 0.233095 62 66 41
-0.395063 0.175405 0.236252 65 72 42
-0.38522 0.171408 0.238708 62 77 51
-0.383444 0.172091 0.239122 63 82 55
-0.38216 0.173054 0.239411 62 84 53
-0.381361 0.174298 0.239577 63 84 49
-0.381039 0.175827 0.239622 65 85 47
-0.380717 0.177357 0.239667 68 85 44
-0.380395 0.178887 0.239712 73 90 48
-0.380073 0.180416 0.239757 77 89 56
-0.379752 0.181945 0.239802 73 82 56
-0.37943 0.183474 0.239847 68 68 50
-0.378635 0.184701 0.240013 61 58 46
-0.395883 0.125633 0.235494 66 69 54
-0.396061 0.127409 0.235412 95 114 68
-0.395733 0.128965 0.235458 124 173 88
-0.395406 0.130521 0.235503 133 195 96
-0.394575 0.131847 0.235678 133 195 96
-0.393248 0.13294 0.235979 133 196 97
-0.392424 0.134257 0.236152 133 195 95
-0.389145 0.134414 0.236953 132 195 94
-0.385444 0.134341 0.237862 131 194 93
-0.383227 0.134946 0.238393 130 194 92
-0.382438 0.136226 0.238558 131 191 91
-0.381185 0.137273 0.238842 129 191 91
-0.380869 0.138774 0.238886 135 192 92
-0.380553 0.140276 0.238931 120 173 92
-0.382582 0.142963 0.238374 80 122 54
-0.41142 0.16302 0.230859 42 113 41
-0.410514 0.164375 0.231051 49 118 44
-0.410726 0.166318 0.230956 54 122 50
-0.410379 0.167967 0.231005 70 137 62
-0.409475 0.169314 0.231197 113 142 84
-0.409129 0.17096 0.231246 86 79 64
-0.408782 0.172606 0.231294 69 64 52
-0.408436 0.174251 0.231343 66 61 48
-0.379159 0.181877 0.238354 63 56 40
-0.378837 0.183406 0.238399 64 55 42
-0.393606 0.123141 0.234499 68 64 47
-0.393779 0.124903 0.234415 67 72 56
-0.393453 0.12645 0.234461 106 142 80
-0.394127 0.128443 0.234247 131 189 95
-0.393801 0.129994 0.234293 135 196 96
-0.392477 0.131091 0.234598 135 197 96
-0.392152 0.132637 0.234644 136 199 96
-0.390837 0.133723 0.234947 136 199 96
-0.387581 0.133884 0.235756 135 199 96
-0.384381 0.134043 0.236551 135 198 94
-0.382173 0.134649 0.237088 133 197 93
-0.380921 0.1357 0.237376 132 196 94
-0.380605 0.137202 0.237421 132 197 94
-0.37936 0.138243 0.237708 143 197 96
-0.379045 0.139741 0.237752 109 156 83
-0.415664 0.163637 0.228064 33 108 33
-0.411342 0.163236 0.229152 39 111 37
-0.410995 0.164887 0.229201 45 115 41
-0.410647 0.166539 0.229249 51 119 46
-0.4103 0.168191 0.229298 61 132 56
-0.409394 0.16954 0.229493 110 172 82
-0.409047 0.171188 0.229542 129 147 86
-0.408145 0.17253 0.229736 100 82 69
-0.407799 0.174176 0.229785 73 64 53
-0.408007 0.176134 0.229688 66 65 49
-0.408216 0.178098 0.229591 66 64 48
-0.392512 0.122853 0.233168 71 64 43
-0.392684 0.124612 0.233083 77 90 57
-0.392359 0.126157 0.233129 114 165 89
-0.39253 0.127923 0.233043 133 196 98
-0.392205 0.12947 0.233089 134 196 96
-0.391384 0.130791 0.233266 135 197 97
-0.390565 0.132108 0.233442 136 199 96
-0.389749 0.13342 0.233618 135 199 95
-0.386026 0.133357 0.234565 135 199 95
-0.382849 0.13352 0.235368 135 199 94
-0.381123 0.134353 0.235787 133 198 95
-0.38034 0.13563 0.235955 132 198 94
-0.379096 0.136676 0.236246 134 198 94
-0.378781 0.138173 0.23629 143 196 97
-0.378466 0.139671 0.236335 101 136 68
-0.415018 0.163559 0.226483 30 105 31
-0.412391 0.164041 0.227139 34 108 33
-0.411478 0.165403 0.227338 38 111 36
-0.41113 0.16706 0.227387 43 116 43
-0.41022 0.168415 0.227586 50 125 50
-0.409313 0.169766 0.227784 74 150 65
-0.408409 0.171113 0.227981 117 187 95
-0.408063 0.172761 0.22803 138 167 100
-0.391422 0.122565 0.231842 67 66 53
-0.391098 0.124106 0.231887 98 112 65
-0.391267 0.125864 0.2318 124 176 89
-0.390943 0.127407 0.231846 132 195 95
-0.390618 0.12895 0.231892 132 196 94
-0.390294 0.130492 0.231937 132 197 95
-0.389478 0.131808 0.232115 132 197 96
-0.38769 0.132664 0.232556 132 197 96
-0.38448 0.132834 0.233381 133 198 93
-0.381795 0.133224 0.234065 133 199 93
-0.380075 0.134057 0.234489 131 198 95
-0.379295 0.135333 0.234659 132 198 92
-0.378517 0.136605 0.234828 139 198 93
-0.377741 0.137874 0.234998 134 186 94
-0.377426 0.13937 0.235042 96 128 61
-0.416675 0.164675 0.224277 32 101 27
-0.414021 0.165152 0.224951 32 104 30
-0.411965 0.165922 0.225463 37 107 32
-0.411615 0.167585 0.225513 44 112 39
-0.410702 0.168943 0.225715 53 118 45
-0.409232 0.169993 0.226069 61 128 54
-0.408884 0.171648 0.226118 85 155 76
-0.408536 0.173302 0.226167 109 180 99
-0.408188 0.174956 0.226216 115 190 115
-0.408398 0.176924 0.226113 120 186 112
-0.409168 0.179218 0.225857 134 179 95
-0.411075 0.182177 0.225291 147 162 79
-0.412433 0.184841 0.224875 143 128 71
-0.380585 0.171528 0.233431 65 67 64
-0.379312 0.172492 0.233736 68 68 49
-0.378047 0.17345 0.234039 73 70 45
-0.377256 0.174688 0.234213 71 67 46
-0.376936 0.176212 0.234258 66 64 47
-0.377084 0.178027 0.234175 59 63 45
-0.376763 0.179552 0.23422 65 60 36
-0.376911 0.181375 0.234137 60 59 36
-0.390335 0.122279 0.230519 61 71 58
-0.390503 0.124032 0.23043 107 144 77
-0.390179 0.125573 0.230475 128 186 91
-0.389855 0.127114 0.230521 132 194 94
-0.389531 0.128654 0.230567 132 195 93
-0.389207 0.130194 0.230612 131 196 94
-0.388394 0.131508 0.230792 132 196 95
-0.386613 0.132365 0.231238 133 196 95
-0.382943 0.132313 0.232204 133 197 94
-0.380743 0.13293 0.232766 133 197 92
-0.379494 0.133986 0.233067 131 196 93
-0.378715 0.135263 0.233239 134 197 92
-0.377477 0.136308 0.233537 145 199 95
-0.376247 0.137348 0.233834 115 166 89
-0.375933 0.138839 0.233878 89 130 60
-0.417185 0.165198 0.222365 39 100 28
-0.415671 0.166278 0.222736 40 104 31
-0.413594 0.167047 0.223262 46 108 36
-0.412672 0.168416 0.223469 53 115 44
-0.411186 0.169475 0.223832 63 124 50
-0.410272 0.170832 0.224037 76 137 61
-0.409361 0.172186 0.224242 96 163 80
-0.409012 0.173845 0.224291 111 185 92
-0.408663 0.175505 0.22434 124 195 100
-0.408874 0.17748 0.224234 137 194 94
-0.410779 0.180429 0.223658 144 190 88
-0.411565 0.182756 0.223393 141 188 94
-0.412355 0.185097 0.223125 131 191 108
-0.412575 0.187116 0.223015 118 198 115
-0.376987 0.173096 0.232724 138 131 72
-0.376666 0.17462 0.23277 108 107 75
-0.376346 0.176144 0.232815 82 88 74
-0.376493 0.177959 0.23273 76 84 64
-0.37664 0.179779 0.232644 85 80 48
-0.377731 0.182202 0.232296 78 77 48
-0.377881 0.184039 0.232209 68 67 51
-0.378984 0.186495 0.231857 61 62 52
-0.380579 0.189286 0.231366 59 58 47
-0.389574 0.120456 0.229154 64 64 50
-0.389741 0.122205 0.229063 68 79 64
-0.389417 0.123744 0.229108 113 166 89
-0.389583 0.125499 0.229017 126 189 92
-0.389259 0.12704 0.229063 129 193 93
-0.388935 0.128581 0.229109 130 195 93
-0.388123 0.129897 0.229291 129 194 94
-0.387313 0.13121 0.229473 131 194 94
-0.384579 0.131617 0.230192 133 195 94
-0.381414 0.131795 0.231033 132 195 94
-0.379694 0.132635 0.23147 132 194 93
-0.378913 0.133916 0.231645 132 194 92
-0.378135 0.135192 0.231819 134 195 94
-0.376899 0.136238 0.232121 142 194 95
-0.37567 0.137278 0.232422 99 143 74
-0.375356 0.13877 0.232467 83 133 61
-0.417114 0.165422 0.220605 43 105 41
-0.415598 0.166503 0.220981 43 108 42
-0.414667 0.167881 0.221194 49 113 47
-0.413739 0.169255 0.221405 55 119 52
-0.412813 0.170624 0.221616 65 131 59
-0.411891 0.171989 0.221826 84 150 73
-0.411539 0.173662 0.221876 104 173 85
-0.411187 0.175335 0.221926 115 184 87
-0.410835 0.177008 0.221975 127 188 89
-0.411621 0.179324 0.221704 136 192 90
-0.411839 0.181328 0.221593 139 194 94
-0.412631 0.183669 0.221319 138 198 101
-0.412277 0.185354 0.221369 132 203 106
-0.411922 0.18704 0.221419 128 204 103
-0.376076 0.174551 0.231326 141 217 116
-0.376222 0.176364 0.231239 145 211 109
-0.37637 0.178183 0.231152 153 192 94
-0.377459 0.180599 0.230796 162 168 85
-0.377609 0.182434 0.230708 138 139 81
-0.378711 0.184883 0.230349 111 116 88
-0.380786 0.187977 0.229712 93 97 80
-0.382403 0.190798 0.229205 79 76 62
-0.382563 0.192683 0.229113 66 57 46
-0.388981 0.120383 0.2277 67 68 49
-0.388657 0.121919 0.227745 86 101 61
-0.388822 0.12367 0.227652 120 176 90
-0.388499 0.125209 0.227698 127 188 93
-0.388664 0.126967 0.227605 128 189 91
-0.387852 0.128286 0.22779 129 189 91
-0.387042 0.129601 0.227973 129 190 92
-0.385751 0.130688 0.228294 130 193 94
-0.383037 0.131098 0.22902 130 193 93
-0.380362 0.131502 0.229736 130 192 93
-0.379112 0.132565 0.230046 129 191 92
-0.378332 0.133845 0.230222 131 192 92
-0.377555 0.135122 0.230399 135 193 94
-0.37632 0.136168 0.230705 134 184 91
-0.376006 0.137664 0.23075 93 129 63
-0.416461 0.165344 0.219005 36 104 45
-0.416105 0.167034 0.219056 32 105 42
-0.41517 0.168416 0.219272 37 108 42
-0.414815 0.170102 0.219322 44 113 43
-0.414461 0.171789 0.219372 53 120 47
-0.414106 0.173476 0.219422 66 129 56
-0.413751 0.175162 0.219472 80 138 62
-0.413397 0.176848 0.219522 85 146 67
-0.413042 0.178534 0.219572 90 152 71
-0.413263 0.180547 0.219457 95 157 75
-0.412908 0.182236 0.219507 98 163 82
-0.412553 0.183924 0.219558 100 170 88
-0.411624 0.185278 0.219773 104 180 95
-0.41127 0.186963 0.219823 109 188 100
-0.37642 0.175058 0.229613 150 207 104
-0.376099 0.176586 0.229658 155 209 103
-0.376716 0.178701 0.229433 156 214 106
-0.377337 0.180829 0.229206 156 223 117
-0.380355 0.184491 0.228286 158 236 129
-0.38148 0.186975 0.227913 158 230 127
-0.382615 0.189481 0.227536 154 192 105
-0.382776 0.191367 0.22744 123 128 78
-0.382937 0.193259 0.227345 81 71 54
-0.382607 0.194829 0.227391 57 56 41
-0.3879 0.1201 0.226386 66 69 55
-0.388064 0.121846 0.226291 107 133 71
-0.38774 0.123382 0.226337 124 182 89
-0.387904 0.125135 0.226242 127 187 89
-0.387581 0.126674 0.226288 126 187 90
-0.386771 0.127992 0.226474 128 190 92
-0.385964 0.129306 0.226659 128 191 92
-0.384199 0.13017 0.227122 127 190 93
-0.381504 0.130582 0.227854 128 189 92
-0.379312 0.131209 0.228442 129 190 91
-0.378067 0.132271 0.228755 128 191 92
-0.37729 0.133551 0.228934 131 191 91
-0.376974 0.135051 0.228978 136 191 91
-0.375742 0.136098 0.229289 116 169 87
-0.375427 0.137594 0.229333 84 121 61
-0.415807 0.165265 0.217405 41 96 27
-0.415451 0.166955 0.217456 35 97 24
-0.415096 0.168645 0.217506 36 100 29
-0.414741 0.170335 0.217556 40 103 31
-0.415546 0.172653 0.217268 45 106 30
-0.415772 0.174666 0.217149 49 106 34
-0.415415 0.176364 0.217199 51 110 41
-0.414477 0.177737 0.217419 51 114 45
-0.414121 0.179431 0.21747 51 119 47
-0.413765 0.181126 0.21752 53 123 49
-0.413408 0.18282 0.217571 57 127 51
-0.411899 0.183847 0.217958 61 131 53
-0.411544 0.185536 0.218008 66 135 59
-0.410617 0.186887 0.218226 72 138 64
-0.410262 0.188573 0.218276 77 140 66
-0.384477 0.180313 0.225627 92 156 80
-0.376444 0.1771 0.227935 98 170 90
-0.377064 0.179223 0.227704 106 186 104
-0.38398 0.185333 0.225622 113 196 111
-0.386132 0.188486 0.224939 121 201 112
-0.3858 0.190069 0.224986 120 200 112
-0.385467 0.191653 0.225033 115 181 101
-0.384636 0.19291 0.225227 101 142 86
-0.383807 0.194164 0.22542 84 95 63
-0.383475 0.195742 0.225467 66 56 37
-0.38763 0.118491 0.224887 66 69 49
-0.387307 0.120026 0.224933 64 69 61
-0.38747 0.121772 0.224836 113 157 80
-0.387147 0.123309 0.224882 122 181 88
-0.38731 0.125062 0.224785 124 184 89
-0.386986 0.126601 0.224831 124 185 90
-0.386177 0.127919 0.22502 126 187 92
-0.385371 0.129233 0.225207 126 188 92
-0.382656 0.129654 0.225957 127 187 91
-0.379979 0.130069 0.226695 128 189 90
-0.378729 0.131138 0.227015 128 190 90
-0.377486 0.132201 0.227332 127 189 90
-0.376709 0.13348 0.227513 131 190 90
-0.375935 0.134756 0.227693 131 185 92
-0.375163 0.136028 0.227872 93 150 83
-0.374848 0.137524 0.227917 70 123 57
-0.4169 0.166098 0.215288 59 103 37
-0.415378 0.167182 0.215684 56 103 35
-0.415603 0.169184 0.215562 54 107 38
-0.415829 0.171193 0.21544 54 110 39
-0.416642 0.173525 0.215144 53 111 40
-0.416871 0.17555 0.215021 50 114 42
-0.416512 0.177255 0.215071 47 117 44
-0.415568 0.178634 0.215296 53 117 44
-0.41521 0.180337 0.215347 50 114 43
-0.414269 0.181708 0.215571 53 117 43
-0.413911 0.183408 0.215621 54 117 42
-0.412396 0.184437 0.216016 55 117 40
-0.41089 0.185459 0.216409 54 116 40
-0.409964 0.186811 0.216629 52 117 43
-0.40904 0.188158 0.216849 51 118 45
-0.40812 0.1895 0.217068 52 118 48
-0.407202 0.190839 0.217286 51 121 46
-0.403504 0.190472 0.218334 53 123 50
-0.391425 0.184902 0.221884 56 126 50
-0.384032 0.182119 0.224039 60 129 52
-0.387693 0.186195 0.222894 64 130 53
-0.387358 0.187785 0.222941 70 131 54
-0.387024 0.189376 0.222988 74 128 52
-0.386689 0.190966 0.223036 74 130 49
-0.386355 0.192557 0.223083 72 139 53
-0.385519 0.193819 0.223281 85 135 73
-0.385185 0.195407 0.223328 86 98 64
-0.384851 0.196994 0.223375 71 54 35
-0.387037 0.118417 0.223435 66 68 44
-0.386714 0.119952 0.22348 69 81 63
-0.386876 0.121698 0.223382 117 173 90
-0.386553 0.123235 0.223428 122 180 88
-0.386715 0.124988 0.223329 123 183 89
-0.386391 0.126528 0.223374 124 183 89
-0.3851 0.127626 0.223709 125 185 89
-0.384297 0.128939 0.223899 124 185 90
-0.381121 0.129141 0.224798 124 186 89
-0.378928 0.129778 0.225403 125 186 89
-0.377683 0.130846 0.225726 127 186 89
-0.376444 0.131908 0.226047 126 186 89
-0.37567 0.133187 0.226229 130 189 92
-0.374899 0.134461 0.22641 126 178 88
-0.374584 0.135958 0.226455 81 126 64
-0.374269 0.137454 0.2265 66 120 54
-0.417416 0.166632 0.213327 54 107 43
-0.417057 0.168336 0.213378 45 104 35
-0.417877 0.170667 0.213075 43 108 36
-0.418702 0.173013 0.212769 45 114 42
-0.418935 0.17505 0.212641 48 117 46
-0.41917 0.177094 0.212513 52 119 47
-0.418808 0.178814 0.212564 58 126 49
-0.41726 0.17987 0.212973 82 134 57
-0.415721 0.180919 0.21338 70 99 53
-0.414776 0.182294 0.213608 67 97 46
-0.413834 0.183664 0.213835 64 98 45
-0.412896 0.18503 0.214062 61 101 46
-0.410236 0.185382 0.214809 58 105 48
-0.409311 0.186734 0.215032 56 110 50
-0.407822 0.187744 0.215426 56 113 49
-0.406343 0.188747 0.215817 59 116 50
-0.40321 0.188735 0.21671 61 118 50
-0.400126 0.188723 0.217589 61 118 50
-0.394442 0.187076 0.219258 59 118 48
-0.390466 0.186435 0.220411 56 119 46
-0.387581 0.18644 0.221233 54 119 46
-0.387246 0.188034 0.22128 53 119 47
-0.386911 0.189627 0.221328 58 121 48
-0.386073 0.190896 0.221528 68 129 52
-0.385738 0.192486 0.221576 90 137 59
-0.385906 0.194406 0.22147 91 119 68
-0.385571 0.195998 0.221518 79 83 54
-0.384735 0.197257 0.221718 67 52 33
-0.386928 0.11855 0.221835 68 70 47
-0.386605 0.120088 0.221881 86 103 63
-0.386282 0.121625 0.221927 117 176 89
-0.385959 0.123162 0.221973 121 179 86
-0.385635 0.124699 0.222018 121 181 87
-0.385312 0.126236 0.222064 124 181 88
-0.384507 0.127553 0.222257 123 183 89
-0.383226 0.128645 0.222594 123 184 90
-0.379595 0.128632 0.223645 122 185 88
-0.377417 0.129269 0.224255 123 185 86
-0.376639 0.130555 0.224441 124 184 87
-0.375406 0.131617 0.224765 124 184 89
-0.374634 0.132894 0.224949 129 187 91
-0.37432 0.134391 0.224993 122 172 85
-0.374005 0.135887 0.225038 82 125 61
-0.374145 0.137613 0.224944 64 119 55
-0.41948 0.166074 0.21094 69 116 51
-0.416756 0.166553 0.211714 54 107 41
-0.418759 0.169504 0.211042 40 106 32
-0.419589 0.171854 0.210729 38 108 32
-0.419825 0.173896 0.210598 41 112 34
-0.420062 0.175945 0.210466 44 115 37
-0.419699 0.177671 0.210517 49 117 42
-0.419336 0.179397 0.210569 61 129 49
-0.417781 0.180455 0.210986 95 149 67
-0.416236 0.181506 0.211401 79 97 63
-0.4147 0.18255 0.211813 70 69 42
-0.413757 0.183922 0.212043 62 69 40
-0.412817 0.185289 0.212273 60 75 44
-0.410153 0.185641 0.213033 58 81 46
-0.409227 0.186994 0.213259 58 84 47
-0.407171 0.187668 0.213833 59 85 47
-0.405134 0.188335 0.214402 64 87 43
-0.400377 0.18733 0.21581 67 86 47
-0.397334 0.187329 0.216691 65 87 48
-0.394866 0.187654 0.217395 61 93 52
-0.390872 0.187005 0.218571 60 100 55
-0.389506 0.187969 0.218937 61 105 57
-0.38764 0.188604 0.219457 62 109 57
-0.386798 0.189879 0.219662 64 116 59
-0.385958 0.191149 0.219865 77 133 74
-0.385623 0.192742 0.219913 84 132 80
-0.385791 0.194665 0.219805 74 95 64
-0.385456 0.19626 0.219852 64 65 46
-0.386657 0.116939 0.220334 69 69 49
-0.386334 0.118476 0.22038 71 75 55
-0.386011 0.120014 0.220425 105 130 68
-0.385688 0.121551 0.220471 116 176 85
-0.385364 0.123088 0.220517 119 177 84
-0.385041 0.124626 0.220563 121 179 85
-0.384718 0.126163 0.220609 122 179 86
-0.383914 0.12748 0.220804 120 181 86
-0.381683 0.128133 0.221439 120 182 86
-0.378078 0.128125 0.222499 120 183 85
-0.376374 0.128981 0.222972 121 183 84
-0.375141 0.130047 0.2233 122 183 85
-0.37437 0.131326 0.223486 124 184 86
-0.373601 0.132602 0.223672 129 183 89
-0.373741 0.13432 0.223576 118 166 84
-0.37388 0.136044 0.22348 87 132 63
-0.416813 0.163065 0.209998 75 124 59
-0.416455 0.164769 0.210049 66 121 53
-0.418456 0.167709 0.209367 58 110 47
-0.419285 0.170054 0.209048 41 104 34
-0.420721 0.172735 0.20854 33 105 33
-0.420357 0.174464 0.208592 35 109 33
-0.419994 0.176192 0.208644 40 113 37
-0.41963 0.177921 0.208696 45 118 44
-0.419267 0.17965 0.208747 55 128 50
-0.418305 0.181043 0.208985 80 149 65
-0.416753 0.182096 0.209408 100 148 79
-0.415211 0.183141 0.209828 81 90 55
-0.413096 0.183844 0.210427 66 66 47
-0.412157 0.185212 0.21066 60 62 41
-0.410071 0.1859 0.211251 56 63 36
-0.408572 0.186918 0.211659 55 63 37
-0.407084 0.187929 0.212064 56 62 41
-0.404486 0.188259 0.212817 59 63 38
-0.399737 0.187256 0.214245 58 64 41
-0.397234 0.187584 0.21497 63 64 42
-0.395822 0.188564 0.215354 61 69 47
-0.393367 0.188881 0.216066 63 73 50
-0.390424 0.188868 0.216931 64 75 49
-0.388546 0.189502 0.217463 64 75 47
-0.387698 0.190781 0.217671 66 76 46
-0.386348 0.191729 0.218038 72 74 48
-0.386012 0.193327 0.218086 70 74 49
-0.385676 0.194925 0.218134 64 65 44
-0.386548 0.117069 0.218726 65 67 50
-0.38574 0.118402 0.218924 70 81 60
-0.385417 0.11994 0.21897 113 151 74
-0.385093 0.121478 0.219016 115 173 82
-0.38477 0.123015 0.219062 117 173 84
-0.384447 0.124552 0.219108 119 175 84
-0.384124 0.126089 0.219154 119 176 84
-0.38332 0.127407 0.21935 118 178 84
-0.38062 0.127842 0.220142 120 180 83
-0.37703 0.127837 0.221214 121 181 83
-0.375334 0.128693 0.221692 121 181 85
-0.374561 0.129976 0.22188 120 181 86
-0.373337 0.131037 0.222211 124 182 88
-0.373023 0.132532 0.222256 124 180 90
-0.373161 0.13425 0.222158 110 166 85
-0.415568 0.162685 0.208568 76 126 59
-0.418152 0.165914 0.20769 68 122 54
-0.41898 0.168253 0.207367 62 112 48
-0.420415 0.170925 0.206851 45 103 34
-0.420653 0.172977 0.206712 35 101 31
-0.420893 0.175035 0.206573 34 104 33
-0.420528 0.176769 0.206625 38 109 38
-0.420163 0.178504 0.206677 43 114 42
-0.419197 0.179904 0.206919 48 122 46
-0.418234 0.181299 0.207161 63 138 57
-0.41668 0.182353 0.20759 109 167 86
-0.415135 0.183399 0.208017 103 149 81
-0.413017 0.184102 0.208626 93 100 66
-0.411497 0.185134 0.209046 78 73 56
-0.409414 0.185823 0.209645 63 64 48
-0.407918 0.186841 0.210058 57 63 43
-0.406431 0.187853 0.210469 58 63 41
-0.403838 0.188184 0.211232 58 62 41
-0.400184 0.187844 0.212334 57 63 42
-0.39767 0.188169 0.213073 65 61 42
-0.396253 0.189151 0.213464 63 61 42
-0.394844 0.190127 0.213853 64 61 42
-0.392395 0.190434 0.214574 64 61 43
-0.38946 0.190409 0.21545 62 60 40
-0.388096 0.191364 0.215826 62 59 37
-0.387248 0.192642 0.216037 66 60 41
-0.386403 0.193916 0.216248 65 60 40
-0.385953 0.116995 0.217268 64 66 48
-0.385629 0.118535 0.217315 70 84 61
-0.385305 0.120075 0.217361 112 165 81
-0.384982 0.121615 0.217407 116 171 82
-0.384658 0.123155 0.217453 115 172 84
-0.383853 0.124479 0.217652 116 173 82
-0.38305 0.125799 0.217851 117 174 83
-0.382727 0.127334 0.217897 118 176 83
-0.379091 0.127334 0.218999 120 178 83
-0.375527 0.127334 0.220079 119 178 83
-0.374296 0.128406 0.220415 119 178 85
-0.373073 0.129471 0.22075 120 178 85
-0.372307 0.130748 0.220939 126 182 88
-0.372444 0.132461 0.22084 124 177 86
-0.417617 0.162101 0.206152 63 115 51
-0.415494 0.162906 0.206768 70 122 59
-0.418081 0.166142 0.205875 71 123 59
-0.418911 0.168486 0.205545 67 117 50
-0.420347 0.171164 0.205019 45 104 36
-0.420586 0.173219 0.204878 31 99 28
-0.420221 0.174954 0.20493 29 101 27
-0.419856 0.176689 0.204982 32 105 31
-0.419492 0.178424 0.205033 36 110 36
-0.419127 0.180159 0.205085 41 117 39
-0.418162 0.181556 0.205331 53 129 46
-0.416606 0.182611 0.205767 79 155 73
-0.415059 0.183658 0.2062 117 182 99
-0.412355 0.184024 0.207007 136 176 88
-0.410837 0.185057 0.207432 112 123 86
-0.408757 0.185746 0.208039 93 102 76
-0.407263 0.186764 0.208457 89 96 60
-0.405217 0.187439 0.209055 88 85 50
-0.40319 0.188108 0.209646 76 72 51
-0.399541 0.187769 0.210763 64 63 55
-0.397032 0.188095 0.211513 65 62 52
-0.39615 0.189409 0.211735 64 62 46
-0.39474 0.190385 0.21213 64 63 46
-0.393338 0.191356 0.212522 64 63 47
-0.391422 0.191987 0.213081 61 60 43
-0.385842 0.117126 0.215654 68 68 47
-0.385518 0.118668 0.2157 76 97 62
-0.385194 0.120211 0.215746 111 170 84
-0.384386 0.121541 0.215949 115 170 80
-0.384063 0.123081 0.215995 115 170 82
-0.383258 0.124405 0.216196 114 172 81
-0.382456 0.125726 0.216397 116 173 82
-0.38118 0.126824 0.216752 116 174 81
-0.377106 0.126614 0.218012 117 175 81
-0.374031 0.126835 0.21895 117 176 82
-0.373262 0.128119 0.219142 118 175 82
-0.372043 0.129184 0.21948 120 177 84
-0.371729 0.130677 0.219525 126 181 88
-0.420292 0.161811 0.20351 82 132 67
-0.418733 0.162928 0.20395 64 112 52
-0.417777 0.164344 0.204196 69 119 56
-0.418605 0.166682 0.20386 74 123 57
-0.41884 0.16872 0.203717 75 124 54
-0.420279 0.171404 0.203182 59 110 49
-0.419914 0.173139 0.203234 41 98 34
-0.420152 0.175201 0.203089 34 98 28
-0.419787 0.176939 0.203141 35 102 31
-0.419422 0.178677 0.203193 39 106 37
-0.418455 0.180079 0.203442 46 112 42
-0.41809 0.181814 0.203494 54 120 48
-0.416531 0.182869 0.203937 63 134 57
-0.414983 0.183918 0.204377 87 166 79
-0.412275 0.184283 0.205197 107 200 106
-0.410177 0.184979 0.205818 125 203 110
-0.4081 0.185669 0.206433 143 193 95
-0.406608 0.186688 0.206856 151 173 85
-0.404565 0.187363 0.207461 136 148 83
-0.402541 0.188032 0.208061 106 127 84
-0.398899 0.187694 0.209192 90 109 83
-0.396394 0.188021 0.209952 98 106 71
-0.396047 0.189667 0.210001 101 96 61
-0.394635 0.190645 0.210402 88 83 61
-0.39376 0.191951 0.210626 73 70 62
-0.392361 0.192916 0.211022 61 61 57
-0.391494 0.194212 0.211244 56 60 49
-0.389072 0.194493 0.211979 60 63 43
-0.388217 0.195776 0.212198 62 60 38
-0.385731 0.117257 0.214035 72 72 49
-0.384922 0.118594 0.21424 88 116 65
-0.384597 0.120137 0.214286 110 167 82
-0.384273 0.121679 0.214332 113 168 79
-0.383467 0.123008 0.214537 113 169 80
-0.382663 0.124332 0.21474 112 168 81
-0.381862 0.125653 0.214943 113 172 82
-0.380115 0.126534 0.215457 114 171 80
-0.376058 0.126327 0.216731 116 173 80
-0.372997 0.12655 0.217678 117 173 81
-0.37223 0.127834 0.217872 117 172 82
-0.371465 0.129113 0.218065 120 175 84
-0.371151 0.130607 0.21811 124 178 87
-0.421191 0.160605 0.201424 99 156 77
-0.419624 0.16173 0.201873 87 139 69
-0.418663 0.163152 0.202122 65 111 52
-0.4183 0.164877 0.202174 65 117 55
-0.418534 0.166913 0.202029 75 124 59
-0.418769 0.168955 0.201883 77 130 57
-0.419607 0.171323 0.201537 68 120 57
-0.419845 0.173383 0.20139 54 105 43
-0.420083 0.175448 0.201242 46 105 37
-0.419717 0.177189 0.201294 48 110 44
-0.419351 0.17893 0.201346 54 115 50
-0.418986 0.180671 0.201398 58 122 52
-0.418018 0.182072 0.201651 68 135 59
