ply
format ascii 1.0
element vertex 1267
property float x
property float y
property float z
property uchar diffuse_red
property uchar diffuse_green
property uchar diffuse_blue
end_header
-0.404929 0.157859 0.289007 26 95 25
-0.405118 0.159647 0.289001 30 98 24
-0.404796 0.161171 0.289045 32 104 28
-0.404475 0.162695 0.289088 35 108 31
-0.402634 0.163405 0.289277 44 113 37
-0.401308 0.164379 0.289416 57 120 46
-0.40049 0.165619 0.289507 69 127 53
-0.398681 0.16631 0.289692 82 139 61
-0.397871 0.16754 0.289782 88 145 64
-0.397063 0.168767 0.289872 86 144 62
-0.395769 0.169714 0.290007 81 142 62
-0.395454 0.171209 0.29005 76 140 63
-0.395138 0.172704 0.290093 71 135 60
-0.395799 0.174763 0.290042 68 130 55
-0.395483 0.176262 0.290085 64 127 49
-0.395655 0.178049 0.290081 60 125 49
-0.395829 0.17984 0.290077 56 122 48
-0.369189 0.175002 0.292694 70 103 56
-0.368895 0.176396 0.292734 70 93 60
-0.368601 0.17779 0.292773 66 72 57
-0.368307 0.179184 0.292813 66 66 48
-0.368013 0.180578 0.292853 67 65 43
-0.368557 0.18252 0.292813 66 64 43
-0.401947 0.11715 0.287547 108 172 81
-0.401635 0.118632 0.287589 107 169 79
-0.403293 0.120927 0.287433 104 158 74
-0.403475 0.122624 0.287426 94 143 67
-0.403657 0.124326 0.287418 82 129 58
-0.403342 0.12582 0.287461 76 121 55
-0.403027 0.127313 0.287503 71 117 54
-0.402712 0.128807 0.287546 68 116 52
-0.402894 0.13052 0.287538 63 112 48
-0.402579 0.132015 0.287581 60 115 49
-0.40276 0.133734 0.287574 60 119 52
-0.403441 0.135685 0.287516 65 123 53
-0.403625 0.137417 0.287509 70 126 56
-0.403308 0.138921 0.287552 72 126 58
-0.402991 0.140424 0.287595 70 121 56
-0.403174 0.142165 0.287587 66 113 53
-0.402857 0.143671 0.28763 63 111 51
-0.40254 0.145176 0.287673 60 110 49
-0.403224 0.14717 0.287616 60 110 49
-0.403409 0.148928 0.287608 60 109 46
-0.404099 0.150941 0.28755 58 108 44
-0.405302 0.153222 0.287441 54 106 42
-0.406003 0.155263 0.287382 47 104 38
-0.405681 0.15679 0.287426 40 101 34
-0.405872 0.158581 0.287418 34 98 31
-0.406062 0.160377 0.28741 39 99 26
-0.40574 0.161908 0.287454 48 106 36
-0.404394 0.162895 0.2876 52 114 44
-0.403564 0.164149 0.287694 55 119 49
-0.40223 0.165125 0.287839 58 124 54
-0.400904 0.166096 0.287982 59 130 61
-0.399586 0.167061 0.288125 59 133 65
-0.398276 0.16802 0.288267 56 126 57
-0.396972 0.168974 0.288408 57 122 50
-0.396166 0.170198 0.2885 57 120 47
-0.396339 0.171977 0.288494 57 119 47
-0.396514 0.17376 0.288488 59 119 47
-0.396688 0.175549 0.288482 61 120 45
-0.396371 0.177054 0.288524 73 126 47
-0.395563 0.17827 0.288616 94 135 59
-0.396721 0.180651 0.288512 89 126 61
-0.398388 0.18335 0.288358 75 117 61
-0.369742 0.178805 0.291291 69 69 62
-0.369447 0.180207 0.291331 70 69 58
-0.369574 0.181883 0.291329 69 68 57
-0.373129 0.185808 0.290987 67 68 60
-0.373697 0.1878 0.290942 65 69 63
-0.374706 0.190095 0.290853 68 68 67
-0.374405 0.191525 0.290893 68 67 65
-0.374104 0.192955 0.290934 70 73 64
-0.373366 0.194087 0.291018 76 81 64
-0.373065 0.195515 0.291059 86 85 64
-0.373199 0.197243 0.291056 89 83 59
-0.373334 0.198976 0.291054 83 74 55
-0.37347 0.200713 0.291052 72 64 51
-0.374927 0.203387 0.290919 64 62 48
-0.401866 0.117277 0.286099 107 165 79
-0.401553 0.118761 0.286141 105 162 78
-0.402224 0.120652 0.286081 104 159 77
-0.402403 0.122346 0.286071 99 153 73
-0.402584 0.124045 0.286062 89 141 66
-0.402765 0.125748 0.286053 82 131 59
-0.40245 0.127242 0.286095 78 128 60
-0.402135 0.128736 0.286138 75 127 58
-0.402316 0.130449 0.286129 73 121 54
-0.402497 0.132166 0.286119 68 119 51
-0.403177 0.134113 0.286058 62 118 51
-0.40336 0.135842 0.286048 62 118 50
-0.404046 0.137808 0.285986 63 120 53
-0.403728 0.139316 0.286029 64 122 55
-0.403913 0.14106 0.28602 67 121 55
-0.404604 0.143049 0.285957 68 117 53
-0.404285 0.144563 0.286001 67 115 52
-0.404471 0.146322 0.285991 69 114 51
-0.404658 0.148086 0.285981 67 114 52
-0.404846 0.149855 0.285972 64 112 50
-0.405544 0.151883 0.285909 63 112 48
-0.405734 0.153665 0.285899 63 112 46
-0.406438 0.155713 0.285835 61 111 43
-0.406115 0.157244 0.285879 54 108 40
-0.405792 0.158776 0.285923 49 104 37
-0.405984 0.160575 0.285913 52 103 32
-0.40566 0.162108 0.285957 50 104 39
-0.404824 0.163369 0.286054 42 101 34
-0.403991 0.164625 0.286151 39 102 33
-0.403159 0.165878 0.286247 39 108 34
-0.401825 0.166851 0.286396 41 112 34
-0.401001 0.168095 0.286492 46 112 35
-0.39918 0.168779 0.286691 52 113 37
-0.397869 0.169735 0.286838 57 114 37
-0.397551 0.171243 0.286881 57 118 40
-0.398223 0.173317 0.286821 58 120 44
-0.3989 0.175402 0.286761 59 123 47
-0.39908 0.177209 0.286752 63 129 51
-0.39876 0.178727 0.286795 80 143 65
-0.398439 0.180246 0.286839 109 168 87
-0.398119 0.181764 0.286882 109 158 85
-0.397799 0.183283 0.286925 117 149 77
-0.398979 0.185709 0.286813 125 135 71
-0.399664 0.187848 0.286752 118 109 70
-0.379649 0.190382 0.288915 91 128 80
-0.377547 0.190648 0.289142 97 137 82
-0.375469 0.19091 0.289367 106 150 85
-0.375166 0.192346 0.289408 111 158 83
-0.374424 0.193485 0.289494 115 159 80
-0.373684 0.19462 0.28958 128 160 80
-0.373382 0.196051 0.289621 142 152 83
-0.37308 0.197483 0.289662 131 130 77
-0.373215 0.199218 0.289658 110 105 69
-0.373351 0.200959 0.289653 90 84 60
-0.374367 0.203326 0.289558 73 67 53
-0.374505 0.205081 0.289554 66 62 48
-0.400979 0.11869 0.284743 103 160 80
-0.400666 0.120174 0.284785 99 156 77
-0.401335 0.122069 0.28472 92 150 74
-0.401513 0.123765 0.284709 86 143 68
-0.401199 0.125255 0.284752 86 137 62
-0.401378 0.126958 0.284741 83 135 62
-0.401557 0.128665 0.28473 79 136 59
-0.401737 0.130378 0.284718 83 134 60
-0.401917 0.132095 0.284707 79 133 59
-0.402596 0.134042 0.284642 73 125 54
-0.403781 0.136228 0.284521 69 121 52
-0.40447 0.138201 0.284455 63 117 51
-0.404656 0.139949 0.284443 60 117 52
-0.404337 0.141463 0.284486 61 118 52
-0.405031 0.143459 0.284419 63 118 53
-0.405219 0.145222 0.284407 64 119 54
-0.405408 0.14699 0.284395 67 120 54
-0.405597 0.148762 0.284383 66 118 55
-0.405787 0.15054 0.284371 67 119 52
-0.405465 0.152067 0.284415 73 124 52
-0.406168 0.154111 0.284347 77 126 54
-0.406359 0.155904 0.284335 75 124 53
-0.406552 0.157702 0.284323 69 118 49
-0.406228 0.159238 0.284367 64 111 44
-0.40642 0.161043 0.284355 61 107 41
-0.406096 0.162581 0.284399 47 100 36
-0.405257 0.163845 0.284498 35 94 27
-0.404933 0.16538 0.284542 38 96 28
-0.403586 0.16636 0.284697 40 104 34
-0.402754 0.167612 0.284796 39 110 40
-0.401925 0.168861 0.284895 41 112 43
-0.400594 0.169825 0.285047 44 114 46
-0.399271 0.170783 0.285199 46 116 46
-0.398952 0.1723 0.285243 46 117 48
-0.400135 0.174676 0.285123 48 119 48
-0.400317 0.17649 0.285112 50 123 49
-0.399995 0.178015 0.285156 54 134 57
-0.399674 0.179541 0.2852 63 152 73
-0.399352 0.181066 0.285243 85 175 89
-0.399534 0.182891 0.285232 100 168 85
-0.399212 0.184418 0.285276 117 167 81
-0.39889 0.185946 0.28532 121 162 85
-0.399071 0.18778 0.285309 112 159 91
-0.399758 0.189932 0.285243 106 168 97
-0.401982 0.193048 0.285012 103 175 101
-0.3932 0.199588 0.286022 108 169 83
-0.37923 0.192069 0.287537 110 167 82
-0.377128 0.192326 0.287772 113 169 81
-0.376378 0.193473 0.287861 114 168 79
-0.374306 0.19372 0.288093 116 169 80
-0.373565 0.194856 0.288181 119 174 87
-0.373263 0.19629 0.288222 123 181 96
-0.372961 0.197723 0.288263 128 185 101
-0.373096 0.199462 0.288257 131 159 85
-0.374111 0.201823 0.288156 110 116 71
-0.373807 0.203264 0.288197 84 80 59
-0.373944 0.205019 0.288191 67 62 48
-0.374082 0.206779 0.288185 66 60 50
-0.400406 0.118619 0.283344 103 160 77
-0.399605 0.119901 0.283442 97 152 74
-0.39978 0.121587 0.283429 92 145 69
-0.400446 0.123486 0.28336 89 139 64
-0.400132 0.124973 0.283403 86 134 60
-0.399819 0.126461 0.283445 83 134 59
-0.400487 0.128379 0.283377 79 135 59
-0.400665 0.130088 0.283364 85 137 63
-0.401338 0.132024 0.283295 88 145 67
-0.402514 0.134196 0.283169 88 141 62
-0.404204 0.136617 0.282985 83 133 58
-0.40439 0.138362 0.282971 73 123 54
-0.404576 0.140113 0.282957 64 117 51
-0.404763 0.141869 0.282943 61 114 51
-0.40546 0.143872 0.282872 59 113 51
-0.405649 0.14564 0.282858 59 114 52
-0.405839 0.147414 0.282843 60 116 52
-0.405517 0.148942 0.282887 65 120 54
-0.405707 0.150722 0.282873 68 120 54
-0.405898 0.152508 0.282859 72 125 56
-0.406089 0.154299 0.282844 79 133 62
-0.406281 0.156095 0.28283 86 138 64
-0.406473 0.157896 0.282816 86 134 59
-0.406149 0.159435 0.28286 77 122 53
-0.406341 0.161243 0.282846 65 111 48
-0.406016 0.162783 0.28289 55 104 39
-0.405692 0.164324 0.282934 45 100 36
-0.405367 0.165864 0.282978 52 101 38
-0.404528 0.167124 0.28308 49 106 39
-0.403691 0.168381 0.283182 42 108 39
-0.402857 0.169634 0.283283 36 109 38
-0.401012 0.170318 0.283498 34 108 36
-0.40069 0.171844 0.283542 36 108 33
-0.400874 0.173656 0.283529 36 109 33
-0.401057 0.175474 0.283515 36 112 35
-0.400735 0.177004 0.283559 36 116 37
-0.400412 0.178534 0.283603 35 121 41
-0.40009 0.180064 0.283647 39 124 45
-0.400273 0.181893 0.283634 53 127 48
-0.39995 0.183425 0.283677 63 137 55
-0.399627 0.184957 0.283721 78 152 71
-0.399304 0.186489 0.283765 85 159 78
-0.399487 0.18833 0.283752 87 162 79
-0.400177 0.190489 0.283682 92 163 78
-0.401383 0.192979 0.283554 94 161 75
-0.402084 0.195168 0.283483 97 156 71
-0.402273 0.197043 0.283469 98 153 69
-0.401292 0.201698 0.283602 99 149 61
-0.39943 0.202247 0.283819 99 153 67
-0.399104 0.203791 0.283863 99 155 70
-0.393768 0.202014 0.284469 100 156 73
-0.37881 0.193761 0.286155 100 156 74
-0.376262 0.193709 0.286448 99 156 74
-0.375513 0.194854 0.286539 97 156 72
-0.374325 0.195694 0.28668 92 156 70
-0.373582 0.196831 0.28677 88 156 69
-0.373279 0.198268 0.286811 90 156 68
-0.373855 0.20032 0.286754 103 159 77
-0.373551 0.201761 0.286795 95 135 77
-0.373247 0.203202 0.286836 80 97 66
-0.373825 0.205273 0.286779 66 62 51
-0.37352 0.206718 0.28682 66 62 52
-0.398858 0.118148 0.282059 102 156 74
-0.398061 0.119427 0.282159 97 150 73
-0.398719 0.121312 0.282087 93 144 70
-0.398407 0.122794 0.282129 89 139 66
-0.398581 0.124484 0.282115 86 133 62
-0.398755 0.126179 0.2821 83 130 62
-0.39893 0.127879 0.282085 81 130 64
-0.400087 0.130018 0.281955 84 136 62
-0.400759 0.131953 0.281882 91 147 66
-0.401932 0.134125 0.28175 98 155 71
-0.404123 0.136776 0.281499 97 153 68
-0.404309 0.138525 0.281483 89 142 62
-0.405003 0.140515 0.281407 78 129 57
-0.405192 0.142277 0.281391 69 118 53
-0.405381 0.144043 0.281375 63 112 51
-0.40557 0.145815 0.281359 60 109 50
-0.405248 0.147343 0.281402 59 110 48
-0.405437 0.149121 0.281386 59 114 50
-0.405628 0.150905 0.28137 61 116 53
-0.405818 0.152694 0.281354 67 121 54
-0.40601 0.154488 0.281337 74 129 59
-0.406719 0.156551 0.28126 82 138 64
-0.406394 0.158091 0.281304 87 141 64
-0.406587 0.159901 0.281288 86 136 61
-0.407301 0.161988 0.28121 74 122 56
-0.406975 0.163535 0.281254 61 109 50
-0.406649 0.165083 0.281299 58 104 45
-0.406323 0.166629 0.281343 59 105 47
-0.405478 0.167894 0.281448 55 105 40
-0.404636 0.169156 0.281553 46 106 36
-0.404311 0.170698 0.281597 38 106 34
-0.403472 0.171953 0.281701 33 104 30
-0.403148 0.173492 0.281745 30 103 27
-0.404884 0.176203 0.281548 28 102 27
-0.404558 0.177752 0.281592 28 103 27
-0.403715 0.179001 0.281697 27 105 29
-0.403389 0.180547 0.281741 26 108 34
-0.403064 0.182093 0.281786 28 112 37
-0.402738 0.183639 0.28183 35 112 37
-0.402412 0.185184 0.281874 42 114 40
-0.402086 0.18673 0.281918 51 118 47
-0.401761 0.188275 0.281963 61 126 51
-0.401948 0.190135 0.281947 73 134 55
-0.401622 0.191683 0.281991 83 138 59
-0.40181 0.19355 0.281976 90 142 60
-0.401483 0.1951 0.28202 96 143 63
-0.401671 0.196975 0.282004 100 148 65
-0.402376 0.199185 0.281928 103 152 67
-0.401532 0.200409 0.282033 103 155 68
-0.400177 0.201297 0.282197 103 158 69
-0.398322 0.201848 0.28242 100 159 72
-0.397997 0.20339 0.282464 95 155 74
-0.397672 0.204932 0.282508 88 151 73
-0.377631 0.19661 0.284863 73 138 57
-0.376428 0.197452 0.28501 68 136 53
-0.374787 0.197984 0.285207 67 135 52
-0.374482 0.199429 0.285248 74 136 54
-0.373295 0.200258 0.285392 94 141 65
-0.372991 0.201699 0.285434 82 105 63
-0.373568 0.203766 0.285372 71 76 56
-0.373264 0.205211 0.285414 67 64 50
-0.3734 0.206974 0.285404 67 64 51
-0.396357 0.117285 0.280899 102 153 73
-0.395568 0.118558 0.280999 97 148 71
-0.397178 0.120834 0.280807 92 143 69
-0.396867 0.122312 0.28085 88 137 65
-0.397522 0.124205 0.280775 86 131 62
-0.397694 0.125897 0.280758 86 129 62
-0.397867 0.127594 0.280741 86 131 63
-0.399509 0.129947 0.280546 88 137 62
-0.400179 0.131882 0.280469 91 146 67
-0.40135 0.134054 0.280331 98 160 77
-0.403536 0.136704 0.28007 105 168 79
-0.404735 0.138922 0.279929 108 165 76
-0.404415 0.140444 0.279972 97 150 68
-0.405112 0.142446 0.279892 84 134 61
-0.405301 0.144215 0.279874 73 120 55
-0.404978 0.145743 0.279917 66 111 51
-0.405168 0.14752 0.279899 62 108 48
-0.405357 0.149302 0.279881 59 108 47
-0.405034 0.150834 0.279925 59 111 48
-0.405224 0.152623 0.279906 61 115 49
-0.406447 0.154938 0.279762 65 123 53
-0.406122 0.156479 0.279806 71 129 57
-0.407354 0.158822 0.279662 77 133 61
-0.407028 0.16037 0.279706 80 133 63
-0.407745 0.162465 0.279624 76 128 60
-0.407418 0.164017 0.279668 67 117 54
-0.407091 0.165569 0.279712 60 109 47
-0.406764 0.16712 0.279757 58 106 46
-0.406437 0.168672 0.279801 56 107 44
-0.40611 0.170223 0.279846 53 108 42
-0.406304 0.172063 0.279827 46 107 38
-0.405977 0.173617 0.279872 40 105 32
-0.406694 0.17576 0.279789 35 103 28
-0.407416 0.177915 0.279707 30 100 27
-0.407087 0.179478 0.279751 26 98 24
-0.407284 0.181345 0.279732 24 99 26
-0.406954 0.182909 0.279777 26 104 31
-0.406625 0.184474 0.279822 32 108 35
-0.40577 0.185726 0.27993 41 109 35
-0.404918 0.186975 0.280039 48 111 41
-0.404068 0.18822 0.280146 54 119 49
-0.40374 0.189777 0.280191 66 134 57
-0.402894 0.191016 0.280299 76 142 63
-0.402566 0.19257 0.280343 81 145 67
-0.402239 0.194125 0.280388 83 146 68
-0.402428 0.196004 0.280369 84 145 68
-0.4021 0.197561 0.280414 84 145 66
-0.401772 0.199117 0.280459 81 142 65
-0.401444 0.200673 0.280503 79 139 63
-0.400601 0.201895 0.28061 75 136 59
-0.399249 0.202778 0.280779 70 132 57
-0.397905 0.203656 0.280946 66 129 54
-0.39758 0.205201 0.280991 63 126 50
-0.376759 0.198003 0.28353 61 123 50
-0.375558 0.198841 0.28368 64 120 52
-0.37392 0.199367 0.283883 72 116 55
-0.373616 0.200813 0.283924 82 102 60
-0.373311 0.202258 0.283966 73 77 53
-0.373448 0.204018 0.283954 70 65 48
-0.373585 0.205782 0.283942 68 63 46
-0.373722 0.20755 0.28393 65 63 45
-0.395788 0.117215 0.279511 100 151 72
-0.395 0.118488 0.279613 97 147 68
-0.39469 0.119958 0.279655 92 142 66
-0.396295 0.122242 0.279456 87 135 65
-0.395984 0.12372 0.279499 86 131 63
-0.396636 0.125616 0.27942 86 132 62
-0.396808 0.127311 0.279401 87 133 63
-0.398441 0.129658 0.279199 90 139 65
-0.400093 0.132033 0.278994 93 148 69
-0.401265 0.134209 0.278849 97 156 73
-0.40295 0.136633 0.27864 103 164 77
-0.404146 0.13885 0.278493 110 173 82
-0.403826 0.140372 0.278537 109 170 81
-0.404521 0.142374 0.278452 100 155 72
-0.404709 0.144144 0.278432 87 136 62
-0.404387 0.145672 0.278476 75 123 55
-0.404575 0.147449 0.278455 67 114 52
-0.404764 0.14923 0.278435 66 109 49
-0.404953 0.151017 0.278415 62 110 47
-0.405143 0.152809 0.278394 59 110 46
-0.40585 0.154867 0.278308 58 115 49
-0.40708 0.157203 0.278157 62 120 53
-0.407275 0.15902 0.278136 67 126 56
-0.407471 0.160841 0.278115 71 128 58
-0.407667 0.162668 0.278093 71 126 57
-0.407339 0.164223 0.278138 67 119 53
-0.407012 0.165777 0.278182 63 110 48
-0.407207 0.167614 0.278161 60 109 45
-0.40688 0.16917 0.278206 57 108 44
-0.407075 0.171014 0.278185 56 108 43
-0.407798 0.173156 0.278097 53 107 41
-0.407469 0.174719 0.278142 50 106 38
-0.408195 0.176878 0.278054 46 105 34
-0.408926 0.17905 0.277966 38 101 30
-0.408595 0.180622 0.278011 31 97 26
-0.409329 0.182812 0.277922 28 99 27
-0.408997 0.184388 0.277967 34 104 34
-0.408664 0.185964 0.278012 45 109 41
-0.406741 0.186594 0.278258 56 115 45
-0.405359 0.187532 0.278435 61 121 50
-0.404506 0.18878 0.278545 64 131 59
-0.404177 0.190342 0.27859 68 139 65
-0.402808 0.191265 0.278766 69 144 68
-0.40248 0.192822 0.27881 66 142 67
-0.40267 0.194702 0.27879 63 139 67
-0.402861 0.196588 0.27877 62 136 62
-0.402532 0.19815 0.278814 61 130 57
-0.402203 0.199711 0.278859 60 127 55
-0.401874 0.201272 0.278904 62 126 54
-0.401028 0.202496 0.279014 65 125 55
-0.400184 0.203717 0.279123 71 123 59
-0.398321 0.20426 0.27936 67 123 54
-0.397487 0.20547 0.279469 67 122 51
-0.398178 0.207699 0.279385 69 120 51
-0.374994 0.198779 0.282309 74 103 59
-0.373801 0.199612 0.282462 74 91 61
-0.373496 0.20106 0.282503 73 74 60
-0.37319 0.202508 0.282545 70 68 56
-0.373327 0.20427 0.282531 69 66 56
-0.373464 0.206037 0.282517 68 65 56
-0.374046 0.20813 0.282447 66 65 55
-0.393461 0.113243 0.278348 110 157 79
-0.394099 0.11509 0.278267 102 155 77
-0.394265 0.116752 0.278247 99 150 72
-0.393956 0.11822 0.278289 96 147 69
-0.394122 0.119888 0.278269 91 141 66
-0.393812 0.121358 0.278312 87 135 65
-0.395412 0.123649 0.278105 87 132 63
-0.395581 0.125336 0.278085 88 134 62
-0.396233 0.12724 0.278002 90 138 64
-0.397864 0.129588 0.277791 93 142 67
-0.399512 0.131962 0.277578 95 148 72
-0.400682 0.134137 0.277428 98 155 74
-0.402363 0.136562 0.277211 104 162 75
-0.403051 0.138544 0.277123 105 168 77
-0.403237 0.140301 0.277101 105 165 78
-0.403422 0.142062 0.277079 103 163 78
-0.404117 0.144072 0.27699 97 153 73
-0.403795 0.1456 0.277034 86 139 64
-0.403983 0.147377 0.277012 76 125 56
-0.404171 0.149159 0.276989 73 119 54
-0.404359 0.150946 0.276967 69 117 52
-0.404548 0.152738 0.276944 64 112 49
-0.406807 0.155583 0.276652 60 113 49
-0.407001 0.157398 0.276629 59 115 50
-0.40772 0.159488 0.276537 60 118 51
-0.407916 0.161316 0.276513 63 121 52
-0.408114 0.163149 0.27649 65 122 53
-0.407785 0.164708 0.276535 66 118 52
-0.407457 0.166267 0.276579 66 113 50
-0.407654 0.16811 0.276556 64 112 47
-0.407851 0.169959 0.276532 62 112 48
-0.407522 0.171522 0.276577 59 110 50
-0.408779 0.173967 0.276415 57 108 50
-0.409512 0.176134 0.276322 57 108 47
-0.410787 0.178617 0.276158 56 108 43
-0.410992 0.180506 0.276134 50 105 40
-0.410659 0.18209 0.276179 43 102 33
-0.410864 0.183987 0.276154 41 102 34
-0.41053 0.185573 0.2762 43 104 38
-0.409657 0.186841 0.276316 43 104 38
-0.407721 0.18747 0.27657 43 105 36
-0.406329 0.18841 0.276753 43 109 35
-0.405471 0.189662 0.276866 46 112 37
-0.404093 0.190591 0.277048 51 113 40
-0.403242 0.191834 0.277161 54 113 39
-0.402913 0.193396 0.277205 55 113 39
-0.402584 0.194958 0.27725 54 113 39
-0.403296 0.197176 0.27716 54 116 42
-0.402966 0.198742 0.277205 56 119 44
-0.402636 0.200308 0.27725 57 124 48
-0.401786 0.201538 0.277362 64 133 56
-0.400939 0.202764 0.277474 77 145 69
-0.40061 0.204325 0.277519 95 158 81
-0.399766 0.205545 0.277631 112 157 72
-0.397902 0.20608 0.277876 121 140 68
-0.399623 0.209007 0.277654 117 119 64
-0.375321 0.199333 0.280821 85 86 68
-0.374569 0.200478 0.280921 82 92 70
-0.373818 0.20162 0.28102 82 97 71
-0.373512 0.203072 0.281062 83 106 75
-0.373649 0.20484 0.281046 88 113 75
-0.373787 0.206612 0.28103 94 121 73
-0.374372 0.208713 0.280956 99 126 72
-0.377221 0.212473 0.280588 108 133 74
-0.381056 0.216991 0.280092 116 140 73
-0.380742 0.218483 0.280134 123 147 73
-0.379498 0.219284 0.280298 131 149 73
-0.379185 0.220772 0.280341 138 137 73
-0.37841 0.221911 0.280443 121 119 71
-0.377637 0.223047 0.280546 102 101 69
-0.377324 0.224531 0.280588 86 82 63
-0.377012 0.226014 0.280631 77 74 52
-0.376699 0.227498 0.280674 70 63 46
-0.37419 0.10564 0.279487 108 159 80
-0.392588 0.114635 0.277011 101 156 78
-0.393224 0.116486 0.276926 97 151 73
-0.393388 0.118149 0.276905 94 147 71
-0.393553 0.119817 0.276883 90 140 67
-0.393243 0.121287 0.276925 88 134 64
-0.394841 0.123579 0.276711 88 133 62
-0.395009 0.125266 0.276689 90 136 63
-0.395659 0.12717 0.276602 93 141 66
-0.396799 0.1293 0.276449 96 145 69
-0.398932 0.131891 0.276163 98 149 73
-0.400099 0.134066 0.276006 102 155 75
-0.401777 0.13649 0.275781 107 163 76
-0.40196 0.138239 0.275757 106 165 77
-0.402143 0.139993 0.275733 105 160 74
-0.402832 0.141991 0.275641 102 155 72
-0.403018 0.143757 0.275617 96 152 72
-0.403204 0.145529 0.275592 88 145 69
-0.40339 0.147306 0.275568 82 138 63
-0.403577 0.149088 0.275543 79 132 58
-0.403765 0.150874 0.275518 76 129 57
-0.404466 0.152924 0.275425 77 126 55
-0.406728 0.155776 0.275121 72 123 54
-0.407445 0.157861 0.275025 66 118 51
-0.407641 0.159687 0.274999 61 116 49
-0.407838 0.161518 0.274974 61 116 49
-0.408036 0.163355 0.274948 61 116 49
-0.408234 0.165197 0.274922 62 115 51
-0.407904 0.16676 0.274967 62 115 51
-0.407575 0.168324 0.275012 62 114 50
-0.407773 0.170176 0.274986 63 115 51
-0.408501 0.172325 0.274888 63 114 51
-0.409233 0.174487 0.27479 65 117 52
-0.410507 0.176964 0.27462 68 120 53
-0.410712 0.17885 0.274593 69 119 52
-0.412 0.181361 0.27442 66 116 50
-0.411665 0.182953 0.274466 60 110 44
-0.41133 0.184544 0.274512 59 108 44
-0.410994 0.186135 0.274557 47 102 37
-0.410119 0.187406 0.274676 36 97 29
-0.40871 0.188354 0.274866 34 97 27
-0.407309 0.189295 0.275055 40 103 30
-0.405916 0.190231 0.275243 42 107 33
-0.404532 0.191161 0.27543 42 109 39
-0.403678 0.192408 0.275546 44 113 44
-0.402826 0.19365 0.275661 44 117 48
-0.403018 0.19554 0.275636 45 122 48
-0.404785 0.198432 0.275399 49 125 49
-0.404453 0.200007 0.275444 51 123 49
-0.403595 0.201245 0.27556 55 133 52
-0.40274 0.202479 0.275676 66 149 64
-0.40241 0.20405 0.275721 84 167 79
-0.401558 0.205278 0.275836 102 177 86
-0.400708 0.206502 0.275951 122 172 80
-0.399861 0.207723 0.276065 121 161 84
-0.399532 0.209286 0.27611 115 155 87
-0.403903 0.214034 0.275523 108 159 90
-0.375175 0.204589 0.279391 110 180 90
-0.374867 0.206051 0.279433 110 169 81
-0.377269 0.209462 0.27911 112 165 77
-0.385359 0.217025 0.278023 113 162 74
-0.38079 0.215434 0.278638 112 158 73
-0.38141 0.217614 0.278555 113 156 72
-0.380161 0.21842 0.278724 114 156 72
-0.379847 0.219912 0.278767 116 157 75
-0.378606 0.220709 0.278934 120 164 84
-0.378293 0.222197 0.278977 111 166 91
-0.377519 0.223335 0.279082 111 153 85
-0.377206 0.22482 0.279125 107 127 72
-0.376893 0.226306 0.279167 89 94 60
-0.376122 0.227436 0.279272 75 70 50
-0.376267 0.229277 0.279253 67 57 43
-0.374921 0.106084 0.278008 107 166 84
-0.37633 0.108165 0.277812 98 156 76
-0.391715 0.116027 0.275674 95 152 71
-0.39282 0.118079 0.27552 91 144 68
-0.392984 0.119747 0.275497 90 137 65
-0.39458 0.12203 0.275274 88 134 64
-0.394748 0.123715 0.27525 88 134 64
-0.394436 0.125195 0.275293 91 138 66
-0.395085 0.127099 0.275202 94 143 69
-0.396223 0.12923 0.275043 98 148 71
-0.39737 0.131378 0.274883 101 152 72
-0.39902 0.13377 0.274653 106 158 74
-0.40119 0.136419 0.274351 108 163 77
-0.400871 0.137934 0.274395 108 163 78
-0.401052 0.139685 0.274369 106 159 75
-0.401737 0.14168 0.274273 101 154 72
-0.402427 0.143686 0.274176 94 148 68
-0.402612 0.145458 0.27415 87 140 64
-0.40229 0.146986 0.274194 83 135 60
-0.402475 0.148765 0.274167 80 132 58
-0.40317 0.150803 0.27407 79 130 58
-0.40387 0.152853 0.273972 82 138 62
-0.406648 0.155969 0.273585 82 139 63
-0.407366 0.158058 0.273485 81 132 57
-0.407563 0.159887 0.273457 73 124 54
-0.40776 0.161721 0.273429 67 117 51
-0.407957 0.163561 0.273401 63 113 49
-0.407628 0.165125 0.273446 60 112 49
-0.407298 0.166689 0.273491 58 112 49
-0.407495 0.168538 0.273462 58 113 50
-0.407693 0.170393 0.273434 61 116 50
-0.408423 0.172547 0.273332 62 116 50
-0.409691 0.175011 0.273155 67 120 51
-0.410431 0.177194 0.273051 72 127 55
-0.411718 0.179698 0.272872 78 132 60
-0.411926 0.1816 0.272842 81 132 61
-0.41159 0.183194 0.272888 75 123 56
-0.411798 0.185104 0.272858 65 111 51
-0.411462 0.1867 0.272904 57 104 34
-0.410583 0.187975 0.273026 45 100 31
-0.409707 0.189245 0.273147 45 101 33
-0.407762 0.189866 0.273416 47 105 35
-0.407428 0.19145 0.273462 42 107 34
-0.406031 0.192382 0.273655 35 108 36
-0.40517 0.193634 0.273774 33 110 40
-0.404837 0.19521 0.27382 34 112 40
-0.406626 0.198117 0.27357 37 115 39
-0.407361 0.200379 0.273467 39 116 38
-0.407026 0.201969 0.273513 36 118 37
-0.405624 0.202873 0.273707 35 123 40
-0.404231 0.203771 0.2739 46 127 44
-0.403898 0.205351 0.273946 55 133 50
-0.403039 0.206585 0.274064 63 140 57
-0.402706 0.208162 0.27411 75 149 67
-0.402374 0.20974 0.274155 82 159 77
-0.402567 0.211671 0.274128 85 160 79
-0.403287 0.213966 0.274027 87 160 78
-0.3875 0.217184 0.276215 93 145 61
-0.386212 0.218006 0.276394 94 146 64
-0.384453 0.218473 0.276637 93 147 67
-0.383658 0.219634 0.276747 94 148 70
-0.38098 0.219394 0.277119 94 147 70
-0.380197 0.220544 0.277227 91 146 68
-0.378952 0.221342 0.277399 85 144 65
-0.378175 0.222484 0.277506 79 143 60
-0.3774 0.223623 0.277613 85 146 65
-0.377087 0.225111 0.277656 88 139 72
-0.376773 0.226599 0.277699 85 113 75
-0.376002 0.227729 0.277806 73 71 49
-0.376147 0.229574 0.277785 66 57 41
-0.374808 0.106188 0.276639 108 171 89
-0.37579 0.108098 0.276497 101 156 75
-0.391149 0.115957 0.274295 96 147 70
-0.392725 0.118206 0.274067 93 144 68
-0.392416 0.119677 0.27411 90 138 65
-0.394008 0.12196 0.27388 89 135 65
-0.394655 0.123852 0.273785 88 138 68
-0.395306 0.125755 0.27369 91 141 70
-0.39596 0.127668 0.273594 95 145 71
-0.395646 0.129159 0.273637 99 150 72
-0.396303 0.131087 0.273541 103 155 73
-0.397945 0.133474 0.273304 107 161 75
-0.399606 0.135888 0.273064 107 163 78
-0.400284 0.137863 0.272964 108 163 79
-0.399965 0.139379 0.273008 107 157 76
-0.400646 0.14137 0.272908 99 151 72
-0.400827 0.143131 0.27288 92 144 66
-0.401514 0.145141 0.27278 88 137 62
-0.401698 0.146915 0.272751 84 132 60
-0.401882 0.148694 0.272723 79 129 59
-0.402576 0.150732 0.272621 78 131 59
-0.403274 0.152781 0.272519 80 136 61
-0.406046 0.155897 0.27212 85 145 64
-0.406763 0.157986 0.272015 90 151 68
-0.407483 0.160087 0.27191 89 144 64
-0.407681 0.161925 0.271879 82 132 59
-0.407351 0.163489 0.271924 72 120 53
-0.407022 0.165053 0.271969 64 112 49
-0.407218 0.1669 0.271939 59 108 46
-0.407416 0.168753 0.271908 58 109 44
-0.407614 0.170611 0.271878 58 112 44
-0.408344 0.172769 0.271771 59 114 45
-0.409614 0.175238 0.271587 62 118 50
-0.410355 0.177425 0.271478 68 125 55
-0.411644 0.179934 0.271291 76 133 60
-0.411308 0.181528 0.271337 82 138 63
-0.411516 0.183436 0.271305 83 134 62
-0.411724 0.18535 0.271273 75 123 53
-0.411387 0.186948 0.271319 66 113 43
-0.41105 0.188547 0.271365 58 107 43
-0.410171 0.18982 0.271489 53 105 42
-0.409294 0.19109 0.271613 49 104 37
-0.408958 0.192683 0.271659 43 105 32
-0.408622 0.194276 0.271705 36 106 32
-0.408287 0.19587 0.271751 33 106 34
-0.40849 0.197798 0.271719 33 106 33
-0.409778 0.200414 0.271532 33 105 31
-0.409441 0.202017 0.271578 31 107 30
-0.409103 0.203619 0.271625 26 109 30
-0.407684 0.204525 0.271826 28 112 29
-0.40681 0.205773 0.271949 33 114 31
-0.405938 0.207018 0.272072 36 115 36
-0.405603 0.20861 0.272118 41 117 40
-0.404734 0.209848 0.27224 49 120 43
-0.4044 0.211437 0.272286 56 126 47
-0.401953 0.211602 0.272635 65 127 50
-0.40373 0.214616 0.272378 72 130 53
-0.404459 0.216934 0.272271 79 133 55
-0.404656 0.218896 0.27224 85 135 56
-0.386908 0.217119 0.274775 91 146 67
-0.385621 0.217941 0.274958 86 143 66
-0.383865 0.218408 0.275208 83 141 66
-0.383071 0.21957 0.27532 79 137 64
-0.382279 0.220728 0.275431 75 131 60
-0.380082 0.22083 0.275745 68 126 54
-0.3793 0.221978 0.275855 62 124 49
-0.37852 0.223122 0.275965 60 126 47
-0.377281 0.223911 0.276141 73 132 53
-0.376968 0.225402 0.276184 81 125 61
-0.376195 0.226536 0.276292 81 104 66
-0.375881 0.228024 0.276335 71 64 44
-0.375568 0.229512 0.276378 65 57 38
-0.375119 0.106464 0.275204 115 174 93
-0.375678 0.108205 0.275118 103 155 75
-0.390583 0.115887 0.272916 96 148 72
-0.392157 0.118136 0.27268 92 144 70
-0.391847 0.119606 0.272723 90 140 69
-0.393914 0.122093 0.272414 90 136 66
-0.394081 0.123781 0.272386 90 140 67
-0.395213 0.125895 0.272216 93 142 68
-0.395383 0.127597 0.272188 98 145 70
-0.396039 0.129522 0.272087 102 152 72
-0.396699 0.131457 0.271987 105 157 75
-0.396383 0.132956 0.27203 107 162 78
-0.397538 0.135133 0.271856 107 163 78
-0.398702 0.137328 0.271681 109 161 78
-0.39888 0.139074 0.271651 105 155 77
-0.399058 0.140824 0.271621 96 149 72
-0.399737 0.142819 0.271518 91 142 66
-0.400419 0.144825 0.271414 87 135 63
-0.401106 0.146844 0.271309 81 130 61
-0.401289 0.148622 0.271278 77 128 58
-0.401981 0.15066 0.271173 77 129 57
-0.402677 0.15271 0.271066 81 134 60
-0.405445 0.155825 0.270654 87 143 64
-0.406159 0.157914 0.270545 96 157 72
-0.406878 0.160015 0.270435 104 164 75
-0.407074 0.161853 0.270402 102 156 72
-0.406745 0.163417 0.270448 88 137 62
-0.406415 0.164981 0.270493 75 122 54
-0.406611 0.166829 0.27046 67 112 47
-0.406808 0.168681 0.270428 62 106 42
-0.407005 0.17054 0.270395 57 107 43
-0.407733 0.172697 0.270284 56 109 44
-0.409536 0.175465 0.270013 56 113 46
-0.410279 0.177657 0.2699 59 118 50
-0.411026 0.179862 0.269786 65 125 54
-0.411233 0.181767 0.269752 72 131 58
-0.41144 0.183679 0.269717 77 132 60
-0.411649 0.185596 0.269683 75 127 57
-0.411311 0.187197 0.269729 68 118 51
-0.410974 0.188798 0.269775 61 107 43
-0.410093 0.190073 0.269902 57 105 41
-0.409757 0.191672 0.269948 54 104 39
-0.409962 0.1936 0.269914 51 104 35
-0.409625 0.195201 0.26996 47 106 34
-0.410376 0.197475 0.269845 39 106 34
-0.411681 0.200106 0.269648 36 104 32
-0.412444 0.202413 0.269532 31 102 29
-0.412103 0.20403 0.269578 26 101 28
-0.411763 0.205647 0.269625 23 103 28
-0.410322 0.206556 0.269835 27 109 30
-0.408891 0.207458 0.270043 33 110 35
-0.40801 0.20871 0.270169 38 111 40
-0.407672 0.210314 0.270216 45 113 45
-0.406793 0.211559 0.270342 54 118 49
-0.403782 0.211368 0.270784 60 126 53
-0.403447 0.212958 0.27083 67 131 55
-0.404175 0.215271 0.270719 72 133 58
-0.404372 0.21723 0.270686 75 134 59
-0.404036 0.218827 0.270732 76 134 60
-0.402637 0.219683 0.270935 78 134 61
-0.401773 0.220904 0.271059 74 132 60
-0.397456 0.221483 0.271692 67 125 56
-0.388095 0.216577 0.273075 64 121 55
-0.386315 0.217054 0.273335 61 118 52
-0.385512 0.218226 0.273451 59 115 49
-0.383753 0.218693 0.273708 58 112 44
-0.382958 0.219856 0.273822 57 113 41
-0.382165 0.221016 0.273936 56 114 42
-0.380904 0.221819 0.274119 54 115 42
-0.379183 0.222266 0.274371 53 117 43
-0.378402 0.223412 0.274483 57 121 48
-0.377624 0.224554 0.274595 79 131 57
-0.376848 0.225693 0.274706 82 114 63
-0.376074 0.226829 0.274818 73 83 59
-0.375302 0.227962 0.274928 62 57 39
-0.375446 0.22981 0.274904 59 57 39
-0.375432 0.106741 0.27376 119 174 91
-0.375565 0.108313 0.273736 106 155 76
-0.389085 0.115431 0.271678 98 151 74
-0.391116 0.117868 0.271365 93 145 74
-0.391278 0.119536 0.271336 90 140 70
-0.393341 0.122023 0.271017 92 140 67
-0.393987 0.123918 0.270915 94 142 69
-0.394637 0.125824 0.270811 96 143 68
-0.394806 0.127527 0.270781 99 147 70
-0.394975 0.129234 0.270751 103 154 74
-0.395146 0.130946 0.27072 107 158 76
-0.396781 0.133332 0.270467 109 160 77
-0.397447 0.135289 0.270361 109 162 77
-0.39713 0.136797 0.270404 109 159 77
-0.397799 0.138769 0.270298 104 155 75
-0.397975 0.140516 0.270266 97 148 71
-0.398649 0.142508 0.270159 92 140 65
-0.399328 0.144511 0.270051 86 134 62
-0.400514 0.146772 0.269866 81 129 60
-0.400191 0.148301 0.26991 77 127 57
-0.401386 0.150589 0.269723 78 129 56
-0.402081 0.152638 0.269613 82 135 58
-0.404843 0.155753 0.269188 87 142 65
-0.405556 0.157842 0.269074 93 154 72
-0.406273 0.159943 0.26896 104 165 76
-0.405944 0.161505 0.269005 109 172 80
-0.406139 0.163345 0.268971 106 163 74
-0.405809 0.164909 0.269016 94 145 64
-0.406004 0.166757 0.268981 80 127 56
-0.4062 0.16861 0.268947 67 113 51
-0.406396 0.170468 0.268912 60 109 48
-0.407653 0.172919 0.268715 58 108 46
-0.408922 0.175393 0.268517 54 109 44
-0.409662 0.177585 0.268399 54 111 45
-0.41095 0.180098 0.268198 57 116 47
-0.411157 0.182007 0.268161 62 122 51
-0.411365 0.183922 0.268124 67 125 55
-0.411028 0.185524 0.268171 69 124 56
-0.41069 0.187125 0.268217 67 118 53
-0.410353 0.188726 0.268263 61 109 49
-0.41056 0.190654 0.268226 57 106 47
-0.410768 0.192587 0.26819 57 105 41
-0.410976 0.194526 0.268153 57 106 35
-0.412286 0.197148 0.267948 53 108 36
-0.414165 0.200139 0.267656 44 109 40
-0.414941 0.202464 0.267532 41 107 37
-0.414598 0.204094 0.267579 36 104 33
-0.414816 0.206081 0.267541 30 100 30
-0.414472 0.207713 0.267588 29 102 31
-0.413568 0.208984 0.267721 36 109 37
-0.412667 0.210251 0.267853 40 111 42
-0.411215 0.211151 0.268069 45 114 46
-0.410873 0.212773 0.268116 50 116 49
-0.406171 0.211489 0.268828 53 121 53
-0.405297 0.21273 0.268957 54 127 59
-0.40496 0.21433 0.269003 57 131 62
-0.404623 0.215929 0.269049 56 129 61
-0.404286 0.217528 0.269095 55 126 58
-0.403416 0.218758 0.269223 53 122 53
-0.401491 0.219246 0.269512 51 119 51
-0.401156 0.220835 0.269558 47 117 45
-0.399772 0.221681 0.269764 46 116 44
-0.395308 0.220319 0.270441 45 114 43
-0.38897 0.217567 0.271404 42 113 41
-0.386692 0.21769 0.271747 42 114 41
-0.385402 0.218512 0.271939 45 112 38
-0.383641 0.218979 0.272203 46 111 36
-0.382845 0.220143 0.272319 44 113 36
-0.382051 0.221305 0.272436 48 114 36
-0.380788 0.222108 0.272624 49 114 40
-0.379532 0.222907 0.272811 56 118 46
-0.378284 0.223702 0.272997 68 125 55
-0.377504 0.224845 0.273111 86 132 65
-0.376727 0.225986 0.273225 79 96 58
-0.375953 0.227123 0.273338 69 65 46
-0.37518 0.228257 0.273451 64 55 35
-0.375324 0.230108 0.273425 59 55 35
-0.375318 0.106847 0.272376 122 173 87
-0.375451 0.108421 0.27235 108 155 76
-0.376444 0.110355 0.272189 99 152 75
-0.388678 0.117014 0.270271 95 149 76
-0.390239 0.119266 0.270022 93 144 73
-0.392768 0.121952 0.26962 94 142 69
-0.393413 0.123847 0.269514 94 146 71
-0.39406 0.125753 0.269406 97 146 70
-0.394229 0.127456 0.269374 101 150 72
-0.394398 0.129163 0.269342 105 156 74
-0.394567 0.130875 0.269309 108 159 75
-0.39571 0.133037 0.269124 109 160 75
-0.395882 0.134764 0.269091 109 160 75
-0.396546 0.136726 0.268982 108 158 76
-0.397213 0.138698 0.268871 105 155 75
-0.396895 0.14021 0.268915 99 148 71
-0.397565 0.142198 0.268804 93 140 64
-0.398239 0.144197 0.268692 86 132 60
-0.399419 0.146454 0.268501 81 129 59
-0.399599 0.14823 0.268467 79 128 56
-0.400285 0.150264 0.268353 81 131 56
-0.400975 0.15231 0.268239 85 137 59
-0.404241 0.155681 0.267721 88 143 65
-0.404952 0.15777 0.267604 93 149 70
-0.405145 0.159599 0.267567 101 159 74
-0.405338 0.161433 0.26753 105 165 75
-0.405009 0.162996 0.267576 104 163 75
-0.405203 0.164838 0.267539 100 159 74
-0.405397 0.166685 0.267502 92 145 68
-0.405592 0.168538 0.267465 79 129 58
-0.406314 0.170686 0.267345 69 120 52
-0.407041 0.172848 0.267225 66 116 51
-0.408307 0.175321 0.26702 62 112 48
-0.409585 0.177817 0.266813 59 111 45
-0.41033 0.180026 0.26669 58 112 44
-0.411081 0.182248 0.266565 57 115 47
-0.410744 0.18385 0.266612 59 118 50
-0.410951 0.18577 0.266573 61 118 51
-0.410613 0.187374 0.266619 61 117 50
-0.410821 0.189303 0.26658 59 111 50
-0.411029 0.191237 0.26654 58 109 49
-0.411238 0.193178 0.266501 60 109 47
-0.413105 0.196136 0.266201 60 109 44
-0.413876 0.198441 0.266074 56 107 41
-0.415214 0.20111 0.265857 52 109 39
-0.415433 0.203095 0.265816 53 111 44
-0.415088 0.204731 0.265863 50 108 40
-0.415307 0.206725 0.265822 44 105 36
-0.414962 0.208362 0.265869 40 104 37
-0.414617 0.21 0.265917 39 105 38
-0.41371 0.211271 0.266052 37 105 36
-0.412806 0.212539 0.266187 38 107 36
-0.410796 0.213067 0.266497 38 108 33
-0.407712 0.212862 0.266975 38 109 32
-0.406289 0.213745 0.267192 38 110 33
-0.405411 0.214987 0.267323 38 108 32
-0.404537 0.216225 0.267454 36 109 32
-0.403665 0.217459 0.267584 34 108 28
-0.403328 0.219058 0.26763 34 109 28
-0.401929 0.219915 0.267844 34 109 29
-0.400538 0.220767 0.268056 34 110 29
-0.399679 0.221984 0.268184 37 111 34
-0.394699 0.220252 0.268961 37 111 36
-0.390845 0.219281 0.269561 37 111 35
-0.387558 0.218683 0.270072 41 111 36
-0.384809 0.218447 0.270498 46 109 35
-0.384008 0.219618 0.270618 46 109 35
-0.382732 0.220432 0.270812 45 110 37
-0.381937 0.221594 0.270931 51 112 39
-0.380672 0.222398 0.271124 59 113 45
-0.379884 0.223552 0.271242 70 119 55
-0.378631 0.224347 0.271433 77 121 62
-0.377385 0.225138 0.271622 79 112 61
-0.377069 0.226637 0.271666 70 75 45
-0.375831 0.227418 0.271855 65 58 37
-0.375516 0.228913 0.271898 62 53 35
-0.375201 0.230407 0.271941 59 53 35
-0.374777 0.106779 0.271056 121 173 84
-0.374909 0.108354 0.271028 107 159 77
-0.3759 0.110288 0.270862 100 154 76
-0.386727 0.116362 0.269116 96 152 76
-0.392031 0.120198 0.268256 95 146 72
-0.392195 0.121881 0.268223 96 147 72
-0.392838 0.123776 0.268112 97 148 73
-0.393484 0.125682 0.268001 100 148 73
-0.393652 0.127385 0.267967 103 153 74
-0.39382 0.129092 0.267933 105 158 75
-0.393988 0.130804 0.267898 107 160 75
-0.395129 0.132966 0.267707 107 161 75
-0.3953 0.134693 0.267672 106 160 76
-0.395472 0.136425 0.267637 107 157 77
-0.396135 0.138394 0.267523 107 153 75
-0.397297 0.14061 0.267329 99 148 72
-0.397473 0.142366 0.267293 92 139 66
-0.397154 0.143884 0.267337 86 131 60
-0.398327 0.146136 0.267141 81 130 58
-0.399007 0.148159 0.267024 81 130 56
-0.399187 0.14994 0.266987 83 133 58
-0.399873 0.151982 0.266869 87 139 62
-0.403639 0.155609 0.266255 90 145 66
-0.403829 0.15743 0.266216 95 150 71
-0.40454 0.159527 0.266094 100 159 73
-0.404733 0.161361 0.266055 102 161 73
-0.404404 0.162924 0.2661 103 159 73
-0.404596 0.164766 0.266062 98 155 71
-0.404789 0.166613 0.266023 90 147 68
-0.404983 0.168466 0.265984 83 139 63
-0.405704 0.170614 0.265859 79 133 59
-0.406429 0.172776 0.265735 75 129 57
-0.407692 0.175249 0.265523 72 123 53
-0.409506 0.17805 0.265222 70 120 52
-0.410797 0.180574 0.265006 66 117 48
-0.41046 0.182176 0.265053 60 115 48
-0.410667 0.184094 0.265011 57 114 47
-0.410874 0.186018 0.26497 56 114 45
-0.410536 0.187624 0.265016 54 114 46
-0.410744 0.189557 0.264974 55 112 48
-0.410953 0.191495 0.264933 56 112 49
-0.411712 0.193772 0.264802 59 113 50
-0.413588 0.196743 0.264491 62 113 50
-0.414924 0.199404 0.264267 63 114 49
-0.415706 0.201738 0.264132 65 119 50
-0.415927 0.203731 0.264088 68 122 51
-0.415581 0.205371 0.264135 67 118 50
-0.415235 0.207012 0.264183 60 112 47
-0.41489 0.208652 0.26423 46 104 40
-0.414545 0.210293 0.264278 32 99 32
-0.413636 0.211566 0.264417 28 97 27
-0.412731 0.212834 0.264555 27 101 26
-0.410165 0.212996 0.264961 27 103 25
-0.409272 0.214253 0.265097 30 104 26
-0.406746 0.214404 0.265498 33 105 25
-0.405326 0.215282 0.265719 33 106 26
-0.40445 0.216522 0.265853 31 107 28
-0.404112 0.218126 0.265899 33 109 30
-0.403239 0.219359 0.266032 36 110 30
-0.402369 0.220588 0.266165 36 111 31
-0.400973 0.22144 0.266383 39 109 34
-0.399062 0.221915 0.266684 43 107 38
-0.395622 0.22128 0.267233 45 106 39
-0.391742 0.220294 0.267854 48 106 40
-0.38942 0.220403 0.268222 51 104 41
-0.385665 0.219442 0.268822 56 102 42
-0.383896 0.219906 0.269101 55 100 45
-0.383096 0.221075 0.269223 55 100 47
-0.381822 0.221884 0.269422 57 99 50
-0.381029 0.223045 0.269543 65 98 55
-0.379767 0.223845 0.269739 68 94 57
-0.379449 0.225355 0.269783 67 85 53
-0.377729 0.225788 0.270054 63 65 42
-0.376948 0.226932 0.270173 59 61 36
-0.37617 0.228073 0.270291 57 56 36
-0.375394 0.229211 0.27041 56 53 37
-0.374662 0.106885 0.269666 115 172 83
-0.374367 0.108286 0.269706 108 166 82
-0.374927 0.110042 0.269606 101 157 77
-0.382079 0.114576 0.268417 97 154 76
-0.391459 0.120127 0.266861 97 151 72
-0.391622 0.12181 0.266825 97 151 73
-0.392263 0.123706 0.266711 99 152 74
-0.392908 0.125611 0.266596 102 152 74
-0.393074 0.127314 0.266559 104 155 74
-0.393241 0.129021 0.266523 105 157 74
-0.393409 0.130734 0.266487 106 159 75
-0.394547 0.132895 0.26629 106 159 76
-0.394718 0.134623 0.266253 107 161 78
-0.394889 0.136355 0.266216 105 162 80
-0.395551 0.138323 0.266098 99 150 75
-0.39671 0.140539 0.265897 96 146 71
-0.396885 0.142294 0.26586 90 138 66
-0.397061 0.144055 0.265822 85 132 61
-0.397736 0.146065 0.265701 83 131 58
-0.397415 0.14759 0.265745 83 133 59
-0.398092 0.149617 0.265624 86 136 62
-0.399278 0.15191 0.265419 89 141 65
-0.402521 0.155273 0.264873 92 147 69
-0.403226 0.157358 0.264747 96 153 73
-0.403416 0.159184 0.264707 101 159 74
-0.403607 0.161015 0.264666 105 161 76
-0.403798 0.162852 0.264625 102 158 73
-0.40399 0.164694 0.264584 96 152 70
-0.404182 0.166541 0.264543 89 144 65
-0.404375 0.168394 0.264502 84 135 60
-0.405094 0.170543 0.264373 79 130 58
-0.405817 0.172704 0.264244 76 130 57
-0.407077 0.175177 0.264026 74 132 56
-0.409428 0.178284 0.263627 78 138 63
-0.410176 0.180501 0.263493 80 134 57
-0.410382 0.182417 0.263449 72 126 53
-0.410589 0.184339 0.263405 65 118 46
-0.410251 0.185946 0.263452 58 113 43
-0.410458 0.187875 0.263408 54 110 44
-0.410667 0.189811 0.263364 51 111 45
-0.411425 0.192084 0.263228 49 112 46
-0.413299 0.195044 0.262907 54 114 48
-0.414073 0.197354 0.262769 58 117 51
-0.415415 0.200026 0.262536 62 122 54
-0.415635 0.202017 0.26249 67 129 57
-0.415289 0.203658 0.262538 75 136 62
-0.414944 0.205299 0.262585 80 138 63
-0.414598 0.206939 0.262633 63 118 54
-0.414253 0.20858 0.26268 44 103 41
-0.413907 0.21022 0.262728 30 98 31
-0.413562 0.211861 0.262775 25 100 29
-0.412096 0.212763 0.263009 26 104 29
-0.411194 0.214028 0.263149 28 104 30
-0.409191 0.21455 0.263473 32 106 29
-0.406662 0.214699 0.263884 34 108 28
-0.404701 0.215212 0.2642 34 108 29
-0.403826 0.216452 0.264336 35 109 32
-0.403488 0.218056 0.264383 42 108 33
-0.403151 0.219661 0.264429 52 108 39
-0.402279 0.220891 0.264565 61 108 46
-0.401411 0.222118 0.2647 61 105 48
-0.399492 0.222592 0.26501 61 102 50
-0.396554 0.222318 0.265489 62 97 50
-0.392141 0.220953 0.266215 63 93 48
-0.390309 0.22142 0.266511 62 87 46
-0.386041 0.220087 0.267213 62 81 46
-0.383783 0.220196 0.26758 60 78 47
-0.382982 0.221365 0.267704 59 76 47
-0.382183 0.222532 0.267828 59 72 45
-0.381387 0.223695 0.267952 63 70 44
-0.38012 0.224495 0.268154 62 66 41
-0.37933 0.22565 0.268276 61 59 38
-0.378543 0.226802 0.268399 60 52 37
-0.378225 0.228312 0.268442 61 54 36
-0.376048 0.22837 0.268797 56 55 37
-0.37412 0.106818 0.268344 108 168 83
-0.373825 0.108219 0.268385 111 172 87
-0.374384 0.109975 0.268281 105 159 77
-0.374945 0.11174 0.268176 100 155 75
-0.390886 0.120056 0.265465 100 154 74
-0.392001 0.122149 0.265266 101 154 73
-0.391688 0.123635 0.265309 102 155 74
-0.392331 0.125541 0.26519 104 156 74
-0.392497 0.127243 0.265152 105 159 74
-0.392663 0.128951 0.265114 107 158 74
-0.39283 0.130663 0.265075 107 158 75
-0.394452 0.133048 0.26479 106 158 76
-0.394623 0.134778 0.264751 105 159 77
-0.394794 0.136513 0.264712 104 157 76
-0.395456 0.138485 0.264589 100 151 73
-0.396122 0.140468 0.264466 96 142 70
-0.396297 0.142223 0.264426 93 137 66
-0.396472 0.143984 0.264386 87 132 61
-0.397145 0.145994 0.264261 87 133 61
-0.397822 0.148016 0.264136 88 138 64
-0.399006 0.150303 0.263924 90 139 64
-0.398683 0.151839 0.263969 92 144 66
-0.40192 0.155201 0.263408 94 149 71
-0.402623 0.157286 0.263278 98 155 74
-0.402812 0.159112 0.263235 103 160 74
-0.403002 0.160943 0.263192 106 159 74
-0.403192 0.16278 0.263149 99 153 70
-0.403383 0.164622 0.263106 94 148 69
-0.403574 0.16647 0.263063 88 141 65
-0.403766 0.168322 0.26302 83 134 61
-0.40501 0.170761 0.262797 78 129 57
-0.405734 0.172927 0.262663 75 128 55
-0.406462 0.175105 0.262528 75 131 57
-0.408808 0.178211 0.262118 80 139 60
-0.409554 0.180429 0.26198 85 146 64
-0.410304 0.182659 0.261841 86 146 64
-0.409966 0.184266 0.261887 78 134 57
-0.410173 0.186194 0.261841 69 119 51
-0.410381 0.188127 0.261795 61 111 47
-0.410589 0.190066 0.261748 54 110 46
-0.411901 0.192676 0.261513 49 108 44
-0.413783 0.19565 0.261181 51 111 43
-0.413999 0.197625 0.261132 54 114 47
-0.415344 0.200303 0.260892 57 120 51
-0.414998 0.201944 0.260939 62 128 56
-0.414652 0.203585 0.260987 72 137 61
-0.414307 0.205226 0.261035 75 138 63
-0.413961 0.206867 0.261082 57 114 47
-0.413616 0.208507 0.26113 39 102 33
-0.41327 0.210148 0.261177 31 101 27
-0.412925 0.211789 0.261225 30 104 29
-0.411461 0.212691 0.261464 32 106 32
-0.41056 0.213956 0.261606 33 106 34
-0.40911 0.214847 0.261843 36 109 33
-0.406035 0.214629 0.262358 39 110 33
-0.404077 0.215142 0.262681 40 111 35
-0.403738 0.216749 0.262728 42 111 38
-0.4034 0.218356 0.262775 55 110 43
-0.402527 0.219591 0.262913 64 95 50
-0.402189 0.221196 0.262959 65 78 50
-0.400789 0.222049 0.263188 63 72 45
-0.399924 0.223272 0.263325 64 67 48
-0.396974 0.222993 0.263819 65 63 45
-0.39305 0.221982 0.26448 63 59 40
-0.390704 0.222081 0.264871 60 58 36
-0.38593 0.220379 0.265678 60 51 37
-0.384152 0.220842 0.265972 59 54 39
-0.382868 0.221657 0.266181 59 55 40
-0.382068 0.222825 0.266308 61 56 39
-0.381271 0.223989 0.266433 60 55 37
-0.380476 0.22515 0.266559 56 53 36
-0.379212 0.225946 0.266765 56 52 37
-0.378893 0.227461 0.266809 59 52 39
-0.378105 0.228612 0.266934 59 53 41
-0.373283 0.108151 0.267062 115 173 86
-0.373414 0.10973 0.267029 108 161 77
-0.373972 0.111492 0.266922 103 158 77
-0.390787 0.120187 0.263986 104 158 76
-0.391426 0.122078 0.263864 106 158 76
-0.391113 0.123564 0.263907 106 158 76
-0.391754 0.12547 0.263784 108 161 76
-0.391919 0.127172 0.263744 107 161 76
-0.392085 0.12888 0.263704 108 159 75
-0.392251 0.130592 0.263664 107 158 77
-0.394357 0.1332 0.263285 105 158 77
-0.394527 0.134933 0.263244 105 159 77
-0.394699 0.136671 0.263203 104 157 77
-0.395362 0.138646 0.263076 101 150 73
-0.395535 0.140397 0.263034 95 144 71
-0.395709 0.142152 0.262992 92 138 64
-0.395883 0.143912 0.26295 87 138 64
-0.396554 0.145923 0.262821 85 138 66
-0.397229 0.147945 0.262692 87 140 67
-0.398411 0.150232 0.262474 90 141 65
-0.401645 0.153577 0.261898 93 146 68
-0.402348 0.155657 0.261763 97 153 72
-0.40202 0.157214 0.261808 102 157 73
-0.402208 0.15904 0.261764 103 159 72
-0.402397 0.160871 0.261719 103 156 71
-0.402586 0.162708 0.261673 98 150 68
-0.402776 0.16455 0.261628 94 146 67
-0.402966 0.166398 0.261583 89 139 63
-0.40368 0.168537 0.261446 82 133 59
-0.404398 0.170689 0.261308 76 128 56
-0.40565 0.17315 0.261077 73 126 55
-0.40638 0.175332 0.260937 75 130 58
-0.408188 0.178139 0.260608 81 139 62
-0.409475 0.180667 0.260371 87 151 70
-0.409681 0.182587 0.260322 97 160 73
-0.409342 0.184194 0.260369 95 152 68
-0.409548 0.186121 0.260321 83 135 59
-0.409755 0.188055 0.260272 69 120 52
-0.410511 0.190322 0.260127 60 114 49
-0.411824 0.192937 0.259884 58 108 45
-0.41315 0.195577 0.259639 53 108 41
-0.413365 0.197552 0.259589 53 110 42
-0.413581 0.199532 0.259538 53 114 46
-0.414361 0.201871 0.259388 57 122 51
-0.414015 0.203512 0.259436 64 127 53
-0.413669 0.205153 0.259484 61 121 55
-0.413324 0.206794 0.259531 49 109 37
-0.412978 0.208435 0.259579 39 105 30
-0.412633 0.210076 0.259627 35 105 29
-0.412287 0.211716 0.259674 35 106 33
-0.410825 0.212619 0.259918 35 107 38
-0.409372 0.213516 0.26016 35 110 40
-0.408478 0.214776 0.260305 45 112 39
-0.405407 0.214558 0.260831 51 113 39
-0.403452 0.215072 0.261162 53 115 42
-0.403114 0.21668 0.261209 55 115 46
-0.402775 0.218287 0.261255 70 112 54
-0.402437 0.219894 0.261302 70 82 52
-0.401565 0.221126 0.261442 66 63 47
-0.400167 0.22198 0.261676 63 61 46
-0.399303 0.223203 0.261815 63 56 48
-0.396877 0.223298 0.262229 64 58 44
-0.392948 0.222282 0.262908 60 58 41
-0.390599 0.22238 0.263309 54 55 39
-0.372741 0.108084 0.26574 119 171 83
-0.372871 0.109662 0.265705 110 164 80
-0.373001 0.111244 0.26567 106 163 80
-0.390214 0.120116 0.262588 108 163 78
-0.391327 0.122213 0.262376 108 163 80
-0.391014 0.123701 0.26242 110 163 78
-0.391178 0.125399 0.262378 111 166 78
-0.391342 0.127101 0.262336 109 164 78
-0.391506 0.128809 0.262294 109 161 77
-0.391672 0.130521 0.262252 108 160 78
-0.394261 0.133354 0.261776 106 159 78
-0.393943 0.134862 0.26182 106 157 77
-0.394603 0.13683 0.261689 105 154 75
-0.394775 0.138575 0.261646 103 150 73
-0.394947 0.140326 0.261602 98 145 69
-0.395614 0.14232 0.26147 91 140 65
-0.395788 0.144083 0.261425 90 138 64
-0.39646 0.146097 0.261292 91 142 66
-0.397136 0.148123 0.261158 90 140 65
-0.397816 0.15016 0.261023 90 142 66
-0.401557 0.153767 0.26034 95 148 70
-0.401744 0.155585 0.260293 101 155 73
