ply
format ascii 1.0
element vertex 1278
property float x
property float y
property float z
property uchar diffuse_red
property uchar diffuse_green
property uchar diffuse_blue
end_header
-0.512554 0.231219 0.265002 7 37 42
-0.509938 0.231727 0.265566 7 35 41
-0.508151 0.232729 0.266002 6 36 39
-0.502439 0.231247 0.267035 5 36 42
-0.492356 0.226943 0.268728 6 35 41
-0.484872 0.224201 0.27002 7 35 41
-0.483986 0.225633 0.270308 7 36 42
-0.483816 0.227523 0.270487 6 36 40
-0.482222 0.228483 0.27088 6 35 40
-0.482053 0.230366 0.271058 7 35 41
-0.481884 0.23225 0.271237 8 34 41
-0.438549 0.212466 0.278417 7 37 36
-0.43614 0.212592 0.27891 8 38 35
-0.43599 0.21427 0.279069 8 38 36
-0.439233 0.218331 0.27873 5 35 40
-0.440802 0.221241 0.278638 7 37 41
-0.442385 0.224179 0.278545 6 37 41
-0.443397 0.226725 0.278537 3 36 40
-0.443243 0.22844 0.2787 3 37 44
-0.442506 0.229732 0.278947 3 48 54
-0.442352 0.231446 0.279109 5 65 70
-0.441618 0.232731 0.279355 28 78 86
-0.441464 0.234442 0.279517 52 81 91
-0.440732 0.235721 0.279762 71 82 91
-0.440579 0.237429 0.279924 74 88 92
-0.441004 0.239575 0.280003 71 76 77
-0.442595 0.242615 0.279917 67 62 59
-0.443613 0.245233 0.279913 64 58 50
-0.517992 0.224241 0.261279 54 57 56
-0.517809 0.226279 0.261471 37 46 49
-0.517627 0.228317 0.261664 17 34 39
-0.51661 0.229851 0.26199 9 37 38
-0.514771 0.230874 0.262445 8 37 40
-0.512946 0.23189 0.262897 9 37 42
-0.511948 0.233403 0.263217 9 37 42
-0.508531 0.233396 0.263918 7 37 41
-0.502023 0.231412 0.265101 5 34 41
-0.49195 0.227103 0.26684 6 35 40
-0.484473 0.224359 0.268164 7 36 41
-0.483587 0.225791 0.268455 7 36 42
-0.483418 0.227682 0.268634 5 37 44
-0.483248 0.229572 0.268813 5 37 42
-0.481655 0.230525 0.269212 7 36 40
-0.481486 0.232409 0.269391 9 34 37
-0.449149 0.221998 0.275231 8 36 37
-0.44365 0.220008 0.276208 7 35 37
-0.443497 0.221723 0.27637 6 36 40
-0.445105 0.224687 0.276266 7 37 40
-0.445541 0.226832 0.27634 7 36 40
-0.445386 0.228559 0.276503 6 34 41
-0.445232 0.230285 0.276667 5 37 45
-0.444487 0.231583 0.276919 4 47 56
-0.444332 0.233307 0.277082 9 64 74
-0.444177 0.235032 0.277245 47 92 100
-0.444023 0.236756 0.277408 73 122 126
-0.443281 0.238042 0.277658 87 143 143
-0.442541 0.239323 0.277908 88 141 143
-0.442387 0.241043 0.278071 84 114 110
-0.443404 0.243656 0.278061 77 84 76
-0.444427 0.246285 0.278052 66 57 59
-0.519239 0.225402 0.259004 59 59 54
-0.519055 0.227448 0.259198 42 47 47
-0.518872 0.229494 0.259391 19 35 38
-0.517849 0.231031 0.259722 10 38 38
-0.515999 0.232054 0.260187 9 36 41
-0.514162 0.233069 0.260649 10 36 43
-0.511522 0.233571 0.261241 10 37 43
-0.508912 0.234066 0.261825 8 36 40
-0.502387 0.232069 0.263042 8 36 40
-0.493034 0.228212 0.26471 7 36 42
-0.484792 0.224978 0.266193 6 36 44
-0.483904 0.226411 0.266488 6 35 45
-0.483734 0.228305 0.266667 5 36 46
-0.483564 0.230199 0.266846 5 37 42
-0.482679 0.231621 0.267139 6 37 39
-0.481089 0.232567 0.267544 7 37 37
-0.48092 0.234451 0.267722 7 36 38
-0.456612 0.22947 0.27244 5 34 40
-0.447869 0.225203 0.27395 4 35 42
-0.447713 0.226941 0.274114 5 36 44
-0.447557 0.228678 0.274278 5 37 45
-0.446804 0.229986 0.274536 5 36 46
-0.446053 0.231291 0.274792 3 38 47
-0.445304 0.232591 0.275047 2 43 57
-0.444557 0.233887 0.275302 4 54 73
-0.444402 0.235614 0.275466 20 75 92
-0.444247 0.237341 0.275629 41 103 109
-0.443504 0.238628 0.275882 64 128 123
-0.442763 0.239911 0.276135 91 142 129
-0.443783 0.242525 0.276119 96 126 112
-0.444217 0.244703 0.276193 90 99 88
-0.445247 0.247345 0.276178 74 68 63
-0.519649 0.226071 0.256855 59 59 50
-0.519465 0.228121 0.257049 40 48 45
-0.519282 0.230171 0.257243 18 36 40
-0.518256 0.23171 0.257578 11 36 39
-0.516401 0.232732 0.258053 11 36 41
-0.515387 0.234258 0.258385 10 35 43
-0.513552 0.235266 0.258853 9 35 43
-0.509295 0.234739 0.259725 8 36 41
-0.502752 0.232728 0.260974 8 38 41
-0.495638 0.230291 0.262314 6 38 42
-0.485111 0.225598 0.264214 6 37 43
-0.484221 0.227033 0.264513 5 36 44
-0.483334 0.228464 0.26481 3 36 45
-0.483164 0.230358 0.264989 3 38 43
-0.482994 0.232252 0.265169 4 39 41
-0.482111 0.233671 0.265465 5 38 41
-0.480522 0.23461 0.265876 6 36 40
-0.480353 0.236495 0.266054 6 37 39
-0.467862 0.237763 0.268824 5 37 42
-0.456077 0.231398 0.270867 4 36 43
-0.454048 0.231848 0.271336 6 36 42
-0.450206 0.230983 0.272093 7 37 41
-0.448234 0.231428 0.272549 5 38 43
-0.447477 0.232736 0.272809 2 39 45
-0.445531 0.233171 0.273259 2 40 48
-0.444783 0.234468 0.273517 3 44 51
-0.444628 0.236198 0.27368 7 53 62
-0.444473 0.237929 0.273844 14 69 74
-0.444318 0.239659 0.274007 29 85 85
-0.444163 0.24139 0.274171 62 96 92
-0.444007 0.24312 0.274335 73 88 85
-0.445036 0.245757 0.274313 75 75 72
-0.446071 0.248411 0.274292 69 63 55
-0.520061 0.226743 0.254698 58 58 48
-0.519877 0.228796 0.254892 42 48 45
-0.519693 0.23085 0.255086 19 36 42
-0.518665 0.232391 0.255426 11 35 40
-0.516804 0.233413 0.255909 10 37 40
-0.515787 0.234941 0.256246 9 37 42
-0.513948 0.235948 0.256724 8 36 44
-0.509679 0.235414 0.257617 7 37 44
-0.503119 0.233389 0.258899 6 37 43
-0.495985 0.230938 0.260274 5 38 41
-0.48908 0.228565 0.261606 5 38 41
-0.485261 0.228125 0.262408 5 37 42
-0.484369 0.229558 0.26271 3 37 42
-0.48348 0.230987 0.263012 3 39 42
-0.48331 0.232885 0.263191 4 39 43
-0.48314 0.234782 0.26337 5 37 43
-0.480124 0.234768 0.264028 7 35 41
-0.479955 0.236653 0.264207 7 36 39
-0.479786 0.238538 0.264385 6 37 39
-0.479617 0.240423 0.264563 6 36 40
-0.47526 0.239413 0.26544 6 37 41
-0.47167 0.238894 0.266185 6 38 42
-0.469479 0.239324 0.266697 6 39 44
-0.46142 0.235588 0.268178 5 40 46
-0.455543 0.233327 0.269294 6 39 45
-0.453516 0.233767 0.26977 6 39 45
-0.449679 0.232884 0.270542 6 40 45
-0.44771 0.23332 0.271005 4 37 39
-0.446954 0.234626 0.271268 3 37 36
-0.445604 0.235488 0.271628 3 38 37
-0.444855 0.236784 0.271889 2 41 46
-0.444699 0.238518 0.272053 3 52 59
-0.444544 0.240251 0.272216 11 64 70
-0.444388 0.241985 0.27238 34 76 76
-0.444825 0.244169 0.272449 51 72 72
-0.44586 0.246818 0.272421 62 65 63
-0.445704 0.24856 0.272586 64 59 49
-0.519628 0.226913 0.252683 64 61 49
-0.519443 0.228967 0.252877 47 50 46
-0.519259 0.231021 0.253071 21 38 43
-0.518232 0.232561 0.253415 8 37 43
-0.516373 0.233583 0.253906 6 37 43
-0.515357 0.23511 0.254246 7 38 43
-0.513519 0.236117 0.254731 7 38 43
-0.509254 0.235581 0.255643 7 37 44
-0.504276 0.234554 0.256677 6 35 43
-0.495574 0.231101 0.258361 6 35 41
-0.489411 0.229199 0.259594 6 36 41
-0.484859 0.228284 0.260541 6 36 41
-0.483968 0.229718 0.260847 7 35 41
-0.483797 0.231619 0.261026 6 37 42
-0.483627 0.23352 0.261206 6 38 43
-0.484176 0.235902 0.261261 6 37 43
-0.482569 0.23684 0.261689 9 35 42
-0.482399 0.238738 0.261869 9 35 40
-0.480095 0.23918 0.262416 8 36 39
-0.478516 0.240099 0.262836 6 38 41
-0.474178 0.239093 0.263729 6 35 41
-0.47128 0.239051 0.264372 5 38 45
-0.469091 0.23948 0.264893 4 44 51
-0.464943 0.238503 0.265745 5 52 59
-0.458955 0.236176 0.266908 10 56 62
-0.455008 0.235256 0.26772 11 56 62
-0.450526 0.233912 0.268619 8 51 57
-0.448547 0.234345 0.269093 5 37 41
-0.447185 0.235213 0.269461 3 34 36
-0.44643 0.236515 0.269727 2 36 37
-0.446274 0.238257 0.269891 2 37 43
-0.446117 0.239999 0.270056 2 46 57
-0.445961 0.241741 0.270221 8 59 70
-0.445805 0.243483 0.270385 25 76 75
-0.445649 0.245225 0.27055 44 73 71
-0.446689 0.247885 0.270516 58 65 61
-0.446532 0.249633 0.270681 64 58 46
-0.519194 0.227083 0.250668 65 59 43
-0.51901 0.229137 0.250862 48 53 40
-0.517983 0.230681 0.25121 23 42 41
-0.516961 0.23222 0.251557 8 34 42
-0.515942 0.233753 0.251902 6 35 43
-0.514098 0.234766 0.252397 7 36 42
-0.512268 0.235772 0.252888 8 37 42
-0.508829 0.235749 0.253669 6 38 44
-0.503856 0.23472 0.254724 6 35 43
-0.495162 0.231264 0.256447 7 36 40
-0.488269 0.228886 0.25784 7 35 40
-0.484457 0.228444 0.258674 7 34 41
-0.483567 0.229877 0.258983 7 32 44
-0.483396 0.231778 0.259163 7 35 43
-0.483945 0.234157 0.259214 8 36 43
-0.483774 0.236062 0.259394 8 36 42
-0.484324 0.238453 0.259446 8 35 44
-0.482714 0.239384 0.259881 9 35 42
-0.481828 0.240797 0.260187 8 37 43
-0.479526 0.241227 0.260743 6 40 45
-0.476552 0.24117 0.261416 4 41 48
-0.473617 0.241113 0.262079 5 49 57
-0.470047 0.240582 0.262852 10 62 70
-0.467202 0.240531 0.263496 17 80 85
-0.463086 0.239547 0.26436 23 84 85
-0.457146 0.237212 0.265539 20 79 81
-0.45261 0.235837 0.266469 11 67 72
-0.448782 0.234934 0.267274 10 52 59
-0.44802 0.236244 0.267544 11 48 55
-0.447261 0.237549 0.267813 10 45 51
-0.446504 0.23885 0.268082 6 38 45
-0.446348 0.240595 0.268247 5 43 55
-0.446191 0.24234 0.268412 10 55 68
-0.446634 0.244539 0.268474 28 79 76
-0.447078 0.246746 0.268536 45 75 71
-0.447524 0.24896 0.268598 58 66 60
-0.447366 0.250714 0.268764 65 56 44
-0.517918 0.22675 0.248811 64 60 48
-0.517734 0.228801 0.249005 51 57 45
-0.516712 0.230343 0.249356 28 50 43
-0.515694 0.231879 0.249705 9 34 42
-0.513851 0.2329 0.250208 6 34 43
-0.512843 0.234423 0.250554 6 34 43
-0.509394 0.23441 0.251354 7 35 42
-0.505996 0.234397 0.252141 6 36 42
-0.50108 0.233389 0.253208 8 36 44
-0.491739 0.229498 0.25509 8 36 44
-0.484226 0.226699 0.256627 7 36 44
-0.482619 0.227669 0.257071 6 35 43
-0.482449 0.229567 0.257251 7 35 40
-0.482995 0.231938 0.257298 7 38 40
-0.482824 0.233839 0.257478 6 38 42
-0.483372 0.236222 0.257526 6 35 45
-0.483201 0.238127 0.257706 7 37 47
-0.48303 0.240032 0.257886 7 38 46
-0.481427 0.240957 0.258326 5 40 48
-0.479128 0.241387 0.258891 4 43 54
-0.477552 0.242299 0.259324 8 57 69
-0.474601 0.242235 0.260004 18 76 85
-0.47101 0.241692 0.260798 31 94 99
-0.468148 0.241633 0.261458 44 107 109
-0.46665 0.242522 0.261871 32 97 103
-0.46189 0.24105 0.262867 25 90 98
-0.455348 0.238242 0.264179 23 88 95
-0.452078 0.237758 0.264902 30 89 91
-0.448255 0.236836 0.265722 30 82 82
-0.448097 0.238589 0.265887 24 68 70
-0.44794 0.240342 0.266053 11 45 51
-0.447783 0.242096 0.266218 7 44 55
-0.447625 0.243849 0.266384 11 54 66
-0.448072 0.246062 0.266443 26 79 75
-0.448521 0.248282 0.266502 43 76 71
-0.448971 0.250509 0.266562 57 67 61
-0.448813 0.252272 0.266728 64 55 44
-0.515629 0.227963 0.247315 56 57 52
-0.515446 0.230006 0.247508 32 49 50
-0.513604 0.231033 0.248019 11 35 45
-0.512597 0.23256 0.248369 9 35 44
-0.509149 0.232561 0.249185 8 36 44
-0.506552 0.233063 0.249836 8 37 43
-0.502406 0.232563 0.25078 7 37 42
-0.495271 0.230121 0.25229 7 39 43
-0.488365 0.227757 0.253751 9 35 45
-0.482389 0.22593 0.255031 8 35 46
-0.482218 0.227828 0.25521 5 38 45
-0.481335 0.229257 0.255524 5 41 41
-0.481878 0.231624 0.255569 6 40 42
-0.481707 0.233522 0.255748 6 40 43
-0.481537 0.235421 0.255927 4 40 44
-0.481367 0.237319 0.256106 5 37 43
-0.481911 0.239704 0.256152 5 39 51
-0.481026 0.241117 0.256465 6 51 64
-0.479435 0.242034 0.256908 10 71 83
-0.477856 0.242946 0.257349 41 98 102
-0.475591 0.243363 0.257915 52 115 116
-0.474038 0.244263 0.258348 50 117 120
-0.469776 0.243222 0.259281 37 100 110
-0.466927 0.243153 0.259949 40 100 110
-0.465435 0.244035 0.260367 49 109 115
-0.458769 0.24115 0.261733 63 122 123
-0.454186 0.239722 0.262713 63 122 122
-0.452781 0.240588 0.263109 46 102 106
-0.452003 0.241906 0.263389 25 73 82
-0.451228 0.243219 0.263669 10 48 60
-0.451069 0.24499 0.263836 5 45 60
-0.45091 0.246761 0.264003 7 55 66
-0.450751 0.248532 0.26417 21 79 74
-0.451207 0.250774 0.264226 40 77 73
-0.451048 0.252548 0.264394 55 69 66
-0.450889 0.254322 0.264561 60 59 50
-0.51235 0.230697 0.246184 23 38 42
-0.508905 0.230712 0.247016 11 34 40
-0.506309 0.231224 0.247679 8 34 41
-0.502165 0.230741 0.248643 8 36 42
-0.496559 0.229294 0.249889 9 37 42
-0.491094 0.227884 0.251105 8 38 40
-0.483593 0.225113 0.252712 7 36 39
-0.481988 0.226088 0.25317 6 35 40
-0.480394 0.227058 0.253625 5 36 42
-0.480224 0.228949 0.253803 5 40 40
-0.480055 0.230841 0.253982 4 41 42
-0.479885 0.232733 0.25416 6 41 42
-0.479715 0.234625 0.254339 7 41 42
-0.479545 0.236517 0.254517 4 43 53
-0.480795 0.239378 0.254424 5 63 73
-0.479206 0.240302 0.254874 29 93 98
-0.479036 0.242194 0.255053 68 124 122
-0.477457 0.243105 0.2555 67 136 139
-0.47589 0.24401 0.255943 55 120 129
-0.474334 0.244909 0.256384 44 107 117
-0.472103 0.245314 0.256951 44 117 119
-0.468545 0.244748 0.257768 68 136 134
-0.46571 0.244669 0.258446 73 139 140
-0.462912 0.244591 0.259115 62 127 135
-0.456954 0.242175 0.260376 51 107 112
-0.454274 0.242115 0.261018 38 88 92
-0.452867 0.242976 0.26142 23 70 75
-0.452088 0.244292 0.261703 11 46 60
-0.451928 0.246069 0.261871 4 43 58
-0.451769 0.247845 0.262039 5 53 63
-0.451609 0.249622 0.262206 16 79 74
-0.452069 0.251874 0.262259 38 79 74
-0.451909 0.253654 0.262427 54 70 68
-0.451749 0.255434 0.262595 55 58 51
-0.496321 0.227495 0.247779 12 38 44
-0.490859 0.226107 0.24902 7 38 44
-0.485532 0.224753 0.250231 8 40 42
-0.481757 0.224349 0.251129 7 37 44
-0.480164 0.225324 0.251591 6 36 45
-0.479287 0.226754 0.25191 5 37 45
-0.479118 0.228642 0.252088 7 38 44
-0.478948 0.230531 0.252266 5 40 43
-0.478075 0.231949 0.252583 3 44 47
-0.477906 0.233835 0.252761 5 52 58
-0.477736 0.23572 0.252939 16 75 86
-0.478976 0.238569 0.25284 52 114 115
-0.478806 0.240461 0.253019 69 135 136
-0.477228 0.241378 0.253472 62 133 144
-0.476359 0.242776 0.253787 53 119 130
-0.475493 0.244169 0.2541 54 122 128
-0.473938 0.245068 0.254547 63 135 134
-0.473081 0.24645 0.254858 82 153 147
-0.469503 0.245872 0.255695 71 135 140
-0.465985 0.245304 0.256518 59 118 127
-0.463181 0.245222 0.257201 47 103 108
-0.460415 0.245142 0.257875 41 94 97
-0.456414 0.244125 0.258784 33 84 86
-0.454363 0.244518 0.259317 24 70 73
-0.453577 0.245838 0.259605 13 46 56
-0.452793 0.247154 0.259893 7 43 52
-0.452633 0.248937 0.260061 7 52 56
-0.452473 0.25072 0.260229 17 75 70
-0.452313 0.252503 0.260397 37 77 76
-0.452153 0.254286 0.260565 54 72 72
-0.451993 0.256069 0.260733 58 61 54
-0.479935 0.223591 0.249557 14 39 44
-0.478353 0.224566 0.250023 9 38 45
-0.478184 0.226451 0.2502 8 37 47
-0.478015 0.228336 0.250378 7 36 49
-0.477145 0.229756 0.250698 3 46 59
-0.476976 0.231638 0.250875 11 64 75
-0.476807 0.233521 0.251053 33 93 98
-0.476638 0.235403 0.25123 70 135 129
-0.476469 0.237286 0.251408 70 135 139
-0.476999 0.239651 0.251445 62 128 140
-0.476131 0.241052 0.251763 55 123 137
-0.475962 0.242935 0.25194 61 136 142
-0.475096 0.244328 0.252257 69 146 146
-0.474234 0.245716 0.252573 74 146 145
-0.473374 0.2471 0.252887 69 128 135
-0.471832 0.247986 0.253337 57 111 118
-0.46827 0.247396 0.254185 47 100 107
-0.464769 0.246817 0.25502 40 94 100
-0.461978 0.246725 0.255712 40 91 94
-0.459868 0.247111 0.256267 30 81 82
-0.456506 0.246546 0.257068 16 66 68
-0.455712 0.247872 0.257362 11 42 51
-0.453664 0.248247 0.257901 7 40 49
-0.453503 0.250036 0.25807 7 50 56
-0.453343 0.251825 0.258238 15 73 71
-0.453182 0.253614 0.258407 37 77 78
-0.453022 0.255403 0.258576 55 72 74
-0.452861 0.257192 0.258744 60 57 53
-0.478294 0.220953 0.247818 55 57 50
-0.477423 0.222385 0.248142 52 55 47
-0.476555 0.223812 0.248465 45 51 47
-0.47569 0.225234 0.248787 32 48 53
-0.475522 0.22711 0.248964 17 56 65
-0.475353 0.228986 0.24914 28 78 87
-0.475185 0.230862 0.249317 49 111 113
-0.475016 0.232738 0.249494 68 140 135
-0.474848 0.234615 0.249671 67 135 139
-0.47468 0.236491 0.249848 63 127 138
-0.475902 0.239328 0.249739 63 129 141
-0.475733 0.241211 0.249916 67 141 149
-0.474868 0.242607 0.250236 73 150 152
-0.474699 0.244487 0.250413 69 140 142
-0.473837 0.245875 0.250732 61 123 127
-0.473669 0.247753 0.250909 53 104 111
-0.472123 0.248638 0.251366 48 97 103
-0.471269 0.250012 0.251682 45 93 99
-0.467713 0.249406 0.252544 40 91 96
-0.461593 0.246881 0.253923 29 82 84
-0.460131 0.247744 0.254357 19 66 69
-0.458037 0.248124 0.254918 11 48 53
-0.455332 0.248026 0.2556 8 35 44
-0.45454 0.249347 0.255896 6 36 45
-0.453752 0.250665 0.256191 7 47 55
-0.453591 0.252457 0.25636 10 71 72
-0.45343 0.254249 0.256529 33 79 82
-0.453269 0.256041 0.256698 53 76 79
-0.453735 0.258323 0.256742 59 57 55
-0.477363 0.218778 0.245941 59 59 49
-0.475799 0.219765 0.246416 63 59 51
-0.474937 0.221191 0.246741 64 58 50
-0.474769 0.223064 0.246918 58 60 59
-0.474601 0.224936 0.247094 50 69 77
-0.473742 0.226352 0.247417 51 97 101
-0.473574 0.228222 0.247593 63 127 128
-0.473406 0.230092 0.247769 67 140 140
-0.473239 0.231962 0.247946 63 136 139
-0.473071 0.233832 0.248122 60 127 137
-0.472903 0.235702 0.248298 71 134 144
-0.474115 0.238526 0.248184 76 142 150
-0.473946 0.240403 0.248361 73 148 153
-0.473778 0.24228 0.248538 66 132 139
-0.474302 0.244646 0.24857 56 116 121
-0.474133 0.246527 0.248747 48 103 106
-0.472583 0.247418 0.249212 46 97 99
-0.471727 0.248797 0.249532 47 94 96
-0.470875 0.250171 0.24985 41 88 91
-0.465984 0.248585 0.251006 29 79 84
-0.463829 0.248966 0.251592 18 61 65
-0.463005 0.250315 0.251901 11 48 52
-0.461531 0.251171 0.252344 7 38 44
-0.458776 0.251052 0.25305 6 37 43
-0.456056 0.250934 0.253747 6 39 48
-0.455261 0.252256 0.254047 7 49 57
-0.454468 0.253573 0.254346 8 70 72
-0.454307 0.255371 0.254516 36 85 85
-0.454145 0.257169 0.254685 57 84 84
-0.455247 0.259955 0.254597 60 59 58
-0.475214 0.213859 0.244199 64 61 52
-0.475046 0.215731 0.244375 59 60 51
-0.474186 0.217162 0.244703 57 58 49
-0.47333 0.218589 0.245029 58 58 57
-0.473162 0.220455 0.245205 58 66 69
-0.472309 0.221873 0.24553 63 86 91
-0.472142 0.223736 0.245706 72 114 117
-0.471975 0.2256 0.245881 73 136 139
-0.471125 0.227007 0.246204 67 140 144
-0.470958 0.228868 0.24638 60 136 142
-0.471473 0.23119 0.246407 59 132 138
-0.471305 0.233054 0.246583 72 140 146
-0.471822 0.235388 0.246611 78 142 149
-0.47234 0.23773 0.24664 74 138 145
-0.47355 0.240561 0.24652 63 127 134
-0.473381 0.242439 0.246697 52 107 117
-0.473213 0.244316 0.246873 46 99 104
-0.473044 0.246193 0.24705 45 96 96
-0.472187 0.247577 0.247374 46 95 93
-0.471332 0.248955 0.247697 40 83 85
-0.47048 0.25033 0.248018 29 70 74
-0.468276 0.250707 0.248626 16 57 61
-0.465428 0.250588 0.24937 11 44 48
-0.464598 0.251941 0.249684 8 38 44
-0.463771 0.25329 0.249998 6 38 46
-0.462289 0.254139 0.250449 8 47 52
-0.460167 0.254491 0.251033 14 53 58
-0.458709 0.25533 0.251477 18 60 65
-0.456623 0.255673 0.252052 17 73 75
-0.45646 0.257483 0.252222 43 88 87
-0.457577 0.260288 0.252125 63 88 87
-0.469687 0.206885 0.24324 65 57 50
-0.469521 0.208731 0.243414 66 58 53
-0.47003 0.211002 0.243436 63 60 55
-0.47054 0.213281 0.243458 59 60 57
-0.470374 0.215134 0.243633 53 61 60
-0.470208 0.216988 0.243807 54 75 81
-0.470041 0.218841 0.243982 66 104 108
-0.469875 0.220695 0.244156 74 126 129
-0.469033 0.222104 0.244481 75 138 144
-0.468867 0.223954 0.244655 64 138 147
-0.468028 0.225355 0.244979 57 134 142
-0.467862 0.227203 0.245152 61 138 142
-0.469042 0.229965 0.245029 72 147 147
-0.470912 0.233211 0.244754 78 144 150
-0.471427 0.235545 0.24478 69 132 138
-0.471945 0.237888 0.244805 59 116 124
-0.472464 0.240238 0.24483 50 102 108
-0.472985 0.242597 0.244855 46 96 103
-0.472816 0.244475 0.245032 46 94 96
-0.471959 0.245861 0.245359 46 90 88
-0.470253 0.24862 0.24601 31 61 65
-0.469405 0.249992 0.246334 20 46 51
-0.469238 0.251858 0.24651 12 38 41
-0.467717 0.252724 0.246979 9 37 41
-0.46755 0.254583 0.247154 7 36 44
-0.465372 0.254937 0.247763 7 40 50
-0.463216 0.255287 0.248367 13 59 60
-0.462393 0.256628 0.248682 25 66 65
-0.460918 0.257466 0.249136 36 70 69
-0.458806 0.2578 0.249727 34 72 70
-0.467451 0.203954 0.241716 66 59 46
-0.467286 0.205791 0.241889 64 57 48
-0.467121 0.207628 0.242062 64 56 53
-0.467623 0.209886 0.242082 62 61 61
-0.468127 0.212152 0.242102 59 70 73
-0.467962 0.213996 0.242276 56 86 91
-0.467796 0.21584 0.242449 66 119 122
-0.467631 0.217684 0.242623 76 140 142
-0.467465 0.219528 0.242796 74 142 148
-0.467299 0.221373 0.24297 62 132 145
-0.466466 0.222774 0.243295 57 131 142
-0.466301 0.224615 0.243468 65 145 147
-0.466803 0.226907 0.243491 74 150 149
-0.467977 0.229663 0.243362 78 144 146
-0.468484 0.231975 0.243384 65 123 132
-0.471033 0.235703 0.242948 55 110 117
-0.471549 0.238046 0.242969 49 101 105
-0.472068 0.240397 0.242992 48 95 99
-0.4719 0.242271 0.243168 48 92 94
-0.471731 0.244145 0.243344 50 87 84
-0.466562 0.201862 0.239897 65 62 49
-0.466398 0.203696 0.240069 63 61 50
-0.466233 0.205531 0.240242 63 57 51
-0.466068 0.207365 0.240414 60 63 63
-0.465904 0.209199 0.240587 61 77 80
-0.466403 0.211457 0.240604 64 102 105
-0.466238 0.213294 0.240777 69 134 136
-0.466073 0.215132 0.24095 78 153 153
-0.465908 0.21697 0.241123 69 141 151
-0.465743 0.218809 0.241296 64 131 146
-0.465578 0.220647 0.241469 64 133 144
-0.465412 0.222486 0.241642 70 148 151
-0.465247 0.224324 0.241815 76 152 151
-0.465746 0.226612 0.241834 73 141 142
-0.466247 0.228907 0.241854 61 115 124
-0.46742 0.23167 0.241719 54 103 110
-0.469277 0.23492 0.241428 50 99 102
-0.47047 0.237728 0.241291 49 96 97
-0.471672 0.240555 0.241153 52 90 92
-0.471503 0.242429 0.241329 54 81 82
-0.465841 0.197947 0.237911 64 61 55
-0.465677 0.199778 0.238083 64 60 54
-0.465512 0.201609 0.238255 62 60 54
-0.464688 0.203032 0.238585 60 63 60
-0.463866 0.204451 0.238915 58 68 71
-0.463702 0.206277 0.239086 62 88 94
-0.464195 0.208517 0.239101 69 116 120
-0.464031 0.210346 0.239273 74 143 143
-0.463867 0.212175 0.239445 73 158 158
-0.463702 0.214004 0.239617 62 136 146
-0.464196 0.216262 0.239633 66 133 144
-0.464692 0.218527 0.239648 73 140 149
-0.464527 0.220363 0.239821 78 150 155
-0.464362 0.222199 0.239994 74 150 151
-0.464197 0.224034 0.240166 64 128 132
-0.464032 0.22587 0.240339 54 109 115
-0.464529 0.228157 0.240356 49 100 104
-0.465026 0.230451 0.240373 49 97 101
-0.466862 0.233678 0.240076 51 93 95
-0.468717 0.236938 0.239777 54 84 86
-0.469228 0.239276 0.239793 59 72 74
-0.462338 0.194304 0.236748 60 57 50
-0.462826 0.196512 0.236758 61 62 55
-0.463317 0.198729 0.236769 61 62 60
-0.463153 0.200551 0.23694 60 65 67
-0.462336 0.201969 0.237271 61 75 80
-0.462173 0.203788 0.237442 63 99 107
-0.46201 0.205608 0.237613 78 133 135
-0.461846 0.207427 0.237784 78 147 150
-0.462334 0.209663 0.237797 67 145 153
-0.462171 0.211485 0.237968 58 132 141
-0.462007 0.213308 0.238139 70 141 143
-0.462496 0.215558 0.238152 82 149 153
-0.463645 0.218247 0.238006 83 151 156
-0.46348 0.22008 0.238179 73 143 146
-0.463315 0.221912 0.238351 57 117 123
-0.463151 0.223745 0.238523 50 103 109
-0.462986 0.225578 0.238695 47 98 101
-0.46348 0.227861 0.23871 47 96 97
-0.463975 0.230151 0.238724 53 93 92
-0.464471 0.232449 0.238738 56 79 81
-0.460176 0.191484 0.235281 62 60 56
-0.461305 0.194065 0.235127 62 57 52
-0.461791 0.19627 0.235135 61 62 56
-0.461628 0.198085 0.235306 62 68 68
-0.461465 0.199901 0.235476 64 88 93
-0.461302 0.201718 0.235647 70 117 122
-0.460491 0.20313 0.235979 92 155 149
-0.460328 0.204943 0.236149 76 146 154
-0.460165 0.206757 0.23632 63 135 147
-0.460649 0.208984 0.236329 61 136 141
-0.460486 0.2108 0.2365 74 153 147
-0.460323 0.212617 0.236671 92 161 156
-0.460808 0.214858 0.236681 83 147 152
-0.461946 0.217537 0.236531 66 126 137
-0.462436 0.219798 0.236541 53 107 115
-0.462272 0.221627 0.236713 49 100 105
-0.462108 0.223457 0.236885 47 97 101
-0.461943 0.225287 0.237057 49 96 96
-0.462434 0.227565 0.237069 53 92 89
-0.462927 0.229851 0.23708 54 71 76
-0.456927 0.18615 0.233987 64 59 51
-0.458036 0.188692 0.233829 62 59 54
-0.458513 0.190869 0.233835 59 59 58
-0.459632 0.19344 0.233676 57 63 65
-0.46076 0.196028 0.233517 59 76 78
-0.460597 0.197841 0.233687 65 104 106
-0.460434 0.199654 0.233857 76 136 135
-0.459626 0.201067 0.234192 88 161 158
-0.458821 0.202475 0.234525 69 136 148
-0.458018 0.20388 0.234857 60 129 145
-0.457856 0.205684 0.235027 64 141 150
-0.458975 0.208309 0.234872 77 160 157
-0.458813 0.21012 0.235042 90 167 159
-0.45865 0.211931 0.235212 74 137 145
-0.459776 0.214587 0.235057 59 116 125
-0.460259 0.216831 0.235065 49 103 111
-0.461396 0.219516 0.234909 45 98 105
-0.461232 0.221343 0.235081 48 97 103
-0.461068 0.22317 0.235253 51 93 96
-0.455448 0.183772 0.232389 65 64 49
-0.455917 0.185927 0.232392 63 61 48
-0.455757 0.187716 0.23256 58 59 54
-0.456227 0.189881 0.232563 52 64 70
-0.456698 0.192054 0.232566 51 81 93
-0.457172 0.194234 0.23257 68 121 124
-0.457647 0.196421 0.232573 79 151 150
-0.457485 0.198223 0.232742 77 155 158
-0.457323 0.200024 0.232911 64 129 142
-0.457161 0.201826 0.23308 66 127 143
-0.456999 0.203627 0.23325 74 146 158
-0.456837 0.205429 0.233419 79 158 162
-0.456675 0.207231 0.233588 78 153 154
-0.45715 0.209445 0.233593 67 125 134
-0.456988 0.21125 0.233763 56 108 117
-0.457464 0.213474 0.233768 50 102 107
-0.459228 0.216556 0.233444 46 99 101
-0.459711 0.218804 0.233449 46 96 98
-0.459548 0.220625 0.23362 51 90 92
-0.454604 0.181771 0.230634 61 62 59
-0.454444 0.183554 0.230801 63 63 60
-0.45491 0.185705 0.230802 57 65 64
-0.45475 0.187491 0.230969 52 72 77
-0.454589 0.189277 0.231137 59 97 107
-0.455057 0.191442 0.231138 86 142 140
-0.455526 0.193614 0.231139 79 153 156
-0.455365 0.195406 0.231307 65 142 151
-0.455204 0.197199 0.231475 61 134 143
-0.455674 0.199384 0.231477 75 142 144
-0.455512 0.20118 0.231645 86 152 160
-0.455351 0.202976 0.231814 83 156 161
-0.45519 0.204772 0.231982 72 142 147
-0.45566 0.206974 0.231985 59 119 126
-0.455499 0.208773 0.232154 51 104 108
-0.455971 0.210986 0.232156 47 101 105
-0.455809 0.212789 0.232326 47 100 101
-0.456919 0.215434 0.232162 48 95 95
-0.458681 0.218526 0.231829 50 84 85
-0.453299 0.177642 0.228887 66 62 58
-0.45314 0.179419 0.229054 62 57 56
-0.453603 0.181556 0.229052 62 62 62
-0.453443 0.183336 0.229219 63 68 71
-0.453907 0.185484 0.229216 62 87 91
-0.453746 0.187267 0.229384 72 121 121
-0.453586 0.189051 0.229551 92 156 151
-0.454051 0.191211 0.229549 72 142 154
-0.453891 0.192998 0.229717 60 132 144
-0.45373 0.194785 0.229884 64 140 143
-0.45357 0.196572 0.230052 78 153 150
-0.454035 0.198749 0.230051 89 157 158
-0.453874 0.200539 0.230219 77 146 154
-0.453714 0.202329 0.230387 64 127 135
-0.453553 0.204119 0.230555 54 113 120
-0.454019 0.206313 0.230555 48 104 109
-0.454487 0.208515 0.230555 47 100 103
-0.454326 0.210311 0.230724 49 97 99
-0.454795 0.212523 0.230724 51 88 90
-0.455266 0.214742 0.230724 52 78 78
-0.452463 0.17566 0.227147 66 59 48
-0.452303 0.177434 0.227313 67 61 54
-0.452764 0.179565 0.227308 60 59 61
-0.452604 0.181342 0.227474 54 73 78
-0.452445 0.18312 0.227641 64 103 105
-0.452285 0.184897 0.227808 81 139 136
-0.452125 0.186675 0.227974 86 157 156
-0.451965 0.188452 0.228141 69 137 152
-0.452426 0.190605 0.228137 63 128 146
-0.452266 0.192386 0.228304 68 145 152
-0.452728 0.194549 0.2283 78 158 156
-0.452568 0.196333 0.228468 82 155 154
-0.453031 0.198507 0.228464 72 136 146
-0.452871 0.200294 0.228632 59 119 126
-0.45271 0.202082 0.228799 51 108 113
-0.452549 0.203869 0.228967 46 102 106
-0.453013 0.206059 0.228964 45 99 103
-0.452852 0.20785 0.229132 50 96 98
-0.452692 0.209641 0.2293 53 83 87
-0.453156 0.211844 0.229298 57 70 70
-0.451171 0.171571 0.22542 65 60 51
-0.451013 0.173339 0.225586 62 61 50
-0.45147 0.175456 0.225577 59 61 54
-0.451928 0.17758 0.225569 57 64 68
-0.451769 0.179355 0.225735 55 78 93
-0.451609 0.181129 0.225902 72 124 124
-0.45145 0.182904 0.226068 76 151 149
-0.45129 0.184678 0.226234 70 148 153
-0.451131 0.186453 0.226401 65 136 147
-0.450971 0.188228 0.226567 67 133 145
-0.450812 0.190003 0.226734 77 146 157
-0.45127 0.192155 0.226727 82 159 159
-0.45111 0.193934 0.226894 78 150 150
-0.451569 0.196096 0.226888 67 128 134
-0.45203 0.198266 0.226882 56 111 117
-0.45187 0.20005 0.227049 49 104 109
-0.45171 0.201835 0.227216 46 101 104
-0.451549 0.20362 0.227384 47 99 101
-0.452011 0.205806 0.227378 50 94 95
-0.45185 0.207594 0.227546 55 79 80
-0.450342 0.169609 0.223693 65 61 49
-0.450184 0.171374 0.223858 63 61 48
-0.450025 0.17314 0.224024 60 63 56
-0.45048 0.175253 0.224013 57 75 76
-0.450936 0.177373 0.224002 61 103 108
-0.450777 0.179145 0.224168 90 146 143
-0.450617 0.180916 0.224334 76 145 153
-0.450458 0.182688 0.2245 63 138 150
-0.450299 0.18446 0.224666 62 136 146
-0.45014 0.186232 0.224832 73 142 148
-0.44998 0.188005 0.224998 84 151 157
-0.449821 0.189777 0.225164 81 153 157
-0.450277 0.191925 0.225155 73 139 143
-0.450117 0.193701 0.225322 63 122 127
-0.450574 0.19586 0.225313 53 107 113
-0.450414 0.197638 0.22548 49 100 103
-0.450873 0.199807 0.225471 48 99 101
-0.450712 0.201589 0.225638 49 95 97
-0.451172 0.203768 0.22563 51 88 89
-0.451676 0.16512 0.221099 68 61 46
-0.4509 0.166556 0.221446 62 59 51
-0.450128 0.167988 0.221792 63 63 51
-0.449969 0.169753 0.221957 56 63 53
-0.449199 0.171178 0.222302 55 67 67
-0.449041 0.17294 0.222467 59 89 92
-0.448882 0.174703 0.222632 72 123 122
-0.449334 0.176816 0.222619 88 155 151
-0.449176 0.178582 0.222784 75 142 155
-0.449017 0.180348 0.22295 63 133 147
-0.448858 0.182114 0.223115 66 141 148
-0.449311 0.184243 0.223103 77 151 152
-0.449152 0.186012 0.223268 88 155 156
-0.448993 0.187782 0.223434 80 147 154
-0.448834 0.189551 0.2236 68 130 135
-0.448675 0.191321 0.223766 57 114 120
-0.449128 0.193469 0.223754 50 105 109
-0.448968 0.195242 0.22392 47 100 102
-0.449423 0.1974 0.223909 49 97 99
-0.449263 0.199176 0.224076 50 91 92
-0.449718 0.201344 0.224065 52 82 80
-0.449618 0.16251 0.219743 64 61 54
-0.44946 0.164272 0.219908 64 60 50
-0.448692 0.165702 0.220255 60 60 54
-0.447321 0.166796 0.220782 60 60 59
-0.446561 0.168216 0.221126 54 74 80
-0.446403 0.169968 0.22129 63 105 107
-0.446246 0.171719 0.221454 75 140 140
-0.446088 0.173471 0.221618 79 154 157
-0.445931 0.175222 0.221782 74 142 153
-0.445773 0.176974 0.221946 66 130 149
-0.445616 0.178726 0.22211 68 145 155
-0.44606 0.180832 0.222096 78 157 158
-0.445902 0.182588 0.222261 83 155 156
-0.446347 0.184704 0.222247 77 139 146
-0.446189 0.186462 0.222412 62 121 129
-0.446031 0.18822 0.222576 53 108 114
-0.445873 0.189978 0.222741 49 102 106
-0.446318 0.19211 0.222728 48 100 101
-0.44616 0.193872 0.222893 48 96 96
-0.447214 0.196395 0.222702 49 86 89
-0.447055 0.198163 0.222868 54 76 75
-0.447581 0.159924 0.2184 61 59 51
-0.447423 0.161678 0.218564 61 59 56
-0.447266 0.163432 0.218729 61 57 60
-0.446505 0.164857 0.219076 57 66 67
-0.445747 0.166278 0.219422 59 85 92
-0.444991 0.167694 0.219767 81 125 126
-0.444834 0.16944 0.219931 80 146 148
-0.444081 0.170849 0.220275 71 148 155
-0.443924 0.172593 0.220438 66 141 151
-0.443768 0.174336 0.220601 69 137 149
-0.443611 0.17608 0.220764 76 144 158
-0.444049 0.178171 0.220748 81 159 162
-0.443892 0.179918 0.220912 78 151 154
-0.444332 0.18202 0.220896 68 131 139
-0.444773 0.184128 0.22088 56 113 123
-0.445215 0.186243 0.220864 48 102 110
-0.445057 0.187999 0.221028 47 101 104
-0.444899 0.189755 0.221192 48 99 100
-0.445343 0.191883 0.221177 51 93 93
-0.445185 0.193642 0.221342 53 83 82
-0.445563 0.157363 0.21707 68 60 47
-0.446006 0.159427 0.217048 65 62 52
-0.445849 0.161175 0.217211 60 64 62
-0.445093 0.1626 0.21756 58 74 80
-0.444339 0.164019 0.217908 64 105 106
-0.443588 0.165435 0.218254 91 146 141
-0.443432 0.167175 0.218417 83 146 153
-0.443275 0.168916 0.21858 70 142 152
-0.443119 0.170656 0.218743 67 142 149
-0.442962 0.172397 0.218905 75 145 149
-0.442806 0.174138 0.219068 86 151 158
-0.442649 0.175879 0.219231 84 154 161
-0.442493 0.17762 0.219394 76 144 148
-0.442928 0.179711 0.219376 64 125 131
-0.443366 0.181809 0.219357 54 108 117
-0.443804 0.183914 0.219339 47 101 107
-0.444244 0.186026 0.21932 45 100 104
-0.444087 0.187779 0.219484 48 97 98
-0.444528 0.1899 0.219466 52 89 88
-0.44254 0.152479 0.215963 61 58 45
-0.442974 0.154518 0.215939 63 60 48
-0.444002 0.156877 0.215728 65 61 56
-0.443846 0.158617 0.215891 60 69 71
-0.443689 0.160357 0.216054 59 89 93
-0.443533 0.162097 0.216216 71 123 123
-0.442784 0.163513 0.216565 82 156 152
-0.442038 0.164925 0.216912 80 148 153
-0.441882 0.16666 0.217075 70 136 150
-0.441726 0.168395 0.217237 67 142 150
-0.44157 0.17013 0.217399 78 153 152
-0.441414 0.171865 0.217562 91 157 156
-0.441258 0.173601 0.217724 86 147 156
-0.44169 0.175679 0.217703 73 134 140
-0.442124 0.177763 0.217682 59 116 123
-0.441968 0.179505 0.217845 51 105 112
-0.442403 0.181599 0.217824 48 100 105
-0.442839 0.1837 0.217803 49 99 99
-0.443277 0.185809 0.217782 48 95 95
-0.443119 0.187559 0.217946 53 86 83
-0.439989 0.149687 0.214848 64 61 47
-0.441 0.152011 0.214635 62 60 47
-0.440845 0.153737 0.214796 60 62 58
-0.441275 0.155772 0.214771 59 75 80
-0.44112 0.157501 0.214932 69 104 109
-0.440964 0.15923 0.215094 78 136 138
-0.440809 0.160959 0.215256 76 150 153
-0.440653 0.162689 0.215417 70 147 152
-0.440498 0.164418 0.215579 69 136 148
-0.440342 0.166148 0.215741 72 142 154
-0.440187 0.167877 0.215902 78 156 158
-0.440031 0.169607 0.216064 84 160 156
-0.44046 0.171672 0.216041 82 144 147
-0.440304 0.173405 0.216203 65 123 133
-0.440735 0.175479 0.216179 55 108 115
-0.441166 0.17756 0.216156 49 102 108
-0.441599 0.179648 0.216132 47 100 105
-0.441443 0.18139 0.216295 49 97 100
-0.441877 0.183488 0.216271 52 90 90
-0.442312 0.185592 0.216248 55 79 77
-0.436481 0.144643 0.21396 64 61 48
-0.436899 0.146638 0.213933 65 62 52
-0.437892 0.148934 0.213719 62 61 55
-0.437738 0.150647 0.213879 58 68 65
-0.438159 0.152661 0.213852 61 90 92
-0.438005 0.154376 0.214012 76 123 124
-0.438428 0.1564 0.213986 81 143 146
-0.438273 0.158118 0.214146 75 146 152
-0.438119 0.159837 0.214307 68 143 150
-0.437964 0.161555 0.214467 69 142 147
-0.438387 0.163594 0.214441 81 147 157
-0.438812 0.165639 0.214415 83 156 162
-0.438657 0.167363 0.214576 80 154 155
-0.439082 0.169418 0.21455 71 137 139
-0.438927 0.171145 0.214712 58 117 122
-0.439938 0.173547 0.214498 50 106 110
-0.439782 0.17528 0.21466 47 102 106
-0.440211 0.177358 0.214634 48 99 102
-0.440642 0.179443 0.214608 51 93 96
-0.441074 0.181534 0.214582 54 83 86
-0.440917 0.183276 0.214745 56 66 70
-0.434725 0.140529 0.212529 67 57 51
-0.435138 0.142508 0.2125 65 56 50
-0.435552 0.144493 0.212471 63 58 53
-0.435967 0.146485 0.212442 63 61 61
-0.435814 0.148189 0.212601 59 72 78
-0.435661 0.149894 0.21276 68 106 104
-0.435507 0.151598 0.212919 78 139 137
-0.435354 0.153303 0.213079 81 148 151
-0.435201 0.155008 0.213238 75 142 151
-0.435047 0.156713 0.213397 67 138 148
-0.435463 0.158728 0.21337 72 147 148
-0.435309 0.160436 0.213529 91 158 157
-0.436297 0.162777 0.213314 88 154 163
-0.437291 0.165133 0.213097 79 146 152
-0.437713 0.167178 0.213069 66 128 134
-0.438137 0.169229 0.213041 53 110 116
-0.438562 0.171287 0.213012 46 104 106
-0.438406 0.173015 0.213173 47 102 104
-0.439415 0.175423 0.212955 48 99 100
-0.439844 0.177501 0.212926 52 93 92
-0.440274 0.179586 0.212897 56 77 78
-0.433955 0.138693 0.210891 67 60 54
-0.434366 0.140666 0.210859 65 59 55
-0.434213 0.142362 0.211018 62 60 58
-0.434625 0.144344 0.210986 59 67 69
-0.434473 0.146043 0.211145 61 87 91
-0.434886 0.148035 0.211114 80 125 125
-0.434733 0.149737 0.211273 80 147 148
-0.434014 0.151141 0.211621 77 148 153
-0.433861 0.152841 0.21178 73 140 150
-0.433708 0.15454 0.211938 72 137 150
-0.433555 0.15624 0.212097 77 148 156
-0.433967 0.158248 0.212067 87 166 161
-0.433814 0.159951 0.212226 91 154 157
-0.434794 0.162283 0.212008 75 136 144
-0.43578 0.164631 0.211788 60 118 126
-0.436773 0.166993 0.211566 50 105 111
-0.437194 0.169041 0.211536 47 101 104
-0.437617 0.171096 0.211505 47 101 102
-0.438041 0.173157 0.211474 49 96 97
-0.438466 0.175225 0.211443 53 88 86
-0.439476 0.177644 0.211218 57 73 69
-0.432069 0.136318 0.20964 65 64 53
-0.432476 0.138278 0.209607 64 63 56
-0.433444 0.140523 0.209381 61 65 64
-0.433854 0.1425 0.209347 60 79 82
-0.433702 0.144196 0.209506 68 107 109
-0.433549 0.145892 0.209664 87 142 140
-0.433396 0.147589 0.209823 81 148 155
-0.433244 0.149286 0.209981 71 145 154
-0.433091 0.150983 0.210139 69 141 149
-0.432939 0.15268 0.210298 75 142 150
-0.432786 0.154377 0.210456 83 152 159
-0.432633 0.156074 0.210615 86 160 164
-0.432481 0.157772 0.210773 82 152 154
-0.433454 0.16009 0.210551 66 126 135
-0.4333 0.161793 0.21071 55 109 118
-0.434847 0.164451 0.210294 49 103 109
-0.435264 0.166485 0.210261 47 101 105
-0.43683 0.169183 0.209841 48 97 100
-0.437252 0.171237 0.209807 52 92 94
-0.437675 0.173299 0.209774 54 76 80
-0.438099 0.175367 0.20974 60 63 61
-0.430905 0.132551 0.208052 62 61 48
-0.430754 0.134231 0.208209 67 62 49
-0.431157 0.136182 0.208173 66 64 56
-0.431561 0.138139 0.208138 62 70 71
-0.431966 0.140103 0.208102 64 91 95
-0.432373 0.142072 0.208066 74 124 124
-0.432221 0.143763 0.208224 82 151 151
-0.432628 0.145742 0.208188 86 151 158
-0.432476 0.147436 0.208346 70 136 152
-0.432324 0.14913 0.208504 68 141 149
-0.432171 0.150825 0.208662 80 151 152
-0.432019 0.152519 0.20882 87 157 158
-0.431866 0.154214 0.208978 84 154 158
-0.432274 0.156213 0.208944 74 141 146
-0.432121 0.15791 0.209102 59 116 127
-0.43253 0.159918 0.209068 50 104 114
-0.43294 0.161932 0.209033 46 102 108
-0.434485 0.164591 0.20861 46 101 103
-0.434901 0.166626 0.208574 49 97 98
-0.43589 0.168995 0.208343 52 88 90
-0.429598 0.130483 0.20663 61 60 52
-0.429997 0.132422 0.206592 60 61 55
-0.430398 0.134367 0.206554 63 65 61
-0.430247 0.136047 0.206711 63 79 81
-0.430649 0.138001 0.206673 73 107 110
-0.431053 0.139961 0.206635 80 134 138
-0.430901 0.141647 0.206792 77 149 154
-0.430749 0.143334 0.206949 76 150 156
-0.431153 0.145305 0.206911 70 133 148
-0.431001 0.146995 0.207069 74 141 152
-0.430849 0.148684 0.207227 84 159 158
-0.430697 0.150373 0.207384 90 158 157
-0.431102 0.152359 0.207347 83 146 149
-0.431508 0.154352 0.20731 67 129 134
-0.431355 0.156047 0.207468 54 109 115
-0.431762 0.158049 0.207431 49 101 107
-0.43217 0.160057 0.207394 46 101 106
-0.432579 0.162072 0.207357 47 100 103
-0.434123 0.164731 0.206925 50 95 94
-0.434538 0.166766 0.206887 55 81 80
-0.430095 0.127524 0.20447 62 60 49
-0.429394 0.128942 0.204824 62 62 54
-0.429243 0.130617 0.20498 61 60 58
-0.428544 0.132029 0.205332 56 67 74
-0.428942 0.133968 0.205292 63 92 95
-0.428791 0.135643 0.205449 77 126 125
-0.42974 0.137864 0.205212 83 145 147
-0.429589 0.139544 0.205369 78 147 155
-0.429438 0.141225 0.205525 69 143 153
-0.429287 0.142906 0.205682 71 139 146
-0.429687 0.144872 0.205643 81 144 154
-0.429536 0.146556 0.2058 86 161 162
-0.429937 0.14853 0.20576 89 158 157
-0.429785 0.150217 0.205917 77 139 143
-0.430188 0.1522 0.205878 61 118 125
-0.430591 0.154189 0.205839 52 105 109
-0.430996 0.156185 0.205799 49 102 103
-0.431403 0.158188 0.20576 49 102 104
-0.43181 0.160196 0.20572 51 98 100
-0.432782 0.162526 0.205481 52 89 89
-0.433194 0.164552 0.205441 53 74 73
-0.427156 0.124719 0.203656 62 58 53
-0.427006 0.126383 0.203811 64 61 52
-0.426856 0.128048 0.203967 63 64 62
-0.426165 0.129455 0.204318 59 72 83
-0.426016 0.131118 0.204473 68 105 111
-0.425866 0.13278 0.204628 77 139 140
-0.425716 0.134443 0.204783 82 152 153
-0.428285 0.137454 0.203954 77 147 154
-0.427588 0.138856 0.204308 68 140 151
-0.427437 0.140529 0.204464 73 147 151
-0.427287 0.142203 0.20462 91 157 155
-0.42823 0.144441 0.204381 90 157 164
-0.428079 0.14612 0.204538 82 151 152
-0.428477 0.148087 0.204497 69 128 134
-0.428876 0.150061 0.204455 56 110 118
-0.429276 0.152041 0.204414 48 103 109
-0.429678 0.154027 0.204372 46 100 103
-0.430637 0.156324 0.20413 48 99 102
-0.431043 0.158326 0.204088 54 97 99
-0.43145 0.160335 0.204046 56 78 83
-0.432421 0.162666 0.203801 59 64 60
-0.426021 0.121033 0.202106 61 59 56
-0.426412 0.122939 0.202061 63 59 53
-0.426262 0.124602 0.202216 63 60 58
-0.425573 0.126012 0.20257 63 68 68
-0.425424 0.127672 0.202724 63 87 93
-0.425274 0.129332 0.202879 79 122 128
-0.425125 0.130992 0.203034 78 143 149
-0.424439 0.132391 0.203386 77 151 156
-0.424289 0.134048 0.20354 74 145 152
-0.42414 0.135706 0.203694 72 139 150
-0.425065 0.137903 0.203455 78 152 157
-0.424915 0.139567 0.20361 90 168 164
-0.424766 0.14123 0.203765 94 156 159
-0.425155 0.143172 0.203723 76 140 145
-0.426087 0.145403 0.203482 61 119 124
-0.427025 0.147647 0.20324 52 106 111
-0.427421 0.149614 0.203197 47 101 106
-0.427818 0.151588 0.203154 46 101 104
-0.428767 0.153866 0.202909 48 99 100
-0.429722 0.156158 0.202663 53 93 91
-0.430684 0.158465 0.202416 56 68 74
-0.424209 0.118784 0.200919 62 57 49
-0.424595 0.120679 0.200872 60 58 55
-0.424982 0.122579 0.200826 59 64 64
-0.424833 0.124236 0.20098 59 77 82
-0.424684 0.125894 0.201135 71 107 109
-0.424535 0.127551 0.201289 83 142 143
-0.423851 0.128953 0.201643 85 151 156
-0.423702 0.130608 0.201797 71 146 157
-0.423553 0.132263 0.201951 70 143 150
-0.423404 0.133919 0.202106 81 146 151
-0.423255 0.135574 0.20226 88 155 160
-0.424176 0.137768 0.202016 88 162 166
-0.424026 0.139429 0.202171 88 155 157
-0.423877 0.14109 0.202326 68 126 138
-0.424264 0.143028 0.202281 55 111 114
-0.424652 0.144973 0.202237 49 104 106
-0.425583 0.14721 0.201992 46 103 104
-0.426519 0.14946 0.201745 46 100 103
-0.426914 0.15143 0.201699 49 94 98
-0.42731 0.153407 0.201654 53 86 84
-0.421506 0.114447 0.199991 63 54 50
-0.421359 0.116087 0.200144 64 55 50
-0.422266 0.1182 0.199896 61 59 55
-0.423178 0.120326 0.199647 59 68 71
-0.423562 0.122221 0.199598 64 93 99
-0.423947 0.124121 0.19955 76 126 127
-0.423798 0.125776 0.199704 80 149 151
-0.423649 0.127431 0.199858 83 155 158
-0.422967 0.128831 0.200214 73 139 153
-0.422818 0.130483 0.200367 70 143 153
-0.422669 0.132136 0.200521 84 158 157
-0.422521 0.13379 0.200675 95 163 162
-0.422372 0.135443 0.200829 93 157 161
-0.422755 0.137364 0.200783 82 146 148
-0.423139 0.139291 0.200736 64 116 125
-0.423525 0.141224 0.200689 53 103 109
-0.423375 0.142885 0.200844 49 102 105
-0.423762 0.144827 0.200797 47 102 103
-0.424688 0.14706 0.200548 51 100 98
-0.425079 0.149018 0.200501 52 89 90
-0.426013 0.151274 0.200249 52 71 77
-0.418844 0.110176 0.199077 65 59 52
-0.419216 0.112029 0.199029 63 59 50
-0.41907 0.113658 0.19918 62 59 54
-0.418923 0.115288 0.199332 60 63 62
-0.419817 0.117386 0.199083 59 79 81
-0.420716 0.119497 0.198833 67 108 114
-0.421094 0.121379 0.198783 80 140 146
-0.421473 0.123266 0.198734 82 155 158
-0.421853 0.125159 0.198684 74 151 158
-0.422235 0.127059 0.198635 73 142 149
-0.422086 0.128709 0.198788 80 143 155
-0.421408 0.130103 0.199144 88 163 165
-0.42126 0.131751 0.199298 96 166 165
-0.421112 0.133399 0.199451 90 151 155
-0.421492 0.135312 0.199403 71 128 137
-0.421873 0.13723 0.199354 59 108 114
-0.422255 0.139154 0.199305 51 102 105
-0.422639 0.141084 0.199256 47 102 105
-0.423023 0.14302 0.199207 48 99 103
-0.423409 0.144962 0.199158 52 98 97
-0.42326 0.146627 0.199313 55 82 83
-0.424185 0.148865 0.199059 55 65 63
-0.417614 0.108238 0.197726 63 61 55
-0.417983 0.110082 0.197675 63 60 57
-0.417837 0.111707 0.197826 61 60 58
-0.41769 0.113332 0.197977 57 70 70
-0.41806 0.115187 0.197927 57 91 93
-0.417914 0.116815 0.198079 61 121 124
-0.418284 0.118678 0.198028 70 149 157
-0.419176 0.120787 0.197776 84 163 171
-0.419551 0.122665 0.197725 70 145 159
-0.419926 0.124549 0.197674 72 146 151
-0.420303 0.126439 0.197623 92 158 158
-0.420155 0.128082 0.197776 91 162 169
-0.420007 0.129725 0.197928 92 163 165
-0.419859 0.131368 0.198081 81 145 148
-0.419711 0.133011 0.198234 64 119 126
-0.420614 0.135181 0.19798 53 104 111
-0.420993 0.137096 0.197929 48 102 105
-0.421905 0.139288 0.197673 46 100 103
-0.421755 0.140944 0.197827 48 100 102
-0.422138 0.142878 0.197776 53 91 93
-0.423057 0.145098 0.197518 59 74 73
-0.41639 0.106311 0.196382 62 61 49
-0.416756 0.108147 0.196329 62 63 56
-0.416611 0.109767 0.19648 61 66 66
-0.416465 0.111387 0.196631 57 79 81
-0.416832 0.113234 0.196579 55 100 107
-0.416686 0.114857 0.196729 59 130 136
-0.41654 0.11648 0.19688 69 157 162
-0.416907 0.118337 0.196829 78 168 178
-0.417276 0.1202 0.196777 80 162 172
-0.417646 0.122069 0.196724 79 150 160
-0.418536 0.124189 0.196468 96 174 167
-0.418909 0.126072 0.196415 98 163 167
-0.419283 0.127962 0.196362 88 155 159
-0.419136 0.129603 0.196514 71 131 139
-0.418988 0.131244 0.196667 56 110 119
-0.41884 0.132885 0.19682 48 102 108
-0.419215 0.134788 0.196767 47 101 105
-0.420117 0.136963 0.196509 48 101 104
-0.421024 0.139151 0.196249 51 99 98
-0.421405 0.141079 0.196195 56 82 85
-0.421787 0.143012 0.196141 58 66 67
-0.415683 0.104609 0.194842 67 61 54
-0.415537 0.106224 0.194992 61 62 55
-0.415902 0.108057 0.194937 58 69 70
-0.416267 0.109896 0.194882 58 90 92
-0.416122 0.111516 0.195033 55 116 119
-0.415976 0.113137 0.195184 60 139 146
-0.41583 0.114757 0.195334 77 163 168
-0.415684 0.116378 0.195485 92 177 183
-0.41605 0.118232 0.195431 100 177 187
-0.415904 0.119856 0.195582 100 175 178
-0.41627 0.121719 0.195528 94 172 175
-0.417153 0.123831 0.195268 101 169 166
-0.417523 0.125708 0.195214 81 143 150
-0.417895 0.127592 0.195159 64 119 127
-0.417747 0.129228 0.195311 52 106 112
-0.4176 0.130864 0.195463 47 102 105
-0.417972 0.132758 0.195409 47 101 102
-0.418345 0.134658 0.195355 50 101 98
-0.418719 0.136564 0.1953 55 97 91
-0.420145 0.139015 0.194828 56 74 75
-0.420524 0.140939 0.194772 62 65 58
-0.412458 0.101868 0.194332 67 62 55
-0.414832 0.104524 0.193455 62 68 60
-0.415195 0.106352 0.193398 56 76 78
-0.41505 0.107968 0.193549 55 100 106
-0.414904 0.109583 0.193699 56 127 132
-0.415268 0.111422 0.193642 68 149 157
-0.415122 0.11304 0.193793 83 167 173
-0.414976 0.114658 0.193943 105 182 183
-0.414831 0.116276 0.194093 120 189 191
-0.414685 0.117894 0.194244 110 182 191
-0.414539 0.119513 0.194394 108 171 176
-0.414394 0.121132 0.194544 87 163 168
-0.415267 0.123233 0.194283 72 139 146
-0.415633 0.125101 0.194227 58 116 121
-0.416 0.126975 0.194171 50 106 109
-0.415853 0.128604 0.194323 47 102 106
-0.415706 0.130233 0.194474 47 101 103
-0.416589 0.132375 0.194211 50 97 96
-0.417477 0.13453 0.193946 53 87 83
-0.417849 0.136433 0.193889 57 68 64
-0.418745 0.13861 0.193622 57 57 55
-0.414999 0.104865 0.191655 57 91 89
-0.414346 0.106265 0.192014 55 112 120
-0.4142 0.107878 0.192164 60 139 146
-0.414055 0.109491 0.192314 80 162 166
-0.41391 0.111104 0.192464 99 173 181
-0.414271 0.112943 0.192405 114 183 186
-0.414126 0.114559 0.192555 121 186 186
-0.41398 0.116175 0.192705 117 173 182
-0.413835 0.117791 0.192856 104 170 171
-0.413689 0.119407 0.193006 83 147 155
-0.413544 0.121024 0.193156 67 136 141
-0.413398 0.12264 0.193306 56 123 129
-0.413759 0.124499 0.193249 51 112 115
-0.414121 0.126364 0.193192 48 105 107
-0.414485 0.128235 0.193134 49 102 103
-0.414338 0.129859 0.193285 52 92 94
-0.414702 0.131738 0.193228 56 73 74
-0.415581 0.133881 0.192961 62 63 48
-0.413858 0.108006 0.190572 87 171 175
-0.413713 0.10962 0.190722 116 182 184
-0.413568 0.111233 0.190872 126 188 190
-0.413929 0.113072 0.190811 121 183 187
-0.413783 0.114688 0.190961 115 171 176
-0.413638 0.116304 0.191111 95 161 168
-0.413492 0.11792 0.191262 74 142 149
-0.413347 0.119537 0.191412 61 131 138
-0.413201 0.121153 0.191562 52 127 134
-0.413055 0.12277 0.191712 55 123 127
-0.41291 0.124387 0.191862 53 113 115
-0.412764 0.126003 0.192012 52 102 101
-0.413124 0.127868 0.191953 54 84 85
-0.412979 0.129488 0.192103 58 68 68
-0.41334 0.131361 0.192044 60 60 55
-0.385772 0.0900225 0.200357 48 52 46
-0.413586 0.113201 0.189217 109 172 171
-0.413441 0.114817 0.189367 84 147 159
-0.413295 0.116433 0.189517 66 136 143
-0.41315 0.11805 0.189667 57 127 132
-0.413004 0.119666 0.189817 52 120 123
-0.412858 0.121283 0.189967 50 115 120
-0.412713 0.1229 0.190117 60 119 120
-0.412567 0.124517 0.190267 60 101 102
-0.412422 0.126134 0.190417 56 78 78
-0.412276 0.127751 0.190568 56 60 59
-0.41213 0.129368 0.190718 60 53 51
-0.382927 0.0890957 0.199981 49 51 43
-0.385326 0.0916187 0.199035 51 52 53
-0.413098 0.114946 0.187773 61 131 140
-0.412953 0.116563 0.187923 52 125 132
-0.412807 0.118179 0.188073 47 115 123
-0.412661 0.119796 0.188223 50 111 110
-0.412516 0.121413 0.188373 52 102 99
-0.41237 0.12303 0.188523 54 85 89
-0.412225 0.124647 0.188673 59 71 66
-0.412079 0.126264 0.188823 55 58 50
-0.382067 0.0905046 0.19885 51 46 40
-0.38361 0.0926787 0.198261 54 56 69
-0.412756 0.115075 0.186178 49 121 128
-0.41261 0.116692 0.186328 47 109 117
-0.412464 0.118309 0.186478 50 103 108
-0.412319 0.119926 0.186628 52 90 90
-0.412173 0.121542 0.186778 52 74 71
-0.412028 0.123159 0.186928 52 63 56
-0.411882 0.124777 0.187078 58 60 50
