ply
format ascii 1.0
element vertex 1223
property float x
property float y
property float z
property uchar diffuse_red
property uchar diffuse_green
property uchar diffuse_blue
end_header
-0.327762 -0.0749557 0.303602 83 88 86
-0.327782 -0.0738989 0.303772 76 75 67
-0.327802 -0.072842 0.303943 77 72 61
-0.609131 -0.0940837 0.281017 78 74 63
-0.61142 -0.0920364 0.281192 79 72 65
-0.611462 -0.0898023 0.281552 80 70 64
-0.613771 -0.0877279 0.281729 78 74 63
-0.613814 -0.0854841 0.282091 80 78 60
-0.616142 -0.0833825 0.282272 85 77 61
-0.617335 -0.0811956 0.282545 88 71 62
-0.615081 -0.0788132 0.283088 85 71 65
-0.328652 -0.0802258 0.301613 84 69 61
-0.327404 -0.0790173 0.301901 82 71 61
-0.327424 -0.0779606 0.302071 84 76 69
-0.327444 -0.0769039 0.302242 84 99 99
-0.327212 -0.0758211 0.302435 97 143 137
-0.327232 -0.0747653 0.302605 91 126 122
-0.327504 -0.0737333 0.302753 79 84 79
-0.327524 -0.0726763 0.302924 77 72 61
-0.327544 -0.0716192 0.303094 78 71 60
-0.608546 -0.0937347 0.278872 76 67 60
-0.610833 -0.0916857 0.279037 78 67 61
-0.610875 -0.0894513 0.279398 80 72 62
-0.610917 -0.0872169 0.279758 77 76 62
-0.612089 -0.0850566 0.280023 80 78 61
-0.612131 -0.0828171 0.280385 85 78 64
-0.613308 -0.0806427 0.280652 85 74 66
-0.613351 -0.0783982 0.281014 85 72 67
-0.330146 -0.0813435 0.300242 84 68 62
-0.328373 -0.08006 0.300588 83 69 65
-0.327127 -0.0788521 0.300882 86 77 69
-0.327146 -0.0777954 0.301052 92 94 89
-0.326915 -0.0767117 0.301246 91 125 123
-0.326683 -0.07563 0.30144 94 161 157
-0.326703 -0.0745752 0.30161 83 140 150
-0.326723 -0.0735202 0.30178 79 89 94
-0.326743 -0.0724652 0.301951 82 71 61
-0.327266 -0.0714534 0.302075 81 72 64
-0.607961 -0.0933856 0.276726 79 72 63
-0.610246 -0.0913349 0.276883 81 72 61
-0.609164 -0.0890177 0.277344 87 74 61
-0.61033 -0.0868657 0.277604 87 74 62
-0.610372 -0.0846309 0.277964 85 69 62
-0.611543 -0.0824648 0.278225 88 69 63
-0.611585 -0.080225 0.278587 84 74 62
-0.611627 -0.077985 0.278948 79 75 64
-0.33088 -0.0823776 0.298932 89 69 61
-0.329608 -0.0811449 0.299236 84 70 63
-0.328093 -0.0798941 0.299564 84 75 70
-0.326849 -0.078687 0.299862 93 89 87
-0.326617 -0.0776024 0.300058 98 118 110
-0.326386 -0.0765198 0.300253 96 142 134
-0.326155 -0.0754393 0.300447 89 165 164
-0.325925 -0.0743609 0.300642 81 140 155
-0.325945 -0.073308 0.300811 84 90 95
-0.325965 -0.0722549 0.300981 85 72 61
-0.326485 -0.0712446 0.301103 83 74 65
-0.607376 -0.0930364 0.274581 86 75 66
-0.609658 -0.0909841 0.274728 85 75 64
-0.608578 -0.0886674 0.275193 80 70 64
-0.60862 -0.0864372 0.275553 80 71 63
-0.608662 -0.0842068 0.275912 83 78 63
-0.609826 -0.0820442 0.276169 83 73 62
-0.610996 -0.0798724 0.276427 81 71 60
-0.330598 -0.0822101 0.297896 84 75 67
-0.32907 -0.0809466 0.298233 78 75 68
-0.327814 -0.0797282 0.298539 91 91 85
-0.326571 -0.0785218 0.298842 100 118 109
-0.325838 -0.0773822 0.299091 97 129 123
-0.325609 -0.0763019 0.299286 99 153 143
-0.32513 -0.0751983 0.299507 94 171 165
-0.324407 -0.074075 0.299752 80 142 152
-0.324426 -0.0730271 0.299921 79 95 99
-0.324941 -0.0720233 0.30004 84 72 64
-0.325707 -0.0710366 0.300135 86 68 62
-0.607992 -0.0883171 0.273043 80 73 65
-0.608033 -0.0860866 0.273402 81 67 61
-0.608075 -0.0838561 0.273762 83 69 60
-0.608117 -0.0816253 0.274121 82 73 63
-0.609281 -0.079457 0.274374 79 71 62
-0.330315 -0.0820425 0.296859 78 71 69
-0.330335 -0.0809687 0.297032 86 86 81
-0.326776 -0.0794729 0.297597 97 118 106
-0.325541 -0.0782712 0.297904 97 128 119
-0.325312 -0.07719 0.298101 93 131 130
-0.324092 -0.0760066 0.298404 92 160 157
-0.323128 -0.0748593 0.298677 91 175 171
-0.322659 -0.0737681 0.298897 82 133 144
-0.322679 -0.0727263 0.299065 79 87 93
-0.322698 -0.0716844 0.299233 82 75 66
-0.324685 -0.0708085 0.299197 83 78 66
-0.607405 -0.0879666 0.270891 78 70 63
-0.606332 -0.0856605 0.271364 80 70 64
-0.606373 -0.0834344 0.271722 81 68 63
-0.607531 -0.0812743 0.27197 79 69 64
-0.607573 -0.0790432 0.272329 79 72 61
-0.330053 -0.080801 0.295996 93 115 106
-0.328273 -0.0795157 0.296373 94 127 118
-0.325264 -0.0781065 0.296887 93 126 121
-0.323796 -0.0768904 0.297224 92 134 134
-0.322346 -0.0756886 0.297557 87 163 168
-0.321637 -0.0745735 0.297805 85 177 176
-0.321414 -0.0735114 0.297999 81 126 132
-0.321434 -0.0724735 0.298166 74 79 81
-0.321695 -0.0714569 0.298307 73 72 64
-0.322444 -0.070479 0.298396 75 69 63
-0.605704 -0.0875367 0.268858 81 71 62
-0.605746 -0.0853106 0.269217 79 73 62
-0.605788 -0.0830843 0.269575 80 67 60
-0.60583 -0.0808577 0.269934 79 68 60
-0.325737 -0.0780262 0.295782 90 128 124
-0.322052 -0.0765673 0.296384 93 144 140
-0.32062 -0.0753743 0.296719 86 167 169
-0.319681 -0.0742426 0.296996 79 169 172
-0.319701 -0.0732107 0.297162 78 118 116
-0.319959 -0.0722007 0.297302 74 74 68
-0.319978 -0.0711677 0.297468 71 72 64
-0.321441 -0.0702549 0.297472 76 68 63
-0.606232 -0.0872656 0.266588 82 67 56
-0.605161 -0.0849605 0.267069 79 73 57
-0.605203 -0.082734 0.267428 81 71 59
-0.605244 -0.0805073 0.267786 81 71 60
-0.320328 -0.076248 0.295553 92 154 151
-0.318678 -0.075039 0.29592 88 173 172
-0.318224 -0.073963 0.296142 77 156 166
-0.318243 -0.072936 0.296307 78 107 110
-0.318262 -0.071909 0.296473 82 77 66
-0.318281 -0.0708819 0.296638 77 76 64
-0.319726 -0.0699726 0.296637 77 71 62
-0.604534 -0.0868371 0.264563 78 68 60
-0.604575 -0.0846105 0.264921 76 70 59
-0.604617 -0.0823838 0.26528 78 70 60
-0.604659 -0.0801568 0.265639 79 71 61
-0.318388 -0.0759068 0.294761 87 161 161
-0.316995 -0.0747323 0.295102 87 178 177
-0.317014 -0.0737092 0.295267 79 140 150
-0.317033 -0.0726861 0.295431 76 88 98
-0.317286 -0.0716841 0.295568 81 70 64
-0.317306 -0.0706598 0.295732 79 71 63
-0.317795 -0.0696741 0.295841 79 71 60
-0.603864 -0.0909402 0.261698 83 72 61
-0.603948 -0.0864871 0.262415 78 71 63
-0.602884 -0.0841881 0.262903 79 70 61
-0.604031 -0.0820334 0.263132 77 73 63
-0.604073 -0.0798063 0.26349 76 73 65
-0.316706 -0.0755952 0.29395 86 166 168
-0.315562 -0.0744528 0.294264 83 175 175
-0.315581 -0.0734345 0.294428 83 125 127
-0.315832 -0.072438 0.294562 82 75 77
-0.316083 -0.0714395 0.294697 79 69 63
-0.316103 -0.0704191 0.294861 76 71 63
-0.316821 -0.0694557 0.294938 79 69 60
-0.603279 -0.0905906 0.259549 81 72 60
-0.60332 -0.088364 0.259908 81 76 62
-0.603362 -0.0861371 0.260266 82 71 62
-0.603404 -0.0839101 0.260625 84 71 62
-0.603446 -0.081683 0.260983 79 74 64
-0.603487 -0.0794557 0.261342 80 73 63
-0.315738 -0.0753609 0.293055 91 173 172
-0.31323 -0.0740827 0.293554 78 166 171
-0.313249 -0.0730731 0.293716 78 115 117
-0.313952 -0.0721274 0.293789 82 70 66
-0.31443 -0.0711557 0.293893 80 70 65
-0.314449 -0.070141 0.294056 80 69 65
-0.315853 -0.0692384 0.29404 79 68 62
-0.603801 -0.090326 0.257258 79 69 63
-0.603843 -0.0880945 0.257617 83 72 63
-0.602776 -0.0857871 0.258117 84 71 62
-0.602818 -0.0835599 0.258476 83 72 61
-0.603968 -0.081399 0.258695 79 73 63
-0.312946 -0.0749344 0.292417 90 177 176
-0.312965 -0.0739247 0.292579 79 151 162
-0.311853 -0.072805 0.292895 77 101 106
-0.312549 -0.0718629 0.292966 81 71 62
-0.313021 -0.0708952 0.293067 79 69 63
-0.313952 -0.0699624 0.293107 78 68 64
-0.604367 -0.0878239 0.255317 81 70 62
-0.603297 -0.085512 0.255823 80 71 62
-0.603339 -0.0832799 0.256182 78 69 61
-0.604492 -0.0811137 0.256397 77 71 61
-0.309989 -0.0744933 0.291823 85 178 179
-0.310007 -0.0734948 0.291984 80 137 145
-0.31047 -0.0725393 0.292082 78 89 93
-0.310489 -0.0715388 0.292243 82 75 63
-0.310954 -0.0705777 0.292342 81 73 61
-0.312774 -0.0697267 0.292254 78 71 61
-0.603778 -0.0874725 0.253158 77 69 61
-0.60382 -0.0852357 0.253518 79 69 60
-0.604977 -0.0830689 0.253728 76 69 61
-0.605019 -0.0808271 0.254089 76 68 59
-0.309486 -0.0753114 0.290731 88 168 170
-0.308843 -0.0742446 0.290987 81 172 176
-0.308862 -0.0732498 0.291147 77 124 126
-0.309321 -0.0722973 0.291244 74 75 74
-0.30956 -0.0713208 0.291372 77 70 61
-0.310914 -0.0704401 0.291342 80 69 60
-0.310932 -0.0694366 0.291503 81 70 61
-0.60538 -0.0895253 0.250325 72 71 60
-0.604303 -0.0871998 0.250843 73 67 60
-0.604345 -0.0849581 0.251204 79 67 59
-0.604387 -0.0827163 0.251564 79 69 62
-0.606671 -0.0806046 0.251615 76 69 60
-0.308343 -0.07506 0.2899 90 174 173
-0.307706 -0.0739978 0.290158 78 163 171
-0.307724 -0.0730066 0.290318 74 112 117
-0.308399 -0.0720781 0.290379 75 69 63
-0.308857 -0.0711241 0.290474 72 67 60
-0.604747 -0.0914188 0.247796 73 68 59
-0.603672 -0.0890893 0.248319 72 68 59
-0.603714 -0.0868475 0.248679 72 65 58
-0.604873 -0.0846794 0.248879 76 66 59
-0.606036 -0.0825019 0.24908 78 67 62
-0.307209 -0.0748105 0.289075 89 179 177
-0.305716 -0.0736636 0.289468 76 149 158
-0.306164 -0.0727223 0.28956 70 97 104
-0.307482 -0.07186 0.28952 75 68 60
-0.308375 -0.070948 0.289546 73 67 61
-0.604155 -0.0910661 0.245627 71 65 58
-0.603082 -0.0887371 0.246155 73 65 58
-0.604239 -0.0865729 0.246349 74 66 57
-0.604281 -0.0843261 0.24671 75 67 61
-0.604323 -0.0820791 0.247071 76 66 62
-0.304584 -0.074402 0.288495 84 178 178
-0.304603 -0.0734216 0.288653 79 137 140
-0.305047 -0.0724833 0.288743 72 81 85
-0.305923 -0.071582 0.288766 74 68 60
-0.60245 -0.0906269 0.24363 73 67 58
-0.602492 -0.0883849 0.24399 74 66 57
-0.602534 -0.0861427 0.24435 77 66 57
-0.60369 -0.0839727 0.244541 78 68 61
-0.603732 -0.0817255 0.244902 78 68 60
-0.303884 -0.075182 0.28746 88 167 167
-0.302639 -0.0740686 0.287824 78 170 175
-0.303287 -0.0731598 0.287878 77 123 122
-0.303727 -0.0722252 0.287966 78 71 67
-0.304807 -0.071347 0.287952 79 71 61
-0.601818 -0.0925169 0.241104 78 73 60
-0.600751 -0.0901895 0.241641 77 72 58
-0.600793 -0.087952 0.242 73 70 60
-0.600835 -0.0857144 0.24236 74 63 61
-0.600876 -0.0834766 0.242719 79 66 60
-0.600918 -0.0812386 0.243079 81 70 59
-0.300703 -0.0747062 0.287007 90 173 172
-0.300721 -0.0737399 0.287163 77 159 167
-0.301359 -0.0728367 0.287214 72 111 114
-0.301793 -0.0719082 0.287301 78 67 61
-0.303488 -0.071094 0.287179 79 71 63
-0.60012 -0.0920757 0.23912 78 70 59
-0.600162 -0.0898381 0.23948 79 72 58
-0.600204 -0.0876004 0.239839 72 72 60
-0.600246 -0.0853626 0.240199 72 61 60
-0.599185 -0.0830544 0.240736 78 64 57
-0.599226 -0.0808209 0.241095 80 70 60
-0.300225 -0.0754979 0.285954 84 157 159
-0.29922 -0.07442 0.286286 88 179 178
-0.299238 -0.0734589 0.28644 79 147 155
-0.299869 -0.0725598 0.28649 72 94 102
-0.300503 -0.0716557 0.286539 74 67 61
-0.301555 -0.0707852 0.286519 74 67 62
-0.599531 -0.0917245 0.236959 73 66 61
-0.599573 -0.0894867 0.237319 73 66 59
-0.599615 -0.0872488 0.237678 70 65 58
-0.598555 -0.0849366 0.23822 74 65 57
-0.598597 -0.0827031 0.238579 78 67 55
-0.598638 -0.0804693 0.238938 76 70 60
-0.298949 -0.0752309 0.285203 85 162 165
-0.297351 -0.074093 0.285643 83 177 180
-0.29777 -0.0731809 0.285726 80 136 139
-0.298192 -0.0722654 0.285809 74 80 84
-0.298817 -0.0713661 0.285856 72 72 61
-0.300266 -0.0705376 0.285761 70 69 61
-0.598942 -0.0913731 0.234798 72 67 60
-0.598984 -0.0891352 0.235157 71 68 61
-0.597925 -0.086819 0.235704 70 67 59
-0.597967 -0.0845854 0.236063 76 69 58
-0.598009 -0.0823516 0.236422 76 71 58
-0.295886 -0.0747629 0.284786 90 167 167
-0.295904 -0.0738137 0.284938 79 167 173
-0.296518 -0.0729266 0.284983 76 121 123
-0.296935 -0.0720147 0.285064 74 70 67
-0.297554 -0.0711187 0.285109 72 71 60
-0.298785 -0.0702736 0.285046 70 67 59
-0.597254 -0.0909351 0.23283 74 67 58
-0.597296 -0.0887016 0.233188 73 70 59
-0.597337 -0.086468 0.233547 73 67 59
-0.596284 -0.0841618 0.234097 76 66 58
-0.596326 -0.0819325 0.234454 78 73 61
-0.295421 -0.0755407 0.283753 89 151 150
-0.294064 -0.0744376 0.284161 92 174 172
-0.294472 -0.0735373 0.28424 80 155 163
-0.295079 -0.0726541 0.284283 73 108 115
-0.295689 -0.0717662 0.284325 73 66 61
-0.296701 -0.0709115 0.284295 71 63 59
-0.596624 -0.0928179 0.230314 73 64 59
-0.595573 -0.0904988 0.23087 72 66 59
-0.595614 -0.0882697 0.231228 73 69 60
-0.595656 -0.0860406 0.231585 75 66 59
-0.595697 -0.0838112 0.231943 77 64 58
-0.595739 -0.0815817 0.232301 77 67 61
-0.293197 -0.0761052 0.28306 83 128 129
-0.292827 -0.0751201 0.283285 86 158 161
-0.292845 -0.0741815 0.283435 88 178 179
-0.29325 -0.0732846 0.283513 80 144 152
-0.29385 -0.0724046 0.283553 73 90 101
-0.294063 -0.0714811 0.283667 72 66 61
-0.295457 -0.0706678 0.28356 70 63 60
-0.594944 -0.0923778 0.228359 74 66 56
-0.593899 -0.0900642 0.228918 73 69 59
-0.59394 -0.0878397 0.229275 75 70 59
-0.593981 -0.0856149 0.229632 78 68 58
-0.59511 -0.0834606 0.229789 78 65 56
-0.290271 -0.0756369 0.282677 85 134 134
-0.290857 -0.0747739 0.282715 87 162 166
-0.291828 -0.073949 0.282678 81 177 179
-0.292038 -0.0730341 0.282791 78 136 138
-0.292826 -0.0721772 0.282792 71 74 80
-0.293037 -0.0712566 0.282905 71 65 59
-0.293832 -0.0703894 0.282907 72 67 60
-0.593271 -0.0919395 0.226411 76 68 57
-0.593313 -0.0897149 0.226768 74 67 57
-0.593354 -0.0874901 0.227125 77 67 59
-0.593395 -0.0852652 0.227482 73 65 57
-0.289444 -0.0763507 0.281744 76 120 122
-0.289462 -0.0754243 0.281893 88 142 143
-0.289667 -0.0745195 0.282004 92 167 169
-0.29025 -0.073655 0.28204 77 167 173
-0.291217 -0.0728265 0.282 73 123 125
-0.291808 -0.0719513 0.282036 73 67 64
-0.292403 -0.0710714 0.282073 72 67 58
-0.293 -0.0701868 0.282109 71 68 59
-0.592644 -0.093815 0.223905 78 68 57
-0.592685 -0.0915903 0.224261 73 66 58
-0.592727 -0.0893655 0.224618 74 67 58
-0.592768 -0.0871405 0.224975 76 67 58
-0.592809 -0.0849153 0.225332 72 67 58
-0.288826 -0.0761598 0.280926 71 121 125
-0.28847 -0.0751906 0.281151 83 149 152
-0.288673 -0.0742887 0.281261 92 175 175
-0.289064 -0.0734058 0.281333 77 158 167
-0.289645 -0.0725397 0.281367 67 107 117
-0.290988 -0.0717463 0.281247 73 65 61
-0.291963 -0.0709055 0.281204 73 67 60
-0.592058 -0.0934659 0.221754 72 64 57
-0.592099 -0.0912411 0.222111 72 60 56
-0.592141 -0.089016 0.222468 72 63 59
-0.592182 -0.0867908 0.222825 73 63 59
-0.287099 -0.0758334 0.280344 69 125 128
-0.286748 -0.0748713 0.280568 81 156 160
-0.287317 -0.0740173 0.2806 86 178 180
-0.287889 -0.0731587 0.280631 76 147 156
-0.288464 -0.0722956 0.280663 68 91 104
-0.289418 -0.071466 0.280618 75 63 60
-0.591472 -0.0931168 0.219604 72 63 59
-0.591513 -0.0908917 0.219961 71 61 59
-0.591554 -0.0886665 0.220317 74 62 57
-0.285577 -0.0755336 0.27973 72 130 131
-0.285594 -0.0746204 0.279876 86 162 162
-0.285793 -0.0737279 0.279984 80 173 177
-0.287092 -0.0729539 0.279858 75 137 139
-0.288034 -0.0721314 0.279809 70 77 82
-0.590844 -0.0949928 0.217096 69 63 58
-0.590885 -0.0927676 0.217453 68 62 58
-0.590927 -0.0905423 0.21781 70 62 60
-0.284957 -0.0762584 0.27878 55 112 117
-0.283715 -0.0751937 0.279202 76 137 139
-0.284269 -0.0743506 0.27923 93 168 165
-0.28537 -0.0735644 0.27914 79 165 169
-0.285751 -0.0726906 0.279207 73 124 127
-0.590258 -0.0946437 0.214945 69 65 56
-0.590299 -0.0924184 0.215302 70 62 51
-0.282925 -0.0758914 0.2783 57 113 120
-0.282587 -0.0749445 0.278524 81 143 150
-0.282604 -0.074042 0.278669 96 172 172
-0.284047 -0.0732998 0.278497 81 155 162
-0.589671 -0.0942946 0.212794 69 66 58
-0.282156 -0.0756839 0.277547 64 117 124
-0.28182 -0.0747397 0.277772 89 151 156
-0.281837 -0.0738394 0.277916 95 177 177
-0.282383 -0.0729983 0.277941 80 144 150
-0.59012 -0.0962684 0.210045 73 62 58
-0.589085 -0.0939455 0.210642 68 63 62
-0.281566 -0.0754993 0.276757 72 125 129
-0.281232 -0.0745569 0.276983 103 162 160
-0.281424 -0.0736783 0.277086 98 174 174
-0.281968 -0.0728374 0.277108 82 135 137
-0.589533 -0.0959186 0.207888 72 61 54
-0.588498 -0.0935963 0.208489 73 59 60
-0.280803 -0.0752937 0.276011 77 135 137
-0.279604 -0.0742503 0.276442 106 168 163
-0.280836 -0.0734973 0.276298 99 163 164
-0.589982 -0.0979002 0.205123 69 62 57
-0.588945 -0.0955688 0.205731 68 61 56
-0.587911 -0.093247 0.206337 70 58 60
-0.587952 -0.0910208 0.206693 73 58 58
-0.279352 -0.0750037 0.275436 77 142 143
-0.278681 -0.074029 0.275744 92 163 161
-0.279385 -0.0732177 0.275721 82 138 144
-0.589393 -0.0975498 0.202961 71 64 59
-0.589434 -0.0953144 0.203319 70 63 58
-0.587324 -0.0928977 0.204184 70 64 57
-0.587365 -0.0906713 0.20454 70 60 51
-0.587407 -0.0884448 0.204896 72 61 52
-0.27843 -0.0747799 0.274741 68 143 142
-0.278446 -0.0738899 0.274883 68 140 147
-0.278634 -0.0730193 0.274984 69 115 122
-0.588804 -0.0971993 0.200799 68 60 58
-0.588845 -0.0949638 0.201156 67 62 58
-0.586737 -0.0925482 0.20203 67 66 59
-0.586778 -0.0903217 0.202387 68 64 54
-0.58682 -0.0880949 0.202743 73 65 54
-0.586861 -0.0858681 0.203099 76 62 58
-0.278212 -0.0737507 0.274022 62 120 122
-0.589252 -0.0991882 0.198012 70 66 57
-0.588214 -0.0968488 0.198636 75 67 57
-0.588255 -0.094613 0.198994 72 66 58
-0.58615 -0.0921988 0.199876 73 64 57
-0.586191 -0.089972 0.200233 72 65 58
-0.586232 -0.0877451 0.200589 71 70 60
-0.586274 -0.085518 0.200945 73 63 57
-0.586315 -0.0832907 0.201302 75 60 52
-0.589703 -0.101186 0.195213 65 62 57
-0.588662 -0.0988371 0.195844 68 61 58
-0.587624 -0.0964983 0.196473 73 62 59
-0.586592 -0.094169 0.197099 74 63 63
-0.585563 -0.0918493 0.197722 70 65 59
-0.585604 -0.0896223 0.198078 72 64 58
-0.585645 -0.0873951 0.198435 72 66 58
-0.585686 -0.0851678 0.198791 71 69 57
-0.585728 -0.0829404 0.199147 74 66 56
-0.585769 -0.0807127 0.199504 73 61 57
-0.58581 -0.078485 0.19986 73 67 57
-0.585851 -0.076257 0.200217 75 64 54
-0.589111 -0.100834 0.19304 66 63 58
-0.588071 -0.098486 0.193676 73 65 56
-0.587035 -0.0961476 0.194309 73 68 58
-0.586003 -0.0938189 0.19494 74 69 57
-0.584976 -0.0914997 0.195568 74 69 57
-0.585017 -0.0892725 0.195924 73 65 56
-0.585058 -0.0870451 0.19628 79 66 56
-0.585099 -0.0848176 0.196636 73 64 54
-0.58514 -0.08259 0.196993 71 60 57
-0.585181 -0.0803622 0.197349 75 59 61
-0.585222 -0.0781341 0.197705 73 63 58
-0.585264 -0.075906 0.198062 75 63 50
-0.585305 -0.0736777 0.198418 72 68 55
-0.588519 -0.100482 0.190868 66 64 60
-0.58748 -0.0981347 0.191508 71 63 61
-0.586445 -0.095797 0.192145 70 68 58
-0.585414 -0.0934687 0.19278 69 64 53
-0.584388 -0.09115 0.193413 73 60 58
-0.584429 -0.0889227 0.193769 72 65 58
-0.58447 -0.0866951 0.194125 71 64 56
-0.584512 -0.0844674 0.194481 72 67 51
-0.584553 -0.0822395 0.194838 68 62 52
-0.584594 -0.0800115 0.195194 67 60 57
-0.584635 -0.0777833 0.19555 68 62 53
-0.584676 -0.0755549 0.195906 66 66 58
-0.584717 -0.0733264 0.196263 68 62 60
-0.584758 -0.0710977 0.196619 71 67 61
-0.587926 -0.10013 0.188694 70 63 57
-0.586888 -0.0977835 0.189339 67 63 57
-0.585855 -0.0954462 0.189981 70 63 57
-0.585896 -0.0932096 0.190339 74 63 53
-0.584867 -0.0908864 0.190977 72 61 51
-0.583842 -0.0885727 0.191614 67 59 54
-0.583883 -0.086345 0.19197 71 63 56
-0.583924 -0.0841171 0.192326 72 66 58
-0.583965 -0.081889 0.192682 70 65 58
-0.584006 -0.0796607 0.193038 67 66 57
-0.584047 -0.0774323 0.193395 68 61 53
-0.584088 -0.0752038 0.193751 70 66 59
-0.58413 -0.0729751 0.194107 77 72 65
-0.584171 -0.0707462 0.194463 77 67 60
-0.584212 -0.0685172 0.19482 78 65 60
-0.584253 -0.066288 0.195176 72 64 60
-0.588375 -0.102135 0.185869 72 67 57
-0.587334 -0.0997785 0.186521 74 66 52
-0.586297 -0.0974321 0.18717 71 65 51
-0.586339 -0.0951908 0.187528 70 64 54
-0.585306 -0.0928586 0.188174 71 64 57
-0.585347 -0.0906216 0.188532 75 65 58
-0.584319 -0.0883035 0.189174 73 71 59
-0.583295 -0.0859948 0.189814 70 64 57
-0.583336 -0.0837667 0.19017 70 70 59
-0.583377 -0.0815384 0.190526 67 66 61
-0.583418 -0.0793099 0.190882 73 65 60
-0.58346 -0.0770814 0.191239 78 59 52
-0.583501 -0.0748526 0.191595 72 66 58
-0.583542 -0.0726236 0.191951 71 60 59
-0.583583 -0.0703946 0.192307 74 64 57
-0.583624 -0.0681653 0.192664 75 63 54
-0.583665 -0.0659359 0.19302 77 66 59
-0.583706 -0.0637064 0.193376 73 60 59
-0.5867 -0.101673 0.183988 68 67 56
-0.586741 -0.0994266 0.184347 69 63 51
-0.586783 -0.0971805 0.184706 70 66 51
-0.585747 -0.0948392 0.185359 68 67 56
-0.585788 -0.0925975 0.185717 71 64 56
-0.584757 -0.0902703 0.186367 75 65 58
-0.584798 -0.088033 0.186724 74 70 58
-0.582708 -0.0856446 0.187658 71 63 59
-0.582749 -0.0834162 0.188014 68 63 60
-0.58279 -0.0811877 0.18837 66 64 56
-0.582831 -0.0789591 0.188726 70 64 54
-0.582872 -0.0767303 0.189082 72 65 58
-0.582913 -0.0745013 0.189438 73 62 60
-0.582954 -0.0722722 0.189795 70 68 59
-0.582995 -0.0700429 0.190151 69 62 55
-0.583036 -0.0678135 0.190507 69 65 57
-0.583077 -0.0655839 0.190863 74 62 59
-0.583118 -0.0633541 0.19122 76 67 57
-0.583159 -0.0611242 0.191576 70 66 58
-0.5832 -0.0588941 0.191932 73 62 61
-0.587187 -0.10143 0.181511 69 65 59
-0.587229 -0.0991788 0.181871 69 62 52
-0.58727 -0.0969278 0.182231 72 62 50
-0.586231 -0.0945818 0.18289 68 64 58
-0.585197 -0.0922456 0.183547 74 62 60
-0.585238 -0.0900035 0.183905 79 71 63
-0.584208 -0.0876814 0.184559 79 69 61
-0.583182 -0.0853688 0.185209 78 71 62
-0.582161 -0.0830657 0.185857 81 73 60
-0.582202 -0.080837 0.186213 70 71 60
-0.582243 -0.0786082 0.186569 70 67 57
-0.581225 -0.0763234 0.187213 72 65 56
-0.581266 -0.0740989 0.187569 76 64 59
-0.582366 -0.0719207 0.187638 72 65 62
-0.582407 -0.0696912 0.187994 70 63 57
-0.582448 -0.0674615 0.18835 68 67 58
-0.582489 -0.0652317 0.188707 75 66 56
-0.58253 -0.0630017 0.189063 75 65 57
-0.582571 -0.0607716 0.189419 67 67 63
-0.582612 -0.0585413 0.189775 69 60 55
-0.582653 -0.0563109 0.190132 64 61 51
-0.587718 -0.0989299 0.179384 70 62 51
-0.586676 -0.0965748 0.180051 71 63 58
-0.586717 -0.0943234 0.180411 71 64 60
-0.58568 -0.0919825 0.181074 76 67 58
-0.584647 -0.0896514 0.181735 78 68 59
-0.583618 -0.0873298 0.182393 76 68 62
-0.582593 -0.0850177 0.183048 74 66 58
-0.581573 -0.0827152 0.1837 79 65 52
-0.581614 -0.0804862 0.184056 80 63 58
-0.581655 -0.0782572 0.184412 74 64 57
-0.581696 -0.076028 0.184768 77 64 58
-0.581737 -0.0737986 0.185125 83 76 63
-0.581778 -0.071569 0.185481 75 64 63
-0.581819 -0.0693393 0.185837 75 67 57
-0.58186 -0.0671095 0.186193 71 66 60
-0.581901 -0.0648795 0.186549 69 63 56
-0.581942 -0.0626493 0.186905 73 65 58
-0.581983 -0.060419 0.187262 70 69 62
-0.582024 -0.0581885 0.187618 66 62 54
-0.582065 -0.0559578 0.187974 65 63 55
-0.582106 -0.053727 0.188331 75 62 55
-0.587206 -0.0940638 0.177921 69 66 59
-0.586165 -0.0917183 0.178591 76 66 63
-0.585128 -0.0893826 0.179258 75 64 61
-0.584096 -0.0870565 0.179922 72 65 60
-0.582004 -0.0846666 0.180886 69 67 60
-0.580985 -0.0823646 0.181543 70 65 58
-0.581026 -0.0801354 0.181899 73 69 61
-0.581067 -0.0779061 0.182255 81 66 58
-0.581108 -0.0756767 0.182611 79 69 57
-0.581149 -0.0734472 0.182967 74 70 62
-0.58119 -0.0712174 0.183323 72 66 60
-0.581231 -0.0689875 0.183679 72 65 56
-0.581272 -0.0667574 0.184035 71 60 57
-0.581313 -0.0645272 0.184392 70 61 55
-0.581354 -0.0622968 0.184748 72 66 58
-0.581395 -0.0600663 0.185104 71 66 57
-0.581436 -0.0578356 0.18546 72 64 57
-0.581477 -0.0556047 0.185816 68 66 60
-0.581518 -0.0533737 0.186173 73 63 57
-0.581559 -0.0511425 0.186529 69 64 51
-0.5816 -0.0489112 0.186885 70 62 50
-0.584576 -0.086782 0.177441 77 68 57
-0.583546 -0.084461 0.178109 74 71 55
-0.580396 -0.0820139 0.179385 70 64 52
-0.580437 -0.0797845 0.179741 71 64 57
-0.580478 -0.0775551 0.180097 77 66 57
-0.580519 -0.0753254 0.180453 73 72 59
-0.58056 -0.0730956 0.180809 68 63 64
-0.580601 -0.0708657 0.181165 70 68 59
-0.580642 -0.0686356 0.181521 73 65 58
-0.580683 -0.0664053 0.181877 71 62 56
-0.580724 -0.0641749 0.182233 65 61 58
-0.580765 -0.0619443 0.18259 66 70 61
-0.580806 -0.0597135 0.182946 66 64 57
-0.580848 -0.0574826 0.183302 76 64 57
-0.580889 -0.0552516 0.183658 66 65 58
-0.58093 -0.0530203 0.184014 73 66 47
-0.580971 -0.050789 0.184371 67 62 50
-0.581012 -0.0485574 0.184727 66 60 44
-0.581053 -0.0463257 0.185083 69 67 56
-0.581094 -0.0440938 0.185439 72 60 42
-0.582995 -0.0818649 0.176296 66 62 52
-0.579849 -0.0794336 0.177583 72 60 57
-0.57989 -0.0772039 0.177939 76 65 57
-0.579931 -0.0749741 0.178295 73 68 59
-0.579972 -0.0727441 0.178651 69 65 57
-0.580013 -0.0705139 0.179007 71 60 51
-0.580054 -0.0682836 0.179363 69 62 57
-0.579041 -0.0660188 0.180022 68 63 47
-0.579082 -0.0637929 0.180377 69 62 52
-0.580177 -0.0615917 0.180431 65 66 57
-0.580218 -0.0593607 0.180787 69 63 60
-0.580259 -0.0571296 0.181143 72 64 57
-0.5803 -0.0548984 0.181499 66 63 57
-0.580341 -0.0526669 0.181856 68 62 49
-0.580382 -0.0504353 0.182212 67 63 55
-0.580423 -0.0482036 0.182568 67 56 48
-0.580464 -0.0459717 0.182924 75 61 42
-0.580505 -0.0437396 0.183281 69 61 44
-0.580546 -0.0415074 0.183637 69 70 59
-0.288753 -0.0697586 0.260226 69 68 66
-0.289346 -0.0688599 0.260204 71 76 60
-0.28975 -0.06794 0.260241 74 66 58
-0.289961 -0.0670011 0.260335 74 68 57
-0.290755 -0.0661048 0.260255 71 63 57
-0.579302 -0.0768527 0.175781 70 70 59
-0.579343 -0.0746227 0.176136 74 66 59
-0.579384 -0.0723924 0.176492 70 63 54
-0.579425 -0.0701621 0.176848 69 62 56
-0.579466 -0.0679315 0.177204 69 61 61
-0.578454 -0.0656673 0.177867 64 60 52
-0.578495 -0.0634412 0.178223 69 60 58
-0.579589 -0.061239 0.178272 68 59 55
-0.57963 -0.0590078 0.178628 71 64 50
-0.57967 -0.0567765 0.178984 65 72 57
-0.579711 -0.0545451 0.17934 68 59 48
-0.579753 -0.0523134 0.179697 66 59 50
-0.579793 -0.0500816 0.180053 66 61 52
-0.579834 -0.0478497 0.180409 73 61 49
-0.579875 -0.0456175 0.180765 65 65 54
-0.579916 -0.0433853 0.181121 70 71 57
-0.579957 -0.0411528 0.181478 71 66 54
-0.579998 -0.0389202 0.181834 73 65 59
-0.58004 -0.0366875 0.18219 75 65 58
-0.288519 -0.0686595 0.259458 67 73 86
-0.289112 -0.0677577 0.259434 73 64 64
-0.289708 -0.0668511 0.25941 76 64 57
-0.289919 -0.0659102 0.259503 72 64 60
-0.290715 -0.0650091 0.25942 67 60 62
-0.578754 -0.0742711 0.173977 74 66 60
-0.578795 -0.0720407 0.174333 67 66 59
-0.578836 -0.0698102 0.174689 67 63 61
-0.578877 -0.0675794 0.175045 76 62 60
-0.577866 -0.0653158 0.175713 74 58 57
-0.577907 -0.0630893 0.176068 76 70 59
-0.579 -0.0608863 0.176113 67 62 59
-0.579041 -0.0586549 0.176469 66 63 53
-0.579082 -0.0564234 0.176825 70 60 55
-0.579123 -0.0541917 0.177181 64 71 61
-0.579164 -0.0519599 0.177537 61 58 60
-0.579205 -0.0497279 0.177893 68 60 47
-0.579246 -0.0474957 0.178249 72 57 48
-0.579287 -0.0452634 0.178606 69 57 54
-0.579328 -0.0430309 0.178962 74 70 56
-0.579369 -0.0407982 0.179318 70 67 56
-0.57941 -0.0385655 0.179674 63 68 59
-0.579451 -0.0363325 0.180031 68 64 61
-0.579492 -0.0340994 0.180387 67 65 56
-0.289667 -0.06576 0.258577 67 68 60
-0.290461 -0.0648582 0.258491 68 64 57
-0.291261 -0.0639498 0.258404 70 59 59
-0.292662 -0.0630714 0.258134 66 61 62
-0.578206 -0.071689 0.172174 73 67 56
-0.578247 -0.0694582 0.17253 72 66 61
-0.578288 -0.0672273 0.172886 73 65 60
-0.578329 -0.0649962 0.173242 70 62 58
-0.57837 -0.0627649 0.173597 71 69 60
-0.578411 -0.0605335 0.173953 74 66 60
-0.578452 -0.0583019 0.174309 73 65 56
-0.578493 -0.0560702 0.174665 72 64 52
-0.578534 -0.0538383 0.175021 69 62 53
-0.578575 -0.0516063 0.175377 67 63 47
-0.578616 -0.049374 0.175733 67 64 50
-0.578657 -0.0471417 0.17609 82 62 58
-0.578698 -0.0449091 0.176446 79 63 59
-0.578739 -0.0426764 0.176802 76 67 60
-0.57878 -0.0404436 0.177158 70 66 58
-0.578821 -0.0382106 0.177514 65 64 59
-0.578862 -0.0359774 0.17787 70 64 59
-0.578903 -0.0337441 0.178227 70 60 58
-0.578944 -0.0315106 0.178583 68 60 59
-0.578985 -0.029277 0.178939 66 63 53
-0.290208 -0.0647072 0.257561 69 67 82
-0.291007 -0.0637982 0.257471 73 67 61
-0.291418 -0.0628586 0.257502 68 67 60
-0.292424 -0.061949 0.25735 71 68 60
-0.293039 -0.0610103 0.257319 67 63 58
-0.293458 -0.0600568 0.257351 66 64 60
-0.577618 -0.0713372 0.170014 73 68 63
-0.577822 -0.0601807 0.171793 72 63 59
-0.577863 -0.0579489 0.172149 69 64 56
-0.577904 -0.0557169 0.172505 67 72 57
-0.577945 -0.0534848 0.172861 71 64 58
-0.577986 -0.0512526 0.173217 70 61 58
-0.578027 -0.0490202 0.173573 79 60 47
-0.578068 -0.0467876 0.173929 74 62 51
-0.578109 -0.0445549 0.174285 70 66 58
-0.57815 -0.0423219 0.174642 68 62 61
-0.578191 -0.0400889 0.174998 74 67 56
-0.578232 -0.0378557 0.175354 72 65 58
-0.578273 -0.0356223 0.17571 70 70 61
-0.578314 -0.0333888 0.176066 70 58 55
-0.578355 -0.0311551 0.176422 73 62 54
-0.57945 -0.0288781 0.176468 70 59 56
-0.579491 -0.0266394 0.176825 70 62 57
-0.579533 -0.0244006 0.177183 67 70 60
-0.291163 -0.0627067 0.256567 66 65 78
-0.29197 -0.0617853 0.256473 72 66 61
-0.292385 -0.0608366 0.256503 69 64 59
-0.292801 -0.0598845 0.256533 73 64 58
-0.293218 -0.0589288 0.256563 76 69 60
-0.29485 -0.0580157 0.256215 71 64 59
-0.577315 -0.0553636 0.170345 71 62 59
-0.577356 -0.0531313 0.170701 84 69 60
-0.577397 -0.0508988 0.171057 80 66 54
-0.577438 -0.0486662 0.171413 78 60 57
-0.577479 -0.0464334 0.171769 81 59 55
-0.57752 -0.0442005 0.172125 74 63 50
-0.577561 -0.0419674 0.172481 69 66 57
-0.578655 -0.0397136 0.172518 74 59 58
-0.578696 -0.0374755 0.172875 75 66 58
-0.578737 -0.0352373 0.173232 71 63 59
-0.578778 -0.0329988 0.173589 71 59 53
-0.578819 -0.0307603 0.173946 70 62 53
-0.579918 -0.0284775 0.173987 71 72 61
-0.579959 -0.0262339 0.174345 75 68 63
-0.58 -0.0239902 0.174702 67 61 51
-0.578983 -0.0218044 0.175374 72 62 57
-0.291319 -0.0616109 0.255661 70 91 98
-0.29193 -0.0606736 0.255626 74 62 74
-0.292544 -0.0597312 0.255591 71 64 63
-0.292961 -0.0587751 0.255619 73 61 61
-0.293782 -0.0578306 0.25552 75 68 59
-0.294609 -0.056879 0.255421 70 63 60
-0.295238 -0.0559146 0.255385 67 65 63
-0.295665 -0.0549398 0.255414 65 68 62
-0.576767 -0.0527777 0.16854 72 59 57
-0.576808 -0.0505451 0.168896 73 61 58
-0.576849 -0.0483122 0.169252 70 65 59
-0.57689 -0.0460792 0.169608 81 64 55
-0.576931 -0.0438461 0.169964 77 67 61
-0.578023 -0.0415961 0.169996 76 67 64
-0.578064 -0.039358 0.170353 75 69 60
-0.578105 -0.0371197 0.17071 72 62 58
-0.578146 -0.0348813 0.171066 72 62 61
-0.579244 -0.0326072 0.171101 70 63 59
-0.580346 -0.0303235 0.171136 66 62 56
-0.580387 -0.0280751 0.171495 69 62 51
-0.580429 -0.0258267 0.171853 73 67 59
-0.58047 -0.023578 0.172212 70 63 60
-0.580511 -0.0213292 0.17257 68 57 52
-0.579491 -0.0191441 0.173247 68 61 50
-0.291476 -0.0605108 0.25475 84 130 128
-0.292088 -0.0595687 0.254713 68 87 92
-0.292504 -0.0586132 0.25474 65 64 69
-0.293323 -0.0576688 0.254638 68 67 63
-0.293945 -0.0567109 0.2546 75 63 60
-0.294774 -0.0557533 0.254497 80 67 56
-0.294996 -0.0547742 0.254589 73 63 62
-0.295422 -0.0537972 0.254616 67 63 60
-0.295851 -0.0528165 0.254643 71 65 60
-0.576137 -0.0546568 0.166023 76 71 67
-0.576178 -0.0524241 0.166379 74 69 58
-0.576219 -0.0501912 0.166735 72 65 62
-0.57626 -0.0479581 0.16709 69 64 59
-0.576301 -0.045725 0.167446 80 70 58
-0.577392 -0.0434789 0.167473 77 70 61
-0.577433 -0.0412407 0.16783 69 66 66
-0.577474 -0.0390024 0.168187 71 61 63
-0.57857 -0.0367371 0.168215 71 64 63
-0.578611 -0.0344937 0.168573 68 64 61
-0.579712 -0.0322139 0.168603 74 65 58
-0.580817 -0.0299243 0.168632 71 62 52
-0.581928 -0.0276249 0.168662 65 60 52
-0.5809 -0.0254177 0.169351 68 66 57
-0.580941 -0.0231641 0.16971 69 62 51
-0.579918 -0.0209705 0.170394 71 65 57
-0.579959 -0.0187213 0.170753 70 65 58
-0.57894 -0.0165412 0.171434 63 63 58
-0.577925 -0.0143701 0.172112 69 63 60
-0.292664 -0.0575001 0.253822 63 76 95
-0.293485 -0.0565497 0.253716 69 63 63
-0.294311 -0.0555923 0.25361 82 66 57
-0.294736 -0.0546186 0.253635 77 64 62
-0.295162 -0.0536411 0.25366 67 62 57
-0.29559 -0.05266 0.253685 66 64 54
-0.295608 -0.0516713 0.253843 77 61 60
-0.295831 -0.0506836 0.253935 74 62 59
-0.575629 -0.0498373 0.164573 73 59 59
-0.57567 -0.047604 0.164929 74 74 61
-0.57676 -0.0453618 0.16495 72 69 61
-0.576801 -0.0431236 0.165307 70 69 64
-0.576842 -0.0408852 0.165664 68 66 65
-0.577937 -0.0386238 0.165687 72 70 59
-0.577978 -0.0363804 0.166044 72 72 59
-0.579078 -0.0341045 0.166069 68 67 61
-0.580182 -0.0318189 0.166093 74 65 57
-0.581291 -0.0295234 0.166118 69 63 53
-0.581332 -0.0272652 0.166477 64 62 52
-0.581373 -0.0250068 0.166837 73 62 46
-0.581415 -0.0227483 0.167197 73 77 56
-0.580388 -0.0205507 0.167889 70 59 60
-0.579366 -0.0183622 0.168577 76 59 56
-0.578348 -0.0161827 0.169263 72 64 57
-0.577334 -0.0140121 0.169946 69 62 62
-0.576325 -0.0118504 0.170626 68 63 60
-0.293849 -0.0554316 0.252725 65 73 90
-0.294476 -0.0544628 0.252681 71 66 61
-0.294901 -0.053485 0.252705 77 67 55
-0.295329 -0.0525035 0.252728 69 69 60
-0.295347 -0.0515148 0.252886 69 62 59
-0.29557 -0.0505268 0.252976 68 62 60
-0.296206 -0.0495369 0.252934 72 65 61
-0.575081 -0.0472499 0.162767 76 69 58
-0.576211 -0.0427683 0.16314 67 64 64
-0.577304 -0.0405108 0.163158 68 68 64
-0.577345 -0.0382673 0.163516 73 73 60
-0.578443 -0.0359953 0.163535 75 67 51
-0.579546 -0.0337136 0.163554 68 60 52
-0.580653 -0.0314221 0.163573 66 58 54
-0.581766 -0.0291207 0.163592 70 63 60
-0.582882 -0.0268095 0.163611 83 76 60
-0.582924 -0.0245414 0.163972 75 64 58
-0.58189 -0.0223307 0.164673 72 63 58
-0.58086 -0.0201292 0.165372 69 70 60
-0.579835 -0.0179367 0.166067 68 69 62
-0.577756 -0.0158241 0.167091 76 60 56
-0.576743 -0.0136541 0.167778 69 62 56
-0.575735 -0.0114929 0.168463 63 65 61
-0.57369 -0.00942404 0.169468 63 65 59
-0.294013 -0.0543028 0.251795 78 119 106
-0.294641 -0.0533289 0.251749 69 69 89
-0.295068 -0.052347 0.251771 70 64 63
-0.295291 -0.0513598 0.25186 66 63 59
-0.295309 -0.05037 0.252018 71 63 61
-0.295944 -0.0493795 0.251972 74 66 60
-0.296999 -0.0483812 0.25179 71 66 61
-0.297434 -0.0473797 0.251812 69 68 63
-0.574573 -0.0424278 0.161316 69 65 61
-0.584321 -0.0331828 0.159632 69 59 51
-0.584363 -0.0309054 0.159995 66 66 57
-0.585492 -0.0285831 0.160006 66 65 59
-0.585534 -0.0263005 0.16037 67 64 65
-0.585576 -0.0240177 0.160733 69 69 65
-0.583446 -0.0218527 0.161793 69 60 58
-0.582408 -0.0196426 0.1625 68 61 55
-0.580305 -0.0175094 0.163546 63 69 61
-0.579281 -0.0153221 0.164245 70 67 59
-0.577204 -0.0132201 0.165276 74 65 54
-0.576193 -0.0110551 0.165967 77 64 57
-0.575186 -0.00889894 0.166656 72 65 54
-0.295029 -0.0512031 0.250902 64 69 87
-0.295458 -0.0502143 0.250922 66 67 63
-0.296095 -0.0492215 0.250873 69 71 58
-0.296735 -0.048223 0.250824 67 63 60
-0.29717 -0.0472211 0.250844 71 64 61
-0.297398 -0.0462185 0.250934 82 67 58
-0.297835 -0.0452099 0.250955 66 66 59
-0.587202 -0.02125 0.158176 68 67 57
-0.295196 -0.0500571 0.249962 71 103 101
-0.295832 -0.0490638 0.24991 68 67 78
-0.29668 -0.0480634 0.249788 69 61 57
-0.296906 -0.0470625 0.249877 70 67 59
-0.297133 -0.0460597 0.249966 77 62 58
-0.297361 -0.0450549 0.250055 77 71 63
-0.297799 -0.044043 0.250074 76 70 59
-0.298661 -0.043015 0.249951 75 62 50
-0.29557 -0.048906 0.248947 84 137 135
-0.296416 -0.047905 0.248821 70 94 92
-0.296851 -0.0469013 0.248838 68 63 74
-0.297078 -0.0458973 0.248926 68 64 58
-0.297306 -0.0448914 0.249014 66 64 62
-0.297744 -0.0438782 0.249031 71 63 59
-0.298184 -0.0428611 0.249048 72 69 65
-0.298625 -0.04184 0.249065 67 63 55
-0.299495 -0.0407986 0.248938 65 63 57
-0.299727 -0.039777 0.249027 74 62 51
-0.295945 -0.0477482 0.247926 82 169 171
-0.296587 -0.0467425 0.247869 83 134 135
-0.297023 -0.0457347 0.247883 64 93 94
-0.297251 -0.0447276 0.247971 63 62 71
-0.297689 -0.043713 0.247985 73 67 57
-0.298129 -0.0426945 0.248 70 63 60
-0.298783 -0.0416647 0.247943 68 67 56
-0.299227 -0.0406374 0.247958 66 64 58
-0.299459 -0.0396156 0.248046 66 60 50
-0.300121 -0.0385709 0.247988 69 60 51
-0.300354 -0.0375431 0.248077 70 59 50
-0.605304 0.0142952 0.15027 65 66 60
-0.296115 -0.0465865 0.246973 72 166 174
-0.296758 -0.0455754 0.246912 81 169 168
-0.297195 -0.0445634 0.246925 79 130 125
-0.297634 -0.0435474 0.246938 70 76 94
-0.298498 -0.0425143 0.246804 70 68 71
-0.298942 -0.0414886 0.246816 68 67 62
-0.299173 -0.0404676 0.246904 63 61 59
-0.299834 -0.0394254 0.246842 64 59 53
-0.299852 -0.0384089 0.247004 66 63 57
-0.300086 -0.0373809 0.247092 67 64 57
-0.300536 -0.0363382 0.247105 69 61 52
-0.303176 -0.0351543 0.246367 63 61 59
-0.602372 0.0167667 0.149126 79 60 47
-0.296285 -0.0454201 0.246015 55 149 155
-0.29693 -0.0444037 0.245952 72 169 174
-0.297368 -0.0433874 0.245963 81 160 165
-0.298231 -0.0423536 0.245825 79 125 119
-0.298887 -0.0413197 0.245761 61 75 93
-0.299547 -0.0402798 0.245697 62 63 65
-0.299566 -0.0392634 0.245858 66 61 50
-0.299799 -0.0382361 0.245945 68 60 55
-0.300248 -0.0371951 0.245956 70 63 54
-0.300699 -0.03615 0.245967 72 58 46
-0.302243 -0.0350316 0.245599 69 62 51
-0.303809 -0.0338979 0.245225 65 53 50
-0.304497 -0.0328139 0.245158 71 55 47
-0.30474 -0.0317581 0.245245 72 71 58
-0.305885 -0.0306267 0.245022 65 63 57
-0.597162 0.0189161 0.148767 72 69 62
-0.593787 0.0208061 0.150291 75 64 57
-0.296456 -0.044249 0.245054 40 125 136
-0.297102 -0.0432273 0.244988 57 150 160
-0.297964 -0.0421928 0.244846 74 168 173
-0.29862 -0.0411584 0.24478 79 155 159
-0.299279 -0.040118 0.244712 77 121 109
-0.299512 -0.0390915 0.244798 63 72 91
-0.29996 -0.0380521 0.244807 73 62 62
-0.30041 -0.0370086 0.244816 71 70 57
-0.300862 -0.0359611 0.244825 71 58 54
-0.301972 -0.0348674 0.244603 70 58 51
-0.302871 -0.0337782 0.244457 63 64 55
-0.303554 -0.0326969 0.244387 68 50 53
-0.303795 -0.0316439 0.244474 71 60 54
-0.304484 -0.0305521 0.244404 70 61 44
-0.305403 -0.0294342 0.244256 67 62 50
-0.305648 -0.0283697 0.244343 69 60 46
-0.593171 0.0211823 0.14803 68 64 58
-0.593213 0.0235194 0.148402 74 65 58
-0.29901 -0.0399561 0.243728 75 169 175
-0.299243 -0.0389293 0.243812 79 150 152
-0.299691 -0.0378895 0.243819 78 114 103
-0.300141 -0.0368457 0.243827 61 65 88
-0.300809 -0.0357846 0.243756 66 62 58
-0.301919 -0.0346889 0.243529 71 62 60
-0.302598 -0.0336132 0.243457 67 63 53
-0.303281 -0.0325314 0.243385 66 60 50
-0.303522 -0.0314781 0.24347 69 63 54
-0.303986 -0.0304043 0.243477 71 63 59
-0.304229 -0.0293458 0.243563 71 59 56
-0.305146 -0.028223 0.243411 65 64 53
-0.305617 -0.0271353 0.243418 67 61 54
-0.307232 -0.0259278 0.243023 72 60 56
-0.592554 0.0215585 0.145769 75 63 56
-0.59147 0.0237364 0.146529 70 61 57
-0.591512 0.0260689 0.1469 65 58 44
-0.298974 -0.0387672 0.242827 61 154 161
-0.299422 -0.0377269 0.242832 76 169 171
-0.299871 -0.0366827 0.242837 76 143 146
-0.300756 -0.0356077 0.242685 69 107 97
-0.301648 -0.0345244 0.242532 63 63 83
-0.302325 -0.0334483 0.242457 66 62 60
-0.303007 -0.0323658 0.242382 66 61 54
-0.303248 -0.0313123 0.242467 70 66 58
-0.303489 -0.0302567 0.242551 64 61 54
-0.303731 -0.029199 0.242637 64 61 51
-0.303973 -0.0281391 0.242722 68 60 57
-0.305341 -0.0269676 0.242405 69 60 51
-0.306268 -0.0258288 0.242248 64 62 59
-0.306973 -0.0247053 0.242171 66 61 51
-0.591938 0.0219348 0.143508 67 62 49
-0.590855 0.0241121 0.144273 70 63 55
-0.592023 0.0266101 0.144251 68 59 45
-0.299601 -0.0365197 0.241848 62 158 162
-0.300485 -0.035444 0.241692 77 171 168
-0.301376 -0.03436 0.241535 78 137 141
-0.302053 -0.0332832 0.241457 63 100 97
-0.302734 -0.0322002 0.241379 65 69 74
-0.302974 -0.0311464 0.241463 77 61 50
-0.303215 -0.0300906 0.241546 71 61 51
-0.303457 -0.0290326 0.241631 66 59 55
-0.303922 -0.0279516 0.241634 69 62 59
-0.305065 -0.0267999 0.241392 63 64 62
-0.305763 -0.0256837 0.241313 69 63 54
-0.306695 -0.0245363 0.241151 66 63 56
-0.307633 -0.0233798 0.240988 66 63 58
-0.299997 -0.0352938 0.240779 46 139 147
-0.301104 -0.0341955 0.240537 63 161 168
-0.30178 -0.0331182 0.240457 76 173 172
-0.302239 -0.0320515 0.240458 78 137 135
-0.302701 -0.0309806 0.240458 69 95 93
-0.302941 -0.0299244 0.240541 66 62 70
-0.303405 -0.0288462 0.240542 69 59 55
-0.303871 -0.0277636 0.240543 67 64 60
-0.304788 -0.0266322 0.240379 65 62 58
-0.305486 -0.0255154 0.240297 73 68 49
-0.306188 -0.0243919 0.240215 70 60 47
-0.306665 -0.0232876 0.240215 66 64 59
-0.307604 -0.0221248 0.240048 64 63 58
-0.309486 -0.0208391 0.23954 67 61 53
-0.586579 0.040612 0.143537 65 64 50
-0.301069 -0.032985 0.239621 49 142 151
-0.301526 -0.03192 0.23962 66 161 168
-0.302206 -0.0308327 0.239537 80 168 165
-0.302667 -0.0297583 0.239536 79 132 125
-0.30313 -0.0286796 0.239535 67 84 92
-0.303595 -0.0275966 0.239534 65 66 66
-0.304287 -0.0264869 0.23945 62 66 53
-0.305209 -0.025347 0.239281 77 65 55
-0.30591 -0.024223 0.239195 74 59 49
-0.306386 -0.0231182 0.239194 71 59 52
-0.307325 -0.0219547 0.239023 65 65 59
-0.30827 -0.0207819 0.23885 68 64 56
-0.309224 -0.0195997 0.238676 70 60 51
-0.58601 0.0433063 0.141662 63 58 44
-0.301492 -0.0307034 0.238701 54 147 152
-0.301951 -0.0296306 0.238698 69 164 171
-0.302634 -0.0285333 0.238612 80 161 160
-0.30332 -0.0274296 0.238525 81 127 116
-0.304011 -0.0263193 0.238437 65 72 90
-0.304706 -0.0252024 0.23835 69 62 64
-0.305405 -0.024079 0.238261 68 61 57
-0.306108 -0.0229488 0.238172 69 60 54
-0.307045 -0.0217845 0.237997 70 66 52
-0.30799 -0.020611 0.23782 68 65 57
-0.308708 -0.0194579 0.237729 66 61 56
-0.308961 -0.01836 0.237812 69 58 49
-0.30945 -0.0172277 0.237808 67 59 49
-0.309469 -0.0161575 0.237978 69 63 56
-0.585398 0.0436816 0.139418 64 60 51
-0.58544 0.0460013 0.139786 67 61 46
-0.585482 0.0483213 0.140155 65 58 47
-0.302138 -0.0283873 0.23769 52 147 153
-0.302822 -0.0272841 0.2376 71 164 169
-0.303287 -0.0261971 0.237596 79 154 157
-0.304203 -0.0250581 0.23742 79 121 109
-0.305127 -0.0239101 0.237243 65 68 90
-0.305829 -0.0227794 0.237151 68 64 63
-0.306535 -0.0216419 0.237058 69 63 58
-0.307246 -0.0204975 0.236965 68 66 57
-0.308193 -0.0193163 0.236784 71 69 60
-0.308446 -0.0182193 0.236866 70 61 53
-0.308699 -0.01712 0.236948 68 67 56
-0.308952 -0.0160185 0.237029 68 63 58
-0.308972 -0.0149491 0.237199 67 63 61
-0.308991 -0.0138797 0.237369 64 65 57
-0.309011 -0.0128102 0.237539 69 63 50
-0.584786 0.0440569 0.137174 65 62 53
-0.584828 0.0463769 0.137542 68 61 49
-0.58487 0.048697 0.137911 67 61 44
-0.584912 0.0510173 0.138279 66 59 44
-0.302103 -0.0271606 0.236763 43 126 134
-0.302789 -0.0260526 0.236671 59 148 156
-0.303478 -0.0249381 0.236578 76 164 166
-0.304397 -0.0237917 0.236398 74 145 152
-0.305323 -0.0226364 0.236217 75 117 107
-0.305798 -0.021527 0.236209 62 70 85
-0.306735 -0.0203557 0.236026 63 64 60
-0.307447 -0.0192051 0.23593 67 63 57
-0.308164 -0.0180476 0.235833 65 60 59
-0.308183 -0.0169804 0.236002 65 62 59
-0.308436 -0.0158797 0.236083 66 63 59
-0.308689 -0.0147768 0.236164 69 66 62
-0.308709 -0.0137072 0.236334 67 61 51
-0.308728 -0.0126376 0.236504 66 61 48
-0.308982 -0.0115301 0.236585 66 61 54
-0.585277 0.0446353 0.134518 66 64 50
-0.584216 0.0467525 0.135297 66 59 49
-0.584258 0.0490728 0.135666 68 53 43
-0.583201 0.0511762 0.136441 69 54 40
-0.583243 0.0534919 0.136809 68 57 41
-0.583285 0.0558078 0.137176 65 61 43
-0.302291 -0.0259083 0.235748 32 111 119
-0.302978 -0.0247944 0.235652 44 129 136
-0.303669 -0.0236738 0.235556 59 152 160
-0.304364 -0.0225465 0.23546 75 163 167
-0.305291 -0.021385 0.235275 77 139 145
-0.306225 -0.0202141 0.235088 72 106 101
-0.306935 -0.0190642 0.234989 63 68 80
-0.307417 -0.0179387 0.234979 65 67 64
-0.307902 -0.0168086 0.234969 63 64 59
-0.307921 -0.0157412 0.235138 62 62 58
-0.308174 -0.0146391 0.235218 75 59 54
-0.308427 -0.0135348 0.235299 70 61 52
-0.308446 -0.0124651 0.235468 72 62 51
-0.308699 -0.0113573 0.235549 72 60 52
-0.309897 -0.0100899 0.235271 67 59 56
-0.584664 0.0450116 0.132268 67 55 45
-0.583603 0.0471281 0.133052 65 51 45
-0.582548 0.0492357 0.133833 67 55 46
-0.58259 0.0515515 0.134201 66 59 49
-0.582632 0.0538674 0.134568 66 60 46
-0.582673 0.0561835 0.134936 70 59 44
-0.583814 0.0587327 0.134894 68 59 43
-0.303842 -0.0234546 0.234364 35 114 124
-0.304539 -0.0223244 0.234264 45 133 140
-0.30524 -0.0211875 0.234163 59 153 160
-0.306175 -0.0200146 0.233972 71 159 161
-0.306655 -0.0188932 0.23396 76 135 138
-0.307368 -0.0177357 0.233857 71 100 95
-0.30762 -0.0166367 0.233936 61 69 77
-0.307872 -0.0155355 0.234014 64 65 56
-0.308125 -0.014432 0.234093 70 65 57
-0.308378 -0.0133262 0.234172 68 62 56
-0.308632 -0.0122182 0.234252 70 62 56
-0.309593 -0.0109924 0.234058 71 60 50
-0.310801 -0.0097167 0.233771 68 56 46
-0.584092 0.0477136 0.130387 65 56 44
-0.583033 0.0498247 0.131175 66 58 48
-0.581978 0.0519269 0.13196 64 59 54
-0.58202 0.054243 0.132328 64 58 51
-0.582062 0.0565593 0.132695 68 59 49
-0.583201 0.0591095 0.132648 67 59 46
-0.583243 0.0614311 0.133017 64 58 48
-0.584387 0.0639977 0.13297 66 58 48
-0.303809 -0.0222088 0.233424 25 105 116
-0.304733 -0.0210457 0.23323 34 114 123
-0.305665 -0.0198734 0.233035 46 134 141
-0.306374 -0.0187222 0.23293 63 151 159
-0.306855 -0.0175958 0.232916 76 158 159
-0.307338 -0.0164648 0.232902 74 128 132
-0.30759 -0.0153633 0.23298 64 94 92
-0.308076 -0.0142244 0.232966 62 67 72
-0.308329 -0.0131172 0.233044 65 59 59
-0.308818 -0.0119703 0.23303 66 63 60
-0.309309 -0.0108186 0.233016 69 59 48
-0.310515 -0.00954198 0.232724 68 58 43
-0.311253 -0.00833565 0.232616 65 60 50
-0.312237 -0.00707894 0.232413 66 58 45
-0.583815 0.066703 0.131088 66 62 47
-0.304701 -0.019791 0.232284 27 106 117
-0.305634 -0.0186123 0.232085 40 116 126
-0.306343 -0.0174561 0.231977 49 136 144
-0.307056 -0.0162929 0.231868 62 150 160
-0.307308 -0.0151911 0.231945 69 152 154
-0.307793 -0.0140518 0.231929 73 126 124
-0.30828 -0.0129078 0.231913 66 83 91
-0.309005 -0.0117214 0.231803 64 65 71
-0.31021 -0.0104492 0.231505 67 62 57
-0.310468 -0.00932673 0.231582 69 59 45
-0.310966 -0.00816024 0.231565 66 60 45
-0.311467 -0.00698894 0.231548 62 60 46
-0.312211 -0.00576848 0.231436 62 62 52
-0.313203 -0.00449469 0.231228 64 59 50
-0.305125 -0.0184723 0.23115 34 104 117
-0.305602 -0.0173485 0.231132 31 109 115
-0.306543 -0.0161541 0.230928 39 118 131
-0.307026 -0.0150189 0.23091 49 140 148
-0.30751 -0.0138791 0.230892 64 152 156
-0.307997 -0.0127347 0.230874 74 148 149
-0.308957 -0.0115096 0.230666 76 118 117
-0.310163 -0.0102349 0.230362 64 78 90
-0.31066 -0.00907025 0.230342 62 61 64
-0.31116 -0.00790078 0.230323 65 62 52
-0.311661 -0.00672648 0.230303 63 62 55
-0.312165 -0.00554734 0.230284 66 64 53
-0.312914 -0.00431735 0.230167 65 60 54
-0.313423 -0.00312714 0.230147 62 60 57
-0.314427 -0.00183444 0.229932 63 61 54
-0.314447 -0.000731863 0.230107 65 61 52
-0.3058 -0.0160488 0.230084 33 105 121
-0.306511 -0.0148811 0.22997 29 111 120
-0.307227 -0.0137064 0.229855 40 121 130
-0.307714 -0.0125616 0.229834 54 142 148
-0.308672 -0.0113356 0.229623 66 151 156
-0.309877 -0.01006 0.229313 69 141 148
-0.310613 -0.00885385 0.229194 71 113 110
-0.311354 -0.00764023 0.229075 66 76 84
-0.311857 -0.00646292 0.229053 64 62 65
-0.312605 -0.00523571 0.228933 66 61 54
-0.312625 -0.00413997 0.229107 64 61 56
-0.313133 -0.0029493 0.229084 63 60 56
-0.313889 -0.00170478 0.228964 66 59 52
-0.314156 -0.000553092 0.22904 65 59 51
-0.314422 0.000601055 0.229116 62 59 49
-0.315685 0.00196911 0.228796 62 60 48
-0.305998 -0.0147436 0.229031 42 117 126
-0.30648 -0.0136053 0.229009 34 106 118
-0.307197 -0.0124254 0.228891 35 111 121
-0.307683 -0.0112767 0.228869 42 126 135
-0.309353 -0.00992499 0.228361 54 144 152
-0.310326 -0.00867827 0.228142 67 150 154
-0.311066 -0.00746403 0.22802 71 134 141
-0.311568 -0.00628627 0.227995 72 107 103
-0.312316 -0.00505839 0.227872 67 73 80
-0.312823 -0.00386956 0.227847 63 61 65
-0.313578 -0.00262784 0.227723 62 59 58
-0.313844 -0.00147708 0.227798 63 56 50
-0.314111 -0.00032386 0.227873 63 55 49
-0.314131 0.000780143 0.228048 64 58 49
-0.314646 0.00198988 0.228023 64 62 46
-0.315412 0.00325907 0.227898 64 62 46
-0.306681 -0.0122895 0.227949 43 115 126
-0.307166 -0.0111416 0.227925 33 108 120
-0.308594 -0.0098301 0.22751 32 114 124
-0.3098 -0.00854408 0.227189 43 129 138
-0.310538 -0.00733056 0.227064 56 143 150
-0.311039 -0.00615361 0.227037 68 148 148
-0.312027 -0.00488106 0.226811 71 129 135
-0.312533 -0.00369176 0.226784 69 104 102
-0.313288 -0.00244939 0.226656 61 72 80
-0.3138 -0.00124887 0.226629 58 59 59
-0.31382 -0.00014485 0.226804 61 56 49
-0.314086 0.00101109 0.226878 64 58 48
-0.314602 0.00222266 0.226851 65 59 47
-0.315119 0.00343932 0.226824 65 58 49
-0.316644 0.0048859 0.226388 67 61 53
-0.317678 0.00623426 0.226154 67 61 53
-0.318208 0.00747475 0.226125 67 59 52
-0.318228 0.0085989 0.226304 66 57 55
-0.318761 0.00984708 0.226275 62 57 51
-0.306883 -0.0109682 0.226885 54 133 140
-0.307838 -0.00973555 0.226662 40 115 126
-0.308801 -0.00849287 0.226437 32 109 121
-0.309533 -0.00728277 0.226309 35 116 126
-0.31051 -0.00602119 0.226081 45 131 138
-0.311495 -0.00474929 0.225851 58 144 150
-0.312243 -0.00351394 0.225721 67 148 146
-0.312752 -0.00231924 0.225692 68 125 131
-0.313508 -0.00106993 0.22556 64 96 95
