ply
format ascii 1.0
element vertex 1202
property float x
property float y
property float z
property uchar diffuse_red
property uchar diffuse_green
property uchar diffuse_blue
end_header
-0.391131 -0.0794175 0.218211 61 66 76
-0.390739 -0.077968 0.218577 61 67 76
-0.390765 -0.0765577 0.218801 71 66 62
-0.386472 -0.0871713 0.216923 67 61 52
-0.387314 -0.0858726 0.216863 68 59 57
-0.38775 -0.0845212 0.216944 68 60 62
-0.387776 -0.0831224 0.217167 67 65 70
-0.388626 -0.0818076 0.217107 66 77 81
-0.388652 -0.0804049 0.21733 67 105 101
-0.388265 -0.0789635 0.217694 68 129 127
-0.38788 -0.0775258 0.218058 66 124 123
-0.386678 -0.0760228 0.218699 66 93 86
-0.389169 -0.074826 0.218084 67 63 67
-0.382804 -0.0907045 0.216045 68 64 55
-0.383228 -0.0893771 0.216124 67 63 55
-0.384457 -0.0881459 0.21592 63 65 57
-0.38529 -0.0868564 0.215858 62 66 67
-0.386127 -0.0855601 0.215795 62 71 80
-0.38656 -0.0842118 0.215874 64 89 92
-0.386586 -0.0828164 0.216096 64 115 109
-0.387021 -0.0814625 0.216176 59 125 128
-0.387047 -0.0800651 0.216399 59 127 135
-0.386664 -0.0786297 0.216763 58 127 135
-0.386282 -0.077198 0.217126 59 127 134
-0.385496 -0.0757358 0.217628 61 122 123
-0.386334 -0.0744098 0.21757 63 93 94
-0.3796 -0.0942225 0.215044 72 65 57
-0.380017 -0.0929116 0.215121 69 64 61
-0.380828 -0.0916512 0.215057 64 66 62
-0.381643 -0.0903842 0.214992 63 69 68
-0.382861 -0.0891615 0.214786 62 73 77
-0.383286 -0.0878302 0.214863 63 88 86
-0.384114 -0.0865432 0.214798 66 109 102
-0.384946 -0.0852493 0.214732 63 126 125
-0.385783 -0.0839486 0.214666 57 130 134
-0.385809 -0.0825549 0.214888 53 129 133
-0.385834 -0.0811612 0.21511 54 129 134
-0.38586 -0.0797673 0.215332 56 127 133
-0.385886 -0.0783733 0.215554 55 126 134
-0.385912 -0.0769792 0.215776 53 128 135
-0.385938 -0.0755851 0.215998 57 130 136
-0.378434 -0.0952591 0.213787 65 61 56
-0.378848 -0.0939529 0.213862 71 66 61
-0.379263 -0.0926432 0.213937 69 74 71
-0.379679 -0.0913301 0.214012 66 84 83
-0.380489 -0.0900654 0.213945 66 104 100
-0.380514 -0.0886935 0.214164 62 122 120
-0.380934 -0.08737 0.21424 58 129 131
-0.381354 -0.086043 0.214316 57 130 134
-0.38297 -0.0848486 0.213963 55 129 136
-0.382995 -0.0834657 0.214183 54 129 135
-0.383021 -0.0820827 0.214403 52 129 134
-0.385058 -0.080902 0.213904 53 129 135
-0.38549 -0.0795488 0.213981 53 130 135
-0.377996 -0.0991348 0.211815 67 60 48
-0.377634 -0.0977109 0.212176 62 60 56
-0.377659 -0.09635 0.212392 57 64 66
-0.376912 -0.0948737 0.212895 60 72 75
-0.378096 -0.0936839 0.212682 65 93 88
-0.37851 -0.0923755 0.212756 63 114 110
-0.378535 -0.0910107 0.212973 58 124 127
-0.37895 -0.0896969 0.213047 56 128 132
-0.378975 -0.0883302 0.213264 55 130 134
-0.379 -0.0869634 0.213482 55 131 135
-0.379416 -0.0856425 0.213557 54 131 137
-0.380619 -0.0844073 0.213345 53 131 138
-0.382628 -0.0832493 0.212843 53 130 139
-0.382654 -0.0818661 0.213063 53 131 138
-0.37797 -0.101714 0.209913 55 62 49
-0.376451 -0.100092 0.210714 60 65 59
-0.377246 -0.0988601 0.210639 60 72 70
-0.376886 -0.0974382 0.211001 59 89 83
-0.376526 -0.0960199 0.211362 59 109 105
-0.373131 -0.0941531 0.212861 57 121 121
-0.376192 -0.0932489 0.211938 56 125 128
-0.376986 -0.0920003 0.211866 54 127 132
-0.378172 -0.0907977 0.211649 53 129 136
-0.378587 -0.0894836 0.211722 53 131 137
-0.378612 -0.0881167 0.211939 53 131 137
-0.378637 -0.0867497 0.212157 53 132 138
-0.379052 -0.0854284 0.21223 52 132 137
-0.380254 -0.0841923 0.212013 51 132 137
-0.37909 -0.105882 0.207337 65 56 52
-0.378335 -0.104371 0.207856 68 62 57
-0.377971 -0.102935 0.208223 60 65 65
-0.377608 -0.101502 0.208589 57 80 75
-0.37609 -0.0998814 0.209397 60 104 95
-0.373854 -0.0968066 0.210701 57 124 127
-0.366862 -0.0943869 0.213587 54 127 131
-0.366167 -0.0929641 0.21407 53 128 133
-0.371304 -0.0923865 0.21234 52 130 134
-0.375857 -0.0916812 0.210838 52 130 136
-0.377035 -0.0904803 0.210618 51 130 135
-0.383794 -0.112197 0.203099 62 61 57
-0.383013 -0.110644 0.203637 63 60 54
-0.38104 -0.108868 0.204643 63 61 58
-0.3787 -0.107041 0.205788 60 65 67
-0.378335 -0.105598 0.206159 60 72 76
-0.377971 -0.104158 0.206529 66 94 88
-0.378386 -0.102859 0.206595 59 110 109
-0.368665 -0.0958394 0.21126 53 130 136
-0.365435 -0.0940179 0.212726 52 129 137
-0.363682 -0.0924439 0.213618 52 129 137
-0.365484 -0.0913951 0.213143 52 131 136
-0.365508 -0.0900835 0.213352 53 132 135
-0.384207 -0.113542 0.201201 65 62 57
-0.383019 -0.1119 0.201906 61 62 63
-0.381841 -0.11027 0.202607 60 72 72
-0.379093 -0.10835 0.203929 61 88 85
-0.377945 -0.106755 0.204612 60 104 104
-0.377971 -0.105385 0.20483 58 116 119
-0.377996 -0.104015 0.205048 58 122 123
-0.379195 -0.10285 0.204803 54 127 130
-0.365087 -0.0938137 0.211454 52 131 141
-0.363336 -0.0922408 0.212354 53 134 145
-0.363007 -0.0908869 0.212698 53 138 141
-0.361979 -0.0894393 0.213314 48 135 140
-0.364116 -0.0884243 0.212702 45 131 138
-0.325861 -0.0719373 0.229407 52 134 140
-0.325882 -0.0708025 0.229587 53 127 132
-0.325903 -0.0696676 0.229768 51 127 128
-0.326192 -0.0685528 0.229847 59 134 141
-0.326481 -0.0674355 0.229927 77 147 148
-0.326502 -0.0662979 0.230108 79 166 160
-0.383809 -0.114723 0.199622 63 67 65
-0.383835 -0.113325 0.199844 63 80 75
-0.382247 -0.111603 0.200717 61 96 92
-0.381073 -0.109977 0.201421 58 110 111
-0.378728 -0.108137 0.202595 57 119 121
-0.378753 -0.106762 0.202813 54 125 129
-0.378778 -0.105387 0.203032 54 129 133
-0.378804 -0.104012 0.20325 54 129 132
-0.380406 -0.102911 0.202839 53 129 134
-0.362661 -0.0906838 0.211435 57 143 149
-0.361634 -0.0892369 0.212055 50 135 142
-0.325518 -0.0740288 0.227946 58 140 148
-0.325539 -0.072894 0.228126 58 141 148
-0.32556 -0.0717592 0.228307 58 140 146
-0.325581 -0.0706243 0.228487 63 141 147
-0.325601 -0.0694893 0.228668 85 147 152
-0.325622 -0.0683543 0.228848 117 164 166
-0.325911 -0.0672379 0.228926 100 171 171
-0.326199 -0.066119 0.229005 67 144 148
-0.32622 -0.0649813 0.229186 61 126 128
-0.330052 -0.0640586 0.22792 57 100 109
-0.383033 -0.114422 0.19843 57 100 101
-0.381052 -0.112615 0.199473 56 112 113
-0.380679 -0.111148 0.199856 55 123 123
-0.379911 -0.109607 0.2004 54 127 131
-0.379937 -0.108225 0.200619 53 127 133
-0.378387 -0.106548 0.201479 52 127 135
-0.379988 -0.105461 0.201059 54 129 134
-0.380807 -0.10422 0.200957 53 128 133
-0.324929 -0.0749587 0.22677 59 145 152
-0.32495 -0.0738252 0.22695 60 145 152
-0.324705 -0.0726671 0.227234 62 147 155
-0.324992 -0.0715578 0.22731 69 151 158
-0.325013 -0.070424 0.22749 91 164 171
-0.3253 -0.069311 0.227567 147 204 203
-0.325321 -0.0681759 0.227748 167 238 231
-0.325342 -0.0670406 0.227928 118 202 210
-0.325629 -0.0659226 0.228005 71 138 156
-0.325918 -0.0648022 0.228083 65 76 81
-0.326476 -0.0636942 0.228058 68 67 64
-0.329767 -0.0627216 0.226984 71 66 58
-0.380682 -0.1124 0.198127 51 127 130
-0.380708 -0.111013 0.198347 52 127 131
-0.380734 -0.109625 0.198567 52 125 132
-0.324607 -0.0759147 0.22549 61 150 158
-0.324362 -0.0747545 0.225776 64 151 160
-0.324383 -0.073622 0.225956 67 157 162
-0.324404 -0.0724895 0.226136 71 160 167
-0.32469 -0.0713799 0.226211 73 162 168
-0.324711 -0.070246 0.226391 99 180 181
-0.324998 -0.0691327 0.226467 172 230 215
-0.325019 -0.0679974 0.226647 161 236 227
-0.32504 -0.0668621 0.226827 111 179 182
-0.325327 -0.0657438 0.226904 86 130 134
-0.325615 -0.064623 0.22698 69 69 62
-0.325904 -0.0634998 0.227057 64 64 57
-0.324529 -0.0780344 0.223924 62 147 158
-0.324284 -0.0768708 0.224211 66 155 163
-0.32404 -0.0757095 0.224498 78 160 168
-0.324061 -0.074577 0.224677 93 166 172
-0.324082 -0.0734445 0.224857 92 173 172
-0.324368 -0.0723359 0.224931 75 163 167
-0.324389 -0.0712019 0.225111 60 143 153
-0.324675 -0.0700896 0.225186 76 150 153
-0.324696 -0.0689543 0.225366 126 191 180
-0.324717 -0.067819 0.225546 113 192 195
-0.324738 -0.0666835 0.225727 88 154 161
-0.325025 -0.0655649 0.225802 69 102 117
-0.325046 -0.0644281 0.225982 71 64 60
-0.323676 -0.0789294 0.22286 72 157 163
-0.323697 -0.0777971 0.223039 85 166 168
-0.323718 -0.0766646 0.223219 92 174 173
-0.323739 -0.0755321 0.223399 85 169 173
-0.32376 -0.0743995 0.223579 78 155 163
-0.324045 -0.0732919 0.223651 69 141 146
-0.324066 -0.072158 0.223832 55 126 132
-0.324352 -0.0710467 0.223904 46 112 117
-0.324373 -0.0699113 0.224085 52 107 109
-0.324394 -0.0687759 0.224265 77 121 119
-0.324415 -0.0676405 0.224445 91 134 136
-0.324702 -0.0665228 0.224519 71 103 114
-0.324723 -0.065386 0.2247 64 72 68
-0.324744 -0.0642491 0.22488 65 60 57
-0.322807 -0.0809506 0.221621 80 160 166
-0.322827 -0.0798207 0.2218 89 168 171
-0.322848 -0.0786907 0.221979 87 171 173
-0.323132 -0.0775902 0.22205 80 161 167
-0.323417 -0.0764873 0.222121 73 147 155
-0.323438 -0.0753547 0.2223 62 135 143
-0.323723 -0.0742481 0.222372 50 120 128
-0.323744 -0.0731141 0.222552 45 108 113
-0.32403 -0.0720038 0.222623 39 97 100
-0.32405 -0.0708684 0.222803 41 85 87
-0.324337 -0.0697544 0.222875 54 75 79
-0.324358 -0.0686177 0.223056 65 79 79
-0.324379 -0.0674809 0.223236 79 87 81
-0.3244 -0.066344 0.223417 70 71 68
-0.324421 -0.0652071 0.223597 68 62 56
-0.31595 -0.0887775 0.221817 54 137 143
-0.315721 -0.0876381 0.222098 55 140 144
-0.31599 -0.0865768 0.222166 65 143 147
-0.317011 -0.0856244 0.221916 62 148 150
-0.318802 -0.0847736 0.221341 64 150 154
-0.319078 -0.0836958 0.22141 73 156 162
-0.321941 -0.0829634 0.220387 89 163 167
-0.321961 -0.081836 0.220566 91 171 172
-0.321982 -0.0807084 0.220745 82 164 170
-0.322265 -0.0796124 0.220814 77 154 161
-0.322548 -0.078514 0.220883 67 143 148
-0.323095 -0.0774426 0.220842 55 129 135
-0.323379 -0.0763382 0.220912 45 115 121
-0.3234 -0.0752043 0.221092 38 104 111
-0.323686 -0.0740963 0.221161 39 92 97
-0.323707 -0.072961 0.221342 49 80 82
-0.323993 -0.0718492 0.221412 58 72 72
-0.324014 -0.0707126 0.221592 60 68 64
-0.324035 -0.0695758 0.221773 62 63 60
-0.324055 -0.068439 0.221953 66 64 56
-0.324342 -0.0673209 0.222024 70 69 60
-0.324363 -0.0661828 0.222205 68 64 56
-0.317138 -0.0899556 0.219925 56 136 144
-0.315657 -0.0886063 0.220749 61 140 147
-0.315429 -0.0874669 0.221031 64 146 154
-0.315697 -0.0864053 0.221098 78 156 163
-0.316216 -0.0853783 0.221059 84 164 166
-0.31724 -0.0844189 0.220803 94 173 172
-0.318781 -0.0835219 0.220328 87 171 175
-0.320342 -0.0826136 0.219847 85 159 166
-0.321661 -0.0816599 0.219471 77 148 155
-0.321682 -0.0805322 0.21965 62 135 144
-0.321964 -0.0794359 0.219718 52 121 130
-0.322509 -0.0783676 0.219675 46 110 117
-0.323321 -0.077324 0.21952 36 100 105
-0.323872 -0.0762453 0.219476 28 92 95
-0.323893 -0.0751077 0.219656 30 86 88
-0.324446 -0.0740219 0.219612 43 76 78
-0.325809 -0.0730063 0.21923 59 66 66
-0.32583 -0.0718599 0.219412 65 63 59
-0.318087 -0.0911054 0.21812 58 139 145
-0.316843 -0.0897834 0.21885 60 140 146
-0.315613 -0.088475 0.219572 81 152 157
-0.315633 -0.0873734 0.219747 106 184 179
-0.315902 -0.0863094 0.219813 100 173 188
-0.316423 -0.0852799 0.219771 91 173 176
-0.317449 -0.084318 0.21951 89 162 165
-0.318485 -0.083348 0.219246 72 147 153
-0.320044 -0.0824384 0.218758 58 128 136
-0.321101 -0.0814502 0.218489 51 115 122
-0.321643 -0.0803884 0.218443 41 103 110
-0.322188 -0.079322 0.218397 34 94 100
-0.322998 -0.0782815 0.218238 31 86 92
-0.323549 -0.0772048 0.218191 29 81 86
-0.32598 -0.0763227 0.217341 29 81 83
-0.326544 -0.0752289 0.217292 34 83 84
-0.327931 -0.07421 0.216893 47 80 85
-0.328778 -0.0731287 0.216725 59 69 72
-0.317791 -0.0909323 0.217039 63 134 143
-0.317305 -0.0897358 0.21744 74 138 138
-0.316569 -0.0885038 0.21795 99 166 161
-0.316088 -0.0873182 0.218347 121 195 197
-0.316108 -0.086213 0.218522 96 168 182
-0.31663 -0.0851811 0.218477 70 151 158
-0.317407 -0.0841807 0.218321 58 129 136
-0.318698 -0.0832441 0.217941 44 110 117
-0.319745 -0.0822633 0.21767 36 98 103
-0.321061 -0.0813075 0.217282 29 90 92
-0.322128 -0.0803091 0.217005 25 84 85
-0.322675 -0.0792391 0.216956 26 81 81
-0.32349 -0.0781948 0.216792 27 79 80
-0.325654 -0.0772915 0.216044 31 79 81
-0.32676 -0.0762571 0.215757 34 82 84
-0.327601 -0.075186 0.215586 38 86 89
-0.329279 -0.0741879 0.215055 48 91 94
-0.330137 -0.0730994 0.21488 59 80 80
-0.330438 -0.0719547 0.214946 66 64 59
-0.318002 -0.090845 0.215731 70 131 131
-0.317515 -0.0896461 0.216135 77 131 128
-0.317029 -0.088452 0.216537 89 147 143
-0.316546 -0.0872628 0.216938 92 167 173
-0.316315 -0.0861161 0.217226 69 150 154
-0.316838 -0.0850818 0.217178 50 119 127
-0.318125 -0.0841508 0.216792 47 97 103
-0.319426 -0.08321 0.216403 47 81 86
-0.321523 -0.0823627 0.215663 39 77 75
-0.321806 -0.0812647 0.215726 23 71 70
-0.322616 -0.0802292 0.215558 18 76 73
-0.323166 -0.0791555 0.215506 25 81 79
-0.32452 -0.0781685 0.215101 29 83 82
-0.326432 -0.0772302 0.214454 33 85 86
-0.327272 -0.0761622 0.214279 38 88 91
-0.328947 -0.0751705 0.21374 41 94 98
-0.329804 -0.0740851 0.213561 51 105 105
-0.330105 -0.0729415 0.213624 59 97 96
-0.330688 -0.0718195 0.213566 62 71 72
-0.317726 -0.089556 0.214824 63 111 110
-0.316986 -0.0883192 0.215345 65 110 109
-0.316754 -0.0871679 0.215635 70 135 129
-0.316522 -0.0860189 0.215924 52 124 128
-0.317047 -0.0849821 0.215874 47 87 94
-0.318594 -0.0840846 0.215365 55 72 71
-0.320419 -0.083211 0.214735 63 62 62
-0.322272 -0.0823244 0.214095 55 67 61
-0.322293 -0.081188 0.214275 31 64 62
-0.323373 -0.0801814 0.213983 24 73 71
-0.324194 -0.0791344 0.213808 28 86 85
-0.325021 -0.0780807 0.213632 32 93 93
-0.326397 -0.0770792 0.213214 34 96 97
-0.327512 -0.0760381 0.212913 38 98 100
-0.329193 -0.0750432 0.212364 42 102 107
-0.329772 -0.0739283 0.212303 48 111 114
-0.330354 -0.0728085 0.212242 56 108 112
-0.330657 -0.0716595 0.212304 62 83 88
-0.317429 -0.0893824 0.213741 55 79 80
-0.317195 -0.0882263 0.214033 55 86 80
-0.31671 -0.0870337 0.214441 58 92 92
-0.31673 -0.0859212 0.214617 53 86 86
-0.317003 -0.0848453 0.214679 58 61 60
-0.319065 -0.0840179 0.213929 65 61 49
-0.321686 -0.0832476 0.21293 66 59 50
-0.323293 -0.0823205 0.212393 65 62 55
-0.323314 -0.081178 0.212574 45 64 60
-0.324404 -0.0801658 0.212273 32 74 72
-0.324694 -0.0790498 0.212335 33 89 91
-0.325525 -0.0779922 0.212153 36 100 103
-0.326362 -0.0769278 0.21197 37 104 107
-0.327478 -0.0758848 0.211664 40 105 109
-0.328882 -0.0748601 0.21123 42 106 111
-0.329461 -0.0737448 0.211167 45 110 116
-0.330042 -0.0726245 0.211103 52 113 118
-0.330345 -0.0714751 0.211164 63 93 94
-0.330648 -0.0703232 0.211226 67 64 61
-0.317152 -0.0880928 0.212834 58 70 61
-0.316919 -0.0869379 0.213127 58 65 65
-0.316686 -0.0857854 0.21342 62 58 49
-0.317213 -0.0847447 0.213364 65 56 44
-0.324057 -0.0822815 0.210796 67 58 49
-0.324078 -0.081134 0.210977 54 62 54
-0.324636 -0.0800516 0.210915 35 71 69
-0.325197 -0.0789645 0.210851 35 91 94
-0.325761 -0.0778727 0.210788 39 104 108
-0.326326 -0.076776 0.210724 40 107 112
-0.327169 -0.0757028 0.210536 41 107 113
-0.328849 -0.0747044 0.209971 42 107 113
-0.329429 -0.0735874 0.209905 43 109 114
-0.32973 -0.0724403 0.209964 50 115 117
-0.330032 -0.0712907 0.210024 59 102 104
-0.330335 -0.0701385 0.210084 63 73 72
-0.324309 -0.081022 0.209615 60 55 47
-0.324869 -0.0799369 0.209549 38 66 64
-0.325161 -0.0788156 0.209608 34 87 88
-0.325453 -0.0776918 0.209666 39 104 105
-0.326018 -0.0765947 0.2096 41 109 112
-0.32686 -0.0755208 0.209408 41 109 113
-0.328538 -0.0745211 0.208836 42 108 111
-0.329117 -0.0734036 0.208767 42 110 112
-0.329418 -0.0722562 0.208826 47 114 116
-0.329719 -0.0711063 0.208884 54 109 114
-0.330022 -0.0699537 0.208943 61 85 84
-0.330325 -0.0687985 0.209002 69 61 49
-0.324811 -0.0809432 0.208122 64 51 45
-0.324832 -0.0797892 0.208304 45 60 57
-0.325124 -0.0786664 0.208361 33 80 79
-0.325417 -0.0775411 0.208419 38 100 98
-0.32571 -0.0764133 0.208476 41 107 109
-0.32655 -0.0753387 0.20828 41 108 111
-0.327949 -0.0743108 0.207828 42 109 110
-0.328805 -0.0732197 0.207629 43 109 111
-0.329385 -0.0720967 0.207558 44 111 116
-0.329687 -0.0709452 0.207615 51 116 119
-0.32999 -0.0697911 0.207672 59 96 95
-0.330293 -0.0686343 0.20773 65 64 58
-0.324774 -0.0807964 0.206873 62 53 44
-0.324795 -0.079641 0.207056 51 60 51
-0.325088 -0.0785168 0.207112 34 74 69
-0.32538 -0.07739 0.207168 34 93 90
-0.325674 -0.0762608 0.207224 39 105 106
-0.326241 -0.0751566 0.207152 42 107 111
-0.327638 -0.0741276 0.206694 42 108 112
-0.328492 -0.0730358 0.206491 43 107 113
-0.329072 -0.0719123 0.206417 43 108 115
-0.329374 -0.0707605 0.206473 50 117 118
-0.329676 -0.069606 0.206529 56 107 107
-0.329979 -0.068449 0.206586 60 76 72
-0.324758 -0.0794926 0.205806 60 60 46
-0.325051 -0.0783668 0.20586 37 68 62
-0.325344 -0.0772386 0.205914 29 87 86
-0.325637 -0.0761078 0.205969 37 103 105
-0.325932 -0.0749745 0.206024 42 107 110
-0.327327 -0.0739444 0.20556 42 106 112
-0.32818 -0.0728519 0.205353 42 107 113
-0.328759 -0.0717278 0.205276 42 108 115
-0.329061 -0.0705757 0.205331 47 114 118
-0.329644 -0.0694428 0.205254 52 116 118
-0.329947 -0.0682842 0.205309 59 89 87
-0.330251 -0.067123 0.205364 65 62 52
-0.324721 -0.0793437 0.204552 65 58 43
-0.325014 -0.0782165 0.204605 43 63 59
-0.325307 -0.0770868 0.204658 29 79 79
-0.325601 -0.0759545 0.204711 35 98 99
-0.325895 -0.0748197 0.204765 41 105 109
-0.327292 -0.0737875 0.204293 41 106 111
-0.327868 -0.0726679 0.204214 41 107 113
-0.328726 -0.0715674 0.204002 42 108 114
-0.328747 -0.0703909 0.204189 43 111 118
-0.32933 -0.0692575 0.204109 51 119 122
-0.329914 -0.068119 0.20403 62 100 98
-0.330219 -0.0669562 0.204083 67 68 62
-0.33024 -0.0657728 0.204271 68 60 48
-0.324977 -0.0780659 0.203347 53 60 56
-0.32527 -0.0769346 0.203399 34 72 71
-0.325564 -0.0758009 0.203451 32 92 92
-0.325859 -0.0746645 0.203503 37 102 106
-0.326981 -0.073604 0.203157 40 106 111
-0.327556 -0.0724839 0.203076 41 107 112
-0.328413 -0.0713827 0.20286 42 108 112
-0.328714 -0.0702288 0.202912 42 110 115
-0.329297 -0.0690936 0.20283 50 120 121
-0.329882 -0.0679534 0.202747 60 113 113
-0.330186 -0.066789 0.2028 65 80 77
-0.330208 -0.0656042 0.202987 69 60 47
-0.325212 -0.0779456 0.201952 63 57 56
-0.325506 -0.0768116 0.202003 41 65 64
-0.325528 -0.0756468 0.202187 29 85 85
-0.326372 -0.0745633 0.20197 34 99 102
-0.326669 -0.0734205 0.202021 39 106 110
-0.327521 -0.0723248 0.201802 41 107 112
-0.328099 -0.071198 0.201717 41 108 112
-0.3284 -0.0700437 0.201768 41 110 113
-0.328982 -0.068908 0.201683 46 117 118
-0.329849 -0.0677874 0.201462 54 120 122
-0.330154 -0.0666214 0.201513 63 93 90
-0.330744 -0.0654703 0.201427 66 62 55
-0.325722 -0.0778555 0.200416 66 54 55
-0.326018 -0.0767176 0.200465 51 59 59
-0.32604 -0.0755489 0.20065 35 77 76
-0.326336 -0.0744071 0.200699 36 96 98
-0.326633 -0.0732628 0.200748 39 104 108
-0.327208 -0.0721405 0.200662 40 106 111
-0.327786 -0.0710132 0.200575 40 108 112
-0.328366 -0.0698809 0.200487 41 109 113
-0.328668 -0.0687224 0.200537 43 113 116
-0.329817 -0.067621 0.200173 52 123 121
-0.330406 -0.0664721 0.200084 62 103 101
-0.330712 -0.0653006 0.200134 64 69 67
-0.325686 -0.0777033 0.199144 67 57 46
-0.325982 -0.0765639 0.199192 62 58 50
-0.326003 -0.0753938 0.199377 41 69 67
-0.326024 -0.0742237 0.199562 34 90 90
-0.326597 -0.0731047 0.199473 38 103 105
-0.326896 -0.0719562 0.199521 39 107 111
-0.327473 -0.0708284 0.199432 39 109 113
-0.328052 -0.0696956 0.199342 41 109 114
-0.328634 -0.0685577 0.199251 42 110 115
-0.329784 -0.0674541 0.198882 51 122 121
-0.330373 -0.0663035 0.19879 60 115 115
-0.33068 -0.0651304 0.198838 65 83 82
-0.32567 -0.0763807 0.198055 59 58 45
-0.325691 -0.0752105 0.19824 43 63 60
-0.325988 -0.0740668 0.198287 32 82 83
-0.326561 -0.0729462 0.198195 35 99 102
-0.32686 -0.0717962 0.198242 38 106 111
-0.327159 -0.0706436 0.198288 39 107 113
-0.327738 -0.0695103 0.198196 41 109 114
-0.328319 -0.0683718 0.198103 42 109 115
-0.329751 -0.0672869 0.197587 46 117 121
-0.330341 -0.0661345 0.197492 54 122 126
-0.330648 -0.0649599 0.197539 66 96 96
-0.330956 -0.0637825 0.197586 71 63 56
-0.325633 -0.0762264 0.196778 64 64 44
-0.325654 -0.0750548 0.196963 50 60 54
-0.325951 -0.0739097 0.197009 34 75 73
-0.326249 -0.072762 0.197054 33 95 97
-0.326547 -0.0716117 0.197099 38 105 108
-0.326845 -0.0704587 0.197145 40 106 111
-0.327423 -0.0693249 0.19705 41 108 114
-0.328284 -0.0682065 0.196813 42 109 115
-0.329434 -0.0670999 0.196432 41 113 120
-0.330024 -0.065947 0.196335 51 123 125
-0.330616 -0.0647889 0.196237 64 103 103
-0.330924 -0.0636099 0.196282 68 66 66
-0.331232 -0.0624282 0.196328 69 55 48
-0.325617 -0.0748988 0.195683 62 61 50
-0.325914 -0.0737521 0.195727 40 68 66
-0.325936 -0.0725777 0.195913 33 91 88
-0.326233 -0.0714271 0.195957 37 102 104
-0.326532 -0.0702738 0.196001 39 106 111
-0.327109 -0.0691395 0.195904 40 107 114
-0.327969 -0.0680203 0.195663 40 108 115
-0.329401 -0.066932 0.195133 41 111 117
-0.329991 -0.0657774 0.195032 50 121 124
-0.330583 -0.0646175 0.194932 58 116 120
-0.330892 -0.0634369 0.194976 62 80 81
-0.331201 -0.0622535 0.19502 65 56 45
-0.32558 -0.0747424 0.1944 64 57 46
-0.325601 -0.0735679 0.194586 48 64 58
-0.325899 -0.0724184 0.194629 33 82 81
-0.326197 -0.0712662 0.194671 34 97 99
-0.326218 -0.0700889 0.194857 38 105 110
-0.326795 -0.068954 0.194757 40 107 113
-0.327654 -0.0678341 0.194513 40 109 115
-0.329083 -0.0667447 0.193976 41 112 117
-0.329958 -0.0656073 0.193727 44 119 123
-0.330265 -0.0644291 0.19377 53 125 128
-0.330859 -0.0632634 0.193666 61 95 93
-0.330881 -0.0620645 0.193855 61 61 51
-0.325543 -0.0745857 0.193114 64 51 44
-0.325564 -0.0734098 0.1933 54 57 51
-0.325862 -0.0722587 0.193341 37 72 70
-0.325883 -0.0710814 0.193527 31 92 94
-0.325904 -0.0699039 0.193713 37 104 108
-0.32648 -0.0687685 0.193611 39 107 113
-0.327059 -0.067628 0.193508 42 110 116
-0.328766 -0.0665574 0.19282 43 113 119
-0.329639 -0.0654193 0.192567 44 116 122
-0.329946 -0.0642407 0.192608 54 127 127
-0.33054 -0.0630745 0.192501 60 106 107
-0.330562 -0.0618755 0.192691 61 69 67
-0.325527 -0.0732512 0.192011 59 54 51
-0.325548 -0.0720739 0.192197 43 65 66
-0.325569 -0.0708965 0.192383 32 84 86
-0.325867 -0.0697411 0.192424 37 100 102
-0.326166 -0.068583 0.192464 39 107 111
-0.326744 -0.067442 0.192358 50 114 116
-0.328449 -0.06637 0.191663 51 117 120
-0.329321 -0.0652311 0.191406 46 115 121
-0.329627 -0.0640523 0.191446 53 123 126
-0.330221 -0.0628855 0.191336 58 115 124
-0.330242 -0.0616864 0.191526 63 79 86
-0.330551 -0.0604993 0.191566 70 55 47
-0.325467 -0.074271 0.190533 67 45 39
-0.325213 -0.0730666 0.190867 57 50 43
-0.325234 -0.0718891 0.191053 42 63 58
-0.325255 -0.0707116 0.191239 34 77 78
-0.325553 -0.0695558 0.191278 37 94 98
-0.325575 -0.0683768 0.191464 41 104 108
-0.32615 -0.0672365 0.191356 43 106 113
-0.32785 -0.0661642 0.190655 45 107 114
-0.328719 -0.0650258 0.190395 44 111 118
-0.329309 -0.0638638 0.190283 45 118 124
-0.329901 -0.0626965 0.190171 53 122 127
-0.329923 -0.0614973 0.190361 64 90 95
-0.330231 -0.0603099 0.1904 68 60 55
-0.325175 -0.0729074 0.189574 56 51 35
-0.325196 -0.0717285 0.18976 49 56 47
-0.325217 -0.0705496 0.189946 35 68 70
-0.325239 -0.0693706 0.190132 34 88 92
-0.32526 -0.0681915 0.190318 39 101 107
-0.325835 -0.0670506 0.190208 40 103 111
-0.327533 -0.065977 0.189499 52 104 112
-0.328401 -0.0648379 0.189235 52 108 115
-0.32899 -0.0636753 0.189121 45 113 119
-0.329582 -0.0625075 0.189006 55 125 125
-0.329603 -0.0613081 0.189195 60 106 110
-0.329911 -0.0601204 0.189233 60 72 72
-0.325136 -0.0727479 0.188277 60 58 41
-0.324882 -0.0715435 0.188614 61 60 47
-0.324903 -0.0703644 0.1888 44 67 62
-0.324925 -0.0691853 0.188986 33 82 83
-0.325222 -0.0680263 0.189023 33 99 100
-0.32552 -0.0668647 0.189059 38 104 109
-0.326935 -0.0657718 0.188494 52 113 116
-0.328083 -0.0646499 0.188074 48 112 116
-0.328671 -0.0634868 0.187958 42 110 116
-0.329262 -0.0623184 0.187841 48 120 123
-0.329284 -0.061119 0.18803 54 118 126
-0.329591 -0.0599309 0.188066 64 86 85
-0.329613 -0.0587299 0.188256 68 60 50
-0.324843 -0.0713823 0.187316 64 60 50
-0.324865 -0.0702018 0.187502 53 61 54
-0.324886 -0.0690213 0.187689 35 75 74
-0.325184 -0.0678608 0.187724 30 93 96
-0.325482 -0.0666976 0.187759 34 103 106
-0.326618 -0.0655847 0.187338 35 105 109
-0.327482 -0.0644453 0.187068 34 107 111
-0.328069 -0.063283 0.186949 37 108 113
-0.328658 -0.0621154 0.18683 40 114 118
-0.328964 -0.0609298 0.186864 51 121 124
-0.329271 -0.0597414 0.186899 67 93 94
-0.329579 -0.0585503 0.186934 71 66 63
-0.329887 -0.0573565 0.186969 67 65 58
-0.325358 -0.0712685 0.185708 65 59 45
-0.324826 -0.0700389 0.186202 61 58 52
-0.324847 -0.0688569 0.186388 37 69 68
-0.325145 -0.0676948 0.186422 28 89 90
-0.325722 -0.0665488 0.186303 29 101 101
-0.326301 -0.0653976 0.186183 31 106 108
-0.327164 -0.0642574 0.185908 36 106 113
-0.32775 -0.0630946 0.185787 37 105 114
-0.328338 -0.0619264 0.185665 37 110 118
-0.328644 -0.0607405 0.185699 50 122 124
-0.328666 -0.0595407 0.185888 60 109 114
-0.329259 -0.0583604 0.185766 64 74 77
-0.329567 -0.0571663 0.1858 68 59 52
-0.325064 -0.0698979 0.184744 64 59 53
-0.325085 -0.0687132 0.184931 41 63 62
-0.325107 -0.0675285 0.185117 26 82 83
-0.325684 -0.0663807 0.184995 30 98 100
-0.326264 -0.0652277 0.184872 36 104 109
-0.326846 -0.0640696 0.184749 38 106 113
-0.327431 -0.0629062 0.184625 37 107 114
-0.328019 -0.0617375 0.1845 36 109 116
-0.328325 -0.0605512 0.184533 42 117 123
-0.328346 -0.0593513 0.184722 54 121 128
-0.328938 -0.0581705 0.184597 64 87 94
-0.329532 -0.0569843 0.184472 65 59 62
-0.325025 -0.069734 0.183435 64 61 51
-0.325047 -0.0685479 0.183622 50 60 54
-0.325346 -0.0673814 0.183653 29 76 74
-0.325925 -0.0662306 0.183527 29 95 96
-0.326226 -0.0650575 0.183558 37 103 109
-0.326809 -0.0638975 0.183432 38 106 115
-0.327113 -0.0627177 0.183462 36 107 115
-0.327699 -0.0615485 0.183335 36 106 115
-0.328005 -0.0603619 0.183366 38 111 121
-0.328311 -0.0591726 0.183397 52 125 126
-0.328903 -0.05799 0.183269 61 96 102
-0.329498 -0.0568019 0.183141 59 60 69
-0.325822 -0.0696362 0.181648 64 61 50
-0.325286 -0.068403 0.182153 59 57 49
-0.325586 -0.0672336 0.182182 37 70 66
-0.325887 -0.0660615 0.182212 29 87 89
-0.325909 -0.0648698 0.1824 36 101 107
-0.326491 -0.0637093 0.18227 38 107 114
-0.326794 -0.0625292 0.1823 38 108 114
-0.32738 -0.0613595 0.18217 38 106 115
-0.327685 -0.0601726 0.1822 38 108 119
-0.327991 -0.058983 0.182229 49 120 124
-0.328868 -0.057809 0.181938 55 111 119
-0.329463 -0.0566191 0.181807 60 75 77
-0.325526 -0.0682574 0.180677 66 54 44
-0.325548 -0.0670657 0.180865 48 63 61
-0.325569 -0.065874 0.181053 32 79 82
-0.326151 -0.0647157 0.180921 34 97 102
-0.326453 -0.0635367 0.180949 34 105 110
-0.326757 -0.0623549 0.180977 37 107 112
-0.327343 -0.0611834 0.180844 37 107 114
-0.327365 -0.0599832 0.181033 38 108 116
-0.32767 -0.0587933 0.181061 42 115 121
-0.328546 -0.0576186 0.180767 53 121 124
-0.329428 -0.0564358 0.18047 62 82 87
-0.330317 -0.055245 0.180171 65 54 55
-0.325488 -0.0680905 0.179357 70 52 41
-0.325509 -0.0668974 0.179545 53 58 56
-0.325531 -0.0657043 0.179733 36 72 73
-0.325832 -0.0645276 0.179759 32 92 95
-0.326134 -0.0633482 0.179786 35 103 107
-0.326719 -0.0621802 0.17965 37 106 111
-0.327023 -0.0609941 0.179677 38 108 112
-0.327328 -0.0598052 0.179704 38 107 113
-0.327634 -0.0586136 0.179731 40 110 118
-0.328511 -0.0574369 0.179431 52 123 124
-0.329682 -0.0562596 0.178965 58 99 105
-0.330283 -0.0550592 0.178826 61 63 71
-0.330595 -0.0538484 0.178852 66 55 54
-0.325169 -0.0679029 0.178196 65 48 40
-0.325191 -0.0667097 0.178384 58 56 50
-0.325492 -0.0655341 0.178409 44 67 64
-0.325794 -0.0643559 0.178434 30 85 86
-0.326096 -0.0631749 0.178459 35 102 105
-0.326399 -0.0619912 0.178485 36 105 111
-0.326703 -0.0608047 0.17851 38 107 111
-0.327008 -0.0596156 0.178535 38 106 113
-0.327597 -0.0584335 0.178397 39 107 116
-0.328475 -0.0572548 0.178092 48 119 122
-0.329647 -0.0560752 0.177619 54 112 120
-0.330248 -0.0548729 0.177477 62 75 78
-0.330852 -0.0536651 0.177334 67 53 48
-0.324873 -0.066522 0.177223 62 54 43
-0.325173 -0.0653461 0.177247 56 62 54
-0.325475 -0.0641675 0.177271 30 77 78
-0.325777 -0.0629862 0.177295 34 99 102
-0.32608 -0.0618021 0.177319 34 105 110
-0.326383 -0.0606154 0.177343 37 107 112
-0.326687 -0.0594259 0.177367 37 106 114
-0.32756 -0.0582531 0.17706 37 106 115
-0.328153 -0.0570638 0.176917 42 113 121
-0.329324 -0.0558833 0.176439 54 121 125
-0.330214 -0.0546862 0.176125 63 88 87
-0.330527 -0.053472 0.176148 66 59 51
-0.324833 -0.0663528 0.175897 60 51 40
-0.324855 -0.0651579 0.176085 62 53 48
-0.325436 -0.0639951 0.175941 37 69 70
-0.325738 -0.0628121 0.175964 31 94 96
-0.326041 -0.0616265 0.175986 33 104 108
-0.326063 -0.060426 0.176175 36 107 112
-0.326649 -0.059247 0.176031 37 107 114
-0.327523 -0.0580721 0.175719 37 106 114
-0.328116 -0.056881 0.175573 39 108 116
-0.329 -0.0556913 0.175258 53 121 122
-0.329889 -0.0544935 0.17494 58 103 105
-0.330493 -0.0532831 0.174791 62 71 65
-0.330807 -0.0520644 0.174813 68 58 40
-0.324815 -0.0649869 0.174755 60 51 46
-0.325116 -0.0638064 0.174776 44 64 63
-0.325418 -0.0626232 0.174798 28 86 86
-0.325721 -0.0614372 0.174819 32 102 104
-0.325743 -0.0602366 0.175008 36 106 111
-0.326328 -0.059057 0.174861 38 106 112
-0.327201 -0.0578814 0.174545 38 107 113
-0.32808 -0.0566977 0.174227 39 108 114
-0.328676 -0.0554993 0.174077 48 117 120
-0.329564 -0.0543007 0.173755 53 115 120
-0.330167 -0.0530898 0.173604 61 81 77
-0.330481 -0.0518707 0.173624 69 59 46
-0.324775 -0.0648155 0.173423 56 54 41
-0.325077 -0.0636333 0.173442 53 61 55
-0.325379 -0.0624485 0.173462 33 78 76
-0.325401 -0.0612478 0.173651 32 98 99
-0.325704 -0.0600588 0.173671 36 105 110
-0.326007 -0.058867 0.173691 37 106 114
-0.326879 -0.0576906 0.17337 39 108 114
-0.328043 -0.056514 0.172877 39 108 114
-0.32864 -0.0553137 0.172724 42 112 118
-0.329239 -0.0541079 0.17257 53 122 123
-0.329842 -0.0528964 0.172416 61 93 91
-0.330155 -0.051677 0.172435 65 64 59
-0.325037 -0.0634599 0.172105 63 56 44
-0.325059 -0.0622592 0.172294 40 68 66
-0.325081 -0.0610585 0.172483 33 92 92
-0.325665 -0.0598806 0.17233 36 101 108
-0.325686 -0.058677 0.17252 35 105 115
-0.326557 -0.0574999 0.172196 39 107 114
-0.327719 -0.0563223 0.171697 39 107 114
-0.328604 -0.0551277 0.171367 39 109 117
-0.329204 -0.0539199 0.17121 52 123 122
-0.329807 -0.0527066 0.171053 58 107 108
-0.329829 -0.0514833 0.171245 60 72 69
-0.324717 -0.0632707 0.170937 60 53 46
-0.324739 -0.0620699 0.171126 42 64 60
-0.325041 -0.0608816 0.171143 27 84 83
-0.325344 -0.0596906 0.17116 32 100 104
-0.325647 -0.0584969 0.171177 37 106 112
-0.326235 -0.057309 0.171021 39 106 112
-0.327396 -0.0561305 0.170516 39 107 114
-0.328279 -0.0549351 0.170183 37 108 117
-0.328878 -0.0537268 0.170023 45 117 123
-0.32948 -0.0525129 0.169863 55 117 123
-0.329502 -0.0512895 0.170056 63 79 78
-0.329815 -0.0500666 0.170072 62 53 44
-0.324396 -0.0630815 0.169768 58 58 48
-0.324698 -0.0618943 0.169784 50 56 53
-0.32472 -0.060692 0.169973 25 76 73
-0.325304 -0.0595118 0.169815 28 97 97
-0.325326 -0.0583066 0.170004 37 106 109
-0.325912 -0.0571182 0.169846 38 107 112
-0.327072 -0.0559387 0.169336 40 108 114
-0.328242 -0.0547484 0.168822 38 108 116
-0.328842 -0.0535382 0.168659 38 112 120
-0.329154 -0.0523192 0.168673 54 120 122
-0.329467 -0.0510974 0.168688 63 89 89
-0.32978 -0.0498728 0.168702 68 62 54
-0.324658 -0.0617183 0.168439 55 58 45
-0.324961 -0.0605268 0.168453 36 67 65
-0.324982 -0.0593215 0.168642 29 90 89
-0.325286 -0.0581258 0.168656 38 104 109
-0.325873 -0.0569356 0.168495 36 105 115
-0.327034 -0.0557538 0.167978 38 107 114
-0.327917 -0.0545556 0.167636 38 107 114
-0.328516 -0.0533448 0.16747 38 109 115
-0.328828 -0.0521255 0.167483 53 122 121
-0.32914 -0.0509034 0.167496 58 107 111
-0.329453 -0.0496784 0.16751 64 68 67
-0.324899 -0.0615553 0.166913 59 43 40
-0.325203 -0.0603607 0.166925 50 57 53
-0.324942 -0.059142 0.167292 31 81 80
-0.325529 -0.057954 0.167128 32 100 106
-0.32555 -0.0567444 0.167318 37 106 114
-0.32671 -0.0555617 0.166796 39 109 114
-0.327591 -0.0543627 0.166449 39 108 113
-0.32819 -0.0531514 0.166281 38 107 114
-0.328501 -0.0519318 0.166293 43 115 121
-0.329104 -0.0507106 0.166124 53 119 123
-0.329417 -0.0494839 0.166135 62 75 76
-0.329731 -0.0482543 0.166147 59 49 38
-0.325141 -0.0613915 0.16538 63 42 36
-0.325729 -0.0602059 0.165211 59 56 46
-0.325751 -0.0589937 0.165401 37 71 71
-0.325206 -0.057763 0.165951 32 95 97
-0.326079 -0.0565769 0.165603 36 104 110
-0.326385 -0.0553696 0.165614 37 106 113
-0.327266 -0.0541698 0.165263 39 106 112
-0.327864 -0.0529579 0.165092 36 107 114
-0.328175 -0.051738 0.165102 36 111 118
-0.328777 -0.0505163 0.16493 55 125 122
-0.32909 -0.0492892 0.164941 58 92 95
-0.329696 -0.0480575 0.164768 54 57 56
-0.325689 -0.0600264 0.163849 63 59 43
-0.325711 -0.0588127 0.16404 43 66 64
-0.325733 -0.0575989 0.164231 30 87 87
-0.325755 -0.056385 0.164422 34 103 107
-0.326061 -0.0551774 0.164431 37 107 114
-0.326654 -0.0539719 0.164259 39 107 115
-0.327538 -0.0527644 0.163903 34 109 114
-0.327848 -0.0515441 0.163912 36 110 114
-0.328449 -0.0503219 0.163737 48 121 120
-0.328762 -0.0490945 0.163746 50 108 117
-0.32966 -0.0478602 0.163385 54 68 70
-0.330269 -0.0466208 0.163208 55 52 39
-0.325671 -0.0586312 0.162675 46 64 61
-0.325693 -0.057416 0.162866 30 79 78
-0.325715 -0.0562006 0.163057 32 100 102
-0.326022 -0.0549913 0.163065 35 106 112
-0.326329 -0.0537791 0.163073 37 107 114
-0.327211 -0.0525709 0.162713 35 109 115
-0.327521 -0.0513503 0.162721 35 108 113
-0.328122 -0.0501275 0.162543 40 114 119
-0.328725 -0.0488989 0.162365 50 118 124
-0.329624 -0.0476625 0.161999 59 75 83
-0.330234 -0.0464211 0.161819 59 49 45
-0.325631 -0.0584494 0.161307 47 56 55
-0.325653 -0.0572326 0.161499 34 71 70
-0.32596 -0.056023 0.161505 30 92 95
-0.325982 -0.0548047 0.161696 35 105 110
-0.326004 -0.0535863 0.161888 35 106 114
-0.326885 -0.0523773 0.161523 37 108 114
-0.327195 -0.0511564 0.16153 37 107 113
-0.328084 -0.0499334 0.161163 37 109 116
-0.328397 -0.0487039 0.161168 53 121 122
-0.329588 -0.0474643 0.16061 58 92 98
-0.330198 -0.0462209 0.160426 58 57 53
-0.325591 -0.058267 0.159936 53 49 46
-0.325613 -0.0570488 0.160128 45 65 61
-0.325635 -0.0558305 0.160319 29 85 87
-0.325942 -0.0546177 0.160324 34 103 107
-0.325964 -0.0533978 0.160515 35 106 113
-0.326559 -0.0521838 0.160333 38 108 114
-0.326868 -0.0509625 0.160338 37 107 112
-0.327756 -0.0497387 0.159967 37 108 114
-0.328069 -0.0485089 0.159972 48 120 120
-0.329258 -0.0472683 0.159408 53 109 115
-0.329868 -0.0460243 0.159221 56 65 64
-0.33048 -0.0447745 0.159033 61 46 38
-0.325266 -0.0580746 0.15875 59 48 39
-0.325288 -0.0568563 0.158942 57 61 53
-0.325595 -0.0556447 0.158945 32 76 76
-0.325616 -0.0544248 0.159136 33 98 101
-0.325638 -0.0532048 0.159328 36 106 111
-0.326232 -0.0519901 0.159143 38 108 113
-0.326541 -0.0507685 0.159147 38 108 113
-0.327428 -0.049544 0.158771 37 106 114
-0.32774 -0.0483138 0.158775 41 114 119
-0.328928 -0.0470722 0.158205 54 119 123
-0.329537 -0.0458277 0.158016 59 76 79
-0.330149 -0.0445773 0.157825 60 50 45
-0.325247 -0.0566717 0.157566 62 54 45
-0.325269 -0.0554518 0.157757 38 67 67
-0.325291 -0.0542318 0.157949 31 92 94
-0.325598 -0.0530155 0.157951 36 105 109
-0.325906 -0.0517965 0.157953 36 108 113
-0.326214 -0.0505745 0.157955 38 109 115
-0.327101 -0.0493492 0.157576 38 105 114
-0.327412 -0.0481187 0.157577 38 109 117
-0.328306 -0.0468792 0.157195 55 121 122
-0.329501 -0.0456264 0.156616 58 94 100
-0.330113 -0.044374 0.156422 58 60 56
-0.330432 -0.0431233 0.156423 57 52 40
-0.324921 -0.0564789 0.156378 61 48 40
-0.324943 -0.0552589 0.156569 42 60 58
-0.32525 -0.0540438 0.15657 28 84 85
-0.325557 -0.0528259 0.15657 34 103 105
-0.325579 -0.0516028 0.156762 35 107 113
-0.325888 -0.0503805 0.156763 37 109 116
-0.326484 -0.0491549 0.156572 38 106 114
-0.327084 -0.0479236 0.15638 37 107 115
-0.327977 -0.0466832 0.155993 48 117 121
-0.32917 -0.0454295 0.155409 54 110 118
-0.329781 -0.0441765 0.155213 59 71 69
-0.330099 -0.0429254 0.155212 58 49 42
-0.32488 -0.0562937 0.154997 55 51 42
-0.324902 -0.0550722 0.155189 45 52 48
-0.325209 -0.0538554 0.155188 32 75 73
-0.325231 -0.0526323 0.15538 34 99 99
-0.325539 -0.0514111 0.155379 36 106 113
-0.325561 -0.0501864 0.155571 35 107 116
-0.326156 -0.0489603 0.155377 38 107 114
-0.326755 -0.0477284 0.155182 37 107 113
-0.327647 -0.0464873 0.154792 41 112 119
-0.328838 -0.0452325 0.154202 54 119 121
-0.329449 -0.043979 0.154002 60 79 81
-0.329767 -0.0427275 0.154 60 51 46
-0.324861 -0.054885 0.153805 51 52 45
-0.324882 -0.0536618 0.153997 41 67 64
-0.32519 -0.0524418 0.153994 32 90 91
-0.325212 -0.0512171 0.154186 37 102 111
-0.325234 -0.0499924 0.154379 38 107 116
-0.325829 -0.0487656 0.154182 39 108 114
-0.326427 -0.0475332 0.153984 35 106 113
-0.327608 -0.0462875 0.153393 37 107 118
-0.328507 -0.0450355 0.152994 54 123 121
-0.329117 -0.0437814 0.152792 57 99 102
-0.329435 -0.0425296 0.152788 58 62 59
-0.324534 -0.0546915 0.152614 56 54 41
-0.324841 -0.0534727 0.15261 51 58 53
-0.324863 -0.0522479 0.152802 33 81 81
-0.324885 -0.0510231 0.152994 33 101 106
-0.324907 -0.0497982 0.153186 39 107 113
-0.325214 -0.0485721 0.153183 37 107 114
-0.326098 -0.047338 0.152786 32 108 115
-0.327278 -0.0460913 0.152189 33 107 116
-0.328176 -0.0448384 0.151786 44 118 122
-0.328785 -0.0435838 0.151581 52 115 122
-0.329102 -0.0423316 0.151576 61 69 69
-0.329716 -0.0410666 0.15137 61 49 39
-0.324514 -0.0532789 0.151417 55 55 53
-0.324536 -0.052054 0.151609 37 73 73
-0.324558 -0.0508291 0.151801 30 95 97
-0.324865 -0.0496041 0.151796 38 107 111
-0.324887 -0.0483776 0.151988 36 108 114
-0.325482 -0.0471454 0.151786 36 107 114
-0.326948 -0.045895 0.150985 35 107 114
-0.327845 -0.0446414 0.150578 38 113 119
-0.328453 -0.0433861 0.150371 56 123 122
-0.32877 -0.0421336 0.150364 60 81 85
-0.329383 -0.040868 0.150155 56 52 47
-0.329405 -0.0396196 0.150351 60 50 42
-0.324187 -0.053085 0.150224 51 51 52
-0.324209 -0.05186 0.150416 41 64 67
-0.324516 -0.0506362 0.150409 29 87 88
-0.324537 -0.0494097 0.150602 34 103 110
-0.324845 -0.0481815 0.150595 36 107 114
-0.325154 -0.0469504 0.150589 36 107 115
-0.326328 -0.0457031 0.149982 32 107 115
-0.327513 -0.0444442 0.14937 36 108 118
-0.328121 -0.0431884 0.14916 51 120 123
-0.328437 -0.0419356 0.149152 54 100 109
-0.329049 -0.0406694 0.14894 60 65 61
-0.329072 -0.0394209 0.149135 64 52 41
-0.324166 -0.0516684 0.149023 46 60 58
-0.324473 -0.0504429 0.149014 30 78 79
-0.324495 -0.0492148 0.149207 34 98 105
-0.324803 -0.0479848 0.149199 37 106 114
-0.324825 -0.0467552 0.149392 37 108 115
-0.325998 -0.0455069 0.14878 35 108 114
-0.327474 -0.044241 0.147958 35 107 116
-0.327789 -0.0429907 0.147948 42 115 121
-0.328399 -0.0417284 0.147734 51 114 121
-0.328716 -0.0404708 0.147724 63 71 70
-0.328738 -0.0392221 0.14792 64 48 41
-0.324409 -0.0514785 0.147423 47 55 50
-0.324431 -0.050249 0.147616 33 70 71
-0.324453 -0.0490195 0.147809 33 92 95
-0.324475 -0.0477898 0.148001 37 106 111
-0.324783 -0.0465566 0.147992 37 109 114
-0.325668 -0.0453108 0.147576 39 107 114
-0.327142 -0.0440435 0.146748 37 106 114
-0.327457 -0.042793 0.146737 38 110 118
-0.328066 -0.0415301 0.14652 52 121 123
-0.328383 -0.0402721 0.146508 61 86 86
-0.3287 -0.0390111 0.146497 61 50 47
-0.324366 -0.0512857 0.146021 45 45 46
-0.324388 -0.0500547 0.146214 41 62 61
-0.32441 -0.0488236 0.146407 29 84 84
-0.324432 -0.0475925 0.1466 33 104 106
-0.324741 -0.0463575 0.146589 35 108 113
-0.325627 -0.0451095 0.146168 40 107 113
-0.32681 -0.0438461 0.145538 37 106 113
-0.327417 -0.0425871 0.145318 37 107 115
-0.327733 -0.0413317 0.145305 50 120 122
-0.328049 -0.0400734 0.145293 54 102 106
-0.328366 -0.0388121 0.14528 60 60 60
-0.328389 -0.0375616 0.145476 57 43 37
-0.324324 -0.0510924 0.144616 51 47 37
-0.324633 -0.0498603 0.144603 51 57 52
-0.324368 -0.0486273 0.145002 30 76 76
-0.324677 -0.0473921 0.144989 29 101 101
-0.325274 -0.0461501 0.144769 31 106 111
-0.325585 -0.0449076 0.144756 37 107 114
-0.326478 -0.0436486 0.144327 35 106 113
-0.327084 -0.042389 0.144104 37 106 114
-0.327693 -0.0411236 0.143881 43 115 121
-0.32801 -0.0398634 0.143866 50 113 122
-0.328327 -0.0386002 0.143852 60 70 74
-0.32835 -0.0373482 0.144048 57 49 44
-0.324281 -0.0508987 0.143207 50 49 40
-0.324303 -0.0496647 0.1434 49 58 50
-0.324612 -0.0484292 0.143386 37 69 70
-0.324922 -0.0471909 0.143371 28 93 94
-0.325232 -0.0459496 0.143356 38 103 110
-0.326124 -0.0446941 0.142922 37 106 114
-0.326729 -0.0434369 0.142696 38 106 113
-0.327337 -0.0421739 0.142469 38 105 114
-0.32736 -0.0409249 0.142664 39 108 118
-0.327676 -0.0396644 0.142649 53 120 120
-0.327993 -0.0384009 0.142633 57 83 90
-0.328311 -0.0371343 0.142617 53 53 53
-0.325124 -0.0494685 0.141356 57 53 47
-0.325146 -0.0482286 0.14155 45 61 60
-0.325458 -0.0469856 0.141533 30 82 83
-0.32577 -0.0457397 0.141516 41 100 106
-0.326083 -0.0444908 0.141499 39 106 114
-0.326396 -0.0432389 0.141482 40 105 114
-0.327004 -0.0419753 0.141252 33 106 115
-0.327026 -0.0407262 0.141448 35 106 115
-0.327342 -0.0394654 0.141431 48 118 119
-0.327659 -0.0382015 0.141414 50 105 111
-0.327976 -0.0369346 0.141396 50 68 64
-0.328294 -0.0356647 0.141379 47 45 37
-0.325082 -0.0492716 0.139935 50 48 43
-0.325394 -0.0480284 0.139916 38 57 57
-0.325416 -0.0467854 0.140111 30 75 75
-0.325728 -0.0455377 0.140092 42 99 102
-0.32575 -0.0442931 0.140287 39 106 114
-0.326064 -0.0430409 0.140268 38 105 115
-0.32667 -0.0417767 0.140036 37 106 114
-0.326986 -0.040517 0.140017 34 105 112
-0.327302 -0.0392543 0.139998 39 112 118
-0.327619 -0.0379886 0.139979 49 115 121
-0.328232 -0.0367049 0.139744 57 74 76
-0.328255 -0.0354481 0.139941 54 42 44
-0.325351 -0.0478292 0.13849 40 52 50
-0.325373 -0.0465847 0.138685 34 68 69
-0.325396 -0.0453401 0.138879 44 94 95
-0.325708 -0.044089 0.138859 39 105 112
-0.325731 -0.0428428 0.139054 36 107 115
-0.326336 -0.041578 0.138819 38 107 114
-0.326651 -0.040318 0.138799 33 105 111
-0.326967 -0.039055 0.138778 36 107 116
-0.327284 -0.0377889 0.138758 53 121 121
-0.328193 -0.0364894 0.138303 58 88 90
-0.329109 -0.0351806 0.137844 61 53 52
-0.328535 -0.0339543 0.138479 56 42 36
-0.325309 -0.0476296 0.13706 47 47 43
-0.325331 -0.0463835 0.137255 39 60 59
-0.325353 -0.0451373 0.13745 37 85 85
-0.325375 -0.043891 0.137645 36 102 107
-0.325689 -0.0426367 0.137623 35 106 114
-0.326003 -0.0413793 0.137602 38 106 113
-0.326317 -0.040119 0.13758 32 106 113
-0.326633 -0.0388556 0.137558 34 105 114
-0.327243 -0.0375753 0.137318 49 119 120
-0.328749 -0.0362422 0.136417 53 104 110
-0.32907 -0.0349622 0.136393 62 63 61
-0.329692 -0.0336604 0.136148 63 44 35
-0.325267 -0.0474294 0.135627 50 43 39
-0.325289 -0.0461817 0.135822 46 52 48
-0.325311 -0.044934 0.136017 33 74 73
-0.325333 -0.0436862 0.136212 33 97 99
-0.325355 -0.0424383 0.136407 37 104 112
-0.325669 -0.0411806 0.136384 37 106 113
-0.325691 -0.0399311 0.13658 34 105 114
-0.326298 -0.0386562 0.136338 33 105 112
-0.326908 -0.0373753 0.136095 42 114 119
-0.32871 -0.0360251 0.134964 51 115 122
-0.329331 -0.0347258 0.134716 56 76 77
-0.329955 -0.0334202 0.134466 58 48 41
-0.324955 -0.0459837 0.134606 55 45 40
-0.324977 -0.0447358 0.134801 41 65 63
-0.325 -0.0434879 0.134996 32 89 90
-0.325022 -0.0422399 0.135191 38 103 109
-0.325335 -0.0409819 0.135167 38 105 113
-0.325357 -0.0397322 0.135362 38 105 113
-0.326256 -0.0384438 0.134897 34 105 112
-0.326867 -0.0371608 0.13465 37 109 117
-0.328372 -0.0358235 0.133732 51 120 123
-0.328992 -0.0345236 0.133481 50 92 98
-0.329616 -0.0332175 0.133228 51 57 54
-0.32994 -0.031926 0.133201 57 47 36
-0.324622 -0.0457856 0.13339 49 45 35
-0.324644 -0.0445376 0.133585 42 58 52
-0.324666 -0.0432896 0.13378 31 80 80
-0.324688 -0.0420414 0.133975 36 100 106
-0.325001 -0.040783 0.133949 38 107 113
-0.325314 -0.0395216 0.133923 39 106 114
-0.325921 -0.0382441 0.133675 36 104 112
-0.326531 -0.0369605 0.133425 37 107 114
-0.328034 -0.0356219 0.1325 48 118 122
-0.328654 -0.0343214 0.132246 47 109 118
-0.329276 -0.0330147 0.13199 51 70 70
-0.329902 -0.0317018 0.131734 56 50 38
-0.324288 -0.0455875 0.132173 52 41 34
-0.32431 -0.0443394 0.132368 56 56 46
-0.324332 -0.0430912 0.132563 36 71 71
-0.324354 -0.041843 0.132758 34 94 97
-0.324667 -0.0405842 0.132731 36 107 112
-0.32498 -0.0393225 0.132704 36 106 116
-0.325586 -0.0380443 0.132452 37 104 113
-0.326195 -0.0367601 0.1322 36 103 112
-0.327696 -0.0354203 0.131268 39 112 118
-0.328315 -0.0341192 0.13101 47 117 122
-0.328937 -0.0328119 0.130752 49 77 78
-0.329561 -0.0314984 0.130492 54 47 39
-0.323976 -0.0441411 0.131152 51 49 40
-0.323999 -0.0428928 0.131347 38 64 59
-0.324311 -0.0416353 0.131317 29 86 86
-0.324333 -0.0403854 0.131513 37 105 109
-0.324645 -0.0391233 0.131484 36 105 114
-0.325251 -0.0378445 0.13123 38 106 114
-0.325859 -0.0365598 0.130975 34 103 112
-0.327358 -0.0352186 0.130035 35 107 116
-0.327976 -0.033917 0.129775 52 122 120
-0.328597 -0.0326091 0.129514 52 93 93
-0.329221 -0.0312949 0.129251 50 58 52
-0.329243 -0.0300207 0.12945 52 46 35
-0.323643 -0.0439428 0.129935 49 44 36
-0.323954 -0.0426864 0.129904 43 55 51
-0.323976 -0.0414365 0.130099 28 79 77
-0.323999 -0.0401865 0.130294 35 100 103
-0.324311 -0.038924 0.130264 38 105 113
-0.324915 -0.0376447 0.130007 37 107 113
-0.325523 -0.0363594 0.129749 35 104 113
-0.32702 -0.0350169 0.128802 35 105 114
-0.327637 -0.0337147 0.128539 47 117 119
-0.328257 -0.0324062 0.128275 52 105 112
-0.32888 -0.0310914 0.128009 53 67 68
-0.328903 -0.0298171 0.128209 53 46 37
-0.32362 -0.0424877 0.128685 46 49 48
-0.323642 -0.0412377 0.128881 32 69 71
-0.323664 -0.0399876 0.129076 32 92 95
-0.323976 -0.0387247 0.129044 38 106 112
-0.324289 -0.037459 0.129012 37 106 113
-0.325186 -0.0361589 0.128523 36 104 112
-0.326682 -0.0348152 0.127569 34 104 112
-0.327298 -0.0335124 0.127303 41 111 117
-0.327917 -0.0322033 0.127036 53 114 120
-0.32854 -0.0308879 0.126768 58 77 80
-0.328863 -0.0295899 0.126733 56 48 44
-0.323286 -0.042289 0.127466 45 44 45
-0.323308 -0.0410388 0.127662 37 57 64
-0.32333 -0.0397886 0.127857 29 85 88
-0.323642 -0.0385254 0.127824 36 104 108
-0.323954 -0.0372593 0.12779 38 105 112
-0.32485 -0.0359584 0.127297 37 103 111
-0.326343 -0.0346134 0.126336 32 103 110
-0.326959 -0.03331 0.126067 36 107 113
-0.327578 -0.0320003 0.125797 51 118 119
-0.328199 -0.0306844 0.125526 59 92 97
-0.328522 -0.029386 0.125489 57 56 56
-0.322951 -0.0420902 0.126247 41 36 35
-0.323262 -0.0408298 0.126212 37 48 50
-0.323285 -0.039578 0.126408 26 77 77
-0.323596 -0.038313 0.126373 31 101 102
-0.323909 -0.0370451 0.126338 38 106 111
-0.324514 -0.035758 0.126071 37 105 113
-0.326005 -0.0344117 0.125103 32 104 111
-0.32662 -0.0331076 0.124831 33 104 111
-0.327238 -0.0317973 0.124558 46 116 118
-0.327858 -0.0304808 0.124283 51 108 114
-0.328181 -0.029182 0.124245 54 67 70
-0.328505 -0.0278801 0.124207 50 42 38
-0.323195 -0.0418736 0.124564 44 45 37
-0.323217 -0.0406203 0.124759 40 43 46
-0.323239 -0.0393669 0.124955 33 64 69
-0.323551 -0.0381001 0.124918 30 93 94
-0.323864 -0.0368303 0.124881 38 104 110
-0.324178 -0.0355574 0.124845 36 105 112
-0.325667 -0.0342098 0.123869 33 103 111
-0.326281 -0.0329052 0.123594 32 102 110
-0.326898 -0.0315943 0.123318 39 108 115
-0.327518 -0.0302772 0.123041 48 114 121
-0.32784 -0.028978 0.123001 54 74 82
-0.328163 -0.0276758 0.122962 52 45 45
-0.323171 -0.0404102 0.123303 44 43 44
-0.323484 -0.0391431 0.123264 39 55 59
-0.323506 -0.0378866 0.12346 28 83 84
-0.323819 -0.036615 0.123422 38 101 105
-0.323841 -0.0353568 0.123618 38 105 113
-0.325328 -0.0340079 0.122635 37 105 111
-0.325942 -0.0327027 0.122357 34 102 110
-0.326558 -0.0313912 0.122078 36 105 113
-0.327177 -0.0300735 0.121798 50 117 118
-0.327499 -0.028774 0.121757 54 96 97
-0.327821 -0.0274714 0.121716 50 60 56
-0.328145 -0.0261656 0.121675 52 46 33
-0.323416 -0.0401888 0.121606 45 44 41
-0.323729 -0.0389183 0.121565 43 48 49
-0.323751 -0.0376588 0.121762 31 74 75
-0.323774 -0.0363991 0.121958 35 96 99
-0.324088 -0.0351225 0.121918 38 105 113
-0.32499 -0.033806 0.121401 38 105 114
-0.325602 -0.0325002 0.12112 35 104 112
-0.326218 -0.0311881 0.120839 34 104 112
-0.326538 -0.029893 0.120796 44 115 117
-0.326858 -0.0285948 0.120754 49 109 113
-0.32748 -0.027267 0.12047 52 71 72
-0.327802 -0.0259608 0.120428 55 41 35
-0.324246 -0.0399437 0.11942 44 45 38
-0.324268 -0.0386797 0.119618 43 44 43
-0.324291 -0.0374156 0.119815 35 65 67
