ply
format ascii 1.0
element vertex 1251
property float x
property float y
property float z
property uchar diffuse_red
property uchar diffuse_green
property uchar diffuse_blue
end_header
-0.328669 0.00837828 0.207085 29 89 93
-0.328656 0.00951763 0.207199 28 91 95
-0.329166 0.0107561 0.207063 47 104 103
-0.329679 0.0120026 0.206927 52 93 101
-0.326649 0.000371419 0.206072 68 58 48
-0.326634 0.00148529 0.206183 56 57 55
-0.326619 0.0026016 0.206294 32 59 64
-0.32686 0.00376063 0.206282 32 76 76
-0.327359 0.00496632 0.206145 31 89 91
-0.327345 0.00609355 0.206257 27 90 97
-0.327589 0.00726752 0.206245 36 93 94
-0.328352 0.00853802 0.205981 29 93 93
-0.328861 0.00977206 0.205841 25 91 95
-0.32911 0.0109653 0.205828 39 99 104
-0.329888 0.0122641 0.20556 52 105 110
-0.327101 0.00063893 0.204608 64 59 49
-0.327087 0.00175672 0.204718 58 59 51
-0.32733 0.00291642 0.204702 33 62 60
-0.327316 0.00404028 0.204812 25 78 73
-0.327302 0.00516656 0.204923 24 87 92
-0.327545 0.00633859 0.204908 27 91 97
-0.327531 0.00747103 0.205019 27 91 94
-0.328296 0.00874385 0.20475 28 93 94
-0.329329 0.0100753 0.20435 24 89 95
-0.329317 0.0112241 0.204462 34 93 99
-0.330097 0.0125268 0.204187 52 107 105
-0.330883 0.0138409 0.203911 62 68 67
-0.327557 0.000908174 0.203134 63 60 53
-0.327543 0.00202986 0.203243 58 57 46
-0.327787 0.00319391 0.203224 37 56 49
-0.327516 0.00428054 0.203461 21 68 67
-0.327502 0.00540958 0.203571 21 82 85
-0.327488 0.00654106 0.203681 27 88 94
-0.327992 0.00776487 0.203534 25 91 96
-0.328239 0.00895016 0.203516 29 93 94
-0.329536 0.0103323 0.202979 23 89 93
-0.329524 0.0114839 0.20309 30 92 96
-0.330041 0.0127397 0.20294 52 111 106
-0.330828 0.0140562 0.202657 57 84 88
-0.328274 0.00121704 0.201521 66 60 50
-0.328002 0.00230477 0.201759 60 58 43
-0.327989 0.00343283 0.201867 45 55 47
-0.327976 0.00456336 0.201975 27 61 64
-0.327962 0.00569637 0.202083 17 78 82
-0.327949 0.00683187 0.202192 23 92 95
-0.327935 0.00796983 0.2023 23 92 94
-0.328443 0.00920361 0.202149 30 91 94
-0.32948 0.010542 0.201734 24 90 94
-0.329997 0.0117948 0.20158 24 93 94
-0.329985 0.0129531 0.201689 43 105 107
-0.330506 0.0142192 0.201534 50 98 111
-0.328737 0.00149015 0.200027 60 57 49
-0.328464 0.00258143 0.200265 54 52 45
-0.328451 0.0037135 0.200372 45 49 50
-0.328178 0.00480609 0.20061 24 57 64
-0.327905 0.00589876 0.200849 14 77 76
-0.327892 0.00703578 0.200956 20 91 91
-0.328399 0.00826658 0.2008 23 92 93
-0.328386 0.00941111 0.200908 27 91 93
-0.329424 0.0107521 0.200486 23 92 95
-0.329941 0.012007 0.200327 21 93 95
-0.329929 0.0131669 0.200436 33 98 104
-0.330184 0.0143822 0.20041 50 109 112
-0.330439 0.0156029 0.200385 64 59 60
-0.329464 0.00180383 0.198389 57 52 41
-0.328408 0.00278024 0.199029 59 48 40
-0.328395 0.00391381 0.199134 56 51 44
-0.328382 0.00504987 0.19924 33 58 55
-0.328369 0.0061884 0.199345 16 73 71
-0.328355 0.00732946 0.199451 23 87 86
-0.328342 0.00847299 0.199558 28 93 94
-0.328853 0.00971386 0.199397 31 92 94
-0.329367 0.0109628 0.199235 27 93 94
-0.329885 0.0122198 0.199072 23 92 92
-0.330139 0.0134331 0.199044 28 94 99
-0.330128 0.0145984 0.199151 56 115 108
-0.330651 0.0158757 0.198987 61 73 73
-0.329134 0.00309988 0.197384 63 46 37
-0.329122 0.00423871 0.197488 55 50 43
-0.328847 0.00533734 0.197728 37 55 53
-0.328835 0.00647994 0.197832 22 65 68
-0.328822 0.00762505 0.197937 23 83 82
-0.328809 0.00877267 0.198042 29 91 93
-0.32906 0.00997068 0.198012 28 90 95
-0.329047 0.0111247 0.198117 28 91 94
-0.329829 0.0124331 0.197814 26 88 90
-0.330083 0.0136482 0.197783 27 91 98
-0.330072 0.0148152 0.197889 52 109 107
-0.330595 0.0160946 0.197721 55 88 98
-0.330131 0.00346308 0.195587 59 44 38
-0.329856 0.00456643 0.195828 47 46 41
-0.32958 0.00566984 0.196069 36 50 49
-0.329568 0.00681779 0.196172 24 60 64
-0.329292 0.00792256 0.196413 20 79 77
-0.329015 0.0090274 0.196654 27 91 92
-0.329003 0.0101804 0.196758 27 91 94
-0.32899 0.011336 0.196862 31 92 94
-0.329773 0.0126468 0.196553 26 89 94
-0.330294 0.0139164 0.196381 25 90 96
-0.330283 0.0150862 0.196485 44 103 106
-0.330539 0.016314 0.196451 53 103 110
-0.330341 0.00370622 0.194192 57 51 39
-0.330329 0.00485445 0.194293 52 49 38
-0.330053 0.00596153 0.194535 44 48 42
-0.329776 0.00706869 0.194776 29 60 58
-0.329499 0.00817592 0.195018 19 75 73
-0.329223 0.00928323 0.195259 25 89 89
-0.328946 0.0103906 0.195501 28 92 93
-0.329197 0.0115975 0.195465 28 93 94
-0.32945 0.0128097 0.195429 27 91 96
-0.330506 0.0141857 0.194972 26 89 95
-0.331303 0.015522 0.194652 36 97 101
-0.331022 0.0166455 0.194897 57 111 109
-0.33054 0.00510149 0.192891 57 49 38
-0.330263 0.00621105 0.193133 48 46 39
-0.329985 0.0073207 0.193375 34 54 53
-0.329708 0.00843041 0.193617 22 67 69
-0.32943 0.00954022 0.193859 23 85 85
-0.329153 0.0106501 0.194101 24 92 94
-0.329406 0.0118602 0.194062 25 93 93
-0.329659 0.0130757 0.194022 26 90 96
-0.330988 0.0145097 0.193414 28 87 93
-0.331247 0.0157417 0.193373 28 93 99
-0.331236 0.0169228 0.193476 56 112 107
-0.331769 0.0182222 0.193291 55 73 82
-0.330751 0.00534962 0.191482 55 49 42
-0.330473 0.00646167 0.191724 48 47 40
-0.330195 0.00757381 0.191967 40 51 48
-0.329917 0.00868601 0.192209 26 64 64
-0.329639 0.00979831 0.192452 20 82 80
-0.329361 0.0109107 0.192694 22 91 93
-0.329615 0.0121241 0.192652 24 93 95
-0.329869 0.0133429 0.19261 25 90 95
-0.331202 0.0147819 0.191991 25 89 93
-0.331462 0.0160173 0.191947 25 90 96
-0.331452 0.0172013 0.192048 49 108 106
-0.331986 0.0185046 0.191858 51 92 104
-0.331232 0.00564246 0.189921 52 52 43
-0.330685 0.00671341 0.19031 52 50 41
-0.330406 0.00782805 0.190553 45 50 45
-0.330128 0.00894276 0.190796 26 60 57
-0.329849 0.0100576 0.191039 19 77 75
-0.32957 0.0111724 0.191282 23 89 90
-0.329825 0.0123892 0.191236 24 92 95
-0.33008 0.0136113 0.191191 22 92 96
-0.331146 0.015001 0.190708 24 90 95
-0.331407 0.0162383 0.190661 24 88 94
-0.331668 0.0174811 0.190613 39 101 103
-0.331658 0.0186709 0.190713 53 105 110
-0.331921 0.0199233 0.190666 62 50 49
-0.331445 0.00589314 0.188498 54 47 40
-0.331166 0.00701143 0.188742 56 47 41
-0.330886 0.0081298 0.188985 48 49 45
-0.330607 0.00924824 0.189229 30 56 53
-0.330327 0.0103668 0.189473 21 70 70
-0.330047 0.0114854 0.189717 25 85 86
-0.330036 0.0126554 0.189814 26 91 94
-0.330561 0.0139338 0.189619 22 91 97
-0.33082 0.0151661 0.189569 25 89 95
-0.331351 0.0164598 0.189372 25 89 94
-0.331613 0.0177046 0.189321 29 96 100
-0.331602 0.018896 0.18942 58 114 109
-0.331865 0.0201504 0.18937 59 59 64
-0.331921 0.0073572 0.187013 62 44 38
-0.331369 0.00843357 0.187408 52 53 45
-0.331089 0.00955576 0.187652 37 57 51
-0.331078 0.0107274 0.187748 26 64 64
-0.330797 0.011851 0.187992 24 81 82
-0.330516 0.0129747 0.188237 29 90 93
-0.330775 0.0142049 0.188185 26 91 97
-0.330763 0.0153859 0.188281 28 90 95
-0.331295 0.0166819 0.188079 25 90 94
-0.331284 0.0178708 0.188176 22 94 98
-0.331546 0.0191216 0.188123 57 112 106
-0.331809 0.020378 0.18807 53 78 91
-0.332409 0.00765968 0.185422 50 43 35
-0.331856 0.00873933 0.185819 45 49 41
-0.331574 0.0098653 0.186064 38 53 47
-0.331293 0.0109914 0.18631 26 63 58
-0.331011 0.0121175 0.186555 19 78 76
-0.33073 0.0132437 0.1868 25 89 91
-0.330718 0.0144236 0.186895 27 92 95
-0.330707 0.0156062 0.186991 28 91 94
-0.331239 0.0169044 0.186784 25 91 94
-0.331228 0.0180951 0.18688 21 92 96
-0.33149 0.0193478 0.186824 47 103 104
-0.331753 0.0206062 0.186768 50 98 109
-0.332345 0.00904714 0.18422 46 47 39
-0.33179 0.0101278 0.18462 40 50 42
-0.331508 0.0112564 0.184865 27 59 53
-0.331226 0.0123851 0.185111 19 75 72
-0.330944 0.0135139 0.185357 23 88 88
-0.330662 0.0146428 0.185603 24 92 93
-0.33065 0.015827 0.185697 27 91 93
-0.33091 0.0170706 0.185639 26 92 94
-0.331171 0.0183198 0.18558 23 89 95
-0.331708 0.0196344 0.185368 36 95 102
-0.332523 0.0210195 0.185 55 112 111
-0.332514 0.022227 0.185094 58 53 57
-0.33229 0.00926041 0.182922 56 49 35
-0.332007 0.0103915 0.183168 50 50 36
-0.331725 0.0115227 0.183415 36 54 46
-0.33117 0.0126021 0.183815 24 68 67
-0.330887 0.0137323 0.184062 23 86 83
-0.330605 0.0148625 0.184308 25 93 93
-0.330865 0.016104 0.184246 27 92 95
-0.330582 0.0172368 0.184493 27 91 95
-0.331388 0.0186037 0.184123 22 89 94
-0.332201 0.0199828 0.183749 27 93 99
-0.332468 0.0212497 0.183686 58 116 106
-0.332735 0.0225224 0.183623 57 66 76
-0.332235 0.00947418 0.181621 55 46 39
-0.331952 0.0106066 0.181867 51 44 37
-0.331669 0.0117392 0.182114 39 47 48
-0.331386 0.0128718 0.18236 25 61 66
-0.331103 0.0140045 0.182607 22 80 79
-0.330819 0.0151373 0.182854 26 92 93
-0.330536 0.0162701 0.1831 26 91 97
-0.331069 0.0175752 0.18288 27 89 95
-0.33188 0.0189482 0.182502 20 89 93
-0.332422 0.0202724 0.182278 20 94 97
-0.332412 0.0214805 0.18237 49 108 104
-0.332957 0.0228192 0.182144 49 87 100
-0.331907 0.00963975 0.180475 55 45 40
-0.331624 0.0107723 0.180721 54 45 39
-0.33134 0.0119049 0.180968 45 48 45
-0.331057 0.0130377 0.181214 26 58 58
-0.331046 0.0142242 0.181304 20 75 77
-0.331035 0.0154133 0.181393 25 89 93
-0.331023 0.0166052 0.181483 27 92 96
-0.33156 0.0179158 0.181257 28 92 94
-0.332376 0.019295 0.18087 23 91 92
-0.332366 0.020502 0.18096 21 92 96
-0.332633 0.0217746 0.18089 41 101 105
-0.332902 0.0230529 0.18082 52 104 114
-0.331841 0.0110384 0.179256 60 49 39
-0.331557 0.0121736 0.179503 50 50 42
-0.331273 0.0133089 0.17975 33 54 52
-0.331536 0.0145527 0.179678 21 70 72
-0.331525 0.0157462 0.179766 22 86 89
-0.331514 0.0169425 0.179855 25 92 96
-0.33233 0.0183174 0.179461 24 92 94
-0.33232 0.0195234 0.17955 25 93 91
-0.332587 0.0207938 0.179477 24 91 92
-0.332577 0.0220067 0.179566 36 97 100
-0.332846 0.0232871 0.179493 59 108 108
-0.333396 0.0246397 0.179256 63 48 58
-0.332059 0.0113056 0.177784 55 47 34
-0.331774 0.0124435 0.178032 48 47 37
-0.331764 0.0136347 0.178118 34 50 50
-0.332028 0.0148834 0.178042 22 64 69
-0.332294 0.0161377 0.177966 23 82 86
-0.332284 0.0173398 0.178053 30 90 96
-0.332274 0.0185447 0.178139 28 90 96
-0.332264 0.0197523 0.178226 27 89 93
-0.332531 0.0210248 0.178151 24 86 95
-0.3328 0.022303 0.178074 31 90 99
-0.333069 0.023587 0.177998 58 108 102
-0.33334 0.0248769 0.177921 54 68 79
-0.332278 0.0115741 0.176305 52 47 31
-0.332268 0.012767 0.17639 51 48 34
-0.332534 0.0140166 0.17631 40 48 47
-0.332801 0.0152717 0.17623 24 60 63
-0.332792 0.0164756 0.176315 21 79 80
-0.332505 0.017624 0.176565 27 91 93
-0.332217 0.0187725 0.176815 28 93 96
-0.332485 0.0200428 0.176735 29 91 96
-0.332753 0.0213188 0.176656 27 87 94
-0.332743 0.0225366 0.176742 28 89 96
-0.333294 0.0238883 0.176496 48 103 105
-0.33413 0.0253168 0.176082 48 89 106
-0.33332 0.013199 0.174403 49 43 32
-0.333311 0.0144019 0.174486 39 43 41
-0.333302 0.0156075 0.174569 26 54 57
-0.333014 0.0167585 0.174819 22 72 73
-0.332726 0.0179095 0.17507 24 87 86
-0.332438 0.0190607 0.17532 28 92 95
-0.332707 0.0203345 0.175238 27 90 96
-0.332418 0.0214884 0.175489 21 89 94
-0.332967 0.0228351 0.175239 23 91 94
-0.333519 0.024191 0.174988 38 98 103
-0.334927 0.0257608 0.174225 54 100 104
-0.335492 0.0271407 0.173968 56 50 46
-0.334103 0.0135819 0.172564 46 40 31
-0.333815 0.0147354 0.172815 43 44 39
-0.333526 0.015889 0.173066 34 52 53
-0.333238 0.0170426 0.173317 24 67 68
-0.332949 0.0181963 0.173568 21 85 84
-0.33266 0.0193502 0.173819 23 90 94
-0.332372 0.0205041 0.17407 24 89 95
-0.332641 0.0217842 0.173984 22 89 94
-0.333191 0.0231351 0.173729 22 91 93
-0.334596 0.0246959 0.172959 33 95 99
-0.335158 0.0260706 0.172698 59 108 102
-0.335725 0.0274548 0.172435 58 57 63
-0.33404 0.0150155 0.171305 45 42 37
-0.333751 0.0161717 0.171556 36 47 48
-0.333462 0.017328 0.171808 23 63 64
-0.332893 0.018425 0.17223 19 81 81
-0.332604 0.0195802 0.172481 22 90 93
-0.332594 0.0207976 0.172562 23 90 95
-0.332864 0.0220813 0.172473 24 88 93
-0.333981 0.0235675 0.171868 23 89 92
-0.334825 0.0250029 0.17143 29 94 96
-0.33539 0.0263819 0.171163 52 105 104
-0.335959 0.0277704 0.170894 52 77 88
-0.334549 0.015353 0.169614 43 37 33
-0.333977 0.0164558 0.17004 35 44 41
-0.333687 0.0176148 0.170292 25 59 57
-0.333397 0.0187739 0.170544 22 76 76
-0.333107 0.0199331 0.170796 24 89 89
-0.332817 0.0210924 0.171048 24 91 94
-0.333934 0.022573 0.170435 23 90 94
-0.334209 0.0238712 0.17034 22 89 93
-0.335343 0.0253795 0.169718 27 90 95
-0.335623 0.0266946 0.169621 41 101 105
-0.336194 0.0280874 0.169346 52 95 104
-0.336768 0.02949 0.169069 57 48 55
-0.335345 0.0157496 0.167734 45 40 31
-0.33477 0.0168571 0.168164 39 45 35
-0.334196 0.0179621 0.168593 29 54 52
-0.333905 0.0191252 0.168846 24 70 71
-0.333614 0.0202884 0.169099 24 86 86
-0.333887 0.0215785 0.169001 24 92 94
-0.334162 0.0228744 0.168903 23 92 96
-0.334723 0.024243 0.168628 23 89 94
-0.335288 0.0256211 0.168351 25 88 96
-0.335857 0.0270087 0.168072 34 99 105
-0.33643 0.028406 0.167791 54 111 114
-0.337007 0.029813 0.167508 54 75 82
-0.337294 0.0311537 0.167405 49 46 38
-0.335862 0.0160924 0.166017 43 38 31
-0.334999 0.0171446 0.166629 38 41 36
-0.334708 0.0183117 0.166883 29 48 50
-0.334416 0.0194789 0.167136 22 65 67
-0.334407 0.0207088 0.167212 20 83 84
-0.334399 0.0219415 0.167288 22 91 95
-0.334391 0.0231771 0.167364 24 92 97
-0.334668 0.0244827 0.167262 25 90 95
-0.335521 0.0259324 0.1668 25 91 97
-0.336092 0.0273244 0.166515 32 101 105
-0.336667 0.028726 0.166228 55 119 119
-0.337246 0.0301374 0.16594 54 105 105
-0.337241 0.0314058 0.166016 46 51 48
-0.33523 0.0174336 0.165087 37 41 38
-0.334937 0.0186034 0.165341 29 46 51
-0.33493 0.0198351 0.165415 20 62 64
-0.334637 0.0210064 0.165669 19 78 79
-0.334344 0.0221778 0.165924 22 88 93
-0.334621 0.0234812 0.165819 25 92 97
-0.334613 0.024723 0.165893 27 93 97
-0.335755 0.0262451 0.165242 28 97 100
-0.336619 0.0277131 0.164768 34 104 108
-0.336905 0.0290476 0.164658 53 121 121
-0.337192 0.0303883 0.164548 56 117 117
-0.337481 0.0317353 0.164438 45 60 66
-0.336036 0.017843 0.163171 46 39 36
-0.335455 0.0189573 0.163609 36 47 46
-0.335161 0.0201313 0.163864 25 58 59
-0.334867 0.0213054 0.164119 22 73 74
-0.33486 0.0225446 0.164192 25 88 89
-0.334565 0.0237203 0.164448 28 96 99
-0.335131 0.0251 0.164156 31 97 103
-0.33628 0.0266296 0.163492 35 102 108
-0.336857 0.0280322 0.163194 39 109 115
-0.337144 0.0293706 0.163081 51 120 123
-0.337139 0.0306397 0.163154 57 119 122
-0.337428 0.0319889 0.16304 46 74 85
-0.335982 0.0180754 0.161795 47 40 33
-0.335687 0.0192521 0.162051 44 51 43
-0.335393 0.0204289 0.162307 38 62 56
-0.335099 0.0216058 0.162562 29 71 69
-0.334804 0.0227828 0.162818 26 84 84
-0.335084 0.0240937 0.162705 32 96 100
-0.335942 0.0255485 0.16222 37 101 109
-0.336226 0.026875 0.162105 40 106 115
-0.336803 0.0282802 0.161801 43 112 119
-0.337091 0.0296208 0.161685 50 119 124
-0.337379 0.0309677 0.161567 55 120 125
-0.337374 0.0322432 0.161639 45 87 98
-0.337961 0.0336806 0.161331 44 32 31
-0.339149 0.0352915 0.160638 41 34 30
-0.339747 0.0367532 0.160324 49 36 29
-0.336795 0.0184902 0.159853 42 43 31
-0.3365 0.0196724 0.16011 48 50 39
-0.335915 0.0207913 0.160554 41 59 56
-0.335619 0.0219723 0.160811 27 65 67
-0.335612 0.0232196 0.16088 22 76 77
-0.335895 0.0245376 0.160762 25 88 93
-0.336178 0.0258618 0.160644 32 99 106
-0.337048 0.027335 0.160146 37 104 112
-0.337042 0.0286018 0.160215 39 107 116
-0.337331 0.0299464 0.160094 47 115 121
-0.337326 0.0312208 0.160164 54 122 126
-0.337912 0.0326545 0.159851 49 101 105
-0.338204 0.0340182 0.159729 42 29 43
-0.339397 0.035635 0.159025 33 29 26
-0.339997 0.0371015 0.158705 37 29 28
-0.340298 0.038492 0.158578 39 32 37
-0.3406 0.0398892 0.158451 50 40 35
-0.343601 0.0201697 0.15397 37 32 28
-0.339677 0.0206049 0.156606 45 39 32
-0.338489 0.0216079 0.157448 40 53 51
-0.337895 0.0227363 0.1579 27 63 62
-0.337597 0.0239298 0.158159 18 70 70
-0.337298 0.0251234 0.158419 17 78 79
-0.337293 0.0263876 0.158486 20 86 88
-0.337288 0.0276547 0.158554 31 92 96
-0.337283 0.0289249 0.158621 44 99 104
-0.337277 0.0301982 0.158689 47 110 113
-0.337863 0.0316284 0.158371 53 121 122
-0.338156 0.0329897 0.158246 51 110 112
-0.338748 0.0344383 0.157924 32 50 63
-0.339345 0.0358972 0.157601 31 29 24
-0.339946 0.0373664 0.157275 42 33 29
-0.340247 0.0387593 0.157145 38 27 29
-0.340245 0.0400704 0.157213 44 21 25
-0.340547 0.0414748 0.157082 41 37 28
-0.348236 0.0214035 0.149442 31 23 22
-0.342944 0.0215638 0.153003 34 28 25
-0.339922 0.0221777 0.155062 35 44 39
-0.339323 0.0233135 0.15552 29 58 55
-0.339022 0.0245154 0.155781 21 66 66
-0.338722 0.0257174 0.156042 15 72 71
-0.337534 0.0267054 0.156888 14 80 79
-0.337234 0.0279034 0.157148 23 89 89
-0.337229 0.0291754 0.157214 34 97 99
-0.337815 0.0306021 0.156891 42 107 110
-0.338107 0.0319611 0.156762 49 118 122
-0.338699 0.0334061 0.156435 46 114 117
-0.338695 0.0346983 0.156502 29 70 82
-0.338992 0.0360767 0.15637 32 26 26
-0.339894 0.037632 0.155841 37 33 23
-0.339891 0.0389402 0.155907 37 33 24
-0.340193 0.0403403 0.155774 30 30 29
-0.340191 0.0416565 0.15584 28 26 20
-0.342653 0.0437205 0.154288 35 35 27
-0.349454 0.0193014 0.14701 68 67 84
-0.345674 0.0211171 0.149655 25 19 16
-0.343509 0.0219421 0.151159 23 19 19
-0.342287 0.0229583 0.152035 28 33 30
-0.340771 0.0238987 0.153106 29 54 52
-0.340468 0.0251092 0.153369 24 63 64
-0.338967 0.0260354 0.154429 16 69 69
-0.338072 0.0270964 0.155086 14 77 75
-0.337771 0.0282987 0.155347 19 86 85
-0.337766 0.0295758 0.155411 28 94 96
-0.338058 0.0309324 0.155278 36 104 107
-0.33865 0.0323738 0.154946 44 113 118
-0.338646 0.0336648 0.155011 43 112 117
-0.338642 0.034959 0.155075 39 84 91
-0.338939 0.0363398 0.154941 38 29 33
-0.339539 0.0378126 0.154605 29 22 19
-0.339536 0.0391211 0.154669 28 21 17
-0.339837 0.0405217 0.154533 26 26 25
-0.340139 0.0419292 0.154396 25 29 20
-0.341982 0.0438103 0.153238 31 27 21
-0.386848 0.0109746 0.1196 57 41 30
-0.385677 0.0122481 0.120458 48 40 33
-0.38492 0.01358 0.121037 48 43 41
-0.384571 0.0149754 0.12134 44 46 62
-0.349403 0.0182401 0.14548 120 119 101
-0.348773 0.0194185 0.145965 77 100 99
-0.347826 0.0205279 0.146663 35 29 25
-0.345317 0.0212974 0.14841 19 14 16
-0.344079 0.0223231 0.149302 18 13 13
-0.34285 0.0233416 0.150188 20 24 25
-0.341933 0.0244226 0.150863 24 48 48
-0.341021 0.0254985 0.151535 24 57 58
-0.339813 0.0264978 0.152406 18 64 64
-0.338911 0.0275629 0.15307 13 73 72
-0.338014 0.028623 0.153732 16 81 82
-0.338307 0.029979 0.153595 23 90 92
-0.338601 0.0313414 0.153457 33 100 103
-0.338597 0.0326312 0.15352 40 108 113
-0.338294 0.0338439 0.153783 41 111 117
-0.338289 0.0351384 0.153846 45 96 99
-0.338585 0.0365197 0.153708 41 47 53
-0.339184 0.0379932 0.153368 31 36 31
-0.33918 0.039302 0.153431 40 24 18
-0.33948 0.0407032 0.153292 36 21 24
-0.339781 0.0421112 0.153152 25 26 25
-0.341313 0.0438999 0.15219 30 26 23
-0.341931 0.0454252 0.151839 46 42 28
-0.387969 0.00849407 0.117009 47 37 33
-0.387618 0.0098987 0.117314 45 43 48
-0.386853 0.011241 0.1179 56 52 62
-0.385681 0.0125156 0.118763 75 67 67
-0.384922 0.0138491 0.119345 116 96 82
-0.384572 0.0152465 0.119648 130 112 104
-0.385039 0.0167833 0.119396 142 139 130
-0.349042 0.0184223 0.14422 87 80 78
-0.348412 0.0196006 0.144707 53 45 39
-0.347466 0.0207097 0.145407 27 21 24
-0.345896 0.0216787 0.14653 17 14 16
-0.344032 0.0225707 0.147852 16 10 10
-0.343109 0.0236586 0.148536 14 16 21
-0.34219 0.0247415 0.149216 17 37 38
-0.341275 0.0258194 0.149894 18 49 49
-0.340364 0.0268923 0.150568 14 58 60
-0.339458 0.0279602 0.151239 11 67 69
-0.338556 0.0290232 0.151907 12 76 77
-0.338552 0.0303089 0.151968 20 87 88
-0.338548 0.0315976 0.152029 30 97 98
-0.338245 0.0328102 0.152292 36 104 109
-0.33824 0.0341035 0.152353 40 110 115
-0.337937 0.0353177 0.152617 45 103 105
-0.338231 0.0366996 0.152476 39 64 73
-0.338527 0.0380879 0.152335 37 51 44
-0.338825 0.039483 0.152193 35 26 21
-0.338821 0.0407954 0.152255 38 24 22
-0.339424 0.0422932 0.151908 30 33 29
-0.340953 0.0440834 0.150937 32 28 28
-0.341881 0.0457059 0.150372 42 41 29
-0.389514 0.00605553 0.114116 46 38 29
-0.388744 0.00740834 0.114709 57 46 37
-0.387976 0.00875755 0.1153 74 63 59
-0.38721 0.0101032 0.115889 85 88 90
-0.386858 0.0115081 0.116194 104 111 117
-0.385684 0.0127839 0.117063 137 139 129
-0.384924 0.0141189 0.117648 169 155 132
-0.384574 0.0155184 0.117952 173 145 120
-0.384632 0.0169879 0.117976 162 138 112
-0.348681 0.0186045 0.14296 51 36 26
-0.348051 0.0197827 0.143448 31 27 21
-0.34679 0.0208249 0.144367 24 20 16
-0.345538 0.0218598 0.14528 17 15 13
-0.343985 0.022819 0.146398 12 9 12
-0.342753 0.0238384 0.147296 15 8 16
-0.341835 0.0249209 0.14798 14 25 33
-0.341225 0.02607 0.148453 9 39 46
-0.340616 0.0272165 0.148924 6 52 57
-0.339406 0.0282124 0.149806 8 61 65
-0.338503 0.0292762 0.150478 11 72 72
-0.338499 0.0305637 0.150537 21 85 83
-0.338196 0.0317764 0.1508 30 94 95
-0.338191 0.0330685 0.15086 31 101 105
-0.337887 0.0342828 0.151123 38 109 112
-0.337584 0.0354971 0.151387 45 104 106
-0.337877 0.0368795 0.151244 47 69 79
-0.338173 0.0382684 0.1511 45 58 51
-0.338168 0.0395763 0.15116 27 31 28
-0.338465 0.0409767 0.151015 39 27 24
-0.338763 0.0423838 0.15087 36 33 27
-0.340901 0.0443614 0.149475 34 32 32
-0.342453 0.0461818 0.148478 37 36 30
-0.348541 0.0494594 0.144403 51 40 42
-0.389457 0.00485021 0.11238 44 39 33
-0.389104 0.00626054 0.112686 49 59 51
-0.388335 0.00761319 0.11328 91 85 78
-0.387567 0.00896227 0.113873 146 125 108
-0.386802 0.0103078 0.114464 175 168 136
-0.38645 0.0117128 0.114769 182 187 159
-0.385687 0.0130529 0.115359 184 191 164
-0.384926 0.0143895 0.115946 169 169 148
-0.384576 0.015791 0.116251 144 115 96
-0.384634 0.017263 0.116272 123 84 67
-0.34832 0.0187867 0.141699 32 25 22
-0.34769 0.0199648 0.142189 21 19 18
-0.34643 0.0210065 0.143113 20 17 17
-0.345179 0.0220408 0.14403 16 15 15
-0.343628 0.0229993 0.145154 10 10 9
-0.342397 0.0240182 0.146056 18 12 11
-0.34148 0.0251004 0.146743 15 23 25
-0.341175 0.0263213 0.147008 5 34 43
-0.340262 0.0273958 0.14769 2 47 53
-0.339655 0.0285395 0.148162 6 55 61
-0.33875 0.0296052 0.14884 9 67 69
-0.338147 0.0307425 0.149309 24 81 80
-0.337843 0.0319553 0.149572 32 90 91
-0.33754 0.0331681 0.149835 30 97 100
-0.337534 0.0344621 0.149894 38 104 106
-0.337231 0.0356766 0.150157 51 96 97
-0.337524 0.0370594 0.150011 62 68 69
-0.337518 0.0383628 0.15007 51 52 49
-0.337813 0.0397571 0.149923 25 31 31
-0.337808 0.0410684 0.149982 36 27 25
-0.338406 0.0425657 0.149627 36 26 24
-0.341158 0.0447353 0.147796 38 31 30
-0.344294 0.0470569 0.145704 42 36 29
-0.348169 0.0496493 0.143107 55 42 38
-0.370727 0.064369 0.127973 56 53 60
-0.370765 0.0659022 0.128011 55 50 51
-0.3894 0.00364476 0.110643 44 33 30
-0.389047 0.00505512 0.110949 55 52 49
-0.388695 0.00646558 0.111255 109 113 89
-0.387926 0.00781808 0.111851 156 159 133
-0.387159 0.00916702 0.112446 177 175 154
-0.386394 0.0105124 0.113039 185 174 148
-0.386042 0.0119175 0.113344 181 164 139
-0.38528 0.0132575 0.113936 165 145 125
-0.384929 0.0146609 0.11424 137 120 106
-0.384577 0.0160644 0.114544 98 68 59
-0.384635 0.017539 0.114564 79 49 39
-0.347958 0.0189689 0.140439 26 24 23
-0.347012 0.0200811 0.14115 21 18 18
-0.345756 0.0211213 0.142076 21 18 15
-0.343888 0.0220189 0.143428 17 14 15
-0.342655 0.0230425 0.144338 13 15 12
-0.342042 0.0241979 0.144816 18 16 10
-0.341125 0.0252799 0.145506 13 19 19
-0.34082 0.0265009 0.14577 7 30 33
-0.339908 0.0275751 0.146456 3 39 45
-0.339302 0.0287187 0.146929 3 48 57
-0.338397 0.0297841 0.14761 6 62 65
-0.337794 0.0309213 0.14808 12 74 73
-0.337491 0.0321342 0.148344 20 83 84
-0.337187 0.0333471 0.148607 31 91 94
-0.336884 0.0345602 0.14887 44 89 96
-0.336877 0.035856 0.148927 58 81 80
-0.336871 0.0371549 0.148984 66 68 53
-0.336865 0.038457 0.149042 46 39 36
-0.337158 0.03985 0.148893 24 23 26
-0.337152 0.04116 0.14895 30 26 23
-0.337747 0.042656 0.148592 31 24 24
-0.341417 0.045111 0.146109 41 27 24
-0.348117 0.0485594 0.141534 56 39 33
-0.350438 0.0506829 0.139987 61 44 37
-0.360857 0.055462 0.132848 72 62 74
-0.366091 0.0616211 0.129415 110 103 105
-0.366499 0.0632563 0.129195 90 89 97
-0.367288 0.0650334 0.128712 77 67 72
-0.369621 0.0673724 0.127165 62 50 46
-0.388991 0.00384958 0.109212 41 33 32
-0.388638 0.00526006 0.109518 84 61 56
-0.387869 0.00661425 0.110117 139 126 102
-0.387516 0.008023 0.110422 158 147 124
-0.38675 0.00937178 0.111019 154 135 117
-0.385986 0.010717 0.111614 140 110 95
-0.385634 0.0121223 0.111919 121 81 72
-0.385282 0.0135276 0.112224 102 55 56
-0.384931 0.014933 0.112529 95 53 51
-0.384579 0.0163386 0.112833 70 54 40
-0.384637 0.0178156 0.11285 55 42 33
-0.347597 0.0191512 0.139178 26 24 23
-0.34602 0.0201315 0.140334 23 22 19
-0.344771 0.0211691 0.141261 22 21 17
-0.342913 0.0220645 0.142615 20 15 15
-0.341992 0.0231539 0.143311 14 17 16
-0.341381 0.024308 0.14379 16 14 11
-0.34077 0.0254594 0.144268 17 17 16
-0.340161 0.0266082 0.144745 10 24 23
-0.339554 0.0277544 0.145221 5 33 37
-0.338948 0.0288979 0.145696 3 42 49
-0.338343 0.0300389 0.14617 9 57 56
-0.33774 0.0311773 0.146643 14 71 65
-0.337138 0.0323131 0.147115 20 79 75
-0.336834 0.0335262 0.147378 38 76 81
-0.336531 0.0347394 0.147641 61 75 75
-0.336227 0.0359526 0.147904 68 74 59
-0.33622 0.0372502 0.14796 58 52 40
-0.336213 0.038551 0.148016 44 33 31
-0.336803 0.0400307 0.147657 31 30 27
-0.336796 0.041341 0.147713 36 31 27
-0.33679 0.0426546 0.147769 31 31 26
-0.346115 0.046865 0.14132 41 32 29
-0.352064 0.0501111 0.137228 61 38 41
-0.35412 0.0521752 0.135851 60 45 37
-0.355517 0.0540495 0.134934 61 60 68
-0.361212 0.0573649 0.131024 182 145 118
-0.361237 0.058837 0.131065 194 186 160
-0.364943 0.0615702 0.128544 175 179 157
-0.366098 0.0634616 0.127799 149 150 143
-0.367645 0.0655073 0.126782 112 107 109
-0.368829 0.067443 0.126019 77 68 69
-0.368864 0.0689787 0.126054 64 52 47
-0.388581 0.00405443 0.107781 40 36 34
-0.388228 0.00546505 0.108087 94 62 54
-0.38746 0.00681907 0.108687 117 92 81
-0.386693 0.00816952 0.109286 116 84 77
-0.386341 0.0095766 0.109592 106 68 61
-0.385577 0.0109217 0.110189 88 51 44
-0.385226 0.012327 0.110494 65 34 33
-0.384874 0.0137325 0.110798 52 26 30
-0.384522 0.0151381 0.111103 57 21 26
-0.38417 0.0165438 0.111408 42 26 23
-0.346918 0.0192686 0.138141 27 23 21
-0.344721 0.0201162 0.139743 23 23 20
-0.342864 0.0210178 0.141105 21 21 18
-0.342249 0.0221771 0.141588 20 16 14
-0.341331 0.0232651 0.142286 14 15 14
-0.340721 0.0244178 0.142766 14 12 11
-0.340112 0.0255679 0.143245 17 14 14
-0.339505 0.0267153 0.143723 13 18 17
-0.338899 0.0278601 0.144199 11 24 25
-0.338594 0.0290772 0.144463 11 31 36
-0.33799 0.0302181 0.144938 17 38 42
-0.337089 0.031279 0.145623 28 49 45
-0.336785 0.0324921 0.145886 36 61 54
-0.336185 0.0336252 0.146358 44 59 58
-0.335882 0.0348371 0.146621 51 48 50
-0.335579 0.036049 0.146883 50 41 37
-0.335571 0.0373454 0.146938 41 35 30
-0.335563 0.0386449 0.146993 34 30 31
-0.335852 0.0400352 0.146839 34 35 31
-0.336142 0.0414322 0.146685 37 34 27
-0.336434 0.0428359 0.14653 36 33 27
-0.354739 0.0498523 0.133711 44 45 32
-0.35441 0.0511663 0.133996 53 46 46
-0.355463 0.0529248 0.13331 53 50 43
-0.359716 0.0557441 0.130377 62 56 57
-0.361182 0.0576859 0.129403 171 128 113
-0.3623 0.0595296 0.128674 224 218 189
-0.362326 0.0610144 0.128711 217 221 201
-0.3642 0.0631462 0.127453 185 185 175
-0.365351 0.0650462 0.126702 145 146 144
-0.366894 0.0671028 0.125678 101 97 102
-0.368073 0.0690473 0.124908 73 61 63
-0.368107 0.0705854 0.124942 66 49 41
-0.388171 0.00425932 0.106349 45 39 34
-0.387403 0.00561501 0.106952 75 50 42
-0.38705 0.00702394 0.107258 71 47 46
-0.386285 0.00837424 0.107859 64 37 36
-0.385932 0.00978145 0.108164 58 32 29
-0.385169 0.0111264 0.108763 49 26 24
-0.384817 0.0125319 0.109068 38 23 22
-0.384466 0.0139375 0.109373 35 22 22
-0.384114 0.0153432 0.109677 36 22 20
-0.384171 0.016819 0.10969 31 26 23
-0.344671 0.0190632 0.138224 26 21 15
-0.342814 0.0199711 0.139596 23 19 17
-0.3422 0.0211316 0.14008 21 18 16
-0.341282 0.0222222 0.140782 20 16 12
-0.340671 0.0233761 0.141263 14 13 11
-0.340063 0.0245274 0.141744 13 12 13
-0.339455 0.0256761 0.142223 13 10 12
-0.338849 0.0268221 0.142702 14 14 14
-0.338545 0.0280393 0.142966 15 17 16
-0.33794 0.0291814 0.143443 16 20 21
-0.33704 0.0302447 0.14413 21 22 25
-0.336439 0.0313805 0.144604 28 28 28
-0.33584 0.0325136 0.145077 34 34 32
-0.335537 0.0337241 0.14534 37 35 34
-0.334646 0.0347722 0.14602 38 32 32
-0.334344 0.03598 0.146282 35 28 29
-0.334042 0.0371879 0.146544 29 25 26
-0.334914 0.0387385 0.145972 27 29 27
-0.336093 0.0403921 0.145184 31 40 27
-0.355706 0.047628 0.13132 36 40 29
-0.355376 0.0489453 0.131606 31 30 29
-0.355046 0.0502626 0.131892 40 32 30
-0.355063 0.0516899 0.131932 47 34 33
-0.355426 0.053233 0.131727 57 49 40
-0.358611 0.0557093 0.129523 62 56 51
-0.360427 0.0577662 0.12829 116 94 114
-0.361175 0.0594848 0.127814 213 221 203
-0.361565 0.0610911 0.127592 249 241 224
-0.36159 0.0625781 0.127629 216 208 196
-0.364202 0.0649864 0.125835 172 174 164
-0.365356 0.0669015 0.125074 127 135 132
-0.366522 0.0688373 0.124305 87 83 89
-0.367701 0.070794 0.123527 68 52 54
-0.367351 0.0721924 0.12383 64 51 43
-0.387762 0.00446424 0.104918 45 36 29
-0.386994 0.00581979 0.105523 52 36 28
-0.386641 0.00722885 0.105828 38 24 23
-0.385876 0.00857899 0.106431 30 21 20
-0.385524 0.00998635 0.106736 30 20 19
-0.384761 0.0113311 0.107337 28 19 18
-0.384409 0.0127367 0.107642 27 21 19
-0.384057 0.0141425 0.107946 26 21 20
-0.384114 0.0156167 0.107957 26 19 19
-0.384172 0.0170951 0.107967 23 19 18
-0.343073 0.0189879 0.137864 30 24 15
-0.341844 0.0200213 0.138793 27 21 17
-0.340928 0.0211131 0.139496 25 18 16
-0.340319 0.022267 0.139979 23 17 13
-0.339711 0.0234183 0.14046 16 15 14
-0.339105 0.024567 0.140941 14 14 15
-0.3385 0.025713 0.14142 11 8 10
-0.338195 0.0269288 0.141683 12 11 12
-0.337891 0.0281446 0.141947 14 12 11
-0.337288 0.0292854 0.142425 15 13 12
-0.33639 0.0303473 0.143114 19 14 13
-0.335202 0.0313273 0.144011 22 15 16
-0.334606 0.0324567 0.144483 25 18 19
-0.334304 0.0336631 0.144744 30 23 21
-0.334002 0.0348695 0.145006 31 29 28
-0.333701 0.036076 0.145267 29 28 29
-0.33369 0.0373666 0.14532 29 24 22
-0.335152 0.039091 0.14432 29 30 23
-0.356696 0.0468167 0.128954 33 37 27
-0.356017 0.0480335 0.12949 37 35 34
-0.355339 0.0492472 0.130024 33 29 34
-0.355009 0.0505664 0.13031 43 39 32
-0.354679 0.0518856 0.130596 47 39 31
-0.355041 0.0534293 0.130387 52 50 37
-0.357512 0.0556747 0.128673 60 58 45
-0.358956 0.0576062 0.127693 84 71 92
-0.360418 0.0595631 0.1267 207 192 158
-0.360805 0.0611677 0.126476 251 245 222
-0.361193 0.0627808 0.12625 242 235 222
-0.361584 0.0644025 0.126024 205 198 188
-0.364203 0.0668368 0.124208 161 165 154
-0.364983 0.068629 0.123705 114 126 117
-0.365769 0.0704357 0.123198 78 79 72
-0.366944 0.0724012 0.122415 61 53 44
-0.386584 0.00602459 0.104093 44 38 27
-0.385819 0.00737641 0.104698 30 19 20
-0.385467 0.00878378 0.105003 24 15 18
-0.384704 0.0101302 0.105606 23 17 16
-0.384352 0.0115359 0.105911 22 17 15
-0.384 0.0129416 0.106215 21 19 17
-0.384058 0.0144143 0.106223 20 19 18
-0.383705 0.0158222 0.106528 19 16 16
-0.383762 0.0173009 0.106537 17 14 13
-0.341183 0.0201359 0.137773 22 17 18
-0.339967 0.0211605 0.138697 24 15 17
-0.339059 0.0222448 0.139397 25 17 14
-0.338755 0.0234604 0.13966 19 19 15
-0.338151 0.0246064 0.140141 14 13 13
-0.338146 0.0258918 0.140187 11 10 11
-0.337543 0.0270352 0.140667 11 12 11
-0.336941 0.0281759 0.141146 10 12 11
-0.335455 0.0290902 0.142263 15 13 12
-0.334566 0.0301465 0.142949 16 11 11
-0.333973 0.0312747 0.143421 16 13 11
-0.333381 0.0324003 0.143892 18 16 13
-0.33308 0.0336025 0.144153 26 23 18
-0.333069 0.0348857 0.144204 31 30 26
-0.333058 0.0361718 0.144255 29 29 26
-0.333339 0.0375453 0.144096 30 25 21
-0.357342 0.0458959 0.126823 35 31 24
-0.35666 0.0471169 0.127363 39 38 30
-0.35598 0.048335 0.127901 40 35 32
-0.354955 0.0494428 0.128688 38 34 36
-0.354625 0.0507621 0.128974 45 41 34
-0.354295 0.0520814 0.12926 48 39 34
-0.35431 0.0535132 0.129297 53 51 37
-0.355717 0.0554086 0.128332 62 57 42
-0.357851 0.0575668 0.126844 69 62 72
-0.359663 0.0596413 0.125589 215 163 135
-0.36041 0.0613697 0.125101 253 237 221
-0.360797 0.0629835 0.124872 252 250 236
-0.361187 0.0646058 0.124642 231 230 213
-0.361946 0.0663703 0.124146 193 194 179
-0.36383 0.0685598 0.122842 151 157 145
-0.364986 0.0705022 0.122062 104 110 100
-0.365016 0.0720345 0.122092 68 68 59
-0.366186 0.0740089 0.121302 56 51 44
-0.38541 0.00758111 0.10327 33 26 26
-0.384647 0.0089292 0.103875 24 14 15
-0.384296 0.0103349 0.10418 21 16 15
-0.383944 0.0117407 0.104484 20 17 14
-0.383592 0.0131466 0.104789 17 18 15
-0.383649 0.0146196 0.104795 15 17 15
-0.383705 0.0160968 0.104801 15 15 13
-0.384173 0.0176496 0.104506 16 14 10
-0.339917 0.0201209 0.137197 21 18 15
-0.33871 0.0211421 0.13812 22 19 14
-0.338107 0.0222894 0.138601 20 20 15
-0.338102 0.0235706 0.138646 19 20 15
-0.337798 0.0247849 0.13891 19 18 14
-0.337494 0.0259994 0.139173 19 20 14
-0.33719 0.0272139 0.139436 24 22 18
-0.336589 0.0283546 0.139916 15 19 14
-0.334517 0.0291192 0.141467 17 15 14
-0.333924 0.0302486 0.14194 15 14 13
-0.333042 0.0312988 0.142624 15 16 11
-0.332452 0.0324219 0.143095 18 20 14
-0.33273 0.0337801 0.142934 26 28 19
-0.332429 0.0349825 0.143195 35 31 23
-0.332708 0.03635 0.143034 35 29 24
-0.356625 0.0474179 0.125767 43 41 31
-0.355595 0.0485309 0.126561 41 41 28
-0.354571 0.0496383 0.127351 39 37 31
-0.353897 0.0508488 0.127888 43 40 32
-0.353567 0.0521667 0.128173 47 39 33
-0.353581 0.0535968 0.128209 54 47 38
-0.354286 0.05526 0.127743 61 51 39
-0.356752 0.0575275 0.125999 65 55 58
-0.35891 0.0597193 0.12448 180 128 119
-0.360015 0.0615718 0.123726 236 224 213
-0.360401 0.0631862 0.123493 253 253 244
-0.360789 0.0648092 0.123259 248 249 235
-0.36118 0.0664409 0.123024 220 222 203
-0.361572 0.0680813 0.122788 178 180 165
-0.363455 0.0702877 0.121472 125 129 123
-0.364234 0.072099 0.120956 81 80 76
-0.364263 0.0736336 0.120985 62 51 44
-0.385001 0.00778584 0.101841 37 32 29
-0.384239 0.00913379 0.102448 28 23 19
-0.383887 0.0105396 0.102753 20 15 14
-0.383535 0.0119455 0.103058 18 14 11
-0.383592 0.013417 0.103061 14 13 11
-0.383648 0.0148925 0.103064 13 13 14
-0.384116 0.0164421 0.102765 14 15 14
-0.384586 0.0180002 0.102464 18 16 13
-0.338964 0.018892 0.136363 18 16 15
-0.338361 0.0200419 0.136846 20 19 15
-0.338057 0.0212547 0.137109 22 21 16
-0.337754 0.0224675 0.137372 22 23 17
-0.33745 0.0236805 0.137634 24 27 17
-0.337445 0.0249635 0.137678 29 27 16
-0.337141 0.0261781 0.137941 34 23 14
-0.336837 0.0273927 0.138204 37 24 19
-0.336236 0.0285333 0.138686 27 22 18
-0.333875 0.0292224 0.14046 26 21 19
-0.332993 0.030275 0.141147 26 25 18
-0.332404 0.0313993 0.141619 27 25 20
-0.332103 0.0325989 0.141879 29 28 22
-0.331803 0.0337986 0.142139 32 32 27
-0.332079 0.0351602 0.141976 41 32 25
-0.356589 0.0477197 0.124167 39 38 28
-0.355211 0.0487269 0.125221 38 41 28
-0.353843 0.0497265 0.126267 38 35 27
-0.35317 0.0509355 0.126804 40 40 30
-0.352498 0.0521415 0.12734 46 41 32
-0.352853 0.0536803 0.127124 50 41 37
-0.35321 0.0552271 0.126907 59 46 37
-0.35461 0.0571338 0.125926 63 48 48
-0.358158 0.0597971 0.123374 116 89 97
-0.359258 0.0616478 0.122615 206 196 179
-0.360005 0.063389 0.122114 246 247 233
-0.360027 0.0648816 0.122143 253 255 243
-0.360415 0.0665114 0.121906 243 239 223
-0.360439 0.0680143 0.121935 200 194 182
-0.360829 0.0696591 0.121695 135 138 134
-0.362706 0.0718783 0.120371 84 84 81
-0.362732 0.0734066 0.120398 64 54 49
-0.38383 0.00933841 0.101022 34 28 24
-0.383478 0.0107444 0.101326 30 26 21
-0.383535 0.0122142 0.101327 24 22 17
-0.383592 0.0136882 0.101328 22 20 16
-0.384471 0.0153028 0.100718 19 19 18
-0.339216 0.0179176 0.134645 23 19 18
-0.338312 0.019007 0.135353 19 14 14
-0.338008 0.0202198 0.135616 20 16 15
-0.337407 0.021367 0.1361 22 20 16
-0.337104 0.0225786 0.136362 23 23 16
-0.337098 0.0238588 0.136404 25 26 17
-0.336794 0.0250719 0.136667 31 27 17
-0.336787 0.0263567 0.13671 37 27 17
-0.336483 0.0275715 0.136973 35 26 19
-0.335883 0.028712 0.137456 31 30 20
-0.333525 0.0293998 0.139239 29 21 23
-0.332934 0.0305277 0.139715 28 28 21
-0.332055 0.0315763 0.140403 32 33 25
-0.331754 0.032776 0.140663 33 32 23
-0.332031 0.0341352 0.140497 38 33 25
-0.356553 0.0480223 0.122563 32 30 27
-0.354826 0.0489229 0.123881 33 31 29
-0.353459 0.0499219 0.124932 36 33 29
-0.352445 0.0510219 0.125724 39 39 33
-0.351775 0.0522264 0.12626 44 42 33
-0.351787 0.0536514 0.126293 46 40 34
-0.351798 0.0550802 0.126327 53 43 35
-0.352839 0.0568618 0.125601 59 45 40
-0.356697 0.0596297 0.122796 75 63 74
-0.358863 0.0618496 0.121241 176 154 131
-0.359246 0.063463 0.121002 228 225 197
-0.359267 0.0649538 0.12103 249 251 233
-0.359289 0.0664487 0.121058 253 247 236
-0.359675 0.0680829 0.120817 218 209 206
-0.359333 0.0694505 0.121113 151 153 149
-0.35972 0.0710972 0.120872 94 93 91
-0.361214 0.0731815 0.119816 68 59 56
-0.360869 0.0745622 0.120115 61 58 49
-0.38307 0.0109491 0.0998989 39 31 23
-0.383535 0.0124836 0.0995915 36 29 22
-0.384414 0.0140934 0.098974 38 29 22
-0.339769 0.0170015 0.132698 42 37 27
-0.338862 0.0180957 0.133412 28 24 24
-0.338258 0.019248 0.1339 21 15 14
-0.337656 0.0203977 0.134386 19 13 13
-0.337054 0.0215449 0.134871 20 18 14
-0.336751 0.0227565 0.135133 21 20 14
-0.336448 0.0239683 0.135396 23 20 15
-0.336441 0.0252503 0.135437 27 22 16
-0.336434 0.0265355 0.135478 31 27 17
-0.33613 0.0277503 0.135741 32 28 19
-0.33553 0.0288907 0.136225 34 31 20
-0.335226 0.0301043 0.136488 35 31 25
-0.332584 0.030705 0.138496 29 29 26
-0.332283 0.0319076 0.138756 33 33 26
-0.331982 0.0331102 0.139017 33 33 25
-0.356166 0.0482193 0.121215 31 30 24
-0.354441 0.049119 0.12254 34 33 29
-0.353076 0.0501173 0.123597 34 33 30
-0.351721 0.0511081 0.124645 37 37 29
-0.351053 0.0523111 0.125182 43 40 30
-0.351064 0.0537346 0.125214 45 41 31
-0.351075 0.0551618 0.125246 46 41 37
-0.351426 0.0567087 0.125024 50 47 39
-0.354547 0.0592211 0.122743 63 57 61
-0.357392 0.0616735 0.120668 144 100 93
-0.358128 0.0634082 0.120161 199 181 151
-0.358509 0.0650259 0.119919 238 235 204
-0.358169 0.0663863 0.120214 252 252 240
-0.357828 0.0677468 0.120509 240 239 241
-0.357848 0.0692437 0.120536 192 190 190
-0.357507 0.0706062 0.120831 127 118 118
-0.357526 0.072109 0.120858 79 66 65
-0.35973 0.0744781 0.119263 65 58 48
-0.359386 0.0758554 0.119562 65 56 45
-0.338509 0.0182739 0.132179 35 31 30
-0.337905 0.0194261 0.132668 22 17 18
-0.337303 0.0205757 0.133155 18 12 12
-0.336999 0.0217889 0.133418 17 16 13
-0.336399 0.0229345 0.133904 17 16 13
-0.336095 0.0241464 0.134167 19 15 13
-0.335792 0.0253584 0.134429 22 16 13
-0.335784 0.0266423 0.134469 22 22 14
-0.335777 0.0279292 0.134509 27 23 17
-0.335472 0.0291443 0.134772 31 24 18
-0.335761 0.0305124 0.134589 31 29 22
-0.335753 0.0318087 0.13463 26 24 23
-0.336043 0.0331882 0.134446 29 25 21
-0.355779 0.0484162 0.119868 30 29 25
-0.354056 0.049315 0.1212 32 31 27
-0.352692 0.0503128 0.122261 34 33 27
-0.351339 0.051303 0.123314 36 35 29
-0.350672 0.0525058 0.123853 40 36 31
-0.350682 0.0539297 0.123883 46 41 34
-0.350692 0.0553572 0.123913 45 39 35
-0.350363 0.0566725 0.124198 52 46 35
-0.352424 0.0588178 0.12269 62 54 54
-0.355932 0.0614987 0.120098 118 87 82
-0.357375 0.0634819 0.119056 154 118 127
-0.357394 0.0649672 0.119081 228 183 167
-0.357054 0.0663242 0.119374 255 238 225
-0.357073 0.0678154 0.1194 253 255 248
-0.356732 0.0691744 0.119694 226 230 226
-0.356392 0.0705334 0.119988 160 159 160
-0.356052 0.0718926 0.120283 92 86 84
-0.355712 0.0732519 0.120577 65 60 49
-0.357166 0.0753316 0.119528 65 57 45
-0.356824 0.0767 0.119825 64 51 40
-0.337856 0.0183897 0.131173 46 37 31
-0.337552 0.0196042 0.131435 29 21 20
-0.337248 0.0208188 0.131698 20 11 15
-0.336646 0.021967 0.132187 16 11 15
-0.336046 0.0231126 0.132675 17 13 14
-0.335743 0.0243246 0.132937 20 13 13
-0.334557 0.0253259 0.13387 19 14 13
-0.335136 0.0267488 0.133462 17 16 12
-0.335719 0.0281819 0.133052 21 14 12
-0.335712 0.0294738 0.13309 23 15 14
-0.3363 0.0309235 0.132677 23 16 17
-0.337193 0.032463 0.132032 24 17 17
-0.355392 0.0486132 0.11852 29 28 23
-0.353671 0.0495111 0.119859 33 30 24
-0.352651 0.0506167 0.120666 34 34 24
-0.350957 0.0514978 0.121984 36 37 27
-0.350628 0.0528113 0.122268 39 36 30
-0.350299 0.0541248 0.122552 41 37 34
-0.350309 0.0555527 0.122581 44 40 34
-0.34998 0.0568681 0.122866 48 45 36
-0.351694 0.0588956 0.121605 58 52 48
-0.354483 0.0613254 0.119533 98 75 75
-0.356266 0.0634275 0.118222 135 132 113
-0.356641 0.0650391 0.117976 177 148 136
-0.356302 0.0663944 0.11827 229 196 201
-0.355962 0.0677499 0.118563 251 240 244
-0.355623 0.0691054 0.118857 246 251 245
-0.355284 0.070461 0.11915 205 219 209
-0.354944 0.0718168 0.119444 139 164 144
-0.354605 0.0731726 0.119737 82 100 84
-0.35462 0.0746714 0.119763 62 58 61
-0.354991 0.0763196 0.119521 63 57 47
-0.354295 0.0775339 0.120084 60 50 42
-0.353955 0.0788937 0.120378 55 53 43
-0.352907 0.0799533 0.121206 56 50 36
-0.337801 0.0186303 0.129712 55 39 27
-0.337199 0.0197823 0.130203 38 27 20
-0.336895 0.020997 0.130466 23 14 16
-0.33659 0.0222118 0.130729 17 12 16
-0.33599 0.0233586 0.131219 18 13 13
-0.33539 0.0245027 0.131708 19 13 10
-0.334205 0.0255036 0.132644 17 16 11
-0.334783 0.0269272 0.132233 18 17 12
-0.335366 0.028361 0.131818 20 14 13
-0.33625 0.0298811 0.131172 21 14 13
-0.337143 0.0314157 0.130521 22 14 15
-0.355005 0.0488103 0.117172 29 28 23
-0.353285 0.0497073 0.118517 31 29 25
-0.352267 0.0508125 0.119328 33 33 25
-0.350575 0.0516928 0.120653 36 36 28
-0.350246 0.0530063 0.120937 38 35 29
-0.350255 0.0544328 0.120963 41 36 32
-0.349926 0.0557482 0.121248 45 40 33
-0.350274 0.057297 0.121016 48 45 38
-0.350966 0.0589731 0.120523 55 50 45
-0.353394 0.061277 0.118707 79 70 75
-0.355873 0.0636289 0.116853 149 131 115
-0.355534 0.0649807 0.117146 168 137 121
-0.355196 0.0663327 0.117438 191 158 155
-0.355212 0.0678182 0.117461 228 211 217
-0.354873 0.0691722 0.117754 249 246 248
-0.354534 0.0705261 0.118047 237 248 240
-0.353842 0.0717414 0.118609 206 229 204
-0.353503 0.0730939 0.118902 155 192 145
-0.353517 0.0745887 0.118927 92 119 87
-0.353178 0.0759431 0.11922 63 55 52
-0.353191 0.0774439 0.119245 60 55 44
-0.352852 0.0788003 0.119539 57 54 43
-0.35181 0.0798575 0.120366 59 53 39
-0.337442 0.0200891 0.12851 40 33 24
-0.337137 0.0213067 0.128774 24 21 20
-0.336534 0.0224573 0.129267 19 14 14
-0.335933 0.0236052 0.129759 18 13 10
-0.335333 0.0247505 0.13025 17 15 11
-0.335029 0.0259643 0.130513 16 16 13
-0.335316 0.0273234 0.13032 16 16 15
-0.335605 0.0286891 0.130127 18 15 14
-0.336492 0.0302144 0.129472 22 14 11
-0.3529 0.0499035 0.117176 29 27 27
-0.352225 0.0511175 0.117726 31 30 27
-0.350531 0.0519975 0.119061 36 32 28
-0.349863 0.0532014 0.119606 39 33 29
-0.349872 0.0546283 0.11963 43 37 29
-0.350221 0.0561742 0.119394 47 40 32
-0.35057 0.0577281 0.119157 49 43 38
-0.35058 0.0591702 0.119182 52 45 43
-0.35231 0.0612288 0.117885 67 64 69
-0.354771 0.0635742 0.116027 142 113 108
-0.355141 0.0651822 0.115776 158 126 126
-0.354802 0.0665343 0.116069 164 133 132
-0.354464 0.0678865 0.116361 198 183 174
-0.354125 0.0692388 0.116654 234 236 225
-0.353787 0.0705911 0.116947 248 255 246
-0.353448 0.0719436 0.117239 241 253 232
-0.35311 0.0732962 0.117532 198 232 188
-0.352771 0.0746488 0.117825 125 154 123
-0.352432 0.0760016 0.118118 76 60 65
-0.352094 0.0773544 0.11841 61 57 46
-0.351755 0.0787074 0.118703 59 54 43
-0.351416 0.0800604 0.118996 62 53 40
-0.349029 0.0865114 0.120991 55 47 40
-0.348691 0.0878615 0.121284 54 43 38
-0.337082 0.0215516 0.127306 28 27 24
-0.336478 0.0227033 0.127802 22 16 13
-0.335876 0.0238524 0.128296 19 15 9
-0.335571 0.025069 0.12856 17 16 11
-0.335267 0.0262857 0.128823 17 16 14
-0.335555 0.027649 0.128626 17 15 15
-0.335845 0.0290187 0.128428 18 16 12
-0.352515 0.0500997 0.115834 31 28 25
-0.35184 0.0513136 0.116386 32 27 25
-0.350487 0.052303 0.117465 35 30 27
-0.349819 0.0535082 0.118012 41 33 28
-0.350167 0.0550513 0.117772 44 35 28
-0.350176 0.0564862 0.117795 46 39 32
-0.350185 0.0579249 0.117817 48 41 36
-0.350195 0.0593673 0.11784 47 41 42
-0.351576 0.0613041 0.1168 62 57 56
-0.353675 0.06352 0.115205 107 88 89
-0.354041 0.0651238 0.114952 155 126 137
-0.353703 0.0664724 0.115244 164 141 142
-0.353717 0.0679546 0.115264 173 160 142
-0.353379 0.0693052 0.115556 209 211 181
-0.353041 0.070656 0.115849 243 248 223
-0.352703 0.0720068 0.116141 242 243 225
-0.352365 0.0733577 0.116433 210 220 197
-0.352026 0.0747087 0.116726 158 174 150
-0.352038 0.0762041 0.116748 96 91 85
-0.351699 0.0775571 0.11704 63 58 51
-0.351361 0.0789102 0.117333 59 53 44
-0.351022 0.0802634 0.117626 61 51 42
-0.348636 0.0867144 0.119625 63 51 42
-0.348298 0.0880647 0.119917 61 53 47
-0.347616 0.089254 0.120474 55 47 43
-0.337026 0.0217971 0.125835 35 31 26
-0.336421 0.02295 0.126333 24 19 16
-0.335819 0.0241003 0.126829 19 16 10
-0.335514 0.0253184 0.127093 19 16 10
-0.335505 0.0266087 0.127124 19 14 13
-0.335795 0.0279761 0.126923 18 13 14
-0.336086 0.0293499 0.12672 17 14 13
-0.352461 0.0489723 0.114206 29 27 23
-0.352129 0.050296 0.114492 31 28 25
-0.351798 0.0516197 0.114779 32 29 25
-0.350783 0.0527205 0.115599 34 30 24
-0.350113 0.0539283 0.11615 38 33 25
-0.350122 0.0553618 0.11617 41 34 27
-0.350131 0.056799 0.116191 42 35 31
-0.350141 0.05824 0.116211 44 40 34
-0.35015 0.0596848 0.116232 48 48 41
-0.351188 0.0615026 0.115449 62 55 47
-0.353284 0.0637204 0.113842 88 74 81
-0.353297 0.065195 0.11386 179 154 137
-0.35331 0.0666736 0.113878 183 185 167
-0.352973 0.0680225 0.11417 163 145 142
-0.352635 0.0693716 0.114461 184 167 140
-0.352297 0.0707207 0.114753 227 223 179
-0.351959 0.0720699 0.115045 224 219 199
-0.351622 0.0734192 0.115337 202 194 184
-0.351633 0.074911 0.115357 182 189 157
-0.351294 0.0762622 0.11565 122 140 110
-0.350956 0.0776135 0.115942 72 71 66
-0.350618 0.078965 0.116234 58 52 46
-0.350628 0.0804664 0.116256 56 49 43
-0.34858 0.0855672 0.117966 64 39 31
-0.348242 0.0869175 0.118258 68 54 44
-0.34756 0.0881083 0.118817 70 67 60
-0.346881 0.0892962 0.119376 64 63 59
-0.345523 0.0901579 0.120461 55 51 50
-0.34384 0.0908516 0.121799 50 43 41
-0.342839 0.0918617 0.122607 49 41 34
-0.33667 0.0219763 0.124596 42 36 26
-0.336365 0.0231973 0.12486 29 23 23
-0.336059 0.0244183 0.125124 21 15 14
-0.336051 0.0257106 0.125153 20 15 11
-0.335745 0.0269333 0.125418 19 13 12
-0.336036 0.0283047 0.125211 17 13 14
-0.336328 0.0296828 0.125004 16 13 15
-0.336622 0.0310674 0.124796 16 14 14
-0.352419 0.0492756 0.112593 28 27 23
-0.351744 0.0504922 0.11315 30 27 22
-0.351413 0.0518161 0.113436 33 27 21
-0.35074 0.0530282 0.113992 36 28 21
-0.350068 0.0542373 0.114546 37 31 24
-0.350077 0.0556731 0.114564 39 35 29
-0.350086 0.0571127 0.114582 39 36 33
-0.349755 0.0584371 0.114869 41 36 33
-0.349764 0.0598822 0.114887 50 43 36
-0.351144 0.0618251 0.113827 66 50 38
-0.352892 0.0639208 0.112479 79 65 66
-0.352905 0.0653959 0.112495 141 133 111
-0.352567 0.0667431 0.112786 165 178 154
-0.35258 0.0682239 0.112803 153 160 151
-0.352242 0.069573 0.113095 162 124 127
-0.351904 0.0709223 0.113386 198 162 140
-0.351218 0.0721328 0.113952 200 203 186
-0.350881 0.0734805 0.114244 177 196 195
-0.350891 0.0749705 0.114262 178 181 165
-0.350553 0.0763202 0.114554 163 152 139
-0.350562 0.0778161 0.114573 101 108 95
-0.350224 0.0791676 0.114865 63 57 49
-0.349886 0.0805193 0.115158 52 45 40
-0.349547 0.081871 0.11545 57 40 34
-0.348187 0.0857702 0.116598 73 55 36
-0.347505 0.0869626 0.11716 69 52 50
-0.346825 0.0881519 0.11772 87 75 74
-0.345807 0.089178 0.118546 86 85 83
-0.343785 0.0897177 0.120159 70 72 72
-0.342784 0.0907308 0.120971 60 56 56
-0.341788 0.0917387 0.121779 51 49 43
-0.341125 0.0929043 0.122325 46 44 35
-0.336308 0.0234452 0.123383 33 30 27
-0.336301 0.0247379 0.12341 21 15 16
-0.335994 0.025962 0.123675 20 16 12
-0.336286 0.0273328 0.123465 17 14 12
-0.336278 0.028635 0.123492 16 14 13
-0.336572 0.0300172 0.12328 16 15 14
-0.337169 0.0314849 0.122827 17 15 13
-0.352722 0.0496877 0.110702 25 25 22
-0.351701 0.0507977 0.111536 29 25 21
-0.351027 0.0520126 0.112094 34 26 20
-0.350695 0.0533367 0.11238 35 26 21
-0.350023 0.054547 0.112937 37 30 24
