ply
format ascii 1.0
element vertex 1270
property float x
property float y
property float z
property uchar diffuse_red
property uchar diffuse_green
property uchar diffuse_blue
end_header
-0.484155 0.214747 0.293318 58 56 56
-0.483696 0.216591 0.293725 33 46 51
-0.483236 0.218435 0.294133 20 46 52
-0.482776 0.22028 0.29454 14 48 55
-0.482316 0.222124 0.294947 10 48 51
-0.481145 0.223508 0.295407 11 48 51
-0.479979 0.224887 0.295866 11 48 50
-0.477415 0.225337 0.296423 10 47 53
-0.476959 0.227166 0.296827 9 45 55
-0.430948 0.206053 0.301743 10 45 45
-0.422534 0.202093 0.302625 9 46 47
-0.421618 0.203315 0.303009 10 44 49
-0.421223 0.2049 0.303359 11 44 47
-0.420827 0.206486 0.30371 11 44 44
-0.420432 0.208072 0.30406 11 41 41
-0.420037 0.209658 0.30441 9 38 39
-0.419641 0.211244 0.304761 10 37 41
-0.419246 0.21283 0.305111 8 40 50
-0.418851 0.214417 0.305462 10 54 68
-0.417941 0.215619 0.305841 24 83 93
-0.417547 0.217203 0.306191 50 119 119
-0.416641 0.2184 0.306569 67 137 136
-0.416246 0.219982 0.306918 79 147 140
-0.415344 0.221173 0.307295 83 120 116
-0.41495 0.222752 0.307644 80 91 84
-0.415063 0.224728 0.307967 73 70 61
-0.483878 0.217326 0.291824 53 59 55
-0.483417 0.219173 0.292232 27 46 51
-0.482957 0.221021 0.29264 13 48 53
-0.482496 0.222869 0.293048 12 46 51
-0.482035 0.224717 0.293457 11 47 52
-0.480863 0.226099 0.29392 12 47 53
-0.478988 0.227009 0.294436 11 46 54
-0.477127 0.227913 0.294948 9 46 56
-0.475974 0.229278 0.295405 8 47 54
-0.476214 0.231578 0.295758 9 48 52
-0.444697 0.216168 0.299112 8 47 49
-0.432823 0.209853 0.300287 8 48 52
-0.42858 0.20879 0.300914 9 44 51
-0.423374 0.207001 0.301599 10 45 50
-0.422976 0.208599 0.301952 10 45 47
-0.422053 0.209819 0.302339 10 42 43
-0.421656 0.211415 0.302692 9 41 42
-0.421258 0.213011 0.303044 11 36 41
-0.42086 0.214607 0.303397 10 36 41
-0.420462 0.216204 0.30375 7 39 48
-0.419545 0.217411 0.304134 9 51 60
-0.41863 0.218615 0.304517 20 69 75
-0.417718 0.219815 0.3049 36 85 87
-0.416809 0.221011 0.305281 51 93 101
-0.415903 0.222204 0.30566 66 111 109
-0.415508 0.223789 0.30601 71 104 95
-0.415113 0.225374 0.30636 70 83 73
-0.415227 0.22736 0.306683 69 64 59
-0.484061 0.218063 0.289916 66 71 60
-0.484319 0.220371 0.290263 39 58 54
-0.484577 0.222688 0.290611 17 48 52
-0.484114 0.224546 0.291021 13 49 52
-0.483651 0.226404 0.291432 13 49 51
-0.482469 0.227791 0.291901 12 48 53
-0.479869 0.22823 0.292485 13 48 54
-0.478702 0.229603 0.292949 12 47 54
-0.475444 0.229561 0.293579 11 46 52
-0.471549 0.229056 0.294253 9 48 52
-0.468392 0.229018 0.294863 8 50 52
-0.457701 0.225812 0.2964 9 50 53
-0.440277 0.215663 0.298059 8 48 53
-0.43194 0.211746 0.299013 8 45 52
-0.428791 0.211434 0.299575 9 45 53
-0.426227 0.211512 0.300089 10 45 50
-0.424756 0.212355 0.300522 10 44 45
-0.423294 0.213194 0.300952 9 46 45
-0.422894 0.2148 0.301307 12 39 42
-0.422494 0.216406 0.301661 10 35 37
-0.421043 0.21723 0.302087 9 31 35
-0.420122 0.21844 0.302475 8 32 39
-0.418686 0.219254 0.302896 9 41 50
-0.417772 0.220455 0.303281 13 59 68
-0.417375 0.222047 0.303632 25 76 82
-0.416465 0.223242 0.304016 42 98 100
-0.416069 0.224832 0.304367 59 107 108
-0.415673 0.226422 0.304718 70 95 93
-0.415788 0.228416 0.305039 72 68 62
-0.485226 0.221577 0.288279 60 61 57
-0.485488 0.223905 0.288625 32 50 47
-0.485023 0.22577 0.289036 14 45 47
-0.484558 0.227635 0.289448 11 49 51
-0.48337 0.229025 0.289923 13 44 52
-0.48147 0.229933 0.290458 13 44 53
-0.479583 0.230835 0.290989 13 47 52
-0.47771 0.231731 0.291516 12 48 51
-0.475153 0.232146 0.292098 11 48 51
-0.471254 0.231618 0.292786 9 48 52
-0.457193 0.226084 0.294648 11 52 51
-0.439792 0.215923 0.296386 10 48 52
-0.43425 0.213971 0.297159 10 47 50
-0.431057 0.21364 0.297739 10 47 52
-0.427915 0.213313 0.298311 10 46 52
-0.42643 0.214157 0.298752 10 46 50
-0.425489 0.215386 0.29915 9 48 49
-0.424551 0.216611 0.299547 10 43 45
-0.424148 0.218228 0.299904 7 36 38
-0.423213 0.219447 0.300299 7 29 32
-0.421754 0.220266 0.30073 8 27 30
-0.420303 0.221079 0.301159 7 34 37
-0.419382 0.222285 0.30155 5 48 54
-0.418982 0.223887 0.301903 14 67 72
-0.418064 0.225087 0.302292 25 82 89
-0.417149 0.226283 0.302679 47 104 104
-0.417267 0.228286 0.302998 66 108 102
-0.417385 0.230296 0.303318 74 90 84
-0.416985 0.231898 0.303672 69 64 62
-0.486871 0.223259 0.28621 70 68 56
-0.487137 0.225603 0.286554 56 53 51
-0.486669 0.227478 0.286968 28 45 47
-0.486202 0.229354 0.287382 14 45 51
-0.483553 0.229789 0.287997 12 45 53
-0.482367 0.231175 0.288474 11 48 51
-0.48047 0.232076 0.289014 11 48 52
-0.478587 0.23297 0.28955 11 46 52
-0.474622 0.23243 0.290267 11 45 52
-0.470728 0.231899 0.290972 11 46 51
-0.439885 0.216591 0.294663 11 48 53
-0.434896 0.215026 0.295415 12 47 50
-0.43336 0.21588 0.295874 11 48 53
-0.429625 0.215137 0.29651 10 48 55
-0.428124 0.215981 0.296959 9 48 55
-0.427175 0.217215 0.297363 9 48 55
-0.425689 0.218048 0.297807 11 45 49
-0.424748 0.219273 0.298207 7 34 39
-0.423277 0.220096 0.298647 6 28 33
-0.422343 0.221313 0.299045 6 31 32
-0.420886 0.222126 0.29948 7 40 38
-0.419961 0.223334 0.299874 7 47 50
-0.419038 0.224538 0.300267 9 57 65
-0.418119 0.225739 0.300658 14 72 78
-0.417719 0.227342 0.301012 29 91 95
-0.41732 0.228944 0.301366 52 107 109
-0.417438 0.230958 0.301684 69 106 106
-0.417038 0.232563 0.302038 67 74 71
-0.487328 0.226366 0.284608 66 63 56
-0.486126 0.227768 0.285095 41 53 48
-0.485659 0.229643 0.285509 20 44 51
-0.483013 0.230077 0.286133 13 48 50
-0.48111 0.230984 0.286683 11 48 52
-0.478512 0.231407 0.287295 11 47 53
-0.474549 0.230881 0.288032 11 48 52
-0.474092 0.232714 0.288437 11 49 52
-0.44098 0.215987 0.292512 14 48 48
-0.435961 0.214425 0.293294 9 45 51
-0.434416 0.215283 0.293761 9 46 51
-0.432881 0.216137 0.294224 10 47 52
-0.430802 0.216585 0.294733 9 48 54
-0.429291 0.217428 0.29519 8 51 57
-0.428335 0.218666 0.295598 10 54 59
-0.426838 0.219498 0.296051 14 48 56
-0.425891 0.220727 0.296456 9 31 39
-0.424409 0.22155 0.296903 8 33 43
-0.422936 0.222367 0.297348 11 47 49
-0.422002 0.223582 0.297748 15 57 54
-0.421071 0.224794 0.298146 14 56 58
-0.419618 0.225596 0.298584 9 49 60
-0.418694 0.2268 0.29898 9 61 70
-0.418293 0.228407 0.299335 17 76 84
-0.417893 0.230015 0.299689 37 98 101
-0.418012 0.232037 0.300006 60 111 110
-0.417611 0.233647 0.300361 71 96 94
-0.41773 0.235678 0.300679 71 68 62
-0.486316 0.228535 0.283145 64 63 56
-0.485116 0.229933 0.283635 37 48 45
-0.482473 0.230366 0.284269 19 45 47
-0.479858 0.230794 0.284897 14 46 51
-0.476569 0.230744 0.285588 11 48 52
-0.474018 0.231165 0.286201 11 48 50
-0.472181 0.232052 0.286741 12 47 50
-0.451723 0.222093 0.289421 15 47 48
-0.440492 0.216248 0.29083 13 48 48
-0.436047 0.215084 0.29158 8 46 50
-0.434499 0.215943 0.292053 9 46 50
-0.433523 0.217199 0.292471 11 47 51
-0.431991 0.218046 0.292939 10 50 56
-0.429916 0.218485 0.293454 10 59 62
-0.428956 0.219726 0.293866 14 66 65
-0.427998 0.220962 0.294277 12 50 61
-0.425959 0.221385 0.294782 12 44 49
-0.425012 0.222611 0.295189 22 63 69
-0.423533 0.223428 0.29564 31 77 78
-0.422063 0.224239 0.296089 31 77 75
-0.42113 0.225452 0.29649 24 65 67
-0.420727 0.227069 0.296847 13 50 61
-0.419798 0.228276 0.297247 9 53 64
-0.419395 0.229891 0.297604 13 66 73
-0.418992 0.231506 0.29796 24 85 88
-0.419114 0.23354 0.298275 42 103 104
-0.41871 0.235158 0.298633 64 113 109
-0.418307 0.236777 0.29899 70 88 81
-0.417904 0.238395 0.299347 68 68 63
-0.485772 0.228825 0.281267 73 62 53
-0.484573 0.230223 0.28176 60 56 51
-0.481214 0.230176 0.282481 31 45 46
-0.477903 0.23013 0.283192 16 46 50
-0.474639 0.230085 0.283893 10 47 52
-0.474181 0.231921 0.284298 11 47 52
-0.443952 0.217288 0.28842 14 49 46
-0.438845 0.215694 0.289263 12 49 49
-0.435564 0.215343 0.289917 9 48 49
-0.434018 0.216201 0.290395 11 49 49
-0.433043 0.217456 0.290816 11 48 52
-0.43207 0.218708 0.291235 12 56 61
-0.430545 0.21955 0.291707 15 67 68
-0.429029 0.220386 0.292175 16 67 67
-0.42807 0.221624 0.292589 10 50 59
-0.427115 0.222858 0.293002 23 80 80
-0.425079 0.223271 0.293512 44 102 99
-0.423597 0.224087 0.29397 49 101 101
-0.422657 0.225306 0.294377 44 90 90
-0.42172 0.226521 0.294782 33 74 75
-0.420786 0.227732 0.295187 20 59 65
-0.419855 0.22894 0.29559 11 50 60
-0.419452 0.230558 0.295947 10 57 64
-0.419574 0.232593 0.296259 15 71 76
-0.419697 0.234636 0.296573 28 90 93
-0.419293 0.236259 0.296931 48 109 110
-0.418888 0.237882 0.297289 66 109 107
-0.41901 0.239936 0.297605 68 78 74
-0.418604 0.241562 0.297964 68 64 60
-0.481139 0.228601 0.280209 70 63 55
-0.477828 0.228567 0.280936 61 49 49
-0.477367 0.230416 0.281344 28 49 54
-0.476906 0.232266 0.281752 14 47 53
-0.451151 0.220896 0.285572 11 46 55
-0.440519 0.215494 0.287032 11 44 53
-0.436636 0.214739 0.287766 9 49 51
-0.435082 0.215602 0.288253 8 47 53
-0.433538 0.216459 0.288737 12 49 55
-0.432562 0.217714 0.28916 12 57 63
-0.43159 0.218966 0.289582 22 72 73
-0.430067 0.219807 0.290059 23 75 76
-0.429103 0.221049 0.290478 14 69 74
-0.428142 0.222288 0.290895 23 80 83
-0.427185 0.223523 0.291311 48 112 113
-0.425146 0.223934 0.291831 48 111 114
-0.424199 0.225159 0.292243 46 103 108
-0.42272 0.225969 0.292704 44 94 97
-0.422314 0.227597 0.293063 39 83 83
-0.421908 0.229225 0.293422 25 67 68
-0.420971 0.230436 0.29383 13 50 59
-0.420566 0.232061 0.294189 8 51 60
-0.42069 0.234109 0.2945 12 61 67
-0.420816 0.236163 0.294812 19 75 81
-0.420409 0.237795 0.295172 31 93 99
-0.420002 0.239426 0.295532 65 120 115
-0.419596 0.241057 0.295892 70 90 86
-0.41866 0.242252 0.296297 69 70 66
-0.477293 0.228853 0.279088 70 62 58
-0.440451 0.214068 0.284974 9 48 57
-0.436569 0.213327 0.285728 7 48 57
-0.435583 0.214596 0.286159 7 50 56
-0.434034 0.215457 0.28665 7 50 56
-0.433057 0.216717 0.287078 6 56 66
-0.432082 0.217972 0.287504 20 75 77
-0.431111 0.219223 0.287929 25 83 87
-0.429588 0.220064 0.288411 24 80 87
-0.428626 0.221306 0.288832 30 85 89
-0.427666 0.222544 0.289252 50 111 110
-0.427255 0.22419 0.289615 50 119 122
-0.426299 0.225422 0.290033 47 107 111
-0.424264 0.225824 0.290559 46 103 107
-0.423319 0.227046 0.290973 47 100 101
-0.422912 0.228679 0.291333 41 87 86
-0.423041 0.230731 0.291641 20 63 64
-0.42317 0.23279 0.29195 13 49 55
-0.422762 0.234428 0.292311 9 50 58
-0.423431 0.236927 0.292571 10 55 63
-0.423561 0.239005 0.292883 18 65 72
-0.423151 0.240652 0.293246 36 82 85
-0.42274 0.242299 0.29361 73 116 104
-0.421791 0.243504 0.294022 71 97 95
-0.420844 0.244705 0.294433 69 73 72
-0.437491 0.210641 0.283254 54 61 58
-0.436502 0.211915 0.28369 53 60 59
-0.435515 0.213186 0.284124 54 60 58
-0.433967 0.214052 0.284622 55 58 57
-0.43299 0.215314 0.285053 43 63 60
-0.432015 0.216571 0.285482 31 77 79
-0.431044 0.217825 0.28591 40 97 96
-0.430075 0.219075 0.286337 31 93 97
-0.42911 0.22032 0.286762 32 94 98
-0.428148 0.221562 0.287186 47 112 112
-0.427189 0.222801 0.287609 56 126 126
-0.426779 0.224446 0.287972 47 107 113
-0.426368 0.226092 0.288335 46 104 108
-0.425413 0.227322 0.288755 47 102 106
-0.425004 0.228965 0.289117 48 97 97
-0.424594 0.230609 0.28948 39 79 76
-0.424726 0.232677 0.289787 18 52 52
-0.424316 0.234323 0.29015 10 49 51
-0.423905 0.23597 0.290513 9 49 55
-0.424581 0.238485 0.290768 12 54 62
-0.424169 0.240137 0.291132 28 65 73
-0.423757 0.24179 0.291497 55 79 83
-0.423345 0.243442 0.291861 78 91 86
-0.422392 0.244649 0.292278 73 85 84
-0.421441 0.245852 0.292692 70 71 65
-0.430977 0.216427 0.283891 52 102 102
-0.430009 0.217678 0.284321 36 96 103
-0.429044 0.218927 0.284749 34 96 103
-0.428082 0.220171 0.285177 46 112 115
-0.427671 0.221819 0.28554 56 124 125
-0.426712 0.223057 0.285965 50 112 117
-0.426302 0.224703 0.286328 48 102 107
-0.425891 0.226349 0.286691 47 104 106
-0.425481 0.227995 0.287054 53 102 101
-0.425615 0.230062 0.287358 45 80 81
-0.425204 0.231711 0.287721 33 56 59
-0.424793 0.23336 0.288085 25 45 47
-0.424926 0.23544 0.288391 22 50 51
-0.42506 0.237526 0.288697 16 50 52
-0.425194 0.239619 0.289005 14 54 60
-0.425328 0.241719 0.289314 32 68 74
-0.424914 0.243379 0.28968 59 77 80
-0.4245 0.24504 0.290046 70 65 63
-0.422996 0.245801 0.290522 72 65 57
-0.422584 0.247456 0.290887 72 65 54
-0.430354 0.214629 0.28194 53 95 98
-0.429389 0.215882 0.282372 43 102 109
-0.428426 0.217131 0.282803 34 96 105
-0.427466 0.218376 0.283233 44 112 117
-0.427056 0.220022 0.283596 50 122 126
-0.426646 0.221668 0.283959 48 117 122
-0.426235 0.223313 0.284321 46 107 110
-0.426371 0.225373 0.28462 46 105 110
-0.42596 0.227022 0.284984 48 107 106
-0.426095 0.229091 0.285285 57 86 91
-0.425683 0.230743 0.285649 63 69 66
-0.425271 0.232394 0.286013 65 59 47
-0.425405 0.234476 0.286316 62 55 46
-0.426089 0.236998 0.286558 55 52 54
-0.425675 0.238658 0.286924 37 53 54
-0.425261 0.240319 0.28729 31 54 56
-0.425396 0.242423 0.287597 44 60 61
-0.424981 0.244086 0.287964 61 66 60
-0.424566 0.245749 0.28833 66 63 51
-0.429734 0.212837 0.279996 54 93 91
-0.42877 0.214091 0.28043 46 110 112
-0.42781 0.215341 0.280863 34 98 106
-0.426853 0.216587 0.281295 41 108 113
-0.426443 0.21823 0.281657 51 123 127
-0.426579 0.220278 0.281952 51 119 124
-0.426169 0.221924 0.282314 46 108 113
-0.426304 0.223981 0.28261 45 104 108
-0.425893 0.22563 0.282974 45 103 109
-0.426028 0.227697 0.283271 54 97 95
-0.425616 0.229349 0.283635 64 74 69
-0.425751 0.231425 0.283934 66 62 55
-0.425338 0.23308 0.284299 64 60 51
-0.426022 0.235598 0.284535 65 60 50
-0.425608 0.237258 0.284901 68 62 55
-0.425743 0.239358 0.285203 64 63 53
-0.425328 0.241021 0.28557 63 61 50
-0.425463 0.24313 0.285874 66 62 50
-0.429667 0.211443 0.277982 58 91 93
-0.428704 0.212699 0.27842 51 111 111
-0.427744 0.213951 0.278856 39 103 109
-0.426787 0.215199 0.279291 39 104 109
-0.425833 0.216444 0.279725 53 125 126
-0.425967 0.218486 0.280016 52 121 125
-0.425557 0.220129 0.280378 48 109 115
-0.425692 0.22218 0.28067 46 103 108
-0.425826 0.224238 0.280963 47 103 106
-0.425415 0.225887 0.281327 54 99 101
-0.425549 0.227955 0.281621 60 74 76
-0.425684 0.230029 0.281917 63 65 56
-0.425271 0.231683 0.282282 68 64 51
-0.429048 0.209658 0.276047 61 88 90
-0.428088 0.210915 0.276487 54 106 111
-0.42713 0.212168 0.276925 44 106 115
-0.426176 0.213417 0.277363 42 102 110
-0.425766 0.215058 0.277724 50 118 123
-0.425357 0.216699 0.278086 52 123 127
-0.424948 0.21834 0.278447 49 112 116
-0.425081 0.220385 0.278736 46 104 108
-0.425214 0.222437 0.279025 46 103 106
-0.425348 0.224495 0.279316 50 96 102
-0.424937 0.226144 0.279679 57 76 87
-0.42507 0.228212 0.279971 65 65 61
-0.424658 0.229864 0.280335 69 62 54
-0.428982 0.208266 0.274036 61 83 82
-0.428021 0.209525 0.274479 55 105 107
-0.427064 0.21078 0.274921 47 109 115
-0.426109 0.212032 0.275362 40 101 112
-0.425158 0.213279 0.275801 46 112 120
-0.424749 0.214917 0.276162 53 126 132
-0.424341 0.216556 0.276523 48 113 120
-0.425015 0.218997 0.276731 47 106 111
-0.425148 0.221047 0.277018 47 104 107
-0.424737 0.222693 0.27738 50 100 101
-0.42487 0.224752 0.277668 57 88 87
-0.424459 0.226402 0.278032 61 68 67
-0.424592 0.22847 0.278321 68 64 58
-0.428915 0.206873 0.272025 62 80 78
-0.427955 0.208135 0.272472 57 106 105
-0.426998 0.209392 0.272917 48 111 115
-0.426043 0.210646 0.27336 41 106 113
-0.424551 0.211506 0.273883 42 111 116
-0.423605 0.212751 0.274323 52 123 126
-0.423735 0.214777 0.274604 50 117 125
-0.423866 0.216811 0.274885 47 106 115
-0.424538 0.219253 0.275089 46 103 110
-0.424671 0.221303 0.275373 50 101 103
-0.424803 0.22336 0.275657 57 90 87
-0.424392 0.225009 0.27602 62 73 67
-0.423981 0.226659 0.276384 65 64 55
-0.428849 0.205481 0.270015 62 73 75
-0.427888 0.206744 0.270464 56 101 103
-0.426931 0.208004 0.270912 50 113 118
-0.425434 0.208874 0.271443 44 109 116
-0.423946 0.209738 0.271971 43 111 116
-0.423539 0.211371 0.272331 47 121 124
-0.423132 0.213005 0.272691 51 122 125
-0.422724 0.214638 0.27305 48 109 115
-0.422853 0.216668 0.273329 50 107 112
-0.424062 0.219509 0.273446 51 102 107
-0.424193 0.22156 0.273727 57 90 94
-0.424325 0.223617 0.274009 62 76 74
-0.423372 0.224853 0.274452 65 67 58
-0.427684 0.20333 0.268184 65 75 74
-0.427275 0.204973 0.268546 56 94 99
-0.42632 0.206233 0.268996 52 114 121
-0.424827 0.207107 0.269532 45 109 119
-0.423343 0.207976 0.270065 45 109 117
-0.422402 0.209222 0.27051 49 119 123
-0.421996 0.21085 0.270868 50 123 127
-0.422123 0.212868 0.271143 47 112 118
-0.422251 0.214892 0.271418 46 105 110
-0.422379 0.216922 0.271694 53 107 108
-0.423045 0.219361 0.271887 57 96 100
-0.423175 0.221409 0.272165 62 77 79
-0.423305 0.223463 0.272444 65 66 63
-0.427072 0.201566 0.266272 67 71 68
-0.426663 0.203206 0.266633 60 86 89
-0.425169 0.20409 0.267177 55 118 120
-0.424222 0.205346 0.267627 44 112 121
-0.422742 0.206219 0.268165 44 108 118
-0.421804 0.207466 0.268612 51 117 124
-0.421398 0.209092 0.26897 53 122 126
-0.420993 0.210717 0.269328 50 116 121
-0.421118 0.212732 0.269599 46 105 113
-0.421244 0.214752 0.269871 45 103 110
-0.42137 0.21678 0.270144 53 102 101
-0.421496 0.218813 0.270418 60 81 82
-0.42216 0.221259 0.270607 65 66 64
-0.425511 0.201072 0.264821 62 83 81
-0.424563 0.202333 0.265275 56 110 110
-0.423618 0.20359 0.265728 48 119 125
-0.422677 0.204844 0.266179 42 109 116
-0.421738 0.206093 0.266629 45 116 123
-0.420802 0.207338 0.267077 52 123 128
-0.420397 0.208962 0.267434 52 118 122
-0.420521 0.21097 0.267702 47 106 113
-0.420116 0.212596 0.26806 45 102 109
-0.42024 0.214613 0.268329 47 101 106
-0.420364 0.216637 0.2686 55 87 88
-0.421022 0.219068 0.268782 62 67 65
-0.424904 0.19932 0.262923 62 77 76
-0.424497 0.200953 0.263282 57 101 105
-0.423552 0.202213 0.263738 52 120 127
-0.422611 0.203468 0.264192 42 106 117
-0.421672 0.204719 0.264645 42 114 118
-0.420736 0.205967 0.265097 50 125 127
-0.420331 0.20759 0.265454 50 119 124
-0.419926 0.209214 0.265811 46 109 116
-0.419522 0.210837 0.266168 45 104 109
-0.419644 0.212849 0.266434 47 99 104
-0.419767 0.214867 0.266701 52 92 93
-0.419361 0.216495 0.26706 57 68 69
-0.4243 0.197574 0.261031 62 75 74
-0.423893 0.199204 0.261389 58 96 98
-0.422951 0.200464 0.261847 53 120 123
-0.422012 0.20172 0.262304 42 109 122
-0.421606 0.203346 0.262661 42 108 118
-0.420671 0.204596 0.263116 47 122 128
-0.419738 0.205842 0.263569 50 124 128
-0.419861 0.207842 0.26383 47 113 118
-0.419456 0.209466 0.264188 45 105 110
-0.419051 0.211089 0.264545 47 103 106
-0.419173 0.213101 0.264808 52 98 97
-0.418767 0.214728 0.265166 55 77 77
-0.423697 0.195833 0.259144 64 72 69
-0.422757 0.197096 0.259605 61 92 91
-0.42182 0.198355 0.260064 54 115 115
-0.421415 0.199978 0.260421 46 115 122
-0.420481 0.201231 0.260878 41 105 115
-0.420077 0.202852 0.261235 45 117 124
-0.419672 0.204473 0.261591 52 126 131
-0.419268 0.206093 0.261948 48 114 120
-0.418864 0.207714 0.262304 46 105 112
-0.418985 0.209718 0.262564 47 103 106
-0.41858 0.211342 0.262921 51 99 98
-0.418701 0.213354 0.263182 58 86 80
-0.418295 0.214981 0.26354 62 63 54
-0.422564 0.193738 0.257369 66 70 67
-0.422159 0.195361 0.257726 60 86 85
-0.421224 0.196621 0.258187 55 110 111
-0.42082 0.198241 0.258544 50 116 121
-0.419888 0.199495 0.259003 42 107 115
-0.419484 0.201113 0.259359 45 114 120
-0.419081 0.202731 0.259715 55 127 129
-0.419202 0.204724 0.25997 48 115 123
-0.418798 0.206345 0.260326 44 108 113
-0.418393 0.207966 0.260683 45 104 108
-0.418514 0.20997 0.26094 51 101 102
-0.418109 0.211594 0.261297 57 87 84
-0.417704 0.213218 0.261654 62 67 60
-0.421563 0.193631 0.255853 62 80 83
-0.421158 0.195251 0.256209 56 106 111
-0.420226 0.19651 0.256672 49 116 124
-0.419823 0.198128 0.257028 41 107 117
-0.419419 0.199746 0.257384 43 112 118
-0.419015 0.201364 0.25774 52 125 128
-0.418611 0.202982 0.258096 47 119 124
-0.418208 0.204601 0.258452 44 108 115
-0.418328 0.206596 0.258705 44 105 110
-0.417923 0.208218 0.259061 48 104 106
-0.418043 0.210222 0.259315 55 89 93
-0.417638 0.211846 0.259672 63 70 68
-0.420968 0.191906 0.253985 63 76 72
-0.420564 0.193524 0.254341 59 105 104
-0.420161 0.195142 0.254697 48 117 123
-0.419757 0.19676 0.255053 41 110 121
-0.419353 0.198378 0.255409 43 110 118
-0.41895 0.199996 0.255765 47 123 127
-0.418546 0.201615 0.25612 52 123 129
-0.418142 0.203233 0.256476 46 108 114
-0.417738 0.204852 0.256832 44 105 111
-0.417858 0.206848 0.257082 46 103 107
-0.417453 0.208469 0.257439 53 97 96
-0.417049 0.210091 0.257796 62 78 70
-0.420375 0.190187 0.252124 73 68 67
-0.420499 0.192156 0.252366 62 96 91
-0.420095 0.193774 0.252722 51 115 116
-0.419692 0.195392 0.253077 43 111 118
-0.419288 0.19701 0.253433 42 108 116
-0.418884 0.198629 0.253789 48 121 125
-0.41848 0.200247 0.254145 54 126 129
-0.418076 0.201866 0.254501 48 110 116
-0.417673 0.203484 0.254857 45 106 111
-0.417269 0.205103 0.255212 44 105 109
-0.417387 0.2071 0.25546 53 103 101
-0.416983 0.208721 0.255817 58 79 78
-0.416578 0.210343 0.256173 62 65 59
-0.419785 0.188473 0.250267 62 67 62
-0.419907 0.190436 0.250506 56 86 86
-0.419504 0.192052 0.250861 54 116 119
-0.419626 0.194024 0.251102 45 111 119
-0.419222 0.195642 0.251457 42 106 116
-0.418295 0.196899 0.251927 47 116 123
-0.418415 0.198879 0.252169 52 124 129
-0.418011 0.200498 0.252525 49 115 122
-0.417607 0.202116 0.252881 48 106 109
-0.417203 0.203735 0.253237 46 105 112
-0.416799 0.205354 0.253592 50 104 107
-0.416395 0.206973 0.253948 58 80 87
-0.416512 0.208973 0.254194 62 65 65
-0.416108 0.210595 0.254551 64 60 58
-0.419317 0.188722 0.248652 60 74 82
-0.418915 0.190335 0.249007 59 113 113
-0.419035 0.192301 0.249244 47 113 121
-0.418632 0.193917 0.249599 41 106 116
-0.418229 0.195533 0.249954 45 113 121
-0.417826 0.197149 0.250309 49 123 130
-0.417423 0.198765 0.250665 48 120 127
-0.417541 0.200748 0.250905 45 108 114
-0.417137 0.202367 0.25126 45 103 110
-0.416734 0.203986 0.251616 47 106 107
-0.41633 0.205605 0.251972 53 93 94
-0.415925 0.207225 0.252328 60 72 64
-0.415521 0.208844 0.252684 63 61 53
-0.418729 0.187012 0.246804 62 71 70
-0.418327 0.188623 0.247158 57 109 106
-0.418447 0.190584 0.247392 49 116 119
-0.418044 0.192197 0.247746 41 108 115
-0.417642 0.19381 0.248101 42 112 120
-0.41776 0.195783 0.248336 49 122 128
-0.417357 0.197399 0.248691 51 120 126
-0.416954 0.199015 0.249047 45 109 115
-0.417072 0.200999 0.249284 45 106 110
-0.416668 0.202618 0.24964 48 106 106
-0.416264 0.204237 0.249996 55 102 97
-0.41586 0.205857 0.250351 62 77 70
-0.415456 0.207476 0.250707 65 66 58
-0.418142 0.185308 0.244961 61 70 67
-0.417741 0.186916 0.245315 52 95 95
-0.41786 0.188871 0.245545 52 123 125
-0.417458 0.190482 0.245899 42 107 114
-0.417056 0.192093 0.246253 41 110 115
-0.417174 0.19406 0.246485 49 123 127
-0.416771 0.195673 0.24684 50 123 127
-0.416888 0.197649 0.247073 46 113 118
-0.416485 0.199265 0.247428 46 107 111
-0.416602 0.20125 0.247663 47 107 109
-0.416198 0.202869 0.248019 54 102 101
-0.415794 0.204488 0.248375 60 73 78
-0.41539 0.206108 0.248731 63 63 59
-0.417558 0.183609 0.243124 62 68 68
-0.417157 0.185214 0.243477 55 86 92
-0.417275 0.187164 0.243704 52 119 122
-0.417393 0.18912 0.243932 39 110 118
-0.416991 0.190731 0.244285 39 108 114
-0.416589 0.192342 0.244639 46 119 124
-0.416186 0.193953 0.244993 50 121 128
-0.416303 0.195923 0.245224 47 114 121
-0.4159 0.197537 0.245578 44 107 111
-0.416016 0.199516 0.24581 46 106 108
-0.416132 0.201501 0.246042 49 102 105
-0.415728 0.20312 0.246398 58 83 87
-0.415324 0.20474 0.246754 68 62 56
-0.417493 0.18225 0.241163 60 64 65
-0.417092 0.183856 0.241515 60 78 84
-0.416691 0.185462 0.241868 57 114 116
-0.416291 0.187068 0.242221 44 114 120
-0.416407 0.189021 0.242446 38 106 114
-0.416005 0.190629 0.242799 44 118 123
-0.415604 0.192238 0.243153 48 124 130
-0.415719 0.194202 0.24338 48 116 122
-0.415317 0.195814 0.243734 45 107 113
-0.415432 0.197787 0.243962 44 105 109
-0.415547 0.199766 0.244191 49 104 104
-0.415663 0.201752 0.244421 57 94 90
-0.415258 0.203371 0.244776 62 68 63
-0.417428 0.180892 0.239201 63 64 61
-0.41651 0.182162 0.239686 58 80 77
-0.41611 0.183765 0.240038 54 106 104
-0.41571 0.185368 0.24039 48 119 122
-0.415309 0.186972 0.240742 39 104 110
-0.415424 0.188922 0.240965 39 114 119
-0.415023 0.190528 0.241317 49 126 130
-0.415137 0.192486 0.241541 47 119 125
-0.414736 0.194095 0.241894 45 109 115
-0.414849 0.196063 0.24212 44 106 111
-0.414447 0.197675 0.242473 48 104 107
-0.414561 0.199651 0.2427 57 93 92
-0.414674 0.201633 0.242927 65 69 68
-0.417363 0.179534 0.23724 66 67 59
-0.416445 0.180805 0.237727 59 75 71
-0.41553 0.182073 0.238213 53 99 101
-0.41513 0.183674 0.238565 51 119 122
-0.414731 0.185275 0.238916 40 106 115
-0.414331 0.186876 0.239268 40 107 114
-0.413932 0.188477 0.23962 48 125 127
-0.414557 0.190776 0.239708 49 120 125
-0.414156 0.192382 0.240061 45 111 116
-0.414269 0.194344 0.240283 43 106 111
-0.414382 0.196312 0.240505 46 104 109
-0.413979 0.197924 0.240859 51 94 100
-0.413577 0.199536 0.241213 59 76 80
-0.413689 0.201516 0.241437 65 62 58
-0.41638 0.179449 0.235768 63 69 68
-0.415465 0.180719 0.236257 54 92 94
-0.414042 0.181651 0.236881 49 115 121
-0.413135 0.182912 0.237366 42 110 120
-0.412737 0.184505 0.237716 40 106 115
-0.412339 0.186099 0.238066 46 119 125
-0.411942 0.187693 0.238416 50 124 127
-0.413578 0.190675 0.238233 47 112 118
-0.41369 0.192631 0.238451 45 108 112
-0.413289 0.194238 0.238804 45 105 109
-0.4134 0.196203 0.239024 51 99 102
-0.413512 0.198174 0.239244 59 85 84
-0.413109 0.199786 0.239598 62 66 64
-0.416315 0.178092 0.233809 64 65 62
-0.4154 0.179364 0.234301 59 85 86
-0.413468 0.17997 0.235069 50 111 114
-0.412563 0.181231 0.235556 41 113 120
-0.411661 0.182489 0.236041 40 106 114
-0.411265 0.184078 0.23639 46 117 120
-0.410868 0.185667 0.236739 53 128 131
-0.410471 0.187257 0.237088 48 114 120
-0.412094 0.190226 0.236898 44 107 114
-0.412203 0.192176 0.237113 44 107 111
-0.412823 0.194486 0.237194 49 103 103
-0.412421 0.196093 0.237547 59 88 85
-0.41202 0.1977 0.2379 65 72 67
-0.415222 0.176083 0.232137 63 66 62
-0.414311 0.177354 0.23263 60 82 79
-0.413404 0.178621 0.233121 54 106 106
-0.411993 0.179556 0.233751 46 115 120
-0.411093 0.180814 0.234239 39 107 114
-0.410196 0.182069 0.234725 43 113 119
-0.409801 0.183653 0.235073 54 127 128
-0.409905 0.185575 0.235284 51 119 123
-0.409509 0.187162 0.235632 46 108 112
-0.410115 0.189435 0.235707 44 105 111
-0.41022 0.191375 0.23592 48 105 108
-0.410831 0.193672 0.235997 54 92 92
-0.410938 0.195628 0.236212 64 75 68
-0.413626 0.173765 0.230619 65 63 59
-0.413229 0.175356 0.230969 57 77 76
-0.412832 0.176947 0.231318 51 103 103
-0.411929 0.178212 0.23181 47 116 118
-0.411029 0.179472 0.2323 41 109 116
-0.410132 0.180729 0.232789 42 111 116
-0.409737 0.182313 0.233137 48 123 128
-0.409341 0.183898 0.233485 51 124 127
-0.408945 0.185482 0.233832 47 109 114
-0.40855 0.187067 0.23418 44 106 110
-0.408652 0.188994 0.23439 46 104 110
-0.409255 0.191274 0.234461 51 94 100
-0.409359 0.193216 0.234672 58 77 75
-0.412658 0.173689 0.229171 62 71 72
-0.412261 0.175278 0.229519 55 95 99
-0.411361 0.176543 0.230013 46 113 119
-0.410463 0.177804 0.230506 40 110 118
-0.409568 0.179062 0.230997 40 109 116
-0.409173 0.180644 0.231344 47 119 123
-0.408779 0.182226 0.231691 49 124 127
-0.408384 0.183808 0.232038 46 112 118
-0.408486 0.185727 0.232244 44 107 110
-0.40809 0.187312 0.232592 44 106 108
-0.407694 0.188897 0.232939 49 102 101
-0.408294 0.191173 0.233006 56 80 81
-0.407897 0.192763 0.233355 64 67 61
-0.412089 0.172028 0.227378 64 67 64
-0.41119 0.173296 0.227875 59 90 92
-0.410795 0.17488 0.228222 50 110 116
-0.409899 0.176142 0.228717 42 110 119
-0.409504 0.177723 0.229064 40 107 115
-0.408612 0.178979 0.229556 44 117 121
-0.408218 0.180559 0.229902 50 123 127
-0.407823 0.182139 0.230249 48 114 120
-0.407924 0.184052 0.230452 44 105 111
-0.407529 0.185635 0.230799 45 107 108
-0.407134 0.187218 0.231146 49 105 103
-0.407234 0.189142 0.231351 55 87 82
-0.407334 0.191073 0.231556 59 67 63
-0.406938 0.19266 0.231904 64 62 53
-0.411126 0.171955 0.225938 58 84 81
-0.41023 0.173221 0.226436 52 108 109
-0.409337 0.174484 0.226933 44 112 119
-0.408942 0.176063 0.227279 40 107 116
-0.408548 0.177643 0.227625 44 114 121
-0.408154 0.179223 0.227972 50 123 127
-0.407759 0.180803 0.228318 49 116 122
-0.407365 0.182383 0.228665 47 106 111
-0.40697 0.183963 0.229012 45 104 109
-0.40707 0.185879 0.229212 48 104 107
-0.406675 0.187462 0.22956 55 89 92
-0.40628 0.189045 0.229907 60 71 65
-0.406378 0.190972 0.230109 61 60 54
-0.411062 0.170614 0.224002 56 78 77
-0.410166 0.171883 0.224503 54 106 105
-0.409273 0.173147 0.225002 47 113 117
-0.408878 0.174727 0.225348 42 108 116
-0.408484 0.176306 0.225695 45 113 119
-0.408089 0.177886 0.226041 50 122 126
-0.407695 0.179466 0.226388 51 119 124
-0.407301 0.181046 0.226734 47 108 114
-0.406906 0.182626 0.227081 47 105 109
-0.406512 0.184207 0.227427 48 104 109
-0.406117 0.185787 0.227774 53 94 99
-0.406215 0.187707 0.227973 61 70 72
-0.40582 0.18929 0.22832 63 63 57
-0.410997 0.169273 0.222065 59 70 73
-0.410102 0.170544 0.222569 53 99 102
-0.409209 0.17181 0.223071 48 112 118
-0.408814 0.17339 0.223418 42 108 117
-0.40842 0.17497 0.223764 43 110 117
-0.408025 0.17655 0.22411 52 120 124
-0.407631 0.17813 0.224457 56 121 126
-0.407236 0.17971 0.224803 50 110 117
-0.406842 0.18129 0.22515 47 105 110
-0.406447 0.18287 0.225496 46 103 108
-0.406053 0.184451 0.225842 52 102 103
-0.405658 0.186031 0.226189 59 78 78
-0.405264 0.187612 0.226536 65 62 57
-0.410432 0.167623 0.220288 61 66 66
-0.410038 0.169205 0.220635 55 93 94
-0.409145 0.170474 0.22114 48 111 116
-0.40875 0.172053 0.221486 42 108 118
-0.408356 0.173633 0.221833 40 109 117
-0.407467 0.174893 0.222335 46 119 124
-0.407073 0.176471 0.222681 53 122 127
-0.407172 0.178373 0.222872 53 113 119
-0.406778 0.179953 0.223218 48 106 112
-0.406383 0.181534 0.223565 47 104 109
-0.405989 0.183114 0.223911 50 102 104
-0.405594 0.184695 0.224258 58 85 85
-0.405199 0.186275 0.224604 66 66 57
-0.409475 0.167557 0.218863 56 88 85
-0.40908 0.169137 0.219209 50 113 112
-0.408686 0.170716 0.219555 41 111 117
-0.408292 0.172296 0.219901 40 107 116
-0.407403 0.173558 0.220407 45 116 122
-0.407009 0.175136 0.220753 49 122 127
-0.406615 0.176714 0.221098 49 116 121
-0.406714 0.178616 0.221287 46 107 112
-0.406319 0.180197 0.221633 45 105 110
-0.405924 0.181777 0.221979 48 101 106
-0.40553 0.183358 0.222326 55 89 92
-0.404645 0.184604 0.222828 62 68 64
-0.409411 0.16622 0.216931 57 77 78
-0.409016 0.167799 0.217278 52 108 107
-0.408622 0.169379 0.217624 45 112 117
-0.407732 0.170646 0.218133 40 107 115
-0.407339 0.172223 0.218478 44 113 119
-0.406945 0.173801 0.218824 49 121 126
-0.406551 0.175379 0.21917 49 118 123
-0.406157 0.176957 0.219515 46 107 113
-0.405763 0.178535 0.219861 45 104 109
-0.40586 0.18044 0.220048 47 102 106
-0.405465 0.182021 0.220394 52 93 96
-0.40458 0.183269 0.220899 60 67 71
-0.404186 0.184848 0.221245 67 65 55
-0.409347 0.164883 0.215 59 70 74
-0.408456 0.166156 0.215513 53 103 103
-0.408062 0.167733 0.215858 46 112 118
-0.407668 0.169311 0.216204 40 106 116
-0.406782 0.170576 0.216714 42 111 118
-0.406388 0.172151 0.217059 48 121 125
-0.405995 0.173727 0.217404 49 120 124
-0.405601 0.175302 0.217749 46 111 117
-0.405208 0.176878 0.218095 45 105 111
-0.405304 0.178778 0.218278 46 104 107
-0.40491 0.180356 0.218624 52 98 97
-0.404028 0.181605 0.21913 57 78 73
-0.403634 0.183181 0.219476 66 62 55
-0.40324 0.184758 0.219821 69 65 57
-0.408786 0.163243 0.213238 63 67 69
-0.408392 0.164821 0.213584 56 94 97
-0.407504 0.166092 0.214098 48 112 118
-0.407111 0.167667 0.214443 41 107 117
-0.406718 0.169243 0.214788 40 109 118
-0.406324 0.170818 0.215133 45 119 125
-0.405931 0.172393 0.215478 49 120 126
-0.405537 0.173969 0.215823 47 112 118
-0.405144 0.175545 0.216168 44 106 112
-0.40475 0.17712 0.216514 46 105 110
-0.404357 0.178696 0.216859 50 100 101
-0.403476 0.179946 0.217367 57 83 80
-0.403083 0.18152 0.217712 62 65 51
-0.402206 0.182764 0.218218 66 63 52
-0.408722 0.161908 0.211309 59 65 62
-0.407834 0.163184 0.211827 55 90 90
-0.40744 0.164759 0.212172 51 114 115
-0.406555 0.166029 0.212687 42 108 116
-0.406162 0.167602 0.213031 41 107 115
-0.40577 0.169175 0.213376 45 118 123
-0.405377 0.170748 0.213721 48 122 126
-0.405473 0.172636 0.213897 48 114 119
-0.40508 0.174211 0.214242 46 106 112
-0.404198 0.175468 0.214754 44 105 110
-0.403805 0.177041 0.215099 49 102 105
-0.403412 0.178615 0.215444 56 86 88
-0.402534 0.179863 0.215953 59 63 61
-0.402142 0.181435 0.216298 64 58 45
-0.408658 0.160572 0.20938 64 67 65
-0.40777 0.16185 0.2099 55 83 81
-0.407376 0.163425 0.210245 51 113 111
-0.406491 0.164697 0.210763 44 111 117
-0.405609 0.165966 0.21128 40 106 113
-0.405217 0.167536 0.211624 45 114 119
-0.405313 0.169416 0.211797 49 122 125
-0.40492 0.17099 0.212141 49 117 120
-0.404527 0.172563 0.212486 47 109 113
-0.404134 0.174136 0.21283 45 105 110
-0.403741 0.17571 0.213175 47 103 106
-0.403348 0.177284 0.21352 53 91 92
-0.402955 0.178858 0.213864 59 68 70
-0.402078 0.180105 0.214376 65 59 50
-0.408099 0.158942 0.207629 61 65 62
-0.407706 0.160517 0.207974 59 77 80
-0.40682 0.161793 0.208495 53 108 106
-0.406428 0.163366 0.20884 43 115 120
-0.405545 0.164636 0.209359 39 105 114
-0.405153 0.166207 0.209703 42 111 117
-0.404761 0.167778 0.210047 48 121 124
-0.404368 0.169348 0.210391 48 117 121
-0.404463 0.171232 0.210562 47 110 114
-0.40407 0.172805 0.210906 46 106 111
-0.403677 0.174379 0.211251 47 105 108
-0.403284 0.175952 0.211596 52 97 96
-0.402891 0.177526 0.21194 59 78 73
-0.402498 0.1791 0.212285 66 64 53
-0.407542 0.157316 0.205883 62 61 62
-0.407149 0.158888 0.206227 55 68 73
-0.406756 0.160461 0.206572 52 100 105
-0.405874 0.161736 0.207094 48 115 119
-0.404993 0.163007 0.207616 37 106 114
-0.404602 0.164575 0.207959 40 109 116
-0.40421 0.166144 0.208302 46 120 124
-0.404304 0.168019 0.20847 48 120 123
-0.403912 0.16959 0.208814 47 111 115
-0.404006 0.171473 0.208982 46 106 110
-0.403613 0.173047 0.209327 48 105 107
-0.40322 0.174621 0.209671 54 100 98
-0.402827 0.176195 0.210016 60 81 77
-0.402434 0.177769 0.21036 62 61 54
-0.406105 0.156975 0.204668 58 64 66
-0.405713 0.158543 0.205011 52 90 95
-0.405321 0.160111 0.205354 47 117 120
-0.404443 0.161382 0.205877 40 106 113
-0.404052 0.162948 0.20622 39 106 112
-0.404146 0.164816 0.206384 45 118 122
-0.403755 0.166384 0.206727 48 121 127
-0.403848 0.16826 0.206892 46 111 118
-0.403456 0.169831 0.207236 46 104 110
-0.403549 0.171715 0.207402 45 104 108
-0.403156 0.173289 0.207747 50 100 102
-0.402763 0.174863 0.208091 60 82 83
-0.40237 0.176437 0.208436 66 62 58
-0.405553 0.155359 0.202934 61 65 61
-0.405162 0.156925 0.203276 54 86 83
-0.404771 0.15849 0.203619 51 116 115
-0.40438 0.160056 0.203962 39 110 115
-0.403989 0.161622 0.204305 38 105 111
-0.403597 0.163188 0.204647 46 115 120
-0.403206 0.164755 0.20499 49 122 126
-0.403299 0.166625 0.205152 46 113 120
-0.402907 0.168194 0.205495 45 105 113
-0.402999 0.170073 0.205658 45 103 109
-0.403092 0.171957 0.205822 47 102 106
-0.402699 0.173531 0.206166 52 87 91
-0.402306 0.175105 0.206511 59 66 65
-0.401913 0.176679 0.206855 65 60 46
-0.404034 0.153181 0.201577 61 63 59
-0.403645 0.15474 0.201918 57 79 77
-0.403256 0.156298 0.202259 51 111 108
-0.402866 0.157857 0.2026 43 114 120
-0.402477 0.159416 0.202941 36 103 111
-0.402088 0.160975 0.203282 43 113 118
-0.402178 0.162832 0.203441 49 121 126
-0.402269 0.164694 0.2036 47 115 120
-0.40236 0.166561 0.203759 44 107 112
-0.402451 0.168435 0.20392 43 104 108
-0.402543 0.170314 0.20408 46 104 106
-0.40215 0.171886 0.204424 52 94 95
-0.402242 0.173773 0.204586 59 75 72
-0.401849 0.175348 0.20493 64 61 48
-0.403008 0.151301 0.200044 64 59 54
-0.402142 0.152574 0.200571 56 73 75
-0.401754 0.154126 0.20091 52 102 102
-0.401367 0.155678 0.20125 44 115 123
-0.400979 0.15723 0.201589 36 103 115
-0.400591 0.158782 0.201929 41 109 117
-0.400679 0.160627 0.202085 49 122 125
-0.401245 0.162774 0.202057 48 119 123
-0.401334 0.164633 0.202213 46 108 113
-0.401905 0.166802 0.202186 45 104 108
-0.401996 0.168676 0.202344 46 105 106
-0.402086 0.170556 0.202502 52 99 97
-0.401694 0.172128 0.202846 60 79 76
-0.401301 0.173699 0.20319 63 61 56
-0.402079 0.15126 0.198672 57 62 71
-0.401215 0.152531 0.199199 50 92 100
-0.400828 0.154081 0.199538 47 116 120
-0.399967 0.155346 0.200064 35 103 117
-0.39958 0.156894 0.200402 38 106 116
-0.399193 0.158442 0.200741 47 120 126
-0.399753 0.160572 0.200709 49 120 126
-0.399839 0.16242 0.200863 46 110 116
-0.400403 0.164573 0.200831 44 104 110
-0.40097 0.166738 0.200799 45 103 107
-0.40154 0.168917 0.200767 50 99 101
-0.40163 0.170797 0.200923 57 81 80
-0.401237 0.172369 0.201267 61 64 60
-0.402016 0.149945 0.196773 58 65 66
-0.401152 0.151219 0.197303 53 84 91
-0.40029 0.152488 0.197832 46 115 119
-0.399431 0.153754 0.198359 35 108 117
-0.399045 0.1553 0.198697 34 105 115
-0.398659 0.156845 0.199035 42 117 123
-0.398744 0.158679 0.199185 49 123 128
-0.398357 0.160227 0.199524 45 112 119
-0.398914 0.162363 0.199488 44 106 112
-0.399474 0.164512 0.199453 44 105 109
-0.400515 0.166979 0.199228 48 102 104
-0.401084 0.169158 0.199191 53 82 88
-0.401173 0.171039 0.199344 59 65 64
-0.401953 0.14863 0.194873 60 64 60
-0.401089 0.149906 0.195406 53 79 80
-0.400227 0.151178 0.195938 48 110 111
-0.399369 0.152446 0.196468 40 112 119
-0.398512 0.15371 0.196996 32 103 111
-0.398127 0.155253 0.197333 40 113 121
-0.397741 0.156796 0.197671 48 123 127
-0.397824 0.158627 0.197819 45 114 119
-0.397908 0.160464 0.197968 43 106 110
-0.398463 0.162601 0.197928 42 104 108
-0.398547 0.164452 0.198078 46 103 106
-0.40006 0.167219 0.197656 51 90 92
-0.400628 0.169399 0.197614 58 71 63
-0.40189 0.147315 0.192974 59 61 61
-0.401026 0.148593 0.19351 55 75 77
-0.400164 0.149867 0.194044 49 104 103
-0.399306 0.151137 0.194577 42 114 121
-0.398449 0.152403 0.195108 36 103 111
-0.398064 0.153946 0.195445 39 109 116
-0.397678 0.155489 0.195782 48 122 124
-0.397293 0.157033 0.19612 45 116 121
-0.396907 0.158576 0.196457 44 107 113
-0.397458 0.160701 0.196413 43 105 108
-0.397541 0.162544 0.19656 45 105 105
-0.398095 0.164691 0.196515 53 96 93
-0.399129 0.167155 0.196277 59 73 66
-0.399215 0.169024 0.196426 60 62 51
-0.401827 0.146 0.191074 60 63 58
-0.400963 0.14728 0.191613 56 68 74
-0.400102 0.148555 0.19215 50 96 101
-0.399243 0.149828 0.192685 44 114 119
-0.398387 0.151096 0.193219 36 103 112
-0.398001 0.152639 0.193556 39 106 114
-0.397616 0.154182 0.193894 45 120 124
-0.39723 0.155726 0.194231 46 119 123
-0.396845 0.157269 0.194568 44 107 113
-0.396459 0.158813 0.194906 45 104 111
-0.39654 0.160647 0.19505 45 104 106
-0.39709 0.162782 0.195001 53 102 98
-0.397172 0.164631 0.195146 64 77 74
-0.397255 0.166486 0.195292 68 62 57
-0.401287 0.144417 0.189377 56 61 56
-0.4009 0.145966 0.189716 56 70 69
-0.400039 0.147244 0.190256 52 89 98
-0.39918 0.148518 0.190794 49 115 120
-0.398324 0.149789 0.19133 37 105 115
-0.397938 0.151332 0.191668 35 105 112
-0.397553 0.152875 0.192005 44 117 123
-0.397167 0.154419 0.192342 47 122 126
-0.396782 0.155962 0.192679 44 108 115
-0.396396 0.157506 0.193017 44 104 112
-0.39601 0.159049 0.193354 44 103 111
-0.396091 0.160884 0.193496 48 100 104
-0.396171 0.162725 0.193639 53 81 85
-0.396252 0.164571 0.193782 63 64 62
-0.400749 0.142838 0.187685 60 61 58
-0.399889 0.144118 0.188227 53 65 68
-0.399503 0.145664 0.188564 51 89 91
-0.399117 0.147209 0.188902 47 113 118
-0.398261 0.148481 0.189441 40 108 118
-0.397876 0.150024 0.189779 37 104 114
-0.39749 0.151568 0.190116 41 114 124
-0.397104 0.153111 0.190453 46 123 127
-0.396719 0.154655 0.19079 45 111 119
-0.396333 0.156198 0.191128 43 105 111
-0.395947 0.157742 0.191465 44 105 111
-0.395562 0.159286 0.191802 48 103 107
-0.395641 0.161122 0.191942 50 85 92
-0.395255 0.162668 0.19228 53 67 65
-0.399355 0.142545 0.186541 56 61 62
-0.39897 0.144088 0.186878 52 85 84
-0.398584 0.145631 0.187215 54 119 118
-0.398198 0.147174 0.187552 45 121 130
-0.397813 0.148717 0.187889 38 106 116
-0.397427 0.15026 0.188227 39 114 121
-0.397042 0.151804 0.188564 48 125 128
-0.396656 0.153347 0.188901 42 114 121
-0.39627 0.154891 0.189238 42 105 111
-0.395885 0.156435 0.189575 43 103 107
-0.395499 0.157979 0.189913 46 104 106
-0.395113 0.159523 0.19025 53 95 93
-0.395192 0.161359 0.190387 61 70 63
-0.399292 0.141237 0.184652 61 62 61
-0.398907 0.14278 0.184989 52 77 82
-0.398052 0.144057 0.185533 54 118 117
-0.397667 0.145598 0.18587 66 149 148
-0.396816 0.146869 0.186412 53 132 140
-0.396431 0.148408 0.186748 44 120 122
-0.396047 0.149947 0.187084 46 123 126
-0.396127 0.151762 0.187216 44 118 123
-0.395742 0.153304 0.187553 43 106 112
-0.395822 0.155127 0.187686 42 103 109
-0.395436 0.156671 0.188023 44 104 106
-0.39505 0.158215 0.18836 52 103 99
-0.394664 0.15976 0.188698 60 76 70
-0.39923 0.139929 0.182762 63 60 53
-0.398375 0.14121 0.18331 55 68 73
-0.39799 0.142751 0.183646 50 94 105
-0.397138 0.144026 0.184192 56 136 140
-0.396288 0.145298 0.184736 58 143 148
-0.395442 0.146566 0.185278 53 139 142
-0.395058 0.1481 0.185613 51 127 132
-0.395137 0.149908 0.185742 48 123 128
-0.395215 0.151721 0.185872 46 109 117
-0.395294 0.15354 0.186002 44 106 111
-0.394909 0.155081 0.186339 43 104 108
-0.394987 0.156908 0.18647 51 101 101
-0.394601 0.158452 0.186808 56 74 77
-0.399167 0.138621 0.180873 66 55 46
-0.398312 0.139904 0.181423 60 67 62
-0.39746 0.141183 0.181972 48 84 91
-0.39661 0.142459 0.182519 41 113 121
-0.396226 0.143996 0.182854 45 128 136
-0.394918 0.145 0.183608 51 135 141
-0.394535 0.146532 0.183943 51 130 137
-0.394152 0.148064 0.184277 51 123 133
-0.394229 0.149869 0.184404 48 124 128
-0.394306 0.15168 0.184532 45 112 120
-0.394383 0.153496 0.18466 44 107 114
-0.394461 0.155317 0.184789 49 103 107
-0.394538 0.157144 0.184917 53 79 88
-0.394152 0.158689 0.185255 59 62 54
-0.398249 0.138598 0.179536 53 59 58
-0.397397 0.139879 0.180087 46 80 82
-0.396547 0.141157 0.180637 42 105 109
-0.3957 0.142431 0.181185 40 118 123
-0.394855 0.143701 0.181732 41 121 128
-0.394013 0.144968 0.182277 47 121 130
-0.393173 0.146231 0.18282 46 123 131
-0.393248 0.148028 0.182945 48 122 131
-0.393324 0.149831 0.18307 52 129 133
-0.393399 0.151639 0.183196 54 123 126
-0.393475 0.153452 0.183321 50 109 114
-0.393551 0.155271 0.183448 52 87 94
-0.393627 0.157096 0.183574 58 66 65
-0.393703 0.158926 0.183701 61 60 52
-0.398187 0.137292 0.177649 54 61 56
-0.397334 0.138575 0.178203 47 76 76
-0.396485 0.139855 0.178755 43 103 104
-0.395638 0.141131 0.179306 40 115 122
-0.395254 0.142665 0.179641 42 120 126
-0.39395 0.143672 0.180403 42 123 130
-0.393111 0.144937 0.18095 43 122 128
-0.392273 0.146198 0.181494 45 120 126
-0.392347 0.147993 0.181617 46 122 128
-0.392421 0.149793 0.181739 61 135 135
-0.392495 0.151598 0.181863 61 130 131
-0.392569 0.153409 0.181986 57 105 106
-0.392644 0.155225 0.18211 62 71 66
-0.392718 0.157047 0.182235 63 62 53
-0.400558 0.119893 0.173076 58 49 33
-0.401116 0.121889 0.172962 60 50 33
-0.400731 0.123427 0.173297 63 48 34
-0.400347 0.124964 0.173633 63 52 37
-0.39719 0.135479 0.176203 55 59 53
-0.396806 0.137016 0.176538 48 73 70
-0.396422 0.138552 0.176874 40 95 96
-0.395575 0.13983 0.177427 40 113 119
-0.395192 0.141364 0.177762 39 117 124
-0.394347 0.142637 0.178314 43 120 128
-0.393048 0.143642 0.179079 46 120 129
-0.392211 0.144905 0.179626 45 120 127
-0.39183 0.146431 0.179959 45 119 125
-0.391448 0.147957 0.180292 44 117 124
-0.391521 0.149755 0.180413 57 125 127
-0.391593 0.151557 0.180534 61 119 117
-0.391666 0.153366 0.180655 61 81 78
-0.391739 0.155179 0.180777 64 60 51
-0.400495 0.118591 0.171197 52 46 35
-0.399644 0.119896 0.171758 44 37 29
-0.399261 0.121427 0.172092 47 39 27
-0.398879 0.122958 0.172426 51 43 30
-0.398496 0.124489 0.17276 53 44 33
-0.398579 0.126258 0.17287 56 48 36
-0.396199 0.133677 0.174765 62 64 55
-0.395817 0.135209 0.1751 53 71 67
-0.395434 0.136741 0.175434 42 90 92
-0.395051 0.138273 0.175768 39 113 119
-0.394668 0.139806 0.176103 40 120 123
-0.394285 0.141338 0.176437 42 122 126
-0.393902 0.14287 0.176771 43 120 129
-0.392604 0.143875 0.177541 45 117 128
-0.392222 0.145403 0.177874 44 116 123
-0.391386 0.146664 0.178423 43 113 119
-0.391459 0.14846 0.178541 54 111 115
-0.391077 0.149988 0.178875 65 110 108
-0.391148 0.151792 0.178993 63 85 86
-0.390766 0.153322 0.179327 61 64 62
-0.399964 0.117066 0.169548 54 52 41
-0.399115 0.11837 0.170111 42 36 30
-0.397668 0.126252 0.171552 46 46 34
-0.397751 0.128024 0.17166 50 53 40
-0.396137 0.132378 0.172889 61 60 55
-0.395293 0.133662 0.173447 58 65 65
-0.394911 0.135191 0.17378 50 81 86
-0.394528 0.136721 0.174114 41 107 113
-0.394146 0.138251 0.174448 39 118 123
-0.393764 0.139781 0.174782 41 121 124
-0.393381 0.141311 0.175115 44 122 126
-0.392999 0.142842 0.175449 45 122 128
-0.39216 0.144108 0.176003 44 118 125
-0.391778 0.145637 0.176336 43 114 121
-0.391396 0.147165 0.176669 45 107 113
-0.391014 0.148693 0.177003 58 104 105
-0.390632 0.150222 0.177336 62 85 91
-0.390703 0.152026 0.177453 62 66 64
-0.390321 0.153557 0.177787 62 61 53
-0.399435 0.115544 0.167904 61 54 46
-0.399053 0.117073 0.168237 48 39 35
-0.395916 0.127536 0.170799 51 50 32
-0.395534 0.129064 0.171132 51 50 33
-0.395153 0.130591 0.171465 50 45 37
-0.394312 0.131873 0.172023 52 57 55
-0.392565 0.13266 0.173025 51 78 82
-0.392185 0.134178 0.173357 46 104 109
-0.392259 0.135947 0.173466 41 114 122
-0.391879 0.137468 0.173798 43 120 126
-0.391498 0.138989 0.17413 43 121 127
-0.391118 0.140511 0.174462 45 121 127
-0.392098 0.142813 0.174131 43 120 125
-0.391716 0.144342 0.174464 42 115 122
-0.391334 0.14587 0.174798 43 107 116
-0.390952 0.147399 0.175131 50 105 109
-0.39057 0.148927 0.175464 57 90 93
-0.390188 0.150456 0.175798 60 70 67
-0.390258 0.15226 0.175912 58 59 50
-0.399373 0.114246 0.16603 60 54 39
-0.398991 0.115775 0.166363 54 43 34
-0.391905 0.127622 0.171177 42 43 39
-0.391527 0.129134 0.171507 49 47 40
-0.390701 0.130405 0.172059 49 53 56
-0.389877 0.131672 0.17261 50 86 88
-0.3895 0.13318 0.172939 42 110 117
-0.389123 0.134688 0.173268 41 117 125
-0.388746 0.136196 0.173596 43 120 125
-0.388814 0.137955 0.173706 45 119 125
-0.389328 0.139974 0.173595 45 118 125
-0.390296 0.142264 0.173262 43 117 122
-0.390818 0.144311 0.173149 40 110 117
-0.390889 0.146103 0.173259 45 105 109
-0.390507 0.147632 0.173592 55 101 98
-0.390125 0.149161 0.173926 61 75 66
-0.389743 0.15069 0.174259 63 62 50
-0.400247 0.113386 0.163681 58 58 41
-0.398928 0.114477 0.164489 51 45 36
-0.389746 0.128649 0.170658 48 46 37
-0.388483 0.129677 0.171431 56 48 47
-0.387227 0.130699 0.1722 67 73 71
-0.386853 0.132196 0.172527 66 101 100
-0.386479 0.133694 0.172853 48 113 121
-0.386543 0.135436 0.17296 45 118 124
-0.387047 0.137434 0.172848 45 118 124
-0.387554 0.139442 0.172736 44 115 121
-0.388509 0.14172 0.1724 43 110 116
-0.389024 0.143757 0.172285 53 108 112
-0.389092 0.14554 0.172393 57 101 101
-0.389611 0.147597 0.172278 59 79 74
-0.38923 0.149124 0.172611 63 65 44
-0.399801 0.113617 0.162135 60 58 31
-0.38542 0.128488 0.171252 52 38 39
-0.384615 0.12974 0.171796 63 53 57
-0.383813 0.130989 0.172339 81 89 85
-0.383442 0.132474 0.172662 76 104 102
-0.384364 0.134685 0.172332 59 110 115
-0.384859 0.136669 0.172218 48 116 119
-0.385794 0.138915 0.171883 41 110 116
-0.386738 0.141181 0.171545 43 105 109
-0.386802 0.142948 0.171652 60 104 103
-0.388202 0.145509 0.171086 62 82 82
-0.388269 0.147295 0.171193 61 62 53
-0.399356 0.113848 0.160589 49 45 33
-0.382041 0.128795 0.171398 45 42 44
-0.381247 0.130037 0.171937 72 65 60
-0.380879 0.131511 0.172258 79 84 76
-0.381784 0.133703 0.171928 74 94 90
-0.383558 0.136404 0.171155 60 103 102
-0.38405 0.138393 0.171038 46 103 106
-0.384982 0.140646 0.170698 51 101 104
-0.385922 0.14292 0.170355 57 85 87
-0.385985 0.14469 0.17046 61 66 60
-0.401176 0.113423 0.157721 51 51 43
-0.39891 0.11408 0.159043 38 35 29
-0.379975 0.129793 0.170889 54 45 37
-0.379608 0.131263 0.171209 64 53 47
-0.380082 0.133209 0.171094 71 66 60
-0.380983 0.135409 0.170759 66 78 77
-0.383183 0.138371 0.169755 56 85 84
-0.384109 0.140622 0.16941 54 86 92
-0.385044 0.142892 0.169062 57 66 63
-0.400728 0.113656 0.156165 48 43 33
-0.378812 0.132958 0.170049 58 44 42
-0.379706 0.13515 0.16971 64 57 53
