ply
format ascii 1.0
element vertex 1264
property float x
property float y
property float z
property uchar diffuse_red
property uchar diffuse_green
property uchar diffuse_blue
end_header
-0.344067 0.0567241 0.339366 19 70 71
-0.343965 0.0578839 0.339479 24 87 87
-0.343863 0.0590437 0.339592 31 92 93
-0.344053 0.0603109 0.339713 38 94 96
-0.344537 0.0616898 0.339842 38 95 95
-0.345022 0.0630747 0.339972 38 94 97
-0.345806 0.0645784 0.340111 41 94 97
-0.345703 0.0657488 0.340225 52 89 91
-0.3456 0.0669193 0.340339 69 77 75
-0.348185 0.0523001 0.33774 71 73 67
-0.347183 0.0531733 0.337837 44 73 72
-0.346188 0.054041 0.337934 21 72 73
-0.345199 0.0549031 0.338029 10 65 70
-0.34451 0.0558622 0.33813 13 67 70
-0.344115 0.0569208 0.338237 22 82 80
-0.343721 0.0579772 0.338344 27 91 91
-0.343911 0.0592432 0.338464 32 93 95
-0.344394 0.0606198 0.33859 38 94 97
-0.344879 0.0620024 0.338717 41 95 97
-0.345663 0.0635026 0.338852 39 94 98
-0.345856 0.064786 0.338973 47 95 95
-0.34605 0.0660723 0.339095 62 83 80
-0.34565 0.0671297 0.339201 73 75 67
-0.348643 0.0514161 0.336484 72 67 65
-0.347938 0.0523941 0.336589 55 71 70
-0.347235 0.053368 0.336695 38 76 75
-0.346536 0.0543376 0.336799 18 70 72
-0.345249 0.0550985 0.336894 10 65 69
-0.344852 0.0561614 0.337003 17 73 75
-0.344164 0.0571179 0.337106 25 85 86
-0.344061 0.0582805 0.337219 29 92 94
-0.344252 0.0595497 0.337338 34 95 96
-0.344737 0.06093 0.337462 37 94 97
-0.344929 0.0622064 0.337581 41 95 98
-0.345713 0.063709 0.337712 40 95 97
-0.345906 0.0649941 0.337832 53 93 92
-0.345803 0.0661673 0.337947 67 79 74
-0.348395 0.0515102 0.33533 83 78 66
-0.347991 0.0525884 0.335441 45 74 74
-0.347287 0.053563 0.335549 26 78 78
-0.34629 0.0544315 0.335653 14 70 72
-0.34589 0.0554997 0.335763 14 70 69
-0.344901 0.0563583 0.335866 22 79 78
-0.344505 0.05742 0.335976 29 88 90
-0.344403 0.0585851 0.336089 32 93 96
-0.344594 0.0598575 0.336207 38 95 98
-0.344786 0.0611327 0.336325 39 94 97
-0.345569 0.0626318 0.336452 42 94 96
-0.345763 0.0639158 0.33657 44 96 94
-0.34566 0.065089 0.336685 60 87 83
-0.345557 0.0662623 0.336799 71 78 69
-0.348552 0.0505239 0.334063 76 69 63
-0.348449 0.0517039 0.334178 63 71 66
-0.348044 0.0527832 0.33429 38 76 73
-0.34734 0.0537585 0.334401 21 75 74
-0.346639 0.0547296 0.334511 14 68 72
-0.345941 0.0556967 0.33462 16 75 75
-0.345541 0.0567637 0.334732 22 87 85
-0.345143 0.0578285 0.334843 29 92 95
-0.34504 0.0589976 0.334957 35 93 98
-0.345233 0.0602746 0.335074 42 93 98
-0.345722 0.0616643 0.335194 45 93 98
-0.345619 0.0628374 0.335308 45 94 96
-0.345813 0.0641231 0.335425 52 95 91
-0.34571 0.0652977 0.33554 67 79 69
-0.345607 0.0664723 0.335654 72 76 64
-0.348304 0.0506181 0.332907 71 70 65
-0.348201 0.0517982 0.333022 44 75 72
-0.347796 0.0528774 0.333136 31 80 77
-0.347392 0.0539544 0.33325 19 74 70
-0.34669 0.0549263 0.333363 19 71 70
-0.346289 0.0559977 0.333476 18 80 78
-0.345888 0.0570668 0.333589 26 90 88
-0.345785 0.0582397 0.333703 35 93 96
-0.345682 0.0594127 0.333817 41 94 98
-0.345876 0.0606945 0.333933 45 96 98
-0.345773 0.0618689 0.334047 46 98 99
-0.345967 0.063155 0.334163 48 96 97
-0.345864 0.0643309 0.334278 60 90 87
-0.34576 0.0655068 0.334392 72 75 63
-0.34816 0.0495321 0.331637 77 71 63
-0.348056 0.0507122 0.331752 62 74 72
-0.347952 0.0518924 0.331866 35 78 78
-0.347548 0.0529717 0.331982 20 80 77
-0.347144 0.0540487 0.332097 13 72 71
-0.346443 0.0550205 0.332212 20 75 74
-0.34634 0.0561959 0.332326 25 84 84
-0.345939 0.0572661 0.332441 30 91 93
-0.345835 0.0584403 0.332555 36 93 98
-0.34603 0.0597225 0.332669 42 95 98
-0.346224 0.0610076 0.332784 45 98 99
-0.346121 0.0621847 0.332899 47 99 99
-0.346018 0.0633619 0.333013 53 97 92
-0.345914 0.0645391 0.333128 67 79 76
-0.347912 0.0496262 0.330481 73 74 67
-0.347808 0.0508064 0.330596 53 76 76
-0.347704 0.0519867 0.330711 30 80 81
-0.3473 0.053066 0.330827 16 75 73
-0.346897 0.054143 0.330943 17 71 69
-0.346196 0.0551147 0.331061 23 81 79
-0.346092 0.0562902 0.331175 28 88 90
-0.345989 0.0574658 0.33129 36 94 98
-0.346184 0.0587483 0.331403 43 96 98
-0.346379 0.0600337 0.331516 42 92 96
-0.346275 0.0612121 0.331631 42 93 97
-0.346172 0.0623906 0.331746 48 98 97
-0.346068 0.0635692 0.33186 58 89 86
-0.345965 0.0647478 0.331975 72 66 62
-0.347664 0.0497203 0.329325 64 75 70
-0.34756 0.0509006 0.32944 39 77 77
-0.347456 0.0520811 0.329554 24 79 80
-0.347052 0.0531603 0.329672 15 72 70
-0.346649 0.0542373 0.32979 19 75 72
-0.346247 0.0553121 0.329907 23 86 86
-0.346143 0.0564889 0.330021 29 90 95
-0.34604 0.0576659 0.330136 40 94 98
-0.346235 0.0589501 0.330248 48 94 98
-0.34643 0.0602373 0.33036 51 95 97
-0.346326 0.0614171 0.330475 49 98 97
-0.346223 0.062597 0.33059 52 92 93
-0.346119 0.0637769 0.330704 63 74 78
-0.34782 0.0487304 0.328049 71 73 67
-0.347716 0.0499121 0.328164 51 76 75
-0.347312 0.0509949 0.328283 30 79 80
-0.347208 0.0521754 0.328398 18 76 76
-0.346804 0.0532547 0.328517 13 73 70
-0.346401 0.0543317 0.328636 18 80 78
-0.346298 0.0555098 0.32875 28 89 91
-0.346194 0.0566881 0.328865 33 91 94
-0.34609 0.0578665 0.328979 40 94 96
-0.346286 0.0591525 0.32909 45 95 98
-0.346481 0.0604414 0.329201 46 94 99
-0.346377 0.0616226 0.329316 48 94 96
-0.346273 0.0628039 0.329431 58 87 84
-0.34617 0.0639852 0.329546 70 74 68
-0.347675 0.0476429 0.326777 73 75 64
-0.347572 0.0488246 0.326891 60 75 69
-0.347468 0.0500063 0.327006 38 79 80
-0.347063 0.0510891 0.327127 23 80 82
-0.346959 0.0522697 0.327242 14 74 73
-0.346556 0.053349 0.327362 16 75 72
-0.346452 0.0545285 0.327476 23 85 85
-0.34605 0.0556043 0.327596 32 91 94
-0.345946 0.0567827 0.327711 35 95 95
-0.346141 0.0580675 0.32782 37 95 96
-0.346337 0.0593553 0.32793 39 94 97
-0.346233 0.0605365 0.328045 40 94 97
-0.346129 0.0617178 0.328159 48 93 91
-0.346025 0.0628991 0.328274 62 81 75
-0.347728 0.0478324 0.325611 72 76 68
-0.347323 0.0489187 0.325734 52 78 75
-0.347219 0.0501006 0.325848 29 80 82
-0.346815 0.0511834 0.32597 16 78 80
-0.346711 0.0523641 0.326085 13 75 74
-0.346308 0.0534434 0.326206 20 81 79
-0.346204 0.054623 0.326321 27 89 90
-0.3461 0.0558027 0.326436 34 93 96
-0.345997 0.0569824 0.32655 35 94 97
-0.346192 0.058269 0.326658 38 94 96
-0.346088 0.0594503 0.326773 38 93 96
-0.345984 0.0606316 0.326888 43 94 94
-0.34588 0.061813 0.327003 56 85 83
-0.345776 0.0629945 0.327117 69 74 68
-0.347781 0.0480224 0.324443 67 72 71
-0.347375 0.0491098 0.324567 43 81 79
-0.34697 0.0501949 0.32469 23 81 81
-0.346566 0.0512776 0.324813 12 76 76
-0.346463 0.0524585 0.324928 13 76 77
-0.34606 0.0535378 0.325051 21 87 88
-0.345956 0.0547175 0.325165 29 92 94
-0.345852 0.0558973 0.32528 34 94 97
-0.345748 0.0570771 0.325394 37 94 98
-0.345943 0.0583639 0.325501 40 93 97
-0.34584 0.0595453 0.325616 40 92 97
-0.346035 0.0608363 0.325723 49 93 93
-0.345931 0.0620192 0.325838 64 80 77
-0.347532 0.0481167 0.323282 59 75 73
-0.347126 0.0492041 0.323407 34 80 81
-0.347022 0.0503874 0.323522 17 79 79
-0.346318 0.0513719 0.323656 13 77 75
-0.346214 0.0525529 0.323771 18 81 81
-0.345811 0.0536322 0.323895 23 90 92
-0.345708 0.054812 0.324009 30 94 97
-0.345604 0.0559919 0.324124 35 94 98
-0.345799 0.0572775 0.324229 40 94 98
-0.345695 0.0584588 0.324344 39 93 96
-0.34589 0.0597487 0.32445 43 92 95
-0.345786 0.0609316 0.324565 58 85 86
-0.345682 0.0621145 0.32468 69 75 71
-0.348599 0.0474073 0.321961 68 73 67
-0.347584 0.0483072 0.32211 47 79 81
-0.347178 0.0493957 0.322236 26 80 84
-0.346773 0.0504818 0.322362 14 77 78
-0.346369 0.0515657 0.322488 15 79 79
-0.345966 0.0526473 0.322614 22 87 87
-0.345862 0.0538284 0.322728 28 93 95
-0.345758 0.0550096 0.322843 33 95 98
-0.345654 0.0561909 0.322957 37 94 98
-0.34555 0.0573723 0.323072 41 94 97
-0.345446 0.0585538 0.323187 38 94 95
-0.345641 0.0598439 0.323291 49 93 92
-0.345537 0.0610268 0.323406 66 79 75
-0.348958 0.0476939 0.320768 57 79 76
-0.347637 0.0484982 0.320935 36 82 85
-0.346929 0.0494901 0.321075 20 79 81
-0.346524 0.0505763 0.321202 15 75 76
-0.34612 0.0516602 0.321329 19 81 83
-0.345717 0.0527417 0.321456 25 90 92
-0.345613 0.053923 0.321571 33 94 96
-0.345509 0.0551043 0.321685 38 96 97
-0.345405 0.0562857 0.3218 39 94 96
-0.345302 0.0574672 0.321914 40 93 97
-0.345496 0.0587561 0.322017 41 93 96
-0.345392 0.0599391 0.322132 56 90 90
-0.345288 0.0611221 0.322247 70 75 71
-0.34973 0.046882 0.319441 73 78 73
-0.349012 0.0478851 0.319585 49 81 83
-0.34769 0.0486896 0.319757 26 82 83
-0.34668 0.0495845 0.319914 12 76 77
-0.346275 0.0506707 0.320042 16 78 78
-0.345871 0.0517546 0.32017 23 86 86
-0.345469 0.0528362 0.320298 29 92 95
-0.345365 0.0540175 0.320413 39 94 97
-0.345261 0.0551989 0.320527 41 95 97
-0.345157 0.0563805 0.320642 39 95 96
-0.345351 0.0576682 0.320744 38 93 96
-0.345247 0.0588512 0.320858 45 93 95
-0.345143 0.0600343 0.320973 60 81 82
-0.345039 0.0612174 0.321088 71 71 70
-0.349891 0.0458749 0.318136 76 75 66
-0.349786 0.0470728 0.318252 59 79 77
-0.349373 0.0481737 0.318383 37 85 84
-0.347743 0.0488814 0.318576 19 80 80
-0.346731 0.0497768 0.318737 14 75 75
-0.346326 0.0508641 0.318867 21 82 81
-0.345922 0.0519491 0.318997 28 90 91
-0.345518 0.0530317 0.319126 34 94 96
-0.345116 0.0541121 0.319255 40 95 97
-0.345012 0.0552936 0.319369 40 94 97
-0.345206 0.0565802 0.31947 38 95 97
-0.345102 0.0577632 0.319584 41 94 95
-0.345297 0.0590541 0.319685 53 95 91
-0.345193 0.0602386 0.3198 69 76 67
-0.349947 0.0460648 0.316944 71 70 69
-0.349533 0.047168 0.317077 50 78 83
-0.349121 0.0482689 0.31721 25 82 85
-0.347796 0.0490737 0.317393 11 79 79
-0.346783 0.0499696 0.317558 18 80 77
-0.346077 0.0509587 0.317705 24 86 86
-0.345673 0.0520436 0.317836 29 92 96
-0.34527 0.0531263 0.317966 38 94 100
-0.345165 0.0543091 0.318081 41 95 99
-0.345061 0.0554921 0.318196 40 94 98
-0.344957 0.0566751 0.31831 40 94 97
-0.345152 0.0579648 0.318409 47 93 94
-0.345048 0.0591493 0.318524 60 87 83
-0.350002 0.0462551 0.315749 63 79 71
-0.349281 0.0472633 0.315902 42 83 86
-0.348869 0.0483641 0.316036 19 80 82
-0.347545 0.0491686 0.316224 14 76 78
-0.346533 0.0500643 0.316393 22 83 85
-0.346127 0.0511526 0.316525 27 89 92
-0.345423 0.0521382 0.316675 34 92 96
-0.345319 0.0533224 0.31679 39 95 98
-0.344916 0.0544039 0.316921 40 97 97
-0.345111 0.055691 0.317019 41 96 97
-0.345007 0.0568754 0.317134 43 95 97
-0.345201 0.0581669 0.317232 52 92 89
-0.345097 0.0593528 0.317347 65 75 71
-0.349855 0.0451496 0.314455 70 71 68
-0.349442 0.0462552 0.314591 47 82 84
-0.349029 0.0473585 0.314727 27 84 87
-0.348617 0.0484594 0.314863 14 78 79
-0.346991 0.0491658 0.315075 22 77 77
-0.346283 0.050159 0.315228 30 85 87
-0.345878 0.0512473 0.315362 34 91 94
-0.345473 0.0523334 0.315495 36 94 96
-0.34507 0.0534171 0.315629 39 96 98
-0.344966 0.0546015 0.315743 41 97 98
-0.34516 0.0558904 0.31584 42 95 98
-0.345355 0.0571822 0.315936 47 94 95
-0.345251 0.0583694 0.316051 59 88 84
-0.345146 0.0595568 0.316166 73 74 63
-0.349708 0.044044 0.313161 69 70 62
-0.349602 0.0452449 0.313277 61 78 70
-0.349189 0.0463505 0.313415 36 87 89
-0.348777 0.0474538 0.313552 17 82 83
-0.34806 0.0484573 0.313709 9 77 78
-0.34674 0.0492606 0.313907 21 83 85
-0.346033 0.0502537 0.314063 27 91 93
-0.345628 0.0513421 0.314198 35 93 97
-0.345523 0.052529 0.314313 40 95 98
-0.345119 0.0536138 0.314448 42 96 99
-0.345015 0.0547996 0.314562 40 95 99
-0.34551 0.0561952 0.314638 42 95 98
-0.345405 0.0573838 0.314753 53 90 92
-0.345301 0.0585724 0.314868 67 80 79
-0.345196 0.0597612 0.314983 80 85 64
-0.349455 0.0441391 0.311983 68 72 65
-0.34935 0.0453401 0.312099 51 82 80
-0.348937 0.0464458 0.312238 28 86 88
-0.348218 0.0474527 0.312399 13 79 77
-0.347808 0.0485524 0.312537 18 78 76
-0.34649 0.0493555 0.31274 26 87 89
-0.346083 0.0504472 0.312876 29 94 96
-0.345678 0.0515367 0.313013 34 95 99
-0.345273 0.0526238 0.313149 39 95 100
-0.345469 0.0539134 0.313243 42 95 99
-0.345665 0.055206 0.313337 38 95 98
-0.34556 0.0563959 0.313452 43 96 96
-0.345455 0.0575859 0.313567 61 86 86
-0.34535 0.0587759 0.313682 71 70 70
-0.349202 0.0442343 0.310805 62 78 73
-0.349097 0.0454354 0.310921 36 84 89
-0.348684 0.046541 0.311061 21 82 84
-0.347966 0.0475478 0.311224 12 77 76
-0.347556 0.0486476 0.311363 22 84 80
-0.346541 0.0495484 0.311549 28 90 92
-0.345833 0.0505421 0.31171 31 94 97
-0.345728 0.0517318 0.311825 35 97 99
-0.345623 0.0529215 0.31194 40 96 99
-0.346423 0.0544212 0.311987 43 94 97
-0.346621 0.0557202 0.31208 44 94 96
-0.346516 0.0569154 0.312196 52 90 93
-0.346108 0.0580031 0.312333 68 80 80
-0.349363 0.0432202 0.309485 67 67 67
-0.349257 0.0444227 0.309601 53 83 79
-0.348844 0.0455307 0.309743 27 85 89
-0.348431 0.0466363 0.309884 15 79 79
-0.347714 0.047643 0.31005 16 75 76
-0.347304 0.0487428 0.31019 26 90 88
-0.346592 0.0497417 0.310355 27 94 96
-0.346185 0.0508357 0.310494 32 95 99
-0.34608 0.0520281 0.31061 37 96 98
-0.346277 0.0533228 0.310701 41 96 98
-0.346778 0.0547247 0.310768 42 95 99
-0.346673 0.0559213 0.310884 46 95 97
-0.346567 0.057118 0.311 58 89 84
-0.346462 0.0583148 0.311115 69 77 67
-0.34911 0.0433154 0.308305 60 69 71
-0.349004 0.044518 0.308421 42 86 87
-0.348591 0.045626 0.308564 19 83 87
-0.348179 0.0467317 0.308706 11 77 78
-0.347462 0.0477383 0.308875 23 79 81
-0.347052 0.048838 0.309017 28 90 94
-0.346644 0.0499355 0.309158 29 94 98
-0.346236 0.0510305 0.309299 37 97 99
-0.346433 0.0523257 0.309389 41 97 98
-0.346631 0.0536238 0.309479 42 95 99
-0.346829 0.0549248 0.309569 43 95 99
-0.347028 0.0562289 0.30966 50 94 96
-0.346923 0.0574284 0.309776 64 84 79
-0.346817 0.0586279 0.309891 72 74 63
-0.349579 0.0423901 0.306952 63 67 66
-0.349165 0.0435029 0.307097 52 77 78
-0.348751 0.0446133 0.307241 34 87 89
-0.348338 0.0457214 0.307385 14 80 82
-0.347926 0.046827 0.307529 9 78 80
-0.347515 0.0479303 0.307672 26 88 90
-0.3468 0.0489333 0.307843 28 92 96
-0.346392 0.0500307 0.307986 34 95 100
-0.346287 0.0512259 0.308101 39 97 99
-0.346484 0.0525228 0.30819 42 98 98
-0.346987 0.0539261 0.308251 43 96 98
-0.347186 0.0552304 0.308341 47 95 97
-0.34708 0.0564313 0.308457 58 85 86
-0.346975 0.0576322 0.308573 71 75 70
-0.350051 0.0414605 0.305592 69 71 65
-0.349635 0.0425769 0.305739 60 72 74
-0.349219 0.0436908 0.305885 43 84 87
-0.348805 0.0448024 0.306031 25 84 85
-0.348085 0.0458167 0.306206 13 77 77
-0.347673 0.0469223 0.306351 16 81 83
-0.347262 0.0480256 0.306496 25 92 96
-0.346852 0.0491265 0.30664 33 94 97
-0.346443 0.050225 0.306784 40 97 99
-0.346338 0.0514216 0.3069 40 96 99
-0.34684 0.0528225 0.306959 41 96 99
-0.347039 0.0541257 0.307047 43 96 99
-0.346933 0.0553266 0.307162 52 94 96
-0.346827 0.0565275 0.307278 69 75 76
-0.350107 0.0416466 0.304375 70 76 69
-0.34969 0.0427641 0.304523 55 81 80
-0.349274 0.0438792 0.304671 35 86 90
-0.348551 0.0448978 0.304849 19 80 81
-0.348138 0.046007 0.304996 14 77 77
-0.34742 0.0470177 0.305173 26 86 88
-0.347009 0.048121 0.305319 30 93 97
-0.3466 0.0492219 0.305465 40 96 98
-0.346494 0.0504198 0.30558 42 96 98
-0.346693 0.0517188 0.305666 41 97 98
-0.346892 0.0530208 0.305752 41 95 99
-0.346786 0.0542217 0.305868 45 96 98
-0.346985 0.0555281 0.305955 58 87 89
-0.346879 0.0567305 0.306071 72 72 71
-0.350163 0.0418331 0.303155 65 78 71
-0.349745 0.0429517 0.303305 46 86 85
-0.349329 0.044068 0.303454 25 85 88
-0.348298 0.0449933 0.303667 16 78 79
-0.347885 0.0461025 0.303815 21 81 82
-0.347167 0.0471131 0.303995 30 90 94
-0.346757 0.0482163 0.304142 33 94 97
-0.346651 0.0494157 0.304258 42 97 99
-0.346546 0.0506151 0.304374 42 96 99
-0.346744 0.0519158 0.304458 40 98 98
-0.346639 0.0531167 0.304574 40 96 98
-0.346533 0.0543177 0.30469 49 95 95
-0.346732 0.0556244 0.304775 64 79 76
-0.346626 0.0568269 0.304891 72 69 64
-0.350014 0.0407178 0.30185 64 71 64
-0.349597 0.0418378 0.302 55 78 76
-0.349181 0.0429553 0.302151 36 87 88
-0.34815 0.0438844 0.302369 17 81 83
-0.347431 0.044901 0.302552 16 78 80
-0.34702 0.0460079 0.302701 29 87 88
-0.346914 0.0472085 0.302817 30 92 96
-0.346504 0.0483118 0.302965 34 94 98
-0.346703 0.0496099 0.303048 42 96 99
-0.346597 0.0508107 0.303164 42 96 99
-0.346491 0.0520117 0.30328 39 97 98
-0.34669 0.0533157 0.303363 43 96 96
-0.346584 0.0545181 0.303479 53 90 89
-0.346478 0.0557206 0.303595 68 74 70
-0.349759 0.0408135 0.300661 60 73 70
-0.349033 0.0418425 0.300848 44 84 83
-0.348617 0.0429589 0.301 27 85 88
-0.347896 0.0439798 0.301186 14 78 80
-0.347178 0.0449963 0.301372 19 80 83
-0.346767 0.0461032 0.301522 30 91 94
-0.346661 0.0473039 0.301638 33 94 97
-0.346555 0.0485047 0.301754 38 95 99
-0.34645 0.0497055 0.301869 42 95 100
-0.346344 0.0509065 0.301985 42 96 99
-0.346542 0.0522093 0.302067 41 96 99
-0.346437 0.0534117 0.302183 48 96 95
-0.346331 0.0546143 0.302299 62 83 77
-0.345921 0.0557111 0.302448 73 72 68
-0.349921 0.0397867 0.299317 68 68 63
-0.349194 0.0408192 0.299508 54 77 77
-0.348778 0.041938 0.299662 36 87 88
-0.348363 0.0430544 0.299815 21 82 85
-0.347336 0.0439823 0.30004 14 78 80
-0.346924 0.0450916 0.300192 24 84 86
-0.346514 0.0461985 0.300343 32 93 96
-0.346408 0.0473993 0.300459 36 96 97
-0.346302 0.0486002 0.300575 41 96 99
-0.346197 0.0498012 0.300691 42 96 101
-0.346395 0.0511028 0.300771 42 97 100
-0.346289 0.0523052 0.300887 42 95 100
-0.346183 0.0535078 0.301003 57 90 93
-0.346077 0.0547104 0.301119 70 75 69
-0.349355 0.0397936 0.298165 64 72 68
-0.348939 0.0409148 0.29832 47 81 83
-0.348215 0.0419427 0.298513 28 85 89
-0.347494 0.042966 0.298705 15 79 82
-0.347082 0.0440777 0.298858 17 79 83
-0.346671 0.045187 0.299011 30 89 92
-0.346261 0.0462939 0.299164 33 94 96
-0.346155 0.0474948 0.29928 38 97 98
-0.346353 0.0487937 0.299359 43 97 99
-0.346247 0.0499961 0.299475 42 97 100
-0.346446 0.0512995 0.299554 39 97 99
-0.34634 0.0525034 0.29967 46 96 97
-0.34593 0.0536039 0.299822 65 82 82
-0.345824 0.0548066 0.299938 73 68 64
-0.35014 0.0389412 0.296739 73 70 59
-0.34879 0.0398004 0.297015 59 79 73
-0.348375 0.0409205 0.297171 39 86 87
-0.347653 0.0419473 0.297366 20 83 87
-0.346935 0.0429696 0.297561 15 79 81
-0.346524 0.0440801 0.297715 26 83 87
-0.346418 0.0452823 0.297831 33 93 96
-0.346312 0.0464846 0.297947 34 96 97
-0.346206 0.0476869 0.298063 39 97 99
-0.3461 0.0488894 0.298178 42 96 100
-0.346298 0.0501915 0.298256 41 97 99
-0.346192 0.0513955 0.298372 40 97 97
-0.346086 0.0525995 0.298488 55 94 91
-0.34598 0.0538036 0.298604 67 76 66
-0.349572 0.0389489 0.295586 67 73 66
-0.348535 0.0398959 0.295827 51 82 81
-0.347812 0.0409262 0.296025 30 85 88
-0.347093 0.0419519 0.296222 14 79 83
-0.346681 0.0430649 0.296379 18 81 82
-0.34627 0.0441754 0.296535 33 89 92
-0.346164 0.0453777 0.29665 36 94 97
-0.346058 0.0465801 0.296766 37 96 98
-0.345952 0.0477825 0.296882 41 97 100
-0.346151 0.0490834 0.296958 42 97 100
-0.346045 0.0502874 0.297074 38 97 99
-0.345939 0.0514915 0.29719 48 96 94
-0.345833 0.0526956 0.297306 65 81 79
-0.345726 0.0538999 0.297422 68 70 60
-0.35036 0.0380915 0.294148 71 71 61
-0.349317 0.0390446 0.294394 59 79 73
-0.34828 0.0399914 0.294638 40 86 86
-0.347558 0.0410215 0.294839 21 83 86
-0.346839 0.0420472 0.295039 14 79 80
-0.346427 0.0431601 0.295197 23 84 86
-0.346017 0.0442707 0.295354 33 92 96
-0.345911 0.0454731 0.295469 36 94 98
-0.345805 0.0466756 0.295585 40 96 99
-0.346003 0.0479753 0.29566 44 97 99
-0.345897 0.0491793 0.295776 42 98 100
-0.346095 0.0504834 0.295851 41 99 99
-0.345989 0.0516889 0.295967 54 95 91
-0.345883 0.0528945 0.296083 72 69 63
-0.350103 0.0381875 0.292951 64 72 68
-0.349372 0.0392286 0.293157 51 82 82
-0.348025 0.0400869 0.293449 30 86 89
-0.347303 0.0411169 0.293653 15 80 83
-0.346585 0.0421425 0.293855 18 81 82
-0.346173 0.0432554 0.294014 30 90 89
-0.346067 0.0444592 0.29413 33 95 97
-0.345657 0.0455685 0.294288 38 96 98
-0.345855 0.046867 0.294362 43 97 99
-0.345749 0.048071 0.294477 44 97 100
-0.345948 0.0493739 0.294551 44 97 100
-0.345841 0.0505795 0.294667 47 97 96
-0.345735 0.0517851 0.294783 59 82 81
-0.350159 0.038371 0.291708 63 77 73
-0.349115 0.0393244 0.291962 44 85 86
-0.34777 0.0401824 0.29226 25 83 85
-0.346742 0.0411225 0.292511 15 78 81
-0.346026 0.042147 0.292716 22 85 87
-0.34592 0.0433507 0.292832 33 93 95
-0.345814 0.0445546 0.292947 35 95 98
-0.345708 0.0457586 0.293063 39 97 101
-0.345601 0.0469626 0.293179 41 97 101
-0.3458 0.0482643 0.293251 43 96 100
-0.345693 0.0494699 0.293367 46 97 98
-0.345892 0.050776 0.293439 55 94 91
-0.345785 0.0519831 0.293555 66 69 64
-0.350323 0.0373338 0.290344 66 70 65
-0.349902 0.0384671 0.290509 53 80 79
-0.348859 0.0394203 0.290768 32 86 88
-0.347207 0.0401889 0.291117 16 81 83
-0.346488 0.0412178 0.291326 20 79 82
-0.345772 0.0422422 0.291533 32 87 90
-0.345666 0.0434461 0.291649 35 94 96
-0.34556 0.0446501 0.291765 37 95 100
-0.345454 0.0458541 0.29188 39 97 102
-0.345652 0.0471546 0.291951 39 97 101
-0.345545 0.0483602 0.292067 42 97 99
-0.345744 0.0496651 0.292138 47 96 96
-0.345942 0.050973 0.292209 60 86 84
-0.345836 0.0521816 0.292325 71 67 57
-0.350065 0.0374299 0.289144 60 75 72
-0.349332 0.0384754 0.289359 41 84 86
-0.347674 0.039251 0.289717 23 83 86
-0.346646 0.0401954 0.289977 15 79 80
-0.346234 0.0413131 0.29014 25 85 86
-0.345518 0.0423374 0.29035 35 92 94
-0.345412 0.0435414 0.290466 35 95 97
-0.345306 0.0447455 0.290582 39 96 100
-0.345504 0.0460448 0.290651 43 96 101
-0.345397 0.0472504 0.290767 43 96 102
-0.345595 0.0485541 0.290836 46 97 99
-0.345794 0.0498607 0.290906 54 93 90
-0.345993 0.0511705 0.290975 67 73 70
-0.350229 0.0363903 0.287776 75 71 63
-0.349808 0.037526 0.287944 57 84 80
-0.349075 0.0385714 0.288161 34 87 89
-0.347419 0.0393466 0.288526 18 81 83
-0.346391 0.0402907 0.28879 19 80 81
-0.345979 0.0414085 0.288954 28 89 91
-0.345873 0.0426152 0.28907 31 95 99
-0.345158 0.0436368 0.289283 34 97 101
-0.345356 0.0449348 0.28935 41 98 101
-0.345554 0.0462359 0.289418 44 97 100
-0.345752 0.0475399 0.289486 44 95 101
-0.345951 0.048847 0.289554 47 94 97
-0.34615 0.050157 0.289622 61 86 83
-0.346044 0.0513684 0.289739 77 67 57
-0.349971 0.0364864 0.286574 63 74 71
-0.34955 0.0376221 0.286743 45 88 86
-0.348818 0.0386674 0.286963 26 85 88
-0.347471 0.0395306 0.287284 16 78 82
-0.346136 0.0403861 0.287603 23 84 85
-0.345725 0.0415039 0.287769 32 92 94
-0.345618 0.0427107 0.287884 35 94 99
-0.345512 0.0439176 0.288 40 96 101
-0.34571 0.045219 0.288067 44 97 99
-0.345909 0.0465234 0.288133 45 96 99
-0.346108 0.0478307 0.2882 46 94 100
-0.346308 0.0491412 0.288266 52 90 92
-0.345895 0.0502535 0.288432 65 72 73
-0.349713 0.0365825 0.285372 53 83 80
-0.349293 0.0377183 0.285542 33 88 90
-0.348561 0.0387634 0.285765 19 80 84
-0.347215 0.0396263 0.286092 19 78 81
-0.345881 0.0404815 0.286415 28 88 89
-0.345775 0.0416897 0.286531 33 96 96
-0.345668 0.042898 0.286647 35 97 98
-0.345562 0.0441063 0.286763 40 98 100
-0.345761 0.0454095 0.286828 43 97 99
-0.34596 0.0467157 0.286893 44 97 99
-0.346159 0.0480249 0.286958 47 96 97
-0.346052 0.0492376 0.287075 57 87 84
-0.345945 0.0504505 0.287191 68 68 59
-0.349877 0.0355404 0.283997 65 70 66
-0.349455 0.0366787 0.284169 44 85 85
-0.349035 0.0378144 0.284341 23 85 86
-0.348304 0.0388594 0.284567 14 79 81
-0.346959 0.039722 0.284899 23 84 86
-0.345932 0.0406663 0.285175 32 91 93
-0.34552 0.0417852 0.285343 35 95 96
-0.345414 0.0429936 0.285459 39 98 97
-0.345918 0.0443892 0.28547 42 98 100
-0.346117 0.0456957 0.285534 44 96 101
-0.34601 0.0469084 0.28565 45 95 100
-0.345903 0.0481212 0.285766 50 91 94
-0.345797 0.0493341 0.285883 63 75 75
-0.34569 0.0505471 0.285999 70 63 60
-0.349619 0.0356366 0.282793 54 83 82
-0.349197 0.0367748 0.282967 32 89 92
-0.348777 0.0379106 0.28314 16 82 84
-0.348047 0.0389555 0.283368 16 80 81
-0.346703 0.0398177 0.283705 27 87 91
-0.346289 0.0409414 0.283876 31 93 97
-0.34557 0.0419716 0.284101 36 95 98
-0.345769 0.0432738 0.284163 42 97 100
-0.346583 0.0447677 0.284117 44 97 101
-0.346784 0.0460792 0.284179 44 97 100
-0.346676 0.0472961 0.284296 48 96 98
-0.346261 0.0484144 0.284467 58 86 85
-0.346154 0.0496302 0.284583 67 65 59
-0.349782 0.034592 0.281414 61 69 72
-0.349674 0.0358179 0.281531 48 87 90
-0.349252 0.0369573 0.281707 24 87 91
-0.348519 0.0380068 0.281939 11 81 83
-0.34779 0.0390516 0.28217 22 86 85
-0.347063 0.0400918 0.2824 30 92 93
-0.34634 0.0411274 0.282628 32 95 99
-0.345926 0.0422498 0.282801 38 96 102
-0.346741 0.0437419 0.282749 43 97 102
-0.347252 0.0451488 0.282754 44 98 101
-0.347145 0.0463686 0.282871 45 97 99
-0.347037 0.0475883 0.282988 52 91 92
-0.346621 0.048709 0.283161 64 78 75
-0.349946 0.033545 0.280031 70 66 63
-0.349524 0.0346882 0.280208 58 81 77
-0.349415 0.0359142 0.280326 37 91 90
-0.348994 0.0370537 0.280502 17 84 87
-0.348262 0.038103 0.280737 12 81 84
-0.347843 0.0392363 0.280912 24 91 93
-0.347115 0.0402773 0.281145 34 96 98
-0.346699 0.0414045 0.28132 40 95 99
-0.346592 0.0426213 0.281436 43 96 101
-0.347102 0.0440258 0.281438 44 97 100
-0.347304 0.045341 0.281498 45 97 98
-0.347197 0.0465622 0.281615 49 97 96
-0.347089 0.0477835 0.281732 60 88 82
-0.346672 0.0489052 0.281906 71 70 62
-0.349687 0.0336412 0.278824 63 68 66
-0.349265 0.0347845 0.279002 47 85 88
-0.349157 0.0360105 0.27912 25 86 89
-0.348735 0.03715 0.279298 12 79 82
-0.348004 0.0381992 0.279535 24 83 83
-0.347585 0.0393325 0.279712 36 91 93
-0.346858 0.0403735 0.279948 39 94 97
-0.346751 0.0415917 0.280064 43 95 98
-0.346952 0.0429026 0.280122 44 97 99
-0.347154 0.0442165 0.28018 44 97 98
-0.347357 0.0455335 0.280238 44 96 98
-0.347249 0.0467562 0.280355 52 93 96
-0.346831 0.0478804 0.280531 65 80 80
-0.349851 0.0325917 0.277437 67 66 62
-0.349428 0.0337375 0.277617 56 81 74
-0.349006 0.0348807 0.277796 36 88 90
-0.348898 0.0361069 0.277914 19 82 85
-0.348165 0.0371597 0.278155 14 78 82
-0.347746 0.0382955 0.278333 29 90 92
-0.347328 0.0394287 0.278511 37 95 98
-0.34691 0.0405596 0.278689 41 96 99
-0.346803 0.0417792 0.278806 44 99 100
-0.347004 0.043092 0.278862 44 99 100
-0.347207 0.0444077 0.278918 44 97 99
-0.347409 0.0457266 0.278975 48 96 97
-0.347301 0.0469508 0.279092 61 85 85
-0.346883 0.0480761 0.27927 68 68 66
-0.349592 0.0326879 0.276228 67 67 67
-0.349169 0.0338337 0.276409 50 83 87
-0.348747 0.034977 0.27659 25 85 91
-0.348639 0.0362033 0.276707 11 79 84
-0.347907 0.037256 0.276951 21 83 85
-0.347488 0.0383917 0.277131 34 94 93
-0.34707 0.039525 0.27731 46 97 96
-0.346962 0.0407461 0.277427 48 97 98
-0.346854 0.0419673 0.277544 44 98 101
-0.347056 0.0432818 0.277599 42 99 101
-0.347259 0.0445994 0.277654 43 98 100
-0.347151 0.0458236 0.277771 49 95 96
-0.347043 0.0470479 0.277888 62 82 75
-0.349756 0.0316359 0.274835 69 61 58
-0.349332 0.0327842 0.275018 59 75 72
-0.34891 0.03393 0.275201 41 87 89
-0.348488 0.0350732 0.275384 19 83 85
-0.348068 0.036214 0.275566 12 80 82
-0.347648 0.0373522 0.275747 27 90 90
-0.34723 0.038488 0.275928 35 95 95
-0.347122 0.0397105 0.276045 42 97 96
-0.346704 0.0408425 0.276226 44 99 98
-0.346906 0.0421558 0.276279 45 98 100
-0.346798 0.0433785 0.276396 43 98 101
-0.347001 0.0446963 0.27645 46 98 98
-0.346893 0.0459206 0.276567 54 86 84
-0.346785 0.0471451 0.276684 62 69 64
-0.349496 0.0317322 0.273625 64 64 61
-0.349073 0.0328805 0.273809 50 86 85
-0.348651 0.0340263 0.273993 27 89 92
-0.34823 0.0351695 0.274177 15 82 82
-0.347809 0.0363103 0.27436 22 82 83
-0.34739 0.0374485 0.274543 33 92 94
-0.347282 0.0386724 0.27466 36 96 100
-0.346864 0.0398069 0.274843 41 97 101
-0.346756 0.0410296 0.27496 43 98 101
-0.346648 0.0422524 0.275077 43 97 100
-0.34685 0.0435689 0.275129 44 96 99
-0.347053 0.0448886 0.275181 54 94 95
-0.346944 0.0461144 0.275298 65 79 73
-0.349236 0.0318285 0.272414 56 74 68
-0.348813 0.0329768 0.272599 41 90 90
-0.348392 0.0341226 0.272785 21 84 87
-0.347971 0.0352658 0.27297 9 82 85
-0.347551 0.0364066 0.273155 22 91 91
-0.347132 0.0375448 0.273339 29 94 99
-0.347024 0.0387689 0.273456 37 95 102
-0.346916 0.039993 0.273573 44 96 102
-0.346808 0.0412172 0.27369 45 98 101
-0.3467 0.0424414 0.273807 43 97 100
-0.346592 0.0436658 0.273924 46 97 97
-0.346794 0.0449856 0.273975 55 87 86
-0.346686 0.0462116 0.274092 64 71 67
-0.349716 0.0308539 0.270945 65 67 66
-0.348976 0.0319248 0.271202 50 86 86
-0.348554 0.0330731 0.27139 27 87 93
-0.348132 0.0342189 0.271577 11 81 85
-0.347712 0.0353622 0.271763 17 82 85
-0.347292 0.0365029 0.271949 28 93 97
-0.347184 0.0377283 0.272066 32 97 101
-0.346765 0.0388653 0.272252 38 98 102
-0.346657 0.0400895 0.272369 45 97 100
-0.346549 0.0413138 0.272486 46 98 100
-0.346441 0.0425382 0.272603 41 98 100
-0.346643 0.0438568 0.272652 48 96 96
-0.346535 0.0450827 0.272769 61 82 72
-0.346427 0.0463088 0.272886 68 68 54
-0.349771 0.0310306 0.269659 59 72 71
-0.349031 0.0321024 0.26992 40 87 92
-0.348608 0.0332519 0.270109 18 84 89
-0.347873 0.0343152 0.270368 8 80 85
-0.347453 0.0354585 0.270556 29 90 90
-0.347344 0.0366853 0.270673 34 96 98
-0.346925 0.0378248 0.27086 36 97 100
-0.346817 0.0390504 0.270977 41 98 102
-0.346709 0.0402761 0.271094 45 97 101
-0.346601 0.0415019 0.271211 45 95 101
-0.346493 0.0427278 0.271329 46 95 99
-0.346695 0.0440482 0.271376 53 84 90
-0.346586 0.0452757 0.271494 64 70 69
-0.350572 0.03013 0.268104 66 66 63
-0.349827 0.0312076 0.26837 52 81 80
-0.348771 0.0321989 0.268707 30 88 92
-0.348348 0.0333484 0.268897 14 81 85
-0.347926 0.0344954 0.269087 18 79 85
-0.347194 0.0355549 0.269348 32 93 95
-0.347085 0.0367818 0.269465 36 96 97
-0.346977 0.0380088 0.269582 40 97 99
-0.346558 0.039147 0.269771 43 98 103
-0.34645 0.0403728 0.269888 43 98 104
-0.346342 0.0415987 0.270005 44 98 101
-0.346544 0.0429179 0.270051 51 99 97
-0.346436 0.0441454 0.270169 62 81 75
-0.346327 0.0453729 0.270286 67 64 56
-0.350948 0.0303865 0.266733 57 73 66
-0.349883 0.0313851 0.267078 42 90 88
-0.348825 0.032377 0.26742 20 85 87
-0.348088 0.0334449 0.267685 12 80 82
-0.347667 0.0345919 0.267876 24 89 89
-0.346935 0.0356512 0.26814 31 97 96
-0.346826 0.0368783 0.268258 38 96 97
-0.346718 0.0381054 0.268375 43 98 100
-0.34661 0.0393327 0.268492 43 100 104
-0.346501 0.04056 0.268609 42 99 104
-0.346393 0.0417874 0.268726 44 97 101
-0.346285 0.0430149 0.268844 53 85 91
-0.346176 0.0442425 0.268961 61 68 70
-0.351756 0.0294783 0.26516 62 64 60
-0.351325 0.0306442 0.265356 52 84 78
-0.350257 0.0316444 0.265706 28 87 88
-0.348565 0.0324736 0.266205 16 81 82
-0.347828 0.0335414 0.266473 19 81 83
-0.347407 0.0346884 0.266666 27 94 95
-0.346675 0.0357476 0.266932 29 97 98
-0.346567 0.0369748 0.26705 39 98 99
-0.346459 0.038202 0.267167 44 99 101
-0.34635 0.0394294 0.267284 45 98 101
-0.346242 0.0406568 0.267401 44 97 100
-0.346134 0.0418844 0.267518 51 98 97
-0.346025 0.043112 0.267635 62 82 77
-0.345917 0.0443397 0.267753 69 65 61
-0.351815 0.0296551 0.263853 55 70 70
-0.351383 0.0308222 0.264051 38 91 91
-0.350313 0.031823 0.264406 18 86 87
-0.348619 0.0326523 0.264913 12 79 84
-0.347568 0.0336379 0.265261 27 89 89
-0.347147 0.0347849 0.265455 30 95 96
-0.346416 0.035844 0.265724 36 96 98
-0.346308 0.0370713 0.265841 42 99 100
-0.3462 0.0382987 0.265958 44 99 101
-0.346091 0.0395261 0.266076 43 97 101
-0.345983 0.0407537 0.266193 47 99 100
-0.345874 0.0419813 0.26631 51 88 93
-0.345766 0.043209 0.266427 61 73 71
-0.351984 0.0285828 0.262424 73 65 64
-0.351551 0.0297525 0.262624 54 79 81
-0.35112 0.0309196 0.262823 28 90 93
-0.35037 0.0320021 0.263102 14 83 85
-0.348673 0.0328314 0.263617 18 79 87
-0.347621 0.0338176 0.263971 31 90 96
-0.346887 0.0348814 0.264244 32 94 100
-0.346157 0.0359404 0.264516 38 96 100
-0.346049 0.0371678 0.264633 43 99 101
-0.34594 0.0383953 0.26475 45 98 101
-0.345832 0.0396229 0.264867 43 96 102
-0.346034 0.0409416 0.264908 49 97 97
-0.345925 0.0421707 0.265025 61 79 75
-0.35172 0.0286802 0.261193 67 70 69
-0.351609 0.0299298 0.261312 46 88 92
-0.350856 0.0310171 0.261595 24 85 89
-0.350107 0.0320994 0.261877 13 81 82
-0.348727 0.033011 0.262319 28 86 87
-0.347674 0.0339978 0.262677 31 95 96
-0.346939 0.0350625 0.262953 35 97 101
-0.346208 0.0361224 0.263229 42 99 103
-0.346099 0.0373513 0.263346 44 98 102
-0.345991 0.0385803 0.263463 44 97 100
-0.345882 0.0398094 0.26358 46 98 99
-0.346084 0.0411299 0.263619 52 91 93
-0.345976 0.0423605 0.263736 64 73 72
-0.351889 0.0276053 0.259759 63 67 61
-0.351456 0.0287777 0.259962 50 81 77
-0.351346 0.0300274 0.260081 32 89 92
-0.350593 0.0311145 0.260367 19 81 85
-0.349844 0.0321968 0.260652 20 78 84
-0.348466 0.033108 0.261099 32 90 93
-0.347413 0.0340946 0.261461 32 95 97
-0.346991 0.035244 0.26166 39 96 102
-0.34657 0.0363909 0.261858 44 98 102
-0.34615 0.0375352 0.262056 44 98 100
-0.346042 0.0387658 0.262173 44 98 99
-0.346244 0.0400866 0.26221 50 98 96
-0.346135 0.0413187 0.262328 60 79 78
-0.346026 0.0425508 0.262445 70 67 63
-0.351624 0.0277028 0.258526 60 66 67
-0.351192 0.0288751 0.258731 45 88 89
-0.35076 0.0300449 0.258935 20 86 89
-0.35033 0.031212 0.259139 13 79 80
-0.349263 0.0322119 0.25951 25 84 85
-0.347889 0.0331221 0.259962 31 91 95
-0.347152 0.0341914 0.260246 35 94 97
-0.347043 0.0354259 0.260363 42 96 102
-0.346622 0.0365741 0.260563 45 98 102
-0.346201 0.0377196 0.260762 44 96 100
-0.346404 0.0390408 0.260798 44 96 99
-0.346295 0.0402743 0.260915 51 90 93
-0.346186 0.0415079 0.261033 63 73 67
-0.35136 0.0278003 0.257294 53 80 74
-0.350928 0.0289726 0.2575 34 90 93
-0.350496 0.0301424 0.257705 14 84 85
-0.349747 0.0312282 0.257996 13 79 81
-0.349001 0.0323092 0.258286 30 91 93
-0.347628 0.0332191 0.258743 32 92 97
-0.347518 0.0344565 0.258861 39 94 99
-0.346782 0.0355229 0.259147 42 96 101
-0.346673 0.0367576 0.259265 45 97 100
-0.346877 0.0380807 0.259299 46 98 98
-0.346768 0.0393171 0.259416 50 97 95
-0.346659 0.0405536 0.259534 58 78 79
-0.34655 0.0417901 0.259652 69 64 58
-0.351529 0.0267228 0.255853 67 68 66
-0.351096 0.0278978 0.256061 50 87 86
-0.350664 0.0290701 0.256268 23 85 89
-0.349913 0.0301598 0.256563 11 81 79
-0.349483 0.0313256 0.256769 21 86 86
-0.348738 0.0324065 0.257061 27 94 97
-0.347996 0.0334824 0.257352 31 95 98
-0.347257 0.0345535 0.257642 41 94 101
-0.347148 0.0357911 0.25776 44 97 103
-0.347352 0.0371162 0.257792 43 97 103
-0.347873 0.0385336 0.257739 45 96 99
-0.347763 0.0397758 0.257857 54 91 93
-0.347338 0.0409259 0.258061 65 70 70
-0.351698 0.0256427 0.254409 73 65 60
-0.351264 0.0268203 0.254618 59 77 72
-0.350831 0.0279953 0.254828 38 89 91
-0.350399 0.0291677 0.255036 18 82 85
-0.349649 0.0302572 0.255334 10 81 82
-0.34922 0.031423 0.255541 26 90 93
-0.348792 0.0325863 0.255748 28 94 97
-0.348049 0.0336632 0.256043 39 97 98
-0.347939 0.0349051 0.256161 43 96 100
-0.34783 0.0361471 0.256279 44 97 101
-0.348036 0.0374773 0.25631 43 95 100
-0.348243 0.0388106 0.256341 49 97 97
-0.348133 0.0400557 0.256459 60 82 78
-0.348023 0.0413009 0.256578 68 65 61
-0.351756 0.0258157 0.25308 65 69 63
-0.350999 0.0269179 0.253384 49 89 87
-0.350567 0.0280929 0.253594 25 87 90
-0.350135 0.0292652 0.253804 14 79 83
-0.349385 0.0303546 0.254105 23 83 86
-0.348957 0.0315205 0.254313 28 92 94
-0.348529 0.0326837 0.254522 29 95 97
-0.347787 0.0337605 0.254819 40 97 100
-0.347677 0.0350025 0.254937 43 98 100
-0.347883 0.0363314 0.254966 42 96 99
-0.348089 0.0376634 0.254996 43 97 99
-0.348296 0.0389986 0.255025 56 94 95
-0.348186 0.0402453 0.255143 66 73 70
-0.351926 0.0247318 0.251629 64 66 61
-0.351491 0.0259134 0.251842 48 75 74
-0.350734 0.0270154 0.252149 33 91 90
-0.350302 0.0281904 0.252361 18 83 84
-0.349871 0.0293628 0.252572 12 79 83
-0.349122 0.030452 0.252875 28 90 93
-0.348376 0.0315364 0.253177 28 95 97
-0.348266 0.0327812 0.253295 38 98 99
-0.347524 0.0338579 0.253595 43 98 101
-0.347414 0.0351 0.253713 45 98 101
-0.347936 0.0365161 0.25365 43 95 101
-0.348143 0.03785 0.253678 47 96 98
-0.34835 0.0391871 0.253706 60 80 81
-0.34824 0.0404353 0.253825 70 67 62
-0.35166 0.0248295 0.25039 60 67 62
-0.351225 0.0260111 0.250604 48 84 85
-0.350469 0.027113 0.250913 25 87 86
-0.350037 0.028288 0.251127 12 81 80
-0.349287 0.029381 0.251433 18 81 85
-0.34854 0.0304691 0.251739 29 92 97
-0.348113 0.0316337 0.25195 33 94 99
-0.348003 0.0328786 0.252068 40 98 100
-0.347577 0.0340393 0.252279 45 98 101
-0.347467 0.035283 0.252397 44 96 100
-0.34799 0.0367013 0.252331 44 96 99
-0.348197 0.0380371 0.252357 53 93 94
-0.348086 0.0392853 0.252476 66 74 66
-0.351394 0.0249272 0.24915 51 72 67
-0.350637 0.026033 0.249463 37 87 91
-0.350204 0.0272106 0.249678 17 83 84
-0.349453 0.0283074 0.249988 10 80 82
-0.349023 0.0294785 0.250202 25 90 92
-0.348277 0.0305665 0.25051 31 92 99
-0.34785 0.0317311 0.250723 36 94 99
-0.34774 0.0329761 0.250841 42 97 99
-0.34763 0.0342212 0.25096 44 97 101
-0.34752 0.0354665 0.251078 42 96 101
-0.347726 0.0367993 0.251103 47 97 100
-0.347933 0.0381353 0.251127 61 83 83
-0.34814 0.0394744 0.251152 67 68 61
-0.351239 0.0237674 0.24779 65 64 60
-0.351128 0.0250249 0.24791 49 83 83
-0.350372 0.0261306 0.248225 23 88 89
-0.349939 0.0273082 0.248442 10 82 79
-0.349188 0.0284049 0.248755 15 82 84
-0.348441 0.0294966 0.249067 30 92 95
-0.348013 0.0306638 0.249282 36 92 96
-0.347903 0.0319103 0.2494 41 96 98
-0.347477 0.0330736 0.249614 43 97 100
-0.347367 0.0343188 0.249732 41 96 100
-0.347573 0.0356504 0.249755 41 96 100
-0.347779 0.036985 0.249778 50 96 96
-0.347986 0.0383229 0.249802 64 77 72
-0.351297 0.0239384 0.24645 57 68 67
-0.350862 0.0251227 0.24667 39 88 91
-0.350106 0.0262282 0.246988 16 84 84
-0.349354 0.0273287 0.247305 10 80 80
-0.348924 0.0285024 0.247522 24 90 90
-0.348177 0.029594 0.247837 28 92 97
-0.34775 0.0307613 0.248053 40 94 98
-0.347639 0.0320078 0.248171 44 96 100
-0.347529 0.0332545 0.24829 44 96 100
-0.347419 0.0345013 0.248408 43 95 98
-0.347309 0.0357482 0.248526 49 97 96
-0.347515 0.0370831 0.248548 57 80 83
-0.347722 0.0384212 0.24857 66 66 64
-0.351791 0.0229218 0.244885 63 61 59
-0.351031 0.0240362 0.245209 47 82 80
-0.350274 0.0251456 0.245531 23 87 90
-0.349841 0.0263259 0.245751 11 82 81
-0.349089 0.0274262 0.24607 14 81 83
-0.348341 0.0285216 0.246389 27 94 95
-0.347913 0.0296914 0.246606 30 94 99
-0.347803 0.0309395 0.246725 40 95 101
-0.347376 0.0321054 0.246942 43 97 104
-0.347266 0.0333522 0.24706 41 96 102
-0.347155 0.0345991 0.247179 42 96 99
-0.347361 0.0359327 0.247199 52 95 95
-0.347568 0.0372695 0.247219 61 74 70
-0.352288 0.0219002 0.243312 65 64 60
-0.351525 0.0230196 0.24364 56 70 72
-0.350441 0.0240603 0.24407 38 87 90
-0.350008 0.0252432 0.244292 14 84 86
-0.349255 0.0263474 0.244615 9 81 82
-0.348505 0.0274466 0.244937 23 89 88
-0.348077 0.0286191 0.245157 26 93 95
-0.347649 0.0297889 0.245376 36 94 97
-0.347539 0.0310371 0.245494 43 96 100
-0.347428 0.0322853 0.245613 45 96 100
-0.347318 0.0335337 0.245731 40 95 100
-0.347208 0.0347821 0.24585 45 97 98
-0.347414 0.0361176 0.245868 54 81 84
-0.347304 0.0373677 0.245987 64 66 61
-0.352021 0.0219982 0.242064 63 67 66
-0.351583 0.0231904 0.24229 48 80 82
-0.350175 0.024158 0.242829 24 87 91
-0.349742 0.0253409 0.243052 10 83 82
-0.34899 0.026445 0.243378 12 82 82
-0.348241 0.0275441 0.243703 25 93 93
-0.347812 0.0287165 0.243924 28 95 97
-0.347702 0.0299662 0.244043 39 97 98
-0.347275 0.0311346 0.244263 44 98 98
-0.347164 0.032383 0.244382 44 95 99
-0.347054 0.0336315 0.2445 43 94 100
-0.34726 0.0349656 0.244517 51 94 95
-0.34715 0.0362157 0.244636 61 74 72
-0.351427 0.0220246 0.240923 52 70 69
-0.350343 0.0230701 0.241363 38 89 91
-0.349587 0.024182 0.241694 17 84 89
-0.348835 0.0252887 0.242023 8 79 83
-0.348087 0.0263905 0.242351 22 87 88
-0.347976 0.0276415 0.242469 24 93 95
-0.347548 0.028814 0.242692 31 95 98
-0.347438 0.0300637 0.24281 40 98 99
-0.347327 0.0313136 0.242929 43 97 99
-0.347217 0.0325635 0.243047 42 95 98
-0.347423 0.033898 0.243063 48 96 97
-0.347313 0.0351496 0.243181 58 81 85
-0.347202 0.0364012 0.2433 64 66 64
-0.351923 0.0209994 0.239339 65 59 61
-0.35116 0.0221225 0.239676 48 79 80
-0.350077 0.0231678 0.24012 25 89 91
-0.349322 0.0242795 0.240454 11 80 84
-0.34857 0.0253862 0.240786 14 79 83
-0.347822 0.0264879 0.241117 26 91 93
-0.347712 0.027739 0.241235 29 93 95
-0.347601 0.0289903 0.241354 38 96 99
-0.347173 0.0301613 0.241578 43 97 99
-0.347063 0.0314113 0.241696 44 96 98
-0.347269 0.0327445 0.24171 43 95 99
-0.347158 0.0339961 0.241828 51 97 96
-0.347048 0.0352477 0.241947 63 75 73
-0.351768 0.0198306 0.237969 66 62 56
-0.351329 0.0210269 0.238199 58 66 70
-0.350568 0.0221488 0.238539 42 86 91
-0.349488 0.0231929 0.238986 19 85 88
-0.348735 0.0243034 0.239322 9 80 83
-0.347986 0.0254088 0.239657 21 87 88
-0.347558 0.0265853 0.239882 23 93 95
-0.347447 0.0278365 0.240001 32 95 96
-0.347336 0.0290879 0.24012 41 96 99
-0.347226 0.0303393 0.240238 44 97 99
-0.347115 0.0315908 0.240357 44 94 98
-0.347004 0.0328424 0.240475 48 95 97
-0.346894 0.0340941 0.240594 58 84 82
-0.346783 0.0353459 0.240712 65 66 63
-0.351174 0.0198594 0.236831 66 61 60
-0.350737 0.0210544 0.237062 52 81 81
-0.349655 0.0221035 0.237515 29 91 94
-0.348581 0.0231455 0.237964 15 84 85
-0.34815 0.0243272 0.238193 16 80 84
-0.347721 0.0255062 0.238421 25 92 93
-0.347293 0.0266827 0.238648 26 94 96
-0.347182 0.0279341 0.238766 35 97 98
-0.347072 0.0291855 0.238885 43 96 99
-0.346961 0.030437 0.239004 45 96 98
-0.34685 0.0316887 0.239122 44 95 98
-0.34674 0.0329404 0.239241 52 95 96
-0.346629 0.0341922 0.239359 63 75 72
-0.351343 0.0187596 0.235348 63 59 55
-0.350581 0.0198882 0.235695 55 69 74
-0.3495 0.0209414 0.236152 45 100 106
-0.349067 0.0221298 0.236384 46 111 114
-0.347996 0.0231705 0.236837 29 87 96
-0.347567 0.0243509 0.237066 24 86 90
-0.347139 0.0255287 0.237295 24 92 96
-0.347028 0.0267801 0.237413 32 94 97
-0.346917 0.0280316 0.237532 40 97 101
-0.346807 0.0292831 0.23765 44 97 100
-0.346696 0.0305348 0.237769 43 96 100
-0.346585 0.0317866 0.237887 46 97 97
-0.346475 0.0330384 0.238006 55 83 86
-0.346364 0.0342903 0.238124 62 67 67
-0.351075 0.0188575 0.234098 54 61 61
-0.349667 0.0198479 0.234676 49 90 90
-0.348912 0.0209689 0.235023 43 117 127
-0.348161 0.0220847 0.235368 58 133 144
-0.347413 0.0231955 0.235711 54 116 120
-0.346985 0.0243746 0.235941 39 94 98
-0.346874 0.025626 0.23606 26 92 96
-0.346763 0.0268776 0.236178 35 96 99
-0.346653 0.0281291 0.236297 43 97 102
-0.346542 0.0293808 0.236415 43 95 100
-0.346431 0.0306326 0.236534 42 95 99
-0.34632 0.0318844 0.236652 50 95 94
-0.34621 0.0331364 0.236771 59 75 73
-0.346099 0.0343884 0.236889 63 64 58
-0.350594 0.0176218 0.232844 61 57 51
-0.350158 0.0188195 0.23308 54 65 72
-0.349078 0.0198766 0.233546 48 108 109
-0.348325 0.0209963 0.233895 43 119 127
-0.347576 0.0221109 0.234242 52 128 136
-0.347147 0.0232927 0.234475 50 112 120
-0.34672 0.0244719 0.234706 38 94 101
-0.346609 0.0257234 0.234825 31 93 98
-0.346498 0.026975 0.234943 40 97 101
-0.346388 0.0282267 0.235062 44 97 102
-0.346277 0.0294785 0.23518 43 94 101
-0.346166 0.0307304 0.235298 46 97 99
-0.346056 0.0319824 0.235417 54 82 87
-0.345945 0.0332344 0.235535 63 64 64
-0.350326 0.0177195 0.231594 63 61 58
-0.34989 0.0189172 0.231832 51 82 83
-0.348171 0.0198366 0.232535 44 112 115
-0.34774 0.0210237 0.23277 42 117 121
-0.346993 0.0221371 0.23312 44 115 119
-0.346566 0.0233176 0.233353 39 102 109
-0.346455 0.0245691 0.233471 28 93 100
-0.346344 0.0258208 0.233589 35 98 103
-0.346233 0.0270725 0.233708 43 101 106
-0.346123 0.0283243 0.233826 44 101 107
-0.346012 0.0295762 0.233945 44 97 104
-0.346217 0.0309093 0.233949 49 97 96
-0.346106 0.0321628 0.234068 60 75 72
-0.34568 0.0333325 0.2343 64 61 60
-0.351147 0.0167478 0.229864 64 59 46
-0.350383 0.017884 0.230225 54 64 60
-0.349946 0.0190831 0.230464 39 86 89
-0.347904 0.0199339 0.231294 36 102 106
-0.347474 0.021121 0.23153 38 105 110
-0.346728 0.0222342 0.231883 33 101 106
-0.346301 0.0234147 0.232117 28 93 98
-0.34619 0.0246664 0.232236 27 93 97
-0.346079 0.0259181 0.232354 38 104 108
-0.345969 0.02717 0.232472 42 108 112
-0.345858 0.0284219 0.232591 43 106 112
-0.346063 0.0297537 0.232593 47 103 107
-0.345952 0.0310072 0.232712 52 85 88
-0.345841 0.0322609 0.23283 61 66 59
-0.350878 0.0168458 0.22861 64 59 53
-0.35044 0.0180489 0.228852 50 74 69
-0.349678 0.0191809 0.229214 31 87 92
-0.348278 0.0201691 0.229814 29 92 98
-0.347209 0.0212183 0.23029 29 94 97
-0.346463 0.0223314 0.230646 25 92 97
-0.346036 0.0235119 0.230882 22 90 94
-0.345925 0.0247637 0.231 25 91 97
-0.345814 0.0260155 0.231118 40 106 110
-0.345704 0.0272675 0.231237 43 113 116
-0.345908 0.0285979 0.231238 45 113 116
-0.345798 0.0298515 0.231356 51 105 105
-0.346003 0.0311867 0.231358 57 73 73
-0.345892 0.0324419 0.231476 63 60 55
-0.350935 0.0170098 0.227232 60 61 61
-0.350496 0.0182142 0.227476 38 81 83
-0.349734 0.0193473 0.227841 27 89 92
-0.348653 0.0204055 0.228327 28 89 94
-0.347261 0.0213859 0.22893 25 88 92
-0.346514 0.0225 0.229289 23 88 93
-0.346087 0.0236818 0.229527 22 87 92
-0.34566 0.024861 0.229764 25 90 94
-0.345549 0.026113 0.229882 38 103 105
-0.345754 0.0274421 0.229882 45 113 115
-0.345643 0.0286957 0.23 50 113 114
-0.345848 0.0300296 0.23 53 93 93
-0.346054 0.0313666 0.23 61 62 60
-0.351105 0.0159007 0.22573 65 62 54
-0.350666 0.0171079 0.225976 51 70 70
-0.350227 0.0183124 0.226221 33 85 88
-0.34979 0.0195141 0.226465 26 91 91
-0.348708 0.020573 0.226956 24 89 91
-0.347633 0.0216247 0.227444 24 87 91
-0.346566 0.0226691 0.227929 23 87 90
-0.346137 0.0238521 0.228168 21 87 91
-0.34571 0.0250326 0.228407 25 90 92
-0.345599 0.0262861 0.228526 35 97 99
-0.345804 0.0276171 0.228524 45 106 107
-0.34601 0.0289513 0.228522 50 102 103
-0.345899 0.030208 0.22864 58 78 75
-0.345787 0.0314648 0.228759 63 60 55
-0.351276 0.0147889 0.224224 61 59 52
-0.351163 0.0160639 0.224345 58 64 61
-0.350723 0.0172724 0.224592 38 79 81
-0.350284 0.0184782 0.224839 26 87 90
-0.349521 0.0196122 0.225212 23 89 92
-0.349085 0.0208112 0.225457 22 89 87
-0.348328 0.021936 0.225827 22 87 87
-0.346935 0.0229107 0.226442 21 86 88
-0.346188 0.0240229 0.226807 22 87 91
-0.346077 0.0252794 0.226925 26 91 93
-0.345966 0.0265359 0.227044 41 95 97
-0.345855 0.0277926 0.227162 51 102 100
-0.346061 0.0291286 0.227159 53 86 89
-0.345949 0.0303869 0.227278 61 68 60
-0.345838 0.0316453 0.227396 64 61 54
-0.354449 0.00639349 0.221073 59 40 31
-0.353667 0.00756886 0.221458 51 39 31
-0.352558 0.00868206 0.221973 48 38 31
-0.352445 0.00996124 0.222093 57 47 30
-0.352002 0.0111809 0.222344 51 41 32
-0.351889 0.0124588 0.222465 42 39 31
-0.351776 0.0137368 0.222586 54 40 33
-0.351334 0.0149508 0.222836 53 47 45
-0.350893 0.0161621 0.223085 45 69 65
-0.350453 0.0173707 0.223334 28 83 86
-0.350341 0.0186445 0.223454 22 89 90
-0.349577 0.0197795 0.22383 21 88 90
-0.34914 0.0209799 0.224078 23 88 88
-0.348705 0.0221775 0.224324 20 87 86
-0.347627 0.0232263 0.224822 20 87 87
-0.346557 0.0242678 0.225317 21 87 92
-0.346446 0.0255273 0.225436 28 91 95
-0.346334 0.0267869 0.225555 45 95 97
-0.346541 0.0281249 0.225549 54 95 95
-0.34643 0.0293862 0.225668 58 73 76
-0.346318 0.0306475 0.225787 63 60 53
-0.355978 0.00153956 0.218774 51 49 34
-0.355189 0.00273187 0.219167 51 42 32
-0.354404 0.00391859 0.219558 50 47 31
-0.35329 0.00504728 0.220081 47 41 31
-0.352514 0.00622168 0.220467 44 31 27
-0.352401 0.00750078 0.220588 42 33 22
-0.351958 0.00872334 0.220841 37 31 28
-0.351844 0.0100011 0.220961 44 33 27
-0.351731 0.011279 0.221082 36 28 25
-0.351618 0.012557 0.221202 31 34 26
-0.351177 0.0137725 0.221454 37 31 26
-0.350736 0.0149852 0.221705 37 40 46
-0.350623 0.0162604 0.221825 31 78 78
-0.350184 0.017469 0.222076 23 86 90
-0.349745 0.0186748 0.222326 21 88 89
-0.349308 0.0198778 0.222575 21 88 89
-0.349195 0.0211489 0.222695 21 86 88
-0.348759 0.0223479 0.222943 19 86 86
-0.348647 0.0236176 0.223063 20 86 87
-0.347889 0.0247375 0.223439 22 88 92
-0.347777 0.0260045 0.223558 33 91 97
-0.347665 0.0272716 0.223678 47 96 97
-0.347553 0.0285388 0.223797 55 84 85
-0.347441 0.0298061 0.223917 62 65 59
-0.355481 0.00029815 0.217512 59 48 41
-0.355367 0.00158914 0.217634 40 37 26
-0.351584 0.00621203 0.21947 31 26 26
-0.351143 0.00743322 0.219724 31 26 22
-0.35103 0.00870803 0.219844 25 23 23
-0.350917 0.00998292 0.219964 26 20 22
-0.350804 0.0112579 0.220084 23 20 23
-0.350692 0.012533 0.220205 24 25 24
-0.350579 0.0138081 0.220325 25 27 28
-0.350466 0.0150834 0.220445 26 58 57
-0.350027 0.0162933 0.220697 21 84 86
-0.349588 0.0175006 0.220948 19 89 91
-0.349151 0.018705 0.221199 21 88 89
