ply
format ascii 1.0
element vertex 1227
property float x
property float y
property float z
property uchar diffuse_red
property uchar diffuse_green
property uchar diffuse_blue
end_header
-0.324122 -0.0755925 0.196119 36 116 123
-0.325174 -0.0744614 0.195812 47 123 129
-0.326814 -0.0733631 0.195209 52 117 115
-0.327885 -0.072214 0.194895 48 84 89
-0.328964 -0.0710569 0.194579 36 48 56
-0.329456 -0.0698588 0.19456 42 36 30
-0.330246 -0.068673 0.194391 47 41 28
-0.312246 -0.105128 0.195151 32 102 105
-0.311115 -0.103703 0.19598 35 109 113
-0.311039 -0.102496 0.196242 56 119 123
-0.311225 -0.101341 0.196365 47 113 124
-0.311674 -0.100235 0.196348 38 100 104
-0.312388 -0.0991737 0.196191 28 95 97
-0.314173 -0.0982947 0.195468 21 86 88
-0.315168 -0.0972658 0.195165 27 79 81
-0.315357 -0.0960955 0.195289 30 70 69
-0.315816 -0.0949686 0.195271 34 51 49
-0.316005 -0.0937969 0.195396 36 34 35
-0.316194 -0.0926251 0.19552 30 40 38
-0.316383 -0.0914532 0.195645 23 50 49
-0.316844 -0.0903196 0.195627 20 64 62
-0.317854 -0.0892581 0.195323 21 72 68
-0.318044 -0.0880808 0.195448 18 76 74
-0.318234 -0.0869034 0.195573 14 78 75
-0.318699 -0.0857594 0.195555 15 78 76
-0.319166 -0.0846129 0.195537 17 80 78
-0.31991 -0.0834948 0.195376 19 80 79
-0.32038 -0.0823418 0.195357 20 82 85
-0.32085 -0.0811861 0.195339 24 91 95
-0.321041 -0.0800004 0.195465 35 106 110
-0.321513 -0.0788407 0.195447 44 123 128
-0.321985 -0.0776783 0.195429 52 136 140
-0.322459 -0.0765132 0.195411 47 131 134
-0.323217 -0.0753678 0.195247 40 118 122
-0.323979 -0.0742171 0.195083 34 108 122
-0.325031 -0.0730812 0.194772 43 120 125
-0.32667 -0.0719749 0.194163 51 119 123
-0.327741 -0.0708209 0.193846 45 95 103
-0.328819 -0.0696589 0.193527 47 68 62
-0.329607 -0.0684739 0.193356 42 42 51
-0.330101 -0.0672698 0.193335 42 39 33
-0.310528 -0.103479 0.194995 36 105 106
-0.310453 -0.102273 0.195258 54 111 112
-0.310639 -0.10112 0.195381 40 107 114
-0.311087 -0.100014 0.195363 29 99 99
-0.311536 -0.0989067 0.195345 23 89 90
-0.313844 -0.098121 0.194332 27 82 85
-0.314839 -0.0970914 0.194025 33 70 71
-0.315298 -0.0959656 0.194005 36 52 48
-0.315487 -0.0947938 0.19413 35 39 33
-0.31687 -0.0913968 0.194071 33 41 38
-0.317333 -0.0902593 0.194052 28 46 44
-0.319178 -0.0893066 0.193303 28 56 51
-0.319369 -0.0881213 0.193429 18 74 68
-0.31956 -0.086936 0.193555 13 78 73
-0.319752 -0.0857506 0.193681 15 79 77
-0.319943 -0.0845651 0.193807 17 79 79
-0.320134 -0.0833795 0.193933 19 80 81
-0.320326 -0.0821939 0.194059 17 80 82
-0.320517 -0.0810081 0.194185 18 82 82
-0.320988 -0.0798494 0.194165 22 87 89
-0.321179 -0.0786622 0.194291 28 97 102
-0.321652 -0.0774995 0.194272 40 116 120
-0.322125 -0.0763341 0.194252 48 131 136
-0.322317 -0.075144 0.194379 51 134 136
-0.323075 -0.0739953 0.194213 42 118 128
-0.323836 -0.0728414 0.194047 32 110 117
-0.324601 -0.0716823 0.19388 36 113 123
-0.326236 -0.0705692 0.193267 46 119 125
-0.327596 -0.0694275 0.192797 53 113 111
-0.328674 -0.0682605 0.192474 46 78 91
-0.329462 -0.0670722 0.192301 41 55 56
-0.329658 -0.0658542 0.19243 39 39 36
-0.33045 -0.0646575 0.192256 41 38 31
-0.309942 -0.103255 0.194012 31 91 88
-0.309608 -0.102001 0.194418 44 101 100
-0.310054 -0.100899 0.194399 39 110 112
-0.310501 -0.0997946 0.19438 29 98 101
-0.310948 -0.0986876 0.19436 28 88 89
-0.313516 -0.0979473 0.193196 35 76 77
-0.314509 -0.096917 0.192885 34 53 53
-0.314968 -0.0957909 0.192864 37 37 31
-0.318931 -0.0903534 0.191875 35 34 30
-0.319959 -0.0892799 0.191555 32 39 33
-0.320431 -0.0881258 0.191532 26 54 47
-0.320343 -0.0868986 0.191808 20 68 59
-0.320535 -0.0857077 0.191934 18 74 72
-0.320447 -0.0844844 0.192209 17 79 78
-0.320639 -0.0832947 0.192336 19 81 81
-0.320831 -0.082105 0.192462 16 81 81
-0.320742 -0.0808867 0.192736 17 79 80
-0.320934 -0.0796981 0.192862 19 82 82
-0.321126 -0.0785095 0.192989 20 85 87
-0.321318 -0.0773207 0.193115 24 93 94
-0.321791 -0.076155 0.193094 32 105 110
-0.321983 -0.0749648 0.19322 46 122 125
-0.32274 -0.0738156 0.193052 48 131 136
-0.323216 -0.0726418 0.193031 43 128 131
-0.323693 -0.0714654 0.19301 36 114 121
-0.324458 -0.0703029 0.192841 36 108 119
-0.326092 -0.0691819 0.192222 44 117 122
-0.327452 -0.0680337 0.191747 50 114 121
-0.328529 -0.0668618 0.191421 48 97 99
-0.32902 -0.0656583 0.191398 46 68 64
-0.329513 -0.0644519 0.191374 36 40 49
-0.330305 -0.0632518 0.191198 40 40 33
-0.309098 -0.102981 0.193174 27 65 63
-0.309284 -0.10183 0.193296 39 93 89
-0.30947 -0.100679 0.193418 49 114 114
-0.309915 -0.0995751 0.193398 42 103 106
-0.310362 -0.098469 0.193378 37 87 87
-0.313455 -0.09782 0.191913 34 58 64
-0.314449 -0.096788 0.191598 34 36 33
-0.320184 -0.0891772 0.190094 36 32 28
-0.320377 -0.0879838 0.19022 36 37 33
-0.320569 -0.0867903 0.190347 35 51 40
-0.320762 -0.0855967 0.190474 27 56 54
-0.320673 -0.0843707 0.190751 19 70 69
-0.320866 -0.0831783 0.190878 17 79 76
-0.321058 -0.0819857 0.191004 17 82 81
-0.320969 -0.0807648 0.191281 18 80 82
-0.321161 -0.0795734 0.191407 19 81 82
-0.321353 -0.078382 0.191534 17 81 86
-0.321264 -0.0771662 0.191809 16 82 84
-0.321456 -0.0759759 0.191935 21 85 87
-0.32193 -0.0748072 0.191913 28 95 99
-0.322122 -0.0736154 0.19204 38 113 117
-0.322597 -0.0724427 0.192018 47 130 133
-0.323073 -0.0712672 0.191996 47 131 134
-0.32355 -0.070089 0.191973 39 116 125
-0.324601 -0.0689385 0.191652 34 110 116
-0.326238 -0.0678083 0.191025 36 112 122
-0.327307 -0.0666396 0.190697 46 117 121
-0.328089 -0.0654512 0.190521 51 108 107
-0.328875 -0.0642574 0.190343 41 74 88
-0.329072 -0.0630405 0.190472 43 55 53
-0.330159 -0.0618457 0.19014 44 40 36
-0.30896 -0.101659 0.192174 40 73 69
-0.309146 -0.100508 0.192296 58 102 100
-0.309591 -0.0994036 0.192275 54 95 99
-0.312938 -0.098814 0.190651 41 71 75
-0.313931 -0.0977852 0.190332 34 38 42
-0.320515 -0.0866465 0.189032 43 42 30
-0.320426 -0.0854179 0.189311 41 39 34
-0.320619 -0.0842241 0.189438 32 51 46
-0.320811 -0.0830303 0.189565 20 63 60
-0.321004 -0.0818363 0.189692 17 75 76
-0.321197 -0.0806423 0.189818 19 80 79
-0.321389 -0.0794482 0.189945 19 81 81
-0.3213 -0.0782284 0.190223 13 81 84
-0.321211 -0.0770113 0.1905 13 81 83
-0.321403 -0.0758195 0.190627 19 81 81
-0.321595 -0.0746277 0.190753 17 84 85
-0.321788 -0.0734359 0.19088 23 92 92
-0.322262 -0.0722628 0.190856 33 103 109
-0.322738 -0.071087 0.190833 44 120 127
-0.322931 -0.0698922 0.19096 45 128 133
-0.323692 -0.0687272 0.190786 41 125 129
-0.324458 -0.0675569 0.190611 34 110 120
-0.326094 -0.0664188 0.189979 36 108 117
-0.327163 -0.0652451 0.189647 43 115 120
-0.327651 -0.0640435 0.189622 47 110 116
-0.32873 -0.0628562 0.189288 48 95 95
-0.328926 -0.0616391 0.189417 48 66 68
-0.330013 -0.0604393 0.189081 42 36 45
-0.330509 -0.0592223 0.189055 42 34 34
-0.320564 -0.0840772 0.188122 42 38 30
-0.320757 -0.0828819 0.188249 31 42 38
-0.32095 -0.0816865 0.188376 24 54 53
-0.321143 -0.080491 0.188503 22 69 67
-0.321054 -0.0792687 0.188782 20 76 75
-0.321246 -0.0780744 0.188909 13 81 79
-0.321439 -0.07688 0.189036 13 81 81
-0.32135 -0.0756628 0.189315 19 81 80
-0.321542 -0.0744696 0.189441 16 83 81
-0.321735 -0.0732762 0.189568 16 84 84
-0.321927 -0.0720828 0.189695 21 85 89
-0.322402 -0.0709067 0.18967 29 95 101
-0.322595 -0.0697118 0.189797 36 110 117
-0.323072 -0.0685316 0.189772 44 125 130
-0.323835 -0.0673621 0.189595 45 124 130
-0.324601 -0.0661872 0.189418 38 113 122
-0.32595 -0.0650289 0.188932 35 108 113
-0.327018 -0.0638503 0.188597 35 110 117
-0.327506 -0.0626469 0.188571 42 114 118
-0.328585 -0.0614546 0.188233 48 104 105
-0.329077 -0.0602429 0.188206 43 71 83
-0.330166 -0.0590368 0.187866 42 54 53
-0.330962 -0.0578194 0.187681 43 45 43
-0.331159 -0.0565934 0.187811 42 39 37
-0.320896 -0.0815363 0.187057 34 39 29
-0.321089 -0.0803394 0.187184 31 49 47
-0.321282 -0.0791424 0.187311 30 58 57
-0.321192 -0.07792 0.187592 21 73 70
-0.321385 -0.0767242 0.187719 16 78 76
-0.321296 -0.0755057 0.188 19 78 77
-0.321489 -0.074311 0.188126 18 80 79
-0.321681 -0.0731163 0.188253 15 82 82
-0.321874 -0.0719214 0.18838 15 82 83
-0.322067 -0.0707265 0.188507 22 85 87
-0.322543 -0.0695473 0.18848 25 89 94
-0.322736 -0.0683509 0.188607 33 102 108
-0.323498 -0.0671808 0.188428 41 117 124
-0.323977 -0.0659935 0.188402 44 125 130
-0.324745 -0.0648141 0.188221 42 120 124
-0.326096 -0.063648 0.18773 35 107 117
-0.327166 -0.0624632 0.18739 33 105 112
-0.327949 -0.0612634 0.187206 38 111 115
-0.328439 -0.0600527 0.187178 46 107 110
-0.329228 -0.0588432 0.186992 46 93 90
-0.330618 -0.0576334 0.186488 46 68 71
-0.330816 -0.0564073 0.186618 41 52 53
-0.331314 -0.055181 0.186589 45 38 37
-0.320752 -0.0801596 0.186018 40 36 31
-0.320945 -0.0789625 0.186145 45 38 34
-0.321138 -0.0777653 0.186272 32 52 52
-0.321332 -0.076568 0.186399 21 65 64
-0.321525 -0.0753706 0.186526 20 72 72
-0.321718 -0.0741731 0.186653 18 76 75
-0.321911 -0.0729756 0.18678 16 80 79
-0.322104 -0.071778 0.186907 16 82 81
-0.322014 -0.0705632 0.187189 23 84 83
-0.322207 -0.0693667 0.187316 21 83 83
-0.322683 -0.0681845 0.187288 23 86 89
-0.323161 -0.0669996 0.187261 27 93 98
-0.32364 -0.065812 0.187233 35 107 112
-0.32412 -0.0646216 0.187205 44 120 125
-0.325177 -0.0634467 0.186866 46 119 127
-0.326242 -0.0622637 0.186524 38 111 115
-0.327021 -0.0610661 0.186338 31 104 109
-0.328098 -0.0598681 0.185993 36 106 113
-0.328294 -0.0586505 0.186122 42 111 115
-0.329082 -0.0574376 0.185934 47 102 104
-0.330471 -0.0562211 0.185425 42 80 83
-0.330969 -0.0549944 0.185395 40 54 52
-0.331167 -0.0537667 0.185525 41 37 38
-0.331666 -0.0525356 0.185495 44 41 35
-0.320609 -0.0787825 0.184979 46 36 29
-0.321084 -0.0776101 0.184949 41 33 36
-0.320995 -0.0763878 0.185233 30 46 45
-0.321188 -0.0751903 0.18536 26 55 56
-0.321381 -0.0739928 0.185487 20 68 66
-0.321858 -0.0728147 0.185457 17 75 73
-0.322051 -0.0716156 0.185584 19 80 76
-0.322244 -0.0704164 0.185712 19 81 79
-0.322438 -0.0692171 0.185839 19 82 81
-0.322631 -0.0680178 0.185966 26 84 86
-0.323109 -0.0668313 0.185937 17 84 84
-0.323589 -0.0656419 0.185908 19 86 91
-0.324069 -0.0644499 0.185878 29 97 103
-0.324839 -0.063264 0.185692 38 113 118
-0.325612 -0.0620727 0.185504 45 121 124
-0.326388 -0.0608759 0.185316 44 116 119
-0.327169 -0.0596736 0.185127 34 104 113
-0.327952 -0.0584657 0.184937 31 104 110
-0.328149 -0.0572479 0.185066 36 109 114
-0.329233 -0.0560324 0.184715 44 106 109
-0.330325 -0.0548084 0.184362 43 92 88
-0.330823 -0.05358 0.18433 42 59 65
-0.331623 -0.0523452 0.184136 43 44 46
-0.332124 -0.0511095 0.184105 38 37 32
-0.320941 -0.076231 0.183908 39 36 31
-0.321134 -0.075032 0.184036 41 35 32
-0.321327 -0.073833 0.184163 28 49 47
-0.321804 -0.0726533 0.184131 21 63 59
-0.321998 -0.0714528 0.184259 20 72 70
-0.322476 -0.0702689 0.184227 17 77 73
-0.32267 -0.0690668 0.184355 17 80 78
-0.322863 -0.0678647 0.184482 30 83 86
-0.323057 -0.0666625 0.18461 18 82 84
-0.323537 -0.0654715 0.184579 15 80 84
-0.324305 -0.0642879 0.184389 17 83 86
-0.324788 -0.0630901 0.184358 23 90 93
-0.325272 -0.0618895 0.184327 34 105 109
-0.325757 -0.0606861 0.184296 43 118 121
-0.326535 -0.0594846 0.184105 46 117 121
-0.327024 -0.0582742 0.184073 38 109 113
-0.327807 -0.057063 0.183881 30 102 108
-0.328298 -0.0558455 0.183849 34 104 111
-0.329087 -0.0546244 0.183655 42 110 113
-0.330179 -0.0533955 0.183298 48 98 101
-0.331278 -0.0521579 0.182939 45 75 78
-0.332081 -0.0509168 0.182741 38 52 50
-0.332584 -0.0496764 0.182708 39 42 35
-0.321273 -0.0736729 0.182835 34 40 31
-0.32175 -0.0724916 0.182802 33 49 38
-0.322229 -0.0713076 0.182769 26 54 54
-0.322423 -0.0701041 0.182897 20 66 63
-0.323189 -0.0689312 0.182703 15 74 72
-0.323383 -0.0677249 0.182831 18 76 76
-0.323865 -0.0665311 0.182798 18 78 80
-0.32406 -0.0653232 0.182926 15 81 81
-0.324254 -0.0641153 0.183054 15 81 81
-0.324738 -0.0629158 0.183022 16 81 83
-0.325222 -0.0617135 0.182989 18 85 90
-0.325708 -0.0605085 0.182956 26 95 98
-0.326195 -0.0593006 0.182923 38 109 113
-0.32639 -0.0580867 0.183052 45 118 120
-0.327171 -0.0568763 0.182857 43 114 117
-0.327662 -0.0556599 0.182824 33 103 109
-0.328153 -0.0544407 0.182791 30 100 106
-0.329238 -0.0532137 0.182432 37 105 111
-0.330332 -0.0519783 0.18207 45 105 107
-0.331432 -0.0507343 0.181706 46 91 86
-0.332237 -0.0494883 0.181506 44 61 63
-0.33274 -0.0482446 0.181471 41 43 41
-0.321697 -0.0723295 0.18147 44 41 31
-0.322461 -0.0711616 0.181273 37 33 31
-0.322941 -0.0699719 0.181238 38 38 42
-0.323423 -0.0687794 0.181204 25 58 57
-0.323906 -0.067584 0.181169 19 71 68
-0.324101 -0.0663734 0.181297 17 77 77
-0.324297 -0.0651627 0.181425 14 80 80
-0.324492 -0.0639519 0.181553 15 80 82
-0.324977 -0.0627494 0.181519 15 81 81
-0.325172 -0.0615371 0.181647 13 81 83
-0.325368 -0.0603247 0.181776 16 81 85
-0.325854 -0.0591165 0.181742 23 87 92
-0.326341 -0.0579054 0.181707 34 100 104
-0.32683 -0.0566916 0.181673 42 114 117
-0.32732 -0.0554749 0.181638 46 116 118
-0.32781 -0.0542553 0.181604 41 107 109
-0.328302 -0.0530328 0.181569 29 98 104
-0.329092 -0.0518035 0.18137 31 100 107
-0.330785 -0.0505521 0.180673 41 105 109
-0.33189 -0.0493001 0.180303 47 98 102
-0.332393 -0.0480561 0.180267 40 79 76
-0.333203 -0.0467992 0.180062 31 50 46
-0.333403 -0.0455591 0.180194 32 34 29
-0.333909 -0.0443062 0.180157 36 34 27
-0.322889 -0.0698059 0.179898 37 28 30
-0.323371 -0.0686117 0.179862 32 35 31
-0.324143 -0.0674285 0.17966 25 54 49
-0.324339 -0.066215 0.179789 20 67 65
-0.324535 -0.0650015 0.179917 17 75 74
-0.32473 -0.0637878 0.180046 20 78 75
-0.325216 -0.0625823 0.180009 16 80 79
-0.325412 -0.0613671 0.180138 13 81 80
-0.325608 -0.0601518 0.180267 15 80 81
-0.325804 -0.0589365 0.180395 16 80 81
-0.326 -0.057721 0.180524 16 83 86
-0.326488 -0.0565068 0.180488 24 92 97
-0.326978 -0.0552898 0.180453 37 104 109
-0.327174 -0.0540713 0.180582 47 115 116
-0.327665 -0.0528499 0.180546 45 110 114
-0.328157 -0.0516257 0.18051 33 99 106
-0.329542 -0.0503816 0.179976 24 95 103
-0.331241 -0.049119 0.179269 33 100 108
-0.332046 -0.0478675 0.179063 42 103 107
-0.332855 -0.0466101 0.178856 43 90 88
-0.333361 -0.0453584 0.178817 38 58 62
-0.333868 -0.0441036 0.178779 36 35 41
-0.334376 -0.0428459 0.178741 40 32 26
-0.323607 -0.0684586 0.17835 32 35 28
-0.324092 -0.0672586 0.178312 36 39 28
-0.324288 -0.0660437 0.17844 31 39 38
-0.324483 -0.0648286 0.178569 21 57 58
-0.32497 -0.0636229 0.178531 21 72 68
-0.325457 -0.0624144 0.178493 19 77 74
-0.325654 -0.0611963 0.178622 14 79 78
-0.32585 -0.0599782 0.178751 14 80 82
-0.325754 -0.058756 0.179046 13 81 79
-0.32595 -0.057539 0.179175 12 81 78
-0.326147 -0.056322 0.179304 16 81 81
-0.326636 -0.0551046 0.179266 20 86 89
-0.326832 -0.053886 0.179395 30 96 101
-0.327322 -0.0526643 0.179358 41 108 114
-0.327814 -0.0514398 0.179321 44 112 118
-0.3289 -0.0502007 0.17895 38 105 109
-0.329694 -0.0489602 0.178744 29 97 103
-0.331094 -0.0476965 0.178199 27 98 104
-0.332202 -0.0464313 0.17782 36 102 105
-0.333013 -0.0451689 0.177609 44 94 97
-0.333519 -0.0439138 0.177569 40 77 77
-0.334644 -0.0426263 0.177185 34 51 53
-0.335155 -0.0413622 0.177145 38 28 39
-0.324722 -0.064666 0.177049 35 41 29
-0.324919 -0.063448 0.177178 25 53 48
-0.325115 -0.0622299 0.177307 17 67 65
-0.325603 -0.0610182 0.177267 14 76 76
-0.3258 -0.0597985 0.177396 13 78 80
-0.325704 -0.0585751 0.177693 14 79 79
-0.325901 -0.0573567 0.177822 16 80 79
-0.326097 -0.0561381 0.177951 19 79 78
-0.326293 -0.0549195 0.17808 17 79 81
-0.326783 -0.0536989 0.178041 15 82 88
-0.32698 -0.0524787 0.178171 24 90 97
-0.327471 -0.0512539 0.178132 36 101 107
-0.328259 -0.05002 0.177925 43 109 114
-0.328753 -0.048788 0.177886 42 107 113
-0.329547 -0.0475441 0.177678 34 99 107
-0.331249 -0.0462632 0.176957 25 96 102
-0.332055 -0.0450033 0.176745 30 97 102
-0.332864 -0.0437374 0.176532 39 98 99
-0.334294 -0.0424357 0.175971 44 87 85
-0.334805 -0.0411713 0.175929 42 59 62
-0.335316 -0.0399038 0.175887 35 41 42
-0.324577 -0.0632636 0.175991 30 39 32
-0.325064 -0.0620531 0.17595 31 43 37
-0.325553 -0.0608397 0.175909 23 60 59
-0.32575 -0.0596185 0.176038 18 72 71
-0.325947 -0.0583972 0.176167 12 78 78
-0.326144 -0.0571759 0.176297 12 81 80
-0.326047 -0.0559537 0.176595 14 80 80
-0.326537 -0.054733 0.176555 16 78 81
-0.326734 -0.0535114 0.176684 17 78 83
-0.326931 -0.0522897 0.176813 20 79 83
-0.327128 -0.0510679 0.176943 23 84 88
-0.32762 -0.0498398 0.176903 28 95 97
-0.328113 -0.0486088 0.176862 38 105 108
-0.328904 -0.0473658 0.176652 42 108 113
-0.329999 -0.0461065 0.17627 38 103 108
-0.331101 -0.0448384 0.175885 31 95 101
-0.332516 -0.0435477 0.175323 26 93 99
-0.333022 -0.0422904 0.175281 35 98 99
-0.334145 -0.0409969 0.174888 43 90 91
-0.334656 -0.0397306 0.174845 41 74 74
-0.335167 -0.0384613 0.174802 38 55 48
-0.335369 -0.0372101 0.174934 35 35 38
-0.336507 -0.0358908 0.174539 37 37 29
-0.325013 -0.0618758 0.174591 33 36 32
-0.32521 -0.0606546 0.17472 34 39 35
-0.3257 -0.059438 0.174677 34 46 44
-0.32619 -0.0582185 0.174634 25 62 62
-0.326387 -0.0569943 0.174764 18 74 75
-0.326585 -0.05577 0.174893 14 78 79
-0.326782 -0.0545456 0.175023 16 79 79
-0.326979 -0.0533211 0.175152 15 79 81
-0.326882 -0.0521001 0.175453 17 79 80
-0.327079 -0.0508769 0.175582 18 80 80
-0.327572 -0.049647 0.175541 18 83 84
-0.328065 -0.0484143 0.175499 24 90 92
-0.328263 -0.0471879 0.175628 32 99 101
-0.329055 -0.0459401 0.175415 40 105 109
-0.330152 -0.0446742 0.175028 40 103 109
-0.331256 -0.0433994 0.174638 34 96 102
-0.332368 -0.0421157 0.174245 30 94 98
-0.332874 -0.0408566 0.174202 31 94 99
-0.333996 -0.0395579 0.173806 36 95 95
-0.334816 -0.0382698 0.173584 41 83 81
-0.335329 -0.0369971 0.17354 42 57 63
-0.336155 -0.0356984 0.173317 37 48 43
-0.336984 -0.0343935 0.173093 38 34 32
-0.325649 -0.0592571 0.173313 35 35 30
-0.32614 -0.0580359 0.173268 33 39 39
-0.326338 -0.0568102 0.173398 26 54 58
-0.32683 -0.0555846 0.173353 19 68 70
-0.327028 -0.0543573 0.173483 17 76 75
-0.327226 -0.0531299 0.173613 16 78 78
-0.327128 -0.0519062 0.173916 15 79 80
-0.327326 -0.0506801 0.174046 16 80 80
-0.327523 -0.0494538 0.174175 17 80 80
-0.327721 -0.0482274 0.174305 17 82 81
-0.328215 -0.0469914 0.174262 19 87 87
-0.329307 -0.0457306 0.173871 27 94 96
-0.329806 -0.0444859 0.173827 36 102 106
-0.330004 -0.0432521 0.173957 42 103 108
-0.331411 -0.0419568 0.173388 39 99 104
-0.332219 -0.0406834 0.173167 29 92 99
-0.333031 -0.0394039 0.172946 23 94 100
-0.334156 -0.0380984 0.172545 32 95 97
-0.334977 -0.0368053 0.17232 42 86 89
-0.335802 -0.035506 0.172095 40 72 72
-0.336631 -0.0342006 0.171868 36 51 52
-0.337149 -0.0329152 0.171821 32 34 42
-0.326288 -0.0566255 0.172028 37 35 33
-0.326781 -0.0553983 0.171982 30 47 44
-0.327572 -0.0541668 0.17176 22 62 60
-0.32777 -0.052935 0.17189 19 71 71
-0.327969 -0.0517032 0.17202 16 77 77
-0.32787 -0.0504768 0.172326 16 79 79
-0.328068 -0.0492462 0.172456 17 79 78
-0.328564 -0.0480071 0.172411 17 80 79
-0.328763 -0.0467749 0.172541 16 81 81
-0.328961 -0.0455426 0.172671 17 83 84
-0.329459 -0.0442975 0.172626 24 88 91
-0.329958 -0.0430495 0.17258 33 97 100
-0.330459 -0.0417986 0.172535 40 103 106
-0.331566 -0.0405105 0.172135 38 100 105
-0.332071 -0.0392506 0.172089 28 95 101
-0.333189 -0.0379475 0.171686 23 92 96
-0.334007 -0.0366569 0.17146 28 93 99
-0.33545 -0.0353135 0.170872 37 91 93
-0.336278 -0.0340075 0.170643 39 80 79
-0.336481 -0.0327483 0.170776 36 50 64
-0.336999 -0.0314611 0.170727 36 41 41
-0.327027 -0.0552113 0.17043 37 35 27
-0.327821 -0.0539765 0.170204 31 41 37
-0.32802 -0.0527418 0.170334 25 51 50
-0.328219 -0.051507 0.170465 19 66 65
-0.328119 -0.0502779 0.170773 17 75 74
-0.328318 -0.0490443 0.170903 16 77 77
-0.328517 -0.0478106 0.171034 16 79 79
-0.328715 -0.0465769 0.171164 17 80 80
-0.329214 -0.0453316 0.171117 14 79 80
-0.329413 -0.0440963 0.171247 15 80 80
-0.329612 -0.0428608 0.171378 19 85 85
-0.330112 -0.0416095 0.171331 27 93 94
-0.330613 -0.0403553 0.171284 35 100 104
-0.331722 -0.0390605 0.170879 40 101 104
-0.332227 -0.0377973 0.170832 31 95 98
-0.333041 -0.0365092 0.170604 23 90 97
-0.334166 -0.0351917 0.170195 23 91 95
-0.3353 -0.0338648 0.169782 34 92 96
-0.336128 -0.0325551 0.16955 42 84 86
-0.336645 -0.0312675 0.1695 38 70 63
-0.337163 -0.0299768 0.16945 35 44 44
-0.337683 -0.0286829 0.1694 36 36 33
-0.327772 -0.053787 0.168821 35 32 26
-0.327971 -0.0525508 0.168951 32 34 32
-0.32817 -0.0513144 0.169082 28 44 43
-0.32837 -0.050078 0.169212 22 58 60
-0.328569 -0.0488415 0.169343 18 69 72
-0.328768 -0.0476049 0.169473 17 76 77
-0.328967 -0.0463682 0.169604 16 78 79
-0.329167 -0.0451314 0.169735 13 80 80
-0.329366 -0.0438945 0.169865 14 80 79
-0.329565 -0.0426575 0.169996 13 80 80
-0.330066 -0.0414045 0.169947 16 82 84
-0.330265 -0.0401659 0.170078 23 87 91
-0.33107 -0.0388893 0.16985 34 95 97
-0.331574 -0.0376273 0.169801 38 100 104
-0.332079 -0.0363622 0.169752 39 98 101
-0.333199 -0.0350471 0.16934 24 91 95
-0.334017 -0.0337478 0.169108 23 88 93
-0.33515 -0.0324156 0.168692 30 91 95
-0.335978 -0.0311024 0.168457 38 94 94
-0.336495 -0.0298129 0.168406 39 81 79
-0.337013 -0.0285202 0.168355 36 62 60
-0.337849 -0.0271914 0.168118 37 42 36
-0.33837 -0.0258909 0.168067 39 31 24
-0.328621 -0.0498772 0.167644 29 40 39
-0.328821 -0.0486377 0.167775 24 50 53
-0.32872 -0.0474072 0.168088 20 64 64
-0.32892 -0.046169 0.168218 16 74 75
-0.329119 -0.0449307 0.168349 15 80 79
-0.329319 -0.0436922 0.16848 15 80 81
-0.329518 -0.0424538 0.168611 15 80 80
-0.329718 -0.0412152 0.168741 15 79 82
-0.329918 -0.0399765 0.168872 17 79 82
-0.330419 -0.0387186 0.168822 20 81 85
-0.331225 -0.037437 0.168591 27 89 94
-0.33173 -0.0361715 0.16854 35 99 102
-0.332236 -0.0349031 0.16849 37 99 101
-0.33305 -0.0336064 0.168256 37 93 93
-0.333867 -0.0323036 0.168022 24 85 92
-0.335 -0.0309661 0.167602 20 89 94
-0.335828 -0.0296493 0.167364 35 94 96
-0.336659 -0.0283262 0.167126 40 86 89
-0.337178 -0.0270301 0.167073 34 73 65
-0.338015 -0.0256959 0.166833 35 48 44
-0.338219 -0.0244283 0.166967 38 33 28
-0.328773 -0.0484409 0.166384 32 35 31
-0.328673 -0.0472091 0.166699 27 40 40
-0.328872 -0.0459693 0.166829 21 56 58
-0.329072 -0.0447295 0.16696 17 72 71
-0.329272 -0.0434895 0.167091 14 78 78
-0.329471 -0.0422494 0.167222 15 80 80
-0.329671 -0.0410093 0.167353 15 80 82
-0.329871 -0.0397691 0.167484 16 77 80
-0.330373 -0.0385093 0.167432 18 76 79
-0.330876 -0.0372466 0.16738 18 77 83
-0.331076 -0.0360032 0.167511 20 85 89
-0.331581 -0.0347359 0.16746 26 94 95
-0.332393 -0.0334403 0.167224 40 99 98
-0.333208 -0.0321384 0.166988 39 94 96
-0.333718 -0.030859 0.166935 26 89 91
-0.335474 -0.0294558 0.166138 15 85 91
-0.336305 -0.0281321 0.165897 23 88 94
-0.336823 -0.0268356 0.165843 33 90 93
-0.33766 -0.0255009 0.1656 39 80 79
-0.338182 -0.0241965 0.165545 40 56 55
-0.338705 -0.022889 0.16549 38 36 38
-0.338909 -0.0216181 0.165624 36 28 30
-0.328624 -0.0470105 0.165306 34 28 25
-0.328824 -0.0457692 0.165437 29 32 34
-0.329024 -0.0445278 0.165568 20 47 49
-0.329526 -0.0432723 0.165514 16 65 67
-0.329726 -0.0420293 0.165645 14 76 76
-0.329926 -0.0407862 0.165776 14 79 79
-0.330127 -0.0395429 0.165907 14 79 79
-0.330327 -0.0382996 0.166038 16 77 80
-0.330527 -0.0370562 0.166169 16 78 79
-0.330728 -0.0358127 0.166301 16 78 79
-0.330928 -0.0345691 0.166432 16 81 83
-0.331737 -0.0332745 0.166194 21 88 90
-0.33255 -0.0319737 0.165955 34 96 96
-0.333059 -0.0306954 0.165902 41 100 99
-0.334498 -0.0293232 0.165287 35 94 96
-0.335324 -0.0280022 0.165045 24 86 91
-0.336154 -0.0266749 0.164801 19 84 91
-0.336988 -0.0253412 0.164556 25 87 90
-0.337508 -0.0240381 0.1645 36 83 84
-0.338348 -0.0226933 0.164253 40 69 68
-0.338872 -0.0213822 0.164196 37 47 48
-0.339398 -0.0200679 0.16414 34 29 34
-0.328977 -0.0443255 0.164172 29 31 27
-0.329177 -0.0430825 0.164303 28 38 37
-0.329377 -0.0418393 0.164434 24 57 58
-0.329577 -0.0405961 0.164565 17 71 69
-0.33008 -0.0393342 0.16451 17 76 78
-0.330281 -0.0380894 0.164641 12 78 78
-0.330481 -0.0368444 0.164773 16 79 80
-0.330682 -0.0355994 0.164904 17 78 81
-0.330882 -0.0343542 0.165035 16 77 80
-0.331387 -0.0330832 0.16498 15 79 82
-0.331893 -0.0318092 0.164926 19 83 88
-0.332401 -0.0305321 0.164871 27 90 94
-0.333526 -0.0291912 0.16444 35 97 99
-0.334659 -0.0278407 0.164007 35 95 99
-0.335486 -0.0265144 0.163761 28 89 95
-0.336318 -0.0251818 0.163514 20 86 91
-0.337153 -0.0238429 0.163266 22 87 91
-0.337674 -0.0225362 0.163208 31 86 88
-0.338516 -0.0211861 0.162958 36 75 77
-0.339041 -0.0198714 0.1629 35 54 59
-0.339567 -0.0185536 0.162841 33 40 39
-0.339772 -0.0172777 0.162976 37 31 27
-0.328828 -0.0428926 0.163092 31 36 22
-0.32933 -0.0416335 0.163035 34 39 26
-0.32953 -0.0403887 0.163166 29 43 41
-0.330033 -0.039125 0.163109 24 59 65
-0.330234 -0.0378786 0.163241 20 78 75
-0.330435 -0.0366321 0.163372 16 77 78
-0.330636 -0.0353855 0.163504 15 77 80
-0.330837 -0.0341388 0.163635 16 79 79
-0.331037 -0.032892 0.163766 15 78 77
-0.331543 -0.0316176 0.16371 17 77 78
-0.33205 -0.0303402 0.163654 20 81 82
-0.332866 -0.0290291 0.163409 24 87 90
-0.333995 -0.0276795 0.162972 30 93 96
-0.33482 -0.0263544 0.162724 34 95 98
-0.335649 -0.0250228 0.162474 30 91 95
-0.336797 -0.0236476 0.162031 23 86 90
-0.337002 -0.0223795 0.162165 21 85 89
-0.33784 -0.0210305 0.161913 26 84 89
-0.338683 -0.0196749 0.161659 31 79 82
-0.339209 -0.0183568 0.1616 31 66 67
-0.339415 -0.0170808 0.161734 36 45 46
-0.33962 -0.0158047 0.161869 39 35 39
-0.329786 -0.0401632 0.161574 34 27 24
-0.33029 -0.0388963 0.161515 34 29 34
-0.330492 -0.0376468 0.161647 25 50 53
-0.330693 -0.0363973 0.161778 18 66 70
-0.331199 -0.0351242 0.161719 16 74 76
-0.331401 -0.033873 0.161851 17 78 78
-0.331602 -0.0326218 0.161983 15 78 78
-0.331193 -0.031426 0.162495 16 77 77
-0.332005 -0.030119 0.162247 17 78 78
-0.332514 -0.0288366 0.162189 17 80 82
-0.333642 -0.0274862 0.161748 21 84 86
-0.334155 -0.0261946 0.161689 27 90 92
-0.334982 -0.0248642 0.161437 32 92 97
-0.335812 -0.0235274 0.161184 31 91 94
-0.336646 -0.0221842 0.160931 25 87 90
-0.33685 -0.0209158 0.161064 20 83 88
-0.337689 -0.0195631 0.160809 21 85 89
-0.338531 -0.0182039 0.160553 27 85 87
-0.339057 -0.0168837 0.160492 32 75 73
-0.339584 -0.0155604 0.160431 36 49 56
-0.340112 -0.0142338 0.160369 37 42 42
-0.330854 -0.0386469 0.159719 37 28 27
-0.331056 -0.037393 0.159851 32 33 30
-0.331565 -0.0361166 0.15979 24 43 42
-0.332074 -0.0348371 0.159729 20 57 63
-0.332277 -0.0335799 0.159861 18 72 72
-0.332479 -0.0323227 0.159994 17 76 78
-0.331453 -0.0311783 0.160896 17 78 79
-0.331654 -0.0299268 0.161028 16 78 78
-0.332778 -0.0285817 0.160584 16 78 79
-0.333599 -0.0272601 0.16033 17 78 80
-0.334113 -0.0259666 0.160269 20 81 83
-0.334627 -0.0246699 0.160208 24 86 89
-0.334831 -0.0234076 0.160341 29 90 93
-0.335661 -0.0220672 0.160086 33 93 94
-0.336494 -0.0207203 0.159829 28 88 91
-0.336699 -0.0194518 0.159963 18 84 88
-0.337855 -0.0180513 0.159509 16 83 88
-0.33902 -0.0166408 0.159052 25 86 90
-0.339547 -0.0153155 0.158989 30 81 82
-0.340723 -0.0138882 0.158528 33 71 63
-0.34093 -0.0126041 0.158664 31 42 46
-0.331827 -0.0358788 0.158176 27 29 27
-0.332029 -0.0346202 0.158309 25 39 39
-0.332541 -0.0333357 0.158245 22 52 52
-0.332744 -0.0320754 0.158378 18 64 68
-0.332947 -0.0308151 0.158511 17 73 75
-0.33284 -0.0295847 0.158839 15 77 77
-0.333353 -0.028294 0.158776 17 78 78
-0.333556 -0.0270333 0.158909 18 77 78
-0.333759 -0.0257726 0.159042 17 78 78
-0.334273 -0.0244756 0.158979 18 80 80
-0.334477 -0.0232132 0.159112 20 82 84
-0.334992 -0.0219115 0.15905 27 87 89
-0.336139 -0.0205248 0.158594 34 91 95
-0.336976 -0.0191709 0.158334 32 91 92
-0.337817 -0.0178105 0.158072 25 84 87
-0.338341 -0.0164896 0.158008 17 79 86
-0.339189 -0.0151178 0.157744 18 84 87
-0.340364 -0.0136898 0.157278 28 85 88
-0.34057 -0.0124055 0.157414 35 76 74
-0.340777 -0.0111212 0.157549 34 53 51
-0.340984 -0.00983673 0.157684 35 37 36
-0.341191 -0.0085522 0.157819 37 30 31
-0.331984 -0.0344028 0.156885 28 32 26
-0.332497 -0.0331164 0.15682 27 35 31
-0.3327 -0.0318545 0.156953 23 41 44
-0.332903 -0.0305926 0.157086 19 56 58
-0.333106 -0.0293305 0.157219 17 70 70
-0.333309 -0.0280683 0.157351 19 76 76
-0.333513 -0.0268061 0.157484 20 78 77
-0.333716 -0.0255437 0.157617 17 78 78
-0.333919 -0.0242813 0.15775 17 77 78
-0.334123 -0.0230188 0.157883 17 76 79
-0.334638 -0.0217167 0.157819 19 79 80
-0.335783 -0.0203292 0.157359 23 83 86
-0.336303 -0.0190176 0.157294 29 91 91
-0.337141 -0.0176583 0.15703 39 96 94
-0.337664 -0.0163387 0.156965 34 87 90
-0.338509 -0.0149681 0.156699 16 82 83
-0.33968 -0.0135411 0.15623 12 81 82
-0.34021 -0.0122069 0.156164 23 84 84
-0.340417 -0.0109224 0.156299 32 80 80
-0.340624 -0.00963785 0.156434 35 68 65
-0.340831 -0.00835319 0.156569 34 47 48
-0.341689 -0.00695303 0.156301 34 31 37
-0.332966 -0.0316052 0.155324 28 26 24
-0.333169 -0.0303402 0.155457 25 35 35
-0.333062 -0.0291058 0.15579 22 52 52
-0.333266 -0.0278421 0.155923 23 68 66
-0.333158 -0.0266119 0.156255 22 75 73
-0.333362 -0.0253495 0.156388 18 76 76
-0.333565 -0.0240869 0.156521 17 76 78
-0.33408 -0.0227861 0.156455 16 76 80
-0.334283 -0.0215219 0.156588 14 79 79
-0.335113 -0.020175 0.156323 14 78 80
-0.335631 -0.0188647 0.156257 19 81 80
-0.336467 -0.0175065 0.155991 25 86 87
-0.336989 -0.0161882 0.155924 30 92 92
-0.337512 -0.0148667 0.155858 30 92 93
-0.338677 -0.0134426 0.155387 23 85 86
-0.339527 -0.0120598 0.155117 16 80 83
-0.340057 -0.0107236 0.155048 17 81 83
-0.340264 -0.00943891 0.155184 27 81 81
-0.340471 -0.00815415 0.155319 33 72 73
-0.341003 -0.00681141 0.155251 32 55 56
-0.341536 -0.00546537 0.155183 30 45 38
-0.332814 -0.0301459 0.154225 29 30 25
-0.333018 -0.0288806 0.154358 28 35 30
-0.333222 -0.0276152 0.154491 27 44 44
-0.333425 -0.0263498 0.154624 25 61 62
-0.333318 -0.0251198 0.154958 21 73 70
-0.333521 -0.0238556 0.155091 20 76 76
-0.333725 -0.0225913 0.155224 18 76 79
-0.334241 -0.021287 0.155157 17 78 80
-0.334757 -0.0199795 0.155089 20 79 78
-0.335275 -0.0186689 0.155022 20 79 77
-0.335795 -0.017355 0.154954 22 80 78
-0.336315 -0.016038 0.154886 24 83 84
-0.336837 -0.0147177 0.154818 27 87 91
-0.337679 -0.0133445 0.154548 31 89 92
-0.338524 -0.0119647 0.154276 26 87 89
-0.339374 -0.0105781 0.154003 18 83 84
-0.339581 -0.00929486 0.154138 17 81 82
-0.340111 -0.00795507 0.154068 22 81 83
-0.340642 -0.00661197 0.153999 28 78 78
-0.341175 -0.00526556 0.153929 28 68 62
-0.341709 -0.00391584 0.153859 36 49 45
-0.342244 -0.00256278 0.153789 33 43 33
-0.333178 -0.0273879 0.153055 32 26 21
-0.333382 -0.0261208 0.153189 34 30 25
-0.333274 -0.0248895 0.153524 32 47 44
-0.333478 -0.0236237 0.153657 25 68 67
-0.333682 -0.0223578 0.153791 22 76 75
-0.334198 -0.0210516 0.153722 17 76 80
-0.334715 -0.0197422 0.153652 21 76 76
-0.334919 -0.018473 0.153786 21 76 76
-0.335124 -0.0172038 0.153919 22 76 75
-0.335643 -0.015888 0.15385 23 77 77
-0.336163 -0.014569 0.153781 23 79 82
-0.337002 -0.013197 0.153508 26 84 87
-0.337526 -0.0118699 0.153439 28 88 91
-0.338371 -0.0104864 0.153164 26 88 89
-0.338899 -0.00915115 0.153094 21 84 84
-0.339427 -0.00781263 0.153023 18 80 82
-0.340281 -0.00641251 0.152746 19 82 84
-0.340814 -0.00506574 0.152675 25 83 83
-0.341674 -0.00365379 0.152396 34 76 71
-0.34221 -0.00229866 0.152324 31 53 53
-0.342747 -0.000940201 0.152252 35 41 36
-0.422614 0.0530946 0.109913 47 42 40
-0.422878 0.0547398 0.110086 59 57 54
-0.423143 0.056385 0.110259 78 78 71
-0.33323 -0.0246586 0.152087 31 30 24
-0.333434 -0.0233912 0.152221 27 36 33
-0.333638 -0.0221238 0.152354 22 55 51
-0.334155 -0.0208156 0.152283 20 70 70
-0.334359 -0.0195464 0.152416 24 76 74
-0.334563 -0.0182772 0.15255 22 77 76
-0.334768 -0.0170079 0.152683 22 76 76
-0.335286 -0.0156917 0.152613 22 75 76
-0.335806 -0.0143724 0.152542 20 77 76
-0.336327 -0.0130498 0.152471 21 78 78
-0.33685 -0.011724 0.1524 24 81 83
-0.337374 -0.010395 0.152329 27 86 88
-0.337579 -0.00911757 0.152464 29 87 89
-0.338746 -0.00767051 0.15198 27 83 85
-0.339921 -0.00621299 0.151494 16 79 82
-0.340452 -0.00486587 0.151421 15 81 82
-0.341312 -0.00345332 0.151139 22 86 88
-0.341847 -0.00209784 0.151066 32 82 85
-0.342384 -0.000739021 0.150992 37 71 67
-0.342922 0.000623184 0.150918 41 42 48
-0.421359 0.0484185 0.107794 59 56 43
-0.421624 0.0500633 0.107967 58 54 49
-0.421889 0.0517084 0.10814 60 55 50
-0.422154 0.0533535 0.108313 60 61 58
-0.422418 0.0549988 0.108486 85 84 77
-0.422683 0.0566441 0.108659 111 109 96
-0.422948 0.0582896 0.108832 120 122 105
-0.423213 0.0599352 0.109005 110 109 99
-0.423478 0.0615809 0.109178 103 110 100
-0.333594 -0.0218891 0.150913 27 39 32
-0.333799 -0.0206199 0.151047 26 43 46
-0.334003 -0.0193507 0.15118 25 60 62
-0.334207 -0.0180813 0.151314 22 72 72
-0.334725 -0.0167664 0.151241 22 76 75
-0.33493 -0.0154954 0.151375 21 75 77
-0.335449 -0.0141757 0.151303 20 76 76
-0.33597 -0.0128527 0.151231 21 76 75
-0.336175 -0.0115784 0.151365 23 75 75
-0.33638 -0.010304 0.151498 23 78 79
-0.336903 -0.00897467 0.151426 24 84 86
-0.337427 -0.00764206 0.151354 29 87 91
-0.339237 -0.00607229 0.15045 25 86 90
-0.340091 -0.00466597 0.150167 19 82 81
-0.34095 -0.00325281 0.149882 11 78 81
-0.341485 -0.00189698 0.149807 15 82 86
-0.342021 -0.000537802 0.149732 30 86 88
-0.342559 0.000824759 0.149656 40 76 78
-0.343098 0.00219069 0.149581 38 57 56
-0.343307 0.00348907 0.149717 33 41 36
-0.343847 0.00486006 0.149642 33 32 28
-0.420099 0.0468762 0.106356 71 67 50
-0.420363 0.0485186 0.106529 69 71 56
-0.420093 0.0500009 0.107034 67 64 57
-0.420892 0.0518038 0.106874 68 66 59
-0.421694 0.0536124 0.106713 76 76 69
-0.421958 0.0552578 0.106886 105 104 90
-0.422223 0.0569033 0.107059 134 127 106
-0.422488 0.0585489 0.107232 124 112 101
-0.422753 0.0601947 0.107405 113 104 94
-0.423018 0.0618406 0.107578 107 104 96
-0.423283 0.0634866 0.107751 106 107 99
-0.333442 -0.0204242 0.14981 30 30 29
-0.333647 -0.0191549 0.149944 28 40 42
-0.334164 -0.0178412 0.14987 22 53 53
-0.334369 -0.0165701 0.150003 22 67 68
-0.334887 -0.0152517 0.14993 22 74 74
-0.335408 -0.01393 0.149856 22 76 77
-0.335613 -0.0126556 0.14999 23 76 77
-0.335818 -0.0113812 0.150123 24 76 75
-0.336023 -0.0101067 0.150257 23 75 75
-0.336228 -0.00883205 0.150391 20 77 76
-0.33675 -0.00750076 0.150318 24 81 82
-0.338554 -0.00593187 0.149409 27 86 90
-0.339406 -0.00452679 0.149123 30 91 93
-0.340262 -0.00311487 0.148836 24 85 86
-0.341122 -0.00169608 0.148548 15 81 81
-0.341658 -0.00033654 0.148471 14 80 83
-0.342195 0.00102639 0.148394 22 84 86
-0.342734 0.00239268 0.148317 33 82 82
-0.343274 0.00376237 0.14824 39 70 66
-0.343483 0.00506254 0.148376 38 51 48
-0.343692 0.0063628 0.148513 33 35 36
-0.419639 0.0471341 0.104759 70 67 51
-0.41937 0.0486185 0.105266 73 69 62
-0.419634 0.0502587 0.105439 67 59 49
-0.419365 0.0517363 0.105945 64 60 53
-0.420697 0.0537051 0.105449 81 77 67
-0.420961 0.0553482 0.105622 108 101 86
-0.421226 0.0569913 0.105794 127 116 98
-0.42149 0.0586347 0.105967 114 99 90
-0.421755 0.0602781 0.106139 104 97 90
-0.422019 0.0619216 0.106312 98 99 92
-0.421746 0.0633845 0.106818 101 104 95
-0.422011 0.0650258 0.10699 106 105 94
-0.333603 -0.0189161 0.148498 31 30 26
-0.334121 -0.0176005 0.148423 27 31 31
-0.33464 -0.0162816 0.148347 25 46 49
-0.33516 -0.0149596 0.148271 26 62 64
-0.335366 -0.0136837 0.148405 26 71 72
-0.335571 -0.0124078 0.148539 24 74 77
-0.335776 -0.0111317 0.148673 21 76 77
-0.335665 -0.00990932 0.149016 20 76 76
-0.336187 -0.00857926 0.148941 20 75 75
-0.33671 -0.00724597 0.148866 23 75 75
-0.338194 -0.00573275 0.148158 25 77 79
-0.338723 -0.00438789 0.148082 24 82 83
-0.3399 -0.00291455 0.14758 23 86 87
-0.340434 -0.00155969 0.147502 24 88 88
-0.341295 -0.00013525 0.14721 21 83 84
-0.341504 0.00116009 0.147346 17 81 84
-0.342041 0.00252502 0.147268 20 84 87
-0.342579 0.00389332 0.147189 30 85 86
-0.343119 0.00526505 0.147111 37 78 75
-0.343328 0.00656542 0.147247 37 54 59
-0.343537 0.00786592 0.147384 35 43 37
-0.343746 0.00916649 0.147521 35 37 36
-0.419714 0.0475487 0.102822 55 53 40
-0.418911 0.0488762 0.103671 70 58 49
-0.418643 0.050356 0.10418 61 50 35
-0.418376 0.0518314 0.104687 54 47 39
-0.41917 0.0536321 0.104524 72 67 58
-0.419434 0.0552703 0.104696 99 92 76
-0.420231 0.0570792 0.104533 106 96 84
-0.420495 0.0587201 0.104705 102 91 78
-0.420225 0.0601857 0.105212 96 92 80
-0.419956 0.0616469 0.105718 92 94 85
-0.419688 0.0631038 0.106222 94 96 87
-0.417838 0.0640156 0.107712 99 97 85
-0.417052 0.0652772 0.108535 99 89 75
-0.334912 -0.0159918 0.146682 33 26 29
-0.335434 -0.0146661 0.146604 31 34 40
-0.33564 -0.0133871 0.146738 26 51 58
-0.335846 -0.012108 0.146873 25 68 71
-0.336052 -0.0108287 0.147007 25 76 74
-0.33594 -0.00960371 0.147353 20 77 75
-0.336146 -0.00832584 0.147487 19 77 76
-0.33667 -0.00699054 0.14741 21 75 76
-0.337834 -0.00553358 0.146908 21 75 76
-0.338362 -0.00418838 0.14683 22 77 77
-0.339215 -0.0027771 0.146537 21 79 82
-0.339746 -0.00142359 0.146459 23 83 87
-0.340605 -3.85565e-07 0.146164 25 85 87
-0.341141 0.00136153 0.146085 23 83 85
-0.341349 0.00265707 0.146221 19 81 85
-0.342215 0.0040955 0.145925 16 83 87
-0.342424 0.00539436 0.146061 23 88 91
-0.342963 0.00676809 0.145982 38 83 86
-0.343173 0.0080687 0.146118 37 74 65
-0.343382 0.0093694 0.146255 35 49 53
-0.343591 0.0106702 0.146391 35 39 40
-0.418984 0.049293 0.101736 64 53 30
-0.417655 0.050453 0.102924 56 56 34
-0.417919 0.0520887 0.103096 47 52 40
-0.418182 0.0537245 0.103268 60 60 55
-0.418445 0.0553603 0.10344 87 80 72
-0.418708 0.0569964 0.103611 90 82 74
-0.418442 0.0584601 0.104119 85 80 71
-0.418176 0.0599195 0.104624 82 81 71
-0.418439 0.0615509 0.104796 81 82 73
-0.416078 0.0622942 0.10662 82 82 75
-0.414266 0.0632029 0.108094 85 83 74
-0.412476 0.0641009 0.109551 85 77 65
-0.414784 0.0664228 0.108432 83 75 61
-0.388124 0.0723449 0.128498 69 53 52
-0.387926 0.0736441 0.128921 56 46 44
-0.387728 0.0749398 0.129343 51 41 39
-0.335281 -0.0131893 0.145492 36 32 29
-0.336122 -0.0118067 0.145198 32 46 40
-0.336329 -0.0105243 0.145333 26 61 58
-0.335899 -0.0093513 0.145895 24 72 70
-0.336105 -0.00807176 0.146029 23 77 74
-0.336311 -0.00679215 0.146164 22 76 77
-0.337795 -0.00527471 0.145442 19 75 77
-0.338002 -0.00398881 0.145577 20 75 76
-0.338531 -0.00263994 0.145497 20 75 78
-0.339061 -0.00128777 0.145417 20 77 81
-0.339917 0.000134154 0.145121 22 81 84
-0.340777 0.00156301 0.144823 25 85 87
-0.340986 0.00285867 0.144959 26 85 88
-0.341522 0.00422599 0.144878 19 84 86
-0.34206 0.00559669 0.144797 11 82 87
-0.342269 0.00689575 0.144933 19 87 92
-0.342808 0.00827152 0.144852 35 94 95
-0.343018 0.00957234 0.144988 46 85 86
-0.343558 0.0109532 0.144907 45 68 70
-0.419058 0.0497111 0.0997936 58 46 27
-0.418789 0.0511944 0.10031 67 52 29
-0.417461 0.052346 0.101505 59 41 28
-0.417724 0.053982 0.101677 57 38 32
-0.417988 0.055618 0.101848 74 60 44
-0.417722 0.0570839 0.102358 74 62 55
-0.417457 0.0585454 0.102867 72 62 56
-0.415104 0.0593111 0.104706 71 63 56
-0.414328 0.060583 0.105535 71 65 57
-0.413557 0.0618473 0.10636 71 65 58
-0.411771 0.0627534 0.107827 70 65 60
-0.409004 0.0632995 0.109911 65 57 55
-0.409259 0.0648861 0.110078 63 60 56
-0.391437 0.0726759 0.12444 140 108 111
-0.387712 0.0725795 0.127064 96 73 82
-0.387515 0.0738785 0.127489 67 59 68
-0.386885 0.0749967 0.128181 49 47 54
-0.386258 0.0761091 0.12887 53 43 40
-0.386064 0.0773948 0.12929 53 45 37
-0.336081 -0.0115562 0.143732 32 32 26
-0.336287 -0.0102722 0.143867 32 39 34
-0.336494 -0.00898806 0.144002 29 49 48
-0.336063 -0.00781708 0.144568 22 65 68
-0.336907 -0.00641954 0.144271 23 75 74
-0.337434 -0.00507524 0.14419 21 76 75
-0.337962 -0.00372765 0.144108 20 76 77
-0.33817 -0.00243999 0.144243 20 75 78
-0.338699 -0.00108745 0.144162 21 74 77
-0.33923 0.000268426 0.14408 21 76 78
-0.340088 0.00169601 0.14378 20 80 81
-0.340623 0.00306032 0.143698 24 83 85
-0.341159 0.004428 0.143615 27 90 91
-0.341696 0.00579906 0.143532 32 87 90
-0.341905 0.00709824 0.143668 18 83 85
-0.342444 0.00847438 0.143585 16 84 88
-0.342984 0.00985392 0.143502 37 92 94
-0.344526 0.0114792 0.142756 46 92 94
-0.347101 0.0133717 0.141329 53 88 86
-0.361033 0.0300265 0.135019 13 11 9
-0.417528 0.0589753 0.100941 66 57 52
-0.414651 0.0595665 0.103131 66 57 51
-0.413877 0.0608378 0.103965 66 56 48
-0.413107 0.0621015 0.104794 65 55 46
-0.411832 0.0631818 0.105945 67 55 47
-0.408062 0.0633761 0.108687 57 36 32
-0.406337 0.0642591 0.110116 52 40 35
-0.406591 0.0658343 0.110282 58 48 46
-0.393228 0.070973 0.12098 235 244 237
-0.392569 0.0721239 0.121706 225 226 202
-0.390575 0.0727364 0.123268 191 178 156
-0.3873 0.0728142 0.12563 155 137 120
-0.387103 0.074113 0.126057 129 121 104
-0.386474 0.0752307 0.126753 103 89 82
-0.38542 0.0761644 0.127714 78 56 57
-0.385227 0.0774485 0.128135 61 42 40
-0.336565 -0.00996529 0.142179 35 30 26
-0.336453 -0.00873363 0.142533 32 34 31
-0.33634 -0.00750482 0.142885 25 44 48
-0.336866 -0.0061618 0.142802 25 62 57
-0.337073 -0.00487573 0.142937 24 70 69
-0.337601 -0.00352778 0.142854 23 75 75
-0.33813 -0.0021765 0.142771 21 76 77
-0.338338 -0.000887086 0.142906 22 75 76
-0.338868 0.000469136 0.142823 23 74 76
-0.3394 0.00182872 0.142739 23 75 77
-0.339933 0.00319168 0.142656 22 77 77
-0.340468 0.00455799 0.142572 21 82 81
-0.341004 0.00592769 0.142488 28 88 89
-0.341541 0.00730077 0.142403 29 88 92
-0.342079 0.00867726 0.142319 26 85 90
-0.342619 0.0100572 0.142234 27 88 92
-0.344159 0.0116836 0.141482 35 95 98
-0.345714 0.0133259 0.140722 43 98 99
-0.346944 0.0148984 0.140182 55 94 90
-0.405422 0.0673016 0.109545 62 43 45
-0.403727 0.0681547 0.110957 76 55 45
-0.401097 0.068642 0.112964 75 59 47
-0.399451 0.0694756 0.114337 70 56 51
-0.393681 0.0687187 0.118335 83 71 77
-0.392565 0.0697062 0.119359 129 120 139
-0.391908 0.0708607 0.120089 217 200 215
-0.391253 0.0720089 0.120815 245 237 223
-0.389716 0.0727969 0.122099 241 228 199
-0.386888 0.0730489 0.124196 211 189 163
-0.386692 0.0743475 0.124625 169 149 133
-0.385633 0.0752873 0.125597 136 123 110
-0.384584 0.0762196 0.126561 106 88 82
-0.383967 0.077323 0.12725 78 55 54
-0.384202 0.0787811 0.127403 57 40 35
-0.336299 -0.00724844 0.141415 30 29 27
-0.336506 -0.00596237 0.14155 28 39 34
-0.337033 -0.00461568 0.141465 27 52 52
-0.337561 -0.00326569 0.14138 26 66 65
-0.337769 -0.00197625 0.141515 23 74 72
-0.338299 -0.00062129 0.14143 22 75 76
-0.338506 0.000669891 0.141565 22 75 76
-0.339038 0.00202983 0.14148 22 75 75
-0.339571 0.00339315 0.141395 24 74 74
-0.340105 0.00475982 0.14131 23 76 74
-0.340313 0.00605603 0.141445 25 77 80
-0.340849 0.00742773 0.14136 26 81 85
-0.341386 0.00880286 0.141274 29 88 91
-0.341924 0.0101814 0.141188 30 90 93
-0.343792 0.011888 0.140207 33 93 96
-0.345009 0.0134476 0.139668 40 99 100
-0.345895 0.0149329 0.139352 45 98 99
-0.346446 0.0163378 0.139263 48 88 90
-0.346999 0.0177463 0.139173 35 70 59
-0.347553 0.0191583 0.139083 17 32 41
-0.34914 0.0208543 0.138304 10 13 20
-0.400415 0.0673387 0.111296 62 45 37
-0.397835 0.067829 0.113283 70 52 42
-0.395759 0.0684854 0.114939 70 56 51
-0.393258 0.0689586 0.116865 79 73 72
-0.392145 0.0699453 0.117895 113 120 106
-0.391488 0.0710992 0.118629 164 136 134
-0.390389 0.0720705 0.119644 207 190 169
-0.388859 0.0728572 0.120933 234 231 196
-0.386043 0.0731084 0.123038 239 233 200
-0.385417 0.0742291 0.123743 210 193 165
-0.384795 0.0753438 0.124443 169 152 134
-0.384176 0.0764525 0.12514 134 121 107
-0.383985 0.0777348 0.125564 102 87 77
-0.383795 0.0790137 0.125986 75 48 46
-0.384029 0.080472 0.126139 56 43 36
-0.336464 -0.0057037 0.140075 28 29 26
-0.336672 -0.00441587 0.14021 30 32 28
-0.3372 -0.00306552 0.140124 31 44 39
-0.337407 -0.00177595 0.140259 29 59 57
-0.337936 -0.000420629 0.140172 28 70 70
-0.338467 0.000938048 0.140085 26 74 73
-0.338999 0.00230006 0.139998 20 74 75
-0.339208 0.00359465 0.140134 20 75 75
-0.339416 0.00488933 0.14027 20 74 75
-0.33995 0.00625801 0.140183 23 74 76
-0.340158 0.00755443 0.140319 24 75 78
-0.341021 0.00900558 0.140009 25 83 84
-0.341559 0.0103845 0.139921 28 89 90
-0.343425 0.0120924 0.138932 33 93 95
-0.344641 0.0136529 0.138388 40 98 99
-0.345526 0.0151388 0.138069 42 99 102
-0.346077 0.0165441 0.137978 42 97 101
-0.346629 0.017953 0.137887 44 97 96
-0.347182 0.0193654 0.137796 33 79 84
-0.347737 0.0207813 0.137704 17 46 54
-0.349674 0.0225837 0.136685 9 18 24
-0.353402 0.0249068 0.134466 9 6 10
-0.395088 0.0672022 0.113297 57 39 36
-0.393501 0.0680313 0.114646 67 50 48
-0.392383 0.0690247 0.115688 68 66 64
-0.391724 0.0701844 0.11643 98 96 87
-0.391068 0.0713378 0.117169 128 116 105
-0.389528 0.0721319 0.118476 162 147 131
-0.387566 0.0727415 0.120052 201 192 165
-0.385631 0.0733429 0.121606 240 236 202
-0.385007 0.074463 0.122314 237 231 196
-0.384385 0.0755773 0.123018 205 189 163
-0.383767 0.0766855 0.123719 167 149 131
-0.383577 0.0779676 0.124144 130 122 105
-0.383812 0.0794279 0.124297 97 88 71
-0.383622 0.0807047 0.124721 71 53 47
-0.384708 0.0825348 0.124332 55 39 35
-0.337367 -0.00151124 0.138779 37 37 32
-0.337897 -0.000153869 0.13869 35 46 47
-0.338428 0.00120688 0.138602 31 63 62
-0.338636 0.00250149 0.138737 24 72 71
-0.338845 0.0037962 0.138873 20 76 74
-0.339378 0.0051636 0.138785 19 74 74
-0.339586 0.00646003 0.13892 21 73 75
-0.339795 0.00775659 0.139056 22 73 75
-0.340657 0.00920833 0.138743 21 75 76
-0.341524 0.0106672 0.138428 19 80 80
-0.343726 0.0124614 0.1372 20 87 89
-0.344945 0.0140272 0.136648 29 94 98
-0.345495 0.0154312 0.136556 35 95 101
-0.346386 0.0169271 0.136231 43 95 102
-0.346599 0.0182497 0.13637 44 97 102
-0.347153 0.0196644 0.136276 43 94 98
-0.348051 0.0211765 0.13595 34 84 87
-0.3493 0.0227925 0.135387 20 64 66
-0.351259 0.0246188 0.134347 12 35 39
-0.353242 0.026468 0.133293 6 12 21
-0.391718 0.0677541 0.114061 56 39 38
-0.391061 0.0689174 0.114808 58 61 53
-0.390407 0.0700743 0.115551 78 79 70
-0.389757 0.071225 0.116289 105 100 87
-0.388228 0.0720177 0.117598 131 120 106
-0.38628 0.0726265 0.119175 161 146 130
-0.384789 0.073402 0.120453 209 192 167
-0.384167 0.0745206 0.121163 239 233 204
-0.383976 0.0758108 0.121593 236 231 200
-0.383359 0.0769186 0.122298 205 193 164
-0.383169 0.0782004 0.122725 159 142 125
-0.383404 0.0796608 0.122878 128 117 101
-0.383639 0.0811214 0.123031 93 84 72
-0.3843 0.0827684 0.122911 66 53 47
-0.384535 0.0842311 0.123064 54 38 33
-0.337857 0.00011358 0.137205 35 31 32
-0.338389 0.00147638 0.137114 34 41 42
-0.338597 0.00277267 0.13725 32 55 53
-0.338806 0.00406906 0.137386 24 69 67
-0.339014 0.00536553 0.137522 21 73 71
-0.339223 0.0066621 0.137658 19 74 72
-0.339431 0.00795876 0.137793 18 74 73
-0.340293 0.00941111 0.137477 17 74 74
-0.341158 0.0108706 0.137159 16 75 75
-0.343358 0.0126664 0.135922 12 79 81
-0.344576 0.014233 0.135365 14 87 88
-0.345464 0.0157243 0.135038 20 89 93
-0.346016 0.017134 0.134943 30 93 97
-0.346569 0.0185473 0.134848 38 96 101
-0.347466 0.0200567 0.134518 43 97 103
-0.348367 0.0215737 0.134186 40 97 100
-0.349969 0.0232926 0.133378 31 91 91
-0.351586 0.0250287 0.132562 21 74 75
-0.352864 0.0266797 0.13198 12 41 51
-0.354151 0.0283432 0.131393 10 20 22
-0.361696 0.0450159 0.129511 35 29 26
-0.38995 0.0674792 0.113481 48 42 34
-0.389745 0.0688107 0.113933 53 55 43
-0.389097 0.0699649 0.114676 64 62 54
-0.388452 0.0711128 0.115415 84 80 70
-0.387372 0.072079 0.116437 108 101 87
-0.385434 0.0726867 0.11802 132 120 105
-0.383949 0.073461 0.119302 161 141 129
-0.38333 0.0745781 0.120015 213 188 172
-0.38314 0.0758665 0.120446 246 229 207
-0.382526 0.0769728 0.121152 241 232 206
-0.382761 0.0784333 0.121305 198 176 151
-0.382996 0.0798939 0.121458 154 137 122
-0.383231 0.0813545 0.121611 117 107 96
-0.383892 0.083002 0.121489 85 77 68
-0.384127 0.0844648 0.121642 64 43 38
-0.383936 0.0857372 0.12207 53 38 31
-0.338025 0.001678 0.135852 35 28 28
-0.338234 0.0029744 0.135987 38 34 31
-0.338442 0.0042709 0.136123 29 51 50
-0.338651 0.00556751 0.136259 25 64 61
-0.338859 0.0068642 0.136394 20 71 69
-0.339393 0.00823736 0.136303 15 74 70
-0.339602 0.00953581 0.136439 12 74 71
-0.340465 0.0109939 0.136119 12 74 73
-0.342324 0.0127059 0.135107 10 76 77
-0.343871 0.0143539 0.134316 13 82 82
-0.345093 0.0159308 0.133752 13 85 89
-0.345985 0.0174301 0.13342 17 89 92
-0.346538 0.0188456 0.133323 25 92 96
-0.347437 0.0203577 0.132988 34 95 101
-0.348339 0.0218774 0.132653 38 97 102
