ply
format ascii 1.0
element vertex 1251
property float x
property float y
property float z
property uchar diffuse_red
property uchar diffuse_green
property uchar diffuse_blue
end_header
-0.426973 0.0540519 0.323414 43 64 68
-0.416211 0.05272 0.323828 38 65 72
-0.412834 0.0533053 0.324051 31 69 80
-0.41179 0.0545075 0.324214 28 75 84
-0.411662 0.0559594 0.324355 30 80 88
-0.411535 0.0574113 0.324496 31 86 91
-0.411407 0.0588634 0.324637 33 89 91
-0.410824 0.0601815 0.324789 37 90 92
-0.410696 0.0616319 0.32493 39 92 96
-0.410115 0.0629447 0.325081 43 97 104
-0.409083 0.0641153 0.325241 45 104 115
-0.40761 0.0651401 0.325409 47 112 120
-0.406592 0.0662972 0.325567 48 112 116
-0.406466 0.0677326 0.325707 51 108 105
-0.375389 0.0712031 0.32758 78 86 80
-0.374178 0.0721055 0.327724 74 75 69
-0.373338 0.0731368 0.327862 77 72 64
-0.421262 0.0527471 0.322089 74 64 58
-0.413116 0.0520877 0.322469 63 64 60
-0.412528 0.0534199 0.322624 36 62 63
-0.4124 0.0548758 0.322765 29 59 62
-0.412272 0.0563317 0.322906 30 59 58
-0.412144 0.0577877 0.323048 30 62 60
-0.412016 0.0592438 0.323189 30 62 62
-0.41143 0.0605651 0.323343 29 66 65
-0.410846 0.061883 0.323496 27 66 68
-0.410264 0.0631974 0.323649 30 66 70
-0.40833 0.0640914 0.323836 27 69 75
-0.406861 0.0651151 0.32401 26 74 80
-0.405404 0.0661307 0.324183 27 76 83
-0.405278 0.0675624 0.324322 29 78 85
-0.376217 0.071712 0.326277 70 113 112
-0.374633 0.0724805 0.326434 80 102 93
-0.373789 0.0735135 0.326575 84 89 80
-0.371869 0.0741316 0.326736 77 76 71
-0.371755 0.075427 0.326862 72 71 63
-0.412222 0.0535346 0.321196 66 69 65
-0.412094 0.0549905 0.321338 53 64 60
-0.412425 0.0565761 0.321464 39 61 61
-0.412757 0.0581661 0.321591 33 61 60
-0.412628 0.0596263 0.321733 31 62 62
-0.41204 0.0609509 0.321889 30 65 62
-0.411454 0.0622718 0.322045 26 61 60
-0.410413 0.0634507 0.322214 30 56 59
-0.408026 0.064206 0.322422 29 55 57
-0.406559 0.0652294 0.322602 27 58 56
-0.405103 0.0662446 0.32278 27 57 58
-0.404977 0.0676765 0.322919 26 56 60
-0.377167 0.0709075 0.324836 39 106 109
-0.375941 0.0718177 0.324992 49 107 109
-0.37509 0.0728574 0.325137 64 117 114
-0.374243 0.073892 0.325281 70 116 112
-0.372316 0.0745095 0.32545 72 99 94
-0.371483 0.0755317 0.325593 74 81 75
-0.371369 0.0768272 0.325719 74 68 71
-0.370897 0.0779821 0.325852 72 69 83
-0.370783 0.0792762 0.325978 72 70 85
-0.37067 0.0805705 0.326104 72 72 68
-0.370556 0.0818648 0.326229 68 74 64
-0.370799 0.0833063 0.326348 68 76 60
-0.412578 0.0568213 0.320018 74 66 62
-0.41291 0.0584139 0.320143 54 62 60
-0.412782 0.0598762 0.320285 41 58 63
-0.412653 0.0613387 0.320427 35 58 61
-0.411605 0.0625249 0.320601 29 61 60
-0.411019 0.063844 0.320758 29 56 58
-0.407723 0.0643207 0.321008 30 57 57
-0.406256 0.0653437 0.321193 31 56 54
-0.405243 0.0664991 0.321362 31 57 54
-0.405117 0.067933 0.321501 29 57 55
-0.378124 0.0700969 0.323385 19 65 70
-0.376519 0.0708789 0.323557 24 70 77
-0.376033 0.0720589 0.323695 29 81 87
-0.375181 0.0730993 0.323844 33 98 104
-0.374333 0.0741348 0.323992 43 109 112
-0.372042 0.0746144 0.324179 57 107 110
-0.37121 0.0756364 0.324324 82 94 103
-0.371096 0.0769321 0.32445 121 103 102
-0.370982 0.0782278 0.324576 149 160 131
-0.370868 0.0795237 0.324701 151 158 144
-0.370397 0.0806756 0.324836 137 132 116
-0.37064 0.0821156 0.324953 97 94 89
-0.370884 0.0835592 0.32507 78 71 70
-0.371488 0.0851562 0.325179 76 66 64
-0.413065 0.0586624 0.318691 76 69 61
-0.412936 0.0601268 0.318833 70 63 58
-0.412346 0.0614545 0.318993 53 63 61
-0.412217 0.0629172 0.319135 37 63 62
-0.412088 0.0643799 0.319277 32 59 63
-0.410585 0.0654166 0.319472 33 58 59
-0.407292 0.0658787 0.319733 32 56 54
-0.406272 0.0670375 0.319907 30 55 54
-0.382902 0.0706322 0.321792 21 55 53
-0.377846 0.0702031 0.32209 22 48 55
-0.376242 0.0709848 0.322268 23 50 59
-0.375757 0.0721647 0.322408 20 59 65
-0.374905 0.073205 0.32256 20 68 76
-0.374424 0.0743781 0.322699 25 83 88
-0.372129 0.0748567 0.322895 38 96 103
-0.371655 0.0760181 0.323033 66 108 121
-0.370824 0.077037 0.323181 97 133 147
-0.37071 0.0783328 0.323307 114 169 176
-0.370596 0.0796288 0.323432 118 184 189
-0.370482 0.0809248 0.323558 107 180 179
-0.370368 0.082221 0.323684 86 146 135
-0.37097 0.0838128 0.323789 97 118 102
-0.371935 0.0855631 0.323884 89 88 81
-0.372182 0.0870199 0.324 76 71 70
-0.382619 0.0707401 0.320476 24 54 56
-0.377567 0.0703094 0.320794 28 47 52
-0.376335 0.0712254 0.320965 24 49 52
-0.375849 0.0724066 0.321107 23 49 53
-0.374997 0.0734477 0.321261 22 54 58
-0.374148 0.0744838 0.321416 22 61 66
-0.372578 0.0752377 0.321595 25 74 80
-0.371741 0.0762622 0.321748 42 94 100
-0.371267 0.0774221 0.321886 63 111 117
-0.370795 0.0785794 0.322025 72 122 126
-0.370323 0.0797339 0.322163 79 129 129
-0.370209 0.0810301 0.322289 74 139 137
-0.37081 0.0826191 0.32239 68 139 137
-0.371415 0.0842158 0.322492 80 143 137
-0.372022 0.0858204 0.322595 85 128 121
-0.372269 0.0872794 0.32271 76 98 99
-0.372517 0.0887421 0.322825 67 75 78
-0.379166 0.071092 0.319419 27 53 56
-0.377173 0.0717381 0.319627 26 54 53
-0.375942 0.0726491 0.319802 25 51 53
-0.375457 0.0738288 0.319945 24 52 54
-0.374605 0.0748666 0.320102 22 51 57
-0.373757 0.0758995 0.320259 20 56 62
-0.372189 0.0766468 0.320445 28 71 72
-0.372074 0.0779506 0.320571 43 85 85
-0.372321 0.0793979 0.320683 53 94 95
-0.370407 0.0799823 0.32088 57 99 99
-0.370651 0.0814252 0.320992 54 104 108
-0.371255 0.0830191 0.32109 53 110 118
-0.371862 0.0846208 0.32119 54 126 130
-0.372109 0.0860784 0.321303 65 139 139
-0.372356 0.0875396 0.321416 71 137 137
-0.372605 0.0890045 0.32153 77 121 115
-0.372853 0.090473 0.321644 78 93 88
-0.373353 0.0934211 0.321873 70 65 59
-0.382825 0.0712312 0.317806 24 55 61
-0.380403 0.0717467 0.318044 22 57 60
-0.378769 0.0725297 0.318244 22 58 60
-0.376778 0.0731672 0.318459 22 54 59
-0.375919 0.0742118 0.318621 21 53 57
-0.375433 0.0753912 0.318766 21 53 57
-0.375317 0.0767093 0.318894 22 54 57
-0.375941 0.0783147 0.318989 23 58 58
-0.376196 0.079782 0.3191 25 62 65
-0.37608 0.0811053 0.319229 29 67 75
-0.371932 0.0808094 0.319531 27 79 84
-0.372542 0.0824096 0.319626 30 83 88
-0.37279 0.0838679 0.319738 37 86 94
-0.373039 0.08533 0.31985 38 97 103
-0.372923 0.0866424 0.319977 45 112 118
-0.372808 0.0879549 0.320104 53 128 132
-0.372693 0.0892676 0.320231 64 139 138
-0.372942 0.0907383 0.320344 77 134 129
-0.373192 0.0922128 0.320457 81 110 106
-0.374061 0.0953371 0.320669 67 68 64
-0.374313 0.0968247 0.320782 68 68 60
-0.382542 0.0713393 0.316485 24 58 62
-0.381268 0.0722689 0.316675 25 58 60
-0.380004 0.0731916 0.316863 23 60 62
-0.379127 0.0742478 0.317031 21 59 61
-0.37901 0.0755822 0.31716 22 55 59
-0.378892 0.0769166 0.317289 24 57 57
-0.379533 0.0785425 0.317381 26 58 56
-0.379796 0.0800283 0.317493 20 51 50
-0.379678 0.081368 0.317622 13 41 44
-0.37918 0.0825566 0.31777 10 40 46
-0.375685 0.082536 0.31806 9 51 56
-0.375198 0.0837088 0.318206 12 64 70
-0.375082 0.0850308 0.318334 19 71 77
-0.374596 0.0861993 0.318479 24 79 84
-0.373744 0.0872106 0.318641 29 88 93
-0.373262 0.0883723 0.318785 37 101 104
-0.373146 0.0896883 0.318913 45 114 119
-0.37303 0.0910043 0.31904 56 129 133
-0.373647 0.0926419 0.319135 68 138 139
-0.373899 0.0941243 0.319247 75 130 128
-0.3754 0.0989332 0.319552 75 68 63
-0.376778 0.100953 0.319618 71 68 60
-0.383033 0.0717248 0.315121 27 58 58
-0.38214 0.0727951 0.315295 29 57 57
-0.381251 0.0738602 0.315468 30 57 58
-0.380367 0.0749201 0.31564 26 62 59
-0.380249 0.0762612 0.31577 26 58 59
-0.380513 0.0777478 0.315879 26 58 57
-0.380395 0.0790907 0.316009 23 56 56
-0.38066 0.0805829 0.316119 18 48 49
-0.380541 0.0819277 0.316249 12 37 39
-0.378898 0.0826651 0.316459 8 30 36
-0.378781 0.0840034 0.316589 8 38 44
-0.377907 0.0850337 0.316757 9 54 62
-0.376289 0.0857506 0.316963 15 61 68
-0.375057 0.0866147 0.317148 15 65 75
-0.374202 0.0876275 0.317314 16 75 77
-0.373718 0.0887917 0.31746 25 82 82
-0.373602 0.090111 0.317587 30 90 95
-0.373486 0.0914304 0.317715 39 103 109
-0.373737 0.0929113 0.317825 49 118 123
-0.373989 0.094396 0.317935 58 133 135
-0.374611 0.0960503 0.318028 71 143 139
-0.375237 0.0977128 0.318122 81 127 129
-0.376873 0.101237 0.318292 78 79 78
-0.377509 0.102927 0.318387 71 65 64
-0.382748 0.0718333 0.313797 28 57 59
-0.382242 0.0730437 0.313951 26 57 58
-0.381737 0.0742512 0.314105 27 56 57
-0.381234 0.0754557 0.314258 26 57 60
-0.381115 0.076802 0.314388 26 58 63
-0.381382 0.078295 0.314496 27 56 59
-0.381263 0.0796431 0.314627 20 54 56
-0.38076 0.0808413 0.314779 17 47 48
-0.380258 0.0820367 0.314931 13 36 39
-0.379758 0.0832291 0.315083 9 33 38
-0.379258 0.0844187 0.315235 9 45 50
-0.37876 0.0856054 0.315386 13 55 63
-0.377508 0.0864776 0.315578 22 61 67
-0.376266 0.0873433 0.315769 18 59 70
-0.375032 0.0882028 0.315959 14 63 68
-0.374176 0.0892132 0.316128 16 67 71
-0.37406 0.0905358 0.316256 19 75 78
-0.373943 0.0918586 0.316384 26 83 85
-0.374196 0.0933438 0.316492 33 92 96
-0.374449 0.0948328 0.316601 40 106 111
-0.375074 0.0964923 0.316691 50 121 125
-0.37645 0.0985001 0.316742 60 135 141
-0.376709 0.100009 0.316852 79 144 144
-0.377605 0.103214 0.317054 85 90 83
-0.377865 0.104736 0.317165 75 65 61
-0.382464 0.0719418 0.312473 53 59 61
-0.382345 0.0732929 0.312604 33 54 60
-0.381839 0.0745017 0.312759 28 53 60
-0.381335 0.0757076 0.312914 31 54 60
-0.381216 0.0770557 0.313044 30 54 62
-0.381098 0.0784038 0.313175 29 53 56
-0.380979 0.0797521 0.313305 20 49 51
-0.380861 0.0811004 0.313436 14 46 46
-0.380358 0.082297 0.31359 11 36 41
-0.379857 0.0834908 0.313744 11 39 45
-0.379738 0.0848361 0.313874 11 54 58
-0.378858 0.0858696 0.31405 17 63 67
-0.37836 0.0870548 0.314202 25 69 69
-0.377486 0.0880792 0.314377 25 65 68
-0.375868 0.0887824 0.314595 19 61 66
-0.375751 0.0901132 0.314723 17 63 66
-0.375634 0.0914441 0.314852 18 67 66
-0.375517 0.0927752 0.314981 20 71 69
-0.3754 0.0941062 0.31511 23 76 76
-0.375283 0.0954375 0.315239 28 84 86
-0.376287 0.0972734 0.315304 34 92 98
-0.376921 0.0989516 0.315391 39 106 113
-0.37718 0.100465 0.3155 51 130 133
-0.37744 0.101981 0.315609 103 144 138
-0.378342 0.105207 0.315807 82 74 69
-0.378605 0.106737 0.315917 71 63 60
-0.380933 0.0771644 0.311723 50 56 58
-0.380814 0.0785127 0.311853 32 54 55
-0.380695 0.0798611 0.311984 21 50 48
-0.380577 0.0812095 0.312114 12 40 41
-0.380074 0.0824061 0.31227 11 36 42
-0.379573 0.0835999 0.312425 13 46 53
-0.379455 0.0849453 0.312555 17 63 65
-0.379337 0.0862908 0.312685 22 73 70
-0.378457 0.0873209 0.312864 25 72 69
-0.37796 0.0885045 0.313018 25 70 67
-0.377464 0.0896852 0.313172 22 69 67
-0.377724 0.0911861 0.313278 24 69 65
-0.377606 0.0925271 0.313408 26 62 57
-0.37711 0.0937031 0.313561 26 60 58
-0.376992 0.0950426 0.31369 24 63 63
-0.376875 0.0963822 0.31382 23 68 69
-0.377134 0.0978919 0.313926 23 74 77
-0.377394 0.0994055 0.314033 24 85 86
-0.377654 0.100923 0.314141 30 101 109
-0.377915 0.102444 0.314248 90 139 137
-0.378439 0.105499 0.314464 77 77 79
-0.37832 0.106849 0.314594 74 63 59
-0.38053 0.0786216 0.310532 36 57 55
-0.380411 0.0799701 0.310662 19 49 45
-0.380293 0.0813187 0.310792 10 39 37
-0.379791 0.0825153 0.31095 9 45 45
-0.37929 0.083709 0.311107 15 61 63
-0.379172 0.0850545 0.311237 25 75 75
-0.379053 0.0864001 0.311367 32 80 78
-0.378554 0.0875878 0.311523 29 75 73
-0.378056 0.0887726 0.311679 25 72 68
-0.377938 0.0901151 0.311809 25 70 68
-0.378199 0.0916204 0.311913 38 68 65
-0.378081 0.0929649 0.312043 44 60 55
-0.377963 0.0943094 0.312173 45 55 51
-0.377844 0.095654 0.312303 39 54 54
-0.377726 0.0969987 0.312433 30 57 60
-0.377608 0.0983435 0.312563 23 64 66
-0.377869 0.0998615 0.312669 21 74 72
-0.37775 0.101208 0.312799 26 83 90
-0.378012 0.102732 0.312905 68 116 113
-0.378274 0.10426 0.313011 73 92 90
-0.378155 0.10561 0.313141 73 70 66
-0.378418 0.107143 0.313248 74 63 57
-0.380246 0.0787305 0.30921 31 57 58
-0.380127 0.0800791 0.30934 13 44 46
-0.379626 0.0812773 0.309499 11 40 40
-0.379125 0.0824726 0.309658 11 58 57
-0.379007 0.0838181 0.309788 23 79 79
-0.378888 0.0851637 0.309918 37 89 91
-0.37877 0.0865095 0.310048 40 89 91
-0.378651 0.0878553 0.310178 36 82 83
-0.378153 0.0890414 0.310336 32 76 74
-0.378415 0.0905472 0.310438 37 73 69
-0.378677 0.092057 0.310541 59 66 63
-0.378558 0.0934049 0.310671 66 63 57
-0.37844 0.0947528 0.310802 67 61 53
-0.378321 0.0961009 0.310932 61 60 55
-0.378202 0.0974491 0.311062 51 60 60
-0.378084 0.0987974 0.311193 45 63 64
-0.377965 0.100146 0.311323 44 68 64
-0.377846 0.101494 0.311453 48 70 70
-0.378108 0.10302 0.311558 63 80 79
-0.377989 0.104371 0.311688 68 72 65
-0.378634 0.106084 0.311767 68 66 58
-0.380081 0.0774908 0.307757 52 64 62
-0.379962 0.0788395 0.307887 25 58 62
-0.379843 0.0801882 0.308018 9 39 49
-0.379342 0.0813863 0.308178 11 49 55
-0.378842 0.0825816 0.308339 21 74 75
-0.378723 0.0839272 0.308469 33 91 92
-0.378605 0.085273 0.308599 41 97 100
-0.378486 0.0866189 0.308729 43 95 99
-0.378368 0.0879648 0.308859 43 91 95
-0.378249 0.0893108 0.308989 43 87 87
-0.378893 0.0909815 0.309061 55 77 73
-0.378774 0.0923311 0.309191 67 70 60
-0.379797 0.0775996 0.306435 31 66 63
-0.379678 0.0789484 0.306565 13 50 60
-0.379177 0.0801481 0.306727 7 40 51
-0.378677 0.081345 0.306889 13 67 70
-0.378558 0.0826906 0.307019 29 87 89
-0.37844 0.0840364 0.307149 36 95 98
-0.378321 0.0853823 0.307279 40 97 100
-0.378203 0.0867283 0.307409 44 98 100
-0.378465 0.0882332 0.307508 45 99 99
-0.378728 0.0897419 0.307608 49 96 93
-0.378991 0.0912546 0.307707 61 74 74
-0.378872 0.092606 0.307838 73 68 60
-0.379631 0.0763597 0.304982 51 67 60
-0.379513 0.0777085 0.305112 23 59 61
-0.379012 0.0789098 0.305276 9 39 50
-0.378893 0.0802571 0.305406 11 51 59
-0.378393 0.0814539 0.30557 21 80 82
-0.378275 0.0827997 0.3057 33 95 96
-0.378156 0.0841456 0.30583 39 98 99
-0.378418 0.0856472 0.305927 42 98 99
-0.3783 0.086995 0.306057 43 97 100
-0.378562 0.0885022 0.306154 47 97 99
-0.378826 0.0900133 0.306252 57 91 88
-0.379089 0.0915283 0.30635 71 71 60
-0.379466 0.0751196 0.303529 64 65 56
-0.379347 0.0764685 0.303659 34 65 61
-0.379228 0.0778174 0.303789 17 55 60
-0.378728 0.0790186 0.303955 3 41 52
-0.378228 0.080217 0.30412 15 74 73
-0.37811 0.0815628 0.30425 28 91 92
-0.377991 0.0829087 0.30438 38 97 101
-0.378253 0.0844088 0.304475 41 98 102
-0.378135 0.0857566 0.304605 42 98 101
-0.378397 0.0872624 0.304701 44 99 100
-0.37866 0.088772 0.304797 51 94 95
-0.378923 0.0902854 0.304893 64 81 81
-0.379188 0.0918028 0.304989 78 71 57
-0.379182 0.0752283 0.302206 56 65 60
-0.379063 0.0765772 0.302336 26 65 65
-0.378944 0.0779262 0.302466 10 54 61
-0.378444 0.0791275 0.302634 7 50 65
-0.377945 0.0803259 0.302801 19 84 87
-0.377826 0.0816718 0.30293 31 96 99
-0.378088 0.0831704 0.303024 40 97 103
-0.377969 0.0845182 0.303154 43 98 104
-0.378231 0.0860224 0.303247 43 99 103
-0.378112 0.0873721 0.303378 46 99 99
-0.378758 0.0890424 0.303435 59 90 86
-0.378638 0.0903957 0.303566 75 70 65
-0.379016 0.073988 0.300753 58 67 60
-0.378898 0.0753369 0.300883 39 69 66
-0.378397 0.0765414 0.301052 17 67 70
-0.378279 0.0778888 0.301182 7 55 66
-0.37816 0.0792364 0.301312 17 71 72
-0.378041 0.080584 0.301442 29 91 93
-0.378303 0.0820832 0.301533 40 98 102
-0.378185 0.0834327 0.301663 43 97 102
-0.378066 0.0847823 0.301794 44 97 101
-0.378328 0.0862888 0.301886 44 98 100
-0.378592 0.0877993 0.301978 50 96 95
-0.378855 0.0893135 0.30207 64 82 76
-0.378736 0.0906686 0.302201 76 66 52
-0.378732 0.0740965 0.299429 57 69 67
-0.378613 0.0754456 0.299559 31 73 75
-0.378113 0.07665 0.29973 13 72 75
-0.377995 0.0779976 0.29986 10 64 71
-0.377876 0.0793453 0.29999 23 84 84
-0.377757 0.0806931 0.30012 34 93 98
-0.378019 0.0821924 0.30021 41 98 101
-0.3779 0.0835421 0.30034 42 98 101
-0.377781 0.0848918 0.30047 43 98 101
-0.378044 0.0863986 0.30056 45 100 99
-0.378306 0.0879093 0.300651 53 88 87
-0.378187 0.0892627 0.300781 66 70 66
-0.379332 0.0731368 0.297889 65 66 64
-0.37883 0.074347 0.298063 48 73 74
-0.378329 0.0755543 0.298235 29 77 79
-0.37821 0.0769036 0.298366 14 75 75
-0.377711 0.0781064 0.298538 15 74 74
-0.377592 0.0794542 0.298668 24 91 92
-0.377854 0.0809521 0.298756 34 98 100
-0.377735 0.0823017 0.298886 40 99 100
-0.377616 0.0836515 0.299016 42 98 99
-0.377497 0.0850014 0.299146 44 97 100
-0.377759 0.0865084 0.299235 49 97 97
-0.378021 0.0880194 0.299323 60 80 77
-0.377902 0.0893729 0.299454 72 69 61
-0.379047 0.0732455 0.296562 56 70 67
-0.378545 0.0744557 0.296737 36 77 78
-0.378045 0.075663 0.296912 21 79 81
-0.377926 0.0770124 0.297042 14 76 77
-0.377807 0.078362 0.297172 20 82 81
-0.377688 0.0797116 0.297302 30 95 95
-0.377569 0.0810613 0.297432 37 101 100
-0.37745 0.0824111 0.297562 38 100 101
-0.377331 0.083761 0.297692 41 98 102
-0.377212 0.0851109 0.297822 45 99 101
-0.377474 0.0866183 0.297909 53 88 91
-0.377355 0.0879702 0.298039 64 73 71
-0.380034 0.0724211 0.294963 66 66 60
-0.37953 0.073637 0.295141 48 74 72
-0.378643 0.074707 0.295365 28 81 82
-0.37776 0.0757718 0.295587 16 78 80
-0.377641 0.0771213 0.295717 16 77 79
-0.377522 0.0784709 0.295847 25 87 90
-0.377404 0.0798207 0.295977 37 98 99
-0.377285 0.0811705 0.296107 38 100 100
-0.377166 0.0825204 0.296237 39 100 101
-0.377047 0.0838704 0.296367 41 99 103
-0.376928 0.0852205 0.296497 48 99 100
-0.377189 0.0867281 0.296583 61 79 79
-0.37707 0.0880801 0.296713 72 68 64
-0.380134 0.0726709 0.293582 55 70 66
-0.379244 0.073746 0.29381 38 78 79
-0.378357 0.0748159 0.294037 23 79 82
-0.377857 0.0760245 0.294215 15 77 78
-0.377357 0.0772302 0.294393 19 81 83
-0.377238 0.0785799 0.294523 30 93 97
-0.377119 0.0799298 0.294653 37 99 101
-0.377 0.0812797 0.294783 39 98 101
-0.376881 0.0826298 0.294913 38 99 102
-0.376762 0.0839799 0.295043 41 98 103
-0.377023 0.085486 0.295126 52 92 96
-0.376904 0.086838 0.295256 63 74 70
-0.380234 0.0729212 0.292197 48 74 72
-0.378958 0.0738551 0.292479 29 79 82
-0.378455 0.075068 0.292659 17 77 81
-0.377572 0.0761334 0.292889 15 77 80
-0.377072 0.0773391 0.293068 23 88 90
-0.376953 0.078689 0.293198 35 97 101
-0.376834 0.0800389 0.293328 37 98 102
-0.376716 0.081389 0.293458 41 98 102
-0.376597 0.0827392 0.293588 39 98 102
-0.376478 0.0840894 0.293718 46 98 98
-0.376359 0.0854398 0.293848 56 81 83
-0.376619 0.0869479 0.29393 64 70 65
-0.382014 0.0723724 0.290465 60 69 63
-0.380335 0.0731723 0.290808 41 79 77
-0.378672 0.0739642 0.291147 21 79 82
-0.378169 0.0751771 0.29133 14 76 79
-0.377287 0.0762424 0.291562 19 81 83
-0.376788 0.077448 0.291743 29 92 95
-0.376669 0.078798 0.291873 39 97 101
-0.37655 0.0801481 0.292003 41 98 101
-0.376431 0.0814983 0.292133 42 99 101
-0.376312 0.0828485 0.292263 42 98 101
-0.376193 0.0841989 0.292393 55 96 94
-0.376074 0.0855494 0.292523 63 72 69
-0.375955 0.0869 0.292653 67 66 61
-0.381725 0.0724824 0.28912 52 74 71
-0.380047 0.0732818 0.289469 32 83 80
-0.378386 0.0740733 0.289816 16 79 80
-0.377883 0.0752862 0.29 15 77 80
-0.377002 0.0763513 0.290236 25 85 88
-0.376883 0.077703 0.290366 36 95 98
-0.376384 0.078907 0.290548 41 97 100
-0.376265 0.0802573 0.290678 43 99 101
-0.376146 0.0816076 0.290808 44 99 102
-0.376027 0.082958 0.290938 48 100 99
-0.375908 0.0843085 0.291068 59 86 87
-0.375789 0.0856591 0.291197 68 70 65
-0.381046 0.0724508 0.287831 44 80 79
-0.379373 0.0732495 0.288187 23 82 82
-0.3781 0.0741825 0.288484 14 77 78
-0.377598 0.0753953 0.288669 19 80 84
-0.377097 0.0766052 0.288854 30 91 95
-0.376598 0.0778121 0.289039 38 97 101
-0.376099 0.0790161 0.289223 42 100 102
-0.37598 0.0803664 0.289353 46 102 103
-0.375861 0.0817169 0.289482 47 100 103
-0.375742 0.0830674 0.289612 53 98 97
-0.375623 0.084418 0.289742 63 74 72
-0.375504 0.0857688 0.289872 68 65 59
-0.381268 0.0713321 0.286297 53 76 72
-0.380757 0.0725607 0.286487 36 83 84
-0.378701 0.0732172 0.286907 19 79 82
-0.377814 0.0742916 0.287152 16 79 81
-0.377312 0.0755044 0.287339 25 88 90
-0.376812 0.0767143 0.287525 36 95 99
-0.376313 0.0779212 0.287711 42 98 101
-0.375815 0.0791252 0.287897 44 100 102
-0.375696 0.0804757 0.288027 49 103 102
-0.375577 0.0818262 0.288157 50 101 103
-0.375458 0.0831769 0.288286 57 87 93
-0.375339 0.0845276 0.288416 66 66 62
-0.381491 0.0702104 0.284759 61 65 64
-0.380979 0.071442 0.284951 42 83 81
-0.38008 0.072529 0.285203 25 85 85
-0.378414 0.0733265 0.285571 16 79 81
-0.377528 0.0744008 0.285819 17 84 86
-0.377026 0.0756136 0.286008 28 94 96
-0.376526 0.0768234 0.286196 39 98 101
-0.376027 0.0780303 0.286384 45 98 101
-0.37553 0.0792343 0.286571 49 98 100
-0.375411 0.0805849 0.286701 50 99 99
-0.375292 0.0819356 0.286831 53 99 97
-0.375173 0.0832864 0.286961 61 71 77
-0.375054 0.0846372 0.28709 67 62 60
-0.381202 0.0703204 0.283412 55 72 68
-0.380301 0.0714116 0.283667 35 86 85
-0.379791 0.0726388 0.28386 19 82 83
-0.378127 0.0734359 0.284235 18 80 81
-0.377241 0.07451 0.284487 26 89 90
-0.37674 0.0757227 0.284677 33 97 99
-0.376241 0.0769326 0.284867 39 99 102
-0.375742 0.0781395 0.285056 47 100 102
-0.375245 0.0793435 0.285245 52 99 102
-0.375126 0.0806941 0.285375 50 99 100
-0.375007 0.0820449 0.285505 54 91 89
-0.374888 0.0833958 0.285634 64 65 61
-0.381425 0.0691958 0.281868 63 64 62
-0.380522 0.0702913 0.282127 45 83 80
-0.379624 0.0713813 0.282386 26 88 87
-0.379116 0.0726071 0.28258 15 80 82
-0.37784 0.0735453 0.282899 20 85 85
-0.376955 0.0746192 0.283154 30 95 95
-0.376454 0.0758319 0.283346 37 99 99
-0.375576 0.0768963 0.283599 39 99 101
-0.375457 0.0782486 0.283728 40 100 103
-0.37496 0.0794526 0.283919 43 100 103
-0.374841 0.0808034 0.284049 48 95 97
-0.374722 0.0821543 0.284178 57 79 78
-0.374603 0.0835053 0.284308 63 65 59
-0.380744 0.069168 0.280584 59 70 66
-0.379844 0.0702623 0.280847 41 88 90
-0.378948 0.0713511 0.281108 19 84 85
-0.378442 0.0725755 0.281304 17 80 82
-0.37717 0.0735127 0.281627 27 91 93
-0.376288 0.0745855 0.281884 33 98 101
-0.375789 0.0757969 0.282078 38 98 102
-0.375291 0.0770054 0.28227 40 98 102
-0.375172 0.0783578 0.2824 39 98 103
-0.375053 0.0797104 0.28253 41 97 101
-0.374933 0.081063 0.28266 52 90 88
-0.374437 0.0822638 0.282852 62 66 61
-0.380967 0.0680417 0.279036 63 66 59
-0.380065 0.0691402 0.279303 49 83 78
-0.379167 0.0702334 0.279569 32 89 90
-0.378274 0.071321 0.279833 14 80 83
-0.377386 0.0724034 0.280096 23 86 86
-0.376502 0.0734803 0.280357 33 96 98
-0.376002 0.0746946 0.280553 38 98 102
-0.375503 0.075906 0.280748 40 98 103
-0.375006 0.0771145 0.280942 41 98 102
-0.374886 0.078467 0.281072 42 98 102
-0.374767 0.0798197 0.281202 46 95 98
-0.374648 0.0811724 0.281331 55 82 80
-0.374529 0.0825253 0.281461 62 63 53
-0.380677 0.0681516 0.277686 58 71 66
-0.379387 0.0691126 0.278025 40 91 90
-0.378492 0.0702045 0.278294 22 86 88
-0.377602 0.071291 0.278561 13 80 84
-0.376717 0.0723722 0.278826 25 93 95
-0.375836 0.073448 0.279091 35 100 102
-0.375337 0.074661 0.279288 40 100 103
-0.37484 0.075871 0.279484 39 98 104
-0.37472 0.0772236 0.279613 39 98 103
-0.374601 0.0785763 0.279743 44 100 101
-0.374482 0.079929 0.279873 52 89 90
-0.374362 0.0812819 0.280003 60 66 71
-0.374243 0.0826349 0.280132 65 61 59
-0.380899 0.0670223 0.276132 65 64 62
-0.379996 0.068125 0.276406 51 81 78
-0.379098 0.0692222 0.27668 32 92 97
-0.378204 0.070314 0.276951 18 81 87
-0.376932 0.0712611 0.277292 20 83 87
-0.376049 0.0723411 0.27756 31 97 100
-0.375171 0.0734158 0.277827 39 100 103
-0.374673 0.0746274 0.278025 40 100 104
-0.374554 0.07598 0.278155 40 100 103
-0.374435 0.0773327 0.278285 39 100 103
-0.374316 0.0786855 0.278414 46 98 99
-0.374196 0.0800384 0.278544 59 83 80
-0.374077 0.0813914 0.278674 65 59 56
-0.380218 0.0669971 0.274853 57 73 70
-0.379707 0.0682349 0.275057 42 92 91
-0.378422 0.0691946 0.275406 20 86 91
-0.377147 0.0701471 0.275753 14 79 84
-0.376263 0.0712313 0.276025 25 92 95
-0.375763 0.0724502 0.276226 34 100 101
-0.374885 0.0735247 0.276497 39 100 102
-0.374388 0.0747363 0.276696 40 99 103
-0.374269 0.076089 0.276826 39 99 103
-0.374149 0.0774418 0.276956 42 100 102
-0.374407 0.0789426 0.277016 52 89 91
-0.374288 0.0802973 0.277146 63 68 66
-0.38044 0.0658661 0.273295 61 66 64
-0.379928 0.0671069 0.273502 49 80 78
-0.379028 0.0682082 0.273783 36 95 94
-0.377748 0.069167 0.274136 16 81 84
-0.37686 0.0702564 0.274413 20 82 86
-0.375976 0.0713404 0.27469 27 96 101
-0.375097 0.0724191 0.274964 38 100 102
-0.374222 0.0734924 0.275238 40 100 103
-0.374103 0.0748452 0.275367 41 101 102
-0.373983 0.076198 0.275497 40 100 103
-0.373864 0.077551 0.275626 46 98 101
-0.374121 0.079052 0.275685 57 84 81
-0.374002 0.0804068 0.275815 64 64 57
-0.38015 0.065976 0.271942 55 70 69
-0.379248 0.0670816 0.272227 44 91 92
-0.378352 0.0681818 0.272511 28 89 93
-0.37746 0.0692764 0.272793 12 78 86
-0.37619 0.0702277 0.273149 26 94 96
-0.375309 0.0713106 0.273428 34 99 104
-0.374433 0.0723881 0.273705 41 99 104
-0.373936 0.0736013 0.273908 41 98 104
-0.373817 0.0749541 0.274038 41 101 103
-0.373698 0.0763071 0.274167 41 100 102
-0.373578 0.0776602 0.274297 48 93 96
-0.373835 0.0791614 0.274354 59 76 76
-0.373716 0.0805164 0.274483 65 59 55
-0.380372 0.0648421 0.270378 65 67 62
-0.379469 0.065952 0.270668 54 78 76
-0.378959 0.0671914 0.270878 41 94 96
-0.377677 0.0681553 0.271242 21 83 87
-0.377172 0.0693859 0.27145 21 78 84
-0.375903 0.0703369 0.271811 31 97 98
-0.375023 0.0714196 0.272093 34 101 101
-0.374147 0.0724969 0.272374 39 99 103
-0.373651 0.0737101 0.272579 42 100 104
-0.373531 0.0750631 0.272708 40 100 102
-0.373412 0.0764162 0.272838 45 98 99
-0.373293 0.0777694 0.272967 54 83 80
-0.373549 0.0792709 0.273022 63 66 57
-0.37343 0.080626 0.273152 67 61 48
-0.37969 0.0648194 0.269104 62 71 68
-0.379179 0.0660618 0.269316 45 88 88
-0.377895 0.0670313 0.269687 26 88 94
-0.377004 0.068129 0.269976 14 81 82
-0.376117 0.0692213 0.270264 32 92 91
-0.375235 0.0703082 0.270551 34 100 102
-0.374358 0.0713897 0.270836 40 101 103
-0.373485 0.0724659 0.271119 41 99 102
-0.373365 0.0738189 0.271249 41 99 102
-0.373246 0.0751721 0.271378 42 98 102
-0.373127 0.0765253 0.271508 51 94 97
-0.373007 0.0778786 0.271637 60 75 72
-0.373263 0.0793803 0.271691 64 60 52
-0.379521 0.0635527 0.267619 65 65 67
-0.379399 0.0649292 0.26775 54 75 80
-0.3785 0.0660377 0.268046 40 93 98
-0.37722 0.0670062 0.268421 17 85 88
-0.376332 0.0681028 0.268714 11 82 85
-0.375448 0.0691939 0.269004 31 99 102
-0.374569 0.0702796 0.269293 35 100 107
-0.373694 0.0713599 0.269581 40 100 107
-0.373199 0.0725747 0.269789 43 99 104
-0.37308 0.0739278 0.269919 42 99 103
-0.37296 0.075281 0.270048 45 99 101
-0.372841 0.0766344 0.270177 52 83 88
-0.372721 0.0779878 0.270307 61 62 63
-0.37923 0.0636624 0.266265 60 69 68
-0.37872 0.0649064 0.266481 48 88 87
-0.377437 0.0658805 0.266862 29 91 95
-0.376547 0.0669813 0.267159 15 83 84
-0.375662 0.0680766 0.267454 29 88 92
-0.374781 0.0691665 0.267747 32 101 107
-0.373905 0.0702511 0.268039 40 101 106
-0.373033 0.0713303 0.26833 43 98 104
-0.372913 0.0726834 0.268459 45 100 102
-0.372794 0.0740367 0.268588 43 100 103
-0.372674 0.0753901 0.268718 50 98 98
-0.372555 0.0767435 0.268847 60 77 74
-0.372436 0.0780971 0.268976 65 60 58
-0.37894 0.0637722 0.264911 58 75 72
-0.378041 0.0648838 0.265214 40 93 94
-0.376763 0.0658568 0.2656 22 87 89
-0.375876 0.0669564 0.265899 17 81 85
-0.374994 0.0680505 0.266197 36 98 98
-0.374116 0.0691393 0.266493 35 101 107
-0.373242 0.0702226 0.266788 40 101 105
-0.372747 0.0714389 0.266999 40 100 106
-0.372628 0.0727922 0.267128 41 101 106
-0.372508 0.0741456 0.267258 44 100 102
-0.372389 0.0754991 0.267387 50 86 91
-0.372269 0.0768527 0.267516 59 68 69
-0.37215 0.0782063 0.267646 64 63 56
-0.37877 0.0625052 0.263425 64 70 60
-0.37826 0.0637508 0.263645 50 84 80
-0.377365 0.0648612 0.26395 32 93 96
-0.376091 0.0658332 0.26434 16 83 87
-0.374826 0.066798 0.264728 25 85 89
-0.374327 0.0680245 0.264943 37 101 105
-0.373452 0.0691121 0.265242 39 100 104
-0.372956 0.0703313 0.265455 41 102 104
-0.372461 0.0715476 0.265668 41 101 103
-0.372342 0.072901 0.265798 41 100 105
-0.372222 0.0742545 0.265927 48 102 102
-0.372103 0.0756081 0.266056 56 79 75
-0.371983 0.0769618 0.266186 64 62 55
-0.378091 0.0624853 0.262161 55 73 73
-0.377583 0.0637296 0.262381 41 93 92
-0.37669 0.0648387 0.262689 24 89 93
-0.37542 0.0658097 0.263084 14 83 91
-0.374539 0.0669069 0.263389 35 97 101
-0.37404 0.0681334 0.263605 38 100 108
-0.373165 0.0692208 0.263907 41 102 106
-0.37267 0.07044 0.264123 41 101 103
-0.37255 0.0717952 0.264252 43 99 102
-0.372056 0.0730098 0.264467 44 101 103
-0.371937 0.0743635 0.264596 51 90 97
-0.371817 0.0757172 0.264725 63 69 72
-0.37831 0.0613476 0.260585 64 66 62
-0.377801 0.0625948 0.260808 51 81 81
-0.376907 0.0637083 0.26112 37 92 97
-0.376017 0.0648163 0.261432 17 85 89
-0.375132 0.0659188 0.261741 23 86 93
-0.373873 0.0668823 0.262138 38 101 106
-0.373375 0.0681074 0.262356 38 100 104
-0.372503 0.0691936 0.262661 41 101 105
-0.372383 0.0705488 0.26279 42 101 104
-0.372264 0.071904 0.262919 41 101 103
-0.372144 0.0732594 0.263049 47 100 99
-0.372025 0.0746148 0.263178 55 77 77
-0.371905 0.0759704 0.263307 64 66 63
-0.377632 0.0613291 0.259323 59 76 76
-0.377124 0.062575 0.259547 43 91 94
-0.376232 0.0636872 0.259863 25 89 96
-0.375346 0.064794 0.260177 17 84 89
-0.374463 0.0658952 0.260489 34 96 98
-0.373585 0.066991 0.2608 37 103 107
-0.372712 0.0680814 0.261109 41 101 105
-0.372217 0.0693022 0.261328 43 103 104
-0.372097 0.0706575 0.261457 41 100 104
-0.371978 0.0720129 0.261586 43 99 102
-0.371858 0.0733684 0.261715 52 96 96
-0.371738 0.0747239 0.261845 60 75 67
-0.371619 0.0760796 0.261974 65 66 55
-0.37785 0.0601897 0.257744 61 69 65
-0.377341 0.0614386 0.25797 54 82 81
-0.376834 0.0626844 0.258196 37 93 98
-0.37556 0.0636662 0.258608 18 85 90
-0.375057 0.0649031 0.258832 20 88 90
-0.373796 0.0658717 0.25924 34 103 103
-0.372921 0.0669664 0.259553 36 104 104
-0.37205 0.0680556 0.259865 41 100 105
-0.371557 0.069275 0.260085 44 100 103
-0.371811 0.0707663 0.260124 43 99 102
-0.371691 0.0721218 0.260253 47 100 99
-0.371572 0.0734774 0.260382 57 76 81
-0.371452 0.0748331 0.260511 64 63 59
-0.377559 0.0602992 0.256389 59 75 74
-0.377051 0.061548 0.256616 45 92 92
-0.376158 0.0626644 0.25694 27 92 95
-0.375271 0.0637753 0.257261 18 85 89
-0.374387 0.0648807 0.257581 33 95 94
-0.373131 0.0658483 0.257993 39 102 104
-0.372258 0.0669418 0.258309 41 101 105
-0.37139 0.0680298 0.258624 43 100 102
-0.371271 0.0693836 0.258753 46 99 102
-0.371151 0.0707374 0.258882 44 99 101
-0.371405 0.0722307 0.258919 52 97 98
-0.371285 0.0735864 0.259049 64 69 68
-0.377778 0.0591567 0.254803 61 69 62
-0.377268 0.0604086 0.255033 53 80 83
-0.37676 0.0616575 0.255263 37 94 98
-0.375485 0.0626446 0.255687 18 87 91
-0.3746 0.0637542 0.256011 22 86 90
-0.373341 0.0647274 0.256429 39 99 102
-0.372843 0.0659571 0.256655 39 102 105
-0.371597 0.0669173 0.257069 40 101 106
-0.371104 0.0681382 0.257292 41 102 105
-0.370985 0.0694921 0.257421 43 99 104
-0.370865 0.0708461 0.25755 45 101 101
-0.371119 0.0723396 0.257585 53 83 87
-0.370999 0.0736955 0.257715 64 70 64
-0.377487 0.0592662 0.253445 58 77 72
-0.376977 0.0605182 0.253677 46 91 90
-0.376084 0.0616388 0.254008 29 93 95
-0.374813 0.0626248 0.254436 19 85 88
-0.373552 0.0636035 0.254861 33 91 94
-0.373053 0.0648362 0.255089 41 100 105
-0.37218 0.0659336 0.255413 41 101 104
-0.371311 0.0670257 0.255735 42 102 105
-0.370818 0.0682467 0.25596 43 101 105
-0.370699 0.0696007 0.256089 42 100 106
-0.370579 0.0709547 0.256218 50 98 97
-0.370832 0.0724486 0.256251 62 73 67
-0.370712 0.0738045 0.256381 65 64 59
-0.377317 0.0579966 0.251956 62 64 62
-0.377195 0.0593758 0.252088 55 80 80
-0.376686 0.0606277 0.252321 39 93 96
-0.37541 0.0616201 0.252757 20 87 92
-0.374143 0.0626051 0.253189 22 87 90
-0.372886 0.0635827 0.253618 39 100 101
-0.372389 0.064814 0.253847 40 101 108
-0.371518 0.0659103 0.254174 41 101 105
-0.370652 0.0670012 0.254498 41 101 105
-0.370532 0.0683552 0.254627 42 102 104
-0.370413 0.0697093 0.254756 44 103 104
-0.370293 0.0710635 0.254885 52 83 89
-0.370173 0.0724177 0.255014 62 66 61
-0.377026 0.0581061 0.250599 59 75 70
-0.376517 0.0593597 0.250834 48 87 88
-0.37601 0.0606101 0.251069 32 91 96
-0.374737 0.0616015 0.251509 20 86 90
-0.373854 0.062714 0.251843 29 91 96
-0.372598 0.0636914 0.252277 40 102 107
-0.371726 0.0647919 0.252608 39 102 107
-0.370858 0.065887 0.252937 41 101 106
-0.370738 0.0672427 0.253066 42 102 105
-0.370246 0.0684637 0.253295 40 100 106
-0.370126 0.0698179 0.253424 50 102 100
-0.370007 0.0711722 0.253552 61 73 70
-0.369887 0.0725266 0.253681 62 61 59
-0.376734 0.0582156 0.249241 56 81 79
-0.376226 0.0594691 0.249478 40 93 95
-0.375334 0.0605927 0.249819 23 87 93
-0.374066 0.0615829 0.250263 20 87 92
-0.373186 0.0626943 0.250601 35 99 101
-0.371934 0.0636706 0.251039 38 101 107
-0.371064 0.0647699 0.251372 41 101 106
-0.370571 0.0659954 0.251603 42 100 105
-0.370451 0.0673512 0.251732 41 101 105
-0.370332 0.0687072 0.251861 42 102 106
-0.370212 0.0700632 0.25199 54 90 94
-0.369721 0.0712809 0.252219 66 66 58
-0.376564 0.0569457 0.247751 62 68 64
-0.376056 0.0582009 0.24799 51 86 84
-0.375549 0.059453 0.248228 34 93 96
-0.374661 0.0605752 0.248572 20 86 89
-0.373397 0.0615645 0.249021 26 90 93
-0.372519 0.0626745 0.249361 38 103 105
-0.371646 0.0637792 0.249699 37 101 106
-0.370777 0.0648783 0.250036 41 101 106
-0.370285 0.0661038 0.250268 42 100 105
-0.370165 0.0674598 0.250397 41 100 105
-0.370045 0.0688158 0.250526 48 102 101
-0.369925 0.070172 0.250655 57 75 76
-0.369806 0.0715282 0.250784 66 63 55
-0.376273 0.057055 0.246392 56 77 76
-0.375765 0.0583102 0.246633 41 94 94
-0.374875 0.0594369 0.246982 24 89 94
-0.373989 0.0605579 0.247329 20 86 91
-0.373108 0.0616734 0.247674 35 96 101
-0.372231 0.0627833 0.248017 38 102 108
-0.371358 0.0638878 0.248359 41 102 105
-0.37049 0.0649868 0.248699 41 101 106
-0.37037 0.0663444 0.248828 43 100 106
-0.369878 0.0675683 0.249062 42 101 106
-0.369758 0.0689245 0.249191 52 96 97
-0.369639 0.0702808 0.24932 60 66 64
-0.369519 0.0716371 0.249449 66 65 56
-0.376103 0.0557849 0.244903 57 68 63
-0.375981 0.0571644 0.245034 49 85 84
-0.375474 0.0584196 0.245276 33 95 96
-0.374202 0.0594208 0.245738 18 87 90
-0.373319 0.0605406 0.246088 25 91 94
-0.372819 0.0617823 0.246327 38 102 106
-0.371566 0.0627636 0.246782 37 101 109
-0.370697 0.0638668 0.247126 41 102 106
-0.370576 0.0652262 0.247255 41 100 107
-0.370083 0.066453 0.247491 42 100 106
-0.369963 0.0678109 0.24762 47 101 101
-0.369843 0.0691689 0.24775 59 79 80
-0.369723 0.070527 0.247879 65 62 58
-0.375811 0.0558942 0.243544 53 76 74
-0.37569 0.0572738 0.243675 42 93 93
-0.374798 0.0584047 0.244031 27 91 95
-0.373912 0.0595299 0.244386 21 88 91
-0.373029 0.0606496 0.244739 34 99 99
-0.372152 0.0617637 0.24509 39 104 108
-0.371278 0.0628722 0.24544 39 102 108
-0.370409 0.0639753 0.245788 41 101 106
-0.370289 0.0653348 0.245917 42 101 106
-0.370169 0.0666945 0.246046 42 100 105
-0.370049 0.0680542 0.246175 56 98 97
-0.369929 0.069414 0.246304 67 67 65
-0.369436 0.070636 0.246541 66 60 58
-0.375642 0.0546238 0.242053 60 64 62
-0.37552 0.0560035 0.242184 50 82 84
-0.375398 0.0573833 0.242315 35 94 98
-0.374507 0.058514 0.242675 21 86 93
-0.373241 0.0595139 0.243147 25 89 97
-0.372361 0.0606322 0.243503 36 101 106
-0.371863 0.0618725 0.243745 38 102 108
-0.37099 0.0629809 0.244097 40 101 108
-0.370495 0.0642137 0.244338 42 101 106
-0.370375 0.065575 0.244467 42 100 105
-0.369881 0.0668032 0.244707 48 100 99
-0.369761 0.0681631 0.244836 59 78 84
-0.369641 0.069523 0.244965 71 64 59
-0.37535 0.054733 0.240694 57 72 72
-0.375228 0.0561128 0.240825 44 92 92
-0.374722 0.0573696 0.241072 27 92 96
-0.373834 0.0584991 0.241435 22 87 92
-0.372951 0.0596229 0.241796 33 96 99
-0.372072 0.0607411 0.242155 36 103 108
-0.371198 0.0618538 0.242512 40 102 108
-0.370702 0.0630896 0.242755 42 101 107
-0.370207 0.0643223 0.242997 42 100 105
-0.370087 0.0656838 0.243126 43 100 105
-0.369967 0.0670454 0.243256 52 99 96
-0.369474 0.068272 0.243497 61 66 67
-0.369354 0.0696321 0.243626 71 63 57
-0.37518 0.0534624 0.239203 62 63 61
-0.375058 0.0548423 0.239334 51 81 83
-0.374936 0.0562222 0.239465 35 96 98
-0.37443 0.057479 0.239714 20 88 93
-0.373543 0.0586082 0.240081 25 89 94
-0.372661 0.0597319 0.240445 38 101 103
-0.371783 0.06085 0.240807 38 102 106
-0.370909 0.0619625 0.241168 41 102 107
-0.370414 0.0631983 0.241412 43 101 106
-0.369919 0.064431 0.241656 42 100 106
-0.369799 0.0657927 0.241785 46 100 104
-0.369679 0.0671544 0.241914 57 83 85
-0.369186 0.0683809 0.242157 63 64 60
-0.374888 0.0535716 0.237843 58 73 70
-0.374766 0.0549515 0.237974 45 93 91
-0.373877 0.0560886 0.238345 28 94 96
-0.372993 0.05722 0.238714 20 89 92
-0.372113 0.0583458 0.239082 32 95 98
-0.371614 0.0595906 0.239329 39 102 106
-0.370366 0.0605806 0.23981 39 101 106
-0.369872 0.0618166 0.240056 41 103 107
-0.369752 0.0631781 0.240185 42 102 107
-0.369631 0.0645398 0.240314 43 101 106
-0.369511 0.0659015 0.240444 52 99 99
-0.369391 0.0672633 0.240573 63 70 66
-0.36927 0.0686253 0.240702 64 61 54
-0.374718 0.0523007 0.236353 60 61 57
-0.374596 0.0536807 0.236483 52 79 82
-0.374091 0.0549408 0.236736 39 95 97
-0.373205 0.0560765 0.23711 24 88 94
-0.372323 0.0572067 0.237482 25 90 95
-0.371446 0.0583312 0.237851 37 100 104
-0.370573 0.0594501 0.238219 38 101 107
-0.369705 0.0605635 0.238585 40 101 107
-0.369212 0.0617981 0.238832 42 103 106
-0.369092 0.063158 0.238961 43 102 106
-0.369343 0.0646485 0.238973 45 101 103
-0.369223 0.0660103 0.239102 55 85 89
-0.369103 0.0673723 0.239231 65 63 52
-0.374549 0.0510298 0.234861 61 59 54
-0.374427 0.0524098 0.234992 57 71 65
-0.374305 0.0537899 0.235123 46 89 89
-0.373417 0.05493 0.235501 32 93 97
-0.372533 0.0560645 0.235877 23 87 92
-0.371277 0.0570716 0.236373 32 94 98
-0.370405 0.0581937 0.236745 39 102 107
-0.369537 0.0593103 0.237115 39 102 106
-0.369044 0.0605465 0.237363 41 102 107
-0.368924 0.0619064 0.237492 42 101 106
-0.368804 0.0632665 0.237621 44 100 105
-0.368684 0.0646267 0.23775 50 99 98
-0.368564 0.065987 0.237879 59 68 69
-0.374257 0.0511387 0.233501 58 61 61
-0.374135 0.0525188 0.233632 52 79 79
-0.373629 0.0537805 0.233888 38 94 95
-0.373126 0.0550391 0.234144 23 89 94
-0.371864 0.0560526 0.234648 24 89 94
-0.370988 0.0571802 0.235025 37 100 103
-0.370116 0.0583021 0.2354 40 103 107
-0.369249 0.0594186 0.235773 41 102 106
-0.369129 0.0607803 0.235902 41 102 107
-0.368637 0.0620148 0.236152 40 101 106
-0.368516 0.063375 0.236281 45 99 104
-0.368396 0.0647353 0.23641 53 88 91
-0.368276 0.0660957 0.236539 63 61 53
-0.373965 0.0512476 0.23214 54 68 66
-0.373843 0.0526279 0.232271 47 88 88
-0.373338 0.0538896 0.232529 31 93 97
-0.372454 0.0550283 0.232913 20 87 92
-0.371574 0.0561613 0.233295 30 93 99
-0.370698 0.0572887 0.233676 41 103 107
-0.369827 0.0584106 0.234054 43 105 106
-0.369333 0.0596512 0.234307 43 102 105
-0.36884 0.0608887 0.23456 42 102 106
-0.36872 0.0622506 0.234689 41 101 105
-0.3686 0.0636127 0.234818 50 99 100
-0.368479 0.0649748 0.234947 57 71 74
-0.367988 0.0662045 0.235198 62 60 51
-0.373673 0.0513566 0.230779 53 77 77
-0.373551 0.052737 0.23091 39 93 95
-0.372665 0.0538801 0.231299 22 89 96
-0.372163 0.0551372 0.231557 23 88 96
-0.371284 0.0562701 0.231943 37 98 104
-0.370409 0.0573974 0.232327 40 104 108
-0.370288 0.058766 0.232456 43 105 106
-0.369418 0.0598843 0.232838 44 102 106
-0.368924 0.0611233 0.233092 43 101 106
-0.368804 0.062487 0.233221 43 100 104
-0.368683 0.0638509 0.233351 55 91 93
-0.368191 0.0650836 0.233604 64 62 58
-0.373503 0.0500852 0.229287 58 68 62
-0.373381 0.0514656 0.229418 50 87 87
-0.372876 0.0527289 0.22968 32 93 97
-0.371993 0.0538707 0.230071 20 88 93
-0.371493 0.0551263 0.230331 29 92 99
-0.370993 0.0563789 0.23059 40 102 107
-0.370119 0.057506 0.230977 39 102 107
-0.369998 0.0588748 0.231107 41 103 107
-0.369877 0.0602436 0.231236 43 101 108
-0.369008 0.0613585 0.231621 43 101 107
-0.368515 0.0625958 0.231877 50 97 99
-0.368395 0.0639598 0.232006 58 74 77
-0.367903 0.0651924 0.232261 63 57 53
-0.373333 0.0488137 0.227795 57 57 55
-0.373211 0.0501941 0.227926 53 78 75
-0.373089 0.0515746 0.228057 42 94 93
-0.372204 0.0527208 0.228452 25 91 95
-0.371702 0.0539795 0.228715 23 90 93
-0.371202 0.0552352 0.228976 38 98 101
-0.370703 0.0564877 0.229237 41 103 108
-0.36983 0.0576147 0.229628 40 102 108
-0.369709 0.0589835 0.229757 41 102 109
-0.369588 0.0603525 0.229887 42 101 108
-0.369466 0.0617216 0.230016 43 99 104
-0.369345 0.0630908 0.230146 55 91 91
-0.368106 0.0640686 0.230661 61 61 54
-0.367614 0.0653013 0.230918 58 54 52
-0.373041 0.0489224 0.226434 54 60 61
-0.372918 0.050303 0.226564 48 85 86
-0.372415 0.0515679 0.22683 34 94 97
-0.371912 0.0528297 0.227094 22 86 93
-0.371033 0.0539701 0.227492 29 91 97
-0.370911 0.055344 0.227621 42 101 106
-0.370412 0.0565965 0.227884 42 102 108
-0.369915 0.057846 0.228146 41 102 108
-0.369419 0.0590923 0.228407 41 102 109
-0.369673 0.0605876 0.228405 42 101 105
-0.369551 0.0619585 0.228535 48 98 99
-0.36943 0.0633296 0.228665 57 75 76
-0.368934 0.0645694 0.228926 62 57 45
-0.37287 0.0476507 0.224941 56 56 54
-0.372748 0.0490312 0.225072 51 73 73
-0.372626 0.0504119 0.225203 40 92 94
-0.372123 0.0516768 0.225469 25 91 96
-0.371621 0.0529386 0.225736 24 88 94
-0.370742 0.0540788 0.226136 36 96 102
-0.37062 0.0554529 0.226266 39 103 109
-0.370122 0.0567054 0.226531 40 102 108
-0.369625 0.0579548 0.226794 42 102 108
-0.369504 0.0593257 0.226924 42 103 106
-0.369758 0.0608232 0.22692 43 101 103
-0.369636 0.062196 0.22705 52 92 92
-0.369515 0.0635689 0.22718 61 58 55
-0.369019 0.0648102 0.227443 61 56 44
-0.3727 0.0463788 0.223449 60 58 55
-0.372578 0.0477593 0.223579 57 64 62
-0.372456 0.04914 0.22371 49 83 84
-0.372334 0.0505208 0.22384 33 94 98
-0.371831 0.0517857 0.224109 21 88 94
-0.371329 0.0530475 0.224377 29 92 97
-0.370829 0.0543062 0.224644 40 102 106
-0.370329 0.0555617 0.224911 40 103 108
-0.369832 0.0568142 0.225177 41 103 109
-0.36971 0.0581869 0.225307 42 102 108
-0.369589 0.0595596 0.225437 43 102 106
-0.369843 0.0610594 0.225431 47 99 100
-0.369722 0.0624341 0.225561 52 78 81
-0.3696 0.0638089 0.225691 66 54 42
-0.372408 0.0464873 0.222087 61 59 56
-0.372286 0.047868 0.222217 56 72 72
-0.372164 0.0492489 0.222348 44 89 91
-0.371661 0.0505154 0.222618 27 91 97
-0.371539 0.0518947 0.222748 23 88 93
-0.371038 0.0531564 0.223018 35 97 100
-0.370537 0.0544151 0.223287 40 104 108
-0.370039 0.0556706 0.223556 41 102 108
-0.369541 0.0569231 0.223823 43 102 109
-0.36942 0.0582959 0.223953 42 101 107
-0.369674 0.0597941 0.223945 45 100 104
-0.369552 0.0611688 0.224075 53 96 94
-0.369431 0.0625436 0.224205 56 61 59
-0.372116 0.0465959 0.220724 60 63 59
-0.371994 0.0479768 0.220855 51 81 82
-0.371872 0.0493577 0.220985 34 93 96
-0.371369 0.0506243 0.221257 20 88 94
-0.370868 0.0518876 0.221529 26 92 96
-0.370746 0.0532654 0.221659 38 103 105
-0.370246 0.054524 0.22193 39 103 109
-0.369748 0.0557795 0.2222 42 102 108
-0.369626 0.0571541 0.222329 43 103 109
-0.369504 0.0585287 0.222459 42 102 106
-0.369383 0.0599034 0.222589 48 98 100
-0.369637 0.0614059 0.22258 57 82 83
-0.369516 0.0627825 0.22271 63 54 48
-0.372327 0.0454316 0.219087 60 58 51
-0.371824 0.0467045 0.219361 56 71 68
-0.371701 0.0480855 0.219492 43 89 90
-0.371579 0.0494666 0.219622 26 92 96
-0.371077 0.0507331 0.219896 20 88 92
-0.370576 0.0519965 0.220169 32 95 100
-0.370077 0.0532568 0.220442 40 103 107
-0.369578 0.0545139 0.220714 40 102 106
-0.369457 0.0558885 0.220844 42 102 106
-0.369335 0.0572631 0.220973 43 102 105
-0.36959 0.0587621 0.220962 43 101 106
-0.369468 0.0601387 0.221092 54 96 95
-0.369723 0.0616435 0.22108 60 62 64
-0.369601 0.0630221 0.22121 65 53 45
-0.372034 0.0455402 0.217722 57 59 57
-0.371912 0.046923 0.217852 52 81 81
-0.371409 0.0481943 0.218129 36 95 98
-0.371287 0.0495755 0.218259 20 89 95
-0.370785 0.050842 0.218535 25 90 95
-0.370284 0.0521053 0.21881 39 100 102
-0.369785 0.0533656 0.219084 41 103 106
-0.369287 0.0546228 0.219358 42 102 105
-0.369166 0.0559974 0.219487 42 102 106
-0.36942 0.0574949 0.219474 44 102 103
-0.369298 0.0588715 0.219604 46 101 101
-0.369553 0.0603747 0.21959 59 85 85
-0.369431 0.0617533 0.21972 65 60 49
-0.372246 0.0443728 0.216078 57 55 54
-0.371742 0.0456489 0.216357 54 67 69
-0.371619 0.0470318 0.216487 48 88 89
-0.371116 0.0483031 0.216766 32 93 99
-0.370615 0.0495712 0.217043 22 87 96
-0.370115 0.0508362 0.21732 32 93 100
-0.369993 0.0522142 0.21745 38 102 105
-0.369494 0.0534745 0.217726 40 102 105
-0.369372 0.0548509 0.217856 42 103 106
-0.36925 0.0562275 0.217986 42 102 106
-0.369128 0.0576041 0.218115 44 100 103
-0.369383 0.0591057 0.2181 52 98 95
-0.369638 0.0606112 0.218085 63 64 67
-0.369516 0.0619917 0.218215 67 56 46
-0.371953 0.0444815 0.214711 52 61 58
-0.37183 0.0458662 0.214842 47 80 81
-0.371326 0.0471406 0.215122 38 94 95
-0.370824 0.0484119 0.215402 24 88 95
-0.370323 0.04968 0.215681 28 89 97
-0.369823 0.050945 0.21596 38 99 104
-0.369324 0.0522069 0.216238 37 102 107
-0.369202 0.0535833 0.216367 39 102 107
-0.36908 0.0549599 0.216497 42 101 107
-0.368959 0.0563366 0.216627 43 101 106
-0.369213 0.0578366 0.21661 46 100 101
-0.369468 0.0593406 0.216592 56 88 84
-0.369346 0.060721 0.216723 67 59 45
-0.37166 0.0445902 0.213344 48 66 63
-0.371537 0.045975 0.213475 43 87 88
-0.370654 0.0471392 0.213908 30 92 96
-0.370531 0.0485207 0.214039 21 86 91
-0.369653 0.0496756 0.21447 30 92 98
-0.369154 0.0509392 0.214749 39 102 107
-0.369033 0.0523157 0.214879 39 102 107
-0.368911 0.0536922 0.215009 42 102 107
-0.368789 0.0550689 0.215139 43 100 106
-0.368667 0.0564457 0.215268 44 100 105
-0.368921 0.057946 0.215249 51 96 95
-0.369176 0.0594502 0.21523 57 67 69
-0.369053 0.0608308 0.21536 67 57 47
-0.371489 0.0433142 0.211846 57 56 57
-0.371366 0.044699 0.211977 49 76 78
-0.370863 0.045975 0.212261 37 93 94
-0.370361 0.0472479 0.212544 22 89 94
-0.36986 0.0485177 0.212827 25 88 92
-0.369361 0.0497843 0.213109 36 98 99
-0.368863 0.0510478 0.21339 39 102 106
-0.368741 0.0524244 0.21352 42 101 107
-0.368244 0.0536832 0.213801 43 103 106
-0.368497 0.055178 0.21378 42 101 104
-0.368375 0.0565549 0.213909 44 99 101
-0.368629 0.0580554 0.213889 53 89 88
-0.368883 0.0595599 0.213868 64 58 50
-0.371318 0.042038 0.210348 59 60 51
-0.371196 0.0434228 0.210479 56 69 64
-0.371073 0.0448077 0.210609 45 86 87
-0.37057 0.0460838 0.210895 29 93 97
-0.370068 0.0473567 0.21118 20 87 92
-0.369568 0.0486264 0.211465 31 92 97
-0.368693 0.0497799 0.211902 38 101 104
-0.368571 0.0511565 0.212031 38 102 105
-0.368075 0.0524169 0.212314 42 101 107
-0.367953 0.053792 0.212443 42 101 107
-0.367831 0.0551672 0.212573 42 100 104
-0.368084 0.0566641 0.21255 48 96 95
-0.368337 0.0581649 0.212528 47 68 73
-0.368591 0.0596696 0.212505 60 58 53
-0.371025 0.0421465 0.208981 53 57 55
-0.370902 0.0435314 0.209111 49 78 75
-0.370399 0.0448092 0.209399 37 94 93
-0.369898 0.0460837 0.209686 22 91 95
-0.369776 0.0474654 0.209816 24 89 92
-0.368899 0.0486233 0.210258 37 97 100
-0.368402 0.0498885 0.210543 39 102 107
-0.367905 0.0511505 0.210827 41 102 106
-0.367783 0.0525256 0.210956 42 102 106
-0.367662 0.0539008 0.211086 42 100 108
-0.36754 0.0552761 0.211215 44 99 105
-0.367792 0.0567733 0.211191 54 90 88
-0.368045 0.0582744 0.211166 58 60 47
-0.370731 0.042255 0.207613 55 64 61
-0.370229 0.0435344 0.207902 44 84 85
-0.370106 0.0449178 0.208033 31 93 96
-0.369605 0.0461923 0.208321 20 88 92
-0.369106 0.0474637 0.208609 26 93 98
-0.368607 0.048732 0.208897 35 101 108
-0.36811 0.0499971 0.209183 38 101 108
-0.367614 0.0512591 0.209469 41 101 107
-0.367492 0.0526343 0.209598 42 102 107
-0.366998 0.0538916 0.209883 42 101 107
-0.367249 0.0553851 0.209857 49 98 101
-0.367127 0.0567607 0.209987 54 68 76
-0.367378 0.0582599 0.209961 59 55 45
-0.370561 0.0409785 0.206114 58 54 58
-0.370438 0.0423636 0.206244 55 72 74
-0.369936 0.0436429 0.206536 39 91 92
-0.369435 0.0449191 0.206826 22 90 94
-0.369313 0.046301 0.206956 23 89 92
-0.368813 0.0475724 0.207246 37 98 101
-0.368315 0.0488406 0.207535 40 102 107
-0.367818 0.0501057 0.207823 42 102 105
-0.367323 0.0513677 0.208111 43 103 106
-0.367201 0.0527431 0.20824 43 102 107
-0.366707 0.0540003 0.208527 44 99 106
-0.366957 0.0554941 0.208499 54 94 94
-0.366835 0.0568697 0.208629 57 61 56
