ply
format ascii 1.0
element vertex 1205
property float x
property float y
property float z
property uchar diffuse_red
property uchar diffuse_green
property uchar diffuse_blue
end_header
-0.33899 0.0116339 0.325404 80 79 78
-0.338535 0.012715 0.325624 89 83 75
-0.337791 0.013733 0.325851 90 75 74
-0.339895 0.00850929 0.323603 85 81 76
-0.339146 0.00953943 0.323836 87 90 90
-0.338401 0.0105652 0.324067 87 92 107
-0.337947 0.0116452 0.324288 87 99 118
-0.337495 0.0127229 0.324509 85 102 119
-0.336756 0.0137377 0.324738 88 90 100
-0.335735 0.0146866 0.324975 92 84 74
-0.335857 0.0158798 0.325176 85 81 73
-0.339138 0.00858588 0.32248 84 100 86
-0.338103 0.00955733 0.322726 91 137 117
-0.33765 0.0106373 0.322948 103 165 156
-0.337486 0.0117735 0.323159 112 186 184
-0.336461 0.0127308 0.323401 115 189 182
-0.335727 0.0137424 0.323632 117 168 155
-0.334431 0.0146272 0.323881 106 132 116
-0.334268 0.0157529 0.32409 88 90 95
-0.333263 0.0166886 0.324327 86 81 76
-0.337931 0.00974423 0.321585 53 91 103
-0.337478 0.010824 0.321808 60 127 135
-0.33674 0.0118429 0.322043 76 158 166
-0.335435 0.0127387 0.3223 88 177 181
-0.334423 0.0136869 0.322544 89 181 187
-0.333417 0.0146292 0.322786 90 182 183
-0.333255 0.0157514 0.322994 98 155 152
-0.332256 0.0166842 0.323234 86 108 115
-0.331264 0.0176113 0.323472 87 92 84
-0.335313 -0.00549271 0.31796 82 83 72
-0.335152 -0.00437539 0.318168 82 87 71
-0.33443 -0.00334142 0.318406 83 87 81
-0.333711 -0.00231174 0.318644 86 89 87
-0.332996 -0.00128632 0.318881 81 83 80
-0.332283 -0.000265137 0.319116 84 81 77
-0.336282 0.0119707 0.320919 51 99 106
-0.334415 0.0127465 0.321206 68 148 154
-0.333129 0.0136319 0.321465 79 179 183
-0.33241 0.0146312 0.321697 80 177 185
-0.332248 0.0157499 0.321905 90 184 186
-0.331532 0.0167427 0.322136 94 160 172
-0.33027 0.0176042 0.322388 87 115 119
-0.328747 0.0183944 0.322649 82 84 82
-0.334744 -0.00650435 0.316667 77 89 94
-0.334304 -0.0054288 0.316891 84 100 101
-0.334143 -0.0043149 0.317097 94 123 111
-0.333704 -0.00324263 0.317321 103 139 126
-0.332988 -0.00221522 0.31756 106 145 130
-0.331999 -0.00123565 0.317815 107 128 118
-0.331565 -0.000173116 0.318036 85 95 113
-0.331405 0.000932997 0.318241 82 83 85
-0.330972 0.0019923 0.318462 85 82 70
-0.330539 0.00304945 0.318682 81 79 72
-0.330108 0.0041045 0.318902 58 85 78
-0.334244 0.0129318 0.320077 79 135 140
-0.332402 0.0136967 0.320368 87 180 185
-0.331963 0.0147546 0.320588 86 179 187
-0.331801 0.0158722 0.320796 86 181 186
-0.330811 0.016801 0.321042 95 179 187
-0.329555 0.0176605 0.321298 98 162 174
-0.328038 0.0184489 0.321565 93 118 113
-0.327072 0.0193582 0.321805 91 86 75
-0.334736 -0.00743738 0.31534 74 98 89
-0.333738 -0.00643745 0.315603 73 130 126
-0.3333 -0.00536525 0.315827 86 153 152
-0.33314 -0.00425478 0.316033 99 172 171
-0.33298 -0.00314423 0.31624 103 183 182
-0.331717 -0.00220421 0.316515 96 186 188
-0.331283 -0.00114176 0.316738 98 187 192
-0.331124 -3.67972e-05 0.316943 97 175 176
-0.330964 0.00106826 0.317148 109 140 126
-0.330532 0.00212641 0.31737 86 84 102
-0.3301 0.00318244 0.317591 71 90 83
-0.329398 0.00418737 0.317827 52 81 87
-0.32951 0.00533824 0.318016 47 86 89
-0.332789 0.0140011 0.319216 95 185 189
-0.332071 0.0149998 0.319453 97 185 190
-0.330803 0.0158705 0.319718 97 187 190
-0.329547 0.0167339 0.31998 100 182 190
-0.3283 0.0175901 0.32024 105 187 189
-0.327333 0.0185031 0.320484 106 165 177
-0.326371 0.0194105 0.320727 95 111 115
-0.325415 0.0203123 0.320969 87 81 79
-0.33357 -0.00625601 0.314487 51 79 87
-0.333132 -0.0051839 0.314713 54 103 109
-0.332419 -0.00415453 0.314957 67 140 147
-0.331435 -0.00317087 0.315219 81 170 174
-0.331002 -0.00210847 0.315442 86 178 182
-0.33057 -0.00104824 0.315666 82 177 184
-0.33041 5.45321e-05 0.31587 82 176 182
-0.330251 0.00115737 0.316075 90 181 183
-0.330092 0.00226028 0.316279 95 157 162
-0.32939 0.00326717 0.316519 97 136 125
-0.328961 0.00431887 0.31674 77 113 121
-0.328803 0.00541859 0.316944 78 117 125
-0.331901 0.0151842 0.318331 104 189 195
-0.330634 0.0160541 0.3186 108 189 195
-0.328292 0.0166673 0.318927 115 191 197
-0.327325 0.0175833 0.319175 124 193 198
-0.326897 0.0186211 0.319394 127 196 200
-0.325938 0.0195272 0.31964 119 166 176
-0.325249 0.0204933 0.319871 95 92 102
-0.324563 0.0214554 0.320101 88 81 74
-0.327608 -0.0211789 0.311355 81 82 71
-0.324903 -0.0116348 0.313257 82 81 73
-0.332251 -0.00397342 0.313845 54 88 91
-0.330994 -0.00303179 0.31413 64 131 139
-0.330289 -0.0020131 0.314374 80 178 181
-0.329588 -0.000998583 0.314617 81 179 185
-0.329429 0.000100851 0.314821 85 179 182
-0.329812 0.00129204 0.314987 84 176 181
-0.329653 0.00239392 0.315191 86 178 185
-0.329224 0.00344765 0.315414 87 179 187
-0.329065 0.00454854 0.315618 88 184 190
-0.328125 0.0168496 0.317818 139 203 207
-0.326889 0.0177021 0.318086 156 210 212
-0.326731 0.0188028 0.31829 173 219 218
-0.325772 0.0197085 0.31854 179 222 211
-0.324555 0.0205431 0.318803 120 148 152
-0.323088 0.0213051 0.319078 87 82 80
-0.326812 -0.0221451 0.310143 81 80 75
-0.327182 -0.0210263 0.310296 78 95 94
-0.327289 -0.0199262 0.310472 82 104 108
-0.327134 -0.0188482 0.310672 91 121 115
-0.326978 -0.0177701 0.310872 96 131 118
-0.326822 -0.016692 0.311072 88 118 113
-0.326667 -0.0156138 0.311272 79 87 103
-0.326249 -0.0145642 0.311494 81 83 79
-0.325832 -0.0135168 0.311716 82 81 75
-0.324378 -0.0125943 0.312023 85 81 71
-0.323965 -0.0115551 0.312243 77 80 76
-0.330123 -0.0018329 0.313268 84 181 183
-0.329422 -0.000818637 0.313513 84 180 187
-0.329263 0.000280886 0.313717 87 182 187
-0.329646 0.00147256 0.313881 88 178 186
-0.329487 0.00257453 0.314086 90 179 186
-0.326723 0.0178837 0.316982 195 233 230
-0.326564 0.0189846 0.317187 205 244 234
-0.325075 0.01976 0.317472 225 253 240
-0.32308 0.0203974 0.317786 150 194 196
-0.322403 0.021353 0.318019 100 82 86
-0.326804 -0.0230454 0.308864 76 83 77
-0.326388 -0.021992 0.309088 83 108 98
-0.326494 -0.0208962 0.309262 86 146 136
-0.326601 -0.0197981 0.309438 87 168 168
-0.326708 -0.0186977 0.309613 89 172 174
-0.326552 -0.0176206 0.309813 91 173 176
-0.326397 -0.0165435 0.310013 94 181 181
-0.326241 -0.0154663 0.310212 93 163 161
-0.325824 -0.0144179 0.310435 93 131 113
-0.325669 -0.0133416 0.310635 88 92 89
-0.323958 -0.0124506 0.31097 88 83 75
-0.323546 -0.0114125 0.311191 86 85 78
-0.326397 0.0191663 0.316083 192 235 230
-0.323072 0.0194897 0.316494 176 227 223
-0.322395 0.0204472 0.316729 125 189 188
-0.32198 0.0214666 0.316947 97 90 91
-0.32638 -0.0228915 0.30781 58 83 82
-0.325185 -0.0219027 0.308111 52 85 93
-0.325031 -0.0208334 0.308309 58 118 120
-0.326176 -0.019647 0.308382 76 155 157
-0.326021 -0.0185721 0.308581 85 177 178
-0.325866 -0.0174972 0.30878 85 179 182
-0.325711 -0.0164221 0.30898 82 175 182
-0.325556 -0.015347 0.309179 80 176 181
-0.325401 -0.0142718 0.309379 86 177 173
-0.324726 -0.0132566 0.309626 94 140 133
-0.323538 -0.0123072 0.309919 85 106 115
-0.323127 -0.0112702 0.31014 72 97 120
-0.322387 0.0195412 0.31544 125 190 192
-0.321972 0.0205616 0.315659 95 167 164
-0.321557 0.02158 0.315878 85 97 93
-0.326402 -0.0367113 0.30435 88 75 67
-0.325989 -0.0356533 0.304576 86 80 70
-0.325577 -0.0345974 0.304802 88 82 70
-0.325424 -0.0335343 0.304999 85 84 74
-0.32527 -0.0324712 0.305196 85 83 76
-0.325117 -0.0314079 0.305393 84 79 74
-0.325023 -0.0217293 0.307036 45 76 77
-0.324869 -0.0206599 0.307234 49 78 83
-0.324973 -0.019567 0.307407 56 110 114
-0.324819 -0.0184963 0.307605 77 158 161
-0.324664 -0.0174256 0.307803 78 177 181
-0.32451 -0.0163549 0.308002 78 176 183
-0.324873 -0.0152282 0.30815 76 175 178
-0.324718 -0.0141551 0.308349 75 176 178
-0.323531 -0.013202 0.308647 77 177 182
-0.322864 -0.012195 0.308894 83 181 187
-0.323222 -0.0110641 0.309043 87 187 191
-0.321705 0.0195926 0.31439 85 159 165
-0.321291 0.020611 0.314609 77 143 141
-0.321135 0.0216932 0.31481 79 94 95
-0.325619 -0.0376204 0.303172 81 74 73
-0.325465 -0.0365585 0.303368 80 84 85
-0.325312 -0.0354965 0.303565 81 98 102
-0.325159 -0.0344344 0.303762 87 116 111
-0.325005 -0.0333723 0.303959 92 130 116
-0.324595 -0.0323206 0.304185 90 122 117
-0.324699 -0.0312478 0.304353 84 98 100
-0.324545 -0.0301855 0.30455 85 84 80
-0.324657 -0.0183225 0.306529 79 146 147
-0.324502 -0.0172516 0.306728 77 176 186
-0.324347 -0.0161808 0.306926 76 176 187
-0.32342 -0.0151937 0.307203 79 174 184
-0.32301 -0.0141548 0.307427 82 173 182
-0.322856 -0.013088 0.307625 84 172 182
-0.322702 -0.0120212 0.307823 81 177 183
-0.321697 0.0186884 0.313102 68 127 137
-0.320514 0.0195165 0.313384 62 124 128
-0.320358 0.0205954 0.313584 74 128 123
-0.320202 0.0216744 0.313784 82 81 77
-0.32484 -0.0385241 0.302001 75 76 69
-0.324687 -0.0374654 0.302197 80 91 84
-0.324534 -0.0364066 0.302393 87 129 117
-0.324637 -0.0353403 0.302559 87 157 154
-0.324484 -0.0342802 0.302755 86 169 171
-0.324076 -0.0332297 0.302982 86 173 173
-0.323923 -0.0321706 0.303178 90 174 174
-0.323515 -0.0311231 0.303404 95 163 157
-0.323108 -0.0300776 0.30363 93 125 117
-0.322702 -0.0290341 0.303855 84 82 90
-0.323002 -0.015048 0.306158 93 183 187
-0.322848 -0.0139812 0.306355 100 181 187
-0.322694 -0.0129143 0.306553 102 181 186
-0.319995 0.018491 0.312144 52 108 110
-0.31984 0.0195677 0.312344 59 113 113
-0.319684 0.0206445 0.312543 74 93 98
-0.319529 0.0217214 0.312743 82 75 69
-0.323659 -0.0383712 0.301064 64 73 70
-0.323761 -0.0373112 0.301228 56 83 86
-0.323609 -0.0362555 0.301424 64 113 116
-0.323711 -0.0351922 0.301588 80 152 155
-0.323813 -0.0341266 0.301752 85 172 175
-0.32366 -0.0330686 0.301948 81 172 176
-0.323508 -0.0320104 0.302144 79 171 177
-0.322847 -0.0309758 0.302402 80 172 176
-0.321685 -0.0299708 0.302719 85 167 165
-0.321282 -0.0289325 0.302944 87 128 133
-0.32113 -0.0278815 0.303139 83 87 108
-0.31872 0.0172865 0.310977 53 96 98
-0.318565 0.0183578 0.311176 66 88 90
-0.31841 0.0194292 0.311374 69 83 83
-0.31876 0.0206291 0.311529 76 82 75
-0.323094 -0.0476558 0.298488 78 69 63
-0.320985 -0.0382464 0.300331 65 74 69
-0.321083 -0.0371967 0.300492 47 74 73
-0.321182 -0.0361448 0.300654 46 84 83
-0.321782 -0.0350756 0.300751 62 116 115
-0.322133 -0.0340085 0.300882 76 158 159
-0.321981 -0.0329567 0.301077 75 172 178
-0.321829 -0.0319048 0.301271 72 169 178
-0.321426 -0.0308647 0.301498 73 168 175
-0.320774 -0.0298394 0.301755 75 170 176
-0.320373 -0.0288043 0.30198 81 174 177
-0.320222 -0.0277563 0.302174 86 169 162
-0.317075 0.011612 0.309129 49 104 106
-0.316674 0.0126178 0.309349 51 99 104
-0.317765 0.0139624 0.309427 57 93 96
-0.317611 0.0150282 0.309624 65 88 90
-0.317457 0.0160941 0.309822 70 80 73
-0.317553 0.0172205 0.309996 68 75 68
-0.322434 -0.0474787 0.297505 76 101 101
-0.321534 -0.046423 0.297804 75 81 73
-0.320083 -0.0380921 0.299381 66 72 68
-0.319933 -0.0370509 0.299574 41 73 74
-0.320526 -0.0359896 0.299668 31 77 80
-0.320872 -0.0349297 0.299795 49 97 101
-0.321974 -0.0338389 0.299824 74 144 142
-0.321822 -0.032787 0.300019 74 172 178
-0.32167 -0.031735 0.300213 73 171 180
-0.321267 -0.030695 0.300441 73 171 180
-0.320615 -0.0296699 0.3007 76 169 179
-0.320464 -0.0286208 0.300894 77 169 180
-0.315739 0.00935041 0.307822 60 111 103
-0.315587 0.0104054 0.308018 58 95 97
-0.31519 0.0114064 0.308238 71 94 92
-0.315282 0.0125155 0.308408 71 79 79
-0.31636 0.013853 0.308481 75 71 64
-0.316703 0.0150294 0.308628 75 73 67
-0.321376 -0.046256 0.296755 80 131 118
-0.319988 -0.045202 0.297126 76 90 80
-0.31924 -0.0400177 0.298086 80 72 64
-0.31909 -0.0389806 0.298278 78 73 69
-0.318207 -0.0379575 0.298572 66 74 75
-0.318058 -0.0369233 0.298763 42 80 84
-0.319625 -0.0358418 0.298719 37 91 101
-0.320465 -0.0347689 0.298776 61 121 127
-0.316282 0.00640838 0.30615 54 99 98
-0.315149 0.00726449 0.306452 60 91 91
-0.315242 0.00836709 0.306621 70 82 79
-0.31509 0.00941997 0.306816 77 81 68
-0.315182 0.010526 0.306985 73 77 64
-0.314786 0.0115259 0.307206 76 72 64
-0.318946 -0.0439952 0.296383 77 89 81
-0.318553 -0.0429611 0.29661 71 75 68
-0.31816 -0.041929 0.296837 71 75 67
-0.318011 -0.040897 0.297028 77 77 70
-0.317862 -0.039865 0.297219 76 82 82
-0.317713 -0.0388329 0.29741 71 91 100
-0.31708 -0.0378104 0.29767 70 99 113
-0.31669 -0.0367859 0.297895 74 124 125
-0.317752 -0.0357225 0.297914 81 157 147
-0.31237 0.00156233 0.304817 49 101 102
-0.313175 0.002778 0.304898 57 99 100
-0.313746 0.00395717 0.305008 60 94 100
-0.314563 0.00519092 0.30509 63 83 83
-0.315142 0.00638567 0.305202 67 75 68
-0.31499 0.00743744 0.305396 75 81 67
-0.31455 -0.0508885 0.294829 65 66 59
-0.313701 -0.0498564 0.295125 58 83 86
-0.313555 -0.0488476 0.295312 73 136 135
-0.318153 -0.0427952 0.295607 77 109 113
-0.317761 -0.0417641 0.295834 76 101 111
-0.31737 -0.0407351 0.296062 83 114 114
-0.317221 -0.039705 0.296252 86 140 129
-0.316831 -0.0386787 0.296479 84 161 154
-0.316683 -0.0376495 0.296669 81 172 178
-0.316293 -0.0366261 0.296895 80 176 182
-0.312423 -0.00141904 0.303229 52 99 100
-0.311563 -0.000507313 0.303507 57 98 96
-0.31165 0.000567936 0.30367 63 85 90
-0.311975 0.00168888 0.303804 71 84 77
-0.312063 0.0027696 0.303967 72 73 65
-0.313461 -0.0506961 0.29396 67 67 62
-0.312155 -0.0496551 0.294332 45 72 71
-0.31178 -0.0486464 0.294555 54 102 99
-0.311866 -0.0476489 0.294703 68 149 149
-0.317848 -0.0415974 0.294759 79 174 180
-0.317214 -0.0405695 0.295025 80 173 179
-0.317065 -0.0395393 0.295215 79 174 179
-0.316675 -0.0385131 0.295443 80 175 180
-0.316527 -0.0374838 0.295633 82 176 181
-0.313342 -0.00531923 0.301359 50 103 103
-0.312953 -0.00431923 0.301582 61 102 101
-0.312804 -0.00328243 0.301774 70 100 97
-0.312416 -0.00228525 0.301996 64 88 91
-0.312266 -0.00124933 0.302188 71 79 78
-0.311406 -0.00033802 0.30247 73 82 70
-0.311493 0.000737494 0.302631 79 72 63
-0.311085 -0.0494689 0.293473 46 71 69
-0.310484 -0.0484587 0.293732 44 75 83
-0.31034 -0.0474612 0.293917 59 119 122
-0.310195 -0.0464636 0.294102 74 160 161
-0.313067 -0.00939837 0.299647 48 107 108
-0.312918 -0.00836387 0.299838 72 112 108
-0.313245 -0.00725983 0.299965 68 114 106
-0.313334 -0.00618731 0.300124 51 98 104
-0.313185 -0.00514955 0.300316 58 83 90
-0.312796 -0.00414961 0.30054 78 75 75
-0.312646 -0.00311272 0.300732 79 71 67
-0.310705 -0.0493028 0.292505 60 68 63
-0.309878 -0.0482885 0.292804 33 70 72
-0.309056 -0.0472798 0.293102 42 91 93
-0.308462 -0.0462801 0.29336 67 141 141
-0.308319 -0.0452889 0.293543 79 168 168
-0.312496 -0.0113906 0.298326 47 102 102
-0.312347 -0.0103592 0.298517 43 94 99
-0.312672 -0.00926231 0.29864 33 85 98
-0.312761 -0.00819495 0.298798 40 80 92
-0.312849 -0.00712541 0.298956 45 73 75
-0.313177 -0.00601769 0.299081 48 84 80
-0.313027 -0.00497983 0.299273 65 84 81
-0.312877 -0.00394191 0.299465 90 75 68
-0.309049 -0.0481137 0.291918 33 68 68
-0.307561 -0.047096 0.292332 26 74 79
-0.306974 -0.0461022 0.29259 57 117 113
-0.306389 -0.045112 0.292848 81 161 159
-0.306026 -0.0441267 0.293067 88 175 178
-0.312637 -0.0132852 0.296908 37 90 98
-0.312488 -0.0122538 0.297098 28 84 92
-0.312339 -0.0112224 0.297289 29 77 81
-0.31219 -0.0101909 0.29748 35 76 76
-0.312516 -0.00909361 0.297601 31 79 75
-0.312842 -0.00799198 0.297723 30 82 79
-0.312931 -0.0069211 0.29788 31 82 83
-0.31302 -0.00584804 0.298038 43 93 94
-0.313348 -0.00473546 0.298161 62 91 92
-0.313438 -0.00365694 0.298319 82 74 62
-0.308224 -0.04794 0.291036 46 68 61
-0.306967 -0.0469299 0.291415 27 72 67
-0.306161 -0.0459352 0.291714 41 89 88
-0.306019 -0.0449521 0.291895 69 137 141
-0.305657 -0.0439678 0.292115 95 174 176
-0.305735 -0.0429858 0.292259 110 184 186
-0.31263 -0.0141486 0.29568 30 64 71
-0.312481 -0.0131172 0.295871 25 60 66
-0.312332 -0.0120857 0.296061 20 74 70
-0.312183 -0.0110542 0.296252 31 78 82
-0.312034 -0.0100226 0.296443 34 85 85
-0.312596 -0.0088918 0.296526 34 85 84
-0.312923 -0.00778857 0.296646 33 85 87
-0.312774 -0.00675169 0.296838 35 87 92
-0.313341 -0.00560544 0.296923 46 96 97
-0.313431 -0.00452776 0.29708 59 97 97
-0.31352 -0.00344787 0.297237 71 72 67
-0.306596 -0.0467682 0.290462 26 69 68
-0.306012 -0.0457776 0.290723 29 73 79
-0.30565 -0.0447925 0.290944 54 113 117
-0.30507 -0.0438082 0.291204 85 162 163
-0.304928 -0.0428276 0.291385 110 186 186
-0.30435 -0.0418486 0.291644 128 193 195
-0.312622 -0.015012 0.294452 71 73 62
-0.312473 -0.0139806 0.294643 34 57 62
-0.312325 -0.0129491 0.294833 30 59 61
-0.312176 -0.0119176 0.295024 24 72 71
-0.312027 -0.010886 0.295215 30 84 86
-0.312114 -0.00982213 0.295369 32 89 95
-0.312677 -0.00868955 0.295449 36 91 92
-0.312766 -0.00761922 0.295604 36 92 93
-0.312616 -0.00658226 0.295796 41 93 97
-0.313423 -0.00539867 0.295841 46 100 103
-0.313513 -0.00431962 0.295997 61 110 106
-0.313603 -0.00323836 0.296153 71 77 70
-0.305864 -0.0456199 0.289733 37 69 68
-0.305502 -0.0446349 0.289955 46 84 86
-0.304922 -0.0436508 0.290216 64 124 126
-0.304344 -0.0426703 0.290477 87 160 163
-0.303768 -0.0416933 0.290737 109 178 185
-0.302763 -0.0407236 0.291073 120 188 195
-0.302622 -0.03975 0.291253 122 192 194
-0.302697 -0.0387727 0.291394 117 187 190
-0.312466 -0.0148441 0.293414 71 73 65
-0.312317 -0.0138127 0.293605 33 61 64
-0.312168 -0.0127811 0.293796 26 55 58
-0.312019 -0.0117494 0.293986 25 73 74
-0.312107 -0.0106864 0.294139 39 90 93
-0.312195 -0.00962126 0.294292 41 98 104
-0.31252 -0.00852042 0.294407 42 98 102
-0.312609 -0.00744985 0.294561 43 97 98
-0.312697 -0.00637711 0.294715 43 101 100
-0.313505 -0.00519146 0.294757 42 103 105
-0.313595 -0.00411104 0.294912 56 117 113
-0.313685 -0.00302842 0.295067 74 92 91
-0.305573 -0.0444789 0.288924 62 67 64
-0.304992 -0.0434941 0.289188 53 83 86
-0.303761 -0.0425135 0.289572 59 121 124
-0.302756 -0.0415407 0.289912 80 153 155
-0.302401 -0.0405691 0.290132 98 171 171
-0.302046 -0.0395992 0.290351 105 178 179
-0.30212 -0.0386234 0.290491 104 178 179
-0.301979 -0.0376505 0.290671 106 177 176
-0.302268 -0.0366663 0.290773 104 176 174
-0.312161 -0.0136446 0.292567 44 66 63
-0.312012 -0.012613 0.292758 20 53 58
-0.312099 -0.0115508 0.29291 22 74 73
-0.312187 -0.0104864 0.293061 38 91 94
-0.312038 -0.00945254 0.293252 42 101 107
-0.312363 -0.00835129 0.293366 42 101 106
-0.31269 -0.00724563 0.293479 45 99 100
-0.31254 -0.00620745 0.293671 43 101 103
-0.313347 -0.00502102 0.293708 41 103 105
-0.313678 -0.00390202 0.293824 48 113 113
-0.313768 -0.00281802 0.293978 68 105 110
-0.305282 -0.0433377 0.288115 56 64 66
-0.303613 -0.0423565 0.288587 44 75 78
-0.302609 -0.0413843 0.288932 45 96 102
-0.302253 -0.0404127 0.289152 56 121 131
-0.301899 -0.0394428 0.289372 67 143 152
-0.301972 -0.0384669 0.289512 71 151 159
-0.301832 -0.0374939 0.289691 70 144 153
-0.301906 -0.036515 0.289831 65 130 141
-0.302194 -0.0355277 0.289931 59 118 126
-0.3027 -0.034529 0.289992 52 110 116
-0.302558 -0.0335503 0.290173 48 106 110
-0.302417 -0.0325715 0.290354 46 102 105
-0.312004 -0.0134766 0.29153 57 69 67
-0.312092 -0.0124153 0.29168 20 53 61
-0.311943 -0.0113824 0.291871 20 73 70
-0.31203 -0.0103178 0.292021 31 89 93
-0.312118 -0.00925104 0.292172 45 104 105
-0.312444 -0.00814821 0.292284 46 105 106
-0.312533 -0.00707604 0.292435 45 98 103
-0.3131 -0.00592931 0.292508 42 100 103
-0.313189 -0.00485056 0.29266 42 99 104
-0.313519 -0.00373112 0.292773 45 109 112
-0.313609 -0.00264685 0.292927 67 114 113
-0.303682 -0.0421991 0.287561 52 69 63
-0.302461 -0.0412278 0.287951 34 74 71
-0.302106 -0.0402563 0.288172 31 83 84
-0.301966 -0.0392833 0.288352 39 91 96
-0.301825 -0.0383103 0.288531 46 99 104
-0.301685 -0.0373372 0.288711 48 103 107
-0.301758 -0.0363581 0.28885 48 103 105
-0.301832 -0.0353772 0.288989 49 100 102
-0.302336 -0.0343789 0.289047 48 96 98
-0.302194 -0.033401 0.289228 51 91 94
-0.302269 -0.0324135 0.289368 55 83 86
-0.302127 -0.0314346 0.289549 64 75 75
-0.302417 -0.0304328 0.289649 73 72 66
-0.311848 -0.0133086 0.290492 67 67 62
-0.311935 -0.0122469 0.290641 26 56 63
-0.312023 -0.0111832 0.29079 22 66 66
-0.312111 -0.0101172 0.29094 28 85 86
-0.312199 -0.00904912 0.29109 43 99 101
-0.312525 -0.00794471 0.291199 45 102 107
-0.312614 -0.00687118 0.29135 42 99 106
-0.313181 -0.00572263 0.291419 42 101 104
-0.313271 -0.00464251 0.291571 42 100 106
-0.313361 -0.00356019 0.291723 45 106 111
-0.313451 -0.00247567 0.291875 68 121 113
-0.302529 -0.0410698 0.286927 65 69 64
-0.301959 -0.0400998 0.287192 53 72 69
-0.301818 -0.0391268 0.287371 41 76 73
-0.301678 -0.0381536 0.287551 43 80 82
-0.301537 -0.0371805 0.287731 48 86 89
-0.301397 -0.0362072 0.287911 52 85 88
-0.301684 -0.03522 0.288007 61 79 81
-0.301757 -0.034237 0.288146 66 77 73
-0.301831 -0.033252 0.288285 69 77 67
-0.301476 -0.0322846 0.288506 75 73 65
-0.312015 -0.0120486 0.289559 38 63 64
-0.312103 -0.0109835 0.289708 24 56 65
-0.311954 -0.00994834 0.289899 27 83 81
-0.312279 -0.00884678 0.290006 40 96 100
-0.312606 -0.00774078 0.290113 42 102 109
-0.312934 -0.00663038 0.29022 42 101 107
-0.313023 -0.0055522 0.290371 53 107 101
-0.313353 -0.00443403 0.290479 43 104 107
-0.313443 -0.00335033 0.29063 44 103 110
-0.313533 -0.00226442 0.290782 66 123 114
-0.313623 -0.00117628 0.290933 69 83 83
-0.311946 -0.0108147 0.288666 22 54 62
-0.312272 -0.00971477 0.28877 22 79 78
-0.31236 -0.00864399 0.288919 39 95 98
-0.312687 -0.00753643 0.289024 41 103 108
-0.313016 -0.00642443 0.289129 43 102 106
-0.313105 -0.00534488 0.289279 55 105 107
-0.313435 -0.0042251 0.289385 44 101 108
-0.313525 -0.00314003 0.289535 40 102 108
-0.313616 -0.00205273 0.289686 56 120 113
-0.313706 -0.000963213 0.289836 66 101 100
-0.312264 -0.0105829 0.287535 24 52 58
-0.312352 -0.00951292 0.287682 22 75 72
-0.31268 -0.00840704 0.287785 34 90 91
-0.312768 -0.00733164 0.287933 41 105 104
-0.313097 -0.00621803 0.288036 42 107 107
-0.313187 -0.00513712 0.288184 45 100 102
-0.313277 -0.00405401 0.288333 43 99 101
-0.313367 -0.00296868 0.288482 40 101 107
-0.313698 -0.00184059 0.288587 48 115 114
-0.313547 -0.000791324 0.288781 67 113 115
-0.312345 -0.0103819 0.286446 32 53 63
-0.312911 -0.00924479 0.2865 24 68 66
-0.312761 -0.00820317 0.286692 30 84 87
-0.31285 -0.00712641 0.286839 41 101 102
-0.313179 -0.00601121 0.28694 41 102 105
-0.313269 -0.00492892 0.287088 41 100 107
-0.313359 -0.00384444 0.287236 38 100 106
-0.313449 -0.00275772 0.287384 40 101 105
-0.313539 -0.00166878 0.287532 44 110 113
-0.313387 -0.000619408 0.287726 64 113 115
-0.312904 -0.0101165 0.28526 35 63 64
-0.312842 -0.00799888 0.285597 29 81 84
-0.312931 -0.00692075 0.285743 42 98 102
-0.313261 -0.00580393 0.285842 41 103 107
-0.31311 -0.00475788 0.286035 41 101 105
-0.3132 -0.00367312 0.286182 40 100 105
-0.31329 -0.00258615 0.286329 41 101 105
-0.31338 -0.00149692 0.286476 42 107 112
-0.31347 -0.000405478 0.286624 68 123 115
-0.312985 -0.00991421 0.284163 35 68 66
-0.312924 -0.00779415 0.2845 21 78 81
-0.313013 -0.00671466 0.284645 46 95 98
-0.313103 -0.00563296 0.28479 41 101 108
-0.313192 -0.00454903 0.284935 41 104 107
-0.313282 -0.00346291 0.285081 44 101 104
-0.313372 -0.00237454 0.285227 40 101 107
-0.313221 -0.00132505 0.285421 41 103 107
-0.313553 -0.000191083 0.28552 61 119 112
-0.313886 0.000947464 0.285619 68 91 90
-0.313067 -0.00971153 0.283064 52 68 63
-0.313005 -0.00758898 0.2834 23 76 73
-0.313095 -0.00650813 0.283544 47 93 94
-0.313185 -0.00542506 0.283688 39 101 103
-0.313274 -0.00433976 0.283833 43 103 107
-0.313364 -0.00325223 0.283977 43 99 103
-0.313213 -0.00220272 0.284171 41 101 105
-0.313303 -0.00111186 0.284316 41 100 106
-0.313635 2.37618e-05 0.284413 51 116 116
-0.314213 0.00120777 0.284462 67 103 113
-0.314304 0.00230881 0.284609 76 66 60
-0.313087 -0.00738339 0.282298 22 70 68
-0.313177 -0.00630115 0.282441 39 89 91
-0.313267 -0.0052167 0.282584 36 101 101
-0.313357 -0.00413003 0.282728 42 102 106
-0.313205 -0.0030805 0.282921 41 101 103
-0.313295 -0.00199047 0.283065 36 100 105
-0.313385 -0.00089821 0.283209 36 100 106
-0.313718 0.00023905 0.283304 46 109 116
-0.314053 0.00138094 0.2834 70 112 119
-0.314633 0.00257276 0.283446 80 73 62
-0.313169 -0.00717735 0.281194 31 66 64
-0.313259 -0.00609375 0.281336 27 87 87
-0.313349 -0.00500791 0.281478 35 100 101
-0.313197 -0.00395836 0.281671 40 102 108
-0.313287 -0.00286918 0.281814 41 102 108
-0.313377 -0.00177776 0.281957 41 100 104
-0.313468 -0.000684103 0.2821 35 101 103
-0.313801 0.00045483 0.282193 43 108 111
-0.31438 0.0016427 0.282236 66 115 114
-0.314963 0.00283779 0.282278 76 67 65
-0.313251 -0.00697087 0.280087 25 58 64
-0.313341 -0.00588589 0.280228 21 81 80
-0.31319 -0.0048363 0.280421 41 99 98
-0.31328 -0.00374797 0.280563 41 100 107
-0.31337 -0.00265742 0.280705 41 100 104
-0.31346 -0.0015646 0.280847 40 98 99
-0.31355 -0.000469552 0.280989 33 100 99
-0.313884 0.000671045 0.28108 40 105 107
-0.314464 0.00186085 0.281119 66 124 113
-0.315048 0.00305791 0.281158 69 73 75
-0.313575 -0.00672823 0.278924 16 54 62
-0.313666 -0.00564077 0.279064 18 76 77
-0.313514 -0.004589 0.279258 37 96 97
-0.313604 -0.00349816 0.279399 41 100 105
-0.313695 -0.00240507 0.279539 40 100 106
-0.314029 -0.00126839 0.279627 42 99 102
-0.31461 -8.4468e-05 0.279662 39 100 99
-0.314702 0.00101883 0.279804 38 100 106
-0.315286 0.00221457 0.279839 57 118 113
-0.31538 0.00332478 0.279982 70 90 95
-0.315473 0.00443729 0.280125 72 63 61
-0.313901 -0.00648462 0.277756 20 54 65
-0.313749 -0.00543177 0.27795 15 73 72
-0.313839 -0.00434066 0.27809 37 91 93
-0.31393 -0.00324731 0.278229 41 100 104
-0.314021 -0.0021517 0.278369 41 102 106
-0.314602 -0.000970389 0.2784 40 99 104
-0.314694 0.000132043 0.278541 38 97 100
-0.314786 0.00123676 0.278682 39 100 105
-0.315125 0.00238908 0.278769 50 111 114
-0.315218 0.00349955 0.27891 67 110 113
-0.315558 0.00466007 0.278998 72 71 64
-0.314227 -0.00623999 0.276584 29 52 63
-0.314075 -0.00518495 0.276778 23 64 67
-0.313922 -0.00412984 0.276973 28 86 87
-0.314258 -0.00299544 0.277055 40 101 102
-0.314594 -0.0018564 0.277138 42 101 105
-0.314686 -0.000754842 0.277278 41 100 106
-0.314778 0.000349009 0.277417 35 98 99
-0.314871 0.00145516 0.277557 34 99 102
-0.31521 0.00260917 0.277642 46 107 113
-0.315303 0.00372108 0.277782 64 113 117
-0.315396 0.00483532 0.277923 75 65 63
-0.314067 -0.0060676 0.275521 33 63 63
-0.314402 -0.00493711 0.275601 23 60 66
-0.314494 -0.00384095 0.275739 25 82 84
-0.314831 -0.00270245 0.275819 38 97 99
-0.314678 -0.00164181 0.276015 45 103 105
-0.31477 -0.000538823 0.276153 40 100 108
-0.314863 0.000566459 0.276292 36 99 102
-0.314955 0.00167403 0.27643 33 100 102
-0.315295 0.00282974 0.276513 43 104 110
-0.315388 0.0039431 0.276652 68 120 112
-0.315234 0.00501061 0.276849 76 65 66
-0.314395 -0.0058216 0.274342 33 66 61
-0.314731 -0.00468824 0.274419 18 54 64
-0.314824 -0.00358954 0.274556 22 79 77
-0.31467 -0.00252887 0.274751 44 94 96
-0.314762 -0.00142675 0.274888 44 102 105
-0.314855 -0.000322341 0.275026 42 101 106
-0.314947 0.00078436 0.275163 42 101 102
-0.31504 0.00189336 0.275301 37 97 104
-0.31538 0.00305078 0.275381 42 101 108
-0.315226 0.00411833 0.275578 62 123 113
-0.315567 0.00528273 0.275659 64 86 84
-0.314723 -0.00557456 0.273157 47 64 60
-0.314816 -0.00447672 0.273292 19 50 62
-0.314908 -0.0033766 0.273428 21 75 70
-0.314755 -0.00231478 0.273623 42 89 93
-0.314847 -0.00121124 0.273759 42 102 103
-0.31494 -0.000105391 0.273896 40 102 108
-0.315032 0.00100274 0.274032 36 99 104
-0.315125 0.00211318 0.274169 32 99 103
-0.315218 0.00322595 0.274306 37 100 105
-0.315559 0.00438857 0.274385 55 117 114
-0.315653 0.00550715 0.274523 67 97 105
-0.315054 -0.00532653 0.271968 61 65 58
-0.315146 -0.00422613 0.272102 24 56 59
-0.314993 -0.00316321 0.272298 23 68 63
-0.315085 -0.00205938 0.272432 35 86 89
-0.315178 -0.000953261 0.272567 40 100 103
-0.315024 0.000112015 0.272764 41 102 108
-0.315117 0.00122159 0.272899 37 99 105
-0.31521 0.00233347 0.273035 36 100 104
-0.315304 0.00344767 0.273171 39 101 104
-0.315645 0.00461202 0.273247 47 112 114
-0.315988 0.00578116 0.273324 64 111 117
-0.315138 -0.00511525 0.270836 62 64 59
-0.315231 -0.00401343 0.270969 24 60 61
-0.315077 -0.00294935 0.271165 26 59 58
-0.31517 -0.00184411 0.271298 25 82 85
-0.315263 -0.000736563 0.271433 42 98 101
-0.315357 0.000373308 0.271567 42 99 106
-0.315202 0.0014409 0.271763 36 101 106
-0.315296 0.00255424 0.271898 34 99 104
-0.315389 0.00366989 0.272033 41 97 101
-0.31598 0.00488414 0.272045 42 107 114
-0.316075 0.00600684 0.272181 63 114 118
-0.315223 -0.00490352 0.269701 67 67 60
-0.315316 -0.0038003 0.269833 36 64 63
-0.315162 -0.00273505 0.270029 26 53 58
-0.315255 -0.00162836 0.270162 28 77 77
-0.315349 -0.000519385 0.270295 43 98 98
-0.315194 0.000548245 0.270492 42 103 106
-0.315288 0.0016607 0.270625 38 103 107
-0.315381 0.00277547 0.270759 35 99 104
-0.315475 0.00389258 0.270893 31 98 103
-0.316067 0.00510884 0.270902 39 105 111
-0.316161 0.006233 0.271036 67 122 116
-0.315556 -0.00465304 0.268499 66 61 61
-0.315402 -0.00358669 0.268695 40 63 62
-0.315495 -0.00247973 0.268827 19 51 65
-0.315341 -0.00141216 0.269023 22 76 76
-0.315186 -0.000344493 0.26922 38 94 96
-0.31528 0.00076707 0.269352 39 101 104
-0.315373 0.00188096 0.269484 41 105 107
-0.315467 0.00299718 0.269617 39 101 104
-0.31556 0.00411575 0.26975 33 97 104
-0.316153 0.00533403 0.269755 38 101 109
-0.31675 0.00655984 0.26976 62 122 114
-0.316846 0.00769023 0.269895 62 78 87
-0.315889 -0.00440152 0.267292 65 65 59
-0.315487 -0.00337263 0.267555 52 63 60
-0.315333 -0.00230502 0.267751 20 54 63
-0.315178 -0.00123734 0.267948 20 69 68
-0.315272 -0.000126645 0.268079 29 91 92
-0.315365 0.000986364 0.26821 34 101 105
-0.315459 0.0021017 0.268341 41 102 108
-0.315552 0.00321938 0.268473 38 100 105
-0.315646 0.00433939 0.268605 29 100 104
-0.31624 0.0055597 0.268607 38 98 107
-0.316838 0.00678756 0.268608 54 118 115
-0.316933 0.00791944 0.268741 59 99 109
-0.315821 -0.00311811 0.266345 65 63 60
-0.315666 -0.00204826 0.266541 28 53 64
-0.315512 -0.000978328 0.266738 25 60 64
-0.315357 9.167e-05 0.266935 27 87 87
-0.315451 0.00120614 0.267065 36 100 102
-0.315296 0.00227737 0.267262 43 104 108
-0.315638 0.00344207 0.267326 41 99 106
-0.315732 0.00456354 0.267457 32 101 104
-0.316327 0.00578586 0.267455 34 101 102
-0.316673 0.00696506 0.26752 45 112 112
-0.317021 0.00814912 0.267585 61 113 118
-0.315752 -0.00183184 0.265395 33 61 58
-0.315443 0.000310468 0.265789 26 81 80
-0.315288 0.00138173 0.265986 38 98 99
-0.315381 0.00249881 0.266115 44 103 106
-0.315724 0.00366522 0.266177 41 99 103
-0.316068 0.00483645 0.266239 33 101 102
-0.316163 0.00596294 0.266369 35 98 100
-0.316509 0.00714259 0.266432 43 106 110
-0.316857 0.00832713 0.266495 65 121 116
-0.316087 -0.00157327 0.264176 44 65 61
-0.31528 0.000486 0.26471 20 79 78
-0.315622 0.00164711 0.264768 35 95 98
-0.315716 0.0027668 0.264897 42 101 106
-0.31606 0.00393623 0.264956 41 100 106
-0.316155 0.00506182 0.265085 35 101 103
-0.31625 0.00618981 0.265214 35 98 100
-0.316597 0.00737121 0.265275 40 104 107
-0.316692 0.00850516 0.265404 67 125 114
-0.316788 0.00964149 0.265534 69 73 73
-0.316174 -0.00135565 0.263024 54 65 62
-0.315614 0.000749479 0.263489 17 73 72
-0.315708 0.00186831 0.263616 31 92 96
-0.316052 0.00303593 0.263673 39 100 104
-0.316147 0.00416063 0.263801 41 100 105
-0.316242 0.00528772 0.263928 40 103 103
-0.316086 0.00636713 0.264127 34 100 101
-0.316432 0.00754899 0.264185 40 101 106
-0.316528 0.00868321 0.264314 57 118 116
-0.316623 0.00981984 0.264443 62 86 95
-0.316762 -0.00105292 0.261723 60 66 61
-0.31595 0.00101407 0.262264 23 62 67
-0.316295 0.00218117 0.262318 30 88 91
-0.316139 0.00325935 0.262516 37 101 102
-0.316234 0.00438553 0.262642 41 102 106
-0.316329 0.00551408 0.262769 41 101 104
-0.316173 0.0065947 0.262968 36 99 102
-0.316519 0.00777834 0.263024 41 98 104
-0.316615 0.00891406 0.263151 50 112 116
-0.316711 0.0100522 0.263279 60 102 115
-0.316554 0.0111375 0.263478 70 63 56
-0.316538 0.00132457 0.26096 26 58 63
-0.316382 0.00240387 0.261158 27 84 83
-0.316477 0.00353036 0.261283 35 100 99
-0.316321 0.00461091 0.261482 41 102 108
-0.316164 0.00569155 0.26168 41 100 105
-0.316259 0.00682275 0.261806 39 100 102
-0.316355 0.00795636 0.261932 39 99 101
-0.31645 0.00909236 0.262059 45 109 114
-0.316546 0.0102308 0.262186 57 113 117
-0.316641 0.0113716 0.262313 67 61 58
-0.316625 0.00154656 0.259797 21 53 61
-0.316469 0.00262707 0.259996 20 81 78
-0.316312 0.00370764 0.260194 32 98 97
-0.316408 0.00483678 0.260319 40 103 106
-0.316251 0.00591862 0.260517 39 101 106
-0.316095 0.00700053 0.260716 41 101 103
-0.31619 0.00813442 0.260841 37 100 102
-0.316537 0.00932392 0.260893 43 105 111
-0.316381 0.0104094 0.261092 64 121 115
-0.316476 0.0115505 0.261218 69 60 62
-0.316964 0.00181448 0.258556 17 57 58
-0.316556 0.00285075 0.258831 16 78 74
-0.316399 0.00393253 0.25903 29 95 95
-0.316243 0.00501438 0.259228 40 102 105
-0.316087 0.00609632 0.259427 40 102 106
-0.316182 0.00722931 0.259551 42 101 104
-0.316277 0.00836468 0.259675 36 99 104
-0.316372 0.00950246 0.259799 41 103 108
-0.316215 0.010588 0.259998 64 123 113
-0.316311 0.0117294 0.260123 64 71 78
-0.3168 0.00199199 0.257465 18 55 59
-0.316643 0.00307491 0.257663 18 68 69
-0.316487 0.00415789 0.257862 30 92 90
-0.31633 0.00524096 0.258061 37 100 103
-0.316174 0.0063241 0.25826 42 105 108
-0.316269 0.00745859 0.258383 39 102 105
-0.316112 0.00854298 0.258582 37 98 104
-0.316207 0.00968105 0.258705 41 101 105
-0.316303 0.0108215 0.258828 55 120 113
-0.316146 0.0119084 0.259028 61 91 102
-0.316241 0.0130524 0.259152 67 61 54
-0.31714 0.00226144 0.256216 22 55 60
-0.316731 0.00329957 0.256493 23 58 63
-0.316574 0.00438375 0.256692 28 87 86
-0.316417 0.00546804 0.256892 33 98 103
-0.316261 0.00655237 0.257091 42 103 108
-0.316104 0.00763681 0.25729 37 103 107
-0.316199 0.00877397 0.257411 37 99 105
-0.316294 0.00991354 0.257533 39 100 105
-0.316137 0.0110004 0.257733 48 112 114
-0.316233 0.0121436 0.257855 63 108 116
-0.316328 0.0132892 0.257978 68 62 59
-0.317229 0.00248566 0.255042 28 60 61
-0.317072 0.00357209 0.255241 21 54 59
-0.316662 0.0046101 0.25552 22 81 82
-0.316505 0.00569559 0.255719 32 97 101
-0.316348 0.00678116 0.255919 42 101 107
-0.316191 0.00786679 0.256118 38 103 108
-0.316034 0.0089525 0.256317 38 100 107
-0.316129 0.0100924 0.256438 35 99 106
-0.315972 0.0111793 0.256637 43 107 115
-0.316067 0.0123228 0.256759 63 113 116
-0.316416 0.0135264 0.256802 67 61 61
-0.317317 0.00271035 0.253865 37 61 57
-0.316906 0.00375035 0.254146 14 51 62
-0.316749 0.00483697 0.254345 17 77 79
-0.316592 0.00592367 0.254544 30 94 99
-0.316183 0.00695953 0.254824 41 100 107
-0.316026 0.00804527 0.255023 40 102 107
-0.316121 0.0091842 0.255143 39 101 107
-0.315964 0.0102712 0.255342 34 99 102
-0.315807 0.0113583 0.255542 40 105 111
-0.316154 0.0125587 0.255583 68 121 115
-0.316503 0.0137642 0.255623 67 65 67
-0.317405 0.00293554 0.252686 47 59 54
-0.316994 0.00397649 0.252968 15 50 62
-0.316584 0.00501534 0.253249 17 71 74
-0.316427 0.00610215 0.253449 29 92 96
-0.31627 0.00718902 0.253648 41 101 105
-0.316113 0.00827598 0.253848 41 103 107
-0.315955 0.009363 0.254047 41 101 105
-0.315798 0.0104501 0.254246 34 98 100
-0.315893 0.0115929 0.254365 39 102 107
-0.315988 0.0127382 0.254484 63 120 114
-0.316337 0.0139441 0.254523 64 79 82
-0.317082 0.00420311 0.251787 21 55 61
-0.316925 0.00529216 0.251987 20 62 67
-0.316261 0.00628065 0.252353 27 89 91
-0.316104 0.00736763 0.252552 37 101 103
-0.315947 0.00845469 0.252752 42 104 107
-0.31579 0.00954182 0.252951 41 102 106
-0.315633 0.010629 0.25315 34 99 102
-0.315728 0.0117721 0.253268 37 100 105
-0.316075 0.0129749 0.253304 52 114 114
-0.316425 0.0141826 0.25334 58 97 104
-0.317171 0.00443023 0.250604 26 59 61
-0.317013 0.0055205 0.250804 21 54 63
-0.316602 0.0065602 0.251089 23 84 85
-0.315939 0.00754628 0.251456 32 99 102
-0.315782 0.00863343 0.251655 42 104 107
-0.315625 0.00972066 0.251855 41 101 107
-0.315719 0.0108629 0.251971 38 101 106
-0.315814 0.0120075 0.252088 35 100 103
-0.316163 0.0132121 0.252121 45 109 114
-0.316767 0.0144806 0.252072 58 110 118
-0.317514 0.00470665 0.249333 30 60 61
-0.317101 0.00574934 0.249619 17 51 64
-0.31669 0.00678998 0.249905 19 82 79
-0.316279 0.00782856 0.25019 29 98 99
-0.316121 0.00891805 0.25039 40 103 108
-0.315964 0.0100076 0.250589 42 101 107
-0.315806 0.0110973 0.250789 41 101 107
-0.315901 0.0122434 0.250905 34 99 103
-0.316504 0.0135077 0.250851 42 104 112
-0.317111 0.0147799 0.250797 62 117 118
-0.317348 0.00488598 0.24823 40 61 59
-0.31719 0.0059787 0.248431 15 50 63
-0.316777 0.00702026 0.248718 18 78 73
-0.316366 0.00805978 0.249005 28 95 95
-0.316208 0.00915048 0.249205 37 103 106
-0.316051 0.0102413 0.249405 40 102 108
-0.315893 0.0113321 0.249605 42 101 108
-0.316242 0.0125367 0.249633 36 98 103
-0.316847 0.0138046 0.249576 40 102 108
-0.317199 0.0150206 0.249604 64 123 114
-0.317297 0.0161807 0.249719 62 66 67
-0.317534 0.00625905 0.247151 19 51 58
-0.316865 0.00725106 0.247529 20 68 68
-0.316453 0.0082915 0.247817 29 90 93
-0.316296 0.00938343 0.248017 36 102 105
-0.316391 0.0105302 0.24813 40 104 110
-0.316233 0.0116234 0.24833 42 101 108
-0.316839 0.0128886 0.248269 38 100 102
-0.317191 0.0141027 0.248294 40 100 106
-0.317288 0.0152619 0.248408 59 121 114
-0.317386 0.0164235 0.248522 60 81 86
-0.317741 0.0176503 0.248549 65 61 48
-0.318136 0.00659159 0.245776 25 54 59
-0.31772 0.00763812 0.246068 21 58 65
-0.316795 0.00857657 0.246537 28 87 89
-0.316637 0.00967085 0.246738 34 100 105
-0.317244 0.0109312 0.246671 40 104 109
-0.317342 0.0120857 0.246783 43 103 107
-0.317183 0.0131847 0.246985 38 101 103
-0.31728 0.0143429 0.247097 39 99 106
-0.317377 0.0155036 0.24721 50 114 114
-0.317475 0.0166668 0.247323 60 98 108
-0.317831 0.0178955 0.247347 67 62 53
-0.318226 0.00682334 0.244576 30 57 61
-0.31781 0.00787081 0.244869 19 56 62
-0.317651 0.00896966 0.245071 24 84 82
-0.317492 0.0100686 0.245272 35 98 101
-0.31759 0.0112234 0.245382 39 102 107
-0.317431 0.0123236 0.245584 41 104 107
-0.317528 0.0134822 0.245695 41 101 107
-0.317369 0.0145837 0.245897 36 100 105
-0.317467 0.0157459 0.246008 45 109 114
-0.317822 0.0169727 0.24603 63 110 117
-0.317921 0.0181412 0.246142 67 61 56
-0.318058 0.00700402 0.243467 41 59 57
-0.317899 0.00810401 0.243668 17 53 61
-0.31774 0.00920409 0.24387 20 80 74
-0.317581 0.0103042 0.244071 35 97 95
-0.317679 0.0114607 0.244181 39 101 105
-0.31752 0.0125621 0.244382 40 103 108
-0.317361 0.0136636 0.244584 41 102 107
-0.317458 0.014825 0.244694 35 99 106
-0.317556 0.0159888 0.244805 42 105 114
-0.317654 0.0171551 0.244915 63 117 117
-0.317752 0.0183239 0.245026 66 62 55
-0.318406 0.00728837 0.242168 50 60 55
-0.318247 0.00839076 0.24237 17 51 63
-0.318087 0.00949323 0.242572 19 73 70
-0.317928 0.0105958 0.242774 31 94 92
-0.317769 0.0116984 0.242976 40 100 103
-0.317609 0.0128011 0.243178 41 104 108
-0.31745 0.0139039 0.24338 41 103 105
-0.317548 0.0150668 0.243489 36 100 105
-0.317645 0.0162321 0.243598 41 103 112
-0.317744 0.0174 0.243707 67 123 115
-0.317842 0.0185704 0.243817 66 68 69
-0.318337 0.0086253 0.241162 22 53 61
-0.318178 0.00972902 0.241364 24 65 65
-0.318018 0.0108328 0.241566 28 88 88
-0.317858 0.0119367 0.241768 35 99 103
-0.317699 0.0130406 0.241971 39 106 110
-0.317539 0.0141447 0.242173 40 103 106
-0.317637 0.0153091 0.242281 35 100 104
-0.317735 0.016476 0.242389 40 102 108
-0.317575 0.0175826 0.242591 59 119 114
-0.317932 0.0188175 0.242605 61 78 91
-0.318428 0.00886035 0.239951 33 60 59
-0.318268 0.00996531 0.240154 27 57 59
-0.318108 0.0110704 0.240356 25 85 85
-0.317948 0.0121755 0.240558 35 98 100
-0.317788 0.0132807 0.240761 41 103 108
-0.317628 0.014386 0.240963 40 100 107
-0.317727 0.015552 0.24107 37 99 106
-0.317567 0.0166586 0.241272 39 100 106
-0.317923 0.0178915 0.241284 50 116 115
-0.318282 0.0191297 0.241295 56 98 115
-0.318642 0.0203732 0.241307 75 64 49
-0.318518 0.00909591 0.238738 37 60 56
-0.318358 0.0102021 0.238941 17 50 63
-0.318198 0.0113084 0.239143 18 81 82
-0.318038 0.0124148 0.239346 32 97 98
-0.317878 0.0135213 0.239548 41 102 105
-0.317718 0.0146278 0.239751 41 102 108
-0.317558 0.0157344 0.239953 34 98 107
-0.317915 0.0169655 0.239962 35 99 106
-0.318014 0.0181381 0.240068 42 109 115
-0.318633 0.0194433 0.239979 57 111 120
-0.319257 0.0207568 0.23989 67 64 58
-0.318609 0.00933203 0.237522 49 64 55
-0.318449 0.0104395 0.237725 19 48 62
-0.318288 0.0115471 0.237927 15 76 75
-0.31787 0.012597 0.238229 27 94 97
-0.31771 0.0137036 0.238431 37 104 104
-0.317808 0.0148702 0.238536 40 102 106
-0.317906 0.0160394 0.23864 40 99 105
-0.318005 0.017211 0.238744 37 98 104
-0.318364 0.0184492 0.23875 41 106 112
-0.318986 0.0197583 0.238657 56 115 116
-0.319349 0.0210085 0.238663 68 64 61
-0.31896 0.00962329 0.236202 49 63 52
-0.318799 0.0107332 0.236405 22 52 60
-0.318639 0.0118432 0.236608 21 67 68
-0.318219 0.0128951 0.236912 30 92 92
-0.318058 0.0140041 0.237115 39 102 104
-0.317898 0.0151131 0.237318 40 102 109
-0.317996 0.0162839 0.237421 41 102 105
-0.318355 0.0175201 0.237424 35 98 103
-0.318455 0.0186972 0.237527 39 103 111
-0.319078 0.0200085 0.237431 63 124 115
-0.319441 0.0212607 0.237434 63 72 72
-0.319151 0.0110281 0.23508 30 54 59
-0.31873 0.0120831 0.235386 25 58 62
-0.318309 0.013136 0.235691 28 84 86
-0.318148 0.0142463 0.235894 35 99 104
-0.318248 0.0154173 0.235996 40 102 109
-0.318347 0.0165909 0.236097 38 102 105
-0.318446 0.0177671 0.2362 34 100 104
-0.319069 0.0190755 0.236098 39 100 109
-0.31917 0.0202593 0.236201 54 117 116
-0.319533 0.0215135 0.236202 60 87 96
-0.320293 0.011495 0.233435 28 58 57
-0.319868 0.0125552 0.233744 20 56 60
-0.318921 0.0134951 0.23426 25 80 81
-0.31876 0.014609 0.234464 36 98 101
-0.318599 0.0157229 0.234668 40 103 111
-0.31896 0.016962 0.234665 36 102 107
-0.319323 0.0182064 0.234663 33 101 105
-0.319161 0.0193252 0.234867 37 98 107
-0.319525 0.0205774 0.234865 47 114 118
-0.319626 0.0217668 0.234967 58 102 116
-0.319728 0.0229588 0.235069 68 65 58
-0.320651 0.0117938 0.232093 37 62 56
-0.319537 0.0138565 0.232821 20 78 75
-0.319375 0.014974 0.233025 33 96 97
-0.319476 0.0161534 0.233124 41 103 109
-0.319577 0.0173354 0.233224 39 103 107
-0.319415 0.0184554 0.233428 35 100 104
-0.319516 0.0196413 0.233528 38 98 105
-0.319617 0.0208297 0.233628 42 108 115
-0.319719 0.0220207 0.233729 56 110 120
-0.319821 0.0232143 0.233829 67 67 63
-0.319892 0.0141602 0.231479 20 72 70
-0.31973 0.0152801 0.231683 33 92 95
-0.319568 0.0164001 0.231888 40 101 107
-0.31967 0.0175837 0.231986 39 104 109
-0.319507 0.0187051 0.232191 37 100 107
-0.319609 0.0198925 0.23229 39 98 104
-0.31971 0.0210826 0.232389 40 106 112
-0.319812 0.0222752 0.232488 61 119 117
-0.319649 0.0234004 0.232694 65 68 68
-0.320249 0.0144652 0.230131 26 64 65
-0.320087 0.0155876 0.230336 32 88 92
-0.319661 0.0166474 0.23065 38 101 106
-0.319499 0.0177687 0.230854 40 104 107
-0.3196 0.0189552 0.230952 39 101 107
-0.319701 0.0201443 0.231049 37 98 105
-0.319539 0.0212683 0.231255 39 103 110
-0.31964 0.0224612 0.231353 60 122 114
-0.319742 0.0236568 0.231451 61 77 79
-0.320608 0.0147716 0.228777 26 55 62
-0.32018 0.0158344 0.229093 29 84 86
-0.319754 0.0168952 0.229408 37 100 104
-0.319591 0.0180178 0.229613 40 104 107
-0.319693 0.0192059 0.229709 40 101 106
-0.31953 0.0203299 0.229915 36 99 105
-0.319632 0.0215219 0.230011 38 100 108
-0.319733 0.0227165 0.230108 53 117 114
-0.31957 0.0238431 0.230314 56 91 98
-0.319672 0.0250416 0.230411 64 65 53
-0.320702 0.015018 0.22753 21 49 60
-0.320274 0.0160818 0.227847 24 81 80
-0.319847 0.0171435 0.228164 37 96 101
-0.319684 0.0182675 0.228369 40 103 107
-0.319521 0.0193915 0.228574 41 101 106
-0.319623 0.0205825 0.228669 39 100 105
-0.319725 0.0217761 0.228765 37 100 105
-0.319562 0.0229028 0.22897 45 112 114
-0.319663 0.0241002 0.229066 54 105 114
-0.3195 0.0252282 0.229272 65 66 57
-0.320531 0.0152035 0.226392 18 49 60
-0.320368 0.0163298 0.226598 18 76 74
-0.31994 0.0173925 0.226916 33 92 97
-0.319777 0.0185177 0.227122 40 102 106
-0.319614 0.019643 0.227328 41 101 107
-0.319716 0.0208356 0.227421 39 100 104
-0.319553 0.0219623 0.227627 37 99 104
-0.31939 0.023089 0.227833 41 108 113
-0.319491 0.0242868 0.227927 54 113 118
-0.319593 0.0254873 0.228022 66 69 65
-0.320625 0.0154508 0.225141 19 51 59
-0.320196 0.0165155 0.225461 18 68 68
-0.320033 0.0176419 0.225666 30 90 93
-0.31987 0.0187685 0.225872 41 101 103
-0.319707 0.0198951 0.226078 40 102 107
-0.319544 0.0210218 0.226284 39 100 104
-0.319381 0.0221485 0.226489 38 99 104
-0.319482 0.0233454 0.226582 39 106 111
-0.319584 0.0245448 0.226676 56 117 115
-0.319686 0.0257469 0.226769 66 73 73
-0.320719 0.0156986 0.223886 22 55 57
-0.320289 0.0167642 0.224208 26 58 64
-0.319861 0.0178278 0.224529 29 86 86
-0.319698 0.0189544 0.224734 42 100 102
-0.319535 0.0200811 0.22494 41 103 107
-0.319372 0.0212079 0.225146 41 101 106
-0.319474 0.0224038 0.225237 38 99 105
-0.319575 0.0236023 0.225329 39 103 108
-0.319943 0.0248752 0.225307 59 121 112
-0.320045 0.0260803 0.225399 64 83 79
-0.320813 0.0159469 0.222628 30 60 55
-0.320383 0.0170136 0.222952 27 51 60
-0.32022 0.0181426 0.223158 24 81 79
-0.320057 0.0192717 0.223364 40 98 101
-0.319893 0.0204009 0.22357 40 102 108
-0.31973 0.0215302 0.223776 41 103 107
-0.319832 0.0227291 0.223866 38 98 106
-0.319934 0.0239306 0.223957 40 100 106
-0.320037 0.0251347 0.224048 53 114 110
-0.320674 0.026489 0.223906 61 96 98
-0.320778 0.0277012 0.223997 66 68 61
-0.321175 0.0162585 0.221249 35 63 53
-0.320744 0.0173272 0.221574 17 48 62
-0.32058 0.0184588 0.221781 19 77 76
-0.32015 0.0195242 0.222105 35 97 100
-0.319987 0.0206547 0.222312 40 102 108
-0.319823 0.0217853 0.222518 38 100 108
-0.319925 0.0229858 0.222607 36 100 106
-0.320028 0.024189 0.222696 40 98 105
-0.320665 0.0255403 0.22255 45 110 111
-0.320769 0.0267515 0.22264 58 109 116
-0.321142 0.0280411 0.222611 67 68 60
-0.322077 0.0166984 0.219621 45 62 49
-0.321912 0.017836 0.219829 16 50 60
-0.320942 0.0187764 0.220398 9 74 73
-0.320511 0.0198438 0.220725 28 93 97
-0.32008 0.0209091 0.221051 39 100 108
-0.319916 0.022041 0.221257 42 103 106
-0.320019 0.0232431 0.221345 40 101 104
-0.320656 0.0245915 0.221194 38 99 103
-0.321029 0.0258751 0.221163 42 106 111
-0.321133 0.0270893 0.221251 55 113 118
-0.321237 0.0283062 0.221339 63 73 65
-0.322987 0.017142 0.217979 53 58 46
-0.32255 0.0182192 0.218311 21 53 57
-0.321844 0.0192277 0.218765 21 64 65
-0.32141 0.0202994 0.219094 29 87 91
-0.320441 0.0212321 0.219666 40 100 105
-0.320277 0.0223666 0.219873 42 103 105
-0.32038 0.0235717 0.219959 40 101 105
-0.32102 0.0249241 0.219804 37 99 103
-0.321124 0.0261374 0.219891 41 103 108
-0.321228 0.0273533 0.219978 61 119 114
-0.321333 0.0285719 0.220065 68 78 77
-0.321438 0.0297933 0.220152 64 60 57
-0.32363 0.0175246 0.216449 58 59 52
-0.322919 0.018539 0.216908 27 55 60
-0.322211 0.0195491 0.217366 25 55 62
-0.321505 0.020555 0.217821 24 82 86
-0.321071 0.0216253 0.218152 36 100 103
-0.320907 0.0227635 0.21836 40 103 107
-0.321011 0.0239731 0.218445 38 101 106
-0.321385 0.0252582 0.218407 36 99 103
-0.321489 0.0264745 0.218493 40 101 107
-0.321594 0.0276936 0.218578 59 119 113
-0.3217 0.0289153 0.218664 65 85 86
-0.321534 0.0300613 0.218873 65 63 62
-0.323729 0.0177788 0.215163 58 60 56
-0.32329 0.0188601 0.215499 34 55 59
-0.322037 0.0197375 0.216212 24 47 60
-0.321601 0.0208111 0.216545 21 77 78
-0.321167 0.0218825 0.216878 32 98 98
-0.321271 0.0230924 0.216962 39 104 107
-0.321376 0.0243051 0.217045 38 103 106
-0.32148 0.0255204 0.217129 36 99 104
-0.321315 0.0266638 0.217338 38 100 106
-0.32142 0.0278831 0.217422 53 115 112
-0.321796 0.0291826 0.217382 59 95 101
-0.32163 0.0303299 0.217591 63 65 65
-0.322842 0.0189828 0.214468 50 60 53
-0.322133 0.0199932 0.214932 22 47 59
-0.321697 0.0210678 0.215267 19 73 72
-0.321262 0.0221402 0.215601 30 94 95
-0.321367 0.0233518 0.215683 39 101 106
-0.321201 0.0244939 0.215891 40 102 106
-0.321306 0.0257096 0.215974 38 101 104
-0.321411 0.0269279 0.216057 35 100 106
-0.321516 0.028149 0.21614 45 111 113
-0.321621 0.0293727 0.216223 55 106 114
-0.321455 0.0305202 0.216432 64 72 69
-0.32294 0.0192385 0.213182 57 64 47
-0.32223 0.0202496 0.213648 20 52 58
-0.321793 0.0213252 0.213985 19 69 68
-0.321358 0.0223985 0.214321 30 90 90
-0.321192 0.0235406 0.214529 40 99 104
-0.321297 0.0247553 0.21461 39 102 107
