ply
format ascii 1.0
element vertex 1215
property float x
property float y
property float z
property uchar diffuse_red
property uchar diffuse_green
property uchar diffuse_blue
end_header
-0.344743 -0.033849 0.271801 67 122 122
-0.343676 -0.0327231 0.272215 69 137 140
-0.342913 -0.0315924 0.27256 82 161 160
-0.342449 -0.0304531 0.272839 74 139 137
-0.342283 -0.0293017 0.273051 53 96 95
-0.325585 -0.0246657 0.27756 32 91 94
-0.325167 -0.0236008 0.277817 31 91 94
-0.325011 -0.0225173 0.278017 36 93 101
-0.324855 -0.0214337 0.278217 59 119 126
-0.324438 -0.020373 0.278473 93 163 162
-0.324282 -0.0192904 0.278673 100 159 149
-0.324126 -0.0182077 0.278873 79 71 73
-0.32397 -0.0171249 0.279073 67 62 58
-0.35126 -0.0393859 0.268212 69 63 58
-0.350149 -0.0382179 0.268647 73 62 63
-0.348734 -0.0370639 0.26915 73 66 73
-0.34764 -0.0359125 0.269579 73 82 88
-0.345943 -0.0347861 0.270143 68 104 104
-0.344566 -0.0336622 0.270633 56 113 114
-0.342902 -0.0325591 0.271186 53 115 117
-0.341552 -0.0314556 0.271667 56 119 123
-0.339921 -0.030375 0.272209 50 108 114
-0.339756 -0.0292334 0.27242 41 95 98
-0.325314 -0.0255923 0.276325 34 93 96
-0.325157 -0.0245088 0.276525 35 93 95
-0.325001 -0.0234253 0.276725 33 92 93
-0.324584 -0.0223626 0.276983 33 93 96
-0.324428 -0.02128 0.277183 50 110 113
-0.324272 -0.0201973 0.277383 73 143 144
-0.324116 -0.0191146 0.277583 86 141 136
-0.32396 -0.0180318 0.277783 72 69 75
-0.323804 -0.0169489 0.277983 69 64 59
-0.354113 -0.0403549 0.266127 65 69 67
-0.352981 -0.0391717 0.266573 68 80 85
-0.350594 -0.0380176 0.267312 88 109 103
-0.349486 -0.0368552 0.267749 94 129 119
-0.348385 -0.0357006 0.268184 82 133 128
-0.346985 -0.0345626 0.268687 63 120 119
-0.344388 -0.0334753 0.269465 49 103 106
-0.342132 -0.0323957 0.270162 44 99 104
-0.340788 -0.0312952 0.270646 41 99 105
-0.338875 -0.0302312 0.271259 36 97 102
-0.338711 -0.0290932 0.271469 36 95 98
-0.326091 -0.0264503 0.274855 34 94 98
-0.325148 -0.0254169 0.275234 35 95 96
-0.32473 -0.0243522 0.275493 33 93 94
-0.324574 -0.0232697 0.275693 30 90 92
-0.324158 -0.0222081 0.275951 32 89 95
-0.324002 -0.0211265 0.276151 45 103 106
-0.323846 -0.0200449 0.27635 57 125 126
-0.32395 -0.0189388 0.276492 74 124 117
-0.323794 -0.0178559 0.276692 69 69 69
-0.354425 -0.0413565 0.264624 69 68 66
-0.35393 -0.0401628 0.264922 72 91 97
-0.353437 -0.0389716 0.265219 84 139 142
-0.351991 -0.0377998 0.265744 83 159 157
-0.350243 -0.0366452 0.266339 69 144 149
-0.349136 -0.0354873 0.266779 57 122 133
-0.348036 -0.034337 0.267217 49 107 114
-0.344813 -0.0332677 0.268155 44 99 103
-0.341956 -0.0322101 0.269003 41 97 100
-0.340613 -0.0311104 0.269492 36 96 98
-0.338412 -0.0300611 0.27018 31 96 98
-0.338248 -0.0289242 0.27039 29 95 97
-0.325924 -0.0262744 0.27376 34 94 96
-0.324721 -0.0252594 0.274203 34 93 95
-0.324565 -0.0241769 0.274402 31 90 93
-0.324148 -0.0231143 0.274662 31 90 90
-0.323992 -0.0220327 0.274862 31 89 93
-0.323837 -0.0209511 0.275061 39 95 99
-0.323681 -0.0198693 0.275261 47 106 110
-0.323525 -0.0187875 0.275461 64 108 103
-0.354414 -0.0423609 0.263197 74 68 64
-0.354241 -0.0411642 0.263418 72 84 91
-0.353747 -0.0399706 0.263717 83 140 143
-0.353255 -0.0387796 0.264016 79 165 166
-0.352444 -0.0375969 0.264391 62 131 135
-0.351005 -0.0364337 0.264918 48 101 105
-0.349892 -0.0352725 0.265365 45 95 96
-0.348475 -0.0341286 0.265884 45 98 99
-0.345544 -0.0330484 0.266765 42 98 101
-0.342968 -0.0319777 0.267558 38 96 99
-0.340437 -0.0309255 0.268337 32 94 98
-0.338238 -0.0298775 0.269034 29 94 96
-0.338074 -0.0287405 0.269244 29 94 96
-0.325758 -0.0260986 0.272665 33 94 94
-0.324555 -0.0250842 0.273112 33 91 94
-0.324139 -0.0240207 0.273373 30 88 92
-0.323983 -0.0229391 0.273573 29 88 89
-0.323827 -0.0218574 0.273772 28 85 89
-0.323671 -0.0207756 0.273972 32 86 92
-0.323515 -0.0196938 0.274171 45 92 96
-0.323618 -0.0185871 0.274311 61 84 87
-0.354081 -0.0433647 0.26185 72 68 64
-0.353909 -0.0421693 0.26207 69 76 78
-0.353416 -0.0409759 0.262371 78 124 119
-0.353244 -0.0397817 0.262591 86 172 166
-0.353072 -0.0385875 0.262812 75 140 150
-0.352262 -0.0374052 0.26319 66 93 101
-0.351139 -0.0362354 0.263645 58 76 77
-0.350024 -0.0350735 0.264096 50 87 85
-0.348605 -0.033929 0.264621 42 97 97
-0.345365 -0.0328605 0.265591 37 96 99
-0.342791 -0.0317913 0.266394 35 95 98
-0.340262 -0.0307406 0.267183 30 95 97
-0.338063 -0.0296939 0.267888 29 94 95
-0.3379 -0.0285567 0.268098 32 93 94
-0.335736 -0.027534 0.268791 36 93 94
-0.328672 -0.0268298 0.270664 34 92 93
-0.325854 -0.0259054 0.271507 30 90 92
-0.324649 -0.0248906 0.271959 30 87 92
-0.324233 -0.0238261 0.272221 31 86 89
-0.323817 -0.0227637 0.272483 29 82 86
-0.323661 -0.0216819 0.272682 27 78 83
-0.323764 -0.0205774 0.27282 30 80 82
-0.323608 -0.0194944 0.27302 55 82 79
-0.323452 -0.0184112 0.27322 70 69 64
-0.353578 -0.0431723 0.260726 70 74 68
-0.353086 -0.041979 0.261028 73 99 98
-0.352276 -0.0407905 0.26141 82 151 145
-0.351155 -0.0396109 0.26187 83 175 168
-0.35257 -0.0384002 0.261688 82 110 113
-0.351128 -0.037232 0.262228 75 73 73
-0.350013 -0.0360666 0.262684 62 77 73
-0.349842 -0.0348827 0.262903 48 91 91
-0.348424 -0.0337391 0.263433 35 97 100
-0.345187 -0.0326725 0.264416 32 95 97
-0.342316 -0.031617 0.265303 33 94 95
-0.339502 -0.030582 0.266173 30 94 95
-0.337314 -0.0295386 0.266884 29 93 95
-0.336579 -0.0284345 0.267235 32 94 95
-0.333873 -0.0274494 0.26807 32 92 93
-0.328235 -0.0266687 0.269622 31 90 91
-0.325951 -0.0257117 0.270346 28 88 90
-0.324744 -0.0246966 0.270803 28 86 87
-0.324327 -0.0236311 0.271067 25 83 82
-0.323911 -0.0225678 0.27133 23 78 77
-0.323755 -0.0214848 0.27153 27 77 77
-0.323598 -0.0204017 0.271729 48 76 75
-0.323442 -0.0193185 0.271929 67 66 67
-0.353567 -0.0441747 0.259302 74 65 61
-0.353075 -0.0429803 0.259605 76 85 79
-0.352266 -0.0417895 0.25999 76 119 120
-0.350829 -0.0406088 0.260536 79 162 160
-0.35003 -0.0394312 0.260916 76 167 165
-0.350173 -0.0382438 0.261054 82 94 97
-0.350002 -0.0370599 0.261272 72 70 72
-0.349519 -0.0358837 0.261571 55 85 88
-0.348725 -0.0347189 0.261948 40 95 98
-0.347316 -0.0335797 0.262481 32 96 99
-0.343201 -0.0325518 0.263699 29 96 96
-0.340076 -0.0315164 0.264662 28 95 94
-0.337304 -0.0304901 0.265531 28 93 94
-0.335999 -0.0294125 0.266028 29 92 95
-0.333863 -0.0283898 0.266733 30 92 95
-0.329302 -0.0275262 0.268042 29 91 92
-0.328067 -0.026491 0.268515 29 89 90
-0.326312 -0.0254999 0.269116 29 87 88
-0.325101 -0.0244834 0.269579 27 82 83
-0.324422 -0.0234357 0.26991 23 77 77
-0.324005 -0.0223714 0.270174 25 77 75
-0.323848 -0.0212872 0.270374 43 77 75
-0.323692 -0.0202029 0.270574 62 71 68
-0.354844 -0.0451884 0.257536 68 66 60
-0.353705 -0.0439845 0.258012 68 68 65
-0.352892 -0.0427888 0.258402 82 103 92
-0.350818 -0.0416034 0.259122 74 126 130
-0.35002 -0.0404235 0.259506 75 165 164
-0.348913 -0.0392527 0.259969 71 164 164
-0.349054 -0.0380689 0.260105 73 96 104
-0.348884 -0.036889 0.260323 61 83 88
-0.348714 -0.0357089 0.26054 43 95 99
-0.347306 -0.0345652 0.261079 34 96 99
-0.344997 -0.0334624 0.26185 29 95 96
-0.341832 -0.0324102 0.262839 26 95 95
-0.338736 -0.0313808 0.263807 27 94 94
-0.335989 -0.03036 0.264681 30 92 93
-0.334413 -0.0293017 0.265251 30 91 93
-0.329834 -0.0284211 0.266589 27 90 93
-0.328594 -0.0273799 0.267068 26 90 91
-0.327898 -0.0263132 0.267408 26 87 88
-0.326409 -0.0253051 0.267948 23 84 82
-0.325987 -0.0242312 0.268217 21 79 78
-0.32504 -0.0231997 0.268618 25 76 76
-0.359943 -0.047476 0.254546 72 63 56
-0.357773 -0.0462314 0.25531 69 65 60
-0.356285 -0.0450089 0.255887 65 67 65
-0.353843 -0.0437938 0.25672 63 74 82
-0.35271 -0.0425972 0.257198 78 114 106
-0.350009 -0.0414159 0.258095 66 124 128
-0.348903 -0.0402418 0.258563 75 162 161
-0.347804 -0.0390754 0.259028 75 164 161
-0.347943 -0.0378953 0.259162 63 111 113
-0.347773 -0.0367191 0.259379 49 96 98
-0.347295 -0.0355509 0.259678 36 97 100
-0.344987 -0.0344404 0.260459 29 95 97
-0.342416 -0.0333571 0.261307 26 93 94
-0.339306 -0.0323151 0.262293 26 92 93
-0.337407 -0.0312462 0.262959 28 92 92
-0.334966 -0.0302177 0.263764 29 91 92
-0.332014 -0.0292349 0.264699 28 90 91
-0.329123 -0.0282727 0.265615 28 88 90
-0.327888 -0.0272342 0.266098 26 87 87
-0.327463 -0.0261527 0.26637 22 84 83
-0.327038 -0.0250734 0.266641 19 79 79
-0.326348 -0.0240157 0.26698 25 76 77
-0.360603 -0.0485142 0.252905 70 63 56
-0.360091 -0.0472858 0.253223 70 68 64
-0.358913 -0.0460523 0.253723 74 83 82
-0.358405 -0.0448322 0.254039 83 112 97
-0.355926 -0.0436087 0.254892 74 116 114
-0.353487 -0.0424045 0.255733 68 116 112
-0.349828 -0.0412259 0.256902 54 115 120
-0.347793 -0.0400613 0.257627 63 138 140
-0.347008 -0.038895 0.25801 58 133 141
-0.346839 -0.0377227 0.258226 48 107 111
-0.346058 -0.0365641 0.258607 38 96 98
-0.344976 -0.0354185 0.259068 32 95 97
-0.342406 -0.0343266 0.259928 26 94 96
-0.339296 -0.0332741 0.26093 25 92 94
-0.337397 -0.032199 0.261604 27 91 93
-0.335805 -0.0311252 0.262194 29 90 91
-0.333391 -0.030103 0.263001 29 89 90
-0.330744 -0.0291123 0.263867 28 88 89
-0.328415 -0.0281248 0.264646 26 87 88
-0.32772 -0.0270565 0.26499 23 85 84
-0.327294 -0.0259751 0.265263 20 81 79
-0.327136 -0.0248774 0.265466 25 77 80
-0.360929 -0.0495494 0.25135 67 64 55
-0.360416 -0.0483183 0.25167 67 74 71
-0.359904 -0.0470899 0.25199 72 107 104
-0.359393 -0.0458643 0.252308 77 133 138
-0.359217 -0.0446437 0.252533 77 146 136
-0.359041 -0.0434229 0.252758 69 127 131
-0.352491 -0.0410187 0.254923 43 105 107
-0.346997 -0.0398787 0.256611 44 109 111
-0.345606 -0.0387242 0.257164 39 103 110
-0.345438 -0.037557 0.257379 34 96 100
-0.344059 -0.0364176 0.257926 33 94 95
-0.342693 -0.0352881 0.258468 31 94 94
-0.339869 -0.0342148 0.259406 27 93 94
-0.337674 -0.0331416 0.26017 25 91 94
-0.335795 -0.032073 0.260846 28 89 93
-0.334502 -0.030993 0.26136 28 89 91
-0.332386 -0.0299626 0.262096 26 88 89
-0.329756 -0.0289762 0.262968 26 88 88
-0.328246 -0.0279468 0.263536 25 85 84
-0.327819 -0.0268623 0.263811 22 81 79
-0.327661 -0.0257622 0.264013 26 81 79
-0.328307 -0.0246056 0.264001 45 79 84
-0.360582 -0.0505689 0.249985 69 65 55
-0.360405 -0.0493456 0.25021 67 77 72
-0.359893 -0.048116 0.250531 70 108 106
-0.359717 -0.046894 0.250757 76 153 151
-0.359206 -0.0456685 0.251076 64 146 155
-0.35903 -0.0444478 0.251301 55 115 117
-0.358854 -0.0432269 0.251526 56 98 107
-0.346818 -0.0396902 0.255429 30 94 95
-0.344217 -0.0385549 0.256325 29 92 94
-0.344049 -0.0373927 0.256539 29 93 94
-0.342683 -0.0362589 0.257087 30 92 93
-0.340739 -0.0351515 0.257795 29 91 93
-0.337952 -0.0340863 0.258734 27 91 92
-0.336069 -0.0330105 0.259419 26 90 92
-0.334492 -0.0319368 0.260018 28 89 92
-0.333489 -0.0308492 0.260457 28 89 90
-0.332215 -0.0297822 0.26097 26 88 89
-0.329587 -0.0287974 0.261852 24 85 85
-0.329156 -0.0277062 0.26213 23 79 80
-0.327919 -0.0266676 0.262628 26 76 77
-0.328297 -0.0255305 0.262685 40 75 76
-0.360235 -0.0515861 0.248623 68 60 51
-0.360058 -0.0503642 0.248848 68 68 63
-0.359882 -0.0491423 0.249073 70 99 98
-0.359706 -0.0479202 0.249298 77 148 145
-0.359195 -0.0466935 0.24962 71 155 158
-0.359019 -0.0454727 0.249844 56 102 112
-0.358843 -0.0442519 0.250069 56 79 75
-0.358667 -0.0430309 0.250294 55 88 84
-0.344039 -0.0383679 0.255153 25 89 91
-0.34178 -0.0372478 0.25596 28 91 92
-0.341023 -0.0361088 0.25634 29 91 91
-0.338809 -0.0350166 0.25713 28 91 93
-0.336059 -0.0339595 0.258069 25 91 92
-0.335045 -0.0328597 0.258517 26 90 92
-0.334038 -0.0317669 0.258962 27 89 92
-0.333317 -0.0306681 0.259326 26 87 89
-0.332876 -0.02956 0.25961 25 83 85
-0.33133 -0.0285143 0.260203 22 80 80
-0.330347 -0.0274475 0.260637 23 77 78
-0.332948 -0.0261616 0.260075 39 77 77
-0.360048 -0.0513906 0.247389 64 63 58
-0.359536 -0.05016 0.247713 66 81 83
-0.359027 -0.0489322 0.248036 75 129 128
-0.358851 -0.0477129 0.24826 79 165 162
-0.358675 -0.0464935 0.248485 65 128 136
-0.358499 -0.045274 0.24871 62 73 75
-0.358323 -0.0440544 0.248934 59 73 66
-0.35848 -0.0428349 0.249062 48 91 87
-0.342662 -0.0382008 0.254326 23 88 91
-0.340131 -0.0370929 0.255221 23 90 92
-0.339673 -0.035953 0.255516 25 90 91
-0.337479 -0.0348665 0.256309 25 90 93
-0.335035 -0.0338057 0.257171 25 91 93
-0.334028 -0.0327098 0.257621 28 88 92
-0.333586 -0.0315972 0.257907 29 87 90
-0.333424 -0.0304739 0.258114 26 84 86
-0.333262 -0.0293505 0.258321 23 79 79
-0.3331 -0.028227 0.258528 25 76 76
-0.334623 -0.0270032 0.258259 37 76 78
-0.338767 -0.0255976 0.257252 57 74 74
-0.360037 -0.0524171 0.24593 67 61 52
-0.359526 -0.0511853 0.246256 66 73 69
-0.359016 -0.0499562 0.24658 72 103 101
-0.35884 -0.0487369 0.246805 79 149 146
-0.358331 -0.0475119 0.247129 78 160 163
-0.357824 -0.0462897 0.247452 61 103 123
-0.357649 -0.0450729 0.247676 63 66 70
-0.357473 -0.043856 0.2479 53 78 75
-0.340414 -0.0380505 0.253766 21 86 90
-0.339079 -0.0369271 0.254319 20 90 91
-0.338334 -0.0357984 0.254699 24 89 91
-0.335875 -0.0347262 0.255578 24 89 92
-0.334018 -0.0336529 0.256279 26 88 91
-0.333296 -0.0325501 0.256649 28 86 90
-0.333134 -0.0314279 0.256855 27 84 87
-0.333252 -0.0302925 0.256981 24 80 82
-0.333369 -0.0291546 0.257107 24 77 78
-0.333487 -0.0280142 0.257234 37 76 76
-0.336729 -0.0266831 0.256464 54 74 72
-0.339175 -0.0253739 0.255926 66 70 64
-0.361035 -0.053481 0.244163 70 57 45
-0.359849 -0.0522216 0.244696 64 62 59
-0.359339 -0.0509899 0.245023 72 87 82
-0.358829 -0.049761 0.245349 83 125 116
-0.357989 -0.0485281 0.245775 84 155 151
-0.357152 -0.0473009 0.246199 80 156 158
-0.35632 -0.0460791 0.246621 65 112 126
-0.356145 -0.0448678 0.246844 61 95 103
-0.357287 -0.0436607 0.246671 44 91 97
-0.342474 -0.0389858 0.251777 27 89 89
-0.339069 -0.0378867 0.252955 22 86 88
-0.337746 -0.0367688 0.253509 21 88 88
-0.337294 -0.0356376 0.253804 26 88 90
-0.335418 -0.0345526 0.25452 29 89 91
-0.333286 -0.0334913 0.25531 28 86 91
-0.332567 -0.032391 0.255681 26 83 88
-0.332406 -0.0312712 0.255887 23 80 83
-0.333079 -0.0301111 0.255848 26 76 80
-0.333477 -0.0289582 0.255891 48 85 83
-0.33586 -0.027688 0.255354 66 93 86
-0.33858 -0.0263751 0.254722 68 82 79
-0.339585 -0.0251492 0.254593 69 67 64
-0.340008 -0.0239536 0.254634 73 65 56
-0.364095 -0.0546357 0.241745 68 60 49
-0.363229 -0.0533715 0.242187 65 61 54
-0.359662 -0.0520261 0.243462 67 72 72
-0.359486 -0.0508039 0.243687 73 102 100
-0.358642 -0.0495658 0.244118 79 133 128
-0.357141 -0.0483203 0.24475 81 154 152
-0.355328 -0.0470813 0.245476 78 159 160
-0.354181 -0.0458633 0.245997 70 142 140
-0.354007 -0.0446602 0.246218 58 130 127
-0.353834 -0.0434569 0.24644 36 97 109
-0.339642 -0.038838 0.251413 27 89 93
-0.338314 -0.0377135 0.251976 24 87 89
-0.337284 -0.036592 0.252447 23 89 88
-0.336547 -0.0354699 0.252829 28 88 90
-0.334962 -0.0343794 0.253465 34 89 91
-0.333114 -0.0333103 0.254178 30 85 89
-0.332674 -0.0321992 0.254467 24 80 84
-0.332512 -0.031078 0.254674 24 77 78
-0.333187 -0.029916 0.254631 28 80 81
-0.334429 -0.0287166 0.25442 55 101 98
-0.336832 -0.0274384 0.253867 78 122 117
-0.339575 -0.026117 0.253216 80 116 112
-0.339997 -0.0249235 0.253254 77 87 87
-0.340421 -0.0237247 0.253293 74 66 66
-0.341145 -0.0224983 0.253244 73 64 57
-0.36547 -0.0557381 0.239828 66 62 59
-0.364943 -0.0544791 0.240167 66 66 68
-0.364763 -0.0532353 0.240396 65 85 91
-0.363204 -0.051948 0.241058 72 108 107
-0.359299 -0.0506083 0.242453 68 115 113
-0.359122 -0.0493859 0.242678 68 125 126
-0.355317 -0.048095 0.244035 75 149 149
-0.353847 -0.0468688 0.244661 67 154 159
-0.35303 -0.0456604 0.245082 46 123 133
-0.352537 -0.0444592 0.245402 36 101 108
-0.351726 -0.0432601 0.24582 32 97 99
-0.353154 -0.0420611 0.245546 31 96 100
-0.340805 -0.0397871 0.249684 33 98 97
-0.339174 -0.038658 0.250346 27 90 94
-0.33785 -0.0375354 0.250912 25 87 90
-0.336536 -0.0364224 0.251474 26 89 89
-0.335518 -0.0353109 0.251944 30 88 89
-0.334789 -0.0341973 0.252325 31 86 88
-0.333501 -0.0331089 0.252875 26 81 83
-0.33278 -0.0320069 0.253252 24 77 78
-0.333176 -0.0308593 0.253289 37 83 80
-0.333855 -0.0296927 0.253242 37 91 89
-0.335675 -0.0284575 0.252851 39 98 102
-0.337233 -0.0272203 0.252541 55 112 118
-0.339398 -0.0259302 0.252051 74 129 130
-0.340411 -0.0246967 0.25191 82 126 126
-0.341134 -0.0234735 0.251856 81 102 98
-0.341563 -0.0222647 0.251892 77 77 70
-0.342295 -0.0210265 0.251838 71 66 61
-0.342729 -0.0198054 0.251874 68 65 55
-0.366156 -0.0568176 0.238118 59 57 53
-0.365627 -0.0555543 0.238459 59 76 70
-0.365099 -0.0542939 0.2388 76 115 112
-0.36492 -0.0530486 0.239029 82 153 148
-0.36474 -0.0518032 0.239258 69 140 145
-0.355132 -0.0479016 0.242816 61 132 133
-0.35302 -0.0466672 0.243651 52 129 136
-0.351888 -0.0454587 0.244174 33 100 112
-0.35108 -0.04426 0.244594 27 95 97
-0.349961 -0.0430663 0.245111 30 94 97
-0.34979 -0.0418776 0.245329 33 94 97
-0.345898 -0.040716 0.246712 30 96 97
-0.340334 -0.0396054 0.248614 33 96 97
-0.338708 -0.0384784 0.249281 29 90 93
-0.337387 -0.0373577 0.249851 26 89 90
-0.335792 -0.0362535 0.250505 29 88 90
-0.335345 -0.0351285 0.250801 28 87 87
-0.334615 -0.0340152 0.251185 23 81 82
-0.333889 -0.0329066 0.251567 22 77 77
-0.333166 -0.0318026 0.251947 27 81 80
-0.333564 -0.030652 0.251982 50 99 95
-0.334811 -0.0294538 0.251756 59 110 109
-0.336072 -0.0282426 0.251528 50 104 109
-0.337058 -0.0270352 0.251386 40 97 107
-0.338927 -0.0257619 0.250976 49 107 114
-0.340233 -0.024509 0.250739 66 128 128
-0.340956 -0.0232851 0.250682 81 135 129
-0.341684 -0.0220529 0.250625 85 117 111
-0.342718 -0.0207883 0.250475 75 90 86
-0.343154 -0.0195638 0.250508 67 69 67
-0.342984 -0.018388 0.250724 68 63 57
-0.366145 -0.0578664 0.236627 66 59 43
-0.365965 -0.0566183 0.236857 61 74 68
-0.365436 -0.0553551 0.2372 76 133 119
-0.364909 -0.0540949 0.237542 78 158 166
-0.364729 -0.0528494 0.237771 60 131 143
-0.364549 -0.0516039 0.238 53 106 105
-0.352196 -0.0464665 0.242645 33 96 98
-0.351069 -0.0452613 0.24317 26 95 96
-0.349323 -0.0440611 0.243892 25 93 96
-0.348216 -0.0428746 0.244409 28 93 95
-0.346194 -0.0416994 0.245215 31 95 95
-0.342695 -0.0405516 0.246488 29 94 97
-0.33928 -0.0394312 0.247731 29 94 97
-0.338243 -0.0382991 0.248218 30 91 93
-0.336925 -0.0371803 0.248792 27 90 91
-0.335618 -0.036071 0.249361 27 87 88
-0.335455 -0.0349378 0.24957 24 82 82
-0.334725 -0.0338236 0.249956 23 77 77
-0.334279 -0.0327034 0.250253 24 76 76
-0.333554 -0.0315974 0.250636 25 82 80
-0.334518 -0.0304174 0.250492 40 95 94
-0.334921 -0.0292562 0.250524 61 110 111
-0.335897 -0.0280584 0.250378 69 122 123
-0.336882 -0.0268501 0.250231 58 117 122
-0.338458 -0.025594 0.249902 45 105 111
-0.339759 -0.0243414 0.24966 43 107 111
-0.340183 -0.0231397 0.249691 58 122 125
-0.341205 -0.0218867 0.249538 76 135 134
-0.342538 -0.0205981 0.249292 83 130 128
-0.342973 -0.0193731 0.249322 76 102 103
-0.343107 -0.0181699 0.249446 68 74 72
-0.342937 -0.0169926 0.249662 68 62 61
-0.342767 -0.0158153 0.249879 67 64 58
-0.365785 -0.0588963 0.235252 66 56 46
-0.365605 -0.0576496 0.235481 66 64 63
-0.365425 -0.0564028 0.23571 75 101 109
-0.365245 -0.055156 0.23594 85 166 165
-0.364718 -0.0538958 0.236283 63 132 141
-0.364538 -0.0526502 0.236512 60 83 86
-0.364358 -0.0514046 0.236742 55 85 77
-0.352012 -0.0462746 0.241436 25 95 97
-0.349312 -0.0450568 0.242476 24 95 97
-0.348205 -0.0438669 0.242997 24 93 97
-0.346183 -0.0426851 0.243813 27 93 95
-0.343284 -0.0415228 0.24491 28 92 93
-0.340442 -0.0403832 0.245985 28 93 94
-0.338522 -0.0392544 0.24676 27 91 95
-0.33749 -0.0381252 0.247249 29 89 91
-0.33675 -0.0369971 0.247643 25 87 89
-0.335729 -0.0358811 0.248126 24 81 84
-0.335281 -0.0347552 0.248426 24 78 77
-0.334834 -0.0336316 0.248724 29 78 76
-0.334388 -0.0325103 0.249023 22 76 74
-0.334507 -0.031367 0.249141 16 72 71
-0.334627 -0.0302212 0.24926 22 74 73
-0.335031 -0.0290582 0.249289 36 87 88
-0.335722 -0.0278742 0.249228 56 109 111
-0.336706 -0.026665 0.249076 68 128 128
-0.338281 -0.0254075 0.248739 65 131 130
-0.338993 -0.0241944 0.248676 53 120 122
-0.33971 -0.0229733 0.248612 42 108 116
-0.340134 -0.021767 0.24864 51 114 123
-0.341157 -0.0205064 0.248483 71 134 137
-0.342189 -0.0192346 0.248324 82 137 137
-0.342623 -0.0180064 0.248352 81 113 114
-0.342756 -0.0168015 0.248475 71 85 88
-0.342586 -0.015624 0.248691 63 64 69
-0.343023 -0.0143834 0.24872 66 64 56
-0.343157 -0.0131702 0.248844 67 64 55
-0.365246 -0.0586786 0.234109 66 58 54
-0.365066 -0.0574332 0.234338 70 86 85
-0.364886 -0.0561878 0.234567 84 158 144
-0.364707 -0.0549423 0.234796 77 165 162
-0.364527 -0.0536967 0.235025 68 89 93
-0.364347 -0.052451 0.235254 65 65 66
-0.364168 -0.0512052 0.235483 54 82 78
-0.363988 -0.0499594 0.235712 36 94 91
-0.352148 -0.0460866 0.240122 27 94 95
-0.348818 -0.0448642 0.241381 25 94 95
-0.346172 -0.0436709 0.242411 25 92 97
-0.343875 -0.0424982 0.243325 29 92 95
-0.340431 -0.0413496 0.244611 32 91 93
-0.339094 -0.040209 0.245205 29 91 92
-0.337768 -0.0390783 0.245794 31 89 90
-0.337027 -0.0379469 0.246191 27 86 88
-0.336576 -0.0368139 0.246494 25 80 83
-0.33584 -0.0356909 0.246889 22 77 76
-0.335676 -0.034555 0.247097 29 78 74
-0.335512 -0.0334191 0.247306 29 81 75
-0.33478 -0.0323055 0.247698 18 71 71
-0.334617 -0.0311719 0.247907 16 66 67
-0.335021 -0.0300109 0.247933 17 70 68
-0.335141 -0.0288598 0.248051 21 73 73
-0.335834 -0.0276737 0.247986 30 82 84
-0.335956 -0.0265149 0.248104 47 104 105
-0.337522 -0.0252591 0.247762 66 129 128
-0.33823 -0.0240481 0.247695 71 140 140
-0.338942 -0.022829 0.247628 61 130 136
-0.339364 -0.0216249 0.247655 47 114 124
-0.340084 -0.020391 0.247587 47 114 121
-0.341407 -0.0190966 0.24733 62 127 133
-0.341839 -0.0178707 0.247356 79 138 141
-0.342273 -0.0166393 0.247382 82 130 132
-0.342406 -0.0154327 0.247503 73 101 104
-0.342842 -0.0141915 0.24753 67 77 73
-0.342976 -0.012978 0.247652 66 62 60
-0.342805 -0.0117962 0.247869 67 61 54
-0.365234 -0.0597252 0.232621 66 58 49
-0.365055 -0.0584799 0.23285 66 70 68
-0.364875 -0.0572344 0.233079 75 117 111
-0.364695 -0.0559889 0.233308 82 171 166
-0.364516 -0.0547433 0.233537 66 140 154
-0.36399 -0.0534849 0.233883 69 66 68
-0.36381 -0.0522405 0.234112 61 65 64
-0.363286 -0.0509864 0.234457 47 86 86
-0.363106 -0.0497433 0.234685 32 92 93
-0.347703 -0.0446675 0.240495 27 91 95
-0.344167 -0.0434774 0.241833 25 91 95
-0.342198 -0.0423134 0.242646 26 91 93
-0.339083 -0.0411713 0.243836 28 89 92
-0.338337 -0.0400305 0.244239 29 90 90
-0.337305 -0.0388988 0.244736 27 87 87
-0.336853 -0.0377635 0.245041 23 81 81
-0.336401 -0.0366306 0.245345 22 76 76
-0.335951 -0.0355001 0.245648 23 76 73
-0.335787 -0.034363 0.245857 34 78 71
-0.335623 -0.0332257 0.246066 23 70 70
-0.335174 -0.0320998 0.246368 16 68 67
-0.33501 -0.0309637 0.246577 20 66 66
-0.335131 -0.0298135 0.246693 18 71 68
-0.335537 -0.0286457 0.246717 16 72 69
-0.335659 -0.0274892 0.246834 18 74 72
-0.33578 -0.0263301 0.246951 26 80 80
-0.336478 -0.0251304 0.246882 40 97 99
-0.33747 -0.0239023 0.246719 58 121 125
-0.337887 -0.0227071 0.246743 71 143 145
-0.338598 -0.0214835 0.246673 69 144 146
-0.339314 -0.0202516 0.246602 55 126 132
-0.339738 -0.0190377 0.246626 47 114 124
-0.341059 -0.0177357 0.246364 53 120 131
-0.341791 -0.0164775 0.246292 71 139 142
-0.342225 -0.0152414 0.246315 83 145 143
-0.342661 -0.0139997 0.246339 82 122 120
-0.342794 -0.0127858 0.24646 70 89 91
-0.342624 -0.0116039 0.246677 62 63 69
-0.342758 -0.0103858 0.246798 65 61 54
-0.342891 -0.00916497 0.24692 70 59 49
-0.365044 -0.0595266 0.231362 68 59 55
-0.364517 -0.0582628 0.231711 73 85 86
-0.363992 -0.0570019 0.232058 77 139 135
-0.363812 -0.0557592 0.232287 84 170 170
-0.363633 -0.0545164 0.232515 65 118 140
-0.363109 -0.0532611 0.232861 63 67 67
-0.36293 -0.0520196 0.23309 50 80 75
-0.362065 -0.0507591 0.233552 34 90 90
-0.362916 -0.0495443 0.233429 26 93 93
-0.346596 -0.0444722 0.239615 28 90 94
-0.343686 -0.0432894 0.240756 25 90 93
-0.341425 -0.0421285 0.241675 21 90 91
-0.338908 -0.0409871 0.242678 24 87 90
-0.337872 -0.0398497 0.243181 28 86 87
-0.336842 -0.0387196 0.243681 24 82 81
-0.336678 -0.0375801 0.24389 22 76 75
-0.336227 -0.0364474 0.244195 27 73 71
-0.335777 -0.0353169 0.2445 44 72 69
-0.335613 -0.0341797 0.244709 52 65 64
-0.335449 -0.0330423 0.244918 37 64 64
-0.335285 -0.0319049 0.245127 24 68 65
-0.335406 -0.0307545 0.245242 20 70 67
-0.335527 -0.0296016 0.245357 17 72 69
-0.335362 -0.0284615 0.245566 15 72 69
-0.33577 -0.027288 0.245587 18 73 69
-0.335892 -0.0261273 0.245703 19 74 72
-0.336302 -0.0249448 0.245725 22 78 78
-0.336425 -0.0237777 0.245841 33 88 92
-0.337127 -0.0225641 0.245768 51 113 116
-0.337835 -0.0213426 0.245695 69 138 140
-0.338546 -0.0201129 0.245622 74 148 150
-0.338968 -0.0189012 0.245643 63 137 145
-0.339391 -0.0176841 0.245665 49 119 130
-0.340411 -0.0164035 0.245494 48 119 126
-0.341441 -0.0151114 0.245322 66 137 142
-0.341874 -0.0138721 0.245344 84 150 151
-0.342309 -0.0126272 0.245365 85 140 141
-0.342443 -0.0114116 0.245485 74 105 108
-0.342576 -0.0101932 0.245605 65 77 74
-0.342709 -0.00897198 0.245725 65 60 60
-0.342843 -0.00774795 0.245845 69 60 56
-0.343284 -0.00648047 0.245868 67 59 56
-0.364853 -0.059328 0.230103 71 68 64
-0.363635 -0.0580283 0.230694 80 104 96
-0.363112 -0.0567705 0.231042 78 145 142
-0.36259 -0.0555156 0.231389 80 165 166
-0.36207 -0.0542635 0.231735 59 105 129
-0.361891 -0.0530263 0.231963 55 75 74
-0.361713 -0.051789 0.23219 34 87 90
-0.361534 -0.0505516 0.232418 28 91 93
-0.347202 -0.0454666 0.237998 26 89 90
-0.34428 -0.0442713 0.239158 25 89 90
-0.342308 -0.0431007 0.239989 24 88 88
-0.340362 -0.0419453 0.240809 24 86 88
-0.338441 -0.0408049 0.241619 28 83 89
-0.337696 -0.0396659 0.242026 27 82 82
-0.336667 -0.0385363 0.24253 23 77 75
-0.336503 -0.0373967 0.242739 25 72 69
-0.336339 -0.0362571 0.242949 51 71 66
-0.335888 -0.0351255 0.243255 62 61 57
-0.335516 -0.0305576 0.243996 33 69 65
-0.335352 -0.0294174 0.244206 22 71 68
-0.335759 -0.028246 0.244224 19 71 69
-0.335881 -0.0270863 0.244338 19 73 69
-0.336004 -0.0259241 0.244453 19 74 70
-0.336126 -0.0247593 0.244568 23 75 73
-0.336249 -0.0235918 0.244683 25 77 77
-0.336372 -0.0224217 0.244798 28 83 86
-0.337075 -0.0212022 0.244722 39 100 105
-0.337491 -0.0199995 0.244741 57 127 132
-0.338201 -0.0187652 0.244665 71 147 151
-0.338622 -0.0175504 0.244684 69 148 151
-0.339044 -0.0163301 0.244704 58 133 139
-0.340063 -0.0150434 0.244529 51 120 132
-0.341091 -0.0137451 0.244352 59 128 140
-0.341523 -0.0125025 0.244372 77 148 152
-0.341958 -0.0112543 0.244391 84 151 148
-0.34209 -0.010037 0.24451 78 124 124
-0.342223 -0.00881688 0.244628 71 89 93
-0.342661 -0.00755462 0.244648 66 63 71
-0.343101 -0.00628659 0.244669 66 61 59
-0.343236 -0.00505514 0.244788 67 62 57
-0.364315 -0.05911 0.228967 69 77 68
-0.363101 -0.0578125 0.229561 75 114 102
-0.361895 -0.0565239 0.230151 77 146 143
-0.360698 -0.0552443 0.230737 75 160 164
-0.360183 -0.0539997 0.231082 55 110 128
-0.360005 -0.0527696 0.231308 44 86 90
-0.359155 -0.051519 0.231769 29 88 94
-0.358978 -0.0502916 0.231995 27 89 93
-0.344269 -0.045252 0.237763 23 89 90
-0.342596 -0.0440764 0.238499 23 89 91
-0.341238 -0.0429137 0.239125 24 87 90
-0.339891 -0.0417611 0.239746 25 85 89
-0.338265 -0.0406208 0.240461 26 81 84
-0.337521 -0.0394821 0.240872 21 76 77
-0.336493 -0.038353 0.241379 25 73 71
-0.336328 -0.0372133 0.241588 46 70 64
-0.336164 -0.0360735 0.241798 64 64 58
-0.335463 -0.0292187 0.242957 40 69 65
-0.335871 -0.0280455 0.242973 27 71 69
-0.335706 -0.0269014 0.243183 21 74 70
-0.335828 -0.0257388 0.243296 21 74 72
-0.33595 -0.0245736 0.24341 31 75 73
-0.336073 -0.0234059 0.243524 27 76 73
-0.336195 -0.0222355 0.243638 16 76 75
-0.336608 -0.0210389 0.243655 18 79 82
-0.336731 -0.019862 0.24377 29 91 95
-0.337438 -0.0186298 0.24369 49 116 118
-0.337856 -0.0174173 0.243707 68 142 144
-0.338276 -0.0161993 0.243725 75 154 156
-0.338697 -0.0149758 0.243743 68 144 150
-0.339714 -0.0136829 0.243563 54 126 137
-0.340741 -0.0123784 0.243382 52 126 133
-0.341173 -0.0111326 0.2434 64 142 147
-0.341606 -0.00988116 0.243417 78 151 154
-0.341738 -0.0086621 0.243534 84 141 142
-0.341871 -0.00744025 0.243652 77 105 111
-0.342613 -0.00613372 0.24357 66 78 75
-0.343053 -0.00486087 0.243587 64 63 62
-0.342881 -0.00367018 0.243806 70 63 55
-0.342709 -0.0024794 0.244025 68 62 51
-0.36309 -0.0588546 0.22808 62 78 73
-0.361544 -0.057545 0.228796 62 112 105
-0.360349 -0.0562633 0.229386 66 137 137
-0.359835 -0.055019 0.229732 63 146 151
-0.358986 -0.0537646 0.230197 44 103 117
-0.358475 -0.0525273 0.230541 33 90 94
-0.357632 -0.0512828 0.231002 26 88 93
-0.357456 -0.050061 0.231227 26 87 90
-0.344258 -0.0462328 0.236368 23 87 87
-0.342885 -0.0450543 0.237007 25 87 88
-0.341524 -0.0438861 0.23764 27 88 88
-0.340174 -0.042728 0.238267 26 86 86
-0.339421 -0.0415773 0.238685 23 81 84
-0.338089 -0.0404366 0.239304 21 75 77
-0.337346 -0.0392982 0.239717 25 74 72
-0.336605 -0.0381647 0.240127 47 69 66
-0.336153 -0.0370298 0.240437 60 58 56
-0.335695 -0.0278605 0.241818 48 66 64
-0.335817 -0.026699 0.24193 32 71 68
-0.335652 -0.0255535 0.24214 22 72 72
-0.335774 -0.024388 0.242252 23 74 72
-0.335896 -0.0232199 0.242365 20 75 72
-0.336019 -0.0220493 0.242478 16 76 73
-0.336431 -0.0208522 0.242492 17 75 74
-0.336554 -0.0196749 0.242606 18 76 76
-0.336678 -0.018495 0.242719 26 84 86
-0.337093 -0.0172847 0.242734 40 102 105
-0.337803 -0.0160397 0.242651 60 129 133
-0.337929 -0.0148478 0.242765 75 151 154
-0.338645 -0.0135892 0.242682 74 155 157
-0.339069 -0.0123556 0.242697 61 139 144
-0.340391 -0.0110113 0.242412 52 125 136
-0.340822 -0.0097623 0.242427 57 132 143
-0.341254 -0.00850764 0.242442 74 150 156
-0.341386 -0.00728687 0.242558 84 151 151
-0.342126 -0.00598117 0.242473 79 122 122
-0.342564 -0.0047093 0.242488 73 91 92
-0.342698 -0.00347578 0.242605 69 66 70
-0.342526 -0.00228489 0.242824 70 62 56
-0.342355 -0.00109392 0.243043 66 65 58
-0.361533 -0.0585823 0.227322 56 77 77
-0.360001 -0.05728 0.228039 50 102 100
-0.359487 -0.0560359 0.228386 48 112 116
-0.35864 -0.0547806 0.228853 45 111 118
-0.35813 -0.0535435 0.229199 32 93 99
-0.357289 -0.0522982 0.229662 29 88 91
-0.356123 -0.0510488 0.230242 26 88 91
-0.354965 -0.0498081 0.230819 23 88 89
-0.35479 -0.0485958 0.231041 26 87 87
-0.347929 -0.047274 0.233656 28 85 88
-0.342875 -0.0460309 0.235618 27 85 86
-0.341811 -0.0448607 0.236151 26 86 86
-0.340459 -0.043697 0.236786 25 85 85
-0.339411 -0.0425432 0.237311 22 81 81
-0.338952 -0.0413939 0.237626 19 78 76
-0.337914 -0.0402524 0.238146 26 74 71
-0.33717 -0.0391143 0.238561 45 71 65
-0.336717 -0.037976 0.238873 57 63 59
-0.335476 -0.0253681 0.240983 39 67 67
-0.335598 -0.0242023 0.241094 25 73 71
-0.33572 -0.023034 0.241206 20 76 73
-0.335842 -0.021863 0.241317 18 76 74
-0.336254 -0.0206654 0.241329 19 74 72
-0.336377 -0.0194878 0.241441 18 73 72
-0.336501 -0.0183076 0.241553 16 74 74
-0.336916 -0.0170967 0.241566 20 79 79
-0.33704 -0.0159099 0.241679 32 89 92
-0.337458 -0.0146896 0.241692 49 115 118
-0.337583 -0.013496 0.241806 69 144 146
-0.338298 -0.0122327 0.241719 79 156 159
-0.338721 -0.010996 0.241732 70 148 153
-0.340041 -0.00964398 0.241442 54 130 141
-0.340471 -0.0083917 0.241454 50 128 138
-0.340903 -0.00713379 0.241467 63 142 151
-0.341336 -0.00587015 0.24148 80 151 156
-0.341772 -0.00460078 0.241493 86 143 142
-0.34221 -0.00332563 0.241507 78 104 112
-0.342344 -0.00209035 0.241623 71 77 75
-0.342478 -0.000852209 0.241739 67 64 65
-0.342612 0.000388785 0.241855 70 64 52
-0.359653 -0.0582945 0.226695 55 77 76
-0.358806 -0.057034 0.227166 43 93 92
-0.358296 -0.0557944 0.227513 33 92 96
-0.357786 -0.0545575 0.227859 29 88 94
-0.356617 -0.053299 0.228446 25 88 90
-0.355456 -0.0520491 0.229029 26 86 89
-0.353978 -0.0507985 0.229726 24 86 88
-0.352835 -0.0495669 0.2303 22 86 87
-0.350112 -0.0483119 0.231446 23 85 86
-0.343465 -0.047017 0.234011 28 84 87
-0.342098 -0.0458375 0.234658 29 85 84
-0.341039 -0.0446704 0.235193 26 83 82
-0.339987 -0.0435109 0.235725 23 80 81
-0.339234 -0.0423584 0.236148 21 77 76
-0.338776 -0.0412092 0.236464 24 74 71
-0.337738 -0.0400682 0.236989 44 68 65
-0.337283 -0.0389263 0.237303 65 61 58
-0.335422 -0.0240166 0.239936 49 67 62
-0.335544 -0.022848 0.240046 33 71 68
-0.335954 -0.0216538 0.240055 23 74 72
-0.336367 -0.0204543 0.240065 19 75 72
-0.33649 -0.0192751 0.240176 17 74 71
-0.336614 -0.0180933 0.240287 15 74 72
-0.337029 -0.0168805 0.240297 16 74 72
-0.337154 -0.015692 0.240408 18 76 75
-0.337279 -0.0145008 0.24052 25 83 84
-0.337112 -0.0133392 0.240733 38 99 104
-0.33753 -0.0121103 0.240744 58 127 133
-0.33795 -0.0108759 0.240755 74 152 154
-0.338372 -0.00963606 0.240767 73 157 157
-0.33969 -0.00827627 0.240471 59 139 146
-0.340119 -0.00702077 0.240482 51 124 138
-0.340852 -0.00571834 0.240389 56 131 144
-0.340984 -0.0044927 0.240503 76 151 156
-0.341419 -0.00322005 0.240514 85 151 151
-0.341855 -0.0019416 0.240525 82 124 124
-0.342294 -0.000657302 0.240536 76 91 93
-0.342428 0.000584025 0.240651 69 66 69
-0.342563 0.00182825 0.240766 68 64 61
-0.342697 0.00307537 0.240882 68 63 61
-0.358795 -0.058063 0.225703 55 76 73
-0.357952 -0.0568059 0.226175 38 90 89
-0.357443 -0.0555693 0.226522 24 91 94
-0.356277 -0.0543087 0.227113 22 88 91
-0.355118 -0.0530567 0.2277 23 87 89
-0.353643 -0.0518029 0.228402 23 86 87
-0.352503 -0.0505693 0.22898 24 85 87
-0.350101 -0.0493141 0.230021 23 84 85
-0.346808 -0.0480606 0.231386 22 86 86
-0.342686 -0.0468211 0.233053 25 84 86
-0.341622 -0.0456482 0.233594 28 83 82
-0.340566 -0.0444828 0.234132 24 79 79
-0.33981 -0.0433257 0.23456 20 77 76
-0.33935 -0.042173 0.234878 25 74 72
-0.338892 -0.0410226 0.235196 41 68 67
-0.338143 -0.0398778 0.23562 60 62 57
-0.335368 -0.0226619 0.238886 57 63 57
-0.335778 -0.0214672 0.238893 40 69 65
-0.336479 -0.0202427 0.238797 25 72 69
-0.336894 -0.0190361 0.238804 19 74 71
-0.337019 -0.0178513 0.238914 15 76 71
-0.337143 -0.0166638 0.239024 17 74 71
-0.337268 -0.0154736 0.239134 19 74 72
-0.337101 -0.014312 0.239347 17 75 74
-0.336933 -0.0131502 0.239561 21 77 81
-0.337058 -0.0119546 0.239672 31 87 94
-0.337477 -0.0107212 0.23968 47 112 117
-0.337897 -0.00948223 0.239689 65 142 145
-0.33832 -0.0082377 0.239698 77 156 160
-0.33934 -0.00690824 0.2395 70 148 155
-0.339768 -0.0056495 0.239508 54 127 142
-0.3405 -0.00434228 0.239413 52 125 136
-0.340631 -0.00311491 0.239526 63 141 150
-0.340762 -0.00188471 0.239639 83 152 156
-0.341501 -0.000557236 0.239543 86 142 141
-0.341939 0.000730361 0.239552 75 100 113
-0.342379 0.00202386 0.239561 69 80 79
-0.342513 0.0032713 0.239675 68 63 69
-0.342648 0.00452165 0.239789 70 66 56
-0.357941 -0.0578326 0.224715 55 75 69
-0.356771 -0.0565629 0.225313 36 88 86
-0.356266 -0.0553307 0.22566 24 91 94
-0.354781 -0.0540622 0.226374 23 87 92
-0.353632 -0.0528166 0.22696 23 87 88
-0.352492 -0.0515795 0.227543 22 86 87
-0.351041 -0.0503421 0.22824 24 85 86
-0.348349 -0.0490871 0.229399 24 84 85
-0.345094 -0.0478429 0.230764 24 86 85
-0.342208 -0.0466303 0.231988 25 83 84
-0.341148 -0.0454592 0.232532 26 79 80
-0.340389 -0.0442974 0.232964 23 75 76
-0.339633 -0.0431406 0.233394 25 73 72
-0.339174 -0.0419879 0.233714 41 68 67
-0.338715 -0.0408376 0.234033 59 61 54
-0.33589 -0.0212573 0.237627 59 64 58
-0.336884 -0.0200059 0.237423 47 67 62
-0.337008 -0.0188221 0.237531 32 71 66
-0.337425 -0.0176082 0.237535 21 75 69
-0.337258 -0.0164466 0.237748 18 76 71
-0.33709 -0.0152849 0.237961 19 76 73
-0.336922 -0.0141231 0.238175 19 74 73
-0.337047 -0.0129286 0.238284 18 73 72
-0.336879 -0.0117653 0.238498 20 74 75
-0.337004 -0.0105668 0.238608 25 81 85
-0.337423 -0.0093287 0.238614 37 98 104
-0.337549 -0.00812329 0.238724 56 126 130
-0.338267 -0.00683591 0.238627 75 152 155
-0.339288 -0.00549854 0.238424 73 154 158
-0.339717 -0.00423508 0.23843 59 139 146
-0.340147 -0.00296589 0.238436 50 122 138
-0.340278 -0.00173678 0.238548 56 129 140
-0.340409 -0.00050485 0.23866 73 152 156
-0.341146 0.000827476 0.238561 83 151 153
-0.341584 0.00211838 0.238567 81 125 125
-0.342023 0.00341519 0.238574 76 91 99
-0.342464 0.00471796 0.238581 68 69 70
-0.342599 0.00597155 0.238694 73 65 52
-0.343042 0.0072847 0.238701 70 66 50
-0.35676 -0.0575861 0.223858 60 72 62
-0.354944 -0.0562903 0.224705 42 86 83
-0.354444 -0.0550654 0.225051 30 90 93
-0.353621 -0.0538305 0.225519 25 87 91
-0.352481 -0.0525899 0.226106 22 86 88
-0.35103 -0.0513479 0.22681 21 85 87
-0.349592 -0.050117 0.227507 23 85 86
-0.346925 -0.0488695 0.228667 24 84 85
-0.344609 -0.0476494 0.229692 25 84 83
-0.34203 -0.046444 0.230813 22 80 80
-0.34097 -0.0452734 0.231361 22 75 75
-0.340211 -0.0441119 0.231795 25 73 71
-0.33975 -0.0429556 0.232118 42 68 68
-0.33929 -0.0418018 0.23244 59 62 56
-0.33754 -0.0173918 0.236256 41 69 64
-0.337372 -0.0162288 0.236469 25 72 69
-0.337204 -0.0150657 0.236683 19 75 72
-0.337036 -0.0139026 0.236896 17 75 73
-0.336869 -0.0127393 0.23711 16 74 72
-0.336993 -0.0115418 0.237218 17 73 72
-0.336825 -0.0103771 0.237432 18 73 74
-0.337244 -0.00913853 0.237436 21 76 79
-0.337076 -0.00797112 0.23765 31 87 90
-0.337496 -0.00672433 0.237654 47 110 114
-0.338214 -0.00543068 0.237553 64 140 145
-0.338937 -0.00412831 0.237451 75 157 161
-0.339365 -0.00286161 0.237455 69 147 155
-0.339795 -0.00158915 0.237459 53 127 140
-0.339925 -0.000358335 0.23757 51 127 134
-0.340357 0.000924165 0.237574 62 141 149
-0.340792 0.00221251 0.237578 83 153 158
-0.341228 0.00350673 0.237583 86 144 142
-0.341973 0.00486053 0.237479 76 103 113
-0.342414 0.00616822 0.237484 73 81 73
-0.342858 0.00748193 0.237488 67 65 59
-0.343303 0.00880171 0.237492 67 65 54
-0.353959 -0.0572579 0.223634 60 67 59
-0.353461 -0.056036 0.22398 43 81 81
-0.352965 -0.0548168 0.224325 30 88 90
-0.352149 -0.053588 0.224792 25 86 89
-0.351337 -0.0523647 0.225257 24 84 88
-0.349581 -0.0511183 0.226083 23 84 87
-0.348156 -0.0498938 0.226781 23 85 86
-0.346435 -0.0486736 0.22759 23 84 83
-0.344429 -0.0474616 0.228506 22 82 80
-0.34215 -0.0462616 0.229524 18 77 75
-0.341089 -0.0450902 0.230077 24 73 70
-0.340625 -0.043929 0.230403 39 70 66
-0.339867 -0.0427702 0.230839 60 64 57
-0.337487 -0.0160106 0.235188 45 66 63
-0.337319 -0.0148461 0.235401 33 70 67
-0.337151 -0.0136816 0.235615 24 75 70
-0.336983 -0.0125169 0.235829 20 76 72
-0.336815 -0.0113522 0.236042 18 75 73
-0.336939 -0.0101516 0.23615 17 74 75
-0.337065 -0.00894832 0.236257 16 74 75
-0.336896 -0.0077808 0.236472 17 76 76
-0.337316 -0.00653349 0.236473 25 81 85
-0.337737 -0.00528057 0.236475 39 95 100
-0.338161 -0.004022 0.236477 55 124 128
-0.338884 -0.00271329 0.236371 73 152 156
-0.339013 -0.00148779 0.23648 75 158 160
-0.339442 -0.0002121 0.236482 62 142 146
-0.339572 0.00102048 0.236592 49 121 136
-0.340003 0.00230625 0.236594 53 130 139
-0.340437 0.00359789 0.236596 71 155 158
-0.341483 0.00500281 0.236381 82 153 155
-0.341922 0.00630945 0.236382 79 127 123
-0.342673 0.0076792 0.236274 70 90 96
-0.343118 0.00899953 0.236276 66 70 67
-0.343254 0.0102656 0.236387 65 65 59
-0.352806 -0.0570163 0.222791 59 62 55
-0.352312 -0.0557988 0.223136 44 76 74
-0.352138 -0.0545974 0.223357 33 85 85
-0.351326 -0.0533718 0.223825 28 85 88
-0.350201 -0.0521409 0.224414 26 83 87
-0.348457 -0.0508999 0.225242 26 82 85
-0.347042 -0.0496804 0.225941 26 81 82
-0.345946 -0.0484781 0.226515 23 81 79
-0.344553 -0.0472787 0.227203 20 79 76
-0.342571 -0.0460824 0.228117 22 75 71
-0.341505 -0.0449089 0.228676 38 70 66
-0.340743 -0.0437441 0.229117 57 66 59
-0.337097 -0.012294 0.234545 28 72 69
-0.336929 -0.0111279 0.234759 20 75 73
-0.337054 -0.00992563 0.234865 19 76 75
-0.336885 -0.00875808 0.235079 20 75 76
-0.337011 -0.00755172 0.235185 18 74 75
-0.337136 -0.0063426 0.235292 19 75 75
-0.337557 -0.00508915 0.235291 24 78 78
-0.33798 -0.00383006 0.23529 33 86 88
-0.338107 -0.00260986 0.235398 46 107 111
-0.338533 -0.00134087 0.235397 64 141 145
-0.338661 -0.000113645 0.235505 77 159 161
-0.339089 0.00116532 0.235505 72 152 157
-0.339218 0.00239961 0.235613 50 130 141
-0.339951 0.00374071 0.235504 47 123 136
-0.340385 0.00503722 0.235503 58 140 151
-0.341126 0.00639496 0.235393 78 155 161
-0.341872 0.00776202 0.235282 82 148 143
-0.342623 0.00913846 0.235171 71 105 107
-0.342758 0.0104034 0.235281 69 78 73
-0.343516 0.0117953 0.235169 70 60 60
-0.344278 0.0131969 0.235056 65 62 57
-0.351808 -0.0555923 0.222047 44 71 67
-0.351316 -0.054379 0.222392 31 83 82
-0.350507 -0.0531565 0.222862 26 86 86
-0.349387 -0.051929 0.223453 24 83 85
-0.347963 -0.0507008 0.224163 25 82 83
-0.346861 -0.049491 0.224745 27 80 78
-0.345766 -0.0482893 0.225323 22 76 74
-0.344678 -0.0470954 0.225897 22 74 70
-0.343295 -0.0459059 0.226586 36 71 67
-0.341924 -0.0447268 0.227268 53 63 55
-0.337043 -0.010903 0.233472 37 68 68
-0.336874 -0.00973547 0.233686 26 73 72
-0.337 -0.00853015 0.233791 23 74 75
-0.337125 -0.0073221 0.233896 20 74 76
-0.337251 -0.00611129 0.234001 21 75 75
-0.337673 -0.00485582 0.233998 20 75 75
-0.337799 -0.00363809 0.234103 18 76 77
-0.337926 -0.00241756 0.23421 24 81 84
-0.337756 -0.00124033 0.234426 37 94 99
-0.338181 3.18914e-05 0.234423 52 122 126
-0.338608 0.00130987 0.23442 72 157 159
-0.338736 0.00254305 0.234527 75 160 164
-0.339166 0.0038311 0.234524 62 143 148
-0.339597 0.00512502 0.234522 47 119 138
-0.340333 0.00648013 0.234409 51 129 138
-0.341075 0.00784449 0.234294 67 154 157
-0.341821 0.00921819 0.23418 80 154 155
-0.342264 0.0105408 0.234176 77 130 125
-0.342708 0.0118696 0.234173 70 81 97
-0.343466 0.0132683 0.234057 67 71 66
-0.34423 0.0146767 0.23394 65 61 54
-0.344683 0.0160274 0.233936 66 59 47
-0.351305 -0.0553863 0.22096 53 61 57
-0.350496 -0.0541615 0.221433 38 75 72
-0.350007 -0.0529537 0.221778 32 82 81
-0.34889 -0.0517281 0.222372 30 82 83
-0.347781 -0.0505108 0.222962 28 79 80
-0.346679 -0.0493016 0.223548 26 76 74
-0.345892 -0.0481063 0.224009 24 72 71
-0.345108 -0.0469163 0.224467 33 71 66
-0.34372 -0.0457249 0.225164 52 63 57
-0.336989 -0.0095087 0.232396 50 66 64
-0.33682 -0.00833964 0.23261 30 72 70
-0.336945 -0.00713127 0.232714 22 76 74
-0.337662 -0.00583861 0.232597 24 77 74
-0.337788 -0.00462194 0.232701 21 76 75
-0.337619 -0.00344608 0.232916 21 75 76
-0.337745 -0.00222523 0.233021 21 76 76
-0.337575 -0.00104789 0.233237 21 78 79
-0.337702 0.000177148 0.233343 29 84 86
-0.338127 0.00145413 0.233337 45 105 108
-0.338255 0.00268621 0.233443 60 137 143
-0.338383 0.00392113 0.233549 77 161 166
-0.338812 0.00521247 0.233544 73 156 159
-0.339544 0.00656493 0.233428 51 131 139
-0.340281 0.00792662 0.233311 47 119 133
-0.340718 0.0092389 0.233306 55 136 145
-0.341463 0.0106175 0.233187 74 158 162
-0.342213 0.0120057 0.233068 81 146 146
-0.342348 0.0132757 0.233176 67 108 106
-0.343417 0.014745 0.232942 64 74 77
-0.343867 0.0160929 0.232936 66 59 56
-0.344319 0.0174471 0.23293 65 61 57
-0.344458 0.0187368 0.233039 70 61 50
-0.349996 -0.0539576 0.22035 47 61 60
-0.349508 -0.0527513 0.220696 35 71 70
-0.348708 -0.0515376 0.221167 26 75 75
-0.347599 -0.0503208 0.221761 23 75 74
-0.346498 -0.0491121 0.222351 25 71 70
-0.345711 -0.0479172 0.222815 35 69 67
-0.345234 -0.0467319 0.223154 53 64 59
-0.336765 -0.00694041 0.231532 37 70 66
-0.337481 -0.005647 0.231411 25 74 71
-0.337608 -0.00443001 0.231514 24 76 76
-0.337734 -0.00321022 0.231617 25 76 79
-0.337564 -0.00203287 0.231833 23 75 77
-0.337394 -0.000855415 0.232049 22 74 74
-0.337521 0.000369931 0.232153 23 76 73
-0.337351 0.00154886 0.232369 25 81 81
-0.337775 0.0028291 0.232361 35 92 99
-0.338201 0.00411512 0.232354 51 119 124
-0.33803 0.00529956 0.232571 71 155 156
-0.338758 0.0066494 0.232452 81 162 165
-0.339491 0.00800841 0.232331 66 143 148
-0.339925 0.00931803 0.232324 46 117 136
-0.340666 0.010694 0.232203 47 126 134
-0.341412 0.0120793 0.232081 64 151 156
-0.341854 0.0134104 0.232072 79 158 158
-0.342298 0.0147476 0.232064 78 130 124
-0.343055 0.0161581 0.231941 66 75 97
-0.343504 0.0175095 0.231932 62 70 64
-0.343956 0.0188671 0.231924 68 59 54
-0.344725 0.0203035 0.231799 71 58 49
-0.349325 -0.0525604 0.219488 58 63 51
-0.348839 -0.0513568 0.219834 55 65 58
-0.347417 -0.0501308 0.22056 51 64 62
-0.346625 -0.0489295 0.221029 51 63 62
-0.346145 -0.0477392 0.221371 58 62 57
-0.337427 -0.00423804 0.230326 35 72 71
-0.337553 -0.00301793 0.230428 24 76 76
-0.337383 -0.00184047 0.230644 19 79 78
-0.33751 -0.000616174 0.230747 19 76 77
-0.33734 0.000562762 0.230963 21 77 76
-0.33717 0.00174178 0.231179 20 76 76
-0.337296 0.00297168 0.231282 22 78 80
-0.337721 0.00425671 0.231272 28 85 89
-0.337848 0.00549369 0.231376 44 100 107
-0.337976 0.00673351 0.231479 56 134 138
-0.338404 0.00803298 0.23147 74 162 166
-0.339135 0.00939686 0.231347 75 158 159
-0.339872 0.01077 0.231222 52 133 136
-0.340613 0.0121527 0.231097 42 115 131
-0.341053 0.013481 0.231087 50 135 143
-0.341494 0.0148154 0.231076 72 161 166
-0.342247 0.0162231 0.23095 81 147 151
-0.342693 0.0175716 0.230939 65 113 104
-0.343768 0.0190679 0.230694 67 68 79
-0.344221 0.0204324 0.230683 71 59 52
-0.344993 0.0218778 0.230553 62 61 56
-0.337372 -0.00282561 0.229239 47 67 67
-0.337499 -0.00160239 0.22934 28 75 72
-0.337329 -0.00042343 0.229556 19 77 77
-0.337159 0.000755619 0.229772 20 77 78
-0.337285 0.00198444 0.229874 21 77 77
-0.337412 0.00321609 0.229976 21 77 76
-0.337539 0.00445054 0.230078 22 77 78
-0.337368 0.00563388 0.230295 24 80 82
-0.337495 0.00687258 0.230397 30 89 96
-0.337921 0.00817103 0.230385 47 112 119
-0.33835 0.00947535 0.230373 66 153 154
-0.33878 0.0107856 0.230361 78 165 169
-0.339515 0.0121637 0.230234 69 146 150
-0.340255 0.0135512 0.230105 42 118 132
-0.341001 0.0149483 0.229976 41 120 133
-0.341442 0.0162878 0.229963 60 148 154
-0.341886 0.0176334 0.22995 77 160 164
-0.342642 0.019056 0.229819 80 134 133
-0.343718 0.020561 0.229568 62 75 95
-0.344172 0.0219308 0.229554 60 63 64
-0.344627 0.0233069 0.22954 67 54 49
-0.345085 0.0246895 0.229526 65 59 46
-0.337615 -0.00136376 0.228033 51 65 61
-0.337444 -0.000183361 0.228249 34 71 69
-0.337571 0.0010458 0.228349 26 74 74
-0.337401 0.00222768 0.228566 24 76 76
-0.33723 0.00340963 0.228782 24 77 77
-0.337357 0.00464442 0.228883 23 76 77
-0.337186 0.00582785 0.2291 24 77 77
-0.337313 0.0070669 0.229201 22 78 80
-0.33744 0.0083088 0.229303 24 84 88
-0.337867 0.00961208 0.229288 39 98 105
-0.338295 0.0109213 0.229274 54 126 133
-0.339028 0.0122984 0.229143 76 164 165
-0.339766 0.013685 0.22901 76 164 166
-0.340202 0.0150155 0.228995 55 137 138
-0.340948 0.0164193 0.228862 38 109 129
-0.341082 0.0176951 0.228965 45 130 135
-0.341834 0.0191147 0.228831 69 161 166
-0.34228 0.0204717 0.228815 82 153 159
-0.343354 0.0219835 0.22856 71 116 103
-0.344122 0.0234329 0.228424 62 60 81
-0.344261 0.0247363 0.228528 66 58 50
-0.344718 0.0261225 0.228511 62 55 53
-0.337858 0.000104959 0.226821 56 64 53
-0.337389 0.00123915 0.227156 46 67 64
-0.337219 0.00242115 0.227373 33 72 73
-0.337346 0.00365486 0.227472 23 76 78
-0.337175 0.00483833 0.227688 20 77 79
-0.337302 0.00607628 0.227788 21 78 78
-0.337131 0.00726124 0.228005 19 79 77
-0.337257 0.00850346 0.228105 24 79 79
-0.337385 0.00974854 0.228205 27 80 84
-0.337812 0.0110567 0.228189 34 88 94
-0.33824 0.0123709 0.228172 48 110 116
-0.338974 0.0137546 0.228037 61 146 148
-0.339408 0.0150825 0.228019 75 164 170
-0.340149 0.0164834 0.227883 71 152 155
-0.340588 0.0178252 0.227865 41 124 130
-0.341029 0.0191731 0.227847 38 117 130
-0.341472 0.0205273 0.22783 57 146 151
-0.341917 0.0218878 0.227812 76 159 165
-0.34299 0.0234063 0.227552 83 139 141
-0.343757 0.0248609 0.227412 59 88 93
-0.343895 0.0261661 0.227515 53 65 66
-0.344351 0.0275557 0.227496 64 51 47
-0.344173 0.028786 0.227721 65 59 44
-0.337164 0.00384868 0.226277 42 70 70
-0.33729 0.00508557 0.226375 30 75 75
-0.337119 0.00627055 0.226592 22 77 76
-0.336948 0.00745562 0.226809 22 78 77
-0.337075 0.00869816 0.226907 28 77 77
-0.337202 0.00994357 0.227006 26 78 80
-0.337628 0.0112523 0.226987 29 79 83
-0.338057 0.012567 0.226967 32 84 87
-0.338487 0.0138877 0.226948 41 97 102
-0.33892 0.0152144 0.226928 52 122 129
-0.339354 0.0165473 0.226908 69 157 159
-0.33979 0.0178862 0.226888 76 163 165
-0.340228 0.0192314 0.226868 61 139 142
-0.340668 0.0205827 0.226848 39 114 135
-0.341111 0.0219404 0.226828 44 126 139
-0.341555 0.0233043 0.226808 68 155 159
-0.342626 0.0248295 0.226543 80 152 153
-0.343391 0.0262891 0.2264 75 120 110
