ply
format ascii 1.0
element vertex 1249
property float x
property float y
property float z
property uchar diffuse_red
property uchar diffuse_green
property uchar diffuse_blue
end_header
-0.461916 0.14894 0.268308 81 95 71
-0.461543 0.150706 0.268356 84 99 67
-0.460487 0.152177 0.268495 77 93 58
-0.454736 0.151595 0.26926 71 99 54
-0.450431 0.151599 0.269833 66 105 52
-0.448773 0.152745 0.270053 66 101 51
-0.443951 0.152454 0.270694 67 91 51
-0.438622 0.151889 0.271404 67 83 54
-0.434025 0.151614 0.272016 68 78 56
-0.433077 0.152992 0.27214 73 90 55
-0.432132 0.154367 0.272265 89 129 67
-0.430599 0.155456 0.272468 87 130 63
-0.429662 0.15682 0.272591 80 124 60
-0.42698 0.157334 0.272947 74 117 59
-0.42376 0.157562 0.273376 72 112 56
-0.421715 0.158342 0.273647 72 108 53
-0.419689 0.159115 0.273916 71 106 53
-0.418236 0.160159 0.274108 68 108 53
-0.417344 0.161478 0.274225 73 118 58
-0.41756 0.163359 0.274195 94 147 72
-0.417222 0.164959 0.274238 119 179 90
-0.417438 0.166848 0.274208 136 198 100
-0.417654 0.168743 0.274177 141 198 99
-0.417872 0.170643 0.274146 133 185 91
-0.418649 0.17285 0.274041 116 167 80
-0.421129 0.17599 0.273708 101 150 69
-0.422497 0.17855 0.273523 84 142 63
-0.423878 0.181134 0.273337 79 145 63
-0.42469 0.183418 0.273227 84 155 71
-0.425508 0.185716 0.273116 99 170 83
-0.425744 0.187697 0.273083 120 188 95
-0.425981 0.189683 0.273049 137 201 104
-0.427991 0.192698 0.272779 147 202 106
-0.428233 0.194707 0.272745 132 164 86
-0.462295 0.147374 0.266499 65 69 59
-0.461236 0.148853 0.266641 70 67 58
-0.46018 0.150328 0.266783 73 66 52
-0.454434 0.149771 0.267571 70 71 53
-0.454066 0.15151 0.267619 67 79 55
-0.449768 0.151515 0.268208 69 81 55
-0.448112 0.152661 0.268432 72 76 53
-0.442669 0.152088 0.269179 73 70 52
-0.437365 0.151529 0.269907 74 68 56
-0.432789 0.151258 0.270534 72 70 57
-0.431845 0.152635 0.270661 71 75 53
-0.431496 0.154287 0.270706 78 112 58
-0.429964 0.155377 0.270914 77 114 56
-0.429029 0.156741 0.27104 76 109 54
-0.426351 0.157255 0.271406 75 106 52
-0.424278 0.158043 0.271688 72 103 49
-0.421658 0.158543 0.272046 69 101 49
-0.41907 0.159038 0.2724 67 99 51
-0.418174 0.160362 0.27252 65 99 52
-0.417281 0.161683 0.27264 67 103 54
-0.416942 0.163283 0.272684 78 125 62
-0.416604 0.164883 0.272727 102 160 81
-0.41682 0.166772 0.272695 124 188 95
-0.417035 0.168667 0.272662 140 201 103
-0.417252 0.170567 0.272629 143 199 102
-0.418027 0.172774 0.272519 134 188 93
-0.420502 0.175914 0.272174 119 169 80
-0.421296 0.178161 0.272061 101 149 70
-0.423246 0.181057 0.271789 86 142 62
-0.424056 0.183341 0.271674 80 144 63
-0.424871 0.185639 0.271558 84 153 70
-0.425692 0.187952 0.271442 98 167 79
-0.425929 0.189942 0.271406 118 184 92
-0.427942 0.192963 0.271125 138 200 103
-0.428781 0.195324 0.271005 147 205 107
-0.429026 0.197348 0.270968 134 165 87
-0.431208 0.152555 0.269102 69 68 54
-0.430859 0.154207 0.269147 71 98 53
-0.42933 0.155297 0.26936 74 104 50
-0.428395 0.156661 0.269488 74 101 50
-0.4263 0.157457 0.269781 73 98 47
-0.423651 0.157965 0.270153 71 96 44
-0.421035 0.158466 0.270521 68 96 43
-0.419009 0.15924 0.270805 66 97 44
-0.417556 0.160286 0.271007 66 98 43
-0.417217 0.161888 0.27105 67 98 45
-0.416325 0.163207 0.271173 69 108 51
-0.41654 0.165094 0.271138 82 137 66
-0.416201 0.166696 0.271181 109 171 85
-0.416416 0.168591 0.271146 132 195 100
-0.416632 0.170491 0.271111 144 205 106
-0.417405 0.172698 0.270996 144 202 103
-0.419875 0.175837 0.27064 134 190 94
-0.420667 0.178084 0.270522 119 171 81
-0.421464 0.180345 0.270404 103 152 70
-0.422843 0.182941 0.270203 88 144 65
-0.424234 0.185562 0.27 82 144 64
-0.425053 0.187874 0.269879 85 151 69
-0.425876 0.190201 0.269757 98 165 79
-0.427892 0.193229 0.269465 117 185 92
-0.428135 0.195246 0.269425 137 200 102
-0.428978 0.197623 0.2693 147 203 107
-0.429224 0.199656 0.269261 135 168 89
-0.431164 0.152752 0.267456 68 68 54
-0.430222 0.154127 0.267587 68 87 53
-0.429283 0.155498 0.267719 71 98 48
-0.428347 0.156864 0.26785 71 97 45
-0.426831 0.157942 0.268066 69 95 43
-0.42417 0.158449 0.26845 67 95 42
-0.420976 0.158668 0.268913 65 94 43
-0.418948 0.159442 0.269204 63 93 42
-0.417492 0.160489 0.269412 63 92 42
-0.416599 0.161812 0.269537 62 95 46
-0.41626 0.163415 0.26958 63 99 45
-0.415921 0.165017 0.269624 70 116 55
-0.415583 0.16662 0.269668 92 149 72
-0.415797 0.168515 0.26963 119 181 91
-0.416011 0.170415 0.269593 137 201 102
-0.416783 0.172622 0.269473 144 208 106
-0.418121 0.175147 0.269271 143 205 104
-0.419471 0.177696 0.269067 135 194 95
-0.420833 0.180268 0.26886 120 172 83
-0.422209 0.182864 0.268652 103 154 72
-0.423597 0.185485 0.268442 89 144 65
-0.424414 0.187797 0.268316 82 143 63
-0.425235 0.190124 0.268189 85 150 68
-0.427247 0.193152 0.267887 97 164 80
-0.428086 0.195517 0.267757 116 181 90
-0.42833 0.197545 0.267715 136 198 100
-0.429176 0.199936 0.267584 144 203 105
-0.428821 0.201619 0.26763 134 170 90
-0.432314 0.153506 0.265624 69 71 55
-0.43077 0.154606 0.265849 86 104 63
-0.429236 0.155699 0.266073 84 112 57
-0.428299 0.157067 0.266207 73 97 44
-0.42678 0.158147 0.266429 67 94 39
-0.424693 0.158936 0.266736 65 94 41
-0.422054 0.159434 0.267127 64 93 43
-0.418886 0.159645 0.267598 63 92 42
-0.417429 0.160694 0.267811 62 93 41
-0.416534 0.162018 0.267939 61 96 41
-0.415641 0.163338 0.268066 61 97 39
-0.415303 0.164941 0.26811 65 102 49
-0.414964 0.166544 0.268154 79 127 62
-0.414626 0.168146 0.268198 106 165 80
-0.415391 0.170339 0.268074 130 192 96
-0.415605 0.172246 0.268034 142 206 103
-0.416377 0.174461 0.26791 145 211 105
-0.417715 0.176999 0.2677 144 208 105
-0.419065 0.17956 0.267488 135 195 96
-0.421575 0.182787 0.267101 122 175 83
-0.422381 0.18508 0.266971 104 155 73
-0.423192 0.187388 0.266841 90 145 66
-0.424009 0.18971 0.266709 82 143 65
-0.426602 0.193074 0.266309 83 149 70
-0.427439 0.19544 0.266174 95 161 78
-0.428281 0.19782 0.266039 114 181 90
-0.428526 0.199858 0.265994 133 195 100
-0.42817 0.201541 0.26604 141 199 104
-0.428416 0.203588 0.265994 135 172 91
-0.433827 0.152597 0.263728 64 67 56
-0.433474 0.154267 0.263774 75 86 64
-0.434938 0.156795 0.263537 120 149 79
-0.434583 0.158473 0.263583 107 143 72
-0.431815 0.158988 0.264004 77 103 47
-0.427315 0.158636 0.264694 68 94 41
-0.425799 0.159711 0.264921 64 92 41
-0.423141 0.160207 0.265325 64 92 40
-0.418824 0.159849 0.265988 63 92 39
-0.417365 0.160899 0.266206 61 93 41
-0.416468 0.162225 0.266336 62 95 42
-0.415575 0.163547 0.266466 64 95 42
-0.414684 0.164865 0.266596 67 98 45
-0.414346 0.166468 0.26664 71 113 57
-0.414007 0.16807 0.266683 95 150 73
-0.414219 0.169968 0.266642 122 184 92
-0.414431 0.171871 0.2666 137 199 99
-0.415198 0.174082 0.266471 141 204 101
-0.415969 0.176306 0.266342 143 208 104
-0.417307 0.178856 0.266124 144 210 107
-0.419796 0.182068 0.265728 137 199 98
-0.421169 0.184677 0.265505 123 175 86
-0.421975 0.18698 0.26537 107 157 76
-0.422786 0.189297 0.265234 91 146 67
-0.425366 0.192653 0.264822 81 143 65
-0.426791 0.195362 0.264591 82 148 69
-0.427631 0.197742 0.26445 93 162 79
-0.427875 0.19978 0.264403 113 179 89
-0.42812 0.201824 0.264355 132 196 101
-0.428366 0.203875 0.264307 142 198 105
-0.428009 0.205563 0.264353 135 173 93
-0.436221 0.153923 0.261665 65 69 61
-0.435865 0.155607 0.261711 76 95 71
-0.436122 0.15758 0.261659 116 162 86
-0.434544 0.158683 0.261901 109 152 72
-0.431172 0.158908 0.262429 80 117 53
-0.43082 0.160575 0.262475 67 96 47
-0.42633 0.160206 0.263182 63 92 41
-0.423661 0.160701 0.263598 64 91 35
-0.419325 0.160336 0.264281 64 92 36
-0.4173 0.161104 0.264595 64 93 40
-0.416403 0.162432 0.264728 65 95 42
-0.415508 0.163756 0.264861 68 95 43
-0.414066 0.164789 0.265081 70 98 46
-0.413727 0.166392 0.265125 69 107 55
-0.413388 0.167994 0.265169 87 143 71
-0.413599 0.169892 0.265125 118 180 90
-0.41326 0.171497 0.265169 135 198 98
-0.414022 0.173703 0.265036 139 202 101
-0.414789 0.175923 0.264903 141 203 103
-0.415003 0.177847 0.264858 141 206 105
-0.418028 0.181354 0.264363 142 211 110
-0.41996 0.184275 0.264042 138 200 99
-0.420761 0.186573 0.263903 126 178 87
-0.421567 0.188886 0.263763 108 159 74
-0.424133 0.192233 0.263341 91 146 66
-0.42555 0.194936 0.263102 80 143 64
-0.426385 0.197311 0.262957 81 149 68
-0.427225 0.199702 0.262812 93 161 77
-0.427469 0.201746 0.262761 112 179 89
-0.427713 0.203797 0.262711 130 192 99
-0.427959 0.205854 0.26266 141 194 102
-0.428205 0.207917 0.26261 136 174 93
-0.436184 0.154125 0.259974 68 65 57
-0.435828 0.155812 0.26002 71 75 57
-0.43486 0.157209 0.260167 80 97 56
-0.433896 0.158601 0.260313 87 107 55
-0.43233 0.159698 0.260558 79 123 58
-0.430176 0.160495 0.2609 64 99 49
-0.424531 0.159553 0.261815 64 94 39
-0.424183 0.161197 0.26186 66 92 35
-0.419829 0.160826 0.262564 67 92 37
-0.417236 0.16131 0.262979 67 95 40
-0.416337 0.16264 0.263115 69 96 41
-0.415441 0.163966 0.26325 71 96 44
-0.413997 0.164999 0.263476 72 100 49
-0.413108 0.166315 0.263611 69 105 54
-0.41277 0.167918 0.263655 87 139 68
-0.412431 0.169521 0.263698 118 178 87
-0.41264 0.171421 0.263652 134 198 99
-0.41285 0.173326 0.263606 140 202 102
-0.413612 0.175542 0.263468 141 201 103
-0.413824 0.177462 0.263421 141 202 104
-0.416833 0.18096 0.262913 141 204 105
-0.418185 0.183552 0.262678 145 213 109
-0.419551 0.186168 0.262441 140 201 97
-0.420929 0.188809 0.262201 127 179 86
-0.423489 0.192155 0.261767 109 159 75
-0.424313 0.194511 0.261618 92 146 67
-0.425142 0.196882 0.261469 81 142 63
-0.426574 0.199624 0.26122 81 146 66
-0.426817 0.201668 0.261167 92 159 76
-0.427662 0.204084 0.261015 110 175 88
-0.427908 0.206145 0.260962 128 189 98
-0.428155 0.208213 0.260908 138 194 102
-0.42962 0.211046 0.260653 136 178 95
-0.435177 0.15573 0.258427 69 69 56
-0.434211 0.157127 0.258576 74 73 56
-0.433247 0.15852 0.258725 79 74 56
-0.431684 0.159617 0.258975 72 103 53
-0.430729 0.160999 0.259122 68 100 49
-0.426226 0.160624 0.259869 68 95 39
-0.420111 0.159405 0.260888 68 94 41
-0.416953 0.159617 0.261408 68 94 43
-0.416612 0.161233 0.261452 69 96 43
-0.416271 0.162849 0.261496 69 97 43
-0.415374 0.164176 0.261635 70 98 46
-0.413927 0.165211 0.261866 71 102 49
-0.412489 0.166239 0.262096 71 111 55
-0.412151 0.167842 0.26214 91 145 69
-0.411812 0.169445 0.262184 121 180 88
-0.411474 0.171048 0.262228 134 198 100
-0.411681 0.17295 0.262179 139 200 103
-0.412439 0.175162 0.262038 135 194 101
-0.413201 0.177386 0.261895 126 188 97
-0.415642 0.180567 0.261468 125 188 96
-0.417553 0.183475 0.261131 138 200 100
-0.418344 0.185764 0.260983 144 208 105
-0.419714 0.188399 0.260737 142 201 98
-0.422261 0.191737 0.260291 129 179 88
-0.42308 0.194088 0.260139 111 159 76
-0.423904 0.196453 0.259985 94 146 66
-0.424733 0.198834 0.25983 83 140 61
-0.425568 0.20123 0.259674 81 144 67
-0.427008 0.204006 0.259416 91 157 77
-0.427253 0.206067 0.25936 108 173 88
-0.428104 0.208509 0.259201 127 190 98
-0.429571 0.211348 0.258938 138 194 102
-0.430437 0.213827 0.258776 136 177 96
-0.433561 0.157046 0.256985 70 66 56
-0.432599 0.158439 0.257136 71 69 51
-0.431639 0.159828 0.257287 69 77 49
-0.430083 0.160918 0.257542 72 76 47
-0.427944 0.161708 0.257897 71 92 50
-0.42062 0.159894 0.259152 70 96 46
-0.417448 0.160103 0.259687 69 97 43
-0.415988 0.161156 0.259925 67 98 43
-0.415647 0.162772 0.259969 65 100 46
-0.415306 0.164387 0.260014 66 102 49
-0.41441 0.165713 0.260154 69 107 51
-0.41187 0.166163 0.260581 76 121 57
-0.411532 0.167766 0.260625 98 154 73
-0.411193 0.16937 0.260669 125 186 91
-0.410855 0.170972 0.260713 136 200 102
-0.410516 0.172575 0.260757 141 199 104
-0.411269 0.174782 0.260611 125 176 95
-0.412026 0.177003 0.260464 103 156 83
-0.415013 0.180491 0.25993 98 161 81
-0.41692 0.183399 0.259583 114 181 89
-0.41771 0.185687 0.25943 132 197 99
-0.418504 0.18799 0.259277 145 209 105
-0.421037 0.19132 0.258821 143 202 100
-0.422435 0.19401 0.258562 130 182 90
-0.422669 0.196026 0.258505 113 161 77
-0.423493 0.198402 0.258346 96 145 66
-0.424917 0.201152 0.258082 84 139 63
-0.425755 0.203563 0.257921 80 144 68
-0.426598 0.205989 0.257758 91 156 76
-0.427447 0.208431 0.257594 108 174 86
-0.429522 0.211652 0.257216 127 190 97
-0.430389 0.214136 0.257049 139 194 103
-0.431262 0.216637 0.25688 137 180 95
-0.43195 0.158358 0.255548 69 63 51
-0.430992 0.159747 0.255701 70 66 50
-0.429438 0.160838 0.255961 74 71 51
-0.427894 0.161922 0.256218 69 91 49
-0.421705 0.160673 0.257303 66 96 44
-0.417946 0.160592 0.257955 67 98 41
-0.41648 0.161647 0.258199 67 101 43
-0.41558 0.162981 0.258343 67 104 49
-0.414682 0.16431 0.258487 69 108 53
-0.41159 0.164484 0.259021 74 114 55
-0.411251 0.166087 0.259065 85 131 61
-0.410913 0.16769 0.259109 106 162 77
-0.410574 0.169294 0.259153 130 192 95
-0.410235 0.170897 0.259197 138 201 103
-0.409897 0.1725 0.259241 140 195 103
-0.410102 0.174404 0.259188 114 156 85
-0.410855 0.17662 0.259038 87 130 67
-0.413826 0.1801 0.258491 79 137 65
-0.415723 0.183 0.258136 93 153 75
-0.417075 0.18561 0.257878 112 178 87
-0.417867 0.187913 0.257719 131 195 97
-0.419816 0.190904 0.257354 141 206 103
-0.421207 0.193588 0.257089 141 204 101
-0.422023 0.195949 0.256926 131 187 91
-0.422845 0.198324 0.256762 115 161 78
-0.423673 0.200715 0.256596 98 145 68
-0.424505 0.203121 0.25643 84 139 63
-0.425943 0.205911 0.256155 82 142 66
-0.42679 0.208353 0.255986 91 156 75
-0.428861 0.211574 0.255598 107 173 87
-0.429725 0.214058 0.255426 126 189 99
-0.430596 0.216558 0.255252 139 196 103
-0.430851 0.218677 0.255188 134 176 94
-0.430946 0.159958 0.254005 68 66 55
-0.42939 0.16105 0.25427 74 69 51
-0.42725 0.161841 0.254642 71 89 53
-0.422222 0.16117 0.255541 67 99 50
-0.419013 0.161371 0.256108 68 103 49
-0.416975 0.162141 0.256463 72 107 52
-0.416071 0.163478 0.25661 75 113 54
-0.414613 0.164522 0.256858 78 117 54
-0.411516 0.164694 0.257406 82 123 57
-0.410632 0.166011 0.257549 92 139 66
-0.410293 0.167614 0.257594 108 165 80
-0.409955 0.169218 0.257638 133 195 97
-0.409616 0.170821 0.257682 139 201 103
-0.409278 0.172424 0.257726 138 192 103
-0.409482 0.174329 0.257671 116 154 83
-0.409687 0.176239 0.257615 89 129 64
-0.412643 0.17971 0.257056 76 128 60
-0.415092 0.182924 0.25659 77 135 64
-0.41644 0.185533 0.256325 88 152 75
-0.417801 0.188168 0.256057 108 172 86
-0.419176 0.190827 0.255787 128 193 96
-0.420563 0.193511 0.255514 140 204 103
-0.421377 0.195871 0.255346 142 201 100
-0.422197 0.198247 0.255177 133 185 90
-0.423022 0.200637 0.255006 115 162 79
-0.423853 0.203043 0.254835 97 144 69
-0.424689 0.205464 0.254663 84 138 65
-0.42553 0.207901 0.254489 81 142 68
-0.428199 0.211495 0.25398 89 156 77
-0.429061 0.213979 0.253802 106 172 88
-0.429929 0.216479 0.253623 126 189 97
-0.430184 0.218598 0.253557 138 197 104
-0.430439 0.220723 0.253491 133 174 95
-0.430297 0.159877 0.252416 66 69 56
-0.429341 0.161263 0.252575 72 70 50
-0.427198 0.162055 0.252955 75 91 54
-0.422742 0.16167 0.253768 73 107 53
-0.419519 0.161868 0.254351 75 113 53
-0.418037 0.162927 0.254609 79 117 56
-0.416003 0.163689 0.25497 82 119 56
-0.415101 0.165024 0.25512 84 122 57
-0.410896 0.164617 0.255887 88 129 62
-0.410013 0.165935 0.256034 96 144 70
-0.409674 0.167538 0.256078 109 167 81
-0.409335 0.169142 0.256122 132 194 98
-0.408997 0.170745 0.256166 140 201 103
-0.408658 0.172349 0.25621 140 194 105
-0.40832 0.173952 0.256254 125 167 87
-0.409066 0.176163 0.256095 104 145 72
-0.410913 0.179009 0.255729 86 133 64
-0.413899 0.182527 0.255149 75 128 59
-0.415805 0.185457 0.254771 73 135 64
-0.417735 0.188423 0.254389 86 151 74
-0.419111 0.191088 0.25411 107 174 86
-0.419919 0.193433 0.253938 127 191 96
-0.420731 0.195794 0.253765 139 204 104
-0.420963 0.197816 0.253702 143 205 104
-0.422372 0.200559 0.253416 136 188 93
-0.422608 0.202602 0.253351 117 162 81
-0.423438 0.205018 0.253175 98 145 71
-0.424274 0.20745 0.252997 84 140 65
-0.426929 0.211035 0.252476 80 143 67
-0.428397 0.2139 0.252178 88 154 74
-0.429263 0.2164 0.251994 105 171 84
-0.429516 0.218519 0.251925 124 187 96
-0.42977 0.220645 0.251856 138 192 104
-0.430025 0.222777 0.251787 133 173 96
-0.429648 0.159796 0.250827 67 69 54
-0.428693 0.161182 0.250988 70 72 49
-0.427147 0.162269 0.251262 78 96 56
-0.423265 0.162173 0.251984 80 116 57
-0.420029 0.162368 0.252583 81 119 56
-0.417972 0.163138 0.252956 83 123 58
-0.416497 0.164191 0.253217 83 124 59
-0.415032 0.165238 0.253477 84 124 61
-0.410821 0.164828 0.254264 88 131 65
-0.409393 0.165858 0.254517 95 148 71
-0.409054 0.167462 0.254562 107 169 80
-0.408716 0.169066 0.254606 130 195 96
-0.408377 0.170669 0.25465 139 202 102
-0.408039 0.172273 0.254694 141 197 104
-0.408241 0.174177 0.254635 130 176 91
-0.407902 0.175783 0.254679 118 163 83
-0.410288 0.178933 0.254199 104 149 74
-0.413268 0.182451 0.253605 87 134 64
-0.41517 0.18538 0.253218 75 128 60
-0.417669 0.188679 0.252715 73 133 63
-0.419047 0.191349 0.252428 86 149 73
-0.419856 0.1937 0.252251 106 169 84
-0.420085 0.195716 0.252185 125 190 97
-0.420316 0.197739 0.252119 138 203 103
-0.421134 0.200124 0.251939 143 204 102
-0.421957 0.202525 0.251758 138 190 93
-0.422785 0.204941 0.251576 119 165 81
-0.423619 0.207372 0.251393 100 148 72
-0.425059 0.210197 0.251093 85 141 66
-0.427123 0.213435 0.250672 80 144 65
-0.428597 0.216322 0.250365 86 155 70
-0.429466 0.218838 0.250174 104 168 81
-0.429102 0.220566 0.250222 125 186 96
-0.429976 0.223104 0.25003 138 192 105
-0.430231 0.225248 0.249958 133 172 96
-0.428999 0.159714 0.249237 67 67 51
-0.428045 0.161102 0.249401 69 73 51
-0.426501 0.162189 0.24968 80 101 58
-0.422625 0.162093 0.250417 84 122 60
-0.419966 0.16258 0.250916 85 121 59
-0.417907 0.16335 0.251297 85 125 59
-0.416995 0.164697 0.251454 85 127 60
-0.414962 0.165452 0.25183 86 128 61
-0.4102 0.164752 0.252743 90 133 63
-0.408774 0.165782 0.253001 96 145 69
-0.408435 0.167386 0.253045 107 165 79
-0.408096 0.16899 0.253089 130 193 95
-0.407758 0.170594 0.253134 137 201 103
-0.407419 0.172197 0.253178 143 197 102
-0.407621 0.174102 0.253116 131 179 93
-0.409456 0.176931 0.252732 123 173 90
-0.413541 0.181058 0.251906 116 165 84
-0.413195 0.182694 0.251951 105 150 75
-0.4151 0.18563 0.251553 90 134 65
-0.417603 0.188936 0.251036 77 127 60
-0.418982 0.191612 0.250741 76 132 63
-0.41921 0.193622 0.250673 88 148 71
-0.420022 0.195987 0.250489 105 169 83
-0.420253 0.198014 0.25042 122 188 94
-0.420484 0.200046 0.250351 137 201 101
-0.421305 0.202447 0.250165 144 203 101
-0.422131 0.204863 0.249978 139 192 95
-0.422368 0.206922 0.249908 120 166 84
-0.4238 0.209741 0.249601 100 149 73
-0.426459 0.213356 0.249051 85 142 65
-0.427318 0.215851 0.248857 80 144 63
-0.428798 0.218759 0.248539 87 152 68
-0.428433 0.220487 0.248587 102 170 84
-0.429305 0.223025 0.24839 123 188 99
-0.430182 0.22558 0.248192 136 191 104
-0.430439 0.227735 0.248116 133 172 96
-0.427751 0.159341 0.247767 67 64 49
-0.426801 0.160727 0.247933 72 75 53
-0.425854 0.162108 0.248098 83 103 59
-0.421985 0.162014 0.24885 86 123 60
-0.41933 0.162501 0.249359 87 123 61
-0.417842 0.163563 0.249633 86 124 61
-0.416928 0.164911 0.249792 87 127 61
-0.414333 0.165375 0.25029 89 128 61
-0.410124 0.164963 0.251112 92 134 64
-0.408154 0.165706 0.251484 96 144 70
-0.407815 0.16731 0.251528 108 164 80
-0.407477 0.168914 0.251573 128 191 94
-0.407138 0.170518 0.251617 139 201 102
-0.4068 0.172122 0.251662 146 197 104
-0.406461 0.173725 0.251706 135 182 95
-0.408286 0.176548 0.251314 126 176 91
-0.412908 0.180982 0.250359 122 174 88
-0.415946 0.184558 0.249722 117 166 84
-0.417886 0.187533 0.249306 107 151 76
-0.417536 0.189194 0.249352 92 134 65
-0.418338 0.191534 0.249165 79 127 59
-0.419146 0.193889 0.248977 78 133 61
-0.419374 0.195909 0.248906 86 148 70
-0.420189 0.198289 0.248716 102 167 82
-0.420421 0.200326 0.248644 122 186 93
-0.420654 0.202369 0.248572 138 199 100
-0.420887 0.204419 0.248499 144 206 104
-0.421713 0.206845 0.248306 137 192 97
-0.422545 0.209286 0.248113 121 168 85
-0.42519 0.212892 0.247552 102 150 73
-0.426042 0.215381 0.247353 86 140 64
-0.427514 0.218283 0.247029 78 141 63
-0.427764 0.220408 0.246952 83 150 71
-0.429254 0.223353 0.246624 101 167 83
-0.429509 0.225501 0.246546 121 185 96
-0.43039 0.228073 0.246341 136 191 104
-0.431908 0.231086 0.246006 135 175 98
-0.426508 0.158969 0.246301 69 64 52
-0.425561 0.160354 0.246469 73 75 54
-0.424618 0.161733 0.246637 83 104 59
-0.421345 0.161934 0.247282 86 123 61
-0.418694 0.162422 0.247801 87 124 62
-0.417776 0.163776 0.247964 85 124 61
-0.416295 0.164833 0.248242 87 126 60
-0.413704 0.165297 0.248749 89 128 60
-0.409501 0.164886 0.249588 90 133 64
-0.407534 0.16563 0.249967 93 141 70
-0.407195 0.167234 0.250012 106 162 79
-0.406857 0.168838 0.250056 126 189 93
-0.405981 0.170147 0.250211 140 204 105
-0.405643 0.171749 0.250255 145 199 104
-0.405841 0.17365 0.250189 135 190 99
-0.406579 0.175861 0.250012 130 182 94
-0.411719 0.180588 0.248926 124 177 90
-0.415877 0.184807 0.248043 121 173 87
-0.418397 0.188123 0.247496 117 165 83
-0.418624 0.190129 0.247423 110 151 76
-0.418852 0.19214 0.247349 94 133 66
-0.418499 0.193812 0.247395 80 127 60
-0.41931 0.196181 0.247201 77 133 62
-0.41954 0.198212 0.247127 84 146 69
-0.420358 0.200607 0.246931 101 164 80
-0.420002 0.202291 0.246978 120 183 91
-0.420234 0.204341 0.246903 134 199 101
-0.421058 0.206767 0.246705 143 205 105
-0.421888 0.209208 0.246506 137 191 98
-0.423924 0.21243 0.246057 120 170 86
-0.424771 0.214913 0.245854 101 151 74
-0.426234 0.217808 0.245523 86 142 65
-0.427095 0.220329 0.245317 79 141 61
-0.428582 0.223274 0.244981 82 150 69
-0.428836 0.225422 0.2449 98 167 82
-0.429715 0.227994 0.244689 120 187 97
-0.431861 0.231432 0.244215 137 193 104
-0.432124 0.233618 0.244132 138 174 99
-0.425268 0.158599 0.24484 71 64 52
-0.424325 0.159981 0.24501 72 77 53
-0.423385 0.16136 0.24518 81 103 58
-0.420127 0.161563 0.245836 84 124 61
-0.418058 0.162343 0.246243 85 125 61
-0.417141 0.163698 0.246408 83 125 60
-0.415661 0.164755 0.246692 85 126 58
-0.413074 0.165219 0.247208 87 128 59
-0.408879 0.16481 0.248064 88 131 62
-0.406914 0.165554 0.24845 91 139 69
-0.406576 0.167158 0.248494 103 158 79
-0.406237 0.168762 0.248539 124 185 92
-0.405362 0.170071 0.248696 139 203 103
-0.405024 0.171673 0.248741 144 202 103
-0.405221 0.173574 0.248672 137 193 98
-0.405419 0.175481 0.248603 133 189 96
-0.40998 0.17988 0.247615 128 184 92
-0.415807 0.185057 0.246358 124 177 88
-0.417753 0.188046 0.245919 121 172 86
-0.418558 0.19039 0.245721 117 166 84
-0.418786 0.192405 0.245645 111 153 78
-0.419015 0.194426 0.245568 94 134 66
-0.419244 0.196454 0.245491 81 127 60
-0.41889 0.198134 0.245538 77 132 61
-0.419706 0.200529 0.245337 84 144 69
-0.41935 0.202214 0.245384 99 162 80
-0.42017 0.204629 0.245181 117 183 91
-0.420403 0.206689 0.245103 135 199 102
-0.421231 0.20913 0.244899 142 204 105
-0.423262 0.212352 0.24444 136 192 99
-0.424107 0.214835 0.244232 123 172 87
-0.424958 0.217335 0.244022 106 152 74
-0.426426 0.220251 0.243681 89 140 65
-0.427909 0.223195 0.243337 78 140 64
-0.428162 0.225343 0.243254 82 149 71
-0.429664 0.228333 0.242905 98 164 83
-0.431814 0.231779 0.242418 120 183 96
-0.432077 0.233969 0.242332 139 193 106
-0.43234 0.236167 0.242246 143 179 103
-0.424033 0.158229 0.243383 71 63 43
-0.423093 0.15961 0.243555 73 77 47
-0.421574 0.160696 0.243852 80 103 55
-0.419488 0.161484 0.24427 84 125 61
-0.417421 0.162264 0.244685 84 124 58
-0.415939 0.163327 0.244974 82 126 59
-0.415028 0.164676 0.245141 85 127 58
-0.412445 0.165142 0.245667 86 128 58
-0.408256 0.164733 0.246539 88 129 59
-0.406294 0.165477 0.246932 90 136 65
-0.405956 0.167082 0.246977 102 156 76
-0.405081 0.168394 0.247137 122 182 90
-0.404743 0.169996 0.247181 138 200 102
-0.404405 0.171597 0.247226 144 201 103
-0.404067 0.173199 0.24727 139 197 100
-0.404798 0.175406 0.247084 136 196 98
-0.40935 0.179803 0.246074 134 190 95
-0.415167 0.18498 0.244791 132 183 91
-0.417685 0.188303 0.244218 126 177 88
-0.417912 0.190312 0.244139 121 173 87
-0.41872 0.192671 0.243935 119 169 86
-0.418949 0.194696 0.243855 111 153 78
-0.419179 0.196728 0.243776 94 137 66
-0.41941 0.198766 0.243696 81 128 61
-0.419641 0.20081 0.243616 77 131 63
-0.419285 0.202498 0.243662 82 144 70
-0.419516 0.204551 0.243582 97 161 79
-0.419748 0.206611 0.243501 117 180 91
-0.420574 0.209052 0.243292 134 197 101
-0.422601 0.212273 0.242822 142 202 104
-0.423444 0.214757 0.242609 138 192 97
-0.424292 0.217256 0.242394 125 173 85
-0.425757 0.220172 0.242045 106 152 75
-0.42662 0.22271 0.241827 88 141 65
-0.427489 0.225264 0.241607 77 139 64
-0.428987 0.228253 0.24125 81 147 71
-0.431132 0.231699 0.240752 97 162 82
-0.432029 0.234322 0.240526 120 182 95
-0.432932 0.236963 0.240297 141 197 105
-0.432558 0.238734 0.240346 142 175 102
-0.422216 0.157574 0.242058 69 62 43
-0.421282 0.158952 0.242232 70 74 47
-0.420351 0.160326 0.242406 78 101 53
-0.418848 0.161404 0.242704 85 126 58
-0.416785 0.162185 0.243126 84 124 57
-0.415304 0.163248 0.243421 82 126 60
-0.414394 0.164598 0.24359 86 126 58
-0.412371 0.165356 0.244004 86 126 58
-0.407633 0.164656 0.245014 87 126 58
-0.405674 0.165401 0.245415 89 134 61
-0.405335 0.167006 0.245459 100 154 72
-0.404462 0.168318 0.245621 119 180 88
-0.404124 0.16992 0.245666 137 199 101
-0.403786 0.171522 0.24571 143 202 103
-0.403448 0.173123 0.245755 140 199 102
-0.403643 0.175027 0.245682 138 198 100
-0.407624 0.1791 0.244775 137 196 97
-0.414526 0.184902 0.243223 135 192 95
-0.41704 0.188225 0.242638 130 184 91
-0.417844 0.190574 0.242429 123 177 88
-0.418654 0.192938 0.242219 120 171 85
-0.418883 0.194967 0.242137 118 168 85
-0.419113 0.197002 0.242054 112 157 79
-0.418758 0.198688 0.242101 96 138 68
-0.418988 0.200732 0.242018 81 129 63
-0.419808 0.203147 0.241805 75 131 63
-0.41945 0.20484 0.241852 81 142 67
-0.420275 0.207276 0.241638 96 157 76
-0.419916 0.208974 0.241685 116 179 89
-0.421939 0.212195 0.241205 133 196 100
-0.42278 0.214678 0.240986 140 202 102
-0.423626 0.217178 0.240766 137 194 97
-0.424478 0.219693 0.240544 124 175 88
-0.425335 0.222226 0.240322 107 153 76
-0.426815 0.225185 0.23996 88 141 66
-0.427687 0.227756 0.239733 79 140 64
-0.430451 0.23162 0.239086 84 148 68
-0.431345 0.234242 0.238854 98 162 77
-0.432246 0.236883 0.23862 118 180 90
-0.432512 0.239097 0.238527 140 201 105
-0.432137 0.240871 0.238576 142 177 99
-0.420991 0.157208 0.240612 65 62 49
-0.42064 0.158872 0.240659 70 70 47
-0.41971 0.160246 0.240834 77 96 51
-0.418208 0.161325 0.241138 84 124 57
-0.416148 0.162106 0.241568 83 124 56
-0.414669 0.16317 0.241867 82 124 59
-0.4132 0.164227 0.242164 82 123 58
-0.41174 0.165278 0.24246 85 124 59
-0.40701 0.164579 0.243489 85 124 57
-0.405054 0.165325 0.243897 87 131 60
-0.404715 0.166929 0.243941 97 151 71
-0.403842 0.168242 0.244106 117 178 87
-0.403504 0.169844 0.24415 135 198 100
-0.403166 0.171446 0.244195 142 201 102
-0.402828 0.173048 0.24424 141 202 102
-0.403022 0.174952 0.244164 139 200 99
-0.405908 0.178401 0.243483 139 199 98
-0.413885 0.184824 0.241655 138 196 97
-0.416394 0.188147 0.241058 136 192 96
-0.417777 0.190837 0.240713 131 186 92
-0.418004 0.192859 0.240629 125 178 88
-0.418232 0.194888 0.240544 119 171 87
-0.418461 0.196924 0.240459 116 170 86
-0.418691 0.198966 0.240374 111 158 81
-0.418921 0.201014 0.240288 96 140 71
-0.419153 0.203069 0.240203 83 130 63
-0.419385 0.20513 0.240116 77 130 60
-0.42021 0.207571 0.239896 82 140 64
-0.421638 0.210407 0.239539 94 157 75
-0.422478 0.212885 0.239315 113 177 88
-0.422116 0.2146 0.239363 130 194 99
-0.42296 0.217099 0.239138 138 201 102
-0.423809 0.219615 0.238911 137 194 98
-0.424664 0.222147 0.238682 127 176 88
-0.425525 0.224695 0.238453 108 154 76
-0.426392 0.227261 0.238221 90 143 67
-0.429769 0.23154 0.23742 81 141 64
-0.430661 0.234163 0.237182 84 149 69
-0.43156 0.236803 0.236943 96 162 79
-0.431824 0.239017 0.236847 117 182 92
-0.432089 0.241239 0.236751 139 200 104
-0.432355 0.243467 0.236654 142 179 99
-0.420348 0.157127 0.239038 68 66 55
-0.419997 0.158792 0.239085 69 70 55
-0.419646 0.160456 0.239131 75 96 58
-0.417569 0.161245 0.239572 83 123 61
-0.415511 0.162027 0.240009 82 120 57
-0.414035 0.163091 0.240313 81 120 59
-0.412567 0.164149 0.240615 80 122 59
-0.411109 0.1652 0.240915 81 123 58
-0.406928 0.164791 0.24184 82 124 56
-0.404434 0.165248 0.242378 84 128 60
-0.404095 0.166853 0.242423 94 147 69
-0.403223 0.168166 0.24259 114 174 84
-0.402885 0.169768 0.242635 135 195 98
-0.402547 0.171371 0.242679 142 201 102
-0.402209 0.172973 0.242724 143 203 103
-0.402402 0.174876 0.242646 141 200 99
-0.404203 0.177706 0.242199 140 199 100
-0.410992 0.183444 0.240605 140 198 99
-0.415748 0.188069 0.239477 139 195 98
-0.417708 0.1911 0.238991 136 191 96
-0.417354 0.192781 0.239038 131 184 93
-0.418165 0.19516 0.238817 125 176 88
-0.418394 0.197199 0.238729 120 172 85
-0.418624 0.199245 0.238641 119 169 84
-0.418855 0.201297 0.238552 113 159 80
-0.418497 0.20299 0.2386 99 142 71
-0.419318 0.205421 0.238375 85 130 63
-0.419551 0.207492 0.238286 77 129 60
-0.421575 0.210709 0.237783 79 139 64
-0.421814 0.212806 0.237692 93 156 74
-0.422657 0.2153 0.237461 112 174 88
-0.423505 0.21781 0.237229 129 191 98
-0.423141 0.219536 0.237277 139 200 102
-0.423994 0.222068 0.237043 139 195 98
-0.424852 0.224616 0.236808 129 177 88
-0.4251 0.226767 0.236714 110 155 76
-0.428459 0.231034 0.235899 92 144 67
-0.429345 0.233651 0.235656 82 142 65
-0.430873 0.236723 0.235265 83 149 68
-0.431136 0.238937 0.235166 96 161 78
-0.431401 0.241159 0.235068 114 177 91
-0.432308 0.24384 0.234819 136 194 102
-0.432575 0.246081 0.234719 144 183 100
-0.419705 0.157047 0.237464 67 66 56
-0.419354 0.158711 0.23751 67 68 57
-0.419003 0.160376 0.237557 73 96 60
-0.417501 0.161456 0.237872 82 123 61
-0.415441 0.162238 0.238317 81 121 56
-0.4134 0.163012 0.238759 80 121 55
-0.411934 0.164071 0.239066 82 119 57
-0.410478 0.165122 0.239371 79 120 56
-0.406304 0.164714 0.240312 81 122 57
-0.403813 0.165172 0.24086 81 125 59
-0.403475 0.166777 0.240904 90 142 68
-0.402604 0.16809 0.241074 112 171 82
-0.402265 0.169693 0.241119 133 193 95
-0.401398 0.170999 0.241287 142 202 102
-0.40106 0.172599 0.241332 144 202 104
-0.401782 0.174801 0.241128 142 200 101
-0.403042 0.177323 0.240798 141 200 102
-0.408687 0.182401 0.239438 141 198 100
-0.415102 0.187991 0.237897 141 198 99
-0.417058 0.191022 0.237401 139 196 99
-0.417285 0.193048 0.237311 135 191 97
-0.417512 0.195081 0.237221 131 185 93
-0.41774 0.197121 0.237131 125 177 87
-0.418556 0.199525 0.236902 122 171 86
-0.418199 0.201218 0.236949 118 170 87
-0.418429 0.203277 0.236858 114 160 83
-0.419252 0.205712 0.236627 101 145 71
-0.420079 0.208163 0.236395 84 132 61
-0.421512 0.211012 0.23602 75 129 59
-0.421751 0.213113 0.235926 76 136 62
-0.421991 0.215221 0.235832 93 153 73
-0.422837 0.217731 0.235594 112 173 86
-0.42308 0.219857 0.235499 128 190 97
-0.423934 0.222394 0.235259 139 200 103
-0.423568 0.224128 0.235308 140 195 99
-0.424426 0.226688 0.235066 129 176 88
-0.427153 0.23053 0.234383 110 157 76
-0.428034 0.233141 0.234136 93 145 69
-0.429553 0.236205 0.233737 82 141 65
-0.430449 0.238857 0.233486 82 148 68
-0.431351 0.241527 0.233232 93 159 77
-0.431616 0.24376 0.23313 113 177 90
-0.431883 0.246001 0.233027 131 191 101
-0.432796 0.248713 0.232771 140 187 102
-0.419289 0.158919 0.235799 63 66 52
-0.418937 0.160586 0.235845 71 94 59
-0.417434 0.161668 0.236166 81 120 60
-0.414803 0.162159 0.236755 80 119 58
-0.412765 0.162934 0.237204 80 121 56
-0.411301 0.163992 0.237516 79 119 54
-0.409847 0.165044 0.237826 80 120 54
-0.405679 0.164637 0.238784 79 118 55
-0.403727 0.165383 0.239213 81 121 56
-0.402854 0.166701 0.239386 88 137 66
-0.401984 0.168014 0.239557 108 166 80
-0.401646 0.169617 0.239602 129 191 94
-0.400779 0.170924 0.239773 140 202 102
-0.400442 0.172523 0.239818 144 202 104
-0.400632 0.174424 0.239736 142 200 102
-0.401353 0.176635 0.239528 142 201 103
-0.405857 0.18105 0.238413 142 199 101
-0.413883 0.187578 0.236453 142 198 100
-0.416408 0.190943 0.23581 140 198 100
-0.416634 0.19297 0.235718 138 195 100
-0.41686 0.195003 0.235625 136 191 97
-0.417672 0.197396 0.235392 131 184 92
-0.417901 0.199446 0.235298 126 178 89
-0.418131 0.201502 0.235205 122 172 87
-0.418952 0.203932 0.234969 119 168 86
-0.418593 0.205634 0.235016 113 161 82
-0.420014 0.208461 0.234636 101 147 74
-0.420848 0.210933 0.234396 85 131 63
-0.421687 0.213421 0.234154 74 127 57
-0.421927 0.215533 0.234057 78 134 60
-0.422168 0.217652 0.23396 92 152 71
-0.42241 0.219778 0.233862 109 171 85
-0.423262 0.222315 0.233617 126 189 97
-0.424119 0.224869 0.23337 139 200 104
-0.426843 0.228696 0.232672 139 197 101
-0.426473 0.230451 0.232721 126 178 90
-0.427352 0.233061 0.232468 109 158 79
-0.428236 0.23569 0.232214 93 144 70
-0.429761 0.238777 0.231804 81 140 64
-0.430661 0.241447 0.231546 81 145 65
-0.430925 0.24368 0.23144 94 159 76
-0.431834 0.24638 0.231179 113 176 89
-0.433398 0.249565 0.230759 130 190 99
-0.434323 0.252308 0.230493 142 194 104
-0.418871 0.160797 0.234128 74 91 54
-0.416791 0.161588 0.234594 81 115 58
-0.414731 0.162371 0.235055 78 117 56
-0.41269 0.163146 0.235513 77 117 54
-0.410668 0.163914 0.235966 78 115 55
-0.409216 0.164966 0.236281 78 116 54
-0.405055 0.16456 0.237255 76 118 56
-0.403105 0.165307 0.237692 80 120 56
-0.402233 0.166625 0.237867 86 132 64
-0.401364 0.167938 0.238041 104 159 77
-0.400498 0.169248 0.238214 125 187 92
-0.40016 0.170848 0.238259 140 201 102
-0.399823 0.172448 0.238304 145 203 105
-0.400012 0.174348 0.23822 143 201 103
-0.400202 0.176254 0.238136 142 202 103
-0.403061 0.179716 0.237399 142 200 102
-0.412669 0.187166 0.235013 141 199 101
-0.41518 0.190523 0.23436 141 199 102
-0.415403 0.192546 0.234265 141 198 101
-0.416207 0.194924 0.234029 140 195 99
-0.417017 0.197318 0.233791 136 190 97
-0.417245 0.199368 0.233695 131 186 93
-0.418062 0.201787 0.233454 126 177 89
-0.418293 0.203853 0.233357 122 172 87
-0.419118 0.206299 0.233114 119 169 86
-0.419351 0.208383 0.233016 113 161 83
-0.420783 0.211237 0.232624 104 148 74
-0.421021 0.213342 0.232525 89 130 60
-0.421864 0.215846 0.232276 74 127 57
-0.422105 0.217969 0.232176 76 135 62
-0.42174 0.219699 0.232224 89 150 71
-0.42259 0.222236 0.231974 106 169 83
-0.423445 0.22479 0.231721 124 187 96
-0.426164 0.228616 0.23101 139 202 105
-0.427041 0.231221 0.230752 137 196 100
-0.427924 0.233843 0.230492 126 179 92
-0.427551 0.23561 0.230541 111 159 80
-0.428439 0.238255 0.230279 94 143 69
-0.429334 0.240919 0.230016 82 138 62
-0.430234 0.2436 0.229751 83 145 66
-0.43114 0.2463 0.229484 94 159 76
-0.434004 0.250422 0.228732 112 176 89
-0.434278 0.252701 0.228621 130 189 99
-0.435211 0.255469 0.228346 143 194 105
-0.417073 0.160135 0.232833 71 87 52
-0.416149 0.161508 0.233021 78 111 55
-0.414092 0.162291 0.23349 76 117 55
-0.412054 0.163067 0.233955 77 116 54
-0.410035 0.163836 0.234416 78 115 55
-0.408585 0.164888 0.234736 77 116 55
-0.40443 0.164483 0.235726 80 115 56
-0.402483 0.165231 0.23617 83 118 56
-0.401613 0.166549 0.236347 84 127 60
-0.400217 0.167572 0.236655 102 154 73
-0.399879 0.169172 0.2367 123 183 90
-0.399541 0.170772 0.236745 139 201 102
-0.399204 0.172373 0.236789 144 204 105
-0.399392 0.174273 0.236703 143 203 104
-0.399581 0.176179 0.236617 143 202 102
-0.401364 0.179018 0.236133 143 201 102
-0.41033 0.186094 0.233859 141 201 102
-0.413955 0.190104 0.232914 141 201 102
-0.414752 0.192468 0.232674 143 199 102
-0.415555 0.194846 0.232432 143 197 101
-0.416362 0.197239 0.232189 139 195 100
-0.417763 0.200008 0.231797 135 191 97
-0.417993 0.202072 0.231698 131 185 94
-0.418817 0.204512 0.23145 127 178 89
-0.41905 0.206593 0.231349 123 172 87
-0.419284 0.208681 0.231248 118 168 85
-0.420117 0.211158 0.230997 113 162 82
-0.420354 0.213263 0.230895 105 150 72
-0.421195 0.215767 0.230641 87 132 63
-0.421435 0.21789 0.230538 75 126 60
-0.421676 0.22002 0.230434 76 133 63
-0.421918 0.222157 0.23033 87 148 72
-0.422771 0.224711 0.230073 105 166 82
-0.424863 0.228117 0.229504 125 187 94
-0.425735 0.230716 0.229241 137 200 102
-0.42724 0.233764 0.228818 137 196 101
-0.428126 0.236403 0.228551 128 180 93
-0.429019 0.239061 0.228282 112 159 80
-0.428644 0.240839 0.228331 95 143 68
-0.429542 0.24352 0.228061 83 138 65
-0.430446 0.24622 0.227788 83 145 68
-0.433304 0.250341 0.227022 93 158 75
-0.434232 0.253097 0.226742 111 174 86
-0.435166 0.255871 0.226461 131 190 99
-0.435444 0.258175 0.226345 138 185 100
-0.415857 0.159766 0.231402 72 84 50
-0.414937 0.161137 0.231592 77 108 55
-0.413453 0.162212 0.231925 78 116 56
-0.411418 0.162988 0.232397 80 116 57
-0.408849 0.163467 0.233005 82 115 57
-0.407404 0.164519 0.233329 83 117 55
-0.403806 0.164406 0.234197 85 116 56
-0.401862 0.165154 0.234648 82 117 57
-0.400992 0.166472 0.234828 82 123 59
-0.399598 0.167496 0.23514 95 147 71
-0.39926 0.169096 0.235185 118 178 88
-0.398922 0.170697 0.23523 137 200 100
-0.39911 0.172595 0.235141 143 206 104
-0.398772 0.174198 0.235186 143 205 103
-0.39896 0.176104 0.235098 143 204 103
-0.399677 0.178323 0.234875 143 204 103
-0.407458 0.184705 0.232856 142 203 103
-0.413306 0.190026 0.231327 141 202 102
-0.413526 0.192045 0.231229 142 201 102
-0.414902 0.194767 0.230835 143 200 102
-0.415707 0.197161 0.230587 140 198 101
-0.417693 0.200291 0.230038 138 195 99
-0.418516 0.202725 0.229784 135 193 97
-0.418748 0.204804 0.229681 134 185 93
-0.418982 0.206889 0.229577 129 179 89
-0.419216 0.208981 0.229473 122 174 87
-0.420051 0.211463 0.229216 117 170 85
-0.42089 0.213961 0.228957 116 166 83
-0.420526 0.215688 0.229006 108 151 76
-0.420765 0.217811 0.2289 91 135 63
-0.421611 0.220343 0.228638 78 128 60
-0.422463 0.222891 0.228375 75 131 63
-0.422708 0.225043 0.228267 84 144 70
-0.424184 0.228037 0.227844 101 165 79
-0.425054 0.230636 0.227575 121 187 94
-0.425929 0.233252 0.227305 136 198 103
-0.427439 0.236323 0.226872 137 195 102
-0.427697 0.238538 0.226759 128 181 93
-0.429227 0.241656 0.22632 114 161 80
-0.43013 0.244349 0.226041 96 142 70
-0.429752 0.24614 0.226092 85 139 65
-0.432604 0.250261 0.225311 84 144 66
-0.43353 0.253016 0.225026 92 157 74
-0.434462 0.25579 0.224738 110 172 86
-0.4354 0.258583 0.224449 129 186 98
-0.435015 0.260407 0.2245 134 180 100
-0.415215 0.159686 0.229829 71 80 50
-0.414295 0.161057 0.230022 78 105 56
-0.412813 0.162133 0.23036 81 115 56
-0.410781 0.162909 0.230839 82 114 57
-0.408216 0.163389 0.231457 83 113 56
-0.406774 0.164441 0.231785 84 112 54
-0.403181 0.164329 0.232668 84 113 53
-0.40124 0.165078 0.233126 83 116 57
-0.400371 0.166396 0.233308 80 118 59
-0.398979 0.16742 0.233625 90 139 69
-0.398641 0.169021 0.23367 115 172 86
-0.398303 0.170621 0.233715 133 196 100
-0.39849 0.172519 0.233624 140 205 105
-0.398152 0.174122 0.233669 143 205 106
-0.398339 0.176028 0.233578 143 203 104
-0.398527 0.17794 0.233487 144 203 103
-0.405718 0.183979 0.231582 142 203 104
-0.412087 0.189609 0.229888 141 202 103
-0.412877 0.191967 0.229639 142 202 102
-0.413672 0.19434 0.229388 142 200 102
-0.414472 0.196728 0.229136 141 198 101
-0.417034 0.200212 0.228425 140 197 100
-0.417854 0.202646 0.228167 138 198 100
-0.418086 0.204725 0.228061 137 193 96
-0.418318 0.20681 0.227955 133 187 94
-0.419148 0.209281 0.227693 127 180 90
-0.419984 0.211769 0.227429 121 175 87
-0.420221 0.213882 0.227321 119 171 86
-0.42046 0.216002 0.227213 118 165 83
-0.420699 0.218129 0.227104 108 153 76
-0.421547 0.220666 0.226836 92 137 66
-0.4224 0.22322 0.226567 79 129 60
-0.422644 0.225376 0.226456 75 131 60
-0.424123 0.228377 0.226022 82 143 67
-0.424372 0.230557 0.22591 99 164 81
-0.425245 0.233173 0.225634 121 184 92
-0.426124 0.235806 0.225357 135 196 102
-0.427008 0.238458 0.225077 138 196 102
-0.427899 0.241127 0.224796 131 184 93
-0.428796 0.243814 0.224513 117 161 82
-0.432285 0.248374 0.22355 99 144 70
-0.433209 0.251123 0.223258 86 139 65
-0.432827 0.252935 0.223309 83 143 66
-0.434416 0.256193 0.222843 91 155 74
-0.434693 0.258502 0.22272 110 172 88
-0.43497 0.260819 0.222598 127 184 100
-0.435915 0.263645 0.222299 132 177 99
-0.414572 0.159606 0.228256 68 74 52
-0.413654 0.160977 0.228451 78 102 57
-0.412738 0.162345 0.228646 84 115 57
-0.410145 0.162831 0.229281 84 113 55
-0.407584 0.16331 0.229908 84 111 56
-0.406143 0.164364 0.230241 83 111 54
-0.402556 0.164252 0.231139 83 112 52
-0.400618 0.165001 0.231604 81 114 55
-0.39975 0.16632 0.231788 79 115 55
-0.398359 0.167344 0.23211 88 134 64
-0.398022 0.168945 0.232155 109 165 80
-0.398208 0.170841 0.232062 128 192 96
-0.39787 0.172444 0.232107 140 206 104
-0.397532 0.174047 0.232152 144 207 106
-0.397718 0.175953 0.232059 142 204 105
-0.397905 0.177865 0.231965 144 203 105
-0.405082 0.183902 0.230027 143 203 103
-0.411439 0.18953 0.228304 142 202 105
-0.412227 0.191888 0.228049 143 201 104
-0.412445 0.193914 0.227945 144 200 103
-0.41324 0.196297 0.227688 143 199 103
-0.414621 0.199053 0.227276 141 199 103
-0.416015 0.201836 0.22686 139 200 102
-0.417423 0.204646 0.22644 139 198 100
-0.417655 0.206731 0.226332 136 193 98
-0.418483 0.209202 0.226065 132 187 94
-0.419316 0.211689 0.225796 127 180 90
-0.419552 0.213803 0.225685 123 174 88
-0.420393 0.216317 0.225414 118 170 86
-0.420633 0.218449 0.225302 116 167 84
-0.421481 0.220991 0.225028 108 155 77
-0.421724 0.22314 0.224914 95 139 67
-0.42258 0.22571 0.224638 82 128 60
-0.424062 0.228718 0.224195 75 130 60
-0.424311 0.230902 0.224079 80 142 68
-0.424561 0.233093 0.223963 98 162 78
-0.425438 0.235726 0.22368 119 182 90
-0.42632 0.238378 0.223395 135 195 100
-0.427208 0.241047 0.223108 139 196 102
-0.428103 0.243734 0.222819 132 185 95
-0.430936 0.247827 0.222012 117 161 82
-0.432507 0.251042 0.221541 98 145 71
-0.434094 0.25429 0.221066 86 139 66
-0.435032 0.257084 0.220763 81 143 67
-0.435977 0.259896 0.220458 89 155 77
-0.435591 0.26173 0.22051 107 170 87
-0.435871 0.264065 0.220383 126 180 96
-0.436825 0.266917 0.220075 133 175 96
-0.414499 0.159815 0.22653 66 68 48
-0.413579 0.161188 0.226729 77 99 55
-0.412662 0.162557 0.226927 85 114 56
-0.410624 0.163335 0.227424 85 111 54
-0.407501 0.163522 0.228212 84 110 54
-0.405512 0.164286 0.228697 83 109 54
-0.401931 0.164175 0.229609 81 110 53
-0.399996 0.164925 0.230081 78 112 53
-0.399129 0.166244 0.230268 79 113 53
-0.39774 0.167268 0.230594 85 127 60
-0.397402 0.168869 0.230639 104 158 75
-0.397588 0.170765 0.230544 125 189 93
-0.39725 0.172368 0.230589 139 205 105
-0.396912 0.173971 0.230634 144 208 106
-0.397097 0.175877 0.230539 144 205 104
-0.397808 0.178097 0.230302 146 203 102
-0.405545 0.184474 0.228176 145 203 103
-0.410791 0.189452 0.226719 143 203 105
-0.411006 0.191467 0.226613 144 203 104
-0.411223 0.193489 0.226506 144 202 103
-0.41144 0.195517 0.2264 143 201 103
-0.412231 0.197906 0.226138 142 201 103
-0.413607 0.200669 0.225719 141 200 102
-0.414997 0.20346 0.225295 142 199 101
-0.4164 0.206278 0.224868 140 196 100
-0.417222 0.208743 0.224597 138 193 97
-0.418648 0.21161 0.224162 134 187 94
-0.418883 0.213723 0.224049 129 181 92
-0.420326 0.216633 0.223608 122 175 89
-0.421174 0.21917 0.223329 119 172 87
-0.421416 0.221316 0.223213 116 167 85
-0.422271 0.223881 0.222931 109 154 78
-0.423133 0.226462 0.222647 97 141 69
-0.42338 0.228639 0.222528 83 131 62
-0.424249 0.231249 0.222242 72 128 61
-0.4245 0.233444 0.222122 79 141 67
-0.424751 0.235647 0.222002 97 160 78
-0.425631 0.238298 0.221712 117 181 90
-0.426517 0.240966 0.221419 132 194 99
-0.427409 0.243653 0.221125 141 197 104
-0.430237 0.247746 0.220303 133 182 95
-0.431804 0.250961 0.219824 118 162 82
-0.433387 0.254209 0.219339 100 146 71
-0.434323 0.257002 0.219031 85 139 64
-0.435266 0.259815 0.21872 77 142 67
-0.436887 0.263149 0.218224 89 153 74
-0.439206 0.26703 0.217537 107 169 85
-0.438814 0.268886 0.217589 125 180 95
-0.440474 0.27231 0.217081 136 180 100
-0.413287 0.159446 0.225108 63 65 45
-0.412936 0.161108 0.225155 76 96 53
-0.41202 0.162478 0.225356 84 110 55
-0.410545 0.163549 0.225708 83 109 55
-0.407418 0.163735 0.226511 82 108 55
-0.404882 0.164208 0.227153 81 107 56
-0.401841 0.164386 0.227933 79 109 54
-0.399373 0.164848 0.228558 78 110 51
-0.398507 0.166167 0.228747 76 111 53
-0.397121 0.167192 0.229078 80 120 58
-0.396783 0.168793 0.229123 98 149 73
-0.396968 0.170689 0.229026 122 184 91
-0.39663 0.172293 0.229071 139 203 103
-0.396814 0.174196 0.228973 145 208 107
-0.396999 0.176106 0.228875 144 206 105
-0.397712 0.17833 0.228633 145 205 103
-0.408239 0.186366 0.225704 145 205 103
-0.410143 0.189374 0.225133 143 205 105
-0.410357 0.191389 0.225025 143 203 104
-0.410004 0.193066 0.225072 143 204 104
-0.410218 0.19509 0.224964 143 205 103
-0.410434 0.197121 0.224855 143 204 103
-0.411222 0.199514 0.224588 143 201 101
-0.412594 0.202286 0.224161 143 199 101
-0.413978 0.205084 0.22373 142 198 100
-0.415376 0.20791 0.223295 140 196 99
-0.417383 0.211146 0.222692 137 193 98
-0.418214 0.213644 0.222412 134 188 96
-0.420259 0.21695 0.221797 129 181 92
-0.421108 0.219492 0.221511 123 175 91
-0.422576 0.22246 0.221054 120 171 87
-0.422822 0.224626 0.220933 117 166 84
-0.423069 0.2268 0.220812 111 156 79
-0.423317 0.228981 0.220691 99 143 71
-0.423565 0.231169 0.22057 86 130 63
-0.424438 0.233796 0.220275 76 128 60
-0.42469 0.236003 0.220152 80 140 65
-0.424943 0.238218 0.220029 95 158 75
-0.425826 0.240886 0.21973 116 178 88
-0.427352 0.244028 0.219254 137 196 100
-0.430184 0.248131 0.218415 145 197 105
-0.431101 0.25088 0.218106 134 183 94
-0.43268 0.254128 0.217613 118 164 80
-0.434277 0.257409 0.217115 99 148 68
-0.435221 0.260228 0.216797 82 138 62
-0.438877 0.265091 0.215725 78 141 65
-0.440537 0.268495 0.215207 89 153 75
-0.441522 0.271408 0.214876 108 171 87
-0.44182 0.273811 0.214736 130 188 98
-0.441424 0.275687 0.214789 141 182 100
-0.412644 0.159365 0.223534 63 64 48
-0.412294 0.161028 0.223581 77 90 51
-0.411378 0.162398 0.223784 83 105 54
-0.410466 0.163763 0.223987 82 108 54
-0.407887 0.164241 0.224651 79 107 54
-0.404794 0.164421 0.225458 78 106 55
-0.401214 0.164309 0.226401 77 106 53
-0.399279 0.165059 0.226888 75 109 52
-0.397886 0.166091 0.227226 74 107 52
-0.397023 0.167406 0.227417 75 113 56
-0.396685 0.16901 0.227462 90 141 71
-0.396347 0.170614 0.227507 117 177 89
-0.396009 0.172217 0.227553 137 198 100
-0.396193 0.174121 0.227453 145 205 105
-0.396901 0.176335 0.227206 145 207 106
-0.398143 0.178874 0.226811 144 207 104
-0.407595 0.186288 0.224128 144 206 103
-0.409495 0.189296 0.223548 146 209 105
-0.409142 0.19097 0.223595 145 208 106
-0.408789 0.192644 0.223642 147 209 106
-0.409001 0.194664 0.223531 147 209 106
-0.409214 0.196691 0.22342 145 206 105
-0.410569 0.199436 0.22299 143 203 103
-0.410786 0.201483 0.222877 142 201 102
-0.41158 0.203902 0.222603 143 199 101
-0.412959 0.206709 0.222165 141 198 101
-0.41553 0.210302 0.221392 139 196 101
-0.417544 0.213565 0.220775 137 193 99
-0.420799 0.217667 0.219809 134 189 96
-0.422267 0.220626 0.219343 129 183 94
-0.422512 0.22279 0.21922 124 176 88
-0.422758 0.224961 0.219096 120 171 87
-0.423005 0.227139 0.218972 117 166 85
-0.423253 0.229324 0.218847 110 157 81
-0.423502 0.231517 0.218723 100 146 75
-0.423752 0.233716 0.218597 85 131 63
-0.424629 0.236361 0.218295 78 130 60
-0.424881 0.23858 0.218168 82 140 65
-0.4264 0.241705 0.217685 94 156 75
-0.427294 0.244404 0.217377 113 177 89
-0.43013 0.248518 0.21652 134 197 103
-0.430398 0.250799 0.216388 143 197 102
-0.431974 0.254046 0.215886 134 184 94
-0.433566 0.257327 0.215379 116 164 80
-0.435845 0.261141 0.214677 97 147 68
-0.440207 0.266545 0.213385 81 138 64
-0.44119 0.269452 0.213048 81 144 70
-0.441487 0.271852 0.212904 98 163 81
-0.441785 0.274259 0.212761 123 185 92
-0.442084 0.276676 0.212617 142 194 100
-0.412568 0.159574 0.221801 66 64 47
-0.412216 0.16124 0.221848 75 84 52
-0.4113 0.162611 0.222054 80 101 54
-0.410386 0.163979 0.222259 80 106 52
-0.407804 0.164456 0.222935 78 106 52
-0.404707 0.164634 0.223757 76 105 53
-0.401122 0.16452 0.224717 76 104 52
-0.399185 0.165271 0.225213 74 107 52
-0.397264 0.166015 0.225705 72 105 51
-0.396403 0.16733 0.225898 72 108 53
-0.396065 0.168934 0.225943 83 131 66
-0.395727 0.170538 0.225989 110 167 83
-0.39591 0.172439 0.225886 132 192 96
-0.396618 0.174649 0.225635 142 204 104
-0.397858 0.17718 0.225233 145 208 107
