ply
format ascii 1.0
element vertex 1236
property float x
property float y
property float z
property uchar diffuse_red
property uchar diffuse_green
property uchar diffuse_blue
end_header
-0.292819 0.102064 0.238691 70 110 54
-0.295193 0.10459 0.237807 89 136 70
-0.296545 0.106597 0.237281 114 167 97
-0.334105 0.13118 0.223898 114 158 91
-0.33311 0.132128 0.22419 114 164 89
-0.33354 0.133869 0.223979 125 192 98
-0.334331 0.135821 0.223641 147 225 113
-0.337683 0.139252 0.222398 156 228 114
-0.301308 0.0859873 0.23526 68 56 38
-0.301063 0.0871539 0.235295 68 70 41
-0.300545 0.0881971 0.235427 68 99 52
-0.3003 0.0893623 0.235462 63 96 51
-0.299513 0.0902765 0.235689 62 98 51
-0.298998 0.0913126 0.23582 63 98 52
-0.298216 0.0922194 0.236046 63 99 52
-0.297171 0.0929946 0.236365 63 98 52
-0.296928 0.0941492 0.2364 63 98 51
-0.294839 0.0944017 0.23709 63 97 48
-0.293816 0.0951613 0.237403 62 97 47
-0.293058 0.0960446 0.237621 61 96 47
-0.29256 0.0970539 0.237747 61 95 45
-0.292321 0.0981919 0.237782 61 96 43
-0.292598 0.0995951 0.237632 60 98 41
-0.292616 0.10087 0.237575 61 100 45
-0.294199 0.102968 0.23696 67 108 53
-0.294746 0.104537 0.236713 85 129 65
-0.295297 0.106115 0.236465 114 162 89
-0.332517 0.130529 0.223005 109 152 83
-0.33153 0.131475 0.223298 113 165 87
-0.331955 0.133208 0.223086 127 198 101
-0.332737 0.135151 0.222746 149 230 115
-0.335327 0.138142 0.221757 155 226 113
-0.301708 0.0875885 0.233797 65 67 43
-0.301462 0.0887603 0.233833 69 97 51
-0.301215 0.089932 0.233868 64 97 48
-0.300422 0.0908501 0.2341 63 97 49
-0.29936 0.091637 0.234428 66 96 50
-0.298305 0.0924186 0.234755 64 100 52
-0.297525 0.093323 0.234983 66 98 52
-0.295951 0.0938381 0.235496 65 99 51
-0.294395 0.0943477 0.236004 63 97 46
-0.293374 0.0951075 0.23632 61 95 43
-0.293134 0.0962494 0.236355 60 95 42
-0.292635 0.0972607 0.236483 59 95 42
-0.292913 0.0986651 0.23633 59 96 40
-0.293713 0.100344 0.235989 59 97 41
-0.293995 0.101764 0.235835 60 98 45
-0.294541 0.103329 0.235585 63 108 53
-0.294563 0.104623 0.235524 80 124 63
-0.294584 0.10592 0.235464 113 160 86
-0.330942 0.129883 0.222118 106 153 79
-0.329962 0.130828 0.222413 114 169 87
-0.330732 0.13275 0.222072 133 204 103
-0.330802 0.134285 0.221985 153 232 114
-0.333002 0.137047 0.221123 153 218 110
-0.302358 0.088027 0.232285 66 65 45
-0.301835 0.0890787 0.232422 71 93 47
-0.301312 0.0901281 0.232558 64 97 44
-0.30079 0.091175 0.232693 65 93 45
-0.299724 0.0919635 0.233028 66 94 46
-0.298664 0.0927468 0.23336 64 98 49
-0.297612 0.0935247 0.23369 65 98 50
-0.2963 0.0941686 0.234114 65 97 51
-0.295263 0.0949358 0.234439 62 95 46
-0.293711 0.0954394 0.234953 61 95 41
-0.29347 0.0965852 0.234988 60 96 43
-0.294275 0.0982591 0.23464 59 96 44
-0.294558 0.099678 0.234482 59 96 43
-0.294316 0.100831 0.234517 60 96 44
-0.294337 0.102121 0.234456 59 99 47
-0.294358 0.103414 0.234394 61 105 52
-0.294115 0.104569 0.234429 74 118 60
-0.294136 0.105866 0.234367 110 156 83
-0.329031 0.12905 0.221366 108 160 81
-0.328752 0.130378 0.221406 119 176 92
-0.328819 0.131901 0.221319 138 207 107
-0.330284 0.134224 0.220716 156 231 115
-0.302458 0.0882194 0.230965 70 61 37
-0.30221 0.0893993 0.231001 72 88 47
-0.301685 0.0904519 0.231139 66 99 46
-0.300886 0.0913741 0.231379 66 94 47
-0.30009 0.0922922 0.231617 68 95 44
-0.298754 0.0929482 0.232055 66 99 49
-0.297699 0.0937274 0.23239 64 97 47
-0.296384 0.0943719 0.232822 63 95 49
-0.29561 0.09527 0.233054 61 95 46
-0.294838 0.0961642 0.233284 61 96 43
-0.294596 0.0973175 0.233319 60 98 44
-0.294617 0.0986041 0.233257 59 97 47
-0.295167 0.100164 0.232997 59 96 47
-0.294924 0.101322 0.233032 59 97 46
-0.294681 0.10248 0.233067 59 100 47
-0.294174 0.103499 0.233201 61 103 49
-0.293931 0.104656 0.233236 72 114 57
-0.293688 0.105812 0.233271 103 149 78
-0.328516 0.128989 0.220107 118 172 88
-0.328237 0.130317 0.220147 125 181 98
-0.327958 0.131645 0.220187 142 210 112
-0.329066 0.133764 0.219709 155 227 116
-0.302279 0.0882877 0.229743 68 59 37
-0.302031 0.089469 0.229779 70 80 49
-0.301505 0.0905228 0.229919 68 102 52
-0.300981 0.0915741 0.230058 65 98 51
-0.300183 0.0924939 0.2303 68 98 49
-0.299389 0.0934095 0.230541 68 98 48
-0.297787 0.0939309 0.231085 66 97 43
-0.296736 0.0947059 0.231423 64 96 45
-0.295692 0.0954758 0.231759 62 95 44
-0.295449 0.0966344 0.231794 61 95 40
-0.295205 0.0977929 0.231829 60 96 41
-0.294962 0.0989513 0.231864 60 96 43
-0.295249 0.100381 0.231699 59 95 44
-0.295005 0.101542 0.231735 58 96 46
-0.294761 0.102703 0.23177 60 98 45
-0.293989 0.103584 0.232004 61 101 45
-0.293482 0.104602 0.232139 69 112 55
-0.293239 0.105758 0.232174 96 142 74
-0.327722 0.130256 0.218888 129 183 102
-0.327443 0.131584 0.218928 143 207 114
-0.327509 0.133108 0.218837 151 215 114
-0.302099 0.0883561 0.228518 65 60 42
-0.301851 0.0895388 0.228554 67 74 45
-0.301325 0.0905938 0.228695 68 104 54
-0.300801 0.0916464 0.228836 64 100 52
-0.300278 0.0926965 0.228977 64 99 50
-0.299481 0.0936138 0.229221 65 98 47
-0.298417 0.0943961 0.229568 65 99 43
-0.296821 0.0949115 0.230117 63 97 43
-0.296309 0.095945 0.230254 62 96 44
-0.295797 0.0969761 0.230391 61 96 42
-0.295553 0.0981385 0.230427 61 96 40
-0.295309 0.0993009 0.230462 61 95 39
-0.295331 0.1006 0.230396 60 94 42
-0.295087 0.101763 0.230431 59 95 46
-0.294312 0.102649 0.230669 59 97 47
-0.294068 0.103809 0.230704 59 100 48
-0.293034 0.104548 0.231042 66 109 54
-0.292791 0.105705 0.231077 90 136 71
-0.326864 0.130002 0.21776 131 182 102
-0.326929 0.131523 0.217668 137 193 108
-0.32665 0.13285 0.217709 137 189 103
-0.301642 0.0882995 0.227397 63 59 46
-0.301393 0.0894823 0.227433 68 72 46
-0.301145 0.090665 0.227469 69 106 55
-0.30062 0.0917188 0.227611 65 103 50
-0.300096 0.0927701 0.227753 65 102 50
-0.299848 0.0939499 0.227789 64 102 51
-0.298779 0.0947338 0.228142 64 102 50
-0.297446 0.0953806 0.228597 62 101 48
-0.296125 0.0960216 0.229048 62 100 49
-0.295881 0.0971868 0.229083 62 99 49
-0.295636 0.098352 0.229118 62 99 45
-0.295391 0.099517 0.229154 62 97 43
-0.295147 0.100682 0.229189 61 97 44
-0.294902 0.101847 0.229225 60 97 47
-0.294657 0.103012 0.22926 60 98 49
-0.293618 0.103755 0.229604 62 101 49
-0.292848 0.104635 0.229843 68 110 55
-0.292605 0.105793 0.229878 87 134 71
-0.326349 0.12994 0.216502 129 178 102
-0.326071 0.131267 0.216542 127 174 98
-0.325792 0.132593 0.216583 119 162 90
-0.301461 0.088368 0.226168 60 60 51
-0.301213 0.0895522 0.226204 68 72 46
-0.300964 0.0907364 0.22624 74 109 55
-0.300439 0.0917913 0.226384 69 106 51
-0.30019 0.092974 0.22642 68 104 52
-0.299666 0.0940251 0.226563 67 104 52
-0.299144 0.0950738 0.226707 66 103 52
-0.298077 0.095854 0.227063 64 103 51
-0.296747 0.0964958 0.227523 64 102 50
-0.295964 0.0973985 0.227769 64 102 50
-0.295719 0.0985663 0.227804 64 102 48
-0.295474 0.099734 0.22784 64 101 46
-0.295228 0.100902 0.227875 63 101 48
-0.294717 0.101931 0.228015 62 101 49
-0.294206 0.102957 0.228155 63 102 48
-0.293168 0.103701 0.228503 67 105 50
-0.292399 0.104581 0.228745 73 115 57
-0.292156 0.105739 0.22878 88 136 72
-0.325215 0.131012 0.215419 122 165 94
-0.301559 0.0885622 0.224826 64 62 49
-0.301031 0.0896223 0.224971 69 74 47
-0.300783 0.0908079 0.225008 82 115 58
-0.300534 0.0919933 0.225044 77 113 59
-0.300285 0.0931788 0.22508 73 112 61
-0.29976 0.0942321 0.225225 74 113 62
-0.298961 0.0951503 0.225479 75 111 57
-0.298166 0.0960643 0.225732 77 112 57
-0.297375 0.0969742 0.225984 80 111 53
-0.296587 0.0978799 0.226234 80 109 53
-0.296071 0.0989172 0.226377 75 106 53
-0.295556 0.099952 0.226519 70 104 53
-0.295311 0.101122 0.226555 65 104 52
-0.295065 0.102293 0.226591 64 105 51
-0.29402 0.103042 0.226945 66 106 51
-0.292982 0.103787 0.227296 70 109 53
-0.29195 0.104527 0.227646 76 119 59
-0.291707 0.105685 0.227681 90 140 72
-0.3243 0.129242 0.214394 128 174 97
-0.301656 0.0887573 0.223477 61 62 47
-0.301407 0.0899471 0.223513 65 75 50
-0.301157 0.0911368 0.22355 85 124 62
-0.300629 0.0921963 0.223697 81 124 65
-0.300102 0.0932533 0.223845 78 123 72
-0.299853 0.09444 0.223881 82 127 72
-0.299052 0.0953599 0.224139 90 122 65
-0.297982 0.096142 0.224505 99 122 62
-0.297462 0.0971872 0.22465 102 123 60
-0.296943 0.09823 0.224795 101 121 64
-0.296155 0.0991339 0.225049 92 117 66
-0.295639 0.100171 0.225193 82 115 64
-0.295393 0.101344 0.225229 78 113 60
-0.294879 0.102377 0.225373 79 112 57
-0.294366 0.103408 0.225516 80 114 56
-0.292794 0.103873 0.226087 82 116 57
-0.291763 0.104613 0.226441 82 125 60
-0.291519 0.105773 0.226477 91 145 74
-0.313329 0.121856 0.217449 135 190 100
-0.323787 0.129181 0.213139 125 167 93
-0.302035 0.0890802 0.222009 57 60 48
-0.302065 0.0904027 0.221931 64 75 53
-0.301814 0.0915979 0.221968 86 127 64
-0.301283 0.0926617 0.222118 85 124 57
-0.300753 0.0937231 0.222268 82 122 58
-0.300224 0.0947819 0.222418 82 122 59
-0.29942 0.0957043 0.222679 85 119 59
-0.297798 0.0962197 0.223275 86 118 58
-0.297005 0.0971315 0.223532 86 119 59
-0.296758 0.0983101 0.223568 86 125 69
-0.29624 0.0993517 0.223715 87 129 76
-0.295453 0.100253 0.223971 88 129 73
-0.295207 0.101428 0.224007 93 127 65
-0.294692 0.102462 0.224152 98 125 61
-0.294179 0.103494 0.224297 99 124 61
-0.292343 0.103819 0.224983 98 125 60
-0.291313 0.104559 0.225341 89 131 61
-0.291069 0.105719 0.225376 96 149 75
-0.31337 0.119258 0.216167 119 168 93
-0.313103 0.120528 0.216206 128 184 93
-0.312837 0.121798 0.216245 136 189 98
-0.302134 0.0892776 0.220646 64 61 47
-0.301883 0.0904743 0.220683 68 76 52
-0.301631 0.091671 0.220719 90 131 68
-0.3011 0.092736 0.220871 88 128 60
-0.30057 0.0937986 0.221023 87 128 60
-0.300041 0.0948587 0.221174 85 128 60
-0.299513 0.0959163 0.221325 86 126 61
-0.29734 0.0961639 0.222154 85 125 61
-0.296549 0.0970758 0.222414 85 124 59
-0.296301 0.0982545 0.22245 86 123 59
-0.295784 0.0992963 0.222598 86 124 60
-0.295536 0.100473 0.222634 87 124 60
-0.29502 0.101511 0.222781 88 123 59
-0.294505 0.102547 0.222928 88 123 59
-0.293725 0.103439 0.223186 88 123 60
-0.291892 0.103764 0.223879 88 127 62
-0.290863 0.104505 0.22424 90 137 64
-0.29062 0.105665 0.224276 105 153 76
-0.312877 0.119199 0.214962 122 173 95
-0.312611 0.120469 0.215001 129 187 93
-0.311414 0.121217 0.215427 138 191 99
-0.312078 0.123009 0.215079 107 132 79
-0.301952 0.0893479 0.219394 62 62 41
-0.301982 0.0906754 0.219314 67 79 58
-0.30173 0.0918749 0.21935 93 136 71
-0.300917 0.0928105 0.219621 91 135 64
-0.300386 0.0938743 0.219774 88 133 64
-0.300135 0.0950694 0.219811 87 132 63
-0.299329 0.0959944 0.220079 88 131 64
-0.296882 0.096108 0.221033 87 131 63
-0.296092 0.0970202 0.221296 89 130 61
-0.295574 0.0980635 0.221445 89 131 62
-0.295327 0.0992409 0.221481 89 133 63
-0.29508 0.100418 0.221517 89 132 64
-0.294833 0.101595 0.221553 88 131 64
-0.294318 0.102632 0.221702 87 130 62
-0.293536 0.103525 0.221962 85 130 63
-0.291441 0.10371 0.222775 86 134 65
-0.290413 0.104451 0.22314 93 143 69
-0.29017 0.105611 0.223175 111 161 80
-0.312074 0.118969 0.213888 124 179 96
-0.311808 0.120238 0.213927 129 188 95
-0.310308 0.120813 0.214486 137 188 99
-0.31035 0.122249 0.214395 103 112 72
-0.301769 0.0894184 0.218139 63 64 42
-0.301517 0.090618 0.218176 68 81 59
-0.301265 0.0918176 0.218213 94 141 74
-0.301013 0.0930171 0.218249 93 139 67
-0.300202 0.0939501 0.218523 91 136 67
-0.299672 0.0950127 0.218677 90 138 67
-0.299421 0.0962078 0.218714 93 140 69
-0.296424 0.0960521 0.219912 93 140 66
-0.295635 0.0969645 0.220178 93 139 66
-0.295118 0.098008 0.220328 93 139 66
-0.294871 0.0991855 0.220364 94 140 66
-0.294624 0.100363 0.2204 94 139 67
-0.294377 0.10154 0.220436 92 137 66
-0.294129 0.102717 0.220472 91 136 65
-0.293082 0.10347 0.220849 89 136 65
-0.290989 0.103656 0.22167 91 140 68
-0.289964 0.104397 0.222039 99 151 74
-0.28972 0.105557 0.222074 113 169 85
-0.310964 0.118569 0.212948 124 181 97
-0.310698 0.119835 0.212987 130 189 93
-0.309818 0.120755 0.213288 134 183 98
-0.308943 0.12167 0.213587 100 98 68
-0.301304 0.0893609 0.217001 62 62 42
-0.301052 0.0905607 0.217038 70 80 53
-0.300801 0.0917603 0.217075 95 141 74
-0.300549 0.0929599 0.217112 95 141 67
-0.299738 0.0938932 0.217387 95 143 67
-0.299209 0.0949559 0.217543 95 142 68
-0.298958 0.0961511 0.21758 95 143 70
-0.296238 0.0961298 0.218675 95 143 68
-0.295178 0.0969088 0.219059 95 144 72
-0.294662 0.0979524 0.219211 95 145 72
-0.294415 0.09913 0.219247 96 145 70
-0.294436 0.100446 0.219168 96 144 69
-0.294188 0.101624 0.219204 96 143 67
-0.293673 0.102662 0.219355 95 143 68
-0.292627 0.103416 0.219736 95 143 69
-0.290538 0.103602 0.220566 98 146 70
-0.289514 0.104343 0.220938 105 160 77
-0.28927 0.105504 0.220973 119 177 90
-0.308639 0.117497 0.212539 125 183 96
-0.308375 0.118754 0.212577 131 190 94
-0.308111 0.120011 0.212616 129 175 98
-0.307545 0.121095 0.212785 97 90 62
-0.300559 0.0891757 0.215984 63 63 50
-0.300588 0.0905033 0.2159 68 83 60
-0.300336 0.091703 0.215937 100 146 73
-0.299805 0.0927709 0.216094 98 146 71
-0.299275 0.0938363 0.216252 97 147 70
-0.298746 0.0948991 0.216409 99 146 69
-0.298495 0.0960945 0.216446 97 145 71
-0.296051 0.0962077 0.217435 98 144 70
-0.294721 0.0968531 0.21794 98 144 71
-0.294205 0.0978969 0.218093 98 145 72
-0.293958 0.0990746 0.21813 97 146 71
-0.293979 0.10039 0.218049 97 146 70
-0.293731 0.101569 0.218085 97 146 70
-0.293217 0.102607 0.218238 98 147 71
-0.291907 0.10322 0.218737 98 148 72
-0.290087 0.103547 0.219461 101 152 73
-0.289064 0.104289 0.219837 111 166 80
-0.28882 0.10545 0.219872 127 185 93
-0.306646 0.116606 0.212004 127 186 95
-0.306683 0.118023 0.211912 132 192 94
-0.30642 0.119273 0.21195 123 167 101
-0.306158 0.120524 0.211988 90 86 60
-0.299816 0.0889909 0.214969 63 66 52
-0.299843 0.0903168 0.214884 70 83 64
-0.299592 0.0915154 0.214921 102 149 76
-0.299062 0.0925823 0.215079 99 148 73
-0.298534 0.0936468 0.215238 98 148 72
-0.298283 0.0948424 0.215275 99 147 72
-0.297756 0.0959029 0.215433 98 148 73
-0.295592 0.0961516 0.216311 98 146 72
-0.294264 0.0967974 0.216821 97 146 72
-0.293749 0.0978413 0.216976 96 146 73
-0.293501 0.0990192 0.217012 97 148 74
-0.293522 0.100335 0.21693 98 147 73
-0.293274 0.101514 0.216966 99 145 70
-0.292494 0.102412 0.217238 99 147 70
-0.291452 0.103165 0.217625 99 151 73
-0.289635 0.103493 0.218356 103 156 76
-0.288356 0.104095 0.218849 115 170 84
-0.288112 0.105254 0.218885 131 186 95
-0.305863 0.116383 0.210951 127 185 97
-0.305899 0.117798 0.210857 134 192 96
-0.305636 0.119047 0.210895 118 157 101
-0.305077 0.120126 0.211066 86 79 55
-0.299074 0.0888065 0.213956 58 64 46
-0.298823 0.0900024 0.213993 71 84 62
-0.298572 0.0911984 0.21403 102 150 77
-0.298321 0.0923942 0.214067 103 150 74
-0.297794 0.0934578 0.214226 102 150 73
-0.297543 0.0946521 0.214263 102 149 70
-0.297293 0.0958463 0.214299 98 148 72
-0.295132 0.0960956 0.215186 98 148 74
-0.293807 0.0967417 0.215702 99 149 73
-0.293292 0.0977858 0.215858 98 148 72
-0.293045 0.0989637 0.215894 97 148 73
-0.292798 0.100142 0.21593 98 148 71
-0.29255 0.101319 0.215966 99 147 71
-0.291508 0.102077 0.216358 100 149 71
-0.290735 0.10297 0.21663 102 152 73
-0.289183 0.103439 0.21725 106 160 78
-0.287906 0.104041 0.217749 118 175 86
-0.287663 0.1052 0.217784 133 188 96
-0.305378 0.116325 0.209766 127 183 94
-0.305116 0.117573 0.209804 137 193 96
-0.304854 0.118821 0.209843 111 146 97
-0.304296 0.119899 0.210014 79 79 55
-0.298058 0.088496 0.213069 64 65 48
-0.298083 0.0898172 0.212982 74 85 61
-0.297833 0.0910118 0.213019 101 151 78
-0.297582 0.0922064 0.213056 103 151 74
-0.297056 0.0932691 0.213216 101 152 77
-0.296806 0.0944622 0.213253 102 153 72
-0.296282 0.095521 0.213413 99 151 72
-0.294403 0.0959058 0.214183 100 149 72
-0.29335 0.0966859 0.214583 99 150 73
-0.292835 0.0977302 0.21474 99 150 73
-0.292588 0.0989083 0.214776 97 150 72
-0.292075 0.0999487 0.214932 98 149 70
-0.291828 0.101125 0.214969 99 150 71
-0.290789 0.101883 0.215363 99 151 73
-0.290018 0.102776 0.215637 101 154 75
-0.288732 0.103384 0.216145 108 164 79
-0.288487 0.104549 0.216181 121 180 88
-0.304336 0.117349 0.208754 138 194 98
-0.304074 0.118595 0.208792 106 137 91
-0.303518 0.119673 0.208965 75 78 54
-0.297046 0.088187 0.212186 61 58 43
-0.29707 0.0895049 0.212098 74 86 63
-0.29682 0.090697 0.212135 102 151 79
-0.29657 0.091889 0.212172 101 152 74
-0.29632 0.0930809 0.212209 105 152 73
-0.29607 0.0942727 0.212245 103 152 73
-0.295275 0.0951972 0.21253 103 150 74
-0.293944 0.0958497 0.21306 101 151 72
-0.292892 0.0966302 0.213463 99 149 73
-0.292378 0.0976747 0.213621 99 151 73
-0.291866 0.0987167 0.213779 100 149 72
-0.291619 0.0998934 0.213815 99 149 72
-0.291372 0.10107 0.213852 99 149 73
-0.290334 0.101828 0.21425 101 151 73
-0.289043 0.102443 0.214765 103 158 75
-0.28828 0.10333 0.215039 109 167 80
-0.288035 0.104495 0.215075 124 180 89
-0.303852 0.117291 0.20757 140 194 98
-0.303296 0.11837 0.207744 101 124 83
-0.302741 0.119447 0.207918 73 68 49
-0.296039 0.0878794 0.211307 63 58 44
-0.296062 0.0891941 0.211218 71 87 65
-0.295812 0.0903836 0.211255 100 153 83
-0.295563 0.091573 0.211292 102 152 75
-0.295313 0.0927623 0.211328 104 152 73
-0.295063 0.0939516 0.211365 102 153 73
-0.294543 0.0950076 0.211527 102 151 74
-0.293217 0.0956604 0.21206 102 153 73
-0.292169 0.0964408 0.212467 100 150 74
-0.291656 0.0974844 0.212626 99 151 73
-0.291409 0.0986613 0.212662 100 150 73
-0.291162 0.0998381 0.212698 99 151 73
-0.290652 0.100877 0.212857 100 151 74
-0.289618 0.101635 0.213258 103 153 74
-0.28859 0.102388 0.213657 106 160 76
-0.28757 0.103136 0.214053 111 170 81
-0.287326 0.1043 0.214089 124 183 90
-0.303368 0.117233 0.206386 141 193 97
-0.302519 0.118146 0.206698 95 115 74
-0.301674 0.119054 0.207009 72 68 44
-0.295578 0.0878224 0.210179 67 61 43
-0.295329 0.0890108 0.210216 74 90 63
-0.295351 0.0903268 0.210126 103 153 80
-0.295102 0.0915163 0.210163 106 152 74
-0.294852 0.0927057 0.210199 107 154 72
-0.294332 0.0937633 0.210362 105 154 73
-0.294082 0.0949513 0.210399 104 153 74
-0.292759 0.0956044 0.210938 102 155 73
-0.291447 0.0962517 0.211472 100 151 72
-0.290936 0.0972944 0.211632 101 151 73
-0.290689 0.0984702 0.211668 101 152 73
-0.290442 0.0996458 0.211704 100 153 73
-0.289933 0.100683 0.211864 101 154 74
-0.288902 0.101442 0.212268 103 156 76
-0.287879 0.102195 0.21267 108 163 78
-0.287119 0.103082 0.212948 115 173 82
-0.286874 0.104245 0.212984 127 185 89
-0.302884 0.117176 0.205202 143 194 98
-0.301453 0.117756 0.205792 98 104 68
-0.300902 0.11883 0.205968 73 65 37
-0.294847 0.0876407 0.209178 59 64 41
-0.294868 0.0889539 0.209088 73 89 62
-0.294619 0.0901423 0.209124 103 154 79
-0.29437 0.0913305 0.209161 105 154 75
-0.29412 0.0925188 0.209198 106 156 73
-0.293871 0.0937069 0.209235 104 154 73
-0.293622 0.0948949 0.209271 104 154 73
-0.2923 0.0955484 0.209815 103 155 74
-0.29099 0.0961961 0.210354 101 153 75
-0.29048 0.097239 0.210515 101 152 74
-0.290233 0.0984148 0.210552 101 153 74
-0.289724 0.0994539 0.210713 100 153 73
-0.289215 0.100491 0.210873 102 155 74
-0.287929 0.101111 0.211403 105 160 77
-0.286911 0.101864 0.211807 109 166 81
-0.286155 0.10275 0.212086 117 176 84
-0.285911 0.103911 0.212122 129 189 92
-0.3024 0.117118 0.204018 142 192 99
-0.30068 0.117533 0.204752 97 93 65
-0.300131 0.118606 0.204929 67 64 44
-0.294117 0.0874594 0.20818 64 62 40
-0.294137 0.088771 0.208088 72 87 59
-0.293888 0.0899581 0.208125 103 156 78
-0.293909 0.0912739 0.208033 105 154 75
-0.29366 0.0924622 0.20807 102 154 75
-0.29341 0.0936504 0.208107 103 155 74
-0.292892 0.0947059 0.208272 102 155 74
-0.291575 0.0953596 0.20882 103 154 74
-0.29027 0.0960075 0.209362 104 155 74
-0.289761 0.0970496 0.209525 103 155 73
-0.289514 0.0982242 0.209561 102 153 74
-0.289006 0.0992625 0.209723 103 154 75
-0.2885 0.100298 0.209884 105 157 75
-0.287218 0.100919 0.210418 107 162 77
-0.286203 0.101672 0.210825 111 169 82
-0.28545 0.102557 0.211106 119 179 88
-0.285206 0.103717 0.211142 131 190 94
-0.301916 0.11706 0.202833 142 190 98
-0.29991 0.117311 0.203714 98 82 63
-0.298788 0.118052 0.204169 70 61 44
-0.293657 0.0874025 0.207054 62 60 42
-0.293408 0.0885885 0.207091 74 86 56
-0.293428 0.0899014 0.206998 105 157 79
-0.293179 0.0910886 0.207035 104 154 75
-0.29293 0.0922757 0.207071 102 156 76
-0.292681 0.0934627 0.207108 102 156 77
-0.292164 0.0945173 0.207274 103 155 77
-0.291117 0.0953037 0.207698 103 153 75
-0.289552 0.0958193 0.208373 102 155 73
-0.289044 0.0968605 0.208536 103 154 74
-0.288797 0.0980339 0.208572 104 154 75
-0.288551 0.0992073 0.208609 104 157 77
-0.288045 0.100243 0.208772 107 161 78
-0.286508 0.100727 0.209435 110 165 79
-0.285497 0.10148 0.209845 113 171 83
-0.284999 0.102503 0.210004 121 181 90
-0.284756 0.103663 0.21004 134 191 96
-0.30114 0.116837 0.201791 139 185 99
-0.298568 0.116761 0.202959 95 76 60
-0.297739 0.117665 0.203276 63 58 44
-0.292929 0.0872216 0.206058 62 63 47
-0.29268 0.0884064 0.206095 71 89 60
-0.292432 0.0895911 0.206132 104 157 79
-0.292183 0.0907757 0.206169 106 156 73
-0.291935 0.0919603 0.206206 104 155 75
-0.291687 0.0931447 0.206242 103 155 74
-0.291438 0.0943291 0.206279 104 156 74
-0.290659 0.0952477 0.206576 103 156 75
-0.289096 0.0957638 0.207257 102 155 73
-0.288588 0.0968052 0.207422 104 154 74
-0.288082 0.0978442 0.207586 104 156 77
-0.287836 0.0990163 0.207622 104 159 78
-0.287073 0.099915 0.207913 107 162 79
-0.285545 0.1004 0.20858 111 166 82
-0.284792 0.101289 0.208866 114 173 85
-0.284043 0.102173 0.209152 121 183 89
-0.2838 0.103331 0.209188 133 194 96
-0.300075 0.116449 0.200894 134 178 100
-0.297804 0.11654 0.201927 93 74 57
-0.296977 0.117445 0.202246 60 56 40
-0.292202 0.0870412 0.205065 60 66 45
-0.291954 0.0882247 0.205102 70 89 62
-0.291973 0.0895345 0.205007 106 157 80
-0.291458 0.0905916 0.205175 106 155 73
-0.29121 0.0917749 0.205212 104 157 77
-0.290961 0.0929582 0.205249 103 156 72
-0.290713 0.0941413 0.205286 104 156 74
-0.289937 0.0950594 0.205584 104 157 76
-0.288379 0.095576 0.20627 103 155 75
-0.287873 0.0966166 0.206436 105 157 76
-0.287627 0.0977889 0.206472 105 157 78
-0.287381 0.0989612 0.206509 106 160 79
-0.286361 0.099724 0.20693 108 164 80
-0.284585 0.100074 0.207728 112 168 83
-0.284342 0.101234 0.207764 116 173 86
-0.283342 0.101982 0.208177 123 184 91
-0.2831 0.103138 0.208213 132 194 99
-0.298727 0.1159 0.200146 127 170 100
-0.297041 0.11632 0.200898 90 72 56
-0.295936 0.117061 0.20136 65 54 41
-0.291477 0.0868611 0.204074 66 64 46
-0.291229 0.0880434 0.204111 74 90 61
-0.291247 0.0893516 0.204015 105 157 79
-0.290999 0.0905351 0.204052 104 155 75
-0.290751 0.0917186 0.204088 105 158 75
-0.290502 0.0929019 0.204125 104 158 73
-0.28999 0.0939539 0.204294 104 156 76
-0.289216 0.0948716 0.204595 103 158 78
-0.287924 0.0955205 0.205156 104 156 76
-0.287418 0.0965613 0.205322 106 157 73
-0.287172 0.0977337 0.205359 107 159 76
-0.28641 0.0986355 0.205655 109 162 79
-0.285396 0.0993978 0.206078 111 166 80
-0.284135 0.100019 0.206626 113 170 82
-0.283387 0.100907 0.206916 118 176 86
-0.282643 0.101791 0.207205 126 186 91
-0.2824 0.102946 0.207241 135 195 99
-0.297105 0.115193 0.199546 125 164 100
-0.29628 0.116101 0.199871 89 70 49
-0.295179 0.116841 0.200336 66 55 36
-0.291019 0.0868044 0.202951 65 65 48
-0.290771 0.0879868 0.202988 74 93 63
-0.290523 0.0891692 0.203025 104 156 81
-0.290275 0.0903515 0.203061 106 155 75
-0.290027 0.0915337 0.203098 103 156 76
-0.289779 0.0927158 0.203135 106 159 75
-0.289268 0.0937669 0.203305 106 157 76
-0.288496 0.0946841 0.203608 105 155 77
-0.287209 0.0953333 0.204172 105 156 76
-0.286705 0.0963732 0.20434 108 159 76
-0.286459 0.0975444 0.204376 109 162 79
-0.285444 0.0983113 0.204804 112 164 79
-0.284435 0.0990731 0.205229 114 167 80
-0.283432 0.0998298 0.205651 115 173 82
-0.282687 0.100717 0.205944 118 180 84
-0.281945 0.1016 0.206234 127 189 91
-0.281703 0.102755 0.20627 137 195 100
-0.29606 0.114814 0.198663 119 157 101
-0.29524 0.11572 0.19899 86 71 51
-0.294703 0.116785 0.199171 64 54 36
-0.29056 0.0867476 0.201828 64 67 45
-0.290312 0.0879302 0.201865 72 93 63
-0.290064 0.0891127 0.201902 103 158 81
-0.289816 0.0902951 0.201938 105 154 75
-0.289569 0.0914774 0.201975 104 157 75
-0.289058 0.0925301 0.202147 105 156 76
-0.288548 0.0935804 0.202318 105 158 78
-0.288039 0.0946283 0.202488 105 158 78
-0.286754 0.0952778 0.203058 106 158 77
-0.28625 0.0963179 0.203227 108 161 76
-0.285235 0.097089 0.203659 109 164 78
-0.28499 0.0982564 0.203695 112 167 80
-0.28373 0.098884 0.204254 114 169 80
-0.282731 0.0996406 0.204679 115 174 82
-0.281739 0.100392 0.205102 119 182 85
-0.281248 0.10141 0.205266 129 190 91
-0.281006 0.102563 0.205302 138 195 99
-0.295301 0.114596 0.19764 112 150 99
-0.294483 0.115502 0.197968 79 70 52
-0.293948 0.116566 0.198151 66 53 37
-0.290102 0.0866909 0.200705 62 65 43
-0.289854 0.0878736 0.200741 72 93 63
-0.289606 0.0890561 0.200778 104 158 83
-0.289358 0.0902386 0.200815 105 156 77
-0.288847 0.0912929 0.200988 106 157 77
-0.288338 0.0923448 0.20116 104 157 75
-0.287829 0.0933942 0.201332 105 157 76
-0.287322 0.0944413 0.201504 104 159 79
-0.286299 0.0952224 0.201944 107 160 77
-0.285027 0.0958664 0.202513 109 163 77
-0.284782 0.097034 0.202549 110 167 78
-0.284283 0.0980675 0.202718 112 169 80
-0.283027 0.0986953 0.203281 114 170 82
-0.282281 0.0995863 0.203579 117 173 84
-0.281042 0.100203 0.204134 122 181 88
-0.280553 0.101221 0.204299 131 190 93
-0.280311 0.102372 0.204335 138 194 99
-0.294544 0.114379 0.196618 105 139 91
-0.294007 0.115445 0.196803 76 67 47
-0.293472 0.116509 0.196987 67 51 37
-0.289643 0.0866341 0.199581 58 67 43
-0.289395 0.0878169 0.199618 71 90 62
-0.289147 0.0889996 0.199655 104 160 84
-0.288637 0.0900555 0.199829 104 157 78
-0.288127 0.0911089 0.200003 106 159 76
-0.287619 0.0921599 0.200176 104 159 76
-0.287112 0.0932085 0.200349 105 158 77
-0.286606 0.0942547 0.200522 106 161 79
-0.285074 0.0947739 0.201233 108 162 79
-0.284319 0.0956799 0.201537 109 165 80
-0.283821 0.0967139 0.201707 110 169 81
-0.283576 0.0978789 0.201743 113 171 81
-0.282325 0.098507 0.20231 115 172 82
-0.281582 0.0993975 0.202609 117 175 86
-0.280347 0.100015 0.203168 122 182 89
-0.280106 0.101167 0.203204 132 191 94
-0.279864 0.102319 0.20324 138 193 98
-0.293788 0.114162 0.195599 98 125 83
-0.293253 0.115228 0.195784 72 68 43
-0.292719 0.116291 0.195969 65 56 40
-0.288921 0.0864547 0.198596 63 67 43
-0.288674 0.0876362 0.198633 72 90 60
-0.288426 0.0888177 0.19867 104 161 82
-0.287917 0.0898727 0.198845 106 157 76
-0.287409 0.0909253 0.19902 105 160 78
-0.286902 0.0919754 0.199194 104 160 76
-0.286396 0.0930231 0.199368 107 161 77
-0.285634 0.0939383 0.199678 108 162 79
-0.284111 0.0944583 0.200392 109 163 80
-0.283613 0.0954938 0.200563 111 166 81
-0.283116 0.0965269 0.200734 113 169 81
-0.282872 0.0976908 0.20077 114 171 81
-0.281625 0.0983191 0.201341 115 174 84
-0.280884 0.0992092 0.201642 117 178 87
-0.2799 0.0999608 0.202073 123 184 89
-0.279412 0.100978 0.20224 132 191 94
-0.293034 0.113946 0.194581 96 113 76
-0.292777 0.115171 0.19462 72 66 42
-0.291968 0.116073 0.194954 62 58 37
-0.288201 0.0862756 0.197613 60 67 45
-0.287954 0.0874559 0.19765 74 94 60
-0.287706 0.0886362 0.197687 104 161 81
-0.287199 0.0896903 0.197863 107 157 74
-0.286692 0.090742 0.198038 107 159 78
-0.286186 0.0917913 0.198214 106 159 78
-0.285425 0.0927093 0.198526 108 162 78
-0.284411 0.093494 0.198974 108 163 80
-0.283405 0.0942734 0.199419 110 164 81
-0.282908 0.0953081 0.199591 113 168 81
-0.282412 0.0963404 0.199763 115 170 81
-0.282168 0.0975031 0.199799 115 172 81
-0.280926 0.0981316 0.200373 116 175 83
-0.280187 0.0990212 0.200676 117 179 86
-0.279207 0.0997728 0.201111 123 185 89
-0.278965 0.100924 0.201147 132 192 94
-0.292558 0.113889 0.193417 96 102 71
-0.292025 0.114954 0.193605 70 62 44
-0.291218 0.115856 0.193941 63 57 38
-0.287483 0.0860969 0.196632 60 65 45
-0.287235 0.087276 0.196669 75 95 60
-0.286988 0.0884551 0.196706 104 160 82
-0.286482 0.0895084 0.196883 108 159 75
-0.285977 0.0905592 0.197059 107 160 77
-0.285215 0.0914801 0.197374 108 159 80
-0.284203 0.092269 0.197826 110 164 80
-0.283703 0.0933096 0.198001 110 165 80
-0.2827 0.0940888 0.198449 111 167 82
-0.282205 0.0951227 0.198621 114 169 81
-0.28171 0.0961542 0.198794 115 171 82
-0.281467 0.0973157 0.19883 115 174 82
-0.280228 0.0979445 0.199408 115 176 83
-0.279492 0.0988337 0.199713 117 180 86
-0.278515 0.0995851 0.20015 124 186 89
-0.278274 0.100735 0.200186 133 193 95
-0.292082 0.113832 0.192252 94 90 64
-0.291549 0.114898 0.192441 65 60 42
-0.29047 0.115639 0.19293 60 53 38
-0.286765 0.0859186 0.195653 61 64 44
-0.286519 0.0870965 0.19569 76 94 58
-0.286272 0.0882744 0.195727 105 160 82
-0.285509 0.0892017 0.196045 108 160 74
-0.28475 0.0901248 0.196362 106 162 78
-0.283994 0.0910438 0.196678 109 161 78
-0.283495 0.0920859 0.196854 111 164 79
-0.28325 0.0932543 0.19689 111 166 80
-0.281997 0.0939048 0.19748 112 168 82
-0.281503 0.0949378 0.197653 114 170 82
-0.281259 0.0960995 0.19769 115 173 83
-0.280766 0.0971288 0.197863 115 176 84
-0.279532 0.0977578 0.198444 116 177 84
-0.278799 0.0986465 0.198751 119 180 86
-0.277824 0.0993978 0.199191 125 186 90
-0.277584 0.100547 0.199227 134 194 96
-0.291862 0.11255 0.191048 140 189 99
-0.291605 0.113776 0.191087 94 84 57
-0.290799 0.114681 0.191429 61 60 36
-0.289724 0.115422 0.191921 55 53 33
-0.28605 0.0857407 0.194676 56 62 41
-0.285803 0.0869174 0.194713 75 96 59
-0.285042 0.0878469 0.195033 105 163 83
-0.28454 0.0888964 0.195211 109 160 76
-0.283785 0.0898182 0.19553 108 164 78
-0.283286 0.0908619 0.195706 111 164 76
-0.283041 0.0920304 0.195743 112 166 79
-0.282544 0.0930704 0.19592 112 167 81
-0.281295 0.093721 0.196513 113 169 82
-0.280802 0.0947533 0.196687 114 172 83
-0.28031 0.0957831 0.196862 115 175 84
-0.27982 0.0968106 0.197036 116 176 84
-0.278838 0.0975715 0.197483 118 177 84
-0.277862 0.0983273 0.197927 120 180 86
-0.277136 0.099211 0.198234 126 186 91
-0.276895 0.100359 0.19827 134 193 97
-0.291386 0.112493 0.189883 135 183 99
-0.291129 0.113719 0.189922 92 77 51
-0.285079 0.0854424 0.193843 58 57 35
-0.284577 0.0864948 0.194023 76 99 58
-0.283821 0.0874222 0.194344 106 165 82
-0.283322 0.0884688 0.194522 111 161 77
-0.282824 0.089513 0.1947 109 165 79
-0.28258 0.0906804 0.194737 111 167 79
-0.282335 0.0918478 0.194774 113 168 80
-0.281839 0.0928868 0.194951 114 169 81
-0.280595 0.0935377 0.195548 115 171 81
-0.279855 0.0944401 0.195862 115 173 82
-0.279366 0.0954681 0.196037 116 175 83
-0.278877 0.0964939 0.196211 117 176 83
-0.278145 0.0973856 0.196523 118 178 84
-0.277173 0.0981413 0.19697 121 181 86
-0.276448 0.0990245 0.197278 127 187 91
-0.276208 0.100171 0.197314 135 194 98
-0.29091 0.112436 0.188718 129 176 99
-0.290379 0.113503 0.188911 92 75 50
-0.283858 0.0850255 0.193158 59 59 39
-0.283359 0.086075 0.193338 78 99 55
-0.28286 0.0871221 0.193517 107 164 82
-0.282616 0.0882897 0.193554 110 164 80
-0.282371 0.0894574 0.19359 110 165 78
-0.281875 0.0904993 0.193769 112 167 79
-0.28163 0.0916655 0.193806 114 168 80
-0.281135 0.0927037 0.193984 115 170 80
-0.279648 0.0932271 0.194724 115 172 81
-0.279159 0.0942567 0.194901 117 173 82
-0.27867 0.0952839 0.195076 118 174 83
-0.278183 0.0963088 0.195252 118 176 83
-0.277453 0.0972001 0.195565 120 178 83
-0.276243 0.0978243 0.196152 122 181 85
-0.275522 0.0987063 0.196462 128 188 92
-0.275282 0.0998503 0.196498 135 195 100
-0.290433 0.112379 0.187552 123 167 100
-0.289903 0.113447 0.187747 88 70 51
-0.282897 0.0847304 0.192333 62 65 41
-0.282652 0.0858983 0.19237 83 102 56
-0.282407 0.0870662 0.192407 108 166 83
-0.282162 0.088234 0.192444 110 166 81
-0.281666 0.0892775 0.192624 111 165 79
-0.281422 0.0904438 0.19266 113 167 79
-0.280927 0.0914836 0.19284 114 168 81
-0.280683 0.0926485 0.192877 115 170 80
-0.278952 0.0930449 0.193764 115 172 81
-0.278464 0.0940736 0.193941 117 172 82
-0.277977 0.0951001 0.194118 117 174 83
-0.277491 0.0961242 0.194294 118 176 83
-0.276521 0.0968843 0.194749 119 178 84
-0.275557 0.0976394 0.1952 122 182 86
-0.274838 0.098521 0.195511 128 189 93
-0.274599 0.0996639 0.195547 135 195 100
-0.289957 0.112322 0.186386 119 160 101
-0.289427 0.11339 0.186582 86 72 52
-0.282191 0.0845553 0.191368 56 62 40
-0.281947 0.085722 0.191404 88 108 57
-0.281954 0.0870103 0.191296 109 167 80
-0.281458 0.0880554 0.191478 110 166 80
-0.281213 0.0892219 0.191515 111 166 80
-0.280719 0.0902632 0.191696 114 169 80
-0.280475 0.0914282 0.191732 114 169 81
-0.279982 0.0924658 0.191913 117 171 82
-0.278257 0.0928631 0.192806 116 172 82
-0.27777 0.093891 0.192984 117 173 82
-0.277284 0.0949166 0.193161 117 175 83
-0.277043 0.0960699 0.193198 117 176 84
-0.275833 0.0966999 0.193795 118 178 85
-0.274872 0.0974549 0.194249 121 182 87
-0.274156 0.098336 0.194562 128 190 93
-0.273917 0.0994778 0.194598 135 195 100
-0.28948 0.112265 0.18522 114 151 98
-0.288679 0.113175 0.185576 82 72 49
-0.281487 0.0843806 0.190404 54 59 41
-0.281494 0.0856661 0.190295 94 114 59
-0.281249 0.0868329 0.190332 110 168 81
-0.281005 0.0879996 0.190369 112 167 80
-0.280511 0.0890424 0.190551 113 168 81
-0.280266 0.0902077 0.190588 115 171 81
-0.279774 0.0912468 0.19077 115 171 81
-0.279282 0.0922835 0.190951 117 172 83
-0.277563 0.0926817 0.191849 116 172 85
-0.277078 0.0937088 0.192028 117 173 84
-0.276836 0.0948622 0.192064 118 174 83
-0.276352 0.0958857 0.192243 118 176 83
-0.275146 0.0965159 0.192844 118 178 85
-0.273951 0.0971406 0.19344 122 182 88
-0.273238 0.0980207 0.193754 130 190 92
-0.273 0.09916 0.19379 136 196 98
-0.289004 0.112208 0.184054 109 142 93
-0.288203 0.113118 0.184413 77 73 51
-0.280785 0.0842062 0.189442 55 60 40
-0.280791 0.0854903 0.189332 101 122 62
-0.280546 0.0866559 0.189369 110 168 82
-0.280302 0.0878214 0.189406 112 168 80
-0.280058 0.0889869 0.189443 115 169 81
-0.279565 0.0900275 0.189626 116 172 82
-0.279074 0.0910657 0.189809 116 171 82
-0.27883 0.0922284 0.189846 116 172 84
-0.276871 0.0925006 0.190895 116 173 85
-0.27663 0.0936543 0.190931 118 174 84
-0.276146 0.0946792 0.191111 118 175 83
-0.275422 0.0955726 0.191433 118 176 83
-0.274223 0.0962029 0.192036 119 177 85
-0.273508 0.097087 0.192354 123 181 88
-0.27256 0.0978368 0.19281 131 191 93
-0.272321 0.0989751 0.192846 138 196 96
-0.288527 0.112151 0.182887 101 128 85
-0.287457 0.112904 0.18341 71 68 51
-0.280333 0.0841503 0.188335 56 59 44
-0.280089 0.0853148 0.188372 106 128 68
-0.279845 0.0864793 0.188408 110 166 81
-0.279601 0.0876436 0.188445 112 169 78
-0.279357 0.0888079 0.188482 116 169 81
-0.278866 0.0898477 0.188666 116 171 83
-0.278622 0.0910105 0.188703 116 171 83
-0.277886 0.0919201 0.189033 115 172 84
-0.276423 0.092446 0.189797 117 172 83
-0.275939 0.0934725 0.189978 118 174 83
-0.275698 0.0946248 0.190015 117 175 83
-0.274495 0.0952608 0.190626 117 176 84
-0.273303 0.0958912 0.191231 119 178 86
-0.272827 0.0969037 0.191409 122 182 89
-0.272117 0.0977835 0.191727 131 190 94
-0.271879 0.0989219 0.191763 137 193 96
-0.28805 0.112094 0.18172 96 115 76
-0.286982 0.112847 0.182247 64 64 46
-0.279881 0.0840944 0.187227 57 58 51
-0.279637 0.085259 0.187264 109 137 73
-0.279393 0.0864235 0.187301 111 166 81
-0.279149 0.087588 0.187338 113 169 79
-0.278658 0.0886293 0.187523 116 169 81
-0.278414 0.0897923 0.18756 115 171 83
-0.277433 0.09058 0.18804 116 172 84
-0.275974 0.0911127 0.188809 115 173 84
-0.275733 0.0922654 0.188845 116 173 82
-0.275492 0.093418 0.188882 118 173 83
-0.274529 0.0941867 0.189354 117 175 85
-0.273573 0.0949504 0.189822 116 177 86
-0.272859 0.0958375 0.190145 118 178 85
-0.272148 0.0967207 0.190466 122 182 89
-0.271441 0.0976001 0.190786 132 191 96
-0.271202 0.0987373 0.190822 137 190 96
-0.287303 0.111881 0.180718 95 108 73
-0.286507 0.11279 0.181084 65 61 44
-0.279181 0.0839205 0.186269 58 65 56
-0.278937 0.085084 0.186306 110 148 76
-0.278693 0.0862473 0.186343 112 164 80
-0.27845 0.0874106 0.18638 114 167 81
-0.278206 0.0885738 0.186417 115 170 82
-0.277716 0.0896129 0.186603 115 172 84
-0.276739 0.0904004 0.187086 115 174 85
-0.275527 0.091058 0.187712 117 173 83
-0.274564 0.0918347 0.188188 117 173 82
-0.274084 0.0928576 0.18837 117 173 84
-0.27313 0.0936249 0.188841 117 174 86
-0.272418 0.0945142 0.189166 117 177 86
-0.271709 0.0953994 0.189489 117 179 84
-0.271237 0.0964094 0.189668 122 183 89
-0.270998 0.0975468 0.189704 134 192 95
-0.27076 0.0986841 0.18974 137 188 98
-0.286557 0.111667 0.179718 96 97 68
-0.286032 0.112734 0.179921 64 62 42
-0.278973 0.082701 0.185126 50 54 33
-0.278729 0.0838646 0.185163 58 66 56
-0.278485 0.0850281 0.1852 110 159 81
-0.278241 0.0861916 0.185237 112 166 80
-0.277998 0.087355 0.185274 114 168 82
-0.277508 0.0883956 0.185461 116 170 82
-0.27702 0.0894339 0.185648 115 173 84
-0.276046 0.0902212 0.186134 115 173 84
-0.274358 0.0906312 0.187058 117 174 83
-0.273879 0.0916556 0.187242 117 173 82
-0.2734 0.0926776 0.187424 117 173 84
-0.272449 0.0934448 0.187898 116 174 86
-0.27174 0.0943335 0.188225 117 175 85
-0.271033 0.0952184 0.188549 117 179 85
-0.270329 0.0960993 0.188873 122 185 89
-0.270091 0.0972345 0.188909 134 192 96
-0.286068 0.110232 0.178681 137 182 95
-0.285277 0.111144 0.179051 97 91 63
-0.283434 0.111432 0.180075 60 51 39
-0.278521 0.082645 0.184019 51 53 31
-0.278277 0.0838087 0.184056 63 71 55
-0.278033 0.0849724 0.184093 107 160 84
-0.277789 0.0861359 0.18413 112 168 81
-0.2773 0.0871781 0.184319 114 169 83
-0.276812 0.0882178 0.184507 116 170 81
-0.276325 0.0892553 0.184695 115 172 83
-0.274872 0.0897956 0.185482 115 171 83
-0.273673 0.0904532 0.186113 117 172 83
-0.273195 0.0914768 0.186297 117 173 83
-0.272481 0.0923729 0.186628 116 172 84
-0.27177 0.0932651 0.186957 116 173 84
-0.270829 0.0940271 0.187431 116 176 85
-0.270358 0.0950377 0.187612 116 179 86
-0.269425 0.0957906 0.188081 122 186 90
-0.269188 0.0969234 0.188117 134 192 97
-0.285325 0.110021 0.177684 130 175 94
-0.284537 0.110933 0.178057 96 87 55
-0.277575 0.081081 0.183334 41 44 26
-0.277577 0.0823568 0.183218 44 45 29
-0.277579 0.0836353 0.183102 64 75 56
-0.277336 0.0847978 0.183139 106 159 83
-0.277092 0.0859602 0.183176 112 166 82
-0.276604 0.0870015 0.183366 114 168 82
-0.276117 0.0880404 0.183555 115 168 80
-0.275389 0.0889542 0.183895 116 170 81
-0.273945 0.0894952 0.184685 116 171 82
-0.272752 0.0901527 0.185318 116 170 82
-0.272276 0.0911745 0.185503 116 172 84
-0.271565 0.0920694 0.185835 116 174 84
-0.270858 0.0929605 0.186165 116 173 83
-0.270154 0.0938476 0.186494 116 174 83
-0.269453 0.0947308 0.186822 118 177 84
-0.268067 0.0952301 0.187581 124 184 90
-0.267831 0.0963581 0.187617 135 192 99
-0.284584 0.109811 0.17669 126 169 95
-0.283798 0.110722 0.177064 95 83 55
-0.27688 0.080911 0.182383 30 35 20
-0.276881 0.0821853 0.182267 31 40 21
-0.276638 0.0833454 0.182304 65 80 49
-0.276395 0.0845054 0.182341 106 161 83
-0.276153 0.0856654 0.182378 111 164 82
-0.275667 0.0867048 0.182568 114 166 82
-0.275182 0.0877419 0.182758 115 167 81
-0.274217 0.0885326 0.183251 115 169 80
-0.273259 0.0893181 0.183741 115 170 81
-0.27207 0.0899758 0.184377 114 171 82
-0.271361 0.0908735 0.184712 113 172 82
-0.270421 0.0916436 0.185192 113 173 83
-0.26995 0.0926571 0.185376 115 174 82
-0.269249 0.0935431 0.185706 117 174 81
-0.268093 0.094174 0.186326 119 177 85
-0.267174 0.0949251 0.186796 125 184 90
-0.266938 0.0960509 0.186832 133 192 97
-0.283844 0.109601 0.175698 120 162 97
-0.282274 0.110052 0.176577 91 83 58
-0.275944 0.0806277 0.181589 29 36 18
-0.275944 0.0818991 0.181472 28 42 20
-0.275702 0.0830567 0.181509 71 87 42
-0.275459 0.0842144 0.181546 106 159 79
-0.275217 0.0853719 0.181583 111 166 81
-0.274492 0.0862899 0.181927 114 165 83
-0.274011 0.0873242 0.182117 114 168 81
-0.273053 0.0881137 0.18261 114 169 79
-0.271865 0.0887769 0.183252 115 168 79
-0.271156 0.0896773 0.183589 114 170 80
-0.269984 0.0903293 0.184222 113 172 81
-0.269746 0.0914664 0.184258 113 172 81
-0.269046 0.0923551 0.18459 115 172 81
-0.26789 0.0929913 0.185215 116 172 81
-0.267199 0.0938709 0.185543 119 177 83
-0.266736 0.0948723 0.185725 127 185 88
-0.2665 0.0959981 0.185761 136 192 96
-0.282318 0.108935 0.175217 113 152 96
-0.281282 0.109691 0.17576 84 76 53
-0.274292 0.0800082 0.181259 38 41 22
-0.27429 0.0812721 0.181143 25 35 22
-0.274049 0.0824236 0.181179 79 99 51
-0.273808 0.083575 0.181216 108 158 77
-0.273328 0.0846091 0.181406 113 164 79
-0.27285 0.0856409 0.181596 113 164 82
-0.272136 0.0865514 0.181937 113 165 80
-0.27166 0.0875776 0.182126 114 167 78
-0.270717 0.0883604 0.182616 114 168 79
-0.269548 0.0890175 0.183252 114 169 80
-0.268849 0.0899108 0.183587 114 170 82
-0.268153 0.0908001 0.18392 115 171 83
-0.267688 0.0918083 0.184104 115 171 82
-0.267223 0.0928142 0.184287 115 172 83
-0.266534 0.0936934 0.184617 118 178 85
-0.266072 0.0946939 0.184799 125 183 88
-0.281064 0.108426 0.17457 106 142 90
-0.280036 0.109181 0.175114 78 77 52
-0.273611 0.0773239 0.180553 47 47 31
-0.273608 0.078581 0.180436 60 54 32
-0.273368 0.079729 0.180473 51 52 29
-0.273128 0.080877 0.18051 30 37 21
-0.272887 0.0820249 0.180546 90 109 56
-0.27241 0.0830575 0.180737 109 156 78
-0.271934 0.0840878 0.180926 113 163 79
-0.271224 0.0849989 0.181268 113 165 81
-0.270751 0.0860236 0.181457 114 165 80
-0.270046 0.0869275 0.181797 113 165 79
-0.269345 0.0878274 0.182135 112 166 79
-0.268416 0.0886036 0.182621 112 167 80
-0.26795 0.0896154 0.182807 113 167 82
-0.267257 0.0905036 0.183141 114 167 83
-0.266794 0.09151 0.183325 114 169 83
-0.266331 0.0925142 0.183509 113 167 82
-0.26587 0.0935162 0.183693 117 172 84
-0.265635 0.0946411 0.183729 123 180 87
-0.280847 0.10716 0.17338 127 175 89
-0.279819 0.10792 0.173928 102 126 76
-0.279567 0.109125 0.173967 77 77 49
-0.272692 0.0770512 0.179771 47 51 37
-0.272688 0.0783054 0.179653 59 53 36
-0.272448 0.0794511 0.17969 60 49 32
-0.271973 0.0804845 0.179881 41 49 26
-0.271733 0.0816288 0.179917 87 105 57
-0.271259 0.0826586 0.180108 102 145 76
-0.270786 0.0836861 0.180298 108 157 77
-0.269848 0.0844793 0.180792 110 158 78
-0.268917 0.0852674 0.181283 111 162 81
-0.268221 0.0861672 0.181621 110 166 82
-0.267527 0.0870631 0.181958 110 166 81
-0.267064 0.0880735 0.182143 112 165 80
-0.266827 0.0892013 0.182179 112 165 81
-0.266591 0.0903291 0.182216 111 166 81
-0.266129 0.0913347 0.182401 111 167 82
-0.265893 0.0924611 0.182437 110 164 84
-0.265433 0.0934632 0.182622 104 151 84
-0.265197 0.0945883 0.182658 109 158 88
-0.27935 0.107863 0.172781 90 108 64
-0.279098 0.109069 0.172819 64 67 47
-0.272007 0.0781404 0.178718 49 49 34
-0.271768 0.0792849 0.178755 54 51 32
-0.271293 0.0803175 0.178947 48 57 34
-0.270586 0.0812352 0.179292 66 80 50
-0.270115 0.0822622 0.179483 69 92 59
-0.269413 0.0831726 0.179826 78 109 69
-0.267798 0.0836213 0.180774 95 134 76
-0.266428 0.084178 0.181562 107 156 82
-0.266193 0.0853014 0.181598 109 163 83
-0.265958 0.0864247 0.181634 109 164 81
-0.265947 0.0876656 0.18152 110 164 79
-0.265937 0.088909 0.181406 112 165 78
-0.265927 0.0901549 0.181292 111 165 80
-0.265691 0.0912815 0.181328 111 161 79
-0.26523 0.0922851 0.181514 106 143 72
-0.264771 0.0932864 0.1817 76 73 44
-0.264535 0.0944104 0.181736 71 56 36
-0.278881 0.107807 0.171633 73 70 45
-0.278629 0.109012 0.171672 60 59 40
-0.271093 0.0778666 0.177941 40 39 26
-0.270854 0.0790088 0.177978 38 35 28
-0.270382 0.0800395 0.17817 40 44 28
-0.269678 0.080956 0.178516 44 45 26
-0.269209 0.0819812 0.178707 56 54 34
-0.267367 0.082325 0.179815 62 60 36
-0.265777 0.0827759 0.180757 70 91 50
-0.264207 0.0832209 0.181687 95 140 71
-0.263973 0.084335 0.181722 109 160 80
-0.26485 0.0860236 0.181014 109 161 78
-0.265286 0.0874946 0.1806 110 163 78
-0.265275 0.0887366 0.180486 111 163 77
-0.265264 0.0899812 0.180371 109 160 77
-0.265028 0.0911066 0.180407 106 151 74
-0.264793 0.092232 0.180443 95 124 65
-0.264333 0.0932336 0.18063 64 41 31
-0.264098 0.0943576 0.180666 39 34 24
-0.263863 0.0954816 0.180702 53 52 35
-0.269474 0.0797628 0.177396 35 38 27
-0.268774 0.0806779 0.177744 43 40 33
-0.266485 0.0808098 0.179162 57 50 37
-0.264906 0.081269 0.180105 56 55 38
-0.263786 0.0819429 0.180739 56 60 48
-0.263113 0.082833 0.181072 87 118 67
-0.262881 0.0839437 0.181108 109 159 77
-0.263307 0.085396 0.180697 109 161 76
-0.26418 0.0870902 0.179984 109 160 76
-0.264614 0.0885646 0.179567 109 157 76
-0.264602 0.0898078 0.179451 106 153 74
-0.26459 0.0910535 0.179335 102 143 71
-0.264355 0.092179 0.179371 88 111 59
-0.263896 0.0931807 0.179559 53 32 23
-0.263426 0.0954289 0.179631 47 48 33
-0.266058 0.0795215 0.178208 43 37 24
-0.263819 0.0796631 0.179608 49 46 30
-0.262927 0.0804495 0.180092 53 53 31
-0.262476 0.0814496 0.180277 50 58 38
-0.262027 0.0824475 0.180461 74 98 55
-0.261795 0.0835548 0.180496 100 144 72
-0.262216 0.0850014 0.180086 107 158 77
-0.262641 0.0864571 0.179672 107 155 74
-0.26351 0.0881569 0.178953 105 153 73
-0.263942 0.0896347 0.178533 102 148 72
-0.264153 0.0910003 0.178263 97 139 68
-0.263917 0.0921259 0.178299 80 109 57
-0.263681 0.0932514 0.178336 46 31 21
-0.262988 0.0953761 0.178561 45 50 39
-0.262291 0.079072 0.1793 45 44 31
-0.261842 0.0800717 0.179485 53 51 35
-0.261611 0.0811781 0.17952 57 55 34
-0.261379 0.0822844 0.179556 68 79 45
-0.261148 0.0833906 0.179591 88 127 67
-0.261133 0.0846093 0.179478 102 156 78
-0.261552 0.0860593 0.179064 104 152 74
-0.262193 0.0876349 0.178496 103 151 73
-0.26284 0.0892237 0.177923 99 144 70
-0.26327 0.0907049 0.177499 93 133 63
-0.263479 0.0920728 0.177227 76 109 55
-0.263021 0.0930748 0.177418 43 40 23
-0.262551 0.0953234 0.17749 45 51 36
-0.260995 0.0785931 0.178845 40 40 27
-0.260764 0.0796962 0.178881 49 52 34
-0.260749 0.0809076 0.178767 60 57 37
-0.260733 0.0821215 0.178652 70 73 46
-0.260502 0.0832267 0.178688 85 118 66
-0.260486 0.0844441 0.178574 101 155 77
-0.26047 0.085664 0.178459 102 151 72
-0.260887 0.0871172 0.178042 101 148 71
-0.261526 0.0886973 0.177469 98 141 69
-0.26217 0.0902906 0.176892 92 130 62
-0.262597 0.0917753 0.176465 77 107 54
-0.262362 0.0928986 0.176502 42 46 25
-0.261892 0.095145 0.176574 46 50 31
-0.259709 0.078118 0.178394 34 36 26
-0.259692 0.079323 0.17828 47 44 31
-0.259676 0.0805304 0.178166 60 54 36
-0.259659 0.0817402 0.178052 66 69 47
-0.259643 0.0829525 0.177937 78 102 63
-0.259626 0.0841672 0.177822 98 142 73
-0.259824 0.0854977 0.177556 103 151 73
-0.259808 0.0867187 0.17744 99 147 70
-0.260223 0.0881753 0.17702 98 139 68
-0.260859 0.0897598 0.176443 91 128 62
-0.2615 0.0913577 0.175862 77 106 55
-0.261265 0.0924775 0.175898 40 41 23
-0.26125 0.093721 0.175779 26 28 17
-0.258205 0.0787411 0.177982 40 39 27
-0.258187 0.0799418 0.177868 53 51 34
-0.258592 0.0813613 0.177454 61 62 46
-0.258787 0.0826794 0.177189 71 78 58
-0.258769 0.0838914 0.177073 85 106 66
-0.258965 0.0852187 0.176806 93 131 72
-0.259162 0.0865515 0.176537 94 138 70
-0.259145 0.0877736 0.176421 97 140 70
-0.259558 0.0892335 0.175997 90 129 64
-0.259974 0.0907025 0.175571 77 107 56
-0.259741 0.0918166 0.175607 41 39 23
-0.259076 0.0926868 0.175951 20 20 12
-0.258629 0.0936757 0.176141 21 25 16
-0.257111 0.0807697 0.177161 53 55 42
-0.257302 0.0820799 0.176896 62 66 53
-0.257705 0.0835059 0.176479 73 77 61
-0.25811 0.0849408 0.176059 81 90 64
-0.258305 0.0862703 0.17579 83 99 62
-0.2585 0.0876053 0.175519 87 123 69
-0.258696 0.0889458 0.175248 88 128 66
-0.258679 0.0901729 0.175129 78 107 56
-0.258447 0.0912824 0.175165 44 41 23
-0.258001 0.0922709 0.175355 21 21 11
-0.257769 0.0933791 0.175391 16 18 10
-0.257537 0.0944872 0.175427 27 26 18
-0.256249 0.0817023 0.176306 51 53 43
-0.25602 0.0827941 0.176341 64 60 50
-0.257048 0.0845522 0.175468 70 67 55
-0.257663 0.086104 0.174892 70 69 56
-0.25807 0.0875529 0.174465 73 86 59
-0.258051 0.0887762 0.174346 78 107 60
-0.258033 0.0900019 0.174227 77 106 58
-0.257801 0.0911104 0.174263 45 42 25
-0.257569 0.0922188 0.174299 22 20 12
-0.257125 0.0932053 0.17449 16 19 10
-0.256893 0.0943124 0.174525 20 24 16
-0.25645 0.0952955 0.174716 32 36 29
-0.254974 0.0824156 0.175754 52 49 39
-0.255367 0.083834 0.175336 58 58 46
-0.257234 0.0860517 0.173841 61 61 51
-0.257639 0.0875005 0.173411 66 59 46
-0.25762 0.0887238 0.173291 65 75 49
-0.257389 0.0898313 0.173327 71 93 56
-0.257157 0.0909387 0.173363 43 40 27
-0.256925 0.0920461 0.173399 23 18 13
-0.256694 0.0931533 0.173434 16 18 13
