ply
format ascii 1.0
element vertex 1174
property float x
property float y
property float z
property uchar diffuse_red
property uchar diffuse_green
property uchar diffuse_blue
end_header
-0.413931 0.120236 0.349374 63 118 124
-0.413377 0.121677 0.349686 90 132 114
-0.412823 0.123118 0.349999 93 102 106
-0.41178 0.124335 0.350289 92 92 85
-0.411715 0.126001 0.350625 92 82 75
-0.412139 0.127902 0.350987 92 82 71
-0.413059 0.130049 0.351376 89 81 69
-0.417001 0.13366 0.351925 90 86 70
-0.415236 0.119473 0.347563 57 82 81
-0.413694 0.120479 0.347837 54 94 98
-0.41314 0.12192 0.34815 64 133 129
-0.412097 0.123138 0.348442 88 142 140
-0.411543 0.124578 0.348754 93 129 126
-0.411478 0.126244 0.349088 96 103 99
-0.411411 0.127915 0.349423 99 93 85
-0.411835 0.129825 0.349782 88 86 77
-0.414745 0.13294 0.350261 89 89 72
-0.416192 0.13538 0.350676 93 86 73
-0.417147 0.137599 0.35107 94 80 70
-0.419059 0.119801 0.345826 90 85 73
-0.415494 0.119935 0.346038 81 80 72
-0.413949 0.120941 0.346317 69 77 76
-0.412903 0.122163 0.346612 53 90 97
-0.41186 0.123381 0.346907 62 134 135
-0.411306 0.12482 0.347219 87 167 165
-0.410753 0.12626 0.347532 100 151 147
-0.411174 0.128159 0.347884 97 122 121
-0.411597 0.130069 0.348238 91 102 96
-0.414005 0.132947 0.348679 89 90 81
-0.415446 0.135383 0.349084 91 84 72
-0.416395 0.137599 0.349471 92 82 70
-0.417865 0.140089 0.349885 92 84 74
-0.419872 0.14287 0.350328 95 86 75
-0.424 0.120585 0.344082 94 81 68
-0.421366 0.121162 0.344343 93 80 67
-0.415752 0.120398 0.344509 84 82 71
-0.414205 0.121405 0.344793 76 81 75
-0.410936 0.128403 0.346344 95 172 169
-0.411358 0.130314 0.346694 97 147 139
-0.413764 0.133194 0.347121 92 115 117
-0.415203 0.135632 0.347517 93 100 89
-0.416152 0.137849 0.347897 91 83 78
-0.41762 0.140341 0.348301 89 84 75
-0.419107 0.142863 0.348711 89 85 72
-0.420089 0.14515 0.349102 93 84 74
-0.429075 0.121391 0.342291 81 81 69
-0.428498 0.122891 0.342616 87 80 66
-0.430066 0.125332 0.342995 89 79 67
-0.41161 0.130793 0.345165 95 179 180
-0.413523 0.13344 0.345563 94 168 168
-0.414961 0.13588 0.345949 100 144 135
-0.415909 0.138098 0.346322 93 107 112
-0.416355 0.140082 0.34668 89 93 85
-0.417829 0.142595 0.347078 86 84 76
-0.418802 0.144874 0.347461 83 83 76
-0.419264 0.146905 0.347827 82 81 76
-0.419206 0.148678 0.348174 84 79 74
-0.434841 0.122452 0.340459 78 84 70
-0.432064 0.123034 0.340749 74 82 71
-0.43312 0.12526 0.34111 82 80 63
-0.411863 0.131274 0.343632 89 171 172
-0.413283 0.133687 0.344005 92 179 184
-0.414719 0.136129 0.344382 94 179 180
-0.41516 0.138098 0.344732 94 163 162
-0.415603 0.140078 0.345084 93 138 130
-0.417071 0.142588 0.345472 89 103 110
-0.418556 0.145127 0.345865 86 91 88
-0.418497 0.146892 0.346208 87 84 82
-0.418438 0.148662 0.346552 84 83 76
-0.41838 0.150437 0.346897 84 82 74
-0.439651 0.123069 0.338557 85 78 72
-0.43793 0.124131 0.338877 89 82 67
-0.436779 0.125427 0.339202 79 78 69
-0.436748 0.127206 0.339544 72 81 67
-0.412182 0.130067 0.341767 58 105 111
-0.414917 0.138347 0.343159 89 179 183
-0.415359 0.140329 0.343507 91 177 178
-0.416314 0.14258 0.343871 94 158 157
-0.418309 0.145381 0.344268 90 132 125
-0.417733 0.146878 0.344593 88 102 103
-0.417673 0.148646 0.344934 83 93 86
-0.417613 0.150419 0.345276 84 86 78
-0.417553 0.152197 0.34562 82 84 75
-0.418012 0.15426 0.345982 84 83 73
-0.443423 0.123217 0.336599 84 76 68
-0.442824 0.124774 0.336936 90 71 69
-0.441078 0.125841 0.337264 88 75 67
-0.439343 0.126901 0.33759 83 79 73
-0.415488 0.130269 0.339953 89 88 73
-0.415622 0.140834 0.34194 86 177 177
-0.416069 0.142832 0.342286 88 179 184
-0.417031 0.145106 0.342646 90 176 175
-0.417486 0.147132 0.342996 92 155 153
-0.417426 0.1489 0.343335 89 129 126
-0.416849 0.1504 0.34366 91 104 102
-0.417304 0.152452 0.344015 88 93 86
-0.417244 0.154236 0.344357 86 89 78
-0.417702 0.15631 0.344716 89 79 74
-0.444925 0.122401 0.334601 85 74 68
-0.444907 0.124206 0.33494 81 70 67
-0.444305 0.12577 0.33528 85 72 72
-0.443124 0.127086 0.335617 83 80 69
-0.417359 0.143865 0.34073 69 160 170
-0.416785 0.145359 0.341054 84 177 178
-0.416211 0.146852 0.341378 89 180 183
-0.416663 0.148884 0.341724 92 179 177
-0.416601 0.150654 0.342061 97 155 151
-0.416539 0.152431 0.342398 91 121 122
-0.416995 0.154492 0.34275 86 101 95
-0.417453 0.156566 0.343104 89 84 82
-0.417392 0.158365 0.343446 88 85 76
-0.41733 0.16017 0.343789 83 86 73
-0.447024 0.121819 0.332587 86 76 68
-0.447599 0.123876 0.332923 96 76 68
-0.446993 0.12545 0.333265 83 71 65
-0.446388 0.127024 0.333606 77 77 69
-0.416539 0.145611 0.339461 62 147 152
-0.415965 0.147105 0.339785 75 166 172
-0.415902 0.148868 0.340118 85 179 182
-0.416354 0.150909 0.340461 90 181 183
-0.416291 0.152686 0.340796 90 169 171
-0.416229 0.154468 0.341132 92 144 140
-0.416166 0.156256 0.34147 91 110 115
-0.417142 0.158623 0.341831 90 96 93
-0.416559 0.160137 0.34216 88 86 83
-0.417018 0.162239 0.342513 84 83 76
-0.449738 0.121474 0.330548 88 81 71
-0.450924 0.123788 0.330875 84 77 68
-0.450314 0.125375 0.331219 89 83 69
-0.449704 0.126962 0.331563 71 77 74
-0.416744 0.147894 0.338204 57 123 129
-0.415655 0.149121 0.338522 62 151 157
-0.415592 0.15089 0.338854 78 170 174
-0.415529 0.152664 0.339186 86 178 182
-0.415465 0.154444 0.339519 88 176 181
-0.415917 0.156512 0.339862 90 162 165
-0.415854 0.158305 0.340198 92 144 137
-0.416309 0.160395 0.340545 90 110 116
-0.416246 0.162203 0.340883 84 89 91
-0.417227 0.164613 0.341244 83 80 80
-0.417691 0.166741 0.341597 84 76 73
-0.451274 0.122468 0.328837 85 83 65
-0.451265 0.124302 0.329172 81 72 69
-0.450654 0.125891 0.329517 72 90 79
-0.415345 0.151144 0.337256 53 126 133
-0.414769 0.152642 0.33758 63 153 162
-0.414704 0.154419 0.337911 79 171 175
-0.414639 0.156202 0.338242 86 175 181
-0.415088 0.158276 0.338581 90 174 178
-0.416059 0.160653 0.338929 94 162 165
-0.415995 0.162461 0.339266 93 141 137
-0.416453 0.164573 0.339611 86 107 111
-0.417438 0.167002 0.339967 84 86 89
-0.42003 0.170382 0.340355 87 79 75
-0.421046 0.172872 0.34072 91 77 72
-0.415674 0.1499 0.335333 56 78 76
-0.415098 0.151398 0.335657 38 86 93
-0.414521 0.152897 0.335982 39 108 113
-0.413945 0.154396 0.336307 51 132 140
-0.413879 0.156175 0.336635 64 156 166
-0.414325 0.158246 0.336969 81 170 174
-0.41529 0.160619 0.337309 86 174 180
-0.415226 0.162425 0.337642 88 177 179
-0.416201 0.164832 0.337988 91 159 161
-0.417185 0.167262 0.338337 92 129 130
-0.419241 0.170334 0.338703 92 100 100
-0.419716 0.172504 0.339052 90 84 83
-0.420193 0.174688 0.339403 89 81 75
-0.4116 0.15531 0.335029 42 112 118
-0.413054 0.157932 0.335359 53 137 143
-0.413497 0.160008 0.335689 65 158 167
-0.414975 0.162683 0.336026 78 174 177
-0.415949 0.165092 0.336365 85 178 184
-0.416933 0.167522 0.336706 91 175 176
-0.418986 0.170597 0.337059 94 155 150
-0.418926 0.172452 0.337398 94 121 123
-0.4194 0.174633 0.337744 91 97 98
-0.41934 0.176504 0.338085 85 86 81
-0.409776 0.156495 0.333762 31 95 103
-0.410206 0.158548 0.334084 46 118 122
-0.412669 0.16177 0.334409 56 141 149
-0.414142 0.164456 0.334739 69 160 169
-0.416156 0.167479 0.335074 83 175 178
-0.417671 0.170238 0.335412 89 178 183
-0.418139 0.172401 0.335749 91 170 175
-0.418609 0.174578 0.336089 93 150 147
-0.418548 0.176446 0.336428 89 116 118
-0.418487 0.17832 0.336767 81 92 93
-0.418425 0.1802 0.337108 80 85 76
-0.4189 0.182419 0.337455 84 79 73
-0.409104 0.154706 0.331859 27 76 77
-0.408533 0.15619 0.332181 23 74 74
-0.408459 0.157954 0.3325 33 90 92
-0.409385 0.160295 0.332815 49 106 113
-0.411841 0.163533 0.333129 57 122 127
-0.413309 0.16623 0.33345 63 144 149
-0.416363 0.169881 0.333774 75 163 171
-0.417884 0.172664 0.334105 84 174 180
-0.418354 0.174842 0.33444 89 178 182
-0.418292 0.17671 0.334776 90 165 168
-0.41823 0.178585 0.335113 88 142 139
-0.418168 0.180466 0.335451 85 114 110
-0.418105 0.182352 0.33579 84 91 90
-0.41912 0.184919 0.336136 83 83 77
-0.4196 0.187167 0.336482 83 78 74
-0.408362 0.154682 0.330282 52 96 94
-0.407298 0.155886 0.330609 40 82 85
-0.407222 0.157646 0.330924 36 76 80
-0.407642 0.159693 0.331236 52 84 87
-0.408564 0.162042 0.331546 53 102 98
-0.413058 0.166488 0.331834 53 110 109
-0.417691 0.171073 0.33213 58 121 125
-0.41816 0.173242 0.332458 62 142 150
-0.418098 0.175106 0.332791 74 164 169
-0.418036 0.176975 0.333124 84 176 179
-0.417973 0.17885 0.333458 88 175 178
-0.41791 0.180731 0.333794 91 159 161
-0.417847 0.182618 0.33413 89 134 133
-0.418322 0.184848 0.334468 84 108 106
-0.418799 0.187093 0.334808 83 88 87
-0.419279 0.189351 0.335151 83 82 73
-0.408687 0.153452 0.328381 49 114 118
-0.407622 0.154659 0.32871 56 115 115
-0.407053 0.156138 0.32903 54 106 106
-0.406484 0.157618 0.329351 50 97 99
-0.405915 0.159097 0.329671 46 94 100
-0.406825 0.161433 0.329972 40 84 91
-0.416445 0.168871 0.330174 44 82 84
-0.419032 0.172276 0.330471 51 90 91
-0.418437 0.173822 0.330806 54 102 107
-0.417842 0.17537 0.331141 56 121 128
-0.417779 0.177239 0.331472 63 144 154
-0.417183 0.178789 0.331807 74 163 171
-0.417653 0.180997 0.332136 84 174 178
-0.417055 0.182551 0.332473 88 173 175
-0.417526 0.184778 0.332805 90 156 154
-0.417462 0.186678 0.333141 90 126 125
-0.417936 0.188928 0.333477 86 100 99
-0.4195 0.191895 0.333814 85 83 74
-0.408515 0.151951 0.326491 46 110 109
-0.407946 0.15343 0.326811 52 115 119
-0.407378 0.15491 0.327131 54 115 118
-0.406808 0.15639 0.327452 55 118 118
-0.406239 0.157869 0.327772 49 104 111
-0.40567 0.159349 0.328092 42 88 89
-0.406579 0.161686 0.328387 53 79 78
-0.418715 0.174405 0.329148 74 78 77
-0.418119 0.175954 0.329483 65 92 92
-0.417523 0.177504 0.329819 59 107 111
-0.416927 0.179054 0.330154 59 125 132
-0.416862 0.180932 0.330484 64 147 156
-0.416798 0.182817 0.330815 75 163 171
-0.416733 0.184708 0.331147 85 172 176
-0.417203 0.186945 0.331475 89 165 171
-0.417139 0.188851 0.33181 89 147 147
-0.417613 0.191113 0.332142 84 112 103
-0.418632 0.193742 0.332474 81 81 74
-0.418026 0.19532 0.332815 81 74 67
-0.407702 0.153682 0.325232 52 117 121
-0.407133 0.155162 0.325552 54 114 119
-0.406072 0.156364 0.325885 61 119 118
-0.405995 0.158121 0.326193 57 96 98
-0.405426 0.159601 0.326513 64 81 78
-0.418993 0.174988 0.327485 86 74 69
-0.417862 0.176219 0.32783 80 77 71
-0.417266 0.177768 0.328166 77 81 79
-0.41667 0.179318 0.328501 67 92 94
-0.416605 0.181198 0.328828 59 109 113
-0.41654 0.183083 0.329157 61 128 134
-0.416475 0.184974 0.329486 66 150 157
-0.416409 0.186872 0.329816 78 165 172
-0.416344 0.188775 0.330147 88 173 174
-0.416814 0.191033 0.330474 88 148 152
-0.416748 0.192952 0.330808 84 103 101
-0.416145 0.194522 0.331148 87 72 66
-0.416078 0.19645 0.331483 81 75 65
-0.407458 0.153933 0.323653 53 117 122
-0.406396 0.155137 0.323988 52 116 120
-0.405828 0.156615 0.324308 65 116 114
-0.40575 0.158373 0.324614 80 88 83
-0.405181 0.159853 0.324934 84 77 70
-0.418736 0.175253 0.325829 83 80 67
-0.418139 0.176805 0.326165 79 80 68
-0.41701 0.178033 0.326513 82 75 67
-0.416413 0.179583 0.326848 78 75 73
-0.415817 0.181133 0.327183 70 82 85
-0.416283 0.183349 0.327498 64 96 98
-0.415685 0.184904 0.327835 60 111 114
-0.415618 0.186799 0.328162 61 128 136
-0.415551 0.188699 0.32849 71 152 159
-0.416018 0.190953 0.328811 84 155 161
-0.415951 0.192869 0.329141 88 118 129
-0.415348 0.194437 0.329481 86 71 65
-0.41528 0.196362 0.329813 77 74 64
-0.414676 0.197933 0.330153 80 73 63
-0.407213 0.154185 0.322074 64 118 121
-0.406644 0.155665 0.322394 57 118 122
-0.406075 0.157145 0.322714 67 109 113
-0.405505 0.158625 0.323034 86 86 75
-0.404936 0.160105 0.323354 91 77 69
-0.404857 0.161871 0.323659 84 75 72
-0.418479 0.175518 0.324173 84 76 66
-0.415427 0.18517 0.326176 72 82 79
-0.414829 0.186726 0.326512 62 94 94
-0.415292 0.188966 0.326826 58 109 112
-0.415759 0.191221 0.327141 66 118 123
-0.415691 0.193138 0.327469 71 101 109
-0.415088 0.194706 0.327809 79 73 65
-0.414485 0.196274 0.328148 81 75 62
-0.414416 0.198202 0.328478 81 73 64
-0.413811 0.199773 0.328818 81 70 63
-0.407538 0.152956 0.320174 50 119 121
-0.406968 0.154436 0.320494 55 119 120
-0.406399 0.155916 0.320814 59 121 120
-0.40583 0.157397 0.321134 70 98 97
-0.405752 0.159159 0.321435 83 81 71
-0.405182 0.160641 0.321756 91 74 68
-0.404612 0.162124 0.322077 87 74 69
-0.405517 0.164477 0.322344 81 76 68
-0.416691 0.172962 0.322255 82 74 66
-0.414571 0.186992 0.324853 70 77 70
-0.414502 0.18889 0.325176 68 83 80
-0.414965 0.191141 0.325485 71 92 89
-0.414897 0.193055 0.32581 71 82 78
-0.414828 0.194975 0.326136 78 73 64
-0.414225 0.196543 0.326476 84 73 63
-0.413622 0.198112 0.326815 81 73 64
-0.413019 0.199681 0.327154 79 74 66
-0.407293 0.153208 0.318594 49 119 123
-0.406724 0.154688 0.318914 50 118 123
-0.406154 0.156168 0.319234 63 119 119
-0.406077 0.157928 0.319532 78 94 86
-0.405507 0.159411 0.319853 83 77 68
-0.405428 0.161179 0.320153 94 77 67
-0.404857 0.162664 0.320474 86 77 71
-0.40527 0.164731 0.320755 79 74 69
-0.410209 0.16951 0.320857 78 73 67
-0.414706 0.191409 0.323818 79 77 66
-0.414637 0.193323 0.32414 74 78 67
-0.414568 0.195244 0.324464 77 75 64
-0.413965 0.196812 0.324803 83 74 65
-0.413362 0.198381 0.325142 84 72 64
-0.412758 0.19995 0.325481 75 73 64
-0.406556 0.153186 0.317039 52 122 122
-0.406479 0.154939 0.317334 51 119 123
-0.40591 0.15642 0.317654 68 114 116
-0.405832 0.158181 0.31795 86 91 79
-0.405754 0.159947 0.318246 82 76 68
-0.405183 0.161432 0.318568 85 72 66
-0.405103 0.163206 0.318866 84 76 66
-0.405518 0.165278 0.319142 79 74 67
-0.40945 0.169464 0.319263 77 74 70
-0.414378 0.193592 0.32247 84 79 62
-0.413775 0.195158 0.322809 82 74 60
-0.413173 0.196724 0.323147 84 71 62
-0.412041 0.197932 0.323503 83 75 62
-0.40688 0.151959 0.315141 50 121 122
-0.406311 0.153437 0.315461 51 119 122
-0.406234 0.155191 0.315753 56 119 121
-0.405665 0.156672 0.316073 67 98 103
-0.405587 0.158433 0.316367 79 81 71
-0.405016 0.159916 0.316687 76 74 63
-0.404937 0.161685 0.316982 76 73 65
-0.404857 0.163459 0.317278 76 75 66
-0.405271 0.165532 0.31755 74 75 65
-0.406636 0.15221 0.313563 52 121 126
-0.406067 0.153688 0.313883 49 118 124
-0.40599 0.155443 0.314172 67 125 116
-0.40542 0.156923 0.314492 78 93 81
-0.404851 0.158404 0.314812 77 81 71
-0.404771 0.160168 0.315104 76 76 68
-0.404201 0.161651 0.315425 76 77 66
-0.40412 0.163423 0.315718 73 76 67
-0.404039 0.165201 0.316012 78 77 67
-0.40696 0.150983 0.311665 50 120 124
-0.406391 0.152461 0.311984 54 120 125
-0.405823 0.15394 0.312304 48 117 125
-0.405745 0.155694 0.312591 67 116 115
-0.405175 0.157175 0.312911 78 83 73
-0.404606 0.158656 0.313231 77 79 70
-0.404036 0.160137 0.313551 76 74 67
-0.403466 0.161618 0.313871 75 70 66
-0.403385 0.163388 0.314162 77 74 66
-0.403303 0.165162 0.314453 81 77 60
-0.406716 0.151234 0.310086 54 119 123
-0.406147 0.152712 0.310405 50 116 122
-0.405578 0.154191 0.310725 53 117 119
-0.40501 0.15567 0.311044 70 96 105
-0.40493 0.157427 0.31133 79 78 74
-0.404361 0.158908 0.31165 76 71 70
-0.403303 0.160106 0.312003 81 79 69
-0.403221 0.161871 0.31229 77 72 65
-0.402652 0.163352 0.31261 83 67 62
-0.40598 0.151215 0.308545 51 122 125
-0.405903 0.152964 0.308826 47 119 124
-0.405334 0.154442 0.309146 61 120 117
-0.404765 0.155921 0.309465 76 87 85
-0.404196 0.1574 0.309785 79 80 72
-0.403627 0.158879 0.310104 85 79 66
-0.402573 0.160075 0.310459 84 73 66
-0.402005 0.161552 0.310778 82 73 62
-0.402406 0.163604 0.311028 85 70 61
-0.405736 0.151466 0.306968 50 119 124
-0.405168 0.152943 0.307287 47 118 124
-0.405089 0.154694 0.307566 65 113 119
-0.404521 0.156172 0.307885 80 80 76
-0.403952 0.157652 0.308205 79 71 66
-0.403383 0.159131 0.308524 83 70 65
-0.402328 0.160327 0.308882 84 73 66
-0.40176 0.161804 0.309201 84 77 64
-0.402161 0.163857 0.309446 80 78 63
-0.40557 0.149973 0.305115 47 121 127
-0.405492 0.151717 0.30539 48 121 125
-0.404924 0.153194 0.305709 50 120 122
-0.404356 0.15467 0.306028 69 105 114
-0.404276 0.156424 0.306306 75 81 75
-0.403707 0.157903 0.306625 73 70 66
-0.402652 0.159101 0.306985 77 74 69
-0.402084 0.160578 0.307304 80 74 65
-0.401516 0.162056 0.307623 85 72 62
-0.405405 0.148484 0.303267 49 119 123
-0.405327 0.150223 0.303539 50 122 128
-0.404759 0.151698 0.303858 47 119 125
-0.40468 0.153444 0.304132 60 122 119
-0.404112 0.154921 0.30445 68 85 87
-0.403544 0.156398 0.304769 73 76 74
-0.402976 0.157875 0.305088 74 71 66
-0.402408 0.159353 0.305407 79 74 67
-0.401839 0.16083 0.305726 85 73 63
-0.401271 0.162307 0.306045 82 76 59
-0.405162 0.148734 0.301694 48 122 126
-0.404595 0.150206 0.302011 48 121 127
-0.404516 0.151948 0.302282 45 120 127
-0.403948 0.153423 0.3026 70 117 118
-0.403868 0.155172 0.302872 83 80 72
-0.403299 0.15665 0.303191 78 77 62
-0.402731 0.158127 0.30351 71 71 64
-0.402163 0.159604 0.303829 72 69 66
-0.401595 0.161082 0.304148 78 72 64
-0.404432 0.148719 0.30017 51 123 126
-0.404352 0.150456 0.300438 50 118 122
-0.403786 0.151929 0.300756 49 121 121
-0.403705 0.153674 0.301025 67 111 114
-0.403623 0.155424 0.301294 76 79 71
-0.403055 0.156901 0.301613 74 72 62
-0.402487 0.158378 0.301932 75 73 67
-0.401919 0.159856 0.302251 80 73 66
-0.40135 0.161333 0.30257 82 74 63
-0.403704 0.148704 0.298652 50 124 125
-0.403623 0.150439 0.298916 47 119 122
-0.403542 0.152179 0.299182 60 122 119
-0.403461 0.153924 0.299448 71 91 94
-0.402893 0.155399 0.299767 76 76 72
-0.402811 0.157152 0.300034 73 71 66
-0.401758 0.15835 0.300403 72 70 64
-0.401674 0.160107 0.300672 76 74 64
-0.401106 0.161585 0.300991 77 73 65
-0.403461 0.148954 0.297082 48 121 124
-0.402896 0.150422 0.297399 46 119 123
-0.402814 0.15216 0.297662 63 119 118
-0.402732 0.153902 0.297926 76 76 74
-0.402649 0.15565 0.29819 84 74 66
-0.402082 0.157126 0.298508 77 69 64
-0.401514 0.158601 0.298827 74 66 61
-0.400947 0.160077 0.299145 79 73 62
-0.402818 0.147211 0.29531 51 124 125
-0.402736 0.148939 0.295569 48 120 125
-0.402654 0.150671 0.295829 48 119 122
-0.402571 0.152409 0.29609 68 111 114
-0.402005 0.15388 0.296407 80 73 73
-0.401439 0.155351 0.296724 85 76 61
-0.401355 0.157099 0.296987 85 78 65
-0.400788 0.158573 0.297305 78 68 63
-0.400702 0.160328 0.297568 83 70 63
-0.4017 0.145221 0.293608 49 118 122
-0.401617 0.146938 0.293864 51 122 126
-0.402012 0.148924 0.294061 47 118 126
-0.401929 0.150654 0.294318 53 122 122
-0.401846 0.15239 0.294576 66 94 98
-0.401762 0.15413 0.294835 83 75 70
-0.401196 0.155602 0.295152 80 77 68
-0.40063 0.157073 0.295469 75 81 68
-0.400064 0.158544 0.295787 79 75 66
-0.399977 0.160297 0.296048 79 72 67
-0.400982 0.145212 0.292111 48 117 123
-0.400898 0.146926 0.292364 50 118 122
-0.400814 0.148646 0.292618 48 119 122
-0.401687 0.150903 0.29275 60 117 118
-0.401603 0.152639 0.293006 72 88 75
-0.401038 0.154108 0.293323 78 78 63
-0.400473 0.155577 0.293639 72 73 63
-0.399907 0.157047 0.293956 75 70 63
-0.399821 0.158795 0.294214 75 69 65
-0.399255 0.160266 0.294531 83 75 65
-0.400826 0.143749 0.290305 47 114 116
-0.400267 0.145202 0.290618 50 121 124
-0.400182 0.146915 0.290869 49 119 122
-0.400096 0.148632 0.29112 51 117 121
-0.40001 0.150355 0.291371 65 107 115
-0.40088 0.152619 0.291498 77 77 70
-0.400316 0.154086 0.291815 76 79 65
-0.399751 0.155553 0.292131 73 77 62
-0.399187 0.157021 0.292447 80 71 58
-0.398622 0.158488 0.292763 82 70 57
-0.400112 0.143741 0.288817 46 118 122
-0.400027 0.145449 0.289064 51 121 122
-0.399467 0.146903 0.289377 49 118 122
-0.399381 0.148618 0.289626 60 120 116
-0.399769 0.150603 0.28981 69 88 91
-0.399682 0.152331 0.29006 80 72 63
-0.39912 0.153794 0.290375 76 69 61
-0.399032 0.155529 0.290626 72 66 60
-0.398944 0.15727 0.290879 79 67 58
-0.39838 0.158738 0.291195 79 67 59
-0.399872 0.143987 0.287264 46 118 122
-0.399786 0.145696 0.287509 49 120 121
-0.399227 0.14715 0.287822 50 118 119
-0.39914 0.148865 0.288068 66 117 113
-0.399527 0.150851 0.288248 76 80 69
-0.398965 0.152312 0.288563 80 75 62
-0.398878 0.154043 0.288811 76 75 63
-0.398315 0.155506 0.289126 76 70 65
-0.398226 0.157244 0.289376 75 69 61
-0.399718 0.14253 0.285469 47 114 118
-0.39916 0.14398 0.285782 49 119 125
-0.399073 0.145685 0.286024 50 120 120
-0.398986 0.147396 0.286267 51 116 121
-0.398899 0.149112 0.286511 64 108 111
-0.399286 0.151099 0.286686 79 75 67
-0.398724 0.15256 0.287 78 74 68
-0.398162 0.154021 0.287315 85 71 66
-0.3976 0.155482 0.28763 82 73 62
-0.397983 0.157493 0.287809 75 68 59
-0.399478 0.142776 0.283918 47 118 123
-0.39892 0.144225 0.284231 48 120 126
-0.398363 0.145675 0.284543 47 118 122
-0.398275 0.147384 0.284784 55 120 119
-0.398658 0.14936 0.284953 62 88 96
-0.39857 0.151081 0.285195 72 73 63
-0.398009 0.15254 0.285509 77 79 67
-0.397448 0.153999 0.285824 82 74 64
-0.396887 0.155458 0.286138 77 69 61
-0.396796 0.157192 0.286382 79 70 61
-0.398768 0.14277 0.282443 46 120 123
-0.398681 0.144471 0.28268 49 118 124
-0.398123 0.145921 0.282992 46 115 121
-0.398034 0.14763 0.28323 63 118 115
-0.397946 0.149345 0.283469 68 74 70
-0.397857 0.151064 0.283709 72 69 58
-0.397768 0.152788 0.283949 74 71 63
-0.396736 0.153978 0.284336 82 68 60
-0.396645 0.155707 0.284578 77 71 62
-0.399085 0.141567 0.280582 45 115 116
-0.398528 0.143015 0.280893 50 121 122
-0.397971 0.144463 0.281205 50 118 121
-0.397883 0.146168 0.28144 46 117 121
-0.397794 0.147877 0.281676 62 110 112
-0.397705 0.149592 0.281913 70 73 68
-0.397146 0.151046 0.282226 78 65 58
-0.397055 0.152768 0.282464 81 69 64
-0.396495 0.154226 0.282778 77 69 63
-0.395934 0.155683 0.283092 72 65 58
-0.398846 0.141813 0.279032 44 118 124
-0.398289 0.143261 0.279344 50 119 123
-0.397732 0.144709 0.279656 48 116 122
-0.397175 0.146157 0.279968 55 119 116
-0.397085 0.147864 0.280201 62 91 98
-0.396995 0.149576 0.280435 75 71 68
-0.396905 0.151294 0.28067 76 68 63
-0.396345 0.152749 0.280983 78 70 65
-0.395785 0.154204 0.281296 77 69 64
-0.398607 0.142058 0.277483 46 117 123
-0.39805 0.143506 0.277794 48 120 122
-0.397492 0.144954 0.278106 48 116 121
-0.397403 0.14666 0.278337 61 115 114
-0.397314 0.14837 0.278568 74 84 73
-0.396755 0.149823 0.278881 74 69 60
-0.396664 0.151541 0.279113 72 69 62
-0.396104 0.152996 0.279427 76 71 65
-0.396012 0.154721 0.27966 81 76 63
-0.398924 0.140855 0.275621 47 112 118
-0.398367 0.142303 0.275933 47 119 120
-0.39781 0.143752 0.276244 48 117 122
-0.397253 0.1452 0.276556 50 117 119
-0.397163 0.146906 0.276784 63 109 112
-0.397073 0.148617 0.277013 79 77 69
-0.396514 0.15007 0.277326 72 68 59
-0.395955 0.151523 0.277639 68 69 61
-0.395396 0.152976 0.277952 76 72 61
-0.395771 0.154969 0.278101 77 73 62
-0.398685 0.141101 0.274071 48 117 122
-0.398128 0.142549 0.274382 51 118 119
-0.39757 0.143997 0.274694 50 118 121
-0.397013 0.145446 0.275006 55 120 118
-0.396923 0.147152 0.275232 57 92 100
-0.396365 0.148603 0.275544 72 75 66
-0.396274 0.150317 0.275771 69 67 60
-0.395715 0.15177 0.276084 74 71 60
-0.395156 0.153223 0.276397 77 67 59
-0.395062 0.154947 0.276626 78 72 65
-0.398445 0.141346 0.27252 46 117 122
-0.397888 0.142795 0.272832 49 117 121
-0.397331 0.144243 0.273144 50 116 122
-0.396774 0.145692 0.273455 62 118 115
-0.396683 0.147399 0.273679 71 80 81
-0.396125 0.14885 0.273991 77 72 61
-0.395567 0.150301 0.274303 75 67 57
-0.395008 0.151752 0.274616 73 67 59
-0.39445 0.153203 0.274928 73 66 62
-0.398294 0.139896 0.27075 44 111 117
-0.398206 0.141592 0.270969 48 117 123
-0.397649 0.14304 0.271281 51 118 120
-0.397091 0.144489 0.271593 49 119 120
-0.396534 0.145938 0.271904 63 111 113
-0.396443 0.147645 0.272126 74 73 67
-0.395885 0.149096 0.272438 75 71 62
-0.395326 0.150547 0.27275 77 72 60
-0.394304 0.151734 0.273151 71 70 59
-0.39421 0.15345 0.273375 74 69 62
-0.398055 0.140141 0.269201 45 115 120
-0.397498 0.141587 0.269512 48 116 123
-0.397409 0.143286 0.26973 50 115 119
-0.396852 0.144735 0.270042 53 119 117
-0.396294 0.146184 0.270353 63 90 102
-0.395737 0.147633 0.270665 73 70 64
-0.395179 0.149082 0.270977 74 68 63
-0.394622 0.150531 0.271288 71 69 61
-0.394064 0.15198 0.2716 68 71 60
-0.393507 0.15343 0.271912 71 67 60
-0.398372 0.138939 0.267341 40 106 110
-0.397816 0.140386 0.267652 46 118 120
-0.397259 0.141833 0.267963 49 117 121
-0.397169 0.143531 0.268179 48 117 121
-0.396612 0.14498 0.26849 59 119 113
-0.396054 0.14643 0.268802 66 77 80
-0.395497 0.147879 0.269114 65 68 63
-0.394939 0.149328 0.269425 66 63 62
-0.394382 0.150777 0.269737 69 64 59
-0.393824 0.152227 0.270049 69 64 58
-0.398133 0.139184 0.265792 45 113 117
-0.397576 0.140631 0.266103 47 118 119
-0.39702 0.142078 0.266414 48 117 118
-0.39693 0.143777 0.266627 48 116 119
-0.396372 0.145226 0.266939 61 113 112
-0.395815 0.146676 0.26725 72 69 70
-0.395257 0.148125 0.267562 69 65 62
-0.394699 0.149574 0.267874 70 64 59
-0.394142 0.151024 0.268185 72 64 57
-0.394047 0.152739 0.268401 72 68 59
-0.397894 0.139429 0.264242 46 118 121
-0.397337 0.140876 0.264553 47 117 121
-0.39678 0.142323 0.264865 48 117 119
-0.39669 0.144023 0.265075 54 118 117
-0.396132 0.145472 0.265387 60 96 101
-0.395575 0.146922 0.265698 75 69 66
-0.395017 0.148371 0.26601 77 67 61
-0.394459 0.149821 0.266322 77 65 61
-0.393902 0.15127 0.266633 73 62 56
-0.397654 0.139674 0.262693 44 116 121
-0.397098 0.141121 0.263004 48 115 121
-0.396541 0.142568 0.263315 48 114 120
-0.39645 0.144269 0.263523 59 116 114
-0.395892 0.145718 0.263835 69 78 77
-0.395335 0.147168 0.264146 73 65 60
-0.394777 0.148617 0.264458 80 62 56
-0.394219 0.150067 0.264769 82 62 58
-0.394125 0.151781 0.26498 73 65 58
-0.397504 0.138228 0.260938 44 112 117
-0.396949 0.139673 0.261248 46 117 123
-0.396858 0.141366 0.261454 49 117 121
-0.396302 0.142814 0.261765 49 113 119
-0.39621 0.144515 0.261971 62 111 114
-0.395653 0.145964 0.262282 76 68 67
-0.395095 0.147414 0.262594 71 63 58
-0.394537 0.148863 0.262905 75 63 55
-0.393979 0.150313 0.263217 78 65 56
-0.394348 0.152294 0.263322 69 65 58
-0.397265 0.138473 0.25939 44 115 120
-0.39671 0.139918 0.2597 44 116 123
-0.396619 0.141612 0.259903 45 117 123
-0.396062 0.143059 0.260214 51 115 119
-0.39597 0.144761 0.260418 61 93 103
-0.395413 0.14621 0.26073 71 67 70
-0.394855 0.14766 0.261041 71 64 60
-0.394297 0.14911 0.261353 70 65 58
-0.394202 0.150823 0.261559 73 67 52
-0.397116 0.13703 0.257642 41 105 109
-0.396561 0.138473 0.257952 45 118 120
-0.39647 0.140162 0.258152 48 117 121
-0.395914 0.141608 0.258463 45 116 121
-0.395823 0.143305 0.258664 57 117 115
-0.39573 0.145006 0.258865 66 82 79
-0.395173 0.146456 0.259177 68 66 67
-0.394615 0.147906 0.259488 70 68 65
-0.394057 0.149356 0.2598 70 65 62
-0.393962 0.15107 0.260003 68 65 58
-0.396878 0.137274 0.256096 43 109 115
-0.396322 0.138717 0.256406 47 118 120
-0.396231 0.140407 0.256603 47 116 120
-0.395675 0.141853 0.256914 46 116 118
-0.395583 0.14355 0.257113 62 113 111
-0.39549 0.145252 0.257312 69 73 69
-0.394933 0.146702 0.257623 70 65 62
-0.394375 0.148152 0.257935 76 67 63
-0.393817 0.149603 0.258246 79 66 61
-0.393721 0.151317 0.258448 76 66 61
-0.396175 0.137276 0.254664 45 114 120
-0.396084 0.138962 0.254859 46 117 121
-0.395528 0.140405 0.255169 48 115 119
-0.395436 0.142098 0.255365 50 116 117
-0.395343 0.143796 0.255561 67 95 101
-0.394786 0.145243 0.255872 76 69 62
-0.394229 0.146691 0.256183 76 63 58
-0.394135 0.148399 0.256381 76 65 59
-0.393577 0.149849 0.256693 78 66 58
-0.396491 0.136079 0.25281 42 105 107
-0.395937 0.13752 0.25312 46 117 122
-0.395382 0.138961 0.253429 47 116 122
-0.39529 0.14065 0.253622 48 113 119
-0.395197 0.142343 0.253816 58 116 114
-0.395104 0.144041 0.25401 69 83 82
-0.394547 0.145489 0.254321 74 69 60
-0.39399 0.146937 0.254632 71 63 57
-0.393432 0.148385 0.254943 71 63 58
-0.393336 0.150095 0.255139 72 63 57
-0.39579 0.136082 0.251385 43 112 114
-0.395698 0.137764 0.251575 46 118 122
-0.395144 0.139205 0.251884 48 116 120
-0.395051 0.140894 0.252075 46 115 119
-0.394958 0.142588 0.252266 59 111 113
-0.394864 0.144287 0.252458 66 75 70
-0.394307 0.145735 0.252769 74 63 60
-0.39375 0.147183 0.25308 75 61 57
-0.393193 0.148631 0.253391 71 63 57
-0.395644 0.134649 0.249655 35 96 101
-0.395552 0.136326 0.249842 44 116 118
-0.394998 0.137765 0.250151 46 118 122
-0.394905 0.13945 0.250339 46 115 121
-0.394812 0.141139 0.250528 49 115 119
-0.394718 0.142833 0.250717 59 98 105
-0.394162 0.144279 0.251027 66 72 70
-0.394067 0.145981 0.251217 74 63 59
-0.39351 0.147429 0.251528 76 62 58
-0.392953 0.148878 0.251839 73 65 57
-0.394946 0.134654 0.248238 39 105 110
-0.394853 0.136329 0.248423 44 116 122
-0.39476 0.138009 0.248608 46 117 123
-0.394206 0.139449 0.248917 46 114 121
-0.394573 0.141384 0.24898 56 116 115
-0.394479 0.143078 0.249167 62 88 84
-0.393922 0.144525 0.249477 64 68 65
-0.393366 0.145971 0.249787 70 64 57
-0.39281 0.147417 0.250098 70 62 59
-0.392713 0.149124 0.250286 69 64 58
-0.393886 0.132758 0.246769 29 89 91
-0.393792 0.134423 0.24695 41 113 117
-0.394156 0.136333 0.247007 44 116 123
-0.394062 0.13801 0.24719 46 115 121
-0.393968 0.139693 0.247373 47 114 118
-0.393873 0.14138 0.247557 60 113 113
-0.393778 0.143072 0.247742 68 76 71
-0.393223 0.144517 0.248051 68 62 59
-0.392667 0.145961 0.248361 71 64 57
-0.39257 0.147663 0.248547 69 62 58
-0.392473 0.14937 0.248734 68 63 58
-0.393195 0.132767 0.245363 38 97 99
-0.392646 0.134194 0.24567 43 116 120
-0.393005 0.136097 0.245723 46 116 123
-0.393366 0.138011 0.245776 46 113 121
-0.393271 0.139691 0.245957 49 115 116
-0.393634 0.141624 0.246011 57 100 103
-0.39308 0.143067 0.246321 66 68 66
-0.392983 0.144762 0.246503 73 62 59
-0.392428 0.146206 0.246813 72 66 59
-0.391872 0.147651 0.247123 68 63 58
-0.392505 0.132775 0.243962 41 105 108
-0.392409 0.134435 0.244139 45 115 119
-0.39186 0.135863 0.244445 47 115 121
-0.392217 0.137771 0.244494 45 113 120
-0.393033 0.139935 0.244415 55 116 114
-0.393396 0.141869 0.244465 60 84 82
-0.392841 0.143311 0.244774 63 66 61
-0.392286 0.144754 0.245084 71 63 58
-0.392188 0.146452 0.245264 70 67 59
-0.391633 0.147896 0.245574 66 65 58
-0.391818 0.132783 0.242564 42 112 114
-0.391721 0.134441 0.242739 45 114 120
-0.391624 0.136104 0.242914 46 114 120
-0.391527 0.137772 0.24309 44 114 119
-0.392795 0.140179 0.242873 58 113 113
-0.392699 0.141865 0.24305 65 72 69
-0.392602 0.143556 0.243228 64 64 55
-0.392047 0.144999 0.243537 66 63 55
-0.391949 0.146697 0.243715 68 65 56
-0.391132 0.132791 0.24117 44 115 118
-0.391034 0.134447 0.241342 47 116 120
-0.390937 0.136108 0.241515 46 113 120
-0.39129 0.138015 0.241556 48 115 117
-0.392557 0.140422 0.241331 59 99 105
-0.39246 0.142109 0.241505 68 72 69
-0.392363 0.143801 0.241681 66 63 55
-0.391808 0.145243 0.24199 66 65 56
-0.39171 0.146942 0.242166 67 64 57
-0.390994 0.13138 0.239475 40 103 106
-0.390448 0.132799 0.239779 44 114 119
-0.39035 0.134453 0.23995 47 116 120
-0.390701 0.13635 0.239986 46 113 120
-0.391053 0.138257 0.240023 54 115 114
-0.392319 0.140666 0.239788 64 83 85
-0.391765 0.142105 0.240096 69 68 62
-0.391667 0.143794 0.240269 69 64 54
-0.391569 0.145488 0.240443 69 63 53
-0.39147 0.147188 0.240617 68 62 55
-0.390759 0.13162 0.237952 41 109 112
-0.390213 0.13304 0.238256 44 115 120
-0.390114 0.134694 0.238424 46 115 119
-0.390015 0.136353 0.238593 45 114 119
-0.390817 0.138499 0.238489 58 110 111
-0.391625 0.140664 0.238383 68 75 68
-0.391527 0.142349 0.238553 69 63 55
-0.390973 0.143787 0.238862 71 64 51
-0.390874 0.145479 0.239033 71 63 48
-0.390623 0.130212 0.236264 35 96 98
-0.390077 0.13163 0.236568 42 111 116
-0.389978 0.13328 0.236733 45 116 119
-0.389432 0.1347 0.237037 46 114 118
-0.38978 0.136594 0.237065 47 114 117
-0.39058 0.138742 0.236954 61 101 105
-0.390481 0.140416 0.237122 69 70 61
-0.390834 0.142344 0.23715 70 62 55
-0.390735 0.144032 0.237319 69 63 55
-0.390635 0.145724 0.237487 71 65 51
-0.390388 0.130452 0.234743 39 103 107
-0.389843 0.13187 0.235046 44 114 120
-0.389743 0.13352 0.23521 47 115 119
-0.389197 0.13494 0.235514 47 114 118
-0.389544 0.136836 0.235537 53 114 114
-0.389893 0.138742 0.235561 65 87 87
-0.389793 0.140414 0.235726 70 65 57
-0.389242 0.141845 0.236033 69 60 56
-0.390044 0.144025 0.235917 67 64 57
-0.389943 0.145715 0.236083 67 65 54
-0.390699 0.129274 0.232917 25 88 92
-0.390153 0.130692 0.233221 40 108 114
-0.389608 0.132109 0.233525 45 115 121
-0.389062 0.133528 0.233828 47 114 120
-0.388962 0.135181 0.23399 47 114 119
-0.388861 0.136839 0.234152 58 111 111
-0.389207 0.138742 0.234171 68 76 69
-0.389107 0.140413 0.234334 69 62 57
-0.388557 0.141841 0.23464 69 61 55
-0.388455 0.143519 0.234804 68 65 53
-0.389705 0.145959 0.23454 66 66 53
-0.390464 0.129513 0.231396 32 96 98
-0.389919 0.130931 0.231699 40 111 116
-0.389373 0.132349 0.232003 44 114 121
-0.388828 0.133768 0.232307 46 114 120
-0.388282 0.135186 0.23261 49 116 120
-0.388626 0.137079 0.232625 57 102 107
-0.388078 0.138502 0.23293 67 71 66
-0.388422 0.140411 0.232946 67 65 58
-0.387428 0.141592 0.233396 66 62 54
-0.387324 0.143264 0.233557 65 63 52
-0.39023 0.129753 0.229873 37 102 107
-0.389684 0.131171 0.230177 41 114 119
-0.389139 0.132589 0.230481 44 114 120
-0.388593 0.134008 0.230784 44 113 119
-0.388047 0.135426 0.231088 56 116 116
-0.387945 0.137082 0.231246 58 84 93
-0.387843 0.138743 0.231403 63 67 63
-0.387295 0.140166 0.231708 66 64 58
-0.386748 0.141589 0.232013 65 61 55
-0.386643 0.143259 0.232172 63 61 57
-0.389995 0.129993 0.228351 40 107 116
-0.38945 0.131411 0.228655 44 115 121
-0.388904 0.132829 0.228958 45 113 120
-0.388358 0.134248 0.229262 45 113 118
-0.387812 0.135666 0.229566 60 113 113
-0.387266 0.137085 0.229869 67 72 75
-0.387163 0.138744 0.230025 66 64 59
-0.386616 0.140164 0.230329 68 64 56
-0.38607 0.141585 0.230633 66 61 52
-0.385523 0.143007 0.230938 64 61 52
-0.389761 0.130232 0.226828 43 111 116
-0.389215 0.131651 0.227132 44 114 120
-0.388669 0.133069 0.227436 44 113 120
-0.388123 0.134488 0.227739 46 113 119
-0.387577 0.135906 0.228043 58 104 109
-0.387031 0.137325 0.228347 69 69 68
-0.386485 0.138744 0.22865 71 64 52
-0.385939 0.140163 0.228954 69 64 50
-0.385393 0.141582 0.229258 68 60 50
-0.390072 0.129054 0.225002 39 102 105
-0.389526 0.130472 0.225305 42 112 118
-0.38898 0.131891 0.225609 44 113 120
-0.388434 0.133309 0.225913 44 111 118
-0.387888 0.134728 0.226216 51 115 116
-0.387342 0.136147 0.22652 59 84 94
-0.386796 0.137566 0.226823 67 69 66
-0.38625 0.138985 0.227127 67 63 53
-0.385264 0.140162 0.227582 66 61 53
-0.384719 0.141579 0.227886 68 59 49
-0.390383 0.127875 0.223175 22 88 93
-0.389837 0.129293 0.223479 39 107 111
-0.389291 0.130712 0.223782 44 115 119
-0.388745 0.132131 0.224086 43 113 120
-0.388199 0.133549 0.224389 44 113 118
-0.387653 0.134968 0.224693 55 112 112
-0.387107 0.136387 0.224997 65 73 74
-0.386561 0.137806 0.2253 68 59 55
-0.385575 0.138985 0.225758 68 61 50
-0.385029 0.140402 0.226061 67 61 47
-0.390694 0.126696 0.221348 21 81 90
-0.389702 0.12789 0.221812 33 94 97
-0.389157 0.129307 0.222115 41 110 115
-0.388612 0.130723 0.222418 44 115 119
-0.38851 0.132371 0.222562 44 113 118
-0.387964 0.133789 0.222866 45 111 117
-0.387418 0.135208 0.223169 58 103 108
-0.386872 0.136628 0.223473 67 69 61
-0.386326 0.138047 0.223777 69 62 56
-0.38534 0.139225 0.224236 69 61 51
-0.384795 0.140643 0.22454 68 62 46
-0.390013 0.126713 0.219987 23 82 87
-0.389467 0.128129 0.22029 41 101 103
-0.388922 0.129546 0.220593 44 111 120
-0.388377 0.130963 0.220896 46 114 120
-0.387832 0.13238 0.221199 43 112 117
-0.387729 0.13403 0.221342 51 116 115
-0.387183 0.135449 0.221646 58 85 92
-0.386637 0.136868 0.221949 66 68 54
-0.386091 0.138287 0.222253 68 62 54
-0.385105 0.139466 0.222715 66 60 52
-0.38456 0.140883 0.223018 64 60 51
-0.389778 0.126952 0.218465 21 88 92
-0.389233 0.128369 0.218768 40 108 110
-0.388688 0.129785 0.219071 42 114 117
-0.388143 0.131202 0.219374 46 113 119
-0.387597 0.132619 0.219677 44 111 117
-0.387494 0.13427 0.219818 55 113 112
-0.386948 0.135689 0.220122 63 76 72
-0.386402 0.137108 0.220425 63 62 57
-0.385416 0.138289 0.22089 65 60 52
-0.38487 0.139706 0.221193 64 60 52
-0.389544 0.127191 0.216943 28 94 98
-0.388999 0.128608 0.217246 38 111 115
-0.388453 0.130025 0.217549 42 115 117
-0.387908 0.131442 0.217852 46 113 117
-0.387363 0.132859 0.218155 47 112 117
-0.387259 0.13451 0.218294 55 105 109
-0.386713 0.135929 0.218597 66 68 67
-0.386167 0.137349 0.218901 67 60 58
-0.385181 0.138529 0.219367 65 62 53
-0.384198 0.139705 0.219833 67 59 49
-0.389855 0.126014 0.215118 21 80 89
-0.389309 0.12743 0.215421 37 102 103
-0.388764 0.128847 0.215724 41 112 117
-0.388219 0.130265 0.216027 44 113 119
-0.387673 0.131682 0.21633 44 113 118
-0.387128 0.133099 0.216633 52 115 114
-0.386582 0.134516 0.216936 61 88 94
-0.386478 0.13617 0.217073 67 66 64
-0.385492 0.137351 0.217542 66 62 54
-0.384508 0.13853 0.21801 63 63 49
-0.383963 0.139946 0.218312 66 60 49
-0.389175 0.126031 0.213767 24 84 91
-0.388631 0.127446 0.214069 40 107 110
-0.388529 0.129087 0.214201 45 113 119
-0.387984 0.130504 0.214504 45 114 118
-0.387439 0.131921 0.214807 45 111 117
-0.386893 0.133339 0.21511 58 112 111
-0.386348 0.134756 0.215413 64 75 76
-0.385802 0.136174 0.215716 68 61 61
-0.385257 0.137592 0.216019 67 60 47
-0.384273 0.13877 0.216489 66 61 43
-0.389042 0.124636 0.212117 19 85 93
-0.388498 0.126049 0.212418 28 92 96
-0.388396 0.127685 0.212548 40 109 114
-0.387852 0.1291 0.212851 44 114 119
-0.387307 0.130516 0.213153 44 114 119
-0.386762 0.131931 0.213456 46 112 117
-0.386218 0.133347 0.213758 57 103 110
-0.386113 0.134996 0.21389 62 68 69
-0.385567 0.136414 0.214193 66 60 59
-0.384583 0.137594 0.214666 67 61 50
-0.384038 0.13901 0.214968 67 61 49
-0.388365 0.124655 0.210772 43 103 104
-0.387822 0.126066 0.211074 39 102 104
-0.38772 0.127701 0.211202 42 112 118
-0.387176 0.129114 0.211504 45 115 121
-0.386632 0.130527 0.211806 44 113 120
-0.386088 0.131941 0.212108 50 115 115
-0.385983 0.133586 0.212237 55 88 97
-0.385438 0.135002 0.21254 62 65 65
-0.384894 0.136418 0.212842 68 61 57
-0.384349 0.137834 0.213145 67 62 54
-0.387691 0.124675 0.209432 51 114 119
-0.387148 0.126084 0.209733 43 109 113
-0.386606 0.127493 0.210034 45 117 124
-0.386064 0.128903 0.210335 47 119 126
-0.385521 0.130312 0.210636 46 118 122
-0.384979 0.131722 0.210937 55 114 112
-0.384872 0.133363 0.211065 59 75 76
-0.385204 0.135242 0.211018 65 65 58
-0.384659 0.136658 0.211321 69 61 56
-0.383678 0.137836 0.211797 66 61 55
-0.387018 0.124694 0.208095 44 112 121
-0.386477 0.126101 0.208395 43 114 120
-0.385935 0.127509 0.208696 49 126 133
-0.385393 0.128917 0.208997 52 127 135
-0.384851 0.130324 0.209297 51 124 128
-0.38431 0.131732 0.209598 57 109 112
-0.384203 0.133371 0.209723 65 68 62
-0.384095 0.135014 0.209849 67 63 53
-0.383552 0.136426 0.210151 68 60 54
-0.383008 0.137838 0.210452 66 60 54
-0.385476 0.124279 0.207119 41 106 113
-0.384503 0.125462 0.207596 44 115 123
-0.383964 0.126862 0.207894 54 135 141
-0.383425 0.128262 0.208193 59 136 143
-0.382887 0.129662 0.208492 60 132 134
-0.38321 0.131515 0.208439 59 98 106
-0.383101 0.133149 0.208562 65 63 62
-0.382993 0.134787 0.208686 66 58 52
-0.382451 0.136195 0.208987 68 58 51
-0.381909 0.137603 0.209287 66 60 50
-0.38481 0.124299 0.205792 41 103 109
-0.383839 0.12548 0.20627 41 112 121
-0.383301 0.126878 0.206568 53 135 139
-0.382763 0.128277 0.206867 62 143 146
-0.382225 0.129675 0.207165 67 135 133
-0.382116 0.131299 0.207286 64 83 87
-0.382437 0.133157 0.20723 63 58 63
-0.381896 0.134561 0.207529 65 57 51
-0.381356 0.135966 0.207829 68 58 48
-0.384684 0.122921 0.20417 41 100 105
-0.383715 0.124103 0.20465 40 104 110
-0.383178 0.125499 0.204948 40 109 117
-0.38264 0.126895 0.205246 45 124 129
-0.382103 0.128291 0.205544 57 135 138
-0.381566 0.129688 0.205842 62 119 123
-0.381455 0.13131 0.205961 68 70 70
-0.381345 0.132936 0.20608 63 58 60
-0.380806 0.134337 0.206379 66 60 52
-0.380267 0.135738 0.206678 68 57 47
-0.38499 0.121759 0.202368 43 98 101
-0.384021 0.122942 0.20285 43 102 107
-0.383484 0.124338 0.203148 41 105 113
-0.382518 0.125517 0.203629 41 108 115
-0.381981 0.126912 0.203926 42 110 118
-0.381444 0.128306 0.204224 53 120 120
-0.380908 0.129701 0.204521 56 96 106
-0.380797 0.13132 0.204638 65 65 64
-0.380259 0.132717 0.204936 64 60 55
-0.379722 0.134114 0.205235 63 59 52
-0.379609 0.135743 0.205353 63 59 47
-0.384327 0.121782 0.201051 40 100 106
-0.38336 0.122964 0.201534 41 102 110
-0.382823 0.124358 0.201832 39 107 114
-0.382287 0.125753 0.202129 38 110 115
-0.38175 0.127147 0.202427 40 110 117
-0.381213 0.128542 0.202724 59 119 114
-0.380677 0.129936 0.203022 60 77 82
-0.38014 0.131331 0.20332 66 63 50
-0.379603 0.132726 0.203617 66 63 46
-0.379066 0.134121 0.203915 65 61 44
-0.384202 0.120411 0.19944 35 96 101
-0.383666 0.121805 0.199737 37 102 108
-0.382701 0.122986 0.200222 42 103 111
-0.382165 0.124378 0.200519 44 106 113
-0.382056 0.125988 0.20063 39 109 117
-0.381093 0.127163 0.201113 41 111 120
-0.380557 0.128556 0.20141 57 112 113
-0.380021 0.129949 0.201707 63 72 67
-0.379485 0.131342 0.202004 63 65 56
-0.379372 0.132962 0.202117 63 62 51
-0.378835 0.134357 0.202415 67 60 42
-0.383542 0.120436 0.19813 39 100 102
-0.383006 0.121828 0.198427 41 104 106
-0.38247 0.123221 0.198724 40 104 111
-0.381934 0.124613 0.199021 40 106 114
-0.381398 0.126006 0.199318 39 108 118
-0.380862 0.127399 0.199615 48 115 120
-0.380326 0.128792 0.199912 58 98 105
-0.37979 0.130185 0.200209 62 68 61
-0.379254 0.131578 0.200506 62 54 48
-0.378718 0.132971 0.200803 62 50 45
-0.383312 0.120671 0.196632 41 99 104
-0.382348 0.121851 0.19712 41 104 107
-0.381813 0.123242 0.197416 38 104 112
-0.381278 0.124633 0.197713 38 107 113
-0.380742 0.126024 0.19801 40 111 116
-0.380207 0.127415 0.198306 59 118 116
-0.379672 0.128806 0.198603 64 78 82
-0.379559 0.130421 0.198711 66 57 52
-0.379023 0.131814 0.199008 64 54 46
-0.378487 0.133207 0.199305 61 54 47
-0.383617 0.119513 0.194837 36 97 101
-0.382653 0.120695 0.195327 42 100 106
-0.382118 0.122086 0.195624 40 103 110
-0.381583 0.123477 0.19592 38 105 112
-0.380623 0.124653 0.196408 37 108 114
-0.380088 0.126042 0.196705 42 112 117
-0.379977 0.12765 0.19681 60 114 113
-0.379441 0.129041 0.197107 67 68 67
-0.378906 0.130433 0.197403 68 56 50
-0.37837 0.131824 0.1977 64 57 49
-0.377835 0.133216 0.197996 60 56 48
-0.382958 0.119539 0.193534 38 99 104
-0.382423 0.12093 0.193831 41 101 107
-0.381462 0.122109 0.194322 40 103 111
-0.380928 0.123498 0.194618 39 106 114
-0.380393 0.124887 0.194914 38 108 116
-0.379858 0.126276 0.19521 48 115 116
-0.379324 0.127666 0.195506 56 96 105
-0.379211 0.129277 0.19561 66 64 61
-0.378675 0.130668 0.195907 68 61 51
-0.37814 0.13206 0.196203 65 56 51
-0.382301 0.119566 0.192235 40 99 105
-0.381767 0.120954 0.192531 41 101 108
-0.381232 0.122344 0.192827 40 103 111
-0.380698 0.123733 0.193123 39 106 114
-0.380163 0.125122 0.193419 41 110 116
-0.379628 0.126511 0.193715 57 117 113
-0.379093 0.127901 0.194012 60 79 85
-0.37898 0.129512 0.194113 66 62 56
-0.378444 0.130904 0.19441 68 61 49
-0.377909 0.132295 0.194706 66 57 49
-0.382071 0.1198 0.19074 41 99 105
-0.381537 0.121189 0.191036 41 102 108
-0.381002 0.122578 0.191332 40 103 110
-0.380468 0.123967 0.191628 39 107 112
-0.379933 0.125357 0.191924 44 113 115
-0.379398 0.126746 0.19222 64 114 110
-0.379285 0.128356 0.192319 69 70 61
-0.378749 0.129748 0.192616 64 62 50
-0.378214 0.131139 0.192913 68 59 47
-0.377258 0.132305 0.193405 67 60 46
-0.382376 0.118645 0.188949 34 96 101
-0.381842 0.120034 0.189245 40 99 106
-0.381307 0.121423 0.189541 40 103 109
-0.380772 0.122813 0.189837 41 105 109
-0.380237 0.124202 0.190133 40 108 113
-0.379703 0.125591 0.190429 50 114 116
-0.379168 0.126981 0.190725 64 100 105
-0.379054 0.128591 0.190822 70 63 48
-0.378519 0.129983 0.191119 61 63 43
-0.377983 0.131375 0.191415 65 62 47
-0.381187 0.12006 0.187953 44 99 102
-0.380653 0.121447 0.188248 41 103 107
-0.380119 0.122835 0.188544 42 105 110
-0.380007 0.124437 0.188638 43 111 116
-0.379472 0.125826 0.188934 59 115 114
-0.378937 0.127216 0.18923 60 76 90
-0.378824 0.128827 0.189325 65 61 49
-0.378288 0.130219 0.189621 61 61 43
-0.377752 0.131611 0.189918 63 59 45
-0.380957 0.120294 0.186459 74 93 89
-0.380001 0.121471 0.186959 57 99 99
-0.379889 0.123069 0.18705 46 100 105
-0.379355 0.124457 0.187346 64 122 114
-0.379242 0.126061 0.187438 67 110 105
-0.378707 0.127451 0.187734 70 66 62
-0.378593 0.129062 0.187827 67 52 43
-0.378057 0.130454 0.188123 66 59 46
-0.377521 0.131846 0.18842 64 56 48
-0.379771 0.121705 0.185467 72 85 74
-0.379238 0.12309 0.185762 72 85 77
-0.379125 0.124691 0.185852 73 88 83
-0.379012 0.126296 0.185942 66 74 73
-0.378477 0.127686 0.186238 65 60 49
-0.378362 0.129298 0.186329 64 60 43
-0.377827 0.13069 0.186625 64 57 46
-0.379008 0.123325 0.18427 73 70 62
