ply
format ascii 1.0
element vertex 1221
property float x
property float y
property float z
property uchar diffuse_red
property uchar diffuse_green
property uchar diffuse_blue
end_header
-0.448587 0.0118458 0.244007 86 101 61
-0.447625 0.0134389 0.244175 104 146 74
-0.446666 0.0150269 0.244343 100 149 75
-0.445709 0.0166099 0.24451 93 136 67
-0.444151 0.0181236 0.244797 88 130 62
-0.442003 0.0195617 0.245202 81 122 58
-0.441063 0.0211228 0.245367 70 114 54
-0.439533 0.0226084 0.245649 63 110 52
-0.438601 0.0241574 0.245812 68 112 52
-0.437672 0.0257016 0.245974 78 123 56
-0.436745 0.0272409 0.246136 83 130 60
-0.435822 0.0287755 0.246297 85 133 61
-0.434901 0.0303053 0.246458 93 139 65
-0.433983 0.0318303 0.246618 102 145 71
-0.433068 0.0333505 0.246778 98 143 70
-0.432155 0.0348661 0.246938 90 134 63
-0.431246 0.036377 0.247096 83 126 59
-0.430339 0.0378832 0.247255 75 118 56
-0.430002 0.0394794 0.247299 67 110 53
-0.428533 0.0408816 0.24757 68 104 50
-0.427635 0.0423739 0.247727 73 111 52
-0.427299 0.0439626 0.247771 83 125 59
-0.426964 0.0455512 0.247815 83 127 61
-0.426069 0.0470339 0.247972 83 126 58
-0.425734 0.0486199 0.248015 84 123 58
-0.4254 0.0502057 0.248059 85 123 58
-0.423954 0.0515667 0.248327 83 125 58
-0.423068 0.0530334 0.248481 83 121 56
-0.422184 0.0544956 0.248636 77 117 54
-0.421851 0.0560715 0.24868 72 112 52
-0.421519 0.0576473 0.248723 66 104 52
-0.420639 0.0591002 0.248877 69 106 51
-0.420307 0.0606734 0.248921 82 128 63
-0.419975 0.0622465 0.248964 90 138 66
-0.420736 0.0640798 0.248787 112 164 79
-0.421502 0.065924 0.248609 142 197 100
-0.422827 0.0679162 0.248319 140 196 101
-0.426986 0.0706363 0.247456 137 192 96
-0.432415 0.0737226 0.246336 142 192 99
-0.433834 0.0758157 0.246026 103 127 82
-0.448919 0.0101556 0.24228 81 92 59
-0.44857 0.0118088 0.242325 100 136 72
-0.447606 0.0134046 0.242496 99 148 75
-0.446645 0.0149953 0.242667 92 137 68
-0.445688 0.0165809 0.242837 89 129 62
-0.444127 0.0180972 0.24313 82 124 59
-0.441976 0.0195378 0.243544 71 116 54
-0.441035 0.0211014 0.243711 64 110 49
-0.439503 0.0225896 0.243999 67 112 51
-0.438569 0.0241411 0.244164 77 121 55
-0.437638 0.0256878 0.24433 84 129 58
-0.436126 0.0271526 0.244614 86 133 60
-0.435785 0.0287667 0.244658 93 137 63
-0.434863 0.030299 0.244822 103 146 69
-0.433944 0.0318265 0.244985 100 147 71
-0.433027 0.0333492 0.245148 91 134 64
-0.432114 0.0348672 0.24531 85 126 61
-0.431203 0.0363805 0.245472 76 119 56
-0.430865 0.0379818 0.245516 69 111 50
-0.429957 0.0394878 0.245677 66 107 49
-0.42962 0.0410865 0.245721 72 111 50
-0.428715 0.0425854 0.245882 83 124 56
-0.428378 0.0441814 0.245926 87 127 60
-0.428042 0.0457772 0.24597 81 126 59
-0.427141 0.0472665 0.24613 80 129 60
-0.426805 0.0488597 0.246174 84 125 60
-0.424791 0.0501209 0.246563 84 126 58
-0.424456 0.0517067 0.246607 82 125 57
-0.422461 0.0529492 0.246992 81 123 57
-0.421579 0.0544116 0.247149 79 119 57
-0.421246 0.0559877 0.247192 76 112 52
-0.420913 0.0575637 0.247236 71 105 50
-0.420581 0.0591395 0.24728 64 101 50
-0.419702 0.0605902 0.247436 78 125 59
-0.41937 0.0621634 0.247479 88 135 63
-0.42013 0.0639966 0.247298 104 153 76
-0.420344 0.0657073 0.247229 135 192 96
-0.421662 0.0676957 0.246933 138 197 102
-0.4258 0.0704091 0.246055 135 190 98
-0.430621 0.073338 0.245035 137 191 99
-0.433203 0.0757298 0.244477 113 153 99
-0.449252 0.00845967 0.240547 83 80 57
-0.448902 0.0101158 0.240593 104 120 70
-0.447936 0.0117169 0.240767 104 146 77
-0.446974 0.013313 0.24094 94 141 69
-0.446625 0.0149635 0.240986 89 131 62
-0.445666 0.0165518 0.241159 84 124 58
-0.444103 0.0180707 0.241458 74 116 54
-0.44255 0.0195801 0.241755 66 109 51
-0.441006 0.02108 0.24205 68 109 50
-0.440066 0.0226413 0.242219 75 119 55
-0.438537 0.0241248 0.242512 82 128 60
-0.437017 0.025599 0.242802 85 131 62
-0.43609 0.0271411 0.242969 92 137 64
-0.435166 0.0286785 0.243136 103 146 68
-0.434245 0.030211 0.243302 101 150 72
-0.433905 0.0318226 0.243347 90 136 64
-0.432987 0.0333478 0.243512 85 128 60
-0.432072 0.0348683 0.243677 78 122 58
-0.431159 0.036384 0.243841 70 113 54
-0.430821 0.0379878 0.243886 66 108 49
-0.430482 0.0395916 0.24393 71 111 52
-0.430144 0.0411952 0.243975 83 123 56
-0.429236 0.0426986 0.244139 87 127 60
-0.428898 0.0442996 0.244183 89 129 59
-0.427994 0.0457958 0.244346 85 128 57
-0.427656 0.0473941 0.244391 81 126 59
-0.426755 0.0488832 0.244553 83 124 57
-0.425857 0.0503676 0.244715 82 126 57
-0.423847 0.051622 0.245111 83 126 60
-0.422405 0.052979 0.245387 81 124 56
-0.420973 0.0543277 0.245661 80 122 56
-0.42064 0.0559039 0.245705 76 116 53
-0.420308 0.05748 0.245749 74 111 51
-0.419975 0.059056 0.245793 63 100 52
-0.419097 0.0605069 0.245951 76 120 55
-0.418765 0.0620803 0.245994 87 130 58
-0.419523 0.0639134 0.245809 97 145 69
-0.419737 0.0656241 0.245738 126 184 90
-0.420501 0.0674758 0.245551 137 199 103
-0.424619 0.0701826 0.244657 135 191 98
-0.428262 0.0728081 0.243863 134 187 98
-0.431984 0.0754905 0.243051 123 164 97
-0.449586 0.00675801 0.238808 78 74 57
-0.448617 0.00836731 0.238985 102 107 67
-0.448268 0.0100235 0.239031 109 143 79
-0.447918 0.0116796 0.239077 97 141 72
-0.446954 0.0132784 0.239254 89 132 64
-0.445992 0.014872 0.23943 84 126 60
-0.445034 0.0164606 0.239605 74 117 54
-0.444079 0.0180441 0.23978 66 109 48
-0.443126 0.0196226 0.239954 67 109 49
-0.441576 0.0211272 0.240256 75 119 55
-0.43944 0.0225517 0.240682 83 130 59
-0.438504 0.0241083 0.240854 86 132 60
-0.436982 0.025585 0.24115 90 135 65
-0.43547 0.0270526 0.241444 98 146 71
-0.434547 0.0285902 0.241613 101 152 73
-0.434206 0.0302045 0.241658 91 138 65
-0.433286 0.0317347 0.241826 87 129 58
-0.432946 0.0333464 0.241871 82 120 54
-0.43203 0.0348693 0.242039 71 112 54
-0.43169 0.0364783 0.242084 66 107 53
-0.430777 0.0379939 0.242251 68 111 52
-0.430438 0.0396002 0.242295 77 121 55
-0.430099 0.0412064 0.24234 85 128 60
-0.42919 0.0427122 0.242507 86 129 60
-0.428851 0.0443157 0.242551 87 128 60
-0.428513 0.0459192 0.242596 86 128 57
-0.427042 0.0473083 0.242882 83 127 56
-0.426705 0.0489067 0.242927 83 127 56
-0.425805 0.0503935 0.243092 82 126 59
-0.423793 0.0516497 0.243495 80 126 60
-0.422349 0.0530088 0.243776 82 125 56
-0.420915 0.0543596 0.244056 79 124 58
-0.420582 0.0559383 0.2441 75 120 55
-0.419702 0.0573964 0.244261 76 112 51
-0.419369 0.0589725 0.244305 68 103 51
-0.418493 0.0604236 0.244466 77 114 54
-0.41816 0.0619972 0.244509 85 129 62
-0.418371 0.0637002 0.244436 93 140 66
-0.419129 0.0655409 0.244246 117 172 82
-0.419891 0.0673925 0.244054 134 195 99
-0.42344 0.0699568 0.243264 135 190 95
-0.427065 0.072576 0.242456 131 186 94
-0.431354 0.0754047 0.241504 133 177 98
-0.44992 0.00505058 0.237063 78 72 52
-0.44895 0.00666532 0.237243 102 103 65
-0.4486 0.00832441 0.23729 111 147 81
-0.447633 0.00993126 0.237469 99 144 73
-0.447283 0.0115875 0.237515 91 131 64
-0.446934 0.0132437 0.237561 84 124 60
-0.445971 0.01484 0.23774 73 117 56
-0.445011 0.0164312 0.237919 64 110 51
-0.444054 0.0180174 0.238097 64 108 46
-0.4431 0.0195985 0.238274 72 118 50
-0.442149 0.0211746 0.238451 79 128 58
-0.440005 0.0226034 0.238887 83 132 62
-0.438471 0.0240918 0.239191 89 135 63
-0.436947 0.025571 0.239492 99 147 68
-0.435432 0.027041 0.239792 101 153 74
-0.433927 0.0285019 0.24009 92 140 69
-0.433586 0.0301164 0.240135 86 131 60
-0.433246 0.0317307 0.24018 80 123 58
-0.432327 0.0332587 0.240351 74 113 54
-0.431987 0.0348703 0.240396 67 108 50
-0.431647 0.0364819 0.24044 69 111 50
-0.430733 0.038 0.24061 78 121 54
-0.430393 0.0396089 0.240655 85 129 57
-0.430054 0.0412177 0.2407 88 129 58
-0.429143 0.0427259 0.240869 89 130 60
-0.428804 0.044332 0.240914 87 129 59
-0.428465 0.045938 0.240958 86 127 58
-0.427559 0.0474364 0.241127 85 125 56
-0.426091 0.048821 0.241418 84 126 57
-0.425192 0.0503081 0.241586 80 126 60
-0.423738 0.0516775 0.241874 83 126 59
-0.422293 0.0530387 0.242161 84 125 58
-0.420308 0.0542755 0.242566 82 124 56
-0.419975 0.0558544 0.24261 80 120 57
-0.419642 0.0574331 0.242654 78 113 54
-0.419309 0.0590117 0.242698 72 106 50
-0.418431 0.0604651 0.242861 74 106 52
-0.418098 0.0620411 0.242905 84 128 62
-0.417766 0.0636171 0.242949 89 136 66
-0.418521 0.0654576 0.242754 109 164 77
-0.419282 0.0673091 0.242558 135 195 97
-0.422824 0.0698727 0.241751 134 188 94
-0.425872 0.0723445 0.241052 130 184 92
-0.43014 0.0751662 0.240085 135 184 97
-0.45088 0.00337936 0.235175 76 68 50
-0.449905 0.00500206 0.235359 98 96 56
-0.448933 0.00661954 0.235542 112 147 74
-0.447964 0.00823184 0.235725 100 146 74
-0.447613 0.00989096 0.235771 90 133 66
-0.446648 0.0114954 0.235953 87 127 62
-0.446298 0.0131517 0.236 78 119 57
-0.445337 0.0147483 0.236181 66 111 52
-0.444988 0.0164018 0.236227 64 106 49
-0.444029 0.0179906 0.236408 73 113 50
-0.443074 0.0195744 0.236588 80 126 56
-0.441519 0.0210841 0.236901 84 132 60
-0.440572 0.0226555 0.23708 88 134 61
-0.438438 0.0240752 0.237522 97 144 67
-0.436912 0.0255569 0.237829 102 151 71
-0.435395 0.0270293 0.238135 94 141 68
-0.433887 0.0284926 0.238438 87 131 63
-0.432967 0.0300282 0.238612 82 124 58
-0.432626 0.0316427 0.238657 74 115 53
-0.432285 0.0332571 0.238702 68 108 49
-0.431945 0.0348714 0.238747 67 108 49
-0.431604 0.0364856 0.238792 75 117 53
-0.431263 0.0380996 0.238837 83 127 58
-0.430348 0.0396175 0.23901 88 130 59
-0.430008 0.0412289 0.239054 88 129 59
-0.429096 0.0427395 0.239227 88 128 60
-0.428757 0.0443482 0.239271 87 130 61
-0.427848 0.0458516 0.239443 85 128 61
-0.42751 0.0474576 0.239488 83 127 57
-0.426604 0.0489538 0.239659 82 126 56
-0.42514 0.0503338 0.239954 81 126 58
-0.424242 0.0518187 0.240124 83 126 59
-0.422236 0.0530687 0.24054 83 124 60
-0.420249 0.0543073 0.240953 85 123 59
-0.419915 0.0558887 0.240998 85 120 58
-0.419035 0.0573492 0.241164 80 116 56
-0.418702 0.058928 0.241208 75 108 52
-0.418369 0.0605067 0.241252 72 103 51
-0.418036 0.0620852 0.241296 84 124 62
-0.417702 0.0636636 0.241339 89 134 65
-0.417913 0.0653744 0.241262 105 155 74
-0.418672 0.0672257 0.241061 133 189 93
-0.422208 0.0697886 0.240239 132 189 94
-0.424683 0.0721138 0.239653 127 183 93
-0.428929 0.0749284 0.238671 132 184 94
-0.451218 0.00165769 0.233416 70 65 58
-0.450241 0.00328591 0.233603 85 89 59
-0.449889 0.00495334 0.233649 108 148 74
-0.448915 0.0065736 0.233836 100 147 75
-0.447945 0.00818865 0.234021 90 133 68
-0.446977 0.00979854 0.234207 85 126 63
-0.446627 0.0114577 0.234253 80 119 56
-0.445663 0.0130597 0.234437 69 112 50
-0.445314 0.014716 0.234484 64 107 48
-0.444353 0.0163102 0.234668 71 112 50
-0.443396 0.0178993 0.234851 81 124 60
-0.442442 0.0194834 0.235034 84 132 65
-0.441491 0.0210624 0.235216 84 135 62
-0.439943 0.0225652 0.235533 93 144 65
-0.439 0.0241319 0.235713 101 149 70
-0.436876 0.0255427 0.236161 95 140 68
-0.435357 0.0270176 0.236472 89 132 63
-0.433847 0.0284833 0.236781 83 125 59
-0.432925 0.0300214 0.236958 76 118 55
-0.432584 0.0316385 0.237003 67 110 50
-0.431665 0.0331692 0.237179 67 109 49
-0.431325 0.0347836 0.237224 73 118 52
-0.430984 0.0363979 0.237269 81 127 58
-0.430644 0.0380121 0.237314 84 130 59
-0.430303 0.0396262 0.237359 86 129 59
-0.429389 0.0411418 0.237534 87 129 60
-0.429049 0.0427532 0.237579 88 128 60
-0.428139 0.0442616 0.237753 87 128 61
-0.427799 0.0458703 0.237798 88 127 60
-0.426892 0.0473714 0.237972 83 127 58
-0.426554 0.0489774 0.238017 81 126 57
-0.42565 0.0504713 0.23819 83 126 57
-0.423629 0.0517333 0.238617 84 127 58
-0.422735 0.0532139 0.238788 85 125 57
-0.420739 0.0544557 0.239211 88 123 59
-0.419307 0.0558046 0.239505 88 121 59
-0.418974 0.0573859 0.239549 84 119 56
-0.41864 0.0589672 0.239593 78 111 52
-0.418306 0.0605483 0.239637 68 103 52
-0.417973 0.0621294 0.239681 82 123 60
-0.417639 0.0637103 0.239725 88 130 63
-0.41785 0.0654238 0.239645 101 149 71
-0.418062 0.0671424 0.239564 127 183 89
-0.421592 0.0697045 0.238726 129 186 95
-0.424062 0.0720292 0.238129 126 180 92
-0.427722 0.0746913 0.23726 128 179 92
-0.454085 7.80873e-05 0.231071 68 70 59
-0.451833 0.00164269 0.231553 77 87 62
-0.450226 0.00323426 0.231887 102 138 72
-0.44925 0.00486003 0.232077 101 149 76
-0.448277 0.00648056 0.232266 93 137 68
-0.447307 0.00809591 0.232454 88 128 61
-0.446341 0.00970608 0.232642 79 122 58
-0.445991 0.0113654 0.232688 69 113 53
-0.445028 0.0129677 0.232875 64 106 47
-0.444678 0.0146241 0.232921 70 109 48
-0.444329 0.0162805 0.232967 79 121 58
-0.44337 0.0178723 0.233154 82 132 71
-0.442414 0.019459 0.23334 83 136 70
-0.440859 0.0209717 0.233663 92 143 65
-0.439313 0.0224749 0.233985 99 149 70
-0.438967 0.0241153 0.234031 95 143 69
-0.438026 0.0256796 0.234214 89 133 62
-0.435907 0.0270833 0.234668 84 125 58
-0.434391 0.0285535 0.234984 77 118 54
-0.432884 0.0300146 0.235298 69 111 51
-0.432542 0.0316343 0.235343 66 108 49
-0.431622 0.0331675 0.235522 72 115 50
-0.431281 0.0347845 0.235567 78 126 55
-0.43094 0.0364014 0.235612 82 129 58
-0.430599 0.0380182 0.235657 85 129 59
-0.429683 0.0395389 0.235835 87 129 59
-0.429342 0.041153 0.23588 87 129 61
-0.42843 0.0426663 0.236058 87 128 60
-0.42809 0.0442777 0.236103 90 128 59
-0.427181 0.0457838 0.236279 89 127 58
-0.426275 0.0472852 0.236456 84 126 58
-0.425936 0.0488913 0.2365 82 126 58
-0.425034 0.0503855 0.236676 84 125 56
-0.424134 0.051875 0.236851 83 127 56
-0.422679 0.0532442 0.237155 86 126 56
-0.42068 0.054488 0.237585 91 123 57
-0.419795 0.0559576 0.237757 90 124 58
-0.418912 0.0574227 0.237929 88 119 57
-0.418578 0.0590065 0.237973 80 114 52
-0.418244 0.0605901 0.238017 66 104 53
-0.41791 0.0621737 0.238061 81 121 58
-0.417575 0.0637571 0.238106 87 130 62
-0.417787 0.0654734 0.238023 97 144 70
-0.417999 0.0671948 0.23794 122 177 86
-0.420975 0.0696203 0.237213 126 186 97
-0.422877 0.0717993 0.236736 125 179 92
-0.425944 0.0743044 0.235987 126 176 88
-0.454714 5.77683e-05 0.229186 70 76 56
-0.453085 0.00166727 0.22953 102 124 70
-0.451466 0.00326645 0.229873 104 147 77
-0.449233 0.00481099 0.230358 95 139 69
-0.448259 0.00643431 0.23055 89 131 62
-0.447287 0.0080524 0.230742 82 123 57
-0.446319 0.00966532 0.230933 71 114 52
-0.445354 0.0112731 0.231123 64 108 49
-0.444392 0.0128757 0.231312 68 109 49
-0.444043 0.0145323 0.231359 79 118 54
-0.443085 0.016127 0.231548 85 129 61
-0.442736 0.0177808 0.231594 85 134 64
-0.441781 0.0193678 0.231782 90 139 67
-0.440228 0.0208809 0.232111 98 148 71
-0.439281 0.0224555 0.232297 97 147 72
-0.438338 0.0240251 0.232483 90 135 63
-0.437992 0.0256655 0.232529 84 127 59
-0.437052 0.0272275 0.232714 77 120 55
-0.434937 0.0286241 0.233176 68 113 51
-0.433424 0.0300895 0.233496 66 109 50
-0.4325 0.03163 0.233678 72 114 51
-0.432158 0.0332523 0.233724 79 124 54
-0.431237 0.0347853 0.233905 80 128 57
-0.430895 0.0364049 0.233951 83 129 58
-0.429978 0.0379306 0.234131 85 129 59
-0.429637 0.0395474 0.234177 86 129 60
-0.428722 0.0410657 0.234357 85 130 61
-0.428382 0.0426799 0.234402 86 129 59
-0.427471 0.0441909 0.234582 90 128 58
-0.426563 0.0456972 0.234761 88 128 58
-0.426224 0.0473061 0.234806 84 127 59
-0.425319 0.0488052 0.234984 84 127 57
-0.42498 0.0504114 0.235029 85 125 57
-0.424641 0.0520176 0.235074 84 127 57
-0.42318 0.0533906 0.235384 87 127 57
-0.421173 0.0546376 0.235824 92 124 58
-0.419734 0.0559922 0.236129 91 124 59
-0.41885 0.0574596 0.236304 90 120 58
-0.418515 0.0590459 0.236348 81 115 52
-0.418728 0.0607582 0.236263 66 107 53
-0.418393 0.0623466 0.236307 79 120 56
-0.418058 0.0639349 0.236352 86 129 62
-0.417723 0.0655231 0.236396 92 141 67
-0.418484 0.0673838 0.23618 117 172 82
-0.420916 0.0696772 0.235568 125 184 97
-0.422256 0.0717147 0.235214 124 177 90
-0.424747 0.0740693 0.234586 124 174 87
-0.454705 -1.77031e-08 0.227441 100 100 65
-0.45371 0.00165215 0.22764 107 143 80
-0.452084 0.00325662 0.227989 97 142 69
-0.450468 0.0048508 0.228336 90 131 61
-0.44824 0.00638787 0.22883 83 124 59
-0.447267 0.00800873 0.229024 72 117 56
-0.446298 0.00962441 0.229218 63 109 50
-0.444718 0.0111807 0.229557 66 108 48
-0.443757 0.0127836 0.229749 75 119 55
-0.443407 0.0144404 0.229796 82 129 61
-0.44245 0.0160354 0.229987 83 132 62
-0.441496 0.0176254 0.230178 89 137 63
-0.440544 0.0192103 0.230368 97 144 68
-0.439596 0.0207902 0.230558 97 147 71
-0.438651 0.0223651 0.230747 91 137 66
-0.438304 0.0240083 0.230793 86 128 61
-0.437362 0.0255755 0.230981 78 122 56
-0.437016 0.0272159 0.231027 68 115 51
-0.436078 0.0287755 0.231215 66 109 49
-0.434554 0.0302474 0.231543 71 114 50
-0.43304 0.0317102 0.231869 78 123 54
-0.432696 0.0333376 0.231914 81 128 57
-0.431772 0.0348754 0.232099 80 129 59
-0.43085 0.0364084 0.232284 82 130 59
-0.430508 0.0380304 0.232329 85 129 59
-0.42959 0.0395559 0.232513 86 129 59
-0.428674 0.0410768 0.232696 86 129 61
-0.427762 0.0425928 0.232878 88 129 59
-0.427421 0.044207 0.232923 89 129 59
-0.426512 0.0457157 0.233105 89 129 59
-0.425605 0.0472197 0.233287 86 126 59
-0.425266 0.0488287 0.233332 86 125 57
-0.424927 0.0504374 0.233377 88 126 57
-0.424024 0.0519317 0.233558 86 128 59
-0.423685 0.0535378 0.233602 88 127 60
-0.422227 0.0549063 0.233917 91 126 58
-0.420225 0.0561464 0.234363 91 123 58
-0.419337 0.0576182 0.234541 89 122 59
-0.419001 0.0592094 0.234586 82 117 55
-0.419216 0.0609272 0.234497 68 108 54
-0.41888 0.0625206 0.234542 78 115 55
-0.418544 0.0641138 0.234586 86 129 62
-0.418208 0.0657069 0.234631 91 139 65
-0.418973 0.0675739 0.234409 113 167 79
-0.420856 0.0697341 0.233917 123 182 95
-0.422198 0.0717752 0.233555 123 175 89
-0.424122 0.0739843 0.233052 121 173 87
-0.455697 -0.00171846 0.225487 99 87 60
-0.454697 -5.79927e-05 0.22569 112 144 81
-0.4537 0.00159704 0.225892 100 142 72
-0.452706 0.00324668 0.226094 91 133 65
-0.451083 0.00484612 0.226448 85 127 60
-0.448845 0.00638822 0.226952 75 118 56
-0.447247 0.00796493 0.227301 66 109 51
-0.446276 0.00958335 0.227497 65 106 49
-0.444694 0.0111424 0.227843 75 116 53
-0.443731 0.012748 0.228038 82 127 60
-0.442772 0.0143484 0.228233 83 132 64
-0.442422 0.0160052 0.228279 88 135 65
-0.441466 0.0175979 0.228473 96 145 70
-0.440514 0.0191855 0.228666 97 149 72
-0.439564 0.020768 0.228859 91 139 66
-0.438617 0.0223455 0.229051 87 130 61
-0.437673 0.023918 0.229242 80 122 57
-0.437326 0.0255612 0.229288 70 115 53
-0.436386 0.027126 0.229479 64 110 50
-0.43604 0.0287665 0.229525 69 112 50
-0.435694 0.0304068 0.229571 77 121 53
-0.434758 0.0319614 0.229761 81 127 56
-0.432654 0.0333361 0.230236 82 128 58
-0.43231 0.034966 0.230282 82 130 61
-0.430805 0.0364118 0.230611 83 129 59
-0.429885 0.0379425 0.230798 87 130 59
-0.429543 0.0395645 0.230843 87 130 59
-0.428626 0.0410878 0.231029 86 129 59
-0.427712 0.0426063 0.231215 89 130 60
-0.426801 0.04412 0.2314 90 129 60
-0.42646 0.0457342 0.231445 88 130 61
-0.42612 0.0473482 0.23149 88 127 60
-0.425779 0.0489622 0.231535 88 127 58
-0.425439 0.050576 0.23158 88 128 58
-0.424533 0.0520748 0.231764 87 127 60
-0.423629 0.0535688 0.231948 89 126 62
-0.422729 0.0550583 0.232131 92 127 59
-0.421274 0.0564221 0.23245 90 123 59
-0.420381 0.0579003 0.232631 90 122 59
-0.420044 0.0594988 0.232676 84 118 55
-0.419706 0.0610972 0.232721 71 110 54
-0.419369 0.0626955 0.232766 80 114 53
-0.419032 0.0642937 0.232811 87 129 61
-0.418695 0.0658918 0.232855 91 138 65
-0.41891 0.0676272 0.232764 108 161 78
-0.420796 0.0697913 0.232261 122 181 94
-0.42214 0.0718359 0.231891 122 174 90
-0.424066 0.0740489 0.231377 118 172 88
-0.456048 -0.00348029 0.223679 92 86 58
-0.455689 -0.00177954 0.223727 111 150 78
-0.454688 -0.000116194 0.223933 100 148 74
-0.453689 0.00154174 0.224138 92 134 64
-0.452694 0.00319426 0.224343 88 127 60
-0.451068 0.00479653 0.224704 78 119 56
-0.449453 0.00638855 0.225062 67 112 52
-0.447226 0.00792095 0.225571 65 107 50
-0.446254 0.00954214 0.225771 72 115 53
-0.444669 0.0111039 0.226123 81 126 58
-0.443094 0.0126558 0.226472 85 130 60
-0.442136 0.0142565 0.226669 89 134 62
-0.441786 0.0159134 0.226716 96 143 68
-0.440832 0.0175064 0.226912 98 149 72
-0.440483 0.0191605 0.226958 92 140 66
-0.439532 0.0207457 0.227154 86 129 61
-0.438583 0.0223258 0.227349 80 122 58
-0.437638 0.0239009 0.227543 73 115 55
-0.437291 0.0255468 0.22759 66 109 51
-0.436944 0.0271926 0.227636 68 111 50
-0.436596 0.0288383 0.227682 75 120 53
-0.435656 0.0304004 0.227876 80 127 55
-0.434718 0.0319576 0.228069 81 128 55
-0.432028 0.0332473 0.228697 82 128 58
-0.431684 0.0348773 0.228743 83 128 59
-0.43134 0.0365073 0.228789 86 128 58
-0.429838 0.0379484 0.229123 89 131 59
-0.428919 0.0394767 0.229312 87 131 60
-0.428004 0.0410002 0.2295 86 129 58
-0.427091 0.042519 0.229688 87 129 59
-0.42675 0.0441359 0.229733 89 129 60
-0.42584 0.0456473 0.229921 87 130 62
-0.425499 0.0472615 0.229966 88 129 60
-0.425159 0.0488757 0.230011 89 129 58
-0.424819 0.0504896 0.230056 89 127 57
-0.424478 0.0521035 0.230102 88 126 58
-0.423573 0.0535999 0.230288 90 126 59
-0.422672 0.0550917 0.230474 91 129 58
-0.421214 0.0564577 0.230799 90 124 60
-0.42032 0.0579382 0.230983 91 123 60
-0.419982 0.0595393 0.231028 88 118 56
-0.419645 0.0611402 0.231073 74 112 55
-0.419307 0.0627411 0.231118 81 115 53
-0.418969 0.0643419 0.231162 86 130 62
-0.418632 0.0659425 0.231207 90 137 65
-0.418847 0.0676808 0.231113 105 157 76
-0.420735 0.0698486 0.2306 122 180 93
-0.422081 0.0718967 0.230221 122 172 89
-0.42344 0.0739637 0.22984 118 170 87
-0.455755 -0.00527727 0.222027 82 87 56
-0.455396 -0.00357623 0.222075 109 147 74
-0.455037 -0.00187536 0.222122 100 148 74
-0.454679 -0.000174575 0.22217 90 135 66
-0.453678 0.00148624 0.222379 86 125 60
-0.452681 0.00314164 0.222587 79 118 56
-0.451054 0.00474679 0.222954 69 112 51
-0.450066 0.00638886 0.22316 64 107 49
-0.448454 0.00797586 0.223523 72 113 52
-0.446231 0.00950078 0.22404 81 124 56
-0.44403 0.0110112 0.224552 83 130 60
-0.443067 0.0126198 0.224752 87 133 61
-0.442107 0.0142233 0.224952 95 142 66
-0.441151 0.0158217 0.225152 98 149 71
-0.440801 0.0174786 0.225198 92 141 67
-0.439848 0.0190691 0.225397 85 131 61
-0.439499 0.0207233 0.225444 79 124 59
-0.438549 0.022306 0.225642 72 115 56
-0.438201 0.0239574 0.225688 68 109 53
-0.437255 0.0255324 0.225886 68 109 52
-0.436907 0.0271809 0.225932 75 118 53
-0.436559 0.0288293 0.225978 81 126 56
-0.435617 0.030394 0.226175 81 129 56
-0.43527 0.0320396 0.226221 81 129 56
-0.433742 0.0335085 0.226566 81 128 57
-0.431058 0.0347887 0.227204 84 128 58
-0.430134 0.0363269 0.227397 88 127 57
-0.428638 0.0377665 0.227735 90 130 60
-0.427723 0.0392929 0.227926 87 131 60
-0.427381 0.0409127 0.227971 88 131 58
-0.426469 0.0424317 0.228161 88 130 58
-0.426128 0.0440488 0.228207 88 130 60
-0.425787 0.0456657 0.228252 88 131 62
-0.424879 0.0471748 0.228442 88 129 61
-0.424538 0.0487891 0.228487 89 129 58
-0.424198 0.0504032 0.228532 90 127 57
-0.423858 0.0520172 0.228578 90 127 58
-0.423517 0.0536311 0.228623 91 127 57
-0.422614 0.0551253 0.228812 92 129 58
-0.421155 0.0564934 0.229142 90 126 60
-0.420259 0.0579761 0.229329 91 125 60
-0.419921 0.0595798 0.229374 89 119 56
-0.419583 0.0611834 0.229419 76 113 54
-0.419245 0.0627868 0.229464 79 115 53
-0.418354 0.0642574 0.22965 87 130 62
-0.418568 0.0659933 0.229554 89 136 64
-0.418784 0.0677345 0.229458 103 153 74
-0.420115 0.0697638 0.229076 122 176 90
-0.421458 0.0718117 0.228691 121 170 86
-0.422813 0.0738785 0.228302 117 167 84
-0.456107 -0.00704852 0.22021 82 78 50
-0.455747 -0.00534451 0.220258 105 138 70
-0.455388 -0.00364061 0.220306 101 147 74
-0.454385 -0.00197118 0.220518 92 136 64
-0.454026 -0.000270245 0.220565 86 128 59
-0.453027 0.00139088 0.220777 79 121 57
-0.452031 0.00304657 0.220988 69 113 51
-0.451039 0.00469688 0.221198 64 108 47
-0.450049 0.00634179 0.221407 70 111 48
-0.448435 0.0079316 0.221776 79 122 55
-0.445589 0.00940752 0.222461 83 129 59
-0.444004 0.0109725 0.222823 85 132 61
-0.44304 0.0125838 0.223027 93 141 66
-0.44147 0.0141312 0.223386 99 149 71
-0.44112 0.015791 0.223433 93 142 69
-0.440165 0.0173869 0.223635 86 132 62
-0.439816 0.0190439 0.223681 79 125 58
-0.439466 0.0207008 0.223728 72 117 55
-0.438515 0.0222862 0.223929 67 110 53
-0.438166 0.0239402 0.223975 68 110 51
-0.437817 0.0255942 0.224022 74 117 54
-0.43687 0.0271692 0.224222 80 125 58
-0.436522 0.0288203 0.224269 82 128 58
-0.436174 0.0304713 0.224315 84 130 59
-0.435231 0.0320359 0.224515 83 130 58
-0.434291 0.0335955 0.224714 83 129 57
-0.43218 0.0349692 0.225215 84 129 57
-0.429509 0.0362385 0.22586 88 129 57
-0.429166 0.0378661 0.225906 89 131 60
-0.427673 0.039301 0.226248 88 131 60
-0.426759 0.0408251 0.226441 89 133 59
-0.425848 0.0423444 0.226634 91 131 59
-0.425507 0.0439616 0.22668 89 131 61
-0.425166 0.0455787 0.226725 89 133 61
-0.424825 0.0471957 0.226771 89 130 60
-0.424484 0.0488125 0.226816 88 130 59
-0.424143 0.0504293 0.226861 91 129 58
-0.423237 0.0519309 0.227053 91 129 58
-0.422897 0.053545 0.227099 93 129 60
-0.422556 0.0551589 0.227144 93 128 59
-0.421654 0.0566507 0.227335 90 127 59
-0.420198 0.0580142 0.22767 91 127 59
-0.419859 0.0596205 0.227715 89 121 56
-0.419521 0.0612266 0.22776 77 115 53
-0.418628 0.062702 0.227949 78 116 52
-0.41829 0.0643055 0.227994 87 131 61
-0.417951 0.0659088 0.228039 90 134 64
-0.41872 0.0677883 0.227797 102 151 73
-0.419494 0.0696791 0.227552 121 172 87
-0.421398 0.0718726 0.227013 118 166 82
-0.422187 0.0737932 0.226764 114 164 81
-0.456748 -0.0070927 0.218266 101 114 61
-0.45574 -0.00541196 0.218482 106 146 77
-0.454735 -0.00373675 0.218698 94 137 68
-0.454375 -0.00203281 0.218746 88 127 60
-0.453374 -0.000365936 0.218961 82 122 56
-0.453015 0.00133503 0.219008 72 113 53
-0.452018 0.0029936 0.219222 64 107 48
-0.451024 0.00464678 0.219436 69 109 48
-0.450032 0.00629454 0.219648 79 120 52
-0.448416 0.00788718 0.220024 83 129 57
-0.446809 0.00946959 0.220397 84 133 60
-0.444595 0.0109876 0.220929 93 140 63
-0.443013 0.0125476 0.221296 98 147 68
-0.441441 0.0140977 0.221661 95 143 69
-0.440483 0.0156991 0.221866 89 132 63
-0.440133 0.0173589 0.221913 82 124 58
-0.43918 0.0189524 0.222117 75 118 54
-0.43883 0.0206094 0.222164 68 111 50
-0.438481 0.0222663 0.22221 67 110 50
-0.438131 0.0239231 0.222257 73 116 52
-0.437782 0.0255797 0.222304 80 125 56
-0.437433 0.0272363 0.22235 82 129 59
-0.436485 0.0288112 0.222554 82 129 59
-0.43554 0.030381 0.222756 84 129 60
-0.435192 0.0320321 0.222803 85 130 59
-0.43425 0.0335942 0.223005 83 130 56
-0.432723 0.0350607 0.223361 83 129 57
-0.431205 0.036518 0.223714 87 129 57
-0.42854 0.0377778 0.224369 88 130 60
-0.427622 0.0393092 0.224566 87 130 60
-0.426707 0.0408357 0.224762 90 132 60
-0.425794 0.0423575 0.224957 91 133 61
-0.425453 0.0439773 0.225003 89 133 61
-0.425111 0.045597 0.225049 90 132 60
-0.42477 0.0472166 0.225094 90 132 60
-0.424428 0.048836 0.22514 88 132 60
-0.423521 0.0503427 0.225334 91 133 60
-0.42318 0.0519594 0.22538 90 132 61
-0.422839 0.0535761 0.225425 94 130 62
-0.421935 0.0550729 0.225619 93 129 60
-0.421595 0.0566868 0.225665 90 128 60
-0.420695 0.0581764 0.225858 91 128 58
-0.420355 0.0597876 0.225903 89 125 58
-0.419458 0.06127 0.226096 77 118 53
-0.418564 0.0627477 0.226288 81 119 54
-0.418225 0.0643537 0.226333 87 131 61
-0.417887 0.0659596 0.226378 91 133 65
-0.418656 0.0678422 0.22613 103 150 71
-0.418873 0.0695943 0.226028 120 169 84
-0.420773 0.0717875 0.22548 114 162 81
-0.422127 0.0738575 0.225076 110 160 81
-0.460385 -0.00875826 0.215569 97 94 58
-0.456742 -0.00716338 0.216482 108 141 78
-0.455732 -0.00547967 0.216701 97 139 71
-0.454725 -0.0038015 0.21692 88 131 65
-0.453722 -0.00212881 0.217138 82 124 61
-0.452722 -0.000461642 0.217355 73 114 53
-0.452363 0.00123948 0.217403 65 106 48
-0.452004 0.00294045 0.217451 67 106 48
-0.451008 0.0045965 0.217668 78 118 54
-0.449383 0.0061999 0.218051 84 127 58
-0.448396 0.00784259 0.218265 85 132 59
-0.446787 0.00942782 0.218645 90 139 63
-0.445809 0.0110574 0.218857 98 146 68
-0.443599 0.0125679 0.219396 96 144 68
-0.442021 0.014123 0.219769 90 134 63
-0.440452 0.0156681 0.220138 85 126 58
-0.440101 0.0173307 0.220185 77 118 55
-0.439751 0.0189932 0.220232 69 113 51
-0.438796 0.0205867 0.22044 66 110 49
-0.438446 0.0222463 0.220486 71 115 51
-0.438096 0.0239058 0.220533 78 124 55
-0.437746 0.0255652 0.22058 81 127 57
-0.436796 0.0271455 0.220786 83 129 58
-0.436447 0.028802 0.220833 82 129 57
-0.435501 0.0303745 0.221039 82 129 59
-0.434557 0.031942 0.221244 84 130 58
-0.433617 0.0335044 0.221448 83 130 57
-0.432091 0.0349713 0.221809 84 130 56
-0.431745 0.0366145 0.221855 86 128 58
-0.43023 0.038067 0.222214 86 129 61
-0.427571 0.0393173 0.222878 86 130 63
-0.426655 0.0408463 0.223077 89 131 62
-0.425741 0.0423705 0.223275 90 134 62
-0.425399 0.043993 0.223321 88 134 63
-0.424489 0.0455098 0.223519 89 133 62
-0.424715 0.0472375 0.223412 91 135 61
-0.423806 0.0487491 0.22361 91 137 64
-0.424031 0.0504816 0.223504 94 139 65
-0.423123 0.051988 0.223701 93 139 66
-0.422217 0.0534898 0.223898 95 137 64
-0.421315 0.0549868 0.224094 92 135 63
-0.420974 0.0566009 0.22414 91 132 62
-0.420634 0.0582149 0.224185 91 131 58
-0.419735 0.0597021 0.224381 89 127 58
-0.419395 0.0613134 0.224426 77 121 55
-0.4185 0.0627935 0.224621 85 120 57
-0.418161 0.0644021 0.224667 88 130 64
-0.417821 0.0660106 0.224712 91 134 66
-0.418036 0.0677575 0.224608 102 150 72
-0.418809 0.0696514 0.224354 117 166 84
-0.420712 0.0718484 0.223795 111 159 80
-0.422068 0.073922 0.223382 108 157 78
-0.462081 -0.0105204 0.213357 92 86 58
-0.461049 -0.00880878 0.213584 109 141 77
-0.456736 -0.0072343 0.214691 100 141 72
-0.455724 -0.0055476 0.214914 91 130 63
-0.454716 -0.00386646 0.215136 85 124 60
-0.453711 -0.00219084 0.215357 75 117 56
-0.452709 -0.000520742 0.215578 66 107 50
-0.45171 0.00114391 0.215798 63 106 49
-0.451352 0.00284504 0.215846 74 115 53
-0.450357 0.00450138 0.216065 84 125 59
-0.449365 0.00615233 0.216283 86 130 60
-0.447748 0.00774824 0.21667 89 136 62
-0.446765 0.00938589 0.216887 95 144 68
-0.445786 0.0110182 0.217102 96 145 70
-0.444809 0.0126453 0.217317 90 135 64
-0.442604 0.0141484 0.217864 84 126 58
-0.441029 0.0156984 0.218241 79 119 54
-0.440069 0.0173025 0.218452 71 112 52
-0.439718 0.0189677 0.218499 67 110 50
-0.439367 0.0206328 0.218546 70 114 51
-0.438411 0.0222262 0.218757 77 122 55
-0.438061 0.0238885 0.218803 81 129 57
-0.437109 0.0254741 0.219013 81 129 57
-0.436759 0.0271335 0.21906 84 128 57
-0.435811 0.0287113 0.219269 81 129 57
-0.434865 0.0302841 0.219477 82 129 57
-0.433923 0.0318518 0.219685 82 129 57
-0.432983 0.0334146 0.219892 83 129 57
-0.43146 0.0348819 0.220257 84 129 57
-0.431113 0.0365252 0.220303 85 129 61
-0.430183 0.0380731 0.220508 87 130 61
-0.428675 0.0395189 0.22087 87 131 63
-0.42603 0.0407584 0.221542 88 132 62
-0.425687 0.0423836 0.221588 88 133 62
-0.424775 0.0439055 0.221788 88 135 64
-0.424433 0.045528 0.221834 92 140 64
-0.424091 0.0471503 0.22188 99 148 68
-0.423749 0.0487726 0.221926 105 157 74
-0.423407 0.0503947 0.221971 112 160 76
-0.423065 0.0520167 0.222017 112 162 81
-0.422158 0.0535208 0.222217 112 158 79
-0.421254 0.0550202 0.222416 104 148 71
-0.420353 0.056515 0.222615 93 140 69
-0.420013 0.0581291 0.22266 90 134 61
-0.419115 0.0596166 0.222858 90 129 58
-0.418775 0.0612281 0.222904 79 125 58
-0.417881 0.0627084 0.223101 87 124 59
-0.417541 0.0643172 0.223147 89 129 64
-0.417202 0.0659258 0.223192 91 136 66
-0.417416 0.0676727 0.223086 100 149 72
-0.418187 0.0695665 0.222827 113 164 84
-0.42065 0.0719094 0.222104 108 155 79
-0.422008 0.0739867 0.221683 104 152 76
-0.46312 -0.0123184 0.211306 89 81 53
-0.462083 -0.010598 0.211537 110 142 74
-0.460385 -0.00890702 0.211949 99 145 74
-0.458697 -0.00722711 0.212359 91 133 64
-0.455716 -0.00561578 0.213121 86 123 57
-0.454706 -0.00393167 0.213346 77 117 55
-0.4537 -0.00225309 0.213571 68 109 51
-0.452696 -0.000580037 0.213795 65 105 48
-0.451696 0.00108751 0.214018 70 113 51
-0.450699 0.00274959 0.21424 80 126 58
-0.45034 0.00445075 0.214288 85 130 62
-0.449347 0.00610457 0.21451 89 133 63
-0.447727 0.00770332 0.214903 95 142 68
-0.446743 0.00934381 0.215123 95 145 71
-0.445762 0.010979 0.215342 90 137 66
-0.444784 0.0126088 0.21556 86 128 59
-0.443809 0.0142334 0.215778 79 121 55
-0.441609 0.0157289 0.216331 70 113 52
-0.440645 0.0173381 0.216546 67 110 50
-0.439685 0.0189421 0.21676 70 112 51
-0.439333 0.02061 0.216808 78 121 55
-0.438981 0.0222777 0.216855 80 127 57
-0.438025 0.0238711 0.217068 81 130 57
-0.437072 0.0254594 0.217281 83 129 57
-0.436121 0.0270425 0.217493 82 128 58
-0.435174 0.0286206 0.217704 81 128 58
-0.43423 0.0301937 0.217915 82 129 58
-0.433288 0.0317617 0.218125 82 130 57
-0.43235 0.0333247 0.218334 83 131 57
-0.431414 0.0348828 0.218543 86 130 59
-0.430482 0.0364359 0.218751 85 130 60
-0.429552 0.0379841 0.218959 86 131 59
-0.428625 0.0395274 0.219166 88 132 61
-0.42655 0.0408676 0.21969 89 133 61
-0.425063 0.0422959 0.220052 88 135 62
-0.42472 0.0439211 0.220098 93 140 65
-0.423809 0.0454406 0.220301 105 156 72
-0.423467 0.0470631 0.220347 114 171 81
-0.423125 0.0486855 0.220393 122 184 90
-0.422783 0.0503078 0.220439 129 188 94
-0.422441 0.0519299 0.220485 134 197 104
-0.422099 0.0535519 0.220531 140 193 103
-0.420632 0.0549341 0.220889 131 175 90
-0.419732 0.056429 0.22109 113 160 91
-0.419392 0.0580433 0.221135 98 148 69
-0.418495 0.0595311 0.221336 91 136 63
-0.418155 0.0611427 0.221381 83 130 62
-0.417261 0.0626233 0.221581 89 131 62
-0.416922 0.0642322 0.221626 90 131 64
-0.417136 0.0659767 0.221518 91 137 66
-0.418463 0.0680051 0.221099 101 150 72
-0.418122 0.0696235 0.221144 109 159 83
-0.421723 0.0722654 0.220091 106 150 76
-0.422519 0.0742026 0.219818 102 148 75
-0.464167 -0.0141287 0.209241 80 83 54
-0.463124 -0.0123994 0.209477 108 141 71
-0.462757 -0.0106551 0.209526 101 148 76
-0.460384 -0.00898177 0.21013 91 135 66
-0.459355 -0.00727254 0.210363 84 127 60
-0.457014 -0.00562678 0.21096 79 118 53
-0.454697 -0.00399709 0.21155 69 110 50
-0.453688 -0.00231556 0.211778 64 105 48
-0.452683 -0.000639584 0.212005 69 111 50
-0.451681 0.00103091 0.212232 78 122 55
-0.450046 0.00265413 0.212634 84 130 59
-0.449687 0.00435546 0.212683 88 132 63
-0.448695 0.00600957 0.212907 94 140 69
-0.447706 0.00765827 0.21313 97 145 71
-0.446721 0.0093016 0.213353 91 138 66
-0.445738 0.0109396 0.213575 85 129 60
-0.444758 0.0125722 0.213797 79 122 55
-0.443782 0.0141996 0.214017 71 116 52
-0.442809 0.0158216 0.214237 66 110 50
-0.441839 0.0174384 0.214457 69 112 50
-0.440261 0.0189831 0.214846 77 120 53
-0.439299 0.0205871 0.215063 81 127 57
-0.438341 0.0221858 0.21528 82 129 58
-0.437989 0.0238536 0.215327 83 129 56
-0.437034 0.0254445 0.215543 84 129 56
-0.436083 0.0270304 0.215758 82 129 58
-0.435134 0.0286111 0.215973 82 128 57
-0.434188 0.0301868 0.216186 82 130 59
-0.433245 0.0317574 0.2164 81 131 59
-0.432306 0.033323 0.216612 83 130 60
-0.430782 0.0347932 0.216988 85 130 60
-0.430435 0.0364394 0.217035 86 131 60
-0.429504 0.0379901 0.217245 87 131 59
-0.427996 0.0394387 0.217618 89 132 60
-0.427073 0.0409774 0.217827 88 134 62
-0.425579 0.0424099 0.218196 90 139 64
-0.424095 0.0438335 0.218563 103 153 71
-0.423752 0.0454587 0.218609 114 168 82
-0.42341 0.0470838 0.218655 116 173 88
-0.422501 0.0485985 0.21886 113 173 89
-0.422159 0.0502209 0.218906 116 175 92
-0.421817 0.0518431 0.218952 126 192 106
-0.421475 0.0534653 0.218998 138 197 108
-0.420571 0.0549674 0.219202 145 197 111
-0.419111 0.0563431 0.219564 145 189 113
-0.41877 0.0579575 0.21961 119 175 89
-0.417875 0.0594456 0.219812 105 155 75
-0.417535 0.0610573 0.219858 94 143 72
-0.416642 0.0625381 0.22006 91 133 65
-0.416303 0.0641472 0.220105 90 133 63
-0.416515 0.0658918 0.219995 90 137 66
-0.41784 0.0679199 0.219569 102 150 71
-0.422579 0.0708348 0.218175 104 156 82
-0.424535 0.0730739 0.217568 103 147 74
-0.42593 0.0751863 0.21712 104 146 75
-0.464541 -0.0159637 0.207352 69 75 53
-0.463497 -0.0142283 0.207592 101 131 66
-0.463128 -0.0124808 0.207641 102 151 76
-0.46276 -0.0107334 0.207691 92 136 68
-0.460383 -0.0090568 0.208305 86 126 59
-0.459353 -0.00734449 0.208541 78 121 55
-0.458325 -0.0056379 0.208777 70 112 51
-0.45599 -0.00400009 0.209381 64 106 47
-0.453677 -0.00237826 0.20998 65 109 48
-0.45267 -0.000699307 0.21021 74 120 53
-0.451667 0.000974125 0.21044 80 127 58
-0.450029 0.0026003 0.210849 87 132 61
-0.449034 0.00426014 0.211076 95 139 66
-0.448676 0.00596147 0.211125 97 145 71
-0.447685 0.00761304 0.211351 92 140 67
-0.446698 0.00925924 0.211578 86 130 60
-0.445714 0.0109 0.211803 79 123 57
-0.444733 0.0125355 0.212028 71 116 53
-0.443755 0.0141656 0.212251 66 111 50
-0.443399 0.0158527 0.212299 68 112 51
-0.442425 0.0174748 0.212522 77 119 53
-0.441454 0.0190915 0.212745 83 126 56
-0.439265 0.0205641 0.213313 82 128 58
-0.438305 0.0221655 0.213533 83 129 59
-0.437349 0.0237619 0.213752 84 129 57
-0.436395 0.0253531 0.21397 83 130 58
-0.436044 0.0270182 0.214017 83 129 58
-0.435094 0.0286015 0.214235 83 129 59
-0.433551 0.0300962 0.214621 84 128 60
-0.433202 0.0317531 0.214668 84 130 61
-0.432261 0.0333213 0.214884 85 129 60
-0.430735 0.034794 0.215266 87 131 58
-0.429802 0.0363499 0.21548 88 131 60
-0.428872 0.0379009 0.215693 87 131 62
-0.427945 0.039447 0.215905 90 133 61
-0.42702 0.0409882 0.216117 87 134 63
-0.425525 0.042423 0.216492 92 143 66
-0.424609 0.0439523 0.216702 104 160 74
-0.423695 0.0454768 0.216911 101 154 74
-0.422785 0.0469965 0.217119 97 143 70
-0.422442 0.0486216 0.217165 95 139 69
-0.421535 0.0501339 0.217373 96 140 68
-0.421193 0.0517563 0.217419 102 145 71
-0.420851 0.0533787 0.217465 110 164 83
-0.419947 0.054881 0.217672 133 183 100
-0.419047 0.0563787 0.217878 146 198 110
-0.418149 0.0578717 0.218084 132 193 112
-0.417809 0.0594861 0.21813 125 177 88
-0.416914 0.0609719 0.218335 107 157 79
-0.416575 0.0625836 0.21838 94 134 64
-0.416235 0.0641953 0.218426 90 134 65
-0.416448 0.0659427 0.218313 90 137 66
-0.417774 0.0679743 0.217878 103 151 71
-0.423093 0.0710412 0.216293 100 150 77
-0.425058 0.0732888 0.215673 101 147 74
-0.425875 0.0752539 0.215384 106 147 76
-0.465597 -0.017796 0.205263 73 70 55
-0.464547 -0.0160515 0.205507 95 107 61
-0.463501 -0.0143129 0.20575 105 150 76
-0.463132 -0.0125624 0.205799 95 139 66
-0.46209 -0.0108327 0.206041 88 130 61
-0.461051 -0.00910872 0.206283 81 122 55
-0.45935 -0.00741673 0.206713 70 116 52
-0.458321 -0.00570706 0.206952 63 108 49
-0.456637 -0.00403465 0.207379 65 108 48
-0.454965 -0.00237321 0.207802 73 118 52
-0.452657 -0.000759252 0.208409 80 126 56
-0.451652 0.000917139 0.208642 84 131 59
-0.450011 0.00254625 0.209057 92 139 65
-0.449015 0.004209 0.209288 98 145 70
-0.448023 0.0058663 0.209518 94 140 67
-0.447664 0.00756765 0.209567 87 131 60
-0.446675 0.00921668 0.209796 81 124 56
-0.44569 0.0108603 0.210025 72 117 54
-0.444707 0.0124986 0.210252 66 111 51
-0.44435 0.0141914 0.2103 68 111 50
-0.443993 0.015884 0.210348 75 119 53
-0.443015 0.0175113 0.210575 82 127 56
-0.44204 0.0191333 0.210802 85 129 58
-0.440454 0.0206801 0.211204 83 128 59
-0.437664 0.0220735 0.211955 84 127 59
-0.436708 0.0236701 0.212177 84 128 59
-0.435755 0.0252616 0.212397 82 130 60
-0.435404 0.0269268 0.212445 82 130 60
-0.434455 0.0285105 0.212665 83 129 59
-0.433509 0.0300891 0.212884 84 129 60
-0.432565 0.0316626 0.213103 86 130 60
-0.432216 0.0333196 0.21315 87 129 60
-0.430688 0.0347947 0.213539 88 132 59
-0.429753 0.0363532 0.213755 89 131 60
-0.428822 0.0379067 0.213971 88 131 62
-0.427314 0.0393581 0.214355 90 133 61
-0.426968 0.0409991 0.214401 86 134 63
-0.426045 0.0425379 0.214615 94 145 68
-0.425125 0.0440719 0.214829 92 144 71
-0.423638 0.0454949 0.215207 91 136 63
-0.422726 0.0470171 0.215419 89 133 61
-0.422383 0.0486449 0.215465 87 131 62
-0.421474 0.0501596 0.215676 87 130 62
-0.420568 0.0516695 0.215886 91 131 60
-0.420226 0.053292 0.215932 92 134 62
-0.419884 0.0549144 0.215978 102 151 72
-0.418425 0.0562926 0.21635 113 174 97
-0.417528 0.0577859 0.216558 116 180 106
-0.417187 0.0594004 0.216604 113 168 86
-0.416294 0.0608865 0.216811 98 148 74
-0.415954 0.0624983 0.216857 91 133 64
-0.415614 0.0641101 0.216902 87 133 66
-0.415826 0.0658576 0.216787 91 138 66
-0.417149 0.0678889 0.216346 104 151 73
-0.424189 0.0713968 0.21423 98 148 74
-0.42617 0.0736573 0.213594 100 149 74
-0.426406 0.0754772 0.213469 114 152 78
-0.467347 -0.0196346 0.202961 70 64 51
-0.465605 -0.0178873 0.203408 97 87 62
-0.465234 -0.0161276 0.203458 109 142 78
-0.464183 -0.014383 0.203705 97 143 69
-0.463136 -0.0126443 0.203951 90 131 59
-0.461419 -0.0109319 0.204392 82 124 57
-0.461051 -0.00918437 0.204441 73 116 53
-0.460014 -0.00746311 0.204685 63 111 50
-0.458317 -0.00577645 0.205121 64 110 49
-0.457289 -0.00406946 0.205363 73 117 54
-0.455609 -0.00240235 0.205795 80 124 57
-0.45329 -0.000782831 0.206413 84 130 60
-0.451637 0.000859951 0.206837 91 140 64
-0.450633 0.00253373 0.207073 96 147 68
-0.448996 0.00415768 0.207494 93 141 68
-0.448636 0.0058648 0.207542 87 131 63
-0.447011 0.00747262 0.20796 81 125 57
-0.446652 0.00917401 0.208008 73 118 53
-0.446294 0.0108753 0.208057 66 112 51
-0.445307 0.0125189 0.208288 67 112 50
-0.444324 0.0141572 0.20852 73 119 53
-0.443966 0.0158527 0.208568 80 129 57
-0.443609 0.0175481 0.208616 83 130 58
-0.44263 0.0191753 0.208846 85 130 58
-0.441037 0.0207271 0.209256 85 129 59
-0.438843 0.0221967 0.209843 83 130 59
-0.436067 0.0235783 0.210601 82 130 59
-0.435115 0.0251701 0.210824 81 129 59
-0.434764 0.0268355 0.210872 82 129 59
-0.433816 0.0284194 0.211094 84 131 58
-0.433465 0.030082 0.211142 82 130 60
-0.432521 0.0316581 0.211363 87 130 60
-0.431579 0.0332292 0.211585 87 130 59
-0.43064 0.0347953 0.211805 89 132 60
-0.429705 0.0363564 0.212025 90 132 61
-0.428189 0.0378174 0.212416 91 132 61
-0.427842 0.0394638 0.212462 89 133 62
-0.426337 0.0409103 0.212851 84 132 63
-0.425991 0.0425513 0.212897 92 142 67
-0.42507 0.0440878 0.213114 89 133 63
-0.424151 0.0456194 0.213329 89 130 62
-0.422667 0.0470377 0.213713 87 129 60
-0.422323 0.0486681 0.213759 86 128 63
-0.421413 0.0501853 0.213973 85 126 61
-0.420506 0.0516977 0.214186 85 127 59
-0.420164 0.0533228 0.214232 84 127 57
-0.41926 0.0548278 0.214444 87 131 61
-0.417802 0.0562065 0.214821 91 135 66
-0.416906 0.0577 0.215032 92 140 68
-0.416566 0.0593147 0.215077 92 138 69
-0.416225 0.0609293 0.215123 91 134 62
-0.415333 0.062413 0.215333 88 131 61
-0.415545 0.0641582 0.215215 88 134 65
-0.415205 0.0657725 0.215261 93 140 67
-0.417082 0.0679434 0.214647 103 152 78
-0.425295 0.0717558 0.212147 102 150 75
-0.426115 0.0737226 0.211846 107 158 77
-0.426351 0.0755456 0.211718 128 168 88
-0.469809 -0.021489 0.200431 70 65 47
-0.468739 -0.0197175 0.200686 91 82 56
-0.466984 -0.0179609 0.201142 111 137 75
-0.465241 -0.0162162 0.201596 99 143 73
-0.464188 -0.0144684 0.201847 90 131 62
-0.463139 -0.0127265 0.202097 85 125 59
-0.46142 -0.0110108 0.202544 74 118 56
-0.460381 -0.00928347 0.202792 65 112 50
-0.460012 -0.00753591 0.202841 65 109 49
-0.458312 -0.00584611 0.203284 72 117 53
-0.456623 -0.00416744 0.203724 80 125 59
-0.4556 -0.00246584 0.203968 83 130 61
-0.453928 -0.000806623 0.204403 89 138 64
-0.452267 0.000841728 0.204836 95 146 69
-0.450616 0.00247927 0.205266 94 144 68
-0.449615 0.00415048 0.205504 89 133 63
-0.448616 0.00581619 0.205742 83 126 60
-0.448256 0.00752607 0.205791 74 120 55
-0.447261 0.00918342 0.206027 66 114 51
-0.446902 0.0108903 0.206076 66 112 49
-0.445911 0.0125394 0.206312 73 118 50
-0.444923 0.014183 0.206547 80 127 56
-0.444565 0.0158841 0.206595 82 131 59
-0.443581 0.0175195 0.206829 83 130 58
-0.4426 0.0191496 0.207063 84 130 58
-0.441623 0.0207743 0.207295 84 130 58
-0.440033 0.022321 0.207711 83 130 57
-0.437236 0.0237086 0.208486 83 132 58
-0.435074 0.0251548 0.209072 82 128 58
-0.434124 0.0267441 0.209298 82 130 58
-0.433177 0.0283284 0.209524 85 132 60
-0.432826 0.029991 0.209571 84 132 60
-0.432476 0.0316536 0.209618 87 131 60
-0.431533 0.0332273 0.209842 89 130 59
-0.430593 0.034796 0.210066 89 132 61
-0.429656 0.0363597 0.210289 89 132 61
-0.428721 0.0379184 0.210511 91 131 60
-0.427209 0.0393745 0.210907 88 132 62
-0.426862 0.0410209 0.210954 83 130 60
-0.425936 0.0425647 0.211174 88 136 63
-0.425014 0.0441037 0.211393 88 132 59
-0.424668 0.0457446 0.21144 88 131 62
-0.423749 0.0472761 0.211659 86 130 62
-0.422832 0.0488027 0.211877 85 126 61
-0.421352 0.0502111 0.212264 80 121 58
-0.421009 0.0518414 0.212311 77 118 57
-0.420101 0.0533536 0.212527 76 117 54
-0.419196 0.0548611 0.212742 82 123 58
-0.417736 0.0562419 0.213125 85 125 61
-0.416839 0.0577378 0.213338 85 128 59
-0.415944 0.059229 0.213551 86 127 61
-0.415604 0.0608438 0.213597 88 127 58
-0.415263 0.0624584 0.213643 89 129 59
-0.414923 0.0640729 0.213689 90 134 64
-0.414583 0.0656873 0.213734 99 146 73
-0.417014 0.067998 0.212943 106 158 86
-0.425824 0.0719677 0.210222 112 160 81
-0.426649 0.0739416 0.209913 121 171 87
-0.427478 0.0759279 0.209603 139 184 97
-0.4716 -0.0233689 0.198077 69 61 45
-0.470522 -0.021585 0.198337 85 79 54
-0.469448 -0.0198071 0.198596 110 137 73
-0.469073 -0.0180265 0.198646 102 147 73
-0.466621 -0.0162815 0.199318 90 132 62
-0.464194 -0.014554 0.199982 86 125 59
-0.463822 -0.0127914 0.200032 80 122 58
-0.462095 -0.0110698 0.200488 69 116 55
-0.461051 -0.00933646 0.20074 64 112 50
-0.460011 -0.00760894 0.200991 73 116 50
-0.458974 -0.00588728 0.201241 79 125 57
-0.457277 -0.00420285 0.201689 83 130 61
-0.455591 -0.00252955 0.202135 87 136 63
-0.453916 -0.000867265 0.202577 94 144 67
-0.452901 0.000823373 0.202822 94 144 68
-0.451243 0.00246644 0.20326 89 135 64
-0.450237 0.00414324 0.203502 87 129 60
-0.449235 0.00581448 0.203744 82 125 58
-0.448873 0.00753004 0.203792 71 118 54
-0.448511 0.00924549 0.203841 66 115 50
-0.44815 0.0109608 0.20389 71 120 51
-0.447152 0.0126179 0.204131 80 127 54
-0.446791 0.0143302 0.204179 82 129 58
-0.445167 0.0159157 0.204609 83 130 58
-0.443553 0.0174908 0.205037 83 131 58
-0.443194 0.0191918 0.205085 83 130 58
-0.442213 0.0208218 0.205322 83 130 58
-0.441234 0.0224465 0.205558 84 130 59
-0.439029 0.0239151 0.206165 84 131 59
-0.436239 0.0252926 0.20695 84 129 58
-0.434081 0.0267314 0.207544 84 130 59
-0.433133 0.0283183 0.207772 84 131 61
-0.432782 0.0299837 0.20782 84 132 60
-0.432431 0.031649 0.207867 88 133 60
-0.431486 0.0332254 0.208094 89 132 60
-0.430545 0.0347967 0.208321 88 134 62
-0.429606 0.0363629 0.208547 89 132 60
-0.429257 0.03802 0.208594 89 132 60
-0.428322 0.0395785 0.20882 86 131 61
-0.42739 0.0411321 0.209044 80 123 58
-0.426461 0.0426808 0.209268 89 134 62
-0.426113 0.0443296 0.209315 90 133 60
-0.425188 0.0458706 0.209538 89 131 60
-0.424841 0.0475167 0.209585 86 130 60
-0.423918 0.0490501 0.209807 84 125 58
-0.422428 0.0504644 0.210203 72 112 54
-0.420946 0.0518699 0.210597 66 107 50
-0.420602 0.0535028 0.210643 65 104 49
-0.419131 0.0548944 0.211034 68 110 52
-0.418228 0.0563995 0.211252 80 119 57
-0.416771 0.0577756 0.211639 83 126 61
-0.416429 0.0593956 0.211685 85 128 61
-0.415534 0.0608866 0.211901 87 128 59
-0.414642 0.0623729 0.212116 87 131 61
-0.414301 0.0639876 0.212162 93 139 64
-0.414512 0.065738 0.212039 109 156 77
-0.416388 0.0679123 0.211405 116 166 93
-0.425182 0.07188 0.208645 125 173 90
-0.427185 0.0741619 0.207969 132 184 95
-0.427424 0.0759974 0.207834 145 198 103
-0.471617 -0.0234717 0.196177 68 64 49
-0.47124 -0.0216816 0.196228 89 96 58
-0.470161 -0.0198974 0.196491 98 144 73
-0.469086 -0.0181194 0.196754 91 132 62
-0.468014 -0.0163475 0.197016 88 128 59
-0.465568 -0.0146109 0.197696 87 127 59
-0.463827 -0.0128743 0.198162 84 126 59
-0.462097 -0.0111494 0.198625 77 123 58
-0.461726 -0.00938979 0.198675 74 121 55
-0.460009 -0.00768228 0.199134 81 127 55
-0.45897 -0.00595748 0.199388 83 132 59
-0.45727 -0.00426989 0.199843 87 135 62
-0.455582 -0.00259347 0.200295 93 142 66
-0.454559 -0.000891454 0.200545 93 144 68
-0.452888 0.000765492 0.200992 90 137 65
-0.452523 0.00249556 0.201042 87 131 61
-0.45151 0.00418062 0.201289 89 131 60
-0.451146 0.00590764 0.201338 87 132 60
-0.450782 0.00763452 0.201387 80 129 58
-0.450418 0.00936126 0.201437 76 125 56
-0.450054 0.0110879 0.201486 80 129 57
-0.449047 0.0127557 0.201732 83 132 59
-0.448684 0.0144792 0.201781 83 133 60
-0.447681 0.0161386 0.202026 82 132 60
-0.446681 0.0177924 0.20227 84 131 59
-0.444421 0.0193029 0.202902 84 131 59
