ply
format ascii 1.0
element vertex 1231
property float x
property float y
property float z
property uchar diffuse_red
property uchar diffuse_green
property uchar diffuse_blue
end_header
-0.371089 -0.0144101 0.225953 35 69 68
-0.370527 -0.0131372 0.226325 33 69 68
-0.369968 -0.0118673 0.226696 33 70 67
-0.369779 -0.0105609 0.226936 29 71 69
-0.36959 -0.00925433 0.227176 28 71 71
-0.369401 -0.0079477 0.227415 30 72 73
-0.369582 -0.00659642 0.227524 35 73 77
-0.369393 -0.00528798 0.227764 41 79 87
-0.369574 -0.00393154 0.227874 42 92 101
-0.369755 -0.00257167 0.227985 48 112 120
-0.369565 -0.00125972 0.228225 57 131 138
-0.369747 0.000105353 0.228336 70 150 155
-0.369557 0.00141912 0.228577 81 163 166
-0.369739 0.00278937 0.228688 79 165 166
-0.369548 0.00410495 0.22893 75 161 161
-0.370103 0.0055404 0.228912 67 148 155
-0.370286 0.0069212 0.229025 58 134 143
-0.37047 0.00830553 0.229137 51 122 133
-0.370654 0.00969339 0.229251 45 112 126
-0.370838 0.0110848 0.229364 42 112 127
-0.370646 0.0124109 0.229607 45 118 132
-0.370455 0.013737 0.22985 53 132 146
-0.370263 0.0150631 0.230093 62 144 154
-0.370071 0.0163894 0.230336 74 155 157
-0.369879 0.0177158 0.230579 83 153 149
-0.369688 0.0190423 0.230823 77 141 139
-0.369496 0.0203689 0.231066 73 119 131
-0.369304 0.0216956 0.231309 76 103 105
-0.592559 -0.100409 0.130909 92 68 59
-0.592241 -0.0982091 0.131312 82 63 56
-0.591923 -0.0960092 0.131715 73 67 52
-0.591605 -0.0938091 0.132119 73 62 49
-0.589123 -0.091406 0.133354 75 59 43
-0.588806 -0.0892147 0.133756 74 57 41
-0.585281 -0.0867492 0.135388 73 56 39
-0.557798 -0.0823645 0.146192 73 56 38
-0.552783 -0.0799378 0.148374 72 57 40
-0.550628 -0.0777588 0.149459 73 54 42
-0.551261 -0.0757867 0.149478 73 59 40
-0.550039 -0.073687 0.150205 75 61 42
-0.548822 -0.0715953 0.150929 72 61 47
-0.548528 -0.0695631 0.151302 70 60 44
-0.55101 -0.0676745 0.150621 67 59 45
-0.550715 -0.0656301 0.150996 68 59 47
-0.550419 -0.0635856 0.151371 70 57 46
-0.550123 -0.0615409 0.151746 70 52 43
-0.549828 -0.0594961 0.152121 70 53 45
-0.551395 -0.0575083 0.151794 72 56 46
-0.540452 -0.0511684 0.156691 71 58 46
-0.376191 -0.0244453 0.22133 69 61 57
-0.375617 -0.0231445 0.221712 67 64 58
-0.375425 -0.0218208 0.221955 70 62 53
-0.374472 -0.0205524 0.222474 76 59 44
-0.374281 -0.0192318 0.222716 71 60 46
-0.373711 -0.0179421 0.223095 67 60 48
-0.372766 -0.0166878 0.223609 66 60 52
-0.3722 -0.0154058 0.223986 65 62 57
-0.370889 -0.0141976 0.224631 61 65 62
-0.369958 -0.0129615 0.225138 55 67 64
-0.369769 -0.011655 0.225377 46 69 64
-0.36958 -0.0103485 0.225617 37 70 66
-0.369391 -0.00904179 0.225856 33 70 69
-0.369202 -0.00773503 0.226096 33 69 69
-0.369013 -0.00642817 0.226335 33 70 69
-0.368824 -0.00512122 0.226575 32 70 71
-0.369004 -0.00376614 0.226683 32 72 73
-0.368815 -0.00245739 0.226923 35 74 78
-0.368626 -0.00114856 0.227163 41 78 85
-0.368806 0.000213382 0.227272 44 91 98
-0.368986 0.00157879 0.227382 49 111 120
-0.368796 0.00289114 0.227622 58 133 140
-0.368977 0.00426175 0.227733 69 150 155
-0.369158 0.00563585 0.227843 76 162 166
-0.369712 0.00707532 0.227823 77 165 167
-0.369894 0.00845824 0.227934 74 160 162
-0.370077 0.00984469 0.228045 67 147 155
-0.370261 0.0112347 0.228157 60 135 145
-0.370445 0.0126283 0.228269 52 121 132
-0.370253 0.0139545 0.228512 46 111 126
-0.370061 0.0152808 0.228755 44 109 126
-0.369869 0.0166073 0.228998 45 119 133
-0.369678 0.0179338 0.229242 52 132 146
-0.369486 0.0192604 0.229485 62 148 157
-0.369294 0.0205871 0.229728 76 156 159
-0.369102 0.0219139 0.229971 85 154 148
-0.36891 0.0232408 0.230214 80 140 136
-0.368718 0.0245677 0.230457 75 116 132
-0.368527 0.0258948 0.230701 77 103 108
-0.591907 -0.0978604 0.129085 104 72 60
-0.591589 -0.0956602 0.129488 89 64 53
-0.590187 -0.0933544 0.130314 89 59 48
-0.58879 -0.0910581 0.131136 88 63 47
-0.588473 -0.0888666 0.131538 83 63 49
-0.586015 -0.0864933 0.132771 78 59 47
-0.571195 -0.0831415 0.138791 76 58 44
-0.55529 -0.079828 0.145215 75 60 44
-0.552178 -0.077569 0.14668 73 63 48
-0.551882 -0.0755251 0.147055 73 58 43
-0.54973 -0.0733626 0.148145 73 58 42
-0.549436 -0.0713263 0.148518 71 57 43
-0.549141 -0.0692899 0.148891 69 60 49
-0.5507 -0.0673482 0.148553 67 56 48
-0.550404 -0.0653037 0.148928 69 57 49
-0.550109 -0.063259 0.149302 71 57 46
-0.548886 -0.0611784 0.150031 69 54 43
-0.547669 -0.0591057 0.150757 69 53 43
-0.548296 -0.0570961 0.150779 73 54 43
-0.543429 -0.0549369 0.152893 75 52 46
-0.540437 -0.0528569 0.154289 71 59 50
-0.538365 -0.0508155 0.155333 71 58 43
-0.53719 -0.0488009 0.156036 72 60 46
-0.533395 -0.0467709 0.157728 72 58 45
-0.375798 -0.0229056 0.220233 66 59 47
-0.375224 -0.0216065 0.220617 66 64 55
-0.375033 -0.0202826 0.22086 69 59 52
-0.37446 -0.0189882 0.221242 67 59 48
-0.374269 -0.0176658 0.221485 66 59 46
-0.373699 -0.0163762 0.221866 68 58 47
-0.373129 -0.0150896 0.222246 69 59 47
-0.371436 -0.0139137 0.223036 70 59 49
-0.369759 -0.0127493 0.223818 68 59 50
-0.36957 -0.0114427 0.224058 65 60 53
-0.369382 -0.010136 0.224297 61 63 59
-0.369193 -0.00882921 0.224537 55 65 63
-0.368635 -0.00756567 0.22491 48 67 64
-0.368446 -0.0062603 0.225149 39 69 68
-0.368258 -0.00495485 0.225388 35 70 70
-0.368437 -0.00360111 0.225495 35 71 70
-0.368248 -0.00229385 0.225734 36 71 68
-0.368059 -0.000986507 0.225974 36 69 68
-0.36787 0.000320933 0.226214 34 71 72
-0.368048 0.00168321 0.226321 36 75 77
-0.368227 0.00304896 0.22643 39 79 86
-0.368038 0.00435992 0.22667 45 91 100
-0.368587 0.0057909 0.226647 49 111 120
-0.368767 0.0071671 0.226756 58 132 139
-0.368948 0.00854683 0.226866 70 153 157
-0.369502 0.00999565 0.226843 78 161 166
-0.369685 0.0113843 0.226953 79 165 169
-0.369868 0.0127764 0.227063 73 160 164
-0.370051 0.0141721 0.227174 68 149 157
-0.369859 0.0154986 0.227417 58 133 145
-0.369667 0.0168251 0.22766 52 121 131
-0.369476 0.0181518 0.227903 45 110 126
-0.369284 0.0194785 0.228146 44 111 126
-0.369092 0.0208053 0.22839 46 120 133
-0.3689 0.0221322 0.228633 54 135 148
-0.368708 0.0234592 0.228876 64 151 160
-0.368516 0.0247863 0.229119 78 161 164
-0.368324 0.0261135 0.229362 86 157 150
-0.368133 0.0274408 0.229606 82 138 134
-0.367941 0.0287682 0.229849 72 112 129
-0.368122 0.0301868 0.229963 70 97 108
-0.590042 -0.101666 0.12691 202 129 99
-0.590806 -0.0995933 0.126884 177 114 89
-0.590171 -0.0952018 0.127688 127 83 68
-0.588775 -0.0929016 0.128516 114 73 61
-0.588458 -0.0907101 0.128918 104 71 59
-0.585999 -0.0883291 0.130161 98 68 57
-0.585683 -0.0861464 0.130561 94 65 54
-0.578017 -0.0833755 0.133843 91 64 50
-0.558784 -0.0797893 0.141645 88 64 49
-0.554681 -0.0774451 0.143511 87 63 51
-0.552506 -0.0752625 0.144621 81 61 49
-0.550347 -0.0730966 0.145723 75 59 43
-0.549127 -0.0710017 0.146457 71 49 40
-0.548832 -0.0689651 0.14683 73 52 41
-0.55039 -0.0670219 0.146484 71 55 40
-0.550094 -0.0649772 0.146859 72 59 43
-0.549798 -0.0629323 0.147234 71 54 43
-0.548576 -0.0608521 0.147966 68 50 42
-0.547359 -0.0587799 0.148696 68 54 44
-0.547065 -0.0567424 0.14907 71 58 46
-0.543122 -0.0546132 0.150847 72 60 49
-0.540132 -0.0525348 0.152255 70 58 48
-0.537175 -0.0504798 0.153647 69 60 43
-0.533381 -0.0484371 0.155357 69 61 46
-0.533094 -0.0464525 0.155721 71 56 44
-0.532807 -0.0444677 0.156085 73 58 44
-0.531653 -0.0424833 0.156779 70 62 43
-0.375405 -0.0213655 0.219137 69 63 55
-0.374831 -0.0200681 0.219522 68 60 54
-0.37464 -0.018744 0.219765 71 64 54
-0.374449 -0.0174198 0.220007 68 64 52
-0.374257 -0.0160955 0.22025 65 61 52
-0.373686 -0.014806 0.220633 65 58 53
-0.372361 -0.0135922 0.221294 66 57 52
-0.371047 -0.0123874 0.22195 68 60 48
-0.369372 -0.0112303 0.222738 67 62 48
-0.369183 -0.00992348 0.222977 66 61 49
-0.368994 -0.00861657 0.223217 66 60 49
-0.368069 -0.00739669 0.223726 63 61 53
-0.367881 -0.00609281 0.223965 59 63 61
-0.367692 -0.00478884 0.224204 57 66 64
-0.36787 -0.00343644 0.224309 53 68 65
-0.367682 -0.00213068 0.224548 42 69 67
-0.367493 -0.000824822 0.224788 37 69 70
-0.367671 0.000534412 0.224894 37 70 69
-0.367482 0.00184206 0.225133 36 71 69
-0.36766 0.00320644 0.22524 35 71 71
-0.36747 0.00451589 0.22548 38 70 72
-0.367649 0.00588544 0.225587 39 72 76
-0.368197 0.00732043 0.225561 42 79 85
-0.368377 0.00869874 0.225669 45 92 100
-0.368557 0.0100806 0.225777 52 110 118
-0.368367 0.0113986 0.226019 59 132 142
-0.368919 0.0128549 0.225994 68 151 159
-0.369101 0.0142473 0.226103 80 169 170
-0.369283 0.0156434 0.226212 78 166 170
-0.369091 0.0169684 0.226455 75 160 163
-0.3689 0.0182935 0.226698 68 145 155
-0.368708 0.0196187 0.226941 61 134 143
-0.368517 0.020944 0.227183 53 123 131
-0.368325 0.0222694 0.227426 45 111 125
-0.368133 0.0235948 0.227669 44 110 126
-0.367942 0.0249204 0.227912 45 118 133
-0.36775 0.0262461 0.228155 52 134 147
-0.367558 0.0275718 0.228398 65 151 160
-0.367739 0.0289872 0.22851 78 161 164
-0.367547 0.0303148 0.228753 87 157 152
-0.367727 0.0317356 0.228866 86 139 132
-0.367535 0.033065 0.22911 73 116 126
-0.368089 0.0345881 0.229093 71 92 108
-0.368271 0.0360199 0.229207 72 79 82
-0.368829 0.0375563 0.229191 67 67 72
-0.370149 0.0393078 0.228911 66 64 63
-0.370335 0.0407586 0.229026 63 62 55
-0.587246 -0.098895 0.125952 205 135 104
-0.58693 -0.0967128 0.126352 186 124 95
-0.587685 -0.0946377 0.126325 168 111 87
-0.587368 -0.0924506 0.126725 149 99 81
-0.585983 -0.0901652 0.127551 135 88 75
-0.583545 -0.0877961 0.128795 124 81 67
-0.579039 -0.0852719 0.130858 115 74 61
-0.567553 -0.0822287 0.135685 109 72 57
-0.559429 -0.0795318 0.139167 106 70 55
-0.55817 -0.0773875 0.139927 104 67 53
-0.555964 -0.0751879 0.14106 97 67 53
-0.551899 -0.0728879 0.142924 85 60 47
-0.548817 -0.0706769 0.144396 77 54 42
-0.548523 -0.0686401 0.144769 77 55 39
-0.550079 -0.0666956 0.144415 73 59 38
-0.549783 -0.0646506 0.14479 71 62 41
-0.549488 -0.0626055 0.145164 67 56 44
-0.547345 -0.0604915 0.146262 68 53 42
-0.54705 -0.058454 0.146635 71 57 41
-0.543107 -0.0563117 0.148431 69 60 44
-0.541912 -0.0542674 0.149154 68 60 46
-0.538935 -0.0521947 0.150568 68 59 43
-0.53599 -0.0501453 0.151967 68 58 42
-0.533079 -0.0481189 0.15335 66 57 42
-0.532792 -0.0461341 0.153714 71 51 38
-0.531639 -0.0441464 0.154412 76 56 37
-0.526224 -0.0421713 0.156757 70 61 41
-0.525941 -0.0402118 0.157116 69 61 42
-0.375012 -0.019825 0.21804 65 60 49
-0.37482 -0.0184991 0.218283 70 59 43
-0.374628 -0.0171731 0.218526 69 60 49
-0.374056 -0.0158806 0.218912 68 58 49
-0.373864 -0.0145561 0.219155 66 58 48
-0.372915 -0.013305 0.219681 64 60 46
-0.37197 -0.01206 0.220204 67 62 46
-0.37103 -0.0108212 0.220725 68 60 48
-0.369353 -0.00967018 0.22152 66 58 50
-0.369164 -0.00836153 0.22176 67 58 49
-0.367871 -0.00718444 0.222409 67 58 47
-0.367682 -0.00588044 0.222648 65 58 50
-0.367494 -0.00457634 0.222887 66 58 52
-0.367672 -0.00322355 0.22299 65 62 55
-0.367483 -0.00191766 0.22323 62 67 63
-0.367294 -0.000611696 0.223469 60 66 66
-0.367472 0.000747923 0.223573 55 65 63
-0.367283 0.0020557 0.223813 43 68 67
-0.367094 0.00336355 0.224053 39 69 68
-0.367271 0.00473004 0.224158 38 70 69
-0.367082 0.00603969 0.224398 37 70 70
-0.367628 0.00747341 0.224369 36 72 72
-0.367807 0.00885034 0.224475 38 71 74
-0.367617 0.0101652 0.224716 42 73 75
-0.367796 0.0115473 0.224823 42 78 84
-0.367975 0.012933 0.22493 45 91 99
-0.368155 0.0143222 0.225037 48 110 118
-0.368336 0.015715 0.225145 57 133 142
-0.368145 0.0170368 0.225387 70 154 160
-0.368325 0.0184349 0.225495 78 162 168
-0.368134 0.0197586 0.225738 81 170 168
-0.367943 0.0210823 0.22598 76 163 161
-0.367751 0.0224062 0.226223 68 150 154
-0.36756 0.0237301 0.226465 59 133 144
-0.367368 0.0250542 0.226708 49 120 132
-0.367177 0.0263783 0.22695 44 109 125
-0.366985 0.0277025 0.227193 43 109 124
-0.367165 0.0291164 0.227304 44 118 132
-0.367344 0.030534 0.227415 54 136 149
-0.367152 0.0318618 0.227658 66 149 162
-0.367332 0.0332847 0.227769 81 163 167
-0.367513 0.0347113 0.227881 89 159 154
-0.36732 0.0360427 0.228125 88 138 133
-0.367875 0.0375755 0.228106 76 113 125
-0.368432 0.0391161 0.228087 71 89 110
-0.586599 -0.0963667 0.124142 206 131 100
-0.587353 -0.0942907 0.12411 195 126 98
-0.587036 -0.0921034 0.124511 183 119 94
-0.585652 -0.0898185 0.125341 171 107 86
-0.583215 -0.0874507 0.126594 159 100 78
-0.572555 -0.0844186 0.131148 149 91 71
-0.566242 -0.0818152 0.133947 138 85 65
-0.559114 -0.0792014 0.137066 126 78 59
-0.557855 -0.0770575 0.137829 116 74 56
-0.55565 -0.074859 0.13897 108 74 55
-0.555352 -0.0727945 0.139348 103 70 53
-0.551291 -0.0705127 0.141225 99 65 51
-0.550064 -0.0684141 0.141971 96 67 50
-0.550699 -0.066415 0.141976 87 62 45
-0.550403 -0.0643658 0.142351 80 64 45
-0.549177 -0.0622787 0.143095 73 59 43
-0.547035 -0.0601658 0.1442 74 55 38
-0.546741 -0.0581281 0.144573 75 56 37
-0.5428 -0.0559881 0.146385 70 58 40
-0.540707 -0.0539228 0.147466 68 58 40
-0.53863 -0.0518732 0.148538 70 59 39
-0.535687 -0.0498254 0.149948 69 53 37
-0.533648 -0.0478101 0.151001 67 52 41
-0.532491 -0.0458156 0.151706 69 51 36
-0.531338 -0.0438284 0.152408 72 57 35
-0.525926 -0.0418566 0.154775 69 55 40
-0.525643 -0.0398969 0.155134 67 57 43
-0.52536 -0.0379371 0.155493 68 56 41
-0.531055 -0.0358884 0.153524 67 56 43
-0.375576 -0.0195523 0.216408 64 60 45
-0.374618 -0.0182842 0.216943 65 57 44
-0.374427 -0.0169581 0.217186 68 59 45
-0.374235 -0.0156319 0.217429 68 58 52
-0.373663 -0.0143411 0.217816 66 58 56
-0.373471 -0.0130163 0.218059 66 60 50
-0.372901 -0.0117302 0.218445 70 59 45
-0.371955 -0.0104874 0.218972 72 57 45
-0.37064 -0.00929224 0.219638 70 58 44
-0.369706 -0.00806298 0.220159 72 58 42
-0.368776 -0.00683971 0.220677 72 58 47
-0.368218 -0.00557662 0.221055 69 58 51
-0.368029 -0.0042692 0.221295 69 59 48
-0.36784 -0.00296165 0.221534 67 58 47
-0.367651 -0.00165405 0.221774 70 59 53
-0.367462 -0.00034633 0.222013 73 59 56
-0.367273 0.000961469 0.222253 66 60 55
-0.367084 0.00226937 0.222492 59 63 61
-0.366895 0.00357735 0.222732 56 65 64
-0.366705 0.00488543 0.222972 52 68 64
-0.366516 0.00619361 0.223211 48 69 66
-0.366693 0.00756388 0.223315 43 70 68
-0.367238 0.00900158 0.223284 40 72 68
-0.367417 0.0103806 0.223389 37 73 69
-0.367226 0.0116957 0.22363 35 73 71
-0.367036 0.0130108 0.223871 37 73 74
-0.367215 0.0143968 0.223976 39 75 76
-0.367393 0.0157863 0.224082 41 80 87
-0.367203 0.017105 0.224324 45 90 99
-0.367012 0.0184237 0.224565 48 108 118
-0.367191 0.0198203 0.224672 58 133 140
-0.36737 0.0212204 0.224779 70 155 158
-0.367179 0.0225427 0.225022 84 169 172
-0.366988 0.0238651 0.225264 81 170 173
-0.366796 0.0251876 0.225506 76 162 165
-0.366605 0.0265103 0.225748 69 149 157
-0.366784 0.0279209 0.225857 59 133 146
-0.366592 0.0292454 0.2261 48 121 132
-0.366771 0.0306614 0.226209 43 110 126
-0.36695 0.0320811 0.226319 45 107 125
-0.366758 0.0334091 0.226562 47 115 131
-0.366566 0.0347373 0.226805 53 135 146
-0.366745 0.0361641 0.226916 65 152 163
-0.366925 0.0375946 0.227026 82 169 170
-0.367478 0.0391315 0.227005 90 163 159
-0.368035 0.0406762 0.226983 88 142 131
-0.367841 0.0420149 0.227228 71 110 115
-0.368777 0.0436801 0.227072 61 85 106
-0.572232 -0.0840798 0.12899 180 108 82
-0.56103 -0.0810981 0.1338 167 103 76
-0.556885 -0.0787295 0.135739 158 98 72
-0.556586 -0.076661 0.136118 146 91 67
-0.555337 -0.0745301 0.13688 132 85 61
-0.552212 -0.0722921 0.138399 122 75 57
-0.55098 -0.070186 0.139152 111 71 54
-0.550684 -0.068137 0.139527 106 66 55
-0.550388 -0.0660878 0.139902 98 62 53
-0.550091 -0.0640385 0.140277 88 61 49
-0.547942 -0.0619147 0.141396 81 59 42
-0.546726 -0.05984 0.142138 75 58 40
-0.545514 -0.0577731 0.142878 71 59 45
-0.542493 -0.0556644 0.144339 72 58 45
-0.540401 -0.0536002 0.145427 75 56 40
-0.538325 -0.0515516 0.146507 71 57 40
-0.535384 -0.0495055 0.147928 69 57 39
-0.534219 -0.0475002 0.148642 72 57 41
-0.533059 -0.0455023 0.149353 69 52 33
-0.532771 -0.0435132 0.149717 71 58 35
-0.529889 -0.0415308 0.151108 69 55 42
-0.525345 -0.0395819 0.153151 67 55 46
-0.525062 -0.0376219 0.15351 68 52 40
-0.52647 -0.0356355 0.153203 68 53 41
-0.530466 -0.033583 0.151879 67 55 44
-0.531913 -0.0315548 0.151562 66 55 41
-0.374225 -0.016743 0.215846 66 60 50
-0.374033 -0.0154167 0.216089 65 60 56
-0.373841 -0.0140902 0.216332 66 62 54
-0.37327 -0.0128011 0.21672 69 60 47
-0.372699 -0.0115152 0.217108 70 56 45
-0.372131 -0.0102323 0.217495 71 57 47
-0.371563 -0.0089526 0.21788 71 58 45
-0.37025 -0.00776291 0.21855 72 58 45
-0.369316 -0.00653723 0.219074 70 59 47
-0.368387 -0.0053175 0.219595 68 60 45
-0.368198 -0.00400834 0.219835 71 60 44
-0.368009 -0.00269908 0.220074 71 60 43
-0.36782 -0.00138974 0.220314 72 59 45
-0.36763 -8.02744e-05 0.220554 76 61 53
-0.367441 0.00122927 0.220794 71 63 57
-0.367251 0.00253889 0.221034 65 61 54
-0.366695 0.00379118 0.221411 64 61 57
-0.366141 0.00504049 0.221788 65 64 56
-0.365952 0.00634717 0.222027 60 64 61
-0.366128 0.00771606 0.22213 56 66 65
-0.366304 0.00908844 0.222233 51 69 63
-0.366481 0.0104643 0.222336 44 73 65
-0.366658 0.0118436 0.22244 40 72 68
-0.366836 0.0132265 0.222543 38 72 71
-0.366646 0.0145418 0.222784 38 73 71
-0.366824 0.01593 0.222889 37 73 73
-0.366633 0.0172471 0.22313 39 73 74
-0.366443 0.0185644 0.223371 40 75 77
-0.366252 0.0198817 0.223612 47 78 82
-0.36643 0.0212786 0.223718 47 88 97
-0.366239 0.0225977 0.223959 49 106 119
-0.366048 0.023917 0.224201 56 131 143
-0.365857 0.0252363 0.224442 67 154 162
-0.366035 0.0266419 0.224549 83 172 176
-0.365844 0.0279631 0.224791 86 175 176
-0.366021 0.0293741 0.224899 78 167 167
-0.366199 0.0307886 0.225006 69 150 156
-0.366007 0.0321134 0.225249 61 132 143
-0.366185 0.0335333 0.225357 51 118 132
-0.366364 0.0349569 0.225466 42 109 124
-0.366172 0.0362852 0.225709 43 105 123
-0.365979 0.0376137 0.225952 45 113 131
-0.366158 0.0390444 0.226062 52 132 147
-0.366709 0.0405832 0.226037 62 155 165
-0.366516 0.041917 0.226281 80 170 172
-0.367069 0.0434671 0.226258 89 168 164
-0.366876 0.0448043 0.226503 90 146 137
-0.366682 0.0461417 0.226747 75 115 115
-0.366489 0.0474792 0.226992 63 81 104
-0.436528 0.119843 0.208377 73 46 39
-0.437449 0.122054 0.20829 61 42 34
-0.440148 0.125082 0.207603 69 46 32
-0.557825 -0.0805427 0.132874 190 118 88
-0.55279 -0.0781231 0.135194 186 113 84
-0.552494 -0.0760705 0.135569 177 106 77
-0.552197 -0.0740178 0.135945 163 100 73
-0.5519 -0.0719649 0.136321 152 90 70
-0.550669 -0.0698592 0.137078 136 85 64
-0.550373 -0.06781 0.137453 119 71 61
-0.550077 -0.0657606 0.137828 109 69 57
-0.547927 -0.0636301 0.138956 100 64 53
-0.546711 -0.0615521 0.139703 96 61 47
-0.5455 -0.0594819 0.140447 94 59 44
-0.542479 -0.0573633 0.141922 87 60 45
-0.540386 -0.0552926 0.143019 80 62 47
-0.540095 -0.0532775 0.143388 75 58 47
-0.53802 -0.0512299 0.144476 71 55 45
-0.53596 -0.0491977 0.145555 70 60 46
-0.534792 -0.047189 0.146274 72 51 40
-0.533628 -0.0451877 0.146991 75 51 31
-0.53334 -0.0431947 0.147356 67 58 38
-0.531313 -0.0412073 0.148416 67 59 42
-0.529302 -0.0392346 0.149469 67 59 45
-0.529016 -0.0372561 0.149831 69 52 41
-0.530452 -0.0352495 0.149507 68 50 41
-0.53103 -0.0332455 0.149526 67 53 44
-0.530742 -0.0312554 0.149891 65 57 41
-0.530454 -0.0292651 0.150255 67 58 40
-0.374212 -0.0151669 0.2146 62 62 58
-0.372877 -0.0112608 0.215624 73 58 46
-0.372307 -0.00997659 0.216013 71 60 50
-0.371362 -0.00873782 0.216546 70 60 46
-0.370423 -0.00750512 0.217077 70 59 47
-0.369488 -0.00627844 0.217605 68 59 50
-0.368188 -0.00510424 0.218273 68 60 48
-0.367999 -0.00379493 0.218512 70 59 49
-0.368547 -0.00238596 0.218469 70 60 51
-0.368357 -0.00107323 0.218709 70 62 50
-0.367799 0.000186474 0.219091 75 61 53
-0.367609 0.00149774 0.219331 74 62 55
-0.36742 0.00280911 0.219571 71 59 54
-0.366863 0.00406274 0.219951 67 61 58
-0.365942 0.00525422 0.220469 68 63 58
-0.365753 0.00656102 0.220708 67 65 56
-0.365564 0.00786792 0.220947 63 65 53
-0.36574 0.0092389 0.221049 61 62 52
-0.36555 0.0105476 0.221288 59 63 60
-0.365361 0.0118564 0.221528 55 69 64
-0.365536 0.0132343 0.22163 50 69 66
-0.366078 0.0146866 0.221595 44 70 71
-0.365888 0.0160005 0.221835 43 70 73
-0.365698 0.0173145 0.222076 44 71 72
-0.365875 0.0187047 0.222179 45 73 72
-0.365685 0.0200205 0.22242 41 74 71
-0.365861 0.0214159 0.222524 36 76 74
-0.365671 0.0227336 0.222765 37 76 79
-0.36548 0.0240513 0.223006 43 77 85
-0.365289 0.0253691 0.223248 47 87 95
-0.365466 0.0267733 0.223353 49 103 117
-0.365275 0.028093 0.223594 57 131 140
-0.365084 0.0294127 0.223836 69 159 163
-0.36526 0.0308239 0.223942 83 173 175
-0.365437 0.0322387 0.224048 88 174 175
-0.365614 0.0336572 0.224155 82 168 166
-0.365791 0.0350793 0.224262 71 153 155
-0.365969 0.036505 0.224369 63 134 144
-0.365777 0.0378336 0.224612 52 118 133
-0.365585 0.0391622 0.224856 42 107 122
-0.365763 0.0405951 0.224964 43 106 119
-0.36557 0.0419256 0.225207 46 111 125
-0.365748 0.043364 0.225316 48 129 143
-0.365927 0.044806 0.225425 58 154 165
-0.365734 0.0461402 0.225669 80 173 178
-0.366285 0.0477013 0.225644 96 176 170
-0.366091 0.049039 0.225889 102 158 141
-0.366271 0.050494 0.225999 89 125 114
-0.369474 0.0529177 0.225019 68 90 103
-0.36966 0.0543964 0.22513 59 71 90
-0.370615 0.0561316 0.224965 61 62 69
-0.370804 0.0576222 0.225076 67 59 60
-0.370606 0.0589862 0.225325 65 59 59
-0.43306 0.116921 0.207561 59 32 28
-0.432249 0.118341 0.208064 41 21 20
-0.431441 0.119756 0.208565 39 26 21
-0.430635 0.121168 0.209064 58 37 25
-0.430394 0.122833 0.209369 71 47 38
-0.549429 -0.0694805 0.135386 163 100 73
-0.545453 -0.0672454 0.137276 145 85 67
-0.544248 -0.0651724 0.138021 129 79 61
-0.543955 -0.0631463 0.138392 115 71 58
-0.541854 -0.0610498 0.139505 106 67 53
-0.541562 -0.0590312 0.139874 101 64 49
-0.540372 -0.0569851 0.140611 94 62 48
-0.54008 -0.05497 0.14098 88 61 50
-0.538005 -0.052916 0.142077 82 60 50
-0.536829 -0.0508927 0.142805 74 56 45
-0.535657 -0.048877 0.143531 68 52 41
-0.534489 -0.0468687 0.144254 70 56 42
-0.5342 -0.0448719 0.14462 73 54 39
-0.533911 -0.042875 0.144985 67 57 41
-0.532749 -0.0408814 0.145704 71 55 38
-0.530725 -0.0389023 0.146771 70 50 39
-0.530437 -0.0369162 0.147134 70 50 40
-0.531884 -0.0349006 0.146799 69 56 42
-0.531596 -0.0329067 0.147164 68 54 41
-0.53044 -0.0309348 0.147878 68 55 39
-0.528428 -0.0289961 0.148934 71 58 40
-0.528141 -0.027013 0.149297 70 58 43
-0.372105 -0.00976137 0.214676 69 60 51
-0.371162 -0.00852301 0.215212 66 63 49
-0.370596 -0.00724664 0.2156 65 62 46
-0.369659 -0.00601897 0.216133 67 59 46
-0.369098 -0.00475025 0.216518 68 58 47
-0.368908 -0.00343599 0.216759 69 58 49
-0.369088 -0.00207123 0.216855 68 59 47
-0.368898 -0.000755131 0.217096 69 61 46
-0.367968 0.000453914 0.217624 72 62 50
-0.367778 0.00176693 0.217864 70 61 52
-0.367588 0.00308005 0.218104 67 61 53
-0.36703 0.00433502 0.218487 66 63 56
-0.365743 0.00546798 0.219149 69 64 56
-0.365554 0.00677491 0.219388 64 64 58
-0.365365 0.00808191 0.219628 61 62 56
-0.365176 0.00938904 0.219867 63 59 49
-0.364987 0.0106963 0.220106 64 57 48
-0.365162 0.012071 0.220206 61 62 47
-0.364972 0.01338 0.220446 63 61 51
-0.365147 0.01476 0.220547 61 65 61
-0.365688 0.0162163 0.220509 56 64 67
-0.365498 0.0175305 0.220749 50 67 68
-0.365674 0.018921 0.220851 45 71 68
-0.365484 0.0202369 0.221092 43 71 72
-0.36566 0.0216327 0.221194 42 74 74
-0.36547 0.0229505 0.221435 37 75 74
-0.365279 0.0242684 0.221677 35 73 75
-0.365089 0.0255863 0.221918 36 75 76
-0.365265 0.0269909 0.222021 39 75 80
-0.365074 0.0283107 0.222263 43 76 83
-0.364883 0.0296306 0.222505 48 85 94
-0.365059 0.0310422 0.222609 50 101 113
-0.364868 0.0323639 0.222851 54 128 139
-0.365044 0.0337808 0.222956 64 157 164
-0.36522 0.0352014 0.223061 79 173 179
-0.365029 0.0365267 0.223304 91 185 182
-0.365205 0.0379526 0.223409 85 175 171
-0.365382 0.0393823 0.223516 74 157 157
-0.36519 0.0407111 0.223759 68 135 142
-0.364998 0.0420401 0.224002 57 116 130
-0.365175 0.0434769 0.224109 43 105 123
-0.364983 0.0448078 0.224353 38 104 121
-0.36516 0.04625 0.22446 44 110 125
-0.365337 0.047696 0.224568 51 125 138
-0.36626 0.0493772 0.224404 63 149 157
-0.36644 0.0508346 0.224512 76 166 171
-0.36965 0.0532654 0.223514 88 167 170
-0.370604 0.0549962 0.223342 96 161 156
-0.371179 0.0566127 0.223311 88 133 126
-0.432477 0.115282 0.205771 49 32 26
-0.431103 0.116453 0.206473 31 18 17
-0.430381 0.121448 0.207388 41 31 25
-0.429578 0.122855 0.207888 62 48 40
-0.429899 0.124779 0.207998 70 61 52
-0.545144 -0.0669214 0.135221 168 97 73
-0.543941 -0.0648489 0.13597 152 94 71
-0.543648 -0.0628226 0.136341 138 88 67
-0.541547 -0.0607271 0.137462 122 79 61
-0.538571 -0.0586173 0.138942 112 72 56
-0.538281 -0.0566098 0.13931 103 67 55
-0.537991 -0.0546022 0.139677 96 64 54
-0.5377 -0.0525944 0.140045 90 61 54
-0.536524 -0.0505716 0.140777 82 58 50
-0.535353 -0.0485563 0.141507 73 57 40
-0.535063 -0.0465556 0.141873 71 58 41
-0.534774 -0.0445549 0.142239 69 57 42
-0.533608 -0.0425543 0.142965 67 50 46
-0.533319 -0.040557 0.14333 70 58 45
-0.532158 -0.0385674 0.144052 73 54 41
-0.531869 -0.0365737 0.144417 72 54 44
-0.531581 -0.0345797 0.144782 72 56 44
-0.531293 -0.0325857 0.145147 69 55 43
-0.530137 -0.0306143 0.145865 70 56 38
-0.523875 -0.0288068 0.148655 72 55 36
-0.521913 -0.0269006 0.149696 71 56 40
-0.519138 -0.025041 0.151063 68 58 41
-0.371336 -0.00826524 0.213729 68 58 51
-0.370579 -0.00566673 0.214362 66 61 51
-0.369641 -0.00444123 0.214898 67 59 48
-0.36945 -0.00312357 0.215139 70 58 43
-0.369632 -0.0017549 0.215233 72 59 41
-0.369441 -0.000435419 0.215475 71 63 43
-0.368878 0.00083 0.215862 71 63 47
-0.368688 0.00214804 0.216103 67 61 54
-0.367757 0.0033517 0.216634 65 61 56
-0.366831 0.00454948 0.217162 68 59 51
-0.365909 0.00574146 0.217687 66 61 50
-0.365355 0.00698883 0.218069 62 62 55
-0.365166 0.00829596 0.218308 59 55 53
-0.364977 0.0096032 0.218547 61 60 48
-0.364788 0.0109105 0.218786 64 64 53
-0.364599 0.0122179 0.219026 66 63 48
-0.364773 0.0135948 0.219124 67 60 47
-0.364948 0.0149752 0.219224 69 56 43
-0.365488 0.0164322 0.219182 66 62 51
-0.365664 0.0178214 0.219282 62 62 54
-0.365474 0.0191373 0.219523 63 62 53
-0.36565 0.0205318 0.219623 61 65 62
-0.36546 0.0218496 0.219864 54 67 69
-0.365269 0.0231675 0.220105 41 74 71
-0.365079 0.0244855 0.220347 39 77 77
-0.365254 0.0258887 0.220448 39 75 76
-0.365064 0.0272085 0.22069 38 74 75
-0.36524 0.028617 0.220792 35 77 77
-0.365049 0.0299387 0.221034 35 75 77
-0.364857 0.0312604 0.221275 34 75 82
-0.364666 0.0325823 0.221517 38 80 87
-0.364842 0.0339996 0.221621 46 85 97
-0.365018 0.0354206 0.221724 51 101 114
-0.364827 0.036746 0.221967 54 127 136
-0.365003 0.0381723 0.222071 64 153 161
-0.364811 0.0394996 0.222314 81 171 177
-0.364988 0.0409314 0.222419 93 181 179
-0.364796 0.0422605 0.222662 91 177 171
-0.364603 0.0435897 0.222905 84 162 159
-0.364411 0.0449189 0.223148 76 142 146
-0.364587 0.0463597 0.223254 63 124 133
-0.364764 0.0478041 0.223361 48 110 128
-0.366056 0.0495998 0.223053 43 106 124
-0.366985 0.0512948 0.222882 47 110 125
-0.369825 0.053614 0.222004 58 132 140
-0.371168 0.0554744 0.221684 107 174 172
-0.372525 0.0573541 0.22136 131 191 189
-0.372718 0.0588581 0.221468 101 172 176
-0.432223 0.115563 0.204089 49 41 37
-0.430849 0.116733 0.204797 31 27 23
-0.429324 0.123136 0.206214 35 29 27
-0.538266 -0.0582962 0.13691 134 83 65
-0.537089 -0.0562629 0.137649 119 77 61
-0.537686 -0.0542807 0.137645 110 71 58
-0.53651 -0.0522547 0.138382 102 68 55
-0.535338 -0.0502361 0.139116 93 65 53
-0.535049 -0.0482355 0.139482 86 63 50
-0.534759 -0.0462347 0.139848 81 64 49
-0.53447 -0.0442337 0.140214 73 60 45
-0.53418 -0.0422326 0.14058 72 56 48
-0.533015 -0.0402361 0.141309 68 60 49
-0.532727 -0.0382385 0.141675 65 58 47
-0.532438 -0.0362408 0.14204 67 57 44
-0.532149 -0.0342429 0.142406 75 55 43
-0.53186 -0.0322449 0.142771 70 58 50
-0.528972 -0.0303169 0.144206 68 55 44
-0.521898 -0.0285428 0.147357 71 55 39
-0.518299 -0.0267034 0.149076 70 56 40
-0.518018 -0.0247599 0.149431 68 55 40
-0.371128 -0.00535853 0.212727 67 60 51
-0.370937 -0.00403426 0.212969 68 61 49
-0.370745 -0.00270988 0.213212 69 61 47
-0.370554 -0.00138541 0.213454 70 61 45
-0.369987 -0.000114061 0.213845 71 63 46
-0.369422 0.00115424 0.214236 70 62 48
-0.369231 0.00247567 0.214477 66 60 53
-0.368297 0.00368163 0.215013 66 61 51
-0.367367 0.0048817 0.215546 70 59 43
-0.36571 0.00595557 0.216366 70 58 42
-0.36552 0.00726434 0.216605 68 59 46
-0.364967 0.00851006 0.216988 64 56 50
-0.364778 0.0098174 0.217227 65 55 51
-0.364589 0.0111249 0.217466 66 61 49
-0.3644 0.0124324 0.217705 68 61 51
-0.364574 0.0138096 0.217803 69 61 49
-0.365113 0.015262 0.217758 66 59 46
-0.365654 0.0167216 0.217713 64 63 58
-0.365464 0.0180376 0.217954 65 62 54
-0.36564 0.0194308 0.218052 62 61 51
-0.365817 0.0208274 0.21815 63 62 51
-0.365994 0.0222277 0.218249 63 65 49
-0.365803 0.023549 0.218491 57 62 54
-0.365612 0.0248704 0.218733 57 63 66
-0.365421 0.0261919 0.218974 45 70 69
-0.365597 0.0276009 0.219074 36 75 74
-0.365406 0.0289242 0.219317 35 77 76
-0.365215 0.0302476 0.219559 34 76 78
-0.365023 0.0315711 0.219801 33 77 78
-0.3652 0.032989 0.219902 37 76 79
-0.365008 0.0343144 0.220145 40 75 78
-0.364816 0.0356398 0.220387 39 79 83
-0.364993 0.0370648 0.220489 42 84 88
-0.364801 0.0383921 0.220732 48 89 100
-0.364609 0.0397195 0.220975 55 100 114
-0.364417 0.0410469 0.221218 57 122 133
-0.364593 0.0424809 0.221321 65 150 155
-0.364401 0.0438102 0.221564 78 167 169
-0.364208 0.0451396 0.221808 91 177 175
-0.364016 0.0464691 0.222051 92 174 172
-0.364561 0.0480256 0.222017 84 163 163
-0.365852 0.0498225 0.221702 72 141 147
-0.36678 0.0515184 0.221526 55 118 132
-0.369618 0.0538401 0.220635 45 117 134
-0.371347 0.0558283 0.220162 110 165 167
-0.372707 0.0577123 0.21983 152 208 201
-0.3729 0.0592189 0.219936 125 204 204
-0.372309 0.0604621 0.220333 104 184 188
-0.536495 -0.0539379 0.135987 124 82 64
-0.535323 -0.0519162 0.136725 114 77 62
-0.535034 -0.0499155 0.137091 107 69 59
-0.534745 -0.0479146 0.137457 99 64 55
-0.534455 -0.0459136 0.137823 93 64 53
-0.534166 -0.0439125 0.138189 86 61 52
-0.533876 -0.0419112 0.138555 74 59 47
-0.532712 -0.0399151 0.139288 72 60 45
-0.532423 -0.0379173 0.139653 66 60 52
-0.532134 -0.0359194 0.140019 67 57 46
-0.531845 -0.0339213 0.140384 71 59 40
-0.530686 -0.0319435 0.141112 68 59 42
-0.528669 -0.0299969 0.142196 67 56 45
-0.521601 -0.0282272 0.145377 67 55 43
-0.518827 -0.02636 0.146768 66 56 43
-0.517722 -0.0244463 0.147466 66 55 44
-0.370934 -0.00783491 0.211057 70 60 46
-0.370742 -0.00651234 0.211299 69 62 49
-0.370551 -0.0051897 0.211541 68 61 48
-0.370735 -0.00381842 0.211631 68 61 46
-0.370919 -0.00244364 0.211722 68 60 46
-0.371104 -0.00106531 0.211813 66 60 48
-0.370536 0.000208937 0.212207 68 60 48
-0.369594 0.00142499 0.212751 69 58 46
-0.36903 0.00269158 0.213142 68 56 44
-0.368839 0.00401324 0.213384 67 59 44
-0.367535 0.00515611 0.214071 69 60 45
-0.36551 0.00616972 0.215044 69 59 46
-0.365321 0.00747862 0.215283 67 61 50
-0.364768 0.00872417 0.215667 66 60 50
-0.364579 0.0100316 0.215907 67 58 44
-0.36439 0.0113392 0.216146 68 57 43
-0.364201 0.0126469 0.216385 68 58 42
-0.364012 0.0139546 0.216624 69 56 42
-0.364185 0.015334 0.21672 66 58 45
-0.364723 0.0167903 0.216673 62 61 54
-0.365263 0.0182539 0.216625 63 60 53
-0.365439 0.0196475 0.216722 63 57 50
-0.365984 0.0211239 0.216674 67 60 45
-0.366161 0.0225263 0.216771 66 57 40
-0.36597 0.0238494 0.217013 63 54 46
-0.365779 0.0251725 0.217255 64 53 52
-0.365587 0.0264958 0.217497 59 65 56
-0.365396 0.0278191 0.217739 55 64 62
-0.365573 0.0292322 0.217838 55 64 63
-0.365381 0.0305574 0.21808 47 71 71
-0.365189 0.0318827 0.218322 37 75 73
-0.365366 0.0333028 0.218422 35 77 75
-0.365174 0.03463 0.218665 37 77 78
-0.364982 0.0359572 0.218907 35 78 80
-0.36479 0.0372845 0.21915 34 77 81
-0.364598 0.0386119 0.219393 34 76 84
-0.364406 0.0399394 0.219636 36 81 87
-0.364214 0.041267 0.219879 37 85 93
-0.364022 0.0425946 0.220122 45 94 103
-0.36383 0.0439224 0.220365 54 105 116
-0.364006 0.0453603 0.220467 60 122 134
-0.363813 0.0466899 0.22071 67 146 154
-0.363989 0.0481332 0.220813 77 164 169
-0.365648 0.0500452 0.220351 87 169 173
-0.366575 0.0517421 0.22017 84 164 167
-0.369794 0.0541899 0.219119 77 157 162
-0.371527 0.0561831 0.218636 120 184 179
-0.372889 0.0580715 0.218296 150 208 199
-0.373082 0.0595806 0.218399 123 192 198
-0.372491 0.0608251 0.218799 109 182 189
-0.371901 0.0620665 0.219199 101 184 188
-0.371312 0.0633048 0.219597 92 182 190
-0.368416 0.0637169 0.220862 93 176 183
-0.367458 0.0648033 0.221396 93 168 169
-0.366505 0.0658843 0.221928 78 151 154
-0.367038 0.0732486 0.222605 54 65 74
-0.370299 0.0759769 0.221571 57 55 62
-0.535019 -0.0515956 0.1347 142 91 69
-0.532108 -0.049556 0.136182 126 82 64
-0.53182 -0.0475663 0.136546 109 72 60
-0.533275 -0.0455871 0.13617 103 66 57
-0.532986 -0.0435896 0.136535 101 64 54
-0.532697 -0.0415919 0.136901 89 60 52
-0.531537 -0.0396 0.137635 85 58 41
-0.531248 -0.0376058 0.138 74 60 43
-0.53096 -0.0356114 0.138364 67 59 44
-0.530672 -0.0336169 0.138729 72 58 45
-0.529517 -0.0316432 0.139459 70 57 43
-0.527509 -0.0297011 0.140547 67 55 44
-0.522978 -0.0278567 0.142692 64 53 44
-0.52102 -0.0259535 0.143754 64 50 45
-0.51825 -0.0240984 0.145154 68 53 44
-0.520453 -0.0220367 0.14447 70 57 39
-0.370732 -0.00761968 0.20972 69 61 43
-0.370541 -0.00629699 0.209962 68 62 45
-0.37035 -0.00497422 0.210204 67 59 45
-0.370909 -0.00355365 0.210139 65 58 43
-0.37185 -0.00207493 0.20992 65 58 46
-0.371658 -0.000743584 0.210164 67 55 47
-0.371087 0.000533591 0.210561 69 58 45
-0.370142 0.001752 0.21111 69 60 45
-0.369202 0.00296443 0.211656 66 56 44
-0.368266 0.00417092 0.212199 66 54 43
-0.366598 0.00525243 0.213038 66 57 44
-0.364947 0.00632342 0.213869 65 59 45
-0.364758 0.00763083 0.214108 64 57 50
-0.364206 0.00887477 0.214493 68 60 51
-0.364017 0.0101808 0.214732 68 60 45
-0.363829 0.0114869 0.214971 71 62 44
-0.36364 0.012793 0.21521 71 61 47
-0.363451 0.0140993 0.215448 68 59 46
-0.363262 0.0154056 0.215687 65 58 48
-0.363434 0.0167853 0.215782 66 60 48
-0.363969 0.0182436 0.215732 63 61 48
-0.36378 0.0195551 0.215972 64 59 42
-0.365783 0.0213412 0.21534 61 58 45
-0.366329 0.0228258 0.215288 63 57 49
-0.366137 0.0241506 0.215531 62 59 51
-0.365577 0.0253906 0.215919 63 58 52
-0.365386 0.026714 0.216161 63 60 48
-0.365194 0.0280374 0.216403 63 60 49
-0.365003 0.029361 0.216645 57 57 55
-0.365179 0.0307762 0.216743 58 64 56
-0.365356 0.032195 0.21684 56 59 57
-0.365164 0.0335221 0.217083 50 65 63
-0.365341 0.0349464 0.217181 43 70 71
-0.365149 0.0362753 0.217424 39 75 76
-0.364957 0.0376045 0.217667 36 78 77
-0.364764 0.0389336 0.21791 35 76 79
-0.364572 0.0402629 0.218153 35 78 80
-0.36438 0.0415923 0.218396 33 77 81
-0.364188 0.0429217 0.218639 34 77 83
-0.363628 0.0441427 0.219025 37 80 86
-0.363436 0.0454707 0.219268 38 86 94
-0.363611 0.0469107 0.219369 42 98 105
-0.363418 0.0482406 0.219612 53 111 117
-0.365443 0.050268 0.219 64 126 134
-0.365996 0.0518463 0.218957 67 140 148
-0.369587 0.0544164 0.217747 71 153 161
-0.372096 0.0566669 0.216956 93 165 170
-0.373071 0.0584317 0.216757 106 171 174
-0.372872 0.0598104 0.217009 90 161 170
-0.372672 0.0611891 0.217262 87 163 169
-0.372081 0.0624318 0.217663 91 174 176
-0.371492 0.0636713 0.218064 96 179 184
-0.369358 0.064355 0.219052 103 180 185
-0.367631 0.0651678 0.219883 109 186 188
-0.366298 0.0661106 0.220563 96 185 193
-0.366102 0.0674654 0.220811 95 178 189
-0.365906 0.0688203 0.221059 97 172 172
-0.372044 0.0769822 0.219448 46 65 81
-0.375425 0.0798052 0.218357 62 54 51
-0.532094 -0.0512269 0.133804 163 96 72
-0.530939 -0.0492249 0.134541 148 92 69
-0.529789 -0.0472302 0.135276 129 84 67
-0.53123 -0.045257 0.134896 113 76 62
-0.531811 -0.0432678 0.134887 109 71 58
-0.531522 -0.0412737 0.135252 104 67 55
-0.530366 -0.039286 0.135988 98 63 50
-0.530078 -0.0372953 0.136352 85 61 47
-0.529791 -0.0353045 0.136716 76 61 43
-0.529503 -0.0333136 0.13708 76 59 42
-0.528353 -0.031344 0.137811 72 55 38
-0.527207 -0.0293815 0.13854 70 51 35
-0.523521 -0.0275116 0.140346 70 56 41
-0.522395 -0.0255742 0.141063 69 62 46
-0.520439 -0.0236791 0.142131 70 57 42
-0.522667 -0.0216034 0.141426 69 50 39
-0.37034 -0.00608161 0.208625 67 63 45
-0.370899 -0.00466378 0.208557 67 60 42
-0.372021 0.000914757 0.20875 70 57 42
-0.370692 0.00208068 0.20946 67 57 43
-0.369748 0.00329543 0.210012 65 54 46
-0.368065 0.00438674 0.210866 64 52 47
-0.366398 0.00546733 0.211711 65 53 45
-0.364748 0.00653736 0.212548 65 56 45
-0.363474 0.00765875 0.21323 66 56 44
-0.363285 0.00896156 0.213468 69 58 44
-0.362738 0.0101995 0.213853 68 59 45
-0.362909 0.0115675 0.213945 70 61 44
-0.36272 0.0128705 0.214183 71 59 45
-0.362891 0.0142436 0.214275 67 59 44
-0.362702 0.0155485 0.214514 68 56 42
-0.362874 0.0169268 0.214607 69 59 44
-0.362685 0.0182334 0.214846 64 56 48
-0.362856 0.0196169 0.21494 68 60 46
-0.36339 0.0210825 0.214888 65 63 53
-0.36539 0.0228803 0.214247 65 61 57
-0.365567 0.0242853 0.214341 59 59 53
-0.365008 0.0255237 0.214731 63 58 46
-0.364817 0.0268455 0.214972 64 58 44
-0.364992 0.0282557 0.215067 65 58 44
-0.364801 0.0295794 0.215309 59 59 51
-0.364977 0.030995 0.215405 61 61 46
-0.365154 0.0324142 0.215501 62 58 46
-0.365331 0.0338371 0.215597 60 58 52
-0.365139 0.0351661 0.21584 57 65 59
-0.364946 0.0364952 0.216083 53 65 59
-0.364754 0.0378245 0.216326 53 68 65
-0.364562 0.0391538 0.216569 48 69 69
-0.364369 0.0404832 0.216812 42 72 74
-0.364177 0.0418127 0.217055 38 76 76
-0.363985 0.0431422 0.217298 35 77 77
-0.363793 0.0444719 0.217541 34 77 81
-0.3636 0.0458017 0.217785 34 77 83
-0.363408 0.0471316 0.218028 33 79 83
-0.363216 0.0484615 0.218271 36 82 85
-0.364497 0.0502565 0.217938 40 88 95
-0.365791 0.0520697 0.217603 43 97 106
-0.369379 0.0546428 0.216375 50 110 121
-0.371886 0.0568956 0.215572 57 120 130
-0.372861 0.0586614 0.215367 61 126 137
-0.372662 0.0600402 0.215619 58 131 139
-0.372855 0.0615541 0.215719 61 139 144
-0.372263 0.062798 0.216123 69 148 151
-0.371672 0.0640388 0.216527 78 155 159
-0.369534 0.0647212 0.217526 88 164 167
-0.368186 0.0656719 0.218219 95 173 176
-0.366847 0.0666153 0.218907 102 184 189
-0.366273 0.0678327 0.219301 118 184 192
-0.366454 0.0693321 0.219404 126 190 187
-0.367397 0.0711264 0.219217 101 186 193
-0.369502 0.0733822 0.218586 94 180 194
-0.375211 0.0800406 0.216943 66 69 67
-0.375814 0.0817725 0.216893 83 82 75
-0.376421 0.0835136 0.216843 87 81 76
-0.376623 0.0850943 0.216948 81 81 77
-0.378054 0.087197 0.216588 76 78 70
-0.377848 0.088618 0.216848 75 71 63
-0.379293 0.0907511 0.216486 71 65 60
-0.530061 -0.0508774 0.132544 172 96 73
-0.529774 -0.0488949 0.132906 169 98 73
-0.529487 -0.0469122 0.133269 161 98 74
-0.5292 -0.0449294 0.133631 145 92 70
-0.53064 -0.0429472 0.133245 125 83 64
-0.530352 -0.0409567 0.133609 113 73 60
-0.5292 -0.0389731 0.134347 108 66 57
-0.528053 -0.0369967 0.135081 99 65 54
-0.527766 -0.0350132 0.135444 87 65 46
-0.527479 -0.0330296 0.135807 78 59 42
-0.527192 -0.0310458 0.136169 70 54 39
-0.526051 -0.0290874 0.136899 69 51 36
-0.523222 -0.0271941 0.138353 69 56 42
-0.522937 -0.0252247 0.138714 69 57 42
-0.521812 -0.0232912 0.139434 70 58 38
-0.522367 -0.0212853 0.139434 67 58 39
-0.522082 -0.0193155 0.139794 65 55 41
-0.637967 -0.0108223 0.0905694 68 54 41
-0.635954 0.0216869 0.0953468 68 60 47
-0.367864 0.00460261 0.209532 64 55 47
-0.364738 0.00544378 0.210988 66 53 44
-0.363464 0.00656922 0.211675 67 56 40
-0.362916 0.00781006 0.212062 67 57 39
-0.362728 0.00911139 0.2123 69 54 40
-0.362539 0.0104128 0.212538 67 54 45
-0.362351 0.0117143 0.212776 69 60 43
-0.362522 0.0130843 0.212867 70 60 45
-0.362333 0.0143877 0.213105 67 60 46
-0.362504 0.0157628 0.213196 68 59 45
-0.362315 0.0170679 0.213435 70 58 46
-0.362126 0.0183731 0.213673 67 53 46
-0.362297 0.0197551 0.213765 68 59 49
-0.362468 0.0211407 0.213858 68 56 48
-0.365189 0.0230978 0.212913 67 60 50
-0.364998 0.0244196 0.213155 64 59 46
-0.364806 0.0257415 0.213396 64 54 43
-0.364249 0.0269768 0.213786 63 56 45
-0.364424 0.0283855 0.21388 64 49 47
-0.364233 0.0297077 0.214121 63 55 46
-0.364408 0.0311218 0.214215 66 55 42
-0.364951 0.0326335 0.214161 65 59 44
-0.365128 0.0340568 0.214255 65 56 46
-0.364936 0.0353859 0.214498 62 60 51
-0.365113 0.0368146 0.214593 59 59 48
-0.36492 0.0381456 0.214837 60 61 50
-0.364728 0.0394767 0.21508 58 62 51
-0.364167 0.0407035 0.215471 57 63 54
-0.363974 0.0420331 0.215714 53 66 61
-0.36415 0.0434705 0.21581 50 70 69
-0.36359 0.0446926 0.2162 44 73 75
-0.363397 0.0460225 0.216443 36 75 78
-0.363205 0.0473525 0.216686 33 77 78
-0.363013 0.0486826 0.216929 32 77 80
-0.363555 0.0502452 0.216882 30 78 83
-0.36447 0.0519347 0.216688 33 79 85
-0.366892 0.0541262 0.215901 36 83 89
-0.369358 0.0563571 0.2151 37 90 97
-0.371868 0.0586285 0.214284 40 99 106
-0.372451 0.06027 0.214229 43 108 115
-0.372252 0.061649 0.214481 47 114 121
-0.372052 0.0630281 0.214733 51 121 128
-0.371462 0.0642687 0.215138 56 128 135
-0.369325 0.0649498 0.216146 61 137 142
-0.367977 0.0658997 0.216845 68 146 153
-0.367019 0.0669823 0.21739 81 160 164
-0.366443 0.0682009 0.217786 100 168 172
-0.367386 0.0699908 0.217593 111 177 178
-0.369491 0.0722379 0.21695 105 191 195
-0.371237 0.0743679 0.216449 122 192 203
-0.372215 0.0762149 0.216246 137 187 185
-0.373201 0.0780764 0.216042 96 158 155
-0.375196 0.0818441 0.21563 101 102 90
-0.375396 0.0834164 0.215732 94 98 93
-0.376001 0.0851621 0.215679 77 89 99
-0.377427 0.0872625 0.215314 69 85 91
-0.377631 0.088857 0.215416 73 79 77
-0.377426 0.0902783 0.215676 84 78 71
-0.376811 0.0915207 0.216092 85 77 69
-0.376605 0.0929402 0.216352 75 71 66
-0.3764 0.0943599 0.216611 68 64 61
-0.376195 0.0957797 0.216871 61 61 57
-0.375582 0.0970135 0.217284 54 59 51
-0.375377 0.0984316 0.217544 52 50 43
-0.528899 -0.0446111 0.131624 174 105 77
-0.528612 -0.042628 0.131986 153 99 76
-0.529186 -0.0406408 0.131972 132 87 70
-0.528038 -0.0386613 0.132711 114 75 63
-0.526043 -0.0367003 0.13382 100 68 60
-0.525757 -0.034724 0.134181 95 65 51
-0.526323 -0.032729 0.134172 82 60 48
-0.526036 -0.0307487 0.134533 73 58 44
-0.524052 -0.0288203 0.135634 69 54 42
-0.522922 -0.0268766 0.136361 68 53 44
-0.522637 -0.024907 0.136721 69 52 43
-0.522353 -0.0229372 0.137081 72 56 42
-0.522068 -0.0209673 0.137441 70 60 43
-0.521783 -0.0189972 0.137801 67 57 41
-0.521498 -0.017027 0.138161 69 55 45
-0.526304 -0.0147446 0.136327 71 58 48
-0.645119 0.0129149 0.0875502 65 55 39
-0.635575 0.0220921 0.0928291 68 59 50
-0.363266 0.00678247 0.210359 68 55 38
-0.362718 0.00802315 0.210747 68 58 37
-0.362529 0.00932461 0.210985 68 55 39
-0.362341 0.0106262 0.211223 65 54 43
-0.362153 0.0119278 0.211461 66 58 45
-0.361965 0.0132295 0.211699 67 60 47
-0.362135 0.0146016 0.211788 68 57 42
-0.362305 0.0159772 0.211878 70 59 44
-0.362116 0.0172824 0.212117 71 58 46
-0.361927 0.0185877 0.212355 67 55 46
-0.361738 0.0198931 0.212594 67 59 46
-0.36155 0.0211986 0.212832 65 57 45
-0.362079 0.0226648 0.212775 63 57 45
-0.364064 0.0244702 0.212121 65 55 45
-0.363873 0.0257889 0.212362 66 57 45
-0.363683 0.0271078 0.212603 65 59 47
-0.363857 0.0285151 0.212695 65 49 47
-0.364031 0.029926 0.212787 60 53 44
-0.364206 0.0313405 0.212879 65 55 45
-0.364381 0.0327586 0.212971 65 55 49
-0.364926 0.0342765 0.212914 66 55 49
-0.365102 0.0357038 0.213007 65 59 49
-0.36565 0.037235 0.212949 63 56 44
-0.365457 0.0385694 0.213193 63 58 43
-0.365264 0.039904 0.213437 67 55 43
-0.364701 0.0411334 0.213831 65 58 47
-0.364509 0.0424665 0.214074 60 55 54
-0.364316 0.0437997 0.214318 60 61 58
-0.363754 0.045023 0.21471 58 65 59
-0.363195 0.0462433 0.215101 51 67 61
-0.362636 0.0474607 0.215491 46 70 69
-0.362444 0.0487893 0.215734 41 73 75
-0.362617 0.050234 0.215831 34 75 78
-0.363158 0.0518007 0.215781 31 76 78
-0.365934 0.0541053 0.214839 32 77 79
-0.366867 0.055827 0.214635 30 80 83
-0.368953 0.0579471 0.213975 32 86 90
-0.371459 0.0602331 0.213149 36 92 99
-0.37165 0.0617437 0.213245 40 97 105
-0.371451 0.0631211 0.213497 41 102 110
-0.370862 0.0643601 0.213903 43 109 116
-0.367967 0.0647639 0.215221 46 115 122
-0.367388 0.0659883 0.21562 49 120 128
-0.367191 0.0673503 0.215869 56 129 135
-0.367756 0.0689981 0.215818 66 136 143
-0.36948 0.0710934 0.215313 70 146 155
-0.371618 0.0733668 0.214647 78 163 169
-0.372204 0.0750585 0.214592 103 172 178
-0.37319 0.0769156 0.214382 129 175 172
-0.373784 0.078628 0.214326 98 156 152
-0.374579 0.0819156 0.21437 88 84 77
-0.375181 0.0836528 0.214314 93 94 83
-0.374977 0.0850608 0.214571 91 91 81
-0.376801 0.0873279 0.214042 88 85 73
-0.377005 0.0889204 0.214143 90 77 65
-0.376799 0.09034 0.214402 91 75 63
-0.376186 0.0915807 0.214819 92 81 69
-0.375981 0.0929986 0.215079 124 85 79
-0.375776 0.0944165 0.215338 164 101 86
-0.375571 0.0958345 0.215597 126 119 87
-0.375366 0.0972527 0.215856 88 61 61
-0.37516 0.0986709 0.216115 72 68 56
-0.374955 0.100089 0.216375 60 56 45
-0.525178 -0.0383669 0.131834 137 92 72
-0.524047 -0.0364061 0.132568 115 79 64
-0.52292 -0.0344523 0.133299 105 66 53
-0.522636 -0.0324867 0.133658 93 64 47
-0.523193 -0.0304982 0.133647 85 62 46
-0.522908 -0.0285287 0.134007 74 60 45
-0.521783 -0.026589 0.134736 72 57 42
-0.521498 -0.0246228 0.135095 71 56 42
-0.521214 -0.0226565 0.135455 76 54 43
-0.521768 -0.0206491 0.135447 74 59 46
-0.51981 -0.018768 0.136538 68 63 50
-0.518695 -0.0168528 0.137259 69 61 49
-0.518411 -0.0148932 0.137618 73 59 43
-0.518128 -0.0129335 0.137976 72 56 40
-0.647853 0.0110556 0.0833455 67 56 48
-0.644735 0.013325 0.0849963 69 53 42
-0.644369 0.0158508 0.0854579 66 54 43
-0.644004 0.0183767 0.0859195 60 58 47
-0.640919 0.0206013 0.0875503 70 58 48
-0.639206 0.0229599 0.0885891 70 59 50
-0.363067 0.00699574 0.209043 66 55 40
-0.362519 0.00823629 0.209432 67 59 37
-0.362331 0.00953786 0.20967 67 58 38
-0.362143 0.0108395 0.209908 66 56 41
-0.361955 0.0121413 0.210146 64 56 48
-0.361766 0.0134432 0.210384 65 59 49
-0.362295 0.0148863 0.210321 68 56 41
-0.362106 0.0161916 0.21056 68 58 44
-0.362277 0.017571 0.210648 68 55 42
-0.362087 0.018878 0.210887 65 58 44
-0.361898 0.0201851 0.211125 65 56 43
-0.361709 0.0214923 0.211364 63 57 46
-0.361879 0.0228803 0.211454 63 58 47
-0.362411 0.0243546 0.211393 64 55 50
-0.362221 0.0256669 0.211633 66 59 46
-0.363118 0.0272385 0.211422 67 60 45
-0.363655 0.028733 0.211361 65 56 47
-0.36383 0.0301443 0.211452 60 57 46
-0.364004 0.0315591 0.211542 60 59 47
-0.364547 0.0330722 0.211481 64 56 51
-0.365462 0.0346898 0.211268 65 57 50
-0.36564 0.0361213 0.211359 68 60 42
-0.365818 0.0375565 0.21145 67 56 40
-0.365997 0.0389955 0.211541 65 55 44
-0.365804 0.0403335 0.211786 69 53 47
-0.36561 0.0416716 0.21203 65 58 50
-0.365045 0.0429022 0.212427 61 55 53
-0.364852 0.0442388 0.212671 64 58 50
-0.363919 0.0453542 0.213216 66 60 47
-0.363359 0.0465758 0.21361 64 60 50
-0.362433 0.0476814 0.214151 62 62 56
-0.362241 0.0490101 0.214394 57 66 62
-0.362049 0.0503389 0.214637 49 68 67
-0.362222 0.0517857 0.214732 43 70 70
-0.365729 0.0543296 0.21348 38 73 74
-0.367039 0.0561779 0.213119 34 76 77
-0.368745 0.0581743 0.2126 31 80 83
-0.371249 0.0604624 0.211762 32 84 90
-0.37105 0.0618381 0.212013 33 88 92
-0.370851 0.0632139 0.212264 35 91 95
-0.370652 0.0645899 0.212516 36 95 99
-0.368141 0.0651297 0.213693 38 97 102
-0.367561 0.0663554 0.214095 40 102 109
-0.367745 0.0678609 0.214192 41 109 114
-0.371024 0.0705334 0.213057 45 113 120
-0.374379 0.0732692 0.211894 47 121 127
-0.37338 0.0743601 0.212467 53 127 133
-0.373975 0.0760656 0.212405 67 133 140
-0.373773 0.077464 0.212661 80 134 142
-0.374365 0.0821513 0.212955 70 69 62
-0.374162 0.0835556 0.213211 77 75 67
-0.374762 0.0852974 0.213152 81 77 67
-0.376177 0.0873931 0.212774 84 78 68
-0.37638 0.0889838 0.212873 87 78 70
-0.375768 0.0902247 0.213291 88 79 71
-0.375563 0.0916407 0.21355 91 84 74
-0.375358 0.0930568 0.213809 113 92 90
-0.375153 0.094473 0.214068 147 112 120
-0.374948 0.0958893 0.214326 131 134 137
-0.374743 0.0973057 0.214585 100 71 67
-0.374944 0.0989102 0.214687 82 73 60
-0.374739 0.100329 0.214946 74 71 60
-0.374533 0.101747 0.215205 42 36 30
-0.520397 -0.0361383 0.132069 148 97 72
-0.520115 -0.0341835 0.132426 127 81 61
-0.520664 -0.0322092 0.132413 106 72 52
-0.521215 -0.0302275 0.1324 97 66 52
