ply
format ascii 1.0
element vertex 1218
property float x
property float y
property float z
property uchar diffuse_red
property uchar diffuse_green
property uchar diffuse_blue
end_header
-0.35195 0.110475 0.252114 92 142 67
-0.350905 0.111479 0.252332 104 155 77
-0.350621 0.112823 0.25237 113 152 86
-0.397708 0.0846301 0.24064 73 71 53
-0.397387 0.0861503 0.240682 74 72 56
-0.396573 0.0875108 0.240843 75 76 57
-0.394781 0.0885463 0.241237 75 75 56
-0.393975 0.0898954 0.241396 72 75 54
-0.394632 0.0917332 0.241205 67 78 54
-0.370928 0.0882749 0.246779 68 90 56
-0.366446 0.0881951 0.247821 68 94 56
-0.362885 0.0884084 0.248643 66 97 56
-0.361789 0.0894921 0.248874 66 99 55
-0.361499 0.0908667 0.248913 69 99 53
-0.36121 0.0922412 0.248951 67 102 53
-0.36092 0.0936157 0.248989 67 105 53
-0.36063 0.09499 0.249028 67 111 58
-0.36034 0.0963643 0.249066 96 146 74
-0.36005 0.0977384 0.249105 96 145 68
-0.359361 0.0989532 0.249239 94 143 69
-0.358675 0.100165 0.249373 95 144 70
-0.358386 0.101535 0.249411 95 144 69
-0.354964 0.101607 0.250204 94 143 68
-0.353137 0.102317 0.250613 95 144 64
-0.352088 0.103341 0.250835 96 143 67
-0.351804 0.104687 0.250872 97 142 68
-0.35152 0.106032 0.25091 97 142 67
-0.351617 0.107544 0.250856 97 143 66
-0.352096 0.10923 0.250709 96 145 68
-0.351811 0.11058 0.250747 100 152 74
-0.350765 0.111585 0.250969 111 163 82
-0.350102 0.112758 0.251098 114 153 88
-0.36039 0.0935466 0.24769 70 68 55
-0.3601 0.0949211 0.247729 74 95 66
-0.35981 0.0962954 0.247767 109 157 79
-0.35952 0.0976697 0.247805 105 158 74
-0.35923 0.0990439 0.247844 103 155 74
-0.358543 0.100257 0.24798 101 154 74
-0.357857 0.101467 0.248115 103 154 73
-0.354441 0.101539 0.248921 104 155 74
-0.352999 0.102411 0.249243 104 157 72
-0.352331 0.103599 0.249375 105 158 74
-0.351665 0.104784 0.249506 105 156 74
-0.351381 0.106131 0.249544 106 154 73
-0.351478 0.107645 0.249488 105 156 72
-0.351575 0.109164 0.249432 105 159 74
-0.35129 0.110514 0.24947 111 165 80
-0.350624 0.111691 0.249601 119 171 87
-0.349582 0.112692 0.249826 114 153 90
-0.359461 0.0933256 0.24649 68 72 57
-0.359569 0.0948521 0.246429 81 102 66
-0.35928 0.0962266 0.246468 119 173 89
-0.35899 0.097601 0.246506 115 171 83
-0.3587 0.0989753 0.246545 115 172 83
-0.358013 0.100189 0.246682 113 172 84
-0.357329 0.101399 0.246819 116 173 83
-0.354304 0.101633 0.247542 118 171 83
-0.352478 0.102344 0.247966 118 170 83
-0.352193 0.103694 0.248003 117 171 83
-0.351526 0.104881 0.248137 116 171 84
-0.351242 0.10623 0.248175 116 170 82
-0.351338 0.107747 0.248117 115 171 82
-0.351435 0.109267 0.248059 119 174 83
-0.35115 0.110619 0.248097 126 180 87
-0.350484 0.111798 0.248231 131 181 95
-0.349441 0.1128 0.248459 116 155 95
-0.359221 0.0918836 0.245153 70 70 54
-0.358931 0.0932566 0.245192 72 74 59
-0.358642 0.0946295 0.24523 89 115 75
-0.358352 0.0960023 0.245269 127 192 101
-0.358063 0.097375 0.245307 129 189 96
-0.357773 0.0987477 0.245346 131 189 94
-0.357089 0.0999598 0.245485 131 190 94
-0.356406 0.101169 0.245624 132 189 94
-0.35378 0.101565 0.246258 134 188 95
-0.351956 0.102277 0.246688 131 188 94
-0.351672 0.103628 0.246726 129 187 92
-0.351387 0.104979 0.246764 128 185 93
-0.351102 0.106329 0.246802 128 186 92
-0.351198 0.107848 0.246742 128 187 92
-0.350913 0.109201 0.24678 140 192 96
-0.350627 0.110553 0.246818 150 198 100
-0.349962 0.111732 0.246953 143 193 104
-0.34892 0.112734 0.247185 119 158 98
-0.404976 0.0873439 0.232421 67 66 54
-0.404128 0.0887415 0.232598 66 67 54
-0.402766 0.0899677 0.232908 67 66 55
-0.400903 0.0910187 0.233347 68 66 57
-0.398552 0.0918921 0.233912 66 67 57
-0.398227 0.0934324 0.233955 65 68 56
-0.361161 0.0882752 0.243326 68 73 54
-0.360469 0.0895082 0.243468 66 72 57
-0.359778 0.090738 0.24361 67 71 56
-0.358691 0.0918144 0.243855 70 71 53
-0.358402 0.0931876 0.243893 74 82 60
-0.357716 0.0944074 0.244034 104 133 78
-0.357427 0.0957786 0.244073 139 207 108
-0.357138 0.0971497 0.244111 141 203 102
-0.356849 0.0985206 0.24415 140 202 102
-0.356167 0.0997316 0.24429 142 203 104
-0.355486 0.100939 0.244431 142 204 106
-0.35287 0.101337 0.245073 143 204 105
-0.351435 0.10221 0.24541 139 202 103
-0.35115 0.103561 0.245448 139 202 102
-0.350865 0.104912 0.245486 141 204 102
-0.350961 0.106429 0.245425 142 204 100
-0.350676 0.107782 0.245463 141 204 103
-0.35039 0.109134 0.245501 177 211 112
-0.349725 0.110315 0.245637 187 217 115
-0.349441 0.111666 0.245675 156 203 111
-0.3484 0.112668 0.24591 119 156 97
-0.406795 0.0863489 0.230352 67 65 55
-0.405415 0.0875917 0.23067 91 78 57
-0.404563 0.0889932 0.230851 116 112 70
-0.403197 0.0902225 0.231166 127 125 74
-0.401838 0.0914444 0.23148 137 130 78
-0.399979 0.0924889 0.231925 140 132 81
-0.399652 0.0940383 0.231969 145 135 82
-0.361031 0.0883513 0.241914 145 135 78
-0.359937 0.0894386 0.242164 147 136 78
-0.359247 0.0906685 0.242308 152 138 79
-0.358162 0.0917453 0.242556 156 137 78
-0.357477 0.0929672 0.242699 156 151 81
-0.357187 0.0943386 0.242738 147 184 91
-0.356898 0.0957099 0.242776 146 209 105
-0.356216 0.0969249 0.242919 145 208 104
-0.355927 0.0982942 0.242957 145 209 106
-0.355247 0.099504 0.243099 146 209 107
-0.353791 0.10039 0.243446 145 209 108
-0.351963 0.10111 0.243892 147 209 107
-0.350913 0.102143 0.244132 147 211 107
-0.350628 0.103494 0.24417 144 210 107
-0.350343 0.104845 0.244208 146 213 109
-0.350058 0.106196 0.244246 149 213 106
-0.350153 0.107715 0.244183 148 215 112
-0.349489 0.108898 0.244322 192 235 123
-0.349204 0.110249 0.24436 198 236 125
-0.348164 0.111255 0.244598 158 205 115
-0.347504 0.112429 0.244735 115 152 97
-0.406714 0.0864312 0.228724 67 67 54
-0.405857 0.087841 0.228909 109 110 70
-0.40448 0.0890794 0.229232 154 178 101
-0.40363 0.0904788 0.229414 170 196 106
-0.402266 0.0917037 0.229734 171 198 114
-0.40091 0.0929213 0.230052 170 203 124
-0.359405 0.0893689 0.24086 190 198 110
-0.358318 0.0904507 0.241113 182 193 110
-0.357237 0.0915267 0.241363 174 190 111
-0.356554 0.0927475 0.241508 162 192 113
-0.355873 0.093965 0.241651 148 196 110
-0.355584 0.0953329 0.24169 147 210 104
-0.355296 0.0967006 0.241728 147 211 105
-0.354617 0.0979112 0.241872 146 211 105
-0.353553 0.0989605 0.242119 145 210 105
-0.352109 0.0998457 0.242468 146 212 108
-0.351058 0.100883 0.242713 146 211 106
-0.350392 0.102075 0.242853 144 210 106
-0.350107 0.103427 0.242891 146 212 105
-0.349822 0.104778 0.242929 146 213 107
-0.349537 0.106129 0.242967 149 215 107
-0.349252 0.107481 0.243005 149 217 114
-0.348967 0.108832 0.243043 195 232 128
-0.348304 0.110012 0.243183 197 231 127
-0.347268 0.111017 0.243424 154 199 112
-0.346985 0.112363 0.243462 111 148 94
-0.406633 0.0865138 0.227092 68 67 52
-0.40525 0.08776 0.227421 96 117 68
-0.404919 0.0893333 0.227466 127 175 99
-0.403545 0.0905673 0.227793 141 201 116
-0.402179 0.0917938 0.228118 143 211 129
-0.40185 0.0933574 0.228162 144 217 134
-0.358078 0.0890058 0.239773 179 211 126
-0.357788 0.0903813 0.239812 167 214 135
-0.356314 0.0913087 0.240173 156 214 141
-0.355242 0.0923784 0.240426 145 205 133
-0.354565 0.0935934 0.240571 142 197 114
-0.354277 0.0949578 0.240609 146 209 104
-0.353601 0.0961677 0.240754 146 209 105
-0.352928 0.0973744 0.240898 146 209 106
-0.351871 0.0984211 0.241147 144 212 106
-0.351203 0.09962 0.24129 147 211 105
-0.350155 0.100657 0.241536 147 211 107
-0.34987 0.102008 0.241575 146 208 108
-0.349206 0.103198 0.241716 145 212 108
-0.3493 0.104711 0.241651 144 214 107
-0.349015 0.106063 0.241689 146 213 107
-0.34873 0.107414 0.241727 148 213 116
-0.348068 0.108596 0.241869 186 239 139
-0.347032 0.109605 0.242113 186 232 127
-0.346749 0.110951 0.242151 149 195 104
-0.346465 0.112297 0.242189 108 141 87
-0.407081 0.0867612 0.225309 66 64 48
-0.405693 0.0880106 0.225645 75 94 54
-0.404312 0.0892524 0.225978 85 129 67
-0.403981 0.0908257 0.226023 93 150 80
-0.40261 0.0920552 0.226354 98 159 88
-0.402279 0.0936236 0.226398 103 161 87
-0.357547 0.0889363 0.238472 131 193 122
-0.356468 0.0900166 0.23873 128 201 130
-0.355003 0.0909432 0.239095 127 206 133
-0.354326 0.0921602 0.239241 131 202 122
-0.35365 0.0933741 0.239388 143 197 106
-0.352591 0.0944328 0.239641 146 208 103
-0.35192 0.0956389 0.239786 145 210 106
-0.351634 0.0969962 0.239824 144 211 107
-0.350965 0.0981972 0.239969 144 211 106
-0.350298 0.099395 0.240113 148 209 104
-0.349633 0.10059 0.240258 146 212 106
-0.34897 0.101781 0.240401 145 209 105
-0.348685 0.103131 0.240439 147 212 107
-0.3484 0.104481 0.240477 145 211 107
-0.348116 0.105831 0.240515 144 212 108
-0.347831 0.10718 0.240554 146 212 116
-0.346796 0.108193 0.240801 164 228 133
-0.346512 0.109539 0.240839 169 227 124
-0.346229 0.110885 0.240877 143 188 102
-0.345945 0.112231 0.240915 104 134 84
-0.407531 0.08701 0.223515 65 63 48
-0.406137 0.0882626 0.223857 69 82 50
-0.404752 0.0895075 0.224197 69 105 49
-0.403374 0.0907449 0.224535 66 111 48
-0.403042 0.0923182 0.224579 65 112 48
-0.402711 0.0938914 0.224624 67 114 49
-0.356621 0.0887208 0.237282 79 139 76
-0.355546 0.0898004 0.237543 82 140 76
-0.354087 0.0907267 0.237912 85 144 80
-0.353412 0.0919426 0.23806 104 161 89
-0.351969 0.0928557 0.238425 140 196 99
-0.351299 0.0940624 0.238572 144 207 103
-0.350632 0.095266 0.238718 144 208 105
-0.350346 0.0966199 0.238756 144 209 107
-0.350061 0.0979738 0.238794 143 208 107
-0.349396 0.0991705 0.23894 144 207 104
-0.348733 0.100364 0.239086 144 209 104
-0.348071 0.101554 0.239231 144 207 103
-0.347787 0.102903 0.239269 143 208 104
-0.347503 0.104251 0.239307 144 210 104
-0.346844 0.105435 0.239451 144 210 106
-0.34656 0.106781 0.239489 146 212 111
-0.346276 0.108127 0.239527 155 220 119
-0.34562 0.109304 0.239672 160 220 117
-0.344965 0.110478 0.239815 138 183 97
-0.345053 0.111993 0.239748 101 128 79
-0.406584 0.0885161 0.222058 68 70 46
-0.405193 0.0897641 0.222405 68 90 48
-0.40381 0.0910046 0.222749 63 101 50
-0.402956 0.0924099 0.222943 62 107 50
-0.356776 0.0874213 0.23583 58 109 45
-0.355306 0.0883608 0.236207 58 108 45
-0.354237 0.0894386 0.23647 59 107 43
-0.353173 0.0905108 0.236732 59 109 51
-0.351731 0.0914297 0.237102 86 144 79
-0.351062 0.0926384 0.23725 137 199 102
-0.350395 0.093844 0.237398 143 205 103
-0.350109 0.0951982 0.237437 143 206 105
-0.349444 0.0963988 0.237584 143 206 105
-0.349159 0.097751 0.237623 143 204 105
-0.348496 0.0989466 0.23777 143 206 104
-0.347835 0.100139 0.237916 143 207 102
-0.347176 0.101328 0.238063 142 207 102
-0.346892 0.102675 0.238101 140 207 103
-0.346608 0.104022 0.238139 141 208 104
-0.346324 0.105368 0.238177 141 207 104
-0.34604 0.106715 0.238215 143 210 107
-0.345384 0.107893 0.238361 151 218 114
-0.344729 0.109069 0.238506 157 218 113
-0.343707 0.110072 0.238758 138 177 94
-0.342691 0.11107 0.239009 101 124 76
-0.406167 0.0901928 0.220448 68 73 48
-0.405303 0.0916101 0.220647 66 83 53
-0.407627 0.0940795 0.219919 68 89 53
-0.355458 0.087064 0.234758 65 100 51
-0.353997 0.0880026 0.235138 63 102 51
-0.353321 0.089224 0.23529 63 104 48
-0.351493 0.0900033 0.235779 63 105 55
-0.350824 0.0912141 0.235929 88 143 82
-0.350158 0.0924217 0.236079 137 203 107
-0.349492 0.0936261 0.236228 141 204 103
-0.349207 0.0949787 0.236266 141 204 103
-0.348544 0.0961781 0.236415 143 203 103
-0.34826 0.0975288 0.236453 143 204 104
-0.347975 0.0988794 0.236492 144 205 103
-0.346939 0.0999145 0.23675 142 207 102
-0.346655 0.101261 0.236788 140 206 102
-0.346371 0.102608 0.236826 139 205 102
-0.345715 0.103793 0.236974 139 204 102
-0.345431 0.105138 0.237012 138 205 102
-0.345148 0.106483 0.23705 143 208 104
-0.344493 0.10766 0.237197 149 213 109
-0.343841 0.108835 0.237344 156 214 109
-0.342091 0.109501 0.237814 136 171 93
-0.33928 0.109658 0.238597 98 120 76
-0.351638 0.0887207 0.234341 70 86 54
-0.350587 0.0897894 0.234607 73 92 61
-0.34992 0.0909991 0.234758 100 144 85
-0.349635 0.0923537 0.234797 138 205 106
-0.34897 0.0935583 0.234948 140 203 100
-0.348307 0.0947598 0.235099 141 202 100
-0.348023 0.0961106 0.235137 141 202 101
-0.347738 0.0974614 0.235175 141 203 102
-0.347078 0.0986561 0.235325 142 204 100
-0.346419 0.0998475 0.235475 140 203 99
-0.346135 0.101195 0.235513 137 202 100
-0.345851 0.102542 0.235552 137 202 100
-0.345195 0.103726 0.235701 138 201 100
-0.344541 0.104908 0.23585 137 204 100
-0.344258 0.106251 0.235888 140 206 100
-0.343974 0.107594 0.235926 148 212 107
-0.342955 0.108602 0.236185 152 210 108
-0.341211 0.109268 0.23666 135 168 91
-0.338055 0.109261 0.237559 98 116 74
-0.350349 0.0883644 0.233285 70 71 54
-0.349683 0.0895761 0.233438 76 85 63
-0.349018 0.0907846 0.233591 104 144 85
-0.348733 0.0921376 0.233629 137 204 103
-0.348448 0.0934905 0.233668 139 200 98
-0.347786 0.0946922 0.23382 139 200 99
-0.347125 0.0958906 0.233972 138 202 99
-0.346841 0.0972398 0.23401 138 202 99
-0.346183 0.0984333 0.234162 140 201 99
-0.345899 0.0997806 0.2342 140 200 98
-0.345615 0.101128 0.234238 136 199 98
-0.344959 0.102315 0.234389 133 199 99
-0.344305 0.103498 0.23454 135 200 99
-0.344022 0.104842 0.234578 136 200 98
-0.343739 0.106185 0.234616 139 205 99
-0.343087 0.107362 0.234766 147 212 106
-0.342437 0.108536 0.234916 147 204 107
-0.340696 0.109202 0.235398 131 164 91
-0.337545 0.109196 0.23631 95 114 72
-0.415209 0.0934612 0.21262 69 64 52
-0.348781 0.0893633 0.232272 79 91 63
-0.348496 0.0907165 0.23231 109 153 86
-0.348211 0.0920696 0.232349 134 201 101
-0.347549 0.0932733 0.232503 137 198 97
-0.346889 0.0944738 0.232657 136 198 99
-0.34623 0.0956712 0.23281 135 200 98
-0.345946 0.0970187 0.232848 136 200 97
-0.345662 0.0983662 0.232886 137 197 97
-0.345006 0.0995568 0.233039 138 197 97
-0.344723 0.100902 0.233077 136 197 95
-0.344439 0.102248 0.233116 133 197 95
-0.343786 0.103432 0.233268 132 196 96
-0.343503 0.104775 0.233306 134 195 98
-0.342851 0.105954 0.233458 138 202 100
-0.342568 0.107296 0.233496 145 209 106
-0.341919 0.10847 0.233648 142 199 108
-0.340907 0.109473 0.233911 128 162 92
-0.33846 0.109797 0.234619 94 111 72
-0.416046 0.0920947 0.210674 70 64 57
-0.41683 0.0941054 0.210371 78 70 54
-0.347974 0.0906484 0.231029 115 159 88
-0.347688 0.0920017 0.231068 133 199 99
-0.347027 0.0932055 0.231224 135 196 95
-0.345994 0.094256 0.231496 134 196 96
-0.34571 0.0956038 0.231534 133 197 96
-0.345426 0.0969515 0.231572 134 197 95
-0.345142 0.0982991 0.231611 135 195 96
-0.344487 0.0994899 0.231765 135 194 95
-0.344203 0.100836 0.231804 134 195 94
-0.343919 0.102181 0.231842 133 195 93
-0.343267 0.103365 0.231996 130 195 94
-0.342983 0.104709 0.232034 132 196 96
-0.342333 0.105888 0.232188 134 200 98
-0.34205 0.10723 0.232226 142 206 104
-0.341401 0.108404 0.232379 138 193 110
-0.341119 0.109744 0.232417 125 160 91
-0.340109 0.110743 0.232684 91 105 69
-0.416541 0.0923699 0.208763 69 70 57
-0.416193 0.0940205 0.20881 99 102 69
-0.416412 0.095857 0.208679 129 138 91
-0.347166 0.0919337 0.229787 132 195 96
-0.346505 0.0931378 0.229944 133 194 93
-0.345473 0.0941886 0.23022 132 194 93
-0.345189 0.0955365 0.230258 131 194 94
-0.344905 0.0968843 0.230297 132 195 94
-0.344621 0.098232 0.230335 132 192 93
-0.343967 0.099423 0.230491 132 192 94
-0.343314 0.100611 0.230647 131 192 93
-0.343031 0.101955 0.230685 130 193 92
-0.342747 0.103299 0.230723 129 193 91
-0.342464 0.104643 0.230762 130 193 94
-0.341814 0.105822 0.230917 133 197 95
-0.341531 0.107164 0.230955 142 204 102
-0.341248 0.108506 0.230993 132 188 110
-0.340601 0.109678 0.231148 120 160 90
-0.340683 0.111189 0.23107 87 105 67
-0.416471 0.0924656 0.20702 67 70 59
-0.416123 0.094119 0.207067 112 136 80
-0.415774 0.0957721 0.207114 152 206 122
-0.416561 0.0978039 0.206799 156 225 132
-0.346643 0.0918657 0.228506 130 191 93
-0.345983 0.09307 0.228665 129 192 92
-0.344953 0.0941211 0.228944 129 192 92
-0.344669 0.0954691 0.228982 129 191 92
-0.344385 0.096817 0.229021 130 192 91
-0.34373 0.09801 0.229178 130 190 91
-0.343078 0.0991999 0.229336 129 190 93
-0.342794 0.100544 0.229374 129 189 92
-0.342511 0.101888 0.229413 128 190 91
-0.342228 0.103232 0.229451 128 189 91
-0.341578 0.104414 0.229608 127 190 92
-0.341295 0.105756 0.229646 132 194 93
-0.341013 0.107098 0.229684 142 203 100
-0.34073 0.10844 0.229723 127 182 107
-0.340447 0.109781 0.229761 117 158 90
-0.340895 0.111466 0.229562 84 100 64
-0.415833 0.0923805 0.205456 67 68 54
-0.415485 0.0940339 0.205503 83 112 64
-0.415137 0.0956873 0.20555 104 158 89
-0.415354 0.0975294 0.205414 120 181 101
-0.346031 0.0902986 0.227308 132 187 99
-0.345373 0.0915035 0.227469 129 189 93
-0.345088 0.0928536 0.227507 127 189 92
-0.344432 0.0940536 0.227667 127 189 93
-0.344148 0.0954017 0.227706 127 188 90
-0.343864 0.0967497 0.227744 127 189 89
-0.34321 0.097943 0.227904 127 190 91
-0.342558 0.099133 0.228063 126 188 92
-0.342275 0.100477 0.228101 126 187 92
-0.341992 0.101822 0.22814 128 187 91
-0.341342 0.103005 0.228298 127 186 90
-0.341059 0.104347 0.228337 127 188 89
-0.340777 0.10569 0.228375 132 192 92
-0.340494 0.107032 0.228413 140 202 99
-0.340211 0.108374 0.228452 120 177 105
-0.340293 0.109885 0.22837 115 158 91
-0.340741 0.111572 0.228167 84 94 64
-0.415195 0.0922953 0.203891 66 64 55
-0.414847 0.0939489 0.203938 69 91 52
-0.414499 0.0956024 0.203985 71 110 50
-0.414715 0.0974445 0.203847 76 114 49
-0.345509 0.0902305 0.226028 131 182 89
-0.344851 0.0914357 0.22619 128 187 91
-0.344195 0.0926377 0.226352 127 187 91
-0.343911 0.0939861 0.226391 128 187 91
-0.343627 0.0953343 0.226429 127 187 90
-0.343343 0.0966825 0.226468 125 186 89
-0.34269 0.0978759 0.226629 125 187 89
-0.342039 0.0990662 0.22679 125 186 90
-0.341389 0.100253 0.22695 125 184 90
-0.341106 0.101596 0.226989 128 184 89
-0.340823 0.102939 0.227027 126 185 88
-0.34054 0.104281 0.227065 127 185 88
-0.340258 0.105623 0.227104 130 192 92
-0.339975 0.106966 0.227142 140 200 100
-0.340056 0.108475 0.227059 113 171 101
-0.340504 0.110159 0.226853 113 157 91
-0.34022 0.111506 0.226891 85 92 63
-0.414557 0.0922101 0.202326 69 61 54
-0.414209 0.0938638 0.202373 69 78 50
-0.413861 0.0955175 0.20242 64 99 50
-0.414076 0.0973596 0.202279 61 104 47
-0.345271 0.0888103 0.224709 98 147 72
-0.344614 0.0900175 0.224873 125 179 87
-0.34433 0.0913678 0.224912 127 185 91
-0.343674 0.0925701 0.225075 127 185 90
-0.34339 0.0939185 0.225114 127 185 89
-0.343106 0.0952669 0.225152 126 185 89
-0.342454 0.0964624 0.225315 125 183 88
-0.341802 0.0976546 0.225478 125 182 88
-0.341153 0.0988438 0.22564 123 183 88
-0.34087 0.100187 0.225678 123 182 87
-0.340587 0.101529 0.225717 125 181 87
-0.340304 0.102872 0.225755 125 182 87
-0.340021 0.104215 0.225794 124 183 88
-0.339739 0.105557 0.225832 128 191 93
-0.339456 0.106899 0.225871 140 198 99
-0.339901 0.108577 0.225662 109 162 94
-0.339983 0.110093 0.225577 113 156 89
-0.339699 0.11144 0.225615 84 89 62
-0.413571 0.0937788 0.200807 69 65 47
-0.413222 0.0954326 0.200855 67 78 50
-0.344662 0.0872482 0.223517 53 107 50
-0.344377 0.0885989 0.223555 89 144 74
-0.344093 0.0899495 0.223594 122 178 88
-0.343438 0.0911537 0.223759 125 182 91
-0.343153 0.0925024 0.223798 124 183 90
-0.342869 0.093851 0.223837 124 183 88
-0.342585 0.0951995 0.223875 124 183 87
-0.341933 0.0963951 0.22404 123 182 87
-0.341283 0.0975876 0.224204 123 181 87
-0.340634 0.098777 0.224368 122 179 87
-0.340351 0.10012 0.224406 122 180 86
-0.340068 0.101463 0.224445 121 181 87
-0.339785 0.102806 0.224483 122 180 86
-0.339502 0.104148 0.224522 122 181 87
-0.33922 0.105491 0.22456 127 189 92
-0.338937 0.106833 0.224599 142 198 98
-0.339745 0.108679 0.224262 107 155 88
-0.339462 0.110027 0.2243 113 156 88
-0.344053 0.0856898 0.222327 65 91 53
-0.343769 0.087039 0.222366 65 95 58
-0.343485 0.088388 0.222405 96 141 78
-0.343201 0.089737 0.222443 122 179 88
-0.342916 0.0910859 0.222482 123 181 88
-0.342632 0.0924347 0.222521 122 181 89
-0.342348 0.0937834 0.222559 123 181 87
-0.342064 0.095132 0.222598 123 180 86
-0.341413 0.0963279 0.222764 122 180 88
-0.340763 0.0975206 0.22293 122 179 87
-0.340115 0.0987102 0.223096 121 177 86
-0.339832 0.100053 0.223134 120 177 84
-0.339549 0.101396 0.223173 119 179 86
-0.339266 0.102739 0.223211 119 178 85
-0.338983 0.104082 0.22325 121 179 86
-0.3387 0.105425 0.223288 127 187 90
-0.339508 0.107265 0.222946 143 198 97
-0.343248 0.0869708 0.221088 67 77 59
-0.342964 0.08832 0.221127 99 139 82
-0.342679 0.0896691 0.221166 121 178 90
-0.342395 0.0910181 0.221204 121 178 87
-0.342111 0.0923671 0.221243 121 179 87
-0.341827 0.0937159 0.221282 122 179 85
-0.341543 0.0950646 0.221321 121 177 85
-0.340892 0.0962607 0.221489 120 176 87
-0.340243 0.0974536 0.221656 120 176 85
-0.33996 0.0987986 0.221695 118 176 84
-0.339313 0.0999866 0.221862 118 175 83
-0.33903 0.10133 0.2219 118 175 85
-0.338747 0.102673 0.221939 117 176 85
-0.338464 0.104016 0.221978 120 177 85
-0.338181 0.105358 0.222016 126 185 89
-0.411144 0.145757 0.195879 83 79 58
-0.414695 0.0962996 0.194959 67 64 47
-0.414343 0.0979694 0.195007 69 64 46
-0.342442 0.088252 0.219849 100 142 83
-0.342158 0.0896012 0.219888 121 178 89
-0.342242 0.0910963 0.219795 120 176 85
-0.34159 0.0922994 0.219965 119 176 85
-0.341306 0.0936483 0.220004 119 176 85
-0.341022 0.0949972 0.220043 118 176 86
-0.340372 0.0961934 0.220213 117 175 85
-0.339723 0.0973865 0.220382 118 174 84
-0.33944 0.0987316 0.22042 117 174 83
-0.338793 0.0999198 0.220589 118 173 82
-0.33851 0.101263 0.220628 117 172 83
-0.338228 0.102606 0.220666 116 173 84
-0.337945 0.103949 0.220705 119 175 86
-0.337662 0.105292 0.220744 126 183 88
-0.410489 0.145674 0.194274 83 73 55
-0.414402 0.0945438 0.193329 67 64 56
-0.41405 0.0962139 0.193377 74 79 65
-0.412565 0.0975024 0.193832 77 84 76
-0.411651 0.0989746 0.194083 80 90 77
-0.342089 0.0911747 0.218382 118 174 83
-0.341804 0.0925273 0.218421 117 174 83
-0.340784 0.0935807 0.218726 115 175 85
-0.3405 0.0949297 0.218765 115 174 85
-0.339851 0.0961262 0.218936 115 173 83
-0.339567 0.0974732 0.218975 115 172 83
-0.33892 0.0986647 0.219146 115 171 82
-0.338274 0.0998531 0.219316 116 171 81
-0.337991 0.101196 0.219355 116 169 82
-0.337708 0.10254 0.219394 115 172 83
-0.337425 0.103883 0.219432 117 173 84
-0.337142 0.105226 0.219471 127 182 88
-0.412492 0.144977 0.191781 108 148 87
-0.41098 0.146135 0.192251 84 71 55
-0.416045 0.095206 0.190916 68 65 60
-0.413405 0.0961281 0.191796 134 150 85
-0.411923 0.0974171 0.192256 157 204 111
-0.41101 0.0988895 0.192509 172 205 107
-0.41066 0.100551 0.192557 185 210 106
-0.341282 0.0924594 0.217139 116 172 82
-0.340997 0.0938121 0.217178 114 172 84
-0.339979 0.0948622 0.217487 113 171 83
-0.339695 0.0962112 0.217526 113 170 82
-0.339046 0.097406 0.217699 114 169 81
-0.338763 0.0987531 0.217738 113 168 81
-0.338116 0.099943 0.21791 113 168 80
-0.337472 0.10113 0.218082 114 167 80
-0.337189 0.102473 0.218121 115 169 80
-0.336906 0.103816 0.21816 116 172 83
-0.336983 0.105323 0.218065 124 181 88
-0.413575 0.145711 0.18952 107 143 85
-0.410897 0.146324 0.190428 84 68 53
-0.415396 0.0951195 0.189324 65 69 60
-0.41276 0.0960422 0.190214 114 153 85
-0.41128 0.0973317 0.190679 149 202 112
-0.410368 0.0988044 0.190935 168 209 113
-0.410018 0.100467 0.190983 167 213 118
-0.341495 0.0926883 0.215584 115 170 82
-0.340474 0.0937443 0.215897 115 169 82
-0.339823 0.0949456 0.216072 114 169 80
-0.339173 0.0961438 0.216247 113 168 80
-0.338525 0.0973389 0.216422 113 167 80
-0.338242 0.0986861 0.216461 112 165 79
-0.337596 0.0998762 0.216635 112 165 78
-0.337313 0.101221 0.216674 113 166 79
-0.337029 0.102567 0.216713 113 166 79
-0.336746 0.103912 0.216752 114 170 82
-0.415258 0.14673 0.187016 105 139 84
-0.412552 0.14734 0.187946 85 69 48
-0.415321 0.0952212 0.187517 66 65 49
-0.412682 0.0961449 0.18842 77 103 49
-0.411199 0.0974362 0.188892 89 129 62
-0.409726 0.0987193 0.18936 94 144 77
-0.409376 0.100382 0.189408 98 161 92
-0.343114 0.0920034 0.213559 115 167 79
-0.34134 0.0927691 0.214159 114 168 81
-0.340318 0.0938264 0.214476 113 166 80
-0.3393 0.094878 0.214792 113 165 79
-0.338652 0.0960764 0.214969 112 164 80
-0.338004 0.0972717 0.215145 111 164 79
-0.337721 0.098619 0.215184 110 164 77
-0.337076 0.0998093 0.21536 110 164 77
-0.336792 0.101155 0.215399 112 164 78
-0.336509 0.1025 0.215438 112 164 78
-0.336226 0.103845 0.215477 114 168 82
-0.417329 0.146026 0.184429 104 136 73
-0.415773 0.147202 0.184932 101 135 84
-0.414228 0.14837 0.185431 82 66 44
-0.413526 0.094759 0.186356 67 63 49
-0.412036 0.096059 0.186835 70 87 43
-0.409994 0.0971609 0.187525 63 106 42
-0.409084 0.0986342 0.187785 59 109 40
-0.408177 0.100103 0.188045 60 110 42
-0.342213 0.0917861 0.212407 113 163 78
-0.340815 0.092701 0.212872 110 164 78
-0.339794 0.0937585 0.213193 110 164 79
-0.338778 0.0948104 0.213512 111 163 79
-0.33813 0.0960091 0.21369 110 163 78
-0.337483 0.0972045 0.213868 109 162 77
-0.336839 0.0983968 0.214046 108 161 77
-0.336555 0.0997425 0.214085 108 161 77
-0.336272 0.101088 0.214124 110 160 77
-0.335989 0.102433 0.214163 112 160 77
-0.336065 0.103941 0.214063 112 167 82
-0.417987 0.142742 0.182452 119 175 88
-0.417621 0.144481 0.182503 120 169 93
-0.417255 0.146219 0.182553 103 138 75
-0.416292 0.147677 0.182833 98 133 86
-0.415332 0.149129 0.183113 77 63 49
-0.410262 0.0955971 0.185684 69 69 43
-0.408792 0.0968864 0.186162 66 88 47
-0.407885 0.0983579 0.186425 68 99 50
-0.407536 0.100018 0.186473 70 104 49
-0.340945 0.0914217 0.211402 108 160 77
-0.339922 0.092484 0.211727 107 160 78
-0.33927 0.0936906 0.211909 108 159 77
-0.338255 0.0947428 0.212231 108 158 77
-0.337608 0.0959416 0.212411 108 158 76
-0.336962 0.0971373 0.212591 107 158 75
-0.336318 0.0983298 0.21277 107 157 76
-0.336035 0.0996756 0.212809 107 158 77
-0.335751 0.101021 0.212848 108 158 76
-0.335827 0.102527 0.212747 108 160 75
-0.335904 0.104036 0.212646 109 164 79
-0.417314 0.142656 0.180803 116 173 88
-0.416948 0.144395 0.180854 113 166 95
-0.416582 0.146134 0.180904 103 140 75
-0.416216 0.147873 0.180955 97 130 86
-0.41585 0.149611 0.181005 76 60 49
-0.407594 0.0966127 0.184804 73 68 52
-0.407244 0.0982729 0.184852 70 66 54
-0.406341 0.09974 0.185116 67 67 54
-0.341446 0.0902851 0.209783 104 154 74
-0.339683 0.0910591 0.210402 103 153 75
-0.339398 0.0924159 0.210441 103 153 76
-0.338381 0.093473 0.210768 104 153 75
-0.337733 0.0946752 0.21095 103 153 73
-0.337086 0.0958742 0.211132 103 154 74
-0.336081 0.0969169 0.211455 102 153 75
-0.335797 0.0982628 0.211494 103 152 74
-0.335514 0.0996087 0.211533 103 153 74
-0.335231 0.100954 0.211572 102 154 73
-0.335666 0.102621 0.211328 102 155 74
-0.335382 0.10397 0.211367 105 160 77
-0.416641 0.14257 0.179154 113 169 86
-0.417472 0.144863 0.178731 108 162 96
-0.416506 0.146327 0.179019 104 140 75
-0.416738 0.148352 0.178832 94 126 88
-0.41637 0.150097 0.178883 75 64 41
-0.406952 0.0965275 0.18323 68 61 49
-0.40605 0.0979976 0.183497 70 64 49
-0.405701 0.0996552 0.183545 74 64 49
-0.340549 0.0900702 0.208637 102 154 74
-0.339159 0.0909909 0.209116 101 152 75
-0.338873 0.0923478 0.209155 103 151 74
-0.337858 0.0934052 0.209485 105 151 73
-0.33721 0.0946076 0.209669 104 150 72
-0.336564 0.0958068 0.209853 103 150 73
-0.33556 0.0968497 0.210179 101 151 75
-0.335277 0.0981958 0.210218 101 148 74
-0.334993 0.0995418 0.210257 101 147 72
-0.335068 0.101046 0.210153 99 149 72
-0.335144 0.102554 0.210049 99 149 73
-0.33486 0.103903 0.210088 103 157 76
-0.417164 0.143031 0.177026 110 166 84
-0.419212 0.145894 0.176108 102 158 94
-0.41703 0.146802 0.176886 102 140 76
-0.417867 0.14912 0.176453 90 122 86
-0.417498 0.150874 0.176504 72 67 44
-0.40666 0.0947817 0.181609 65 66 50
-0.406311 0.0964423 0.181657 69 72 58
-0.40541 0.0979127 0.181926 74 73 64
-0.405061 0.0995704 0.181974 78 73 61
-0.339367 0.0912164 0.207534 114 154 79
-0.338348 0.0922797 0.207869 114 152 77
-0.337698 0.0934868 0.208055 114 150 74
-0.33705 0.0946907 0.208242 113 150 74
-0.336042 0.0957393 0.208573 110 148 74
-0.335039 0.0967826 0.208903 106 147 75
-0.334756 0.0981288 0.208942 101 145 74
-0.334473 0.0994749 0.208981 97 144 70
-0.334547 0.100979 0.208875 94 145 70
-0.334622 0.102487 0.208769 95 147 71
-0.334338 0.103836 0.208808 101 155 72
-0.423824 0.146305 0.172392 109 164 81
-0.422207 0.14751 0.172948 100 155 92
-0.419989 0.14842 0.17375 103 142 78
-0.419617 0.150186 0.173801 88 118 85
-0.419245 0.151951 0.173853 70 64 44
-0.406572 0.0948817 0.179811 68 71 57
-0.405669 0.096357 0.180083 148 165 87
-0.404769 0.0978277 0.180355 169 188 99
-0.40442 0.0994856 0.180403 183 188 95
-0.341432 0.0921877 0.205186 98 147 77
-0.338555 0.0925086 0.206284 97 145 74
-0.337538 0.0935685 0.206622 96 143 72
-0.336526 0.094623 0.206958 95 142 71
-0.33552 0.0956719 0.207293 94 141 70
-0.334519 0.0967154 0.207626 94 141 70
-0.334235 0.0980617 0.207666 92 141 68
-0.334309 0.0995644 0.207558 90 139 66
-0.334026 0.100912 0.207597 90 140 66
-0.334099 0.10242 0.20749 91 143 68
-0.42276 0.147998 0.170755 96 154 92
-0.421765 0.149487 0.171062 103 143 79
-0.420773 0.150972 0.171368 85 114 85
-0.4204 0.152746 0.17142 71 63 40
-0.406484 0.0949819 0.178007 68 80 64
-0.40558 0.0964596 0.178283 138 183 108
-0.404678 0.0979326 0.178558 164 215 124
-0.404328 0.0995932 0.178606 158 216 125
-0.341649 0.0924189 0.203574 88 138 63
-0.338395 0.0925893 0.204842 87 138 63
-0.337013 0.0935005 0.205335 87 137 64
-0.336003 0.0945552 0.205675 87 135 65
-0.334998 0.0956044 0.206013 88 135 63
-0.334355 0.0968011 0.206201 89 136 61
-0.334071 0.0981493 0.206241 88 137 61
-0.333788 0.0994973 0.20628 88 135 61
-0.333861 0.101004 0.20617 88 135 61
-0.333935 0.102514 0.206061 89 138 62
-0.423316 0.148489 0.168546 99 154 90
-0.422317 0.149983 0.168858 106 145 79
-0.421321 0.151472 0.16917 81 104 76
-0.420946 0.153252 0.169221 69 61 38
-0.40584 0.0948962 0.176428 68 72 53
-0.404937 0.0963742 0.176706 88 115 57
-0.404587 0.0980378 0.176755 98 144 80
-0.404237 0.0997012 0.176803 105 171 104
-0.341117 0.0923497 0.202269 85 135 61
-0.337868 0.0925209 0.20355 85 134 61
-0.336125 0.0932829 0.2042 86 135 62
-0.335119 0.0943369 0.204543 85 135 63
-0.334475 0.095537 0.204733 84 134 62
-0.333833 0.0967339 0.204923 85 134 61
-0.33355 0.0980821 0.204962 86 133 61
-0.333623 0.0995869 0.204851 86 132 60
-0.333339 0.100937 0.20489 86 132 59
-0.333412 0.102447 0.204779 87 135 62
-0.333485 0.103961 0.204668 96 145 68
-0.423 0.146614 0.166799 110 160 80
-0.422624 0.148401 0.166851 101 151 88
-0.422248 0.150188 0.166903 108 144 77
-0.421872 0.151974 0.166956 79 97 70
-0.421496 0.153761 0.167008 67 66 46
-0.405196 0.0948106 0.174848 68 67 52
-0.404846 0.096477 0.174897 67 103 53
-0.404495 0.0981433 0.174946 62 108 43
-0.340584 0.0922804 0.200963 84 134 62
-0.33734 0.0924524 0.202258 84 133 61
-0.335601 0.0932149 0.202915 86 131 61
-0.334237 0.0941192 0.203413 85 132 60
-0.333953 0.0954695 0.203452 83 132 60
-0.333312 0.0966666 0.203644 83 132 60
-0.333028 0.098015 0.203683 85 132 60
-0.3331 0.0995198 0.203571 85 131 60
-0.332816 0.10087 0.20361 84 131 61
-0.332532 0.10222 0.203649 84 134 63
-0.332604 0.103731 0.203537 94 144 68
-0.422308 0.146525 0.165104 109 157 77
-0.421932 0.148313 0.165156 98 144 82
-0.421556 0.1501 0.165208 108 144 78
-0.42118 0.151887 0.16526 76 88 65
-0.420804 0.153673 0.165313 65 60 46
-0.406216 0.0952845 0.17256 69 67 57
-0.340715 0.0909826 0.199457 88 137 65
-0.338937 0.091762 0.200136 87 135 64
-0.336449 0.0922352 0.201122 87 135 63
-0.335076 0.0931469 0.201629 85 133 60
-0.333714 0.0940516 0.202132 85 131 59
-0.33343 0.095402 0.202172 86 132 61
-0.33279 0.0965993 0.202365 86 133 64
-0.332862 0.0981025 0.202251 84 132 64
-0.332578 0.0994527 0.20229 83 132 63
-0.332294 0.100803 0.20233 84 133 63
-0.33201 0.102153 0.202369 85 135 64
-0.331726 0.103502 0.202408 95 146 69
-0.421616 0.146437 0.163408 111 159 81
-0.42124 0.148224 0.163461 95 144 81
-0.420864 0.150012 0.163513 108 146 79
-0.420488 0.151799 0.163565 75 81 60
-0.420112 0.153586 0.163617 66 63 44
-0.340762 0.0881547 0.198068 86 140 69
-0.339726 0.0892407 0.198432 102 152 76
-0.338695 0.090321 0.198795 100 149 74
-0.337303 0.0912475 0.199315 96 145 71
-0.335922 0.0921668 0.199831 93 143 70
-0.334552 0.0930789 0.200343 90 141 68
-0.333192 0.0939839 0.200851 87 138 65
-0.332907 0.0953345 0.200891 85 137 65
-0.332623 0.0966849 0.20093 85 136 65
-0.332339 0.0980353 0.20097 84 134 64
-0.332055 0.0993855 0.201009 86 133 63
-0.331771 0.100736 0.201049 85 132 61
-0.331487 0.102086 0.201088 85 135 62
-0.331203 0.103436 0.201128 94 146 71
-0.420172 0.149924 0.161817 113 152 83
-0.419796 0.151711 0.161869 79 75 60
-0.41942 0.153498 0.161922 69 61 48
-0.340352 0.0836674 0.196966 71 111 52
-0.33969 0.0849029 0.19717 67 108 50
-0.339031 0.0861351 0.197373 65 109 53
-0.338742 0.0875074 0.197413 98 151 77
-0.337717 0.0885896 0.197777 113 165 82
-0.337062 0.089812 0.197979 111 163 80
-0.335682 0.090737 0.1985 109 161 77
-0.334672 0.0918023 0.198858 107 157 75
-0.334027 0.0930109 0.199057 106 154 73
-0.332669 0.0939163 0.19957 101 151 71
-0.332385 0.095267 0.19961 96 147 69
-0.332101 0.0966175 0.199649 92 143 67
-0.331816 0.097968 0.199689 90 141 66
-0.331532 0.0993183 0.199728 89 139 65
-0.331248 0.100669 0.199768 87 137 62
-0.330964 0.102019 0.199807 87 140 62
-0.33068 0.103369 0.199847 95 150 72
-0.419103 0.151623 0.160173 85 71 57
-0.418727 0.15341 0.160226 70 60 47
-0.337161 0.0811354 0.196929 67 65 46
-0.336874 0.0824976 0.196969 68 70 47
-0.336588 0.0838596 0.197009 67 80 54
-0.336301 0.0852216 0.197049 72 99 63
-0.336015 0.0865835 0.197089 109 163 88
-0.335728 0.0879452 0.197129 122 182 90
-0.33508 0.0891623 0.19733 119 178 85
-0.334433 0.0903761 0.19753 117 174 82
-0.333788 0.0915867 0.197731 116 170 81
-0.333144 0.0927941 0.19793 114 165 79
-0.332146 0.0938486 0.198289 111 163 76
-0.331507 0.0950484 0.198487 108 161 75
-0.331223 0.0963973 0.198526 105 157 74
-0.331294 0.0979007 0.198407 102 152 73
-0.33101 0.0992511 0.198447 98 148 73
-0.330372 0.100444 0.198645 94 146 71
-0.330088 0.101792 0.198685 93 148 70
-0.330157 0.103302 0.198566 101 155 75
-0.418411 0.151535 0.158477 85 61 55
-0.418035 0.153323 0.158529 71 62 42
-0.335622 0.082157 0.196003 65 63 49
-0.335336 0.0835157 0.196043 63 66 50
-0.33469 0.0847357 0.196245 79 94 63
-0.334404 0.0860925 0.196285 121 174 98
-0.334119 0.0874491 0.196324 135 197 103
-0.333833 0.0888057 0.196364 133 191 94
-0.33319 0.090017 0.196566 130 188 91
-0.332905 0.0913716 0.196606 129 184 89
-0.332263 0.0925779 0.196807 125 180 86
-0.331623 0.093781 0.197007 121 175 83
-0.330985 0.0949809 0.197207 115 173 82
-0.330701 0.09633 0.197246 112 168 81
-0.330771 0.0978334 0.197126 110 162 78
-0.330487 0.099184 0.197166 108 160 77
-0.32985 0.100377 0.197365 105 159 76
-0.329566 0.101725 0.197405 104 162 78
-0.417718 0.151447 0.15678 82 58 50
-0.417342 0.153235 0.156833 59 64 43
-0.33445 0.08331 0.194918 64 65 52
-0.333806 0.0845288 0.195121 93 109 68
-0.33352 0.0858839 0.195161 138 186 109
-0.333235 0.087239 0.195201 148 208 120
-0.33295 0.0885939 0.195241 144 204 109
-0.332309 0.0898041 0.195443 140 201 102
-0.332024 0.0911571 0.195483 135 198 97
-0.331384 0.0923622 0.195685 132 195 94
-0.330747 0.0935642 0.195887 131 191 95
-0.330463 0.0949135 0.195927 128 188 92
-0.330179 0.0962627 0.195966 124 183 88
-0.330248 0.097766 0.195844 121 178 86
-0.329964 0.0991168 0.195884 119 175 84
-0.328976 0.100152 0.196246 114 173 82
-0.328693 0.101499 0.196286 115 175 84
-0.417026 0.151359 0.155083 74 58 47
-0.333208 0.0829688 0.19396 65 62 52
-0.332924 0.0843224 0.194 109 122 77
-0.332639 0.0856759 0.19404 169 215 130
-0.332354 0.0870294 0.19408 215 250 141
-0.33207 0.0883827 0.19412 246 240 126
-0.33143 0.0895917 0.194324 233 231 124
-0.331146 0.0909431 0.194363 186 218 124
-0.330861 0.0922944 0.194403 152 209 114
-0.330224 0.0934966 0.194606 141 206 106
-0.32994 0.094846 0.194646 140 202 101
-0.329656 0.0961953 0.194686 136 196 98
-0.329725 0.0976987 0.194562 132 190 97
-0.32944 0.0990496 0.194602 129 187 93
-0.329156 0.1004 0.194642 126 186 91
-0.332328 0.0827645 0.192842 62 71 57
-0.332044 0.0841165 0.192882 119 137 85
-0.33176 0.0854684 0.192922 169 221 128
-0.331475 0.0868202 0.192961 189 231 138
-0.331191 0.088172 0.193001 193 229 145
-0.330907 0.0895236 0.193041 183 244 166
-0.330622 0.0908751 0.193081 177 251 167
-0.330338 0.0922266 0.193121 197 246 142
-0.330054 0.0935779 0.193161 205 237 126
-0.329418 0.0947785 0.193366 180 224 122
-0.329134 0.0961279 0.193405 155 212 117
-0.329201 0.0976314 0.19328 146 207 111
-0.328917 0.0989823 0.19332 141 204 107
-0.328283 0.100176 0.193525 140 203 104
-0.331805 0.0826958 0.191559 64 71 58
-0.331521 0.084048 0.191599 129 148 91
-0.331236 0.0854 0.191639 182 232 143
-0.330952 0.0867519 0.191679 193 252 148
-0.330668 0.0881038 0.191719 188 246 138
-0.330384 0.0894555 0.191758 183 240 134
-0.330099 0.0908072 0.191798 177 235 130
-0.328962 0.0962128 0.191958 170 248 150
-0.328678 0.097564 0.191998 175 242 138
-0.328044 0.0987593 0.192204 185 241 131
-0.327063 0.0997948 0.192576 184 233 128
-0.32678 0.101141 0.192615 172 222 119
-0.330223 0.0822231 0.190781 68 72 60
-0.330291 0.0837063 0.190653 132 152 94
-0.33036 0.0851931 0.190525 190 234 149
-0.330076 0.0865434 0.190564 205 255 162
-0.329792 0.0878937 0.190604 200 255 154
-0.32986 0.0893875 0.190476 194 255 149
-0.328155 0.0974966 0.190715 180 241 129
-0.327521 0.0986922 0.190923 176 238 129
-0.326541 0.0997279 0.191298 171 242 140
-0.326258 0.101074 0.191338 176 246 141
-0.328652 0.081754 0.190009 63 71 60
-0.329068 0.0833663 0.189712 133 158 97
-0.329135 0.084849 0.189582 191 236 154
-0.328851 0.086196 0.189622 207 255 166
-0.328918 0.0876841 0.189493 204 255 159
-0.328985 0.0891758 0.189363 197 255 157
-0.327631 0.0974293 0.189432 200 254 143
-0.326998 0.098625 0.189642 187 251 136
-0.32602 0.099661 0.19002 178 247 132
-0.325737 0.101007 0.19006 178 243 129
-0.387418 0.136443 0.159507 70 61 50
-0.326748 0.0811566 0.189411 62 71 60
-0.32785 0.083028 0.188775 141 164 103
-0.327916 0.0845067 0.188645 196 238 155
-0.327981 0.085989 0.188514 210 255 166
-0.328047 0.087475 0.188383 206 255 163
-0.328462 0.0891078 0.188081 203 255 164
-0.325781 0.0982479 0.188702 202 255 154
-0.324809 0.0992825 0.189082 189 254 143
-0.324526 0.100625 0.189122 182 249 133
-0.325971 0.102767 0.188309 168 225 119
-0.325205 0.0806955 0.18865 62 71 65
-0.325951 0.0824243 0.188183 147 171 106
-0.326703 0.0841661 0.187712 197 240 155
-0.326766 0.0856443 0.18758 210 255 166
-0.32683 0.0871262 0.187449 208 255 164
-0.326894 0.0886118 0.187317 205 255 165
-0.325543 0.0968345 0.187384 238 255 181
-0.324571 0.0978728 0.187767 225 255 170
-0.322582 0.0984438 0.188657 208 255 155
-0.323322 0.100245 0.188188 188 251 135
-0.324755 0.102379 0.187372 166 221 118
-0.323672 0.0802379 0.187895 65 72 64
-0.323731 0.0816949 0.187765 151 173 106
-0.32447 0.0834231 0.187296 204 243 158
-0.324531 0.0848913 0.187165 213 255 165
-0.32425 0.086225 0.187204 212 255 162
-0.32397 0.0875587 0.187244 208 255 165
-0.32223 0.0940777 0.187612 242 255 189
-0.32195 0.0954091 0.187651 248 255 192
-0.32167 0.0967404 0.187691 248 255 192
-0.32139 0.0980716 0.18773 226 254 168
-0.321447 0.0995571 0.1876 192 248 132
-0.323203 0.101835 0.186611 162 216 117
-0.322822 0.0800413 0.186806 66 72 65
-0.32288 0.0814964 0.186675 156 180 111
-0.322938 0.082955 0.186544 208 246 164
-0.323335 0.0845524 0.186242 216 255 172
-0.323055 0.0858829 0.186282 214 255 169
-0.323114 0.0873522 0.18615 210 255 170
-0.323173 0.0888251 0.186017 207 255 169
-0.322892 0.0901587 0.186057 208 255 169
-0.322612 0.0914922 0.186097 216 255 174
-0.321321 0.0923887 0.18665 224 255 181
-0.321042 0.093717 0.186689 229 255 187
-0.321098 0.0951937 0.186558 239 255 196
-0.320818 0.0965234 0.186598 241 255 199
-0.320539 0.0978531 0.186637 221 253 174
-0.320259 0.0991827 0.186677 192 245 129
-0.322683 0.101768 0.185336 159 211 114
-0.321306 0.0795884 0.186061 64 74 68
-0.321696 0.0811678 0.185759 159 183 111
-0.321753 0.0826224 0.185628 213 246 163
-0.321809 0.0840806 0.185496 222 255 179
-0.321531 0.0854063 0.185535 220 255 178
-0.321923 0.0870077 0.18523 216 255 176
-0.322318 0.0886172 0.184924 215 255 173
-0.321701 0.089807 0.185137 215 255 172
-0.321085 0.0909937 0.185349 220 255 176
-0.320806 0.0923222 0.185388 228 255 181
-0.320527 0.0936506 0.185428 234 255 186
-0.320248 0.0949789 0.185467 241 255 192
-0.319968 0.0963071 0.185507 236 255 190
-0.319689 0.0976352 0.185546 211 253 165
-0.31941 0.0989632 0.185586 187 243 128
-0.322162 0.101702 0.18406 154 201 108
-0.328862 0.106332 0.180493 95 102 69
-0.320463 0.0793935 0.18498 64 76 72
-0.320518 0.0808408 0.184848 160 187 109
-0.320906 0.0824233 0.184543 215 247 163
-0.320961 0.0838795 0.18441 226 255 180
-0.320683 0.0852036 0.184449 226 255 178
-0.320738 0.086665 0.184316 224 255 178
-0.321129 0.0882697 0.184008 223 255 176
-0.32085 0.0895984 0.184048 223 255 177
-0.320571 0.0909271 0.184087 226 255 180
-0.319957 0.092111 0.1843 231 255 183
-0.319678 0.0934378 0.18434 238 255 187
-0.319399 0.0947646 0.184379 246 255 193
-0.319121 0.0960912 0.184419 240 255 189
-0.318842 0.0974178 0.184458 206 253 160
-0.318895 0.0988973 0.184324 184 242 127
-0.322323 0.101953 0.182429 151 192 104
-0.328328 0.106264 0.179184 93 84 60
-0.328754 0.107984 0.17885 67 65 42
-0.319292 0.0790721 0.184073 63 78 74
-0.319345 0.0805154 0.18394 159 191 110
-0.319729 0.0820933 0.183634 216 248 163
-0.319783 0.0835456 0.1835 226 255 181
-0.319837 0.0850015 0.183366 228 255 181
-0.31956 0.086324 0.183405 228 255 182
-0.319946 0.0879239 0.183096 227 255 183
-0.320001 0.0893904 0.182961 228 255 182
-0.319722 0.0907175 0.183 230 255 184
-0.31911 0.0919003 0.183215 235 255 185
-0.318832 0.0932256 0.183254 242 255 189
-0.318553 0.0945508 0.183294 249 255 193
-0.318275 0.0958759 0.183333 240 255 184
-0.317996 0.0972009 0.183373 204 254 155
-0.318049 0.0986784 0.183238 182 241 128
-0.322828 0.102365 0.180607 146 182 101
-0.328151 0.106365 0.177686 91 72 56
-0.3178 0.0786261 0.183343 64 80 77
-0.317525 0.079936 0.183382 163 194 114
-0.31823 0.0816347 0.182903 218 249 164
-0.318282 0.0830811 0.182769 227 255 179
-0.318334 0.0845311 0.182634 230 255 181
-0.318386 0.0859846 0.182499 231 255 183
-0.318769 0.0875798 0.182189 229 255 182
-0.319154 0.0891829 0.181877 228 255 181
-0.318875 0.0905085 0.181916 233 255 184
-0.318597 0.091834 0.181956 238 255 187
-0.318318 0.0931594 0.181995 240 255 189
-0.31804 0.0944847 0.182035 244 255 187
-0.317431 0.0956611 0.18225 232 255 174
-0.317483 0.097135 0.182114 200 253 146
-0.317534 0.0986125 0.181977 179 237 124
-0.322647 0.102459 0.17914 141 172 95
-0.327616 0.106296 0.176375 88 67 57
-0.316319 0.0781834 0.182618 67 81 79
-0.316044 0.0794886 0.182657 161 191 119
-0.316417 0.0810505 0.182351 220 250 166
-0.316467 0.0824892 0.182216 230 255 180
-0.316842 0.0840642 0.181908 231 255 182
-0.316892 0.0855118 0.181772 231 255 183
-0.317598 0.0872374 0.181285 230 255 180
-0.318309 0.0889758 0.180795 228 255 179
-0.318031 0.0902999 0.180834 233 255 184
-0.317753 0.0916239 0.180874 239 255 187
-0.317474 0.0929477 0.180913 242 255 185
-0.317196 0.0942715 0.180953 238 255 181
-0.316918 0.0955952 0.180992 219 255 166
-0.31664 0.0969188 0.181032 194 253 142
-0.31735 0.0986995 0.180539 175 233 123
-0.322122 0.102392 0.177853 136 164 93
-0.32708 0.106228 0.175063 84 61 56
-0.314848 0.0777439 0.181898 67 84 81
-0.314896 0.0791701 0.181764 165 197 126
-0.314943 0.0805996 0.18163 223 252 170
-0.31499 0.0820326 0.181496 232 255 183
-0.31536 0.0836008 0.181186 233 255 183
-0.315732 0.0851766 0.180875 232 255 183
-0.316106 0.0867601 0.180563 229 255 181
-0.317466 0.0887693 0.179715 229 255 180
-0.317518 0.0902335 0.179576 233 255 185
-0.317239 0.0915575 0.179616 238 255 189
-0.316961 0.0928815 0.179656 241 255 188
-0.316683 0.0942054 0.179695 235 255 182
-0.316405 0.0955293 0.179735 216 255 166
-0.316126 0.0968529 0.179774 191 251 140
-0.316835 0.0986335 0.179276 171 228 121
-0.32194 0.102485 0.17638 129 154 91
-0.32619 0.105991 0.173946 85 60 50
-0.314025 0.0775541 0.180837 69 87 82
-0.314071 0.0789784 0.180702 169 203 132
-0.313798 0.0802789 0.180741 225 254 171
-0.313844 0.0817081 0.180606 233 255 182
-0.31389 0.0831407 0.18047 235 255 183
-0.314579 0.0848429 0.179983 234 255 184
-0.314949 0.0864218 0.179669 231 255 182
-0.316954 0.0887028 0.178459 232 255 183
-0.316676 0.0900255 0.178498 235 255 187
-0.316726 0.0914913 0.178358 238 255 190
-0.316448 0.0928154 0.178398 240 255 189
-0.315842 0.0939929 0.178617 235 255 182
-0.315564 0.0953151 0.178657 217 254 163
-0.315613 0.0967871 0.178516 190 249 139
-0.31632 0.0985675 0.178014 168 224 122
-0.321757 0.102579 0.174902 119 144 90
-0.325302 0.105755 0.17283 78 61 46
-0.312887 0.0772418 0.179953 72 90 81
-0.312931 0.0786623 0.179817 171 206 135
-0.312976 0.0800862 0.179681 226 255 172
-0.312703 0.0813852 0.17972 234 255 185
-0.312748 0.082814 0.179583 235 255 188
-0.313111 0.0843784 0.179271 235 255 188
-0.313797 0.0860853 0.178779 233 255 186
-0.316113 0.0884969 0.177383 236 255 187
-0.316163 0.0899591 0.177242 240 255 191
-0.315885 0.0912818 0.177281 241 255 191
-0.315607 0.0926044 0.177321 239 255 188
-0.315329 0.0939269 0.177361 230 255 178
-0.315051 0.0952492 0.1774 212 254 157
-0.3151 0.0967213 0.177258 189 248 135
-0.315804 0.0985015 0.176751 164 221 121
-0.321231 0.102512 0.173612 111 137 91
-0.324065 0.105353 0.171914 70 62 48
-0.311439 0.0768089 0.179247 75 93 81
-0.311797 0.0783478 0.178936 171 208 142
-0.31184 0.0797679 0.178799 224 255 176
-0.311568 0.0810638 0.178838 233 255 186
-0.311611 0.0824888 0.178701 234 255 188
-0.31197 0.0840488 0.178387 235 255 188
-0.31265 0.0857503 0.177893 235 255 189
-0.315601 0.0884305 0.176128 240 255 192
-0.315323 0.0897517 0.176167 245 255 193
-0.315372 0.0912156 0.176024 243 255 192
-0.315094 0.0925383 0.176064 234 255 186
-0.314491 0.0937149 0.176286 220 255 171
-0.314213 0.0950357 0.176326 206 254 151
-0.314261 0.0965058 0.176183 186 246 131
-0.315289 0.0984356 0.175488 161 212 117
-0.320362 0.102284 0.172514 105 126 87
-0.323182 0.105118 0.170805 68 62 45
-0.310314 0.0765003 0.178372 77 97 82
-0.310355 0.0779115 0.178235 170 205 141
-0.310396 0.0793261 0.178098 225 255 176
-0.310125 0.0806173 0.178137 233 255 186
-0.310166 0.0820368 0.177999 231 255 188
-0.310835 0.0837207 0.177507 233 255 190
-0.311826 0.0855506 0.176832 236 255 192
-0.314439 0.0880865 0.17524 241 255 193
-0.314811 0.0896854 0.174912 244 255 192
-0.314534 0.0910067 0.174951 240 255 188
-0.314256 0.0923278 0.174991 227 255 179
-0.313654 0.0935034 0.175215 213 255 166
-0.313377 0.0948227 0.175254 200 253 146
-0.313423 0.0962908 0.17511 183 243 127
-0.314773 0.0983696 0.174225 158 208 115
-0.319496 0.102056 0.171419 98 113 80
-0.321609 0.104554 0.170094 67 63 42
-0.308576 0.0759526 0.177851 82 100 83
-0.308924 0.0774784 0.177539 177 207 145
-0.308654 0.0787636 0.177578 229 255 176
-0.308693 0.0801741 0.17744 233 255 183
-0.309042 0.0817154 0.177126 233 255 187
-0.309393 0.0832642 0.17681 235 255 189
-0.310689 0.0852182 0.175954 238 255 190
-0.313604 0.087882 0.174172 240 255 192
-0.313651 0.0893384 0.174027 241 255 191
-0.313697 0.0907983 0.173881 233 255 185
-0.31342 0.092118 0.173921 220 255 175
-0.31282 0.0932924 0.174145 207 255 163
-0.312543 0.0946102 0.174185 194 254 145
-0.312588 0.0960763 0.17404 181 244 127
-0.314258 0.0983035 0.172961 153 201 109
-0.318632 0.101829 0.170326 91 101 72
-0.319706 0.103831 0.169585 62 62 45
-0.307772 0.0757677 0.176809 86 104 86
-0.307809 0.0771697 0.176671 178 209 150
-0.30754 0.078452 0.17671 230 255 178
-0.307578 0.0798588 0.176572 233 255 182
-0.307308 0.0811424 0.176611 233 255 186
-0.308271 0.08294 0.175939 233 255 188
-0.310184 0.0851527 0.174718 234 255 188
-0.311811 0.0872668 0.17366 237 255 190
-0.312496 0.0889931 0.173145 235 255 188
-0.312541 0.0904491 0.172999 226 255 180
-0.311943 0.0916229 0.173225 214 255 170
-0.311987 0.0930819 0.173079 203 255 159
-0.311711 0.0943982 0.173118 191 253 145
-0.311755 0.0958623 0.172972 180 241 125
-0.313742 0.0982375 0.171698 153 196 105
-0.318107 0.101762 0.16904 90 86 62
-0.318838 0.103601 0.16849 62 63 44
-0.30636 0.0753453 0.176123 89 109 85
-0.306396 0.0767419 0.175985 178 208 150
-0.306432 0.0781418 0.175846 232 255 182
-0.306163 0.0794209 0.175885 234 255 185
-0.30681 0.0810775 0.175391 232 255 186
-0.309639 0.0836552 0.173625 231 255 185
