ply
format ascii 1.0
element vertex 1219
property float x
property float y
property float z
property uchar diffuse_red
property uchar diffuse_green
property uchar diffuse_blue
end_header
-0.460954 0.0901922 0.235205 75 70 63
-0.46058 0.091965 0.23526 73 72 64
-0.459525 0.0935406 0.235461 71 76 61
-0.458474 0.0951108 0.235661 71 76 61
-0.454746 0.0958756 0.236437 73 73 62
-0.452392 0.0970256 0.236918 76 88 57
-0.448763 0.0977644 0.237673 74 111 54
-0.443293 0.0978979 0.238825 63 123 53
-0.441679 0.0992061 0.239148 63 130 56
-0.440697 0.100706 0.239334 88 158 75
-0.438482 0.101797 0.239787 128 192 98
-0.438126 0.103486 0.239839 158 206 116
-0.436544 0.104764 0.240155 164 217 126
-0.434972 0.106033 0.240469 158 214 115
-0.432809 0.107086 0.240911 141 154 88
-0.428893 0.107509 0.241731 102 86 73
-0.427372 0.108747 0.242035 79 76 61
-0.426441 0.110187 0.242212 72 69 57
-0.34575 0.105138 0.259302 128 187 91
-0.346202 0.106772 0.259185 126 187 91
-0.34629 0.108249 0.259146 126 188 90
-0.346744 0.109897 0.259028 127 189 92
-0.346467 0.111214 0.259068 127 189 92
-0.346189 0.112531 0.259109 128 191 93
-0.345912 0.113848 0.259149 128 193 92
-0.345634 0.115165 0.25919 128 191 92
-0.345357 0.116482 0.25923 127 191 93
-0.345079 0.117799 0.259271 126 190 92
-0.344802 0.119116 0.259311 125 187 90
-0.344524 0.120432 0.259352 125 186 90
-0.344247 0.121749 0.259392 124 184 88
-0.343607 0.122882 0.259512 123 178 84
-0.343692 0.124382 0.259473 118 170 81
-0.343415 0.125698 0.259514 112 159 81
-0.343137 0.127014 0.259554 91 122 71
-0.34286 0.12833 0.259595 70 78 59
-0.342583 0.129646 0.259635 65 66 50
-0.462391 0.086931 0.233121 75 69 58
-0.462016 0.0887101 0.233175 90 87 63
-0.46233 0.0906821 0.233079 145 155 82
-0.461954 0.092464 0.233134 160 166 93
-0.460892 0.0940469 0.23334 117 108 83
-0.459833 0.0956243 0.233545 82 76 65
-0.458098 0.0969934 0.233898 75 73 59
-0.454367 0.0977438 0.23469 78 73 59
-0.451353 0.0986838 0.235325 76 87 57
-0.448379 0.0996113 0.235951 71 108 55
-0.442906 0.0997211 0.237128 63 121 52
-0.440043 0.100624 0.23773 62 127 53
-0.438448 0.101917 0.238055 83 151 69
-0.438091 0.103609 0.238107 122 185 97
-0.43712 0.105094 0.238295 150 202 120
-0.435541 0.106367 0.238616 155 218 127
-0.433368 0.107422 0.239068 161 221 119
-0.428255 0.10743 0.240168 149 161 99
-0.427906 0.109084 0.240219 103 103 78
-0.345884 0.103926 0.257944 127 186 91
-0.345245 0.105077 0.258064 126 186 91
-0.345695 0.106711 0.257944 126 187 91
-0.345782 0.108188 0.257904 125 187 90
-0.34587 0.109669 0.257863 125 188 91
-0.345958 0.111154 0.257823 124 188 93
-0.345681 0.112471 0.257863 126 188 94
-0.345403 0.113788 0.257904 126 189 91
-0.345126 0.115105 0.257944 127 191 93
-0.344848 0.116422 0.257985 127 190 92
-0.344571 0.117739 0.258026 126 188 90
-0.344293 0.119056 0.258066 124 187 89
-0.344016 0.120373 0.258107 122 185 89
-0.343738 0.121689 0.258147 122 181 88
-0.343461 0.123006 0.258188 122 176 85
-0.343183 0.124322 0.258228 116 163 83
-0.342906 0.125639 0.258269 101 130 76
-0.342629 0.126955 0.258309 78 73 55
-0.342351 0.128271 0.25835 69 64 49
-0.46277 0.0852476 0.231231 70 68 57
-0.462395 0.0870301 0.231286 72 78 57
-0.462709 0.0890028 0.231187 87 126 68
-0.462333 0.0907881 0.231242 144 188 96
-0.461957 0.0925732 0.231297 176 232 130
-0.460893 0.0941586 0.231506 170 197 123
-0.460517 0.0959404 0.231561 120 130 89
-0.458775 0.0973132 0.231922 83 85 68
-0.457044 0.0986767 0.232281 74 74 61
-0.453322 0.0994132 0.233086 73 78 60
-0.450315 0.100342 0.233732 70 89 58
-0.447347 0.101259 0.234369 69 108 54
-0.440634 0.100943 0.235847 63 120 49
-0.439652 0.102443 0.236039 60 125 51
-0.437439 0.103528 0.236508 79 149 68
-0.437082 0.10522 0.23656 118 183 96
-0.435501 0.106494 0.236888 145 203 119
-0.433325 0.10755 0.237349 150 221 122
-0.428205 0.107557 0.238473 159 221 117
-0.427855 0.109214 0.238524 148 182 107
-0.346383 0.10287 0.256499 124 186 93
-0.345741 0.104025 0.256622 124 185 92
-0.345465 0.105338 0.256662 125 185 91
-0.345552 0.106813 0.25662 125 187 90
-0.345639 0.108293 0.256578 124 188 90
-0.345362 0.109609 0.256619 123 188 90
-0.345085 0.110925 0.256659 122 187 92
-0.345172 0.112411 0.256617 125 188 92
-0.344894 0.113728 0.256658 125 188 91
-0.344617 0.115045 0.256699 125 188 93
-0.344339 0.116362 0.256739 126 187 92
-0.344062 0.117679 0.25678 124 186 89
-0.343784 0.118996 0.256821 124 186 88
-0.343507 0.120313 0.256861 124 184 88
-0.343229 0.12163 0.256902 122 178 89
-0.342952 0.122946 0.256942 118 167 87
-0.342675 0.124263 0.256983 106 134 81
-0.342397 0.125579 0.257024 84 76 65
-0.34212 0.126896 0.257064 73 59 43
-0.462084 0.0851597 0.229548 69 74 60
-0.462398 0.0871296 0.229445 109 99 66
-0.462022 0.0889151 0.2295 106 146 74
-0.461646 0.0907004 0.229556 110 170 80
-0.46127 0.0924857 0.229611 148 207 111
-0.460894 0.0942708 0.229666 169 226 130
-0.460518 0.0960557 0.229721 161 208 125
-0.459456 0.0976353 0.229933 127 162 92
-0.457717 0.0990024 0.2303 92 99 69
-0.455989 0.10036 0.230664 74 74 62
-0.452276 0.101083 0.231483 72 74 60
-0.44668 0.101175 0.232733 73 85 56
-0.441229 0.101265 0.233951 71 105 52
-0.439619 0.102564 0.23429 65 118 50
-0.438639 0.104061 0.234485 61 124 52
-0.43643 0.105138 0.234961 77 145 65
-0.434851 0.106413 0.235294 114 179 93
-0.433282 0.107679 0.235624 140 202 115
-0.432324 0.109149 0.235815 147 218 115
-0.345875 0.102809 0.255255 121 183 93
-0.345598 0.104124 0.255296 122 184 93
-0.345321 0.105438 0.255337 122 185 92
-0.345408 0.106916 0.255293 122 186 90
-0.345131 0.108232 0.255334 123 186 89
-0.344854 0.109548 0.255374 124 185 89
-0.344577 0.110864 0.255415 124 186 91
-0.344299 0.11218 0.255456 123 187 91
-0.344385 0.113668 0.255412 124 186 90
-0.344108 0.114985 0.255453 125 186 91
-0.34383 0.116302 0.255493 124 184 91
-0.343553 0.117619 0.255534 124 185 90
-0.342913 0.118758 0.255659 123 183 89
-0.342636 0.120073 0.255699 123 179 88
-0.34272 0.12157 0.255656 118 169 87
-0.342443 0.122887 0.255697 104 140 82
-0.342166 0.124204 0.255737 84 92 68
-0.341888 0.12552 0.255778 75 63 51
-0.462087 0.0852558 0.227703 77 79 68
-0.461711 0.0870416 0.227759 131 164 98
-0.461335 0.0888272 0.227814 114 168 86
-0.460958 0.0906127 0.227869 88 148 67
-0.460582 0.0923981 0.227924 107 170 82
-0.460206 0.0941834 0.227979 143 202 110
-0.45983 0.0959685 0.228035 161 219 123
-0.459454 0.0977536 0.22809 154 218 118
-0.458394 0.0993302 0.228304 137 177 92
-0.456659 0.100692 0.228677 103 103 72
-0.454263 0.101833 0.229203 79 74 63
-0.447953 0.101709 0.230644 75 73 59
-0.445006 0.102615 0.2313 74 81 56
-0.44021 0.102891 0.232389 71 102 55
-0.437983 0.103979 0.232878 66 119 53
-0.435778 0.105057 0.233362 62 126 51
-0.435421 0.106749 0.233414 75 144 65
-0.434454 0.10823 0.23361 111 176 93
-0.345645 0.101433 0.253971 117 179 90
-0.345368 0.102748 0.254012 118 180 92
-0.345091 0.104063 0.254053 119 181 93
-0.345177 0.105539 0.254008 120 182 93
-0.3449 0.106855 0.254048 121 183 90
-0.344623 0.108171 0.254089 122 184 89
-0.344346 0.109488 0.25413 124 184 89
-0.344068 0.110804 0.25417 124 185 91
-0.343791 0.11212 0.254211 123 185 91
-0.343514 0.113436 0.254252 123 185 91
-0.343237 0.114751 0.254292 123 184 91
-0.342959 0.116067 0.254333 123 181 89
-0.342682 0.117383 0.254374 123 181 88
-0.342405 0.118698 0.254414 122 178 88
-0.342128 0.120014 0.254455 118 171 86
-0.341851 0.121329 0.254496 103 151 79
-0.341574 0.122644 0.254536 82 110 66
-0.341657 0.124144 0.254492 70 70 55
-0.341379 0.125461 0.254532 66 62 57
-0.461399 0.0851677 0.226016 75 84 68
-0.461023 0.0869536 0.226072 129 177 102
-0.460647 0.0887394 0.226127 119 178 90
-0.460959 0.0907187 0.226019 83 140 64
-0.460582 0.0925073 0.226074 73 134 59
-0.459519 0.094096 0.226293 99 163 79
-0.459143 0.0958814 0.226348 136 194 105
-0.458766 0.0976665 0.226403 150 212 117
-0.45839 0.0994516 0.226458 150 219 113
-0.456652 0.100815 0.226838 147 175 98
-0.453583 0.101748 0.227534 114 105 79
-0.448585 0.10204 0.228689 82 75 65
-0.446269 0.103156 0.229207 71 74 60
-0.443337 0.104051 0.229872 74 79 59
-0.438568 0.104311 0.230975 75 97 56
-0.435738 0.105183 0.231616 67 118 52
-0.434769 0.106668 0.231815 60 127 51
-0.341736 0.0970814 0.253595 118 177 85
-0.34505 0.099902 0.252774 116 176 83
-0.344774 0.101216 0.252815 117 177 85
-0.34486 0.102687 0.252768 118 177 86
-0.344583 0.104002 0.252809 119 178 89
-0.344669 0.105478 0.252762 120 179 91
-0.344392 0.106794 0.252803 120 181 90
-0.344114 0.108111 0.252844 121 182 89
-0.343837 0.109427 0.252885 123 183 89
-0.343198 0.110575 0.253012 122 182 91
-0.342921 0.11189 0.253053 121 183 92
-0.342644 0.113204 0.253094 122 183 91
-0.342728 0.114691 0.253048 120 182 90
-0.342451 0.116007 0.253088 121 181 89
-0.342174 0.117323 0.253129 121 178 88
-0.341897 0.118639 0.25317 117 171 84
-0.34162 0.119954 0.25321 107 156 79
-0.341342 0.12127 0.253251 88 115 67
-0.341065 0.122585 0.253292 72 74 51
-0.340788 0.1239 0.253332 67 62 43
-0.4604 0.0831125 0.22444 70 65 55
-0.460712 0.0850795 0.224329 68 75 61
-0.460335 0.0868656 0.224384 109 147 81
-0.460647 0.088842 0.224273 122 180 92
-0.46027 0.0906309 0.224329 96 152 73
-0.459894 0.0924196 0.224384 70 127 55
-0.459517 0.0942082 0.22444 68 130 56
-0.45914 0.0959967 0.224495 94 157 77
-0.458079 0.0975794 0.224716 127 185 102
-0.457703 0.0993646 0.224772 144 208 116
-0.456645 0.100939 0.224992 152 215 114
-0.454242 0.102083 0.225539 151 175 106
-0.449878 0.102583 0.226562 117 121 85
-0.446893 0.103491 0.227251 81 85 67
-0.444589 0.104598 0.227775 73 73 58
-0.441042 0.105272 0.228602 74 80 56
-0.435698 0.105308 0.229865 71 100 56
-0.43534 0.107007 0.229918 66 119 53
-0.341155 0.0955761 0.252414 117 173 84
-0.340882 0.0968722 0.252454 113 173 82
-0.341316 0.098469 0.252321 115 175 82
-0.344266 0.101154 0.251572 116 176 82
-0.344352 0.102626 0.251524 116 176 82
-0.344075 0.103941 0.251565 117 176 84
-0.343798 0.105256 0.251606 118 177 87
-0.343883 0.106734 0.251558 118 180 89
-0.343606 0.10805 0.251599 118 180 89
-0.342967 0.1092 0.251728 120 181 91
-0.34269 0.110515 0.251769 119 180 92
-0.342413 0.11183 0.25181 119 181 93
-0.342136 0.113144 0.25185 120 182 91
-0.34186 0.114459 0.251891 120 182 89
-0.341942 0.115947 0.251843 120 180 90
-0.341665 0.117263 0.251884 117 173 87
-0.341388 0.118579 0.251925 112 158 82
-0.341111 0.119895 0.251966 93 117 71
-0.340834 0.12121 0.252006 74 80 54
-0.340557 0.122526 0.252047 66 63 42
-0.460024 0.0849913 0.222641 68 65 52
-0.459648 0.0867775 0.222697 84 99 62
-0.459958 0.088754 0.222583 105 151 80
-0.459581 0.090543 0.222639 103 160 79
-0.459205 0.0923319 0.222694 81 134 60
-0.458828 0.0941207 0.222749 62 119 51
-0.458451 0.0959093 0.222805 64 126 55
-0.458074 0.0976978 0.22286 91 154 76
-0.457015 0.0992777 0.223084 124 181 102
-0.455959 0.100852 0.223308 140 208 114
-0.454232 0.102209 0.223697 151 214 115
-0.44986 0.102708 0.22474 145 184 110
-0.446221 0.103407 0.225603 118 142 87
-0.443921 0.104514 0.226135 89 97 66
-0.440378 0.105189 0.226975 73 74 59
-0.435658 0.105435 0.228107 71 79 57
-0.4353 0.107136 0.22816 69 98 55
-0.341991 0.0946562 0.250883 114 171 82
-0.340654 0.0955155 0.251188 110 168 80
-0.340734 0.0969602 0.25114 109 171 82
-0.341169 0.0985593 0.251004 112 173 82
-0.343398 0.100938 0.25042 114 174 81
-0.343844 0.102565 0.25028 113 174 81
-0.343567 0.10388 0.250321 114 175 83
-0.34329 0.105195 0.250362 115 175 86
-0.343013 0.10651 0.250403 116 176 87
-0.342736 0.107825 0.250444 116 178 89
-0.342459 0.10914 0.250484 116 179 91
-0.342182 0.110455 0.250525 117 178 92
-0.341905 0.111769 0.250566 117 179 92
-0.341628 0.113084 0.250607 118 179 92
-0.341352 0.114399 0.250647 120 178 89
-0.341434 0.115887 0.250598 117 174 88
-0.341157 0.117203 0.250639 112 160 84
-0.340879 0.118519 0.25068 96 121 75
-0.340602 0.119835 0.250721 78 81 56
-0.340325 0.121151 0.250761 67 66 45
-0.459646 0.0868767 0.220837 68 69 54
-0.459269 0.088666 0.220892 79 97 63
-0.45958 0.090649 0.220775 90 132 70
-0.458515 0.0922442 0.221003 85 137 64
-0.458139 0.0940331 0.221059 68 124 52
-0.457762 0.0958219 0.221115 57 116 48
-0.457385 0.0976105 0.22117 63 124 54
-0.456327 0.0991908 0.221397 90 149 75
-0.455272 0.100766 0.221623 121 180 100
-0.453547 0.102123 0.222018 138 207 111
-0.449182 0.102623 0.223078 146 211 109
-0.445549 0.103322 0.223955 142 196 106
-0.443252 0.104431 0.224495 127 160 88
-0.440977 0.105528 0.22503 100 100 69
-0.439352 0.106827 0.225402 76 69 60
-0.342393 0.0921356 0.249481 127 184 94
-0.341763 0.0932939 0.249612 115 170 80
-0.341489 0.0945953 0.249652 108 167 81
-0.341215 0.0958965 0.249692 109 167 79
-0.341296 0.0973472 0.249643 111 169 80
-0.342449 0.0992581 0.249321 111 170 81
-0.342891 0.100877 0.249179 112 171 82
-0.343336 0.102504 0.249036 112 173 81
-0.343059 0.103819 0.249077 112 174 82
-0.342782 0.105134 0.249118 114 174 83
-0.342505 0.106449 0.249159 117 174 84
-0.342228 0.107764 0.249199 116 175 85
-0.341951 0.109079 0.24924 115 175 86
-0.341674 0.110394 0.249281 116 175 88
-0.341397 0.111709 0.249322 116 177 90
-0.34112 0.113024 0.249363 117 175 91
-0.340844 0.114339 0.249404 118 170 86
-0.340925 0.115827 0.249353 112 161 83
-0.340648 0.117143 0.249394 97 131 76
-0.340371 0.118459 0.249435 77 84 59
-0.340094 0.119775 0.249475 68 66 45
-0.459267 0.0887686 0.219026 68 67 52
-0.458889 0.090561 0.219082 75 90 57
-0.458512 0.0923532 0.219137 79 115 59
-0.457449 0.0939455 0.219368 74 125 55
-0.457073 0.0957345 0.219424 63 118 49
-0.456015 0.0973181 0.219654 57 113 45
-0.455639 0.0991038 0.219709 62 122 53
-0.45391 0.100469 0.220112 88 148 74
-0.452192 0.101825 0.220511 118 177 97
-0.447194 0.102118 0.221752 135 205 105
-0.444232 0.103028 0.222472 145 211 106
-0.443223 0.104558 0.222691 146 204 104
-0.442218 0.106082 0.222909 138 166 93
-0.344682 0.091771 0.247558 125 184 93
-0.34189 0.0920744 0.248248 115 170 79
-0.34126 0.0932329 0.248381 109 165 77
-0.34277 0.0952692 0.24796 108 166 80
-0.342495 0.0965786 0.248001 108 163 79
-0.342219 0.0978879 0.248042 110 167 77
-0.342661 0.0995034 0.247896 110 169 79
-0.343105 0.101127 0.247751 111 169 80
-0.342828 0.102442 0.247792 110 170 80
-0.342551 0.103758 0.247833 111 170 80
-0.342274 0.105073 0.247873 113 171 80
-0.341997 0.106389 0.247914 114 171 81
-0.34172 0.107704 0.247955 114 172 82
-0.341443 0.109019 0.247996 115 172 83
-0.341166 0.110334 0.248037 115 172 84
-0.340889 0.111649 0.248078 115 173 88
-0.340612 0.112964 0.248119 115 169 87
-0.340694 0.114451 0.248066 112 161 81
-0.340416 0.115767 0.248107 100 139 74
-0.340139 0.117083 0.248148 77 92 60
-0.339862 0.1184 0.248189 67 66 48
-0.458199 0.0904729 0.217388 73 67 49
-0.457137 0.0920687 0.217622 74 85 52
-0.45676 0.0938579 0.217677 74 108 53
-0.455703 0.0954451 0.21791 71 120 53
-0.455327 0.097231 0.217966 62 116 47
-0.45495 0.0990168 0.218021 55 113 45
-0.453224 0.100383 0.218429 61 121 52
-0.452849 0.102162 0.218485 86 146 73
-0.450469 0.103299 0.219064 115 176 95
-0.446149 0.103786 0.22015 136 201 104
-0.345821 0.0895031 0.245946 99 153 73
-0.345543 0.090823 0.245987 119 181 90
-0.344174 0.0917091 0.246315 111 169 82
-0.343536 0.0928783 0.246451 106 161 76
-0.34326 0.0941913 0.246491 107 161 74
-0.343344 0.0956529 0.246437 107 163 76
-0.343067 0.0969673 0.246478 109 165 78
-0.34279 0.0982817 0.246519 108 164 77
-0.342874 0.0997499 0.246465 109 167 78
-0.342597 0.101066 0.246506 110 168 79
-0.342681 0.102539 0.246452 110 169 80
-0.342043 0.103697 0.246588 111 168 80
-0.341766 0.105013 0.246629 112 168 81
-0.341489 0.106328 0.24667 112 168 82
-0.341212 0.107643 0.246711 112 169 82
-0.340935 0.108958 0.246752 113 169 81
-0.340658 0.110274 0.246792 114 169 82
-0.340381 0.111589 0.246833 112 167 83
-0.340104 0.112904 0.246874 109 161 80
-0.340185 0.114391 0.246821 102 145 72
-0.339907 0.115707 0.246861 81 105 61
-0.33963 0.117024 0.246902 67 67 43
-0.457131 0.0921774 0.215749 72 67 47
-0.456071 0.0937703 0.215986 70 80 50
-0.455014 0.0953578 0.216222 73 106 55
-0.454638 0.0971439 0.216277 70 117 53
-0.454262 0.0989299 0.216333 61 115 47
-0.453886 0.100716 0.216389 52 111 45
-0.345589 0.0881207 0.244656 87 151 65
-0.345311 0.0894407 0.244697 116 181 84
-0.344669 0.0906175 0.244836 110 169 81
-0.343667 0.0916471 0.245071 105 159 75
-0.34339 0.092962 0.245112 105 158 75
-0.343474 0.0944241 0.245056 106 159 74
-0.343559 0.0958897 0.245 107 161 74
-0.343281 0.0972076 0.245041 105 162 76
-0.342643 0.0983726 0.245179 106 165 78
-0.342366 0.0996886 0.24522 107 164 78
-0.342449 0.10116 0.245164 109 164 78
-0.342172 0.102478 0.245205 110 165 77
-0.341535 0.103636 0.245343 111 164 78
-0.341258 0.104952 0.245384 111 166 80
-0.34098 0.106267 0.245425 111 166 81
-0.340704 0.107583 0.245466 111 165 79
-0.340427 0.108898 0.245507 111 166 78
-0.34015 0.110213 0.245548 109 165 80
-0.339873 0.111528 0.245589 107 159 78
-0.339596 0.112843 0.24563 99 144 75
-0.339676 0.114331 0.245574 87 114 66
-0.339399 0.115647 0.245615 70 68 51
-0.45395 0.0970567 0.214589 72 104 54
-0.453574 0.0988429 0.214645 67 117 52
-0.344715 0.0879184 0.243507 107 170 75
-0.344438 0.0892369 0.243548 110 167 79
-0.343798 0.0904125 0.243688 103 158 73
-0.343159 0.0915852 0.243827 101 156 73
-0.342882 0.0929001 0.243868 103 155 74
-0.342966 0.0943623 0.243811 104 156 73
-0.34305 0.095828 0.243753 105 157 73
-0.342772 0.0971459 0.243794 105 160 74
-0.342135 0.0983112 0.243934 102 160 75
-0.341857 0.0996273 0.243975 104 164 75
-0.34158 0.100943 0.244016 108 163 76
-0.341303 0.102259 0.244057 110 162 77
-0.341026 0.103575 0.244098 108 162 78
-0.340749 0.104891 0.244139 108 165 80
-0.340472 0.106206 0.24418 108 163 80
-0.340195 0.107522 0.244221 108 161 78
-0.339918 0.108837 0.244262 108 161 78
-0.339641 0.110153 0.244303 106 157 78
-0.339364 0.111468 0.244344 100 144 76
-0.339444 0.112954 0.244287 87 113 70
-0.339167 0.114271 0.244328 71 70 55
-0.344484 0.0865372 0.242218 106 166 73
-0.343844 0.0877165 0.24236 107 164 79
-0.343205 0.0888928 0.242501 99 154 71
-0.342928 0.0902081 0.242542 98 152 69
-0.342651 0.0915232 0.242583 98 153 72
-0.342375 0.0928383 0.242624 100 154 73
-0.342818 0.094448 0.242465 102 155 74
-0.342902 0.0959158 0.242406 105 155 74
-0.342625 0.0972355 0.242447 104 157 72
-0.341986 0.0984022 0.242588 102 159 72
-0.341349 0.0995659 0.242729 104 160 73
-0.341072 0.100882 0.24277 107 159 74
-0.340795 0.102198 0.242812 107 159 77
-0.340518 0.103514 0.242853 106 160 77
-0.340241 0.10483 0.242894 106 159 76
-0.339964 0.106146 0.242935 107 160 76
-0.339687 0.107461 0.242976 106 160 76
-0.33941 0.108777 0.243017 105 156 77
-0.339133 0.110092 0.243058 103 146 77
-0.339212 0.111577 0.243 91 113 73
-0.338935 0.112894 0.243041 71 71 60
-0.343975 0.0864746 0.24097 107 160 77
-0.343335 0.0876541 0.241113 96 150 71
-0.342697 0.0888306 0.241256 92 148 68
-0.34242 0.090146 0.241297 94 148 67
-0.342144 0.0914613 0.241338 96 149 70
-0.342587 0.0930678 0.241176 97 152 71
-0.34267 0.0945341 0.241116 99 153 72
-0.342393 0.095854 0.241157 102 153 72
-0.342115 0.0971738 0.241198 101 157 72
-0.341477 0.0983407 0.241341 100 155 71
-0.341199 0.0996587 0.241382 102 157 72
-0.340563 0.100821 0.241525 103 157 74
-0.340286 0.102137 0.241566 103 159 74
-0.340009 0.103453 0.241607 103 159 75
-0.339732 0.104769 0.241648 104 157 74
-0.339455 0.106085 0.241689 106 157 75
-0.339178 0.107401 0.24173 105 154 76
-0.338901 0.108716 0.241772 103 145 78
-0.33898 0.110199 0.241712 92 112 74
-0.338703 0.111516 0.241753 74 76 59
-0.344106 0.0852292 0.239577 106 157 77
-0.343828 0.0865499 0.239619 95 147 70
-0.343188 0.087731 0.239764 90 144 67
-0.34291 0.0890498 0.239805 89 145 67
-0.342633 0.0903686 0.239846 92 145 67
-0.342355 0.0916872 0.239887 94 145 69
-0.342439 0.093152 0.239825 96 149 70
-0.342161 0.0944721 0.239866 96 151 70
-0.341883 0.0957921 0.239908 98 151 71
-0.341605 0.097112 0.239949 98 153 72
-0.340968 0.0982791 0.240094 100 155 72
-0.34069 0.0995972 0.240135 101 155 72
-0.340413 0.100915 0.240176 103 155 72
-0.340135 0.102233 0.240217 102 156 71
-0.339501 0.103392 0.240361 102 156 74
-0.339224 0.104708 0.240403 104 156 74
-0.338947 0.106024 0.240444 104 152 73
-0.339026 0.107504 0.240382 103 144 73
-0.338748 0.108821 0.240423 90 118 73
-0.338471 0.110139 0.240465 75 83 60
-0.343875 0.0838456 0.238286 104 152 76
-0.343596 0.0851665 0.238328 95 146 69
-0.343318 0.0864872 0.238369 88 139 63
-0.34304 0.087808 0.23841 88 139 63
-0.342401 0.0889874 0.238557 89 141 65
-0.342484 0.0904491 0.238493 91 143 67
-0.342207 0.0917695 0.238534 93 145 68
-0.341929 0.0930898 0.238576 94 147 67
-0.341651 0.0944101 0.238617 93 148 67
-0.341373 0.0957302 0.238658 95 149 69
-0.341095 0.0970503 0.2387 97 150 70
-0.340817 0.0983702 0.238741 99 151 70
-0.340181 0.0995358 0.238887 99 152 71
-0.339903 0.100854 0.238929 100 151 71
-0.339626 0.102172 0.23897 101 150 71
-0.339348 0.10349 0.239011 101 152 70
-0.339071 0.104808 0.239052 100 150 72
-0.338794 0.106125 0.239094 100 145 72
-0.338516 0.107443 0.239135 88 126 69
-0.338239 0.108761 0.239176 74 87 55
-0.33804 0.111565 0.239154 65 63 42
-0.413069 0.0869798 0.217084 65 67 52
-0.343643 0.0824615 0.236995 105 148 74
-0.343365 0.0837826 0.237036 93 144 70
-0.343087 0.0851036 0.237078 86 136 61
-0.342808 0.0864246 0.237119 85 135 59
-0.34253 0.0877454 0.237161 85 136 62
-0.341892 0.088925 0.237309 87 138 64
-0.341974 0.0903867 0.237243 89 141 65
-0.341697 0.0917073 0.237285 90 142 65
-0.341419 0.0930277 0.237326 91 144 65
-0.341141 0.0943481 0.237367 92 145 66
-0.340863 0.0956683 0.237409 93 147 68
-0.340585 0.0969885 0.23745 95 150 70
-0.340307 0.0983086 0.237492 96 149 68
-0.340029 0.0996286 0.237533 97 149 70
-0.339394 0.100793 0.237681 98 149 70
-0.339116 0.102111 0.237722 98 148 70
-0.338839 0.103429 0.237763 100 148 68
-0.338562 0.104747 0.237805 99 143 69
-0.338284 0.106065 0.237846 91 130 68
-0.338007 0.107382 0.237887 76 91 61
-0.337807 0.110185 0.237864 64 63 46
-0.343495 0.0825315 0.235636 92 146 68
-0.342854 0.0837197 0.235786 83 135 61
-0.342576 0.0850408 0.235828 83 132 59
-0.342298 0.0863618 0.235869 83 133 59
-0.34202 0.0876828 0.23591 83 134 61
-0.341382 0.0888626 0.23606 84 136 62
-0.341105 0.0901818 0.236102 86 138 62
-0.341186 0.091645 0.236035 88 138 63
-0.340908 0.0929656 0.236076 89 140 64
-0.340631 0.0942861 0.236118 90 142 65
-0.340353 0.0956064 0.236159 90 144 66
-0.340075 0.0969267 0.236201 91 146 67
-0.339797 0.0982469 0.236242 93 147 67
-0.339519 0.099567 0.236283 94 147 68
-0.339241 0.100887 0.236325 96 147 68
-0.338607 0.102049 0.236474 96 145 69
-0.338329 0.103368 0.236515 98 141 70
-0.338408 0.104846 0.236449 92 133 69
-0.33813 0.106166 0.23649 78 94 56
-0.337575 0.108805 0.236573 64 62 43
-0.343347 0.0826017 0.234273 83 137 59
-0.342706 0.0837914 0.234425 80 132 58
-0.342066 0.084978 0.234577 81 131 59
-0.341788 0.0862991 0.234619 81 132 59
-0.34151 0.0876202 0.23466 81 132 59
-0.340873 0.0888002 0.234812 82 134 60
-0.340595 0.0901194 0.234853 83 136 61
-0.340676 0.0915828 0.234785 86 137 62
-0.340398 0.0929035 0.234826 87 137 62
-0.34012 0.094224 0.234868 89 138 63
-0.339842 0.0955445 0.234909 88 141 65
-0.339565 0.0968649 0.234951 89 142 65
-0.339287 0.0981852 0.234992 91 142 64
-0.339009 0.0995054 0.235034 91 144 66
-0.338731 0.100826 0.235075 93 143 68
-0.338453 0.102146 0.235116 93 140 70
-0.338175 0.103466 0.235158 93 134 71
-0.337898 0.104785 0.235199 82 94 62
-0.337342 0.107425 0.235282 65 61 45
-0.394979 0.0817272 0.217483 66 71 58
-0.346419 0.0824129 0.231954 88 141 63
-0.343563 0.082806 0.232794 82 135 57
-0.342557 0.0838632 0.233061 80 133 57
-0.341917 0.0850514 0.233215 79 132 58
-0.341278 0.0862364 0.233368 78 132 59
-0.341 0.0875576 0.23341 79 133 59
-0.340722 0.0888787 0.233451 80 133 60
-0.340444 0.0901996 0.233493 82 133 59
-0.340166 0.0915205 0.233534 84 135 60
-0.339888 0.0928413 0.233576 86 135 61
-0.33961 0.094162 0.233617 87 136 61
-0.339332 0.0954826 0.233659 87 137 62
-0.339054 0.0968031 0.2337 87 138 63
-0.338776 0.0981236 0.233742 87 139 63
-0.338499 0.0994439 0.233783 88 140 65
-0.338221 0.100764 0.233825 91 138 68
-0.337943 0.102084 0.233867 92 134 72
-0.337665 0.103404 0.233908 77 96 64
-0.33711 0.106044 0.233991 67 63 41
-0.387862 0.0780182 0.218112 69 71 56
-0.387543 0.0795342 0.218159 72 80 60
-0.346184 0.0810087 0.230643 97 152 71
-0.343694 0.0815468 0.23138 89 142 64
-0.343414 0.0828767 0.231422 84 137 59
-0.342408 0.0839353 0.231693 81 134 58
-0.341406 0.0849884 0.231962 79 132 58
-0.341127 0.0863115 0.232004 78 131 58
-0.340849 0.0876344 0.232046 78 132 58
-0.340571 0.0889572 0.232087 79 133 58
-0.340292 0.09028 0.232129 80 132 58
-0.339656 0.0914582 0.232284 81 132 58
-0.339378 0.0927791 0.232325 82 133 59
-0.3391 0.0941 0.232367 85 133 60
-0.339179 0.0955701 0.232295 86 135 61
-0.338901 0.0968924 0.232337 86 135 62
-0.338623 0.0982145 0.232379 86 136 64
-0.337988 0.0993823 0.232533 88 135 64
-0.33771 0.100703 0.232575 92 132 71
-0.337432 0.102023 0.232616 81 96 66
-0.336877 0.104663 0.232699 68 58 43
-0.385375 0.0773636 0.217281 71 72 54
-0.345666 0.0809445 0.229374 100 155 70
-0.343181 0.0814832 0.230121 93 147 66
-0.342174 0.0825454 0.230395 88 141 63
-0.341173 0.0836022 0.230668 83 136 60
-0.340895 0.0849255 0.23071 79 133 58
-0.340616 0.0862486 0.230751 79 131 58
-0.340338 0.0875717 0.230793 79 131 59
-0.340419 0.089036 0.23072 79 132 58
-0.34014 0.0903606 0.230761 79 132 58
-0.339861 0.091685 0.230803 79 131 58
-0.339583 0.0930093 0.230845 80 131 58
-0.339304 0.0943336 0.230887 82 131 58
-0.339025 0.0956577 0.230928 83 132 60
-0.338747 0.0969818 0.23097 84 132 62
-0.338468 0.0983057 0.231012 86 130 64
-0.337833 0.099475 0.231168 90 126 67
-0.337555 0.100797 0.23121 83 100 67
-0.336644 0.103282 0.231408 68 55 44
-0.383699 0.0753579 0.216262 68 68 49
-0.383383 0.0768593 0.21631 71 81 59
-0.383219 0.0800092 0.216253 146 219 108
-0.348045 0.0804659 0.227216 114 174 83
-0.34589 0.0811466 0.227865 105 163 75
-0.343031 0.0815522 0.228744 97 154 70
-0.341662 0.0824821 0.229139 91 146 66
-0.341022 0.0836738 0.229298 86 140 62
-0.340743 0.0849988 0.22934 82 135 59
-0.340824 0.0864621 0.229265 80 132 58
-0.340545 0.0877886 0.229307 80 131 58
-0.340627 0.089257 0.229231 79 131 58
-0.340347 0.090585 0.229273 79 130 57
-0.340068 0.0919129 0.229315 80 129 57
-0.339789 0.0932406 0.229357 80 130 57
-0.339869 0.0947174 0.229281 81 128 56
-0.33923 0.0958959 0.229441 81 128 58
-0.338951 0.0972234 0.229482 83 128 61
-0.338671 0.0985508 0.229524 86 122 67
-0.338034 0.0997228 0.229683 80 100 67
-0.336766 0.102058 0.229999 68 60 43
-0.381723 0.074864 0.215298 70 70 52
-0.382639 0.079936 0.21483 148 225 107
-0.347147 0.0802677 0.226059 119 181 89
-0.345371 0.0810822 0.226593 111 171 82
-0.342517 0.0814885 0.227482 103 161 74
-0.341149 0.0824187 0.227883 95 153 68
-0.34051 0.0836107 0.228044 90 145 65
-0.340231 0.0849358 0.228085 84 140 62
-0.340312 0.0863991 0.228009 81 136 59
-0.340393 0.087866 0.227932 80 133 57
-0.340114 0.0891942 0.227974 79 131 56
-0.341281 0.0911003 0.227537 79 129 56
-0.341363 0.0925821 0.227459 80 129 56
-0.340719 0.0937696 0.227621 81 128 57
-0.340438 0.0951041 0.227664 80 126 56
-0.339435 0.0961353 0.227945 81 125 57
-0.338796 0.0973136 0.228106 84 120 62
-0.338158 0.0984888 0.228267 78 103 66
-0.337243 0.100987 0.228469 64 61 44
-0.377484 0.0736879 0.215099 70 69 56
-0.380517 0.0777814 0.213978 150 229 117
-0.348038 0.079247 0.22436 133 195 96
-0.346625 0.0802028 0.22478 125 188 92
-0.344482 0.0808846 0.225444 117 178 86
-0.342002 0.0814248 0.226221 110 168 79
-0.340637 0.0823553 0.226626 101 159 73
-0.339998 0.0835475 0.226789 94 151 69
-0.339719 0.0848727 0.226831 88 145 65
-0.339799 0.0863361 0.226752 84 140 62
-0.33988 0.087803 0.226674 82 136 58
-0.341046 0.0897023 0.226231 81 132 56
-0.341857 0.0914743 0.225906 80 129 55
-0.341576 0.0928142 0.225949 79 128 57
-0.340929 0.0940045 0.226113 80 127 58
-0.340285 0.0951918 0.226278 80 123 57
-0.339281 0.0962242 0.226563 82 118 59
-0.338282 0.0972513 0.226847 80 101 61
-0.337365 0.0997543 0.227052 65 61 48
-0.375116 0.0730736 0.214306 70 75 61
-0.375392 0.0762929 0.214097 137 219 105
-0.3478 0.0778252 0.223033 142 209 104
-0.347138 0.0790498 0.223204 138 201 101
-0.34573 0.0800052 0.223627 131 193 96
-0.343964 0.0808202 0.224173 121 184 91
-0.341488 0.0813611 0.22496 115 175 86
-0.340124 0.082292 0.22537 107 164 78
-0.339845 0.0836191 0.225412 100 157 72
-0.339566 0.0849461 0.225454 93 150 67
-0.339646 0.0864115 0.225374 87 143 64
-0.340811 0.088304 0.224924 83 139 61
-0.341621 0.0900709 0.224595 82 135 57
-0.341705 0.0915573 0.224513 81 131 56
-0.341789 0.0930475 0.22443 79 128 57
-0.34114 0.0942407 0.224597 79 124 59
-0.340494 0.0954307 0.224764 81 116 61
-0.339849 0.0966177 0.224931 79 100 61
-0.337488 0.0985185 0.22563 67 63 50
-0.372334 0.0723332 0.213671 75 85 64
-0.37393 0.0759428 0.213007 136 213 103
-0.347561 0.0764031 0.221705 152 219 112
-0.3469 0.0776297 0.221878 147 215 108
-0.345866 0.0787217 0.222178 142 207 104
-0.344837 0.0798081 0.222477 136 199 99
-0.343445 0.0807559 0.222901 127 190 94
-0.341699 0.081563 0.223448 121 180 91
-0.339971 0.0823619 0.223989 113 171 83
-0.339332 0.0835558 0.224155 105 162 76
-0.339412 0.0850196 0.224073 98 155 71
-0.339852 0.0866261 0.223867 92 149 68
-0.341021 0.0885246 0.223409 88 143 64
-0.341469 0.090152 0.223199 85 137 59
-0.341919 0.0917876 0.222988 81 133 56
-0.342003 0.093282 0.222904 80 128 57
-0.341353 0.094478 0.223074 80 120 61
-0.340704 0.0956709 0.223243 77 101 62
-0.33905 0.097893 0.223705 65 65 49
-0.368725 0.0713418 0.213344 78 86 63
-0.368117 0.0742351 0.213436 144 222 110
-0.346946 0.074854 0.220509 159 222 113
-0.346661 0.0762093 0.220552 153 220 111
-0.346002 0.0774346 0.220725 149 218 111
-0.344971 0.0785259 0.221028 147 213 109
-0.343946 0.0796115 0.22133 141 204 103
-0.342926 0.0806915 0.22163 134 194 96
-0.341183 0.0814991 0.222183 127 185 92
-0.340902 0.0828349 0.222225 118 176 89
-0.339537 0.0837628 0.222647 110 168 83
-0.34034 0.0855063 0.22231 103 160 75
-0.340422 0.0869819 0.222225 98 153 71
-0.340867 0.0886036 0.222013 92 146 67
-0.341681 0.0903786 0.221671 87 141 62
-0.341765 0.0918714 0.221585 85 135 60
-0.341849 0.0933679 0.221499 84 124 60
-0.341199 0.0945654 0.221671 78 105 59
-0.339902 0.0969511 0.222013 65 66 47
-0.365185 0.0703693 0.213024 82 87 68
-0.363743 0.0729731 0.213411 151 225 109
-0.363442 0.0744021 0.213456 145 220 107
-0.346423 0.0747885 0.219225 155 223 112
-0.345763 0.0760159 0.219401 153 222 110
-0.344734 0.077111 0.219707 153 222 112
-0.344079 0.0783305 0.219881 151 220 112
-0.343426 0.0795469 0.220055 146 213 106
-0.342407 0.0806272 0.220358 140 202 99
-0.341394 0.0817019 0.22066 132 191 94
-0.340386 0.0827711 0.22096 124 181 91
-0.340105 0.084107 0.221002 114 173 88
-0.340549 0.0857196 0.220787 107 165 80
-0.340631 0.0871993 0.220701 103 157 74
-0.341078 0.0888258 0.220484 97 151 70
-0.341528 0.0904604 0.220266 91 146 68
-0.341612 0.0919553 0.220178 89 134 67
-0.341328 0.0933042 0.220221 80 107 61
-0.340395 0.095849 0.220437 65 64 43
-0.361827 0.0709619 0.212607 152 223 119
-0.359474 0.0717415 0.213386 156 231 112
-0.35877 0.0730242 0.213576 153 230 112
-0.358473 0.0744342 0.213621 165 222 115
-0.347313 0.0737425 0.217494 159 224 115
-0.345899 0.0747229 0.217942 155 222 111
-0.344868 0.0758229 0.218252 153 221 111
-0.344212 0.0770459 0.218428 153 220 111
-0.343558 0.0782657 0.218604 152 220 110
-0.342538 0.0793508 0.218912 151 217 106
-0.341889 0.0805628 0.219086 145 209 103
-0.341241 0.0817716 0.21926 137 198 97
-0.340595 0.0829772 0.219434 129 187 93
-0.340313 0.0843166 0.219476 120 179 90
-0.340395 0.0857948 0.219388 114 171 84
-0.340841 0.0874178 0.219168 110 163 77
-0.340924 0.0889054 0.219079 103 155 74
-0.341374 0.0905424 0.218857 97 145 75
-0.34109 0.0918916 0.2189 84 116 67
-0.340806 0.0932406 0.218943 70 81 52
-0.340523 0.0945895 0.218986 63 64 44
-0.359225 0.0702603 0.212004 165 242 124
-0.358116 0.0714183 0.212343 198 248 120
-0.357415 0.0726982 0.212534 176 233 118
-0.35712 0.0741046 0.212579 173 234 123
-0.356422 0.075379 0.21277 165 227 118
-0.346788 0.0736766 0.216205 158 224 113
-0.34463 0.0744056 0.216929 157 222 112
-0.343975 0.0756305 0.217107 154 221 109
-0.343691 0.0769808 0.21715 153 220 109
-0.342669 0.0780708 0.217461 151 219 108
-0.342018 0.0792862 0.217638 151 219 107
-0.34137 0.0804984 0.217814 147 214 106
-0.341087 0.0818414 0.217856 142 205 101
-0.340441 0.0830487 0.218032 136 194 96
-0.340522 0.0845273 0.217942 127 185 92
-0.340604 0.0860096 0.217852 121 176 87
-0.340687 0.0874955 0.217761 114 169 83
-0.340404 0.0888415 0.217804 105 156 79
-0.340852 0.0904785 0.217579 89 129 73
-0.340568 0.0918278 0.217622 73 87 58
-0.340285 0.0931769 0.217665 64 64 48
-0.357868 0.069941 0.210964 160 229 117
-0.357168 0.071223 0.211157 169 242 129
-0.356068 0.0723739 0.211498 172 227 126
-0.355374 0.0736474 0.211689 169 233 125
-0.35468 0.0749175 0.211881 161 227 119
-0.348156 0.0742415 0.214219 158 225 114
-0.344108 0.0743401 0.215648 158 224 114
-0.343453 0.0755653 0.215827 156 223 110
-0.342432 0.0766592 0.216142 156 221 108
-0.341781 0.0778765 0.216321 154 220 107
-0.341499 0.0792216 0.216364 151 218 108
-0.341216 0.0805666 0.216406 149 216 107
-0.340568 0.0817771 0.216584 147 212 105
-0.340286 0.0831202 0.216627 141 204 102
-0.340367 0.084601 0.216535 132 192 95
-0.340449 0.0860853 0.216443 126 181 89
-0.340166 0.0874316 0.216485 117 170 84
-0.340248 0.0889213 0.216393 99 144 78
-0.34033 0.0904146 0.2163 79 99 63
-0.340047 0.091764 0.216343 68 67 49
-0.339763 0.0931133 0.216386 62 60 43
-0.357217 0.0683406 0.209735 158 230 122
-0.356518 0.0696233 0.20993 152 226 113
-0.355822 0.0709025 0.210124 155 223 114
-0.354728 0.0720513 0.210466 169 235 126
-0.354037 0.073322 0.210659 166 232 121
-0.351385 0.0739446 0.211583 161 230 118
-0.347627 0.0741752 0.212921 159 227 118
-0.343585 0.0742747 0.214367 157 226 118
-0.342194 0.0752471 0.214823 154 224 114
-0.341545 0.0764665 0.215003 154 222 110
-0.341262 0.0778118 0.215046 154 221 109
-0.340979 0.079157 0.215089 152 219 107
-0.340696 0.0805021 0.215132 152 218 107
-0.340413 0.0818471 0.215175 149 216 106
-0.34013 0.083192 0.215218 144 209 103
-0.339848 0.0845368 0.215261 138 200 98
-0.339929 0.0860212 0.215167 129 184 91
-0.339646 0.0873676 0.21521 116 158 85
-0.339727 0.0888573 0.215116 92 104 70
-0.339808 0.0903507 0.215022 73 68 55
-0.339525 0.0917002 0.215065 68 61 48
-0.35587 0.0680275 0.208706 157 232 114
-0.355175 0.0693073 0.208901 149 225 110
-0.354482 0.0705837 0.209096 167 226 115
-0.353395 0.0717304 0.20944 167 232 127
-0.351141 0.0724909 0.210226 161 230 120
-0.3493 0.0733679 0.210856 159 228 120
-0.347098 0.0741087 0.211623 160 226 117
-0.342693 0.0740841 0.213225 158 225 115
-0.340942 0.0749305 0.213824 155 224 114
-0.34066 0.0762743 0.213867 155 221 111
-0.340377 0.077618 0.21391 154 220 111
-0.340459 0.0790923 0.213815 151 220 109
-0.340176 0.0804376 0.213858 151 219 108
-0.339893 0.0817827 0.2139 149 218 107
-0.33961 0.0831277 0.213943 145 212 105
-0.339328 0.0844727 0.213986 142 204 101
-0.339408 0.0859571 0.213891 131 180 94
-0.339206 0.0887933 0.213838 76 76 59
-0.339287 0.0902868 0.213743 70 66 50
-0.354427 0.0661971 0.207788 165 232 128
-0.354133 0.0675951 0.207833 154 230 113
-0.353443 0.0688706 0.208029 154 221 113
-0.35315 0.0702665 0.208073 170 237 128
-0.351286 0.0711613 0.208719 167 233 125
-0.349829 0.0721719 0.20921 163 230 120
-0.348383 0.0731745 0.209696 162 228 119
-0.34619 0.0739158 0.21047 162 226 117
-0.340341 0.0733981 0.212648 159 225 117
-0.340059 0.0747404 0.212691 157 224 114
-0.339777 0.0760826 0.212733 155 221 111
-0.339858 0.0775533 0.212637 152 221 110
-0.339575 0.078897 0.21268 150 221 109
-0.339293 0.0802407 0.212723 151 217 108
-0.33901 0.0815842 0.212766 149 217 109
-0.338728 0.0829277 0.212808 147 212 106
-0.338445 0.084271 0.212851 144 201 102
-0.338605 0.0872396 0.212658 81 93 61
-0.338322 0.088586 0.212701 68 67 48
-0.338401 0.0900775 0.212604 69 68 51
-0.353491 0.0660098 0.206617 160 231 116
-0.353198 0.0674061 0.206662 151 224 109
-0.35251 0.0686803 0.206859 171 226 117
-0.351042 0.0697049 0.207359 170 237 128
-0.350361 0.0709693 0.207554 166 231 123
-0.348524 0.0718545 0.208198 165 229 120
-0.346707 0.0727305 0.208836 161 229 121
-0.340469 0.0721123 0.211191 158 227 119
-0.339823 0.0733331 0.211376 161 228 117
-0.33954 0.0746755 0.211419 160 225 114
-0.339258 0.0760179 0.211462 156 223 112
-0.338976 0.0773601 0.211504 153 221 112
-0.339056 0.0788325 0.211406 152 218 108
-0.338412 0.0800443 0.21159 151 217 108
-0.33813 0.0813862 0.211633 150 216 107
-0.337848 0.0827281 0.211676 148 208 106
-0.337722 0.0870344 0.211523 73 69 50
-0.337801 0.0885221 0.211425 64 65 48
-0.351673 0.064081 0.205865 163 232 126
-0.351772 0.0655875 0.205756 152 227 109
-0.35148 0.0669784 0.205801 157 218 112
-0.351188 0.0683692 0.205845 173 234 128
-0.350505 0.0696372 0.206043 170 237 124
-0.350603 0.0711505 0.205934 168 232 121
-0.339949 0.0720471 0.209918 161 228 118
-0.339304 0.0732681 0.210103 160 226 116
-0.339022 0.0746107 0.210147 160 224 114
-0.338739 0.0759531 0.210189 157 220 112
-0.338457 0.0772955 0.210232 154 219 111
-0.337815 0.0785079 0.210418 152 220 110
-0.337533 0.0798484 0.210461 151 218 107
-0.337251 0.0811888 0.210504 151 215 105
-0.336969 0.082529 0.210547 146 202 104
-0.336765 0.0853476 0.21049 80 75 56
-0.336842 0.0868297 0.210391 69 61 46
-0.35065 0.062397 0.204814 168 243 132
-0.350747 0.0638976 0.204704 157 228 113
-0.350456 0.0652851 0.204748 146 224 108
-0.350553 0.0667912 0.204638 170 229 117
-0.350261 0.0681803 0.204683 171 235 128
-0.33943 0.0719819 0.208643 162 228 118
-0.338063 0.0729576 0.209119 159 225 118
-0.337423 0.0741728 0.209305 159 226 116
-0.336784 0.0753849 0.209491 156 223 115
-0.336503 0.0767206 0.209534 153 220 113
-0.336579 0.078185 0.209434 153 219 110
-0.336298 0.0795222 0.209477 151 215 109
-0.336017 0.0808593 0.20952 152 209 106
-0.335888 0.0851455 0.209362 70 65 45
-0.349341 0.0621039 0.203811 158 227 120
-0.349436 0.0636003 0.203701 145 224 108
-0.349532 0.0651005 0.203589 157 219 114
-0.349241 0.0664862 0.203634 176 241 132
-0.336752 0.0711925 0.208241 163 228 118
-0.336472 0.0725269 0.208284 161 229 116
-0.335836 0.0737382 0.208471 159 227 116
-0.335201 0.0749464 0.208657 156 224 116
-0.334922 0.0762772 0.208699 155 219 113
-0.334642 0.0776079 0.208742 153 216 110
-0.334362 0.0789385 0.208785 151 211 107
-0.334083 0.080269 0.208828 142 193 104
-0.333876 0.0830641 0.20877 72 68 50
-0.334302 0.0846692 0.208525 64 63 47
-0.348712 0.0605432 0.202614 163 238 132
-0.348422 0.0619238 0.202658 153 223 109
-0.348132 0.0633045 0.202702 145 219 107
-0.348226 0.0648005 0.20259 172 233 120
-0.348705 0.0664183 0.202321 175 235 127
-0.33601 0.0667809 0.207284 166 233 120
-0.335731 0.0681107 0.207326 165 231 122
-0.336161 0.0696753 0.207079 164 230 119
-0.335881 0.0710082 0.207122 165 229 119
-0.335246 0.0722202 0.20731 164 226 117
-0.334613 0.0734289 0.207497 160 224 116
-0.334334 0.0747583 0.20754 158 224 114
-0.333703 0.0759622 0.207727 156 222 111
-0.333424 0.0772897 0.20777 153 217 108
-0.333145 0.078617 0.207812 149 207 105
-0.332937 0.0814035 0.207753 79 82 57
-0.333009 0.0828662 0.207652 68 65 48
-0.347032 0.0601466 0.201778 155 229 119
-0.347124 0.061633 0.201665 146 222 104
-0.347599 0.0632366 0.201394 162 216 111
-0.347309 0.0646172 0.201439 176 241 132
-0.334717 0.0650511 0.206418 169 236 123
-0.334439 0.0663761 0.206461 169 234 123
-0.33416 0.0677011 0.206504 166 232 123
-0.334585 0.0692589 0.206255 165 230 120
-0.334306 0.0705869 0.206298 164 231 120
-0.333675 0.0717949 0.206486 163 228 117
-0.333047 0.0729999 0.206674 160 226 115
-0.332768 0.0743243 0.206716 159 223 112
-0.33249 0.0756487 0.206759 157 222 111
-0.332212 0.076973 0.206802 152 212 106
-0.332074 0.081208 0.206639 72 68 46
-0.345653 0.0583828 0.200904 160 234 129
-0.345365 0.0597531 0.200948 148 222 107
-0.346212 0.0614543 0.200519 142 219 105
-0.346684 0.0630554 0.200245 175 235 121
-0.334205 0.0649864 0.205162 170 235 120
-0.333227 0.0660865 0.205498 168 233 122
-0.333648 0.0676366 0.205248 167 233 122
-0.33337 0.0689616 0.20529 167 233 119
-0.332394 0.0700515 0.205626 166 231 119
-0.332116 0.0713729 0.205668 163 228 118
-0.331838 0.0726943 0.205711 160 226 117
-0.331214 0.0738936 0.205899 158 223 113
-0.330937 0.0752131 0.205941 157 221 111
-0.331005 0.0766578 0.205838 148 201 106
-0.331143 0.0795578 0.205631 82 71 50
-0.330865 0.0808819 0.205674 75 62 50
-0.342879 0.0576824 0.200552 155 224 115
-0.344084 0.05947 0.199967 154 212 102
-0.344924 0.0611658 0.199534 170 220 107
-0.333693 0.0649217 0.203906 169 236 121
-0.332368 0.06591 0.204393 169 234 121
-0.332438 0.0673439 0.204288 167 233 123
-0.331467 0.0684354 0.204625 165 231 121
-0.330845 0.0696374 0.204814 164 232 119
-0.330568 0.070954 0.204856 162 228 120
-0.330292 0.0722706 0.204899 160 226 119
-0.330015 0.073587 0.204941 158 222 113
-0.329738 0.0749034 0.204984 156 213 106
-0.329872 0.0777886 0.204775 80 87 62
-0.329939 0.0792364 0.204671 68 69 51
-0.329662 0.0805574 0.204713 68 64 52
-0.341164 0.055846 0.19985 161 233 133
-0.341247 0.0573028 0.199737 150 206 106
-0.342439 0.0590817 0.199149 158 217 108
-0.332135 0.0645253 0.203098 168 236 122
-0.331511 0.065734 0.20329 166 234 124
-0.330889 0.0669397 0.20348 166 233 124
-0.330269 0.0681423 0.203671 164 232 122
-0.32965 0.0693418 0.203861 165 232 121
-0.329374 0.0706553 0.203903 164 228 118
-0.329098 0.0719687 0.203946 162 227 115
-0.328822 0.073282 0.203988 158 219 110
-0.328676 0.0774727 0.20382 72 69 54
-0.328742 0.0789167 0.203715 66 67 50
-0.340275 0.0556774 0.198725 153 212 114
-0.340357 0.0571323 0.198611 152 206 107
-0.331902 0.0631401 0.201804 168 237 123
-0.32888 0.0635889 0.203039 168 234 122
-0.328606 0.0648964 0.203081 170 237 124
-0.328331 0.0662038 0.203123 167 232 122
-0.328056 0.0675111 0.203165 163 232 120
-0.327782 0.0688184 0.203208 162 231 119
-0.327169 0.0700097 0.203397 160 228 116
-0.326895 0.0713151 0.203439 157 222 115
-0.326621 0.0726205 0.203481 151 208 110
-0.326746 0.0754757 0.203271 80 76 55
-0.326808 0.0769085 0.203166 66 67 53
-0.334312 0.0526969 0.199904 158 227 134
-0.338302 0.0552072 0.198079 149 202 106
-0.323806 0.0566055 0.204116 168 235 126
-0.326172 0.0586848 0.203001 167 235 124
-0.326233 0.0600808 0.202897 168 233 123
-0.326963 0.0616894 0.202498 166 236 120
-0.32669 0.0629891 0.20254 166 235 121
-0.326752 0.064397 0.202435 168 232 121
-0.326479 0.0656981 0.202477 165 233 120
-0.326205 0.0669991 0.202519 162 232 118
-0.325932 0.0683001 0.202561 161 230 114
-0.325659 0.0696009 0.202603 158 227 114
-0.325385 0.0709017 0.202645 157 218 111
-0.325568 0.0751681 0.202328 67 67 48
-0.334078 0.0513062 0.198605 166 223 118
-0.3338 0.0526312 0.198648 153 201 107
-0.333872 0.0540535 0.198536 147 202 103
-0.336781 0.0562823 0.197166 172 222 120
-0.323254 0.0551656 0.203005 168 238 128
-0.322985 0.0564454 0.203046 168 235 124
-0.323041 0.0578237 0.202943 169 233 122
-0.324409 0.0596093 0.202257 169 237 122
-0.32546 0.0613124 0.20171 166 234 122
-0.325188 0.0626075 0.201752 168 236 122
-0.325581 0.0641175 0.201498 167 235 118
-0.325308 0.0654155 0.20154 165 232 118
-0.325036 0.0667135 0.201582 162 229 114
-0.324763 0.0680113 0.201624 161 226 112
-0.32449 0.0693091 0.201666 157 223 110
-0.324336 0.0734402 0.201495 73 69 53
-0.324728 0.0749835 0.201239 65 64 46
-0.33162 0.0535038 0.198057 161 179 90
-0.326926 0.0535707 0.200081 178 240 131
-0.322703 0.0537288 0.201896 170 232 124
-0.322435 0.0550073 0.201937 168 233 127
-0.322166 0.0562856 0.201978 170 236 124
-0.322221 0.0576622 0.201874 166 234 122
-0.323255 0.0593438 0.20133 168 236 124
-0.32364 0.0608351 0.201076 170 234 123
-0.324027 0.0623336 0.200822 166 232 121
-0.324085 0.0637323 0.200715 165 233 119
-0.323813 0.0650257 0.200757 161 231 117
-0.323542 0.066319 0.200799 161 230 115
-0.32327 0.0676122 0.200841 160 227 112
-0.323327 0.0690187 0.200734 157 215 106
-0.323501 0.0732583 0.200412 67 64 51
-0.323127 0.0525713 0.200347 170 235 127
-0.321563 0.0534791 0.200977 169 236 125
-0.320973 0.0546602 0.201164 168 234 125
-0.321027 0.0560301 0.201059 170 233 123
-0.321403 0.0575011 0.200808 170 237 123
-0.322431 0.05918 0.200259 170 234 123
-0.322487 0.0605666 0.200152 168 235 122
-0.322871 0.062061 0.199896 164 235 124
-0.3226 0.0633499 0.199938 163 233 117
-0.322329 0.0646387 0.199979 160 232 117
-0.322058 0.0659274 0.200021 161 229 117
-0.322114 0.0673269 0.199914 158 219 112
-0.322283 0.0715454 0.19959 68 63 55
-0.322668 0.0730768 0.19933 68 61 49
-0.320108 0.0531383 0.200209 168 233 123
-0.318255 0.053943 0.200979 168 236 123
-0.320213 0.0558714 0.199997 170 232 121
-0.320266 0.0572428 0.199891 171 234 123
-0.320963 0.0588164 0.199488 168 235 126
-0.321665 0.0604015 0.199082 167 237 121
-0.321395 0.0616859 0.199124 167 234 121
-0.321125 0.0629702 0.199166 162 231 117
-0.320856 0.0642545 0.199207 161 231 115
-0.320586 0.0655386 0.199249 157 226 114
-0.32064 0.0669327 0.199141 153 209 110
-0.320748 0.0697307 0.198924 76 71 56
-0.321128 0.0712505 0.198665 69 64 52
-0.316466 0.0521643 0.200468 168 233 126
-0.316826 0.0536039 0.200218 169 233 124
-0.319083 0.0556177 0.199086 168 233 122
-0.319773 0.0571801 0.198681 166 233 122
-0.319825 0.0585547 0.198574 165 232 121
-0.320199 0.0600337 0.198316 165 231 119
-0.320252 0.0614165 0.198207 163 231 118
-0.319983 0.0626978 0.198249 161 231 119
-0.319714 0.0639791 0.19829 158 227 114
-0.319445 0.0652602 0.198332 156 218 109
-0.319603 0.0694415 0.198005 71 63 46
-0.310762 0.0492864 0.201811 172 237 123
-0.310504 0.0505165 0.201851 167 233 124
-0.314481 0.0529943 0.199898 165 232 122
-0.319228 0.055746 0.19758 167 232 122
-0.31928 0.0571174 0.197471 166 232 121
-0.319012 0.058393 0.197513 165 233 120
-0.319063 0.059769 0.197404 163 233 117
-0.318795 0.061046 0.197445 162 230 118
-0.318527 0.0623228 0.197487 161 227 115
-0.318259 0.0635995 0.197528 158 221 111
-0.317991 0.0648762 0.19757 150 201 105
-0.318411 0.0677602 0.1972 76 66 46
-0.318462 0.0691536 0.19709 64 63 44
-0.306799 0.0495196 0.20222 158 231 123
-0.307124 0.0509055 0.201984 164 232 123
-0.318786 0.0570547 0.196261 165 233 120
-0.3182 0.0582317 0.196455 162 231 120
-0.317933 0.0595057 0.196496 162 228 117
-0.317983 0.0608815 0.196386 160 228 116
-0.317715 0.0621569 0.196427 159 224 111
-0.317447 0.0634322 0.196469 154 213 108
-0.316912 0.0659826 0.196552 77 73 57
-0.316961 0.0673674 0.196442 66 62 50
-0.304035 0.0487939 0.202172 154 214 110
-0.304351 0.0501657 0.201937 164 230 121
-0.306398 0.0520629 0.200868 166 229 119
-0.317658 0.056798 0.195357 165 227 118
-0.31739 0.0580707 0.195399 163 226 116
-0.316492 0.0591442 0.195745 160 225 115
-0.316541 0.0605147 0.195634 157 224 115
-0.316274 0.0617856 0.195675 154 215 109
-0.316418 0.0659207 0.195342 66 62 43
-0.30244 0.0484064 0.201579 157 225 123
-0.303033 0.0498546 0.201207 165 229 118
-0.303631 0.0513127 0.200832 162 230 121
-0.314659 0.0559691 0.195371 160 230 118
-0.31564 0.0576172 0.194805 160 227 116
-0.315374 0.0588839 0.194846 158 224 117
-0.315421 0.0602509 0.194734 156 222 114
-0.315155 0.0615189 0.194776 150 206 108
-0.315248 0.0642654 0.194552 71 68 42
-0.315295 0.0656435 0.19444 67 62 40
-0.300859 0.0480224 0.200992 160 234 124
-0.302005 0.0496287 0.200343 162 229 119
-0.302881 0.0511679 0.199827 161 230 119
-0.312632 0.0554358 0.194934 158 228 116
-0.313907 0.057168 0.194216 158 225 114
-0.313642 0.0584287 0.194257 158 222 114
-0.314307 0.0599884 0.193839 154 216 109
-0.314444 0.0640982 0.193501 69 61 39
-0.314177 0.0653676 0.193542 68 59 40
-0.300094 0.0466116 0.200096 154 207 101
-0.300676 0.0480443 0.199721 162 224 115
-0.302103 0.049736 0.198925 163 228 120
-0.302698 0.0511939 0.198542 159 227 116
-0.309726 0.0546322 0.194951 159 227 114
-0.311884 0.0566278 0.193785 156 222 113
-0.311621 0.0578812 0.193826 154 216 112
-0.312668 0.0622515 0.19303 69 64 45
-0.313021 0.0637219 0.192762 62 60 36
-0.299633 0.0465527 0.198966 156 223 120
-0.30077 0.0481474 0.198308 164 225 116
-0.301638 0.0496767 0.197783 159 225 115
-0.302231 0.0511344 0.197397 156 223 114
-0.304546 0.0531292 0.196142 155 221 112
-0.309284 0.0559065 0.193662 157 219 108
-0.311219 0.060526 0.192411 74 67 47
-0.311566 0.0619856 0.192143 65 61 41
-0.298898 0.0464149 0.197976 150 218 122
