ply
format ascii 1.0
element vertex 1235
property float x
property float y
property float z
property uchar diffuse_red
property uchar diffuse_green
property uchar diffuse_blue
end_header
-0.420575 0.04946 0.331406 84 76 68
-0.423848 0.0629432 0.333643 89 82 72
-0.423627 0.0644635 0.333926 88 83 75
-0.421885 0.065517 0.334204 82 86 80
-0.420659 0.0667177 0.334481 78 94 90
-0.41944 0.0679116 0.334757 73 103 105
-0.418228 0.0690988 0.335032 67 108 112
-0.416532 0.0701197 0.335301 67 110 106
-0.417791 0.0721016 0.33559 62 111 107
-0.385965 0.0760006 0.337929 36 73 75
-0.385765 0.0773744 0.338185 37 83 86
-0.385975 0.0789062 0.338447 55 114 114
-0.386598 0.0806025 0.338718 73 112 116
-0.38764 0.0824713 0.338997 80 87 85
-0.388271 0.0841882 0.339271 84 78 70
-0.425819 0.059074 0.331265 78 81 67
-0.426111 0.0607501 0.331547 80 81 72
-0.425888 0.062279 0.331831 85 86 79
-0.425665 0.0638081 0.332115 84 92 84
-0.424928 0.0651813 0.332401 76 101 99
-0.424194 0.0665507 0.332685 70 104 106
-0.422952 0.0677571 0.332969 65 108 106
-0.422223 0.069117 0.333252 56 110 111
-0.421497 0.0704732 0.333533 45 100 110
-0.41977 0.0714985 0.333812 40 91 100
-0.419549 0.0730087 0.334093 38 82 88
-0.419329 0.074519 0.334374 35 76 81
-0.387204 0.0782323 0.33683 34 76 75
-0.387003 0.0796135 0.337086 45 99 100
-0.387631 0.0813185 0.337354 65 120 119
-0.388681 0.0831976 0.33763 77 102 97
-0.389739 0.0850917 0.337907 83 83 76
-0.427879 0.0583842 0.329431 85 79 74
-0.427655 0.0599198 0.329717 82 88 81
-0.427431 0.0614555 0.330002 77 94 93
-0.427207 0.0629913 0.330288 73 100 101
-0.426465 0.0643717 0.330577 67 109 104
-0.425725 0.0657482 0.330865 57 112 110
-0.424987 0.0671208 0.331153 46 102 111
-0.42374 0.0683292 0.331442 42 88 98
-0.423008 0.0696924 0.331727 43 79 85
-0.422785 0.0712155 0.33201 47 76 79
-0.42155 0.0724073 0.332296 50 78 77
-0.420321 0.0735923 0.33258 51 79 76
-0.4191 0.0747707 0.332862 53 80 75
-0.419879 0.076622 0.333143 60 79 72
-0.392042 0.0803908 0.335485 22 71 69
-0.390138 0.0811376 0.335732 22 85 84
-0.390357 0.0826989 0.335996 50 114 113
-0.390577 0.0842645 0.33626 69 113 117
-0.390797 0.0858344 0.336524 80 88 84
-0.391018 0.0874085 0.33679 85 73 67
-0.430942 0.0547398 0.326993 81 79 74
-0.430717 0.0562864 0.32728 86 84 76
-0.429964 0.0576863 0.327576 87 91 81
-0.429213 0.0590822 0.32787 79 96 97
-0.428465 0.0604741 0.328164 72 106 105
-0.42824 0.0620144 0.32845 64 115 111
-0.427494 0.0634003 0.328743 51 108 113
-0.42675 0.0647822 0.329035 43 93 102
-0.426526 0.0663184 0.32932 44 81 87
-0.425785 0.0676943 0.329611 46 77 81
-0.425561 0.0692284 0.329896 50 78 78
-0.425337 0.0707627 0.330181 61 78 75
-0.425114 0.0722971 0.330466 71 76 73
-0.423862 0.0734944 0.330758 78 76 71
-0.42211 0.074516 0.331051 81 79 72
-0.41887 0.0750224 0.33135 86 84 73
-0.417161 0.0760246 0.331637 87 84 74
-0.414491 0.0766804 0.331924 84 78 74
-0.39289 0.0795465 0.333822 36 65 65
-0.392685 0.0809536 0.334084 15 54 58
-0.391624 0.0820293 0.334342 7 58 67
-0.391419 0.0834328 0.334603 34 94 98
-0.391641 0.0850058 0.334866 61 119 118
-0.391864 0.086583 0.33513 73 102 95
-0.391658 0.0879906 0.335392 77 82 74
-0.433287 0.0524593 0.32482 91 81 68
-0.432526 0.0538729 0.325121 81 85 78
-0.432299 0.0554264 0.325409 78 90 90
-0.43101 0.0566879 0.32572 75 95 97
-0.430785 0.0582371 0.326008 70 112 104
-0.43003 0.0596364 0.326305 56 114 116
-0.429279 0.0610317 0.326602 44 99 110
-0.428529 0.0624231 0.326898 44 86 94
-0.427781 0.0638105 0.327194 50 79 81
-0.427557 0.0653512 0.32748 49 77 77
-0.427332 0.066892 0.327766 57 77 77
-0.427107 0.0684328 0.328053 69 77 75
-0.426883 0.0699738 0.328339 80 80 72
-0.427701 0.0718487 0.328612 85 81 69
-0.427476 0.0733944 0.3289 85 79 68
-0.426208 0.0745974 0.329198 86 79 68
-0.423406 0.0752795 0.329511 89 77 69
-0.421656 0.0762936 0.329809 92 77 71
-0.417427 0.0764449 0.330126 92 78 73
-0.416221 0.0776089 0.330414 88 76 73
-0.413076 0.0780826 0.330713 87 80 72
-0.399218 0.0792367 0.331869 81 80 72
-0.397676 0.0801712 0.332139 77 77 70
-0.393969 0.0802724 0.332412 37 57 63
-0.392471 0.0811893 0.332676 10 38 46
-0.392266 0.0825967 0.332937 6 37 47
-0.39206 0.0840041 0.333199 16 73 75
-0.392284 0.0855821 0.333461 47 109 109
-0.392078 0.0869916 0.333723 66 114 115
-0.392302 0.0885759 0.333986 76 92 89
-0.392958 0.090342 0.334251 78 78 74
-0.434124 0.0529982 0.323232 89 79 74
-0.433359 0.0544153 0.323536 76 96 92
-0.433132 0.0559735 0.323825 65 114 110
-0.43237 0.0573843 0.324128 48 107 115
-0.43161 0.0587911 0.32443 44 90 100
-0.430323 0.0600431 0.324743 43 80 84
-0.42957 0.06144 0.325043 46 78 78
-0.429344 0.0629874 0.32533 56 77 75
-0.429118 0.0645348 0.325618 72 78 75
-0.429947 0.0664017 0.325884 73 76 74
-0.429721 0.0679539 0.326173 76 78 73
-0.430554 0.0698365 0.326442 81 77 71
-0.431392 0.0717304 0.326712 83 77 67
-0.431164 0.0732922 0.327002 82 78 68
-0.430936 0.074854 0.327292 84 78 69
-0.427538 0.0753702 0.327631 88 80 69
-0.425749 0.0763957 0.327941 88 78 72
-0.42244 0.076892 0.32827 86 77 77
-0.421709 0.0782458 0.32856 85 83 80
-0.407872 0.0781206 0.329549 87 101 87
-0.40303 0.0779158 0.329866 82 102 93
-0.399656 0.0782065 0.330164 80 102 91
-0.398555 0.0793113 0.330437 84 99 83
-0.397459 0.0804102 0.33071 69 87 74
-0.395057 0.0810041 0.330989 23 48 57
-0.393548 0.0819219 0.33126 8 33 38
-0.393342 0.083335 0.331523 8 28 36
-0.393136 0.0847482 0.331785 9 51 59
-0.39293 0.0861615 0.332048 35 90 95
-0.392724 0.0875749 0.33231 62 118 118
-0.392949 0.0891643 0.332572 77 104 100
-0.393608 0.090937 0.332835 79 85 80
-0.395145 0.093084 0.333098 78 76 72
-0.434425 0.053398 0.321651 84 80 73
-0.434197 0.0549609 0.321941 61 88 94
-0.433431 0.0563774 0.322248 48 82 91
-0.433204 0.0579382 0.322538 43 79 79
-0.432441 0.0593484 0.322843 50 76 74
-0.432213 0.0609071 0.323132 63 74 71
-0.431986 0.0624659 0.323422 73 77 72
-0.432293 0.0641824 0.323698 77 77 70
-0.433139 0.0660648 0.323961 80 79 69
-0.433449 0.0677945 0.324238 78 76 71
-0.43322 0.069363 0.32453 86 75 70
-0.434072 0.0712696 0.324797 89 76 67
-0.433843 0.0728429 0.325089 85 80 67
-0.433072 0.0742425 0.325393 82 82 71
-0.431232 0.0752882 0.325717 82 83 76
-0.430471 0.0766761 0.326018 86 87 78
-0.427077 0.0771765 0.326368 84 92 84
-0.426329 0.0785477 0.326665 76 96 97
-0.403021 0.0767086 0.328146 66 111 102
-0.400995 0.0774997 0.328441 60 113 107
-0.399438 0.0784465 0.328726 59 108 107
-0.398337 0.0795508 0.329004 67 110 99
-0.398128 0.0809828 0.32927 47 84 75
-0.397034 0.0820775 0.329546 15 42 49
-0.395945 0.0831663 0.32982 8 31 34
-0.394427 0.0840794 0.330097 8 29 37
-0.39422 0.0854984 0.33036 10 43 53
-0.394013 0.0869175 0.330624 19 74 77
-0.393806 0.0883367 0.330887 46 107 108
-0.394034 0.0899337 0.331148 69 113 114
-0.395136 0.0918967 0.331406 81 93 91
-0.395807 0.0936913 0.331667 82 77 75
-0.434499 0.0553644 0.320356 70 79 72
-0.433732 0.0567826 0.320665 77 74 73
-0.434043 0.0584954 0.320938 77 76 71
-0.433814 0.060061 0.321228 82 74 70
-0.434125 0.0617815 0.321502 83 75 70
-0.43498 0.0636651 0.32176 84 75 70
-0.436387 0.0657218 0.322002 87 75 69
-0.436157 0.0673019 0.322296 86 75 67
-0.43538 0.0687157 0.322605 84 77 68
-0.43515 0.0702938 0.322898 87 77 72
-0.434919 0.0718719 0.323191 89 79 73
-0.434689 0.0734501 0.323484 86 85 73
-0.433374 0.0746783 0.323805 79 91 85
-0.432605 0.0760754 0.324111 74 96 98
-0.430233 0.0769363 0.324454 73 105 103
-0.430006 0.0784986 0.324744 69 111 103
-0.401891 0.076624 0.326713 34 83 93
-0.400326 0.0775769 0.327006 28 83 93
-0.39922 0.0786866 0.327289 29 84 93
-0.398564 0.0799562 0.327563 36 86 89
-0.397911 0.0812225 0.327837 20 64 65
-0.397259 0.0824855 0.328109 10 39 46
-0.396608 0.0837452 0.328381 9 32 36
-0.395521 0.0848298 0.328659 10 40 44
-0.395313 0.0862546 0.328923 11 51 55
-0.395105 0.0876796 0.329188 8 61 68
-0.395336 0.0892822 0.329448 30 89 96
-0.395566 0.0908893 0.329708 59 115 117
-0.395798 0.0925007 0.329969 77 105 101
-0.396915 0.0944878 0.330223 82 84 79
-0.440813 0.0656992 0.319969 87 72 74
-0.441142 0.067465 0.320246 86 75 74
-0.440908 0.0690669 0.320544 88 78 75
-0.440114 0.0704974 0.32086 88 81 77
-0.438208 0.0715787 0.321211 82 86 86
-0.43632 0.0726504 0.321558 77 90 98
-0.434994 0.0738865 0.321886 73 99 99
-0.434219 0.0752911 0.322196 67 110 104
-0.432366 0.076337 0.322537 54 112 113
-0.429996 0.0771965 0.322889 43 102 110
-0.429768 0.078759 0.323179 40 87 96
-0.402336 0.0755814 0.324986 48 77 74
-0.400767 0.0765399 0.325286 44 75 72
-0.399658 0.0776539 0.325575 40 75 71
-0.399001 0.0789267 0.325851 35 71 68
-0.398346 0.0801961 0.326127 24 65 62
-0.39725 0.0812946 0.326412 12 51 52
-0.397041 0.082725 0.326677 8 36 40
-0.396391 0.0839845 0.326951 10 36 41
-0.396183 0.0854133 0.327217 11 54 57
-0.395535 0.0866676 0.327489 18 63 64
-0.395327 0.0880947 0.327754 13 62 67
-0.395557 0.0897001 0.328013 19 74 80
-0.395789 0.09131 0.328271 47 106 107
-0.396463 0.0931081 0.328525 67 114 113
-0.397586 0.0951031 0.328774 78 91 87
-0.399168 0.0973058 0.329019 83 74 66
-0.443062 0.0650165 0.317978 82 79 69
-0.443396 0.0667921 0.318254 82 85 81
-0.443161 0.0684037 0.318553 78 89 93
-0.442926 0.0700155 0.318852 77 93 97
-0.441557 0.0712801 0.319194 76 100 96
-0.439637 0.0723629 0.319554 67 113 109
-0.437734 0.073436 0.319911 50 105 119
-0.435848 0.0744996 0.320264 41 94 111
-0.434523 0.0757305 0.320596 41 84 93
-0.432127 0.0765987 0.320962 41 77 81
-0.431898 0.0781705 0.321254 40 78 77
-0.40121 0.0754999 0.323562 77 80 71
-0.400098 0.0766183 0.323855 78 78 68
-0.398992 0.0777307 0.324147 73 77 68
-0.398337 0.0790018 0.324425 54 66 65
-0.397684 0.0802696 0.324703 23 55 59
-0.397032 0.081534 0.32498 11 43 45
-0.396382 0.0827951 0.325256 10 36 39
-0.396174 0.0842239 0.325521 12 50 54
-0.395965 0.0856528 0.325786 25 74 77
-0.395757 0.0870818 0.326052 40 88 84
-0.395548 0.0885109 0.326317 28 76 73
-0.39534 0.08994 0.326582 17 63 73
-0.396012 0.091732 0.326831 39 92 95
-0.396687 0.0935337 0.327081 61 119 116
-0.39826 0.0957219 0.327316 76 105 97
-0.400303 0.0981272 0.327547 83 81 72
-0.401916 0.100368 0.327788 84 74 65
-0.445678 0.0661108 0.316237 76 87 84
-0.445441 0.0677323 0.316538 74 108 96
-0.44463 0.0691825 0.316864 65 117 112
-0.44325 0.0704555 0.317213 49 108 118
-0.442446 0.0718951 0.317536 43 92 106
-0.441079 0.0731543 0.317882 45 79 91
-0.439161 0.0742289 0.318248 41 76 81
-0.436156 0.0749397 0.318654 40 76 77
-0.434283 0.0759936 0.319012 50 74 75
-0.431888 0.0768605 0.319388 66 73 73
-0.431659 0.0784324 0.319679 74 77 72
-0.400539 0.0755797 0.322131 82 84 70
-0.399431 0.0766965 0.322428 81 78 67
-0.398328 0.0778074 0.322723 74 73 65
-0.397675 0.0790768 0.323003 41 60 64
-0.397023 0.0803429 0.323282 16 50 56
-0.396373 0.0816056 0.32356 10 39 43
-0.396165 0.0830344 0.323825 12 47 52
-0.395956 0.0844634 0.324091 26 77 79
-0.395748 0.0858924 0.324356 50 103 105
-0.39554 0.0873215 0.324621 58 108 106
-0.395331 0.0887507 0.324886 46 87 87
-0.395123 0.09018 0.325152 26 65 75
-0.396235 0.0921551 0.325386 34 80 86
-0.397357 0.0941464 0.325622 53 111 108
-0.399841 0.0967253 0.32583 69 114 111
-0.401448 0.0989554 0.326061 80 88 89
-0.403074 0.10121 0.326295 83 71 70
-0.44775 0.0670525 0.314498 60 89 95
-0.44693 0.0685127 0.314829 48 86 97
-0.446112 0.0699686 0.315159 48 77 86
-0.444722 0.0712451 0.315515 42 74 78
-0.443911 0.0726903 0.315842 44 75 75
-0.442534 0.073953 0.316194 64 72 74
-0.4406 0.0750289 0.31657 76 74 72
-0.438684 0.0760953 0.316941 74 78 70
-0.435683 0.0767923 0.317357 71 77 70
-0.433812 0.0778382 0.317721 78 78 72
-0.399422 0.0754987 0.320721 81 81 71
-0.398319 0.0766128 0.32102 77 78 70
-0.397666 0.0778839 0.321302 57 69 65
-0.397014 0.0791516 0.321584 25 59 64
-0.396364 0.080416 0.321864 10 47 59
-0.395716 0.0816771 0.322144 10 41 54
-0.395508 0.0831041 0.322409 20 68 77
-0.395739 0.0847028 0.32266 50 106 108
-0.395531 0.086132 0.322925 58 122 126
-0.395322 0.0875612 0.32319 58 111 113
-0.395114 0.0889906 0.323456 56 99 98
-0.395785 0.0907801 0.323696 36 75 78
-0.39646 0.0925795 0.323937 31 71 77
-0.398031 0.0947625 0.324155 43 92 96
-0.401439 0.0977399 0.324328 61 112 114
-0.402603 0.0997906 0.324564 76 101 102
-0.403313 0.101658 0.324813 82 78 77
-0.448671 0.0676635 0.312799 68 78 70
-0.447264 0.068955 0.313165 61 73 71
-0.446445 0.0704125 0.313498 73 73 71
-0.445628 0.0718657 0.31383 79 80 68
-0.44539 0.0734929 0.314132 79 81 69
-0.444577 0.0749393 0.314462 83 76 68
-0.442622 0.0760175 0.314848 86 77 68
-0.442386 0.0776351 0.315148 83 79 66
-0.399203 0.0757389 0.31928 83 90 81
-0.397657 0.0766908 0.319602 70 81 77
-0.396564 0.0777975 0.319903 44 69 70
-0.395916 0.079062 0.320186 23 66 68
-0.395707 0.080489 0.320451 11 46 60
-0.395061 0.0817484 0.320732 14 58 68
-0.395291 0.0833432 0.32098 36 97 97
-0.395522 0.0849423 0.321229 59 127 127
-0.395313 0.0863716 0.321494 59 123 126
-0.395105 0.087801 0.321759 59 113 114
-0.394896 0.0892305 0.322025 57 108 107
-0.396008 0.0912019 0.322246 57 92 89
-0.397129 0.0931895 0.322469 45 73 75
-0.398259 0.0951935 0.322694 40 77 80
-0.401674 0.0981799 0.322851 54 104 102
-0.403303 0.100434 0.323067 70 113 108
-0.404483 0.10251 0.323299 80 93 86
-0.405672 0.104604 0.323534 84 73 64
-0.398538 0.0758182 0.31786 74 109 100
-0.393498 0.0754917 0.318347 57 97 92
-0.393291 0.0769072 0.318609 34 78 80
-0.393085 0.0783227 0.318872 18 71 73
-0.393311 0.0799021 0.319116 18 60 65
-0.393537 0.0814859 0.31936 28 84 84
-0.394636 0.0834124 0.319569 52 116 118
-0.394866 0.0850097 0.319816 57 127 131
-0.395096 0.0866113 0.320063 58 118 124
-0.394887 0.0880408 0.320328 61 117 117
-0.394679 0.0894705 0.320593 52 107 109
-0.39579 0.091443 0.320809 70 119 110
-0.39691 0.0934317 0.321026 57 90 95
-0.398938 0.0958151 0.321213 39 71 76
-0.402831 0.0990129 0.321337 45 85 87
-0.404473 0.101281 0.321546 61 110 108
-0.405663 0.10337 0.321773 74 103 95
-0.407337 0.105685 0.321986 80 80 71
-0.40855 0.107814 0.322217 80 72 66
-0.393489 0.0743128 0.316666 44 96 108
-0.391991 0.0752555 0.316993 44 94 99
-0.391785 0.0766654 0.317255 36 90 90
-0.392438 0.0783977 0.317475 21 78 79
-0.392663 0.0799753 0.317716 28 81 81
-0.392888 0.0815572 0.317959 46 104 103
-0.393114 0.0831434 0.318202 60 126 126
-0.394648 0.085249 0.318386 58 123 127
-0.394878 0.0868511 0.318631 61 120 122
-0.39467 0.0882807 0.318897 64 116 116
-0.3949 0.0898893 0.319143 51 94 96
-0.396013 0.0918663 0.319353 48 105 104
-0.397136 0.0938596 0.319564 50 102 108
-0.400529 0.0968232 0.319686 40 73 75
-0.403998 0.0998529 0.319811 39 73 73
-0.405653 0.102135 0.320011 53 102 99
-0.407328 0.104444 0.320215 66 111 107
-0.408541 0.106567 0.320438 75 91 86
-0.409764 0.108709 0.320663 77 72 65
-0.391553 0.073926 0.315343 47 93 97
-0.391348 0.0753341 0.315604 46 100 104
-0.391143 0.0767423 0.315865 35 90 95
-0.391365 0.0783114 0.316104 31 84 89
-0.392017 0.0800483 0.31632 36 95 101
-0.392241 0.0816283 0.316561 54 117 120
-0.392898 0.0833813 0.31678 60 126 128
-0.394869 0.0856612 0.316935 59 120 123
-0.394661 0.0870909 0.3172 63 120 120
-0.394891 0.0886979 0.317444 68 100 99
-0.395562 0.0904894 0.317668 66 71 66
-0.396237 0.0922909 0.317893 50 72 69
-0.397809 0.0944758 0.318078 51 82 82
-0.401678 0.0976483 0.318163 41 66 66
-0.405644 0.100901 0.31825 35 63 64
-0.407794 0.103408 0.318423 45 84 87
-0.408531 0.10532 0.318659 61 106 109
-0.409755 0.107457 0.318877 74 101 99
-0.410503 0.109394 0.319117 79 80 70
-0.391545 0.0727532 0.313671 57 96 92
-0.391339 0.0741613 0.313932 52 112 112
-0.391134 0.0755695 0.314193 46 104 108
-0.390928 0.0769778 0.314454 37 89 95
-0.390723 0.0783862 0.314715 38 98 100
-0.391372 0.0801212 0.314928 44 111 112
-0.391595 0.0816993 0.315166 55 128 129
-0.392682 0.0836193 0.315357 58 120 125
-0.394652 0.0859008 0.315503 60 118 120
-0.394882 0.0875063 0.315744 63 111 111
-0.395553 0.0892947 0.315963 73 82 77
-0.396228 0.0910929 0.316184 74 71 64
-0.396462 0.0927166 0.316428 72 71 63
-0.397589 0.0947191 0.316628 68 67 61
-0.402837 0.0984803 0.316627 55 58 59
-0.407785 0.102164 0.316649 42 58 58
-0.409001 0.104281 0.316857 44 70 71
-0.409745 0.106204 0.31709 55 98 98
-0.410493 0.108139 0.317325 68 111 108
-0.411246 0.110084 0.31756 77 93 86
-0.412002 0.112041 0.317798 81 72 61
-0.391536 0.0715802 0.311999 67 88 89
-0.39133 0.0729884 0.31226 60 109 110
-0.390698 0.0742412 0.312548 53 113 117
-0.390493 0.0756477 0.312809 43 98 104
-0.390714 0.0772134 0.313043 45 95 100
-0.390508 0.0786219 0.313304 44 103 110
-0.39073 0.0801939 0.313539 54 119 123
-0.39138 0.0819362 0.313749 59 124 127
-0.392466 0.0838573 0.313935 60 117 121
-0.394434 0.0861406 0.31407 62 118 117
-0.395103 0.0879229 0.314285 67 96 94
-0.395776 0.089715 0.3145 76 74 63
-0.406825 0.100517 0.314926 78 70 61
-0.408512 0.102826 0.315101 62 62 59
-0.409736 0.104952 0.315303 50 63 64
-0.41097 0.107096 0.315508 49 83 86
-0.411236 0.108825 0.315763 59 107 110
-0.411992 0.110778 0.315995 73 104 100
-0.413741 0.11319 0.31618 82 80 69
-0.391305 0.0688508 0.310096 83 72 65
-0.3911 0.070257 0.310357 76 77 75
-0.390895 0.0716633 0.310618 64 100 101
-0.39069 0.0730697 0.310878 55 118 122
-0.390484 0.0744762 0.311139 46 108 114
-0.390279 0.0758828 0.311399 42 98 104
-0.390074 0.0772895 0.31166 45 106 108
-0.390294 0.0788576 0.311893 49 114 117
-0.390515 0.0804301 0.312126 55 125 129
-0.391165 0.0821731 0.312332 57 120 124
-0.39225 0.0840953 0.312512 62 118 119
-0.394216 0.0863804 0.312638 64 109 108
-0.394885 0.0881635 0.312848 72 79 74
-0.395557 0.0899563 0.31306 75 70 63
-0.409726 0.103699 0.313516 77 72 62
-0.41096 0.105838 0.313713 63 65 62
-0.411715 0.10778 0.313939 54 73 73
-0.411983 0.109514 0.314193 56 98 95
-0.413732 0.111919 0.314367 68 111 105
-0.414502 0.113899 0.314597 80 92 86
-0.415277 0.115889 0.314828 81 69 63
-0.390665 0.0689372 0.308719 80 74 71
-0.39046 0.0703417 0.308979 66 91 88
-0.390681 0.0718981 0.309208 57 113 114
-0.390476 0.0733047 0.309468 50 112 121
-0.39027 0.0747113 0.309729 45 100 107
-0.390065 0.076118 0.30999 48 101 105
-0.38986 0.0775248 0.31025 48 108 113
-0.39008 0.0790934 0.310481 56 123 123
-0.3903 0.0806663 0.310712 58 122 126
-0.39095 0.0824101 0.310915 59 119 121
-0.392034 0.0843334 0.311089 64 117 116
-0.393562 0.086446 0.311235 70 94 92
-0.394228 0.088227 0.311441 77 73 65
-0.411705 0.106518 0.312138 76 69 62
-0.411973 0.108251 0.31239 66 66 66
-0.413722 0.110649 0.312554 55 81 84
-0.414492 0.112624 0.312778 58 104 107
-0.415267 0.114611 0.313004 76 98 99
-0.415544 0.116379 0.31326 81 68 67
-0.390877 0.06932 0.307277 73 75 75
-0.390246 0.0705761 0.307571 62 100 103
-0.390042 0.0719808 0.307832 51 115 120
-0.389837 0.0733856 0.308092 45 104 113
-0.389632 0.0747905 0.308352 45 99 106
-0.389851 0.0763533 0.30858 47 107 112
-0.389646 0.0777602 0.30884 49 116 122
-0.389865 0.0793292 0.309069 56 126 131
-0.390086 0.0809025 0.309299 59 121 124
-0.390734 0.0826472 0.309497 62 119 119
-0.391386 0.0844012 0.309697 67 107 106
-0.392475 0.0863379 0.309866 74 77 73
-0.393136 0.0881139 0.310068 78 72 66
-0.413712 0.109378 0.31074 77 69 65
-0.414482 0.11135 0.31096 62 72 76
-0.414757 0.113108 0.311212 58 93 93
-0.415033 0.114871 0.311465 70 100 95
-0.415309 0.116639 0.311719 77 75 69
-0.390868 0.0681481 0.305606 75 73 67
-0.390663 0.0695546 0.305867 65 93 87
-0.390033 0.0708106 0.306163 55 117 114
-0.389828 0.0722154 0.306423 45 111 115
-0.389623 0.0736203 0.306683 44 103 108
-0.389418 0.0750253 0.306944 48 105 109
-0.389213 0.0764304 0.307204 49 111 115
-0.389431 0.0779957 0.30743 56 124 127
-0.389651 0.0795651 0.307657 58 124 130
-0.389871 0.0811389 0.307884 61 118 122
-0.390519 0.0828842 0.308079 66 113 113
-0.39117 0.0846391 0.308275 73 87 89
-0.391394 0.0862305 0.308505 81 71 67
-0.414747 0.111832 0.30939 77 72 68
-0.414523 0.113367 0.309675 67 78 76
-0.415299 0.115359 0.309892 67 84 78
-0.415074 0.116899 0.310177 74 73 64
-0.39086 0.0669761 0.303936 78 73 68
-0.390654 0.0683827 0.304196 68 78 81
-0.390449 0.0697893 0.304457 58 103 109
-0.389819 0.071045 0.304755 47 113 121
-0.38919 0.0722976 0.305052 42 104 110
-0.388986 0.0737008 0.305312 44 102 108
-0.389204 0.0752602 0.305535 47 107 114
-0.388999 0.0766655 0.305795 52 116 121
-0.389217 0.0782311 0.30602 57 125 131
-0.389436 0.079801 0.306245 58 121 126
-0.389656 0.0813752 0.30647 62 117 120
-0.390303 0.0831214 0.306661 68 103 101
-0.390525 0.0847065 0.306888 77 75 69
-0.39022 0.0670649 0.302566 75 79 77
-0.390015 0.0684697 0.302826 62 98 96
-0.389386 0.0697256 0.303126 55 118 118
-0.389182 0.0711287 0.303385 45 109 115
-0.388555 0.0723796 0.303684 45 103 107
-0.38835 0.0737811 0.303943 47 106 109
-0.388567 0.0753387 0.304165 49 112 118
-0.388785 0.0769005 0.304387 56 123 129
-0.389003 0.0784666 0.304609 58 121 130
-0.389222 0.080037 0.304832 59 119 122
-0.389441 0.0816116 0.305056 65 111 112
-0.389661 0.0831905 0.30528 69 86 85
-0.389881 0.0847738 0.305505 80 71 63
-0.388942 0.0654642 0.301024 76 70 64
-0.389159 0.0670083 0.301241 64 83 84
-0.388955 0.0684095 0.301501 59 110 112
-0.38875 0.0698108 0.30176 50 112 116
-0.388546 0.0712122 0.302019 45 100 106
-0.387921 0.0724615 0.302319 45 100 105
-0.388137 0.0740153 0.302538 47 107 113
-0.387932 0.075417 0.302798 53 118 124
-0.388571 0.0771356 0.302977 56 125 131
-0.388789 0.0787022 0.303198 58 121 127
-0.389007 0.080273 0.303419 62 116 118
-0.389226 0.081848 0.303641 67 101 98
-0.38902 0.0832595 0.303902 73 77 64
-0.388308 0.0655545 0.299665 72 78 71
-0.388104 0.066952 0.299924 60 103 99
-0.3879 0.0683497 0.300182 53 119 120
-0.387696 0.0697474 0.300441 47 105 111
-0.387492 0.0711452 0.3007 46 101 106
-0.387288 0.0725431 0.300958 46 107 108
-0.387503 0.0740952 0.301175 51 118 119
-0.387719 0.0756514 0.301392 58 127 129
-0.387935 0.0772118 0.30161 58 121 126
-0.388575 0.0789377 0.301787 60 118 121
-0.388793 0.080509 0.302006 64 106 110
-0.388587 0.0819186 0.302267 66 79 82
-0.388805 0.0834962 0.302487 75 68 61
-0.386628 0.0638281 0.298189 80 77 64
-0.386425 0.0652183 0.298446 66 92 84
-0.386222 0.0666086 0.298703 60 117 114
-0.386019 0.0679991 0.29896 47 112 119
-0.385816 0.0693896 0.299218 44 102 106
-0.385613 0.0707802 0.299475 47 101 106
-0.386241 0.072473 0.299644 48 110 117
-0.386871 0.0741749 0.299815 53 124 128
-0.387086 0.0757293 0.30003 56 125 131
-0.387721 0.0774467 0.300202 59 118 123
-0.38836 0.0791734 0.300375 64 112 116
-0.388578 0.080745 0.300593 68 96 93
-0.388372 0.0821549 0.300853 73 73 65
-0.38579 0.0623938 0.296632 75 71 62
-0.385588 0.0637804 0.296889 71 80 78
-0.385385 0.0651671 0.297145 63 107 108
-0.384771 0.0664112 0.297449 53 119 123
-0.384568 0.0677963 0.297705 42 104 111
-0.384366 0.0691815 0.297961 42 103 108
-0.384576 0.0707149 0.298172 46 108 113
-0.385199 0.0724033 0.298337 51 121 124
-0.385825 0.0741006 0.298504 56 128 131
-0.386873 0.0759634 0.298626 57 122 127
-0.387929 0.0778412 0.298749 63 119 121
-0.388146 0.079409 0.298964 69 104 107
-0.388363 0.0809812 0.299179 72 74 79
-0.385166 0.0624871 0.29529 73 70 66
-0.384964 0.063872 0.295547 60 91 89
-0.384351 0.0651162 0.295851 59 119 119
-0.384149 0.0664995 0.296107 45 110 119
-0.383947 0.0678829 0.296363 44 102 109
-0.383745 0.0692665 0.296619 46 103 111
-0.383953 0.0707981 0.296828 49 115 120
-0.384162 0.0723339 0.297037 56 127 128
-0.384784 0.0740268 0.297199 58 125 129
-0.38666 0.0761976 0.297221 60 118 124
-0.387715 0.0780764 0.297339 64 112 116
-0.387931 0.0796447 0.297552 68 93 90
-0.388149 0.0812173 0.297765 75 68 61
-0.385158 0.0613327 0.293645 78 70 64
-0.384544 0.0625802 0.293952 65 78 79
-0.384342 0.0639634 0.294208 57 105 111
-0.38373 0.065206 0.294514 48 115 122
-0.38312 0.0664454 0.294819 42 103 110
-0.382919 0.0678254 0.295074 44 103 111
-0.383125 0.0693512 0.29528 46 111 117
-0.383332 0.0708812 0.295487 52 124 128
-0.38354 0.0724152 0.295694 55 127 131
-0.384159 0.0741061 0.295853 57 121 124
-0.386446 0.0764319 0.295817 61 119 119
-0.387501 0.0783117 0.295928 67 101 102
-0.387717 0.0798805 0.296139 71 77 74
-0.384737 0.060044 0.292052 76 71 65
-0.384535 0.0614272 0.292308 68 69 70
-0.383923 0.0626731 0.292617 58 99 97
-0.383313 0.0639157 0.292924 56 120 122
-0.383112 0.0652956 0.293179 45 105 115
-0.38291 0.0666756 0.293435 45 104 109
-0.382709 0.0680557 0.29369 44 107 115
-0.382507 0.0694359 0.293945 49 118 125
-0.382713 0.070964 0.294149 55 126 131
-0.38292 0.0724963 0.294354 55 123 129
-0.383948 0.0743385 0.294459 58 120 123
-0.385399 0.0763518 0.294514 62 112 111
-0.386866 0.0783866 0.294569 67 87 84
-0.387081 0.0799535 0.294778 74 67 61
-0.384116 0.06014 0.290719 70 71 71
-0.383506 0.061386 0.291029 58 87 88
-0.383304 0.0627658 0.291284 57 116 119
-0.383103 0.0641457 0.291539 45 115 123
-0.382902 0.0655257 0.291795 43 100 110
-0.3827 0.0669058 0.29205 43 103 111
-0.382499 0.068286 0.292305 47 115 119
-0.382297 0.0696663 0.29256 54 126 129
-0.382503 0.0711949 0.292763 55 126 129
-0.382709 0.0727276 0.292966 55 120 123
-0.383325 0.0744174 0.293117 58 119 119
-0.383945 0.0761162 0.29327 63 99 98
-0.384983 0.0779827 0.29337 69 72 69
-0.383497 0.0602358 0.289389 71 72 74
-0.383296 0.0616157 0.289644 59 104 104
-0.383094 0.0629956 0.289899 53 122 125
-0.382486 0.0642365 0.29021 43 106 113
-0.382285 0.0656149 0.290465 46 107 110
-0.382083 0.0669933 0.29072 47 113 115
-0.382289 0.0685164 0.29092 53 126 126
-0.382087 0.0698968 0.291175 57 128 131
-0.381886 0.0712773 0.29143 55 121 127
-0.382498 0.0729589 0.291577 58 120 123
-0.383114 0.0746495 0.291725 60 108 114
-0.383322 0.0761931 0.291927 64 83 86
-0.38353 0.0777408 0.292131 72 72 62
-0.383081 0.0589533 0.287808 71 67 65
-0.38288 0.0603314 0.288063 61 89 89
-0.382678 0.0617096 0.288317 61 120 122
-0.382477 0.0630879 0.288572 47 113 121
-0.38187 0.0643272 0.288884 44 103 108
-0.381669 0.0657038 0.289139 43 107 112
-0.381874 0.0672233 0.289336 49 117 122
-0.381672 0.068602 0.289591 54 128 131
-0.381877 0.0701273 0.289789 53 126 129
-0.381675 0.071508 0.290044 55 120 123
-0.38188 0.0730393 0.290244 60 117 121
-0.382493 0.074728 0.290388 66 94 98
-0.3827 0.0762698 0.290588 72 74 72
-0.382907 0.0778157 0.29079 74 75 63
-0.383072 0.0578045 0.28617 78 74 63
-0.382871 0.0591826 0.286424 69 72 75
-0.38267 0.0605608 0.286679 59 109 111
-0.382468 0.0619391 0.286934 52 121 125
-0.381862 0.0631799 0.287248 42 105 111
-0.381256 0.0644176 0.287561 44 107 111
-0.38146 0.0659334 0.287757 47 115 118
-0.381259 0.0673103 0.288011 54 127 128
-0.381462 0.0688321 0.288207 58 128 129
-0.381666 0.0703579 0.288404 56 121 124
-0.381465 0.0717387 0.288659 58 120 122
-0.381669 0.0732705 0.288856 59 106 111
-0.381874 0.0748064 0.289054 66 81 83
-0.38208 0.0763464 0.289253 74 68 65
-0.382456 0.0579029 0.284849 78 72 69
-0.382255 0.0592793 0.285103 64 100 95
-0.382054 0.0606559 0.285357 59 124 123
-0.381448 0.0618968 0.285673 45 110 118
-0.381247 0.0632717 0.285927 44 105 111
-0.381047 0.0646468 0.286181 45 110 118
-0.380846 0.066022 0.286435 52 121 127
-0.381049 0.0675401 0.286629 54 128 134
-0.381252 0.0690623 0.286823 55 122 127
-0.381456 0.0705885 0.287018 57 119 121
-0.381255 0.0719694 0.287273 60 117 115
-0.381459 0.0735016 0.287468 70 94 89
-0.381663 0.075038 0.287665 75 73 65
-0.381637 0.0564978 0.283341 75 72 63
-0.381437 0.0578708 0.283595 65 77 81
-0.381236 0.0592438 0.283848 57 111 119
-0.381036 0.0606169 0.284102 48 120 126
-0.380835 0.0619901 0.284356 42 103 112
-0.380635 0.0633634 0.284609 43 109 115
-0.380434 0.0647368 0.284863 45 120 123
-0.380234 0.0661103 0.285116 53 131 132
-0.380839 0.0677699 0.285246 56 128 132
-0.381042 0.0692925 0.285439 54 119 124
-0.381246 0.0708192 0.285632 58 118 119
-0.381044 0.0722002 0.285887 61 102 106
-0.380843 0.0735814 0.286142 68 82 79
-0.381046 0.0751159 0.286336 75 74 64
-0.381025 0.0565975 0.282029 71 75 71
-0.380825 0.0579688 0.282282 58 105 102
-0.380625 0.0593402 0.282535 56 126 127
-0.380424 0.0607116 0.282788 42 109 118
-0.380224 0.0620832 0.283041 45 107 114
-0.380024 0.0634548 0.283295 47 112 121
-0.379824 0.0648266 0.283548 52 127 131
-0.380025 0.0663394 0.283737 54 129 134
-0.380226 0.0678563 0.283927 54 121 128
-0.380832 0.0695228 0.284054 57 119 123
-0.381035 0.0710499 0.284245 61 116 114
-0.380834 0.0724311 0.2845 68 91 85
-0.380632 0.0738123 0.284755 73 74 63
-0.380614 0.0553275 0.280466 78 75 67
-0.380415 0.056697 0.280719 66 83 87
-0.380215 0.0580667 0.280972 60 118 122
-0.379614 0.0593047 0.281292 47 117 125
-0.379415 0.0606727 0.281544 43 103 110
-0.379215 0.0620409 0.281797 44 110 116
-0.379015 0.0634091 0.282049 50 120 125
-0.379215 0.0649162 0.282236 54 130 133
-0.379414 0.0664273 0.282424 55 126 131
-0.380017 0.0680858 0.282546 56 119 124
-0.380622 0.0697531 0.282669 60 117 120
-0.380825 0.0712806 0.282859 66 97 101
-0.380623 0.0726619 0.283114 69 77 75
-0.380422 0.0740433 0.283368 72 69 63
-0.378809 0.0550503 0.279368 68 73 80
-0.37861 0.0564129 0.279619 60 108 109
-0.378411 0.0577756 0.279871 55 126 127
-0.377817 0.0590078 0.28019 43 106 116
-0.377223 0.0602369 0.280509 46 109 114
-0.377025 0.0615964 0.28076 46 116 123
-0.377615 0.0632274 0.280877 55 129 132
-0.378607 0.0650056 0.280927 57 129 132
-0.378806 0.066515 0.281113 55 120 127
-0.379406 0.0681717 0.281232 59 118 120
-0.379606 0.0696913 0.281419 66 110 110
-0.38021 0.071363 0.281539 73 86 83
-0.380413 0.0728928 0.281727 75 69 63
-0.378008 0.0536666 0.277889 68 70 71
-0.37781 0.0550257 0.27814 59 95 94
-0.377612 0.0563849 0.278391 59 123 126
-0.377019 0.0576158 0.278712 45 112 121
-0.376821 0.0589735 0.278962 43 103 111
-0.376623 0.0603313 0.279213 45 111 118
-0.376425 0.0616892 0.279463 51 122 129
-0.376619 0.0631826 0.279645 56 130 137
-0.377209 0.0648179 0.279759 56 124 131
-0.378199 0.0666025 0.279806 56 118 124
-0.379196 0.0684011 0.279852 61 117 119
-0.379396 0.0699211 0.280037 65 92 97
-0.379196 0.0712972 0.280291 70 70 71
-0.377407 0.0537688 0.276596 68 77 81
-0.376816 0.0550013 0.276919 58 117 119
-0.376618 0.0563572 0.277169 51 124 128
-0.376028 0.057585 0.27749 43 104 113
-0.375831 0.0589394 0.27774 44 109 115
-0.375633 0.0602938 0.27799 46 120 123
-0.375826 0.0617817 0.278169 54 131 135
-0.376019 0.0632735 0.27835 57 128 135
-0.376607 0.0649071 0.27846 56 120 126
-0.37799 0.0668309 0.278431 58 118 121
-0.378587 0.0684866 0.278543 62 107 109
-0.378786 0.0700049 0.278725 66 82 81
-0.378986 0.0715272 0.278909 71 71 63
-0.377005 0.0525149 0.275056 81 71 68
-0.376415 0.0537475 0.27538 64 100 95
-0.376218 0.0551017 0.275629 59 126 126
-0.375629 0.0563296 0.275952 43 111 121
-0.375432 0.0576822 0.276202 43 106 112
-0.375234 0.059035 0.276451 46 113 120
-0.375037 0.0603879 0.276701 53 126 131
-0.375229 0.0618741 0.276879 56 131 135
-0.375421 0.0633642 0.277057 56 124 129
-0.376006 0.0649961 0.277164 57 119 124
-0.376989 0.066777 0.2772 61 117 117
-0.377581 0.0684284 0.277308 69 92 89
-0.378177 0.0700884 0.277417 71 72 66
-0.376604 0.0512641 0.273519 74 71 67
-0.376407 0.0526183 0.273769 68 83 83
-0.375818 0.0538493 0.274094 60 117 121
-0.375621 0.0552019 0.274344 49 121 127
-0.375423 0.0565546 0.274593 42 104 110
-0.375226 0.0579073 0.274842 43 111 116
-0.375028 0.0592602 0.275092 47 120 125
-0.374831 0.0606132 0.275341 55 133 136
-0.374633 0.0619663 0.275591 59 128 129
-0.374824 0.0634547 0.275767 58 121 121
-0.375407 0.0650849 0.275871 61 119 119
-0.375993 0.0667234 0.275975 63 103 106
-0.376581 0.0683706 0.27608 68 80 78
-0.376382 0.0697363 0.276332 69 69 63
-0.376205 0.0500165 0.271987 77 74 64
-0.376007 0.0513689 0.272236 72 78 75
-0.37581 0.0527214 0.272485 61 108 104
-0.375612 0.054074 0.272735 59 127 130
-0.375025 0.0553018 0.273061 42 108 120
-0.374828 0.0566529 0.27331 44 108 112
-0.37502 0.0581325 0.273483 46 116 121
-0.374822 0.0594855 0.273732 52 128 133
-0.374624 0.0608386 0.273982 55 130 136
-0.374816 0.0623256 0.274156 56 122 125
-0.375398 0.0639529 0.274256 58 120 119
-0.375984 0.0655886 0.274356 63 115 115
-0.375785 0.0669508 0.274607 69 87 86
-0.375586 0.068313 0.274858 72 72 63
-0.375999 0.0502409 0.270627 75 73 67
-0.375801 0.0515934 0.270876 63 91 89
-0.375214 0.0528243 0.271205 60 125 126
-0.375017 0.0541754 0.271454 47 118 125
-0.374432 0.0554016 0.271781 43 102 112
-0.374235 0.0567511 0.27203 44 112 119
-0.374425 0.058229 0.272201 48 124 128
-0.374616 0.0597108 0.272373 54 134 136
-0.374418 0.061064 0.272622 55 129 132
-0.374609 0.0625515 0.272795 55 120 125
-0.375191 0.0641794 0.272891 60 119 121
-0.375384 0.0656768 0.273064 65 101 105
-0.375577 0.0671782 0.273238 70 78 76
-0.374987 0.068398 0.273566 74 69 59
-0.3756 0.0489959 0.2691 76 67 64
-0.375403 0.0503467 0.269349 67 78 77
-0.374817 0.0515777 0.269678 57 113 113
-0.37462 0.052927 0.269927 53 128 131
-0.374036 0.0541533 0.270256 41 106 118
-0.373839 0.0555011 0.270504 44 111 117
-0.374029 0.0569756 0.270673 45 120 124
-0.373832 0.0583253 0.270922 53 131 132
-0.374022 0.0598055 0.271092 55 129 133
-0.374212 0.0612895 0.271262 54 123 127
-0.374403 0.0627773 0.271433 57 119 123
-0.374984 0.064406 0.271525 61 112 114
-0.374786 0.0657649 0.271776 70 87 83
-0.374978 0.0672645 0.271948 72 73 66
-0.375006 0.0491031 0.267824 68 68 63
-0.374809 0.0504524 0.268073 59 96 90
-0.374224 0.0516818 0.268404 58 126 126
-0.374027 0.0530295 0.268652 45 115 123
-0.373445 0.0542542 0.268982 43 104 112
-0.373634 0.0557253 0.269149 44 115 120
-0.373437 0.0570733 0.269397 48 125 131
-0.373626 0.05855 0.269565 55 132 136
-0.373816 0.0600305 0.269733 55 126 129
-0.374006 0.0615149 0.269902 56 120 123
-0.374196 0.0630033 0.270071 62 119 119
-0.374387 0.0644955 0.27024 67 92 99
-0.374579 0.0659916 0.27041 74 70 70
-0.373991 0.06721 0.27074 73 65 62
-0.374609 0.0478625 0.266304 72 71 60
-0.374026 0.0490935 0.266637 65 77 77
-0.373829 0.0504395 0.266885 60 115 118
-0.373633 0.0517856 0.267133 52 124 127
-0.373052 0.0530104 0.267464 38 106 112
-0.372855 0.0543549 0.267711 44 112 117
-0.373043 0.0558244 0.267877 46 119 125
-0.373231 0.0572976 0.268042 55 132 136
-0.37342 0.0587747 0.268208 57 129 136
-0.373997 0.0603869 0.268292 55 120 128
-0.374187 0.0618738 0.268459 58 119 121
-0.37399 0.0632292 0.268708 63 108 109
-0.37418 0.0647218 0.268876 70 79 79
-0.373982 0.0660792 0.269126 74 67 62
-0.373632 0.047856 0.265121 66 71 70
-0.373436 0.0492003 0.265369 59 104 97
-0.373239 0.0505447 0.265617 58 129 129
-0.372659 0.0517696 0.265949 42 113 120
-0.372463 0.0531124 0.266197 41 108 113
-0.372267 0.0544554 0.266444 43 117 124
-0.372454 0.0559232 0.266607 51 127 134
-0.372641 0.0573949 0.266771 57 133 138
-0.373214 0.0589995 0.266851 56 125 130
-0.373791 0.0606123 0.266931 56 119 124
-0.373981 0.0620996 0.267096 61 117 117
-0.373783 0.0634552 0.267346 69 91 90
-0.373585 0.0648109 0.267596 74 72 66
-0.373239 0.0466215 0.26361 71 67 65
-0.373043 0.0479641 0.263857 61 80 85
-0.372464 0.0491906 0.264191 58 119 123
-0.372268 0.0505318 0.264438 49 121 126
-0.37131 0.0516346 0.264858 42 105 113
-0.371114 0.0529726 0.265104 44 114 121
-0.371299 0.054433 0.265265 47 123 130
-0.371866 0.0560219 0.265341 55 135 138
-0.372436 0.057619 0.265417 56 129 132
-0.373009 0.0592243 0.265493 57 120 124
-0.373584 0.0608378 0.26557 57 117 120
-0.373387 0.0621917 0.265819 61 104 107
-0.373189 0.0635456 0.266069 69 82 78
-0.373378 0.065037 0.266233 70 68 62
-0.372651 0.046731 0.262349 72 76 73
-0.372073 0.0479575 0.262685 61 110 106
-0.371117 0.0490654 0.263108 57 129 130
-0.370543 0.0502846 0.263442 44 107 116
-0.370348 0.0516192 0.263687 45 110 114
-0.370153 0.0529538 0.263933 45 118 127
-0.370715 0.054533 0.264005 53 131 135
-0.370899 0.0559956 0.264164 54 133 137
-0.372231 0.0578431 0.264063 55 125 126
-0.372803 0.0594491 0.264136 57 119 120
-0.373378 0.0610634 0.264209 60 116 114
-0.37318 0.0624173 0.264458 66 87 84
-0.372982 0.0637714 0.264708 69 73 66
-0.371879 0.0453897 0.260935 69 72 70
-0.371303 0.0466148 0.261272 62 91 94
-0.370729 0.047837 0.261608 59 123 128
-0.370157 0.0490562 0.261943 47 119 125
-0.369585 0.0502724 0.262277 46 102 111
-0.369391 0.0516038 0.262522 46 115 123
-0.369573 0.0530553 0.262679 48 126 133
-0.369755 0.0545106 0.262836 53 135 140
-0.370315 0.0560939 0.262905 53 128 133
-0.372025 0.0580673 0.262708 55 121 124
-0.372597 0.059674 0.262778 57 118 119
-0.373171 0.0612889 0.262848 59 101 103
-0.372974 0.062643 0.263097 66 78 71
-0.371111 0.044055 0.259529 72 72 67
-0.370916 0.0453894 0.259774 68 73 83
-0.370343 0.0466116 0.260111 61 111 115
-0.369771 0.0478308 0.260448 53 124 129
-0.369201 0.0490471 0.260784 41 107 116
-0.369007 0.0503768 0.261028 45 112 116
-0.368813 0.0517066 0.261273 47 120 128
-0.368994 0.0531566 0.261428 55 132 139
-0.369175 0.0546102 0.261584 55 130 137
-0.370111 0.0563166 0.261559 55 122 125
-0.37182 0.0582915 0.261353 57 119 122
-0.372391 0.0598989 0.261419 60 113 113
-0.372579 0.0613819 0.261577 63 86 79
-0.372381 0.0627344 0.261826 67 73 60
-0.370529 0.0441669 0.25828 72 73 71
-0.369957 0.0453891 0.258619 63 93 97
-0.369387 0.0466084 0.258957 60 124 128
-0.368818 0.0478247 0.259294 44 114 123
-0.368624 0.0491528 0.259538 41 107 114
-0.36843 0.050481 0.259782 44 118 126
-0.368236 0.0518092 0.260027 51 127 135
-0.368416 0.0532576 0.26018 56 133 139
-0.368971 0.054832 0.260242 56 125 132
-0.369907 0.0565393 0.260213 55 118 123
-0.371614 0.0585157 0.259998 61 118 120
-0.371801 0.0599933 0.260154 63 97 99
-0.371988 0.0614746 0.26031 66 75 65
-0.372175 0.0629599 0.260466 68 67 57
-0.369767 0.0428401 0.256885 75 71 64
-0.369198 0.044061 0.257224 67 79 83
-0.369004 0.0453889 0.257469 61 115 119
-0.368436 0.0466052 0.257807 52 124 130
-0.368242 0.0479317 0.258051 39 107 115
-0.368049 0.0492582 0.258295 43 116 120
-0.367855 0.0505849 0.258539 45 124 131
-0.368034 0.0520299 0.25869 53 134 140
-0.368213 0.0534787 0.258842 56 129 135
-0.368768 0.0550538 0.258901 55 122 127
-0.369703 0.0567621 0.258866 55 119 120
-0.371027 0.0586115 0.258738 59 110 111
-0.371212 0.0600874 0.258891 66 81 80
-0.371398 0.0615672 0.259045 70 69 60
-0.369383 0.0416251 0.255399 73 69 63
-0.368815 0.042846 0.25574 70 69 72
-0.368621 0.0441723 0.255984 61 104 104
-0.368428 0.0454987 0.256228 56 127 131
-0.368234 0.0468252 0.256472 43 111 122
-0.36804 0.0481518 0.256716 43 108 115
-0.367846 0.0494784 0.25696 45 118 125
-0.367653 0.0508052 0.257204 49 130 135
-0.367831 0.0522507 0.257354 51 133 139
-0.36801 0.0536999 0.257504 55 124 129
-0.36819 0.0551528 0.257654 56 120 123
-0.369499 0.0569848 0.25752 60 118 116
-0.370061 0.0585791 0.257575 62 94 94
-0.370625 0.0601814 0.257631 67 71 69
-0.368807 0.0417393 0.254162 72 69 65
-0.368613 0.0430657 0.254405 62 83 88
-0.368419 0.0443921 0.254649 58 120 125
-0.368225 0.0457186 0.254893 47 121 128
-0.367659 0.0469333 0.255235 40 105 115
-0.367466 0.0482583 0.255478 44 116 121
-0.367644 0.0496987 0.255625 48 125 130
-0.36745 0.0510256 0.255869 52 133 140
-0.367256 0.0523526 0.256113 52 128 134
-0.367807 0.053921 0.256165 55 119 125
-0.367987 0.0553744 0.256313 58 120 122
-0.368918 0.0570819 0.256269 60 106 108
-0.369099 0.0585468 0.256419 64 78 76
-0.36966 0.0601451 0.256472 70 66 62
-0.368425 0.0405286 0.252683 69 65 58
-0.368232 0.0418533 0.252927 67 71 72
-0.368411 0.0432853 0.25307 60 109 111
-0.367844 0.044503 0.253414 55 126 130
-0.367651 0.045828 0.253657 40 109 118
-0.367086 0.0470411 0.254 42 112 116
-0.366893 0.0483646 0.254243 43 122 126
-0.36707 0.0498035 0.254388 50 130 135
-0.367248 0.051246 0.254534 52 132 137
-0.367054 0.0525731 0.254778 53 124 129
-0.367604 0.0541423 0.254826 55 119 123
-0.367783 0.055596 0.254973 59 117 117
-0.368338 0.0571788 0.255022 63 92 88
-0.368518 0.0586421 0.25517 68 70 63
-0.367851 0.0406438 0.251451 68 66 63
-0.367287 0.0418617 0.251796 63 90 89
-0.367836 0.0433975 0.251836 59 123 127
-0.367271 0.0446136 0.252181 46 117 125
-0.367078 0.0459371 0.252424 40 106 114
-0.366884 0.0472606 0.252667 43 118 123
-0.366691 0.0485843 0.252911 47 126 133
-0.366498 0.049908 0.253154 52 132 137
-0.367045 0.0514665 0.253198 53 126 131
-0.366852 0.0527937 0.253442 54 121 123
-0.367401 0.0543635 0.253487 58 119 119
-0.36758 0.0558176 0.253632 60 100 105
-0.368134 0.0574012 0.253678 65 79 73
-0.367939 0.0587371 0.253923 67 66 58
-0.367101 0.0393352 0.250083 73 66 58
-0.366909 0.0406551 0.250325 65 74 78
-0.366716 0.0419751 0.250568 59 113 115
-0.366892 0.0434022 0.250708 54 127 130
-0.366699 0.0447241 0.250951 42 108 117
-0.366506 0.046046 0.251194 45 113 117
-0.366313 0.047368 0.251437 46 122 128
-0.36612 0.0486901 0.25168 52 131 137
-0.366296 0.0501279 0.251821 53 129 136
-0.366843 0.051687 0.251862 54 122 127
-0.366649 0.0530144 0.252106 56 119 121
-0.367198 0.0545848 0.252148 62 115 113
-0.367377 0.0560394 0.252291 65 87 84
-0.367556 0.0574976 0.252435 67 70 64
-0.366531 0.0394514 0.248858 72 66 64
-0.366339 0.0407698 0.2491 61 101 97
-0.366146 0.0420883 0.249343 58 127 128
-0.365953 0.0434069 0.249585 45 115 123
-0.366129 0.0448343 0.249724 42 108 114
-0.365936 0.0461547 0.249966 45 119 124
-0.366111 0.0475874 0.250106 49 127 133
-0.365918 0.0489096 0.250349 53 133 138
-0.366094 0.0503477 0.250489 54 125 130
-0.36664 0.0519075 0.250526 54 121 123
-0.366447 0.053235 0.25077 60 118 117
-0.366995 0.0548062 0.250808 64 98 99
-0.366801 0.0561372 0.251053 67 75 70
-0.366155 0.0382507 0.247394 67 68 63
-0.365962 0.0395674 0.247636 63 77 80
-0.36577 0.0408843 0.247878 58 119 118
-0.365577 0.0422013 0.24812 50 126 128
-0.365385 0.0435184 0.248362 40 107 114
-0.365559 0.0449442 0.248499 43 116 120
-0.365367 0.0462631 0.248742 46 124 129
-0.365541 0.0476943 0.248879 50 132 136
-0.365716 0.0491291 0.249017 53 128 135
-0.366261 0.050684 0.249051 54 122 126
-0.366438 0.0521281 0.24919 54 120 121
-0.366615 0.053576 0.249329 59 111 110
-0.366421 0.0549053 0.249573 66 81 80
-0.366598 0.0563587 0.249713 71 67 62
-0.364683 0.0367576 0.246257 65 63 58
-0.364492 0.0380679 0.246498 63 69 68
-0.3643 0.0393783 0.246738 59 103 102
-0.364109 0.0406888 0.246979 56 127 128
-0.363555 0.0418951 0.247326 42 112 121
-0.363363 0.0432042 0.247566 42 110 115
-0.363534 0.0446209 0.247701 44 121 126
-0.364799 0.0463713 0.24752 49 129 133
-0.364973 0.047801 0.247656 50 133 136
-0.365147 0.0492343 0.247792 51 125 129
-0.366059 0.0509042 0.247716 54 121 123
-0.366235 0.0523487 0.247853 57 117 117
-0.366041 0.0536765 0.248097 59 93 94
-0.366218 0.0551265 0.248235 65 71 68
-0.36412 0.036876 0.245046 64 62 62
-0.363567 0.0380854 0.245394 60 84 83
-0.363376 0.0393927 0.245634 60 121 121
-0.362824 0.0405976 0.245982 49 120 125
-0.362633 0.0419034 0.246221 42 105 113
-0.362803 0.0433151 0.246355 44 116 121
-0.362972 0.0447304 0.246488 46 124 131
-0.364233 0.0464792 0.246301 49 132 137
-0.364406 0.0479074 0.246435 50 128 133
-0.364945 0.0494536 0.246462 51 121 126
-0.365488 0.0510076 0.246489 55 120 121
-0.366033 0.0525694 0.246516 59 106 107
-0.365839 0.0538972 0.24676 62 76 76
-0.365645 0.0552252 0.247004 68 66 61
-0.363388 0.0355907 0.243707 63 63 53
-0.363197 0.0368963 0.243947 62 69 73
-0.362646 0.0381027 0.244296 58 109 109
-0.362455 0.0394069 0.244535 55 127 129
-0.362265 0.0407112 0.244775 42 110 119
-0.362074 0.0420156 0.245014 44 110 116
-0.362243 0.0434259 0.245146 46 120 126
-0.362412 0.0448396 0.245278 49 129 135
-0.362943 0.0463667 0.245301 49 130 136
-0.36384 0.0480136 0.245217 52 123 128
-0.364744 0.0496729 0.245131 53 117 124
-0.365286 0.0512276 0.245155 58 117 117
-0.365461 0.052671 0.245289 62 92 90
-0.365636 0.0541181 0.245423 64 69 66
-0.362828 0.0357101 0.242503 61 63 60
-0.362638 0.0370142 0.242742 57 94 91
-0.362088 0.0382191 0.243092 56 124 127
-0.361898 0.0395219 0.243332 46 117 125
-0.36135 0.0407224 0.24368 42 106 114
-0.361517 0.0421276 0.24381 45 117 123
-0.361685 0.0435363 0.24394 48 124 131
-0.361853 0.0449486 0.24407 50 131 136
-0.362382 0.0464742 0.244091 51 126 131
-0.363639 0.0482321 0.243891 53 121 125
-0.364542 0.0498923 0.243801 57 117 121
-0.365084 0.0514476 0.243821 61 102 107
-0.36489 0.0527723 0.244065 68 78 73
-0.365065 0.0542179 0.244197 68 66 60
-0.36246 0.0345266 0.241063 62 64 58
-0.36227 0.0358292 0.241302 59 69 76
-0.361722 0.0370341 0.241653 55 116 116
-0.361532 0.0383353 0.241892 49 126 130
-0.361341 0.0396365 0.24213 40 107 116
-0.361151 0.0409379 0.242369 45 112 117
-0.360961 0.0422393 0.242608 46 122 127
-0.361128 0.0436466 0.242736 51 131 135
-0.361295 0.0450574 0.242865 50 129 135
-0.362182 0.0466915 0.242771 54 122 125
-0.363438 0.0484506 0.242565 56 120 122
-0.364341 0.0501117 0.24247 59 114 115
-0.364514 0.0515503 0.2426 64 86 90
-0.364688 0.0529925 0.24273 70 68 65
-0.361903 0.034647 0.239864 60 68 65
-0.361713 0.0359481 0.240103 56 95 99
-0.361523 0.0372493 0.240342 54 127 128
-0.361333 0.0385506 0.24058 41 116 122
-0.361143 0.0398519 0.240819 41 107 114
-0.360953 0.0411534 0.241058 45 119 125
-0.360762 0.042455 0.241297 50 128 132
-0.360929 0.0438626 0.241423 52 132 137
-0.361096 0.0452738 0.24155 51 126 130
-0.361622 0.0467986 0.241565 55 120 122
-0.362512 0.0484434 0.241466 59 117 118
-0.363773 0.0502157 0.241253 61 100 100
-0.363946 0.0516528 0.241382 67 74 73
-0.364119 0.0530935 0.24151 70 65 61
-0.361895 0.0335608 0.238314 62 63 60
-0.361705 0.0348619 0.238553 55 81 81
-0.361515 0.0361631 0.238791 55 121 120
-0.361325 0.0374645 0.23903 49 124 126
-0.360778 0.0386662 0.239384 39 107 113
-0.360588 0.0399661 0.239622 43 114 118
-0.360754 0.041369 0.239746 44 123 130
-0.360564 0.0426706 0.239985 53 132 137
-0.360374 0.0439724 0.240224 52 127 134
-0.360897 0.0454902 0.240235 53 121 125
-0.361064 0.0469054 0.240361 56 120 120
-0.36159 0.0484363 0.240372 62 110 110
-0.362844 0.0502043 0.240154 66 80 80
-0.363379 0.051755 0.240166 67 66 62
-0.361887 0.0324745 0.236764 64 61 53
-0.361697 0.0337756 0.237002 56 67 71
-0.361506 0.0350769 0.237241 53 102 104
-0.361316 0.0363782 0.23748 54 127 131
-0.36077 0.0375814 0.237835 42 111 119
-0.36058 0.0388813 0.238074 43 108 112
-0.36039 0.0401813 0.238312 44 119 123
-0.3602 0.0414815 0.23855 46 128 133
-0.360365 0.0428863 0.238673 52 131 136
-0.360175 0.0441882 0.238912 55 123 127
-0.360341 0.0455984 0.239036 55 118 121
-0.360864 0.0471223 0.239044 59 117 117
-0.361031 0.0485414 0.239168 63 96 93
-0.361199 0.0499641 0.239293 67 69 64
-0.361331 0.0325971 0.235571 61 62 62
-0.361141 0.0338967 0.23581 53 86 87
-0.360951 0.0351965 0.236048 53 122 126
-0.360761 0.0364964 0.236286 46 120 128
-0.360216 0.037698 0.236643 41 105 114
-0.360026 0.0389965 0.236881 45 114 120
-0.359836 0.0402951 0.237119 44 122 129
-0.360001 0.0416968 0.23724 49 132 136
-0.359811 0.0429972 0.237479 52 127 131
-0.359976 0.0444041 0.2376 55 120 121
-0.360142 0.0458146 0.237722 57 119 119
-0.360665 0.0473392 0.237727 59 106 109
-0.360474 0.0486463 0.237967 62 78 73
-0.360966 0.0314213 0.234144 64 60 52
-0.360777 0.0327194 0.234382 58 66 72
-0.360587 0.0340176 0.23462 55 111 108
-0.360397 0.0353159 0.234858 52 127 130
-0.360207 0.0366143 0.235096 39 109 120
-0.359663 0.0378145 0.235453 42 110 117
-0.359474 0.0391115 0.235691 44 119 127
-0.359638 0.0405101 0.23581 46 130 133
-0.359448 0.0418089 0.236048 49 131 135
-0.359613 0.0432127 0.236168 53 123 126
-0.359778 0.04462 0.236288 56 119 120
-0.359943 0.0460309 0.236408 59 116 116
-0.360108 0.0474453 0.236529 60 88 94
-0.359917 0.048751 0.236768 63 67 64
-0.360413 0.0315448 0.232957 63 65 63
-0.360224 0.0328415 0.233195 56 87 93
-0.360034 0.0341382 0.233433 56 124 128
-0.359845 0.0354351 0.23367 45 118 125
-0.359655 0.036732 0.233908 39 107 116
-0.359112 0.0379307 0.234266 43 118 123
-0.359276 0.0393262 0.234383 46 125 130
-0.359086 0.0406234 0.234621 50 133 136
-0.35925 0.042024 0.234739 52 124 131
-0.359769 0.0435337 0.234737 54 119 123
-0.359579 0.0448359 0.234975 58 119 119
-0.359744 0.0462472 0.235094 59 105 105
-0.359553 0.0475513 0.235333 65 75 70
-0.359362 0.0488554 0.235572 66 63 58
-0.359697 0.030284 0.231659 61 64 59
-0.359861 0.031668 0.231773 56 73 76
-0.359672 0.0329633 0.232011 56 117 114
-0.359483 0.0342585 0.232248 51 125 128
-0.359293 0.0355539 0.232485 41 105 117
-0.359104 0.0368494 0.232723 42 112 119
-0.358915 0.038145 0.23296 45 120 127
-0.358725 0.0394407 0.233198 49 128 134
-0.358888 0.0408382 0.233313 50 129 135
-0.359406 0.0423431 0.233308 54 121 126
-0.35957 0.0437495 0.233424 56 118 121
-0.35938 0.0450519 0.233663 61 116 115
-0.35919 0.0463544 0.233901 60 85 88
-0.359354 0.0477678 0.234019 63 64 60
-0.358809 0.0489596 0.234379 64 59 55
-0.358634 0.0289423 0.230493 64 63 54
-0.358796 0.0303197 0.230604 60 66 64
