ply
format ascii 1.0
element vertex 1193
property float x
property float y
property float z
property uchar diffuse_red
property uchar diffuse_green
property uchar diffuse_blue
end_header
-0.40821 0.11653 0.27311 132 197 97
-0.408404 0.11827 0.273081 139 202 101
-0.408599 0.120014 0.273052 140 202 102
-0.408795 0.121763 0.273023 150 199 109
-0.38006 -0.0102641 0.275856 72 72 57
-0.379781 -0.00893993 0.275894 89 93 67
-0.379502 -0.00761586 0.275932 126 153 95
-0.379223 -0.00629191 0.275969 158 196 118
-0.378944 -0.00496804 0.276007 174 215 127
-0.378665 -0.00364426 0.276044 182 222 128
-0.37798 -0.00234701 0.27614 183 222 124
-0.377701 -0.00102508 0.276178 181 222 118
-0.377018 0.000267094 0.276274 183 223 112
-0.376336 0.00155596 0.276369 185 227 110
-0.375656 0.00284153 0.276464 184 234 111
-0.375379 0.00415817 0.276502 180 240 122
-0.363484 0.0320638 0.278157 152 217 113
-0.36208 0.0331467 0.278357 150 217 112
-0.361059 0.0342917 0.278501 151 217 111
-0.358932 0.0352179 0.278805 149 216 111
-0.358295 0.0364201 0.278894 146 216 110
-0.408654 0.103633 0.271538 102 171 82
-0.408332 0.10516 0.271581 99 169 82
-0.40801 0.106687 0.271625 96 166 80
-0.407688 0.108214 0.271668 94 163 77
-0.407881 0.109935 0.271637 91 159 76
-0.407559 0.111464 0.271681 86 155 74
-0.407751 0.113191 0.27165 87 154 74
-0.407429 0.114722 0.271693 95 161 79
-0.407622 0.116457 0.271662 114 180 89
-0.407815 0.118196 0.271631 135 199 101
-0.407492 0.119731 0.271675 145 206 105
-0.407685 0.121478 0.271644 154 207 109
-0.379019 -0.0116908 0.274692 74 71 55
-0.379148 -0.0103533 0.274669 95 99 64
-0.379276 -0.00901264 0.274647 105 119 72
-0.378997 -0.00768848 0.274684 123 161 87
-0.378718 -0.00636438 0.274722 145 201 107
-0.378033 -0.00506344 0.27482 157 219 121
-0.377754 -0.0037412 0.274857 161 227 126
-0.377475 -0.00241906 0.274895 160 227 125
-0.377197 -0.001097 0.274933 157 224 122
-0.376514 0.000195384 0.27503 156 221 119
-0.376236 0.0015156 0.275067 158 220 116
-0.375555 0.00280293 0.275164 160 219 114
-0.375679 0.00415575 0.275142 159 218 114
-0.364513 0.0322688 0.276715 143 207 104
-0.362719 0.0332869 0.276977 142 204 103
-0.360943 0.0342951 0.277237 142 205 101
-0.360672 0.0355792 0.277273 139 206 102
-0.360401 0.0368631 0.27731 139 203 101
-0.403129 0.0985569 0.270838 85 151 71
-0.406851 0.101487 0.270281 85 149 70
-0.407554 0.103374 0.270172 84 148 69
-0.407746 0.105085 0.270139 84 147 69
-0.407424 0.106613 0.270183 81 145 68
-0.407103 0.10814 0.270226 80 142 65
-0.406781 0.109667 0.27027 77 138 64
-0.406972 0.11139 0.270237 73 134 62
-0.40665 0.112919 0.27028 71 134 60
-0.406841 0.114648 0.270247 78 142 66
-0.406518 0.116179 0.270291 100 165 80
-0.40671 0.117916 0.270258 129 195 97
-0.406902 0.119657 0.270225 146 209 105
-0.406579 0.121193 0.270269 151 206 107
-0.378388 -0.0130978 0.273472 70 68 53
-0.37811 -0.0117782 0.273509 93 80 58
-0.378237 -0.0104424 0.273485 104 114 72
-0.378364 -0.00910337 0.273461 105 126 71
-0.378086 -0.00778072 0.273499 113 146 72
-0.377807 -0.00645819 0.273536 131 180 86
-0.377528 -0.00513574 0.273574 145 200 100
-0.37725 -0.00381337 0.273612 149 206 106
-0.376971 -0.00249112 0.273649 149 208 106
-0.376692 -0.00116894 0.273687 148 209 106
-0.376414 0.000153125 0.273725 145 208 104
-0.376135 0.00147511 0.273762 143 207 103
-0.375454 0.00276421 0.273861 144 205 103
-0.375176 0.00408436 0.273899 144 205 102
-0.374898 0.00540441 0.273936 142 204 101
-0.374865 0.0272079 0.273865 120 189 96
-0.370964 0.0279592 0.274454 119 188 95
-0.368712 0.0289531 0.274792 120 185 94
-0.366875 0.0300006 0.275067 124 181 92
-0.365826 0.0311723 0.275222 117 180 90
-0.365167 0.0324068 0.275317 113 178 88
-0.363363 0.0334281 0.275587 112 176 88
-0.36271 0.0346522 0.275682 111 174 85
-0.361682 0.0358006 0.275834 108 173 85
-0.362544 0.0373137 0.275698 109 172 82
-0.395486 0.0850124 0.270537 81 147 66
-0.395177 0.0864772 0.270579 85 148 66
-0.394868 0.087942 0.27062 85 145 65
-0.401378 0.0964658 0.269604 89 145 68
-0.401062 0.0979634 0.269646 89 146 69
-0.401738 0.0998111 0.269537 91 146 68
-0.405947 0.102934 0.268888 91 147 69
-0.406648 0.104825 0.268776 92 148 70
-0.406838 0.106538 0.268741 92 149 72
-0.406517 0.108066 0.268784 93 149 72
-0.406195 0.109593 0.268828 91 146 70
-0.405873 0.11112 0.268871 86 141 66
-0.406063 0.112845 0.268836 79 136 60
-0.406253 0.114574 0.268801 80 140 62
-0.405931 0.116106 0.268845 99 161 76
-0.405608 0.117637 0.268888 128 193 94
-0.405798 0.119375 0.268853 145 209 105
-0.405475 0.120909 0.268897 145 201 105
-0.377078 -0.0131963 0.272354 75 74 56
-0.375997 -0.0119086 0.272517 102 112 69
-0.377329 -0.0105312 0.272304 99 123 75
-0.377051 -0.00921167 0.272341 93 118 67
-0.377177 -0.00787276 0.272316 105 135 66
-0.376898 -0.00655175 0.272353 124 170 80
-0.377024 -0.00520803 0.272328 139 194 94
-0.376745 -0.00388555 0.272366 143 201 101
-0.376467 -0.00256318 0.272403 144 204 102
-0.376592 -0.00121308 0.272378 145 205 103
-0.376313 0.000110765 0.272416 142 203 100
-0.376034 0.0014345 0.272454 134 198 98
-0.375755 0.00275816 0.272491 130 192 96
-0.374672 0.00401295 0.272655 129 190 93
-0.374394 0.00533313 0.272692 126 191 91
-0.374516 0.00669084 0.272667 122 186 90
-0.37464 0.00805184 0.272642 119 186 91
-0.374361 0.00937503 0.27268 114 183 90
-0.374887 0.0107838 0.272592 112 181 89
-0.378361 0.0221932 0.272002 102 164 77
-0.376837 0.0233632 0.272234 100 165 76
-0.375734 0.024585 0.272401 99 164 75
-0.375043 0.0258629 0.272503 99 162 75
-0.374354 0.0271375 0.272604 96 161 73
-0.370857 0.0279541 0.273145 94 161 73
-0.368602 0.0289493 0.273492 95 161 75
-0.366376 0.0299322 0.273834 96 158 73
-0.365328 0.0311041 0.273992 90 158 72
-0.364285 0.0322701 0.27415 88 159 73
-0.362868 0.0333606 0.274365 89 158 72
-0.362595 0.034656 0.274402 88 156 69
-0.362322 0.0359513 0.274439 87 155 71
-0.362049 0.0372465 0.274476 86 153 70
-0.361776 0.0385416 0.274513 83 152 70
-0.394758 0.0833262 0.269187 109 154 72
-0.394924 0.0849397 0.269154 109 156 72
-0.394616 0.0864047 0.269196 111 159 74
-0.394307 0.0878696 0.269237 113 164 74
-0.393998 0.0893344 0.269279 114 165 76
-0.399956 0.0929007 0.268337 115 164 77
-0.400625 0.0947266 0.268225 114 167 78
-0.40031 0.0962222 0.268267 114 169 78
-0.399995 0.0977178 0.26831 116 169 78
-0.400172 0.0993875 0.268275 117 171 78
-0.405364 0.102859 0.267452 116 172 80
-0.406062 0.10475 0.267335 117 172 81
-0.405741 0.106276 0.267379 116 174 84
-0.405931 0.107991 0.267342 115 176 86
-0.405609 0.109519 0.267385 113 174 85
-0.405287 0.111046 0.267429 107 166 81
-0.404965 0.112573 0.267472 98 156 74
-0.405154 0.1143 0.267435 97 154 72
-0.405343 0.116032 0.267399 118 174 83
-0.40502 0.117563 0.267442 144 201 100
-0.404698 0.119094 0.267486 148 208 104
-0.404887 0.120835 0.267449 143 201 106
-0.375773 -0.0132942 0.271242 81 86 58
-0.375097 -0.0119952 0.271343 96 123 71
-0.374821 -0.0106836 0.271381 91 125 72
-0.375743 -0.00931946 0.271227 87 113 65
-0.375867 -0.0079839 0.2712 100 128 65
-0.376394 -0.00662409 0.271109 121 165 78
-0.376116 -0.00530306 0.271147 137 193 93
-0.376645 -0.00393333 0.271055 140 201 99
-0.376366 -0.00260919 0.271093 141 202 100
-0.376087 -0.00128514 0.271131 141 202 101
-0.375808 3.88307e-05 0.271168 135 195 96
-0.375529 0.00136269 0.271206 117 182 87
-0.375653 0.00271923 0.271179 104 167 77
-0.374971 0.00401014 0.271282 100 162 73
-0.374692 0.00533372 0.271319 97 160 73
-0.374413 0.00665722 0.271357 95 158 73
-0.374134 0.00798062 0.271395 94 157 70
-0.373856 0.00930391 0.271433 92 159 70
-0.373978 0.0106698 0.271406 92 158 69
-0.374908 0.0121283 0.27125 89 157 68
-0.377716 0.0207159 0.270758 86 152 67
-0.377432 0.0220636 0.270796 84 150 66
-0.376324 0.0232921 0.270967 84 150 65
-0.375222 0.0245142 0.271137 84 149 64
-0.374125 0.02573 0.271306 84 147 65
-0.37063 0.0265609 0.271859 83 148 65
-0.369954 0.0278203 0.271961 83 147 64
-0.367708 0.0288152 0.272314 84 145 67
-0.365876 0.0298637 0.272602 84 145 66
-0.364829 0.0310359 0.272763 84 145 67
-0.364171 0.0322708 0.272862 84 145 70
-0.363514 0.0335026 0.27296 86 146 67
-0.362099 0.0345885 0.273181 88 146 68
-0.361826 0.035884 0.273218 90 145 69
-0.361553 0.0371793 0.273255 93 146 69
-0.36128 0.0384745 0.273291 92 147 68
-0.394671 0.0834017 0.267729 120 180 87
-0.394363 0.084867 0.267771 120 182 89
-0.394054 0.0863321 0.267813 119 181 88
-0.393745 0.0877971 0.267854 119 182 87
-0.39391 0.0894189 0.26782 119 184 88
-0.395987 0.0916867 0.267476 121 184 88
-0.399069 0.0943188 0.266971 121 185 88
-0.398755 0.0958103 0.267013 125 186 89
-0.398441 0.0973017 0.267056 126 186 90
-0.399598 0.0993142 0.266861 126 188 91
-0.40478 0.102785 0.266015 124 188 92
-0.404968 0.104491 0.265977 125 187 91
-0.404647 0.106014 0.26602 123 188 94
-0.404834 0.107727 0.265981 123 190 97
-0.405023 0.109445 0.265943 123 191 101
-0.404701 0.110972 0.265986 119 187 101
-0.404379 0.112499 0.26603 118 180 95
-0.404567 0.114226 0.265991 130 185 93
-0.404244 0.115756 0.266034 154 207 106
-0.404432 0.117489 0.265996 161 217 113
-0.40411 0.119021 0.266039 150 208 104
-0.403787 0.120552 0.266083 141 199 105
-0.373407 -0.0121097 0.270303 89 112 65
-0.373132 -0.0108029 0.27034 87 113 66
-0.373648 -0.0094615 0.270248 89 113 65
-0.374964 -0.00807536 0.270024 98 127 65
-0.375087 -0.00673823 0.269996 117 162 78
-0.375612 -0.00537529 0.269902 136 191 93
-0.37614 -0.00400564 0.269807 141 202 100
-0.375861 -0.00268137 0.269845 143 203 100
-0.375986 -0.00132948 0.269816 142 201 100
-0.375706 -3.75486e-06 0.269854 128 193 95
-0.375831 0.00135297 0.269826 95 167 77
-0.375148 0.00264742 0.26993 83 146 65
-0.374466 0.00393854 0.270034 81 147 62
-0.374589 0.00529822 0.270006 81 147 63
-0.37431 0.0066235 0.270044 80 145 65
-0.374031 0.00794866 0.270081 80 146 61
-0.374153 0.0093148 0.270053 80 146 63
-0.374277 0.0106843 0.270025 79 144 64
-0.376432 0.0122818 0.269662 79 144 65
-0.37697 0.0137141 0.269566 82 142 66
-0.377201 0.0206444 0.269487 93 145 66
-0.376505 0.0219343 0.269593 96 146 67
-0.37581 0.0232209 0.269699 99 147 68
-0.37402 0.0257217 0.269978 101 153 70
-0.370124 0.0264911 0.270611 102 154 71
-0.369449 0.0277507 0.270714 103 155 71
-0.367206 0.0287463 0.271075 103 156 73
-0.365376 0.0297952 0.271369 102 160 73
-0.364331 0.0309676 0.271533 102 161 75
-0.363673 0.0322028 0.271633 103 162 79
-0.363017 0.0334347 0.271734 105 165 79
-0.361982 0.0345923 0.271896 107 166 80
-0.361331 0.0358166 0.271996 108 165 81
-0.361058 0.037112 0.272033 111 167 82
-0.360785 0.0384074 0.27207 110 166 81
-0.394275 0.0849449 0.266309 155 191 102
-0.393966 0.0864121 0.266351 159 195 101
-0.393657 0.0878793 0.266393 163 200 100
-0.394774 0.0898192 0.266198 168 204 101
-0.39542 0.0916139 0.266082 172 207 102
-0.397037 0.0937478 0.265804 170 208 99
-0.397209 0.0954007 0.265766 169 210 100
-0.397869 0.0972286 0.265647 160 212 100
-0.398532 0.0990667 0.265528 157 212 105
-0.40218 0.101986 0.264913 153 214 105
-0.403876 0.104232 0.264622 151 215 105
-0.403555 0.105753 0.264665 148 217 108
-0.403741 0.107463 0.264625 147 219 114
-0.403927 0.109178 0.264584 149 220 122
-0.404114 0.110898 0.264543 145 215 123
-0.403793 0.112426 0.264587 149 210 118
-0.403471 0.113953 0.264631 170 225 120
-0.403657 0.115682 0.26459 176 236 127
-0.403335 0.117211 0.264633 160 224 120
-0.403013 0.11874 0.264677 147 208 105
-0.403199 0.120478 0.264636 137 190 102
-0.372909 -0.0121818 0.269071 89 112 67
-0.37224 -0.0108903 0.269175 89 110 65
-0.372358 -0.00956791 0.269146 92 111 66
-0.372872 -0.00822345 0.269051 96 122 67
-0.374184 -0.00683113 0.268821 112 154 76
-0.375108 -0.00544754 0.268657 135 189 94
-0.375634 -0.00407794 0.268559 143 203 104
-0.375759 -0.0027276 0.268529 145 204 103
-0.375884 -0.00137398 0.268499 148 204 101
-0.375604 -4.64674e-05 0.268537 132 194 96
-0.375324 0.00128095 0.268575 96 151 75
-0.375045 0.00260828 0.268613 88 141 68
-0.374765 0.00393551 0.268651 92 142 66
-0.374486 0.00526264 0.268689 96 144 67
-0.374206 0.00658968 0.268727 98 149 68
-0.374329 0.00795604 0.268697 103 151 68
-0.374049 0.00928455 0.268735 105 154 72
-0.374982 0.0107419 0.268568 103 157 73
-0.375921 0.0122101 0.268401 102 160 73
-0.375639 0.0135484 0.268439 105 161 74
-0.376274 0.0205167 0.268285 111 169 80
-0.37558 0.0218053 0.268393 112 169 81
-0.375296 0.0231498 0.268432 114 169 81
-0.369618 0.0264214 0.269362 118 172 83
-0.368943 0.0276812 0.269467 118 174 83
-0.366703 0.0286773 0.269836 118 174 83
-0.364491 0.0296609 0.270201 117 177 83
-0.363832 0.0308994 0.270303 117 179 85
-0.363175 0.0321347 0.270405 118 180 86
-0.362519 0.0333669 0.270507 118 182 87
-0.361865 0.034596 0.270608 119 183 88
-0.361213 0.0358219 0.270709 120 183 88
-0.360562 0.0370448 0.27081 121 184 90
-0.360666 0.0384162 0.270784 121 182 90
-0.395476 0.0885862 0.264602 184 234 126
-0.395165 0.0900637 0.264644 188 237 124
-0.39678 0.0921891 0.264359 191 240 122
-0.396467 0.0936747 0.264401 192 244 121
-0.396154 0.0951602 0.264444 193 246 123
-0.397296 0.0971554 0.264239 191 247 122
-0.396982 0.098647 0.264281 192 252 126
-0.399116 0.101019 0.263907 194 251 127
-0.401281 0.103425 0.263527 199 255 132
-0.401964 0.105307 0.2634 196 254 133
-0.402147 0.107012 0.263358 198 253 135
-0.402331 0.108722 0.263315 196 252 137
-0.40201 0.110243 0.263359 188 251 139
-0.402194 0.111959 0.263317 182 249 138
-0.402378 0.11368 0.263274 176 243 133
-0.402563 0.115406 0.263231 162 229 123
-0.402241 0.116934 0.263275 148 214 111
-0.401919 0.118461 0.263319 142 202 103
-0.37241 -0.0122538 0.26784 91 111 63
-0.371742 -0.0109622 0.267945 93 109 62
-0.371467 -0.00965678 0.267982 94 109 63
-0.372372 -0.00829532 0.267816 94 119 65
-0.373682 -0.00690325 0.26758 106 148 73
-0.374604 -0.0055198 0.267411 132 184 90
-0.375532 -0.00412607 0.267241 143 203 104
-0.375657 -0.00277397 0.26721 147 205 105
-0.375782 -0.00141859 0.267178 151 209 104
-0.375907 -5.9871e-05 0.267146 141 202 102
-0.375222 0.0012399 0.267254 115 160 79
-0.374942 0.00256901 0.267292 109 169 81
-0.374662 0.00389803 0.26733 110 172 83
-0.374382 0.00522694 0.267368 111 171 82
-0.374102 0.00655576 0.267406 113 173 80
-0.373822 0.0078845 0.267444 115 172 82
-0.373945 0.00925423 0.267413 115 174 84
-0.374878 0.0107133 0.267241 114 175 83
-0.375003 0.0120934 0.267209 115 176 82
-0.375128 0.0134768 0.267177 117 177 83
-0.375254 0.0148636 0.267145 119 178 84
-0.375349 0.0203894 0.267087 121 184 87
-0.375066 0.0217341 0.267125 120 184 88
-0.374783 0.0230786 0.267164 121 185 89
-0.368833 0.0276757 0.268152 123 186 90
-0.367765 0.0288685 0.268326 123 185 91
-0.363608 0.029527 0.269036 123 187 90
-0.362951 0.0307643 0.269139 123 188 90
-0.362677 0.0320667 0.269177 123 189 90
-0.362022 0.0332991 0.26928 124 190 91
-0.361368 0.0345283 0.269383 126 191 92
-0.361095 0.0358273 0.26942 129 191 94
-0.360443 0.0370518 0.269523 130 193 96
-0.36017 0.0383489 0.26956 131 192 96
-0.396523 0.0906301 0.262913 170 249 139
-0.39621 0.0921159 0.262956 171 247 138
-0.395897 0.0936016 0.262998 169 248 139
-0.395584 0.0950873 0.263041 168 246 138
-0.395754 0.0967421 0.262999 167 243 136
-0.39641 0.098574 0.262872 165 240 134
-0.397558 0.100592 0.26266 165 238 137
-0.398716 0.102627 0.262445 165 235 133
-0.399884 0.10468 0.262229 163 231 129
-0.399566 0.106191 0.262272 163 227 126
-0.400243 0.108078 0.262141 161 224 123
-0.400423 0.109784 0.262097 158 221 119
-0.400104 0.111301 0.262141 156 216 113
-0.400284 0.113014 0.262097 154 211 108
-0.400465 0.114732 0.262052 147 206 105
-0.400646 0.116455 0.262008 139 200 102
-0.373096 -0.0122844 0.266399 90 106 57
-0.371244 -0.011034 0.266714 94 109 62
-0.371361 -0.00971153 0.266683 95 110 63
-0.372663 -0.0083297 0.266442 93 116 63
-0.373578 -0.00695481 0.266269 99 140 71
-0.3741 -0.00559208 0.266166 126 176 86
-0.37543 -0.00417431 0.26592 142 201 102
-0.37596 -0.00279448 0.265815 147 205 102
-0.376085 -0.0014356 0.265781 156 215 106
-0.375399 -0.000132232 0.265891 163 221 112
-0.375118 0.00119875 0.265929 138 187 92
-0.375243 0.00256238 0.265896 123 184 87
-0.374962 0.00389485 0.265934 122 184 88
-0.374682 0.00522724 0.265972 119 183 86
-0.373997 0.00652175 0.266082 120 183 83
-0.373717 0.00785227 0.26612 119 184 86
-0.37384 0.00922379 0.266087 120 184 88
-0.373963 0.0105987 0.266054 120 184 87
-0.374087 0.0119769 0.26602 122 186 87
-0.373805 0.0133121 0.266059 124 186 89
-0.373929 0.0146953 0.266025 126 187 90
-0.374835 0.020318 0.265818 130 192 94
-0.374144 0.0216055 0.265929 132 194 95
-0.374269 0.0230075 0.265895 134 196 96
-0.36311 0.0294587 0.267805 149 210 103
-0.362453 0.0306961 0.26791 150 213 103
-0.361798 0.0319304 0.268015 150 216 104
-0.361145 0.0331615 0.26812 151 218 105
-0.360871 0.0344607 0.268157 152 219 107
-0.360598 0.0357597 0.268194 153 218 110
-0.360702 0.0371332 0.268164 154 220 113
-0.360428 0.0384337 0.268202 155 222 114
-0.395953 0.0905567 0.26151 150 224 118
-0.39564 0.0920426 0.261552 149 221 117
-0.395327 0.0935285 0.261595 146 220 115
-0.395497 0.0951814 0.261551 145 219 114
-0.395183 0.0966692 0.261594 146 218 111
-0.395837 0.0985009 0.261463 149 217 112
-0.396495 0.100343 0.261332 148 218 113
-0.397157 0.102195 0.2612 150 216 110
-0.397822 0.104058 0.261067 150 214 108
-0.397997 0.105747 0.261022 149 211 106
-0.398173 0.10744 0.260977 145 212 105
-0.397856 0.108948 0.26102 145 212 105
-0.398032 0.110649 0.260975 147 207 105
-0.398704 0.112549 0.26084 145 204 102
-0.398882 0.114261 0.260794 137 195 98
-0.371924 -0.0110599 0.265271 89 107 63
-0.372043 -0.00973244 0.265237 93 107 61
-0.372558 -0.00838305 0.265132 91 108 58
-0.373874 -0.00698597 0.264882 91 126 65
-0.374397 -0.00561978 0.264775 112 159 76
-0.375732 -0.00419848 0.264522 135 189 94
-0.376264 -0.00281513 0.264413 145 202 100
-0.377208 -0.00139699 0.26423 153 213 107
-0.375296 -0.000175295 0.264563 183 234 120
-0.375421 0.00118853 0.264528 188 224 118
-0.37514 0.00252289 0.264566 153 205 101
-0.374859 0.00385717 0.264605 137 196 98
-0.374578 0.00519134 0.264643 136 196 95
-0.374297 0.00652541 0.264681 138 198 94
-0.373612 0.00781995 0.264793 140 200 96
-0.373735 0.00919328 0.264758 145 202 98
-0.373454 0.0105271 0.264796 150 208 102
-0.373576 0.0119053 0.264761 153 211 103
-0.373295 0.0132406 0.264799 156 215 105
-0.373418 0.0146239 0.264764 158 219 106
-0.373947 0.0160606 0.264656 158 221 106
-0.374196 0.0188478 0.264585 158 221 111
-0.373913 0.0201911 0.264624 160 223 116
-0.37363 0.0215343 0.264662 160 223 116
-0.373755 0.0229363 0.264627 161 225 117
-0.361849 0.0292602 0.266713 176 242 125
-0.361575 0.0305613 0.266751 177 245 123
-0.361301 0.0318624 0.266788 177 245 123
-0.361027 0.0331633 0.266825 178 247 122
-0.360753 0.0344642 0.266863 175 248 121
-0.360857 0.035838 0.266831 175 247 125
-0.360583 0.0371402 0.266868 175 247 126
-0.395696 0.088997 0.260063 131 199 98
-0.395383 0.0904832 0.260106 128 197 97
-0.395553 0.0921322 0.26006 126 195 97
-0.395239 0.0936203 0.260103 124 194 97
-0.394926 0.0951083 0.260145 122 193 95
-0.395095 0.0967658 0.2601 122 193 95
-0.395265 0.0984279 0.260054 129 196 98
-0.395921 0.10027 0.259918 138 206 103
-0.396093 0.101944 0.259872 143 209 104
-0.396265 0.103622 0.259825 146 209 106
-0.396438 0.105306 0.259779 146 208 104
-0.396121 0.106808 0.259822 145 208 103
-0.396294 0.108498 0.259775 144 205 103
-0.396467 0.110192 0.259728 139 198 100
-0.372333 -0.00977059 0.263855 89 108 63
-0.373248 -0.00839904 0.263672 83 105 61
-0.37417 -0.00701729 0.263488 79 109 58
-0.3751 -0.00562526 0.263303 95 135 64
-0.376036 -0.00422278 0.263116 121 170 82
-0.377389 -0.00278357 0.262852 138 192 95
-0.376697 -0.00146993 0.262967 146 205 102
-0.376415 -0.000130202 0.263005 167 222 114
-0.376132 0.00120942 0.263044 185 238 129
-0.37585 0.00254897 0.263082 170 238 126
-0.375977 0.00392307 0.263045 166 233 124
-0.375694 0.00526412 0.263084 168 232 122
-0.375412 0.00660507 0.263122 169 232 121
-0.374722 0.00790618 0.263236 170 234 124
-0.37444 0.00924525 0.263275 170 235 126
-0.374158 0.0105842 0.263313 171 239 128
-0.374282 0.0119679 0.263276 174 242 129
-0.373594 0.0132619 0.26339 177 244 127
-0.373717 0.0146488 0.263353 177 247 126
-0.373841 0.0160391 0.263316 178 248 125
-0.373559 0.017381 0.263355 179 245 124
-0.373683 0.0187763 0.263318 179 245 126
-0.3734 0.0201198 0.263357 179 246 129
-0.373117 0.0214631 0.263395 177 245 129
-0.372834 0.0228063 0.263434 174 244 130
-0.372551 0.0241494 0.263472 173 244 130
-0.361077 0.0304932 0.265523 159 237 124
-0.395126 0.0889235 0.258659 104 169 81
-0.395295 0.0905705 0.258611 100 165 79
-0.394982 0.0920588 0.258654 98 163 79
-0.394668 0.093547 0.258697 95 159 78
-0.394837 0.0952026 0.258649 92 156 75
-0.394523 0.0966927 0.258692 92 157 77
-0.394692 0.0983548 0.258644 101 166 81
-0.394862 0.100021 0.258596 121 188 93
-0.395518 0.101871 0.258456 139 205 101
-0.395202 0.103369 0.2585 144 209 104
-0.394886 0.104867 0.258543 145 208 104
-0.395057 0.10655 0.258494 144 208 104
-0.394741 0.108049 0.258537 139 199 102
-0.373822 -0.00975767 0.262239 80 106 63
-0.373543 -0.00843398 0.262277 75 100 57
-0.374872 -0.00702815 0.262011 74 100 55
-0.375807 -0.00563077 0.261819 79 115 58
-0.379225 -0.00407557 0.261158 100 145 70
-0.379773 -0.00267224 0.26104 125 175 85
-0.377828 -0.00143133 0.261393 139 196 96
-0.377545 -8.46645e-05 0.261431 146 205 104
-0.377261 0.0012619 0.26147 157 221 116
-0.376978 0.00260835 0.261509 161 232 121
-0.377106 0.00398966 0.26147 168 236 125
-0.376822 0.00533764 0.261508 173 240 126
-0.376538 0.00668554 0.261547 175 240 128
-0.376254 0.00803334 0.261586 172 240 129
-0.37597 0.00938104 0.261625 168 240 131
-0.375687 0.0107287 0.261663 165 241 130
-0.374993 0.012031 0.26178 163 240 130
-0.37471 0.0133767 0.261819 162 239 129
-0.374018 0.0146738 0.261935 158 236 124
-0.373735 0.0160176 0.261973 157 233 121
-0.373452 0.0173613 0.262012 158 229 119
-0.373169 0.0187049 0.262051 157 226 116
-0.372886 0.0200484 0.262089 154 224 114
-0.372603 0.0213918 0.262128 154 221 113
-0.37232 0.0227352 0.262167 153 218 112
-0.371633 0.0240181 0.262282 152 216 109
-0.371754 0.0254215 0.262244 151 216 106
-0.395038 0.0890084 0.257162 82 138 65
-0.394724 0.0904969 0.257205 79 137 64
-0.394411 0.0919854 0.257248 77 134 64
-0.394579 0.093639 0.257198 77 130 61
-0.394265 0.0951293 0.257241 75 128 60
-0.394434 0.0967895 0.257191 72 129 60
-0.39412 0.0982817 0.257234 78 140 64
-0.394288 0.0999484 0.257184 103 168 79
-0.394457 0.10162 0.257134 135 200 96
-0.394627 0.103296 0.257084 143 207 102
-0.394311 0.104794 0.257127 146 208 104
-0.393996 0.106292 0.25717 144 204 103
-0.39136 -0.00197658 0.257423 103 148 70
-0.378971 -0.00139233 0.259802 121 176 85
-0.378686 -3.86756e-05 0.259841 133 192 96
-0.378401 0.00131489 0.25988 140 202 102
-0.378116 0.00266836 0.259919 146 208 103
-0.378247 0.00405691 0.259878 149 213 107
-0.377961 0.00541192 0.259917 153 217 109
-0.376848 0.00668961 0.260116 155 217 110
-0.376563 0.00804098 0.260155 155 218 109
-0.376278 0.00939224 0.260194 154 217 107
-0.375994 0.0107434 0.260233 153 218 107
-0.375298 0.0120491 0.260352 152 216 107
-0.374604 0.0133514 0.26047 150 214 107
-0.37432 0.0146989 0.260509 148 215 106
-0.373628 0.015996 0.260627 147 215 105
-0.373345 0.0173415 0.260665 147 212 104
-0.372655 0.0186334 0.260783 145 210 103
-0.372373 0.0199771 0.260822 141 208 102
-0.37209 0.0213206 0.26086 137 204 102
-0.371807 0.022664 0.260899 136 200 101
-0.37112 0.0239472 0.261016 136 199 99
-0.370837 0.0252887 0.261055 135 198 97
-0.370958 0.0266938 0.261015 133 195 94
-0.394467 0.0889347 0.255756 86 136 64
-0.394153 0.0904234 0.255799 86 138 65
-0.39384 0.091912 0.255842 87 137 65
-0.394007 0.0935656 0.25579 87 135 64
-0.394175 0.0952237 0.255738 84 131 63
-0.393861 0.0967162 0.255781 77 127 59
-0.393547 0.0982086 0.255824 75 131 58
-0.393714 0.0998753 0.255772 97 156 71
-0.393883 0.101547 0.25572 131 197 93
-0.393568 0.103043 0.255763 142 206 103
-0.393736 0.104721 0.255711 144 206 104
-0.390824 -0.00205317 0.256099 84 116 56
-0.383521 -0.00112319 0.257524 97 144 69
-0.381952 0.00015962 0.257817 112 165 81
-0.379973 0.00140037 0.258191 123 182 90
-0.379686 0.00276266 0.25823 130 191 96
-0.379399 0.00412485 0.258269 135 197 98
-0.379112 0.00548693 0.258309 140 201 100
-0.37799 0.00677112 0.258513 143 204 102
-0.376873 0.00804865 0.258717 146 208 102
-0.376588 0.00940347 0.258756 146 209 101
-0.375889 0.0107145 0.258877 147 211 102
-0.375193 0.012022 0.258997 148 212 103
-0.374908 0.0133731 0.259036 147 210 103
-0.374624 0.0147241 0.259075 146 210 103
-0.37393 0.0160246 0.259195 145 209 101
-0.373238 0.0173217 0.259315 142 205 99
-0.372547 0.0186154 0.259435 136 197 95
-0.372264 0.0199608 0.259474 127 189 92
-0.371981 0.0213062 0.259512 115 181 91
-0.371293 0.0225929 0.259631 110 177 89
-0.37101 0.0239364 0.25967 109 174 87
-0.370727 0.0252797 0.259709 106 170 83
-0.370444 0.026623 0.259748 103 167 79
-0.393728 0.0872159 0.254403 110 157 74
-0.393895 0.088861 0.254349 109 160 76
-0.393582 0.0903498 0.254392 110 162 77
-0.393268 0.0918385 0.254435 109 162 76
-0.393917 0.0936576 0.254285 107 160 77
-0.393602 0.0951504 0.254328 103 154 74
-0.393288 0.096643 0.254371 93 142 68
-0.392974 0.0981355 0.254414 85 139 63
-0.393141 0.0998023 0.25436 107 164 75
-0.393308 0.101474 0.254306 135 202 98
-0.392993 0.10297 0.254349 144 207 103
-0.392678 0.104466 0.254392 143 204 102
-0.392976 -0.00625162 0.25429 83 102 65
-0.392679 -0.00483963 0.254331 77 101 63
-0.392382 -0.00342776 0.254372 72 98 57
-0.391633 -0.00204453 0.254504 73 97 49
-0.388658 -0.000815683 0.255085 75 111 54
-0.383565 0.000238442 0.256094 86 128 61
-0.382417 0.00155174 0.256307 96 144 70
-0.381701 0.00289229 0.256433 105 158 79
-0.380563 0.00419347 0.256644 115 168 83
-0.379853 0.00552522 0.256769 121 177 88
-0.378724 0.00681438 0.256978 127 186 94
-0.378018 0.00813744 0.257102 135 197 99
-0.377732 0.00949936 0.257142 141 203 100
-0.376613 0.0107731 0.257349 143 206 102
-0.375499 0.0120402 0.257556 144 208 103
-0.375214 0.0133949 0.257595 145 209 102
-0.374518 0.0147006 0.257718 146 209 102
-0.373823 0.0160029 0.25784 146 207 101
-0.373539 0.0173538 0.257879 139 200 98
-0.372846 0.0186509 0.258 120 182 89
-0.372562 0.0199999 0.258039 101 161 77
-0.372278 0.0213488 0.258078 90 149 70
-0.371183 0.0225802 0.258282 86 144 67
-0.3709 0.0239255 0.25832 85 142 64
-0.370616 0.0252707 0.258359 83 142 63
-0.370737 0.0266796 0.258316 82 142 62
-0.371264 0.0281577 0.25819 80 141 60
-0.390285 0.0768055 0.253714 114 173 83
-0.389509 0.0781313 0.253852 114 173 84
-0.389667 0.0797393 0.253799 115 174 84
-0.389358 0.081206 0.253841 116 174 85
-0.38905 0.0826726 0.253883 116 173 85
-0.389208 0.0842889 0.25383 115 172 83
-0.390306 0.0862151 0.253583 115 172 82
-0.392844 0.0886292 0.253041 114 172 84
-0.39301 0.0902763 0.252985 113 173 83
-0.392697 0.0917651 0.253028 113 173 83
-0.393344 0.0935841 0.252874 114 172 83
-0.393029 0.095077 0.252917 112 167 80
-0.392715 0.0965697 0.25296 104 158 76
-0.392401 0.0980623 0.253003 98 156 74
-0.392567 0.0997292 0.252947 123 185 86
-0.392252 0.101224 0.25299 144 208 104
-0.392418 0.102897 0.252934 145 207 104
-0.392103 0.104394 0.252978 143 203 102
-0.393485 -0.00913443 0.252784 73 71 57
-0.393188 -0.00772024 0.252825 76 87 62
-0.392437 -0.00632904 0.252959 80 100 66
-0.39214 -0.00491692 0.252999 69 97 58
-0.391843 -0.0035049 0.25304 64 90 48
-0.391095 -0.00212147 0.253174 66 90 43
-0.389455 -0.000802061 0.253491 66 93 45
-0.386071 0.000380803 0.254169 72 99 46
-0.38404 0.0016401 0.254567 75 105 51
-0.38203 0.00288619 0.254962 79 113 56
-0.381313 0.00422679 0.25509 82 121 60
-0.380175 0.00552619 0.255305 87 133 66
-0.379042 0.00681881 0.255518 97 150 75
-0.378334 0.00814539 0.255645 111 168 84
-0.377629 0.00946847 0.255771 127 186 91
-0.376924 0.010788 0.255896 138 198 98
-0.376222 0.0121041 0.256021 143 205 102
-0.375108 0.0133695 0.256232 144 208 103
-0.374411 0.014677 0.256356 144 208 103
-0.373716 0.0159811 0.25648 145 208 103
-0.373022 0.0172818 0.256604 135 197 97
-0.372738 0.0186328 0.256643 108 168 83
-0.372453 0.0199836 0.256682 86 142 68
-0.372169 0.0213343 0.256721 79 135 61
-0.371884 0.022685 0.25676 78 132 62
-0.3716 0.0240356 0.256799 77 131 63
-0.371316 0.025386 0.256838 78 132 64
-0.371031 0.0267364 0.256877 78 133 64
-0.37156 0.0282186 0.256747 82 132 65
-0.390031 0.0752649 0.252286 116 175 81
-0.389722 0.076732 0.252328 117 174 83
-0.389413 0.0781991 0.25237 116 174 85
-0.389104 0.0796661 0.252413 116 173 84
-0.388796 0.0811329 0.252455 118 173 84
-0.388487 0.0825997 0.252498 116 174 84
-0.388178 0.0840663 0.25254 114 175 84
-0.38974 0.086142 0.25219 115 175 84
-0.391797 0.088398 0.251736 115 173 84
-0.391961 0.0900425 0.251678 115 173 84
-0.392125 0.0916917 0.251621 116 175 84
-0.392291 0.0933453 0.251564 116 175 83
-0.392456 0.0950036 0.251506 114 172 82
-0.392142 0.0964964 0.251549 109 168 80
-0.391828 0.0979892 0.251592 110 173 81
-0.391993 0.099656 0.251534 133 201 96
-0.391678 0.101151 0.251578 147 212 106
-0.391364 0.102645 0.251621 144 206 104
-0.391529 0.104321 0.251563 145 201 102
-0.392648 -0.00779787 0.251491 76 76 58
-0.39235 -0.00638367 0.251532 79 89 59
-0.392052 -0.00496953 0.251573 67 88 50
-0.391303 -0.00358207 0.251708 65 85 38
-0.391006 -0.00217004 0.251749 65 88 38
-0.39026 -0.00078833 0.251885 64 87 40
-0.387736 0.000462323 0.252394 67 88 38
-0.384811 0.00166346 0.252988 66 89 42
-0.382789 0.00291445 0.253392 66 90 44
-0.382069 0.00426034 0.253523 65 96 46
-0.380498 0.00552715 0.253832 69 101 48
-0.379362 0.00682324 0.254051 75 112 53
-0.378232 0.00811253 0.254268 86 129 61
-0.377944 0.00947996 0.254307 101 154 73
-0.377238 0.010803 0.254435 121 179 87
-0.376117 0.0120768 0.25465 136 196 98
-0.375416 0.0133913 0.254777 143 205 102
-0.374716 0.0147023 0.254904 144 208 103
-0.374019 0.0160098 0.25503 146 209 103
-0.373323 0.0173139 0.255156 136 198 99
-0.373038 0.0186684 0.255195 111 170 86
-0.372752 0.0200228 0.255234 101 147 71
-0.372467 0.0213772 0.255274 105 151 72
-0.372182 0.0227314 0.255313 107 155 73
-0.371897 0.0240855 0.255352 109 159 74
-0.371612 0.0254396 0.255391 109 162 75
-0.372143 0.0269224 0.255257 109 163 77
-0.371858 0.0282798 0.255297 111 167 81
-0.372802 0.0298421 0.255075 112 166 80
-0.390555 0.0723895 0.250714 118 176 85
-0.390246 0.0738591 0.250757 118 177 84
-0.389468 0.0751912 0.250899 118 178 84
-0.389159 0.0766585 0.250942 119 177 84
-0.388851 0.0781257 0.250984 119 176 84
-0.389008 0.0797362 0.250927 120 176 85
-0.388233 0.0810598 0.251069 121 176 85
-0.387924 0.0825267 0.251111 120 177 84
-0.388081 0.0841429 0.251054 117 178 84
-0.387771 0.0856116 0.251097 118 179 84
-0.388864 0.0875436 0.250839 120 178 85
-0.390914 0.0898095 0.250375 120 177 86
-0.391077 0.091456 0.250316 121 177 86
-0.39124 0.0931072 0.250257 119 177 85
-0.391404 0.0947629 0.250197 116 177 85
-0.391569 0.0964231 0.250138 114 178 84
-0.391254 0.0979161 0.250181 121 188 86
-0.39094 0.0994089 0.250224 141 208 98
-0.391104 0.101078 0.250165 147 213 105
-0.390789 0.102572 0.250208 144 205 102
-0.390475 0.104067 0.250251 148 200 102
-0.391512 -0.00504695 0.250239 72 77 50
-0.391215 -0.00363279 0.25028 68 81 44
-0.379684 0.00682768 0.252575 66 95 42
-0.37855 0.0081204 0.252797 71 101 46
-0.377841 0.00944888 0.252927 80 117 55
-0.377133 0.0107738 0.253057 98 147 69
-0.376428 0.0120953 0.253186 120 178 86
-0.37531 0.0133658 0.253405 137 200 98
-0.374609 0.0146786 0.253533 144 207 102
-0.373911 0.0159879 0.253661 151 212 105
-0.373214 0.0172939 0.253789 145 209 107
-0.372929 0.0186502 0.253829 123 188 96
-0.373053 0.0200623 0.253779 115 172 81
-0.372767 0.0214202 0.253819 117 176 85
-0.372481 0.022778 0.253858 117 175 85
-0.372196 0.0241357 0.253897 116 176 84
-0.372319 0.0255562 0.253848 115 176 83
-0.373267 0.0271104 0.253621 116 175 83
-0.37298 0.0284748 0.253661 117 175 83
-0.373105 0.029908 0.253611 119 176 82
-0.374895 0.0316296 0.253201 118 176 83
-0.389523 0.0721824 0.249428 122 179 86
-0.389214 0.0736501 0.24947 122 181 88
-0.388906 0.0751176 0.249513 122 181 89
-0.388597 0.076585 0.249555 121 181 88
-0.388288 0.0780524 0.249598 122 182 88
-0.388445 0.0796628 0.249538 123 184 88
-0.38767 0.0809867 0.249683 124 184 88
-0.387361 0.0824537 0.249725 123 184 89
-0.387517 0.08407 0.249666 123 185 90
-0.387673 0.0856907 0.249607 125 188 90
-0.38783 0.0873158 0.249547 127 188 90
-0.38987 0.089577 0.249075 128 186 91
-0.390031 0.0912211 0.249014 128 187 91
-0.390193 0.0928697 0.248954 126 188 90
-0.390355 0.0945228 0.248892 124 187 90
-0.390518 0.0961806 0.248831 125 188 92
-0.390681 0.0978429 0.24877 132 197 95
-0.390367 0.0993358 0.248813 148 214 104
-0.390053 0.100829 0.248856 146 210 105
-0.390215 0.1025 0.248795 145 204 101
-0.389901 0.103994 0.248838 143 189 101
-0.378869 0.00812832 0.251318 66 92 38
-0.378158 0.00946036 0.25145 70 99 47
-0.377029 0.0107445 0.251674 81 116 58
-0.376323 0.0120678 0.251806 102 150 71
-0.375618 0.0133876 0.251937 125 184 88
-0.374916 0.0147039 0.252068 140 203 101
-0.374215 0.0160167 0.252198 148 213 106
-0.373929 0.0173785 0.252238 154 219 110
-0.373642 0.0187403 0.252277 146 208 107
-0.374181 0.0202143 0.252135 127 184 88
-0.374308 0.0216375 0.252083 119 181 86
-0.37402 0.0230042 0.252123 120 181 86
-0.374147 0.0244326 0.252071 119 179 87
-0.374691 0.0259286 0.251928 117 178 87
-0.375237 0.0274322 0.251783 116 177 87
-0.374947 0.0288074 0.251823 118 178 85
-0.374658 0.0301825 0.251863 120 179 83
-0.374368 0.0315575 0.251903 118 177 82
-0.374079 0.0329324 0.251943 119 177 84
-0.376018 0.0361466 0.251466 120 177 85
-0.378712 0.0380963 0.250847 121 177 85
-0.378099 0.0452675 0.250859 120 179 88
-0.377804 0.0466688 0.2509 120 181 86
-0.38927 0.0706407 0.247998 126 184 88
-0.388961 0.0721085 0.248041 126 184 89
-0.388652 0.0735763 0.248083 128 186 90
-0.388343 0.0750439 0.248126 129 188 91
-0.388034 0.0765115 0.248168 129 189 91
-0.387725 0.0779789 0.248211 129 190 92
-0.387416 0.0794463 0.248253 130 192 93
-0.387107 0.0809135 0.248296 132 194 92
-0.387262 0.0825279 0.248235 130 195 92
-0.386953 0.083997 0.248277 131 196 94
-0.387109 0.0856177 0.248216 133 198 96
-0.387265 0.0872429 0.248155 133 198 96
-0.387889 0.0890296 0.247989 134 197 95
-0.388988 0.0909868 0.247716 134 198 95
-0.389148 0.0926329 0.247654 133 200 96
-0.389309 0.0942835 0.247591 131 198 96
-0.38947 0.0959387 0.247528 129 197 96
-0.389631 0.0975984 0.247465 138 205 100
-0.389318 0.0990894 0.247508 153 218 111
-0.389004 0.10058 0.247551 145 208 105
-0.389165 0.102249 0.247488 141 200 101
-0.381771 0.00414406 0.249328 69 78 48
-0.378899 0.00951473 0.249871 65 94 48
-0.377764 0.0108039 0.2501 72 104 54
-0.376635 0.0120863 0.250328 86 126 61
-0.375929 0.0134096 0.250461 109 161 77
-0.375224 0.0147294 0.250595 132 192 95
-0.374936 0.0160967 0.250634 143 208 105
-0.374649 0.0174639 0.250674 155 222 111
-0.374776 0.0188857 0.25062 159 226 115
-0.374488 0.0202545 0.25066 142 206 104
-0.374615 0.0216815 0.250607 128 188 89
-0.374743 0.0231122 0.250553 126 185 87
-0.374872 0.0245464 0.250499 124 184 88
-0.375 0.0259843 0.250445 121 182 88
-0.375129 0.0274259 0.250391 121 182 88
-0.375258 0.0288711 0.250336 123 181 87
-0.374549 0.0301799 0.250471 122 181 86
-0.373842 0.0314853 0.250605 120 181 85
-0.373553 0.0328604 0.250644 121 181 86
-0.373263 0.0342353 0.250684 122 181 87
-0.373807 0.035764 0.250536 123 182 87
-0.374354 0.0373006 0.250388 126 182 88
-0.375326 0.0389269 0.250143 125 185 88
-0.377857 0.0437935 0.249495 125 183 87
-0.377133 0.0451042 0.249632 124 183 88
-0.376838 0.0465038 0.249673 124 185 88
-0.376972 0.0479978 0.249617 125 186 88
-0.376677 0.0493991 0.249657 125 186 87
-0.388706 0.0705666 0.246611 131 193 94
-0.387932 0.0719021 0.246759 133 194 95
-0.388088 0.0735025 0.246696 134 196 95
-0.387779 0.0749703 0.246739 134 198 95
-0.387471 0.076438 0.246781 134 198 94
-0.387162 0.0779055 0.246824 135 199 95
-0.386853 0.079373 0.246866 135 201 95
-0.386544 0.0808404 0.246909 136 201 97
-0.386699 0.0824548 0.246846 136 202 98
-0.386389 0.083924 0.246889 137 202 98
-0.38608 0.0853931 0.246931 139 203 97
-0.386234 0.0870158 0.246868 139 204 98
-0.386389 0.0886429 0.246805 138 206 101
-0.387011 0.0904336 0.246635 138 206 102
-0.388107 0.0923967 0.246357 137 204 100
-0.388266 0.0940448 0.246293 134 202 97
-0.388425 0.0956974 0.246228 133 202 96
-0.388585 0.0973546 0.246163 144 211 104
-0.388271 0.0988436 0.246206 151 217 112
-0.388431 0.100507 0.246141 146 206 103
-0.388117 0.101998 0.246185 139 196 102
-0.380949 0.00545509 0.24806 71 74 49
-0.379087 0.00810303 0.248433 65 90 47
-0.378796 0.00948343 0.248473 70 95 53
-0.378082 0.010819 0.24861 77 103 57
-0.376949 0.0121048 0.248842 81 114 57
-0.376241 0.0134317 0.248978 95 141 66
-0.375534 0.014755 0.249113 120 177 86
-0.374829 0.0160747 0.249248 138 202 101
-0.374541 0.0174438 0.249288 147 216 107
-0.374668 0.0188676 0.249233 159 228 116
-0.374796 0.0202949 0.249177 156 224 116
-0.374507 0.0216672 0.249217 139 202 100
-0.374635 0.0230998 0.249162 133 193 91
-0.374763 0.0245361 0.249106 131 191 91
-0.374892 0.0259759 0.24905 129 190 92
-0.375021 0.0274194 0.248994 128 190 91
-0.374731 0.0287985 0.249034 128 188 92
-0.37444 0.0301774 0.249074 128 190 90
-0.373732 0.0314846 0.24921 128 189 90
-0.373026 0.0327883 0.249346 127 188 91
-0.372737 0.0341634 0.249386 129 189 91
-0.372447 0.0355383 0.249426 130 189 92
-0.372989 0.0370705 0.249275 130 189 90
-0.373953 0.0386917 0.249026 131 191 91
-0.374925 0.0403256 0.248776 130 191 93
-0.377186 0.0422321 0.248229 130 193 94
-0.376891 0.043632 0.248269 133 193 92
-0.376597 0.0450318 0.24831 132 193 92
-0.376302 0.0464315 0.248351 131 193 92
-0.376007 0.0478311 0.248392 133 192 91
-0.375713 0.0492306 0.248432 131 194 90
-0.376274 0.0508267 0.248276 131 197 93
-0.376838 0.0524311 0.248118 131 197 93
-0.379563 0.0590449 0.247378 135 195 95
-0.38737 0.0718283 0.245374 138 202 99
-0.387061 0.0732942 0.245416 138 204 98
-0.386753 0.0747601 0.245459 138 205 98
-0.385982 0.0760878 0.245609 138 204 98
-0.386136 0.0776916 0.245544 138 204 97
-0.385827 0.0791571 0.245587 139 204 97
-0.385519 0.0806226 0.245629 139 206 99
-0.385672 0.0822346 0.245565 139 207 100
-0.385825 0.083851 0.2455 140 206 99
-0.385516 0.0853202 0.245543 142 207 100
-0.38567 0.0869429 0.245478 141 209 101
-0.385824 0.0885701 0.245412 139 209 102
-0.385978 0.0902017 0.245347 139 207 101
-0.3866 0.0919992 0.245173 140 206 101
-0.386756 0.0936423 0.245107 138 204 99
-0.387383 0.0954569 0.244932 139 206 98
-0.38707 0.0969419 0.244975 150 215 106
-0.387228 0.0985985 0.244908 150 217 110
-0.387386 0.10026 0.244842 145 207 101
-0.387544 0.101926 0.244775 138 188 100
-0.379701 0.00672672 0.246892 67 75 52
-0.378984 0.00806972 0.247031 68 87 52
-0.378268 0.00940912 0.24717 73 99 58
-0.377978 0.0107895 0.24721 78 102 61
-0.377265 0.0121234 0.247349 78 105 59
-0.376554 0.0134538 0.247487 85 122 60
-0.375427 0.0147311 0.247722 106 157 74
-0.374721 0.0160527 0.247859 130 190 93
-0.374432 0.0174237 0.247899 143 209 103
-0.37456 0.0188494 0.247842 154 221 111
-0.374688 0.0202786 0.247784 162 232 119
-0.374398 0.0216529 0.247824 154 223 113
-0.374526 0.0230874 0.247767 141 207 100
-0.374655 0.0245257 0.247709 136 201 96
-0.374365 0.0259032 0.24775 136 200 97
-0.374493 0.0273467 0.247692 137 200 97
-0.374203 0.0287259 0.247732 135 199 96
-0.373912 0.0301049 0.247772 134 200 95
-0.373622 0.0314838 0.247812 136 198 95
-0.372915 0.0327894 0.24795 134 198 96
-0.372626 0.0341663 0.24799 134 198 96
-0.372336 0.0355432 0.24803 136 198 97
-0.372046 0.0369199 0.24807 135 197 93
-0.373423 0.0386196 0.247719 137 198 95
-0.373972 0.0401698 0.247563 136 198 98
-0.376222 0.0420727 0.247007 136 199 96
-0.376355 0.0435595 0.246947 138 200 96
-0.37606 0.0449594 0.246988 137 200 96
-0.375766 0.0463592 0.247029 137 200 97
-0.375471 0.047759 0.247069 138 200 96
-0.375177 0.0491586 0.24711 136 202 94
-0.375308 0.0506562 0.24705 138 203 96
-0.375869 0.0522582 0.24689 138 203 98
-0.376002 0.0537657 0.24683 138 202 96
-0.376999 0.0554874 0.246566 138 202 96
-0.377135 0.0570071 0.246506 138 203 98
-0.376837 0.0584211 0.246547 137 202 98
-0.386345 0.0716225 0.244097 141 206 100
-0.386037 0.0730866 0.24414 141 207 101
-0.385729 0.0745505 0.244182 141 207 101
-0.38542 0.0760144 0.244225 141 207 99
-0.385112 0.0774782 0.244267 141 208 98
-0.384804 0.0789418 0.24431 141 208 98
-0.384956 0.0805495 0.244244 141 209 101
-0.385108 0.0821615 0.244177 142 209 101
-0.3848 0.083629 0.24422 142 207 99
-0.384952 0.0852473 0.244153 142 208 99
-0.385105 0.08687 0.244087 142 209 102
-0.385258 0.0884972 0.24402 141 209 103
-0.385412 0.0901288 0.243952 141 210 102
-0.386032 0.0919263 0.243774 140 210 104
-0.38572 0.0934054 0.243817 138 209 104
-0.385409 0.0948845 0.243861 145 214 105
-0.386499 0.0968691 0.24357 155 222 112
-0.386187 0.0983542 0.243614 146 213 106
-0.386343 0.100013 0.243545 143 206 104
-0.379306 0.00807751 0.245524 68 79 55
-0.378164 0.00937761 0.245766 71 91 57
-0.37745 0.0107153 0.245907 75 99 59
-0.376738 0.0120495 0.246047 77 102 59
-0.376027 0.01338 0.246187 80 111 57
-0.374901 0.0146576 0.246426 92 136 65
-0.374612 0.0160306 0.246466 116 171 83
-0.374324 0.0174035 0.246506 136 199 98
-0.374451 0.0188311 0.246447 147 213 106
-0.374162 0.0202055 0.246487 158 227 116
-0.374289 0.0216385 0.246428 164 234 120
-0.374 0.0230145 0.246468 153 223 111
-0.374127 0.0244528 0.246408 144 210 102
-0.373837 0.0258304 0.246449 141 208 101
-0.373965 0.027274 0.246389 141 207 101
-0.373675 0.0286532 0.246429 140 206 100
-0.373802 0.0301022 0.24637 139 206 99
-0.373512 0.031483 0.24641 141 205 99
-0.372804 0.0327904 0.24655 140 205 99
-0.372514 0.0341693 0.24659 140 205 99
-0.371808 0.0354712 0.246729 140 205 98
-0.371934 0.0369267 0.24667 140 205 97
-0.372059 0.0383858 0.246611 141 204 97
-0.372602 0.0399315 0.246452 142 205 99
-0.373568 0.0415704 0.246192 141 206 98
-0.375392 0.0433985 0.245726 141 205 98
-0.375098 0.0447967 0.245767 141 205 98
-0.375229 0.0462869 0.245706 141 205 100
-0.374935 0.0476868 0.245747 139 206 100
-0.375066 0.0491827 0.245685 141 206 100
-0.375626 0.0507809 0.245521 142 206 100
-0.37533 0.0521861 0.245562 140 207 101
-0.375035 0.0535911 0.245603 140 207 100
-0.375167 0.0551004 0.245541 140 208 100
-0.3753 0.0566136 0.24548 140 208 99
-0.375433 0.0581308 0.245418 138 206 98
-0.37643 0.0598745 0.245148 139 208 100
-0.383197 0.0677355 0.243398 141 208 102
-0.385171 0.0698259 0.242892 141 209 102
-0.384863 0.0712862 0.242934 141 209 102
-0.385015 0.0728794 0.242866 141 209 102
-0.384707 0.0743415 0.242909 142 209 102
-0.384399 0.0758035 0.242952 142 210 100
-0.384551 0.0774049 0.242884 142 210 100
-0.384242 0.0788687 0.242926 142 210 100
-0.384394 0.0804764 0.242858 142 210 100
-0.384085 0.081942 0.242901 142 209 101
-0.384236 0.083556 0.242833 142 208 102
-0.384849 0.0853257 0.242652 142 209 101
-0.385002 0.086951 0.242584 142 211 102
-0.385156 0.0885807 0.242514 141 212 104
-0.384845 0.090056 0.242557 147 211 104
-0.385463 0.0918534 0.242376 148 208 104
-0.385152 0.0933327 0.242419 142 212 104
-0.384841 0.0948118 0.242462 148 219 111
-0.38453 0.0962909 0.242505 152 219 114
-0.385149 0.0981104 0.242322 145 208 103
-0.385304 0.0997665 0.242252 137 199 101
-0.378484 0.00938892 0.244256 70 85 52
-0.377344 0.0106856 0.244502 73 98 57
-0.376631 0.0120217 0.244644 78 102 61
-0.37592 0.0133541 0.244786 80 105 61
-0.375211 0.014683 0.244927 85 119 63
-0.374504 0.0160084 0.245068 101 149 73
-0.374214 0.0173832 0.245109 125 183 90
-0.374342 0.0188128 0.245048 140 205 101
-0.374052 0.0201892 0.245088 150 217 107
-0.373763 0.0215654 0.245128 163 233 116
-0.37389 0.023002 0.245067 166 237 121
-0.3736 0.0243799 0.245107 153 221 110
-0.373727 0.0258218 0.245046 145 213 104
-0.373437 0.0272013 0.245087 143 211 103
-0.373564 0.0286485 0.245025 143 211 102
-0.373274 0.0300296 0.245066 143 210 102
-0.372983 0.0314106 0.245106 143 208 101
-0.372692 0.0327914 0.245146 143 208 101
-0.371986 0.0340971 0.245288 143 209 101
-0.371696 0.035476 0.245328 142 209 99
-0.371821 0.0369335 0.245267 143 208 99
-0.37153 0.0383139 0.245307 144 208 99
-0.371655 0.0397768 0.245246 145 209 99
-0.371781 0.0412434 0.245185 144 210 101
-0.373585 0.0430623 0.244715 142 209 100
-0.374138 0.0446343 0.244549 142 209 101
-0.374268 0.0461226 0.244487 142 208 102
-0.374398 0.0476146 0.244424 140 209 102
-0.374529 0.0491105 0.244361 142 208 102
-0.375087 0.0507087 0.244193 144 210 102
-0.374792 0.052114 0.244234 141 209 101
-0.374496 0.0535191 0.244275 141 210 101
-0.373774 0.0548202 0.244421 141 210 100
-0.373479 0.0562233 0.244462 141 209 100
-0.373609 0.057734 0.244398 140 209 100
-0.374595 0.0594693 0.244126 141 210 100
-0.375158 0.0611051 0.243956 143 210 100
-0.381001 0.0641597 0.242494 143 211 103
-0.382043 0.0659661 0.242206 143 210 102
-0.382189 0.0675373 0.242138 143 209 103
-0.384153 0.0696236 0.241624 143 212 105
-0.383846 0.071082 0.241666 142 211 103
-0.383539 0.0725402 0.241709 142 211 102
-0.383689 0.0741331 0.241639 143 210 102
-0.383381 0.0755932 0.241682 144 211 100
-0.383531 0.0771922 0.241612 143 211 101
-0.38368 0.0787956 0.241542 143 211 100
-0.383831 0.0804033 0.241472 143 210 100
-0.383522 0.0818691 0.241515 143 210 102
-0.384133 0.0836318 0.241332 142 209 103
-0.384747 0.0854044 0.241147 141 211 102
-0.384436 0.086878 0.24119 142 213 102
-0.384589 0.0885077 0.241119 141 214 104
-0.384742 0.0901419 0.241048 149 218 110
-0.384431 0.0916193 0.241091 151 217 110
-0.384584 0.0932599 0.24102 152 216 107
-0.384273 0.0947392 0.241063 160 222 113
-0.383961 0.0962183 0.241106 150 216 112
-0.38365 0.0976974 0.241149 143 208 103
-0.379234 0.00944347 0.242633 69 76 49
-0.377239 0.0106558 0.243092 70 91 54
-0.376525 0.0119938 0.243237 74 100 59
-0.375813 0.0133282 0.243381 76 102 63
-0.375103 0.0146589 0.243524 79 108 62
-0.374395 0.0159862 0.243667 88 127 63
-0.374105 0.0173629 0.243708 111 162 79
-0.373815 0.0187395 0.243748 133 192 94
-0.373943 0.0201727 0.243685 143 207 102
-0.373653 0.0215509 0.243725 156 224 111
-0.37378 0.0229894 0.243663 169 238 121
-0.373489 0.0243692 0.243703 164 233 119
-0.373199 0.0257489 0.243743 151 220 109
-0.372909 0.0271285 0.243784 145 215 103
-0.373035 0.0285758 0.243721 144 213 103
-0.372745 0.029957 0.243761 144 212 103
-0.372871 0.0314096 0.243698 144 212 102
-0.37258 0.0327924 0.243739 143 211 101
-0.371873 0.0341 0.243882 143 211 101
-0.371582 0.0354807 0.243922 143 210 101
-0.371292 0.0368614 0.243963 143 209 101
-0.371417 0.0383227 0.2439 145 211 101
-0.371126 0.039705 0.24394 145 210 101
-0.370835 0.0410872 0.243981 145 211 101
-0.372211 0.0428156 0.243607 142 211 102
-0.372759 0.044383 0.243439 144 210 102
-0.373732 0.0460503 0.243166 144 210 102
-0.374287 0.0476365 0.242995 143 209 103
-0.374418 0.0491346 0.24293 143 210 102
-0.374549 0.0506365 0.242865 143 211 104
-0.374253 0.0520419 0.242906 143 210 102
-0.373957 0.0534471 0.242947 143 212 102
-0.373236 0.0547484 0.243094 142 212 100
-0.372941 0.0561516 0.243135 142 211 101
-0.37307 0.0576624 0.24307 142 211 102
-0.373627 0.0592871 0.242899 143 212 102
-0.374615 0.0610333 0.24262 144 213 101
-0.379558 0.0638486 0.241353 146 212 101
-0.383296 0.0663847 0.240387 144 212 102
-0.381633 0.067464 0.240768 144 212 104
-0.383138 0.0694218 0.240358 144 212 105
-0.382831 0.0708783 0.240401 144 210 104
-0.382979 0.0724669 0.24033 144 211 102
-0.382673 0.0739252 0.240372 145 210 102
-0.382366 0.0753834 0.240415 146 211 102
-0.382514 0.0769801 0.240344 145 211 103
-0.383118 0.0787224 0.240158 143 210 103
-0.38281 0.0801864 0.240201 142 210 102
-0.38296 0.0817961 0.240129 143 211 102
-0.383568 0.0835588 0.239942 143 211 103
-0.383719 0.0851797 0.239869 143 212 103
-0.38387 0.086805 0.239796 143 213 102
-0.384022 0.0884347 0.239724 147 213 105
-0.384174 0.0900689 0.23965 149 217 114
-0.383863 0.0915465 0.239694 147 221 113
-0.383552 0.0930239 0.239737 156 229 114
-0.383242 0.0945012 0.23978 161 230 119
-0.382931 0.0959785 0.239823 148 212 107
-0.383082 0.097625 0.23975 143 204 103
-0.377132 0.010626 0.241679 70 79 50
-0.376418 0.0119658 0.241825 69 92 53
-0.375285 0.0132542 0.242077 70 97 56
-0.374575 0.0145852 0.242222 71 101 55
-0.373868 0.0159126 0.242367 78 112 57
-0.373578 0.0172894 0.242407 94 137 66
-0.373705 0.018721 0.242343 119 172 84
-0.373415 0.0200994 0.242383 138 198 97
