ply
format ascii 1.0
element vertex 1250
property float x
property float y
property float z
property uchar diffuse_red
property uchar diffuse_green
property uchar diffuse_blue
end_header
-0.386206 0.129507 0.366326 76 131 133
-0.384754 0.130222 0.366455 116 168 165
-0.382903 0.130704 0.366539 155 183 175
-0.381884 0.131635 0.36671 133 141 125
-0.381276 0.132789 0.366923 111 102 92
-0.416314 0.0944217 0.358325 89 84 78
-0.415605 0.095725 0.358569 93 94 89
-0.414898 0.0970248 0.358811 99 97 89
-0.414192 0.0983209 0.359053 95 95 93
-0.413975 0.0998144 0.359332 96 95 91
-0.413272 0.101105 0.359573 97 95 90
-0.412571 0.102392 0.359813 99 96 92
-0.411872 0.103676 0.360053 97 98 93
-0.409269 0.104131 0.36014 94 98 94
-0.408108 0.105196 0.360339 92 100 96
-0.407894 0.106669 0.360614 92 101 98
-0.40674 0.107724 0.360811 95 99 100
-0.407935 0.109828 0.361202 96 99 101
-0.406312 0.110663 0.361359 93 96 103
-0.405631 0.111918 0.361593 90 93 108
-0.404953 0.113169 0.361827 85 89 110
-0.403814 0.114201 0.36202 84 84 111
-0.403601 0.115663 0.362293 85 84 108
-0.403388 0.117125 0.362565 85 90 100
-0.403175 0.118587 0.362838 86 89 86
-0.388711 0.126666 0.364355 78 77 68
-0.387661 0.127621 0.364533 50 64 66
-0.386616 0.128572 0.364711 34 65 73
-0.385993 0.129746 0.364931 41 87 96
-0.384128 0.130232 0.365023 72 126 131
-0.382283 0.130713 0.365114 120 176 170
-0.381674 0.131871 0.36533 141 179 170
-0.381066 0.133025 0.365545 120 132 124
-0.380459 0.134176 0.36576 101 94 88
-0.416796 0.0933666 0.356581 81 83 84
-0.416578 0.0948683 0.356861 80 103 109
-0.416359 0.0963701 0.357141 88 122 131
-0.415648 0.0976728 0.357386 92 127 136
-0.414452 0.0987715 0.357596 88 127 135
-0.414234 0.100267 0.357875 85 129 136
-0.41353 0.101559 0.358118 83 132 137
-0.412828 0.102848 0.358361 82 132 139
-0.412128 0.104132 0.358603 80 132 141
-0.409044 0.10438 0.358664 78 134 143
-0.408356 0.10565 0.358904 76 135 145
-0.4072 0.106709 0.359106 73 137 149
-0.406517 0.107972 0.359344 72 140 152
-0.407711 0.110077 0.359729 70 142 155
-0.406089 0.110911 0.359892 68 145 160
-0.406342 0.112596 0.360203 61 141 162
-0.405194 0.113633 0.360401 59 144 166
-0.404516 0.114883 0.360637 66 158 164
-0.404303 0.116349 0.36091 79 163 156
-0.404089 0.117815 0.361183 95 157 138
-0.403875 0.119281 0.361457 109 145 116
-0.4032 0.120522 0.36169 119 129 110
-0.402526 0.121759 0.361923 103 106 115
-0.401854 0.122993 0.362156 89 92 106
-0.401184 0.124223 0.362387 95 93 85
-0.399157 0.124759 0.362497 90 86 78
-0.397599 0.125519 0.362646 86 80 75
-0.388292 0.128314 0.363212 62 71 67
-0.386822 0.129038 0.363354 35 58 66
-0.38578 0.129984 0.363534 24 60 74
-0.383917 0.130469 0.363634 35 83 94
-0.382073 0.13095 0.363732 70 128 130
-0.381463 0.132107 0.36395 110 169 166
-0.380451 0.133032 0.364127 108 150 149
-0.380249 0.134412 0.364384 103 114 109
-0.379645 0.13556 0.3646 97 86 78
-0.417062 0.0938122 0.355112 72 85 95
-0.416349 0.0951203 0.35536 55 107 123
-0.41613 0.0966223 0.35564 50 119 140
-0.415912 0.0981243 0.35592 53 125 140
-0.415202 0.0994247 0.356167 51 124 135
-0.414983 0.100925 0.356447 50 120 131
-0.414276 0.10222 0.356693 49 119 128
-0.413085 0.103305 0.356904 50 116 124
-0.411901 0.104383 0.357115 50 112 120
-0.409294 0.104835 0.357222 49 110 117
-0.408132 0.105899 0.35743 48 107 114
-0.406508 0.10675 0.357602 46 102 108
-0.406294 0.108219 0.357876 43 101 106
-0.407958 0.11054 0.35829 43 99 105
-0.406801 0.111587 0.358495 40 96 104
-0.406586 0.113061 0.358769 37 93 100
-0.405903 0.114317 0.359008 40 90 96
-0.405222 0.115569 0.359246 44 86 91
-0.405008 0.117039 0.35952 51 83 91
-0.404794 0.11851 0.359794 54 87 102
-0.404579 0.11998 0.360068 56 104 126
-0.403901 0.121223 0.360304 62 132 155
-0.403224 0.122463 0.360539 71 158 162
-0.40255 0.123699 0.360774 101 148 145
-0.401877 0.124932 0.361009 132 141 123
-0.401206 0.126162 0.361242 110 110 118
-0.400082 0.127154 0.361436 98 96 99
-0.398064 0.127674 0.361551 95 90 79
-0.395625 0.127957 0.361626 89 81 75
-0.393218 0.128235 0.3617 86 85 73
-0.388926 0.12901 0.361883 68 72 70
-0.387872 0.129963 0.362069 38 58 66
-0.386404 0.130681 0.362215 19 52 64
-0.384532 0.131164 0.362322 18 61 71
-0.38227 0.131413 0.362389 33 85 93
-0.381253 0.132343 0.36257 64 129 130
-0.380241 0.133267 0.36275 90 151 147
-0.380039 0.134648 0.363008 98 127 121
-0.379435 0.135796 0.363226 97 97 91
-0.417327 0.0942592 0.353638 76 77 71
-0.416614 0.0955686 0.353889 57 76 74
-0.416395 0.0970729 0.354169 44 76 76
-0.415683 0.0983766 0.354419 44 77 75
-0.415464 0.0998789 0.354699 44 77 75
-0.415245 0.101381 0.354979 48 76 73
-0.414537 0.102677 0.355227 49 74 73
-0.41383 0.10397 0.355475 49 74 72
-0.412157 0.104842 0.355658 50 75 72
-0.409069 0.105084 0.355744 53 75 72
-0.40838 0.106356 0.355988 55 73 72
-0.406285 0.106998 0.356135 58 73 72
-0.40607 0.108467 0.356408 61 73 72
-0.407302 0.113746 0.357365 52 70 74
-0.406147 0.114785 0.357572 52 72 73
-0.405932 0.116259 0.357846 45 71 74
-0.405717 0.117733 0.358121 34 72 74
-0.40457 0.118759 0.358326 26 73 75
-0.404356 0.120229 0.3586 25 74 78
-0.404141 0.1217 0.358873 27 76 82
-0.403464 0.122941 0.359111 33 78 90
-0.403249 0.124409 0.359385 49 102 120
-0.402574 0.125645 0.359622 70 155 162
-0.4019 0.126877 0.359858 98 168 168
-0.400771 0.127871 0.360056 131 162 142
-0.399648 0.128859 0.360254 132 131 121
-0.397632 0.12937 0.360375 108 95 107
-0.395196 0.129641 0.360458 94 94 87
-0.393228 0.130142 0.360576 92 81 75
-0.389563 0.12971 0.360546 68 70 70
-0.388505 0.130664 0.360736 34 59 64
-0.387452 0.131612 0.360925 16 53 61
-0.385567 0.132092 0.361039 13 53 61
-0.382468 0.131878 0.361041 18 62 71
-0.381042 0.132579 0.36119 31 90 97
-0.380435 0.133733 0.361411 71 133 129
-0.379829 0.134883 0.361631 87 130 128
-0.379225 0.136031 0.361851 92 105 99
-0.403918 0.121949 0.357405 43 68 69
-0.403703 0.12342 0.357679 23 70 70
-0.403026 0.124659 0.357919 20 66 72
-0.402812 0.126128 0.358192 27 71 79
-0.402137 0.127361 0.358431 46 98 111
-0.401464 0.128591 0.358669 76 152 152
-0.400336 0.12958 0.35887 117 171 167
-0.399214 0.130564 0.359071 140 158 157
-0.396307 0.130592 0.359127 118 132 129
-0.394767 0.131325 0.359289 100 93 83
-0.392802 0.131817 0.359414 61 68 70
-0.389141 0.131368 0.359397 27 57 62
-0.38766 0.132085 0.359554 14 53 59
-0.385772 0.132563 0.359676 13 51 59
-0.382257 0.132115 0.359656 15 53 63
-0.381238 0.133044 0.359844 18 66 78
-0.380225 0.133968 0.360032 52 108 108
-0.379619 0.135119 0.360254 72 122 122
-0.379015 0.136267 0.360475 84 101 96
-0.403479 0.123669 0.356211 65 69 65
-0.403265 0.12514 0.356485 51 63 66
-0.402588 0.126377 0.356726 24 61 68
-0.402374 0.127846 0.356999 17 66 71
-0.4017 0.129078 0.357239 25 79 88
-0.401027 0.130306 0.357479 58 121 134
-0.3999 0.13129 0.357684 97 167 180
-0.397428 0.13155 0.357786 117 174 180
-0.395433 0.132045 0.35792 104 124 108
-0.393459 0.132535 0.358053 53 65 70
-0.391506 0.133019 0.358184 23 55 60
-0.388293 0.132792 0.358213 13 52 58
-0.386397 0.133268 0.358342 12 50 59
-0.383691 0.133275 0.358402 13 51 62
-0.381434 0.133511 0.358495 14 58 69
-0.380419 0.134435 0.358686 32 88 90
-0.379409 0.135355 0.358877 59 110 110
-0.379208 0.136736 0.359134 79 93 91
-0.402827 0.126861 0.35529 66 67 66
-0.402151 0.128096 0.355532 39 65 63
-0.401936 0.129565 0.355806 21 60 67
-0.401262 0.130795 0.356048 21 66 77
-0.399678 0.131539 0.356225 39 83 96
-0.398558 0.132517 0.356433 59 99 117
-0.396102 0.132769 0.356543 48 93 110
-0.394119 0.133256 0.356683 22 56 63
-0.392157 0.133737 0.356822 13 50 55
-0.390648 0.134452 0.356992 10 51 54
-0.386603 0.133743 0.356969 10 52 56
-0.384723 0.134212 0.357103 11 53 59
-0.382451 0.134443 0.357205 11 59 63
-0.380614 0.134903 0.357337 15 73 78
-0.380007 0.136056 0.357563 55 100 100
-0.378998 0.136972 0.357756 77 88 86
-0.402388 0.128583 0.354094 72 73 64
-0.401713 0.129815 0.354339 56 64 62
-0.401498 0.131285 0.354612 34 57 61
-0.400367 0.13227 0.354826 18 56 62
-0.399242 0.133249 0.355038 15 56 61
-0.396775 0.133496 0.355158 14 53 56
-0.394783 0.133981 0.355306 9 51 58
-0.39325 0.1347 0.355484 11 51 55
-0.391296 0.135174 0.355629 10 50 53
-0.387656 0.13469 0.355652 10 50 54
-0.384926 0.134686 0.355734 11 53 56
-0.383889 0.135618 0.355935 12 59 59
-0.382035 0.136075 0.356074 15 69 72
-0.380201 0.136527 0.356212 57 90 91
-0.379594 0.137677 0.356439 77 87 81
-0.40195 0.130305 0.352899 75 74 66
-0.401735 0.131777 0.353173 61 67 62
-0.40106 0.133005 0.353418 37 54 60
-0.399475 0.133741 0.353607 17 46 58
-0.397902 0.134471 0.353793 10 49 55
-0.39545 0.13471 0.353921 10 51 56
-0.394352 0.135671 0.354134 10 49 53
-0.391947 0.1359 0.354258 11 50 52
-0.388291 0.135407 0.354296 12 49 53
-0.385968 0.135634 0.354417 13 51 54
-0.384507 0.13633 0.354594 13 58 59
-0.383472 0.137258 0.354797 23 74 70
-0.38203 0.137944 0.354971 61 83 81
-0.427904 0.0989059 0.344702 92 79 82
-0.427151 0.100254 0.344974 88 82 100
-0.425877 0.101386 0.345228 86 86 110
-0.42513 0.102724 0.345499 89 88 109
-0.423351 0.103631 0.345731 89 91 110
-0.4221 0.104744 0.345981 89 99 112
-0.421364 0.106066 0.346248 93 103 108
-0.420124 0.107167 0.346495 94 106 108
-0.419394 0.10848 0.34676 95 111 110
-0.420244 0.113748 0.347677 90 116 118
-0.419513 0.115055 0.347942 88 116 118
-0.419796 0.116821 0.348249 85 116 120
-0.42008 0.118592 0.348558 82 116 124
-0.419856 0.120131 0.348844 79 116 129
-0.419631 0.12167 0.34913 75 113 132
-0.420426 0.123693 0.349464 76 117 133
-0.419691 0.124993 0.349727 86 109 118
-0.418958 0.126289 0.34999 99 114 97
-0.417219 0.127088 0.350202 97 104 88
-0.414997 0.127636 0.350387 88 88 85
-0.411823 0.12769 0.35052 82 79 78
-0.409663 0.128227 0.350701 82 76 69
-0.402435 0.132513 0.351755 74 76 67
-0.401296 0.133499 0.351977 50 68 64
-0.400622 0.134725 0.352224 23 55 59
-0.398584 0.135209 0.352391 11 48 54
-0.396121 0.135443 0.352529 10 52 52
-0.395018 0.136405 0.352745 9 49 54
-0.392602 0.136629 0.35288 8 51 57
-0.388929 0.136128 0.352932 9 50 58
-0.387019 0.136589 0.353089 11 52 61
-0.385548 0.137285 0.353272 20 61 66
-0.384505 0.138214 0.35348 41 78 72
-0.383468 0.139139 0.353687 69 80 70
-0.427141 0.0989587 0.343129 76 102 105
-0.42639 0.100304 0.343404 62 127 147
-0.426164 0.101858 0.343693 57 138 169
-0.424894 0.102984 0.34395 61 149 171
-0.423633 0.104104 0.344205 62 157 172
-0.421866 0.105003 0.344443 61 159 173
-0.421131 0.106324 0.344712 62 160 174
-0.41888 0.106992 0.344929 61 155 172
-0.418658 0.108519 0.345214 60 153 169
-0.418939 0.110268 0.345516 62 150 166
-0.418212 0.111575 0.345782 60 147 166
-0.419503 0.11378 0.346123 59 145 162
-0.418269 0.114858 0.34637 57 144 159
-0.419056 0.116849 0.346694 56 144 156
-0.418327 0.118151 0.346959 54 144 153
-0.419622 0.120391 0.347306 53 141 151
-0.419397 0.12193 0.347592 54 136 149
-0.420191 0.123954 0.347922 66 143 142
-0.419966 0.125498 0.348209 85 130 127
-0.419232 0.126796 0.348474 97 136 122
-0.417993 0.127842 0.348715 95 136 128
-0.416261 0.128634 0.348932 89 125 128
-0.414543 0.129419 0.349148 94 114 110
-0.41186 0.129704 0.349315 97 100 92
-0.410181 0.130476 0.349526 85 81 85
-0.408996 0.131488 0.349759 81 74 75
-0.407341 0.132247 0.349967 79 75 70
-0.401533 0.133995 0.350531 65 71 66
-0.399941 0.134729 0.350732 42 57 60
-0.397909 0.135213 0.350906 19 44 53
-0.3959 0.135691 0.351079 10 50 52
-0.393032 0.135678 0.3512 13 50 52
-0.390642 0.135906 0.351344 10 49 56
-0.388285 0.136131 0.351486 9 51 57
-0.386803 0.136831 0.351676 8 52 63
-0.385333 0.137525 0.351864 20 60 72
-0.384709 0.138695 0.352101 53 78 76
-0.427431 0.0994286 0.341586 69 81 81
-0.426678 0.100776 0.341863 49 83 90
-0.425405 0.101907 0.342126 43 86 92
-0.42414 0.103031 0.342387 42 86 88
-0.421856 0.103723 0.342619 38 83 87
-0.421632 0.105261 0.342905 36 81 84
-0.418871 0.105722 0.343118 39 81 84
-0.416647 0.106389 0.343343 38 79 79
-0.416425 0.107908 0.343626 36 75 77
-0.415213 0.108992 0.343877 37 77 77
-0.41798 0.111832 0.344255 38 77 78
-0.41826 0.113586 0.344556 39 75 77
-0.418037 0.115116 0.34484 39 74 77
-0.417814 0.116646 0.345125 40 74 76
-0.418094 0.118409 0.345427 40 75 76
-0.419388 0.120651 0.345768 41 75 77
-0.420693 0.122913 0.346111 43 74 77
-0.420467 0.124459 0.346398 43 72 80
-0.419222 0.125515 0.346647 46 73 88
-0.41849 0.12681 0.346913 41 94 109
-0.417255 0.127855 0.347159 47 118 127
-0.415528 0.128646 0.347382 63 128 134
-0.414311 0.129677 0.347625 85 137 134
-0.41163 0.129961 0.347802 94 138 136
-0.410436 0.130979 0.348041 95 125 128
-0.409249 0.131991 0.348279 101 107 100
-0.408069 0.132998 0.348515 84 80 92
-0.40642 0.13375 0.348728 86 79 75
-0.402697 0.134987 0.349126 74 74 68
-0.401093 0.13572 0.349333 51 60 60
-0.399047 0.1362 0.349516 23 45 52
-0.397023 0.136675 0.349697 12 50 54
-0.393692 0.13641 0.349807 14 51 53
-0.391728 0.136876 0.349984 9 52 56
-0.390216 0.137581 0.350182 8 53 57
-0.387861 0.137795 0.350332 8 56 63
-0.386381 0.138489 0.350526 26 69 73
-0.385753 0.139662 0.350766 64 85 80
-0.428022 0.101674 0.340339 68 75 72
-0.426215 0.102593 0.340596 71 74 72
-0.425465 0.103934 0.340874 73 72 72
-0.422134 0.104195 0.341092 69 73 74
-0.421398 0.10552 0.341367 72 74 73
-0.419143 0.106193 0.341603 73 75 72
-0.416416 0.106645 0.341825 76 75 71
-0.41471 0.107517 0.342069 67 72 72
-0.413998 0.108814 0.342337 70 75 76
-0.416746 0.111645 0.3427 78 72 73
-0.418027 0.113844 0.343026 75 71 74
-0.417804 0.115374 0.343311 69 72 72
-0.417581 0.116905 0.343595 65 71 72
-0.418365 0.118902 0.343911 63 71 71
-0.419153 0.120911 0.344229 61 72 72
-0.420458 0.123174 0.344566 55 74 72
-0.420232 0.124721 0.344853 45 74 70
-0.418987 0.125776 0.345106 35 73 70
-0.418255 0.127071 0.345375 31 73 69
-0.417021 0.128115 0.345625 28 70 71
-0.415795 0.129153 0.345873 34 73 85
-0.414079 0.129936 0.346101 42 99 111
-0.412378 0.130713 0.346328 58 128 134
-0.411179 0.131732 0.346572 84 146 142
-0.409986 0.132745 0.346814 106 148 140
-0.4088 0.133752 0.347055 109 124 141
-0.407621 0.134754 0.347295 115 124 105
-0.405974 0.135499 0.347513 94 85 83
-0.403871 0.135987 0.347708 73 77 73
-0.402256 0.13672 0.347922 45 63 61
-0.400195 0.137196 0.348114 20 46 52
-0.397703 0.137419 0.348282 14 47 53
-0.393914 0.136901 0.348385 15 48 53
-0.392383 0.13761 0.348591 11 53 51
-0.391299 0.138559 0.348816 9 54 55
-0.389789 0.139257 0.349019 13 63 61
-0.387864 0.139704 0.349198 36 75 70
-0.417291 0.128623 0.344106 51 69 68
-0.415562 0.129412 0.344343 35 66 68
-0.414343 0.130443 0.344594 26 65 69
-0.412638 0.131219 0.344828 29 74 79
-0.411436 0.132238 0.345076 43 98 105
-0.410241 0.133252 0.345323 67 130 141
-0.409536 0.134511 0.345586 103 153 167
-0.408351 0.135514 0.345831 124 181 161
-0.407174 0.136511 0.346074 105 118 115
-0.405528 0.137249 0.346297 73 86 82
-0.402961 0.137475 0.346481 38 62 62
-0.40089 0.137948 0.346681 15 48 54
-0.398387 0.138167 0.346859 14 48 54
-0.394136 0.137393 0.346959 12 49 52
-0.393042 0.138347 0.34719 11 52 52
-0.391953 0.139297 0.34742 9 53 60
-0.390871 0.140242 0.347648 24 68 68
-0.389362 0.140933 0.347856 51 82 73
-0.41633 0.130171 0.342841 70 69 68
-0.414607 0.130953 0.343083 52 65 65
-0.413393 0.131978 0.343338 36 63 64
-0.411695 0.132747 0.343576 28 64 69
-0.410497 0.13376 0.343827 30 76 89
-0.40979 0.135021 0.344093 47 110 129
-0.408603 0.136024 0.344342 83 161 164
-0.407423 0.137021 0.34459 85 128 128
-0.406249 0.138013 0.344836 56 83 84
-0.405082 0.138999 0.345081 26 56 60
-0.401126 0.138452 0.345222 13 47 54
-0.399074 0.138919 0.345429 12 48 54
-0.396593 0.13913 0.345615 10 49 53
-0.393704 0.139089 0.345782 10 50 56
-0.392611 0.140039 0.346016 9 54 65
-0.391523 0.140985 0.346249 35 72 75
-0.413655 0.132489 0.341826 75 72 62
-0.412938 0.133763 0.342097 57 64 62
-0.411242 0.134524 0.342341 32 58 62
-0.410045 0.135532 0.342596 20 63 70
-0.408374 0.13628 0.342836 38 79 89
-0.407673 0.137533 0.343102 44 81 99
-0.406497 0.138525 0.343352 28 65 74
-0.405328 0.139511 0.343602 16 51 57
-0.401827 0.139211 0.343775 11 46 52
-0.399307 0.139422 0.343974 9 48 52
-0.397273 0.139882 0.344186 8 50 53
-0.395709 0.140588 0.344412 8 49 56
-0.393272 0.140786 0.344604 9 61 67
-0.39218 0.141732 0.344841 40 76 78
-0.440106 0.104598 0.333517 96 88 80
-0.439305 0.105989 0.333817 109 112 86
-0.438506 0.107376 0.334115 114 124 91
-0.439397 0.109454 0.334419 115 121 93
-0.416873 0.116407 0.33719 78 84 111
-0.416149 0.117707 0.337468 76 78 110
-0.416426 0.11947 0.337759 76 75 102
-0.417711 0.121713 0.338065 75 75 93
-0.419007 0.123977 0.338374 73 74 80
-0.418781 0.125522 0.338661 73 71 68
-0.418556 0.127067 0.338948 75 75 66
-0.418331 0.128612 0.339235 74 71 66
-0.418105 0.130157 0.339522 77 76 70
-0.417373 0.131449 0.3398 85 73 67
-0.41614 0.132482 0.340066 85 75 66
-0.414415 0.133255 0.34032 84 77 67
-0.4132 0.134276 0.340584 79 74 66
-0.4115 0.135036 0.340834 62 65 61
-0.410301 0.136045 0.341094 33 57 58
-0.408626 0.136792 0.34134 17 53 62
-0.407444 0.137789 0.341597 40 63 72
-0.406268 0.13878 0.341852 25 55 64
-0.4051 0.139766 0.342105 14 47 54
-0.401601 0.139464 0.342293 8 46 51
-0.39954 0.139927 0.342516 5 48 52
-0.397502 0.140384 0.342736 5 50 54
-0.396385 0.141343 0.342982 3 49 59
-0.395274 0.142296 0.343226 12 70 68
-0.393281 0.142736 0.34344 43 77 76
-0.44271 0.106006 0.331888 77 88 96
-0.441327 0.107175 0.332194 84 108 107
-0.440521 0.108569 0.332497 87 116 114
-0.441424 0.110663 0.332798 84 117 118
-0.415916 0.117965 0.335939 66 154 163
-0.416193 0.119728 0.336228 80 159 155
-0.417982 0.122213 0.336532 94 152 135
-0.418771 0.124238 0.336829 106 136 110
-0.420078 0.126523 0.337134 110 121 100
-0.419851 0.128075 0.337423 96 102 104
-0.419114 0.129375 0.337704 76 75 98
-0.418378 0.130672 0.337985 74 76 76
-0.417645 0.131965 0.338265 85 86 74
-0.416913 0.133254 0.338544 84 78 71
-0.41518 0.134026 0.338806 82 78 67
-0.413462 0.134791 0.339065 80 82 67
-0.411759 0.13555 0.339323 74 79 66
-0.41007 0.136303 0.339578 62 68 66
-0.408396 0.137049 0.339831 38 65 74
-0.407214 0.138045 0.340091 55 89 89
-0.40604 0.139036 0.340351 28 53 60
-0.404871 0.140021 0.340609 11 40 46
-0.401375 0.139717 0.340811 5 40 46
-0.399316 0.140178 0.341042 4 44 51
-0.397732 0.140888 0.341282 4 47 54
-0.397065 0.142102 0.341543 1 52 65
-0.395949 0.143056 0.341792 27 76 70
-0.394839 0.144005 0.342039 55 78 71
-0.442224 0.107911 0.330559 66 81 90
-0.441986 0.109542 0.330862 60 84 95
-0.415683 0.118223 0.33441 52 92 98
-0.41546 0.119753 0.334694 58 89 96
-0.417747 0.122473 0.334992 61 90 102
-0.420068 0.125234 0.335294 62 103 119
-0.420355 0.127034 0.335586 63 131 143
-0.420128 0.128588 0.335875 70 152 156
-0.419389 0.12989 0.336159 94 150 143
-0.418652 0.131188 0.336443 131 137 109
-0.417409 0.132227 0.33672 99 93 109
-0.416678 0.133516 0.337001 87 79 81
-0.414946 0.134287 0.33727 86 79 70
-0.413229 0.135051 0.337536 83 79 70
-0.411527 0.135809 0.3378 79 79 70
-0.409353 0.136305 0.338054 70 81 74
-0.408166 0.137306 0.338321 52 84 84
-0.406507 0.138045 0.338578 36 77 85
-0.404862 0.138778 0.338833 17 41 47
-0.4037 0.139761 0.339094 10 32 34
-0.400225 0.13946 0.339311 8 37 39
-0.399091 0.14043 0.339568 7 43 47
-0.397963 0.141394 0.339823 5 47 52
-0.397294 0.142609 0.340087 4 55 69
-0.396627 0.14382 0.34035 44 80 76
-0.395962 0.145029 0.340612 68 80 69
-0.419832 0.125496 0.333743 29 77 79
-0.420118 0.127297 0.334032 30 82 85
-0.419891 0.128852 0.334321 38 85 95
-0.419152 0.130153 0.334608 52 104 118
-0.417907 0.131196 0.334891 71 152 159
-0.416668 0.132234 0.335172 97 176 167
-0.41594 0.133521 0.335455 141 165 124
-0.414712 0.134547 0.335734 119 109 107
-0.412502 0.135055 0.336002 87 76 89
-0.409829 0.135301 0.336263 72 79 76
-0.408156 0.136052 0.33653 60 85 85
-0.406975 0.137051 0.3368 44 80 84
-0.405801 0.138045 0.337069 15 49 59
-0.404161 0.138777 0.33733 9 37 40
-0.401139 0.138738 0.33757 7 35 36
-0.39954 0.139458 0.337826 7 39 42
-0.398866 0.140681 0.338093 6 42 48
-0.398194 0.141901 0.33836 6 46 54
-0.397524 0.143117 0.338626 10 60 71
-0.396856 0.14433 0.338891 54 84 81
-0.419143 0.128863 0.332767 37 68 71
-0.417897 0.129911 0.333055 23 74 75
-0.416659 0.130952 0.333342 25 81 85
-0.41593 0.132241 0.333628 49 108 116
-0.414702 0.133271 0.333912 84 168 156
-0.413482 0.134295 0.334194 132 167 165
-0.410795 0.134548 0.334469 133 142 133
-0.408146 0.134797 0.334739 98 122 108
-0.406966 0.1358 0.335014 66 107 106
-0.405791 0.136797 0.335288 33 73 80
-0.404152 0.137535 0.335557 9 42 58
-0.401594 0.137759 0.335815 8 42 46
-0.400913 0.138991 0.336087 11 46 47
-0.399315 0.13971 0.336349 10 46 52
-0.399099 0.141188 0.336623 7 44 53
-0.398426 0.142409 0.336892 8 48 55
-0.397754 0.143626 0.337161 22 70 69
-0.397539 0.145101 0.337435 63 87 78
-0.417661 0.130173 0.331508 52 67 65
-0.416424 0.131213 0.331799 31 70 65
-0.415695 0.132502 0.332087 23 67 71
-0.414468 0.133532 0.332375 32 83 94
-0.411766 0.133791 0.332664 74 125 131
-0.408137 0.133543 0.332948 92 138 147
-0.406956 0.134549 0.333228 79 123 136
-0.405782 0.13555 0.333507 50 96 104
-0.404614 0.136545 0.333784 19 66 73
-0.402984 0.137282 0.334058 13 57 67
-0.400904 0.13776 0.334328 10 55 69
-0.400225 0.13899 0.334602 16 70 73
-0.399549 0.140217 0.334874 18 69 70
-0.398874 0.14144 0.335146 12 55 64
-0.398658 0.142919 0.335421 12 52 63
-0.398442 0.144397 0.335695 38 77 74
-0.457226 0.111935 0.323018 82 83 77
-0.411534 0.13405 0.331138 58 101 105
-0.406946 0.133298 0.331442 81 124 130
-0.405772 0.134303 0.331726 71 109 120
-0.404604 0.135302 0.332008 42 77 88
-0.403443 0.136295 0.332288 21 75 76
-0.402757 0.137536 0.332566 25 80 82
-0.401141 0.138265 0.332844 46 96 93
-0.400461 0.139497 0.33312 60 102 98
-0.400245 0.140981 0.333396 50 87 86
-0.399107 0.14195 0.33367 24 60 68
-0.399351 0.14369 0.333946 21 56 66
-0.399134 0.145173 0.334221 53 81 78
-0.457215 0.11052 0.321001 72 76 79
-0.45759 0.112469 0.321298 72 100 109
-0.457965 0.114424 0.321595 65 108 134
-0.45897 0.116643 0.321876 75 110 133
-0.382889 0.0987118 0.326328 85 84 90
-0.382687 0.100097 0.326585 79 81 94
-0.382485 0.101483 0.326842 75 77 93
-0.382283 0.102869 0.327099 78 79 91
-0.382899 0.10464 0.327341 76 76 83
-0.407416 0.132296 0.329651 87 138 130
-0.405762 0.133055 0.329944 84 141 135
-0.404595 0.134058 0.330231 63 108 112
-0.403434 0.135054 0.330517 52 84 94
-0.402747 0.136297 0.330797 55 94 101
-0.401131 0.137032 0.331083 53 100 110
-0.400915 0.138518 0.331359 69 115 120
-0.400698 0.140005 0.331634 65 109 111
-0.400945 0.14175 0.331909 39 80 83
-0.401192 0.1435 0.332184 18 61 67
-0.401907 0.14552 0.332459 27 67 71
-0.402157 0.147283 0.332736 67 89 80
-0.456957 0.110805 0.319299 72 79 82
-0.457955 0.113005 0.319571 58 105 116
-0.458331 0.114964 0.319866 51 113 134
-0.383701 0.0979273 0.324662 78 126 139
-0.382678 0.0989455 0.324941 67 121 144
-0.382476 0.100331 0.325199 67 124 147
-0.382683 0.101906 0.325446 72 132 146
-0.38248 0.103294 0.325703 85 137 139
-0.383098 0.105068 0.325942 92 129 123
-0.402823 0.12071 0.326573 83 79 86
-0.402142 0.121963 0.326857 80 74 75
-0.401926 0.123444 0.327132 78 73 66
-0.40171 0.124926 0.327407 81 74 66
-0.401525 0.129612 0.328225 94 157 146
-0.400845 0.130853 0.328506 79 130 131
-0.400629 0.132335 0.328781 75 107 118
-0.400875 0.134064 0.329051 77 106 120
-0.402052 0.136299 0.32931 68 117 128
-0.401835 0.13779 0.329587 75 142 135
-0.401617 0.139281 0.329864 76 132 130
-0.401866 0.14103 0.330136 59 97 100
-0.402584 0.143045 0.330406 31 60 73
-0.402366 0.144543 0.330683 24 58 65
-0.403087 0.146574 0.330955 45 74 72
-0.403813 0.148617 0.331229 76 77 77
-0.457695 0.113291 0.317863 66 72 74
-0.458071 0.115251 0.318156 60 73 73
-0.383079 0.0979773 0.323285 55 111 127
-0.382876 0.0993648 0.323542 48 116 129
-0.382674 0.100752 0.3238 51 118 126
-0.382472 0.10214 0.324057 62 127 126
-0.382269 0.103528 0.324315 73 124 121
-0.383297 0.105498 0.324538 83 119 116
-0.391983 0.111134 0.324562 89 124 118
-0.398435 0.115778 0.324657 90 131 133
-0.398221 0.117241 0.324928 85 133 143
-0.400287 0.119825 0.325145 97 130 133
-0.400072 0.121298 0.325418 116 121 109
-0.399857 0.122771 0.325691 102 105 96
-0.399642 0.124245 0.325965 84 85 92
-0.399427 0.125718 0.326238 87 129 127
-0.39967 0.127428 0.326502 101 156 153
-0.399455 0.128904 0.326776 83 134 141
-0.399239 0.13038 0.32705 85 123 132
-0.399482 0.132099 0.327316 87 126 135
-0.400187 0.13407 0.327574 85 135 139
-0.400432 0.135801 0.327842 88 142 136
-0.401608 0.138044 0.328097 87 147 138
-0.401856 0.139791 0.328367 64 107 113
-0.403044 0.142064 0.328625 38 80 82
-0.403297 0.143827 0.328897 18 53 65
-0.404023 0.145862 0.329164 31 60 66
-0.392428 0.113231 0.323367 48 97 109
-0.395305 0.116175 0.323543 52 110 123
-0.397785 0.118952 0.323736 76 124 129
-0.397571 0.120415 0.324007 99 145 141
-0.397358 0.121879 0.324279 96 153 151
-0.397597 0.123571 0.324538 92 128 138
-0.397836 0.125269 0.324799 103 153 160
-0.398531 0.127206 0.325049 84 135 149
-0.398316 0.128678 0.325322 79 128 135
-0.398101 0.13015 0.325595 92 146 142
-0.398799 0.132107 0.325848 90 146 144
-0.399041 0.133829 0.326112 85 139 143
-0.400206 0.136054 0.326358 89 140 141
-0.401847 0.138552 0.326597 74 118 119
-0.403979 0.141339 0.32683 53 90 89
-0.404708 0.14337 0.327092 28 60 59
-0.405441 0.145412 0.327355 14 53 60
-0.405699 0.147196 0.327628 35 67 71
-0.392209 0.113474 0.321929 56 72 69
-0.393755 0.11577 0.322137 54 70 74
-0.394872 0.117872 0.322361 53 82 91
-0.39466 0.119323 0.32263 59 113 121
-0.394893 0.120998 0.322885 86 152 156
-0.394681 0.122452 0.323155 101 165 167
-0.395361 0.124363 0.323398 89 148 157
-0.396494 0.126518 0.323629 70 125 136
-0.396732 0.128217 0.323888 94 152 142
-0.39697 0.129922 0.324147 94 153 146
-0.397662 0.131873 0.324395 87 145 148
-0.398359 0.133834 0.324645 82 140 146
-0.39998 0.136306 0.324873 74 127 130
-0.404918 0.14061 0.325024 58 96 95
-0.407093 0.14344 0.325248 34 66 73
-0.406871 0.144959 0.32553 20 47 53
-0.408101 0.147294 0.32578 16 59 60
-0.408365 0.149095 0.326053 40 72 73
-0.392655 0.115584 0.320724 74 72 69
-0.393324 0.11746 0.320958 61 79 83
-0.393113 0.118906 0.321226 69 116 116
-0.392902 0.120352 0.321494 99 164 153
-0.392691 0.121797 0.321762 98 172 163
-0.393361 0.123697 0.322 72 130 138
-0.394036 0.125606 0.322239 85 137 140
-0.395608 0.127995 0.322451 93 152 152
-0.396294 0.129933 0.322693 91 154 152
-0.396532 0.13164 0.322951 88 152 151
-0.398134 0.134086 0.323168 78 134 137
-0.405385 0.139618 0.323223 58 102 105
-0.408051 0.14271 0.32342 37 75 77
-0.410271 0.145584 0.323635 21 48 57
-0.410047 0.147118 0.323919 13 46 55
-0.410315 0.14893 0.324191 29 68 65
-0.41009 0.150467 0.324476 55 76 69
-0.392225 0.11727 0.319549 82 111 110
-0.392453 0.118931 0.319798 101 157 147
-0.392242 0.120375 0.320066 108 178 163
-0.392032 0.121819 0.320333 84 146 146
-0.39226 0.123489 0.320584 78 130 139
-0.392929 0.125393 0.320818 89 149 155
-0.393159 0.127075 0.321071 98 153 156
-0.395172 0.129706 0.321259 100 161 156
-0.396308 0.131889 0.321482 87 143 142
-0.405375 0.138364 0.321432 68 109 113
-0.410977 0.143044 0.321515 47 78 82
-0.410753 0.144581 0.321799 23 57 60
-0.411518 0.146666 0.322052 16 45 48
-0.411293 0.148207 0.322338 12 48 60
-0.411564 0.150028 0.322609 39 74 71
-0.411339 0.151572 0.322895 64 79 68
-0.391778 0.115857 0.31786 83 104 107
-0.392005 0.117514 0.318106 109 150 148
-0.391795 0.118956 0.318373 119 170 166
-0.391585 0.120398 0.31864 96 147 153
-0.391374 0.12184 0.318908 81 135 143
-0.391601 0.123508 0.319156 96 158 157
-0.391828 0.12518 0.319405 93 149 161
-0.392496 0.127089 0.319636 113 163 164
-0.393168 0.129009 0.319869 101 149 151
-0.396084 0.132139 0.320013 75 115 120
-0.414963 0.143929 0.319536 51 83 89
-0.414736 0.145484 0.319824 31 60 65
-0.413002 0.146209 0.320169 17 47 50
-0.412776 0.147757 0.320456 15 46 48
-0.41255 0.149306 0.320743 16 55 64
-0.412324 0.150854 0.32103 51 79 77
-0.390898 0.114235 0.316198 77 94 101
-0.391123 0.115885 0.316441 103 138 144
-0.390913 0.117323 0.316707 117 163 171
-0.391139 0.11898 0.316952 102 147 163
-0.390929 0.120421 0.317219 90 137 148
-0.391154 0.122084 0.317465 103 160 155
-0.390944 0.123527 0.317732 104 167 167
-0.390733 0.124969 0.317999 112 164 173
-0.390523 0.126412 0.318266 105 156 166
-0.392064 0.128786 0.318454 80 122 130
-0.418584 0.147981 0.318093 19 51 55
-0.414272 0.147303 0.318557 15 46 51
-0.41455 0.149139 0.318824 14 47 52
-0.414323 0.150697 0.319113 28 67 66
-0.414095 0.152255 0.319401 61 79 75
-0.389591 0.112412 0.314569 73 90 93
-0.390245 0.114266 0.314785 93 137 139
-0.39047 0.115914 0.315026 108 169 175
-0.39026 0.11735 0.315292 98 157 170
-0.390484 0.119005 0.315535 91 139 152
-0.390274 0.120444 0.315801 108 152 157
-0.390064 0.121882 0.316067 119 170 170
-0.390289 0.123546 0.316311 109 165 170
-0.390079 0.124987 0.316578 105 181 180
-0.390303 0.126657 0.316823 80 135 141
-0.390093 0.1281 0.31709 58 97 102
-0.419899 0.149101 0.316445 15 49 51
-0.418114 0.149822 0.316811 14 47 53
-0.41737 0.151109 0.317126 13 52 60
-0.41714 0.152681 0.317417 43 77 72
-0.388294 0.110605 0.312954 72 81 86
-0.388514 0.112237 0.313191 87 131 131
-0.389164 0.114085 0.313402 110 178 170
-0.389818 0.115943 0.313615 96 169 168
-0.390041 0.117594 0.313855 84 146 155
-0.389831 0.11903 0.314121 100 149 160
-0.389622 0.120467 0.314387 115 164 174
-0.389412 0.121903 0.314653 109 165 172
-0.389203 0.12334 0.314919 118 186 170
-0.388993 0.124777 0.315185 87 147 146
-0.389649 0.126672 0.315403 65 103 108
-0.389873 0.128345 0.315646 47 79 84
-0.421227 0.150231 0.314782 15 47 50
-0.419428 0.150951 0.315157 13 48 52
-0.419197 0.152532 0.31545 12 60 66
-0.418966 0.154113 0.315742 50 82 81
-0.386801 0.11023 0.311614 80 120 122
-0.386594 0.111649 0.311877 119 188 170
-0.386386 0.113068 0.31214 109 178 169
-0.387027 0.114908 0.312347 85 149 154
-0.388528 0.117188 0.3125 93 156 161
-0.388749 0.118837 0.312738 105 170 176
-0.388971 0.12049 0.312976 107 171 178
-0.388762 0.121924 0.313242 120 175 171
-0.388552 0.123359 0.313507 102 155 155
-0.388343 0.124794 0.313773 71 107 113
-0.388564 0.126458 0.314013 63 89 85
-0.389653 0.12859 0.314202 63 76 71
-0.423097 0.151663 0.313074 15 47 47
-0.420753 0.152089 0.313488 14 52 54
-0.419998 0.153384 0.313811 21 70 68
-0.419767 0.15497 0.314104 57 83 82
-0.385525 0.108445 0.310023 75 108 115
-0.38574 0.110062 0.310255 123 176 170
-0.385533 0.111477 0.310517 117 175 179
-0.385327 0.112892 0.310779 89 146 158
-0.385541 0.114517 0.311011 93 157 157
-0.386179 0.116359 0.311215 107 180 173
-0.387673 0.118644 0.311362 113 180 180
-0.387893 0.120293 0.311598 113 169 177
-0.388113 0.121946 0.311834 105 159 168
-0.387904 0.123379 0.312099 73 114 123
-0.387266 0.124586 0.312393 61 89 88
-0.387915 0.126474 0.312602 71 81 72
-0.425528 0.153409 0.311312 18 48 51
-0.42262 0.153533 0.311771 17 55 60
-0.421858 0.154834 0.312099 39 77 70
-0.421625 0.156429 0.312394 69 80 72
-0.384678 0.106873 0.308412 74 99 111
-0.384891 0.108483 0.308641 108 154 162
-0.384685 0.109894 0.308902 111 171 189
-0.384479 0.111306 0.309163 83 142 163
-0.384691 0.112925 0.309393 90 149 156
-0.384485 0.114338 0.309655 115 177 171
-0.385118 0.116175 0.309854 118 177 179
-0.385755 0.118022 0.310055 111 175 182
-0.38682 0.120097 0.310227 102 172 173
-0.387466 0.121967 0.31043 75 126 132
-0.387257 0.123398 0.310695 59 93 96
-0.387048 0.124829 0.31096 68 74 77
-0.427686 0.15326 0.309258 58 60 56
-0.425821 0.153981 0.309665 35 52 56
-0.425047 0.155293 0.309999 30 59 65
-0.424275 0.156601 0.310331 57 79 74
-0.38342 0.105113 0.306844 80 95 97
-0.38363 0.106714 0.307069 97 148 151
-0.384257 0.10852 0.307261 109 191 194
-0.384469 0.110133 0.307488 78 149 163
-0.384263 0.111545 0.307749 79 142 154
-0.384057 0.112957 0.308011 116 172 176
-0.383851 0.114369 0.308272 112 168 183
-0.384063 0.115992 0.308501 113 182 183
-0.384695 0.117833 0.308697 108 181 170
-0.385331 0.119684 0.308895 82 137 137
-0.386394 0.121766 0.309062 63 96 102
-0.387039 0.123641 0.309262 60 82 83
-0.382583 0.103559 0.305252 76 94 94
-0.382792 0.105154 0.305474 91 142 141
-0.383001 0.106754 0.305697 111 197 181
-0.383626 0.108558 0.305885 83 161 162
-0.383837 0.110169 0.30611 72 137 150
-0.383631 0.111579 0.306371 108 165 174
-0.383842 0.113196 0.306597 103 173 185
-0.383636 0.114608 0.306858 114 179 179
-0.38343 0.11602 0.307119 113 178 173
-0.384059 0.117859 0.307312 90 147 148
-0.384272 0.119492 0.30754 66 104 107
-0.384906 0.121348 0.307735 62 85 82
-0.380525 0.101445 0.303783 75 91 92
-0.380729 0.103027 0.304002 86 132 133
-0.380526 0.10442 0.30426 114 186 171
-0.38114 0.106204 0.304442 93 163 163
-0.382996 0.108596 0.304513 70 135 149
-0.383206 0.110204 0.304735 96 165 166
-0.383 0.111613 0.304996 110 191 186
-0.38321 0.113228 0.305219 117 174 177
-0.383004 0.114638 0.30548 114 169 178
-0.383215 0.11626 0.305705 91 143 154
-0.383425 0.117885 0.30593 68 109 113
-0.383637 0.119516 0.306156 63 84 84
-0.379299 0.0997286 0.302253 75 84 88
-0.379501 0.101302 0.302469 89 126 125
-0.379299 0.10269 0.302726 114 169 166
-0.379096 0.104078 0.302983 102 162 171
-0.379298 0.105659 0.3032 74 136 151
-0.381543 0.108234 0.303223 87 159 159
-0.38175 0.109836 0.303443 127 201 183
-0.381958 0.111442 0.303663 114 167 177
-0.382166 0.113053 0.303884 114 180 185
-0.382374 0.114668 0.304106 93 153 159
-0.382583 0.116288 0.304329 69 113 118
-0.382793 0.117911 0.304552 61 88 89
-0.378484 0.0982089 0.300693 75 82 79
-0.378283 0.0995911 0.300948 89 115 115
-0.378483 0.101161 0.301162 110 160 162
-0.378281 0.102545 0.301418 102 166 179
-0.378079 0.103929 0.301674 76 139 155
-0.378279 0.105507 0.301889 88 149 154
-0.379288 0.107481 0.302024 137 186 185
-0.379898 0.109271 0.302201 108 161 180
-0.38092 0.111273 0.302337 119 197 185
-0.380716 0.112674 0.302596 97 170 164
-0.380922 0.114283 0.302816 72 120 126
-0.38154 0.116105 0.302996 65 90 92
-0.377674 0.0966969 0.29914 74 75 72
-0.377873 0.0982585 0.299351 82 104 108
-0.377671 0.099639 0.299606 98 151 157
-0.37787 0.101207 0.299818 96 172 179
-0.377668 0.102589 0.300074 74 149 160
-0.377467 0.103972 0.30033 79 143 157
-0.377265 0.105355 0.300585 118 172 181
-0.377463 0.106932 0.300799 102 168 188
-0.378468 0.108909 0.300929 119 187 176
-0.379075 0.110701 0.301102 103 173 167
-0.379685 0.112502 0.301277 74 127 132
-0.379889 0.114106 0.301493 61 98 100
-0.37647 0.0950144 0.297642 71 73 72
-0.376667 0.0965678 0.29785 75 97 102
-0.376864 0.0981253 0.298059 94 154 153
-0.377061 0.0996869 0.298268 98 181 175
-0.37686 0.101066 0.298523 77 153 159
-0.377058 0.102634 0.298733 74 141 154
-0.376856 0.104015 0.298988 100 171 175
-0.377054 0.105588 0.2992 105 186 188
-0.376852 0.106971 0.299455 116 174 174
-0.377451 0.108748 0.299624 109 172 178
-0.378053 0.110535 0.299793 78 132 142
-0.378254 0.112128 0.300007 61 103 104
-0.374883 0.0931698 0.296202 71 78 71
-0.375076 0.0947128 0.296407 67 91 98
-0.37527 0.0962599 0.296613 90 146 147
-0.375465 0.0978111 0.296819 100 176 172
-0.376056 0.0995504 0.29698 81 157 162
-0.376252 0.101112 0.297187 72 144 150
-0.376448 0.102678 0.297396 95 168 164
-0.376247 0.104057 0.29765 118 192 183
-0.376046 0.105437 0.297905 107 166 177
-0.376242 0.10701 0.298115 111 178 186
-0.376439 0.108588 0.298325 83 139 151
-0.376637 0.110171 0.298536 64 104 108
-0.372924 0.0911726 0.294826 72 69 68
-0.373502 0.0928768 0.294979 67 83 90
-0.373693 0.0944136 0.295182 87 135 137
-0.373494 0.0957766 0.295434 101 168 171
-0.373685 0.0973193 0.295638 84 154 165
-0.374661 0.0992313 0.295746 71 142 152
-0.374855 0.100787 0.295951 96 164 161
-0.375049 0.102346 0.296157 122 184 178
-0.375243 0.10391 0.296363 106 169 179
-0.375438 0.105477 0.29657 107 185 183
-0.375237 0.106855 0.296825 85 152 158
-0.376228 0.108823 0.296939 63 106 117
-0.371944 0.0910593 0.293566 67 79 83
-0.372132 0.092586 0.293766 87 122 124
-0.372321 0.0941167 0.293966 102 164 168
-0.372509 0.0956514 0.294167 86 158 170
-0.372699 0.0971902 0.294369 71 139 155
-0.372888 0.098733 0.294571 92 151 162
-0.373079 0.10028 0.294774 116 169 179
-0.373269 0.101831 0.294977 109 172 182
-0.373852 0.103574 0.295132 113 185 178
-0.374045 0.105136 0.295336 88 160 160
-0.374632 0.106895 0.295493 65 114 122
-0.371738 0.0912874 0.292207 74 113 116
-0.37154 0.0926417 0.292458 97 164 166
-0.371343 0.0939962 0.292708 87 164 171
-0.37153 0.0955269 0.292907 69 142 155
-0.371717 0.0970617 0.293106 83 146 160
-0.371519 0.0984199 0.293357 104 167 178
-0.371707 0.0999606 0.293557 108 176 182
-0.372282 0.10169 0.293708 114 176 174
-0.372472 0.103241 0.293909 102 163 166
-0.373443 0.105177 0.294011 73 123 127
-0.370578 0.0896549 0.290761 71 102 110
-0.370764 0.0911741 0.290957 94 164 162
-0.37095 0.0926973 0.291153 89 169 170
-0.371136 0.0942245 0.291349 69 144 154
-0.370938 0.0955792 0.2916 75 145 155
-0.37074 0.096934 0.29185 97 171 173
-0.370927 0.0984688 0.292048 109 178 180
-0.371113 0.100008 0.292246 110 170 176
-0.371301 0.101551 0.292445 103 166 170
-0.371875 0.103285 0.292592 79 130 137
-0.372064 0.104838 0.292792 63 99 99
-0.369049 0.0878695 0.289381 67 90 103
-0.369232 0.0893788 0.289574 92 153 153
-0.369795 0.0910615 0.289712 92 172 169
-0.369979 0.0925808 0.289906 73 146 153
-0.370163 0.0941041 0.2901 72 145 149
-0.369966 0.0954554 0.29035 99 173 167
-0.370151 0.0969845 0.290545 111 178 177
-0.370336 0.0985176 0.290741 109 172 180
-0.370138 0.0998727 0.290991 103 171 175
-0.370324 0.101412 0.291188 80 137 143
-0.370894 0.103141 0.291332 63 101 106
-0.36791 0.0862641 0.287957 68 82 93
-0.367715 0.0876015 0.288204 95 146 145
-0.368271 0.0892712 0.288338 97 170 171
-0.368452 0.0907806 0.28853 75 148 156
-0.369013 0.0924649 0.288665 69 141 147
-0.369196 0.0939843 0.288858 99 162 162
-0.369379 0.0955077 0.289051 110 170 175
-0.369563 0.097035 0.289244 109 176 180
-0.369365 0.0983866 0.289494 104 176 177
-0.369549 0.0999198 0.289688 81 145 152
-0.369734 0.101457 0.289883 64 106 114
-0.366779 0.0846707 0.286545 66 82 85
-0.366585 0.0860031 0.28679 84 130 129
-0.366763 0.0874988 0.286978 99 168 173
-0.366941 0.0889984 0.287167 76 149 163
-0.36712 0.0905019 0.287356 66 136 150
-0.367675 0.0921792 0.287488 92 155 161
-0.367855 0.0936926 0.287678 103 165 175
-0.368414 0.0953846 0.287812 106 174 178
-0.368596 0.0969081 0.288003 104 176 174
-0.368399 0.0982564 0.288252 87 152 156
-0.368582 0.0997856 0.288444 66 115 120
-0.365657 0.0830891 0.285142 71 80 83
-0.365464 0.0844165 0.285387 80 120 121
-0.36564 0.0859047 0.285573 96 167 167
-0.365445 0.0872339 0.285818 79 155 164
-0.365621 0.0887277 0.286004 63 134 150
-0.365798 0.0902253 0.286191 82 148 159
-0.365975 0.0917268 0.286378 97 167 175
-0.366152 0.0932321 0.286566 103 171 176
-0.36633 0.0947413 0.286755 103 172 174
-0.367258 0.0966056 0.286827 90 156 159
-0.368194 0.0984841 0.286899 69 122 124
-0.368376 0.100014 0.28709 60 94 92
-0.364911 0.081674 0.283689 67 78 78
-0.365086 0.083155 0.283872 76 112 117
-0.364892 0.0844809 0.284116 98 167 168
-0.365067 0.0859674 0.2843 83 161 166
-0.364873 0.0872951 0.284545 63 136 148
-0.365049 0.0887872 0.284729 75 146 154
-0.365224 0.0902831 0.284914 97 172 173
-0.3654 0.0917829 0.2851 104 167 175
-0.365576 0.0932865 0.285286 108 171 177
-0.366126 0.0949671 0.285412 95 159 165
-0.367053 0.0968323 0.285479 73 126 132
-0.36761 0.0985328 0.285607 61 96 98
-0.363976 0.0815867 0.282486 69 102 110
-0.364149 0.083064 0.282667 97 166 160
-0.364323 0.0845451 0.282848 91 168 169
-0.364129 0.0858695 0.283092 66 137 149
-0.364303 0.0873561 0.283275 70 142 150
-0.364477 0.0888465 0.283457 101 172 168
-0.364283 0.0901746 0.283702 104 169 174
-0.364457 0.0916706 0.283886 106 171 180
-0.364632 0.0931704 0.28407 97 162 171
-0.365178 0.0948466 0.284193 77 133 141
-0.365726 0.0965314 0.284316 61 100 106
-0.362511 0.0798782 0.281174 70 96 103
-0.363045 0.0814999 0.281289 92 154 149
-0.363217 0.0829735 0.281468 94 171 169
-0.363389 0.0844509 0.281647 69 141 151
-0.363561 0.0859321 0.281827 68 137 147
-0.363368 0.0872551 0.282071 98 164 166
-0.36354 0.0887418 0.282252 103 166 173
-0.363713 0.0902323 0.282433 108 175 177
-0.363887 0.0917266 0.282614 99 170 172
-0.363693 0.093055 0.282859 77 139 145
-0.364235 0.0947268 0.282979 62 109 112
-0.361061 0.0781864 0.279876 72 90 96
-0.361229 0.079645 0.280052 89 142 140
-0.361397 0.0811072 0.280228 96 171 170
-0.361927 0.0827282 0.28034 71 144 155
-0.362097 0.0841999 0.280517 63 133 145
-0.362267 0.0856754 0.280695 93 156 163
-0.362437 0.0871546 0.280873 98 164 175
-0.362608 0.0886376 0.281052 105 173 174
-0.362779 0.0901244 0.281231 102 172 171
-0.363317 0.0917826 0.281346 82 146 148
-0.36349 0.0932791 0.281526 64 114 115
-0.360147 0.0781086 0.278697 84 132 130
-0.359956 0.0794135 0.278937 96 167 167
-0.360122 0.0808702 0.279111 75 152 158
-0.360288 0.0823306 0.279286 59 129 143
-0.360455 0.0837947 0.279461 82 150 156
-0.360622 0.0852625 0.279637 93 166 174
-0.361511 0.0870547 0.279681 100 167 171
-0.36168 0.088534 0.279858 102 172 172
-0.362213 0.0901821 0.279969 85 149 153
-0.362384 0.091671 0.280147 66 117 121
-0.359427 0.0767295 0.277283 78 122 124
-0.359237 0.0780312 0.277523 92 165 164
-0.359046 0.0793331 0.277763 80 156 162
-0.359211 0.0807862 0.277935 62 133 143
-0.359021 0.0820898 0.278175 77 147 151
-0.359185 0.0835484 0.278348 95 172 167
-0.359707 0.0851678 0.278455 95 164 170
-0.360231 0.0867953 0.278562 103 170 174
-0.361118 0.0885933 0.278602 88 154 159
-0.361287 0.0900747 0.278777 68 120 127
-0.358357 0.0752129 0.275946 76 115 119
-0.358521 0.0766556 0.276115 89 161 161
-0.358684 0.0781018 0.276285 81 159 165
-0.358494 0.0794022 0.276525 62 136 146
-0.358658 0.0808538 0.276695 71 143 147
-0.358467 0.082156 0.276935 97 170 166
-0.358277 0.0834582 0.277175 94 164 169
-0.358795 0.0850735 0.277278 100 172 176
-0.359316 0.0866969 0.277382 89 159 166
-0.359839 0.0883284 0.277486 70 127 135
-0.360725 0.0901323 0.277522 59 98 102
-0.356947 0.073566 0.274689 70 109 114
-0.357107 0.0749996 0.274856 89 156 154
-0.357619 0.0765821 0.274953 85 164 167
-0.357781 0.0780249 0.275121 65 138 149
-0.357591 0.0793222 0.27536 70 138 145
-0.357753 0.0807702 0.275529 96 164 165
-0.357564 0.0820693 0.275768 95 162 171
-0.357726 0.0835227 0.275937 99 171 174
-0.357888 0.0849798 0.276107 90 167 171
-0.358405 0.086599 0.276208 70 135 142
-0.358925 0.0882264 0.276309 60 106 110
-0.35555 0.0719349 0.273445 71 100 109
-0.355362 0.0732194 0.273681 86 147 149
-0.35552 0.0746458 0.273846 88 165 166
-0.356373 0.0763642 0.273868 69 144 152
-0.356533 0.0778016 0.274034 66 135 145
-0.356693 0.0792426 0.274201 92 157 161
-0.356853 0.0806871 0.274368 92 162 172
-0.356664 0.0819831 0.274606 94 166 171
-0.357176 0.0835871 0.274703 95 170 170
-0.357337 0.0850426 0.274871 74 140 145
-0.357499 0.0865017 0.275039 60 109 111
-0.354509 0.0704554 0.272139 71 95 100
-0.354322 0.0717353 0.272374 83 140 143
-0.354478 0.0731548 0.272537 90 164 168
-0.354291 0.0744364 0.272773 73 145 155
-0.354447 0.0758611 0.272937 65 133 145
-0.354948 0.0774345 0.273028 83 154 158
-0.355452 0.0790156 0.27312 90 162 170
-0.35561 0.0804547 0.273285 89 162 169
-0.356117 0.0820491 0.273377 94 169 170
-0.356277 0.0834974 0.273543 79 146 150
-0.356788 0.0851053 0.273637 63 114 115
-0.353816 0.0691207 0.270767 68 93 92
-0.35363 0.0703975 0.271002 79 133 133
-0.353443 0.0716745 0.271237 89 163 166
-0.353598 0.0730906 0.271398 75 151 160
-0.353411 0.0743693 0.271634 64 134 145
-0.353566 0.0757905 0.271795 80 150 155
-0.353721 0.0772153 0.271958 89 167 169
-0.353876 0.0786436 0.27212 83 159 167
-0.354721 0.0803729 0.272136 95 170 172
-0.355224 0.0819634 0.272225 81 149 155
-0.355731 0.0835617 0.272315 64 117 122
-0.352941 0.069066 0.269637 76 127 125
-0.353095 0.0704756 0.269795 87 163 162
-0.352908 0.0717511 0.27003 78 155 161
-0.352722 0.0730267 0.270265 64 135 144
-0.352876 0.074443 0.270424 75 146 149
-0.352689 0.0757203 0.27066 91 166 166
-0.352502 0.0769977 0.270895 84 160 169
-0.352996 0.0785666 0.270981 92 167 171
-0.353493 0.0801431 0.271067 85 157 164
-0.354336 0.0818781 0.271078 65 122 129
-0.355533 0.0837796 0.271015 58 97 98
-0.351918 0.067609 0.268355 74 119 122
-0.35207 0.0690117 0.268511 87 159 159
-0.352222 0.0704179 0.268668 80 160 163
-0.352036 0.0716905 0.268902 64 138 148
-0.35185 0.0729632 0.269136 72 140 147
-0.352002 0.0743761 0.269294 90 160 163
-0.352155 0.0757925 0.269452 85 158 169
-0.352307 0.0772124 0.269611 87 163 170
-0.352121 0.07849 0.269846 88 165 167
-0.352614 0.0800626 0.26993 69 129 136
-0.353795 0.0819439 0.269861 56 102 104
-0.351238 0.0662918 0.267003 71 111 119
-0.351053 0.0675582 0.267236 86 154 156
-0.351203 0.0689577 0.267391 85 163 166
-0.351354 0.0703606 0.267546 67 140 149
-0.351505 0.0717669 0.267701 68 137 147
-0.351319 0.0730382 0.267935 86 156 161
-0.351133 0.0743096 0.268169 86 158 167
-0.351284 0.0757226 0.268326 82 160 167
-0.351774 0.0772829 0.268405 87 169 169
-0.351926 0.0787048 0.268562 70 137 141
-0.352418 0.0802781 0.268643 59 105 108
-0.349563 0.0645984 0.265897 69 106 111
-0.34971 0.065986 0.26605 82 148 153
-0.349526 0.0672464 0.266281 86 162 166
-0.349342 0.068507 0.266513 70 143 153
-0.34949 0.0699012 0.266667 68 134 147
-0.350304 0.0715703 0.266662 84 153 160
-0.350119 0.0728372 0.266895 85 159 166
-0.350604 0.074383 0.266971 81 158 163
-0.350754 0.0757946 0.267125 88 168 167
-0.350904 0.0772096 0.267281 75 146 149
-0.351392 0.0787737 0.267357 59 110 114
-0.348564 0.063174 0.264643 71 101 105
-0.34871 0.064555 0.264794 81 143 145
-0.348526 0.065811 0.265025 85 162 166
-0.348343 0.0670672 0.265256 72 146 156
-0.348489 0.0684547 0.265407 66 135 146
-0.348305 0.0697125 0.265638 81 151 157
-0.348451 0.071105 0.26579 85 160 165
-0.348928 0.0726376 0.265862 79 157 163
-0.349741 0.0743168 0.265855 87 165 167
-0.350224 0.0758664 0.265928 80 151 155
-0.35071 0.0774236 0.266001 63 114 121
-0.348044 0.0632588 0.263464 79 137 138
-0.347861 0.0645119 0.263695 86 162 163
-0.347678 0.0657651 0.263925 73 150 157
-0.347495 0.0670184 0.264156 65 137 146
-0.347639 0.0684027 0.264305 81 150 153
-0.347456 0.0696576 0.264536 88 162 163
-0.3476 0.0710469 0.264686 80 157 163
-0.348075 0.0725758 0.264755 85 163 167
-0.348551 0.0741121 0.264825 81 154 162
-0.35003 0.0760798 0.264651 63 121 130
-0.347055 0.0618456 0.262224 76 130 128
-0.347198 0.0632187 0.262371 85 161 160
-0.347016 0.064469 0.262601 75 153 159
-0.347159 0.065847 0.262748 63 137 145
-0.346977 0.0670989 0.262978 75 145 149
-0.346794 0.0683509 0.263208 89 159 161
-0.346937 0.0697354 0.263356 82 155 163
-0.347081 0.0711232 0.263505 83 160 167
-0.347225 0.0725144 0.263653 86 159 166
-0.347698 0.074047 0.263721 68 127 137
-0.346073 0.0604423 0.260993 75 123 123
-0.346215 0.0618089 0.261137 85 157 157
-0.346357 0.0631789 0.261282 77 154 161
-0.3465 0.0645521 0.261427 64 137 147
-0.346317 0.0658011 0.261657 72 140 147
-0.346135 0.0670502 0.261887 86 155 159
-0.345952 0.0682994 0.262116 81 154 163
-0.34642 0.069813 0.262179 80 157 166
-0.346563 0.0711994 0.262326 83 162 165
-0.346706 0.0725891 0.262473 71 136 142
-0.347506 0.0742586 0.262454 59 103 107
-0.34542 0.0591674 0.259684 73 114 117
-0.34556 0.0605294 0.259827 85 153 154
-0.345379 0.0617724 0.260055 81 157 162
-0.345197 0.0630156 0.260284 66 138 149
-0.345338 0.0643839 0.260427 69 137 147
-0.345479 0.0657556 0.260571 84 152 159
-0.345297 0.0670019 0.2608 81 156 164
-0.345114 0.0682482 0.261029 79 157 164
-0.345579 0.0697582 0.26109 84 164 167
-0.346045 0.0712754 0.26115 73 143 147
-0.346188 0.0726637 0.261296 59 109 111
-0.34413 0.0576646 0.258556 71 108 114
-0.343949 0.0589004 0.258783 83 149 151
-0.344088 0.0602558 0.258924 83 159 162
-0.343907 0.0614932 0.259151 68 140 149
-0.343726 0.0627306 0.259378 68 137 147
-0.343864 0.0640924 0.25952 81 152 157
-0.344323 0.0655837 0.259576 81 158 164
-0.344462 0.0669537 0.259719 76 157 163
-0.344924 0.0684572 0.259776 85 166 166
-0.344742 0.0697037 0.260005 78 149 153
-0.345529 0.0713513 0.259977 61 114 120
-0.343168 0.0562902 0.257349 71 103 108
-0.342989 0.0575216 0.257576 80 143 147
-0.343125 0.0588708 0.257715 83 160 163
-0.342945 0.0601039 0.257941 70 144 151
-0.342765 0.061337 0.258168 66 136 143
-0.342901 0.0626924 0.258307 79 151 154
-0.343038 0.0640511 0.258448 82 160 162
-0.343176 0.065413 0.258588 76 155 161
-0.343313 0.0667782 0.258729 83 164 164
-0.344091 0.0684058 0.258696 81 155 156
-0.344552 0.0699128 0.258751 66 118 125
-0.342214 0.0549251 0.256151 68 95 101
-0.342349 0.0562665 0.256288 77 138 142
