ply
format ascii 1.0
element vertex 1275
property float x
property float y
property float z
property uchar diffuse_red
property uchar diffuse_green
property uchar diffuse_blue
end_header
-0.491012 0.256148 0.274046 99 128 101
-0.49026 0.258105 0.27447 94 130 108
-0.489507 0.260062 0.274895 96 124 102
-0.488755 0.262018 0.275319 96 104 90
-0.486391 0.262826 0.275972 100 108 85
-0.484842 0.2642 0.276508 85 97 90
-0.483298 0.265569 0.277041 67 72 89
-0.480974 0.266357 0.277682 64 67 73
-0.478667 0.267139 0.278318 70 64 63
-0.477926 0.269066 0.278737 71 63 60
-0.509064 0.238822 0.265381 73 69 63
-0.508296 0.24082 0.265815 84 81 73
-0.507527 0.242819 0.266248 91 105 91
-0.505896 0.244267 0.266816 83 124 113
-0.505129 0.246262 0.267249 68 127 129
-0.502653 0.247146 0.267947 58 123 139
-0.501042 0.248578 0.268508 54 120 142
-0.49776 0.248896 0.269325 52 115 137
-0.497002 0.250867 0.269753 53 109 124
-0.495414 0.25228 0.270307 59 101 109
-0.493832 0.253688 0.270858 64 93 97
-0.492257 0.255091 0.271408 67 91 94
-0.491503 0.257051 0.271833 68 94 95
-0.490749 0.259012 0.272258 65 93 95
-0.489182 0.260401 0.272804 67 89 92
-0.488429 0.262358 0.273229 67 89 95
-0.486067 0.263165 0.27389 64 105 110
-0.484518 0.264538 0.274429 60 124 137
-0.482975 0.265907 0.274967 66 132 143
-0.480652 0.266694 0.275616 81 119 113
-0.478347 0.267474 0.27626 81 103 93
-0.476831 0.268825 0.276789 73 73 82
-0.473027 0.268446 0.277642 72 65 67
-0.47003 0.26864 0.278376 73 68 60
-0.508733 0.239167 0.263244 68 70 67
-0.507964 0.241165 0.263678 61 74 80
-0.507196 0.243164 0.264111 59 79 86
-0.506427 0.245162 0.264545 57 84 86
-0.505658 0.247161 0.264978 51 84 87
-0.504031 0.248601 0.265549 48 83 88
-0.501559 0.249477 0.266253 47 83 87
-0.498269 0.24979 0.267085 51 82 87
-0.497509 0.251766 0.267514 54 78 85
-0.495917 0.253181 0.268073 54 75 81
-0.493506 0.254029 0.268759 55 75 78
-0.491931 0.25543 0.269313 56 73 77
-0.491177 0.257391 0.269738 56 72 75
-0.490423 0.259352 0.270163 56 71 76
-0.489669 0.261313 0.270588 58 67 72
-0.488104 0.262698 0.271137 56 71 74
-0.485743 0.263503 0.271806 48 76 81
-0.484195 0.264877 0.27235 31 89 93
-0.482652 0.266245 0.272892 40 97 103
-0.48033 0.26703 0.273549 56 115 115
-0.478026 0.26781 0.274201 67 133 135
-0.47651 0.26916 0.274733 77 123 131
-0.472709 0.268779 0.275602 81 101 97
-0.470465 0.269542 0.276238 76 79 73
-0.468983 0.27087 0.27676 72 67 58
-0.5085 0.242056 0.261395 69 72 65
-0.50773 0.244059 0.261829 65 69 67
-0.50696 0.246062 0.262263 63 69 65
-0.50619 0.248065 0.262698 60 71 64
-0.504558 0.249506 0.263274 56 71 65
-0.502932 0.250942 0.263849 60 69 65
-0.497941 0.250132 0.264973 66 68 63
-0.497181 0.252108 0.265402 67 66 62
-0.496421 0.254084 0.26583 64 68 62
-0.494004 0.254931 0.266526 63 69 63
-0.491605 0.25577 0.267217 64 66 64
-0.490851 0.257731 0.267642 64 65 64
-0.490097 0.259692 0.268068 64 69 66
-0.489343 0.261654 0.268493 66 66 62
-0.487779 0.263038 0.269046 68 66 62
-0.485418 0.263842 0.269723 58 63 61
-0.483871 0.265215 0.270271 48 67 63
-0.482329 0.266583 0.270816 48 65 66
-0.480794 0.267945 0.27136 34 76 78
-0.478483 0.268723 0.272021 38 94 105
-0.476964 0.270074 0.272559 55 124 130
-0.472391 0.269112 0.273562 75 138 134
-0.470901 0.270446 0.274091 83 120 113
-0.469416 0.271776 0.274618 78 85 83
-0.467937 0.273101 0.275143 74 65 63
-0.483547 0.265554 0.268191 67 72 63
-0.482006 0.266921 0.26874 65 67 61
-0.480471 0.268283 0.269288 53 65 59
-0.478162 0.269059 0.269957 44 64 66
-0.477419 0.270991 0.270376 36 78 87
-0.472833 0.270019 0.271402 49 114 116
-0.470584 0.270779 0.272055 72 139 134
-0.46985 0.272685 0.272468 84 127 127
-0.468368 0.274011 0.272998 81 86 92
-0.46689 0.275332 0.273526 73 61 64
-0.510456 0.244402 0.256644 74 73 62
-0.51056 0.246978 0.256925 73 69 62
-0.509783 0.248997 0.257362 73 69 61
-0.509007 0.251017 0.2578 70 68 61
-0.506485 0.251894 0.258544 68 69 62
-0.504846 0.253334 0.259131 68 67 61
-0.501502 0.253628 0.260014 68 63 61
-0.499886 0.255053 0.260594 66 65 62
-0.498276 0.256473 0.261171 64 68 62
-0.49335 0.255613 0.262318 66 68 61
-0.490954 0.256451 0.263025 68 65 63
-0.4902 0.258412 0.26345 72 63 61
-0.489445 0.260373 0.263875 73 68 60
-0.487881 0.261761 0.264437 71 68 60
-0.486322 0.263143 0.264997 75 63 61
-0.48477 0.26452 0.265555 70 63 60
-0.48402 0.266471 0.265978 70 73 63
-0.481683 0.267259 0.266664 69 66 61
-0.480936 0.269202 0.267085 68 65 60
-0.479403 0.27056 0.267636 63 62 61
-0.477097 0.271328 0.268312 40 61 64
-0.47481 0.27209 0.268983 27 71 75
-0.471779 0.272266 0.269772 41 105 106
-0.469533 0.273018 0.270431 75 139 137
-0.4688 0.274925 0.270845 93 130 127
-0.467319 0.276247 0.271378 79 84 84
-0.465843 0.277564 0.271909 70 63 60
-0.511778 0.243288 0.253889 75 74 65
-0.511885 0.245866 0.254165 74 77 79
-0.511107 0.24789 0.254604 75 83 84
-0.510329 0.249914 0.255042 79 87 83
-0.50955 0.251938 0.255481 83 91 83
-0.507895 0.253386 0.256078 85 95 83
-0.505378 0.254254 0.256829 86 97 83
-0.50288 0.255115 0.257573 88 100 83
-0.500403 0.25597 0.258312 92 104 84
-0.498789 0.25739 0.258896 95 104 84
-0.493023 0.255954 0.260213 97 107 82
-0.490628 0.256791 0.260928 97 105 84
-0.489874 0.258752 0.261353 98 102 81
-0.489119 0.260714 0.261779 90 97 80
-0.487555 0.262101 0.262345 76 86 78
-0.485997 0.263483 0.262909 70 71 81
-0.484446 0.264859 0.263471 68 62 78
-0.483695 0.26681 0.263893 71 67 67
-0.482945 0.268761 0.264316 69 64 62
-0.480613 0.26954 0.265009 68 65 64
-0.479865 0.271484 0.26543 69 66 63
-0.477553 0.27225 0.266116 54 67 62
-0.476033 0.273597 0.266666 28 56 59
-0.473749 0.274351 0.267344 19 63 74
-0.470724 0.274514 0.268142 52 110 113
-0.469234 0.275842 0.268683 90 147 142
-0.467749 0.277165 0.269221 86 117 116
-0.466269 0.278483 0.269757 78 65 58
-0.513215 0.24475 0.251394 64 79 76
-0.512436 0.246778 0.251833 58 97 112
-0.511656 0.248806 0.252273 58 115 131
-0.510876 0.250834 0.252712 62 122 132
-0.509214 0.252288 0.253316 65 121 128
-0.508436 0.254312 0.253755 65 120 125
-0.505911 0.255178 0.254516 64 119 122
-0.503407 0.256037 0.255272 64 118 119
-0.500923 0.25689 0.256021 64 114 117
-0.499304 0.258312 0.25661 69 110 114
-0.496013 0.258575 0.257503 69 111 111
-0.491119 0.257697 0.258683 69 111 110
-0.490363 0.259662 0.259109 71 110 109
-0.488793 0.261054 0.259681 67 112 113
-0.48723 0.262441 0.260252 63 116 121
-0.485673 0.263822 0.26082 56 110 127
-0.484921 0.265777 0.261243 65 100 113
-0.484169 0.267731 0.261667 84 95 89
-0.482621 0.2691 0.262231 78 86 80
-0.48187 0.271051 0.262654 68 70 79
-0.480329 0.272411 0.263215 67 67 67
-0.478794 0.273766 0.263774 54 66 63
-0.477265 0.275116 0.264331 30 55 57
-0.475742 0.27646 0.264886 13 48 59
-0.473455 0.277205 0.265572 30 78 86
-0.471947 0.278538 0.266121 65 124 126
-0.468933 0.278677 0.266927 82 122 128
-0.467445 0.279998 0.267469 79 67 62
-0.514664 0.246224 0.248878 67 70 66
-0.513881 0.24826 0.249319 58 78 80
-0.513098 0.250297 0.24976 52 87 90
-0.511425 0.251758 0.250372 47 89 93
-0.509759 0.253213 0.250982 47 88 93
-0.5081 0.254662 0.251589 48 89 92
-0.506447 0.256106 0.252194 47 89 91
-0.503073 0.256385 0.253124 44 87 90
-0.501444 0.257814 0.253721 41 86 91
-0.499821 0.259237 0.254316 40 84 92
-0.49652 0.259495 0.255224 38 83 90
-0.492433 0.259178 0.256275 35 83 89
-0.490036 0.260003 0.257007 34 85 90
-0.48928 0.261969 0.257433 31 89 92
-0.486904 0.262781 0.258158 33 97 102
-0.485348 0.264162 0.258731 35 97 104
-0.484596 0.266117 0.259154 46 94 100
-0.483844 0.268072 0.259577 64 99 101
-0.483092 0.270026 0.260001 67 115 114
-0.481546 0.271391 0.260568 66 103 112
-0.480795 0.273343 0.260991 74 94 88
-0.479256 0.274698 0.261556 55 73 69
-0.477723 0.276049 0.262118 25 53 58
-0.476196 0.277394 0.262678 12 47 53
-0.474674 0.278735 0.263236 16 61 67
-0.473159 0.28007 0.263792 39 93 102
-0.472415 0.282004 0.264211 73 107 114
-0.469386 0.282124 0.265031 76 65 63
-0.516242 0.25033 0.246604 70 69 61
-0.515454 0.252379 0.247048 65 70 62
-0.511977 0.252685 0.248023 59 69 65
-0.510306 0.254142 0.248638 58 71 64
-0.508642 0.255592 0.249252 59 74 63
-0.506985 0.257037 0.249862 56 73 64
-0.503601 0.257312 0.250808 55 70 65
-0.501967 0.258742 0.251411 56 70 65
-0.499489 0.259584 0.252176 57 68 65
-0.49703 0.26042 0.252935 52 68 64
-0.492105 0.25952 0.254165 49 69 63
-0.491346 0.261494 0.254592 49 68 60
-0.488953 0.262311 0.255331 43 68 63
-0.486579 0.263121 0.256065 41 66 63
-0.485022 0.264502 0.256641 43 68 64
-0.484271 0.266457 0.257064 35 67 68
-0.484319 0.268997 0.257337 30 69 81
-0.483565 0.270956 0.257762 35 89 98
-0.481221 0.271731 0.258483 46 104 110
-0.48047 0.273683 0.258905 65 112 108
-0.478932 0.275038 0.259474 48 78 83
-0.478183 0.276986 0.259896 21 50 61
-0.476652 0.278332 0.260461 11 47 53
-0.475126 0.279674 0.261025 11 55 63
-0.47438 0.281615 0.261445 28 76 90
-0.473633 0.283556 0.261866 69 94 99
-0.47135 0.284275 0.262564 76 65 61
-0.483945 0.266797 0.254974 50 65 61
-0.483993 0.269338 0.255243 39 58 63
-0.483239 0.271297 0.255667 29 57 62
-0.48169 0.272663 0.256244 24 62 70
-0.480146 0.274023 0.256819 31 78 86
-0.479395 0.275974 0.257242 22 64 77
-0.477858 0.277326 0.257814 11 49 61
-0.477109 0.279274 0.258236 10 49 55
-0.47558 0.280616 0.258805 11 56 61
-0.474832 0.282561 0.259226 29 76 85
-0.474084 0.284506 0.259647 69 91 95
-0.472563 0.285836 0.260212 73 66 58
-0.48362 0.267137 0.252884 65 64 58
-0.483667 0.269679 0.253149 62 61 61
-0.482913 0.271638 0.253573 50 61 58
-0.48216 0.273598 0.253997 35 52 54
-0.480612 0.274959 0.254577 20 47 50
-0.47907 0.276315 0.255155 12 46 51
-0.478319 0.278267 0.255578 9 48 52
-0.477568 0.280219 0.256001 10 49 54
-0.476035 0.281563 0.256575 13 58 61
-0.475286 0.283511 0.256997 29 80 83
-0.474536 0.28546 0.257419 65 86 94
-0.473012 0.286791 0.257989 72 64 57
-0.521634 0.2555 0.238653 72 68 61
-0.520834 0.25758 0.239103 72 69 63
-0.520034 0.25966 0.239553 72 70 62
-0.517393 0.260528 0.240394 73 70 62
-0.513868 0.260787 0.24142 74 68 60
-0.508611 0.259854 0.242807 74 67 59
-0.504327 0.259526 0.243985 72 68 60
-0.501824 0.260371 0.244784 68 67 61
-0.500193 0.261795 0.245399 69 65 60
-0.497721 0.262626 0.246188 66 65 61
-0.491121 0.260547 0.247832 68 63 59
-0.490362 0.262522 0.24826 65 63 58
-0.489603 0.264496 0.248687 65 65 59
-0.486407 0.264721 0.249616 68 63 59
-0.484848 0.266101 0.250205 72 62 59
-0.484095 0.268061 0.25063 68 64 56
-0.483341 0.27002 0.251054 65 65 59
-0.482587 0.27198 0.251478 64 63 58
-0.481834 0.273939 0.251902 58 59 56
-0.48108 0.275899 0.252326 37 50 51
-0.479534 0.277256 0.25291 18 45 50
-0.477994 0.278607 0.253491 11 46 50
-0.477243 0.28056 0.253914 12 49 51
-0.476492 0.282513 0.254337 18 60 62
-0.475741 0.284465 0.254759 38 81 80
-0.47499 0.286418 0.255182 65 80 87
-0.524897 0.255567 0.23536 74 70 65
-0.523154 0.257057 0.236019 84 87 72
-0.522351 0.259146 0.236471 96 98 76
-0.521547 0.261234 0.236923 100 103 76
-0.518889 0.2621 0.237778 103 108 78
-0.516252 0.262958 0.238626 103 108 78
-0.510939 0.261997 0.240051 101 106 76
-0.50486 0.260465 0.241635 97 106 79
-0.503214 0.261898 0.242259 93 103 79
-0.500715 0.262733 0.243066 93 95 78
-0.497389 0.262973 0.244047 91 94 78
-0.490793 0.26089 0.245721 94 97 77
-0.490034 0.262864 0.246148 90 93 74
-0.489274 0.264839 0.246575 84 84 71
-0.486889 0.265644 0.247346 81 81 72
-0.486132 0.26761 0.247771 71 71 72
-0.485376 0.269578 0.248197 65 64 66
-0.484619 0.271545 0.248623 64 65 61
-0.483863 0.273512 0.249049 67 62 57
-0.483106 0.27548 0.249475 68 63 58
-0.48155 0.276843 0.250066 51 59 56
-0.48 0.278201 0.250655 25 49 51
-0.478456 0.279553 0.251242 12 44 49
-0.476918 0.280901 0.251826 9 47 54
-0.476167 0.282854 0.252249 20 61 65
-0.475416 0.284807 0.252672 52 83 75
-0.474664 0.28676 0.253095 64 75 72
-0.525493 0.25653 0.232908 66 78 81
-0.523745 0.258021 0.233573 67 97 99
-0.52294 0.260114 0.234026 76 104 102
-0.521201 0.261596 0.234687 81 106 98
-0.520397 0.263684 0.235139 86 110 96
-0.517743 0.26454 0.236002 86 109 96
-0.512392 0.263559 0.23746 88 109 95
-0.505396 0.261408 0.239275 86 108 94
-0.503745 0.262842 0.239905 88 107 94
-0.50038 0.263083 0.240911 87 100 92
-0.497056 0.263321 0.241905 91 102 92
-0.492111 0.26239 0.243249 91 108 93
-0.490525 0.263788 0.243857 90 107 91
-0.488946 0.265182 0.244463 85 101 91
-0.487372 0.26657 0.245067 76 106 105
-0.486614 0.268541 0.245493 60 100 112
-0.485856 0.270512 0.24592 62 91 101
-0.487536 0.274286 0.245824 71 84 78
-0.486773 0.276269 0.246253 69 70 69
-0.484388 0.277033 0.247028 69 68 65
-0.482021 0.27779 0.247796 58 64 58
-0.480467 0.279149 0.248391 34 53 50
-0.47813 0.279895 0.24915 14 44 47
-0.477377 0.281851 0.249574 6 47 57
-0.475841 0.283195 0.250161 18 63 72
-0.47509 0.285148 0.250584 59 92 78
-0.474339 0.287101 0.251007 64 71 64
-0.526092 0.257496 0.230445 63 72 73
-0.524338 0.258989 0.231116 58 78 85
-0.523532 0.261087 0.23157 59 81 89
-0.521787 0.262569 0.232238 58 79 86
-0.52005 0.264046 0.232903 56 78 86
-0.517398 0.2649 0.233775 56 77 85
-0.51205 0.263916 0.235256 56 77 85
-0.506812 0.262952 0.236706 56 76 84
-0.504278 0.26379 0.237542 54 75 84
-0.501764 0.264621 0.23837 55 74 83
-0.498418 0.264851 0.239383 58 75 83
-0.492609 0.263316 0.240944 57 74 84
-0.491845 0.265303 0.241373 50 75 86
-0.490257 0.266699 0.241986 39 81 91
-0.489494 0.268682 0.242415 36 96 106
-0.487098 0.269475 0.243205 39 109 120
-0.488789 0.27325 0.243093 56 108 114
-0.489671 0.276457 0.243161 74 116 102
-0.488904 0.278452 0.243593 68 102 101
-0.486496 0.279212 0.244383 67 86 90
-0.483299 0.279353 0.245342 65 72 71
-0.480937 0.280102 0.246118 43 53 53
-0.478593 0.280845 0.246887 19 43 48
-0.477051 0.282193 0.247481 8 47 60
-0.476299 0.28415 0.247905 19 63 75
-0.475546 0.286107 0.248328 60 91 81
-0.474013 0.287443 0.248919 66 67 62
-0.491515 0.265648 0.239248 50 68 69
-0.490751 0.267635 0.239678 36 68 69
-0.489987 0.269622 0.240108 31 68 66
-0.489222 0.271609 0.240537 32 66 67
-0.490107 0.274809 0.240595 32 65 73
-0.490167 0.277419 0.240841 36 88 95
-0.489398 0.279418 0.241273 48 110 117
-0.487804 0.280796 0.24189 68 117 117
-0.4854 0.281546 0.242687 68 97 93
-0.481408 0.281058 0.243835 44 63 62
-0.479057 0.281799 0.244615 19 46 50
-0.477512 0.283148 0.245215 9 50 62
-0.475972 0.284492 0.245812 19 66 82
-0.47522 0.286449 0.246236 62 93 90
-0.474467 0.288407 0.246659 70 62 59
-0.49042 0.26798 0.237552 61 64 66
-0.490481 0.270565 0.23779 61 64 63
-0.490542 0.273161 0.238029 61 65 62
-0.490603 0.275767 0.238269 39 65 61
-0.489834 0.277767 0.238702 22 60 64
-0.489894 0.280388 0.238944 21 61 71
-0.488296 0.281766 0.239567 34 81 89
-0.486704 0.283139 0.240187 33 81 92
-0.481079 0.281402 0.241726 19 57 70
-0.47873 0.282142 0.242514 12 44 52
-0.477185 0.28349 0.243118 8 52 63
-0.475646 0.284834 0.243719 18 72 81
-0.474893 0.286791 0.244143 62 96 94
-0.47414 0.288749 0.244566 68 63 58
-0.528047 0.26316 0.223213 74 65 60
-0.526275 0.264654 0.223906 74 66 60
-0.523562 0.265516 0.224827 72 65 60
-0.518083 0.264514 0.226419 71 65 60
-0.514531 0.264751 0.227538 69 65 59
-0.50658 0.261972 0.229719 67 65 59
-0.503177 0.26222 0.230793 65 64 60
-0.500673 0.263057 0.231647 69 64 62
-0.498188 0.263887 0.232495 73 61 59
-0.494884 0.26412 0.233537 69 65 59
-0.491618 0.264351 0.234566 66 64 57
-0.490854 0.266338 0.234996 67 64 58
-0.490916 0.26892 0.235229 65 65 63
-0.490977 0.271513 0.235463 67 68 64
-0.49021 0.273508 0.235895 69 66 59
-0.49027 0.276115 0.23613 65 68 57
-0.490331 0.278733 0.236367 55 66 59
-0.48956 0.280737 0.236801 33 64 65
-0.488789 0.282741 0.237234 24 67 73
-0.486372 0.283487 0.238052 22 67 72
-0.483973 0.284228 0.238864 15 55 59
-0.479196 0.283101 0.240228 6 42 51
-0.476858 0.283833 0.241021 3 53 64
-0.476104 0.285794 0.241445 17 74 83
-0.47535 0.287756 0.241869 61 94 100
-0.474595 0.289717 0.242293 76 65 58
-0.530442 0.26265 0.22 74 69 63
-0.528657 0.264151 0.220702 89 84 71
-0.526879 0.265647 0.221401 94 94 74
-0.525109 0.267136 0.222098 90 92 73
-0.517737 0.264875 0.224186 87 90 72
-0.513279 0.264498 0.225544 85 90 71
-0.506241 0.262326 0.227537 82 86 71
-0.501113 0.261388 0.22905 78 85 70
-0.498627 0.262225 0.229908 77 82 70
-0.49532 0.262468 0.230965 78 74 66
-0.491226 0.262127 0.232213 72 75 66
-0.489641 0.263527 0.232843 72 73 68
-0.4897 0.266094 0.233071 67 69 67
-0.491413 0.269864 0.232897 68 67 69
-0.490645 0.27186 0.233328 66 64 64
-0.489878 0.273855 0.233759 68 61 60
-0.489937 0.276463 0.233991 71 65 59
-0.489997 0.279082 0.234224 68 71 64
-0.489226 0.281086 0.234657 58 82 82
-0.488455 0.28309 0.23509 49 94 99
-0.486039 0.283835 0.235917 31 82 91
-0.484455 0.285202 0.236544 10 55 69
-0.482069 0.285934 0.23736 4 47 61
-0.47811 0.285413 0.238548 4 59 70
-0.475777 0.286137 0.239347 20 78 82
-0.475022 0.288099 0.239771 60 91 100
-0.474268 0.29006 0.240195 74 66 57
-0.530089 0.263017 0.217719 69 74 73
-0.52927 0.265147 0.218179 80 95 88
-0.527487 0.266644 0.218886 88 110 93
-0.524757 0.267502 0.219832 85 112 96
-0.516469 0.26462 0.222187 86 113 97
-0.512935 0.264857 0.22333 86 114 97
-0.505025 0.262082 0.225575 87 113 98
-0.499067 0.260563 0.227321 85 112 96
-0.495757 0.260816 0.228394 83 111 96
-0.491659 0.260488 0.229662 81 108 95
-0.488438 0.260739 0.230706 76 107 97
-0.48768 0.262711 0.231132 73 105 99
-0.48937 0.266438 0.230948 61 94 104
-0.490253 0.269612 0.230967 59 82 102
-0.490313 0.272207 0.231193 64 77 88
-0.489545 0.274202 0.231624 69 74 73
-0.489604 0.276811 0.231851 70 74 72
-0.489663 0.279431 0.232079 66 93 94
-0.488893 0.281435 0.232513 60 116 121
-0.487296 0.282812 0.233148 46 110 120
-0.485707 0.284183 0.233781 27 89 100
-0.484939 0.28618 0.234213 29 90 91
-0.483357 0.287542 0.234843 39 92 92
-0.480975 0.288266 0.235666 30 81 87
-0.477025 0.287727 0.236867 40 80 78
-0.476267 0.289696 0.237293 65 86 91
-0.475509 0.291666 0.237719 69 71 59
-0.53168 0.264643 0.21493 57 69 73
-0.528916 0.265515 0.215898 52 76 86
-0.528097 0.267646 0.216359 51 80 88
-0.524406 0.267868 0.217565 50 82 91
-0.516124 0.26498 0.219958 50 85 94
-0.512591 0.265215 0.221115 48 87 97
-0.502081 0.260657 0.224069 44 89 102
-0.496193 0.259164 0.225822 45 93 103
-0.492092 0.258849 0.22711 45 97 104
-0.488868 0.25911 0.22817 47 103 109
-0.48811 0.261081 0.228596 46 110 116
-0.487352 0.263053 0.229022 47 116 125
-0.488221 0.266195 0.229034 47 126 136
-0.489098 0.269361 0.229045 52 127 134
-0.489155 0.27195 0.229266 69 123 119
-0.489213 0.27455 0.229488 82 122 106
-0.488446 0.276546 0.22992 75 118 113
-0.488502 0.27916 0.230143 68 135 138
-0.487733 0.28116 0.230576 53 128 140
-0.486142 0.282535 0.231214 42 115 126
-0.485374 0.284532 0.231645 46 121 124
-0.484606 0.286528 0.232077 57 131 132
-0.483838 0.288525 0.232509 56 119 123
-0.482258 0.289883 0.233142 31 77 92
-0.481491 0.291876 0.233573 51 82 75
-0.477521 0.291307 0.234795 61 76 77
-0.486162 0.260277 0.226908 39 73 72
-0.486213 0.262817 0.227122 33 74 71
-0.485456 0.264785 0.227548 27 75 72
-0.48713 0.268519 0.227342 30 72 74
-0.488002 0.271695 0.227347 38 83 91
-0.487237 0.273683 0.227777 56 121 123
-0.487291 0.276281 0.227995 68 152 152
-0.487345 0.27889 0.228215 58 142 153
-0.486577 0.280886 0.228646 46 134 146
-0.485809 0.282883 0.229078 52 143 149
-0.485041 0.28488 0.229509 65 147 151
-0.484273 0.286877 0.229941 67 138 141
-0.483505 0.288874 0.230372 49 104 109
-0.483551 0.291514 0.230597 27 77 81
-0.481969 0.292869 0.231235 65 88 79
-0.4812 0.294866 0.231667 66 69 66
-0.485031 0.260048 0.22502 65 64 61
-0.484277 0.262008 0.225443 61 68 62
-0.484324 0.264547 0.225654 52 71 71
-0.484372 0.267096 0.225866 49 80 87
-0.484419 0.269655 0.226078 56 122 120
-0.483661 0.271628 0.226505 64 153 155
-0.484515 0.274804 0.226506 58 141 158
-0.484563 0.277395 0.226721 53 139 152
-0.485426 0.280613 0.226724 62 154 158
-0.485477 0.283231 0.226941 72 158 163
-0.484709 0.285228 0.227372 72 144 149
-0.484757 0.28786 0.227591 67 120 122
-0.483987 0.289862 0.228023 49 95 99
-0.483218 0.291863 0.228456 24 62 79
-0.482448 0.293865 0.228888 68 95 86
-0.481678 0.295866 0.229321 71 64 62
-0.533557 0.267667 0.20724 66 69 63
-0.532729 0.26982 0.207705 66 67 67
-0.487775 0.255066 0.221429 70 66 61
-0.484609 0.255347 0.222512 66 69 59
-0.483857 0.257299 0.222934 68 61 56
-0.483106 0.259252 0.223355 73 60 60
-0.482355 0.261205 0.223777 66 68 69
-0.482398 0.263733 0.223984 55 86 92
-0.482442 0.266271 0.224191 67 133 125
-0.481688 0.268232 0.224615 67 159 158
-0.480933 0.270193 0.225039 58 145 157
-0.482573 0.273944 0.224819 55 147 159
-0.483423 0.27713 0.224814 69 164 167
-0.48428 0.280342 0.224809 78 165 169
-0.484328 0.282954 0.225022 73 145 152
-0.484376 0.285576 0.225235 72 124 128
-0.485243 0.288848 0.225232 67 106 110
-0.484472 0.290853 0.225665 38 73 86
-0.4837 0.292859 0.226098 16 59 78
-0.482929 0.294865 0.226531 69 101 94
-0.482157 0.296871 0.226965 70 62 56
-0.534028 0.265885 0.204467 69 67 64
-0.533199 0.268039 0.204933 68 75 79
-0.485035 0.253732 0.219999 71 69 64
-0.482693 0.254572 0.220863 62 69 62
-0.481945 0.256518 0.221283 68 65 64
-0.481987 0.259026 0.221484 62 65 72
-0.48203 0.261545 0.221686 56 87 101
-0.481279 0.263498 0.222108 72 146 138
-0.480527 0.265452 0.22253 64 162 162
-0.479776 0.267405 0.222952 59 146 157
-0.479814 0.269946 0.223157 59 151 160
-0.479852 0.272496 0.223363 72 166 170
-0.481486 0.276261 0.223133 78 164 171
-0.483949 0.280689 0.22268 73 144 152
-0.484811 0.283927 0.222666 71 126 128
-0.48568 0.287192 0.222652 66 106 112
-0.485731 0.28984 0.222863 48 73 87
-0.484958 0.291849 0.223297 24 52 59
-0.484185 0.293859 0.223731 9 63 76
-0.483412 0.295869 0.224165 68 104 100
-0.482638 0.297879 0.224599 66 64 60
-0.481497 0.249387 0.218614 97 111 92
-0.479191 0.250235 0.219475 81 101 94
-0.47845 0.252162 0.219891 60 88 96
-0.477709 0.254089 0.220307 58 79 103
-0.477743 0.256568 0.220504 57 91 113
-0.478556 0.259619 0.220482 79 155 151
-0.478592 0.262124 0.220681 64 161 166
-0.478627 0.264639 0.22088 61 150 162
-0.477879 0.266585 0.221301 62 156 169
-0.478699 0.269699 0.221282 74 168 174
-0.478735 0.272244 0.221484 78 161 170
-0.481157 0.276605 0.221021 74 141 151
-0.483617 0.281035 0.220551 72 125 128
-0.485296 0.284905 0.220301 66 106 112
-0.486169 0.288181 0.220278 47 72 86
-0.486221 0.290835 0.220483 25 49 56
-0.485446 0.292849 0.220918 15 45 48
-0.484671 0.294863 0.221353 11 67 73
-0.483896 0.296878 0.221788 62 97 101
-0.482303 0.298231 0.222448 66 68 61
-0.471951 0.240966 0.21902 53 93 106
-0.472724 0.243887 0.218993 51 110 123
-0.473503 0.246831 0.218965 52 124 140
-0.474288 0.249797 0.218938 46 136 157
-0.473554 0.251706 0.21935 58 163 175
-0.473579 0.254158 0.219543 80 174 172
-0.475906 0.258278 0.219076 66 160 170
-0.475936 0.260766 0.21927 66 154 163
-0.475966 0.263264 0.219466 65 160 173
-0.475996 0.265772 0.219662 76 171 179
-0.476806 0.268871 0.219637 77 161 172
-0.477622 0.271994 0.219612 72 139 150
-0.481629 0.277556 0.21868 72 124 128
-0.484098 0.282003 0.21819 71 104 110
-0.486607 0.286521 0.217693 58 74 86
-0.486659 0.289173 0.217893 31 50 58
-0.486712 0.291835 0.218094 13 44 46
-0.48511 0.293201 0.218763 12 44 50
-0.484335 0.295215 0.219198 23 72 70
-0.48356 0.29723 0.219633 59 87 96
-0.482786 0.299244 0.220067 67 66 58
-0.467189 0.23589 0.218124 57 71 68
-0.467935 0.238754 0.218094 56 68 71
-0.469425 0.242151 0.217845 50 71 75
-0.470931 0.245587 0.217594 44 80 91
-0.471702 0.248532 0.217561 53 108 132
-0.470972 0.25043 0.217971 80 169 174
-0.470992 0.252865 0.21816 65 159 175
-0.471767 0.255855 0.218129 69 158 165
-0.474075 0.259981 0.217652 71 161 176
-0.474871 0.263033 0.217619 82 175 179
-0.474899 0.265536 0.217811 78 161 170
-0.474155 0.267471 0.218229 70 138 148
-0.475733 0.271156 0.217973 69 125 128
-0.48372 0.279739 0.215861 67 114 116
-0.485399 0.283601 0.215584 66 90 96
-0.487098 0.28751 0.215303 56 59 64
-0.487152 0.290169 0.215499 24 44 45
-0.486376 0.292187 0.215934 10 42 44
-0.485599 0.294206 0.21637 12 43 50
-0.484823 0.296224 0.216806 40 77 70
-0.483224 0.297582 0.217477 59 81 85
-0.465428 0.235223 0.216567 65 64 63
-0.464714 0.237079 0.216968 61 63 69
-0.466905 0.240947 0.216495 57 75 79
-0.468389 0.244357 0.216237 63 119 123
-0.46989 0.247806 0.215976 84 170 173
-0.469162 0.249697 0.216384 67 157 174
-0.469179 0.252122 0.21657 73 165 167
-0.469196 0.254556 0.216757 74 164 176
-0.469962 0.257547 0.216721 82 175 179
-0.472252 0.261678 0.216234 80 160 166
-0.473039 0.264731 0.216195 73 137 145
-0.473064 0.267233 0.216384 69 124 127
-0.473088 0.269744 0.216574 63 118 117
-0.484201 0.280704 0.213491 60 117 118
-0.48671 0.285212 0.212956 69 109 110
-0.487592 0.288503 0.212902 65 76 72
-0.486816 0.290521 0.213338 27 41 43
-0.486039 0.29254 0.213774 11 41 43
-0.485263 0.294558 0.214209 11 43 51
-0.484486 0.296577 0.214645 52 82 71
-0.48371 0.298596 0.215081 61 77 72
-0.463672 0.232228 0.214843 66 62 64
-0.464398 0.235052 0.214801 62 68 67
-0.464405 0.2374 0.21498 57 83 87
-0.464413 0.239757 0.215159 69 129 124
-0.465875 0.243141 0.214895 82 174 174
-0.467353 0.246564 0.214629 68 156 174
-0.467366 0.248969 0.21481 74 170 171
-0.467379 0.251384 0.214992 75 170 176
-0.468135 0.254346 0.214949 83 176 178
-0.467406 0.256241 0.215358 79 158 163
-0.468912 0.259784 0.215091 73 135 141
-0.470435 0.263369 0.21482 72 122 123
-0.471976 0.266995 0.214546 68 102 105
-0.471999 0.269501 0.214732 50 84 90
-0.484684 0.281673 0.211111 38 85 90
-0.487202 0.286198 0.210555 47 92 96
-0.487255 0.288855 0.210742 48 72 79
-0.487309 0.291522 0.210929 26 39 42
-0.485703 0.292892 0.211613 12 42 40
-0.484926 0.294911 0.212048 9 43 58
-0.484149 0.29693 0.212484 57 89 77
-0.483373 0.298949 0.212919 63 71 64
-0.462647 0.229743 0.212915 67 64 61
-0.462651 0.232063 0.213089 64 68 68
-0.462656 0.234393 0.213264 58 86 89
-0.463377 0.237225 0.213216 75 144 133
-0.463383 0.239578 0.213392 79 171 172
-0.463389 0.241939 0.213568 70 153 171
-0.464844 0.245335 0.213295 75 169 176
-0.465583 0.248247 0.213247 77 170 178
-0.465593 0.250651 0.213425 82 177 178
-0.466339 0.2536 0.213377 79 158 160
-0.46635 0.256028 0.213557 72 134 137
-0.466361 0.258466 0.213737 71 122 119
-0.467861 0.262022 0.21346 70 103 100
-0.469378 0.26562 0.21318 64 78 80
-0.471677 0.269838 0.212663 52 63 67
-0.485168 0.282646 0.208721 40 62 65
-0.486866 0.28655 0.208398 33 61 65
-0.48775 0.289853 0.208327 24 48 60
-0.486972 0.291875 0.208763 17 39 40
-0.486194 0.293898 0.209199 11 42 40
-0.484589 0.295264 0.209887 6 44 67
-0.483813 0.297283 0.210322 57 92 87
-0.483036 0.299302 0.210758 64 69 65
-0.461629 0.227275 0.211001 62 68 62
-0.461632 0.229583 0.211171 62 66 71
-0.461634 0.231899 0.211341 56 88 100
-0.461637 0.234224 0.211512 77 150 140
-0.461639 0.236558 0.211684 77 173 171
-0.461641 0.2389 0.211857 72 152 167
-0.461644 0.241252 0.21203 73 166 175
-0.462364 0.244121 0.211977 78 171 178
-0.463814 0.24753 0.211695 80 172 178
-0.46382 0.249924 0.21187 77 154 158
-0.463826 0.252328 0.212045 72 133 136
-0.463833 0.25474 0.212222 71 120 117
-0.465307 0.258249 0.211938 70 102 96
-0.465316 0.260691 0.212116 68 79 76
-0.470592 0.269596 0.210831 61 62 59
-0.484835 0.282995 0.206577 58 62 57
-0.48653 0.286901 0.206241 48 56 54
-0.487413 0.290205 0.206161 30 41 44
-0.486635 0.292228 0.206597 17 38 40
-0.485857 0.294252 0.207033 12 39 43
-0.484253 0.295616 0.207725 6 48 71
-0.483476 0.297636 0.208161 54 90 95
-0.482699 0.299655 0.208596 63 71 67
-0.459218 0.223898 0.209555 68 64 59
-0.459916 0.226651 0.209494 59 71 74
-0.46062 0.229424 0.209433 62 95 113
-0.46062 0.231736 0.2096 79 153 152
-0.460621 0.234057 0.209767 73 171 173
-0.459914 0.235896 0.210164 73 157 168
-0.459913 0.238228 0.210333 73 168 176
-0.459912 0.24057 0.210502 79 173 178
-0.459911 0.24292 0.210673 80 172 176
-0.460623 0.245791 0.210615 75 150 155
-0.461341 0.248683 0.210556 70 132 135
-0.462063 0.251596 0.210498 68 118 119
-0.462066 0.253999 0.21067 70 98 96
-0.462796 0.256949 0.210612 68 78 75
-0.486194 0.287252 0.204083 62 58 51
-0.487076 0.290558 0.203994 50 52 49
-0.486297 0.292582 0.20443 28 42 44
-0.485519 0.294605 0.204867 15 36 44
-0.483916 0.295969 0.205563 12 57 68
-0.483139 0.297989 0.205998 51 86 96
-0.482362 0.300008 0.206434 63 70 68
-0.456842 0.220569 0.208131 64 67 62
-0.457527 0.22329 0.208065 60 73 78
-0.458216 0.226031 0.207998 62 102 119
-0.458212 0.22832 0.208161 84 158 163
-0.458209 0.230617 0.208325 72 167 172
-0.458205 0.232923 0.208489 73 159 168
-0.458201 0.235238 0.208654 72 164 176
-0.458197 0.237561 0.20882 82 175 180
-0.458193 0.239893 0.208986 80 168 176
-0.458188 0.242234 0.209153 75 148 152
-0.458184 0.244583 0.20932 71 129 132
-0.458889 0.247454 0.209257 66 117 115
-0.459598 0.250348 0.209194 67 98 93
-0.461032 0.253792 0.208897 68 76 72
-0.486738 0.290911 0.201827 61 62 56
-0.48596 0.292935 0.202264 47 54 53
-0.485182 0.294958 0.2027 24 41 48
-0.483579 0.296322 0.2034 23 66 63
-0.482802 0.298342 0.203836 50 78 87
-0.482025 0.300361 0.204271 63 66 65
-0.45518 0.217733 0.206497 62 66 62
-0.455171 0.219978 0.206655 59 80 80
-0.455847 0.222687 0.206584 66 113 124
-0.455839 0.224953 0.206743 84 160 169
-0.455831 0.227228 0.206903 73 164 177
-0.455823 0.229511 0.207064 72 162 167
-0.455815 0.231803 0.207225 72 163 175
-0.455806 0.234103 0.207386 84 174 180
-0.455798 0.236411 0.207549 81 165 175
-0.456486 0.239221 0.20748 75 145 152
-0.457179 0.242052 0.207411 72 127 130
-0.457173 0.244397 0.207575 68 115 115
-0.457166 0.24675 0.207739 65 97 90
-0.457867 0.24963 0.207671 67 78 67
-0.485622 0.293288 0.200096 63 60 54
-0.484019 0.294655 0.200802 49 55 49
-0.483242 0.296675 0.201237 48 64 56
-0.482465 0.298695 0.201673 59 63 61
-0.453537 0.214926 0.204881 66 66 68
-0.453525 0.217154 0.205035 62 84 84
-0.453513 0.219391 0.20519 72 122 123
-0.4535 0.221635 0.205346 88 164 170
-0.453488 0.223887 0.205502 76 162 177
-0.452796 0.225687 0.205889 74 164 170
-0.453463 0.228417 0.205816 74 165 177
-0.453451 0.230694 0.205974 86 176 180
-0.454124 0.233458 0.2059 82 163 171
-0.454112 0.235757 0.206059 74 142 151
-0.454791 0.238554 0.205985 71 126 130
-0.455476 0.241372 0.20591 69 110 114
-0.456165 0.244211 0.205835 66 93 92
-0.456157 0.24656 0.205996 65 75 68
-0.45258 0.212581 0.203049 65 65 65
-0.452567 0.214797 0.203199 64 86 90
-0.452553 0.217021 0.20335 76 130 127
-0.451866 0.218808 0.203735 89 165 168
-0.451178 0.220594 0.20412 82 160 176
-0.451162 0.222833 0.204273 75 165 171
-0.450473 0.224623 0.204659 78 167 175
-0.451129 0.227334 0.204581 87 177 183
-0.451112 0.229598 0.204736 86 162 171
-0.451773 0.232342 0.204658 74 139 147
-0.452439 0.235107 0.204579 72 125 129
-0.453109 0.237892 0.2045 68 109 114
-0.453785 0.240698 0.20442 65 88 90
-0.454465 0.243524 0.20434 65 70 69
-0.450965 0.209827 0.201464 61 67 71
-0.450284 0.211597 0.201846 64 90 98
-0.450266 0.2138 0.201993 78 140 135
-0.450248 0.21601 0.202141 86 167 166
-0.45023 0.218229 0.20229 83 161 173
-0.449546 0.220009 0.202674 78 164 172
-0.449526 0.222239 0.202823 79 170 176
-0.44884 0.224022 0.203208 88 179 181
-0.448819 0.226264 0.203359 88 163 170
-0.448798 0.228513 0.203511 74 135 145
-0.449447 0.231239 0.203429 72 124 126
-0.450777 0.234462 0.20311 72 108 112
-0.451439 0.237235 0.203026 65 86 88
-0.452792 0.240521 0.202702 65 69 63
-0.448055 0.206268 0.200368 61 69 75
-0.449348 0.209284 0.20004 66 93 106
-0.448669 0.211048 0.20042 79 144 145
-0.448648 0.213242 0.200564 82 169 168
-0.447968 0.21501 0.200945 83 162 172
-0.447946 0.217215 0.201091 78 164 172
-0.447265 0.218986 0.201472 82 171 177
-0.447242 0.221202 0.201619 87 178 183
-0.447218 0.223427 0.201767 87 165 166
-0.447857 0.226115 0.201679 75 134 145
-0.447171 0.227899 0.202063 71 122 124
-0.447147 0.230148 0.202212 70 107 110
-0.448457 0.233348 0.201889 69 82 85
-0.449781 0.236583 0.201562 67 68 63
-0.445196 0.202771 0.19929 59 76 79
-0.447112 0.206156 0.198723 64 101 114
-0.446438 0.207908 0.1991 79 145 152
-0.445764 0.20966 0.199477 80 170 172
-0.445738 0.211836 0.199619 78 163 170
-0.445712 0.21402 0.199761 78 161 172
-0.445036 0.215779 0.20014 82 175 177
-0.445009 0.217974 0.200283 86 173 178
-0.444981 0.220177 0.200428 87 164 165
-0.444954 0.222388 0.200572 73 132 141
-0.445581 0.225059 0.200481 71 121 124
-0.445555 0.22729 0.200626 71 105 106
-0.445528 0.22953 0.200772 63 78 87
-0.446162 0.232246 0.200681 67 65 62
-0.443655 0.200129 0.19776 61 76 74
-0.443627 0.202262 0.197897 67 108 115
-0.44296 0.203996 0.198271 79 149 160
-0.44421 0.206964 0.197936 79 168 174
-0.443539 0.208707 0.198311 76 163 171
-0.44351 0.21087 0.19845 78 161 171
-0.442838 0.212617 0.198826 82 175 178
-0.442807 0.214791 0.198966 84 174 176
-0.442776 0.216973 0.199107 84 162 162
-0.442745 0.219163 0.199248 73 129 136
-0.444009 0.222248 0.198914 70 120 121
-0.443979 0.224463 0.199056 72 105 105
-0.44395 0.226685 0.199199 68 75 81
-0.444575 0.229377 0.199102 62 65 65
-0.442131 0.197515 0.196246 61 81 80
-0.4421 0.199632 0.19638 70 116 116
-0.441436 0.201357 0.196751 83 152 160
-0.440772 0.203082 0.197123 83 166 177
-0.440738 0.205213 0.197258 74 161 170
-0.441972 0.208177 0.196919 79 161 171
-0.441304 0.209914 0.197293 83 173 180
-0.440636 0.211652 0.197667 84 170 174
-0.440601 0.213813 0.197804 81 159 160
-0.440566 0.215982 0.197942 73 129 132
-0.440531 0.218159 0.19808 69 118 120
-0.441777 0.221223 0.197742 72 107 105
-0.442389 0.223871 0.197641 68 74 77
-0.443004 0.226538 0.19754 67 64 62
-0.439376 0.194158 0.195223 61 88 90
-0.439963 0.196639 0.195116 69 122 122
-0.439928 0.198745 0.195247 83 158 161
-0.439893 0.200857 0.195378 87 167 177
-0.439232 0.202576 0.195748 76 160 171
-0.43857 0.204296 0.196119 80 163 171
-0.439786 0.20724 0.195775 82 171 180
-0.439751 0.209382 0.195909 88 169 175
-0.439084 0.211114 0.196281 78 154 159
-0.439047 0.213267 0.196416 72 124 129
-0.43901 0.215427 0.196551 70 118 117
-0.438972 0.217596 0.196686 68 106 102
-0.439569 0.220208 0.196582 70 75 76
-0.440809 0.223283 0.196236 67 64 58
-0.436668 0.190857 0.194217 62 89 93
-0.436017 0.19255 0.194582 68 129 129
-0.435975 0.194623 0.19471 81 164 163
-0.435934 0.196704 0.194839 84 166 175
-0.435892 0.198792 0.194968 79 159 171
-0.43585 0.200887 0.195098 83 169 174
-0.435194 0.202591 0.195465 83 170 182
-0.435151 0.204697 0.195596 89 167 175
-0.437583 0.208442 0.194774 77 147 157
-0.438169 0.210996 0.194664 70 125 127
-0.437504 0.212724 0.195037 69 117 120
-0.438091 0.215302 0.194928 67 102 99
-0.438052 0.217466 0.19506 65 74 73
-0.438013 0.219639 0.195193 66 65 62
-0.435818 0.188715 0.192515 65 91 99
-0.435777 0.190775 0.192639 74 132 136
-0.435127 0.192465 0.193003 84 169 166
-0.434477 0.194155 0.193367 81 168 176
-0.433826 0.195845 0.19373 77 159 170
-0.433176 0.197535 0.194094 85 173 176
-0.43313 0.199614 0.194222 85 171 182
-0.433691 0.202094 0.194112 93 169 173
-0.433645 0.204191 0.19424 75 140 155
-0.43421 0.2067 0.19413 69 123 127
-0.436014 0.210049 0.193538 67 118 120
-0.436593 0.212604 0.193424 66 102 102
-0.436551 0.214753 0.193553 66 69 68
-0.437135 0.217337 0.193439 65 66 61
-0.436269 0.183224 0.190101 65 65 59
-0.434975 0.186587 0.190824 65 93 104
-0.434328 0.188268 0.191186 77 136 145
-0.433681 0.189949 0.191548 85 168 170
-0.433034 0.191631 0.191909 80 165 174
-0.432988 0.193689 0.192032 78 157 171
-0.43234 0.195374 0.192395 84 175 178
-0.431692 0.197059 0.192757 86 171 181
-0.432245 0.199517 0.192643 93 171 173
-0.432197 0.2016 0.192768 78 136 149
-0.432149 0.20369 0.192893 72 120 124
-0.432707 0.206188 0.192779 70 116 118
-0.434494 0.209522 0.19218 62 93 98
-0.435066 0.212067 0.192062 67 67 66
-0.434825 0.180768 0.188667 65 64 60
-0.43294 0.183755 0.189628 65 101 107
-0.432297 0.185425 0.189988 79 144 151
-0.43225 0.187459 0.190106 87 170 175
-0.431607 0.189132 0.190466 76 161 173
-0.430963 0.190806 0.190826 81 158 171
-0.430913 0.192852 0.190947 83 175 182
-0.430864 0.194906 0.191068 85 173 180
-0.430814 0.196967 0.191189 91 173 171
-0.430167 0.198649 0.191551 77 132 145
-0.431313 0.2015 0.191192 70 121 126
-0.430663 0.203191 0.191555 74 118 118
-0.431214 0.20568 0.191437 67 84 95
-0.431769 0.208185 0.191318 66 67 61
-0.431618 0.177299 0.187977 67 64 59
-0.430932 0.180961 0.188448 64 107 108
-0.430294 0.18262 0.188805 80 152 154
-0.429655 0.18428 0.189162 85 172 177
-0.429017 0.185939 0.189519 76 158 169
-0.428378 0.187598 0.189876 81 162 170
-0.428325 0.189623 0.189993 82 174 183
-0.428271 0.191654 0.190112 88 174 179
-0.428218 0.193692 0.19023 89 173 171
-0.428753 0.196115 0.190109 75 132 138
-0.429887 0.198939 0.189744 70 121 121
-0.42924 0.200622 0.190106 72 118 116
-0.429783 0.203089 0.189984 61 82 93
-0.430932 0.205973 0.189615 65 62 61
-0.429635 0.17457 0.186818 59 64 64
-0.429533 0.178548 0.187041 66 115 116
-0.428898 0.180199 0.187396 84 161 158
-0.428263 0.18185 0.187751 86 171 178
-0.427628 0.183501 0.188106 76 157 167
-0.426992 0.185153 0.188461 83 167 170
-0.426937 0.187163 0.188576 80 171 182
-0.426881 0.18918 0.188691 89 173 179
-0.426826 0.191204 0.188807 84 164 167
-0.426769 0.193235 0.188923 73 131 137
-0.428475 0.196404 0.188312 73 121 121
-0.429607 0.19923 0.187938 74 116 111
-0.42896 0.200913 0.1883 69 77 86
-0.429502 0.203381 0.188171 62 66 64
-0.427104 0.171547 0.185915 63 62 60
-0.428149 0.176159 0.185648 69 122 127
-0.428096 0.178144 0.185757 88 168 165
-0.427463 0.179789 0.186111 85 168 177
-0.426829 0.181435 0.186465 80 157 169
-0.426196 0.183081 0.186819 86 171 175
-0.425563 0.184727 0.187172 85 171 181
-0.425505 0.18673 0.187285 93 175 178
-0.425447 0.18874 0.187398 78 154 164
-0.425968 0.191123 0.187268 72 129 135
-0.426493 0.193522 0.187137 68 121 123
-0.427021 0.195936 0.187006 74 112 107
-0.428734 0.199135 0.186379 68 77 79
-0.42868 0.201203 0.186493 67 62 63
-0.422368 0.167294 0.185986 66 62 59
-0.425064 0.172797 0.184999 73 126 135
-0.425007 0.174757 0.185106 87 171 171
-0.424949 0.176724 0.185214 82 164 175
-0.425463 0.179039 0.185078 86 160 170
-0.425405 0.181023 0.185187 88 174 177
-0.424774 0.182664 0.185539 86 171 181
-0.424715 0.184657 0.185648 93 172 176
-0.424656 0.186657 0.185758 81 150 161
-0.424597 0.188664 0.185868 72 130 134
-0.424537 0.190677 0.185978 69 120 122
-0.425055 0.193066 0.185844 69 108 106
-0.425577 0.195472 0.185709 70 80 77
-0.428454 0.199425 0.184575 64 62 61
-0.417835 0.161273 0.185949 65 58 47
-0.418856 0.163777 0.185584 63 64 57
-0.422599 0.169822 0.184121 68 131 139
-0.422537 0.171762 0.184226 73 166 174
-0.422476 0.173708 0.184331 75 164 175
-0.423542 0.17633 0.18395 84 163 171
-0.423482 0.178297 0.184055 87 173 178
-0.423422 0.18027 0.184161 88 173 181
-0.422793 0.181903 0.184512 90 170 176
-0.4233 0.184235 0.184375 81 146 156
-0.423239 0.186228 0.184482 72 129 135
-0.423749 0.188587 0.184343 69 120 121
-0.423688 0.190597 0.184451 65 107 105
-0.42478 0.193352 0.184063 66 79 77
-0.4253 0.195759 0.183922 68 61 56
-0.386678 0.113699 0.196627 72 60 55
-0.385278 0.114688 0.197308 71 62 55
-0.384314 0.115874 0.197796 73 64 56
-0.383352 0.117057 0.198283 70 64 58
-0.381546 0.117827 0.199143 76 66 57
-0.417101 0.159361 0.184381 61 59 57
-0.417573 0.161544 0.184248 58 65 65
-0.419073 0.166265 0.183738 59 126 133
-0.419556 0.168496 0.1836 69 160 168
-0.419491 0.170418 0.183704 72 172 182
-0.419978 0.172672 0.183566 73 171 182
-0.421584 0.175605 0.182939 81 172 179
-0.421521 0.177561 0.183042 87 177 179
-0.421457 0.179524 0.183146 88 171 174
-0.421957 0.181837 0.183004 80 146 155
-0.421894 0.183817 0.183109 71 126 134
-0.422397 0.186156 0.182966 68 118 120
-0.422334 0.188152 0.183071 64 103 103
-0.422842 0.190518 0.182928 66 80 75
-0.423927 0.193268 0.182534 68 62 60
-0.379526 0.118825 0.198516 72 60 58
-0.37775 0.119581 0.199368 67 58 51
-0.415836 0.157166 0.183061 62 59 57
-0.415766 0.159034 0.183161 58 67 75
-0.416162 0.163093 0.183125 59 130 133
-0.416092 0.164982 0.183226 68 156 165
-0.416562 0.16719 0.183088 86 176 183
-0.417035 0.169413 0.182949 91 182 189
-0.418058 0.171973 0.182567 88 180 189
-0.419091 0.174558 0.182182 91 180 185
-0.419579 0.176833 0.182038 87 170 172
-0.420069 0.179123 0.181894 80 147 152
-0.420562 0.181428 0.181749 72 126 133
-0.421059 0.183749 0.181603 69 116 118
-0.421559 0.186084 0.181456 62 99 102
-0.421495 0.188077 0.181558 62 79 74
-0.422568 0.190802 0.181159 64 63 57
-0.379828 0.117684 0.196742 186 80 70
-0.37711 0.119609 0.198081 68 57 53
-0.414583 0.154992 0.181753 61 61 56
-0.413981 0.156555 0.182089 59 70 76
-0.413836 0.160277 0.182286 61 134 139
-0.414294 0.16245 0.182146 70 161 167
-0.413689 0.164023 0.182484 92 181 185
-0.414148 0.166215 0.182344 105 189 192
-0.415148 0.168736 0.181963 105 185 191
-0.415616 0.17096 0.181821 101 180 187
-0.416086 0.173198 0.181678 94 172 177
-0.417107 0.175781 0.181289 81 152 157
-0.417586 0.178053 0.181144 73 127 132
-0.419176 0.181022 0.180501 70 115 117
-0.420227 0.183681 0.180101 66 97 101
-0.420723 0.186013 0.179949 58 75 74
-0.421222 0.18836 0.179797 61 64 55
-0.37741 0.118474 0.196316 161 85 73
-0.376472 0.119637 0.196797 78 55 51
-0.413868 0.153123 0.180217 61 62 55
-0.413268 0.154681 0.180552 58 74 74
-0.413121 0.158386 0.180743 63 135 144
-0.412519 0.15995 0.181079 74 162 170
-0.411917 0.161513 0.181415 94 184 188
-0.411841 0.16338 0.181512 110 194 194
-0.412293 0.165559 0.18137 113 190 192
-0.412747 0.167752 0.181227 106 181 186
-0.412672 0.169644 0.181325 96 170 176
-0.413664 0.172181 0.180939 84 156 162
-0.415207 0.175069 0.180305 75 135 140
-0.416223 0.177661 0.17991 72 117 118
-0.416699 0.17994 0.179759 68 95 97
-0.419956 0.183962 0.178352 61 70 71
-0.420451 0.186294 0.178194 59 62 53
-0.376772 0.118504 0.195034 207 103 84
-0.375836 0.119665 0.195517 100 50 53
-0.374495 0.120617 0.196186 67 58 46
-0.412634 0.150984 0.178932 62 64 60
-0.412037 0.152535 0.179265 58 79 77
-0.411364 0.155927 0.179692 63 141 149
-0.411287 0.157772 0.179786 76 164 174
-0.410689 0.159329 0.18012 94 182 190
-0.410611 0.161183 0.180214 111 195 197
-0.410533 0.163043 0.180309 116 194 194
-0.410455 0.164909 0.180405 110 183 185
-0.410901 0.16709 0.18026 98 170 175
-0.410823 0.168972 0.180356 78 153 161
-0.411272 0.171176 0.18021 69 137 142
-0.41279 0.17404 0.179574 71 120 123
-0.414327 0.176941 0.178931 70 95 97
-0.415339 0.179542 0.178529 62 65 67
-0.419685 0.184242 0.176601 61 58 47
-0.376135 0.118533 0.193756 242 114 85
-0.375201 0.119693 0.19424 144 65 64
-0.37427 0.120849 0.194722 77 56 49
-0.373746 0.12221 0.195014 71 57 43
-0.411411 0.148865 0.177658 63 59 57
-0.409785 0.149853 0.17847 59 76 76
-0.408601 0.152931 0.179131 64 147 154
-0.408008 0.154471 0.179462 78 169 179
-0.408955 0.156875 0.179076 98 182 192
-0.408875 0.158714 0.179169 112 194 199
-0.408795 0.160559 0.179262 113 192 195
-0.409232 0.162709 0.179114 110 186 186
-0.409673 0.164873 0.178966 99 174 174
-0.409593 0.166742 0.179059 78 150 157
-0.408991 0.168307 0.179395 65 135 141
-0.409957 0.170814 0.179003 62 119 122
-0.410404 0.173024 0.178853 65 95 95
-0.412986 0.176556 0.177713 63 63 67
-0.415072 0.179819 0.176804 63 52 46
-0.374568 0.119721 0.192966 208 108 80
-0.374044 0.121082 0.193258 108 58 60
-0.373521 0.122442 0.19355 71 51 42
-0.408076 0.147483 0.177448 63 61 59
-0.406475 0.148466 0.178253 64 87 85
-0.405301 0.151517 0.178908 83 166 172
-0.405721 0.153603 0.178762 105 183 192
-0.405637 0.155417 0.178853 116 195 202
-0.406059 0.157525 0.178706 113 190 197
-0.407508 0.160234 0.178077 110 185 187
-0.40794 0.162377 0.177926 96 172 175
-0.408375 0.164533 0.177774 76 148 157
-0.408293 0.166396 0.177865 65 132 138
-0.408211 0.168265 0.177957 62 116 118
-0.408129 0.17014 0.178048 64 94 93
-0.409091 0.172656 0.17765 62 66 64
-0.41112 0.175847 0.176752 63 60 50
-0.408411 0.146214 0.175474 67 61 56
-0.405802 0.146662 0.176765 68 67 61
-0.404218 0.147641 0.177567 69 72 74
-0.403461 0.152745 0.17807 125 184 193
-0.403874 0.154829 0.177922 114 186 197
-0.403287 0.156355 0.178249 106 182 189
-0.405213 0.159327 0.177382 91 168 174
-0.406655 0.162047 0.176745 72 146 155
-0.407085 0.164196 0.17659 63 132 140
-0.407517 0.166358 0.176434 62 116 121
-0.407434 0.168224 0.176523 62 91 90
-0.407351 0.170096 0.176612 63 64 59
-0.407267 0.171974 0.176702 62 57 46
-0.406135 0.145401 0.174802 73 69 71
-0.401585 0.144793 0.177039 79 78 69
-0.401007 0.146295 0.177361 82 81 73
-0.400429 0.147798 0.177684 82 82 81
-0.401139 0.153688 0.177475 115 174 181
-0.401049 0.155484 0.177563 89 164 173
-0.402446 0.158143 0.176935 70 145 152
-0.404365 0.161129 0.176058 64 130 135
-0.406827 0.164462 0.17492 61 111 116
-0.406743 0.16632 0.175006 58 86 89
-0.407175 0.168492 0.174845 61 64 60
-0.407091 0.170365 0.174932 65 60 46
-0.400451 0.142767 0.175813 99 94 86
-0.399391 0.144003 0.17637 98 93 85
-0.398816 0.145496 0.17669 96 90 82
-0.398241 0.14699 0.17701 92 89 81
-0.398148 0.148752 0.177096 86 89 84
-0.398445 0.152565 0.177034 85 138 138
-0.400305 0.155463 0.17617 68 142 149
-0.400213 0.157261 0.176256 64 130 135
-0.402103 0.160222 0.175379 63 107 113
-0.406057 0.164427 0.173499 60 81 87
-0.406485 0.166587 0.173334 58 63 60
-0.406916 0.16876 0.173167 57 58 52
-0.398753 0.142249 0.174917 106 101 90
-0.39818 0.143739 0.175236 101 95 85
-0.397607 0.145228 0.175556 97 91 81
-0.397034 0.146718 0.175875 93 87 76
-0.396939 0.148473 0.175959 85 80 71
-0.396844 0.150234 0.176044 76 82 78
-0.397711 0.152548 0.175654 70 104 103
-0.397617 0.154326 0.175739 66 120 120
-0.39947 0.157237 0.174865 63 106 110
-0.401352 0.160194 0.173979 63 78 83
-0.405799 0.164693 0.171832 62 63 60
-0.406227 0.166854 0.171661 60 59 52
-0.398506 0.142504 0.173314 103 97 86
-0.397454 0.143734 0.173872 98 91 81
-0.396882 0.145222 0.174191 93 88 78
-0.396309 0.146709 0.17451 88 83 72
-0.396213 0.148463 0.174591 79 74 65
-0.396117 0.150221 0.174674 69 69 64
-0.396021 0.151985 0.174756 66 80 76
-0.396885 0.154306 0.174361 65 89 87
-0.39873 0.157214 0.173478 62 77 80
-0.401099 0.160456 0.172336 63 60 57
-0.405542 0.16496 0.170164 64 60 47
-0.39673 0.14373 0.172511 95 86 76
-0.395683 0.144955 0.173068 85 81 71
-0.395587 0.146701 0.173148 78 74 67
-0.39549 0.148452 0.173227 72 67 60
-0.395393 0.150208 0.173307 67 63 56
-0.395295 0.151969 0.173388 67 67 61
-0.396635 0.154564 0.172745 64 68 66
-0.398479 0.157473 0.171851 60 59 59
-0.399856 0.160137 0.17119 59 54 47
-0.396008 0.143726 0.171154 89 80 69
-0.394964 0.14495 0.171712 77 72 64
-0.394867 0.146693 0.17179 69 63 58
-0.397741 0.15745 0.17047 59 57 52
-0.375388 0.126219 0.179938 125 108 95
-0.378193 0.129357 0.178518 110 101 90
-0.395288 0.143722 0.1698 79 72 63
-0.394247 0.144944 0.17036 69 64 56
-0.373637 0.124013 0.179225 99 81 66
-0.375159 0.126454 0.178453 105 91 82
-0.376286 0.12871 0.177887 101 93 83
-0.377425 0.13099 0.177316 92 84 77
-0.394198 0.141731 0.168623 79 70 65
-0.393631 0.143205 0.168939 67 62 57
-0.393903 0.146938 0.16884 57 49 38
-0.367511 0.110053 0.180734 123 49 30
-0.367775 0.111755 0.180611 103 31 20
-0.369214 0.114043 0.179871 96 29 22
-0.370275 0.116164 0.17933 91 33 27
-0.370154 0.117708 0.17941 76 37 30
-0.371227 0.119864 0.178862 66 37 31
-0.372717 0.122251 0.178097 71 44 37
-0.374227 0.124671 0.177321 72 57 42
-0.375344 0.126907 0.176751 77 65 59
-0.376473 0.129168 0.176175 85 76 70
-0.376774 0.131004 0.176034 89 81 67
-0.38005 0.134459 0.174332 71 66 56
-0.393756 0.145451 0.167175 52 49 41
-0.393657 0.147192 0.167245 50 49 38
-0.36652 0.109907 0.179715 82 31 27
-0.366781 0.111604 0.179589 64 33 27
-0.3686 0.114077 0.178637 60 36 30
-0.369657 0.116196 0.17809 64 40 31
-0.36993 0.117938 0.177959 62 42 32
-0.371403 0.120299 0.177191 64 46 34
-0.372491 0.122484 0.176628 68 57 43
-0.374409 0.125118 0.175624 65 59 48
-0.375528 0.12736 0.175044 67 55 51
-0.376242 0.129405 0.17468 73 59 55
-0.376543 0.131242 0.174534 80 69 62
-0.379388 0.134469 0.17304 69 68 62
-0.382298 0.137769 0.171512 57 50 46
-0.393981 0.145964 0.165333 51 48 40
-0.393411 0.147446 0.16565 53 51 45
-0.360412 0.105754 0.181437 101 84 86
-0.362137 0.10812 0.180523 68 28 28
-0.365793 0.111454 0.178573 48 35 28
-0.367211 0.113728 0.177824 49 35 28
-0.368647 0.116032 0.177064 52 38 32
-0.368917 0.117769 0.17693 57 42 35
-0.371178 0.12053 0.17573 61 45 39
-0.376429 0.129865 0.17296 65 53 48
-0.376312 0.13148 0.173034 69 60 54
-0.379154 0.13471 0.171523 73 63 58
-0.357286 0.10458 0.18162 95 77 79
-0.359701 0.107267 0.18032 62 31 31
-0.361419 0.109645 0.179397 43 35 31
-0.365448 0.113191 0.177224 42 35 30
-0.367254 0.115674 0.176255 46 36 34
-0.370155 0.120353 0.1747 55 44 39
