ply
format ascii 1.0
element vertex 1239
property float x
property float y
property float z
property uchar diffuse_red
property uchar diffuse_green
property uchar diffuse_blue
end_header
-0.412166 -0.0383409 0.231554 22 75 73
-0.409152 -0.0369295 0.23265 21 72 69
-0.407102 -0.0355225 0.233458 40 70 66
-0.40644 -0.034097 0.233855 62 64 61
-0.398825 -0.0186937 0.238277 30 72 68
-0.398623 -0.0172807 0.238535 26 72 69
-0.398421 -0.0158677 0.238792 25 74 71
-0.398219 -0.0144546 0.23905 23 75 74
-0.398017 -0.0130413 0.239307 28 81 81
-0.398254 -0.0115869 0.23944 38 93 98
-0.398491 -0.0101284 0.239573 50 115 123
-0.398729 -0.00866602 0.239706 60 141 147
-0.399854 -0.0071049 0.239588 70 159 164
-0.400541 -0.00558073 0.239596 67 150 155
-0.400783 -0.00409999 0.239731 56 132 138
-0.401026 -0.00261514 0.239865 44 116 136
-0.40172 -0.00107022 0.239874 53 132 141
-0.401515 0.000366948 0.240136 69 149 156
-0.40176 0.00186423 0.240272 83 149 148
-0.401554 0.00330354 0.240534 85 120 116
-0.402252 0.00487132 0.240545 65 79 87
-0.402499 0.00638119 0.240682 66 66 65
-0.402293 0.0078267 0.240946 73 63 57
-0.402086 0.00927233 0.241209 78 66 58
-0.427484 -0.0470314 0.224138 85 119 111
-0.425227 -0.0454971 0.225035 81 93 96
-0.424001 -0.0439846 0.225616 78 83 80
-0.423786 -0.042481 0.22589 63 78 77
-0.409604 -0.0381378 0.230789 17 73 73
-0.408009 -0.0367146 0.23147 29 71 67
-0.406885 -0.0352932 0.232008 59 69 62
-0.398848 -0.0170199 0.236981 35 71 67
-0.398207 -0.0156405 0.237367 26 72 69
-0.398005 -0.0142272 0.237625 23 73 71
-0.397803 -0.0128139 0.237882 24 75 72
-0.397601 -0.0114004 0.23814 26 75 75
-0.397837 -0.00994356 0.238271 29 81 84
-0.398074 -0.0084827 0.238402 39 96 104
-0.398311 -0.00701782 0.238534 53 121 128
-0.399434 -0.00544983 0.238411 66 149 152
-0.399674 -0.00397277 0.238544 74 159 164
-0.399915 -0.00249161 0.238676 68 145 153
-0.400604 -0.000950397 0.238682 51 129 135
-0.400847 0.000541074 0.238815 45 118 137
-0.400642 0.00197651 0.239077 55 136 143
-0.400886 0.00347418 0.239211 72 153 156
-0.40113 0.00497602 0.239346 80 139 143
-0.401375 0.00648203 0.239481 80 117 106
-0.401621 0.00799226 0.239617 69 72 85
-0.401414 0.00943606 0.23988 79 68 60
-0.400757 0.0108075 0.240269 77 65 58
-0.400551 0.0122495 0.240532 77 69 59
-0.425215 -0.0467651 0.223238 82 89 87
-0.423988 -0.045249 0.223824 82 85 80
-0.423271 -0.0437434 0.224253 71 80 78
-0.423056 -0.0422418 0.224527 56 76 74
-0.421841 -0.0407446 0.225107 33 74 71
-0.412405 -0.0393287 0.228204 21 73 70
-0.408921 -0.0379133 0.229471 21 72 70
-0.407331 -0.0364927 0.230156 46 68 66
-0.397589 -0.0125864 0.236457 26 73 71
-0.397387 -0.0111728 0.236714 24 72 71
-0.397623 -0.00971551 0.236843 24 73 72
-0.397859 -0.00825421 0.236973 28 76 77
-0.397656 -0.00683654 0.237231 33 84 87
-0.397893 -0.00536923 0.237361 42 101 106
-0.399014 -0.00379433 0.237234 56 125 133
-0.399254 -0.00231481 0.237365 68 152 156
-0.399494 -0.000831193 0.237496 73 159 163
-0.399736 0.000656546 0.237628 67 142 149
-0.399977 0.0021484 0.237759 45 126 134
-0.40022 0.00364441 0.237892 46 123 139
-0.400462 0.00514456 0.238024 58 138 147
-0.400706 0.00664889 0.238158 75 157 158
-0.4005 0.00808879 0.23842 83 141 141
-0.400744 0.00959939 0.238554 81 110 96
-0.400538 0.0110414 0.238816 71 65 81
-0.400332 0.0124836 0.239079 72 66 63
-0.399677 0.0138494 0.239469 72 66 60
-0.399471 0.0152898 0.239732 75 65 59
-0.423976 -0.0465135 0.222032 81 85 84
-0.423258 -0.0450061 0.222463 76 82 79
-0.422042 -0.0435012 0.22305 63 76 76
-0.420339 -0.0420052 0.223787 47 74 72
-0.414772 -0.0405422 0.225726 25 74 70
-0.409838 -0.0391186 0.227461 20 71 69
-0.40824 -0.0376893 0.228156 35 70 68
-0.39761 -0.0109032 0.235158 30 71 70
-0.397408 -0.00948746 0.235416 24 72 71
-0.397644 -0.00802571 0.235543 25 73 71
-0.397441 -0.0066079 0.235801 25 74 73
-0.397239 -0.00518997 0.23606 26 77 77
-0.397475 -0.00372021 0.236188 32 87 91
-0.398594 -0.00213843 0.236056 43 105 110
-0.398834 -0.000656455 0.236186 59 131 136
-0.399073 0.000829648 0.236315 69 156 157
-0.398869 0.00225955 0.236576 73 160 160
-0.399109 0.00375178 0.236706 67 141 145
-0.39935 0.00524816 0.236837 46 122 135
-0.399591 0.0067487 0.236968 51 125 139
-0.399833 0.0082534 0.237099 61 146 149
-0.400076 0.0097623 0.237231 78 155 153
-0.39987 0.0112025 0.237493 84 129 133
-0.399664 0.0126429 0.237756 79 101 94
-0.399459 0.0140833 0.238018 66 69 78
-0.399253 0.0155238 0.23828 70 64 57
-0.399047 0.0169645 0.238543 77 64 60
-0.398841 0.0184052 0.238805 76 61 55
-0.422744 -0.0462633 0.220833 78 85 82
-0.42203 -0.0447604 0.221265 68 81 79
-0.420326 -0.043259 0.22201 53 75 75
-0.416687 -0.0417735 0.223365 34 72 71
-0.414071 -0.040311 0.224394 21 72 70
-0.409154 -0.0388925 0.226145 25 71 68
-0.407561 -0.0374658 0.226845 55 68 67
-0.397632 -0.00921502 0.233855 37 69 68
-0.397429 -0.00779716 0.234113 26 73 70
-0.397665 -0.00633097 0.234239 23 72 71
-0.397463 -0.00491103 0.234498 22 73 70
-0.39726 -0.00349098 0.234756 22 75 72
-0.397057 -0.00207082 0.235015 26 80 79
-0.398174 -0.000482135 0.234879 35 89 92
-0.398413 0.00100232 0.235006 49 111 115
-0.398652 0.00249086 0.235134 60 138 142
-0.398448 0.00392102 0.235395 72 158 161
-0.398687 0.00541574 0.235523 72 152 157
-0.398928 0.0069146 0.235652 64 135 138
-0.399168 0.00841762 0.235782 45 119 134
-0.398963 0.00985399 0.236043 52 126 138
-0.399204 0.0113632 0.236174 67 147 151
-0.398999 0.0128017 0.236436 82 151 152
-0.39924 0.0143173 0.236567 84 124 128
-0.399034 0.0157579 0.236829 72 89 89
-0.398828 0.0171987 0.237091 74 69 73
-0.398622 0.0186396 0.237354 73 64 58
-0.398864 0.0201655 0.237486 68 64 59
-0.421519 -0.0460145 0.219641 72 82 79
-0.420313 -0.044513 0.220233 62 77 75
-0.41716 -0.0430161 0.221449 47 73 72
-0.415017 -0.0415418 0.222339 27 72 69
-0.412897 -0.0400837 0.223218 25 71 66
-0.408472 -0.0386669 0.224833 42 70 66
-0.39789 -0.00605328 0.232673 36 70 70
-0.397247 -0.00468185 0.233066 26 72 70
-0.397044 -0.00326167 0.233324 23 74 71
-0.397721 -0.00173247 0.233315 23 74 72
-0.397958 -0.000251665 0.233441 23 75 75
-0.398196 0.00123324 0.233566 30 80 79
-0.397992 0.00266147 0.233826 37 93 96
-0.397788 0.00408982 0.234086 51 116 121
-0.398026 0.00558288 0.234213 63 141 145
-0.398265 0.00708008 0.23434 76 160 160
-0.398505 0.00858143 0.234468 73 151 154
-0.3983 0.010016 0.234729 60 134 136
-0.39854 0.0115236 0.234857 45 120 138
-0.398334 0.0129603 0.235119 55 134 144
-0.398575 0.0144741 0.235248 72 151 156
-0.398369 0.0159129 0.23551 81 147 152
-0.39861 0.017433 0.235639 86 121 118
-0.398404 0.018874 0.235902 70 84 86
-0.398645 0.0204004 0.236032 66 65 68
-0.398438 0.0218435 0.236295 68 61 56
-0.39868 0.0233763 0.236426 70 68 55
-0.398473 0.0248216 0.236689 65 64 56
-0.420301 -0.0457671 0.218455 65 78 78
-0.417147 -0.0442597 0.219687 54 73 73
-0.415967 -0.0427795 0.220272 37 70 70
-0.414315 -0.041309 0.221009 24 72 66
-0.41173 -0.0398575 0.222048 32 71 64
-0.397708 -0.00292662 0.23162 30 72 69
-0.397946 -0.00144739 0.231743 25 73 71
-0.397742 -2.11381e-05 0.232003 20 73 71
-0.397538 0.00140522 0.232262 24 73 70
-0.397776 0.00289259 0.232386 28 74 73
-0.397572 0.00432105 0.232646 29 82 84
-0.397809 0.00581456 0.232771 37 97 100
-0.397605 0.00724517 0.233032 55 119 126
-0.397843 0.00874486 0.233157 66 147 150
-0.397639 0.0101776 0.233418 73 159 163
-0.397877 0.0116835 0.233544 67 146 155
-0.397672 0.0131183 0.233805 54 132 136
-0.397911 0.0146305 0.233932 46 120 138
-0.397706 0.0160675 0.234194 56 135 146
-0.397945 0.0175859 0.234322 74 153 158
-0.398185 0.0191085 0.23445 83 141 145
-0.397979 0.0205497 0.234712 83 116 108
-0.398219 0.0220786 0.234841 66 68 84
-0.398013 0.023522 0.235104 66 66 62
-0.397807 0.0249655 0.235366 65 64 60
-0.3976 0.0264091 0.235629 70 66 64
-0.417621 -0.0455077 0.217762 55 74 75
-0.415955 -0.0440197 0.218513 40 73 72
-0.414782 -0.0425442 0.2191 27 72 69
-0.413615 -0.0410768 0.219683 30 70 66
-0.397526 0.000209427 0.230564 28 72 68
-0.397322 0.0016359 0.230824 22 72 69
-0.397118 0.00306249 0.231084 23 73 70
-0.397355 0.00455234 0.231206 22 74 72
-0.397151 0.00598104 0.231466 27 77 76
-0.397388 0.00747702 0.231589 31 84 87
-0.397183 0.00890785 0.23185 39 103 107
-0.397421 0.01041 0.231973 56 126 134
-0.397216 0.011843 0.232234 66 152 156
-0.397454 0.0133514 0.232359 73 160 163
-0.397249 0.0147865 0.23262 68 143 152
-0.397488 0.0163011 0.232745 51 129 138
-0.397282 0.0177384 0.233007 49 124 142
-0.397521 0.0192592 0.233133 61 139 148
-0.397315 0.0206986 0.233395 78 156 156
-0.397554 0.0222258 0.233522 82 133 141
-0.397348 0.0236674 0.233784 80 108 97
-0.397142 0.025109 0.234047 64 65 84
-0.396936 0.0265508 0.234309 68 64 62
-0.39673 0.0279927 0.234572 66 63 54
-0.396524 0.0294347 0.234834 67 64 58
-0.414769 -0.043781 0.217347 29 71 70
-0.397547 0.00192625 0.229245 39 69 67
-0.396901 0.00329337 0.229645 26 72 69
-0.396697 0.00472018 0.229905 20 73 71
-0.396934 0.00621248 0.230025 23 73 72
-0.397171 0.00770892 0.230147 21 74 74
-0.396966 0.00913988 0.230407 23 78 77
-0.396762 0.0105709 0.230667 29 87 90
-0.396999 0.0120756 0.23079 38 105 112
-0.396794 0.0135088 0.23105 57 131 138
-0.397032 0.0150197 0.231173 69 156 160
-0.396826 0.016455 0.231435 73 157 163
-0.397064 0.0179721 0.231558 68 139 147
-0.396859 0.0194096 0.23182 47 125 136
-0.397097 0.020933 0.231944 52 129 143
-0.396891 0.0223726 0.232206 64 144 152
-0.397129 0.0239023 0.232332 78 152 152
-0.396923 0.0253441 0.232594 80 127 139
-0.396717 0.026786 0.232856 76 104 92
-0.396511 0.0282281 0.233119 66 64 77
-0.396305 0.0296702 0.233381 68 63 57
-0.396099 0.0311124 0.233644 66 63 58
-0.396336 0.0326567 0.233771 65 61 57
-0.396481 0.00495123 0.228466 34 71 68
-0.396277 0.00637827 0.228725 23 72 70
-0.396954 0.00794084 0.228704 18 74 72
-0.396749 0.00937195 0.228964 19 75 71
-0.396545 0.0108031 0.229224 19 75 71
-0.396781 0.0123082 0.229345 23 78 79
-0.396577 0.0137416 0.229606 30 89 94
-0.396372 0.015175 0.229866 41 112 119
-0.396609 0.0166884 0.229988 63 135 144
-0.396403 0.018124 0.230249 75 158 161
-0.39664 0.0196435 0.230371 73 153 158
-0.396435 0.0210813 0.230633 65 137 144
-0.396229 0.0225191 0.230894 46 126 138
-0.396467 0.0240471 0.231017 52 131 144
-0.396261 0.025487 0.231279 65 148 155
-0.396498 0.0270213 0.231403 79 154 153
-0.396292 0.0284634 0.231666 86 121 130
-0.396086 0.0299057 0.231928 73 96 87
-0.39588 0.031348 0.23219 62 61 76
-0.396117 0.0328928 0.232316 63 60 59
-0.396355 0.0344418 0.232442 62 63 56
-0.396148 0.0358883 0.232705 66 62 52
-0.396532 0.00960405 0.227521 22 74 70
-0.396769 0.0111075 0.227639 18 73 70
-0.396564 0.0125409 0.2279 17 74 72
-0.396359 0.0139744 0.22816 20 74 74
-0.396154 0.015408 0.228421 23 80 81
-0.395949 0.0168416 0.228682 35 92 97
-0.396185 0.0183575 0.228802 52 117 123
-0.39598 0.0197933 0.229063 66 142 146
-0.395775 0.0212292 0.229324 75 160 161
-0.396011 0.0227534 0.229445 71 152 159
-0.395806 0.0241915 0.229706 63 137 141
-0.396042 0.0257219 0.229828 46 124 142
-0.395836 0.0271621 0.23009 54 136 147
-0.39563 0.0286024 0.230352 73 150 154
-0.395867 0.0301412 0.230475 79 147 148
-0.395661 0.0315837 0.230737 82 117 123
-0.395455 0.0330263 0.230999 67 87 84
-0.395691 0.0345735 0.231123 62 62 69
-0.395929 0.0361251 0.231247 64 60 56
-0.396166 0.037681 0.231372 62 60 49
-0.395959 0.0391299 0.231636 66 59 47
-0.396551 0.0113401 0.226194 30 70 69
-0.396346 0.0127737 0.226454 18 73 71
-0.396141 0.0142073 0.226715 20 73 70
-0.395937 0.015641 0.226976 19 74 71
-0.395732 0.0170748 0.227236 21 75 75
-0.395527 0.0185087 0.227497 27 80 83
-0.395322 0.0199427 0.227758 34 96 100
-0.395557 0.0214631 0.227876 56 122 127
-0.395352 0.0228992 0.228138 65 144 150
-0.395587 0.0244259 0.228257 75 162 164
-0.395382 0.0258642 0.228519 71 145 157
-0.395176 0.0273026 0.22878 59 132 139
-0.395412 0.0288376 0.2289 48 125 142
-0.395206 0.0302781 0.229162 61 137 148
-0.395442 0.0318195 0.229283 76 153 155
-0.395235 0.0332622 0.229546 85 145 145
-0.395029 0.034705 0.229808 82 112 111
-0.395709 0.0363619 0.22979 65 76 83
-0.395946 0.0379182 0.229912 61 62 59
-0.395739 0.0393672 0.230176 66 58 48
-0.395532 0.0408164 0.230439 65 65 56
-0.395924 0.0144402 0.225269 30 71 68
-0.395719 0.015874 0.22553 21 73 69
-0.395955 0.0173887 0.225645 18 74 72
-0.395309 0.018742 0.226051 20 74 74
-0.395104 0.0201761 0.226312 20 75 75
-0.395339 0.0216969 0.226429 31 80 83
-0.395134 0.0231332 0.22669 37 100 105
-0.394928 0.0245696 0.226951 58 126 134
-0.395163 0.0260988 0.227069 71 149 154
-0.394958 0.0275373 0.22733 77 159 162
-0.394752 0.028976 0.227592 70 142 154
-0.394987 0.0305135 0.227711 58 131 137
-0.394781 0.0319543 0.227973 52 128 146
-0.395016 0.0334981 0.228092 70 145 153
-0.39481 0.034941 0.228354 84 156 153
-0.395046 0.0364912 0.228474 84 130 138
-0.395282 0.0380458 0.228595 80 107 100
-0.395519 0.0396047 0.228716 64 71 79
-0.395312 0.0410539 0.228979 63 68 65
-0.395105 0.0425033 0.229243 63 56 54
-0.394898 0.0439528 0.229506 66 62 52
-0.395942 0.0161862 0.223936 39 67 65
-0.395737 0.0176222 0.224197 25 72 71
-0.395531 0.0190583 0.224459 21 73 73
-0.395326 0.0204945 0.22472 19 74 73
-0.395121 0.0219309 0.224981 22 74 74
-0.394915 0.0233673 0.225242 22 76 77
-0.39471 0.0248038 0.225503 31 84 88
-0.394505 0.0262405 0.225764 41 106 110
-0.394299 0.0276772 0.226025 63 134 139
-0.394533 0.0292109 0.226142 77 155 159
-0.394328 0.0306497 0.226403 77 157 161
-0.394562 0.0321898 0.22652 68 139 150
-0.394356 0.0336308 0.226782 56 129 137
-0.394591 0.0351771 0.2269 57 136 150
-0.394385 0.0366203 0.227162 75 145 155
-0.39462 0.038173 0.227281 86 155 150
-0.395299 0.0398421 0.227256 81 122 137
-0.395092 0.0412915 0.227519 76 104 97
-0.394885 0.042741 0.227783 62 65 77
-0.394677 0.0441906 0.228046 64 61 59
-0.39447 0.0456403 0.22831 68 67 57
-0.393821 0.0469683 0.228716 65 65 57
-0.395549 0.0208139 0.223122 26 72 71
-0.394903 0.0221648 0.223532 24 73 74
-0.394697 0.0236014 0.223794 17 75 74
-0.394492 0.0250381 0.224055 16 75 74
-0.394287 0.0264748 0.224316 20 77 76
-0.394081 0.0279117 0.224577 33 86 88
-0.393876 0.0293486 0.224838 46 113 117
-0.394109 0.0308848 0.224953 68 138 146
-0.393903 0.0323239 0.225214 79 159 160
-0.394137 0.0338665 0.22533 75 155 159
-0.393931 0.0353077 0.225592 66 137 148
-0.394165 0.0368566 0.225708 55 128 137
-0.393959 0.0383 0.22597 59 137 152
-0.394193 0.0398553 0.226087 78 147 157
-0.394872 0.0415291 0.226059 85 153 146
-0.394664 0.0429788 0.226322 80 113 128
-0.394457 0.0444285 0.226586 74 94 89
-0.39425 0.0458784 0.226849 64 71 75
-0.393601 0.0472061 0.227257 66 63 61
-0.393394 0.0486542 0.22752 68 65 58
-0.393187 0.0501024 0.227783 67 65 55
-0.395125 0.0224866 0.221933 36 67 69
-0.394919 0.0239252 0.222195 22 71 72
-0.394274 0.0252723 0.222606 16 75 74
-0.394068 0.0267092 0.222867 14 75 71
-0.393863 0.0281462 0.223128 18 72 72
-0.393657 0.0295833 0.223389 25 75 80
-0.393452 0.0310205 0.223651 37 87 96
-0.393685 0.0325592 0.223764 49 117 124
-0.393479 0.0339985 0.224025 71 144 151
-0.393712 0.0355436 0.224139 79 163 162
-0.393506 0.0369851 0.224401 72 151 156
-0.39374 0.0385364 0.224516 65 132 146
-0.393533 0.0399801 0.224778 54 129 140
-0.393327 0.0414239 0.22504 62 144 155
-0.39356 0.0429837 0.225156 83 150 157
-0.393354 0.0444297 0.225419 86 149 140
-0.393588 0.0459959 0.225535 79 111 122
-0.39338 0.047444 0.225798 77 87 87
-0.393173 0.0488923 0.226061 67 69 70
-0.392966 0.0503406 0.226324 65 64 57
-0.392759 0.051789 0.226588 68 61 57
-0.394701 0.0241597 0.220744 43 67 65
-0.394495 0.0255986 0.221005 30 71 71
-0.394289 0.0270376 0.221267 19 74 70
-0.393645 0.0283808 0.221679 17 73 72
-0.393439 0.029818 0.22194 19 73 75
-0.393234 0.0312554 0.222202 22 72 76
-0.393466 0.0327945 0.222313 26 76 81
-0.392823 0.0341303 0.222724 37 90 98
-0.393054 0.0356736 0.222836 50 125 130
-0.392849 0.0371133 0.223097 74 149 157
-0.393081 0.0386628 0.22321 82 161 163
-0.393314 0.0402167 0.223323 67 145 154
-0.393107 0.0416606 0.223585 60 129 143
-0.392901 0.0431046 0.223848 55 130 142
-0.392694 0.0445488 0.22411 66 146 156
-0.392488 0.045993 0.224372 88 153 155
-0.39272 0.0475594 0.224487 86 141 137
-0.392514 0.0490058 0.22475 77 107 117
-0.392746 0.0505788 0.224865 71 85 82
-0.392539 0.0520273 0.225128 67 67 68
-0.392332 0.053476 0.225392 69 60 59
-0.392125 0.0549247 0.225655 69 62 57
-0.394071 0.0272724 0.219816 39 67 63
-0.393865 0.0287116 0.220077 27 71 70
-0.393659 0.0301509 0.220339 21 74 74
-0.393015 0.0314902 0.220752 20 72 73
-0.393247 0.0330298 0.220861 18 72 72
-0.392604 0.0343655 0.221275 19 71 75
-0.392836 0.0359092 0.221384 26 78 85
-0.39263 0.037349 0.221646 40 97 104
-0.392424 0.0387889 0.221908 57 131 139
-0.392656 0.040341 0.222019 75 151 160
-0.392888 0.0418974 0.22213 81 161 162
-0.392681 0.0433416 0.222392 68 141 152
-0.392475 0.0447858 0.222654 60 127 140
-0.392268 0.0462301 0.222917 57 135 145
-0.392062 0.0476746 0.223179 70 152 160
-0.391855 0.0491191 0.223442 88 154 155
-0.392087 0.0506902 0.223555 83 133 130
-0.39188 0.052137 0.223818 76 95 106
-0.392112 0.0537145 0.223932 71 75 77
-0.391905 0.0551634 0.224195 67 63 63
-0.391697 0.0566124 0.224458 67 62 55
-0.39149 0.0580615 0.224722 69 61 51
-0.39344 0.030386 0.218887 32 71 67
-0.393235 0.0318255 0.219149 25 72 71
-0.393029 0.0332652 0.21941 20 72 73
-0.392823 0.034705 0.219672 16 73 75
-0.39218 0.0360386 0.220086 17 72 74
-0.391974 0.0374766 0.220347 22 74 78
-0.391769 0.0389147 0.220609 33 79 88
-0.391999 0.040465 0.220718 42 100 110
-0.39223 0.0420196 0.220827 60 140 144
-0.392024 0.0434619 0.221089 85 156 163
-0.391818 0.0449043 0.221351 86 160 159
-0.392049 0.0464674 0.221461 66 141 149
-0.391842 0.047912 0.221724 56 125 136
-0.391636 0.0493566 0.221986 61 138 146
-0.391429 0.0508014 0.222248 72 150 160
-0.391223 0.0522463 0.222511 89 151 151
-0.391453 0.053822 0.222623 80 125 123
-0.391246 0.055269 0.222886 71 90 97
-0.391477 0.0568512 0.222999 68 70 67
-0.39127 0.0583004 0.223262 69 64 55
-0.391063 0.0597498 0.223525 67 61 55
-0.390855 0.0611992 0.223788 66 63 58
-0.39281 0.0335006 0.217958 34 72 69
-0.392604 0.0349405 0.21822 22 75 72
-0.392398 0.0363805 0.218481 20 73 72
-0.392192 0.0378206 0.218743 21 72 75
-0.391986 0.0392608 0.219004 24 73 74
-0.39178 0.0407011 0.219266 24 75 76
-0.391574 0.0421415 0.219527 31 84 90
-0.391368 0.043582 0.219789 45 106 114
-0.391162 0.0450226 0.22005 66 144 149
-0.391392 0.0465838 0.220159 89 165 165
-0.391186 0.0480265 0.220421 85 159 158
-0.391416 0.0495942 0.22053 63 133 145
-0.39121 0.0510391 0.220792 54 121 135
-0.391003 0.0524841 0.221055 58 139 148
-0.390796 0.0539293 0.221317 78 158 163
-0.39059 0.0553745 0.221579 91 154 150
-0.390383 0.0568198 0.221842 78 120 121
-0.390612 0.0584022 0.221953 67 86 90
-0.390842 0.0599889 0.222065 66 68 69
-0.390635 0.0614385 0.222328 68 62 61
-0.390865 0.0630317 0.22244 70 62 54
-0.391973 0.0380565 0.217291 24 72 72
-0.391767 0.0394968 0.217552 23 75 74
-0.391561 0.0409372 0.217814 20 74 74
-0.391355 0.0423777 0.218075 18 75 76
-0.391149 0.0438184 0.218337 25 77 80
-0.390943 0.0452591 0.218598 41 84 90
-0.390737 0.0466999 0.21886 51 112 120
-0.390967 0.0482637 0.218967 70 150 155
-0.39076 0.0497067 0.219228 88 164 167
-0.390554 0.0511498 0.21949 81 156 154
-0.390348 0.0525929 0.219752 58 127 139
-0.390141 0.0540363 0.220014 52 118 132
-0.39037 0.0556126 0.220123 59 141 149
-0.390163 0.0570581 0.220385 84 163 166
-0.389956 0.0585036 0.220648 95 156 149
-0.38975 0.0599493 0.22091 80 111 116
-0.389978 0.0615362 0.22102 70 74 87
-0.390207 0.0631276 0.221131 71 62 66
-0.390437 0.0647234 0.221242 70 63 60
-0.390667 0.0663237 0.221353 66 64 60
-0.391548 0.0397328 0.2161 31 72 70
-0.391342 0.0411734 0.216361 27 74 74
-0.391136 0.042614 0.216623 22 75 76
-0.39093 0.0440548 0.216884 26 74 74
-0.390724 0.0454957 0.217146 30 73 75
-0.390518 0.0469366 0.217407 31 77 81
-0.390747 0.0485008 0.217512 42 87 96
-0.390541 0.049944 0.217774 54 118 126
-0.390334 0.0513872 0.218036 73 155 159
-0.390128 0.0528305 0.218298 89 168 167
-0.389922 0.054274 0.21856 81 154 151
-0.389715 0.0557175 0.218822 57 126 138
-0.389509 0.0571611 0.219084 51 117 133
-0.389302 0.0586049 0.219346 66 146 152
-0.38953 0.0601878 0.219454 87 162 167
-0.389323 0.0616338 0.219716 98 151 145
-0.389551 0.0632232 0.219824 80 105 111
-0.389779 0.0648171 0.219933 64 66 82
-0.390446 0.0665641 0.219888 64 61 59
-0.390676 0.0681693 0.219997 67 62 52
-0.390468 0.0696256 0.220261 68 61 51
-0.391123 0.0414096 0.214909 51 66 67
-0.390917 0.0428504 0.21517 37 73 72
-0.391147 0.0444089 0.215272 27 75 74
-0.39094 0.0458518 0.215534 26 74 76
-0.390734 0.0472949 0.215795 29 74 75
-0.390528 0.048738 0.216057 33 75 76
-0.390321 0.0501813 0.216319 34 76 83
-0.390115 0.0516247 0.216581 43 91 99
-0.389909 0.0530681 0.216843 55 122 130
-0.389269 0.0543804 0.217262 76 157 163
-0.389062 0.0558221 0.217524 95 169 170
-0.389289 0.0573991 0.217629 82 151 152
-0.389083 0.058843 0.217891 56 119 137
-0.388876 0.060287 0.218153 50 116 135
-0.389103 0.0618725 0.218259 64 145 152
-0.388896 0.0633187 0.218521 84 158 164
-0.389123 0.0649107 0.218628 93 140 138
-0.389351 0.0665071 0.218735 77 101 104
-0.390016 0.0682589 0.218687 62 65 78
-0.390246 0.0698667 0.218794 65 61 60
-0.390038 0.0713232 0.219059 65 62 54
-0.38983 0.0727799 0.219323 66 61 50
-0.390721 0.0460888 0.214079 31 75 73
-0.390515 0.047532 0.21434 27 77 76
-0.390308 0.0489753 0.214602 27 76 76
-0.390102 0.0504187 0.214864 30 74 77
-0.389895 0.0518622 0.215126 31 76 79
-0.389255 0.0531761 0.215548 33 80 85
-0.389049 0.0546179 0.215809 45 93 102
-0.388843 0.0560598 0.216071 62 128 135
-0.388637 0.0575017 0.216332 78 160 166
-0.388431 0.0589437 0.216594 89 164 167
-0.388657 0.0605253 0.216698 77 146 147
-0.38845 0.0619695 0.21696 55 121 135
-0.388676 0.0635576 0.217064 52 119 137
-0.388469 0.065004 0.217327 67 144 151
-0.388263 0.0664504 0.217589 82 151 158
-0.389359 0.0683483 0.21738 88 129 132
-0.389587 0.0699541 0.217485 77 101 98
-0.389816 0.0715645 0.217591 63 68 76
-0.389608 0.0730213 0.217856 65 64 55
-0.3894 0.0744781 0.21812 65 64 51
-0.388755 0.0757735 0.218541 68 61 50
-0.390524 0.049337 0.212984 31 76 75
-0.390317 0.0507825 0.213246 28 78 75
-0.389676 0.0520998 0.213671 29 75 77
-0.389469 0.0535435 0.213933 31 75 78
-0.38883 0.0548554 0.214356 33 78 81
-0.388624 0.0562974 0.214617 35 86 92
-0.388417 0.0577395 0.214879 46 101 109
-0.388211 0.0591817 0.21514 63 132 137
-0.388005 0.060624 0.215402 79 160 162
-0.387799 0.0620663 0.215664 88 163 163
-0.388024 0.0636525 0.215766 74 144 147
-0.387817 0.065097 0.216028 54 123 137
-0.38761 0.0665417 0.21629 54 123 141
-0.387836 0.0681364 0.216394 69 141 149
-0.388495 0.0698882 0.216339 82 151 152
-0.388722 0.0714942 0.216443 86 128 128
-0.389386 0.0732627 0.216388 76 97 90
-0.389178 0.0747197 0.216652 61 65 76
-0.388533 0.0760149 0.217075 66 62 56
-0.388325 0.0774701 0.217339 65 62 52
-0.388117 0.0789255 0.217603 64 59 48
-0.390097 0.0510203 0.211789 39 72 70
-0.389891 0.052466 0.212051 32 74 73
-0.38925 0.0537812 0.212477 28 75 76
-0.389043 0.0552252 0.212739 27 77 78
-0.388837 0.0566692 0.213001 29 78 81
-0.388198 0.0579773 0.213425 32 80 85
-0.387992 0.0594196 0.213687 40 88 96
-0.387785 0.060862 0.213948 54 108 117
-0.387579 0.0623046 0.21421 68 137 142
-0.387373 0.0637472 0.214471 80 159 162
-0.387167 0.0651899 0.214733 84 157 161
-0.387391 0.0667806 0.214834 69 140 145
-0.387184 0.0682255 0.215096 53 126 138
-0.387408 0.0698227 0.215198 57 130 143
-0.387633 0.0714244 0.215301 72 143 148
-0.387859 0.0730305 0.215403 82 145 145
-0.388085 0.0746412 0.215506 83 116 125
-0.388312 0.0762563 0.215609 74 91 86
-0.388104 0.0777116 0.215873 61 62 73
-0.387462 0.0790013 0.216297 61 60 53
-0.387254 0.0804549 0.21656 65 59 54
-0.386613 0.0817393 0.216983 68 62 55
-0.434067 0.158004 0.206628 68 62 51
-0.431507 0.158427 0.207741 70 60 51
-0.427848 0.158212 0.209231 70 60 51
-0.427608 0.159894 0.209536 66 60 51
-0.389464 0.0541499 0.210855 37 72 72
-0.389257 0.055596 0.211117 32 76 77
-0.388617 0.0569073 0.211545 31 76 79
-0.38841 0.0583516 0.211807 31 76 79
-0.387772 0.0596576 0.212233 31 78 82
-0.387566 0.0611002 0.212494 36 81 88
-0.38736 0.0625428 0.212756 45 91 101
-0.387153 0.0639856 0.213017 58 113 122
-0.386947 0.0654284 0.213279 73 140 146
-0.386741 0.0668714 0.213541 79 158 160
-0.386534 0.0683145 0.213802 77 150 157
-0.386757 0.0699098 0.213902 67 137 144
-0.386981 0.0715095 0.214003 54 128 139
-0.386774 0.0729568 0.214265 62 135 148
-0.386998 0.0745631 0.214366 75 143 149
-0.387223 0.0761738 0.214467 80 140 139
-0.387015 0.0776254 0.214731 76 104 117
-0.386808 0.079077 0.214994 67 87 79
-0.3866 0.0805288 0.215257 60 61 71
-0.386392 0.0819806 0.21552 66 62 58
-0.385754 0.0832615 0.215943 70 61 49
-0.435808 0.157543 0.20398 71 67 60
-0.433225 0.157972 0.205115 78 69 62
-0.431248 0.158714 0.206033 80 68 63
-0.427592 0.158497 0.207539 74 65 63
-0.426789 0.15986 0.208042 68 69 67
-0.38883 0.0572806 0.209922 39 73 74
-0.388191 0.0585898 0.210351 33 76 77
-0.387984 0.0600344 0.210612 31 77 80
-0.387346 0.0613383 0.21104 31 76 82
-0.38714 0.0627811 0.211302 34 77 84
-0.386934 0.064224 0.211563 39 83 89
-0.386727 0.065667 0.211825 49 98 105
-0.386521 0.0671101 0.212086 61 119 127
-0.386315 0.0685533 0.212348 74 142 148
-0.386108 0.0699966 0.212609 78 157 158
-0.386331 0.0715944 0.212708 71 146 152
-0.386554 0.0731967 0.212807 64 131 140
-0.386347 0.0746443 0.213069 54 130 141
-0.38614 0.0760919 0.213331 63 139 152
-0.385933 0.0775396 0.213594 78 144 148
-0.385726 0.0789875 0.213856 77 137 129
-0.385948 0.0806025 0.213957 72 95 111
-0.385741 0.0820525 0.21422 70 79 73
-0.385533 0.0835026 0.214483 63 64 65
-0.385326 0.0849528 0.214745 67 65 57
-0.385119 0.0864032 0.215008 67 60 56
-0.384911 0.0878536 0.215271 66 65 57
-0.435792 0.156115 0.201942 78 74 72
-0.434959 0.157511 0.202463 100 93 94
-0.432965 0.15826 0.203399 125 111 103
-0.430989 0.159001 0.204326 137 121 101
-0.427335 0.158781 0.205848 136 120 101
-0.426533 0.160144 0.206352 139 128 109
-0.387764 0.0602728 0.209156 38 74 75
-0.387558 0.0617176 0.209418 35 76 79
-0.38692 0.0630195 0.209847 33 77 81
-0.386714 0.0644625 0.210109 34 79 80
-0.386508 0.0659056 0.21037 35 79 82
-0.386301 0.0673489 0.210632 40 84 90
-0.386095 0.0687922 0.210893 46 102 108
-0.385888 0.0702356 0.211155 60 129 133
-0.385682 0.0716792 0.211416 74 145 150
-0.385904 0.0732795 0.211513 77 153 155
-0.385697 0.0747252 0.211775 66 139 148
-0.38549 0.076171 0.212037 60 126 139
-0.385283 0.0776169 0.212299 54 131 140
-0.385505 0.0792279 0.212398 66 148 154
-0.385298 0.080676 0.21266 84 147 145
-0.38552 0.0822936 0.212759 78 129 124
-0.385312 0.0837438 0.213022 67 91 106
-0.385535 0.085368 0.213121 66 80 74
-0.385758 0.0869967 0.213221 64 67 69
-0.385549 0.0884512 0.213485 67 63 60
-0.385341 0.0899058 0.213748 66 62 56
-0.436365 0.155005 0.199689 74 74 76
-0.434943 0.156086 0.200428 123 108 105
-0.434113 0.15748 0.200951 162 158 140
-0.432704 0.158548 0.201683 166 174 153
-0.43073 0.159288 0.202617 151 155 143
-0.427642 0.159383 0.203952 148 155 142
-0.427401 0.161068 0.204258 160 162 147
-0.386494 0.064701 0.208654 33 78 79
-0.386288 0.0661443 0.208915 31 79 79
-0.386082 0.0675876 0.209177 31 79 81
-0.385875 0.0690311 0.209438 32 80 85
-0.385669 0.0704747 0.2097 39 87 93
-0.385462 0.0719184 0.209961 48 105 112
-0.385256 0.0733621 0.210223 61 134 140
-0.385477 0.074965 0.210318 77 151 156
-0.384843 0.07625 0.210746 81 155 155
-0.384636 0.0776941 0.211008 62 133 142
-0.384856 0.0793032 0.211104 55 121 133
-0.385077 0.0809167 0.211201 55 133 142
-0.385299 0.0825347 0.211298 69 152 161
-0.385521 0.0841572 0.211395 86 153 153
-0.385744 0.0857843 0.211492 80 132 124
-0.385536 0.0872388 0.211756 67 91 103
-0.386191 0.0890521 0.211688 69 71 73
-0.385983 0.0905108 0.211952 70 63 60
-0.385774 0.0919696 0.212217 69 60 59
-0.385565 0.0934286 0.212481 67 61 55
-0.43778 0.152483 0.196896 79 70 60
-0.435759 0.15326 0.197865 84 79 67
-0.434926 0.15466 0.198392 110 102 95
-0.434096 0.156057 0.198919 158 163 138
-0.432688 0.157129 0.199657 175 174 148
-0.431289 0.158195 0.20039 159 148 137
-0.429328 0.158935 0.201328 147 144 135
-0.427385 0.159668 0.202257 154 154 141
-0.386068 0.066383 0.20746 35 76 77
-0.385862 0.0678265 0.207722 33 78 79
-0.385655 0.0692701 0.207983 30 78 82
-0.385449 0.0707138 0.208245 31 79 84
-0.385242 0.0721576 0.208506 34 81 85
-0.385036 0.0736015 0.208768 42 87 96
-0.384403 0.0748867 0.209197 48 109 117
-0.384196 0.0763288 0.209459 64 144 150
-0.38399 0.0777711 0.20972 82 158 162
-0.384209 0.0793782 0.209814 84 154 155
-0.384429 0.0809898 0.209909 59 127 141
-0.38465 0.0826058 0.210004 50 116 135
-0.384871 0.0842264 0.210099 60 144 150
-0.385522 0.0860264 0.210027 82 178 182
-0.385745 0.0876584 0.210123 86 159 166
-0.385969 0.0892951 0.210219 79 124 122
-0.38576 0.090754 0.210483 67 82 90
-0.385552 0.0922129 0.210747 62 60 70
-0.385343 0.093672 0.211012 62 60 57
-0.384703 0.0949434 0.211442 64 61 55
-0.435743 0.151832 0.195826 95 76 70
-0.43491 0.153235 0.196357 87 82 78
-0.43408 0.154633 0.196886 136 121 100
-0.432672 0.155711 0.197631 160 145 123
-0.431273 0.156781 0.19837 154 144 129
-0.429312 0.157528 0.199318 143 135 124
-0.425127 0.157009 0.20109 141 138 127
-0.424887 0.158684 0.201393 148 149 133
-0.391049 0.161024 0.216493 69 61 50
-0.39361 0.164328 0.215763 70 61 46
-0.385642 0.0680653 0.206266 42 74 73
-0.385435 0.0695091 0.206528 36 76 79
-0.385229 0.0709529 0.206789 32 79 82
-0.385022 0.0723969 0.207051 31 81 84
-0.384816 0.0738409 0.207312 33 80 84
-0.384183 0.0751259 0.207744 31 82 88
-0.383977 0.0765682 0.208005 42 86 97
-0.38377 0.0780106 0.208266 50 110 118
-0.383564 0.0794531 0.208528 67 150 155
-0.383783 0.0810627 0.20862 91 163 168
-0.384002 0.0826768 0.208713 86 155 155
-0.384222 0.0842954 0.208807 63 141 153
-0.384871 0.0860932 0.208731 70 163 174
-0.385093 0.0877233 0.208825 79 175 185
-0.385315 0.0893579 0.208919 78 170 180
-0.385107 0.090815 0.209183 74 144 154
-0.384898 0.0922721 0.209447 68 108 112
-0.38426 0.0935437 0.209879 62 78 82
-0.383624 0.0948118 0.21031 62 62 66
-0.384273 0.0966441 0.210239 65 63 59
-0.384494 0.0982938 0.210335 66 65 59
-0.454656 0.152627 0.185666 71 70 62
-0.435727 0.150404 0.193787 154 138 108
-0.434894 0.151809 0.194321 113 78 88
-0.434064 0.15321 0.194853 87 72 83
-0.432656 0.154292 0.195604 127 116 106
-0.431257 0.155367 0.196351 150 135 117
-0.429295 0.15612 0.197308 138 127 114
-0.425111 0.155617 0.199101 130 126 114
-0.423761 0.156668 0.199823 134 129 116
-0.422971 0.158025 0.200333 139 131 118
-0.422732 0.159693 0.200635 128 108 98
-0.391956 0.160334 0.214338 104 93 82
-0.389899 0.160703 0.215292 72 60 49
-0.389681 0.162229 0.215569 67 63 50
-0.390377 0.164345 0.21551 70 60 49
-0.385216 0.0697482 0.205072 46 70 69
-0.385009 0.0711921 0.205334 38 74 75
-0.384802 0.0726362 0.205595 33 79 83
-0.384596 0.0740804 0.205857 33 80 83
-0.383963 0.0753651 0.20629 28 81 83
-0.383757 0.0768076 0.206551 31 79 85
-0.383127 0.0780871 0.206983 36 80 86
-0.382921 0.0795278 0.207244 44 87 95
-0.383138 0.0811355 0.207335 53 113 121
-0.384208 0.0830876 0.207084 71 156 161
-0.384429 0.0847091 0.207176 92 173 178
-0.385079 0.0865107 0.207095 95 178 180
-0.385302 0.0881437 0.207187 94 179 185
-0.385093 0.0896007 0.207451 99 185 190
-0.384885 0.0910579 0.207715 103 182 185
-0.384247 0.0923311 0.208149 93 165 169
-0.38361 0.093601 0.208583 74 136 141
-0.383402 0.0950545 0.208846 67 101 107
-0.383194 0.0965081 0.209109 65 78 80
-0.383842 0.0983452 0.209034 64 62 66
-0.384063 0.0999975 0.209129 67 63 55
-0.385149 0.10205 0.208883 68 61 54
-0.453991 0.150803 0.183779 82 85 82
-0.454381 0.15293 0.183854 98 100 95
-0.434878 0.150383 0.192285 109 119 94
-0.434632 0.152098 0.192595 118 97 91
-0.433803 0.153499 0.193131 100 67 71
-0.431817 0.154266 0.194109 119 100 91
-0.429279 0.154713 0.195297 139 125 107
-0.425653 0.154534 0.196899 134 117 101
-0.423745 0.155281 0.19784 128 117 102
-0.420764 0.155406 0.199189 128 119 104
-0.416229 0.154619 0.201127 129 116 102
-0.415466 0.155953 0.201625 122 97 84
-0.415232 0.157587 0.201921 111 86 74
-0.396601 0.158585 0.210376 239 218 239
-0.395905 0.159846 0.210835 191 160 176
-0.392869 0.159639 0.21217 160 134 142
-0.391722 0.160595 0.212795 139 118 121
-0.389666 0.160963 0.213758 106 90 86
-0.389448 0.162489 0.214034 70 78 77
-0.389229 0.164015 0.214311 67 62 59
-0.389925 0.166137 0.214248 65 60 51
-0.384376 0.0743199 0.204401 36 78 76
-0.383744 0.0756045 0.204836 30 78 83
-0.383113 0.0768856 0.20527 33 78 84
-0.382907 0.0783264 0.205531 33 77 83
-0.383125 0.0799325 0.20562 33 79 81
-0.383343 0.081543 0.205708 34 84 87
-0.383988 0.0833286 0.205624 46 96 104
-0.384636 0.085124 0.20554 61 117 127
-0.384858 0.0867529 0.205629 67 138 148
-0.38508 0.0883863 0.205719 72 152 160
-0.384871 0.0898435 0.205983 84 167 171
-0.384663 0.0913008 0.206246 100 177 181
-0.384025 0.0925739 0.206683 108 181 185
-0.382962 0.0936583 0.20729 101 176 178
-0.382754 0.0951099 0.207553 89 155 158
-0.382973 0.0967509 0.207645 75 126 131
-0.382765 0.0982048 0.207908 67 92 98
-0.383841 0.100242 0.207658 64 74 72
-0.384062 0.101899 0.207751 64 61 65
-0.385583 0.104164 0.207327 69 62 54
-0.455272 0.149955 0.181132 82 80 78
-0.454364 0.151431 0.181715 120 119 108
-0.454756 0.153563 0.181785 154 164 135
-0.433542 0.153787 0.191407 89 71 61
-0.430981 0.15424 0.192618 95 86 75
-0.428452 0.154686 0.193814 112 100 88
-0.42373 0.153893 0.195858 113 94 84
-0.420748 0.154028 0.197222 112 96 87
-0.416745 0.153559 0.198978 113 103 90
-0.41545 0.154595 0.199684 112 98 89
-0.414163 0.155624 0.200386 115 80 72
-0.41393 0.157253 0.200681 111 78 67
-0.412131 0.157967 0.201578 111 85 76
-0.408302 0.157467 0.203252 115 100 99
-0.405052 0.157274 0.2047 110 106 109
-0.404824 0.158865 0.204988 100 94 94
-0.403108 0.159555 0.205844 141 135 141
-0.396586 0.157295 0.208531 202 210 208
-0.39589 0.158557 0.208993 237 243 239
-0.394724 0.159524 0.209633 230 241 238
-0.392634 0.159901 0.210622 219 225 216
-0.391487 0.160856 0.211252 213 206 190
-0.389433 0.161222 0.212224 186 177 157
-0.389215 0.162749 0.2125 139 139 126
-0.388542 0.163981 0.212948 97 92 81
-0.388778 0.165802 0.213053 75 67 58
-0.389015 0.167628 0.213158 66 59 50
-0.383524 0.0758438 0.203382 45 76 74
-0.383318 0.0772865 0.203643 35 77 79
-0.383111 0.0787293 0.203904 35 77 82
-0.383329 0.0803382 0.20399 32 79 80
-0.383548 0.0819517 0.204077 33 79 80
-0.383767 0.0835696 0.204164 34 78 84
-0.384415 0.0853657 0.204075 34 88 97
-0.384636 0.0869951 0.204163 41 107 115
-0.384858 0.0886291 0.20425 50 124 131
-0.384649 0.0900864 0.204514 61 139 145
-0.384011 0.0913612 0.204953 76 152 158
-0.383375 0.0926325 0.205391 92 165 169
-0.382741 0.0939005 0.205827 104 177 178
-0.382533 0.0953523 0.20609 108 180 183
-0.382325 0.0968042 0.206353 97 173 176
-0.382543 0.0984478 0.206443 84 149 150
-0.383618 0.100486 0.206188 68 117 121
-0.383839 0.102144 0.206279 65 86 95
-0.385359 0.10441 0.205846 64 70 66
-0.387336 0.106908 0.205231 58 63 60
-0.455255 0.148454 0.178989 86 84 73
-0.454997 0.150258 0.179316 121 114 91
-0.454739 0.152062 0.179642 138 115 94
-0.398003 0.156873 0.206132 91 91 91
-0.396349 0.157559 0.206968 151 152 152
-0.395653 0.158821 0.207432 201 212 206
-0.394488 0.159787 0.208076 232 246 238
-0.392399 0.160163 0.209074 245 254 244
-0.390792 0.160825 0.209885 249 248 233
-0.3892 0.161482 0.210689 239 233 210
-0.388527 0.162716 0.211139 209 199 173
-0.387856 0.163947 0.211588 158 147 125
-0.388091 0.165765 0.211691 106 96 81
-0.387873 0.16729 0.211967 75 65 57
-0.388108 0.169116 0.212071 67 59 52
-0.382891 0.078969 0.202449 43 72 74
-0.383534 0.0807452 0.202356 33 76 78
-0.383753 0.0823615 0.202441 30 77 78
-0.383546 0.0838106 0.202703 29 76 79
-0.383765 0.0854335 0.202788 25 80 83
-0.383985 0.0870609 0.202874 30 90 95
-0.383777 0.0885143 0.203137 39 102 107
-0.383569 0.0899677 0.2034 46 114 120
-0.383361 0.0914213 0.203663 53 126 133
-0.382727 0.092691 0.204102 64 139 144
-0.382519 0.0941429 0.204365 81 154 157
-0.382312 0.0955948 0.204627 99 170 175
-0.382529 0.0972367 0.204715 107 185 186
-0.383176 0.0990762 0.204628 104 180 181
-0.383825 0.100926 0.204541 89 172 175
-0.384911 0.102986 0.204276 83 144 145
-0.386006 0.105062 0.204009 62 107 111
-0.387551 0.107364 0.20356 48 72 76
-0.388224 0.109268 0.203468 57 60 54
-0.397764 0.157138 0.204562 92 96 86
-0.396587 0.158114 0.205218 128 132 125
-0.395416 0.159085 0.20587 169 173 164
-0.393783 0.159757 0.206702 217 217 205
-0.391238 0.159843 0.207887 248 246 234
-0.389642 0.160505 0.2087 255 254 248
-0.388512 0.161451 0.209331 255 250 238
-0.387841 0.162683 0.209782 243 231 206
-0.387172 0.163912 0.210233 212 195 170
-0.386954 0.165433 0.210508 157 143 124
-0.387187 0.167251 0.210609 100 92 80
-0.387422 0.169075 0.21071 68 61 58
-0.387203 0.1706 0.210986 66 61 53
-0.383532 0.0826024 0.20098 38 72 73
-0.383325 0.0840517 0.201242 29 75 76
-0.383118 0.0855011 0.201505 24 78 79
-0.38291 0.0869505 0.201767 27 82 86
-0.383129 0.088578 0.201851 32 89 93
-0.382921 0.0900297 0.202113 37 97 102
-0.382288 0.0912996 0.202554 41 106 113
-0.382081 0.0927494 0.202816 46 116 124
-0.382298 0.0943852 0.202901 56 127 135
-0.382516 0.0960256 0.202987 69 143 150
-0.382734 0.0976705 0.203073 86 161 166
-0.383382 0.0995138 0.202981 103 171 176
-0.384897 0.101763 0.202531 109 186 187
-0.385992 0.103835 0.202256 113 188 183
-0.387537 0.10613 0.201798 90 165 169
-0.389099 0.10845 0.201334 63 119 116
-0.38978 0.110368 0.201235 64 77 71
-0.392277 0.113171 0.20039 69 66 60
-0.397526 0.157403 0.202991 97 103 92
-0.396349 0.158378 0.203651 121 128 116
-0.395179 0.159348 0.204308 148 151 138
-0.393079 0.159728 0.205331 188 182 167
-0.390085 0.159524 0.206705 232 220 205
-0.388497 0.160186 0.207522 253 249 241
-0.387826 0.16142 0.207976 255 255 249
-0.387157 0.162651 0.208429 255 247 234
-0.386939 0.164171 0.208704 241 226 202
-0.386722 0.165692 0.208979 208 191 166
-0.386504 0.167213 0.209254 157 144 128
-0.386287 0.168733 0.209529 92 88 79
-0.38697 0.17086 0.209453 71 65 70
-0.383104 0.0842928 0.199781 42 67 68
-0.382897 0.0857423 0.200043 33 75 74
-0.382689 0.0871919 0.200306 30 79 79
-0.382482 0.0886416 0.200568 29 82 86
-0.382275 0.0900914 0.20083 30 86 92
-0.382067 0.0915414 0.201092 35 91 98
-0.38186 0.0929914 0.201355 38 99 106
-0.381652 0.0944415 0.201617 41 107 116
-0.382294 0.0962684 0.201522 48 118 126
-0.38294 0.0981054 0.201426 58 129 139
-0.384451 0.100344 0.200967 71 143 151
-0.385542 0.102407 0.200687 86 168 170
-0.387523 0.104895 0.200035 115 181 182
-0.38998 0.107628 0.199187 125 185 188
-0.391569 0.109977 0.198705 92 150 156
-0.392262 0.111915 0.198598 90 103 96
-0.39296 0.113865 0.19849 100 92 79
-0.39681 0.157376 0.201611 98 99 92
-0.395637 0.158351 0.202275 117 122 110
-0.39447 0.15932 0.202935 135 138 126
-0.392378 0.159699 0.203965 159 155 143
-0.389393 0.159496 0.205348 196 185 171
-0.388265 0.160445 0.205988 240 227 215
-0.387142 0.161389 0.206625 253 249 243
-0.386925 0.16291 0.2069 255 254 248
-0.386707 0.16443 0.207175 255 245 230
-0.38649 0.165951 0.20745 241 220 198
-0.386272 0.167472 0.207725 203 183 162
-0.386054 0.168993 0.208 148 136 126
-0.385837 0.170514 0.208275 144 118 106
-0.382468 0.0874333 0.198844 42 70 67
-0.382261 0.0888832 0.199106 33 74 76
-0.382054 0.0903331 0.199369 29 77 83
-0.381846 0.0917832 0.199631 31 82 87
-0.381639 0.0932334 0.199893 30 88 93
-0.381431 0.0946836 0.200155 31 93 99
-0.382499 0.0967008 0.199875 41 98 106
-0.383145 0.0985417 0.199774 44 108 117
-0.385528 0.10118 0.198937 47 120 128
-0.387509 0.10366 0.198273 56 128 139
-0.389966 0.106383 0.19741 75 145 155
-0.392009 0.108938 0.196725 99 162 165
-0.392704 0.110876 0.196612 79 133 141
-0.392945 0.112606 0.196692 81 99 98
-0.393187 0.114341 0.196773 95 91 82
-0.39297 0.115856 0.197047 98 93 82
-0.395622 0.157059 0.200429 90 87 82
-0.394455 0.158032 0.201094 108 107 99
-0.393764 0.159291 0.201566 125 124 115
-0.391678 0.15967 0.202601 140 138 127
-0.38916 0.159756 0.20381 158 154 141
-0.388032 0.160705 0.204455 194 186 172
-0.38691 0.161648 0.205095 238 224 215
-0.386692 0.163169 0.20537 253 248 243
-0.386475 0.16469 0.205645 255 254 246
-0.386257 0.16621 0.20592 245 238 222
-0.38604 0.167731 0.206195 213 198 181
-0.385822 0.169252 0.206471 168 165 150
-0.385604 0.170773 0.206746 167 155 138
-0.381833 0.0905749 0.197907 37 68 71
-0.381625 0.0920251 0.198169 32 73 78
-0.381418 0.0934754 0.198431 26 80 83
-0.381634 0.0951125 0.198511 26 84 87
-0.382703 0.0971344 0.198223 31 87 94
-0.384646 0.0995624 0.19756 37 95 100
-0.387937 0.102627 0.19632 41 100 108
-0.390401 0.105344 0.195439 43 109 117
-0.39245 0.107896 0.19474 51 122 127
-0.393147 0.109834 0.194621 66 126 129
-0.39339 0.111565 0.194699 62 98 103
-0.393173 0.11308 0.194973 68 78 78
-0.392956 0.114595 0.195247 81 78 71
-0.393198 0.116335 0.195325 87 82 75
-0.392981 0.117853 0.195599 88 83 75
-0.392764 0.11937 0.195874 87 84 75
-0.392112 0.123924 0.196697 84 79 77
-0.391895 0.125442 0.196972 98 99 79
-0.391678 0.12696 0.197246 81 75 71
-0.391461 0.128478 0.197521 55 55 46
-0.392159 0.130488 0.19741 35 34 25
-0.392401 0.132259 0.197492 24 19 18
-0.393749 0.158005 0.199727 91 89 84
-0.391663 0.158392 0.200774 110 109 102
-0.39006 0.159062 0.20162 126 126 115
-0.388926 0.160016 0.202272 141 136 124
-0.387346 0.160675 0.203106 160 155 142
-0.386678 0.161907 0.203566 197 189 174
-0.38646 0.163428 0.203841 234 223 216
-0.386242 0.164949 0.204116 253 247 243
-0.386025 0.16647 0.204391 252 252 243
-0.385807 0.167991 0.204666 236 234 217
-0.38559 0.169512 0.204941 200 203 180
-0.385372 0.171033 0.205216 174 170 148
-0.381196 0.0937174 0.196969 29 72 76
-0.381837 0.0955427 0.196861 25 79 79
-0.384199 0.0981459 0.196003 28 79 84
-0.387923 0.10139 0.194555 28 83 90
-0.391742 0.104716 0.19307 31 87 96
-0.392435 0.10664 0.192947 33 95 99
-0.393133 0.108575 0.192823 40 100 104
-0.393375 0.110304 0.192898 44 93 97
-0.393618 0.112038 0.192973 47 68 71
-0.393401 0.113555 0.193247 56 56 52
-0.393184 0.115072 0.193522 66 63 53
-0.392966 0.11659 0.193796 72 69 61
-0.392749 0.118108 0.194071 76 71 64
-0.392532 0.119625 0.194345 81 73 67
-0.392315 0.121143 0.194619 84 78 69
-0.392098 0.122661 0.194894 86 81 73
-0.391881 0.124179 0.195168 90 87 85
-0.391663 0.125697 0.195443 122 127 93
-0.391446 0.127216 0.195717 106 106 88
-0.391229 0.128734 0.195992 82 80 73
-0.391012 0.130253 0.196266 66 63 51
-0.391709 0.132267 0.196152 47 41 29
-0.391491 0.13379 0.196427 23 21 17
-0.390046 0.157789 0.1998 88 91 85
-0.388912 0.158747 0.200457 111 110 101
-0.387332 0.159411 0.201299 126 125 114
-0.386663 0.160645 0.201761 142 140 126
-0.386445 0.162166 0.202036 164 157 142
-0.386228 0.163687 0.202311 192 186 172
-0.38601 0.165208 0.202586 224 222 213
-0.385792 0.166729 0.202861 250 255 246
-0.385575 0.16825 0.203136 252 254 241
-0.385357 0.169772 0.203411 227 233 208
-0.388353 0.100351 0.192594 35 70 75
-0.391727 0.103463 0.191282 30 75 80
-0.392878 0.105593 0.190953 28 79 82
-0.393578 0.107527 0.190823 28 84 84
-0.393821 0.109257 0.190896 29 83 83
-0.393603 0.110775 0.19117 30 63 67
-0.393386 0.112292 0.191444 33 42 44
-0.393169 0.113809 0.191718 41 39 34
-0.392952 0.115327 0.191993 49 47 37
-0.392735 0.116845 0.192267 55 54 45
-0.392518 0.118362 0.192541 60 56 50
-0.392301 0.11988 0.192816 68 60 54
-0.391626 0.121166 0.193289 69 66 57
-0.391409 0.122682 0.193563 75 70 64
-0.391192 0.124198 0.193837 86 81 73
-0.390975 0.125714 0.194111 102 81 76
-0.390758 0.12723 0.194385 99 79 73
-0.390997 0.12899 0.194462 86 79 65
-0.39078 0.130508 0.194737 76 76 58
-0.391019 0.132275 0.194815 60 57 46
-0.391259 0.134047 0.194893 34 27 24
-0.386866 0.157863 0.199681 91 91 83
-0.38575 0.158812 0.200333 108 108 100
-0.385533 0.160328 0.200608 126 125 113
-0.385316 0.161845 0.200882 137 133 120
-0.385099 0.163362 0.201156 150 146 135
-0.384882 0.164878 0.20143 179 179 168
-0.384665 0.166395 0.201704 223 232 217
-0.384895 0.168211 0.201792 231 232 228
-0.385125 0.170031 0.201881 215 211 196
-0.393321 0.104542 0.188953 38 61 66
-0.393563 0.106266 0.189023 28 64 70
-0.393806 0.107994 0.189092 21 67 71
-0.39405 0.109727 0.189162 21 57 60
-0.393832 0.111247 0.189436 23 39 40
-0.393155 0.112546 0.189915 25 28 28
-0.392286 0.118617 0.191012 44 40 35
-0.391612 0.119905 0.191487 53 44 39
-0.391395 0.121421 0.191761 54 51 42
-0.391178 0.122937 0.192035 61 57 48
-0.390961 0.124453 0.192309 68 62 57
-0.390744 0.125969 0.192583 76 70 65
-0.390527 0.127486 0.192857 84 75 67
-0.39031 0.129002 0.193132 84 76 64
-0.390548 0.130764 0.193207 78 73 60
-0.390787 0.132532 0.193283 65 60 53
-0.390569 0.134053 0.193558 43 34 32
-0.384627 0.158501 0.199187 92 91 82
-0.38441 0.160013 0.19946 105 104 94
-0.384639 0.161814 0.199545 115 113 101
-0.384422 0.163329 0.199819 124 122 110
-0.384205 0.164843 0.200092 140 138 128
-0.383988 0.166358 0.200366 177 178 158
-0.384216 0.168171 0.200452 175 179 175
-0.393792 0.106731 0.187288 37 40 44
-0.393575 0.108248 0.187563 22 40 43
-0.393818 0.109982 0.18763 20 33 36
-0.390275 0.124471 0.190983 52 45 41
-0.390512 0.126225 0.191056 62 57 52
-0.390295 0.127741 0.19133 69 64 58
-0.390078 0.129258 0.191604 73 68 60
-0.390316 0.131021 0.191677 74 67 58
-0.390554 0.132788 0.191751 65 59 52
-0.390337 0.13431 0.192026 45 37 36
-0.383293 0.1597 0.198319 88 82 73
-0.383519 0.161495 0.198402 96 91 82
-0.383746 0.163296 0.198485 106 106 93
-0.38353 0.164809 0.198758 116 119 104
-0.383757 0.166617 0.198842 140 124 107
-0.39356 0.106984 0.185759 47 32 30
-0.393343 0.108502 0.186033 30 22 22
-0.390064 0.127997 0.189802 56 46 44
-0.389847 0.129513 0.190076 62 54 51
-0.390084 0.131277 0.190147 68 64 53
-0.390322 0.133045 0.190218 65 55 43
-0.390104 0.134566 0.190493 42 33 31
-0.381086 0.157044 0.197484 79 69 59
-0.380872 0.158542 0.197755 79 64 56
-0.381529 0.160607 0.197646 82 67 61
-0.382631 0.162973 0.197346 92 85 78
-0.382415 0.164482 0.197619 106 107 98
-0.383082 0.16658 0.197509 116 115 101
-0.377008 0.172325 0.2012 150 84 89
-0.377223 0.174116 0.201286 106 44 50
-0.377867 0.176218 0.201188 62 25 24
-0.377653 0.177715 0.201458 32 30 22
-0.393112 0.108756 0.184503 38 28 29
-0.392895 0.110274 0.184777 29 21 22
-0.389615 0.129769 0.188547 53 47 40
-0.389852 0.131533 0.188616 61 56 45
-0.39009 0.133302 0.188686 60 48 34
-0.390328 0.135076 0.188755 39 27 22
-0.37978 0.161508 0.196979 85 61 64
-0.379566 0.163004 0.197249 94 90 85
-0.380219 0.16508 0.197139 105 107 96
-0.380876 0.167167 0.197029 117 116 105
-0.376567 0.170792 0.199617 246 203 166
-0.376354 0.172281 0.199886 185 102 102
-0.376141 0.17377 0.200154 113 40 52
-0.376781 0.175865 0.200054 55 23 24
-0.376995 0.177664 0.200138 30 29 20
-0.392663 0.110528 0.183246 35 26 24
-0.392446 0.112046 0.183521 27 22 20
-0.390075 0.132037 0.186878 50 43 34
-0.390314 0.133809 0.186945 45 35 27
-0.378689 0.161194 0.195857 78 49 50
-0.378475 0.162686 0.196126 89 67 71
-0.377404 0.163605 0.196775 95 89 84
-0.377191 0.165093 0.197044 105 103 93
-0.376978 0.166581 0.197313 114 109 103
-0.376765 0.16807 0.197582 135 126 131
-0.376552 0.169558 0.19785 195 175 181
-0.376339 0.171047 0.198119 231 226 192
-0.376126 0.172536 0.198388 191 161 140
-0.375913 0.174025 0.198657 117 70 71
-0.376552 0.176121 0.198552 53 24 27
-0.376766 0.177921 0.198634 32 26 21
-0.392214 0.1123 0.18199 38 32 28
-0.391997 0.113818 0.182264 27 26 21
-0.37739 0.16237 0.195009 91 68 62
-0.377177 0.163859 0.195278 94 76 71
-0.376538 0.165059 0.195737 102 87 79
-0.376325 0.166545 0.196005 108 91 81
-0.376538 0.168324 0.196084 101 86 79
-0.376325 0.169813 0.196352 135 114 109
-0.376112 0.171302 0.196621 174 162 140
-0.375899 0.17279 0.19689 164 160 134
-0.375685 0.174279 0.197159 115 98 85
-0.375898 0.176072 0.197239 61 19 25
-0.37611 0.17787 0.197319 30 22 21
-0.376736 0.16234 0.193705 72 64 47
-0.376523 0.163826 0.193973 92 70 59
-0.37631 0.165313 0.194241 103 75 66
-0.376098 0.166799 0.194509 112 82 70
-0.375885 0.168286 0.194778 82 64 60
-0.376097 0.170067 0.194854 87 83 72
-0.375884 0.171556 0.195123 111 93 84
-0.375671 0.173045 0.195392 116 94 90
-0.375458 0.174534 0.195661 91 71 73
-0.375669 0.176327 0.195739 55 17 23
-0.375456 0.177819 0.196008 29 17 17
-0.376296 0.16408 0.192477 74 60 46
-0.375659 0.165278 0.192939 95 68 61
-0.375446 0.166763 0.193207 92 78 68
