ply
format ascii 1.0
element vertex 1213
property float x
property float y
property float z
property uchar diffuse_red
property uchar diffuse_green
property uchar diffuse_blue
end_header
-0.342647 0.0338098 0.311884 69 84 79
-0.342477 0.0349906 0.312103 54 112 115
-0.342306 0.0361715 0.312322 47 115 120
-0.342136 0.0373524 0.312541 33 94 104
-0.341965 0.0385334 0.31276 41 96 102
-0.341795 0.0397145 0.312979 43 103 109
-0.341624 0.0408956 0.313197 45 108 112
-0.342062 0.0422666 0.313372 50 119 120
-0.343114 0.0438379 0.313504 53 120 123
-0.344485 0.0455231 0.313615 52 112 119
-0.344934 0.0469219 0.313793 55 111 114
-0.345386 0.0483271 0.313972 63 98 101
-0.345525 0.0496337 0.314173 73 81 80
-0.345351 0.050837 0.314396 80 76 70
-0.342638 0.0328249 0.310482 80 78 75
-0.342164 0.0339201 0.310725 60 102 99
-0.341994 0.0350997 0.310944 53 118 120
-0.341824 0.0362793 0.311162 41 103 113
-0.341653 0.037459 0.311381 32 92 99
-0.341483 0.0386388 0.3116 43 104 106
-0.341616 0.0399108 0.311794 42 105 109
-0.341749 0.0411858 0.31199 47 112 117
-0.342187 0.0425591 0.312162 52 119 122
-0.34324 0.0441336 0.312289 52 115 120
-0.344304 0.0457224 0.312416 52 113 117
-0.345064 0.0472236 0.312568 55 108 110
-0.345203 0.0485275 0.312768 69 86 84
-0.345342 0.0498345 0.312968 77 72 68
-0.34263 0.0318398 0.309079 82 72 71
-0.342155 0.0329362 0.309324 67 87 90
-0.341985 0.0341158 0.309542 56 112 117
-0.341815 0.0352954 0.309761 48 114 115
-0.341644 0.0364752 0.309979 34 95 100
-0.341172 0.0375655 0.310223 40 97 101
-0.341304 0.0388349 0.310416 42 104 108
-0.341134 0.0400149 0.310635 43 110 114
-0.341569 0.0413825 0.310804 49 118 121
-0.342007 0.0427563 0.310974 52 118 123
-0.343367 0.0444299 0.31107 52 113 117
-0.344122 0.0459217 0.311217 55 112 113
-0.344882 0.0474237 0.311365 60 98 98
-0.345021 0.0487279 0.311563 67 81 73
-0.342147 0.0319521 0.307922 81 81 73
-0.341976 0.0331318 0.308141 58 108 103
-0.341503 0.0342257 0.308387 53 116 121
-0.341333 0.0354041 0.308605 40 102 109
-0.341163 0.0365827 0.308823 32 93 98
-0.340993 0.0377613 0.309041 42 103 106
-0.340823 0.03894 0.30926 42 106 110
-0.340954 0.0402111 0.309452 48 115 119
-0.34139 0.0415793 0.309618 54 121 124
-0.341827 0.0429537 0.309785 52 115 122
-0.343186 0.0446284 0.309875 53 112 117
-0.343941 0.046121 0.310018 56 107 109
-0.344388 0.0475215 0.310187 67 88 83
-0.344526 0.0488245 0.310384 75 77 68
-0.342138 0.030968 0.30652 90 74 69
-0.341665 0.0320643 0.306768 66 92 87
-0.341494 0.0332427 0.306986 51 118 119
-0.341324 0.0344212 0.307205 45 112 118
-0.341154 0.0355997 0.307423 29 93 100
-0.340682 0.0366899 0.307669 41 100 102
-0.340512 0.0378674 0.307887 37 104 111
-0.340644 0.0391359 0.308078 42 113 116
-0.340775 0.0404074 0.308268 47 119 123
-0.34121 0.0417761 0.308432 51 118 122
-0.341647 0.043151 0.308596 51 112 118
-0.342391 0.0446303 0.308734 54 112 114
-0.34345 0.0462198 0.308845 62 92 99
-0.343896 0.0476191 0.309012 70 74 77
-0.341826 0.0299028 0.30515 78 77 71
-0.341656 0.0310812 0.305368 80 76 78
-0.341486 0.0322596 0.305586 58 106 108
-0.341014 0.0333534 0.305834 50 117 120
-0.340844 0.0345307 0.306052 37 100 105
-0.340373 0.0356209 0.3063 38 93 96
-0.340203 0.036797 0.306518 44 106 108
-0.340334 0.038063 0.306706 43 108 113
-0.340465 0.0393319 0.306895 47 119 120
-0.340898 0.0406967 0.307056 54 123 123
-0.341334 0.0420677 0.307217 52 115 119
-0.341467 0.0433484 0.307407 53 111 116
-0.342211 0.0448284 0.307541 55 106 107
-0.34296 0.0463185 0.307675 73 83 79
-0.343096 0.0476144 0.307868 83 70 64
-0.341345 0.0300169 0.304 82 71 66
-0.341175 0.0311941 0.304218 64 96 93
-0.340703 0.0322879 0.304467 50 118 122
-0.340534 0.0334639 0.304685 42 111 116
-0.340364 0.0346399 0.304903 30 94 99
-0.339894 0.0357289 0.305151 42 102 103
-0.340024 0.0369924 0.305338 40 103 111
-0.339854 0.0381687 0.305556 45 113 117
-0.340286 0.0395279 0.305713 50 120 123
-0.340719 0.0408932 0.30587 50 119 121
-0.341154 0.0422648 0.306029 52 113 118
-0.341287 0.0435458 0.306218 54 110 114
-0.341725 0.0449281 0.306378 59 92 97
-0.341858 0.0462167 0.306568 71 76 71
-0.340564 0.03005 0.302886 74 76 78
-0.340394 0.0312246 0.303103 56 113 115
-0.340224 0.0323993 0.30332 51 119 121
-0.340055 0.0335741 0.303538 34 98 106
-0.339586 0.0346631 0.303788 38 91 100
-0.339416 0.0358368 0.304005 42 105 108
-0.339546 0.037099 0.30419 43 109 113
-0.339676 0.0383642 0.304376 48 121 119
-0.340107 0.0397239 0.30453 54 122 121
-0.340539 0.0410898 0.304685 53 114 118
-0.340974 0.0424619 0.304841 53 113 115
-0.341107 0.0437433 0.305028 61 105 106
-0.340935 0.0449294 0.305248 74 78 75
-0.340255 0.0289902 0.301524 72 72 73
-0.339786 0.0300829 0.301776 60 100 94
-0.339617 0.031255 0.301993 52 119 121
-0.339448 0.0324273 0.30221 42 109 114
-0.338683 0.0334309 0.302495 29 91 99
-0.338514 0.0346007 0.302711 42 102 108
-0.33894 0.0359444 0.302861 42 105 111
-0.339069 0.0372055 0.303044 47 111 118
-0.339497 0.0385597 0.303195 50 119 124
-0.339928 0.03992 0.303347 53 116 122
-0.34036 0.0412864 0.303499 54 112 116
-0.340794 0.0426591 0.303652 55 111 111
-0.340623 0.0438439 0.303871 60 90 92
-0.340755 0.045127 0.304058 73 74 73
-0.339052 0.0276988 0.300275 74 71 67
-0.338883 0.028867 0.300491 63 82 87
-0.338715 0.0300353 0.300707 51 114 117
-0.338546 0.0312037 0.300923 50 119 120
-0.338081 0.0322893 0.301175 31 96 101
-0.337617 0.0333727 0.301426 35 93 99
-0.337744 0.0346239 0.301607 41 107 111
-0.337871 0.035878 0.301788 43 112 114
-0.338592 0.0373118 0.301901 50 121 125
-0.339319 0.0387552 0.302015 52 118 125
-0.339749 0.0401161 0.302164 53 113 118
-0.34018 0.0414831 0.302313 52 110 115
-0.340312 0.0427607 0.302498 57 104 106
-0.340443 0.0440412 0.302683 75 83 75
-0.338578 0.0278143 0.29914 81 69 74
-0.338409 0.0289813 0.299356 60 106 100
-0.337945 0.0300681 0.299608 52 122 122
-0.337482 0.0311527 0.299861 41 104 112
-0.337314 0.0323174 0.300076 32 89 96
-0.337146 0.0334822 0.300291 42 103 105
-0.337272 0.0347323 0.300471 41 108 115
-0.337398 0.0359852 0.300651 47 119 121
-0.338414 0.0375066 0.300724 50 123 125
-0.339439 0.0390417 0.300798 54 117 121
-0.33987 0.0404048 0.300945 54 111 115
-0.340001 0.0416798 0.301127 56 110 112
-0.340132 0.0429577 0.30131 63 84 90
-0.339961 0.0441414 0.301529 82 76 73
-0.338569 0.0268403 0.297752 77 68 63
-0.338105 0.0279295 0.298007 65 86 85
-0.337937 0.0290954 0.298222 51 113 120
-0.337473 0.030181 0.298476 44 115 120
-0.337011 0.0312643 0.298729 29 92 103
-0.336843 0.0324279 0.298944 44 97 99
-0.336675 0.0335915 0.29916 42 104 113
-0.336801 0.0348404 0.299338 41 112 119
-0.337221 0.0361791 0.299479 48 123 126
-0.338236 0.0377015 0.299547 53 121 123
-0.339261 0.0392375 0.299616 54 117 118
-0.339992 0.0406942 0.299722 51 111 114
-0.339821 0.0418765 0.299941 59 102 103
-0.339651 0.0430589 0.30016 75 76 66
-0.338096 0.0269566 0.296621 69 74 73
-0.337633 0.0280445 0.296876 54 110 106
-0.337171 0.0291301 0.297131 52 122 123
-0.336709 0.0302135 0.297385 36 103 111
-0.336542 0.0313758 0.2976 30 90 97
-0.336374 0.0325381 0.297815 43 103 111
-0.336499 0.0337846 0.297992 42 107 116
-0.336624 0.0350338 0.298168 48 121 122
-0.337044 0.036373 0.298307 51 124 127
-0.338356 0.0379858 0.298332 52 116 122
-0.339381 0.0395249 0.298395 53 111 118
-0.339812 0.0408908 0.298536 58 110 112
-0.339642 0.0420732 0.298755 66 83 80
-0.339471 0.0432557 0.298973 75 73 62
-0.337792 0.025908 0.295276 74 77 67
-0.33733 0.0269959 0.295533 60 90 88
-0.337162 0.0281593 0.295748 53 117 122
-0.336701 0.0292437 0.296004 46 114 119
-0.33624 0.0303259 0.296259 25 94 99
-0.336073 0.031487 0.296473 41 97 101
-0.336197 0.0327309 0.296648 40 108 112
-0.336029 0.0338935 0.296863 44 115 118
-0.336447 0.0352272 0.296999 51 121 125
-0.336866 0.036567 0.297135 52 118 123
-0.338475 0.0382707 0.297113 55 114 117
-0.339202 0.0397211 0.297211 54 112 115
-0.339633 0.0410875 0.297349 58 95 102
-0.339462 0.04227 0.297568 70 71 66
-0.337196 0.0247874 0.293977 84 65 68
-0.337028 0.0259495 0.294192 72 78 78
-0.33686 0.0271116 0.294407 55 112 113
-0.336692 0.0282739 0.294622 51 121 123
-0.336232 0.0293571 0.294878 33 100 110
-0.336064 0.0305183 0.295093 32 92 99
-0.335896 0.0316795 0.295308 43 105 109
-0.335729 0.0328408 0.295522 43 109 114
-0.335853 0.0340864 0.295696 48 121 123
-0.33627 0.0354207 0.295829 55 123 123
-0.337279 0.0369366 0.295881 54 116 119
-0.338595 0.0385564 0.295891 52 113 115
-0.339023 0.0399172 0.296027 57 110 111
-0.339453 0.0412842 0.296162 66 81 77
-0.339282 0.0424668 0.296381 76 68 62
-0.336726 0.0249052 0.292854 79 69 71
-0.336558 0.0260662 0.293069 64 96 94
-0.336391 0.0272272 0.293283 52 121 125
-0.336223 0.0283883 0.293498 41 112 118
-0.336055 0.0295494 0.293712 26 92 100
-0.335888 0.0307107 0.293927 41 102 104
-0.33572 0.031872 0.294142 39 107 114
-0.335552 0.0330334 0.294356 43 115 121
-0.335676 0.0342794 0.294528 48 120 126
-0.336386 0.0357005 0.294617 53 118 121
-0.337693 0.037308 0.29462 55 115 118
-0.338715 0.0388426 0.294667 56 116 113
-0.339144 0.0402057 0.2948 59 93 97
-0.339274 0.041481 0.294975 70 72 66
-0.336717 0.0239362 0.291474 76 67 64
-0.33655 0.0250972 0.291688 71 81 80
-0.336382 0.0262582 0.291903 55 114 118
-0.336214 0.0274193 0.292117 49 123 125
-0.336047 0.0285805 0.292332 29 99 106
-0.335879 0.0297418 0.292546 32 93 99
-0.335711 0.0309032 0.292761 42 106 110
-0.335544 0.0320646 0.292975 43 111 117
-0.335376 0.0332261 0.29319 49 121 124
-0.335791 0.0345572 0.293317 52 121 124
-0.336797 0.0360678 0.293358 52 117 122
-0.337811 0.0375919 0.293398 53 114 120
-0.338835 0.0391296 0.29344 61 111 110
-0.338964 0.0404022 0.293614 68 82 74
-0.338794 0.0415836 0.293832 79 74 64
-0.336249 0.0240548 0.290354 77 73 68
-0.336373 0.0252891 0.290522 62 102 94
-0.336206 0.0264503 0.290736 50 120 124
-0.335746 0.0275344 0.290997 41 106 114
-0.335579 0.0286945 0.291211 27 91 97
-0.335411 0.0298546 0.291425 42 102 105
-0.335244 0.0310148 0.29164 40 108 114
-0.335367 0.0322572 0.291809 45 115 123
-0.335199 0.0334188 0.292023 48 122 127
-0.335907 0.0348357 0.292103 53 117 121
-0.33721 0.0364367 0.292093 54 112 117
-0.338228 0.037966 0.292128 56 114 116
-0.338656 0.0393258 0.292255 62 90 94
-0.338485 0.0405059 0.292473 74 75 65
-0.336073 0.0242465 0.289189 69 83 82
-0.335905 0.0254064 0.289403 52 114 119
-0.335738 0.0265664 0.289617 47 118 122
-0.33557 0.0277264 0.289832 30 96 102
-0.335112 0.0288082 0.290093 39 94 99
-0.334945 0.0299672 0.290307 40 106 112
-0.335068 0.0312071 0.290474 41 114 119
-0.335191 0.0324498 0.290642 47 122 128
-0.335314 0.0336954 0.29081 52 120 124
-0.336316 0.0352006 0.290839 55 116 120
-0.337328 0.0367193 0.290869 54 115 119
-0.338049 0.0381616 0.290946 61 107 108
-0.338177 0.0394304 0.291117 71 83 72
-0.335773 0.0232061 0.287859 69 74 71
-0.335606 0.0243647 0.288073 58 109 101
-0.335438 0.0255235 0.288287 55 123 123
-0.335271 0.0266823 0.288501 40 105 111
-0.335103 0.0278412 0.288715 26 92 98
-0.334646 0.0289218 0.288977 43 104 108
-0.334769 0.0301592 0.289143 43 110 115
-0.334601 0.0313184 0.289357 45 120 122
-0.335014 0.0326425 0.289475 49 124 127
-0.335721 0.0340569 0.289546 53 117 122
-0.336433 0.0354808 0.289618 56 113 116
-0.337446 0.0370025 0.289642 59 111 112
-0.33787 0.0383573 0.289763 64 85 90
-0.337998 0.0396264 0.289933 73 75 66
-0.335764 0.0222388 0.286481 75 74 71
-0.335597 0.0233975 0.286695 61 88 88
-0.335429 0.0245563 0.286908 52 118 122
-0.335262 0.0257151 0.287122 49 117 120
-0.334805 0.026798 0.287386 29 92 102
-0.334638 0.0279557 0.2876 39 98 100
-0.334181 0.0290351 0.287863 41 105 112
-0.334303 0.0302714 0.288027 42 117 119
-0.334425 0.0315105 0.288192 47 124 125
-0.334838 0.0328352 0.288308 50 122 123
-0.335837 0.0343352 0.288326 56 116 119
-0.336255 0.035675 0.288443 57 114 116
-0.337267 0.0371977 0.288462 66 104 103
-0.337394 0.0384628 0.28863 77 77 68
-0.335298 0.022359 0.285368 76 77 75
-0.335131 0.0235165 0.285582 60 113 108
-0.334963 0.0246741 0.285796 52 120 123
-0.334796 0.0258318 0.286009 40 100 110
-0.33434 0.0269134 0.286274 31 92 98
-0.333884 0.0279928 0.286538 43 106 110
-0.334006 0.0292267 0.286701 42 109 116
-0.333839 0.0303834 0.286914 46 119 126
-0.334249 0.0317027 0.287027 51 123 125
-0.334661 0.033028 0.287141 52 118 119
-0.335659 0.0345289 0.287154 56 113 117
-0.335784 0.0357826 0.287319 60 113 113
-0.336792 0.0373042 0.287333 69 84 86
-0.336919 0.0385681 0.287499 74 70 65
-0.33471 0.0212528 0.284098 85 75 67
-0.334832 0.0224789 0.284258 67 92 91
-0.334665 0.0236352 0.284472 55 118 123
-0.334498 0.0247917 0.284685 45 114 119
-0.334043 0.0258733 0.284951 27 92 100
-0.333876 0.0270287 0.285164 42 100 102
-0.333709 0.0281841 0.285377 40 109 115
-0.333542 0.0293396 0.28559 43 115 121
-0.333663 0.0305751 0.285752 50 123 126
-0.334073 0.031895 0.285862 53 119 123
-0.334775 0.0333041 0.285922 56 114 116
-0.335482 0.0347226 0.285981 57 112 117
-0.335606 0.0359766 0.286145 62 100 103
-0.335731 0.0372335 0.286309 76 74 68
-0.334413 0.0202197 0.282779 82 63 59
-0.334246 0.0213735 0.282992 71 80 75
-0.334368 0.0225986 0.28315 56 115 112
-0.334201 0.0237538 0.283363 51 121 123
-0.333746 0.0248354 0.28363 37 99 106
-0.333579 0.0259895 0.283843 36 93 97
-0.333126 0.0270677 0.28411 43 108 112
-0.333246 0.028298 0.284269 43 114 118
-0.333079 0.0294523 0.284482 48 121 125
-0.333487 0.0307669 0.284589 49 121 123
-0.334186 0.0321692 0.284644 54 116 120
-0.334598 0.0334971 0.284753 56 114 115
-0.335305 0.0349164 0.284808 61 111 111
-0.335136 0.0360838 0.285024 76 83 79
-0.33526 0.0373396 0.285186 84 72 60
-0.333663 0.0202729 0.281731 69 70 65
-0.333496 0.0214243 0.281943 56 98 92
-0.332758 0.0224341 0.282266 48 120 124
-0.33345 0.0237996 0.282313 42 111 116
-0.333284 0.0249525 0.282525 30 90 98
-0.332545 0.025956 0.282847 43 101 104
-0.332379 0.0271065 0.28306 41 108 118
-0.332784 0.0284116 0.283163 47 117 123
-0.332904 0.0296436 0.283322 50 123 126
-0.333311 0.0309587 0.283427 54 118 123
-0.334299 0.0324441 0.283423 55 115 118
-0.334421 0.0336902 0.283583 56 115 116
-0.334835 0.0350245 0.283689 62 97 101
-0.334958 0.0362777 0.28385 76 75 66
-0.333082 0.0191769 0.280475 70 68 62
-0.332916 0.0203258 0.280687 61 81 79
-0.33275 0.0214748 0.280899 53 117 118
-0.332015 0.0224825 0.281223 49 117 121
-0.332418 0.0237731 0.281323 33 95 103
-0.331967 0.024849 0.28159 39 93 96
-0.331802 0.0259971 0.281802 42 108 112
-0.33192 0.027221 0.281958 42 116 120
-0.332038 0.0284477 0.282115 50 123 126
-0.332728 0.0298349 0.282162 52 119 126
-0.333423 0.0312312 0.282208 54 115 120
-0.334122 0.0326368 0.282255 55 113 116
-0.334535 0.0339674 0.282358 60 112 110
-0.334658 0.0352181 0.282517 73 75 74
-0.334489 0.0363846 0.282733 82 70 62
-0.332622 0.0192992 0.279378 69 69 71
-0.332172 0.0203786 0.279648 57 106 98
-0.332006 0.0215252 0.279859 50 119 124
-0.331275 0.0225307 0.280185 41 107 113
-0.331392 0.0237467 0.280339 30 89 98
-0.331226 0.0248924 0.28055 43 103 107
-0.331344 0.0261125 0.280705 41 111 118
-0.331461 0.0273353 0.28086 46 121 125
-0.331863 0.0286383 0.280958 49 121 125
-0.332553 0.0300262 0.281001 53 118 121
-0.333535 0.0315044 0.280987 57 116 116
-0.333946 0.0328296 0.281087 59 113 114
-0.334358 0.0341608 0.281187 63 91 98
-0.33419 0.0353259 0.281402 71 80 66
-0.332045 0.0182087 0.278131 75 74 67
-0.33188 0.019354 0.278342 65 82 81
-0.331714 0.0204994 0.278553 50 115 119
-0.331266 0.0215754 0.278823 48 116 122
-0.330819 0.0226491 0.279092 29 95 101
-0.330936 0.0238641 0.279245 37 97 99
-0.33077 0.0250086 0.279456 40 110 115
-0.330887 0.0262276 0.279609 43 117 121
-0.331004 0.0274494 0.279763 49 123 128
-0.331688 0.0288289 0.279801 52 120 124
-0.332951 0.0303768 0.279724 55 116 119
-0.333648 0.0317782 0.279763 57 115 115
-0.334059 0.0331056 0.27986 62 110 109
-0.334181 0.0343541 0.280016 73 77 72
-0.333723 0.0354335 0.280289 72 74 64
-0.331753 0.0171875 0.276829 78 66 63
-0.331588 0.0183316 0.27704 68 69 73
-0.331423 0.0194758 0.277251 56 112 108
-0.330976 0.0205517 0.277522 48 122 123
-0.33081 0.0216948 0.277732 40 104 108
-0.330645 0.022838 0.277943 31 92 97
-0.330762 0.0240533 0.278094 41 103 109
-0.330596 0.0251979 0.278305 41 111 118
-0.330995 0.0264921 0.278398 46 122 125
-0.331964 0.0279453 0.278373 51 123 127
-0.33323 0.0294901 0.278287 54 117 122
-0.333928 0.0308901 0.278321 56 113 119
-0.33376 0.0320527 0.278535 60 113 113
-0.333882 0.0332987 0.27869 67 84 92
-0.333714 0.0344627 0.278904 78 72 63
-0.331015 0.0172465 0.275802 76 69 65
-0.33085 0.0183883 0.276012 63 89 85
-0.330686 0.0195301 0.276222 52 118 123
-0.330521 0.020672 0.276433 44 114 120
-0.330356 0.021814 0.276643 28 92 99
-0.330191 0.0229561 0.276854 43 98 101
-0.330306 0.0241703 0.277004 41 109 115
-0.330704 0.0254609 0.277094 45 118 121
-0.331103 0.0267572 0.277184 46 124 127
-0.332074 0.0282132 0.277153 52 119 123
-0.333053 0.029682 0.277122 54 116 121
-0.333751 0.0310828 0.277152 59 113 116
-0.333584 0.0322455 0.277366 62 106 106
-0.333416 0.0334082 0.277581 70 76 67
-0.331007 0.016293 0.274443 65 67 60
-0.330842 0.0174348 0.274653 67 74 76
-0.330677 0.0185766 0.274863 56 110 112
-0.330512 0.0197186 0.275074 51 121 123
-0.330347 0.0208606 0.275284 33 101 110
-0.330182 0.0220027 0.275495 32 90 96
-0.330017 0.0231449 0.275705 45 107 110
-0.330132 0.0243594 0.275854 44 113 119
-0.33053 0.0256505 0.275941 48 121 126
-0.331212 0.0270228 0.275967 49 123 128
-0.33247 0.0285593 0.275869 53 118 122
-0.333165 0.0299534 0.275894 53 115 119
-0.333575 0.0312755 0.275983 58 113 115
-0.333407 0.0324383 0.276197 66 81 89
-0.333239 0.0336012 0.276412 76 71 63
-0.330833 0.0164812 0.273294 67 71 65
-0.330668 0.017623 0.273504 57 95 90
-0.330503 0.018765 0.273715 51 122 125
-0.330058 0.0198396 0.273989 42 112 117
-0.329893 0.0209805 0.274199 25 92 101
-0.330008 0.0221914 0.274346 41 100 102
-0.329843 0.0233336 0.274556 39 111 115
-0.33024 0.0246212 0.27464 43 120 123
-0.330638 0.0259143 0.274725 48 124 128
-0.33189 0.0274415 0.27462 52 118 125
-0.332581 0.0288289 0.274642 56 113 120
-0.332989 0.0301456 0.274728 57 114 119
-0.333398 0.0314683 0.274814 60 101 106
-0.33323 0.0326312 0.275028 72 78 71
-0.333062 0.0337941 0.275242 74 67 60
-0.330544 0.0154647 0.272 78 76 64
-0.330379 0.0166054 0.27221 68 79 79
-0.330214 0.0177462 0.27242 53 114 115
-0.330049 0.018887 0.272631 50 123 123
-0.329885 0.0200279 0.272841 33 99 105
-0.32972 0.0211689 0.273051 33 91 100
-0.329555 0.02231 0.273261 45 105 113
-0.32967 0.0235225 0.273407 42 114 118
-0.330347 0.0248835 0.273424 45 124 126
-0.331029 0.0262535 0.273442 47 123 125
-0.332 0.0277091 0.273395 53 115 120
-0.332692 0.029099 0.273412 54 113 120
-0.3331 0.0304179 0.273496 59 112 113
-0.332933 0.0315796 0.27371 68 80 81
-0.333053 0.032824 0.273859 78 69 61
-0.33037 0.0156526 0.270852 71 73 63
-0.330206 0.0167934 0.271062 61 104 93
-0.330041 0.0179343 0.271272 50 123 124
-0.329876 0.0190752 0.271482 40 110 117
-0.329432 0.0201486 0.271759 29 91 97
-0.329546 0.0213574 0.271903 43 102 103
-0.329381 0.0224985 0.272113 43 109 115
-0.329496 0.0237113 0.272257 45 120 123
-0.330454 0.0251465 0.272205 51 125 127
-0.331421 0.0265942 0.272153 51 121 123
-0.33211 0.0279774 0.272166 55 114 116
-0.332803 0.0293698 0.27218 57 114 116
-0.332924 0.0306104 0.272327 58 99 101
-0.332756 0.0317722 0.272541 68 74 65
-0.330362 0.0146998 0.269494 71 65 61
-0.330197 0.0158406 0.269704 65 80 78
-0.329752 0.0169173 0.269982 51 115 119
-0.329588 0.018057 0.270192 47 121 121
-0.329423 0.0191968 0.270402 30 96 107
-0.329258 0.0203367 0.270612 40 93 99
-0.329094 0.0214767 0.270821 45 108 112
-0.329208 0.0226871 0.270964 42 113 120
-0.329322 0.0239002 0.271108 46 122 129
-0.330562 0.02541 0.270984 51 121 124
-0.33153 0.0268605 0.270926 53 117 120
-0.331934 0.0281688 0.271003 56 114 117
-0.332627 0.029562 0.271013 60 112 111
-0.332459 0.0307225 0.271226 70 78 78
-0.332292 0.0318831 0.27144 80 72 65
-0.329908 0.0148257 0.268415 63 67 65
-0.329744 0.0159654 0.268625 57 105 98
-0.3293 0.0170409 0.268904 51 119 122
-0.329136 0.0181795 0.269114 39 105 111
-0.328971 0.0193182 0.269323 28 91 99
-0.328806 0.020457 0.269533 44 103 110
-0.32892 0.021665 0.269674 41 112 120
-0.329034 0.0228757 0.269816 45 119 127
-0.329428 0.0241612 0.26989 47 123 129
-0.33067 0.0256742 0.269759 52 118 123
-0.331355 0.0270515 0.269765 54 114 118
-0.331758 0.0283604 0.269839 57 114 116
-0.332163 0.029675 0.269914 62 91 98
-0.332283 0.0309149 0.270059 74 76 71
-0.329621 0.0138129 0.267129 65 66 57
-0.329456 0.0149514 0.267339 59 82 81
-0.329291 0.0160899 0.267548 49 118 121
-0.329127 0.0172286 0.267758 48 118 121
-0.328962 0.0183673 0.267967 28 94 102
-0.328798 0.0195061 0.268177 39 96 100
-0.328633 0.020645 0.268386 42 108 117
-0.328747 0.0218534 0.268527 44 115 122
-0.32914 0.0231353 0.268598 47 122 129
-0.329815 0.0244954 0.2686 49 120 125
-0.330495 0.0258645 0.268601 53 117 121
-0.331179 0.0272425 0.268603 56 116 119
-0.331582 0.0285519 0.268676 60 109 110
-0.331701 0.0297878 0.268818 68 77 76
-0.33182 0.0310265 0.268961 73 70 65
-0.329333 0.0128022 0.265846 63 68 60
-0.329169 0.0139395 0.266055 60 71 70
-0.329004 0.0150768 0.266264 54 107 106
-0.32884 0.0162143 0.266474 50 121 125
-0.328676 0.0173518 0.266683 35 105 110
-0.328511 0.0184894 0.266892 27 90 97
-0.328347 0.0196271 0.267101 43 105 108
-0.32846 0.0208331 0.26724 42 111 120
-0.328852 0.0221114 0.267308 48 122 128
-0.329246 0.0233954 0.267377 47 124 127
-0.329641 0.024685 0.267446 51 117 122
-0.33032 0.0260548 0.267444 55 114 119
-0.330154 0.0272053 0.267655 60 115 116
-0.330837 0.028588 0.267654 59 88 93
-0.331239 0.0299005 0.267724 68 66 65
-0.328605 0.01287 0.264847 64 65 64
-0.328718 0.0140658 0.264983 53 87 89
-0.328554 0.015202 0.265192 50 120 126
-0.32839 0.0163384 0.265401 45 113 118
-0.328225 0.0174748 0.26561 26 94 100
-0.328061 0.0186113 0.265819 40 97 101
-0.328174 0.0198149 0.265956 41 109 115
-0.328287 0.0210212 0.266093 43 119 124
-0.328678 0.0223001 0.266159 48 123 128
-0.329072 0.0235845 0.266225 50 120 123
-0.329467 0.0248746 0.266292 52 115 120
-0.329863 0.0261704 0.266358 56 116 116
-0.329979 0.0273958 0.266497 64 105 105
-0.329813 0.0285465 0.266709 74 79 69
-0.330779 0.0300128 0.266632 74 68 60
-0.32832 0.0118634 0.26357 72 62 52
-0.328156 0.0129971 0.263778 63 69 72
-0.327992 0.014131 0.263987 53 111 110
-0.327828 0.0152649 0.264195 52 121 124
-0.327664 0.0163989 0.264404 35 102 107
-0.3275 0.017533 0.264612 37 90 97
-0.327612 0.0187329 0.264748 44 105 112
-0.327724 0.0199355 0.264884 43 112 120
-0.328114 0.0212093 0.264947 46 122 128
-0.328784 0.022559 0.264937 49 121 126
-0.328898 0.0237737 0.265073 54 118 118
-0.329292 0.0250643 0.265137 55 115 118
-0.329407 0.0262858 0.265275 60 115 112
-0.329522 0.0275101 0.265413 68 81 88
-0.329356 0.0286597 0.265624 79 67 62
-0.327047 0.0118165 0.262729 70 59 62
-0.327158 0.0130049 0.262862 58 94 90
-0.326994 0.0141353 0.263069 51 121 122
-0.326831 0.0152657 0.263277 44 109 117
-0.326394 0.0163332 0.263559 25 94 98
-0.326504 0.0175267 0.263693 42 100 103
-0.326614 0.0187229 0.263827 42 109 117
-0.327551 0.0201231 0.263739 44 119 125
-0.32794 0.0213975 0.2638 46 123 128
-0.32861 0.0227478 0.263786 52 120 122
-0.329003 0.0240349 0.263847 55 114 116
-0.329118 0.025254 0.263983 57 114 117
-0.329232 0.0264759 0.264119 63 102 102
-0.329066 0.0276242 0.26433 74 70 65
-0.326491 0.0107593 0.261536 66 66 58
-0.326601 0.0119441 0.261668 61 70 79
-0.326438 0.013072 0.261875 52 113 115
-0.326003 0.0141395 0.262158 49 120 122
-0.32584 0.0152665 0.262365 32 98 104
-0.325677 0.0163934 0.262572 32 94 99
-0.326059 0.0176488 0.26263 40 107 113
-0.326169 0.018844 0.262762 43 115 119
-0.327378 0.0203108 0.262594 46 125 129
-0.328044 0.0216548 0.262577 48 122 125
-0.328436 0.0229368 0.262635 56 114 119
-0.328829 0.0242243 0.262693 56 112 116
-0.328943 0.0254437 0.262828 60 112 112
-0.328777 0.0265909 0.263039 65 87 81
-0.328612 0.0277381 0.26325 69 69 59
-0.326048 0.0108876 0.260479 62 67 63
-0.325885 0.0120132 0.260685 56 101 97
-0.325722 0.0131388 0.260892 51 122 124
-0.32556 0.0142646 0.261099 41 109 114
-0.325397 0.0153904 0.261306 27 92 97
-0.325234 0.0165163 0.261513 41 101 106
-0.325343 0.0177064 0.261644 41 110 119
-0.325997 0.0190306 0.261623 44 120 125
-0.327482 0.0205664 0.261373 46 123 129
-0.328149 0.0219127 0.261351 50 118 122
-0.328541 0.0231967 0.261406 55 114 117
-0.328934 0.0244863 0.261462 57 114 114
-0.328769 0.0256335 0.261673 57 99 102
-0.328603 0.0267807 0.261884 70 72 64
-0.325767 0.00989123 0.259216 64 62 58
-0.325605 0.0110157 0.259423 58 79 77
-0.325442 0.0121401 0.259629 53 118 119
-0.32528 0.0132647 0.259836 46 118 121
-0.325117 0.0143894 0.260043 26 98 104
-0.324955 0.0155141 0.260249 33 95 98
-0.325063 0.0167019 0.260379 41 108 114
-0.3249 0.017828 0.260586 43 118 121
-0.325552 0.0191512 0.260562 48 124 129
-0.327308 0.0207543 0.260226 48 120 126
-0.328253 0.0221713 0.260122 53 114 119
-0.328367 0.0233859 0.260254 53 114 118
-0.32848 0.0246033 0.260386 60 113 111
-0.328594 0.0258233 0.260518 62 79 78
-0.328149 0.0268954 0.260807 70 68 57
-0.325326 0.0100202 0.258163 63 66 64
-0.325163 0.0111435 0.258369 54 105 101
-0.325001 0.0122669 0.258575 51 122 125
-0.324838 0.0133904 0.258782 37 106 114
-0.324676 0.0145139 0.258988 26 92 101
-0.324784 0.0156995 0.259116 40 104 109
-0.324621 0.0168244 0.259323 40 112 119
-0.324729 0.0180138 0.259451 44 123 126
-0.32538 0.0193377 0.259424 47 124 128
-0.327412 0.0210107 0.259 50 118 122
-0.328079 0.0223602 0.258971 55 114 117
-0.328192 0.0235751 0.259101 56 113 116
-0.328306 0.0247928 0.259232 59 95 98
-0.32814 0.0259389 0.259442 66 70 64
-0.325317 0.00908149 0.256824 65 65 61
-0.325155 0.0102048 0.257031 58 81 82
-0.324992 0.0113283 0.257237 50 121 121
-0.32483 0.0124518 0.257443 47 116 119
-0.324667 0.0135754 0.25765 27 94 104
-0.324505 0.0146991 0.257856 37 96 102
-0.324343 0.0158228 0.258063 42 110 115
-0.32445 0.0170099 0.25819 41 118 123
-0.324558 0.0181996 0.258317 45 125 128
-0.32548 0.0195906 0.258206 49 121 125
-0.327515 0.0212676 0.257771 53 117 119
-0.327905 0.0225491 0.257819 57 115 115
-0.328018 0.0237644 0.257948 61 108 108
-0.328131 0.0249823 0.258077 63 74 73
-0.327966 0.0261286 0.258288 69 63 58
-0.325146 0.0092661 0.255692 63 70 69
-0.324984 0.0103896 0.255899 53 106 107
-0.324821 0.0115131 0.256105 49 122 124
-0.324659 0.0126367 0.256311 35 103 109
-0.324497 0.0137604 0.256517 27 92 98
-0.324334 0.0148842 0.256724 42 104 110
-0.324172 0.016008 0.25693 42 114 119
-0.324279 0.0171954 0.257056 45 122 126
-0.324657 0.0184504 0.257102 47 122 126
-0.326128 0.0199779 0.256822 51 119 119
-0.327619 0.0215252 0.25654 54 116 116
-0.327731 0.0227381 0.256667 59 114 113
-0.327844 0.0239536 0.256795 64 83 94
-0.327957 0.0251719 0.256923 66 63 61
-0.325138 0.00832725 0.254354 67 67 63
-0.324975 0.00945074 0.25456 57 90 87
-0.324813 0.0105743 0.254766 51 118 124
-0.32465 0.011698 0.254972 45 113 117
-0.324488 0.0128217 0.255179 25 94 101
-0.324326 0.0139455 0.255385 38 101 105
-0.324163 0.0150693 0.255591 40 109 116
-0.324001 0.0161933 0.255798 41 119 125
-0.324108 0.017381 0.255922 46 124 128
-0.324756 0.0187018 0.255883 50 120 122
-0.32623 0.0202326 0.255596 54 116 117
-0.327445 0.0217139 0.255389 56 114 116
-0.327557 0.0229271 0.255515 60 108 107
-0.32767 0.0241429 0.255642 66 67 72
-0.327782 0.0253615 0.255768 69 66 59
-0.324859 0.00733528 0.2531 68 64 58
-0.324967 0.00851183 0.253221 60 75 75
-0.324804 0.00963541 0.253427 52 110 112
-0.324642 0.0107591 0.253634 48 117 124
-0.324479 0.0118828 0.25384 33 102 107
-0.324048 0.0129477 0.25413 31 95 98
-0.323885 0.0140704 0.254336 42 109 113
-0.323992 0.0152546 0.254459 42 113 120
-0.32383 0.0163786 0.254665 44 122 128
-0.324206 0.0176306 0.254705 46 122 127
-0.324584 0.0188881 0.254746 51 117 119
-0.326057 0.0204202 0.254451 54 113 117
-0.327271 0.0219026 0.254238 61 112 113
-0.327383 0.0231161 0.254363 62 84 87
-0.327218 0.02426 0.254573 65 63 59
-0.324688 0.0075196 0.251968 66 64 62
-0.324526 0.00864202 0.252174 55 97 93
-0.324364 0.00976453 0.25238 50 119 123
-0.324201 0.0108871 0.252586 40 108 117
-0.324039 0.0120098 0.252792 26 95 100
-0.323608 0.0130735 0.253083 39 102 106
-0.323715 0.0142553 0.253204 41 110 118
-0.323552 0.0153782 0.25341 45 120 125
-0.323659 0.016564 0.253532 46 123 127
-0.324035 0.0178165 0.25357 50 119 121
-0.324684 0.0191402 0.253523 54 116 117
-0.325884 0.0206078 0.253306 56 115 116
-0.32682 0.0220217 0.253172 60 101 104
-0.326932 0.0232341 0.253296 64 64 61
-0.32441 0.00652935 0.250718 66 66 55
-0.324248 0.00765063 0.250923 61 72 75
-0.324086 0.00877197 0.251129 53 115 114
-0.323924 0.00989339 0.251335 47 118 122
-0.323762 0.0110149 0.251541 31 96 107
-0.3236 0.0121365 0.251746 34 97 100
-0.323438 0.0132581 0.251952 41 109 114
-0.323275 0.0143799 0.252158 42 115 121
-0.323381 0.0155633 0.252278 46 123 127
-0.323487 0.0167493 0.252399 47 122 124
-0.324133 0.0180669 0.252349 53 116 118
-0.324512 0.0193268 0.252384 56 114 117
-0.325711 0.0207955 0.252161 60 114 112
-0.326371 0.0221405 0.252109 62 79 82
-0.326482 0.0233519 0.252232 65 55 49
-0.323971 0.00666122 0.249675 62 67 65
-0.323809 0.0077814 0.249881 56 96 98
-0.323647 0.00890166 0.250086 51 121 124
-0.323485 0.010022 0.250292 41 106 114
-0.323323 0.0111424 0.250497 29 90 101
-0.323161 0.0122629 0.250703 40 105 109
-0.322999 0.0133835 0.250908 41 112 119
-0.322837 0.0145042 0.251114 46 121 125
-0.32321 0.0157484 0.251146 46 123 128
-0.323316 0.0169347 0.251266 51 119 122
-0.323962 0.018253 0.251212 55 115 117
-0.324339 0.0195134 0.251245 57 115 117
-0.325538 0.0209832 0.251015 56 99 102
-0.325374 0.02212 0.251224 66 64 58
-0.323533 0.00679284 0.248635 58 76 79
-0.323371 0.00791195 0.24884 52 117 118
-0.323209 0.00903114 0.249045 47 117 121
-0.323047 0.0101504 0.24925 33 96 104
-0.322885 0.0112697 0.249456 34 95 103
-0.322724 0.0123892 0.249661 40 111 118
-0.322829 0.013568 0.249778 43 117 124
-0.322667 0.0146888 0.249984 48 124 129
-0.323039 0.0159335 0.250014 48 120 127
-0.323145 0.0171202 0.250132 54 115 120
-0.32379 0.0184391 0.250075 56 115 116
-0.323897 0.0196336 0.250194 59 112 111
-0.324275 0.0208985 0.250225 56 79 83
-0.3252 0.0223078 0.250078 66 61 51
-0.323257 0.00580626 0.247391 62 66 68
-0.323095 0.00692421 0.247596 54 100 101
-0.322934 0.00804225 0.247801 48 121 123
-0.322772 0.00916036 0.248006 38 105 112
-0.32261 0.0102786 0.248211 31 93 99
-0.322449 0.0113968 0.248416 39 105 110
-0.322287 0.0125152 0.248621 40 113 121
-0.322391 0.013693 0.248737 44 122 126
-0.322496 0.0148735 0.248854 48 124 129
-0.322868 0.0161187 0.248882 52 116 123
-0.322974 0.0173056 0.248999 55 113 119
-0.323618 0.0186253 0.248938 58 114 114
-0.323725 0.0198201 0.249055 59 94 98
-0.323832 0.0210175 0.249173 62 66 62
-0.323939 0.0222175 0.249291 64 58 52
-0.322982 0.00482168 0.24615 67 66 62
-0.32282 0.00593847 0.246355 58 84 85
-0.322659 0.00705535 0.24656 49 118 119
-0.322231 0.00811878 0.246855 41 113 118
-0.32207 0.00923465 0.24706 29 95 104
-0.321909 0.0103506 0.247264 37 97 101
-0.321747 0.0114666 0.247469 41 110 115
-0.321586 0.0125827 0.247673 42 118 122
-0.321955 0.0138178 0.247699 46 123 127
-0.322325 0.0150582 0.247724 49 121 125
-0.322697 0.0163039 0.247749 54 115 120
-0.322803 0.0174911 0.247865 56 114 118
-0.323177 0.0187461 0.247891 58 109 110
-0.323283 0.0199399 0.248007 60 72 72
-0.323389 0.0211363 0.248123 64 62 49
-0.322176 0.00374131 0.245096 62 63 57
-0.322015 0.00485463 0.245301 62 71 71
-0.321854 0.00596802 0.245505 52 106 104
-0.321429 0.00702926 0.2458 46 119 122
-0.321268 0.00814165 0.246004 36 103 110
-0.321107 0.00925411 0.246208 29 92 101
-0.320684 0.010311 0.246503 41 104 108
-0.320786 0.0114792 0.246616 40 113 118
-0.321152 0.0127082 0.246639 45 123 126
-0.321519 0.0139423 0.246662 49 122 126
-0.322155 0.0152429 0.246593 53 115 120
-0.322526 0.0164891 0.246616 54 113 118
-0.322632 0.0176767 0.246731 59 116 116
-0.323005 0.0189322 0.246754 59 90 95
-0.322842 0.0200595 0.246961 64 63 52
-0.321478 0.00382619 0.24416 59 65 62
-0.321318 0.00493727 0.244363 53 90 89
-0.321157 0.00604843 0.244567 48 119 121
-0.320734 0.00710748 0.244863 43 112 116
-0.320311 0.00816439 0.245159 35 96 102
-0.320151 0.00927347 0.245362 37 98 104
-0.320252 0.0104382 0.245473 40 111 116
-0.320354 0.0116054 0.245585 43 117 123
-0.320455 0.0127751 0.245698 47 123 128
-0.321349 0.0141264 0.245535 51 119 124
-0.321984 0.0154277 0.245463 56 112 118
-0.322623 0.0167373 0.24539 56 112 117
-0.322728 0.0179265 0.245504 59 109 110
-0.322834 0.0191182 0.245617 64 65 71
-0.322671 0.0202457 0.245824 68 59 51
-0.320944 0.00280195 0.243024 65 63 56
-0.320784 0.00391074 0.243227 57 76 73
-0.320623 0.0050196 0.24343 49 113 110
-0.320463 0.00612853 0.243633 45 118 124
-0.320041 0.0071854 0.24393 35 102 110
-0.319881 0.00829334 0.244133 34 95 100
-0.319721 0.00940136 0.244336 40 108 112
-0.319822 0.0105651 0.244446 40 114 121
-0.319923 0.0117313 0.244557 47 122 128
-0.320812 0.0130754 0.244389 48 121 127
-0.321444 0.0143706 0.244314 54 117 121
-0.32208 0.0156742 0.244238 55 113 117
-0.322452 0.0169228 0.244256 58 113 115
-0.322557 0.0181123 0.244368 57 91 92
-0.322394 0.0192385 0.244574 66 61 55
-0.320412 0.00178189 0.241892 69 61 52
-0.320252 0.0028884 0.242095 68 68 67
-0.320092 0.00399497 0.242298 55 96 95
-0.319932 0.00510161 0.2425 46 123 129
-0.319772 0.00620835 0.242703 41 114 123
-0.319352 0.00726303 0.243 29 98 107
-0.319192 0.00836875 0.243202 39 104 108
-0.319292 0.009529 0.243311 39 113 119
-0.319392 0.0106917 0.243421 43 118 123
-0.319753 0.0119141 0.243437 49 123 128
-0.320906 0.0133179 0.24317 51 118 123
-0.321539 0.0146154 0.24309 56 115 119
-0.322176 0.0159212 0.243011 56 115 118
-0.32228 0.0171083 0.243121 61 108 107
-0.322385 0.0182981 0.243232 61 68 68
-0.322222 0.0194245 0.243439 65 61 56
-0.319983 0.00191666 0.240872 66 61 57
-0.319823 0.0030221 0.241074 59 81 84
-0.319663 0.00412763 0.241277 51 124 124
-0.319503 0.00523322 0.241479 55 135 140
-0.319343 0.0063389 0.241682 39 115 126
-0.318924 0.00739246 0.241979 34 104 114
-0.319023 0.00855049 0.242087 40 115 120
-0.318863 0.00965641 0.242289 40 117 123
-0.318963 0.0108182 0.242397 46 123 127
-0.319584 0.0120969 0.242316 48 121 126
-0.321 0.013561 0.241948 52 114 121
-0.321634 0.0148607 0.241864 56 113 116
-0.322272 0.0161687 0.24178 59 117 114
-0.322109 0.0172939 0.241986 60 83 87
-0.322214 0.0184839 0.242096 66 61 54
-0.319814 0.00209782 0.239756 59 70 68
-0.319394 0.00315557 0.240055 51 106 107
-0.319235 0.00426004 0.240257 54 141 149
-0.318816 0.0053146 0.240556 84 155 159
-0.318656 0.00641809 0.240758 57 135 145
-0.318497 0.00752166 0.24096 48 126 134
-0.318596 0.00867873 0.241066 42 122 129
-0.318695 0.0098383 0.241173 44 122 125
-0.318535 0.0109444 0.241376 48 125 127
-0.319415 0.0122798 0.241195 50 118 122
-0.321095 0.0138046 0.240722 53 115 120
-0.321729 0.0151065 0.240635 55 115 117
-0.3221 0.0163542 0.240645 60 104 103
-0.321938 0.0174795 0.240851 65 66 58
-0.319806 0.00117344 0.238437 67 65 61
-0.319386 0.00223218 0.238738 56 85 83
-0.318967 0.00328878 0.239038 50 126 128
-0.318807 0.00439222 0.23924 59 149 155
-0.318389 0.00544566 0.239539 84 169 167
-0.31823 0.00654809 0.239741 71 164 171
-0.317813 0.00759836 0.24004 70 159 162
-0.317911 0.00875322 0.240145 50 128 138
-0.318268 0.00996531 0.240154 50 127 131
-0.318367 0.0111264 0.240259 48 123 128
-0.319507 0.0125204 0.239977 53 118 120
-0.320924 0.0139889 0.239593 55 117 121
-0.321558 0.0152916 0.239502 59 111 113
-0.321929 0.0165398 0.23951 58 76 83
-0.321766 0.0176651 0.239716 66 62 43
-0.319797 0.000248951 0.237119 67 65 62
-0.319638 0.00135454 0.237321 62 73 74
-0.318959 0.00236628 0.237722 51 104 104
-0.318799 0.00346973 0.237924 51 130 135
-0.318381 0.00452416 0.238225 60 149 155
-0.317964 0.00557645 0.238525 65 150 156
-0.317291 0.00657557 0.238922 64 151 158
-0.317132 0.00767477 0.239123 60 145 151
-0.317486 0.00888088 0.23913 53 132 138
-0.317584 0.0100373 0.239234 49 126 132
-0.318198 0.0113084 0.239143 52 121 127
-0.319338 0.0127035 0.238855 53 118 123
-0.320754 0.0141733 0.238464 58 120 119
-0.321387 0.0154766 0.238369 59 102 102
-0.321757 0.0167253 0.238375 69 60 51
-0.319629 0.000429998 0.236002 62 65 62
-0.319209 0.00148964 0.236305 55 85 84
-0.318791 0.00254715 0.236608 45 109 115
-0.318373 0.00360256 0.23691 46 125 131
-0.317955 0.00465585 0.237211 57 144 150
-0.317283 0.00565688 0.237611 59 149 154
-0.316868 0.00670493 0.237911 60 146 151
-0.316709 0.0078031 0.238112 59 140 143
-0.316806 0.00895479 0.238214 53 127 135
-0.317416 0.0102187 0.238121 50 123 129
-0.31803 0.0114905 0.238026 55 127 129
-0.318908 0.0128285 0.237832 57 121 124
-0.320319 0.0142976 0.237435 63 119 117
-0.320951 0.0156 0.237337 56 71 80
-0.32132 0.0168478 0.237341 65 56 46
-0.319461 0.000611075 0.234886 58 74 74
-0.319041 0.00167063 0.23519 49 102 101
-0.318364 0.00268086 0.235595 42 112 119
-0.317947 0.00373513 0.235898 41 120 126
-0.317274 0.0047381 0.2363 46 127 135
-0.317115 0.00583734 0.236501 49 130 137
-0.316701 0.00688532 0.236802 51 128 135
-0.316542 0.00798359 0.237003 50 122 130
-0.316638 0.00913555 0.237105 47 120 127
-0.317248 0.0104001 0.237007 49 126 131
-0.317861 0.0116726 0.23691 56 130 132
-0.318478 0.0129532 0.236811 61 125 125
-0.319623 0.0143616 0.23651 58 107 107
-0.320251 0.0156617 0.236409 66 55 49
-0.320883 0.01697 0.236308 64 59 46
-0.319452 -0.000313651 0.233567 60 67 65
-0.319033 0.000746894 0.233872 52 88 89
-0.318614 0.00180532 0.234177 43 109 115
-0.318196 0.00286162 0.234482 41 115 121
-0.317779 0.0039158 0.234786 40 118 125
-0.317363 0.00496787 0.235089 45 120 127
-0.316948 0.00601784 0.235391 48 122 127
-0.316789 0.00711727 0.235592 50 121 124
-0.31663 0.00821677 0.235794 46 119 124
-0.316983 0.00942432 0.235793 46 119 126
-0.317594 0.0106925 0.235692 49 125 131
-0.317692 0.0118548 0.235793 56 129 133
-0.318309 0.013136 0.235691 62 122 121
-0.318929 0.0144254 0.235588 55 78 82
-0.319817 0.0157846 0.235382 63 57 44
-0.319184 -0.00128164 0.232352 63 59 51
-0.319024 -0.000176933 0.232554 55 76 78
-0.318606 0.000882479 0.232861 47 103 105
-0.318188 0.00193975 0.233167 42 113 118
-0.317771 0.00299492 0.233472 41 116 121
-0.317355 0.00404797 0.233776 42 119 122
-0.317196 0.00514848 0.233977 46 120 124
-0.317036 0.00624908 0.234179 47 121 127
-0.316877 0.00734974 0.23438 48 119 124
-0.316974 0.00850357 0.234479 45 120 124
-0.317328 0.00971434 0.234476 44 118 123
-0.317684 0.0109302 0.234473 46 121 127
-0.317782 0.0120941 0.234573 57 128 130
-0.31814 0.0133189 0.23457 56 112 110
-0.318499 0.0145489 0.234567 58 64 60
-0.318599 0.0157229 0.234668 60 59 48
-0.319176 -0.00220559 0.231035 63 56 52
-0.318757 -0.00114413 0.231342 59 68 66
-0.318597 -4.04668e-05 0.231544 50 92 94
-0.318179 0.00101781 0.231851 43 110 115
-0.317762 0.00207395 0.232158 42 116 120
-0.317346 0.00312797 0.232463 43 118 123
-0.317187 0.00422852 0.232665 44 119 124
-0.317028 0.00532913 0.232866 47 120 127
-0.317125 0.00648081 0.232964 45 121 128
-0.317222 0.00763498 0.233061 45 120 125
-0.31732 0.00879159 0.233159 46 119 124
-0.317675 0.0100056 0.233153 45 114 123
-0.317515 0.0111123 0.233356 47 117 121
-0.317613 0.0122764 0.233454 56 118 115
-0.317712 0.0134431 0.233553 57 85 83
-0.31807 0.0146722 0.233548 63 64 57
-0.318169 0.0158451 0.233648 60 60 51
-0.318748 -0.00206718 0.230026 60 60 56
-0.31833 -0.00100686 0.230334 54 79 82
-0.317913 5.132e-05 0.230642 46 104 107
-0.317754 0.00115286 0.230844 42 114 120
-0.317338 0.00220788 0.231151 42 118 122
-0.317179 0.00330845 0.231352 43 119 124
-0.317019 0.00440909 0.231553 46 119 125
-0.317117 0.00555985 0.231649 47 119 127
-0.317214 0.00671306 0.231746 45 120 126
-0.317311 0.00786876 0.231842 45 119 122
-0.317409 0.00902694 0.231939 45 115 120
-0.317507 0.0101876 0.232036 46 112 120
-0.317347 0.0112945 0.232238 53 112 116
-0.317445 0.0124589 0.232336 56 95 98
-0.317543 0.0136258 0.232433 62 62 57
-0.317641 0.0147952 0.232531 67 60 51
-0.31874 -0.00299033 0.228709 55 60 48
-0.318322 -0.00192903 0.229019 54 71 66
-0.317905 -0.000869871 0.229328 49 95 96
-0.317489 0.000187195 0.229637 43 110 116
-0.317073 0.00124214 0.229945 41 115 122
-0.316914 0.00234157 0.230146 41 117 124
-0.316755 0.0034411 0.230347 44 119 126
-0.317108 0.00463877 0.230335 47 120 126
-0.317205 0.00579107 0.23043 46 119 126
-0.317303 0.00694583 0.230525 44 118 125
-0.3174 0.00810307 0.23062 43 117 122
-0.317498 0.0092628 0.230716 44 114 118
-0.317338 0.0103697 0.230918 49 111 117
-0.317436 0.0115331 0.231014 55 107 110
-0.317276 0.0126413 0.231217 58 72 76
-0.317374 0.0138085 0.231313 62 58 48
-0.318473 -0.00395388 0.227501 62 61 49
-0.318056 -0.00289267 0.227812 54 65 59
-0.317639 -0.00183357 0.228122 47 85 84
-0.317224 -0.000776594 0.228432 43 107 109
-0.316554 0.000233858 0.228849 41 114 120
-0.316141 0.00128559 0.229157 42 116 124
-0.316491 0.00247503 0.229142 43 118 125
-0.316332 0.00357352 0.229343 45 120 126
-0.31694 0.0048196 0.229222 46 121 127
-0.317037 0.00597217 0.229315 45 119 125
-0.317392 0.0071791 0.229301 44 117 123
-0.31749 0.00833791 0.229396 42 114 120
-0.31733 0.0094448 0.229598 45 114 117
-0.317427 0.0106073 0.229693 53 109 112
-0.317267 0.0117155 0.229895 55 90 94
-0.317107 0.0128238 0.230098 61 61 57
-0.318047 -0.00381408 0.226498 64 62 56
-0.317631 -0.00275401 0.226809 55 74 73
-0.31696 -0.00173847 0.22723 45 96 99
-0.316291 -0.000727058 0.227648 40 111 118
-0.315625 0.000280269 0.228066 41 115 123
-0.315467 0.00137417 0.228265 43 116 124
-0.315561 0.00251477 0.228357 46 118 125
-0.316165 0.00375371 0.228233 47 119 125
-0.316772 0.00500045 0.228108 47 120 124
-0.317126 0.00620413 0.228092 44 118 124
-0.317481 0.00741291 0.228075 44 115 121
-0.317321 0.00851982 0.228278 44 112 118
-0.317419 0.00968141 0.228371 48 112 114
-0.317259 0.0107896 0.228573 56 102 101
-0.317098 0.0118979 0.228776 55 69 71
-0.317196 0.0130645 0.22887 64 55 48
-0.317366 -0.00371496 0.225607 60 65 62
-0.316951 -0.00265706 0.225919 51 86 87
-0.316028 -0.00168608 0.226451 43 107 111
-0.315616 -0.000634497 0.22676 41 113 121
-0.315205 0.000415017 0.227069 41 115 124
-0.315047 0.0015079 0.227269 44 117 124
-0.315142 0.00264755 0.22736 48 117 124
-0.315998 0.00393394 0.227123 49 117 124
-0.316604 0.00518134 0.226995 47 117 122
-0.316958 0.0063855 0.226976 45 117 122
-0.317313 0.00759475 0.226957 45 114 119
-0.317152 0.00870178 0.227159 48 113 117
-0.31725 0.00986365 0.227251 55 108 110
-0.31709 0.010972 0.227454 59 85 86
-0.316929 0.0120804 0.227656 59 56 53
-0.317358 -0.00463463 0.224295 60 60 55
-0.316943 -0.00357576 0.224608 51 76 77
-0.31602 -0.0026019 0.225144 44 100 103
-0.315608 -0.00154935 0.225455 41 112 119
-0.314945 -0.000542268 0.225875 41 115 124
-0.314787 0.000549515 0.226075 43 116 125
-0.314881 0.00168703 0.226164 45 118 124
-0.314975 0.00282696 0.226254 46 118 123
-0.31583 0.00411419 0.226013 47 116 124
-0.316436 0.00536225 0.225881 46 115 123
-0.316789 0.0065669 0.22586 44 115 121
-0.317144 0.00777663 0.225839 47 114 117
-0.316984 0.00888375 0.226041 51 112 115
-0.317081 0.0100459 0.226132 57 99 101
-0.316921 0.0111544 0.226334 65 66 66
-0.31676 0.0122629 0.226537 67 53 47
-0.316328 -0.00570766 0.223437 64 58 50
-0.31617 -0.00461278 0.223637 57 67 65
-0.315505 -0.00359849 0.224062 47 89 92
-0.315347 -0.00250571 0.224261 44 109 114
-0.314685 -0.00149769 0.224684 43 115 121
-0.314276 -0.00045041 0.224994 42 117 123
-0.314118 0.000639239 0.225193 44 119 125
-0.314463 0.00182035 0.225171 46 120 123
-0.314556 0.00295936 0.225259 46 118 123
-0.315663 0.00429448 0.224902 45 116 123
-0.316268 0.00554321 0.224767 44 115 122
-0.316621 0.00674832 0.224744 43 113 121
-0.316718 0.00790579 0.224833 48 112 117
-0.316815 0.00906577 0.224922 53 107 111
-0.316655 0.0101731 0.225124 57 81 83
-0.316752 0.0113368 0.225214 69 60 48
-0.315655 -0.00560536 0.222558 62 61 53
-0.314992 -0.00459109 0.222984 52 81 77
-0.314834 -0.00350054 0.223183 44 103 104
-0.314676 -0.0024099 0.223382 44 113 119
-0.314017 -0.00140403 0.223806 44 116 122
-0.31386 -0.000315473 0.224004 43 117 123
-0.313702 0.000773163 0.224203 45 120 124
-0.313795 0.00190762 0.224291 46 122 125
-0.31439 0.00313864 0.224154 45 120 124
-0.315495 0.0044748 0.223792 43 116 122
-0.3161 0.00572418 0.223653 42 114 120
-0.316453 0.00692979 0.223627 44 114 119
-0.316549 0.00808756 0.223715 51 110 115
-0.316646 0.00924781 0.223803 56 95 98
-0.316486 0.0103552 0.224006 63 64 62
-0.315141 -0.00659396 0.221483 65 45 41
-0.314481 -0.00557972 0.221911 59 59 59
-0.314324 -0.00449138 0.222109 48 91 94
-0.314166 -0.00340294 0.222308 42 110 116
-0.314009 -0.00231444 0.222507 43 114 123
-0.313601 -0.00126833 0.222818 44 115 125
-0.313195 -0.000224286 0.223129 44 117 125
-0.313287 0.000906843 0.223215 45 120 124
-0.313379 0.00204036 0.223301 44 120 123
-0.313972 0.00327063 0.223162 44 117 122
-0.315328 0.00465514 0.222681 43 115 120
-0.315677 0.0058548 0.222653 43 113 118
-0.316028 0.00705952 0.222625 48 113 119
-0.316124 0.00821633 0.222712 54 103 108
-0.316221 0.00937561 0.222799 59 73 77
-0.316317 0.0105374 0.222886 65 58 47
-0.314788 -0.00866682 0.220214 58 46 39
-0.31463 -0.00757859 0.220413 53 39 34
-0.314473 -0.00649029 0.220611 57 40 40
-0.314065 -0.00544013 0.220925 56 64 65
-0.313908 -0.00435278 0.221123 50 96 99
-0.31375 -0.00326538 0.221322 45 115 118
-0.313344 -0.00221933 0.221634 43 119 124
-0.31269 -0.00121777 0.22206 42 117 125
-0.312533 -0.000133446 0.222257 42 118 126
-0.312624 0.00099557 0.222342 44 120 125
-0.312964 0.00217287 0.222314 44 118 123
-0.313555 0.0034024 0.222172 44 115 122
-0.314654 0.00473735 0.2218 43 113 121
-0.315001 0.0059348 0.22177 46 111 117
-0.31535 0.00713729 0.221741 49 108 113
-0.3157 0.00834487 0.221711 54 92 94
-0.315796 0.00950319 0.221797 63 65 59
-0.315892 0.010664 0.221883 65 61 46
-0.314779 -0.00957753 0.218915 57 47 34
-0.314622 -0.0084893 0.219113 49 35 30
-0.314464 -0.00740096 0.219312 46 32 29
-0.314057 -0.00634984 0.219627 50 40 35
-0.31365 -0.00530077 0.219941 57 60 55
-0.313244 -0.00425378 0.220255 58 84 82
-0.312838 -0.00320885 0.220568 52 103 107
-0.312434 -0.00216598 0.22088 46 114 118
-0.311292 -0.00125185 0.221532 43 118 122
-0.311136 -0.000172932 0.221729 44 118 124
-0.311964 0.00108397 0.221473 43 118 124
-0.312301 0.00225914 0.221443 42 117 123
-0.312889 0.00348652 0.221298 42 114 121
-0.313481 0.00472153 0.221153 44 112 120
-0.314328 0.00601452 0.220891 48 109 117
-0.314674 0.00721478 0.22086 53 99 105
-0.315023 0.00842012 0.220828 59 71 78
-0.315117 0.00957622 0.220913 63 56 53
-0.314771 -0.0104883 0.217615 53 47 32
-0.314614 -0.00940008 0.217814 44 38 27
-0.313641 -0.00620963 0.218644 50 43 34
-0.313235 -0.00516169 0.218959 61 59 50
-0.31283 -0.00411581 0.219273 68 73 67
-0.312426 -0.00307197 0.219587 71 88 85
-0.311284 -0.00215415 0.220244 67 100 99
-0.310639 -0.0011596 0.22067 57 109 110
-0.310727 -3.95357e-05 0.220752 48 114 118
-0.310571 0.00103846 0.220949 44 115 121
-0.311642 0.0023451 0.220575 42 114 121
-0.312226 0.00357033 0.220428 41 113 120
-0.312815 0.00480317 0.22028 45 112 119
-0.313156 0.00599357 0.220248 51 107 110
-0.31375 0.00724042 0.220099 56 88 88
-0.314348 0.00849508 0.219949 63 62 58
-0.314763 -0.0113993 0.216316 55 42 35
-0.314605 -0.010311 0.216514 43 34 26
-0.313227 -0.00606968 0.217663 55 50 39
-0.312822 -0.00502285 0.217979 66 62 51
-0.312417 -0.00397807 0.218294 74 70 63
-0.311767 -0.00297583 0.218724 84 80 72
-0.310631 -0.00206015 0.219384 85 89 82
-0.310231 -0.00102554 0.219695 77 95 93
-0.310076 5.02961e-05 0.219892 64 101 102
-0.310407 0.00121516 0.219859 53 106 110
-0.31123 0.00247671 0.219595 46 110 115
-0.311813 0.0037012 0.219445 44 113 117
-0.312399 0.00493328 0.219295 48 113 116
-0.31249 0.00607273 0.219377 54 98 100
-0.312831 0.00726592 0.219342 59 71 70
-0.313424 0.00851689 0.219191 64 58 48
-0.314754 -0.0123102 0.215016 57 40 32
-0.314597 -0.0112219 0.215215 42 28 27
-0.313062 -0.00589239 0.216565 57 49 40
-0.312656 -0.00484565 0.216882 67 62 53
-0.312252 -0.00380094 0.217198 75 68 62
-0.311602 -0.00279896 0.217631 84 76 68
-0.310467 -0.00188389 0.218295 88 82 74
-0.310311 -0.000806945 0.218491 87 84 78
-0.310155 0.000270084 0.218688 79 87 82
-0.310243 0.00139189 0.218768 67 91 90
-0.311065 0.00265427 0.2185 57 96 96
-0.311648 0.00387938 0.218347 55 104 105
-0.312233 0.00511213 0.218193 59 104 107
-0.312324 0.00625186 0.218274 58 84 86
