ply
format ascii 1.0
element vertex 1275
property float x
property float y
property float z
property uchar diffuse_red
property uchar diffuse_green
property uchar diffuse_blue
end_header
-0.556627 0.191172 0.231841 61 60 57
-0.558382 0.194268 0.231608 61 54 53
-0.560151 0.19739 0.231374 63 57 47
-0.559983 0.199577 0.231531 63 60 49
-0.561766 0.202733 0.231295 63 62 53
-0.562578 0.205421 0.231255 67 62 51
-0.56241 0.207622 0.231413 64 59 49
-0.563225 0.210325 0.231373 62 63 53
-0.563057 0.212531 0.231532 63 62 54
-0.561905 0.214225 0.231886 64 64 60
-0.560758 0.215912 0.23224 63 70 71
-0.561568 0.218628 0.232202 60 73 81
-0.507602 0.200219 0.243524 67 102 91
-0.50514 0.200887 0.244122 67 103 97
-0.501948 0.201123 0.244864 61 99 102
-0.499547 0.201779 0.245448 59 97 104
-0.4994 0.203705 0.245586 51 85 97
-0.496288 0.203918 0.246308 34 65 78
-0.49322 0.204128 0.24702 18 40 44
-0.493074 0.206027 0.247156 11 54 65
-0.492929 0.207927 0.247292 34 84 87
-0.492784 0.209826 0.247428 56 95 91
-0.491915 0.21129 0.247706 62 75 71
-0.559543 0.197509 0.229269 65 60 52
-0.561324 0.200657 0.229024 64 61 53
-0.563119 0.20383 0.228777 65 64 56
-0.563938 0.206532 0.228732 62 64 57
-0.564759 0.209244 0.228687 59 62 61
-0.56459 0.211459 0.228845 56 65 75
-0.56343 0.213162 0.229207 59 74 77
-0.562276 0.214858 0.229567 65 88 80
-0.561125 0.216548 0.229926 64 102 91
-0.55998 0.218231 0.230283 52 109 109
-0.515744 0.205147 0.239876 22 79 94
-0.509242 0.203594 0.241306 29 86 100
-0.50445 0.202946 0.242387 32 94 107
-0.501263 0.203167 0.243141 41 105 110
-0.500363 0.204672 0.243431 42 97 102
-0.498718 0.205739 0.243871 33 71 81
-0.496347 0.206367 0.244457 18 41 45
-0.494732 0.207419 0.24489 10 43 60
-0.493855 0.208896 0.245174 28 72 78
-0.493709 0.210802 0.24531 47 92 88
-0.493564 0.212708 0.245447 59 87 84
-0.553522 0.190496 0.228067 65 58 52
-0.557172 0.194506 0.227415 67 61 51
-0.558936 0.197629 0.227163 62 62 57
-0.562676 0.201746 0.226496 59 63 69
-0.564483 0.204937 0.226238 60 70 78
-0.565308 0.207652 0.226187 67 84 80
-0.566136 0.210378 0.226137 73 105 86
-0.564968 0.21209 0.226505 56 119 114
-0.563806 0.213796 0.226872 38 101 118
-0.562648 0.215494 0.227238 32 84 98
-0.560514 0.21667 0.227807 29 74 77
-0.55743 0.217321 0.228574 23 68 68
-0.557262 0.219509 0.228731 17 63 67
-0.513433 0.20636 0.238428 19 52 52
-0.508544 0.205675 0.239551 19 53 52
-0.502237 0.204138 0.240966 20 53 56
-0.500578 0.205212 0.241417 18 50 60
-0.499678 0.206713 0.241711 14 45 57
-0.498782 0.208209 0.242003 11 41 46
-0.497889 0.2097 0.242295 10 42 53
-0.496259 0.210746 0.242738 18 65 70
-0.496113 0.212665 0.242875 35 88 88
-0.495966 0.214585 0.243013 58 93 93
-0.547642 0.183648 0.226893 65 57 50
-0.551203 0.187556 0.22624 61 60 60
-0.552922 0.190614 0.225986 54 63 74
-0.556568 0.194625 0.225318 62 72 73
-0.558329 0.197748 0.225058 67 94 82
-0.564038 0.202844 0.223948 61 109 102
-0.565859 0.206052 0.223678 49 106 116
-0.56669 0.208781 0.223622 41 90 108
-0.566519 0.211009 0.223781 36 81 87
-0.566349 0.213238 0.223941 26 75 77
-0.563191 0.213918 0.22474 21 73 72
-0.562034 0.215616 0.22511 26 69 67
-0.559903 0.216791 0.225688 35 66 64
-0.556822 0.217442 0.226467 43 62 63
-0.556655 0.219631 0.226624 51 56 61
-0.554567 0.220778 0.22719 59 59 56
-0.526183 0.211799 0.233577 60 64 56
-0.514481 0.20737 0.236171 57 62 55
-0.510349 0.207118 0.237157 54 59 51
-0.503982 0.205551 0.238613 42 53 49
-0.500793 0.205755 0.239395 30 47 45
-0.499892 0.207257 0.239693 20 43 42
-0.498994 0.208755 0.23999 11 41 44
-0.498846 0.210689 0.240128 9 42 50
-0.497207 0.211735 0.24058 8 58 67
-0.497059 0.213662 0.240718 27 82 87
-0.496912 0.215589 0.240856 57 96 94
-0.496765 0.217516 0.240994 62 63 58
-0.547212 0.181629 0.224684 64 59 49
-0.547974 0.1842 0.224632 61 62 58
-0.551544 0.188121 0.223959 58 76 78
-0.554218 0.191644 0.223486 50 106 113
-0.555963 0.194744 0.22322 41 93 110
-0.557721 0.197868 0.222951 40 88 96
-0.563423 0.202965 0.221816 36 85 87
-0.566241 0.206675 0.221317 31 79 80
-0.566071 0.208903 0.221476 33 73 75
-0.5659 0.211132 0.221636 38 68 70
-0.56573 0.213361 0.221795 44 64 66
-0.562576 0.21404 0.222608 54 63 62
-0.56142 0.215739 0.222982 56 63 59
-0.558318 0.216398 0.223781 57 61 52
-0.556214 0.217563 0.224361 62 59 47
-0.554128 0.218719 0.224936 61 60 53
-0.549233 0.218331 0.226121 65 58 45
-0.545353 0.218454 0.227083 61 58 44
-0.539728 0.217577 0.228423 62 58 49
-0.530745 0.214775 0.230488 65 59 54
-0.519615 0.210682 0.233014 66 61 55
-0.512174 0.208576 0.234735 66 61 49
-0.507298 0.207868 0.235899 57 62 48
-0.503291 0.207615 0.236873 54 56 44
-0.500106 0.207804 0.237668 46 49 41
-0.499206 0.209303 0.237968 27 44 42
-0.499058 0.21124 0.238107 12 38 47
-0.498161 0.212731 0.238406 5 46 64
-0.497267 0.214217 0.238705 25 75 83
-0.49712 0.216148 0.238843 55 100 91
-0.496972 0.218079 0.238981 59 73 70
-0.546619 0.181744 0.222628 66 58 51
-0.547379 0.184317 0.222572 61 61 61
-0.550945 0.188238 0.221882 49 71 74
-0.553615 0.191763 0.221397 31 87 89
-0.555357 0.194862 0.221122 38 77 81
-0.557114 0.197987 0.220845 44 70 74
-0.561821 0.202596 0.219905 49 66 66
-0.562639 0.205301 0.219842 53 64 58
-0.564454 0.20852 0.219555 56 62 52
-0.53735 0.216704 0.226782 63 61 50
-0.530168 0.214891 0.228489 61 59 55
-0.521534 0.212193 0.230514 59 53 55
-0.513217 0.209595 0.232465 59 60 59
-0.509097 0.209322 0.233484 60 61 54
-0.5066 0.20995 0.234143 62 62 51
-0.502598 0.209679 0.235133 61 59 47
-0.500172 0.210296 0.235774 54 51 44
-0.49927 0.211794 0.236078 26 37 44
-0.498372 0.213287 0.236382 9 39 58
-0.498223 0.215225 0.236521 20 63 74
-0.498075 0.217162 0.236659 44 91 87
-0.49718 0.218643 0.236961 58 90 90
-0.497032 0.220578 0.237099 62 67 59
-0.546785 0.184433 0.220511 61 61 58
-0.550346 0.188355 0.219805 47 65 64
-0.553012 0.191881 0.219307 46 70 66
-0.554752 0.194981 0.219024 54 66 54
-0.544327 0.21655 0.222807 65 62 54
-0.540516 0.216686 0.223787 65 62 51
-0.538552 0.217813 0.224347 62 62 55
-0.53307 0.216954 0.225703 60 59 60
-0.524315 0.214196 0.227796 60 56 62
-0.515885 0.211542 0.229811 59 56 63
-0.51171 0.21125 0.230862 60 61 62
-0.508394 0.211417 0.231718 62 62 57
-0.505902 0.212033 0.232387 63 63 53
-0.501906 0.211744 0.233392 59 60 50
-0.499484 0.21235 0.234042 27 41 46
-0.498583 0.213845 0.23435 12 39 48
-0.498434 0.215786 0.234489 8 57 63
-0.498286 0.217727 0.234627 20 84 86
-0.498137 0.219668 0.234766 55 102 107
-0.497989 0.22161 0.234905 62 66 68
-0.550686 0.188923 0.217506 58 61 53
-0.55336 0.192459 0.216993 64 60 51
-0.556823 0.212367 0.21712 67 59 48
-0.554726 0.213548 0.217726 65 62 53
-0.5536 0.215228 0.218105 63 62 58
-0.551528 0.216391 0.218704 60 61 63
-0.547599 0.216531 0.219732 58 65 70
-0.543732 0.216669 0.220745 64 69 69
-0.539926 0.216805 0.221741 74 82 69
-0.537964 0.217931 0.222309 81 98 74
-0.532489 0.217071 0.223688 81 107 80
-0.524589 0.214788 0.225624 77 109 84
-0.519418 0.213988 0.226927 78 112 86
-0.515171 0.213671 0.228015 77 102 83
-0.510208 0.212899 0.229265 81 100 83
-0.507692 0.213511 0.229951 81 97 84
-0.506758 0.215034 0.230272 69 83 82
-0.501214 0.213809 0.231651 38 61 74
-0.498795 0.214404 0.23231 19 41 52
-0.497895 0.215896 0.232621 9 44 58
-0.497747 0.217837 0.23276 17 67 82
-0.497598 0.219779 0.232898 56 101 103
-0.49745 0.22172 0.233037 61 68 70
-0.557856 0.204185 0.214143 62 58 55
-0.557688 0.206388 0.214301 61 61 58
-0.557519 0.20859 0.214458 64 62 55
-0.556381 0.21029 0.214846 63 60 58
-0.555247 0.211983 0.215233 65 62 63
-0.554118 0.213669 0.215618 67 69 66
-0.552993 0.215349 0.216001 69 80 72
-0.550923 0.216512 0.216608 66 93 83
-0.546999 0.216651 0.217653 53 98 100
-0.543137 0.216788 0.218682 47 89 104
-0.540239 0.217422 0.219481 46 84 92
-0.537376 0.218049 0.220271 47 82 83
-0.531907 0.217188 0.221673 43 80 77
-0.525712 0.215863 0.223244 41 78 75
-0.520509 0.215048 0.224579 39 74 77
-0.517874 0.215663 0.225308 37 79 86
-0.513649 0.215331 0.226408 42 90 101
-0.510295 0.21547 0.227303 49 105 115
-0.509349 0.217 0.227631 49 111 119
-0.507621 0.218056 0.228143 41 90 107
-0.501282 0.216331 0.229731 25 50 57
-0.499613 0.217371 0.230226 11 40 51
-0.498709 0.218863 0.230541 17 60 72
-0.497808 0.220349 0.230856 53 98 92
-0.497659 0.222295 0.230995 57 78 74
-0.496762 0.223773 0.231308 57 63 58
-0.554683 0.198466 0.212415 69 64 51
-0.556443 0.201619 0.212102 69 59 55
-0.556275 0.203817 0.212258 65 58 62
-0.556107 0.206015 0.212415 61 66 69
-0.555938 0.208213 0.212572 65 77 70
-0.55577 0.210411 0.212729 69 91 78
-0.554637 0.212104 0.21312 61 95 95
-0.553509 0.21379 0.213509 54 90 99
-0.552386 0.21547 0.213897 51 87 92
-0.550319 0.216633 0.214512 45 87 85
-0.547332 0.217278 0.215349 35 86 86
-0.542542 0.216907 0.216619 29 80 85
-0.540554 0.218042 0.217212 24 73 77
-0.537683 0.218667 0.218016 25 66 72
-0.532201 0.217797 0.219447 25 61 66
-0.52599 0.216462 0.221051 23 61 62
-0.521609 0.216116 0.222213 23 57 62
-0.519785 0.217205 0.222759 20 59 61
-0.517154 0.217809 0.223497 19 60 67
-0.512133 0.216986 0.224807 20 60 70
-0.509587 0.21758 0.225522 23 60 71
-0.508643 0.219107 0.225854 23 51 65
-0.507702 0.220628 0.226185 15 33 42
-0.505204 0.221198 0.226886 7 30 43
-0.5012 0.220826 0.227944 11 49 62
-0.498772 0.221386 0.228626 38 90 86
-0.49787 0.222871 0.228945 52 91 91
-0.49697 0.224351 0.229262 58 72 71
-0.554242 0.196397 0.210151 68 62 52
-0.554075 0.198585 0.210307 69 73 65
-0.554868 0.201256 0.210224 74 79 73
-0.555664 0.203937 0.210141 67 85 87
-0.555496 0.206135 0.210298 54 92 100
-0.555328 0.208334 0.210455 50 91 96
-0.555159 0.210532 0.210612 57 97 86
-0.554028 0.212225 0.211007 42 95 93
-0.552901 0.213911 0.2114 35 86 91
-0.552733 0.216101 0.211557 35 76 82
-0.550661 0.217264 0.212183 39 69 72
-0.547666 0.217907 0.213035 39 65 66
-0.542863 0.21753 0.21433 36 62 60
-0.54087 0.218664 0.214933 40 63 60
-0.537093 0.218785 0.215973 43 61 58
-0.531618 0.217914 0.217428 42 59 55
-0.525415 0.216578 0.219058 39 58 51
-0.521039 0.216231 0.220239 42 61 54
-0.520048 0.2178 0.220589 42 59 50
-0.517411 0.218401 0.221341 40 58 52
-0.513182 0.218044 0.222481 35 51 51
-0.510621 0.218635 0.223211 28 41 47
-0.508879 0.219692 0.223742 15 38 47
-0.508726 0.22169 0.223884 9 27 34
-0.507783 0.22321 0.224219 3 26 34
-0.50528 0.223767 0.224932 3 44 50
-0.502803 0.224318 0.225638 11 78 78
-0.498836 0.223919 0.226704 48 92 99
-0.497179 0.224931 0.227208 62 73 73
-0.49703 0.226881 0.227347 66 59 48
-0.553802 0.194327 0.207886 62 64 58
-0.553634 0.196516 0.208042 58 71 71
-0.553466 0.198705 0.208198 59 85 91
-0.554258 0.201376 0.208111 63 94 90
-0.555054 0.204058 0.208024 55 99 94
-0.554885 0.206256 0.208181 39 94 100
-0.554717 0.208455 0.208338 30 83 94
-0.554549 0.210653 0.208494 39 74 75
-0.553418 0.212346 0.208894 38 70 68
-0.552293 0.214032 0.209291 42 68 60
-0.552125 0.216222 0.209448 48 64 56
-0.550055 0.217385 0.210082 55 61 56
-0.548001 0.218538 0.210711 58 63 57
-0.544108 0.218662 0.211801 55 53 50
-0.541187 0.219289 0.212645 61 57 47
-0.536504 0.218903 0.213929 62 59 48
-0.531035 0.218031 0.215408 60 57 46
-0.52399 0.21621 0.217278 59 55 43
-0.520469 0.216346 0.218264 60 58 50
-0.51948 0.217915 0.218618 58 60 50
-0.516845 0.218516 0.219382 60 61 54
-0.513429 0.218633 0.220338 52 58 54
-0.511663 0.219697 0.220883 33 50 49
-0.50991 0.220754 0.221424 10 38 42
-0.50817 0.221803 0.22196 4 31 35
-0.508017 0.223803 0.222103 3 33 44
-0.507076 0.225319 0.222441 2 44 61
-0.504576 0.225864 0.223164 6 61 77
-0.502104 0.226404 0.223879 47 95 99
-0.498142 0.225987 0.224961 62 78 76
-0.497239 0.227467 0.225286 66 62 54
-0.553193 0.194447 0.205777 60 62 55
-0.553026 0.196636 0.205933 53 73 73
-0.553817 0.199302 0.205842 48 82 93
-0.553649 0.201496 0.205998 46 77 85
-0.554443 0.204178 0.205906 42 70 72
-0.554274 0.206377 0.206063 36 67 67
-0.554106 0.208575 0.20622 36 67 63
-0.553938 0.210774 0.206377 50 65 62
-0.553769 0.212973 0.206533 56 65 58
-0.551684 0.214153 0.207182 61 62 51
-0.551516 0.216344 0.207338 64 59 46
-0.549448 0.217506 0.207981 64 59 46
-0.547397 0.218659 0.208618 64 61 50
-0.543509 0.218782 0.209725 61 51 47
-0.541505 0.219916 0.210348 65 57 41
-0.535914 0.219022 0.211885 65 59 42
-0.526987 0.216189 0.214271 63 57 43
-0.52173 0.215364 0.215717 63 54 44
-0.519068 0.215983 0.216501 61 57 50
-0.516435 0.216594 0.217276 61 60 52
-0.516279 0.21863 0.217422 60 63 60
-0.512868 0.218746 0.218393 49 67 66
-0.511907 0.220288 0.218741 28 67 65
-0.51015 0.221345 0.219291 6 49 55
-0.507615 0.221917 0.220036 9 55 56
-0.507462 0.223916 0.220179 24 71 75
-0.507309 0.225915 0.220321 28 73 84
-0.505585 0.226942 0.22086 16 60 77
-0.503873 0.227962 0.221395 48 97 92
-0.500638 0.228009 0.222313 57 85 81
-0.498204 0.228534 0.223027 61 68 62
-0.552417 0.196755 0.203824 58 60 58
-0.553207 0.199422 0.203728 57 61 61
-0.554 0.2021 0.203632 56 62 62
-0.554797 0.204789 0.203535 55 62 59
-0.554628 0.206993 0.203692 53 61 56
-0.554459 0.209196 0.203849 54 60 52
-0.554121 0.213603 0.204163 66 59 52
-0.552031 0.214783 0.204822 64 58 51
-0.550908 0.216465 0.205228 63 59 49
-0.548842 0.217627 0.205879 64 60 48
-0.546793 0.21878 0.206525 64 60 49
-0.545692 0.220437 0.206923 59 52 51
-0.541825 0.220546 0.208041 62 59 52
-0.535324 0.21914 0.209841 62 61 55
-0.521316 0.213421 0.213588 61 62 57
-0.518656 0.21405 0.214384 62 66 60
-0.516847 0.215146 0.214958 66 74 63
-0.51587 0.216708 0.215316 66 76 66
-0.514081 0.217788 0.215884 59 80 76
-0.512306 0.21886 0.216447 47 85 84
-0.511347 0.220402 0.216799 31 84 85
-0.51039 0.221938 0.217149 13 72 80
-0.507849 0.222508 0.217908 30 90 90
-0.506906 0.224029 0.218254 50 104 102
-0.506753 0.226029 0.218397 49 96 99
-0.505814 0.227541 0.218741 28 69 80
-0.504098 0.228561 0.219285 41 90 84
-0.503169 0.23006 0.219626 53 90 87
-0.499939 0.230092 0.220556 61 75 72
-0.554644 0.212027 0.201625 65 61 51
-0.553509 0.213725 0.20204 66 55 55
-0.552378 0.215416 0.202453 61 56 57
-0.550299 0.216586 0.203118 60 60 58
-0.550131 0.218777 0.203274 63 64 59
-0.541227 0.220666 0.205968 62 74 74
-0.521741 0.211949 0.211236 57 75 86
-0.518244 0.212117 0.212267 54 79 92
-0.515616 0.21275 0.213066 56 87 91
-0.514643 0.214315 0.213426 61 97 89
-0.513673 0.215873 0.213786 62 98 92
-0.5119 0.216953 0.214357 61 106 101
-0.51094 0.218498 0.214712 54 104 101
-0.510786 0.220516 0.214856 42 96 97
-0.509831 0.222052 0.21521 33 96 101
-0.508084 0.223101 0.215772 55 116 117
-0.507139 0.224624 0.216122 63 116 117
-0.506198 0.226142 0.216472 55 100 103
-0.506044 0.228142 0.216614 39 77 84
-0.505107 0.229651 0.216962 30 78 80
-0.503393 0.230663 0.217512 48 90 93
-0.502465 0.232159 0.217856 63 81 81
-0.554538 0.205524 0.199026 57 58 54
-0.554369 0.207732 0.199183 55 57 54
-0.556142 0.210951 0.198813 62 60 53
-0.55403 0.212149 0.199498 63 62 57
-0.553861 0.214357 0.199655 66 71 67
-0.552728 0.216051 0.200073 59 71 72
-0.551599 0.217737 0.20049 55 73 81
-0.521326 0.210002 0.209103 54 96 87
-0.517832 0.210184 0.210149 44 94 102
-0.514389 0.210364 0.21118 35 89 106
-0.51342 0.21193 0.211543 31 90 105
-0.511648 0.213024 0.212122 31 94 105
-0.511493 0.215045 0.212266 49 110 116
-0.510534 0.216594 0.212626 59 116 118
-0.51038 0.218612 0.21277 55 111 113
-0.509425 0.220151 0.213127 49 107 110
-0.508474 0.221686 0.213484 61 124 125
-0.507527 0.223214 0.21384 68 131 130
-0.506583 0.224738 0.214194 66 121 121
-0.505642 0.226256 0.214546 58 102 104
-0.505489 0.228256 0.214689 43 80 87
-0.504552 0.229764 0.21504 20 65 77
-0.503618 0.231268 0.21539 45 88 94
-0.502688 0.232766 0.215739 62 84 86
-0.555063 0.203928 0.196473 63 62 50
-0.555866 0.206638 0.196361 55 66 61
-0.555696 0.208855 0.196518 52 69 71
-0.556502 0.211581 0.196406 56 70 79
-0.555356 0.21329 0.196834 55 72 80
-0.553247 0.214479 0.197527 67 95 84
-0.553078 0.216688 0.197684 61 101 88
-0.515772 0.207329 0.208484 27 69 68
-0.512357 0.207529 0.209523 26 69 66
-0.511396 0.209095 0.209888 24 71 70
-0.510437 0.210654 0.210252 26 78 81
-0.509483 0.212209 0.210615 40 98 105
-0.509328 0.214222 0.210758 62 120 123
-0.509174 0.216237 0.210901 56 109 120
-0.50902 0.218251 0.211044 53 111 122
-0.508069 0.219789 0.211405 61 129 133
-0.507123 0.221321 0.211764 76 148 144
-0.506179 0.222848 0.212122 70 129 129
-0.505239 0.224369 0.212478 66 119 118
-0.505086 0.226369 0.212621 54 100 101
-0.504933 0.228369 0.212763 31 70 80
-0.503997 0.229878 0.213118 14 54 74
-0.503064 0.231381 0.213471 44 86 89
-0.502912 0.233375 0.213613 61 89 86
-0.502759 0.235368 0.213755 61 64 64
-0.558359 0.206034 0.193237 58 58 54
-0.558188 0.208265 0.193396 60 80 71
-0.556055 0.209481 0.194107 61 104 92
-0.555884 0.211703 0.194265 50 109 110
-0.55474 0.213412 0.194697 36 96 111
-0.553599 0.215115 0.195127 29 81 92
-0.512105 0.203593 0.207285 32 62 66
-0.510341 0.204715 0.207878 41 65 63
-0.509386 0.20628 0.208245 43 65 65
-0.509232 0.208294 0.208388 44 72 78
-0.508281 0.209849 0.208754 51 95 103
-0.507334 0.211399 0.209118 66 133 133
-0.50718 0.213406 0.20926 53 116 131
-0.507026 0.215413 0.209403 49 117 129
-0.506872 0.21742 0.209546 65 136 139
-0.506719 0.219427 0.209688 83 151 149
-0.505776 0.220957 0.21005 71 128 135
-0.505622 0.222961 0.210192 70 123 121
-0.504684 0.224482 0.210552 63 109 107
-0.50453 0.226483 0.210695 46 84 86
-0.504377 0.228483 0.210837 21 51 58
-0.503442 0.229992 0.211195 8 47 64
-0.503289 0.231989 0.211337 35 77 78
-0.503136 0.233986 0.211479 53 88 83
-0.502983 0.235983 0.211621 60 76 74
-0.560711 0.207666 0.190234 52 60 56
-0.558554 0.208893 0.190962 42 68 69
-0.558382 0.211129 0.191121 33 69 73
-0.555266 0.211826 0.192123 31 68 68
-0.554123 0.213535 0.192559 33 68 64
-0.556883 0.217313 0.19188 45 65 63
-0.511697 0.201681 0.20519 59 63 59
-0.509934 0.20281 0.205791 60 58 53
-0.508981 0.204379 0.206162 62 65 58
-0.508826 0.206392 0.206305 57 66 70
-0.507876 0.207952 0.206674 59 92 95
-0.50693 0.209505 0.207042 64 128 127
-0.505987 0.211053 0.207408 62 137 143
-0.505833 0.213056 0.207551 51 118 130
-0.50568 0.21506 0.207693 67 138 142
-0.505526 0.217063 0.207835 76 147 151
-0.505373 0.219067 0.207978 73 138 146
-0.505219 0.22107 0.20812 69 121 123
-0.504281 0.222595 0.208484 71 117 114
-0.504128 0.224596 0.208626 62 86 90
-0.503974 0.226596 0.208768 43 57 63
-0.503821 0.228597 0.208911 19 41 41
-0.503668 0.230597 0.209053 7 43 48
-0.502734 0.232103 0.209414 19 67 68
-0.502581 0.2341 0.209556 39 86 85
-0.502428 0.236097 0.209698 59 87 85
-0.502275 0.238095 0.20984 60 54 44
-0.561084 0.208297 0.187779 52 58 57
-0.559914 0.210035 0.188229 52 60 61
-0.558749 0.211765 0.188678 54 62 61
-0.554649 0.211948 0.189981 57 60 58
-0.553506 0.213657 0.190422 60 57 53
-0.509528 0.200905 0.203704 61 63 59
-0.508575 0.202477 0.204079 65 56 52
-0.507626 0.204044 0.204452 62 62 63
-0.507472 0.206054 0.204595 61 93 95
-0.506526 0.207611 0.204966 74 134 131
-0.505584 0.209162 0.205336 83 156 151
-0.504645 0.210708 0.205705 60 122 136
-0.504492 0.212708 0.205847 60 135 146
-0.504338 0.214708 0.205989 77 157 158
-0.504185 0.216708 0.206131 79 149 150
-0.504032 0.218708 0.206273 69 124 131
-0.503878 0.220708 0.206415 67 118 123
-0.503725 0.222708 0.206557 61 95 102
-0.503572 0.224709 0.2067 59 70 67
-0.503418 0.22671 0.206842 49 53 46
-0.503265 0.22871 0.206984 27 44 44
-0.503111 0.230711 0.207126 15 38 42
-0.502958 0.232712 0.207268 10 53 62
-0.502805 0.234714 0.20741 29 78 85
-0.502651 0.236715 0.207553 61 92 93
-0.502498 0.238716 0.207695 64 54 55
-0.512344 0.200768 0.200667 59 61 55
-0.50817 0.200575 0.201995 60 62 59
-0.507221 0.202145 0.202372 65 63 59
-0.507067 0.204156 0.202515 55 85 92
-0.506122 0.205716 0.20289 86 142 138
-0.50518 0.207271 0.203264 89 154 156
-0.504242 0.208821 0.203636 67 137 150
-0.504089 0.210821 0.203778 57 142 147
-0.503155 0.212361 0.204149 86 164 160
-0.502223 0.213896 0.204519 80 147 150
-0.502071 0.215889 0.20466 70 131 137
-0.501918 0.217882 0.204802 63 122 126
-0.501765 0.219875 0.204943 61 114 118
-0.502389 0.222344 0.204858 59 81 97
-0.503015 0.224822 0.204773 56 65 80
-0.502862 0.226823 0.204915 49 56 66
-0.502709 0.228824 0.205057 37 47 54
-0.503337 0.23132 0.204972 21 36 43
-0.502402 0.232827 0.205341 11 45 60
-0.502248 0.234828 0.205483 28 71 81
-0.502095 0.236829 0.205625 60 93 91
-0.502722 0.23934 0.205541 61 62 64
-0.507764 0.198674 0.199911 59 61 68
-0.506025 0.199808 0.200529 57 64 77
-0.505084 0.201374 0.200907 54 78 94
-0.50493 0.203377 0.201049 81 130 131
-0.503993 0.204934 0.201426 80 150 154
-0.50384 0.206933 0.201568 76 150 155
-0.502906 0.208481 0.201942 78 146 148
-0.501975 0.210023 0.202316 84 153 156
-0.501822 0.212015 0.202457 81 151 158
-0.500895 0.213548 0.202829 72 132 140
-0.500743 0.215538 0.20297 67 121 128
-0.50059 0.217527 0.203112 63 119 126
-0.500438 0.219517 0.203253 54 119 124
-0.501058 0.221981 0.203165 55 122 126
-0.501681 0.224454 0.203076 58 112 113
-0.502306 0.226937 0.202987 64 102 95
-0.502933 0.229429 0.202898 66 90 75
-0.502779 0.231434 0.203041 34 45 47
-0.502625 0.233439 0.203183 15 40 54
-0.503254 0.235948 0.203094 25 64 72
-0.5031 0.237957 0.203237 52 92 86
-0.502946 0.239966 0.203379 59 73 74
-0.502792 0.241975 0.203522 63 61 58
-0.507359 0.196771 0.197827 74 96 82
-0.504834 0.19748 0.198692 61 102 99
-0.503897 0.199047 0.199073 50 109 121
-0.502963 0.200608 0.199452 59 125 144
-0.50281 0.202604 0.199594 86 160 164
-0.501879 0.204157 0.199972 87 149 157
-0.500952 0.205704 0.200348 81 142 154
-0.5008 0.207692 0.200489 81 152 159
-0.500647 0.209682 0.20063 87 162 162
-0.499724 0.211216 0.201005 76 136 141
-0.499572 0.213202 0.201146 69 124 129
-0.49942 0.215188 0.201286 63 109 115
-0.499267 0.217174 0.201427 54 89 97
-0.499885 0.219629 0.201336 40 72 76
-0.501279 0.22257 0.20101 32 70 82
-0.501903 0.225049 0.200918 32 80 89
-0.503312 0.228027 0.200589 39 93 97
-0.504732 0.231027 0.200258 46 93 99
-0.503789 0.232543 0.200638 21 47 64
-0.503635 0.234555 0.20078 12 40 52
-0.50348 0.236568 0.200923 21 60 62
-0.503326 0.238581 0.201066 42 88 83
-0.503172 0.240594 0.201209 58 86 89
-0.503017 0.242608 0.201352 66 65 61
-0.502863 0.244621 0.201495 65 53 43
-0.504585 0.193585 0.196478 47 80 84
-0.502867 0.194732 0.197104 46 79 82
-0.501937 0.196299 0.197486 44 90 97
-0.501784 0.198291 0.197628 53 120 130
-0.500857 0.199848 0.198008 92 169 167
-0.500704 0.201837 0.198149 82 149 161
-0.499781 0.203385 0.198528 77 149 160
-0.498861 0.204928 0.198905 83 158 163
-0.498709 0.20691 0.199046 89 162 163
-0.498557 0.208892 0.199187 78 141 146
-0.498405 0.210874 0.199327 71 126 130
-0.49902 0.213313 0.199232 66 117 118
-0.498867 0.215299 0.199373 62 95 95
-0.498715 0.217286 0.199514 56 68 69
-0.499331 0.219742 0.199419 47 61 61
-0.5015 0.223161 0.198848 41 59 58
-0.502908 0.226132 0.198511 36 59 57
-0.505116 0.22962 0.19793 32 59 59
-0.508152 0.233652 0.197097 26 57 64
-0.507995 0.235688 0.197242 14 39 50
-0.508644 0.238238 0.19714 12 37 43
-0.508487 0.240278 0.197285 15 53 54
-0.505133 0.240237 0.198405 25 78 78
-0.504978 0.242261 0.198548 55 90 97
-0.503243 0.243242 0.199173 65 65 63
-0.503088 0.245259 0.199316 64 50 44
-0.503721 0.247805 0.19922 58 49 43
-0.499526 0.189188 0.195872 42 69 76
-0.499374 0.191169 0.196012 40 68 72
-0.499222 0.19315 0.196153 41 73 82
-0.49907 0.195131 0.196293 58 102 111
-0.498918 0.197112 0.196433 87 149 150
-0.498002 0.198663 0.196814 84 158 165
-0.497089 0.200209 0.197193 83 155 157
-0.496937 0.202184 0.197333 84 157 159
-0.496786 0.204159 0.197473 84 156 160
-0.496634 0.206133 0.197613 80 146 151
-0.496483 0.208108 0.197753 68 126 131
-0.496331 0.210083 0.197893 69 121 123
-0.496939 0.212513 0.197796 66 99 101
-0.49755 0.214951 0.197698 64 73 73
-0.498163 0.217398 0.1976 61 57 52
-0.49801 0.219384 0.19774 55 60 56
-0.500943 0.223275 0.19692 51 57 51
-0.504709 0.227714 0.195841 49 55 47
-0.507742 0.231733 0.194992 44 51 45
-0.51082 0.235812 0.194131 34 45 45
-0.510662 0.237863 0.194276 27 42 41
-0.510505 0.239914 0.194421 19 37 38
-0.509536 0.241439 0.194819 12 45 50
-0.507764 0.242434 0.195465 15 64 74
-0.506805 0.243947 0.195858 52 93 96
-0.50426 0.244402 0.196742 61 70 69
-0.504104 0.246427 0.196885 60 54 50
-0.503949 0.248452 0.197029 56 50 46
-0.491747 0.181348 0.196096 61 61 50
-0.493828 0.184485 0.195519 57 62 54
-0.494427 0.186845 0.195418 56 63 60
-0.495027 0.189213 0.195316 47 67 72
-0.494877 0.191176 0.195455 56 95 101
-0.494726 0.19314 0.195595 76 133 138
-0.494576 0.195104 0.195734 90 160 164
-0.493675 0.196645 0.196112 83 146 153
-0.493525 0.198605 0.196251 86 153 159
-0.493374 0.200566 0.19639 87 157 161
-0.493224 0.202526 0.196529 81 146 150
-0.493073 0.204487 0.196668 71 128 133
-0.492923 0.206448 0.196806 66 121 125
-0.493521 0.208853 0.196708 63 105 110
-0.49563 0.21217 0.196129 62 80 81
-0.496237 0.214603 0.196029 63 62 57
-0.510907 0.238499 0.192043 45 50 43
-0.510749 0.240554 0.192188 39 44 40
-0.510592 0.242609 0.192334 25 42 49
-0.508809 0.243604 0.192991 17 52 68
-0.508652 0.245652 0.193136 49 89 88
-0.506884 0.246631 0.193788 53 74 71
-0.505926 0.248136 0.194185 53 60 55
-0.504178 0.249102 0.194829 53 54 48
-0.491797 0.183797 0.194116 59 61 48
-0.492389 0.186147 0.194013 59 64 62
-0.492984 0.188506 0.19391 56 88 92
-0.492834 0.190462 0.194048 71 130 132
-0.492684 0.192419 0.194187 86 157 160
-0.492534 0.194375 0.194325 79 147 160
-0.49164 0.195912 0.194705 78 149 158
-0.49149 0.197866 0.194843 89 159 164
-0.49134 0.19982 0.194981 83 149 155
-0.49119 0.201773 0.19512 73 135 139
-0.49104 0.203727 0.195258 66 122 123
-0.49089 0.205681 0.195396 64 113 116
-0.491482 0.208077 0.195295 61 83 86
-0.492823 0.210928 0.194953 58 67 63
-0.510994 0.241197 0.189946 54 53 43
-0.51002 0.242727 0.190354 47 49 48
-0.509862 0.244782 0.190499 35 48 57
-0.509705 0.246838 0.190645 48 76 74
-0.507925 0.247817 0.191309 49 69 64
-0.506962 0.249326 0.191711 48 60 53
-0.506003 0.250829 0.192112 49 55 47
-0.489928 0.181171 0.192586 61 59 49
-0.490516 0.183508 0.192481 54 62 58
-0.491105 0.185854 0.192374 54 78 84
-0.490955 0.187803 0.192512 75 127 128
-0.490806 0.189753 0.19265 84 154 156
-0.490656 0.191703 0.192788 83 158 164
-0.490506 0.193653 0.192926 80 152 157
-0.490357 0.195603 0.193064 83 159 162
-0.48947 0.197132 0.193445 85 156 158
-0.489321 0.199079 0.193583 76 137 141
-0.489171 0.201026 0.19372 67 124 126
-0.489022 0.202973 0.193858 64 116 114
-0.489608 0.205355 0.193755 62 89 93
-0.490197 0.207745 0.193651 62 64 63
-0.510105 0.245434 0.188254 58 52 45
-0.509133 0.246956 0.188664 51 62 55
-0.508975 0.249012 0.18881 51 59 48
-0.508817 0.251068 0.188955 52 56 43
-0.489388 0.181278 0.190713 59 62 56
-0.489239 0.183221 0.19085 54 71 78
-0.48909 0.185163 0.190988 69 114 121
-0.488941 0.187106 0.191125 84 151 154
-0.488792 0.189049 0.191262 87 157 161
-0.488643 0.190992 0.1914 84 151 157
-0.488493 0.192935 0.191537 86 160 159
-0.488344 0.194878 0.191675 88 159 159
-0.487464 0.196404 0.192056 75 136 142
-0.487315 0.198344 0.192193 68 125 128
-0.487167 0.200284 0.192331 65 116 116
-0.487748 0.202653 0.192225 64 97 98
-0.487598 0.204597 0.192362 63 61 64
-0.487535 0.178671 0.1892 58 58 52
-0.488116 0.180995 0.189088 58 68 69
-0.487967 0.182934 0.189225 63 100 106
-0.487089 0.184478 0.18961 85 148 150
-0.486941 0.186414 0.189747 82 152 160
-0.486792 0.18835 0.189884 82 150 158
-0.486643 0.190286 0.190021 89 154 158
-0.486495 0.192222 0.190158 91 156 159
-0.485621 0.193747 0.190541 76 142 150
-0.485473 0.195681 0.190677 67 127 131
-0.485324 0.197614 0.190814 64 120 120
-0.485176 0.199547 0.190951 63 102 103
-0.485751 0.201906 0.190843 61 72 75
-0.486329 0.204274 0.190734 62 52 47
-0.485695 0.176081 0.187697 62 58 49
-0.485547 0.17801 0.187833 61 65 64
-0.486122 0.180325 0.18772 60 90 96
-0.485974 0.182258 0.187856 81 146 145
-0.485825 0.18419 0.187993 80 155 162
-0.484954 0.185726 0.188379 80 149 159
-0.484806 0.187656 0.188515 82 150 160
-0.484658 0.189585 0.188651 84 155 164
-0.48451 0.191515 0.188788 83 152 154
-0.484362 0.193445 0.188924 68 127 132
-0.484214 0.195375 0.189061 64 123 124
-0.484066 0.197305 0.189197 62 107 107
-0.483917 0.199235 0.189333 61 82 81
-0.48449 0.201589 0.189223 61 60 54
-0.483152 0.173138 0.186456 64 60 50
-0.48372 0.175432 0.186341 62 64 63
-0.483573 0.177354 0.186476 64 86 92
-0.483425 0.179276 0.186612 76 133 135
-0.483994 0.181586 0.186497 88 165 168
-0.483846 0.183512 0.186633 79 151 158
-0.483699 0.185438 0.186769 78 154 160
-0.482835 0.186967 0.187155 84 161 163
-0.482687 0.18889 0.187291 85 154 156
-0.482539 0.190813 0.187427 69 130 138
-0.483107 0.193143 0.187313 63 122 125
-0.482959 0.19507 0.187449 63 113 113
-0.482811 0.196997 0.187585 63 84 84
-0.482663 0.198924 0.187722 62 60 59
-0.47923 0.169499 0.18573 63 62 48
-0.479786 0.171767 0.185614 61 64 60
-0.480344 0.174042 0.185498 62 81 87
-0.480197 0.175951 0.185632 72 120 127
-0.48005 0.17786 0.185767 93 165 163
-0.479904 0.179769 0.185902 77 146 159
-0.479054 0.181294 0.186286 83 157 158
-0.478908 0.1832 0.186421 89 161 160
-0.478761 0.185106 0.186556 83 151 155
-0.478615 0.187013 0.18669 70 134 143
-0.479171 0.189316 0.186576 62 122 125
-0.479024 0.191226 0.186711 65 116 119
-0.478877 0.193136 0.186846 59 87 95
-0.479435 0.195455 0.186732 61 65 63
-0.480702 0.198197 0.186367 64 54 44
-0.481266 0.200538 0.186251 61 49 45
-0.477451 0.166986 0.184265 62 59 47
-0.478002 0.169241 0.184147 59 62 54
-0.477856 0.17114 0.184281 57 77 79
-0.478408 0.173407 0.184162 68 115 119
-0.478262 0.175309 0.184297 84 153 155
-0.478116 0.177212 0.184431 77 152 162
-0.47797 0.179114 0.184565 85 147 152
-0.477824 0.181017 0.184699 87 152 159
-0.476981 0.182535 0.185085 84 153 159
-0.476835 0.184435 0.185219 74 140 145
-0.477385 0.186726 0.185102 65 122 127
-0.477239 0.188629 0.185237 64 117 118
-0.477792 0.190932 0.18512 62 97 99
-0.477645 0.192839 0.185255 62 70 64
-0.478199 0.195153 0.185138 63 60 47
-0.478052 0.197063 0.185273 64 57 43
-0.476375 0.164842 0.182556 56 58 51
-0.47623 0.166734 0.18269 58 60 52
-0.476777 0.168985 0.182569 53 72 72
-0.476632 0.170881 0.182703 62 109 110
-0.476486 0.172776 0.182836 76 147 149
-0.476341 0.174672 0.18297 81 160 166
-0.476195 0.176568 0.183104 77 141 154
-0.476049 0.178464 0.183238 77 152 166
-0.475904 0.18036 0.183371 91 168 166
-0.475758 0.182257 0.183505 82 148 148
-0.475612 0.184153 0.183639 68 125 130
-0.475467 0.18605 0.183773 63 119 119
-0.476014 0.18834 0.183654 66 110 105
-0.476563 0.190638 0.183534 62 70 68
-0.476417 0.192542 0.183669 62 57 50
-0.475303 0.162705 0.180853 60 63 54
-0.475158 0.164594 0.180986 61 60 51
-0.475013 0.166482 0.18112 58 64 67
-0.474868 0.168371 0.181253 60 98 104
-0.474723 0.170261 0.181386 77 146 148
-0.474578 0.17215 0.181519 86 162 164
-0.474432 0.174039 0.181652 74 145 155
-0.474287 0.175929 0.181786 79 162 162
-0.474142 0.177818 0.181919 94 169 162
-0.473997 0.179708 0.182052 81 146 149
-0.473852 0.181598 0.182185 70 128 134
-0.473707 0.183488 0.182318 67 120 123
-0.473561 0.185378 0.182452 67 110 111
-0.474103 0.18766 0.182331 59 71 81
-0.475339 0.190346 0.181954 56 59 58
-0.474235 0.160575 0.179156 59 63 51
-0.47409 0.162461 0.179289 61 65 51
-0.474632 0.164697 0.179163 60 64 62
-0.474487 0.166586 0.179296 58 85 97
-0.474342 0.168475 0.179429 84 140 143
-0.474197 0.170364 0.179562 84 156 161
-0.474051 0.172254 0.179695 75 151 158
-0.473221 0.173776 0.180086 89 161 155
-0.473076 0.175663 0.180219 94 158 159
-0.472931 0.177549 0.180352 80 147 156
-0.472786 0.179436 0.180485 66 130 136
-0.472641 0.181323 0.180618 64 123 127
-0.47318 0.183593 0.180494 63 110 115
-0.473035 0.185483 0.180627 59 85 90
-0.47289 0.187374 0.180761 61 60 55
-0.472488 0.158114 0.177726 63 54 51
-0.472344 0.159993 0.177858 62 59 51
-0.473565 0.162563 0.177468 59 64 60
-0.47342 0.164449 0.177601 54 77 87
-0.473275 0.166335 0.177734 77 131 132
-0.47313 0.168221 0.177867 77 151 157
-0.472302 0.169748 0.17826 78 151 159
-0.472158 0.171631 0.178393 84 147 156
-0.472013 0.173514 0.178525 82 151 166
-0.471188 0.17503 0.178917 86 164 167
-0.471044 0.17691 0.17905 71 133 137
-0.471579 0.179165 0.178923 62 124 125
-0.472115 0.181427 0.178797 61 116 115
-0.47197 0.183314 0.17893 63 96 92
-0.471825 0.185202 0.179063 64 67 61
-0.472363 0.187479 0.178936 66 58 49
-0.471286 0.157879 0.176174 66 65 55
-0.47182 0.160095 0.176043 63 60 55
-0.471676 0.161975 0.176176 58 72 75
-0.471531 0.163854 0.176308 68 122 121
-0.471387 0.165734 0.17644 82 158 159
-0.471243 0.167613 0.176573 78 150 159
-0.471098 0.169493 0.176705 70 144 160
-0.470277 0.171013 0.177099 75 157 168
-0.470132 0.17289 0.177231 84 163 163
-0.469988 0.174767 0.177363 72 134 140
-0.47052 0.177014 0.177234 63 126 128
-0.470376 0.178895 0.177367 61 119 118
-0.470909 0.181153 0.177238 63 97 93
-0.470765 0.183037 0.17737 64 73 66
-0.4713 0.185307 0.177241 64 59 49
-0.470232 0.155771 0.174496 65 64 58
-0.470088 0.157644 0.174628 63 65 61
-0.469944 0.159517 0.17476 55 70 73
-0.470475 0.161733 0.174627 57 104 111
-0.470331 0.163609 0.174759 88 163 160
-0.470187 0.165486 0.174891 75 148 160
-0.469368 0.16701 0.175287 74 154 159
-0.469224 0.168883 0.175419 83 164 161
-0.46908 0.170757 0.175551 85 159 160
-0.468936 0.172631 0.175683 71 140 149
-0.468792 0.174505 0.175814 63 122 128
-0.469321 0.176748 0.175683 62 122 121
-0.469852 0.178999 0.175551 61 100 103
-0.469707 0.180879 0.175683 62 75 73
-0.47024 0.183141 0.175551 63 59 49
-0.469181 0.153671 0.172824 64 62 55
-0.469038 0.155541 0.172955 62 65 61
-0.468894 0.157411 0.173087 59 72 74
-0.46875 0.15928 0.173218 59 96 108
-0.468606 0.16115 0.17335 96 163 155
-0.468463 0.16302 0.173481 75 149 157
-0.468319 0.164891 0.173613 83 154 154
-0.468175 0.166761 0.173744 87 156 156
-0.467363 0.168278 0.174141 84 155 160
-0.467219 0.170145 0.174273 75 147 153
-0.467744 0.172373 0.174139 63 127 131
-0.4676 0.174244 0.174271 61 121 124
-0.468126 0.176482 0.174137 61 107 108
-0.468654 0.178729 0.174002 61 79 77
-0.46851 0.180607 0.174134 61 59 53
-0.465477 0.150289 0.17223 62 61 54
-0.465995 0.152467 0.172094 62 62 58
-0.465853 0.154324 0.172224 61 68 68
-0.46571 0.156181 0.172355 64 95 98
-0.465567 0.158038 0.172485 80 143 143
-0.464765 0.159559 0.172882 75 157 164
-0.464622 0.161413 0.173012 79 144 152
-0.465139 0.16361 0.172877 82 145 158
-0.464996 0.165468 0.173008 83 154 162
-0.464195 0.166977 0.173403 77 150 154
-0.464052 0.168832 0.173533 65 131 134
-0.464568 0.171042 0.173399 60 122 123
-0.464425 0.172901 0.17353 63 115 115
-0.465604 0.175486 0.17313 62 83 83
-0.466125 0.17772 0.172994 61 62 60
-0.464961 0.15039 0.170439 60 62 55
-0.464818 0.152244 0.170569 57 66 63
-0.464676 0.154097 0.170699 60 87 88
-0.463876 0.155623 0.171098 70 129 131
-0.463734 0.157474 0.171228 81 164 170
-0.463592 0.159325 0.171358 73 140 155
-0.463449 0.161176 0.171488 72 149 161
-0.462653 0.162687 0.171885 84 162 164
-0.462511 0.164536 0.172015 81 153 156
-0.462369 0.166384 0.172145 68 134 141
-0.462227 0.168233 0.172275 60 122 125
-0.462738 0.170435 0.172139 63 118 117
-0.46325 0.172644 0.172003 60 87 93
-0.463764 0.174862 0.171866 62 67 65
-0.464941 0.177454 0.17146 62 58 52
-0.463275 0.148004 0.169061 64 51 48
-0.463788 0.15017 0.16892 57 58 57
-0.463645 0.152021 0.16905 52 81 84
-0.463503 0.153872 0.16918 65 122 125
-0.462707 0.155395 0.16958 85 162 161
-0.461913 0.156913 0.169979 70 146 159
-0.461772 0.158758 0.170109 79 157 158
-0.46163 0.160603 0.170238 83 161 160
-0.461488 0.162449 0.170368 79 154 157
-0.461346 0.164294 0.170498 69 139 143
-0.461204 0.16614 0.170627 61 123 128
-0.461062 0.167986 0.170757 60 116 118
-0.46157 0.170183 0.170619 59 96 99
-0.462079 0.172389 0.17048 58 65 63
-0.46259 0.174602 0.170341 59 59 52
-0.461601 0.145634 0.167692 60 49 42
-0.461459 0.147476 0.167822 61 56 52
-0.461318 0.149317 0.167951 55 72 79
-0.461825 0.151479 0.167808 63 111 119
-0.461034 0.153001 0.16821 80 152 153
-0.460893 0.154842 0.168339 74 151 159
-0.460105 0.156356 0.168739 86 154 153
-0.459963 0.158195 0.168868 85 157 159
-0.459822 0.160034 0.168997 80 155 160
-0.459681 0.161874 0.169126 69 139 146
-0.459539 0.163713 0.169255 61 126 132
-0.459398 0.165553 0.169384 59 118 120
-0.459901 0.167739 0.169244 60 104 103
-0.459759 0.169582 0.169373 58 72 72
-0.460264 0.171779 0.169233 61 59 46
-0.459295 0.142976 0.166606 65 58 41
-0.460441 0.145424 0.166188 65 52 46
-0.460299 0.147262 0.166317 59 64 71
-0.460158 0.149101 0.166446 66 104 111
-0.460017 0.15094 0.166575 73 143 148
-0.459875 0.152778 0.166704 74 152 160
-0.45909 0.154293 0.167105 79 144 151
-0.458949 0.156129 0.167234 84 149 159
-0.458808 0.157965 0.167363 84 159 163
-0.458667 0.159802 0.167492 71 142 150
-0.459168 0.161974 0.167349 62 128 135
-0.459026 0.163814 0.167478 60 121 123
-0.458885 0.165654 0.167607 61 109 108
-0.458743 0.167494 0.167736 59 80 79
-0.458602 0.169333 0.167865 60 57 50
-0.455748 0.13975 0.166075 63 62 50
-0.456872 0.142167 0.165658 61 61 52
-0.458004 0.1446 0.165239 58 63 66
-0.457863 0.14643 0.165367 63 98 102
-0.457723 0.148259 0.165495 73 139 142
-0.457582 0.150089 0.165624 75 152 161
-0.457441 0.151918 0.165752 70 143 158
-0.4573 0.153748 0.16588 76 151 160
-0.45716 0.155578 0.166008 84 159 163
-0.457019 0.157408 0.166137 74 148 152
-0.457516 0.15957 0.165992 63 130 137
-0.458014 0.161739 0.165846 60 122 127
-0.457873 0.163575 0.165975 61 110 113
-0.457731 0.165412 0.166104 62 87 88
-0.458231 0.167595 0.165958 61 61 56
-0.452879 0.136866 0.165282 61 59 48
-0.453363 0.138964 0.165137 61 62 51
-0.455732 0.141965 0.164171 56 62 61
-0.456224 0.144089 0.164024 57 89 94
-0.456083 0.145912 0.164151 73 135 135
-0.455943 0.147735 0.164279 77 153 155
-0.455803 0.149559 0.164407 71 149 157
-0.455663 0.151383 0.164535 77 155 159
-0.455522 0.153206 0.164663 81 160 163
-0.455382 0.15503 0.164791 76 152 158
-0.455874 0.157181 0.164644 64 133 138
-0.455734 0.159008 0.164772 59 123 128
-0.456864 0.161503 0.164348 58 113 117
-0.456722 0.163337 0.164477 60 91 93
-0.457219 0.165513 0.164329 61 64 62
-0.451757 0.136675 0.16381 63 55 52
-0.452237 0.138768 0.163664 56 60 58
-0.452099 0.140573 0.16379 53 80 88
-0.455084 0.143883 0.162539 72 129 130
-0.454944 0.145704 0.162667 77 151 153
-0.454804 0.147524 0.162794 77 153 155
-0.454036 0.149033 0.163198 79 153 152
-0.453896 0.150851 0.163326 82 159 158
-0.453756 0.152669 0.163453 80 156 159
-0.454244 0.154808 0.163304 65 134 144
-0.454104 0.156629 0.163432 58 125 129
-0.454593 0.158779 0.163283 59 117 119
-0.455084 0.160936 0.163134 58 97 99
-0.455576 0.1631 0.162984 58 70 69
-0.449549 0.134117 0.162766 59 54 47
-0.450638 0.136483 0.162343 60 54 56
-0.451116 0.138573 0.162194 53 69 79
-0.450361 0.140082 0.162595 70 119 124
-0.452076 0.142775 0.161894 75 147 153
-0.451937 0.144584 0.162021 76 149 157
-0.451798 0.146392 0.162148 78 145 154
-0.451659 0.148201 0.162274 83 154 158
-0.45152 0.15001 0.162401 81 157 158
-0.45138 0.151819 0.162528 68 139 146
-0.451241 0.153628 0.162654 59 126 131
-0.451722 0.155759 0.162505 60 121 122
-0.453456 0.15855 0.161799 61 103 102
-0.453944 0.160703 0.161647 60 77 75
-0.448577 0.13214 0.161182 59 56 45
-0.448439 0.13393 0.161307 57 53 51
-0.448911 0.136006 0.161157 50 65 71
-0.449384 0.138089 0.161006 59 106 110
-0.449246 0.139885 0.161132 75 146 150
-0.449108 0.141682 0.161258 74 148 158
-0.449582 0.143778 0.161107 72 144 158
-0.449444 0.145578 0.161233 78 149 160
-0.44992 0.147684 0.161082 80 155 161
-0.449781 0.149487 0.161208 73 147 151
-0.449642 0.15129 0.161334 60 125 130
-0.449503 0.153094 0.161461 58 122 123
-0.450597 0.155536 0.161032 60 106 110
-0.451077 0.15767 0.16088 63 78 80
-0.452808 0.160471 0.160166 62 58 54
-0.44747 0.131957 0.159728 57 57 46
-0.44794 0.134027 0.159576 54 61 64
-0.447802 0.135817 0.159701 54 97 100
-0.448273 0.137896 0.159548 71 144 142
-0.448135 0.13969 0.159673 72 148 157
-0.447389 0.141189 0.160077 72 148 158
-0.447859 0.143278 0.159924 76 152 160
-0.447721 0.145072 0.16005 80 157 162
-0.448192 0.14717 0.159897 76 151 152
-0.448054 0.148967 0.160023 63 127 134
-0.447915 0.150765 0.160149 57 122 123
-0.448388 0.152877 0.159996 60 111 113
-0.448862 0.154995 0.159843 59 80 87
-0.449954 0.157445 0.159409 59 57 59
-0.446505 0.129991 0.158154 56 55 46
-0.446972 0.132053 0.157999 49 61 58
-0.446834 0.133841 0.158124 53 85 91
-0.447303 0.135913 0.157969 73 141 138
-0.447165 0.137704 0.158094 73 152 156
-0.447027 0.139495 0.158219 75 150 156
-0.446889 0.141286 0.158345 78 154 157
-0.446146 0.14278 0.158749 84 159 161
-0.446613 0.144868 0.158595 82 151 155
-0.446476 0.14666 0.15872 65 131 138
-0.446338 0.148451 0.158846 58 121 126
-0.446806 0.150552 0.158691 59 118 118
-0.446668 0.152347 0.158817 57 90 94
-0.447137 0.154458 0.158662 60 64 62
-0.44822 0.156898 0.158225 58 50 43
-0.445543 0.12803 0.156585 61 59 48
-0.446007 0.130086 0.156428 53 56 57
-0.44587 0.131871 0.156553 49 79 88
-0.445732 0.133656 0.156677 70 129 133
-0.445595 0.13544 0.156802 77 155 158
-0.446061 0.137513 0.156645 76 147 154
-0.445923 0.139301 0.15677 81 152 156
-0.445183 0.140796 0.157176 86 158 160
-0.445045 0.142581 0.157301 81 150 156
-0.44551 0.144666 0.157145 68 134 144
-0.445372 0.146454 0.15727 58 122 126
-0.445234 0.148243 0.157395 59 121 121
-0.4457 0.15034 0.157238 59 103 101
-0.445562 0.152132 0.157363 56 70 69
-0.446029 0.15424 0.157207 55 58 52
-0.445183 0.126344 0.154737 61 55 48
-0.445046 0.128125 0.154861 59 61 56
-0.444908 0.129907 0.154986 53 73 80
-0.444771 0.131689 0.15511 64 118 126
-0.444634 0.133471 0.155235 77 153 158
-0.444497 0.135253 0.155359 71 144 157
-0.44436 0.137035 0.155484 79 147 156
-0.444222 0.138818 0.155608 84 153 162
-0.444085 0.1406 0.155733 81 153 161
-0.443948 0.142383 0.155857 72 142 147
-0.443213 0.143869 0.156264 60 124 128
-0.444272 0.14625 0.155823 56 120 122
-0.444135 0.148036 0.155948 59 107 108
-0.444598 0.150129 0.155789 58 71 73
-0.445062 0.15223 0.15563 54 55 50
-0.444924 0.154022 0.155756 55 54 41
-0.445424 0.124923 0.1526 53 51 43
-0.444686 0.126439 0.153013 57 54 52
-0.444549 0.12822 0.153137 58 73 75
-0.444411 0.130002 0.153262 60 107 113
-0.443676 0.131508 0.153672 78 154 157
-0.442943 0.133008 0.154082 69 147 158
-0.442806 0.134785 0.154206 73 146 157
-0.443265 0.136846 0.154045 78 154 165
-0.443128 0.138626 0.154169 81 159 165
-0.442396 0.140115 0.154578 74 147 150
-0.442259 0.141892 0.154702 62 125 131
-0.442122 0.143669 0.154826 58 120 121
-0.44258 0.145746 0.154666 58 111 111
-0.443039 0.147829 0.154506 55 74 81
-0.443499 0.149919 0.154345 55 58 51
-0.443961 0.152016 0.154184 58 53 42
-0.445063 0.123233 0.150749 47 55 44
-0.444326 0.124752 0.151164 47 54 50
-0.443591 0.126266 0.151578 52 67 68
-0.443454 0.128045 0.151702 60 100 103
-0.442721 0.129551 0.152115 76 147 146
-0.441991 0.131052 0.152526 74 155 163
-0.441263 0.132549 0.152936 73 147 154
-0.441127 0.13432 0.15306 75 155 160
-0.44099 0.136091 0.153183 84 163 163
-0.440854 0.137862 0.153307 77 148 152
-0.441308 0.139922 0.153145 63 128 134
-0.441171 0.141696 0.153269 57 120 121
-0.441035 0.14347 0.153393 57 113 114
-0.440898 0.145245 0.153517 53 86 92
-0.441946 0.147623 0.153068 56 54 45
-0.442404 0.149709 0.152905 53 47 39
-0.442316 0.120507 0.150068 55 58 48
-0.442179 0.12228 0.150191 48 59 53
-0.442043 0.124053 0.150315 44 65 66
-0.441315 0.125561 0.150728 54 94 98
-0.441178 0.127332 0.150852 73 138 139
-0.440453 0.128832 0.151264 81 158 163
-0.439145 0.130055 0.151961 74 143 151
-0.439009 0.131818 0.152084 81 156 156
-0.438874 0.13358 0.152207 87 158 157
-0.438738 0.135343 0.15233 77 145 154
-0.438602 0.137106 0.152452 64 131 139
-0.438466 0.138868 0.152575 59 121 124
-0.438914 0.14092 0.152413 57 116 116
-0.438778 0.142686 0.152536 59 100 98
-0.439227 0.144747 0.152374 61 60 54
-0.440857 0.147417 0.151635 58 53 46
-0.438884 0.119324 0.149808 60 56 55
-0.438749 0.121083 0.14993 55 64 67
-0.438613 0.122842 0.150053 52 87 94
-0.437897 0.124339 0.150463 63 130 135
-0.437761 0.126096 0.150586 82 163 167
-0.437047 0.127586 0.150995 71 142 155
-0.436912 0.12934 0.151117 84 152 155
-0.436777 0.131094 0.151239 85 150 158
-0.436642 0.132848 0.151362 80 148 156
-0.436507 0.134602 0.151484 69 135 141
-0.436372 0.136356 0.151606 59 123 127
-0.436237 0.138111 0.151728 59 119 119
-0.436679 0.140152 0.151566 65 105 101
-0.437122 0.142199 0.151402 65 65 65
-0.438149 0.144548 0.150951 65 58 45
-0.436791 0.11691 0.148854 65 56 53
-0.436656 0.11866 0.148976 63 58 60
-0.436522 0.120411 0.149098 58 76 83
-0.436387 0.122161 0.149219 57 117 124
-0.436252 0.123912 0.149341 65 160 163
-0.436117 0.125663 0.149463 64 155 171
-0.435408 0.127149 0.149873 81 147 155
-0.435273 0.128898 0.149995 79 151 165
-0.435138 0.130646 0.150117 83 159 163
-0.435004 0.132395 0.150238 71 140 144
-0.434869 0.134144 0.15036 59 125 129
-0.434734 0.135893 0.150482 57 121 122
-0.435172 0.137923 0.150318 61 107 109
-0.435612 0.13996 0.150153 61 70 78
-0.436053 0.142005 0.149987 67 53 45
-0.436495 0.144055 0.149821 65 58 43
-0.43529 0.114762 0.147619 61 57 49
-0.435155 0.116507 0.14774 62 58 56
-0.435021 0.118252 0.147862 58 68 72
-0.434886 0.119997 0.147983 55 99 104
-0.434752 0.121743 0.148105 57 142 143
-0.434617 0.123488 0.148227 63 161 170
-0.434483 0.125233 0.148348 66 158 175
-0.434348 0.126979 0.14847 75 158 172
-0.434214 0.128725 0.148591 87 169 168
-0.434079 0.130471 0.148713 74 146 150
-0.433945 0.132217 0.148834 59 129 134
-0.43381 0.133963 0.148956 57 123 126
-0.433676 0.135709 0.149078 57 107 113
-0.433541 0.137455 0.149199 56 79 85
-0.433976 0.139485 0.149033 62 56 47
-0.434413 0.141522 0.148866 61 53 38
-0.433798 0.112628 0.146392 56 55 46
-0.434232 0.114611 0.146222 54 58 50
-0.434668 0.1166 0.146051 53 67 65
-0.434534 0.118345 0.146172 51 88 91
-0.434399 0.12009 0.146294 51 122 126
-0.434265 0.121836 0.146415 61 151 157
-0.43413 0.123581 0.146537 81 169 174
-0.433426 0.125066 0.146949 95 179 182
-0.433292 0.126809 0.147071 89 171 178
-0.433158 0.128552 0.147192 81 157 164
-0.433023 0.130295 0.147313 70 136 143
-0.433457 0.13231 0.147144 63 127 131
-0.433323 0.134057 0.147266 59 116 116
-0.433188 0.135803 0.147387 58 90 86
-0.433054 0.13755 0.147509 57 60 51
-0.432919 0.139296 0.14763 54 50 41
-0.431752 0.110273 0.145464 64 53 42
-0.432746 0.112481 0.145001 59 54 46
-0.433178 0.11446 0.144828 53 62 60
-0.433612 0.116446 0.144655 49 85 86
-0.433477 0.118188 0.144777 49 117 121
-0.433343 0.119931 0.144898 58 143 152
-0.433209 0.121673 0.145019 82 164 170
-0.433074 0.123416 0.14514 100 182 183
-0.43294 0.125159 0.145262 96 168 175
-0.432806 0.126902 0.145383 85 165 172
-0.432105 0.12838 0.145797 74 152 159
-0.431971 0.130121 0.145918 69 137 140
-0.431837 0.131861 0.146039 66 122 122
-0.431703 0.133602 0.14616 61 97 95
-0.432134 0.13562 0.145989 56 67 63
-0.432566 0.137644 0.145818 50 53 44
-0.430708 0.110129 0.144081 63 57 41
-0.431135 0.112095 0.143908 57 58 54
-0.431564 0.114068 0.143734 51 75 81
-0.432558 0.116292 0.143264 49 109 117
-0.432424 0.118032 0.143385 56 142 147
-0.43229 0.119772 0.143506 77 164 167
-0.432156 0.121512 0.143627 106 183 179
-0.432022 0.123252 0.143748 100 171 176
-0.431888 0.124992 0.143869 91 165 172
-0.431753 0.126733 0.14399 72 154 162
-0.431056 0.128209 0.144406 66 144 151
-0.430922 0.129947 0.144527 69 133 134
-0.430788 0.131685 0.144647 67 103 106
-0.431217 0.133696 0.144475 60 69 75
-0.431082 0.135437 0.144596 56 53 50
-0.427587 0.107342 0.143754 62 57 39
-0.429112 0.109753 0.142996 56 58 51
-0.430093 0.111949 0.142527 53 71 75
-0.430518 0.113918 0.142351 52 104 112
-0.430946 0.115894 0.142175 55 138 144
-0.431374 0.117876 0.141998 75 159 163
-0.43124 0.119613 0.142119 109 177 177
-0.431106 0.121351 0.14224 103 174 180
-0.430972 0.123088 0.142361 90 166 173
-0.430838 0.124826 0.142481 78 154 161
-0.430704 0.126564 0.142602 64 143 148
-0.43057 0.128302 0.142723 60 131 135
-0.430436 0.13004 0.142844 60 108 114
-0.430302 0.131778 0.142964 62 80 80
-0.430731 0.13379 0.142789 61 55 48
-0.430596 0.135531 0.14291 56 49 43
-0.425055 0.104821 0.143142 62 55 42
-0.426013 0.106977 0.142678 56 59 44
-0.426976 0.109148 0.142211 52 68 65
-0.428498 0.111567 0.141446 51 101 103
-0.42892 0.11353 0.141269 53 132 137
-0.429343 0.115498 0.141092 69 152 161
-0.429768 0.117474 0.140914 93 169 177
-0.430194 0.119455 0.140736 101 175 184
-0.430621 0.121443 0.140557 94 170 174
-0.430487 0.123181 0.140677 78 158 165
-0.430353 0.124919 0.140798 66 144 149
-0.430219 0.126657 0.140919 59 131 135
