ply
format ascii 1.0
element vertex 1291
property float x
property float y
property float z
property uchar diffuse_red
property uchar diffuse_green
property uchar diffuse_blue
end_header
-0.311348 0.136966 0.169506 64 57 50
-0.31095 0.138183 0.169669 49 43 36
-0.310552 0.139401 0.169832 42 30 30
-0.310154 0.140619 0.169995 52 35 38
-0.309756 0.141836 0.170158 70 53 57
-0.309358 0.143054 0.170321 63 45 51
-0.30896 0.144272 0.170484 30 13 14
-0.308298 0.14529 0.170833 20 16 13
-0.307374 0.146105 0.171366 36 30 24
-0.306455 0.146916 0.171897 44 34 28
-0.304767 0.147122 0.172971 38 30 26
-0.302339 0.146731 0.174568 40 31 26
-0.300203 0.146543 0.175961 51 43 37
-0.299078 0.147137 0.176641 60 52 46
-0.298448 0.14812 0.176972 62 52 45
-0.297819 0.1491 0.177302 63 53 44
-0.297192 0.150078 0.177632 60 55 41
-0.29705 0.151454 0.177617 58 54 41
-0.317383 0.169882 0.163075 70 62 57
-0.316961 0.171174 0.163247 98 90 80
-0.316538 0.172466 0.16342 89 80 75
-0.316116 0.173757 0.163593 86 74 73
-0.368801 0.109455 0.132822 72 45 29
-0.367549 0.11051 0.133553 48 29 15
-0.367867 0.112311 0.133204 27 16 10
-0.324059 0.108324 0.162021 36 27 23
-0.322234 0.108762 0.163174 84 52 36
-0.32127 0.109668 0.163729 104 83 68
-0.320033 0.110412 0.164476 113 96 80
-0.318253 0.110832 0.165601 115 102 87
-0.316223 0.111089 0.166901 116 106 93
-0.31556 0.112133 0.16725 119 109 98
-0.314899 0.113174 0.167599 126 115 105
-0.315044 0.114697 0.167384 142 127 112
-0.31546 0.116392 0.16698 157 143 124
-0.316151 0.118265 0.166383 175 158 137
-0.316574 0.119987 0.165972 200 172 152
-0.316176 0.121204 0.166135 209 172 154
-0.315778 0.122421 0.166298 179 149 140
-0.31538 0.123638 0.166461 145 127 128
-0.314983 0.124855 0.166624 147 124 120
-0.314585 0.126072 0.166787 144 129 110
-0.314187 0.127289 0.16695 136 144 113
-0.313789 0.128507 0.167112 136 137 115
-0.313391 0.129724 0.167275 145 124 92
-0.312724 0.130758 0.167628 118 73 87
-0.312327 0.131974 0.167791 85 65 63
-0.312198 0.133376 0.167764 71 62 50
-0.3118 0.134594 0.167927 65 51 42
-0.311402 0.135811 0.16809 72 60 58
-0.311004 0.137029 0.168253 73 66 64
-0.310606 0.138247 0.168416 58 53 47
-0.310208 0.139464 0.168579 45 39 33
-0.30981 0.140682 0.168742 43 31 30
-0.309412 0.1419 0.168905 52 30 33
-0.309014 0.143118 0.169068 68 41 43
-0.308616 0.144336 0.169231 52 30 32
-0.307954 0.145354 0.169581 25 12 15
-0.307294 0.146369 0.169931 34 30 23
-0.306374 0.147181 0.170465 41 33 25
-0.304683 0.147386 0.171549 40 31 26
-0.302254 0.146992 0.173161 38 28 25
-0.299622 0.14641 0.174919 43 34 33
-0.298256 0.146809 0.175776 52 45 43
-0.297628 0.14779 0.176108 57 52 45
-0.297244 0.148966 0.176265 62 54 44
-0.29686 0.150141 0.176422 61 55 43
-0.296476 0.151317 0.176579 61 52 41
-0.296092 0.152492 0.176737 61 56 51
-0.295948 0.153871 0.176721 89 83 73
-0.295323 0.154844 0.177051 98 90 82
-0.294699 0.155814 0.177381 83 74 71
-0.777404 0.676946 -0.177755 63 59 55
-0.770745 0.675525 -0.17331 58 57 68
-0.370124 0.107033 0.130419 67 48 36
-0.369656 0.108465 0.13061 74 63 50
-0.368793 0.10971 0.131076 56 40 23
-0.367932 0.110953 0.131541 31 20 11
-0.367465 0.11238 0.131732 19 13 11
-0.322289 0.107597 0.161748 31 23 23
-0.321325 0.108507 0.162307 83 56 40
-0.320087 0.109255 0.163058 104 87 68
-0.319135 0.110155 0.163611 112 93 79
-0.317638 0.110734 0.164546 114 98 84
-0.315884 0.11115 0.165663 117 103 89
-0.314953 0.112034 0.166202 117 105 94
-0.315098 0.113555 0.165985 120 109 98
-0.314705 0.114758 0.166145 127 116 101
-0.316205 0.117114 0.164972 137 126 111
-0.316628 0.118831 0.164556 152 138 120
-0.316504 0.120219 0.164525 163 138 123
-0.316106 0.121437 0.164688 152 115 107
-0.315708 0.122656 0.164852 118 80 76
-0.315037 0.1237 0.165207 96 72 65
-0.314639 0.124917 0.16537 118 100 92
-0.314241 0.126134 0.165533 149 133 122
-0.313843 0.127352 0.165696 146 167 130
-0.313446 0.128569 0.165859 140 117 104
-0.313048 0.129786 0.166022 118 104 80
-0.31265 0.131004 0.166185 97 79 93
-0.312252 0.132221 0.166348 84 66 66
-0.311854 0.133439 0.166511 72 69 64
-0.311456 0.134657 0.166673 55 56 59
-0.311058 0.135874 0.166836 59 64 55
-0.31066 0.137092 0.166999 79 81 69
-0.310262 0.13831 0.167162 81 78 73
-0.309864 0.139528 0.167325 68 62 59
-0.309466 0.140746 0.167488 53 46 46
-0.309068 0.141964 0.167651 42 31 35
-0.30867 0.143182 0.167814 47 32 35
-0.308272 0.1444 0.167977 62 38 38
-0.307874 0.145618 0.16814 37 24 23
-0.307213 0.146634 0.168492 32 29 24
-0.306292 0.147447 0.16903 37 31 26
-0.305116 0.148053 0.169753 40 33 26
-0.302168 0.147254 0.17175 38 31 26
-0.299288 0.146473 0.173703 38 30 29
-0.29768 0.146677 0.174741 45 37 37
-0.297296 0.147852 0.174898 52 49 45
-0.29667 0.148831 0.17523 62 53 45
-0.296286 0.150005 0.175387 63 56 47
-0.295902 0.15118 0.175544 67 50 40
-0.295759 0.152555 0.175527 61 52 40
-0.295135 0.153528 0.175858 72 68 56
-0.294751 0.154703 0.176015 94 91 77
-0.294367 0.155878 0.176172 93 88 78
-0.293983 0.157052 0.17633 70 55 56
-0.776263 0.67717 -0.181893 62 57 51
-0.769613 0.675747 -0.177417 59 62 65
-0.370587 0.105851 0.128473 59 43 39
-0.370118 0.107285 0.128665 73 57 48
-0.369253 0.108534 0.129134 72 64 55
-0.368785 0.109966 0.129326 45 33 28
-0.367923 0.11121 0.129793 23 15 14
-0.367063 0.11245 0.13026 17 10 12
-0.365816 0.113496 0.130998 15 11 10
-0.32082 0.107034 0.16128 27 19 19
-0.319864 0.107941 0.161837 57 34 30
-0.319189 0.109001 0.162196 85 72 51
-0.317692 0.109585 0.163138 102 84 71
-0.316751 0.110479 0.163686 108 92 78
-0.315007 0.110895 0.164805 115 100 85
-0.31408 0.111778 0.165345 119 103 90
-0.314223 0.113295 0.165126 121 106 92
-0.314366 0.114818 0.164906 121 109 95
-0.316135 0.117342 0.163529 125 115 100
-0.316285 0.118893 0.163302 130 118 103
-0.31616 0.120281 0.16327 126 105 93
-0.315762 0.121499 0.163433 106 79 74
-0.315637 0.122892 0.163401 80 57 61
-0.315512 0.124287 0.163369 73 59 64
-0.314296 0.124979 0.164117 100 92 85
-0.313898 0.126196 0.164279 135 131 122
-0.3135 0.127414 0.164442 169 167 148
-0.313102 0.128631 0.164605 149 170 102
-0.312704 0.129849 0.164768 98 90 88
-0.312306 0.131067 0.164931 81 67 70
-0.311908 0.132284 0.165094 74 66 66
-0.31151 0.133502 0.165257 83 82 76
-0.311112 0.13472 0.16542 90 96 91
-0.310714 0.135937 0.165583 83 82 75
-0.310316 0.137155 0.165745 98 80 71
-0.309918 0.138373 0.165908 114 99 89
-0.30952 0.139591 0.166071 101 100 91
-0.309122 0.140809 0.166234 83 78 71
-0.308724 0.142027 0.166397 70 64 55
-0.308326 0.143245 0.16656 55 45 37
-0.307928 0.144464 0.166723 58 32 31
-0.30753 0.145682 0.166886 48 30 27
-0.306869 0.146698 0.167239 36 28 25
-0.30621 0.147713 0.167592 34 28 26
-0.305033 0.148319 0.16832 36 31 26
-0.302335 0.147715 0.170153 36 33 26
-0.2992 0.146731 0.172307 35 33 26
-0.297348 0.146739 0.173531 39 36 29
-0.296722 0.147719 0.173864 50 52 38
-0.296338 0.148894 0.174021 62 56 44
-0.295954 0.150068 0.174178 64 52 48
-0.29557 0.151242 0.174335 64 56 50
-0.295186 0.152417 0.174493 59 56 45
-0.294803 0.153591 0.17465 62 59 51
-0.294419 0.154766 0.174807 82 77 68
-0.294035 0.155941 0.174964 95 90 77
-0.293651 0.157115 0.175121 71 63 60
-0.293267 0.15829 0.175278 55 34 32
-0.773807 0.681419 -0.185493 60 60 56
-0.370581 0.106102 0.126714 63 46 39
-0.369714 0.107354 0.127187 78 67 56
-0.369246 0.108788 0.127379 74 60 49
-0.368382 0.110035 0.127849 44 28 24
-0.367914 0.111468 0.128041 22 13 12
-0.367053 0.112709 0.12851 17 12 10
-0.365415 0.113566 0.12953 15 11 10
-0.362642 0.113845 0.131354 13 10 7
-0.320874 0.105876 0.15986 24 14 14
-0.319919 0.106785 0.160421 24 17 13
-0.318691 0.107535 0.161176 32 19 18
-0.317746 0.108436 0.16173 54 38 31
-0.316805 0.109332 0.162281 78 60 50
-0.31533 0.109911 0.163216 97 79 68
-0.313867 0.110485 0.164143 110 92 77
-0.313477 0.111681 0.164303 118 98 83
-0.313351 0.113036 0.164272 121 102 87
-0.313759 0.114717 0.163859 120 105 90
-0.315793 0.117403 0.162278 119 108 92
-0.315941 0.118955 0.162048 110 97 86
-0.315544 0.120172 0.162211 98 83 74
-0.315418 0.121561 0.162178 90 78 74
-0.313554 0.126259 0.163025 106 95 84
-0.313156 0.127476 0.163188 138 115 104
-0.313028 0.128875 0.163156 126 146 123
-0.31236 0.129911 0.163514 113 95 94
-0.311962 0.131129 0.163677 102 86 73
-0.311564 0.132347 0.16384 112 96 81
-0.311166 0.133565 0.164003 126 124 103
-0.310768 0.134783 0.164166 128 134 116
-0.31037 0.136001 0.164328 107 106 92
-0.309972 0.137219 0.164491 93 81 70
-0.309574 0.138437 0.164654 110 102 88
-0.308911 0.139461 0.16501 124 128 112
-0.308513 0.140678 0.165173 111 106 95
-0.30838 0.142091 0.165143 94 91 73
-0.307982 0.143309 0.165306 68 56 42
-0.307583 0.144527 0.165469 52 28 28
-0.307185 0.145746 0.165632 48 25 23
-0.306525 0.146762 0.165987 40 25 23
-0.305866 0.147777 0.16634 35 26 25
-0.30469 0.148383 0.167073 34 29 25
-0.301996 0.147779 0.168919 36 31 26
-0.299605 0.147384 0.170546 37 31 27
-0.297258 0.146997 0.172143 35 28 28
-0.29639 0.147782 0.172655 42 35 27
-0.296006 0.148956 0.172813 52 48 43
-0.295382 0.149932 0.173146 62 52 45
-0.294999 0.151106 0.173303 63 54 46
-0.294854 0.15248 0.173284 62 54 46
-0.29447 0.153654 0.173441 61 52 48
-0.294086 0.154829 0.173598 71 63 58
-0.293702 0.156004 0.173755 90 85 74
-0.293319 0.157178 0.173912 82 80 72
-0.292935 0.158353 0.174069 60 42 37
-0.315501 0.193424 0.156082 100 70 68
-0.314773 0.194468 0.156479 75 47 48
-0.775355 0.684401 -0.191657 61 59 53
-0.774034 0.688443 -0.191116 62 63 59
-0.370248 0.104555 0.125324 64 44 35
-0.369779 0.105989 0.125516 68 53 44
-0.369311 0.107424 0.125708 84 72 60
-0.368447 0.108673 0.126181 77 58 40
-0.367979 0.110105 0.126373 44 24 17
-0.36751 0.111537 0.126564 21 12 9
-0.36665 0.112779 0.127036 16 11 9
-0.365014 0.113635 0.128061 15 10 9
-0.361864 0.113725 0.13017 14 10 7
-0.361402 0.115136 0.130358 13 9 6
-0.320531 0.105936 0.158603 21 15 14
-0.318746 0.106383 0.159764 23 18 8
-0.3178 0.107287 0.160321 24 18 13
-0.316317 0.107876 0.161268 31 16 18
-0.315383 0.10877 0.161818 49 32 28
-0.314188 0.109504 0.162558 75 51 47
-0.313265 0.110389 0.163102 96 76 63
-0.312874 0.111583 0.163262 109 88 73
-0.312484 0.112778 0.163422 115 96 80
-0.312888 0.114454 0.163007 117 100 84
-0.314907 0.117132 0.16142 116 103 86
-0.315325 0.118847 0.160992 100 91 78
-0.3152 0.120234 0.160957 90 81 73
-0.314802 0.121451 0.16112 99 95 90
-0.311619 0.131192 0.162423 91 81 73
-0.31122 0.13241 0.162586 103 101 87
-0.310822 0.133628 0.162748 128 131 114
-0.310424 0.134846 0.162911 144 153 136
-0.310026 0.136064 0.163074 134 123 112
-0.309628 0.137282 0.163237 103 76 71
-0.308965 0.138308 0.163595 94 90 79
-0.308567 0.139525 0.163757 127 138 114
-0.30817 0.140742 0.16392 130 129 115
-0.307772 0.141958 0.164083 103 88 75
-0.307637 0.143373 0.164052 68 50 41
-0.307239 0.144591 0.164215 46 29 29
-0.306579 0.145609 0.164571 39 20 19
-0.306181 0.146826 0.164734 33 20 21
-0.305262 0.147638 0.165281 31 24 24
-0.303833 0.148043 0.166206 31 27 24
-0.301657 0.147842 0.167685 32 26 24
-0.299517 0.147644 0.16914 37 28 26
-0.297411 0.14745 0.170571 36 29 27
-0.296058 0.147844 0.171447 35 28 23
-0.295434 0.148822 0.171782 48 37 37
-0.29505 0.149995 0.171939 59 52 44
-0.294667 0.151168 0.172096 63 55 46
-0.294283 0.152342 0.172253 63 52 47
-0.294138 0.153717 0.172232 62 50 46
-0.293754 0.154892 0.172389 64 56 51
-0.29337 0.156067 0.172546 80 77 68
-0.292986 0.157242 0.172703 95 94 83
-0.315263 0.191895 0.154765 96 74 63
-0.314831 0.193218 0.154942 82 61 56
-0.314399 0.194541 0.155119 69 51 47
-0.776915 0.687406 -0.19787 62 59 51
-0.772888 0.688668 -0.195273 63 58 48
-0.771567 0.692711 -0.194733 65 60 53
-0.369448 0.104445 0.12413 60 43 40
-0.36898 0.105878 0.124321 75 59 51
-0.368511 0.10731 0.124513 90 73 61
-0.368043 0.108742 0.124704 79 54 35
-0.367575 0.110174 0.124896 42 22 12
-0.367107 0.111607 0.125087 20 12 8
-0.366247 0.112849 0.125561 15 11 11
-0.364226 0.113515 0.126871 16 11 12
-0.361466 0.113794 0.128715 14 10 9
-0.36025 0.114825 0.129448 13 9 7
-0.31963 0.105689 0.15775 20 16 12
-0.317855 0.106137 0.158913 22 18 7
-0.316371 0.106732 0.159866 24 17 13
-0.315168 0.107475 0.160614 25 15 14
-0.314241 0.108367 0.161164 27 18 19
-0.313318 0.109254 0.161711 45 22 21
-0.312928 0.110449 0.161871 66 49 41
-0.312537 0.111643 0.162031 90 73 58
-0.312147 0.112838 0.162191 104 85 70
-0.31202 0.114193 0.162158 104 86 72
-0.312688 0.11604 0.161544 112 90 76
-0.31417 0.118405 0.160334 119 116 83
-0.314585 0.120125 0.159902 112 116 88
-0.314459 0.121513 0.159866 110 96 93
-0.310877 0.132473 0.161331 83 79 70
-0.310478 0.133691 0.161494 103 93 84
-0.31008 0.134909 0.161657 121 108 101
-0.309682 0.136127 0.16182 125 105 97
-0.309284 0.137345 0.161983 103 73 69
-0.308621 0.138371 0.162341 77 66 63
-0.308224 0.139588 0.162504 105 111 86
-0.307826 0.140805 0.162667 127 119 107
-0.307428 0.142022 0.16283 95 60 59
-0.30703 0.143239 0.162992 64 40 30
-0.306632 0.144456 0.163155 41 25 23
-0.306235 0.145673 0.163318 33 24 17
-0.305316 0.146488 0.163868 30 23 18
-0.30466 0.147501 0.164224 29 24 22
-0.303491 0.148106 0.164962 28 26 23
-0.301067 0.147706 0.166639 29 27 24
-0.299428 0.147906 0.167731 31 29 25
-0.29732 0.147709 0.169175 32 28 26
-0.295725 0.147906 0.170238 31 27 22
-0.295102 0.148884 0.170574 44 31 29
-0.29448 0.14986 0.17091 55 46 39
-0.294097 0.151032 0.171067 60 53 48
-0.293713 0.152204 0.171223 62 52 55
-0.293806 0.15378 0.171023 59 50 59
-0.293422 0.154955 0.17118 57 54 58
-0.293038 0.15613 0.171337 68 65 60
-0.292654 0.157305 0.171494 98 95 79
-0.314889 0.191968 0.153404 77 61 51
-0.314162 0.193013 0.153804 68 55 47
-0.31373 0.194334 0.153981 62 53 46
-0.771742 0.688893 -0.199431 63 56 41
-0.770421 0.692936 -0.19889 62 55 41
-0.76379 0.691388 -0.194265 59 58 53
-0.369044 0.104515 0.122653 55 44 40
-0.368576 0.105947 0.122844 83 66 57
-0.368108 0.107379 0.123036 95 76 62
-0.36764 0.108812 0.123227 78 48 32
-0.366779 0.110057 0.123703 39 20 11
-0.366312 0.111488 0.123894 18 12 9
-0.365454 0.112728 0.124369 14 12 12
-0.36344 0.113394 0.125684 15 12 13
-0.361069 0.113863 0.12726 15 10 11
-0.359478 0.114704 0.128271 13 9 10
-0.359018 0.11611 0.128458 12 9 10
-0.318734 0.105444 0.1569 22 15 9
-0.316425 0.105588 0.158463 21 14 9
-0.315491 0.106487 0.15902 21 14 14
-0.314295 0.107229 0.15977 24 13 13
-0.313637 0.108273 0.160125 23 15 13
-0.312981 0.109314 0.16048 25 19 11
-0.312591 0.110509 0.16064 36 16 17
-0.311937 0.111546 0.160994 58 33 28
-0.311547 0.11274 0.161153 68 44 45
-0.311157 0.113933 0.161313 74 42 41
-0.311292 0.11545 0.161085 81 56 51
-0.311956 0.117303 0.160466 101 104 84
-0.313701 0.119847 0.159048 120 130 103
-0.310134 0.133754 0.160239 78 63 57
-0.309736 0.134972 0.160402 85 61 59
-0.309338 0.13619 0.160565 89 66 62
-0.30894 0.137408 0.160728 85 69 59
-0.308542 0.138627 0.160891 62 45 46
-0.30788 0.139652 0.161251 72 53 46
-0.307482 0.140869 0.161414 87 45 53
-0.307084 0.142086 0.161576 73 42 34
-0.306686 0.143303 0.161739 61 41 28
-0.306288 0.14452 0.161902 54 36 31
-0.30563 0.145537 0.16226 48 29 28
-0.304714 0.146351 0.162813 37 21 23
-0.304317 0.147564 0.162975 27 20 21
-0.30315 0.14817 0.163718 26 23 21
-0.300728 0.147769 0.165406 29 23 20
-0.299092 0.147969 0.166505 28 26 23
-0.296986 0.147772 0.167959 29 29 23
-0.295634 0.148165 0.168847 29 26 22
-0.29477 0.148947 0.169366 37 28 26
-0.294148 0.149922 0.169703 47 38 34
-0.293765 0.151095 0.16986 56 46 50
-0.293382 0.152267 0.170017 76 59 70
-0.293473 0.153843 0.169814 88 71 90
-0.293089 0.155018 0.169971 72 68 92
-0.292705 0.156193 0.170128 66 54 57
-0.292321 0.157368 0.170285 83 71 66
-0.314358 0.190168 0.152317 100 88 72
-0.313926 0.191488 0.152493 80 68 58
-0.313495 0.192808 0.15267 65 57 49
-0.313064 0.194127 0.152846 59 51 46
-0.762652 0.691613 -0.198391 54 57 42
-0.758726 0.692845 -0.195822 57 60 54
-0.368247 0.104405 0.121463 50 47 39
-0.367779 0.105835 0.121654 88 71 59
-0.367312 0.107266 0.121845 98 80 64
-0.366452 0.108512 0.122323 74 46 32
-0.365985 0.109941 0.122514 38 19 14
-0.365519 0.111369 0.122704 19 12 11
-0.364276 0.112419 0.123464 15 12 11
-0.362656 0.113274 0.1245 15 13 11
-0.360671 0.113932 0.125805 15 11 10
-0.359082 0.114773 0.126821 13 10 11
-0.358622 0.116179 0.127009 12 10 11
-0.317842 0.105199 0.156055 20 13 10
-0.315815 0.105497 0.157422 19 11 12
-0.314884 0.106395 0.15798 22 12 13
-0.313957 0.107289 0.158536 25 10 12
-0.313035 0.108179 0.159089 25 15 12
-0.312644 0.109374 0.159249 24 18 11
-0.312254 0.110569 0.159408 26 17 15
-0.3116 0.111606 0.159763 31 17 16
-0.31121 0.1128 0.159923 38 20 20
-0.310297 0.113674 0.160471 43 22 23
-0.310168 0.115026 0.160436 60 30 29
-0.310301 0.116544 0.160207 81 53 45
-0.30991 0.117739 0.160367 95 85 69
-0.30979 0.133816 0.158984 68 61 55
-0.309392 0.135035 0.159147 62 53 51
-0.308994 0.136253 0.15931 61 49 47
-0.308596 0.137471 0.159473 65 52 44
-0.308197 0.13869 0.159636 48 30 25
-0.307799 0.139908 0.159799 60 38 39
-0.307401 0.141127 0.159962 67 51 55
-0.307003 0.142346 0.160124 63 46 37
-0.306342 0.143367 0.160486 65 45 33
-0.305944 0.144584 0.160648 67 54 42
-0.305286 0.145601 0.161008 64 46 39
-0.304371 0.146415 0.161564 46 29 26
-0.303974 0.147628 0.161726 27 20 19
-0.302808 0.148234 0.162473 24 22 20
-0.30064 0.148032 0.163982 27 21 18
-0.29925 0.14843 0.164901 29 24 19
-0.296895 0.148031 0.166557 28 29 21
-0.295301 0.148227 0.167636 29 26 22
-0.294438 0.149009 0.168158 32 28 26
-0.293817 0.149985 0.168497 40 34 32
-0.293196 0.150958 0.168834 50 40 50
-0.292814 0.152129 0.168991 109 76 83
-0.292904 0.153704 0.168786 221 149 121
-0.292757 0.155081 0.168761 228 176 137
-0.292373 0.156256 0.168918 137 109 93
-0.291988 0.157431 0.169075 82 68 59
-0.312667 0.187301 0.152133 106 94 81
-0.312239 0.188611 0.152308 125 116 95
-0.312388 0.190464 0.152036 108 93 80
-0.312539 0.192327 0.151763 77 62 58
-0.312109 0.193643 0.151939 60 52 44
-0.311678 0.19496 0.152115 55 50 46
-0.752432 0.687572 -0.195883 58 55 45
-0.74859 0.688807 -0.193353 63 64 58
-0.367844 0.104474 0.119987 51 45 40
-0.366984 0.105724 0.120467 90 72 59
-0.366517 0.107153 0.120658 99 83 65
-0.36605 0.108581 0.120849 74 54 35
-0.365194 0.109824 0.121327 38 20 16
-0.36434 0.111064 0.121804 21 11 11
-0.363104 0.112112 0.122563 17 13 8
-0.361493 0.112966 0.1236 16 14 9
-0.360273 0.114001 0.124349 16 12 10
-0.35906 0.115032 0.125094 14 9 10
-0.359728 0.117018 0.124447 12 9 10
-0.3175 0.10526 0.154806 19 11 12
-0.315476 0.105557 0.156181 19 13 13
-0.314545 0.106455 0.156743 18 14 11
-0.313354 0.107196 0.1575 17 16 11
-0.312698 0.108239 0.157857 20 15 12
-0.312307 0.109434 0.158017 23 15 13
-0.311917 0.110629 0.158177 22 16 15
-0.311263 0.111666 0.158533 23 16 16
-0.31035 0.112543 0.159085 27 17 17
-0.309961 0.113734 0.159244 31 19 17
-0.309312 0.114765 0.159598 42 24 20
-0.308923 0.115955 0.159757 60 33 27
-0.308793 0.117307 0.159721 76 48 41
-0.309182 0.118994 0.159295 87 62 59
-0.309313 0.135286 0.157691 57 52 52
-0.308915 0.136506 0.157854 50 45 40
-0.308516 0.137726 0.158017 56 53 41
-0.307853 0.138753 0.158381 40 25 24
-0.307455 0.139972 0.158543 50 36 30
-0.307056 0.141191 0.158706 67 50 44
-0.306658 0.142409 0.158869 70 50 37
-0.30626 0.143628 0.159032 66 56 39
-0.30534 0.144449 0.159593 69 52 44
-0.304683 0.145465 0.159954 64 43 37
-0.304028 0.146479 0.160314 45 28 23
-0.303631 0.147692 0.160476 26 18 16
-0.302721 0.1485 0.161032 22 22 18
-0.300552 0.148296 0.162554 24 23 19
-0.299161 0.148693 0.163481 28 24 16
-0.297292 0.148688 0.164777 28 27 19
-0.295208 0.148486 0.16624 31 26 20
-0.294106 0.149072 0.16695 33 28 23
-0.293248 0.14985 0.167472 39 32 29
-0.292865 0.151021 0.167629 45 35 43
-0.292482 0.152192 0.167785 76 54 69
-0.292335 0.153565 0.16776 161 109 107
-0.292424 0.155144 0.167551 186 154 152
-0.29204 0.156319 0.167708 141 114 138
-0.291656 0.157495 0.167865 93 66 66
-0.309867 0.183433 0.152834 69 64 50
-0.309444 0.184727 0.153007 91 85 78
-0.309022 0.18602 0.15318 140 140 119
-0.309727 0.188377 0.152472 148 143 118
-0.309302 0.189677 0.152646 102 93 77
-0.30916 0.191247 0.152599 68 86 64
-0.308734 0.192549 0.152773 58 54 44
-0.742444 0.683624 -0.193433 60 57 46
-0.736223 0.682194 -0.188988 64 63 59
-0.367049 0.104364 0.118802 57 46 41
-0.366582 0.105793 0.118993 89 65 56
-0.366115 0.107222 0.119184 99 80 65
-0.365258 0.108467 0.119664 81 65 43
-0.364792 0.109894 0.119855 48 23 15
-0.363939 0.111133 0.120334 26 10 9
-0.362703 0.112181 0.121097 18 12 10
-0.361475 0.113223 0.121856 17 12 12
-0.360253 0.11426 0.122612 17 13 14
-0.359791 0.115674 0.1228 17 13 12
-0.317159 0.10532 0.153557 19 13 14
-0.314867 0.105465 0.155143 18 12 12
-0.31394 0.106363 0.155706 17 13 12
-0.313016 0.107256 0.156266 17 14 12
-0.312625 0.108452 0.156426 20 15 12
-0.312234 0.109649 0.156586 22 15 13
-0.31158 0.110689 0.156945 21 16 15
-0.311189 0.111884 0.157105 23 17 14
-0.310536 0.11292 0.157462 25 18 15
-0.309625 0.113795 0.158016 27 20 17
-0.308976 0.114825 0.158371 30 22 18
-0.308587 0.116015 0.15853 40 26 20
-0.307941 0.117042 0.158885 57 32 28
-0.307296 0.118066 0.159239 65 34 35
-0.307421 0.119584 0.159007 81 55 48
-0.309902 0.137525 0.155576 49 41 37
-0.308701 0.138173 0.156353 52 35 28
-0.307772 0.139009 0.156923 45 37 29
-0.30711 0.140035 0.157288 46 37 30
-0.306712 0.141254 0.157451 56 39 32
-0.306314 0.142473 0.157614 56 37 34
-0.305915 0.143692 0.157777 74 55 46
-0.304996 0.144513 0.158341 78 53 43
-0.304081 0.14533 0.158903 61 36 29
-0.303685 0.146543 0.159065 38 23 19
-0.303031 0.147555 0.159425 24 17 14
-0.302379 0.148564 0.159785 21 20 16
-0.300213 0.148359 0.161318 24 24 20
-0.298823 0.148756 0.162251 25 25 16
-0.297201 0.14895 0.163365 26 23 19
-0.295356 0.148944 0.164654 27 23 18
-0.294012 0.149331 0.165556 29 23 20
-0.293153 0.15011 0.166082 34 25 25
-0.292534 0.151083 0.166423 39 30 32
-0.291916 0.152055 0.166763 50 41 44
-0.292476 0.154032 0.166184 92 71 66
-0.292091 0.155207 0.166341 122 103 102
-0.291707 0.156383 0.166498 117 91 103
-0.309501 0.183504 0.151503 70 65 62
-0.309078 0.184797 0.151676 94 87 79
-0.308655 0.18609 0.151849 144 136 112
-0.308233 0.187384 0.152022 156 139 118
-0.30809 0.188944 0.151974 112 77 84
-0.307666 0.190239 0.152147 116 85 90
-0.307243 0.191534 0.15232 83 57 61
-0.30682 0.19283 0.152493 68 55 47
-0.306396 0.194125 0.152666 65 59 46
-0.73268 0.679766 -0.191039 63 57 45
-0.728998 0.681003 -0.188584 65 63 63
-0.366646 0.104433 0.117328 53 44 36
-0.366179 0.105862 0.117519 71 58 48
-0.365712 0.107291 0.11771 90 77 63
-0.365245 0.10872 0.117901 86 70 55
-0.36439 0.109963 0.118383 52 33 27
-0.363923 0.11139 0.118574 27 14 12
-0.363071 0.112628 0.119054 20 12 11
-0.361838 0.113672 0.119821 18 12 12
-0.361374 0.115093 0.120011 17 12 13
-0.362828 0.117491 0.118756 19 11 14
-0.314261 0.105374 0.154107 19 13 10
-0.31307 0.10612 0.154873 18 14 12
-0.312679 0.107316 0.155033 19 13 11
-0.312288 0.108512 0.155193 19 14 11
-0.312161 0.109864 0.155152 20 16 14
-0.311769 0.111062 0.155312 21 16 15
-0.311114 0.112102 0.155672 23 17 11
-0.310461 0.113139 0.156032 25 18 11
-0.309549 0.114014 0.15659 25 18 15
-0.308899 0.115046 0.156947 25 18 17
-0.307994 0.115914 0.157501 27 19 17
-0.307348 0.11694 0.157856 37 25 21
-0.305941 0.117475 0.158795 46 22 25
-0.305301 0.118493 0.159147 62 25 22
-0.304916 0.119674 0.159305 64 40 33
-0.311991 0.139337 0.152429 43 29 30
-0.310228 0.139594 0.153644 40 25 20
-0.308221 0.139654 0.155051 35 28 24
-0.307292 0.140488 0.155625 36 23 20
-0.306367 0.141318 0.156195 38 24 20
-0.305969 0.142537 0.156358 36 22 24
-0.30505 0.14336 0.156926 64 38 36
-0.304393 0.144378 0.15729 75 45 35
-0.303738 0.145393 0.157653 55 33 24
-0.303084 0.146406 0.158015 31 19 16
-0.302688 0.147618 0.158177 22 17 13
-0.302037 0.148628 0.158538 20 18 15
-0.299873 0.148423 0.160081 24 20 20
-0.298485 0.148819 0.16102 26 22 21
-0.297109 0.149212 0.16195 28 21 22
-0.295263 0.149204 0.16325 28 23 21
-0.29368 0.149394 0.164346 29 25 22
-0.292349 0.149778 0.165245 31 26 25
-0.291967 0.150948 0.165402 35 30 28
-0.291584 0.152118 0.165558 46 39 34
-0.291671 0.15369 0.165345 58 46 43
-0.291759 0.15527 0.165131 82 58 57
-0.291375 0.156446 0.165288 88 64 57
-0.29099 0.157621 0.165445 76 62 56
-0.308712 0.184867 0.150345 113 96 84
-0.308289 0.186161 0.150518 146 128 102
-0.307866 0.187455 0.15069 163 137 109
-0.307443 0.188748 0.150863 108 72 80
-0.30702 0.190042 0.151036 122 94 89
-0.30632 0.191066 0.15143 108 91 86
-0.305621 0.192088 0.151824 83 67 61
-0.305199 0.193379 0.151996 68 58 48
-0.305329 0.195217 0.151727 65 59 50
-0.726767 0.674747 -0.191136 64 59 43
-0.725508 0.678598 -0.190622 63 59 46
-0.719526 0.677232 -0.18628 67 67 65
-0.366635 0.104681 0.115559 55 40 33
-0.366167 0.106112 0.11575 67 53 42
-0.3657 0.107543 0.115941 85 74 61
-0.365232 0.108974 0.116132 89 73 60
-0.364764 0.110405 0.116324 69 51 37
-0.364296 0.111836 0.116515 43 29 15
-0.363828 0.113267 0.116706 28 19 11
-0.36336 0.114698 0.116897 23 18 14
-0.362893 0.11613 0.117088 19 16 16
-0.365153 0.118952 0.115208 18 13 15
-0.313655 0.105283 0.153073 18 13 10
-0.312732 0.106179 0.153639 19 15 11
-0.312341 0.107376 0.153799 20 15 10
-0.312214 0.108726 0.153757 18 15 12
-0.311823 0.109924 0.153917 18 16 14
-0.311695 0.11128 0.153874 19 15 15
-0.311303 0.112479 0.154034 22 15 10
-0.310124 0.113199 0.1548 24 17 8
-0.309472 0.114234 0.15516 24 15 13
-0.308563 0.115106 0.155719 23 13 14
-0.307658 0.115974 0.156276 23 15 15
-0.307013 0.117 0.156632 23 16 16
-0.305607 0.117535 0.157577 27 13 14
-0.306237 0.119375 0.15695 34 16 13
-0.312187 0.139796 0.150723 32 17 21
-0.311234 0.140642 0.151316 29 22 17
-0.310286 0.141485 0.151906 26 18 17
-0.308005 0.141334 0.153538 26 14 13
-0.306547 0.141773 0.154529 24 15 12
-0.305624 0.1426 0.155102 21 15 13
-0.304706 0.143424 0.155673 38 18 15
-0.303791 0.144244 0.156241 49 24 20
-0.303138 0.145258 0.156605 40 24 23
-0.302742 0.14647 0.156766 29 19 19
-0.302345 0.147682 0.156928 23 17 14
-0.301694 0.148692 0.157291 17 17 14
-0.299533 0.148486 0.158844 19 18 15
-0.298147 0.148883 0.159788 24 21 17
-0.295315 0.148085 0.161875 27 21 20
-0.293731 0.148281 0.162979 28 22 20
-0.292873 0.149062 0.163511 29 23 20
-0.292018 0.14984 0.164041 31 24 23
-0.291401 0.150812 0.164382 32 29 25
-0.291019 0.151981 0.164539 44 37 30
-0.290871 0.15335 0.164509 50 43 38
-0.291191 0.155129 0.164108 63 38 36
-0.291042 0.156509 0.164078 68 51 42
-0.290657 0.157685 0.164235 66 60 52
-0.290508 0.159069 0.164205 63 59 55
-0.308345 0.184938 0.149013 119 112 99
-0.307923 0.186231 0.149186 142 134 113
-0.3075 0.187525 0.149359 169 150 118
-0.306798 0.188553 0.149755 121 99 96
-0.306376 0.189845 0.149928 105 94 84
-0.305954 0.191137 0.1501 124 131 105
-0.305255 0.192159 0.150495 107 103 87
-0.304833 0.19345 0.150668 78 57 55
-0.719691 0.673625 -0.190722 62 58 43
-0.716109 0.674868 -0.188304 62 60 49
-0.714864 0.678676 -0.187796 70 71 68
-0.366624 0.104929 0.113784 57 37 34
-0.366155 0.106362 0.113976 66 52 41
-0.365687 0.107795 0.114167 82 71 58
-0.365218 0.109228 0.114359 84 65 49
-0.36475 0.110662 0.11455 66 44 31
-0.365062 0.112475 0.114146 41 24 14
-0.364983 0.114105 0.114039 26 17 10
-0.364904 0.11574 0.113932 22 17 13
-0.365218 0.117577 0.113524 20 15 13
-0.367123 0.120238 0.111896 16 12 13
-0.372344 0.124641 0.107725 15 10 12
-0.312395 0.106239 0.152406 18 14 11
-0.312268 0.107588 0.152361 19 16 10
-0.311876 0.108786 0.152521 17 16 13
-0.311749 0.11014 0.152477 18 15 14
-0.311621 0.111497 0.152433 19 14 14
-0.311228 0.112698 0.152593 19 14 11
-0.31031 0.113579 0.153161 20 17 9
-0.309396 0.114455 0.153727 21 15 13
-0.308486 0.115327 0.15429 22 11 14
-0.307323 0.116034 0.15505 22 12 11
-0.306934 0.117223 0.155209 18 13 15
-0.312385 0.140256 0.149009 22 14 14
-0.311429 0.141104 0.149608 22 18 14
-0.310478 0.141948 0.150203 23 14 11
-0.309531 0.142788 0.150796 20 14 11
-0.307257 0.142626 0.152437 18 15 11
-0.305802 0.143059 0.153433 20 13 10
-0.304881 0.143883 0.154009 21 12 10
-0.303706 0.144505 0.154787 22 12 12
-0.303052 0.145521 0.155153 24 14 14
-0.302399 0.146534 0.155518 25 15 14
-0.302003 0.147746 0.15568 20 16 13
-0.299837 0.147548 0.157247 19 13 15
-0.298447 0.14795 0.1582 21 18 13
-0.296825 0.148149 0.159339 23 18 16
-0.29474 0.147951 0.160849 27 20 20
-0.293399 0.148343 0.161768 28 22 20
-0.292305 0.148928 0.162491 28 22 19
-0.291453 0.149706 0.163023 29 22 21
-0.290837 0.150677 0.163365 31 27 22
-0.290223 0.151646 0.163707 38 32 27
-0.290074 0.153012 0.163677 51 51 42
-0.290624 0.154989 0.163086 55 49 39
-0.290709 0.156572 0.162867 61 54 42
-0.290325 0.157748 0.163024 65 59 46
-0.290174 0.159132 0.162993 63 58 46
-0.28979 0.160309 0.16315 65 59 50
-0.307979 0.185008 0.147681 124 115 100
-0.307556 0.186302 0.147854 140 133 120
-0.307133 0.187596 0.148027 168 157 130
-0.306432 0.188624 0.148425 155 150 130
-0.30601 0.189916 0.148597 104 81 97
-0.715028 0.675082 -0.192222 60 58 43
-0.711477 0.676315 -0.189808 62 61 46
-0.707952 0.677539 -0.187411 71 74 71
-0.367006 0.105358 0.111703 56 38 35
-0.367325 0.107162 0.11129 64 49 41
-0.366853 0.108603 0.111482 82 69 55
-0.366777 0.110232 0.111372 79 59 39
-0.366305 0.111675 0.111564 51 27 20
-0.366228 0.113311 0.111453 28 12 11
-0.36615 0.114952 0.111342 19 12 11
-0.366469 0.116795 0.110925 17 13 11
-0.367188 0.118851 0.110198 17 12 9
-0.368317 0.121131 0.109153 15 11 10
-0.371925 0.124714 0.10619 12 9 11
-0.372269 0.126636 0.105747 15 9 10
-0.371781 0.128128 0.105946 18 11 13
-0.370879 0.129398 0.106466 28 23 21
-0.370392 0.130888 0.106665 37 31 25
-0.312194 0.107801 0.15092 18 12 8
-0.311802 0.109001 0.15108 16 11 11
-0.311153 0.112918 0.151148 18 15 13
-0.310497 0.11396 0.151515 18 15 12
-0.30958 0.114837 0.152086 20 13 13
-0.308667 0.115711 0.152654 20 11 13
-0.308017 0.116743 0.153017 19 14 10
-0.311625 0.141568 0.147891 19 14 9
-0.310671 0.142413 0.148492 20 13 9
-0.309721 0.143254 0.14909 19 12 10
-0.30744 0.143088 0.15075 19 13 9
-0.305457 0.143123 0.152174 20 13 9
-0.304536 0.143947 0.152753 20 12 10
-0.303362 0.144569 0.153535 22 11 12
-0.302452 0.145386 0.154107 30 16 13
-0.302056 0.146598 0.154269 36 24 13
-0.301405 0.147609 0.154634 23 17 12
-0.299496 0.147612 0.156008 22 13 11
-0.298108 0.148013 0.156967 21 15 10
-0.296488 0.148212 0.158113 22 16 13
-0.294406 0.148014 0.159633 25 18 18
-0.293066 0.148406 0.160557 27 21 19
-0.291973 0.148991 0.161285 26 22 18
-0.290888 0.149571 0.162007 24 22 20
-0.290274 0.150542 0.16235 28 25 21
-0.28943 0.151312 0.16288 31 30 26
-0.28928 0.152675 0.162849 54 41 40
-0.290292 0.155052 0.161878 57 42 38
-0.290376 0.156635 0.161656 56 45 36
-0.289992 0.157811 0.161813 58 50 40
-0.289841 0.159196 0.161781 61 54 44
-0.28969 0.160583 0.161748 65 61 48
-0.289305 0.161762 0.161906 85 82 71
-0.307189 0.186373 0.146522 140 118 106
-0.306766 0.187667 0.146695 149 132 122
-0.306343 0.188961 0.146868 188 162 145
-0.705846 0.671432 -0.189914 60 60 41
-0.704614 0.6752 -0.189411 60 60 52
-0.701139 0.67642 -0.187033 72 78 70
-0.36971 0.10853 0.107643 60 42 39
-0.369234 0.109986 0.107837 78 63 51
-0.368758 0.111441 0.108031 78 63 43
-0.368684 0.113091 0.107915 48 27 21
-0.368207 0.114549 0.108109 24 11 11
-0.368132 0.116205 0.107992 16 13 12
-0.368056 0.117866 0.107875 15 12 13
-0.368383 0.119736 0.107444 14 11 12
-0.369525 0.122034 0.106378 13 12 12
-0.371506 0.124787 0.104655 10 11 13
-0.371848 0.12671 0.104207 15 13 15
-0.371361 0.128202 0.104407 27 22 22
-0.370459 0.129472 0.104929 46 48 30
-0.36915 0.130515 0.105771 46 40 25
-0.368664 0.132 0.105969 23 10 10
-0.366958 0.132808 0.107123 18 10 10
-0.366474 0.134288 0.107321 20 10 9
-0.304072 0.142399 0.15175 20 13 11
-0.303159 0.143221 0.152327 18 13 10
-0.30225 0.14404 0.152902 19 12 10
-0.301092 0.144657 0.153678 26 14 10
-0.301458 0.146461 0.153225 36 19 10
-0.300303 0.147071 0.154 25 13 12
-0.299156 0.147675 0.154769 22 14 11
-0.29777 0.148076 0.155734 20 14 10
-0.296396 0.148474 0.156689 19 15 12
-0.294072 0.148076 0.158416 21 17 15
-0.292733 0.148468 0.159346 24 19 17
-0.292113 0.149447 0.159695 23 22 17
-0.291025 0.150027 0.160425 21 23 17
-0.289944 0.150604 0.161149 21 21 21
-0.2891 0.151374 0.161681 24 19 17
-0.289181 0.152937 0.16146 38 24 24
-0.28996 0.155115 0.16067 46 32 29
-0.290043 0.156699 0.160445 48 36 31
-0.289892 0.158082 0.160411 49 38 34
-0.289741 0.159468 0.160377 52 42 37
-0.289356 0.160647 0.160534 56 52 44
-0.288971 0.161826 0.160692 84 87 68
-0.288585 0.163005 0.160849 98 83 82
-0.27623 0.180058 0.168045 64 56 42
-0.699072 0.670361 -0.18952 61 53 48
-0.695642 0.67159 -0.187159 62 57 56
-0.694423 0.675318 -0.186661 72 78 74
-0.370106 0.108976 0.105511 50 42 35
-0.370033 0.110627 0.10539 69 57 44
-0.369555 0.112089 0.105586 78 66 49
-0.369078 0.113551 0.105781 53 33 30
-0.3686 0.115013 0.105976 28 13 16
-0.368928 0.116875 0.105539 19 13 12
-0.368449 0.118342 0.105735 17 12 12
-0.368373 0.120013 0.105614 16 11 14
-0.370335 0.122737 0.103893 15 13 15
-0.371915 0.125291 0.102469 18 17 17
-0.371843 0.127002 0.102341 32 25 23
-0.371771 0.128718 0.102213 44 38 31
-0.370452 0.129767 0.103066 48 42 33
-0.369552 0.131035 0.103591 50 43 29
-0.368245 0.132074 0.104436 27 11 12
-0.36654 0.132881 0.105597 21 8 6
-0.366057 0.134361 0.105794 20 11 7
-0.364369 0.135155 0.106944 17 13 10
-0.363489 0.1364 0.107457 14 14 13
-0.362215 0.13741 0.10828 16 13 11
-0.304245 0.142856 0.150077 20 14 14
-0.302815 0.143285 0.151076 19 14 12
-0.301907 0.144103 0.151654 19 13 10
-0.300498 0.144523 0.152639 23 13 10
-0.299853 0.145531 0.153005 29 12 8
-0.299209 0.146536 0.153369 24 11 12
-0.298318 0.14734 0.153936 21 14 13
-0.297431 0.14814 0.1545 18 14 13
-0.296058 0.148537 0.155461 17 14 14
-0.294217 0.148534 0.156807 19 15 15
-0.293351 0.14932 0.157357 22 16 14
-0.292016 0.149707 0.158292 23 16 12
-0.291396 0.150684 0.158642 21 19 12
-0.290311 0.15126 0.159375 25 18 13
-0.289232 0.151833 0.160103 28 20 17
-0.290011 0.154005 0.159305 31 22 21
-0.290094 0.155586 0.159077 38 26 27
-0.290178 0.157174 0.158848 45 34 32
-0.289793 0.158353 0.159006 49 37 34
-0.289407 0.159532 0.159163 44 32 33
-0.289022 0.160711 0.15932 42 36 35
-0.288404 0.161678 0.15967 69 80 61
-0.288251 0.163068 0.159635 103 104 84
-0.277729 0.178951 0.165651 134 112 115
-0.275854 0.178523 0.167067 85 75 73
-0.274426 0.178547 0.168108 65 57 49
-0.273635 0.179239 0.168613 64 58 46
-0.690224 0.666829 -0.187283 58 52 47
-0.689014 0.67053 -0.186789 59 57 56
-0.685655 0.671746 -0.184463 73 83 76
-0.370432 0.111081 0.103243 58 44 38
-0.369953 0.112548 0.103439 70 57 44
-0.368994 0.11548 0.10383 33 24 26
-0.368919 0.117148 0.103707 24 17 17
-0.368439 0.118616 0.103903 23 19 17
-0.368363 0.120291 0.103779 25 22 20
-0.37074 0.123233 0.101713 28 26 22
-0.37191 0.125581 0.1006 34 35 27
-0.372256 0.127515 0.100138 44 41 32
-0.369543 0.131333 0.101726 54 39 25
-0.368234 0.132373 0.102578 27 13 12
-0.366933 0.133407 0.103425 19 11 8
-0.365639 0.134435 0.104268 18 12 8
-0.363953 0.135229 0.105424 17 12 11
-0.362281 0.136016 0.106571 14 13 12
-0.361801 0.137483 0.106767 15 13 11
-0.361322 0.138951 0.106963 19 12 8
-0.362423 0.14136 0.105893 21 12 7
-0.335082 0.159746 0.124054 18 11 9
-0.333962 0.160634 0.124783 19 14 10
-0.299512 0.145594 0.151764 22 13 10
-0.298619 0.146401 0.152335 18 13 12
-0.297483 0.147006 0.153107 19 15 12
-0.297092 0.148203 0.153266 19 15 11
-0.295721 0.1486 0.154233 18 15 12
-0.294846 0.149392 0.154793 19 15 13
-0.293495 0.14978 0.155746 23 14 13
-0.292631 0.150564 0.156298 27 15 11
-0.292008 0.151545 0.156652 29 20 12
-0.291386 0.152523 0.157005 29 19 14
-0.290296 0.153095 0.157746 29 21 17
-0.290146 0.154473 0.157709 31 21 19
-0.290465 0.156265 0.157282 36 26 27
-0.290079 0.157445 0.157439 46 39 38
-0.289459 0.158417 0.157791 59 52 44
-0.289074 0.159595 0.157949 50 37 38
-0.288456 0.160564 0.1583 38 30 30
-0.288071 0.161741 0.158457 46 37 37
-0.287686 0.162919 0.158614 76 82 66
-0.274012 0.175448 0.16734 202 192 188
-0.273848 0.176805 0.167314 141 150 129
-0.273476 0.177942 0.167466 82 94 70
-0.272897 0.178856 0.167794 65 59 51
-0.272733 0.180217 0.16777 64 56 46
-0.681562 0.663372 -0.185095 56 51 46
-0.680365 0.667035 -0.184606 58 57 56
-0.677072 0.66825 -0.182312 76 87 80
-0.368985 0.115751 0.101995 42 37 30
-0.36891 0.117421 0.101868 39 36 28
-0.368429 0.118892 0.102065 38 36 28
-0.368759 0.120776 0.101614 39 36 29
-0.371147 0.123731 0.0995209 44 36 32
-0.371489 0.125654 0.0990574 47 37 32
-0.369534 0.131633 0.0998551 52 36 24
-0.368224 0.132673 0.100714 25 18 16
-0.36692 0.133707 0.101568 17 14 11
-0.365625 0.134736 0.102417 17 13 10
-0.363537 0.135302 0.103904 18 13 11
-0.362262 0.136318 0.104739 15 14 11
-0.361387 0.137557 0.105253 15 14 11
-0.360907 0.139024 0.105449 19 12 9
-0.359645 0.140025 0.106276 20 12 9
-0.358003 0.140787 0.107411 20 11 9
-0.335143 0.158435 0.122444 17 15 8
-0.334023 0.159327 0.123178 16 13 8
-0.332579 0.159969 0.124179 17 14 9
-0.331801 0.161096 0.124633 17 14 10
-0.330048 0.161482 0.125892 18 12 11
-0.298778 0.146862 0.150683 17 12 10
-0.297886 0.147666 0.151257 17 13 11
-0.296753 0.148266 0.152032 20 15 12
-0.295871 0.149063 0.152599 20 16 12
-0.294994 0.149855 0.153164 19 17 12
-0.294121 0.150644 0.153726 25 19 14
-0.293732 0.151834 0.153884 34 20 15
-0.293343 0.153023 0.154043 35 22 14
-0.292237 0.153599 0.154801 34 20 14
-0.290902 0.153968 0.155751 31 21 16
-0.290516 0.155148 0.155908 32 21 19
-0.29013 0.156328 0.156066 40 29 30
-0.289745 0.157508 0.156223 52 48 46
-0.289125 0.15848 0.156577 67 71 59
-0.288275 0.159241 0.157125 87 75 57
-0.28789 0.160417 0.157282 62 39 49
-0.287737 0.161805 0.157244 47 33 35
-0.287352 0.162983 0.157401 59 51 42
-0.286967 0.164161 0.157558 81 72 64
-0.274061 0.174376 0.166018 239 231 238
-0.273689 0.175512 0.16617 231 243 230
-0.273318 0.176648 0.166322 209 243 191
-0.272946 0.177784 0.166473 135 191 115
-0.272575 0.17892 0.166625 80 74 63
-0.272204 0.180056 0.166777 65 54 50
-0.272038 0.181418 0.166751 62 54 49
-0.675148 0.66239 -0.184748 53 53 45
-0.671897 0.663614 -0.182469 58 60 57
-0.668668 0.664829 -0.180207 77 85 83
-0.369113 0.131707 0.0983126 52 40 27
-0.368213 0.132974 0.0988444 23 22 22
-0.366908 0.134009 0.099705 17 15 13
-0.36561 0.135038 0.100561 17 13 11
-0.36352 0.135604 0.10206 17 14 11
-0.362243 0.13662 0.102902 16 14 11
-0.361367 0.137861 0.103419 16 14 10
-0.360493 0.139098 0.103934 18 12 8
-0.359232 0.140098 0.104766 18 12 10
-0.356823 0.140396 0.106534 18 12 11
-0.356347 0.141849 0.106728 19 12 8
-0.361203 0.157391 0.101375 18 18 16
-0.360313 0.158624 0.101904 22 19 16
-0.338951 0.159832 0.117734 36 28 21
-0.334752 0.158507 0.121019 21 21 14
-0.333301 0.159154 0.122032 16 16 10
-0.331861 0.159796 0.123036 16 14 10
-0.330108 0.160189 0.124303 17 13 11
-0.328054 0.160335 0.125822 18 13 11
-0.327292 0.161447 0.126268 19 13 12
-0.298043 0.14813 0.149603 18 12 12
-0.297401 0.149133 0.149971 21 13 13
-0.296023 0.149527 0.150958 22 15 13
-0.295143 0.150321 0.151527 20 16 13
-0.294267 0.151111 0.152094 26 21 14
-0.294119 0.152507 0.15205 35 22 18
-0.293729 0.1537 0.152209 36 23 16
-0.292857 0.154482 0.152774 37 22 14
-0.291513 0.154848 0.153738 34 22 15
-0.290417 0.155416 0.154494 32 25 21
-0.289796 0.156391 0.15485 42 35 35
-0.288943 0.157158 0.155402 68 53 51
-0.288326 0.158128 0.155756 66 39 40
-0.28771 0.159096 0.156109 67 68 57
-0.287096 0.160062 0.156461 82 60 67
-0.286712 0.161236 0.156618 74 62 57
-0.286328 0.16241 0.156774 62 61 48
-0.286633 0.164225 0.156345 62 55 56
-0.289045 0.168029 0.154121 78 67 79
-0.273738 0.174439 0.164849 237 221 227
-0.27316 0.175356 0.16518 240 244 224
-0.272995 0.176711 0.165152 228 255 209
-0.272624 0.177847 0.165304 217 250 213
-0.272253 0.178983 0.165455 139 168 130
-0.272087 0.180344 0.165428 86 89 74
-0.272128 0.181935 0.165221 63 55 51
-0.272169 0.183532 0.165013 61 57 51
-0.666793 0.659041 -0.182625 58 54 48
-0.665616 0.662641 -0.182145 62 61 58
-0.664439 0.666241 -0.181664 85 93 92
-0.368691 0.131781 0.0967697 53 45 32
-0.367792 0.133048 0.0973038 28 25 26
-0.366895 0.134311 0.0978363 18 14 13
-0.366001 0.135572 0.0983673 15 12 12
-0.363902 0.136136 0.0998839 16 12 11
-0.362223 0.136923 0.101059 16 12 10
-0.361346 0.138165 0.101579 17 11 8
-0.360471 0.139404 0.102098 17 11 6
-0.359208 0.140405 0.102936 16 11 7
-0.356412 0.140469 0.105034 15 11 10
-0.354795 0.141224 0.106166 17 10 10
-0.354322 0.142671 0.106359 15 11 8
-0.362075 0.156493 0.0989648 16 15 14
-0.360379 0.157204 0.100161 20 16 14
-0.358303 0.157647 0.101674 24 18 14
-0.355863 0.157824 0.103492 26 19 16
-0.340403 0.159499 0.114941 47 38 34
-0.33684 0.158664 0.117718 49 37 30
-0.333694 0.158091 0.12015 33 32 23
-0.332581 0.158981 0.120888 22 20 17
-0.331473 0.159867 0.121622 17 13 14
-0.329722 0.16026 0.122896 17 11 12
-0.327351 0.160164 0.124692 18 11 10
-0.325644 0.16055 0.125933 17 13 10
-0.325204 0.161897 0.126113 18 14 12
-0.297308 0.149398 0.148522 22 13 13
-0.296667 0.1504 0.148892 22 14 13
-0.295292 0.150789 0.149883 21 15 14
-0.294657 0.151783 0.150249 27 19 13
-0.294509 0.153184 0.150203 31 21 19
-0.293874 0.154176 0.150569 32 23 20
-0.293241 0.155165 0.150934 33 24 19
-0.291891 0.155529 0.151909 36 27 19
-0.290082 0.155479 0.153276 40 33 24
-0.288995 0.156043 0.154032 53 47 39
-0.288377 0.157015 0.154387 78 73 62
-0.287761 0.157984 0.154741 65 59 56
-0.286917 0.158744 0.155291 58 50 46
-0.286076 0.1595 0.155839 72 52 55
-0.285239 0.160253 0.156384 83 74 67
-0.284858 0.16142 0.15654 79 87 67
-0.285612 0.163647 0.155721 69 66 67
-0.2873 0.166771 0.154098 63 60 87
-0.288316 0.169288 0.15305 166 163 158
-0.288632 0.171159 0.1526 220 231 226
-0.273787 0.173366 0.163527 206 160 157
-0.273209 0.174284 0.16386 203 169 189
-0.272838 0.175419 0.164011 217 212 228
-0.272673 0.176774 0.163982 233 253 238
-0.272301 0.177911 0.164134 243 241 227
-0.272343 0.179494 0.163924 208 206 199
-0.272384 0.181084 0.163714 146 125 124
-0.273051 0.183369 0.162954 89 56 59
-0.273304 0.185213 0.162556 62 59 53
-0.27377 0.187306 0.161969 59 56 52
-0.66059 0.658107 -0.182302 59 53 46
-0.659421 0.661683 -0.181825 64 63 65
-0.656279 0.662889 -0.179596 91 94 99
-0.368681 0.132081 0.0948884 54 40 29
-0.36778 0.13335 0.095426 35 30 26
-0.366882 0.134615 0.095962 20 16 15
-0.365987 0.135876 0.0964965 16 13 14
-0.36469 0.136902 0.0973625 16 12 13
-0.363 0.13769 0.0985536 16 13 10
-0.361325 0.138471 0.0997345 17 14 7
-0.360449 0.139711 0.100257 18 13 5
-0.359184 0.140713 0.101101 18 12 7
-0.357927 0.141709 0.101941 16 12 10
-0.354386 0.141297 0.104673 15 11 11
-0.353913 0.142744 0.104866 14 11 9
-0.363615 0.15056 0.0966131 14 13 6
-0.362633 0.153565 0.0970139 15 13 10
-0.362142 0.155067 0.0972143 17 12 10
-0.360846 0.156045 0.0980847 18 12 13
-0.358764 0.156496 0.0996116 23 14 13
-0.35554 0.156165 0.102094 25 17 15
-0.354288 0.157122 0.102935 26 19 17
-0.353424 0.158333 0.103451 29 23 20
-0.340466 0.158161 0.113297 53 40 30
-0.338271 0.158327 0.114943 50 36 28
-0.335767 0.158244 0.116851 54 39 25
-0.333304 0.158163 0.118728 50 42 30
-0.332192 0.159053 0.11947 39 35 27
-0.331085 0.159938 0.120207 25 21 19
-0.329013 0.160088 0.121761 18 13 13
-0.326968 0.160235 0.123295 18 13 11
-0.325263 0.160621 0.124544 17 13 10
-0.322958 0.160524 0.126304 18 13 10
-0.32252 0.161861 0.126482 18 14 14
-0.296821 0.150871 0.14723 22 15 12
-0.295933 0.151667 0.147812 22 16 15
-0.294561 0.15205 0.148808 28 17 14
-0.294169 0.153248 0.148968 31 23 20
-0.293778 0.154446 0.149128 30 23 20
-0.293144 0.155436 0.149495 28 23 19
-0.291554 0.155593 0.150683 32 27 21
-0.289748 0.155543 0.152058 42 37 27
-0.288661 0.156107 0.152818 55 55 43
-0.288044 0.157078 0.153175 80 80 71
-0.287428 0.158048 0.15353 94 89 82
-0.286127 0.158393 0.154477 72 61 60
-0.284163 0.15812 0.155998 59 41 43
-0.283783 0.159281 0.156153 68 57 53
-0.283404 0.160442 0.156308 87 93 75
-0.28392 0.162441 0.155688 101 93 80
-0.285351 0.165315 0.154273 87 78 107
-0.287274 0.168685 0.152429 186 180 167
-0.288293 0.171224 0.151366 238 237 218
-0.273465 0.173429 0.162357 214 188 162
-0.272886 0.174347 0.162691 189 166 168
-0.27505 0.185996 0.159716 135 67 78
-0.27467 0.187158 0.159871 71 61 58
-0.274503 0.188559 0.159837 62 61 54
-0.275411 0.191173 0.158849 62 60 52
-0.652525 0.654861 -0.180242 58 54 49
-0.649439 0.656079 -0.178041 64 65 65
-0.646373 0.657288 -0.175855 87 91 97
-0.367769 0.133652 0.0935425 32 35 29
-0.366869 0.134919 0.094082 19 19 14
-0.36638 0.136414 0.0942814 17 14 12
-0.365078 0.137442 0.0951563 16 11 12
-0.363784 0.138463 0.0960262 17 11 10
-0.362098 0.139244 0.097223 18 11 7
-0.361217 0.140489 0.0977511 18 12 7
-0.359552 0.141257 0.0989338 18 11 8
-0.35829 0.142255 0.0997818 17 11 10
-0.357422 0.143484 0.100302 15 12 10
-0.35733 0.145191 0.100173 14 11 9
-0.3627 0.152138 0.0952632 17 12 8
-0.362208 0.153641 0.0954636 17 11 10
-0.361314 0.154883 0.0960019 21 11 10
-0.360824 0.156384 0.096202 21 12 12
-0.358343 0.156572 0.0980746 24 14 13
-0.355124 0.15624 0.100573 25 16 15
-0.353872 0.157198 0.101417 26 19 18
-0.353009 0.158409 0.101936 29 23 21
-0.352528 0.159878 0.102132 30 28 22
-0.340067 0.158234 0.111842 57 45 32
-0.338219 0.158647 0.113205 51 41 29
-0.337074 0.159552 0.113975 51 42 33
-0.334247 0.159213 0.116173 52 44 36
-0.332463 0.159614 0.11749 50 44 36
-0.331353 0.1605 0.118235 42 34 28
-0.328628 0.160159 0.120356 30 19 17
-0.326268 0.160064 0.122169 20 13 12
-0.324882 0.160691 0.123155 17 13 11
-0.322579 0.160594 0.124925 17 12 9
-0.320919 0.160973 0.12615 18 14 13
-0.320181 0.162064 0.126587 17 14 14
-0.296085 0.152141 0.146147 24 17 13
-0.294709 0.152523 0.147154 24 15 15
-0.29383 0.153312 0.147733 26 20 19
-0.293196 0.154303 0.148102 27 22 18
-0.292324 0.155085 0.148677 27 21 16
-0.29098 0.15545 0.149662 30 24 17
-0.289179 0.155401 0.151043 39 32 24
-0.288095 0.155965 0.151805 50 48 43
-0.28748 0.156936 0.152162 87 86 81
-0.286636 0.157698 0.152718 138 132 115
-0.284214 0.157022 0.154647 116 108 101
-0.283387 0.157775 0.155191 72 57 60
-0.283009 0.158933 0.155345 49 28 30
-0.28263 0.160092 0.1555 64 43 40
-0.282251 0.16125 0.155654 78 80 66
-0.283432 0.163882 0.154445 91 88 119
-0.286937 0.16875 0.151202 187 186 182
-0.275844 0.188896 0.157331 97 77 74
-0.275461 0.190068 0.157487 76 70 65
-0.640862 0.647145 -0.174823 57 56 49
-0.639724 0.650626 -0.174359 62 66 64
-0.636732 0.651837 -0.172215 94 101 101
-0.368169 0.134186 0.0913089 36 35 28
-0.366856 0.135224 0.0921963 22 19 14
-0.366367 0.136722 0.0923959 18 14 11
-0.365469 0.137984 0.0929371 16 12 11
-0.36417 0.139007 0.0938159 15 11 9
-0.363682 0.140499 0.0940147 16 12 8
-0.362793 0.141751 0.0945513 17 11 9
-0.360712 0.14228 0.0960896 18 10 10
-0.358655 0.142803 0.0976105 17 11 9
-0.358564 0.144516 0.0974777 16 14 8
-0.362766 0.150711 0.0935122 16 13 6
-0.361871 0.151958 0.0940534 18 10 10
-0.361381 0.153458 0.0942535 18 9 10
-0.36089 0.154959 0.0944536 23 12 12
-0.359202 0.155676 0.0956676 22 14 13
-0.357922 0.156647 0.0965374 22 17 14
-0.355481 0.156832 0.0983942 23 19 14
-0.354224 0.157791 0.0992475 26 20 17
-0.352975 0.158744 0.100096 29 24 21
-0.352113 0.159953 0.100616 31 30 24
-0.352013 0.161686 0.100488 32 30 28
-0.337822 0.15872 0.111758 52 46 30
-0.337363 0.160123 0.111945 50 43 34
-0.325886 0.160135 0.120774 27 17 19
-0.324188 0.160521 0.122034 19 12 13
-0.321894 0.160426 0.123811 16 12 10
-0.320239 0.160805 0.12504 17 14 13
-0.318601 0.161181 0.126256 16 14 15
-0.31787 0.162265 0.12669 18 15 13
-0.294369 0.152587 0.145916 22 15 16
-0.292767 0.152761 0.147128 23 18 19
-0.292376 0.153955 0.147287 26 20 17
-0.291031 0.154325 0.148278 28 21 15
-0.289934 0.154897 0.149055 31 23 15
-0.288379 0.155055 0.150233 34 25 19
-0.287531 0.155823 0.150794 40 33 37
-0.286687 0.156588 0.151353 90 85 86
-0.284489 0.156126 0.153099 168 174 145
-0.283215 0.156477 0.154038 185 192 157
-0.282615 0.157431 0.154386 135 108 104
-0.282237 0.158587 0.154541 77 26 42
-0.281859 0.159743 0.154695 50 42 35
-0.281481 0.160899 0.154849 68 67 56
-0.281544 0.162472 0.154615 84 83 111
-0.646674 0.650658 -0.18403 61 56 51
-0.636168 0.642866 -0.175026 59 55 48
-0.635038 0.646324 -0.174565 57 56 49
-0.633907 0.649782 -0.174104 67 74 69
-0.630954 0.650989 -0.171975 98 109 102
-0.367745 0.13426 0.0897583 39 35 28
-0.367254 0.135763 0.0899585 25 18 15
-0.366763 0.137265 0.0901588 20 14 10
-0.365862 0.13853 0.0907047 17 12 10
-0.364558 0.139555 0.0915925 14 12 9
-0.364069 0.141051 0.0917919 14 13 8
-0.362773 0.142065 0.092674 15 13 10
