ply
format ascii 1.0
element vertex 1210
property float x
property float y
property float z
property uchar diffuse_red
property uchar diffuse_green
property uchar diffuse_blue
end_header
-0.465208 -0.000409545 0.353565 255 88 66
-0.465074 0.00115673 0.353681 255 98 86
-0.464939 0.00272307 0.353796 255 159 128
-0.463677 0.00416986 0.353841 255 102 82
-0.462982 0.00566993 0.353922 255 86 67
-0.462848 0.00722963 0.354037 255 81 62
-0.462155 0.00872319 0.354117 255 76 56
-0.462021 0.0102808 0.354232 253 74 57
-0.363786 -0.0433191 0.343566 161 81 67
-0.364916 -0.042198 0.343711 215 81 68
-0.367304 -0.0410858 0.343919 248 88 70
-0.369098 -0.0399472 0.344099 255 98 74
-0.369953 -0.0387867 0.344233 255 101 74
-0.370493 -0.0376177 0.344352 255 97 72
-0.370713 -0.0364437 0.344455 255 91 69
-0.370934 -0.0352671 0.344559 255 87 63
-0.371478 -0.034085 0.344679 255 85 59
-0.465602 -0.00973265 0.351358 255 75 53
-0.464902 -0.00820836 0.351442 255 79 56
-0.464768 -0.00664457 0.351558 255 79 58
-0.464633 -0.0050807 0.351673 255 79 54
-0.464499 -0.00351679 0.351789 255 80 55
-0.464365 -0.00195278 0.351905 255 79 56
-0.464796 -0.000335601 0.352053 255 87 63
-0.464661 0.00123082 0.352169 255 93 83
-0.464527 0.00279728 0.352285 255 165 117
-0.463828 0.00430384 0.352367 255 110 87
-0.463132 0.00580602 0.35245 255 89 68
-0.462998 0.00736813 0.352565 255 80 58
-0.462303 0.00886382 0.352647 255 77 56
-0.461611 0.0103552 0.352729 255 75 56
-0.36086 -0.0443393 0.342253 173 81 64
-0.361664 -0.0432263 0.342378 217 84 66
-0.362778 -0.0421118 0.342517 247 89 70
-0.364515 -0.0409968 0.342685 255 94 72
-0.366587 -0.0398708 0.34287 255 97 72
-0.369008 -0.0387296 0.343073 255 96 69
-0.369544 -0.0375628 0.343189 255 88 65
-0.370083 -0.0363909 0.343305 255 83 60
-0.369982 -0.0352171 0.343392 255 83 58
-0.370523 -0.0340374 0.34351 255 82 55
-0.463926 -0.00817687 0.349903 255 79 57
-0.463792 -0.00661524 0.350018 255 76 56
-0.464222 -0.00500724 0.350164 255 80 56
-0.464087 -0.00344319 0.350279 255 80 57
-0.463953 -0.00187908 0.350395 255 80 55
-0.463819 -0.000314876 0.350511 255 86 60
-0.463685 0.00124937 0.350626 255 88 78
-0.464114 0.00287152 0.350773 255 157 104
-0.463416 0.00437809 0.350858 255 124 103
-0.46272 0.00588031 0.350942 255 93 71
-0.462586 0.00744255 0.351058 255 80 56
-0.461893 0.00893827 0.351142 255 78 55
-0.460645 0.0103612 0.351194 255 77 56
-0.359169 -0.0453767 0.341014 190 80 65
-0.359072 -0.0442489 0.341097 232 85 64
-0.359569 -0.0431346 0.341205 254 91 66
-0.360367 -0.0420212 0.341326 255 96 70
-0.361773 -0.0409094 0.341473 255 96 70
-0.364113 -0.0397955 0.34166 255 91 66
-0.366495 -0.0386622 0.34185 255 87 60
-0.369236 -0.0375099 0.342058 255 82 58
-0.369774 -0.0363378 0.342172 255 80 55
-0.369673 -0.0351639 0.342258 255 80 53
-0.463515 -0.0081038 0.348395 255 76 53
-0.463381 -0.00654202 0.348511 255 76 55
-0.463247 -0.00498017 0.348626 255 78 56
-0.462553 -0.00346676 0.348714 255 75 56
-0.462419 -0.00190706 0.348829 255 81 59
-0.462285 -0.000347287 0.348944 255 86 59
-0.462711 0.00126788 0.349088 255 83 71
-0.462577 0.00283007 0.349203 255 137 97
-0.462443 0.00439231 0.349319 255 145 124
-0.462309 0.00595462 0.349434 255 94 72
-0.461616 0.00745257 0.349521 255 78 58
-0.460924 0.00894625 0.349607 255 72 56
-0.460235 0.0104356 0.349693 255 71 53
-0.458445 0.0117801 0.34972 255 71 52
-0.358378 -0.0464337 0.339819 199 74 65
-0.357987 -0.0452993 0.339892 243 86 67
-0.35789 -0.0441751 0.339975 255 94 68
-0.357794 -0.0430507 0.340058 255 93 67
-0.357991 -0.0419318 0.340152 255 90 65
-0.359672 -0.040832 0.340303 255 86 63
-0.361375 -0.0397182 0.340456 255 81 58
-0.365877 -0.0386079 0.340718 255 79 53
-0.463104 -0.00803071 0.346887 255 74 52
-0.462409 -0.00651285 0.346977 255 73 50
-0.461717 -0.00499935 0.347067 255 77 54
-0.461583 -0.00344185 0.347182 255 73 54
-0.46145 -0.00188427 0.347297 255 78 57
-0.461316 -0.000326626 0.347412 255 87 61
-0.461182 0.00123109 0.347528 255 82 64
-0.461049 0.00278886 0.347643 255 109 94
-0.460915 0.0043467 0.347758 255 157 140
-0.460781 0.00590461 0.347873 255 96 74
-0.460648 0.00746257 0.347988 255 78 59
-0.460514 0.00902061 0.348103 255 71 54
-0.459272 0.0104416 0.348165 255 70 53
-0.457488 0.0117842 0.348198 255 70 53
-0.358768 -0.0475318 0.338668 214 75 61
-0.356908 -0.0463433 0.338694 249 87 67
-0.35652 -0.0452136 0.338767 255 96 71
-0.356133 -0.0440863 0.33884 255 95 68
-0.356037 -0.0429677 0.338923 255 91 63
-0.356232 -0.0418545 0.339015 255 84 61
-0.357598 -0.0407557 0.339148 255 76 59
-0.360774 -0.0396637 0.339344 255 75 54
-0.462693 -0.0079576 0.345379 255 75 53
-0.46144 -0.00648377 0.345448 255 75 50
-0.461307 -0.00492619 0.345563 255 77 53
-0.461173 -0.00336855 0.345678 255 77 55
-0.460483 -0.00186152 0.34577 255 78 56
-0.46035 -0.000306014 0.345885 255 83 58
-0.460772 0.00130478 0.346024 255 81 61
-0.460638 0.0028627 0.346139 255 91 90
-0.460505 0.00442068 0.346254 255 148 136
-0.460371 0.00597871 0.346369 255 92 73
-0.460237 0.00753682 0.346484 255 75 57
-0.458996 0.00896214 0.34655 255 69 50
-0.458311 0.0104475 0.34664 255 70 52
-0.456534 0.0117883 0.346681 255 70 53
-0.454773 0.0131177 0.346721 251 70 55
-0.356321 -0.0462834 0.337602 255 96 73
-0.355934 -0.0451549 0.337676 255 96 72
-0.355548 -0.0440287 0.337751 255 91 67
-0.355452 -0.0429112 0.337833 255 83 59
-0.355356 -0.0417937 0.337916 255 78 53
-0.356132 -0.0406885 0.338025 255 75 52
-0.462281 -0.00788449 0.343871 255 74 54
-0.46103 -0.00641073 0.343944 255 77 52
-0.460896 -0.004853 0.344059 255 77 54
-0.459653 -0.00339218 0.344132 255 78 56
-0.45952 -0.00183885 0.344247 255 76 55
-0.459386 -0.000285454 0.344362 255 83 57
-0.459807 0.00132318 0.344498 255 82 63
-0.459673 0.00287898 0.344613 255 90 79
-0.45954 0.00443482 0.344728 255 121 99
-0.459406 0.00599074 0.344843 255 85 64
-0.459273 0.00754672 0.344958 255 73 56
-0.458036 0.00897007 0.345028 255 69 50
-0.456806 0.0103853 0.345098 255 70 52
-0.45504 0.0117227 0.345144 255 70 53
-0.45329 0.0130486 0.345191 254 70 52
-0.356026 -0.0462336 0.33652 255 92 68
-0.35564 -0.045105 0.336595 255 87 65
-0.355254 -0.0439788 0.336671 255 82 59
-0.355158 -0.0428612 0.336753 255 80 54
-0.355062 -0.0417436 0.336836 255 79 54
-0.46243 -0.00776913 0.342381 255 72 53
-0.46062 -0.00633767 0.34244 255 77 52
-0.459931 -0.00482622 0.342536 255 77 55
-0.459244 -0.00331907 0.342632 255 76 55
-0.458559 -0.00181622 0.342728 255 74 55
-0.458426 -0.000264927 0.342842 255 85 59
-0.458293 0.00128642 0.342957 255 83 64
-0.458711 0.00289519 0.343091 255 90 64
-0.45913 0.00450871 0.343226 255 91 64
-0.458444 0.00600273 0.343321 255 79 55
-0.45776 0.00749247 0.343415 255 74 55
-0.457078 0.00897799 0.34351 255 70 52
-0.455853 0.0103913 0.343584 255 70 52
-0.454094 0.0117269 0.343637 255 71 51
-0.452886 0.0131223 0.34371 255 70 50
-0.452219 0.014583 0.343803 244 69 52
-0.355635 -0.0450638 0.33552 255 81 58
-0.355539 -0.0439439 0.335603 255 81 56
-0.355733 -0.0428302 0.335692 255 79 54
-0.462018 -0.00769587 0.34087 255 73 50
-0.460209 -0.00626461 0.340935 255 78 49
-0.459521 -0.00475312 0.341034 255 77 53
-0.458835 -0.00324593 0.341132 255 76 53
-0.45815 -0.00174307 0.34123 255 75 54
-0.457468 -0.00024447 0.341327 255 81 57
-0.457335 0.00130477 0.341442 255 81 61
-0.457202 0.00285409 0.341556 255 78 55
-0.457618 0.00446302 0.341688 255 74 62
-0.457484 0.0060147 0.341802 255 74 54
-0.456803 0.00750242 0.341899 255 73 54
-0.455578 0.00892003 0.341978 255 71 54
-0.453821 0.010262 0.342038 255 70 51
-0.452614 0.0116617 0.342116 255 70 50
-0.451947 0.0131246 0.342211 255 69 50
-0.451282 0.0145834 0.342306 249 68 51
-0.457741 -0.00166991 0.339731 255 76 52
-0.45706 -0.000171272 0.339831 255 75 48
-0.456927 0.00137812 0.339945 255 78 57
-0.456794 0.00292755 0.34006 255 70 50
-0.456661 0.00447706 0.340174 255 72 53
-0.456528 0.00602664 0.340289 255 72 52
-0.455304 0.00744857 0.340372 255 72 53
-0.452473 0.00866665 0.340408 255 73 54
-0.451806 0.0101338 0.340505 255 70 51
-0.451141 0.0115969 0.340603 255 68 49
-0.450479 0.0130559 0.3407 255 68 49
-0.449818 0.0145108 0.340797 254 68 51
-0.449687 0.0160365 0.340909 233 70 54
-0.456252 0.00455067 0.338678 255 69 51
-0.455573 0.00603857 0.338779 255 73 49
-0.4522 0.00720561 0.338813 255 70 50
-0.450469 0.00854557 0.338886 255 72 52
-0.450338 0.0100734 0.338999 255 71 51
-0.449678 0.0115325 0.339098 255 70 52
-0.449019 0.0129876 0.339197 255 67 50
-0.448888 0.0145112 0.33931 255 66 49
-0.448757 0.016035 0.339422 240 68 52
-0.453948 0.00753211 0.337376 255 74 48
-0.450067 0.00861854 0.337411 255 71 48
-0.449406 0.0100798 0.337512 255 71 50
-0.448222 0.0114685 0.337602 255 69 51
-0.447567 0.0129196 0.337703 255 65 49
-0.447437 0.0144391 0.337815 255 64 48
-0.447306 0.0159587 0.337927 241 65 51
-0.447821 0.0115414 0.336132 255 68 51
-0.446123 0.0128521 0.336217 255 66 49
-0.445474 0.0142954 0.336319 255 66 48
-0.445344 0.0158086 0.33643 242 66 50
-0.445854 0.0114095 0.334641 255 70 49
-0.442633 0.0125075 0.33471 255 67 49
-0.442504 0.0140103 0.33482 255 65 49
-0.442375 0.0155131 0.334931 244 64 51
-0.439201 0.0121687 0.333227 255 67 49
-0.439073 0.0136591 0.333337 255 64 49
-0.439951 0.015294 0.333458 244 62 50
-0.438808 0.0122403 0.331788 255 67 48
-0.43818 0.0136608 0.331894 255 65 48
-0.438552 0.0152213 0.332007 245 63 48
-0.437915 0.0122439 0.330347 255 67 48
-0.437787 0.0137324 0.330456 255 66 47
-0.43766 0.015221 0.330566 246 64 47
-0.4364 0.0136642 0.32902 255 65 47
-0.436273 0.0151488 0.329129 247 62 48
-0.327945 -0.0560155 0.324249 255 72 64
-0.328571 -0.0550523 0.324309 255 90 75
-0.328722 -0.0540506 0.324379 255 100 82
-0.435881 0.0152204 0.327695 249 61 47
-0.32774 -0.0539568 0.323411 254 68 59
-0.328127 -0.0529712 0.323474 255 80 67
-0.368879 -0.00780259 0.325916 255 66 44
-0.36845 -0.00663331 0.326009 255 68 45
-0.368347 -0.00543157 0.326097 255 63 44
-0.368244 -0.00422979 0.326186 255 61 42
-0.326825 -0.0518507 0.32259 255 68 53
-0.326738 -0.0508361 0.322664 255 76 58
-0.326651 -0.0498214 0.322739 255 83 64
-0.326564 -0.0488067 0.322814 255 91 70
-0.367265 -0.00787515 0.324775 255 66 44
-0.367485 -0.00664378 0.324858 255 63 41
-0.36803 -0.00537454 0.324935 255 66 42
-0.367927 -0.00417265 0.325024 255 62 41
-0.367824 -0.0029707 0.325112 255 65 42
-0.367721 -0.0017687 0.325201 255 68 45
-0.367293 -0.000607119 0.325294 255 68 44
-0.326 -0.0507648 0.321698 253 62 44
-0.325913 -0.049752 0.321772 255 74 58
-0.325592 -0.0487278 0.321854 255 91 72
-0.325505 -0.0477158 0.321928 255 104 84
-0.325652 -0.0467132 0.321996 255 103 87
-0.366087 -0.00910884 0.323549 255 66 43
-0.365984 -0.00791501 0.323637 255 64 41
-0.366846 -0.00662062 0.323705 255 65 43
-0.367389 -0.00535263 0.32378 255 65 44
-0.36761 -0.00411548 0.323862 255 63 41
-0.367507 -0.00291344 0.32395 255 62 40
-0.36708 -0.00175053 0.324045 255 62 41
-0.366331 -0.000630508 0.324146 255 66 43
-0.366551 0.000609362 0.324228 255 68 44
-0.324946 -0.0496706 0.320817 250 56 44
-0.324859 -0.0486605 0.320891 255 73 59
-0.325005 -0.0476607 0.320957 255 102 82
-0.325152 -0.0466589 0.321023 255 122 104
-0.325298 -0.0456552 0.32109 255 126 102
-0.363233 -0.0092967 0.322458 255 61 41
-0.363131 -0.00811331 0.322545 255 62 41
-0.364928 -0.00673133 0.322586 255 64 40
-0.366427 -0.00536583 0.322635 255 61 42
-0.366969 -0.00409488 0.322708 255 64 41
-0.366866 -0.00289408 0.322796 255 61 41
-0.366763 -0.00169321 0.322884 255 61 41
-0.366015 -0.000573212 0.322987 255 65 43
-0.365912 0.000625062 0.323075 255 67 45
-0.324593 -0.0486158 0.319913 252 50 38
-0.324739 -0.0476159 0.319978 255 74 57
-0.324885 -0.046614 0.320044 255 105 90
-0.325031 -0.0456101 0.320109 255 132 116
-0.325178 -0.0446043 0.320175 255 136 103
-0.363022 -0.0104243 0.321227 255 59 38
-0.362607 -0.00927112 0.321323 255 59 39
-0.362505 -0.00808892 0.32141 255 58 39
-0.362717 -0.00687378 0.321488 255 59 39
-0.365469 -0.00537896 0.321495 255 62 42
-0.366008 -0.00411077 0.321565 255 65 41
-0.366227 -0.00287473 0.321644 255 63 42
-0.366124 -0.00167512 0.321732 255 62 40
-0.365699 -0.000515929 0.321829 255 64 41
-0.365596 0.000682456 0.321917 255 65 40
-0.365493 0.0018809 0.322005 255 67 42
-0.324705 -0.0475813 0.31899 253 50 31
-0.324851 -0.0465783 0.319054 255 71 53
-0.324997 -0.0455734 0.319119 255 95 84
-0.325144 -0.0445665 0.319183 255 129 106
-0.325057 -0.0435512 0.319258 255 126 106
-0.364709 -0.0113843 0.319931 255 61 38
-0.362397 -0.0103975 0.320093 255 61 37
-0.361982 -0.00924558 0.32019 255 59 37
-0.361881 -0.00806457 0.320277 255 58 37
-0.362092 -0.00685064 0.320354 255 58 39
-0.36388 -0.00546154 0.32038 255 59 41
-0.365051 -0.00412658 0.320426 255 62 39
-0.365589 -0.00285545 0.320494 255 60 41
-0.365486 -0.00165706 0.320582 255 64 40
-0.365063 -0.000499072 0.32068 255 61 40
-0.36496 0.000698088 0.320768 255 62 40
-0.364857 0.00189529 0.320856 255 65 42
-0.365074 0.00313701 0.320935 255 66 44
-0.324817 -0.0465426 0.318062 255 51 33
-0.324964 -0.0455366 0.318126 255 68 52
-0.324876 -0.0445212 0.318201 255 92 81
-0.324789 -0.0435059 0.318275 255 120 100
-0.324702 -0.0424905 0.31835 255 155 121
-0.366096 -0.0123845 0.318631 255 58 38
-0.364395 -0.0113282 0.318779 255 57 36
-0.362085 -0.0103418 0.318949 255 61 37
-0.361983 -0.00915946 0.319036 255 59 36
-0.361881 -0.00797705 0.319123 255 56 36
-0.36178 -0.0067946 0.31921 255 57 38
-0.36325 -0.00543973 0.31924 255 57 38
-0.364098 -0.00414231 0.319293 255 60 38
-0.364633 -0.00287393 0.319358 255 60 38
-0.36453 -0.00167811 0.319446 255 62 39
-0.364109 -0.000522576 0.319545 255 59 39
-0.364644 0.000755448 0.319611 255 58 39
-0.364222 0.00190967 0.31971 255 63 41
-0.364438 0.00315012 0.319787 255 64 43
-0.324696 -0.0454914 0.317143 254 48 34
-0.324609 -0.044476 0.317218 255 71 52
-0.324521 -0.0434605 0.317292 255 95 90
-0.324434 -0.042445 0.317367 255 156 122
-0.36578 -0.0123282 0.317472 255 57 36
-0.364398 -0.0112438 0.317613 255 57 36
-0.363344 -0.0101396 0.317741 255 60 38
-0.361671 -0.00910361 0.317893 255 58 35
-0.361569 -0.00792111 0.31798 255 55 36
-0.362094 -0.00667232 0.318041 255 56 38
-0.362936 -0.00538326 0.31809 255 57 37
-0.363783 -0.00408556 0.318139 255 58 38
-0.363999 -0.00285468 0.318214 255 58 37
-0.363896 -0.00166009 0.318302 255 60 38
-0.363793 -0.000465429 0.31839 255 58 38
-0.363691 0.000729271 0.318478 255 56 38
-0.363906 0.00196707 0.318553 255 62 40
-0.364122 0.00320769 0.318629 255 66 44
-0.324341 -0.0444307 0.316235 253 49 33
-0.324253 -0.0434152 0.316309 255 72 57
-0.324166 -0.0423996 0.316384 255 108 98
-0.324079 -0.041384 0.316458 255 183 139
-0.365041 -0.0111022 0.316416 255 58 37
-0.363664 -0.0100244 0.316562 255 57 38
-0.362929 -0.00889441 0.316678 255 55 36
-0.362197 -0.00776943 0.316793 255 56 35
-0.362409 -0.00654949 0.316867 255 55 35
-0.363571 -0.00522207 0.316898 255 56 38
-0.363786 -0.0039924 0.316971 255 53 38
-0.363683 -0.00279775 0.317059 255 54 37
-0.363263 -0.0016421 0.317161 255 59 38
-0.363161 -0.000448667 0.317248 255 56 37
-0.363058 0.000744816 0.317336 255 56 37
-0.363909 0.0020677 0.317383 255 60 39
-0.363806 0.00326527 0.317471 255 66 43
-0.364022 0.00450888 0.317545 255 69 45
-0.323985 -0.0433698 0.315326 253 51 34
-0.323898 -0.0423541 0.315401 255 75 60
-0.323578 -0.0413341 0.315489 255 118 102
-0.364087 -0.011103 0.315289 255 56 37
-0.363349 -0.00996815 0.315409 255 54 37
-0.363247 -0.0087763 0.315496 255 53 35
-0.362828 -0.00761672 0.315599 255 54 34
-0.362726 -0.00642609 0.315687 255 55 34
-0.363256 -0.0051654 0.315743 255 55 37
-0.363471 -0.00393557 0.315816 255 54 36
-0.363368 -0.00274082 0.315903 255 55 36
-0.362948 -0.00158511 0.316006 255 56 37
-0.362846 -0.000391573 0.316094 255 54 36
-0.36306 0.000843766 0.316167 255 56 37
-0.363593 0.00212519 0.316225 255 59 40
-0.36349 0.00332287 0.316313 255 65 44
-0.363387 0.00452058 0.316401 255 70 49
-0.393983 0.0143216 0.315356 255 82 61
-0.323398 -0.0423034 0.314432 252 51 33
-0.32331 -0.0412886 0.314506 255 73 60
-0.323455 -0.040277 0.314566 255 121 99
-0.323368 -0.0392611 0.314641 255 134 116
-0.363351 -0.00988215 0.314239 255 53 36
-0.362932 -0.00872 0.314343 255 52 36
-0.36283 -0.00752799 0.314431 255 53 34
-0.362727 -0.00633594 0.314518 255 56 35
-0.362941 -0.00510872 0.314589 255 55 36
-0.363155 -0.00387872 0.31466 255 58 37
-0.363053 -0.00268385 0.314748 255 55 35
-0.362633 -0.00152812 0.314852 255 56 39
-0.362531 -0.000334472 0.314939 255 57 40
-0.362745 0.000901041 0.315011 255 54 36
-0.363277 0.00218268 0.315066 255 62 43
-0.363174 0.00338047 0.315154 255 71 52
-0.363071 0.0045783 0.315242 255 93 66
-0.392079 0.0141345 0.314148 255 77 54
-0.391195 0.0153282 0.314283 255 81 63
-0.323043 -0.041243 0.313523 253 50 31
-0.322955 -0.0402281 0.313598 255 70 55
-0.3231 -0.0392154 0.313657 255 87 78
-0.323013 -0.0381994 0.313732 255 89 78
-0.363036 -0.00982587 0.313084 255 54 34
-0.362302 -0.00869481 0.313208 255 51 36
-0.362515 -0.00747157 0.313277 255 55 37
-0.363045 -0.00621164 0.313329 255 55 37
-0.362943 -0.00501677 0.313416 255 57 38
-0.36284 -0.00382185 0.313504 255 55 35
-0.362737 -0.00262689 0.313592 255 54 36
-0.362635 -0.00143187 0.313679 255 59 42
-0.362532 -0.000236802 0.313767 255 59 41
-0.362746 0.00100029 0.313837 255 57 37
-0.362961 0.0022402 0.313908 255 64 46
-0.362858 0.00343809 0.313996 255 75 65
-0.362755 0.00463602 0.314084 255 141 98
-0.390847 0.0153923 0.313007 255 74 54
-0.39035 0.0166456 0.313124 255 78 63
-0.322687 -0.0401825 0.312615 253 52 31
-0.3226 -0.0391673 0.312689 255 69 50
-0.322513 -0.0381522 0.312764 255 79 62
-0.322657 -0.0371374 0.312823 255 80 65
-0.32257 -0.0361212 0.312897 255 74 60
-0.362721 -0.00976959 0.311929 255 58 36
-0.361988 -0.00863854 0.312056 255 57 36
-0.3622 -0.00741513 0.312124 255 59 38
-0.36273 -0.00615498 0.312173 255 56 38
-0.362627 -0.00496 0.31226 255 54 37
-0.362525 -0.00376499 0.312348 255 58 35
-0.362422 -0.00256992 0.312436 255 55 37
-0.362636 -0.0013354 0.312504 255 56 41
-0.36285 -9.81096e-05 0.312573 255 53 38
-0.362747 0.00109977 0.312661 255 57 38
-0.362962 0.00234128 0.31273 255 64 46
-0.362859 0.00354061 0.312818 255 73 67
-0.362756 0.00474 0.312906 255 116 108
-0.389621 0.0166444 0.311872 255 75 52
-0.389507 0.0179601 0.311969 255 77 60
-0.322332 -0.0391216 0.311706 253 53 32
-0.322245 -0.0381064 0.311781 255 68 50
-0.322389 -0.0370915 0.311839 255 74 57
-0.322302 -0.0360752 0.311913 255 72 54
-0.322214 -0.0350589 0.311988 255 69 50
-0.362091 -0.00974328 0.310795 255 58 38
-0.361673 -0.00858227 0.310903 255 57 35
-0.361886 -0.0073587 0.31097 255 57 38
-0.362415 -0.0060983 0.311016 255 56 37
-0.362629 -0.00486777 0.311083 255 54 36
-0.362526 -0.00367131 0.311171 255 57 37
-0.362423 -0.00247482 0.311259 255 56 36
-0.362637 -0.00123872 0.311326 255 57 40
-0.362852 1.79975e-07 0.311394 255 57 40
-0.362749 0.00119951 0.311482 255 55 39
-0.362646 0.00239888 0.31157 255 59 42
-0.362542 0.00359832 0.311658 255 63 47
-0.362439 0.0047978 0.311746 255 75 60
-0.38916 0.0180243 0.310696 255 72 53
-0.388667 0.0192716 0.310816 255 78 58
-0.322208 -0.0380618 0.31078 253 53 35
-0.322121 -0.0370455 0.310854 255 67 45
-0.322033 -0.0360291 0.310929 255 71 49
-0.321946 -0.0350127 0.311003 255 67 47
-0.32209 -0.0339937 0.31106 255 66 45
-0.322699 -0.0329655 0.311082 255 65 44
-0.325196 -0.0318944 0.310962 255 63 42
-0.361776 -0.00968705 0.309641 255 56 41
-0.361673 -0.00849467 0.309729 255 60 37
-0.361886 -0.00726954 0.309794 255 57 36
-0.362416 -0.00600744 0.309838 255 55 37
-0.362313 -0.00481093 0.309926 255 55 38
-0.36221 -0.00361438 0.310013 255 55 38
-0.362107 -0.00241775 0.310101 255 50 38
-0.362321 -0.0011815 0.310167 255 57 40
-0.362535 5.75594e-05 0.310234 255 55 40
-0.362432 0.001257 0.310321 255 52 39
-0.362329 0.00245648 0.310409 255 55 38
-0.362226 0.00365601 0.310497 255 56 43
-0.388207 0.0206504 0.309641 255 80 58
-0.321852 -0.0369996 0.30987 254 57 38
-0.321765 -0.0359831 0.309945 255 63 46
-0.321909 -0.0349649 0.310001 255 66 46
-0.322053 -0.0339448 0.310057 255 66 42
-0.322429 -0.032919 0.310094 255 64 43
-0.323509 -0.0318754 0.310076 255 65 44
-0.324836 -0.030816 0.310039 255 64 40
-0.325222 -0.0297713 0.310078 255 61 36
-0.325371 -0.0287301 0.310135 255 59 35
-0.325282 -0.0276957 0.31021 255 58 36
-0.325193 -0.0266612 0.310286 255 54 36
-0.325343 -0.025616 0.310344 255 54 38
-0.361147 -0.00966085 0.308511 255 59 39
-0.361044 -0.0084697 0.308598 255 56 37
-0.361571 -0.00721302 0.308639 255 57 37
-0.3621 -0.00595068 0.30868 255 56 39
-0.361997 -0.00475408 0.308768 255 55 39
-0.361894 -0.00355742 0.308855 255 55 38
-0.361791 -0.0023607 0.308943 255 55 37
-0.362004 -0.00112427 0.309008 255 54 39
-0.362218 0.000114963 0.309073 255 55 40
-0.362115 0.00131452 0.309161 255 55 39
-0.362012 0.00251411 0.309249 255 54 37
-0.361909 0.00371373 0.309337 255 58 43
-0.387746 0.0220294 0.308465 255 78 53
-0.321959 -0.0359355 0.308921 254 55 39
-0.322103 -0.0349153 0.308976 255 63 45
-0.32248 -0.0338903 0.309012 255 64 42
-0.322625 -0.0328651 0.309067 255 62 39
-0.323472 -0.0318239 0.309064 255 60 39
-0.324327 -0.0307746 0.30906 255 58 39
-0.324949 -0.0297239 0.309077 255 58 36
-0.32486 -0.0286904 0.309153 255 57 36
-0.325009 -0.0276481 0.309209 255 56 36
-0.32492 -0.0266136 0.309285 255 58 37
-0.325069 -0.0255682 0.309341 255 55 38
-0.32498 -0.0245325 0.309417 255 53 37
-0.32513 -0.0234841 0.309473 255 52 36
-0.360206 -0.0096647 0.307407 255 56 39
-0.360104 -0.00847607 0.307494 255 56 38
-0.361255 -0.00715649 0.307483 255 54 37
-0.361784 -0.00589392 0.307522 255 58 39
-0.361681 -0.0046972 0.307609 255 55 39
-0.361578 -0.00350043 0.307697 255 57 39
-0.361475 -0.00230362 0.307785 255 54 36
-0.361688 -0.00106702 0.307848 255 55 40
-0.361902 0.000172392 0.307912 255 58 42
-0.361798 0.00137204 0.308 255 55 43
-0.361695 0.00257172 0.308088 255 51 38
-0.361592 0.00377148 0.308176 255 55 41
-0.387891 0.0208495 0.30707 255 118 80
-0.387399 0.0220939 0.307194 255 77 59
-0.387286 0.0234087 0.30729 255 73 50
-0.322298 -0.0348654 0.307947 255 55 35
-0.322443 -0.0338411 0.308002 255 60 40
-0.32329 -0.0328036 0.307994 255 60 38
-0.323671 -0.0317675 0.308028 255 60 37
-0.324054 -0.0307275 0.308062 255 59 37
-0.324676 -0.0296766 0.308076 255 59 38
-0.324825 -0.0286352 0.308131 255 60 37
-0.325452 -0.0275741 0.308145 255 58 37
-0.326805 -0.0264769 0.308096 255 57 36
-0.326715 -0.0254331 0.308173 255 54 35
-0.324945 -0.0244728 0.308393 255 52 34
-0.324618 -0.0234489 0.30849 255 53 33
-0.324529 -0.022413 0.308566 255 53 32
-0.360517 -0.00954845 0.306205 255 56 38
-0.360415 -0.00835708 0.306292 255 59 40
-0.360626 -0.00713284 0.306353 255 58 38
-0.361468 -0.00583715 0.306363 255 57 40
-0.361365 -0.00464032 0.306451 255 55 39
-0.361262 -0.00344346 0.306539 255 55 36
-0.361159 -0.00224654 0.306626 254 54 37
-0.361372 -0.00100978 0.306689 253 53 40
-0.361269 0.000188589 0.306776 255 54 40
-0.361166 0.00138701 0.306864 255 56 41
-0.361378 0.00262936 0.306927 255 52 39
-0.361275 0.00382921 0.307015 255 52 37
-0.387543 0.020914 0.305796 255 180 120
-0.387052 0.0221584 0.305922 255 123 87
-0.386939 0.0234733 0.306018 255 80 64
-0.386826 0.0247883 0.306114 255 77 51
-0.323107 -0.0337834 0.306925 255 55 34
-0.323488 -0.0327491 0.306957 255 59 39
-0.323871 -0.0317109 0.306989 255 58 39
-0.324255 -0.0306687 0.307021 255 60 40
-0.324403 -0.0296292 0.307075 255 64 41
-0.325267 -0.028564 0.307064 255 58 38
-0.326619 -0.0274726 0.307009 255 55 35
-0.32653 -0.0264288 0.307085 255 55 34
-0.32644 -0.025385 0.307162 255 54 34
-0.32635 -0.0243411 0.307238 255 52 34
-0.324582 -0.023388 0.307465 255 53 31
-0.323781 -0.0223926 0.307605 255 51 29
-0.323692 -0.0213586 0.307681 255 53 30
-0.360516 -0.00946198 0.305024 255 54 37
-0.3601 -0.00830076 0.305138 255 55 38
-0.360311 -0.00707635 0.305199 254 57 39
-0.360836 -0.00581481 0.305232 253 55 39
-0.361049 -0.00458344 0.305292 250 53 36
-0.360946 -0.00338646 0.30538 251 51 33
-0.360843 -0.00218943 0.305468 250 49 33
-0.36074 -0.000992361 0.305555 249 53 40
-0.360952 0.000245965 0.305616 254 54 41
-0.360849 0.00144448 0.305704 255 59 44
-0.360746 0.00264305 0.305792 255 52 40
-0.360958 0.00388696 0.305853 255 49 35
-0.386139 0.0154571 0.304261 255 73 65
-0.386027 0.0167671 0.304357 255 115 95
-0.38629 0.0181439 0.304422 255 122 112
-0.386553 0.0195242 0.304487 255 122 111
-0.387196 0.0209785 0.304522 255 146 113
-0.386705 0.0222229 0.304649 255 157 121
-0.386591 0.023538 0.304746 255 140 113
-0.386478 0.0248531 0.304842 255 99 76
-0.386365 0.0261682 0.304938 255 77 54
-0.323452 -0.0326984 0.305938 255 55 34
-0.324071 -0.0316541 0.305945 255 60 41
-0.324219 -0.0306155 0.305998 255 59 41
-0.324605 -0.029568 0.306028 255 58 39
-0.324993 -0.0285164 0.306059 255 58 36
-0.326102 -0.0274336 0.306021 255 56 34
-0.326254 -0.0263807 0.306074 255 56 34
-0.326164 -0.0253368 0.306151 255 56 36
-0.326074 -0.0242928 0.306227 255 52 36
-0.325263 -0.023288 0.306371 255 54 34
-0.323508 -0.0223446 0.306604 255 52 32
-0.323419 -0.0213106 0.306679 255 53 35
-0.360201 -0.0094057 0.303869 255 55 34
-0.359786 -0.00824443 0.303985 255 53 33
-0.359683 -0.00705282 0.304072 253 52 35
-0.359893 -0.00582686 0.304131 249 51 33
-0.360418 -0.00456238 0.304162 248 48 30
-0.360315 -0.00336662 0.30425 250 47 25
-0.360527 -0.00213233 0.304309 251 48 29
-0.360424 -0.000935136 0.304397 249 56 40
-0.360635 0.000303347 0.304456 251 55 41
-0.360532 0.00150195 0.304544 252 60 45
-0.360429 0.00270063 0.304632 253 53 41
-0.360641 0.00394471 0.304692 254 47 34
-0.386658 0.0143352 0.302832 255 50 40
-0.385793 0.0155208 0.302993 255 56 45
-0.386056 0.0168962 0.303057 255 72 59
-0.386319 0.018275 0.30312 255 91 83
-0.386206 0.0195884 0.303217 255 121 117
-0.38647 0.0209723 0.303281 255 135 109
-0.386357 0.0222874 0.303377 255 127 107
-0.386244 0.0236026 0.303473 255 148 138
-0.386131 0.0249178 0.303569 255 160 121
-0.386018 0.0262331 0.303666 255 115 79
-0.385905 0.0275484 0.303762 255 77 58
-0.323798 -0.0316069 0.304945 255 54 37
-0.324183 -0.0305623 0.304973 255 58 39
-0.324808 -0.0295066 0.304977 255 58 37
-0.324957 -0.0284607 0.30503 255 57 35
-0.325827 -0.0273857 0.305011 255 57 35
-0.325978 -0.0263326 0.305063 255 56 33
-0.32613 -0.0252774 0.305116 255 55 32
-0.32604 -0.0242323 0.305192 255 52 33
-0.325228 -0.0232267 0.30534 255 53 33
-0.324899 -0.0221986 0.305439 255 54 34
-0.325049 -0.0211424 0.305492 255 56 38
-0.359886 -0.0093494 0.302714 254 53 36
-0.359159 -0.00821972 0.302861 252 48 29
-0.359057 -0.0070293 0.302948 247 46 30
-0.359266 -0.00580458 0.303005 247 45 25
-0.359788 -0.00454136 0.303034 248 45 24
-0.359999 -0.00330968 0.303092 250 46 27
-0.36021 -0.00207521 0.30315 249 49 31
-0.360107 -0.000877923 0.303238 247 50 32
-0.360319 0.000360735 0.303296 248 54 38
-0.360216 0.00155945 0.303384 247 56 43
-0.360113 0.00275822 0.303471 247 51 38
-0.360324 0.00400247 0.30353 247 50 33
-0.385673 0.0129643 0.301533 249 47 30
-0.386311 0.014399 0.301561 253 48 34
-0.385822 0.0156484 0.301691 255 51 38
-0.386462 0.0170914 0.301719 255 54 42
-0.386349 0.0184065 0.301815 255 62 51
-0.385859 0.0196527 0.301945 255 78 71
-0.385747 0.0209662 0.302042 255 107 90
-0.38601 0.022352 0.302104 255 119 99
-0.385897 0.0236673 0.3022 255 116 104
-0.385408 0.0249072 0.30233 255 136 112
-0.38567 0.026298 0.302393 255 149 110
-0.385557 0.0276134 0.302489 255 119 87
-0.385821 0.0290093 0.302553 255 85 62
-0.324623 -0.0304969 0.303896 255 55 35
-0.324772 -0.029452 0.303947 255 58 37
-0.325401 -0.0283888 0.303949 255 55 35
-0.325792 -0.0273285 0.303975 255 53 34
-0.325943 -0.0262743 0.304027 255 54 31
-0.326337 -0.0252067 0.304054 255 55 30
-0.326247 -0.0241595 0.30413 255 55 34
-0.326157 -0.0231123 0.304207 255 55 35
-0.326067 -0.022065 0.304284 255 55 36
-0.358947 -0.00935388 0.301621 252 50 29
-0.357298 -0.00832079 0.301861 248 46 24
-0.357504 -0.00710419 0.301918 245 43 26
-0.358019 -0.00585076 0.301943 248 45 28
-0.358849 -0.00455609 0.301939 246 49 27
-0.35937 -0.00328994 0.301965 246 47 28
-0.35958 -0.00205671 0.302021 241 47 28
-0.359791 -0.000820686 0.302078 238 46 27
-0.360002 0.000418128 0.302135 238 51 35
-0.359899 0.00161696 0.302223 237 51 40
-0.360111 0.00285999 0.30228 239 50 34
-0.360323 0.00410585 0.302338 239 47 27
-0.385327 0.0130278 0.300265 239 43 26
-0.386341 0.0145254 0.300254 243 43 31
-0.386228 0.0158404 0.30035 249 47 33
-0.386492 0.0172215 0.300411 254 48 35
-0.386379 0.0185383 0.300507 255 53 39
-0.385888 0.0197859 0.300639 255 57 44
-0.385775 0.0211012 0.300735 255 71 58
-0.385286 0.0223443 0.300866 255 88 74
-0.385173 0.0236581 0.300963 255 100 88
-0.38506 0.0249719 0.301059 255 109 92
-0.384947 0.0262858 0.301155 255 124 98
-0.38521 0.0276784 0.301216 255 125 106
-0.385473 0.0290745 0.301278 255 113 94
-0.385359 0.0303918 0.301374 255 93 70
-0.325215 -0.029383 0.302863 255 56 36
-0.325606 -0.0283246 0.302888 255 57 37
-0.326483 -0.0272436 0.30286 255 54 35
-0.326392 -0.0261954 0.302937 255 56 35
-0.326545 -0.0251357 0.302987 255 57 34
-0.327185 -0.0240492 0.302986 255 58 37
-0.327339 -0.0229833 0.303037 255 55 38
-0.328971 -0.0218274 0.302931 255 56 39
-0.357087 -0.00944882 0.300628 250 47 24
-0.355761 -0.0083897 0.300842 246 44 24
-0.356576 -0.00711338 0.300833 244 47 29
-0.357089 -0.00586262 0.300857 245 48 31
-0.358534 -0.00449941 0.300784 242 47 26
-0.359367 -0.00319575 0.300776 235 44 23
-0.359578 -0.00196095 0.300831 228 42 19
-0.359789 -0.000723355 0.300887 224 41 21
-0.36 0.000517085 0.300943 224 44 26
-0.360212 0.00176032 0.300999 224 46 30
-0.360424 0.0030064 0.301055 226 44 26
-0.38498 0.0130914 0.298997 230 36 17
-0.385993 0.0145892 0.298981 233 39 24
-0.38588 0.0159044 0.299077 236 43 29
-0.386144 0.0172857 0.299136 244 45 32
-0.386031 0.0186026 0.299232 251 49 35
-0.385917 0.0199195 0.299329 254 50 36
-0.385428 0.0211656 0.299462 255 55 42
-0.385315 0.0224811 0.299558 255 63 51
-0.384826 0.0237227 0.299691 255 75 63
-0.384713 0.0250366 0.299787 255 94 78
-0.3846 0.0263507 0.299883 255 110 91
-0.384862 0.0277435 0.299943 255 111 94
-0.385124 0.0291397 0.300003 255 111 97
-0.385011 0.0304571 0.3001 255 110 92
-0.384898 0.0317746 0.300196 255 95 75
-0.326296 -0.0282436 0.301768 255 57 39
-0.326448 -0.027186 0.301817 255 59 38
-0.326844 -0.0261159 0.30184 255 57 39
-0.326997 -0.0250531 0.30189 255 58 38
-0.327886 -0.0239504 0.301858 255 57 39
-0.328782 -0.022839 0.301826 255 56 39
-0.329436 -0.0217336 0.301821 255 57 39
-0.330847 -0.0205735 0.301734 255 60 41
-0.355551 -0.00951286 0.299614 249 45 22
-0.355449 -0.00833395 0.2997 245 46 30
-0.355348 -0.00715498 0.299786 242 47 27
-0.356775 -0.00580636 0.299708 239 45 25
-0.35853 -0.00440688 0.299597 230 41 17
-0.359364 -0.00310136 0.299584 217 38 13
-0.359889 -0.00182604 0.299605 210 35 10
-0.360417 -0.000544961 0.299626 205 35 12
-0.360946 0.000741894 0.299647 206 36 15
-0.364701 0.00247525 0.299328 207 38 17
-0.374365 0.00507558 0.298389 208 37 17
-0.381897 0.010078 0.297846 215 34 14
-0.381786 0.0113757 0.297941 217 33 10
-0.383517 0.0129732 0.297844 221 32 8
-0.384895 0.0145278 0.297785 223 35 14
-0.385157 0.0159041 0.297843 225 37 23
-0.385796 0.0173499 0.297861 233 39 24
-0.385683 0.0186669 0.297958 239 42 29
-0.385569 0.0199839 0.298054 245 45 33
-0.385456 0.0213011 0.29815 252 48 37
-0.385343 0.0226182 0.298247 255 52 40
-0.384854 0.0238613 0.298381 255 58 46
-0.384366 0.0251014 0.298515 255 70 58
-0.384628 0.0264927 0.298574 255 86 75
-0.38489 0.0278875 0.298632 255 97 84
-0.384776 0.0292049 0.298728 255 103 89
-0.384663 0.0305224 0.298825 255 115 97
-0.38455 0.03184 0.298921 255 124 102
-0.384436 0.0331576 0.299017 255 110 87
-0.3269 -0.0271095 0.300716 255 57 40
-0.327298 -0.026036 0.300736 255 58 41
-0.327698 -0.0249583 0.300757 255 57 40
-0.328593 -0.0238508 0.300721 255 56 40
-0.328997 -0.0227622 0.300741 255 57 40
-0.329653 -0.0216543 0.300733 255 56 38
-0.330564 -0.0205236 0.300697 255 58 40
-0.333527 -0.0192439 0.300426 255 57 41
-0.334468 -0.018085 0.300388 255 56 42
-0.336732 -0.0168155 0.3002 255 56 41
-0.353427 -0.00963555 0.298675 246 46 25
-0.353927 -0.00840249 0.298693 241 46 29
-0.355036 -0.00709912 0.298644 236 43 20
-0.356462 -0.00575008 0.29856 222 40 16
-0.359675 -0.0029691 0.298355 189 32 8
-0.360202 -0.00169052 0.298373 184 28 9
-0.361049 -0.000365381 0.298356 182 28 10
-0.364809 0.00135487 0.298019 182 28 11
-0.371723 0.00354095 0.297338 185 33 12
-0.374379 0.0051856 0.297127 189 33 12
-0.37462 0.00650203 0.297181 194 34 12
-0.375562 0.00792697 0.29716 198 32 10
-0.377222 0.00947176 0.29706 200 31 8
-0.378901 0.0110351 0.29696 203 30 7
-0.380966 0.0126767 0.296819 208 32 7
-0.383803 0.0144666 0.296596 210 32 9
-0.384436 0.0159037 0.296611 214 31 14
-0.384697 0.0172818 0.296667 221 34 16
-0.385335 0.0187312 0.296682 227 36 19
-0.385221 0.0200484 0.296779 234 41 25
-0.385108 0.0213656 0.296875 243 43 33
-0.384995 0.0226829 0.296971 249 47 37
-0.384881 0.0240002 0.297068 253 50 38
-0.384393 0.0252418 0.297204 255 56 43
-0.384655 0.0266351 0.29726 255 65 53
-0.384541 0.0279526 0.297357 255 77 65
-0.384428 0.0292702 0.297453 255 88 76
-0.384315 0.0305878 0.297549 255 101 86
-0.384201 0.0319055 0.297646 255 113 97
-0.383714 0.0331377 0.297781 255 124 107
-0.383601 0.0344539 0.297877 255 122 96
-0.327264 -0.0259768 0.299685 252 57 42
-0.328157 -0.0248745 0.299644 255 58 42
-0.328808 -0.0237761 0.299633 255 57 41
-0.329463 -0.0226712 0.299622 255 55 40
-0.329621 -0.0215898 0.29967 255 55 38
-0.330532 -0.0204576 0.299629 255 55 38
-0.334274 -0.0191223 0.299254 255 56 41
-0.334181 -0.0180342 0.299334 255 56 41
-0.334867 -0.0168858 0.299321 254 54 41
-0.337142 -0.0156011 0.299123 253 54 39
-0.352024 -0.0108644 0.297594 246 45 29
-0.351035 -0.00978579 0.297783 240 45 25
-0.351823 -0.00853174 0.297765 231 43 23
-0.353516 -0.00717294 0.297642 214 39 17
-0.35821 -0.0042573 0.297249 160 40 19
-0.359673 -0.00287411 0.297156 148 39 16
-0.360834 -0.00151489 0.297099 148 34 15
-0.364265 0.000147757 0.296782 155 28 13
-0.369461 0.0020759 0.296265 162 26 14
-0.373458 0.00388522 0.295888 167 33 16
-0.374045 0.00524644 0.295901 172 31 11
-0.374285 0.00656305 0.295954 178 31 8
-0.374525 0.00788282 0.296007 185 28 5
-0.375117 0.00926008 0.296021 186 29 8
-0.376774 0.010813 0.295915 191 27 6
-0.378451 0.0123845 0.295808 195 29 6
-0.381609 0.0142202 0.295535 199 30 7
-0.383716 0.0159034 0.295382 204 27 8
-0.383976 0.0172799 0.295436 210 31 10
-0.384987 0.0187955 0.295407 217 33 12
-0.384873 0.0201128 0.295503 224 36 16
-0.38476 0.0214302 0.2956 230 40 24
-0.384647 0.0227476 0.295696 236 42 33
-0.384909 0.0241396 0.295751 244 45 33
-0.38442 0.0253826 0.295889 253 48 34
-0.384307 0.0267001 0.295985 255 54 40
-0.384193 0.0280178 0.296081 255 61 47
-0.38408 0.0293354 0.296178 255 71 58
-0.383967 0.0306532 0.296274 255 87 73
-0.383853 0.031971 0.29637 255 106 87
-0.383366 0.0332032 0.296507 255 117 100
-0.383253 0.0345195 0.296603 255 130 109
-0.383513 0.0359247 0.296659 255 134 100
-0.328371 -0.0248019 0.298556 249 56 43
-0.329024 -0.0237011 0.298542 254 57 42
-0.329181 -0.0226217 0.298589 255 54 39
-0.329589 -0.0215251 0.298605 255 54 37
-0.33408 -0.0201598 0.29812 255 54 37
-0.334767 -0.0190178 0.298104 255 54 40
-0.334673 -0.0179263 0.298184 254 55 40
-0.335363 -0.0167739 0.298168 252 52 40
-0.336851 -0.0155495 0.298055 249 52 39
-0.341344 -0.0140526 0.297578 245 48 22
-0.345432 -0.0125529 0.297153 243 45 21
-0.348487 -0.0111151 0.296855 240 46 26
-0.349261 -0.00987611 0.296834 230 43 18
-0.350627 -0.00856823 0.296742 206 42 21
-0.374168 0.00408959 0.294542 151 34 22
-0.374408 0.00540644 0.294593 161 27 12
-0.374299 0.00667521 0.294686 167 27 8
-0.37454 0.00799679 0.294738 172 26 8
-0.375132 0.00937606 0.294748 175 23 8
-0.376436 0.0108749 0.294676 180 21 4
-0.377394 0.0123295 0.294645 185 23 3
-0.379442 0.0139768 0.294487 191 25 3
-0.382998 0.0159031 0.294156 196 24 4
-0.383629 0.0173439 0.294166 201 28 4
-0.383889 0.0187241 0.294218 209 30 5
-0.384525 0.0201773 0.294228 215 30 9
-0.384412 0.0214947 0.294324 219 34 14
-0.384674 0.0228853 0.294377 225 36 22
-0.38456 0.0242045 0.294474 234 41 26
-0.384447 0.0255237 0.29457 244 42 29
-0.384333 0.026843 0.294667 250 47 33
-0.383845 0.0280829 0.294806 254 52 38
-0.383732 0.0294007 0.294902 255 56 44
-0.383618 0.0307186 0.294998 255 67 53
-0.383505 0.0320365 0.295095 255 87 70
-0.383018 0.0332687 0.295233 255 105 93
-0.383278 0.0346725 0.295287 255 121 109
-0.383165 0.0359906 0.295384 255 141 116
-0.383051 0.0373087 0.29548 255 146 106
-0.328991 -0.0236388 0.297477 244 53 36
-0.329148 -0.0225582 0.297523 250 55 39
-0.329556 -0.0214602 0.297538 251 52 37
-0.334572 -0.0200584 0.296967 252 50 34
-0.335262 -0.0189126 0.296947 252 50 38
-0.335168 -0.0178176 0.297027 250 52 38
-0.335862 -0.0166613 0.297007 247 52 39
-0.337357 -0.0154323 0.296887 242 51 40
-0.338871 -0.014188 0.296766 240 48 26
-0.345131 -0.0124993 0.296049 237 46 23
-0.348183 -0.0110608 0.295738 224 43 22
-0.348955 -0.00982151 0.295713 199 42 21
-0.374073 0.00546745 0.293364 144 34 18
-0.374313 0.00678766 0.293414 157 25 10
-0.374554 0.00811106 0.293465 163 23 9
-0.375147 0.00949234 0.293472 167 19 7
-0.376097 0.0109369 0.293437 170 18 3
-0.377054 0.0123918 0.293401 175 20 0
-0.378378 0.0139179 0.293322 182 21 0
-0.380079 0.0155217 0.293198 186 21 1
-0.38291 0.017342 0.292939 192 25 0
-0.383169 0.0187206 0.29299 200 27 0
-0.383802 0.0201721 0.292997 205 29 3
-0.384063 0.0215593 0.293049 210 30 6
-0.38395 0.022877 0.293145 216 32 11
-0.384212 0.0242694 0.293196 223 35 18
-0.384098 0.0255887 0.293293 230 36 23
-0.383985 0.0269081 0.293389 238 43 29
-0.383871 0.0282276 0.293486 247 48 34
-0.383383 0.029466 0.293626 253 49 35
-0.38327 0.030784 0.293722 255 53 40
-0.383156 0.032102 0.293819 255 64 50
-0.383043 0.0334201 0.293915 255 80 71
-0.38293 0.0347382 0.294011 255 103 99
-0.382816 0.0360564 0.294108 255 128 113
-0.382703 0.0373746 0.294204 255 147 112
-0.382963 0.0387854 0.294257 255 142 99
-0.382849 0.0401054 0.294353 255 101 70
-0.329116 -0.0224946 0.296456 233 51 36
-0.329524 -0.0213953 0.296468 239 50 36
-0.334805 -0.0199736 0.29584 243 49 32
-0.33576 -0.0188067 0.295783 244 49 35
-0.335666 -0.0177084 0.295863 243 49 32
-0.336363 -0.016548 0.29584 239 51 37
-0.337599 -0.0153365 0.295747 235 49 34
-0.338577 -0.0141358 0.295688 230 45 23
-0.340108 -0.0128755 0.295558 214 44 25
-0.374327 0.00690039 0.29214 136 37 20
-0.374568 0.00822558 0.292188 154 22 9
-0.375162 0.00960889 0.292193 160 19 5
-0.376114 0.0110557 0.292153 164 19 3
-0.376715 0.0124541 0.292157 169 19 0
-0.377678 0.0139198 0.292117 173 20 2
-0.378647 0.0153962 0.292076 176 20 4
-0.382193 0.01734 0.291716 184 20 1
-0.382451 0.0187171 0.291765 190 21 2
-0.382709 0.0200975 0.291815 195 27 2
-0.383341 0.0215526 0.291819 202 27 2
-0.383602 0.0229417 0.291869 207 30 4
-0.383488 0.0242595 0.291965 213 34 10
-0.383749 0.0256537 0.292015 219 34 15
-0.383636 0.0269733 0.292112 226 37 23
-0.383522 0.0282929 0.292208 235 43 28
-0.383409 0.0296125 0.292304 243 46 31
-0.382921 0.0308494 0.292446 251 48 34
-0.382808 0.0321675 0.292543 254 51 39
-0.382694 0.0334857 0.292639 255 59 48
-0.382581 0.034804 0.292735 255 74 69
-0.382468 0.0361223 0.292831 255 103 92
-0.382727 0.0375315 0.292883 255 126 99
-0.382614 0.0388516 0.292979 255 120 91
-0.3825 0.0401717 0.293076 255 96 76
-0.38276 0.0415878 0.293127 255 80 62
-0.374583 0.0083404 0.290909 133 33 21
-0.375178 0.00972572 0.29091 153 21 7
-0.37613 0.0111748 0.290866 162 18 3
-0.376375 0.0125164 0.290913 166 15 1
-0.376979 0.0139218 0.290915 168 18 5
-0.378305 0.0154592 0.290823 171 17 6
-0.37928 0.0169467 0.290778 176 16 3
-0.381365 0.0186462 0.29059 179 18 3
-0.381991 0.0200925 0.290591 185 23 3
-0.382249 0.0214748 0.290639 192 25 2
-0.38288 0.0229334 0.29064 197 28 1
-0.38314 0.0243243 0.290689 204 31 4
-0.383026 0.0256423 0.290785 209 31 7
-0.382913 0.0269603 0.290881 216 32 13
-0.383173 0.0283581 0.29093 224 35 19
-0.382686 0.0295966 0.291074 231 39 24
-0.382573 0.0309148 0.29117 239 43 30
-0.382459 0.032233 0.291266 248 46 32
-0.382346 0.0335513 0.291362 253 50 35
-0.382232 0.0348697 0.291459 255 56 43
-0.382492 0.0362775 0.291508 255 72 59
-0.382378 0.0375976 0.291605 255 92 71
-0.382265 0.0389178 0.291701 255 95 74
-0.382151 0.040238 0.291797 255 86 73
-0.382411 0.0416543 0.291848 255 83 69
-0.382671 0.0430742 0.291898 255 79 63
-0.375546 0.00989832 0.289577 132 37 22
-0.375791 0.0112369 0.289623 155 18 6
-0.376392 0.0126377 0.289621 162 15 2
-0.376638 0.0139844 0.289667 164 15 5
-0.377243 0.0153969 0.289666 167 14 6
-0.377852 0.0168162 0.289664 170 20 4
-0.378825 0.0183088 0.289615 172 19 3
-0.380906 0.0200184 0.289419 177 17 3
-0.381532 0.0214682 0.289417 181 21 1
-0.38216 0.0229251 0.289414 187 26 1
-0.382419 0.0243144 0.289461 194 23 2
-0.382305 0.0256309 0.289557 200 26 2
-0.382565 0.0270254 0.289605 207 29 4
-0.382451 0.0283436 0.289701 214 29 10
-0.382338 0.0296619 0.289797 221 33 14
-0.382224 0.0309802 0.289893 227 37 22
-0.382111 0.0322986 0.28999 235 40 26
-0.381997 0.033617 0.290086 245 45 27
-0.382256 0.0350233 0.290134 253 48 32
-0.382143 0.0363435 0.29023 255 52 39
-0.382029 0.0376637 0.290327 255 63 49
-0.381916 0.038984 0.290423 255 73 57
-0.381802 0.0403043 0.290519 255 78 64
-0.382061 0.0417208 0.290568 255 81 69
-0.382321 0.0431409 0.290616 255 78 65
-0.382581 0.0445645 0.290665 255 76 59
-0.376163 0.0114138 0.288281 133 35 22
-0.376052 0.0127001 0.288375 153 18 6
-0.376298 0.014047 0.28842 160 16 4
-0.376544 0.0153972 0.288465 162 16 5
-0.37715 0.016815 0.28846 166 19 3
-0.377398 0.0181735 0.288505 168 15 5
-0.37837 0.0196712 0.288451 172 16 4
-0.380816 0.0214616 0.288197 173 18 2
-0.381442 0.0229168 0.288191 178 21 1
-0.381699 0.0243046 0.288237 184 20 2
-0.381957 0.0256958 0.288282 190 22 1
-0.381844 0.0270125 0.288378 198 25 1
-0.382102 0.0284088 0.288424 204 27 4
-0.381989 0.0297272 0.28852 210 29 8
-0.381876 0.0310456 0.288617 216 31 12
-0.381762 0.0323641 0.288713 223 35 15
-0.381649 0.0336827 0.288809 232 40 19
-0.381907 0.0350892 0.288855 243 45 26
-0.381794 0.0364095 0.288952 251 48 33
-0.38168 0.0377298 0.289048 254 50 37
-0.381566 0.0390502 0.289144 255 55 43
-0.381453 0.0403706 0.289241 255 65 51
-0.381711 0.0417873 0.289288 255 75 58
-0.381598 0.0431095 0.289384 255 77 62
-0.381857 0.0445315 0.289431 255 77 61
-0.382491 0.0460588 0.289429 255 75 59
-0.376068 0.0128217 0.287078 133 34 20
-0.376314 0.0141705 0.287121 152 19 7
-0.376203 0.01546 0.287215 158 17 7
-0.376808 0.016878 0.287208 162 17 4
-0.377056 0.0182368 0.287251 164 15 5
-0.377304 0.0195988 0.287295 166 19 5
-0.378277 0.0211036 0.287237 168 18 3
-0.380357 0.022836 0.287023 172 16 3
-0.380981 0.0242948 0.287015 176 20 3
-0.381238 0.0256844 0.287059 181 20 1
-0.381496 0.0270775 0.287103 187 24 1
-0.381382 0.0283943 0.287199 193 25 2
-0.38164 0.0297925 0.287243 199 26 4
-0.381527 0.0311111 0.28734 206 29 4
-0.381413 0.0324297 0.287436 212 31 7
-0.3813 0.0337483 0.287532 219 36 13
-0.381558 0.0351551 0.287577 230 39 19
-0.381444 0.0364755 0.287673 241 42 23
-0.381331 0.0377959 0.287769 249 46 28
-0.381217 0.0391164 0.287866 254 49 34
-0.381104 0.040437 0.287962 255 54 40
-0.381362 0.0418539 0.288007 255 64 45
-0.381248 0.0431762 0.288104 255 72 53
-0.381507 0.0445983 0.28815 255 75 58
-0.38214 0.046126 0.288144 255 75 60
-0.382401 0.0475571 0.28819 255 71 54
-0.375973 0.0142332 0.285872 134 33 20
-0.376219 0.0155855 0.285914 152 19 9
-0.376466 0.0169411 0.285955 159 17 7
-0.376713 0.0183 0.285997 161 16 5
-0.376602 0.0195945 0.286092 163 15 3
-0.37721 0.0210279 0.286082 166 12 1
-0.378547 0.0226116 0.285966 168 17 3
-0.379897 0.0242108 0.285849 170 17 4
-0.380521 0.025673 0.285838 173 19 3
-0.380777 0.0270645 0.285881 177 22 2
-0.381034 0.0284595 0.285924 184 24 0
-0.380921 0.0297765 0.28602 189 25 3
-0.380807 0.0310935 0.286116 196 27 2
-0.381065 0.0324953 0.286159 202 28 5
-0.380951 0.033814 0.286255 209 32 10
-0.381209 0.035221 0.286298 218 33 12
-0.381095 0.0365415 0.286394 228 35 15
-0.380982 0.037862 0.286491 238 40 20
-0.380868 0.0391826 0.286587 246 45 27
-0.380754 0.0405033 0.286683 252 50 34
-0.381012 0.0419204 0.286727 255 54 38
-0.380898 0.0432428 0.286823 255 60 44
-0.381156 0.0446652 0.286867 255 68 51
-0.381415 0.0460911 0.286912 255 72 55
-0.381675 0.0475206 0.286956 255 71 52
-0.38231 0.0490594 0.286948 255 70 48
-0.376235 0.0157113 0.284608 137 32 18
-0.376124 0.0170042 0.284703 153 20 10
-0.376371 0.0183633 0.284743 160 16 4
-0.37626 0.0196579 0.284837 161 13 3
-0.376507 0.0210219 0.284878 163 14 1
-0.377477 0.0225321 0.284811 164 17 3
-0.37809 0.0239798 0.284798 166 17 5
-0.379805 0.0256617 0.284621 168 18 5
-0.38006 0.0270516 0.284662 172 17 2
-0.380316 0.0284449 0.284703 176 20 1
-0.380572 0.0298417 0.284744 181 21 1
-0.380459 0.0311589 0.28484 187 24 0
-0.380346 0.0324761 0.284936 193 25 3
-0.380602 0.0338797 0.284977 200 28 6
-0.380489 0.0351987 0.285073 208 31 8
-0.380746 0.0366075 0.285115 215 32 11
-0.380632 0.0379282 0.285211 224 35 14
-0.380519 0.0392489 0.285308 233 39 19
-0.380405 0.0405697 0.285404 244 45 26
-0.380662 0.041987 0.285446 252 48 32
-0.380548 0.0433095 0.285543 255 52 38
-0.380806 0.0447321 0.285585 255 59 44
-0.381065 0.0461581 0.285628 255 65 49
-0.381324 0.0475878 0.28567 255 67 51
-0.381958 0.0491269 0.285659 255 69 49
-0.382974 0.0507821 0.285593 254 72 53
-0.37614 0.017132 0.283394 136 33 21
-0.376029 0.0184266 0.283489 153 21 6
-0.375917 0.0197213 0.283583 158 20 3
-0.376164 0.0210855 0.283622 159 17 2
-0.376412 0.0224531 0.283661 161 16 3
-0.377383 0.0239705 0.28359 164 16 5
-0.37836 0.025499 0.283518 165 17 4
-0.379345 0.0270387 0.283445 167 17 3
-0.3796 0.0284305 0.283484 170 16 3
-0.379855 0.0298257 0.283524 174 18 2
-0.380111 0.0312243 0.283564 179 19 1
-0.379997 0.0325417 0.28366 184 22 0
-0.380253 0.0339455 0.2837 191 26 2
-0.38014 0.0352645 0.283796 198 28 4
-0.380026 0.0365836 0.283892 205 30 7
-0.380283 0.0379943 0.283932 212 33 11
-0.380169 0.0393151 0.284028 221 35 13
-0.380055 0.040636 0.284125 232 38 17
-0.380312 0.0420536 0.284165 243 44 23
-0.380198 0.0433762 0.284262 251 49 30
-0.380456 0.0447989 0.284303 254 53 37
-0.381087 0.0463274 0.284288 255 57 43
-0.381346 0.0477592 0.284329 255 62 47
-0.381982 0.0493007 0.284314 255 67 50
-0.38262 0.05085 0.284299 255 72 55
-0.382883 0.0522964 0.284341 252 74 55
-0.375686 0.0184899 0.282234 137 31 16
-0.375575 0.0197847 0.282328 152 22 4
-0.375821 0.0211491 0.282366 158 16 4
-0.376069 0.0225169 0.282404 159 18 6
-0.376677 0.0239612 0.282384 160 18 6
-0.377288 0.0254126 0.282365 161 19 3
-0.378266 0.0269484 0.282288 165 15 3
-0.378885 0.028416 0.282269 166 16 4
-0.379507 0.0298909 0.282249 168 16 6
-0.379762 0.0312897 0.282287 173 16 3
-0.379649 0.0326072 0.282383 177 17 1
-0.379904 0.0340112 0.282422 183 19 0
-0.379791 0.0353304 0.282518 189 24 0
-0.379677 0.0366496 0.282614 195 28 3
-0.379933 0.0380605 0.282653 202 32 8
-0.37982 0.0393814 0.282749 211 33 11
-0.379706 0.0407024 0.282845 220 34 11
-0.379962 0.0421201 0.282884 230 39 14
-0.379849 0.0434429 0.282981 240 44 21
-0.380105 0.0448658 0.28302 249 47 30
-0.380735 0.0463946 0.283002 254 50 36
-0.380994 0.0478266 0.283041 255 55 41
-0.381629 0.0493684 0.283023 255 63 47
-0.382267 0.050918 0.283005 255 70 53
-0.382529 0.0523646 0.283045 255 73 54
-0.382792 0.0538148 0.283085 250 70 50
-0.37559 0.0199162 0.281015 141 32 15
-0.375837 0.0212825 0.281051 155 15 5
-0.376084 0.0226522 0.281087 157 17 6
-0.376332 0.0240253 0.281123 159 16 4
-0.376943 0.0254769 0.281101 161 15 4
-0.377556 0.0269357 0.281079 164 13 4
-0.378172 0.0284016 0.281056 163 13 4
-0.378791 0.0298748 0.281034 165 13 5
-0.379413 0.0313552 0.281011 168 18 4
-0.3793 0.0326727 0.281107 172 17 2
-0.379555 0.0340769 0.281144 176 14 1
-0.379442 0.0353962 0.28124 180 21 2
-0.379328 0.0367156 0.281336 186 25 3
-0.379215 0.038035 0.281432 194 27 3
-0.37947 0.0394477 0.281469 202 31 6
-0.379356 0.0407688 0.281565 210 32 7
-0.379612 0.0421867 0.281603 218 33 10
-0.379498 0.0435096 0.281699 227 38 16
-0.379755 0.0449327 0.281737 240 43 22
-0.380012 0.0463594 0.281775 249 47 28
-0.38027 0.0477897 0.281812 254 50 34
-0.380902 0.0493297 0.281791 255 57 40
-0.381537 0.0508773 0.28177 255 64 47
-0.381798 0.0523222 0.281808 255 67 51
-0.38206 0.0537708 0.281847 255 68 48
-0.382701 0.0553373 0.281826 249 64 47
-0.375852 0.0214163 0.279733 143 26 12
