ply
format ascii 1.0
element vertex 1280
property float x
property float y
property float z
property uchar diffuse_red
property uchar diffuse_green
property uchar diffuse_blue
end_header
-0.416521 0.168142 0.302394 235 32 7
-0.402096 0.163979 0.30384 219 43 27
-0.398963 0.163548 0.304184 212 40 21
-0.395471 0.162864 0.304554 203 36 17
-0.394104 0.163494 0.304756 196 38 22
-0.39357 0.164643 0.304892 177 42 32
-0.393037 0.16579 0.305027 146 48 42
-0.392916 0.167199 0.30513 104 52 46
-0.392384 0.168341 0.305265 82 56 49
-0.521407 0.106106 0.284141 84 60 58
-0.52045 0.107776 0.284363 96 57 56
-0.520284 0.1097 0.284503 150 55 49
-0.520119 0.111625 0.284644 227 59 44
-0.519953 0.11355 0.284785 252 58 55
-0.519 0.115203 0.285005 253 52 61
-0.51805 0.116851 0.285225 255 71 93
-0.517103 0.118493 0.285443 255 55 55
-0.516939 0.120407 0.285583 255 52 39
-0.516774 0.122322 0.285723 253 51 35
-0.516609 0.124237 0.285863 244 47 30
-0.516445 0.126152 0.286003 227 43 24
-0.51628 0.128068 0.286143 208 37 15
-0.515338 0.129687 0.28636 192 31 7
-0.513629 0.131004 0.286652 185 29 6
-0.512697 0.13261 0.286867 190 33 10
-0.512533 0.134512 0.287006 208 37 16
-0.512369 0.136414 0.287145 231 45 25
-0.508247 0.138672 0.287792 243 50 29
-0.477904 0.137214 0.291421 220 38 33
-0.477753 0.138971 0.29155 219 20 0
-0.475658 0.139865 0.291863 215 16 0
-0.475508 0.141614 0.29199 220 19 0
-0.476003 0.143655 0.292057 227 33 15
-0.475852 0.145407 0.292185 228 37 24
-0.475056 0.146861 0.292374 219 32 17
-0.474264 0.14831 0.292562 202 25 4
-0.473473 0.149754 0.292749 185 20 3
-0.47205 0.150892 0.292995 177 10 0
-0.473173 0.153241 0.293004 178 10 0
-0.446517 0.152316 0.296215 202 14 0
-0.443068 0.152234 0.296633 192 8 0
-0.441839 0.153281 0.296849 182 4 0
-0.440618 0.154322 0.297064 177 5 0
-0.439941 0.155643 0.297229 182 7 0
-0.439266 0.15696 0.297394 195 18 0
-0.438059 0.157984 0.297606 208 27 3
-0.43686 0.159002 0.297817 217 29 6
-0.434618 0.159438 0.298119 220 30 8
-0.432403 0.159868 0.298418 212 34 11
-0.429704 0.160009 0.298758 199 28 6
-0.428049 0.160715 0.299005 188 18 2
-0.424915 0.160565 0.29938 185 13 1
-0.423302 0.16126 0.299621 189 24 2
-0.42219 0.16223 0.299818 202 28 5
-0.4206 0.162913 0.300056 218 34 12
-0.418545 0.163309 0.300332 233 40 21
-0.416512 0.1637 0.300606 241 46 26
-0.415439 0.164647 0.300797 240 41 19
-0.414373 0.165588 0.300987 234 36 11
-0.414243 0.167089 0.301096 227 35 10
-0.414114 0.16859 0.301206 222 41 19
-0.404021 0.163958 0.302154 215 42 23
-0.400418 0.163258 0.302552 207 38 17
-0.397736 0.1631 0.302871 199 35 15
-0.39468 0.162683 0.30322 189 34 22
-0.39373 0.163575 0.303392 176 42 31
-0.393196 0.164724 0.303529 142 48 41
-0.392664 0.165871 0.303666 106 53 48
-0.392543 0.16728 0.303769 81 56 50
-0.519318 0.105696 0.282444 82 63 56
-0.518368 0.10736 0.282668 114 55 54
-0.518203 0.109278 0.282809 185 55 49
-0.517256 0.110933 0.283032 244 65 53
-0.517091 0.112848 0.283172 253 63 65
-0.516148 0.114494 0.283394 252 60 74
-0.515208 0.116135 0.283615 255 71 92
-0.514272 0.117769 0.283835 255 51 30
-0.514108 0.119674 0.283974 254 51 34
-0.513944 0.121579 0.284114 247 49 30
-0.513012 0.123201 0.284333 231 44 25
-0.512848 0.125103 0.284472 215 38 19
-0.512684 0.127005 0.284611 203 34 12
-0.512521 0.128907 0.28475 197 32 9
-0.512357 0.130809 0.284889 201 32 11
-0.512194 0.132711 0.285028 214 37 16
-0.473573 0.135624 0.290108 223 21 0
-0.473423 0.137364 0.290236 214 19 0
-0.473912 0.139389 0.290299 211 14 0
-0.473762 0.141132 0.290427 222 20 1
-0.473612 0.142875 0.290554 226 32 13
-0.472824 0.144326 0.290744 221 32 15
-0.472039 0.145772 0.290934 208 26 8
-0.471256 0.147214 0.291123 193 19 1
-0.471107 0.148949 0.29125 182 13 2
-0.447903 0.151628 0.29436 210 22 2
-0.443875 0.151269 0.294849 204 17 1
-0.442095 0.15204 0.295122 196 15 0
-0.441413 0.15337 0.295292 186 14 0
-0.440193 0.154411 0.295511 185 12 1
-0.43898 0.155446 0.295729 194 16 2
-0.437774 0.156475 0.295946 208 23 2
-0.436576 0.157498 0.296162 216 26 3
-0.434336 0.157943 0.296474 217 28 4
-0.432122 0.158382 0.296782 216 34 8
-0.429425 0.158533 0.297134 208 35 11
-0.426766 0.158682 0.29748 197 29 6
-0.423652 0.158551 0.297867 191 23 2
-0.422538 0.15953 0.298069 193 21 2
-0.420944 0.160226 0.298315 201 28 5
-0.419363 0.160915 0.298558 217 32 8
-0.41732 0.161321 0.298842 235 38 17
-0.416243 0.162277 0.299039 244 44 27
-0.414234 0.162672 0.299318 244 48 30
-0.413173 0.163616 0.299511 236 41 17
-0.410283 0.163449 0.299868 227 39 14
-0.406991 0.163012 0.300258 218 39 17
-0.404642 0.163123 0.300563 210 38 20
-0.401455 0.162697 0.300941 201 35 18
-0.399181 0.162808 0.301236 194 36 17
-0.396936 0.162918 0.301528 184 38 20
-0.394305 0.162764 0.301852 171 41 28
-0.393357 0.163656 0.302028 135 48 42
-0.393235 0.165069 0.302131 102 54 47
-0.392291 0.165952 0.302306 80 57 48
-0.515689 0.104786 0.280933 86 66 56
-0.514752 0.10644 0.281158 135 53 50
-0.514588 0.108345 0.281297 210 52 48
-0.513654 0.10999 0.281521 252 61 48
-0.51349 0.111892 0.28166 255 55 44
-0.51256 0.113528 0.281883 255 53 42
-0.511633 0.115159 0.282105 255 52 41
-0.509952 0.116515 0.282409 254 52 35
-0.509034 0.118132 0.28263 249 51 32
-0.508872 0.120017 0.282767 238 47 26
-0.50871 0.121902 0.282905 224 42 22
-0.508548 0.123787 0.283043 214 38 16
-0.508386 0.125673 0.283181 209 36 13
-0.506724 0.126986 0.28348 210 36 15
-0.508814 0.129735 0.283375 219 38 18
-0.473262 0.133977 0.288299 224 27 13
-0.471842 0.135163 0.288558 217 19 0
-0.472327 0.137177 0.288619 212 18 0
-0.472177 0.138915 0.288746 212 14 0
-0.472028 0.140653 0.288873 223 28 8
-0.471878 0.142391 0.289 225 30 6
-0.471096 0.143838 0.289192 214 26 3
-0.470315 0.14528 0.289384 201 21 1
-0.469538 0.146718 0.289574 192 17 0
-0.470648 0.149044 0.289572 190 17 1
-0.450152 0.147924 0.292191 213 33 12
-0.447752 0.148442 0.292537 214 26 7
-0.444827 0.148673 0.292935 215 20 0
-0.443037 0.149458 0.293218 212 20 1
-0.441807 0.150515 0.293445 207 20 0
-0.440584 0.151567 0.29367 199 20 0
-0.439368 0.152612 0.293894 193 19 0
-0.438159 0.15365 0.294117 197 16 0
-0.436428 0.154401 0.29439 207 24 1
-0.434713 0.155145 0.294661 216 27 6
-0.432493 0.155601 0.29498 218 27 6
-0.429789 0.155773 0.295345 216 28 4
-0.426622 0.155665 0.295754 213 31 6
-0.42351 0.155559 0.296155 207 30 9
-0.421907 0.156273 0.29641 199 27 6
-0.420318 0.156981 0.296662 197 26 2
-0.418743 0.157683 0.296912 202 27 1
-0.416233 0.157835 0.29725 215 32 6
-0.414692 0.158525 0.297495 231 38 14
-0.413629 0.159482 0.297693 243 44 23
-0.412109 0.160162 0.297935 246 46 28
-0.408782 0.159755 0.298346 237 43 26
-0.406855 0.160155 0.298623 225 39 17
-0.404507 0.160285 0.298939 213 40 19
-0.401755 0.160149 0.299291 203 39 19
-0.399475 0.160278 0.299598 194 36 18
-0.398073 0.160927 0.299822 183 35 21
-0.39626 0.16131 0.300084 174 37 23
-0.396138 0.162736 0.300188 154 43 30
-0.394345 0.163108 0.300446 122 51 40
-0.392983 0.163737 0.300663 90 57 48
-0.392861 0.16515 0.300766 77 57 48
-0.511349 0.103642 0.27953 85 64 56
-0.511186 0.105533 0.279668 147 53 45
-0.511023 0.107425 0.279806 225 51 40
-0.510102 0.10906 0.280031 255 59 42
-0.509185 0.11069 0.280255 255 55 41
-0.50827 0.112315 0.280479 255 52 40
-0.507359 0.113933 0.280702 255 53 38
-0.50645 0.115547 0.280924 253 55 37
-0.505545 0.117154 0.281145 244 51 31
-0.505384 0.119026 0.281282 233 45 26
-0.504483 0.120625 0.281502 221 42 22
-0.504322 0.122495 0.281638 215 39 16
-0.504161 0.124364 0.281775 215 38 16
-0.504 0.126233 0.281911 222 42 20
-0.506065 0.128964 0.281799 232 44 23
-0.470901 0.133248 0.286823 222 20 3
-0.470752 0.13498 0.286949 214 14 0
-0.471234 0.136991 0.287008 212 13 0
-0.471085 0.138726 0.287134 219 21 0
-0.470935 0.140461 0.287261 226 29 9
-0.470155 0.141909 0.287456 221 28 6
-0.469378 0.143353 0.287649 211 26 1
-0.469229 0.145082 0.287776 203 25 0
-0.46908 0.146812 0.287902 198 25 1
-0.45 0.144718 0.290357 209 34 17
-0.448162 0.145531 0.290655 211 34 12
-0.446341 0.146337 0.290951 213 26 4
-0.444537 0.147136 0.291245 213 19 0
-0.442749 0.147928 0.291535 212 18 0
-0.441519 0.14899 0.291767 211 21 0
-0.440297 0.150046 0.291997 203 22 0
-0.439619 0.151375 0.292171 198 21 0
-0.438408 0.152419 0.292399 199 20 0
-0.436673 0.153176 0.29268 207 22 0
-0.43548 0.154208 0.292905 217 29 2
-0.43325 0.154671 0.293235 221 29 5
-0.430532 0.15485 0.293614 221 29 5
-0.42735 0.15475 0.294039 218 28 5
-0.423728 0.154379 0.294506 214 27 6
-0.421634 0.154827 0.294817 208 32 9
-0.420046 0.155541 0.295076 202 27 3
-0.417516 0.155708 0.295429 204 26 0
-0.415022 0.155872 0.295777 214 30 2
-0.41349 0.15657 0.296027 228 36 8
-0.412433 0.157529 0.296229 238 41 20
-0.410923 0.158215 0.296475 241 44 22
-0.408066 0.158093 0.296854 233 42 21
-0.406146 0.158503 0.29714 221 39 19
-0.404246 0.158908 0.297422 206 38 18
-0.402366 0.159309 0.297701 194 36 18
-0.400507 0.159705 0.297977 184 35 17
-0.398668 0.160098 0.29825 173 36 21
-0.396847 0.160486 0.29852 160 41 29
-0.395883 0.161392 0.298706 136 45 38
-0.394092 0.16177 0.298972 110 51 44
-0.393143 0.162666 0.299156 84 57 49
-0.392609 0.163818 0.299299 73 59 51
-0.509335 0.103248 0.277881 85 62 58
-0.509173 0.105133 0.278019 150 52 50
-0.508258 0.106767 0.278246 226 51 43
-0.507347 0.108396 0.278473 254 54 39
-0.505695 0.109764 0.278787 255 51 38
-0.505534 0.111636 0.278924 255 54 38
-0.504632 0.113247 0.279148 253 54 36
-0.502997 0.114592 0.279458 248 53 34
-0.502104 0.11619 0.27968 236 47 25
-0.501215 0.117783 0.279902 225 43 24
-0.501055 0.119639 0.280037 218 39 19
-0.500168 0.121224 0.280258 218 40 16
-0.500009 0.123077 0.280393 225 44 22
-0.50277 0.126049 0.280189 235 47 26
-0.469962 0.131339 0.285093 234 30 9
-0.470443 0.133341 0.285148 224 23 2
-0.470293 0.135073 0.285274 217 19 0
-0.470144 0.136805 0.285401 215 20 3
-0.469995 0.138538 0.285527 227 28 7
-0.469846 0.14027 0.285654 230 30 9
-0.469069 0.141717 0.285851 223 27 4
-0.46892 0.143446 0.285977 214 26 1
-0.468772 0.145176 0.286103 204 26 1
-0.449706 0.143159 0.288643 205 31 8
-0.446748 0.143432 0.289072 209 30 7
-0.443286 0.143431 0.289556 213 24 3
-0.442599 0.144779 0.289734 212 18 0
-0.441914 0.146124 0.289912 210 14 0
-0.441231 0.147465 0.290089 208 15 0
-0.440009 0.148525 0.290324 203 18 2
-0.439332 0.149857 0.2905 197 19 2
-0.438657 0.151184 0.290675 198 21 1
-0.436919 0.151948 0.290965 207 24 0
-0.435723 0.152985 0.291195 218 28 1
-0.434534 0.154015 0.291424 226 32 5
-0.432312 0.154479 0.291762 228 30 5
-0.429096 0.154382 0.292205 224 31 8
-0.424441 0.153466 0.2928 219 30 12
-0.421848 0.15365 0.293173 213 28 12
-0.419774 0.1541 0.29349 205 29 6
-0.417246 0.154277 0.293854 205 27 1
-0.414753 0.154452 0.294213 216 29 1
-0.412758 0.15489 0.294518 229 34 5
-0.411705 0.155853 0.294724 239 38 13
-0.410657 0.156811 0.294929 240 39 16
-0.407803 0.1567 0.29532 227 38 15
-0.405884 0.157118 0.295614 213 38 15
-0.403985 0.15753 0.295904 197 37 15
-0.402107 0.157938 0.296191 184 34 17
-0.400681 0.158604 0.296431 174 33 17
-0.399266 0.159263 0.296669 160 37 22
-0.397862 0.159918 0.296905 142 44 31
-0.396469 0.160568 0.297139 123 51 42
-0.395506 0.161473 0.297329 98 53 48
-0.393717 0.161851 0.297602 81 58 50
-0.392768 0.162747 0.297789 75 61 50
-0.507335 0.102858 0.276244 85 62 58
-0.506427 0.10449 0.276473 136 52 54
-0.505522 0.106117 0.276702 206 50 41
-0.505361 0.107989 0.276839 246 51 34
-0.503721 0.109354 0.277157 254 49 36
-0.502825 0.110964 0.277384 252 48 33
-0.501203 0.112311 0.277699 245 47 28
-0.500316 0.113908 0.277924 231 46 26
-0.499432 0.1155 0.278147 222 41 27
-0.499273 0.11735 0.278282 220 44 23
-0.499114 0.1192 0.278417 229 43 21
-0.498955 0.12105 0.278552 236 48 24
-0.499519 0.123175 0.2786 243 51 31
-0.469654 0.129702 0.283294 246 34 15
-0.469505 0.131431 0.28342 238 27 8
-0.469356 0.133161 0.283547 229 25 3
-0.469835 0.135166 0.283599 226 24 0
-0.469686 0.136899 0.283726 228 26 3
-0.469537 0.138631 0.283852 236 32 9
-0.468761 0.14008 0.284052 233 32 7
-0.468612 0.14181 0.284178 223 29 3
-0.468463 0.14354 0.284304 210 31 4
-0.44998 0.141874 0.286864 207 27 9
-0.446456 0.141886 0.287371 210 30 10
-0.442997 0.141898 0.28787 213 25 4
-0.441764 0.14298 0.288113 214 19 1
-0.441082 0.144325 0.288293 211 13 0
-0.440401 0.145667 0.288472 206 9 0
-0.439722 0.147004 0.288651 201 10 0
-0.439046 0.148338 0.288829 195 11 3
-0.438371 0.149668 0.289007 197 17 3
-0.437165 0.150716 0.289244 207 24 2
-0.435438 0.15148 0.289539 221 29 3
-0.434775 0.152793 0.289714 232 32 5
-0.433069 0.153544 0.290005 236 33 7
-0.430862 0.154009 0.290351 231 32 7
-0.427163 0.153641 0.290861 223 31 8
-0.423538 0.153281 0.291361 215 28 7
-0.420469 0.153196 0.291797 210 26 4
-0.417929 0.15338 0.292174 208 26 1
-0.414485 0.153032 0.292649 217 29 1
-0.412491 0.153477 0.292962 229 33 5
-0.411439 0.154444 0.293173 236 37 10
-0.410392 0.155406 0.293382 233 39 13
-0.407539 0.155307 0.293786 218 35 11
-0.406067 0.155994 0.29404 201 36 14
-0.404607 0.156675 0.294291 186 35 13
-0.402284 0.156828 0.294635 173 34 14
-0.400855 0.157499 0.294881 160 36 21
-0.399867 0.158424 0.295079 148 39 27
-0.398457 0.159084 0.295322 125 47 36
-0.397482 0.16 0.295518 105 54 44
-0.396091 0.160649 0.295758 90 58 52
-0.395548 0.161817 0.295907 76 59 49
-0.393341 0.161933 0.296231 73 60 48
-0.505349 0.102469 0.274617 78 61 59
-0.505188 0.104342 0.274754 103 55 54
-0.504286 0.105966 0.274985 165 46 33
-0.503388 0.107585 0.275216 219 43 23
-0.501761 0.108946 0.275539 235 46 30
-0.500145 0.110299 0.27586 236 49 30
-0.499262 0.111896 0.276087 232 50 27
-0.498381 0.113489 0.276314 230 47 27
-0.497504 0.115076 0.276539 231 44 28
-0.497345 0.11692 0.276674 239 52 29
-0.497186 0.118764 0.276808 251 56 34
-0.497028 0.120608 0.276943 255 56 37
-0.469345 0.128065 0.281495 250 39 19
-0.469196 0.129794 0.281621 245 30 10
-0.469047 0.131524 0.281748 239 26 7
-0.468898 0.133254 0.281874 235 26 4
-0.469377 0.135259 0.281924 237 29 6
-0.469228 0.136992 0.28205 241 34 12
-0.468452 0.138443 0.282252 240 35 10
-0.468303 0.140173 0.282379 230 31 9
-0.468154 0.141904 0.282505 216 26 4
-0.451398 0.141128 0.284942 206 26 7
-0.447284 0.140877 0.285537 213 29 11
-0.443256 0.140631 0.286119 218 32 17
-0.441476 0.141451 0.286432 220 23 2
-0.440794 0.142799 0.286614 215 17 0
-0.440113 0.144143 0.286796 208 11 0
-0.438897 0.145212 0.287041 200 8 0
-0.438759 0.146819 0.287158 195 9 0
-0.438084 0.148152 0.287338 196 19 0
-0.437412 0.14948 0.287518 210 24 1
-0.435682 0.15025 0.287821 225 30 6
-0.434491 0.151291 0.28806 237 33 9
-0.432786 0.152048 0.288358 242 34 10
-0.431613 0.153075 0.288594 237 34 8
-0.428911 0.153266 0.289006 227 33 8
-0.425747 0.15318 0.28947 216 29 6
-0.422146 0.152825 0.289982 210 26 3
-0.419097 0.152745 0.290429 212 26 2
-0.415155 0.152137 0.290977 219 29 6
-0.413153 0.152589 0.291301 228 36 9
-0.411172 0.153035 0.291621 227 38 11
-0.410126 0.154001 0.291834 219 37 12
-0.407276 0.153914 0.292252 205 35 10
-0.406252 0.154867 0.292461 188 31 8
-0.404346 0.155293 0.292769 175 31 11
-0.402461 0.155715 0.293074 166 29 16
-0.401029 0.156391 0.293327 151 33 23
-0.399609 0.157061 0.293578 132 45 31
-0.399055 0.158246 0.293731 107 52 42
-0.39765 0.158906 0.293979 88 56 49
-0.397102 0.160082 0.294131 77 58 54
-0.396133 0.160992 0.294329 74 60 56
-0.503376 0.102084 0.273002 86 63 56
-0.503216 0.10395 0.273138 91 62 54
-0.501589 0.105324 0.273468 122 54 38
-0.501429 0.107183 0.273604 176 45 25
-0.499814 0.108542 0.273931 224 45 28
-0.498931 0.110143 0.274162 249 54 38
-0.497333 0.111484 0.274486 255 55 40
-0.495746 0.112817 0.274808 255 52 38
-0.49417 0.114141 0.275127 255 51 37
-0.491904 0.115198 0.275536 255 60 41
-0.491747 0.11702 0.275669 255 60 41
-0.49654 0.120704 0.275159 255 57 37
-0.469185 0.124698 0.27957 232 46 34
-0.469036 0.126428 0.279696 252 48 26
-0.468887 0.128157 0.279822 250 30 4
-0.468739 0.129887 0.279948 244 24 3
-0.46859 0.131617 0.280074 240 24 4
-0.469068 0.13362 0.280121 242 31 10
-0.468919 0.135352 0.280248 247 38 16
-0.468769 0.137085 0.280374 247 37 14
-0.46862 0.138818 0.280501 236 32 6
-0.449248 0.140402 0.28355 217 42 18
-0.44462 0.139893 0.284225 224 40 15
-0.441187 0.139923 0.284751 228 24 1
-0.440505 0.141273 0.284936 222 22 0
-0.439825 0.14262 0.28512 215 17 0
-0.43861 0.143693 0.285369 206 15 0
-0.438472 0.1453 0.285487 198 12 0
-0.437798 0.146635 0.285669 199 13 0
-0.437126 0.147966 0.285851 212 27 2
-0.435926 0.149017 0.286097 230 32 7
-0.434732 0.150063 0.286342 242 35 11
-0.433024 0.150826 0.286648 246 36 12
-0.431331 0.151583 0.286952 240 35 10
-0.429141 0.152059 0.287314 230 33 8
-0.426976 0.152529 0.287673 221 31 8
-0.424836 0.152994 0.288027 218 27 7
-0.420762 0.152372 0.288611 220 30 8
-0.41583 0.151237 0.289295 222 35 10
-0.412885 0.151172 0.289741 222 38 14
-0.411366 0.151887 0.290015 218 37 12
-0.40986 0.152596 0.290287 206 35 11
-0.407012 0.152521 0.290717 192 32 10
-0.405989 0.153477 0.29093 178 31 12
-0.404527 0.15417 0.291195 166 32 17
-0.403077 0.154857 0.291457 147 38 21
-0.402075 0.155797 0.291666 126 41 24
-0.400213 0.156214 0.291975 104 47 31
-0.399226 0.157143 0.292181 87 55 41
-0.398673 0.158328 0.292336 75 59 48
-0.39727 0.158987 0.29259 71 60 53
-0.500529 0.103319 0.271633 85 64 56
-0.499643 0.104932 0.271867 93 61 53
-0.499484 0.106785 0.272003 119 55 41
-0.498601 0.108389 0.272236 176 47 29
-0.496289 0.109487 0.272664 232 48 32
-0.494708 0.110824 0.272992 255 55 37
-0.492435 0.1119 0.273412 255 55 39
-0.489493 0.112714 0.273922 254 59 39
-0.483878 0.11252 0.274791 255 55 37
-0.477756 0.112088 0.275725 255 55 39
-0.477605 0.113851 0.275854 255 54 36
-0.466682 0.118606 0.27785 231 29 8
-0.4653 0.119825 0.278139 228 31 10
-0.467006 0.122296 0.278018 232 39 19
-0.466858 0.124017 0.278144 247 44 28
-0.467954 0.126259 0.278105 251 27 5
-0.46843 0.12825 0.278149 244 22 0
-0.468281 0.12998 0.278275 241 21 3
-0.468132 0.131709 0.278401 241 26 15
-0.448811 0.140492 0.281953 235 38 16
-0.441443 0.138657 0.283 236 29 8
-0.440217 0.139747 0.283257 232 23 0
-0.439538 0.141096 0.283443 223 20 0
-0.438323 0.142174 0.283698 214 19 0
-0.438185 0.143781 0.283815 204 17 0
-0.437511 0.145118 0.284 205 19 0
-0.43684 0.146451 0.284185 219 26 3
-0.43564 0.147507 0.284436 236 36 10
-0.434448 0.148557 0.284685 246 40 15
-0.433786 0.149876 0.284867 249 38 16
-0.431566 0.150365 0.285245 244 39 14
-0.429371 0.150848 0.285618 236 39 13
-0.427708 0.151598 0.285923 227 37 15
-0.425558 0.15207 0.286288 223 36 16
-0.421954 0.151726 0.286833 225 34 17
-0.416984 0.150595 0.287545 223 37 16
-0.414017 0.150535 0.288007 216 39 15
-0.411561 0.150735 0.288404 205 36 13
-0.410052 0.15145 0.288683 195 32 12
-0.407198 0.151384 0.289127 179 32 15
-0.406173 0.152345 0.289345 159 33 17
-0.404709 0.153043 0.289616 138 35 22
-0.403256 0.153736 0.289885 120 40 31
-0.401815 0.154423 0.290152 102 49 39
-0.401254 0.15562 0.290311 89 54 40
-0.399829 0.156296 0.290575 80 57 41
-0.399274 0.157485 0.290732 73 58 44
-0.49771 0.104542 0.270277 79 68 59
-0.497551 0.106389 0.270412 87 64 56
-0.495961 0.107742 0.270748 115 57 48
-0.493674 0.108837 0.271181 151 51 37
-0.490713 0.109674 0.271708 187 47 29
-0.489169 0.110995 0.272035 220 41 26
-0.483559 0.110825 0.272929 238 44 23
-0.477442 0.110417 0.273891 245 47 30
-0.471502 0.110022 0.274824 254 43 22
-0.468834 0.110809 0.275301 254 43 21
-0.466201 0.111587 0.275771 248 34 13
-0.464823 0.112827 0.276066 244 32 11
-0.462845 0.113821 0.276444 241 31 10
-0.462699 0.115523 0.276568 243 36 15
-0.461947 0.116983 0.276775 244 39 20
-0.464847 0.119916 0.276481 244 41 25
-0.4647 0.12163 0.276606 246 42 28
-0.465784 0.123853 0.276563 247 31 18
-0.466254 0.125831 0.276604 244 22 0
-0.467972 0.128342 0.276475 236 22 0
-0.446683 0.139772 0.280581 244 31 14
-0.439929 0.138221 0.281578 241 25 2
-0.438711 0.139309 0.281838 232 23 0
-0.438036 0.140654 0.282026 223 19 2
-0.437898 0.142262 0.282144 215 19 0
-0.437225 0.143601 0.282331 217 24 1
-0.436554 0.144936 0.282518 227 31 8
-0.435884 0.146268 0.282705 238 39 18
-0.43469 0.147323 0.282959 243 46 24
-0.433502 0.148372 0.283213 243 44 18
-0.432321 0.149415 0.283465 244 42 18
-0.430116 0.149906 0.283849 242 44 21
-0.427429 0.150119 0.284295 236 47 25
-0.42528 0.150599 0.284669 228 50 29
-0.42217 0.150537 0.285167 219 47 28
-0.41863 0.150212 0.285718 212 38 22
-0.415159 0.149893 0.286259 199 34 17
-0.412219 0.149838 0.286729 184 32 14
-0.410704 0.150559 0.287016 167 32 14
-0.408745 0.151016 0.287359 151 37 19
-0.406807 0.151467 0.287697 135 41 31
-0.405783 0.152428 0.287919 115 44 36
-0.40432 0.153126 0.288196 98 48 41
-0.402869 0.153818 0.288471 85 53 48
-0.401866 0.154763 0.288688 78 56 48
-0.400869 0.155703 0.288905 76 60 48
-0.492098 0.104789 0.269346 82 62 55
-0.491241 0.106372 0.269581 87 60 55
-0.489001 0.107463 0.270015 96 58 57
-0.486784 0.108544 0.270446 110 55 54
-0.483239 0.109129 0.271066 131 51 41
-0.474535 0.107802 0.272429 151 51 25
-0.470559 0.108142 0.273107 176 44 22
-0.467902 0.10894 0.273594 215 43 27
-0.465279 0.109728 0.274074 246 51 35
-0.462688 0.110506 0.274548 254 52 32
-0.461936 0.111974 0.274759 255 43 26
-0.460584 0.113201 0.275054 255 41 23
-0.460438 0.114896 0.275178 255 51 33
-0.459693 0.11635 0.275387 255 56 40
-0.460748 0.118528 0.27534 254 51 37
-0.460602 0.120226 0.275464 249 40 21
-0.461662 0.122424 0.275417 243 24 0
-0.465181 0.125663 0.275025 235 23 1
-0.438026 0.13592 0.28012 250 27 5
-0.437887 0.137527 0.280237 246 24 1
-0.437214 0.138874 0.280428 243 27 6
-0.437076 0.140479 0.280545 240 30 14
-0.436938 0.142084 0.280662 229 33 14
-0.436267 0.143422 0.280851 224 40 18
-0.435599 0.144755 0.28104 221 42 20
-0.434405 0.145815 0.2813 220 40 19
-0.434267 0.147411 0.281416 218 37 15
-0.433081 0.14846 0.281674 215 35 11
-0.431382 0.14923 0.282 212 35 14
-0.428164 0.149179 0.28253 208 34 12
-0.425002 0.149129 0.28305 202 31 8
-0.422386 0.149345 0.283496 196 28 7
-0.418357 0.148768 0.284129 187 26 8
-0.415361 0.148723 0.284622 174 24 15
-0.413349 0.149196 0.284982 157 28 20
-0.411822 0.149922 0.285278 136 35 25
-0.409849 0.150384 0.285631 117 43 30
-0.408351 0.151099 0.285921 102 53 37
-0.406866 0.151808 0.286209 92 54 44
-0.40584 0.15277 0.286435 83 56 47
-0.403931 0.153209 0.286776 76 58 50
-0.402482 0.153901 0.287057 71 60 53
-0.483747 0.10588 0.268973 83 60 57
-0.479589 0.106247 0.2697 86 59 55
-0.474222 0.106142 0.270606 92 61 51
-0.468992 0.106039 0.271488 99 60 48
-0.466353 0.106848 0.271983 108 57 46
-0.464359 0.107876 0.272382 137 50 36
-0.462384 0.108894 0.272777 188 49 28
-0.461029 0.110133 0.273079 249 57 39
-0.460282 0.111596 0.273291 255 58 41
-0.45894 0.112821 0.27359 255 51 31
-0.458794 0.114511 0.273713 255 47 28
-0.458054 0.115961 0.273924 255 47 33
-0.4591 0.118132 0.273872 252 39 26
-0.458954 0.119824 0.273996 246 26 8
-0.458809 0.121516 0.274119 236 22 1
-0.461065 0.124217 0.273893 229 26 7
-0.436671 0.133892 0.2786 254 34 12
-0.436002 0.13524 0.278792 250 35 11
-0.435864 0.13684 0.278909 241 38 15
-0.435726 0.138441 0.279025 233 36 16
-0.435588 0.140041 0.279142 224 32 16
-0.435451 0.141642 0.279258 214 30 11
-0.434784 0.142976 0.279449 203 30 11
-0.43412 0.144307 0.27964 196 26 10
-0.433982 0.145903 0.279756 191 21 8
-0.432796 0.146956 0.280019 186 18 9
-0.432659 0.148548 0.280135 178 18 10
-0.430446 0.149045 0.28054 166 21 12
-0.426734 0.148727 0.281151 151 27 13
-0.423594 0.148681 0.281682 138 37 15
-0.420019 0.148372 0.282271 126 45 21
-0.415564 0.14755 0.28298 117 48 31
-0.413548 0.14803 0.28335 105 50 41
-0.412483 0.149021 0.283589 96 55 42
-0.411425 0.150006 0.283826 90 57 43
-0.409912 0.150727 0.284125 84 59 46
-0.408868 0.151701 0.284359 78 63 51
-0.406474 0.151891 0.284777 77 60 45
-0.467435 0.103949 0.269879 85 63 52
-0.464814 0.104769 0.270383 86 64 52
-0.462834 0.105803 0.270788 84 64 49
-0.461475 0.107054 0.271097 94 63 51
-0.460726 0.108525 0.271313 121 52 40
-0.45938 0.109761 0.271618 217 48 36
-0.458043 0.11099 0.271922 250 54 39
-0.457898 0.112677 0.272045 255 56 38
-0.457753 0.114363 0.272168 255 55 37
-0.457015 0.115812 0.272381 253 51 38
-0.457462 0.117737 0.272414 249 35 20
-0.457317 0.119424 0.272537 241 24 3
-0.457172 0.121111 0.27266 228 32 17
-0.45762 0.123048 0.272694 226 51 46
-0.434796 0.131627 0.277166 251 41 18
-0.434133 0.132972 0.277359 245 36 14
-0.433996 0.134565 0.277475 235 35 13
-0.433858 0.136159 0.277591 223 33 12
-0.433197 0.137495 0.277784 211 27 10
-0.433584 0.139346 0.277824 197 24 11
-0.433447 0.14094 0.27794 179 25 11
-0.432264 0.142006 0.278207 159 30 15
-0.431607 0.143331 0.278398 142 32 19
-0.432512 0.145453 0.278364 130 33 24
-0.432375 0.147044 0.278479 122 39 31
-0.431197 0.148091 0.278745 117 48 38
-0.430027 0.149133 0.279009 109 51 37
-0.42632 0.148813 0.279637 98 54 39
-0.421701 0.147971 0.280392 91 56 44
-0.41816 0.14767 0.280992 83 61 52
-0.414689 0.147376 0.281579 78 67 59
-0.413148 0.148114 0.28189 75 60 58
-0.459823 0.106691 0.26964 83 61 55
-0.459078 0.108159 0.269857 99 63 49
-0.457742 0.109392 0.270167 192 47 43
-0.457597 0.111079 0.27029 248 55 39
-0.456859 0.112533 0.270505 255 57 39
-0.456124 0.113982 0.270719 255 59 38
-0.45598 0.115663 0.270842 254 41 17
-0.456424 0.117586 0.270873 246 28 4
-0.45569 0.119027 0.271087 232 29 23
-0.455545 0.120709 0.271209 221 49 73
-0.455989 0.122639 0.271241 222 85 124
-0.437303 0.129752 0.274986 250 47 27
-0.435039 0.130365 0.275426 246 44 21
-0.434374 0.131714 0.275622 236 40 17
-0.433711 0.133059 0.275817 221 33 15
-0.433574 0.134652 0.275934 207 29 13
-0.433437 0.136246 0.27605 187 29 12
-0.432776 0.137582 0.276244 164 33 16
-0.433162 0.139433 0.276282 146 38 26
-0.43198 0.140504 0.276554 126 44 39
-0.430806 0.141569 0.276825 107 48 44
-0.430669 0.143154 0.276941 96 53 48
-0.431051 0.145005 0.276979 89 55 51
-0.431954 0.147132 0.27694 84 55 51
-0.431817 0.148724 0.277056 84 58 51
-0.430124 0.149493 0.277402 82 58 48
-0.428445 0.150255 0.277746 79 59 46
-0.42577 0.150467 0.278236 76 59 47
-0.45818 0.106331 0.268192 85 61 56
-0.457441 0.107794 0.268411 100 58 49
-0.457296 0.109481 0.268534 186 44 41
-0.456559 0.110937 0.268752 249 59 41
-0.455824 0.112389 0.268969 255 62 46
-0.455092 0.113836 0.269186 255 48 35
-0.455534 0.115753 0.269214 251 32 12
-0.454803 0.117195 0.26943 243 27 3
-0.454073 0.118632 0.269646 233 54 44
-0.453346 0.120066 0.26986 224 105 119
-0.453201 0.12174 0.269982 221 152 175
-0.453057 0.123414 0.270104 234 150 149
-0.437016 0.128231 0.273313 240 47 29
-0.435812 0.129345 0.273597 236 42 29
-0.435144 0.130699 0.273797 222 38 15
-0.433951 0.1318 0.274078 208 30 11
-0.433814 0.133396 0.274194 188 30 19
-0.433677 0.134992 0.27431 165 36 28
-0.433539 0.136588 0.274426 137 44 33
-0.432877 0.137927 0.274624 112 53 36
-0.43274 0.139521 0.27474 101 57 45
-0.43156 0.140591 0.275017 91 61 59
-0.430386 0.141656 0.275292 83 58 57
-0.43025 0.143241 0.275408 80 61 60
-0.457139 0.106196 0.266655 82 63 56
-0.456994 0.107883 0.266778 99 58 52
-0.456258 0.109342 0.266998 194 44 45
-0.455524 0.110796 0.267218 251 66 48
-0.454792 0.112246 0.267438 255 62 47
-0.454062 0.113691 0.267656 254 39 20
-0.454503 0.115604 0.267682 250 28 6
-0.453773 0.117045 0.2679 247 36 13
-0.451887 0.118001 0.268308 247 45 28
-0.450018 0.118948 0.268712 248 47 39
-0.448166 0.119887 0.269112 249 45 39
-0.447458 0.121299 0.269324 245 42 35
-0.446751 0.122706 0.269536 235 37 17
-0.446609 0.124356 0.269656 227 35 16
-0.445906 0.125757 0.269868 226 34 13
-0.436729 0.12671 0.271641 235 43 20
-0.43659 0.128318 0.271758 230 41 21
-0.435388 0.129431 0.272046 212 34 20
-0.43525 0.131034 0.272163 194 32 18
-0.434583 0.132387 0.272364 179 33 20
-0.434445 0.133987 0.272481 147 39 31
-0.434307 0.135588 0.272597 118 48 45
-0.433642 0.136932 0.272798 96 57 51
-0.432979 0.138272 0.272998 85 61 50
-0.432842 0.139868 0.273114 83 63 52
-0.456102 0.106062 0.265122 83 57 51
-0.455957 0.107746 0.265245 103 56 50
-0.455223 0.109203 0.265467 205 48 42
-0.453907 0.110426 0.265789 252 71 53
-0.453763 0.112103 0.265911 255 47 32
-0.452455 0.113314 0.266229 252 36 24
-0.452892 0.115221 0.266253 253 35 15
-0.451589 0.11642 0.26657 252 39 28
-0.449721 0.117375 0.266982 247 46 55
-0.44787 0.118321 0.26739 244 50 61
-0.447163 0.119735 0.267605 242 48 42
-0.446457 0.121146 0.26782 239 41 25
-0.446315 0.122795 0.26794 232 42 18
-0.445611 0.124198 0.268154 228 36 15
-0.44491 0.125598 0.268367 229 34 11
-0.441998 0.126003 0.268948 232 35 13
-0.438049 0.125915 0.2697 234 41 20
-0.436303 0.126797 0.270084 226 41 21
-0.436164 0.128405 0.270201 209 37 19
-0.435494 0.129765 0.270406 189 34 25
-0.435356 0.131371 0.270523 175 36 30
-0.435217 0.132976 0.27064 146 42 35
-0.435079 0.134582 0.270757 107 52 47
-0.434411 0.135931 0.270961 87 57 55
-0.433745 0.137277 0.271164 79 60 56
-0.455068 0.105928 0.263594 93 56 46
-0.454336 0.107385 0.263819 140 52 39
-0.453608 0.108838 0.264043 225 51 36
-0.452881 0.110286 0.264266 253 53 44
-0.452157 0.111731 0.264489 251 37 28
-0.451434 0.11317 0.264711 248 46 43
-0.451291 0.11484 0.264832 252 43 29
-0.449424 0.115802 0.265252 249 54 46
-0.447575 0.116755 0.265668 249 120 93
-0.446868 0.118172 0.265886 254 161 103
-0.446725 0.119823 0.266006 254 115 66
-0.44602 0.121234 0.266223 250 60 40
-0.445317 0.12264 0.26644 233 39 20
-0.444616 0.124041 0.266655 229 38 20
-0.441706 0.124459 0.267249 231 35 16
-0.437761 0.124387 0.268019 233 43 23
-0.437085 0.12576 0.268228 225 42 21
-0.435877 0.126884 0.268528 207 37 19
-0.435739 0.128492 0.268645 188 38 24
-0.435069 0.129852 0.268852 173 41 33
-0.434931 0.131458 0.268969 154 44 44
-0.435323 0.133316 0.268996 109 56 53
-0.434654 0.134669 0.269203 85 57 57
-0.434516 0.136275 0.26932 78 62 57
-0.454181 0.104114 0.261948 80 58 49
-0.453452 0.105572 0.262175 109 55 41
-0.453308 0.107249 0.262297 188 48 36
-0.452002 0.108475 0.262627 246 55 38
-0.45128 0.10992 0.262852 255 37 18
-0.451136 0.111589 0.262973 250 38 17
-0.44927 0.112566 0.263401 252 40 25
-0.449127 0.114228 0.263522 252 41 24
-0.448414 0.115655 0.263744 249 45 35
-0.447137 0.116843 0.264066 251 64 54
-0.44643 0.11826 0.264287 255 70 61
-0.445726 0.119672 0.264506 251 56 49
-0.445023 0.121081 0.264725 241 39 23
-0.444323 0.122485 0.264944 233 36 13
-0.443069 0.123641 0.265259 229 35 14
-0.437472 0.122859 0.266338 233 41 23
-0.436796 0.124234 0.26655 227 46 32
-0.436123 0.125604 0.266761 212 39 27
-0.435451 0.126971 0.266971 195 34 23
-0.435313 0.128579 0.267088 181 38 27
-0.435174 0.130187 0.267205 164 44 34
-0.435036 0.131795 0.267322 134 44 36
-0.434897 0.133404 0.267439 91 56 51
-0.434759 0.135012 0.267556 78 61 58
-0.453297 0.102307 0.260307 77 58 46
-0.452571 0.103765 0.260536 89 56 43
-0.451847 0.10522 0.260764 140 53 38
-0.451703 0.106891 0.260886 222 50 38
-0.450982 0.108339 0.261114 251 49 40
-0.449117 0.109331 0.26155 254 30 6
-0.448404 0.110766 0.261776 252 32 9
-0.447126 0.111968 0.262103 253 32 10
-0.448118 0.114084 0.262017 252 35 15
-0.446841 0.115276 0.262344 248 40 24
-0.446135 0.116696 0.262567 245 44 35
-0.445431 0.118111 0.262789 243 44 35
-0.444729 0.119522 0.263011 239 39 26
-0.444029 0.120929 0.263232 233 35 19
-0.442776 0.12209 0.263552 232 35 16
-0.437721 0.121567 0.26456 235 42 17
-0.435441 0.122233 0.265064 236 49 31
-0.434772 0.123602 0.265276 222 39 24
-0.435164 0.125449 0.265297 203 33 23
-0.435026 0.127057 0.265414 189 36 30
-0.434887 0.128666 0.265531 178 41 39
-0.434749 0.130274 0.265648 157 47 45
-0.43461 0.131882 0.265765 117 59 47
-0.434471 0.133491 0.265882 84 68 59
-0.451115 0.101749 0.259011 79 61 49
-0.450395 0.103202 0.259241 111 56 44
-0.450252 0.104869 0.259362 189 52 41
-0.450108 0.106536 0.259484 243 54 36
-0.44882 0.107757 0.25982 253 38 16
-0.447539 0.10897 0.260154 253 30 2
-0.446831 0.110401 0.260381 252 30 8
-0.445562 0.111601 0.260712 252 32 8
-0.446546 0.11371 0.260622 252 31 10
-0.44584 0.115132 0.260847 247 36 16
-0.444576 0.116316 0.261176 243 39 23
-0.443877 0.117727 0.2614 240 38 23
-0.443179 0.119135 0.261623 238 36 19
-0.44138 0.120062 0.26205 235 34 16
-0.437432 0.120036 0.262876 237 38 16
-0.434623 0.120477 0.263488 242 47 24
-0.431334 0.12068 0.264188 231 45 28
-0.431197 0.122271 0.264303 216 35 15
-0.432103 0.124337 0.264227 202 33 17
-0.433014 0.126416 0.264149 192 38 31
-0.433931 0.128507 0.264072 176 43 42
-0.433793 0.130113 0.264188 143 46 46
-0.434184 0.13197 0.264208 99 53 49
-0.434045 0.133578 0.264325 77 60 49
-0.450241 0.0999563 0.257384 78 61 54
-0.448952 0.101197 0.257727 91 59 51
-0.448809 0.102859 0.257848 147 53 41
-0.448096 0.104304 0.258079 222 52 40
-0.447953 0.105963 0.258199 251 49 35
-0.446678 0.10718 0.258538 253 31 2
-0.44541 0.10839 0.258875 252 34 2
-0.444707 0.109815 0.259102 251 33 9
-0.444008 0.111237 0.259329 252 34 13
-0.444983 0.113338 0.259234 250 31 11
-0.444282 0.114756 0.259461 246 35 17
-0.442473 0.115706 0.2599 242 39 21
-0.441779 0.117112 0.260124 241 39 19
-0.44054 0.11828 0.260453 240 38 15
-0.435537 0.117811 0.261497 238 38 15
-0.433807 0.118727 0.261917 240 45 21
-0.430012 0.118715 0.262728 236 52 31
-0.428332 0.119614 0.263136 222 37 13
-0.428708 0.121425 0.263153 209 33 10
-0.430638 0.123949 0.262878 201 34 18
-0.431542 0.12602 0.262797 193 42 32
-0.432452 0.128104 0.262715 163 48 40
-0.43284 0.129952 0.262732 116 52 42
-0.433229 0.131806 0.26275 86 58 50
-0.433619 0.133666 0.262767 83 59 50
-0.448655 0.0996225 0.255996 78 59 52
-0.447943 0.101072 0.25623 117 55 48
-0.447233 0.102518 0.256463 190 53 39
-0.446524 0.103959 0.256695 244 54 33
-0.445819 0.105395 0.256926 252 39 20
-0.445115 0.106827 0.257157 251 30 5
-0.444413 0.108256 0.257387 250 32 3
-0.443714 0.109679 0.257617 250 33 7
-0.442462 0.110874 0.257954 251 31 11
-0.44343 0.112968 0.257856 250 28 9
-0.44218 0.114154 0.258192 246 36 19
-0.439842 0.114873 0.258741 243 41 21
-0.436993 0.115356 0.259389 243 40 18
-0.433132 0.11538 0.260234 242 38 16
-0.428322 0.114958 0.261261 241 43 19
-0.428185 0.116538 0.261376 239 48 24
-0.428049 0.118118 0.261491 227 42 20
-0.427402 0.11947 0.261705 215 33 8
-0.427266 0.121048 0.261819 207 33 13
-0.428667 0.123327 0.261636 200 38 25
-0.430079 0.125627 0.261452 184 48 40
-0.430982 0.127703 0.261366 142 53 47
-0.43189 0.129792 0.261281 95 54 49
-0.432277 0.131643 0.261296 75 58 51
-0.448358 0.0980476 0.254265 77 57 49
-0.447646 0.0994998 0.254502 92 56 46
-0.446936 0.100948 0.254737 153 53 43
-0.445666 0.102178 0.255086 228 53 39
-0.444962 0.103616 0.25532 252 50 30
-0.444261 0.105048 0.255552 252 34 7
-0.444119 0.106695 0.255672 249 32 6
-0.442864 0.107901 0.256016 249 31 5
-0.442169 0.109322 0.256247 249 30 4
-0.442028 0.110961 0.256366 250 29 4
-0.440785 0.112149 0.256706 249 28 6
-0.43955 0.11333 0.257044 247 33 13
-0.4351 0.113151 0.258026 245 39 18
-0.430754 0.112977 0.258985 243 40 18
-0.427528 0.113243 0.259718 244 42 18
-0.426375 0.11438 0.260035 242 46 22
-0.426239 0.115953 0.26015 232 44 23
-0.426104 0.117527 0.260264 218 36 14
-0.426475 0.119327 0.260277 209 34 13
-0.426848 0.121133 0.260291 205 34 18
-0.428247 0.123413 0.260101 199 43 34
-0.429657 0.125713 0.25991 169 51 41
-0.430039 0.127547 0.259923 122 59 48
-0.430421 0.129386 0.259936 86 60 53
-0.44735 0.0979271 0.252773 83 59 47
-0.44664 0.0993774 0.253011 125 53 39
-0.44537 0.100613 0.253365 198 53 37
-0.444667 0.102053 0.253601 246 51 32
-0.443966 0.103488 0.253837 253 39 18
-0.443267 0.104919 0.254072 250 32 4
-0.442571 0.106346 0.254306 249 31 3
-0.441325 0.10755 0.254653 248 32 4
-0.43954 0.108527 0.25511 249 28 2
-0.439399 0.110156 0.255228 248 30 4
-0.437092 0.110896 0.255792 247 31 6
-0.434281 0.111405 0.256458 247 32 10
-0.43047 0.11147 0.257327 244 39 18
-0.427246 0.11175 0.258075 243 43 20
-0.426093 0.112891 0.258397 243 46 21
-0.425452 0.114244 0.258615 238 46 22
-0.425822 0.116037 0.258626 226 36 15
-0.425687 0.117611 0.25874 213 33 14
-0.426058 0.119412 0.258751 205 34 17
-0.42643 0.121218 0.258762 203 39 23
-0.42834 0.123733 0.258461 194 47 39
-0.429235 0.125798 0.258367 148 52 42
-0.429616 0.127633 0.258378 98 57 47
-0.430519 0.129719 0.258284 74 59 52
-0.446487 0.0961502 0.251165 81 60 53
-0.44578 0.097601 0.251405 96 58 45
-0.445075 0.0990475 0.251644 166 53 40
-0.444372 0.10049 0.251883 232 53 40
-0.443672 0.101928 0.252121 254 45 25
-0.442973 0.103361 0.252358 253 33 3
-0.441724 0.104576 0.252712 250 32 3
-0.440483 0.105783 0.253063 249 32 3
-0.438704 0.106766 0.253527 247 29 3
-0.435869 0.107309 0.254213 249 28 3
-0.436265 0.109143 0.254217 248 30 5
-0.433993 0.109883 0.254783 248 33 8
-0.430705 0.110179 0.25556 248 34 12
-0.426964 0.110256 0.256431 244 40 20
-0.425812 0.111401 0.256758 244 47 24
-0.425171 0.112757 0.256978 240 48 24
-0.425036 0.114328 0.257092 230 41 19
-0.4249 0.1159 0.257206 219 36 13
-0.42527 0.117695 0.257215 209 36 15
-0.42564 0.119497 0.257224 205 34 19
-0.427031 0.121766 0.257021 202 44 28
-0.428951 0.124292 0.256709 180 49 39
-0.429331 0.126124 0.256718 129 53 42
-0.430233 0.128206 0.256618 87 56 47
-0.430095 0.129805 0.256734 72 59 50
-0.444922 0.0958299 0.249803 83 61 50
-0.44422 0.0972769 0.250045 128 54 41
-0.444077 0.0989265 0.250165 202 55 40
-0.443377 0.100367 0.250405 247 47 35
-0.442679 0.101803 0.250645 254 34 19
-0.441431 0.103022 0.251004 251 32 7
-0.44019 0.104234 0.25136 249 35 7
-0.438413 0.105225 0.251832 250 34 4
-0.43558 0.105779 0.25253 249 30 4
-0.432788 0.106325 0.253218 251 30 3
-0.43265 0.107929 0.253334 251 29 6
-0.43042 0.10867 0.2539 250 33 10
-0.427191 0.108974 0.254678 249 34 12
-0.426037 0.110125 0.255011 246 41 19
-0.42489 0.11127 0.255342 241 48 28
-0.424755 0.112841 0.255456 232 44 26
-0.424619 0.114412 0.25557 221 37 18
-0.424988 0.116206 0.255576 214 35 15
-0.425358 0.118005 0.255583 208 36 16
-0.426238 0.120038 0.255481 207 37 23
-0.427123 0.122084 0.255379 200 48 37
-0.429046 0.124616 0.255057 155 51 38
-0.429947 0.126693 0.254952 106 54 41
-0.429809 0.128292 0.255069 81 57 45
-0.444067 0.0940639 0.248207 80 62 52
-0.443367 0.0955115 0.24845 92 56 49
-0.443225 0.0971586 0.24857 169 51 38
-0.443083 0.0988058 0.248689 235 52 35
-0.442385 0.100244 0.248931 254 41 21
-0.441138 0.101468 0.249295 252 30 7
-0.439898 0.102685 0.249657 249 31 8
-0.437581 0.103472 0.250255 248 34 7
-0.434757 0.104038 0.250964 251 33 2
-0.432501 0.104806 0.251547 251 32 3
-0.430272 0.105566 0.252123 252 31 2
-0.430135 0.10716 0.252239 252 33 8
-0.426909 0.107478 0.253032 251 34 10
-0.425756 0.108633 0.25337 248 38 13
-0.424609 0.109782 0.253705 245 47 24
-0.424474 0.111353 0.253819 236 46 28
-0.424338 0.112925 0.253933 224 40 24
-0.424203 0.114496 0.254047 215 37 19
-0.424571 0.11629 0.254051 212 34 16
-0.425447 0.118316 0.253945 209 35 19
-0.426329 0.120353 0.253839 206 40 29
-0.428244 0.122871 0.253508 190 51 44
-0.429141 0.12494 0.253399 132 52 40
-0.430044 0.127021 0.25329 89 56 42
-0.429906 0.128624 0.253406 74 59 46
-0.442516 0.0937513 0.24686 89 59 47
-0.442375 0.0953959 0.246979 132 52 48
-0.442233 0.0970407 0.247098 211 54 40
-0.441538 0.0984797 0.247343 250 44 27
-0.440845 0.0999144 0.247587 254 33 13
-0.439606 0.101136 0.247953 250 31 7
-0.43729 0.101932 0.248562 247 33 7
-0.434469 0.10251 0.249284 247 32 6
-0.432741 0.103495 0.249758 251 31 2
-0.429987 0.104056 0.250463 252 30 5
-0.426762 0.104401 0.251271 253 31 5
-0.426626 0.105981 0.251386 254 35 7
-0.424968 0.106932 0.251841 251 38 11
-0.424328 0.108294 0.252068 247 46 20
-0.424193 0.109866 0.252182 240 49 28
-0.424057 0.111437 0.252296 229 44 23
-0.423922 0.113009 0.25241 220 39 18
-0.423786 0.11458 0.252524 214 37 17
-0.425165 0.116822 0.252301 212 36 16
-0.426045 0.118855 0.25219 209 37 22
-0.426931 0.1209 0.252078 203 45 37
-0.428338 0.123192 0.25185 164 52 45
-0.429757 0.125505 0.251621 109 55 47
-0.430141 0.127351 0.251622 80 57 49
-0.442222 0.0921921 0.245146 80 58 51
-0.441527 0.0936384 0.245393 95 59 49
-0.441386 0.0952807 0.245512 180 52 45
-0.440693 0.0967203 0.245759 239 53 40
-0.440002 0.0981556 0.246005 254 38 16
-0.439313 0.0995866 0.24625 250 28 4
-0.438082 0.100806 0.246619 247 29 6
-0.434713 0.101188 0.24748 247 32 6
-0.432454 0.101974 0.248085 248 31 5
-0.430222 0.102751 0.248682 251 29 3
-0.42648 0.102904 0.249625 253 30 4
-0.424822 0.103868 0.250088 254 30 6
-0.424686 0.105441 0.250202 252 36 10
-0.424047 0.106806 0.250431 248 43 19
-0.423912 0.108378 0.250545 244 50 30
-0.423274 0.109736 0.250774 235 44 25
-0.423641 0.111521 0.250773 225 39 19
-0.423505 0.113093 0.250887 217 36 18
-0.423873 0.114885 0.250887 213 35 17
-0.425254 0.117131 0.250656 211 37 18
-0.426136 0.119168 0.25054 208 42 27
-0.427537 0.12145 0.250306 193 50 43
-0.428432 0.123515 0.250187 135 51 42
-0.429333 0.125592 0.250068 91 57 48
-0.429716 0.127438 0.250067 79 57 51
-0.440682 0.091886 0.243812 79 59 55
-0.440541 0.0935259 0.243931 137 55 47
-0.43985 0.094966 0.244179 218 55 39
-0.439162 0.0964019 0.244427 251 41 28
-0.438475 0.0978334 0.244674 252 31 9
-0.437791 0.0992608 0.24492 248 29 2
-0.434958 0.0998609 0.245671 247 29 2
-0.432694 0.100656 0.246287 249 31 4
-0.430457 0.101443 0.246896 250 32 6
-0.426707 0.101609 0.247858 251 31 6
-0.424541 0.102377 0.248448 252 31 5
-0.423901 0.103747 0.24868 253 32 7
-0.423766 0.105318 0.248794 247 41 17
-0.423129 0.106681 0.249025 247 48 31
-0.422493 0.10804 0.249255 238 46 30
-0.422858 0.10982 0.249253 229 41 21
-0.422723 0.11139 0.249366 221 37 17
-0.423089 0.113177 0.249364 216 35 17
-0.424464 0.115412 0.249127 212 35 19
-0.425852 0.117667 0.248888 210 39 24
-0.427252 0.119942 0.248647 204 45 33
-0.428146 0.122003 0.248523 173 49 41
-0.429046 0.124076 0.248399 111 52 44
-0.429429 0.125919 0.248395 81 56 49
-0.43984 0.0901387 0.242235 78 58 56
-0.439151 0.0915818 0.242486 92 56 52
-0.43901 0.0932169 0.242604 189 49 39
-0.438324 0.0946533 0.242854 243 54 37
-0.43764 0.0960854 0.243103 253 38 12
-0.436418 0.0973114 0.243481 249 31 2
-0.434668 0.0983276 0.243985 247 31 1
-0.432406 0.0991323 0.244611 248 31 2
-0.430692 0.10013 0.245105 249 31 3
-0.426935 0.10031 0.246087 251 31 4
-0.424764 0.101087 0.246688 252 31 6
-0.42362 0.102258 0.247043 252 33 8
-0.422483 0.103422 0.247395 251 37 11
-0.422348 0.104989 0.247509 247 47 26
-0.422213 0.106557 0.247623 241 50 35
-0.422078 0.108124 0.247736 233 42 24
-0.421943 0.109691 0.24785 224 38 20
-0.422807 0.111689 0.247726 220 36 17
-0.423677 0.113698 0.247602 216 36 16
-0.425568 0.116166 0.247236 213 38 20
-0.426967 0.118435 0.246987 210 43 28
-0.427344 0.120259 0.246981 195 48 39
-0.42824 0.122324 0.246852 142 51 39
-0.429141 0.124401 0.246723 87 56 50
-0.429525 0.126248 0.246717 73 56 56
-0.438454 0.0882075 0.240798 86 61 50
-0.43777 0.0896492 0.24105 86 55 55
-0.437629 0.0912794 0.241168 145 50 43
-0.436947 0.0927145 0.241419 226 51 39
-0.436267 0.0941453 0.241669 250 38 21
-0.435589 0.0955718 0.241919 249 28 5
-0.433846 0.0965944 0.242429 245 29 3
-0.432118 0.0976079 0.242934 245 31 4
-0.430929 0.0988132 0.243308 248 31 4
-0.427677 0.0992071 0.244184 250 29 4
-0.424482 0.0995942 0.245045 252 29 4
-0.423339 0.100769 0.245405 253 31 5
-0.422203 0.101938 0.245762 252 35 8
-0.421073 0.1031 0.246118 249 42 17
-0.421435 0.104867 0.24611 246 50 32
-0.4213 0.106432 0.246224 236 43 25
-0.421662 0.108207 0.246217 226 42 23
-0.422026 0.109987 0.246209 221 39 20
-0.422892 0.111989 0.246081 219 36 16
-0.424776 0.114443 0.245706 217 36 15
-0.426682 0.116927 0.245327 214 41 22
-0.427059 0.118749 0.245319 206 47 33
-0.427954 0.12081 0.245185 176 50 44
-0.428334 0.122646 0.245176 110 54 44
-0.428716 0.124487 0.245167 74 59 48
-0.429099 0.126334 0.245158 73 55 48
-0.437478 0.0881035 0.23935 89 59 51
-0.437338 0.0897338 0.239468 102 57 47
-0.436116 0.0909789 0.239857 201 54 34
-0.435439 0.0924102 0.240109 242 51 35
-0.434763 0.0938373 0.240361 250 32 9
-0.433026 0.0948662 0.240877 245 28 2
-0.43183 0.0960833 0.241258 244 31 3
-0.430642 0.0972933 0.241636 247 28 2
-0.427393 0.0977006 0.242527 249 28 4
-0.424706 0.0982978 0.243277 250 29 7
-0.423058 0.0992806 0.243767 251 30 8
-0.421922 0.100454 0.244129 252 34 9
-0.420793 0.10162 0.244489 250 39 13
-0.420164 0.102981 0.244725 247 47 28
-0.420524 0.104745 0.244716 240 45 29
-0.420885 0.106515 0.244706 231 43 21
-0.421247 0.10829 0.244697 223 40 20
-0.422109 0.110284 0.244564 221 37 15
-0.423986 0.112725 0.244181 220 35 13
-0.424864 0.11475 0.244046 217 38 18
-0.42626 0.117012 0.243783 213 43 29
-0.427151 0.119065 0.243645 195 48 39
-0.42753 0.120895 0.243634 146 48 44
-0.427909 0.122732 0.243623 88 57 49
-0.42829 0.124574 0.243611 72 60 42
-0.435966 0.0878122 0.238045 88 59 48
-0.435288 0.0892483 0.2383 163 46 36
-0.435148 0.0908715 0.238417 236 52 35
-0.434473 0.092301 0.238671 248 36 19
-0.432737 0.0933368 0.239195 245 31 6
-0.431543 0.0945585 0.239581 242 30 4
-0.430355 0.0957731 0.239964 244 29 5
-0.427622 0.0963897 0.240739 246 28 3
-0.42493 0.0969974 0.241503 249 28 4
-0.423279 0.0979874 0.242002 251 29 7
-0.421642 0.0989689 0.242496 252 31 8
-0.420514 0.100139 0.242861 252 36 12
-0.419392 0.101303 0.243223 249 46 22
-0.419258 0.102862 0.243336 242 48 32
-0.42011 0.104828 0.2432 236 40 19
-0.419975 0.106391 0.243313 229 43 17
-0.421329 0.108584 0.243051 223 42 19
-0.422695 0.110797 0.242787 221 39 17
-0.42458 0.113248 0.242393 221 37 16
-0.424952 0.115057 0.24238 219 40 24
-0.42635 0.117325 0.242109 209 46 38
-0.427243 0.119381 0.241966 176 48 46
-0.427623 0.121215 0.241953 112 49 46
-0.427484 0.122818 0.242069 71 59 54
-0.427865 0.12466 0.242055 72 62 48
-0.435675 0.0862709 0.23635 78 62 52
-0.434998 0.0877093 0.236607 100 59 44
-0.434858 0.0893326 0.236725 208 53 37
-0.434183 0.0907644 0.236981 245 48 35
-0.432449 0.0918072 0.237513 245 32 6
-0.431255 0.0930336 0.237903 240 28 2
-0.430068 0.0942527 0.238292 241 28 5
-0.427853 0.0950748 0.238946 244 27 5
-0.425155 0.095693 0.239724 246 28 3
-0.4235 0.0966903 0.240231 249 27 3
-0.42186 0.0976789 0.240733 251 27 5
-0.420234 0.098659 0.241232 250 32 11
-0.419113 0.0998272 0.241599 248 42 21
-0.418488 0.101187 0.241838 247 49 29
-0.418845 0.102944 0.241825 240 40 22
-0.419202 0.104707 0.241811 230 39 21
-0.420055 0.106682 0.24167 225 41 22
-0.421411 0.108879 0.241401 224 41 20
-0.423789 0.111529 0.24087 224 39 20
-0.424668 0.113553 0.240724 222 39 23
-0.425552 0.115589 0.240578 218 44 34
-0.426441 0.117638 0.240431 196 49 43
-0.426819 0.119467 0.240415 149 50 46
-0.427197 0.121301 0.240398 94 51 45
-0.427059 0.122904 0.240514 69 57 50
-0.434847 0.0845469 0.234798 80 62 54
-0.434172 0.0859858 0.235057 88 58 44
-0.434033 0.0876067 0.235174 170 44 37
-0.432829 0.0888511 0.235573 241 53 36
-0.43216 0.0902774 0.235831 250 29 9
-0.430967 0.0915084 0.236226 240 28 3
-0.429781 0.0927322 0.236619 238 30 5
-0.427567 0.0935632 0.237283 242 27 5
-0.424871 0.0941927 0.238073 245 28 5
-0.423722 0.0953891 0.238455 249 28 4
-0.422079 0.0963849 0.238966 252 28 2
-0.420449 0.0973721 0.239472 252 31 5
-0.419326 0.0985458 0.239845 249 38 16
-0.41821 0.0997128 0.240216 247 47 29
-0.418075 0.101269 0.240329 239 49 31
-0.418431 0.103027 0.240313 235 41 17
-0.418788 0.104789 0.240297 230 40 18
-0.420632 0.107181 0.239892 226 41 20
-0.422497 0.109601 0.239483 226 38 19
-0.424384 0.112049 0.239069 227 38 15
-0.425267 0.114081 0.238917 223 40 24
-0.425129 0.115675 0.239033 214 48 39
-0.426532 0.117952 0.238746 172 51 44
-0.426394 0.119553 0.238862 112 50 42
-0.426256 0.121153 0.238978 77 55 43
-0.432818 0.0840865 0.233654 82 61 47
-0.432149 0.0855198 0.233914 116 57 39
-0.431482 0.086949 0.234174 217 52 34
-0.430818 0.088374 0.234432 248 46 31
-0.430679 0.0899831 0.234548 243 27 6
-0.428973 0.0910218 0.235087 238 31 5
-0.427282 0.0920515 0.23562 239 26 3
-0.424588 0.0926921 0.236422 244 27 2
-0.423439 0.093893 0.236809 249 28 3
-0.421797 0.0948954 0.237327 250 29 2
-0.420169 0.0958891 0.237841 252 28 3
-0.419047 0.0970672 0.238218 252 35 11
-0.417931 0.0982385 0.238594 247 48 25
-0.417797 0.099795 0.238706 241 49 27
-0.417663 0.101351 0.238819 233 39 17
-0.418509 0.103311 0.23867 230 38 17
-0.419359 0.105282 0.23852 228 40 15
-0.421712 0.107894 0.23797 227 37 15
-0.424099 0.110545 0.237413 226 37 16
-0.424982 0.112573 0.237256 225 39 20
-0.424844 0.114166 0.237372 220 44 30
-0.424707 0.11576 0.237487 196 48 40
-0.425593 0.117809 0.237331 141 49 45
-0.42597 0.119638 0.23731 87 54 46
-0.425832 0.121239 0.237426 73 59 44
-0.430807 0.0836302 0.232521 93 61 53
-0.430144 0.0850579 0.232782 187 47 37
-0.429483 0.0864816 0.233041 243 51 33
-0.428824 0.087901 0.2333 246 28 8
