ply
format ascii 1.0
element vertex 1284
property float x
property float y
property float z
property uchar diffuse_red
property uchar diffuse_green
property uchar diffuse_blue
end_header
-0.435039 0.237614 0.216265 80 51 42
-0.432075 0.237583 0.217264 84 53 39
-0.428568 0.237111 0.218436 157 24 13
-0.428004 0.238849 0.218668 190 15 3
-0.426859 0.24014 0.219084 203 6 0
-0.425719 0.241427 0.219499 213 4 0
-0.425157 0.243158 0.21973 223 15 4
-0.425169 0.245343 0.219777 232 39 22
-0.425181 0.247536 0.219824 232 66 54
-0.424617 0.249274 0.220056 180 62 52
-0.424628 0.251477 0.220103 101 51 46
-0.425219 0.254159 0.219967 78 58 44
-0.535551 0.158992 0.178187 80 57 50
-0.53488 0.161056 0.178461 96 63 42
-0.53421 0.16312 0.178736 198 47 34
-0.533539 0.165184 0.179011 250 55 41
-0.533774 0.167634 0.178984 241 26 13
-0.533102 0.169702 0.17926 220 21 0
-0.53243 0.171771 0.179535 203 24 2
-0.532663 0.174239 0.179509 200 23 0
-0.53199 0.176312 0.179785 200 20 0
-0.531316 0.178385 0.180061 202 23 0
-0.530643 0.180458 0.180337 210 26 5
-0.529069 0.182115 0.180912 213 26 6
-0.527502 0.183765 0.181484 211 22 1
-0.526831 0.18583 0.181759 201 23 1
-0.524387 0.187046 0.182622 197 17 3
-0.521962 0.188252 0.183477 193 11 0
-0.519556 0.189449 0.184326 189 12 0
-0.516312 0.190212 0.185453 188 4 0
-0.515653 0.192241 0.185723 197 4 0
-0.513296 0.193411 0.186554 206 16 0
-0.511796 0.195001 0.187102 213 10 0
-0.509468 0.196153 0.187924 218 9 0
-0.507985 0.197728 0.188466 215 7 0
-0.507333 0.199733 0.188733 212 11 0
-0.505035 0.200861 0.189543 211 5 0
-0.502756 0.201979 0.190347 201 8 0
-0.502109 0.203969 0.190612 201 6 0
-0.499849 0.205072 0.191409 222 16 3
-0.496021 0.205284 0.192723 244 29 13
-0.493029 0.20593 0.193761 253 41 39
-0.491616 0.207446 0.194277 255 42 27
-0.489439 0.208514 0.195045 252 31 8
-0.488807 0.21046 0.195304 239 19 2
-0.486648 0.211513 0.196066 227 14 0
-0.484506 0.212559 0.196821 222 7 0
-0.483127 0.214042 0.197325 226 7 0
-0.480269 0.214627 0.198316 241 24 9
-0.477442 0.215205 0.199295 255 60 36
-0.476094 0.216665 0.199788 255 85 63
-0.47403 0.217672 0.200516 249 83 69
-0.471981 0.218673 0.201239 237 73 60
-0.471368 0.220562 0.20149 232 42 30
-0.469336 0.221548 0.202207 229 22 1
-0.46662 0.222078 0.203147 226 14 0
-0.462561 0.221713 0.204527 231 4 0
-0.460598 0.222677 0.20522 237 9 1
-0.459997 0.224526 0.205466 251 32 15
-0.458722 0.225925 0.205933 255 63 52
-0.457451 0.227319 0.206398 236 56 51
-0.456185 0.228708 0.206862 148 54 49
-0.454923 0.230093 0.207324 99 55 40
-0.453008 0.231018 0.207999 136 35 26
-0.451759 0.232391 0.208457 191 18 8
-0.449864 0.233303 0.209125 216 8 0
-0.445431 0.2324 0.210621 225 3 0
-0.443585 0.2333 0.211272 233 7 1
-0.442376 0.234643 0.211715 237 24 10
-0.441171 0.235981 0.212156 244 49 33
-0.439971 0.237315 0.212596 233 53 43
-0.438774 0.238645 0.213035 136 48 42
-0.43697 0.239514 0.213671 81 55 40
-0.434575 0.239923 0.214499 82 54 35
-0.430426 0.238979 0.215897 146 31 20
-0.42927 0.240279 0.216321 184 19 5
-0.427535 0.241125 0.216933 201 8 0
-0.426389 0.242415 0.217353 212 3 0
-0.425825 0.244152 0.217584 220 10 2
-0.42526 0.24589 0.217816 227 32 18
-0.425272 0.248087 0.21786 235 65 51
-0.424707 0.249828 0.218091 214 59 47
-0.425298 0.252504 0.217948 126 49 43
-0.42473 0.254251 0.218181 81 55 45
-0.533836 0.156299 0.176409 78 59 55
-0.533168 0.158355 0.176683 88 60 52
-0.5325 0.160411 0.176956 199 49 44
-0.531832 0.162467 0.17723 255 59 43
-0.531164 0.164523 0.177503 255 41 37
-0.530496 0.166579 0.177777 252 31 3
-0.530724 0.169022 0.177748 231 26 5
-0.530054 0.171082 0.178022 221 25 5
-0.531182 0.173938 0.17769 221 24 4
-0.53051 0.176006 0.177965 235 25 3
-0.529838 0.178075 0.178241 253 41 11
-0.529166 0.180145 0.178516 254 44 21
-0.526707 0.181386 0.179394 253 41 18
-0.526037 0.183447 0.179668 240 38 14
-0.523601 0.18467 0.180537 219 29 6
-0.522057 0.186302 0.181106 200 25 2
-0.519651 0.187507 0.181964 192 21 2
-0.517263 0.188702 0.182816 188 19 2
-0.515747 0.190311 0.183374 185 11 0
-0.514237 0.191913 0.18393 188 9 0
-0.512733 0.193509 0.184484 192 12 0
-0.511234 0.195099 0.185036 193 18 0
-0.508908 0.196251 0.185866 195 16 2
-0.507426 0.197826 0.186411 194 17 4
-0.506774 0.199831 0.186678 194 18 2
-0.505299 0.201397 0.187222 193 10 0
-0.502201 0.202077 0.188309 186 9 1
-0.501554 0.204067 0.188574 188 11 2
-0.499297 0.205169 0.189379 203 7 1
-0.495472 0.205381 0.190708 214 11 1
-0.493264 0.206466 0.191496 224 12 3
-0.491072 0.207542 0.192278 230 10 2
-0.488896 0.208611 0.193053 229 12 1
-0.488264 0.210556 0.193312 223 8 0
-0.486868 0.212055 0.193827 218 6 0
-0.484721 0.213101 0.194592 212 5 0
-0.48259 0.214139 0.195352 207 10 0
-0.481964 0.216066 0.195608 219 16 1
-0.479111 0.21664 0.196608 243 39 24
-0.476291 0.217207 0.197597 255 75 55
-0.474222 0.218215 0.198335 255 79 59
-0.472169 0.219215 0.199067 255 64 46
-0.470841 0.220657 0.199557 252 41 19
-0.469518 0.222094 0.200045 238 18 0
-0.466796 0.222622 0.200998 226 9 0
-0.464104 0.223145 0.201942 226 1 0
-0.461441 0.223662 0.202875 229 2 0
-0.460158 0.225068 0.203349 238 18 7
-0.45888 0.226469 0.20382 254 49 43
-0.457607 0.227864 0.20429 255 73 61
-0.456338 0.229255 0.204758 233 71 65
-0.455074 0.230641 0.205225 209 61 49
-0.453814 0.232023 0.205689 191 41 32
-0.451903 0.232941 0.206371 203 20 10
-0.450655 0.234311 0.206831 216 8 0
-0.44812 0.234759 0.207719 222 3 0
-0.444343 0.234294 0.209018 229 6 0
-0.443128 0.23564 0.209466 235 20 4
-0.441294 0.236527 0.21012 244 40 21
-0.440712 0.238319 0.210359 242 59 48
-0.438892 0.239193 0.211007 165 55 46
-0.437697 0.24052 0.211448 98 49 42
-0.435897 0.241383 0.21209 84 53 42
-0.432907 0.241326 0.213125 128 40 31
-0.430548 0.241723 0.21395 175 18 9
-0.4288 0.242569 0.214573 198 6 0
-0.427064 0.243409 0.215192 210 2 0
-0.426497 0.245153 0.215424 219 6 1
-0.425931 0.246896 0.215656 226 25 13
-0.425944 0.249103 0.215697 238 56 41
-0.425377 0.25085 0.215929 232 58 46
-0.424809 0.252597 0.216162 136 49 48
-0.425985 0.255769 0.215819 82 55 48
-0.532134 0.153628 0.174645 81 64 48
-0.531469 0.155675 0.174918 79 57 57
-0.530804 0.157723 0.17519 184 49 46
-0.530138 0.159771 0.175463 253 67 50
-0.529473 0.161819 0.175735 255 57 42
-0.528808 0.163867 0.176008 255 37 12
-0.528142 0.165915 0.17628 255 35 10
-0.528364 0.168347 0.176248 249 37 24
-0.527698 0.170399 0.176522 252 33 11
-0.527031 0.172452 0.176795 254 39 15
-0.528142 0.175301 0.176459 254 47 25
-0.527472 0.177362 0.176733 255 46 20
-0.525915 0.179016 0.177311 255 49 26
-0.524363 0.180663 0.177887 255 46 25
-0.522818 0.182303 0.178461 255 40 24
-0.522152 0.184352 0.178733 228 34 15
-0.520614 0.185982 0.179304 209 27 6
-0.517358 0.186767 0.180462 204 30 12
-0.515841 0.18838 0.181025 204 34 15
-0.514331 0.189986 0.181586 201 28 9
-0.513673 0.192011 0.181855 204 23 4
-0.51217 0.193607 0.182413 212 26 2
-0.510673 0.195197 0.182969 211 25 2
-0.508348 0.196348 0.183807 207 24 1
-0.506867 0.197924 0.184357 199 20 0
-0.506215 0.19993 0.184624 193 17 0
-0.504741 0.201495 0.185171 191 11 0
-0.502458 0.202614 0.185994 184 6 0
-0.501 0.204165 0.186535 182 4 0
-0.498744 0.205267 0.187348 185 8 0
-0.494924 0.205478 0.188693 190 15 0
-0.492717 0.206563 0.189488 196 13 0
-0.490527 0.207639 0.190277 200 11 0
-0.488354 0.208707 0.191061 202 8 0
-0.487722 0.210653 0.19132 202 8 0
-0.486327 0.212152 0.191838 203 6 0
-0.484181 0.213197 0.192611 199 5 0
-0.482801 0.214683 0.193124 192 6 0
-0.481426 0.216163 0.193634 200 7 0
-0.480056 0.217637 0.194143 219 9 3
-0.476488 0.217751 0.195398 236 19 10
-0.474415 0.218759 0.196145 246 26 11
-0.472357 0.219759 0.196886 247 24 8
-0.470314 0.220752 0.197623 242 18 3
-0.4697 0.222642 0.197874 230 14 0
-0.466972 0.223168 0.198841 221 9 0
-0.464274 0.223689 0.199798 216 2 0
-0.462977 0.225105 0.200281 216 3 0
-0.461001 0.226063 0.200993 223 6 1
-0.459039 0.227014 0.201699 247 32 25
-0.458438 0.228866 0.201946 254 72 70
-0.456492 0.229804 0.202646 255 95 81
-0.455225 0.231192 0.203118 252 66 51
-0.453963 0.232575 0.203587 238 47 31
-0.452705 0.233953 0.204055 226 25 10
-0.450797 0.234865 0.204742 220 10 1
-0.448903 0.23577 0.205424 219 3 1
-0.446381 0.236209 0.206318 224 5 0
-0.443255 0.236188 0.207415 229 15 3
-0.442042 0.237531 0.207866 238 29 18
-0.440833 0.23887 0.208316 249 63 51
-0.439629 0.240204 0.208764 225 64 50
-0.437813 0.241072 0.209418 181 67 54
-0.43662 0.242395 0.209862 116 52 52
-0.433614 0.242332 0.210916 118 44 36
-0.432439 0.243642 0.211353 168 19 10
-0.430672 0.244487 0.211989 198 5 0
-0.427743 0.24441 0.213016 209 1 0
-0.427174 0.24616 0.213249 217 2 0
-0.426605 0.24791 0.213482 226 15 6
-0.42662 0.250126 0.213519 237 46 28
-0.426051 0.251879 0.213752 241 61 49
-0.426065 0.254106 0.21379 143 51 48
-0.427843 0.257785 0.213235 84 57 44
-0.529784 0.153017 0.173167 79 66 57
-0.529121 0.155056 0.173438 122 57 53
-0.528458 0.157096 0.173709 253 71 48
-0.526914 0.158773 0.174288 255 64 43
-0.526253 0.160809 0.174559 255 39 15
-0.525591 0.162845 0.17483 255 59 44
-0.525807 0.165256 0.174795 255 76 71
-0.525144 0.167297 0.175066 255 49 46
-0.52536 0.169722 0.175032 255 47 37
-0.524695 0.171766 0.175304 255 46 20
-0.526679 0.175 0.174656 255 47 27
-0.52601 0.177057 0.174929 255 45 26
-0.523579 0.178303 0.175816 255 46 28
-0.522913 0.180352 0.176088 255 41 25
-0.522247 0.182401 0.176361 249 40 30
-0.520709 0.184035 0.176936 227 33 12
-0.519177 0.185662 0.17751 214 29 10
-0.515936 0.186449 0.178676 212 29 12
-0.514425 0.188059 0.179241 211 32 19
-0.51292 0.189662 0.179805 223 34 21
-0.512264 0.191684 0.180073 240 42 29
-0.510766 0.193277 0.180634 250 42 22
-0.509274 0.194865 0.181192 246 38 14
-0.50696 0.196016 0.182035 233 33 10
-0.506308 0.198022 0.182302 216 27 5
-0.504834 0.199591 0.182854 200 24 1
-0.504183 0.201593 0.18312 191 20 1
-0.501902 0.202711 0.183951 189 15 0
-0.499639 0.203821 0.184775 188 11 0
-0.497393 0.204923 0.185593 185 15 0
-0.49359 0.205136 0.186949 185 18 0
-0.492171 0.206659 0.18748 188 13 0
-0.489983 0.207736 0.188277 189 11 1
-0.488578 0.209245 0.188803 188 12 1
-0.487179 0.21075 0.189327 189 12 1
-0.486547 0.212696 0.189586 189 12 1
-0.484397 0.213741 0.190369 185 10 0
-0.483013 0.215229 0.190886 183 6 0
-0.481635 0.216711 0.191403 189 5 0
-0.480262 0.218187 0.191917 198 5 0
-0.478155 0.219203 0.192684 207 5 0
-0.474608 0.219305 0.193947 215 5 0
-0.472545 0.220305 0.194698 218 9 0
-0.470498 0.221298 0.195443 216 9 0
-0.469172 0.222737 0.195939 212 6 0
-0.467149 0.223716 0.196676 210 4 0
-0.464445 0.224235 0.197647 207 8 0
-0.463145 0.225653 0.198134 201 8 0
-0.462538 0.227522 0.198382 202 9 0
-0.46056 0.228473 0.199102 229 12 6
-0.458596 0.229418 0.199817 248 29 21
-0.457318 0.230814 0.200296 254 46 39
-0.455377 0.231745 0.201003 255 41 26
-0.454112 0.233129 0.201477 249 31 12
-0.452852 0.234509 0.201949 235 20 3
-0.451596 0.235884 0.20242 222 9 1
-0.449041 0.236326 0.203335 215 4 1
-0.447157 0.237224 0.204021 216 4 0
-0.445285 0.238117 0.204703 223 7 1
-0.442795 0.238542 0.205595 232 16 11
-0.440955 0.239422 0.206265 250 55 43
-0.439748 0.240758 0.206718 255 82 64
-0.438546 0.242089 0.207168 243 82 70
-0.436733 0.242951 0.207828 203 63 58
-0.434933 0.243807 0.208483 188 49 41
-0.433749 0.245122 0.208927 198 24 13
-0.431969 0.245966 0.209575 204 7 0
-0.4302 0.246805 0.210219 207 1 0
-0.429627 0.24857 0.210453 215 1 0
-0.429053 0.250335 0.210688 222 9 4
-0.429072 0.252574 0.210721 230 34 19
-0.428498 0.254342 0.210956 241 63 52
-0.427923 0.25611 0.211191 152 55 43
-0.42794 0.258364 0.211224 92 58 41
-0.428552 0.261117 0.211055 74 56 39
-0.525487 0.149349 0.172358 79 56 45
-0.524831 0.151369 0.172627 89 62 56
-0.525044 0.153739 0.172588 225 54 47
-0.524386 0.155763 0.172857 255 68 46
-0.522862 0.157429 0.173433 255 39 14
-0.522206 0.159449 0.173701 255 39 24
-0.521549 0.161469 0.17397 255 115 80
-0.521755 0.163859 0.173934 255 64 111
-0.521098 0.165883 0.174203 255 55 39
-0.52044 0.167908 0.174473 255 51 40
-0.519782 0.169932 0.174742 255 48 23
-0.52434 0.174303 0.17317 255 53 30
-0.523674 0.176352 0.173443 255 49 25
-0.522133 0.177998 0.174024 255 42 21
-0.521469 0.180043 0.174296 255 39 22
-0.520804 0.182088 0.174568 250 34 15
-0.519272 0.18372 0.175146 235 34 12
-0.516886 0.18493 0.176025 227 34 16
-0.51537 0.186546 0.176597 231 31 12
-0.513014 0.187739 0.177464 249 34 16
-0.512357 0.18976 0.177733 253 43 27
-0.510859 0.191358 0.178298 254 48 31
-0.509368 0.192949 0.178861 255 44 26
-0.507053 0.194108 0.179713 254 41 19
-0.506401 0.196114 0.17998 248 36 13
-0.505749 0.19812 0.180247 225 31 9
-0.504276 0.199689 0.180802 205 26 4
-0.502808 0.201252 0.181356 199 24 6
-0.500537 0.20237 0.182192 204 23 2
-0.499085 0.203919 0.18274 223 24 0
-0.496841 0.20502 0.183565 219 24 1
-0.492261 0.204796 0.185211 213 26 8
-0.490847 0.206317 0.185745 213 28 8
-0.490211 0.208274 0.186005 209 26 3
-0.488035 0.209342 0.186806 203 21 0
-0.487401 0.211292 0.187065 196 17 0
-0.486004 0.212792 0.187592 189 14 0
-0.484612 0.214287 0.188118 183 10 1
-0.483226 0.215777 0.188641 180 7 1
-0.481844 0.217261 0.189162 180 6 0
-0.479724 0.218284 0.189942 183 6 0
-0.477619 0.219299 0.190716 187 5 0
-0.474801 0.219853 0.19174 191 9 1
-0.472734 0.220854 0.1925 194 10 0
-0.469969 0.221394 0.193505 196 10 0
-0.468645 0.222833 0.194005 196 10 0
-0.467326 0.224266 0.194503 197 7 0
-0.464616 0.224783 0.195487 196 9 0
-0.463313 0.226203 0.195979 189 17 1
-0.462705 0.228075 0.196228 190 12 2
-0.461408 0.229486 0.196717 209 3 0
-0.460116 0.230893 0.197205 222 5 1
-0.457475 0.231368 0.198164 230 9 6
-0.455529 0.232299 0.19888 235 16 5
-0.454261 0.233686 0.199358 232 14 1
-0.452998 0.235067 0.199835 223 9 0
-0.451083 0.235978 0.20054 216 6 0
-0.44918 0.236883 0.201239 209 6 0
-0.447292 0.237782 0.201934 205 7 0
-0.446056 0.239139 0.2024 209 5 0
-0.444826 0.240492 0.202865 218 6 4
-0.441705 0.24044 0.203989 237 32 28
-0.440492 0.241779 0.204447 252 72 65
-0.438663 0.242647 0.205119 255 82 72
-0.437463 0.243974 0.205573 255 65 52
-0.435654 0.24483 0.206238 250 49 35
-0.434464 0.246148 0.206687 229 25 11
-0.432675 0.246992 0.207345 211 9 0
-0.431497 0.248299 0.207791 206 2 0
-0.430323 0.249601 0.208234 210 1 0
-0.430344 0.251847 0.208263 215 8 2
-0.429767 0.253621 0.208499 223 26 15
-0.429191 0.255396 0.208735 244 62 49
-0.428614 0.25717 0.208971 179 59 45
-0.428632 0.259433 0.209 109 57 44
-0.428651 0.261705 0.20903 76 54 39
-0.522129 0.146085 0.171258 78 62 54
-0.522335 0.148426 0.171217 90 56 45
-0.521682 0.150434 0.171484 134 52 45
-0.521888 0.152788 0.171443 254 68 46
-0.522093 0.155151 0.171402 255 50 41
-0.521438 0.157167 0.17167 255 38 19
-0.520783 0.159184 0.171939 255 49 27
-0.520128 0.1612 0.172207 255 57 41
-0.520331 0.163585 0.172167 255 52 35
-0.519674 0.165605 0.172436 255 55 32
-0.518162 0.167249 0.173011 255 53 28
-0.517507 0.169266 0.173279 255 52 23
-0.51942 0.172441 0.172628 255 47 21
-0.518761 0.174469 0.172897 255 42 20
-0.517245 0.176103 0.173474 255 40 16
-0.517443 0.178527 0.173437 255 36 12
-0.517641 0.180961 0.1734 254 34 12
-0.51698 0.182995 0.17367 245 34 11
-0.515465 0.184615 0.174247 248 36 14
-0.513108 0.185815 0.175124 253 43 22
-0.512451 0.187837 0.175392 255 45 27
-0.510953 0.189438 0.175962 255 51 31
-0.509461 0.191033 0.176529 255 47 27
-0.507146 0.192199 0.177391 255 47 26
-0.506494 0.194205 0.177657 255 45 22
-0.505019 0.195782 0.178218 251 36 13
-0.504368 0.197784 0.178484 231 29 7
-0.502901 0.199352 0.179042 217 26 2
-0.501438 0.200913 0.179598 214 28 9
-0.499982 0.202468 0.180152 240 37 22
-0.49773 0.203577 0.180989 252 38 18
-0.496289 0.205118 0.181537 251 38 16
-0.491714 0.204892 0.183202 249 39 17
-0.490301 0.206414 0.18374 247 39 14
-0.488893 0.207929 0.184275 239 35 10
-0.488259 0.209883 0.184535 223 30 7
-0.486857 0.211389 0.185068 204 24 3
-0.485461 0.212889 0.185599 192 21 0
-0.484829 0.214836 0.185858 187 17 1
-0.483439 0.216327 0.186386 184 12 1
-0.481304 0.217358 0.187179 182 10 1
-0.479186 0.21838 0.187967 183 11 1
-0.477083 0.219396 0.188749 186 10 1
-0.474268 0.219949 0.189783 189 13 0
-0.472203 0.220949 0.190551 190 13 0
-0.470867 0.222397 0.191059 188 15 0
-0.468118 0.222928 0.192069 188 13 2
-0.467504 0.224818 0.192321 188 11 1
-0.465486 0.22579 0.193071 186 11 0
-0.463482 0.226754 0.193815 183 12 1
-0.462182 0.228171 0.19431 182 8 2
-0.461573 0.230044 0.194559 193 4 0
-0.460279 0.231451 0.195052 200 6 0
-0.458989 0.232854 0.195543 205 5 0
-0.455682 0.232856 0.196749 208 6 0
-0.454411 0.234244 0.197232 210 5 0
-0.453146 0.235627 0.197714 208 3 0
-0.451226 0.236538 0.198427 206 3 0
-0.449973 0.23791 0.198904 200 6 0
-0.448074 0.238808 0.199609 193 7 0
-0.446189 0.2397 0.20031 194 6 0
-0.444956 0.241054 0.200779 202 4 1
-0.443727 0.242403 0.201247 217 11 9
-0.440614 0.242339 0.202381 235 34 28
-0.439403 0.243674 0.202842 246 47 34
-0.437578 0.244536 0.20352 247 37 22
-0.435766 0.245391 0.204194 242 29 13
-0.434574 0.24671 0.204648 226 17 4
-0.433386 0.248024 0.2051 210 9 0
-0.432203 0.249334 0.20555 203 4 0
-0.431023 0.25064 0.205999 204 1 0
-0.430445 0.252417 0.206236 207 7 1
-0.429868 0.254195 0.206472 223 26 9
-0.42929 0.255972 0.206709 242 59 45
-0.428713 0.25775 0.206945 215 62 50
-0.428731 0.260018 0.206971 136 54 49
-0.428749 0.262294 0.206997 82 53 45
-0.517336 0.144533 0.170745 84 59 52
-0.518373 0.14718 0.170397 89 57 48
-0.51857 0.149509 0.170354 205 47 45
-0.519618 0.152191 0.170002 255 68 44
-0.518967 0.154196 0.170268 255 56 37
-0.519166 0.156553 0.170225 255 43 24
-0.518513 0.158561 0.170493 255 55 33
-0.519567 0.161295 0.170139 255 50 29
-0.518912 0.163312 0.170407 255 49 30
-0.518256 0.165328 0.170675 255 53 26
-0.517601 0.167345 0.170943 255 54 26
-0.516946 0.169362 0.171212 255 47 22
-0.51629 0.171379 0.17148 255 45 21
-0.515635 0.173396 0.171748 255 41 20
-0.51498 0.175413 0.172016 255 37 11
-0.515172 0.177827 0.171976 255 39 10
-0.516218 0.180654 0.171627 255 37 12
-0.515559 0.182683 0.171897 254 41 19
-0.514899 0.184713 0.172166 255 49 31
-0.512545 0.185913 0.173052 255 50 28
-0.511046 0.187518 0.173626 255 50 33
-0.510391 0.189536 0.173894 255 53 34
-0.5089 0.191131 0.174465 255 50 29
-0.506587 0.192297 0.175335 255 45 23
-0.505112 0.193877 0.1759 255 43 20
-0.504461 0.19588 0.176166 253 39 12
-0.502993 0.197451 0.176729 238 33 9
-0.501531 0.199015 0.177289 228 32 11
-0.500074 0.200574 0.177847 245 35 17
-0.497821 0.201691 0.178693 254 44 32
-0.49638 0.203235 0.179246 255 39 21
-0.493369 0.203898 0.180366 255 41 17
-0.490391 0.204553 0.181474 255 42 19
-0.489755 0.20651 0.181735 255 41 19
-0.488349 0.208026 0.182274 249 39 16
-0.487714 0.20998 0.182533 232 32 11
-0.486313 0.211486 0.18307 212 26 6
-0.48568 0.213436 0.183329 200 23 3
-0.484286 0.214933 0.183864 195 24 4
-0.482897 0.216424 0.184396 193 22 5
-0.480764 0.217454 0.185197 195 21 3
-0.478648 0.218477 0.185992 201 23 2
-0.476547 0.219492 0.186781 210 26 5
-0.473011 0.219593 0.188088 212 26 5
-0.471671 0.221045 0.188601 208 23 1
-0.470337 0.222493 0.189113 200 22 2
-0.468297 0.223478 0.189879 192 20 4
-0.466976 0.224914 0.190385 191 18 2
-0.46566 0.226344 0.19089 186 16 1
-0.463652 0.227308 0.191644 180 12 0
-0.462349 0.228726 0.192143 180 8 0
-0.46105 0.230139 0.192641 184 6 0
-0.459757 0.231547 0.193137 184 12 2
-0.458468 0.23295 0.193632 188 12 1
-0.455164 0.232951 0.194851 191 10 0
-0.453895 0.234339 0.195338 194 7 0
-0.45263 0.235722 0.195823 195 5 0
-0.450712 0.236633 0.196543 194 7 0
-0.449459 0.238004 0.197024 191 9 0
-0.448863 0.239841 0.197268 185 9 0
-0.446968 0.240733 0.197979 184 8 0
-0.445087 0.241618 0.198685 191 6 0
-0.443856 0.242969 0.199157 201 6 0
-0.441995 0.243842 0.199856 210 10 0
-0.438899 0.243768 0.200998 221 10 0
-0.437076 0.244629 0.201682 223 11 0
-0.435265 0.245485 0.202362 220 9 0
-0.434074 0.246804 0.202819 211 9 0
-0.433494 0.24859 0.203057 203 8 0
-0.432308 0.249902 0.203512 198 5 0
-0.431126 0.251208 0.203965 195 2 0
-0.430547 0.252989 0.204202 199 10 2
-0.430569 0.255253 0.204223 228 29 10
-0.429989 0.257037 0.20446 242 58 44
-0.42941 0.258821 0.204698 226 65 53
-0.42883 0.260605 0.204935 145 52 48
-0.428849 0.262886 0.204958 88 50 45
-0.512636 0.14301 0.170242 79 64 58
-0.514473 0.145953 0.169589 87 61 51
-0.51383 0.14793 0.169851 236 53 46
-0.514849 0.15058 0.169501 255 69 48
-0.515039 0.152908 0.169457 255 60 40
-0.516911 0.155943 0.168791 255 51 32
-0.517106 0.158299 0.168746 255 56 30
-0.517302 0.160665 0.1687 255 54 31
-0.51835 0.163407 0.168339 255 51 31
-0.517695 0.165424 0.168607 255 48 24
-0.51704 0.167441 0.168875 255 47 20
-0.515536 0.169079 0.169456 255 44 19
-0.515729 0.171475 0.169412 255 46 23
-0.515073 0.173492 0.16968 255 44 21
-0.514418 0.17551 0.169948 255 41 16
-0.513762 0.177527 0.170216 255 45 25
-0.515653 0.180751 0.169546 255 45 30
-0.514994 0.182781 0.169816 255 58 38
-0.514334 0.18481 0.170086 255 55 38
-0.512826 0.186424 0.170668 255 51 34
-0.510484 0.187615 0.171557 255 49 28
-0.509829 0.189633 0.171826 255 50 32
-0.507507 0.190807 0.172707 255 42 21
-0.505204 0.191972 0.173581 255 40 18
-0.502919 0.193128 0.174449 255 40 23
-0.502271 0.195123 0.174714 254 37 18
-0.500006 0.196263 0.175574 244 36 14
-0.498557 0.197821 0.176133 250 36 17
-0.497115 0.199373 0.17669 254 47 29
-0.495678 0.20092 0.177245 255 40 24
-0.493459 0.202026 0.178088 255 51 35
-0.491258 0.203125 0.178923 255 48 25
-0.489846 0.20465 0.179469 255 43 21
-0.488438 0.206169 0.180012 255 40 20
-0.487037 0.207682 0.180554 252 35 16
-0.486403 0.209632 0.180813 236 31 10
-0.485769 0.211583 0.181072 218 28 6
-0.485136 0.213533 0.181331 211 28 5
-0.483743 0.21503 0.181869 209 29 6
-0.482355 0.216521 0.182405 211 31 9
-0.480972 0.218007 0.182939 220 32 11
-0.478851 0.21903 0.183744 234 35 12
-0.473098 0.217781 0.18588 240 39 13
-0.471759 0.219237 0.186398 240 35 9
-0.470424 0.220688 0.186914 233 31 7
-0.468384 0.221681 0.187688 221 26 2
-0.467062 0.223119 0.188198 209 24 4
-0.466448 0.225009 0.188449 201 22 2
-0.465133 0.226439 0.188958 192 18 3
-0.463822 0.227864 0.189464 187 18 0
-0.462516 0.229284 0.189968 186 17 0
-0.460527 0.230235 0.190723 189 16 0
-0.459234 0.231642 0.191222 191 20 2
-0.457946 0.233045 0.19172 193 21 2
-0.453979 0.232584 0.193198 194 19 1
-0.452714 0.23397 0.193687 193 16 0
-0.452114 0.235817 0.193932 190 13 0
-0.450198 0.236728 0.194659 187 13 0
-0.448946 0.238099 0.195143 184 14 0
-0.448349 0.239936 0.195387 182 13 0
-0.446456 0.240828 0.196105 181 11 0
-0.445218 0.242185 0.196583 184 9 0
-0.443984 0.243537 0.19706 190 11 0
-0.441488 0.243937 0.197998 192 9 0
-0.438396 0.243862 0.199153 196 12 0
-0.435959 0.244255 0.200069 198 11 0
-0.434765 0.245578 0.20053 199 8 0
-0.434183 0.247368 0.200768 197 10 0
-0.432994 0.248684 0.201228 195 11 0
-0.432413 0.250471 0.201466 192 6 0
-0.431833 0.252258 0.201703 188 4 1
-0.431252 0.254045 0.201941 196 16 8
-0.430671 0.255832 0.202178 240 39 25
-0.430091 0.257619 0.202416 247 62 50
-0.42951 0.259407 0.202654 217 65 54
-0.428929 0.261194 0.202891 141 52 45
-0.428348 0.262981 0.203129 88 53 45
-0.510453 0.142464 0.168837 78 63 55
-0.510632 0.144745 0.168793 88 62 54
-0.509994 0.146707 0.169053 236 45 44
-0.509356 0.14867 0.169314 255 70 48
-0.509533 0.150967 0.16927 255 59 41
-0.511352 0.153956 0.168612 255 52 32
-0.512361 0.15663 0.168256 255 51 30
-0.513379 0.159325 0.167898 255 53 32
-0.515245 0.162404 0.167222 255 51 32
-0.516284 0.165148 0.166857 255 50 25
-0.515629 0.167161 0.167124 255 51 24
-0.514975 0.169174 0.167392 255 46 26
-0.515167 0.171571 0.167343 255 45 24
-0.514512 0.173589 0.167611 255 47 36
-0.513012 0.175215 0.168195 255 47 20
-0.512358 0.177228 0.168462 255 51 31
-0.515942 0.181254 0.167146 255 58 39
-0.516997 0.184112 0.166775 255 57 41
-0.516334 0.186154 0.167046 255 60 40
-0.513109 0.186938 0.168275 255 56 36
-0.511604 0.188548 0.16886 255 51 29
-0.509266 0.189731 0.169757 255 47 21
-0.50861 0.191749 0.170025 255 42 18
-0.504646 0.19207 0.171529 255 41 15
-0.501552 0.192805 0.172707 255 36 12
-0.498493 0.193531 0.173872 255 37 13
-0.496259 0.194668 0.174728 254 36 16
-0.494829 0.196218 0.175285 255 49 30
-0.49419 0.198186 0.175547 255 42 19
-0.492766 0.199726 0.176101 255 41 26
-0.491348 0.20126 0.176653 255 52 40
-0.490711 0.203221 0.176913 255 49 30
-0.4893 0.204746 0.177463 255 44 27
-0.487893 0.206265 0.17801 255 40 24
-0.486493 0.207779 0.178555 253 36 16
-0.485859 0.209729 0.178814 242 32 9
-0.485225 0.21168 0.179074 227 30 6
-0.484591 0.21363 0.179333 223 30 8
-0.483958 0.215581 0.179592 226 34 12
-0.482567 0.217074 0.180133 236 39 15
-0.481934 0.219021 0.180392 248 40 16
-0.48055 0.220505 0.180931 252 41 17
-0.472566 0.217877 0.183926 253 41 17
-0.470511 0.218883 0.184714 253 39 15
-0.46847 0.219882 0.185496 248 33 9
-0.467149 0.221324 0.186011 240 27 3
-0.466535 0.223215 0.186262 225 24 1
-0.46592 0.225105 0.186513 211 23 1
-0.465306 0.226996 0.186765 203 24 7
-0.463296 0.22796 0.187535 200 26 5
-0.462684 0.229844 0.187785 201 24 3
-0.460691 0.230794 0.188549 209 26 3
-0.459395 0.232204 0.189053 216 29 6
-0.457425 0.233141 0.189808 217 30 6
-0.453462 0.232679 0.191304 214 29 4
-0.452198 0.234065 0.191796 207 24 2
-0.450938 0.235446 0.192286 199 21 0
-0.449683 0.236822 0.192775 192 21 1
-0.448433 0.238194 0.193262 188 21 4
-0.447836 0.240031 0.193506 187 21 4
-0.44659 0.241395 0.193991 186 19 2
-0.44535 0.242753 0.194474 185 17 2
-0.443474 0.243632 0.195192 189 18 0
-0.4391 0.242621 0.196838 191 17 0
-0.436655 0.243021 0.197767 193 20 0
-0.434846 0.243882 0.19846 193 20 1
-0.433656 0.245204 0.198924 194 16 0
-0.433075 0.246991 0.199162 193 14 0
-0.432494 0.248778 0.199399 190 16 1
-0.431914 0.250565 0.199637 187 13 2
-0.431333 0.252352 0.199874 191 13 6
-0.430752 0.254139 0.200112 214 29 19
-0.430171 0.255926 0.200349 255 61 49
-0.429591 0.257714 0.200587 252 61 51
-0.42901 0.259501 0.200824 193 66 55
-0.428429 0.261289 0.201062 120 56 47
-0.427848 0.263076 0.2013 82 54 44
-0.507482 0.141607 0.167749 82 61 50
-0.506849 0.143555 0.168008 87 60 51
-0.506216 0.145503 0.168267 187 42 44
-0.506385 0.147777 0.168222 255 69 46
-0.505751 0.149728 0.168481 255 64 43
-0.506726 0.15235 0.16813 255 51 32
-0.506089 0.15431 0.16839 255 59 31
-0.507068 0.15696 0.168037 255 55 33
-0.510518 0.160695 0.166747 255 53 34
-0.513196 0.164137 0.16575 255 53 33
-0.512546 0.166138 0.166016 255 52 29
-0.512732 0.168515 0.165965 255 50 30
-0.51208 0.170521 0.166232 255 58 42
-0.51395 0.173685 0.165542 255 73 68
-0.512452 0.175311 0.16613 255 57 37
-0.511797 0.177325 0.166397 255 58 36
-0.518822 0.182991 0.163754 255 61 42
-0.519025 0.185459 0.163697 255 60 44
-0.520982 0.18879 0.162976 255 58 39
-0.504909 0.192589 0.169165 255 40 14
-0.498584 0.191648 0.17158 255 40 16
-0.493206 0.191141 0.173635 255 42 20
-0.49257 0.193098 0.173896 255 51 30
-0.491934 0.195055 0.174156 255 41 25
-0.490523 0.196592 0.174709 255 35 17
-0.489888 0.198546 0.174969 255 60 42
-0.489253 0.2005 0.175228 255 56 41
-0.488618 0.202454 0.175488 255 47 31
-0.489527 0.20528 0.175164 255 45 30
-0.483413 0.215678 0.177593 244 39 17
-0.482023 0.217171 0.178138 252 42 17
-0.481391 0.219118 0.178397 255 42 19
-0.471314 0.217525 0.182244 255 42 18
-0.469267 0.218531 0.183036 255 39 17
-0.467235 0.219529 0.183823 254 35 12
-0.466621 0.22142 0.184074 249 28 6
-0.466007 0.22331 0.184325 234 23 0
-0.465392 0.225201 0.184577 220 25 3
-0.464778 0.227091 0.184828 215 34 11
-0.464164 0.228982 0.185079 218 29 6
-0.462158 0.229939 0.185856 227 32 9
-0.460166 0.23089 0.186627 238 35 12
-0.458872 0.232299 0.187134 244 38 14
-0.456903 0.233236 0.187896 243 37 12
-0.451621 0.231853 0.189908 239 34 9
-0.451022 0.233697 0.190153 227 29 5
-0.449767 0.235076 0.190645 213 26 4
-0.449169 0.236917 0.19089 202 27 6
-0.447919 0.238289 0.19138 198 28 9
-0.447322 0.240126 0.191625 197 26 7
-0.446725 0.241964 0.191869 198 26 4
-0.445482 0.243324 0.192356 200 25 4
-0.442328 0.243253 0.193564 207 26 3
-0.437354 0.241782 0.195457 214 27 4
-0.434927 0.242185 0.19639 216 27 4
-0.433736 0.24351 0.196857 213 26 4
-0.43255 0.244831 0.197323 209 25 4
-0.431368 0.246146 0.197787 203 25 3
-0.431994 0.248871 0.19757 198 25 5
-0.431414 0.250659 0.197807 196 24 11
-0.430833 0.252446 0.198045 208 30 20
-0.430252 0.254233 0.198282 247 52 37
-0.429671 0.256021 0.19852 255 83 65
-0.42909 0.257808 0.198757 248 57 48
-0.42851 0.259596 0.198995 165 55 50
-0.427929 0.261384 0.199233 102 54 40
-0.427945 0.263671 0.199245 76 51 39
-0.506138 0.141384 0.16606 82 66 50
-0.505507 0.143329 0.166318 84 61 56
-0.504875 0.145273 0.166576 117 54 52
-0.504243 0.147217 0.166835 255 53 41
-0.503611 0.149162 0.167093 255 65 44
-0.502979 0.151106 0.167352 255 63 38
-0.503142 0.153387 0.167304 255 55 32
-0.504104 0.156018 0.166949 255 57 32
-0.505074 0.15867 0.166591 255 56 34
-0.508498 0.162415 0.16529 255 52 35
-0.507854 0.164397 0.165553 255 56 34
-0.508851 0.167118 0.165186 255 53 34
-0.509857 0.169859 0.164815 255 63 43
-0.51087 0.172622 0.164441 255 63 46
-0.510218 0.174628 0.164708 255 61 42
-0.509566 0.176635 0.164974 255 61 42
-0.521749 0.184756 0.160307 255 60 40
-0.490199 0.187666 0.172559 255 43 22
-0.489568 0.189609 0.172817 255 49 29
-0.488936 0.191551 0.173075 255 45 30
-0.489071 0.193906 0.173039 255 33 16
-0.488439 0.195852 0.173297 255 37 18
-0.488573 0.19822 0.173262 255 54 36
-0.48794 0.20017 0.173521 255 50 35
-0.487306 0.20212 0.17378 255 43 30
-0.467936 0.215844 0.181384 255 42 20
-0.467322 0.217734 0.181635 255 41 21
-0.466707 0.219625 0.181886 255 37 16
-0.466093 0.221515 0.182137 253 24 4
-0.465479 0.223406 0.182389 238 25 3
-0.464864 0.225297 0.18264 229 30 4
-0.46425 0.227187 0.182891 230 35 11
-0.463636 0.229078 0.183142 241 33 10
-0.463021 0.230969 0.183394 248 39 15
-0.461019 0.231919 0.184176 254 42 19
-0.459032 0.232863 0.184953 255 42 20
-0.457739 0.234269 0.185464 255 39 19
-0.4551 0.234729 0.18649 252 38 15
-0.450507 0.233792 0.188265 242 34 9
-0.449253 0.235171 0.18876 225 31 8
-0.448654 0.237012 0.189005 212 31 10
-0.448056 0.238853 0.18925 208 29 9
-0.446808 0.240221 0.189743 210 26 5
-0.446211 0.242059 0.189987 216 25 3
-0.445614 0.243897 0.190231 227 27 4
-0.441819 0.243348 0.191699 238 34 10
-0.43562 0.240949 0.194085 244 36 15
-0.433817 0.241816 0.19479 245 36 14
-0.432027 0.242678 0.19549 241 37 18
-0.430848 0.243995 0.195957 233 35 15
-0.429672 0.245308 0.196421 224 32 13
-0.430291 0.248021 0.1962 215 30 12
-0.429712 0.249802 0.196437 216 33 19
-0.429732 0.252061 0.196445 234 46 34
-0.429752 0.254328 0.196453 255 67 49
-0.429171 0.256115 0.19669 254 67 57
-0.42859 0.257903 0.196928 220 63 53
-0.428009 0.259691 0.197165 143 51 43
-0.428026 0.261975 0.197174 92 51 35
-0.427444 0.263766 0.197412 73 56 38
-0.504965 0.143419 0.164323 80 60 59
-0.504334 0.145364 0.164581 87 56 49
-0.502908 0.146985 0.16515 164 44 38
-0.502277 0.148925 0.165407 255 50 40
-0.501646 0.150866 0.165665 255 64 43
-0.501016 0.152807 0.165923 255 55 35
-0.500385 0.154749 0.166181 255 55 33
-0.500542 0.157032 0.166132 255 55 33
-0.49991 0.158977 0.16639 255 51 33
-0.499278 0.160922 0.166648 255 54 32
-0.500224 0.163578 0.166292 255 56 35
-0.501975 0.166617 0.165621 255 59 39
-0.508651 0.171953 0.163031 255 67 45
-0.508001 0.173951 0.163296 255 63 42
-0.507352 0.17595 0.163562 255 64 44
-0.507527 0.178342 0.163506 255 60 42
-0.490288 0.185818 0.170309 255 48 28
-0.485856 0.185778 0.172048 255 49 33
-0.485984 0.1881 0.17201 255 51 33
-0.48687 0.190834 0.171677 255 39 15
-0.487001 0.193179 0.171638 255 33 14
-0.487132 0.195532 0.171599 255 49 33
-0.487264 0.197894 0.17156 255 51 35
-0.486631 0.199841 0.171819 255 49 32
-0.485998 0.201788 0.172078 255 45 28
-0.486128 0.204167 0.17204 255 41 26
-0.467408 0.215939 0.179447 255 46 27
-0.465478 0.219273 0.180222 255 31 11
-0.464864 0.22116 0.180473 253 25 4
-0.464951 0.223501 0.180451 244 26 6
-0.464336 0.225392 0.180703 241 34 9
-0.463722 0.227283 0.180954 247 36 14
-0.463107 0.229174 0.181205 254 41 18
-0.462493 0.231065 0.181456 255 42 18
-0.44814 0.237107 0.18712 223 33 11
-0.447542 0.238948 0.187364 223 29 6
-0.446295 0.240316 0.187861 229 27 4
-0.445697 0.242154 0.188105 240 29 6
-0.440677 0.24297 0.190079 255 43 20
-0.433898 0.240122 0.192723 255 45 25
-0.432108 0.24099 0.19343 255 43 25
-0.430329 0.241851 0.194132 255 47 33
-0.428563 0.242706 0.19483 249 42 27
-0.427988 0.244475 0.195065 235 36 19
-0.428599 0.247176 0.19484 225 34 16
-0.428617 0.249423 0.194845 233 41 22
-0.428635 0.251677 0.19485 255 60 45
-0.428653 0.253939 0.194855 254 79 61
-0.428671 0.25621 0.19486 252 62 51
-0.42809 0.257997 0.195098 178 66 56
-0.427509 0.259785 0.195335 113 56 50
-0.427525 0.26207 0.195341 80 52 44
-0.426943 0.263861 0.195579 70 57 42
-0.502207 0.144815 0.163213 82 59 43
-0.501577 0.146753 0.16347 101 51 44
-0.500948 0.14869 0.163728 168 40 32
-0.499534 0.150299 0.164295 248 48 29
-0.497347 0.151572 0.165168 255 59 36
-0.496721 0.153498 0.165424 255 57 36
-0.496095 0.155425 0.16568 255 53 30
-0.495468 0.157352 0.165936 255 52 29
-0.491779 0.157914 0.167403 255 50 32
-0.491158 0.159827 0.167657 255 52 34
-0.495134 0.163838 0.166094 255 59 37
-0.50079 0.168675 0.163867 255 61 41
-0.500152 0.170639 0.164128 255 63 43
-0.499513 0.172603 0.164389 255 58 42
-0.498875 0.174568 0.16465 255 57 39
-0.498237 0.176532 0.164911 255 55 37
-0.485944 0.183948 0.169819 255 51 34
-0.482333 0.184312 0.171254 255 60 38
-0.482453 0.186614 0.171215 255 41 19
-0.484068 0.189721 0.170586 255 30 10
-0.484193 0.192051 0.170545 255 39 20
-0.484318 0.194389 0.170504 255 50 34
-0.484443 0.196736 0.170464 255 49 31
-0.485327 0.199514 0.170124 255 44 28
-0.485455 0.201884 0.170082 255 42 24
-0.484823 0.203831 0.17034 255 40 22
-0.48419 0.205778 0.170599 255 41 29
-0.464337 0.221255 0.178539 255 26 4
-0.463724 0.223143 0.17879 252 28 7
-0.463808 0.225488 0.178765 252 37 13
-0.463194 0.227379 0.179016 255 42 20
-0.462579 0.22927 0.179268 255 46 24
-0.433979 0.238428 0.190655 255 45 26
-0.432792 0.239758 0.191132 255 45 25
-0.429813 0.239714 0.192314 255 42 26
-0.427462 0.240122 0.193249 255 49 36
-0.425717 0.240978 0.193945 250 41 26
-0.425146 0.242735 0.194178 237 35 15
-0.425743 0.245411 0.193952 238 37 19
-0.426933 0.248575 0.193491 254 51 37
-0.427541 0.251294 0.19326 255 73 55
-0.427557 0.253552 0.193263 252 65 56
-0.42817 0.256304 0.19303 224 66 57
-0.427589 0.258092 0.193267 140 52 46
-0.427008 0.25988 0.193505 92 52 41
-0.426427 0.261668 0.193742 74 55 48
-0.500252 0.146522 0.161797 80 59 47
-0.498842 0.148132 0.162367 95 54 40
-0.497437 0.149736 0.162935 151 50 36
-0.496037 0.151334 0.163501 211 44 21
-0.49235 0.151939 0.164983 254 49 36
-0.490973 0.153518 0.16554 255 61 37
-0.48885 0.154761 0.166395 255 61 38
-0.486002 0.155663 0.167541 255 58 35
-0.483185 0.156556 0.168674 255 56 32
-0.482574 0.158434 0.168924 255 56 33
-0.484161 0.161328 0.168293 255 59 36
-0.495665 0.168889 0.163691 255 61 39
-0.494255 0.170467 0.164261 255 58 40
-0.493624 0.172409 0.164519 255 55 35
-0.491451 0.173604 0.165394 255 53 32
-0.484036 0.172214 0.168369 255 51 30
-0.477581 0.171225 0.170958 255 52 30
-0.472712 0.170966 0.172913 255 47 28
-0.479592 0.183249 0.170179 255 45 28
-0.479707 0.185537 0.170138 255 33 11
-0.481297 0.188621 0.169506 255 32 15
-0.482906 0.19174 0.168868 255 47 33
-0.483028 0.194074 0.168824 255 50 35
-0.483151 0.196416 0.16878 255 46 31
-0.483274 0.198767 0.168736 255 45 31
-0.483398 0.201127 0.168692 255 44 27
-0.483522 0.203496 0.168647 255 41 20
-0.483646 0.205875 0.168603 255 43 22
-0.463894 0.223693 0.176576 255 35 8
-0.46328 0.225584 0.176827 255 40 15
-0.462665 0.227475 0.177078 255 45 25
-0.462051 0.229367 0.17733 255 49 30
-0.430469 0.236262 0.190029 255 42 24
-0.429893 0.238034 0.190264 255 42 20
-0.427541 0.238451 0.191209 255 40 16
-0.424633 0.238417 0.192377 255 39 20
-0.424064 0.240168 0.19261 246 35 17
-0.423495 0.241919 0.192842 237 36 17
-0.423504 0.244127 0.192844 243 50 33
-0.425848 0.248199 0.191912 255 69 53
-0.425861 0.25044 0.191912 254 75 60
-0.426465 0.253167 0.191675 244 69 55
-0.427074 0.255912 0.191437 168 61 58
-0.427089 0.258187 0.191437 100 56 49
-0.426508 0.259975 0.191674 79 56 41
-0.425927 0.261763 0.191912 73 55 40
-0.497526 0.147899 0.160702 79 56 42
-0.496126 0.149501 0.161272 94 55 50
-0.492439 0.15012 0.16277 124 49 46
-0.491061 0.151703 0.163331 164 40 36
-0.486703 0.151976 0.165102 220 41 21
-0.485351 0.153538 0.165653 253 49 31
-0.482543 0.154441 0.166794 255 58 36
-0.479765 0.155334 0.167923 255 66 37
-0.475602 0.155569 0.169615 255 59 34
-0.474299 0.157092 0.170145 255 60 35
-0.483021 0.163307 0.166607 255 58 35
-0.482407 0.165196 0.166858 255 59 35
-0.480335 0.166385 0.1677 255 58 36
-0.478999 0.167916 0.168244 255 53 31
-0.476235 0.168737 0.169367 255 52 31
-0.471398 0.168506 0.171332 255 52 30
-0.470102 0.170006 0.17186 255 51 34
-0.470197 0.172203 0.171823 255 49 31
-0.474517 0.176576 0.170072 255 56 36
-0.477496 0.180309 0.168864 255 49 39
-0.478333 0.182959 0.168526 255 37 17
-0.478445 0.185242 0.168483 255 32 9
-0.480025 0.188319 0.167843 255 45 23
-0.480881 0.191029 0.167497 255 51 32
-0.481743 0.19376 0.167149 255 46 28
-0.481863 0.196097 0.167102 255 45 28
-0.481984 0.198444 0.167055 255 43 28
-0.481356 0.200376 0.167312 255 44 28
-0.480728 0.202309 0.167568 255 47 25
-0.482348 0.205536 0.166913 255 47 24
-0.464065 0.224245 0.174354 255 41 13
-0.46345 0.22614 0.174606 255 42 22
-0.462834 0.228034 0.174857 255 47 31
-0.429973 0.236354 0.188214 255 44 20
-0.428211 0.237227 0.18893 255 41 14
-0.424712 0.236757 0.190351 255 36 10
-0.424143 0.238508 0.190584 253 32 10
-0.422997 0.239811 0.19105 244 31 12
-0.422428 0.241559 0.191283 246 43 26
-0.42186 0.243308 0.191515 255 64 47
-0.423601 0.246896 0.19081 255 77 60
-0.424778 0.250062 0.190335 248 66 56
-0.425377 0.252783 0.190093 211 71 59
-0.425389 0.25504 0.19009 131 54 54
-0.425994 0.257792 0.189847 87 57 45
-0.426007 0.26007 0.189843 74 55 40
-0.494821 0.149267 0.159615 81 55 54
-0.49115 0.149887 0.161123 87 56 55
-0.486791 0.150177 0.162914 93 53 57
-0.485438 0.151743 0.163468 124 50 42
-0.48263 0.152655 0.164622 158 41 37
-0.479851 0.153558 0.165763 206 35 22
-0.475688 0.15381 0.167473 249 45 27
-0.473684 0.155014 0.168296 255 49 34
-0.471695 0.156209 0.169112 255 58 37
-0.473186 0.159024 0.168497 255 58 34
-0.472586 0.160869 0.168742 255 50 30
-0.47129 0.16238 0.169274 255 50 28
-0.470692 0.164221 0.169518 255 52 31
-0.470093 0.166063 0.169763 255 52 32
-0.469495 0.167905 0.170007 255 53 34
-0.468896 0.169747 0.170252 255 55 45
-0.468988 0.17194 0.170212 255 53 38
-0.469775 0.174498 0.169887 255 57 40
-0.474812 0.17928 0.167814 255 43 26
-0.476355 0.182291 0.167177 255 38 17
-0.477187 0.184948 0.166833 255 38 17
-0.478026 0.187626 0.166486 255 50 29
-0.478871 0.190324 0.166137 255 51 32
-0.479723 0.193042 0.165785 255 47 30
-0.479838 0.195369 0.165735 255 47 30
-0.479214 0.197291 0.165991 255 46 28
-0.478589 0.199213 0.166246 255 45 30
-0.477965 0.201135 0.166501 255 53 32
-0.47956 0.204338 0.165843 255 54 32
-0.463536 0.224341 0.172412 255 42 17
-0.46292 0.226236 0.172664 255 43 27
-0.426512 0.23203 0.18762 255 43 26
-0.428291 0.235553 0.186886 255 40 17
-0.425372 0.235539 0.188086 255 36 12
-0.424222 0.236848 0.188557 255 33 9
-0.423076 0.238154 0.189027 248 32 10
-0.421933 0.239455 0.189496 250 37 20
-0.421366 0.241201 0.189728 255 54 39
-0.421371 0.2434 0.189724 255 71 56
-0.420803 0.245148 0.189956 253 70 58
-0.422536 0.248749 0.189241 234 67 56
-0.424293 0.2524 0.188516 155 53 52
-0.424891 0.255134 0.188268 97 53 39
-0.424903 0.257399 0.188262 77 58 41
-0.424914 0.259672 0.188256 74 57 40
-0.486265 0.150266 0.160976 77 55 59
-0.484178 0.15151 0.16184 87 59 52
-0.480658 0.152102 0.163301 95 55 47
-0.477901 0.153004 0.164445 118 51 41
-0.47377 0.15326 0.166162 152 43 35
-0.47178 0.154462 0.166986 198 33 20
-0.469119 0.155336 0.16809 241 42 22
-0.467843 0.15684 0.168616 254 54 36
-0.468616 0.159312 0.168289 255 60 39
-0.467339 0.160812 0.168817 255 52 31
-0.466746 0.162638 0.169059 255 52 30
-0.468202 0.165473 0.168447 255 53 31
-0.467605 0.167308 0.168691 255 54 32
-0.467694 0.169489 0.168649 255 54 40
-0.467097 0.171328 0.168893 255 59 40
-0.469258 0.174588 0.167987 255 46 29
-0.472157 0.178262 0.166774 255 44 32
-0.473677 0.181251 0.166135 255 42 31
-0.475213 0.184273 0.16549 255 48 33
-0.476042 0.186938 0.165139 255 51 31
-0.476876 0.189623 0.164786 255 51 30
-0.476986 0.191927 0.164735 255 52 32
-0.476366 0.193835 0.164988 255 50 32
-0.475746 0.195743 0.165242 255 49 31
-0.472959 0.196424 0.166398 255 48 33
-0.473061 0.198732 0.166351 255 54 35
-0.476803 0.203153 0.164785 255 55 36
-0.456473 0.208956 0.173221 255 31 7
-0.461455 0.218857 0.171127 255 43 25
-0.460844 0.220739 0.171377 255 44 20
-0.461614 0.223525 0.17105 255 44 22
-0.461694 0.225871 0.171012 255 46 26
-0.461775 0.228227 0.170973 255 48 33
-0.459235 0.233439 0.172016 255 43 23
-0.45862 0.235331 0.172267 255 40 19
-0.429558 0.234766 0.184347 255 39 20
-0.426035 0.234316 0.185812 255 36 12
-0.424301 0.235188 0.186531 255 36 11
-0.423155 0.236497 0.187004 255 35 9
-0.422012 0.237801 0.187476 255 37 17
-0.420873 0.239101 0.187946 255 54 37
-0.420307 0.240843 0.188178 255 74 57
-0.42031 0.243038 0.188171 255 76 62
-0.420313 0.24524 0.188165 238 67 55
-0.42089 0.247912 0.187919 177 68 54
-0.423212 0.252018 0.186944 106 52 44
-0.424393 0.255228 0.186446 77 55 42
-0.423815 0.257007 0.186682 76 54 41
-0.483654 0.151599 0.159908 80 57 51
-0.479418 0.15187 0.161688 81 61 50
-0.475259 0.152137 0.163435 87 61 49
-0.471865 0.152714 0.164859 97 54 46
-0.469203 0.153598 0.165974 119 48 36
-0.467247 0.154788 0.166792 152 41 33
-0.465979 0.156288 0.167319 205 43 25
-0.466065 0.158426 0.167275 249 56 35
-0.464799 0.15992 0.167801 255 62 40
-0.464209 0.161736 0.168042 255 57 33
-0.464966 0.164217 0.167714 255 53 32
-0.46505 0.166377 0.16767 255 52 33
-0.466497 0.169233 0.167051 255 59 38
-0.466584 0.171417 0.167006 255 47 23
-0.468049 0.174321 0.166379 255 40 27
-0.470931 0.177986 0.165154 255 48 44
-0.471733 0.180594 0.164806 255 53 38
-0.473254 0.183602 0.164156 255 55 34
-0.474072 0.186255 0.163802 255 53 32
-0.474175 0.188536 0.163749 255 52 29
-0.474279 0.190825 0.163697 255 50 32
-0.473663 0.192723 0.163949 255 51 32
-0.471614 0.193816 0.164805 255 51 32
-0.468173 0.194104 0.166251 255 50 31
-0.467563 0.19598 0.1665 255 50 32
-0.460083 0.193882 0.169652 255 50 33
-0.450927 0.190723 0.173512 255 50 34
-0.450342 0.192525 0.173751 255 50 34
-0.452991 0.196255 0.172623 255 51 34
-0.454365 0.199256 0.172034 255 51 36
-0.45443 0.201483 0.171998 255 48 29
-0.453835 0.203314 0.172241 255 40 16
-0.45456 0.205963 0.171926 255 34 9
-0.455957 0.209049 0.171327 255 34 11
-0.456696 0.211742 0.171006 255 42 23
-0.45948 0.215756 0.169821 255 47 29
-0.459555 0.218067 0.16978 255 45 28
-0.459631 0.220387 0.169739 255 44 21
-0.459707 0.222715 0.169698 255 44 25
-0.461166 0.225967 0.169072 255 47 26
-0.460551 0.227859 0.169324 255 49 31
-0.459936 0.229751 0.169575 255 50 37
-0.459321 0.231643 0.169826 255 46 33
-0.458706 0.233536 0.170077 255 45 26
-0.458091 0.235428 0.170328 255 42 19
-0.457476 0.23732 0.170579 255 43 20
-0.433222 0.233529 0.180788 255 50 32
-0.425531 0.232212 0.184025 255 38 14
-0.42438 0.233528 0.184504 255 38 15
-0.423811 0.23528 0.184736 255 39 16
-0.422665 0.236588 0.185213 255 40 27
-0.420952 0.237449 0.18593 255 56 42
-0.420385 0.239192 0.186161 255 73 53
-0.419819 0.240935 0.186392 255 74 57
-0.419252 0.242678 0.186624 244 65 54
-0.419254 0.244876 0.186615 200 66 51
-0.420399 0.248005 0.186121 124 54 42
-0.422135 0.251638 0.185378 83 52 42
-0.423308 0.25484 0.184872 74 54 43
-0.474744 0.152225 0.161538 85 61 55
-0.469288 0.15186 0.163859 85 65 57
-0.466654 0.152743 0.164973 86 58 46
-0.464047 0.153618 0.166076 100 54 45
-0.462794 0.15511 0.166601 130 50 39
-0.464211 0.15787 0.165984 214 48 36
-0.462953 0.159359 0.166511 251 64 41
-0.462364 0.161169 0.166751 255 62 40
-0.462443 0.163309 0.166706 255 57 36
-0.462522 0.165456 0.16666 255 59 37
-0.463273 0.16795 0.166328 255 47 29
-0.46403 0.170463 0.165993 255 37 15
-0.464791 0.172993 0.165655 255 38 19
-0.466933 0.17626 0.164727 255 54 36
-0.469804 0.179943 0.163487 255 59 36
-0.470602 0.182559 0.163134 255 57 35
-0.472116 0.185577 0.162474 255 55 35
-0.472216 0.187848 0.162419 255 53 32
-0.471603 0.189735 0.16267 255 49 31
-0.47028 0.191228 0.163224 255 51 32
-0.467558 0.191925 0.164376 255 51 33
-0.460767 0.190286 0.167272 255 50 32
-0.454191 0.188699 0.170075 255 50 32
-0.44719 0.186796 0.173061 255 49 31
-0.44661 0.188579 0.173297 255 48 30
-0.446031 0.190362 0.173534 255 49 32
-0.449253 0.194416 0.172143 255 52 35
-0.450596 0.197381 0.171556 255 48 31
-0.451952 0.200377 0.170963 255 39 17
-0.452667 0.203002 0.170645 255 36 11
-0.452728 0.205236 0.170607 255 39 18
-0.453449 0.207893 0.170286 255 43 23
-0.454841 0.210989 0.169678 255 49 29
-0.456247 0.214119 0.169063 255 51 32
-0.459031 0.218162 0.167858 255 47 30
-0.459106 0.220482 0.167814 255 48 28
-0.460559 0.223716 0.167179 255 47 26
-0.460637 0.226063 0.167133 255 49 29
-0.460715 0.228419 0.167087 255 50 33
-0.460099 0.230315 0.167338 255 52 37
-0.459483 0.232211 0.16759 255 50 37
-0.458177 0.233632 0.168137 255 49 31
-0.457562 0.235525 0.168388 255 46 22
-0.456947 0.237417 0.16864 255 47 23
-0.433303 0.231834 0.178718 255 52 33
-0.429718 0.231405 0.180245 255 48 26
-0.424449 0.229685 0.182493 255 43 22
-0.423881 0.231433 0.182725 255 41 18
-0.42389 0.233619 0.182709 255 43 23
-0.422744 0.23493 0.183189 255 45 36
-0.421602 0.236237 0.183667 255 62 50
-0.420464 0.23754 0.184144 255 75 58
-0.419897 0.239283 0.184375 255 68 54
-0.419331 0.241026 0.184607 243 60 50
-0.418764 0.242769 0.184838 202 59 53
-0.418765 0.244968 0.184826 139 52 51
-0.419335 0.247635 0.184569 86 53 38
-0.42164 0.251731 0.183567 74 57 46
-0.462798 0.151282 0.16456 80 61 52
-0.460892 0.152464 0.165371 87 56 46
-0.459652 0.153947 0.165893 97 52 45
-0.461043 0.156682 0.165276 157 46 39
-0.460458 0.158483 0.165515 244 66 44
-0.459873 0.160283 0.165754 255 66 43
-0.459946 0.16241 0.165707 255 58 38
-0.45936 0.164214 0.165947 255 52 36
-0.460095 0.166686 0.165614 255 39 17
-0.460169 0.168836 0.165567 255 38 15
-0.460911 0.171339 0.165231 255 49 26
-0.46233 0.174211 0.164601 255 57 34
-0.463765 0.177114 0.163964 255 57 34
-0.463847 0.179317 0.163913 255 56 34
-0.463929 0.181529 0.163863 255 55 34
-0.465385 0.184498 0.163216 255 53 32
-0.464782 0.186355 0.163462 255 52 32
-0.460775 0.186313 0.165185 255 52 32
-0.45552 0.18553 0.167448 255 51 33
-0.450393 0.184766 0.169656 255 50 34
-0.446642 0.18474 0.171268 255 50 31
-0.444193 0.185433 0.172316 255 49 30
-0.441768 0.186119 0.173353 255 49 31
-0.442424 0.188608 0.173054 255 52 33
-0.444329 0.19186 0.172213 255 50 31
-0.445 0.194395 0.171907 255 40 17
-0.446943 0.197721 0.171049 255 35 9
-0.447631 0.200305 0.170735 255 40 15
-0.448967 0.203306 0.17014 255 47 28
-0.449668 0.205932 0.16982 255 51 31
-0.452339 0.209823 0.168646 255 50 29
-0.456401 0.214643 0.166866 255 52 32
-0.459192 0.218698 0.165639 255 49 30
-0.457648 0.233729 0.166197 255 49 29
-0.456348 0.235145 0.166746 255 49 26
-0.455734 0.237034 0.166997 255 51 27
-0.45444 0.238442 0.167543 255 52 30
-0.447169 0.235575 0.170688 255 53 35
-0.433965 0.22835 0.176412 255 52 38
-0.430972 0.228386 0.177698 255 50 36
-0.427431 0.227989 0.179222 255 49 34
-0.424528 0.228026 0.180469 255 48 29
-0.423383 0.229345 0.180952 255 45 21
-0.42167 0.230229 0.181682 255 46 26
-0.421675 0.232402 0.181664 255 56 41
-0.421109 0.234145 0.181896 255 75 57
-0.419973 0.235449 0.182375 255 70 60
-0.419976 0.237631 0.182358 249 60 52
-0.41941 0.239374 0.18259 232 56 49
-0.418843 0.241118 0.182821 195 52 52
-0.418276 0.242861 0.183052 139 49 51
-0.418276 0.245059 0.183037 90 51 44
-0.418845 0.247727 0.182774 72 55 39
-0.457132 0.151023 0.164958 82 56 46
-0.457201 0.153107 0.164911 91 54 42
-0.457269 0.1552 0.164863 134 49 40
-0.457989 0.157615 0.16453 237 66 43
-0.457407 0.159406 0.164767 255 66 45
-0.457476 0.161521 0.164719 255 60 40
-0.456893 0.163315 0.164957 255 44 25
-0.456961 0.16544 0.16491 255 38 19
-0.456377 0.167238 0.165148 255 49 27
-0.456444 0.169374 0.165101 255 58 36
-0.455859 0.171175 0.165339 255 61 37
-0.455273 0.172976 0.165578 255 59 37
-0.454688 0.174777 0.165817 255 56 37
