ply
format ascii 1.0
element vertex 1293
property float x
property float y
property float z
property uchar diffuse_red
property uchar diffuse_green
property uchar diffuse_blue
end_header
-0.42692 0.223372 0.305806 152 62 61
-0.426393 0.224995 0.306024 101 62 59
-0.426409 0.227016 0.306206 84 66 57
-0.558037 0.166284 0.281059 98 71 62
-0.557371 0.168336 0.281335 144 43 33
-0.556705 0.170387 0.28161 197 14 5
-0.555092 0.172046 0.281979 231 16 3
-0.555373 0.174491 0.28216 251 43 25
-0.895887 0.329851 0.249645 130 65 60
-0.890126 0.347596 0.252026 237 61 47
-0.888974 0.351146 0.252502 170 72 60
-0.887822 0.354695 0.252978 113 72 65
-0.88667 0.358245 0.253454 102 71 64
-0.885517 0.361795 0.25393 156 48 36
-0.884365 0.365345 0.254407 219 21 8
-0.883212 0.368895 0.254883 248 24 13
-0.88206 0.372446 0.255359 255 43 33
-0.880907 0.375996 0.255835 242 62 50
-0.879754 0.379547 0.256312 190 67 57
-0.878602 0.383098 0.256788 120 66 62
-0.874702 0.385228 0.257512 92 69 65
-0.876296 0.3902 0.257741 96 70 61
-0.875143 0.393751 0.258217 142 62 43
-0.873991 0.397303 0.258694 227 32 13
-0.867809 0.406463 0.26036 241 76 60
-0.869379 0.41151 0.2606 164 78 62
-0.868225 0.415062 0.261076 94 67 64
-0.447142 0.211309 0.30024 254 71 60
-0.445998 0.212606 0.300512 255 82 73
-0.444857 0.213898 0.300784 217 84 75
-0.444311 0.21558 0.30101 144 70 62
-0.432978 0.218026 0.302776 94 67 60
-0.431887 0.219277 0.303038 143 67 58
-0.430799 0.220525 0.303298 209 59 63
-0.429164 0.221377 0.303598 250 81 74
-0.428086 0.222615 0.303856 251 96 74
-0.427558 0.224244 0.304075 230 84 73
-0.427029 0.225872 0.304293 166 67 62
-0.426501 0.227501 0.304512 107 63 57
-0.425972 0.22913 0.30473 81 67 59
-0.558422 0.166764 0.278865 96 73 63
-0.557754 0.16882 0.279141 120 57 55
-0.557087 0.170876 0.279417 175 19 11
-0.556419 0.172932 0.279692 217 12 1
-0.555752 0.174988 0.279968 242 29 9
-0.897207 0.322923 0.245072 253 55 39
-0.894903 0.330021 0.246024 150 65 60
-0.893751 0.33357 0.2465 151 45 42
-0.892599 0.337119 0.246976 200 21 9
-0.891447 0.340668 0.247452 232 15 2
-0.890294 0.344218 0.247928 248 30 13
-0.889142 0.347767 0.248404 254 50 37
-0.88799 0.351317 0.24888 224 63 52
-0.886837 0.354867 0.249356 153 67 58
-0.885685 0.358417 0.249832 114 71 61
-0.884532 0.361967 0.250309 140 54 47
-0.88338 0.365518 0.250785 194 28 16
-0.882227 0.369068 0.251261 234 16 1
-0.881074 0.372619 0.251737 251 23 9
-0.879922 0.37617 0.252214 255 46 32
-0.878769 0.379721 0.25269 235 62 53
-0.877616 0.383272 0.253166 172 62 60
-0.87372 0.385402 0.253902 108 65 62
-0.87531 0.390375 0.254119 95 69 59
-0.874157 0.393926 0.254595 137 54 36
-0.873004 0.397478 0.255072 215 22 1
-0.871851 0.40103 0.255548 246 16 2
-0.870698 0.404582 0.256024 255 28 13
-0.866826 0.406639 0.256751 253 53 40
-0.868392 0.411687 0.256977 231 67 58
-0.867239 0.415239 0.257454 138 62 60
-0.866085 0.418792 0.25793 90 68 60
-0.864932 0.422345 0.258407 90 68 57
-0.445529 0.212692 0.298796 254 57 51
-0.444983 0.214376 0.299022 255 76 66
-0.434742 0.217632 0.300749 81 65 58
-0.433081 0.2185 0.30106 109 59 54
-0.431988 0.219753 0.301324 175 46 40
-0.431455 0.221394 0.301544 215 35 29
-0.429261 0.221854 0.301893 242 42 31
-0.42873 0.223487 0.302113 252 59 35
-0.427651 0.224725 0.302374 254 64 51
-0.427122 0.226356 0.302593 201 67 55
-0.426592 0.227987 0.302811 133 67 55
-0.426063 0.229619 0.30303 89 64 56
-0.557852 0.166861 0.276766 96 73 64
-0.557185 0.168917 0.277042 102 70 62
-0.556517 0.170973 0.277318 155 29 20
-0.555849 0.17303 0.277594 201 12 3
-0.556132 0.175487 0.277767 227 19 1
-0.896223 0.323092 0.24145 250 45 30
-0.895071 0.326641 0.241926 255 57 44
-0.893919 0.33019 0.242402 190 64 57
-0.892767 0.33374 0.242878 145 54 56
-0.891615 0.337289 0.243354 182 29 14
-0.890462 0.340839 0.24383 221 18 0
-0.88931 0.344389 0.244306 240 20 3
-0.888157 0.347939 0.244782 252 39 28
-0.887005 0.351489 0.245258 255 53 43
-0.885852 0.355039 0.245734 200 65 54
-0.8847 0.358589 0.24621 133 72 61
-0.883547 0.36214 0.246686 120 61 58
-0.882394 0.365691 0.247163 172 35 26
-0.881242 0.369242 0.247639 221 17 2
-0.880089 0.372793 0.248115 244 16 2
-0.878936 0.376344 0.248591 253 34 22
-0.877783 0.379895 0.249067 252 56 46
-0.87663 0.383447 0.249544 207 67 55
-0.875477 0.386998 0.25002 132 70 60
-0.874324 0.39055 0.250496 100 70 59
-0.873171 0.394102 0.250973 127 60 45
-0.872018 0.397654 0.251449 195 31 16
-0.870865 0.401206 0.251925 233 17 2
-0.869712 0.404759 0.252402 252 17 3
-0.868558 0.408311 0.252878 255 39 18
-0.867405 0.411864 0.253355 248 67 51
-0.866252 0.415417 0.253831 198 70 61
-0.865098 0.41897 0.254308 117 66 62
-0.863945 0.422523 0.254784 93 70 64
-0.862791 0.426076 0.255261 96 66 57
-0.433747 0.219366 0.29929 109 54 48
-0.43209 0.220229 0.299605 164 35 26
-0.430998 0.22148 0.299872 203 16 1
-0.42991 0.222726 0.300138 226 16 1
-0.428826 0.223968 0.300403 241 25 7
-0.428295 0.225605 0.300622 248 45 27
-0.427763 0.227241 0.300842 232 67 50
-0.427232 0.228878 0.301061 171 70 59
-0.426154 0.230109 0.301325 108 65 57
-0.425623 0.231743 0.301544 82 65 55
-0.558237 0.167343 0.274558 92 74 63
-0.557568 0.169403 0.274835 93 72 62
-0.556899 0.171464 0.275111 132 46 34
-0.55623 0.173525 0.275387 184 17 7
-0.555561 0.175586 0.275664 216 14 0
-0.554892 0.177646 0.27594 245 34 14
-0.894087 0.326811 0.238303 254 51 36
-0.892935 0.33036 0.238779 228 63 52
-0.891782 0.33391 0.239255 161 62 55
-0.89063 0.33746 0.239731 171 39 22
-0.889478 0.34101 0.240207 209 21 3
-0.888325 0.34456 0.240683 235 10 0
-0.887173 0.34811 0.241159 249 29 15
-0.88602 0.35166 0.241635 254 47 34
-0.884867 0.355211 0.242111 233 62 49
-0.883715 0.358762 0.242587 166 69 60
-0.882562 0.362313 0.243063 119 69 61
-0.881409 0.365864 0.24354 155 45 38
-0.880256 0.369415 0.244016 208 22 10
-0.879103 0.372966 0.244492 236 13 0
-0.87795 0.376518 0.244968 250 24 10
-0.876797 0.380069 0.245444 255 48 32
-0.875644 0.383621 0.245921 240 63 51
-0.874491 0.387173 0.246397 186 68 59
-0.873338 0.390725 0.246873 122 68 59
-0.872185 0.394277 0.247349 117 66 54
-0.871032 0.39783 0.247826 166 43 31
-0.869878 0.401382 0.248302 219 17 1
-0.868725 0.404935 0.248778 244 10 1
-0.867571 0.408488 0.249255 254 24 12
-0.866418 0.412041 0.249731 253 54 44
-0.865265 0.415594 0.250208 236 68 53
-0.864111 0.419147 0.250684 150 69 56
-0.862957 0.422701 0.25116 101 67 63
-0.861804 0.426254 0.251637 102 68 60
-0.43843 0.223032 0.297152 96 61 52
-0.433316 0.221497 0.297781 137 42 31
-0.430541 0.221565 0.298199 188 15 0
-0.430008 0.223207 0.298419 211 14 2
-0.428922 0.224451 0.298687 230 14 2
-0.42839 0.22609 0.298907 237 31 15
-0.427858 0.227729 0.299127 246 63 49
-0.427325 0.229369 0.299347 217 73 65
-0.426793 0.231008 0.299567 159 65 58
-0.425713 0.232238 0.299833 105 61 49
-0.556997 0.169501 0.272731 89 71 63
-0.556328 0.171562 0.273007 112 57 50
-0.555659 0.173623 0.273283 168 21 10
-0.55499 0.175684 0.27356 205 9 1
-0.554321 0.177745 0.273836 232 23 2
-0.893103 0.32698 0.23468 251 44 32
-0.89195 0.33053 0.235156 255 54 44
-0.890798 0.33408 0.235632 193 67 53
-0.889645 0.33763 0.236108 161 51 40
-0.891297 0.342453 0.236263 195 23 9
-0.890141 0.346016 0.23674 228 8 0
-0.888984 0.349578 0.237218 242 20 2
-0.885035 0.351832 0.238012 252 40 24
-0.883882 0.355383 0.238488 255 52 39
-0.882729 0.358934 0.238964 212 62 52
-0.881576 0.362485 0.23944 145 69 58
-0.880423 0.366037 0.239916 142 55 49
-0.87927 0.369588 0.240392 192 27 17
-0.878117 0.37314 0.240868 229 10 0
-0.876964 0.376692 0.241344 246 16 2
-0.875811 0.380244 0.241821 253 38 23
-0.874658 0.383796 0.242297 255 56 45
-0.873505 0.387348 0.242773 220 64 55
-0.872352 0.3909 0.243249 149 68 60
-0.871198 0.394453 0.243725 111 67 57
-0.870045 0.398005 0.244202 139 53 38
-0.868891 0.401558 0.244678 206 20 3
-0.867738 0.405111 0.245154 235 9 0
-0.866584 0.408664 0.245631 250 17 5
-0.865431 0.412218 0.246107 255 42 21
-0.866997 0.417303 0.246297 251 61 46
-0.446059 0.220417 0.293981 246 66 53
-0.444309 0.221304 0.294323 173 63 57
-0.44257 0.222184 0.294663 106 64 53
-0.441431 0.223467 0.294946 81 65 53
-0.439126 0.223929 0.295337 86 61 53
-0.436843 0.224387 0.295724 118 46 35
-0.431758 0.222837 0.29637 177 18 2
-0.430106 0.22369 0.296695 201 13 1
-0.429018 0.224935 0.296966 225 9 0
-0.428485 0.226577 0.297186 230 20 10
-0.427952 0.228219 0.297407 243 54 42
-0.427419 0.229861 0.297627 245 67 57
-0.426885 0.231503 0.297847 190 61 53
-0.426352 0.233146 0.298067 116 59 50
-0.425819 0.234788 0.298287 77 64 55
-0.556426 0.169599 0.270627 93 71 63
-0.55671 0.172055 0.270786 103 66 59
-0.55604 0.17412 0.271063 149 33 24
-0.554418 0.175782 0.271456 195 9 3
-0.553749 0.177843 0.271732 219 12 0
-0.55308 0.179904 0.272008 247 37 24
-0.893779 0.331936 0.231193 254 48 36
-0.892622 0.335498 0.231671 226 66 50
-0.891466 0.339061 0.232148 164 57 50
-0.893129 0.343906 0.23229 183 30 15
-0.894805 0.348785 0.232433 217 13 2
-0.89364 0.352373 0.232914 235 12 0
-0.889647 0.354633 0.233728 250 32 15
-0.888486 0.358209 0.234207 255 46 31
-0.884524 0.360441 0.235014 244 57 43
-0.883367 0.364005 0.235492 175 64 54
-0.88221 0.367569 0.23597 132 61 56
-0.878285 0.369761 0.236768 172 35 25
-0.877131 0.373313 0.237244 218 13 2
-0.875978 0.376865 0.23772 238 11 0
-0.874825 0.380418 0.238196 251 28 13
-0.873672 0.38397 0.238672 255 47 33
-0.872518 0.387523 0.239149 242 57 48
-0.871365 0.391075 0.239625 192 63 56
-0.870211 0.394628 0.240101 125 66 59
-0.869058 0.398181 0.240577 126 58 47
-0.867904 0.401734 0.241053 190 29 17
-0.869479 0.406783 0.241226 227 11 0
-0.868322 0.410349 0.241704 244 8 1
-0.869904 0.415446 0.241879 251 31 10
-0.453385 0.219444 0.290935 223 7 0
-0.452201 0.220761 0.29123 246 8 0
-0.449788 0.221247 0.291649 251 41 21
-0.445586 0.220505 0.292247 254 62 46
-0.443837 0.221391 0.292595 200 69 56
-0.442099 0.222272 0.29294 128 63 53
-0.440961 0.223554 0.293226 88 59 52
-0.438658 0.224016 0.293625 81 60 52
-0.436954 0.22488 0.293964 109 50 37
-0.432986 0.224122 0.294524 164 27 9
-0.431323 0.224974 0.294856 193 12 0
-0.42967 0.225821 0.295185 217 9 0
-0.429135 0.227469 0.295406 227 15 5
-0.4286 0.229116 0.295627 236 43 27
-0.428065 0.230764 0.295848 250 60 45
-0.42753 0.232412 0.296069 207 64 53
-0.426444 0.233645 0.296342 135 62 54
-0.42591 0.23529 0.296562 86 62 56
-0.557766 0.17048 0.268279 89 73 62
-0.558055 0.172948 0.268434 92 71 64
-0.557381 0.175022 0.268712 124 44 47
-0.553847 0.17588 0.269351 181 12 6
-0.553178 0.177941 0.269627 210 10 0
-0.552508 0.180003 0.269904 237 27 8
-0.892791 0.332106 0.227556 252 44 30
-0.897304 0.338193 0.227327 255 56 43
-0.896139 0.341781 0.227808 185 60 52
-0.897831 0.34667 0.227935 171 42 31
-0.899535 0.351593 0.228064 205 19 6
-0.898361 0.355207 0.228548 230 7 0
-0.894323 0.357474 0.229383 246 22 5
-0.893154 0.361075 0.229866 254 42 26
-0.889149 0.363313 0.230694 255 50 37
-0.887983 0.366902 0.231175 211 59 51
-0.88401 0.369112 0.231995 145 63 59
-0.882849 0.372689 0.232475 159 42 38
-0.881687 0.376266 0.232954 206 21 10
-0.880526 0.379844 0.233433 232 9 0
-0.876592 0.382002 0.234243 248 19 3
-0.875434 0.385567 0.234721 254 40 23
-0.874277 0.389132 0.235199 255 51 42
-0.873119 0.392697 0.235677 222 60 51
-0.869225 0.394804 0.236476 149 67 61
-0.868071 0.398357 0.236952 117 58 56
-0.453465 0.217802 0.288939 193 15 0
-0.452281 0.219122 0.289238 215 12 0
-0.45172 0.220849 0.289469 238 9 0
-0.45054 0.222162 0.289766 245 24 6
-0.448751 0.223055 0.290127 253 59 43
-0.446974 0.223942 0.290486 245 66 56
-0.444007 0.223996 0.290968 172 58 57
-0.44167 0.22446 0.291382 106 60 56
-0.439943 0.22533 0.291731 81 63 52
-0.438226 0.226193 0.292078 99 55 41
-0.43537 0.226233 0.292541 142 37 20
-0.43255 0.226271 0.292998 185 13 0
-0.430886 0.227118 0.293336 207 10 0
-0.429789 0.228366 0.293614 224 12 1
-0.429252 0.230019 0.293836 230 31 12
-0.428716 0.231673 0.294057 245 58 42
-0.428179 0.233326 0.294279 231 69 54
-0.427088 0.234562 0.294556 172 63 55
-0.426552 0.236213 0.294777 106 58 56
-0.426016 0.237863 0.294998 78 65 58
-0.558443 0.173447 0.26619 87 68 61
-0.557768 0.175525 0.266468 102 55 55
-0.555176 0.176787 0.266997 162 21 10
-0.553553 0.178448 0.267399 202 9 0
-0.551937 0.180101 0.267799 224 17 2
-0.552212 0.182579 0.267953 249 41 31
-0.927722 0.356644 0.219947 215 62 50
-0.917382 0.356214 0.22162 167 51 47
-0.916183 0.359906 0.222114 193 24 10
-0.92103 0.366418 0.221837 223 9 0
-0.922874 0.371576 0.221948 240 12 0
-0.453609 0.2183 0.287104 188 16 2
-0.452422 0.219622 0.287407 213 12 0
-0.451239 0.220938 0.287708 230 1 0
-0.45006 0.222251 0.288008 244 10 0
-0.4495 0.223976 0.288239 250 46 34
-0.44894 0.2257 0.28847 254 61 50
-0.447156 0.226582 0.288835 195 66 58
-0.443579 0.226202 0.289396 125 62 58
-0.440649 0.226242 0.289883 88 58 53
-0.437758 0.226281 0.290363 89 56 43
-0.436054 0.227139 0.290713 123 43 25
-0.434362 0.227992 0.291061 181 15 0
-0.432113 0.228428 0.291468 201 9 0
-0.430447 0.22927 0.29181 219 7 0
-0.429909 0.230928 0.292033 225 18 6
-0.42937 0.232587 0.292255 237 50 37
-0.428832 0.234246 0.292477 247 66 51
-0.428293 0.235904 0.292699 201 65 55
-0.427755 0.237563 0.292922 127 60 56
-0.427216 0.239222 0.293144 84 62 54
-0.559125 0.176439 0.264083 93 64 55
-0.556517 0.177702 0.264624 143 36 23
-0.554884 0.179368 0.265032 192 12 2
-0.55231 0.180612 0.265566 216 5 0
-0.552586 0.183096 0.265716 244 29 15
-0.928558 0.361965 0.216225 182 58 53
-0.924262 0.364289 0.217136 187 33 17
-0.926125 0.369459 0.217229 217 15 2
-0.924909 0.373206 0.217731 235 7 0
-0.453753 0.2188 0.285263 170 30 19
-0.453189 0.220537 0.285496 208 13 0
-0.452001 0.221856 0.285801 224 5 0
-0.450816 0.223172 0.286106 242 10 0
-0.449636 0.224483 0.286409 250 37 12
-0.449075 0.226211 0.286641 254 55 41
-0.4479 0.227515 0.286942 237 66 54
-0.446119 0.22839 0.287313 168 56 55
-0.44255 0.227996 0.287886 106 55 52
-0.438454 0.227194 0.288516 85 59 47
-0.436743 0.228052 0.288873 113 47 30
-0.435618 0.229319 0.289164 175 21 4
-0.433924 0.230166 0.289517 196 13 1
-0.432241 0.231007 0.289868 212 1 0
-0.431699 0.232677 0.290092 223 9 3
-0.431157 0.234346 0.290316 232 40 27
-0.430615 0.236016 0.290539 246 60 45
-0.430073 0.237686 0.290763 220 67 54
-0.429531 0.239355 0.290987 158 62 55
-0.428427 0.240594 0.291272 98 57 52
-0.427886 0.242261 0.291495 74 63 55
-0.561471 0.177773 0.261541 90 67 59
-0.557868 0.178625 0.262231 121 47 44
-0.55719 0.180712 0.262511 179 14 5
-0.554591 0.181959 0.263058 210 4 0
-0.559721 0.186606 0.26253 236 21 0
-0.930621 0.363565 0.211972 197 66 55
-0.926302 0.365892 0.212902 176 44 34
-0.925085 0.36964 0.213404 210 22 6
-0.923868 0.373387 0.213905 230 9 0
-0.925736 0.378609 0.213987 245 15 0
-0.924515 0.382371 0.214491 253 39 22
-0.923294 0.386133 0.214995 255 46 34
-0.922072 0.389895 0.215499 237 58 47
-0.917784 0.392127 0.216416 170 60 51
-0.913527 0.394343 0.217326 165 41 32
-0.912315 0.398078 0.217826 206 21 8
-0.911102 0.401813 0.218326 233 8 0
-0.906885 0.403986 0.219226 245 12 0
-0.905676 0.407708 0.219725 253 34 17
-0.904468 0.41143 0.220224 255 50 37
-0.903259 0.415152 0.220722 240 61 50
-0.905038 0.420491 0.220828 184 67 61
-0.903825 0.424227 0.221329 133 56 53
-0.462253 0.224792 0.282393 145 36 32
-0.453961 0.221458 0.283572 201 13 0
-0.452767 0.222781 0.283882 219 5 0
-0.450955 0.223679 0.284266 236 0 0
-0.449773 0.224992 0.284573 243 18 3
-0.449211 0.226723 0.284805 252 56 41
-0.448033 0.228028 0.28511 254 62 46
-0.44686 0.229329 0.285415 188 61 51
-0.445082 0.230199 0.28579 114 60 56
-0.439155 0.228112 0.286656 84 60 51
-0.437436 0.22897 0.28702 108 55 36
-0.436307 0.23024 0.287315 160 34 18
-0.434605 0.231087 0.287676 188 14 0
-0.432914 0.231928 0.288034 205 5 0
-0.431801 0.233183 0.288324 221 7 1
-0.431258 0.234856 0.288548 228 30 14
-0.431282 0.236954 0.288707 240 55 39
-0.430738 0.238629 0.288932 241 66 52
-0.430195 0.240304 0.289156 192 62 53
-0.429651 0.24198 0.289381 115 57 54
-0.429107 0.243655 0.289605 76 62 59
-0.560889 0.177873 0.259396 95 67 60
-0.561188 0.180393 0.259535 104 57 55
-0.560504 0.182497 0.259817 161 19 10
-0.559821 0.184602 0.260099 200 5 0
-0.561102 0.187577 0.260098 221 11 0
-0.932019 0.356224 0.207124 250 35 20
-0.930798 0.359985 0.207628 255 46 36
-0.929577 0.363746 0.208132 229 63 50
-0.928356 0.367507 0.208635 171 54 47
-0.927135 0.371268 0.209139 197 27 12
-0.925913 0.37503 0.209643 225 13 1
-0.924692 0.378792 0.210147 238 10 0
-0.92347 0.382554 0.21065 250 27 9
-0.922249 0.386316 0.211154 255 43 27
-0.921028 0.390078 0.211658 255 54 40
-0.919806 0.39384 0.212162 194 64 54
-0.915526 0.396059 0.213091 150 55 52
-0.911277 0.398261 0.214013 188 29 18
-0.910064 0.401996 0.214514 226 13 0
-0.908852 0.405732 0.215014 239 11 0
-0.904642 0.407891 0.215926 249 25 10
-0.903434 0.411614 0.216424 255 42 29
-0.902225 0.415336 0.216923 255 54 45
-0.904 0.420676 0.217015 213 62 56
-0.905787 0.426054 0.217109 140 63 57
-0.461758 0.224883 0.280579 128 45 37
-0.458577 0.224934 0.281148 196 16 0
-0.453539 0.223711 0.281949 215 6 0
-0.451718 0.22461 0.282341 228 0 0
-0.45053 0.225926 0.282652 239 13 4
-0.449346 0.227237 0.282962 246 39 30
-0.448167 0.228544 0.283271 253 57 43
-0.447604 0.230275 0.283503 214 69 54
-0.445819 0.231145 0.283886 147 62 53
-0.440453 0.229457 0.28471 96 57 52
-0.438133 0.229895 0.285155 95 55 50
-0.436417 0.230747 0.285525 137 37 29
-0.435289 0.232014 0.285822 183 13 0
-0.433591 0.232855 0.286187 200 8 0
-0.432473 0.234113 0.286482 218 1 0
-0.431929 0.235791 0.286706 224 17 8
-0.431384 0.237469 0.286931 234 51 38
-0.430839 0.239147 0.287156 248 66 51
-0.430862 0.24126 0.287313 209 66 54
-0.430316 0.242941 0.287538 134 62 57
-0.429771 0.244622 0.287763 87 62 57
-0.562272 0.178806 0.256956 93 64 58
-0.561587 0.180915 0.257238 97 65 56
-0.561888 0.183451 0.257374 146 28 27
-0.561202 0.185565 0.257657 192 11 3
-0.561503 0.188117 0.257793 212 3 0
-0.560815 0.190235 0.258077 242 22 6
-0.929754 0.360165 0.203787 254 45 34
-0.928533 0.363927 0.20429 255 65 51
-0.927312 0.367688 0.204794 205 72 58
-0.92609 0.37145 0.205298 204 44 27
-0.924869 0.375212 0.205802 224 20 4
-0.923647 0.378974 0.206305 233 10 0
-0.922426 0.382736 0.206809 247 19 0
-0.921204 0.386499 0.207313 254 39 21
-0.919983 0.390261 0.207817 255 50 36
-0.918761 0.394024 0.208321 218 66 54
-0.917539 0.397787 0.208825 156 66 58
-0.916317 0.40155 0.209328 176 37 27
-0.915096 0.405313 0.209832 218 17 4
-0.910833 0.40749 0.21077 235 9 0
-0.909615 0.41124 0.211272 246 15 2
-0.908398 0.41499 0.211774 254 34 20
-0.90718 0.41874 0.212276 255 48 38
-0.905962 0.42249 0.212779 228 60 48
-0.904745 0.42624 0.213281 162 66 56
-0.462498 0.223625 0.278439 116 53 44
-0.461263 0.224975 0.278765 120 49 34
-0.459381 0.225886 0.279175 187 23 10
-0.457511 0.226792 0.279582 214 11 0
-0.452486 0.225547 0.280402 224 1 0
-0.450669 0.22644 0.280799 238 1 0
-0.449482 0.227753 0.281113 247 30 7
-0.4483 0.229061 0.281426 253 54 37
-0.447737 0.230795 0.281658 254 64 52
-0.44656 0.232096 0.281969 187 56 52
-0.443566 0.232098 0.282513 110 55 50
-0.439426 0.231249 0.283202 88 57 45
-0.437111 0.231677 0.283654 124 39 27
-0.435979 0.232947 0.283955 180 13 2
-0.434272 0.233789 0.284328 195 11 3
-0.43315 0.235049 0.284627 212 3 0
-0.432031 0.236305 0.284924 222 12 4
-0.431485 0.237986 0.285149 232 38 28
-0.43151 0.2401 0.285303 246 58 45
-0.430963 0.241784 0.285529 226 66 53
-0.430416 0.243468 0.285754 167 64 54
-0.430439 0.245595 0.285909 105 58 52
-0.429891 0.247282 0.286135 83 61 52
-0.561687 0.178906 0.254801 89 64 58
-0.561988 0.181438 0.254932 86 66 56
-0.561302 0.183552 0.255215 143 37 40
-0.561603 0.1861 0.255346 188 16 5
-0.560915 0.188218 0.25563 205 4 0
-0.560228 0.190336 0.255913 223 13 2
-0.560527 0.192904 0.256046 247 41 34
-0.927489 0.364108 0.200449 254 89 70
-0.926268 0.36787 0.200952 255 97 84
-0.925046 0.371632 0.201456 241 68 55
-0.923824 0.375394 0.20196 232 26 11
-0.922603 0.379157 0.202463 232 12 0
-0.921381 0.382919 0.202967 240 9 0
-0.920159 0.386682 0.203471 251 26 10
-0.918938 0.390445 0.203975 255 44 30
-0.917716 0.394208 0.204479 255 61 48
-0.916494 0.397971 0.204982 211 68 60
-0.915272 0.401734 0.205486 195 46 44
-0.91405 0.405498 0.20599 214 22 13
-0.912828 0.409261 0.206494 231 8 0
-0.911606 0.413025 0.206998 241 7 0
-0.910384 0.416789 0.207502 250 24 12
-0.909162 0.420553 0.208006 255 42 30
-0.907939 0.424318 0.20851 248 55 44
-0.906717 0.428082 0.209014 200 61 54
-0.470754 0.229446 0.275416 128 53 49
-0.460768 0.225066 0.27695 108 53 46
-0.46019 0.226845 0.277188 161 32 27
-0.458311 0.22775 0.277604 207 13 0
-0.456445 0.22865 0.278017 222 2 0
-0.451433 0.227383 0.278855 233 1 0
-0.449619 0.22827 0.279257 239 18 5
-0.448434 0.22958 0.279574 246 44 38
-0.44787 0.231317 0.279806 253 60 50
-0.446078 0.232186 0.280203 194 64 53
-0.444297 0.23305 0.280598 116 63 53
-0.442528 0.233908 0.280989 85 60 46
-0.438398 0.23304 0.281693 117 46 29
-0.436089 0.233461 0.282153 179 18 7
-0.434958 0.234728 0.282457 196 10 2
-0.433255 0.235564 0.282835 208 4 0
-0.432707 0.23725 0.28306 221 5 0
-0.432159 0.238937 0.283286 229 28 9
-0.431612 0.240624 0.283512 241 52 36
-0.431064 0.24231 0.283738 245 65 52
-0.430516 0.243997 0.283964 200 62 53
-0.429968 0.245684 0.28419 120 56 51
-0.42999 0.247818 0.284342 79 63 50
-0.561102 0.179006 0.252647 92 73 63
-0.561402 0.181539 0.252772 94 61 49
-0.561703 0.184083 0.252899 160 35 24
-0.561015 0.186201 0.253182 189 15 3
-0.560328 0.188319 0.253466 197 7 0
-0.55964 0.190438 0.253749 206 6 0
-0.558952 0.192556 0.254033 230 35 23
-0.558264 0.194675 0.254317 251 66 58
-0.556597 0.196338 0.254753 255 96 78
-0.54635 0.193949 0.256528 255 70 53
-0.544744 0.195577 0.25695 247 27 10
-0.921558 0.379339 0.198621 232 15 0
-0.920336 0.383102 0.199125 233 4 0
-0.919114 0.386865 0.199628 245 17 0
-0.917892 0.390628 0.200132 253 44 26
-0.916671 0.394391 0.200636 255 72 54
-0.915448 0.398155 0.20114 255 90 75
-0.914226 0.401919 0.201643 234 66 59
-0.913004 0.405682 0.202147 228 28 18
-0.911782 0.409446 0.202651 231 11 0
-0.91056 0.413211 0.203155 235 6 0
-0.484373 0.222927 0.270395 198 19 5
-0.47872 0.221659 0.271377 225 9 0
-0.475999 0.222175 0.271931 234 6 0
-0.474004 0.223125 0.272379 244 15 2
-0.47341 0.224955 0.272624 252 38 27
-0.472816 0.226785 0.272869 255 56 43
-0.472222 0.228615 0.273114 216 62 49
-0.46956 0.229089 0.273654 145 61 55
-0.460927 0.22559 0.275041 104 55 51
-0.459694 0.226937 0.275373 136 39 32
-0.459117 0.228716 0.275611 203 10 0
-0.457242 0.229615 0.276032 218 8 0
-0.45474 0.23007 0.27654 227 1 0
-0.451005 0.229652 0.27722 237 5 1
-0.44919 0.230533 0.277628 243 32 24
-0.448004 0.231841 0.277948 252 52 41
-0.446208 0.23271 0.278352 229 62 50
-0.445033 0.234008 0.278669 164 57 47
-0.443256 0.234866 0.279068 111 55 40
-0.44149 0.235718 0.279465 115 50 32
-0.437959 0.235263 0.280103 166 24 16
-0.435066 0.235244 0.280652 196 10 0
-0.433937 0.236509 0.280958 204 6 0
-0.432237 0.237339 0.28134 216 2 0
-0.431689 0.239026 0.281566 223 16 2
-0.431141 0.240713 0.281792 234 45 32
-0.430594 0.2424 0.282018 248 63 50
-0.430046 0.244087 0.282244 208 64 53
-0.430068 0.246218 0.282393 130 59 54
-0.430662 0.248807 0.282467 82 61 52
-0.556328 0.174946 0.25101 87 67 60
-0.559535 0.178689 0.250652 96 64 58
-0.559831 0.181216 0.250774 120 55 42
-0.560129 0.183754 0.250896 179 33 14
-0.560427 0.186302 0.251018 195 13 1
-0.55974 0.188421 0.251302 191 9 0
-0.559052 0.190539 0.251585 195 9 0
-0.558364 0.192658 0.251869 207 9 0
-0.556696 0.194325 0.252311 238 23 5
-0.548329 0.192856 0.253831 248 34 30
-0.544841 0.193609 0.254562 250 35 26
-0.543241 0.195234 0.254987 243 19 4
-0.542571 0.197298 0.255264 228 16 0
-0.541901 0.199361 0.25554 224 8 0
-0.541231 0.201425 0.255816 226 12 0
-0.539642 0.203031 0.256238 243 35 21
-0.915625 0.394575 0.196792 254 69 58
-0.914403 0.398339 0.197296 255 100 79
-0.526932 0.203713 0.258755 255 75 59
-0.523685 0.204379 0.259432 251 31 17
-0.523036 0.206379 0.2597 236 13 0
-0.522387 0.208379 0.259968 229 8 0
-0.488631 0.219187 0.267287 251 64 46
-0.488019 0.221071 0.267539 197 68 59
-0.485193 0.2216 0.268126 130 53 45
-0.481674 0.221677 0.268814 192 21 7
-0.476789 0.22087 0.269706 222 11 1
-0.474787 0.221827 0.270162 230 6 0
-0.473495 0.223218 0.270512 239 6 1
-0.472901 0.225048 0.270757 251 27 15
-0.472306 0.226878 0.271002 255 46 33
-0.47102 0.228258 0.271349 243 59 49
-0.469739 0.229633 0.271695 186 60 55
-0.461746 0.226553 0.273029 118 55 49
-0.459852 0.227465 0.273461 123 47 31
-0.458621 0.228808 0.273796 198 16 0
-0.458043 0.230587 0.274034 217 12 0
-0.455528 0.231039 0.274554 222 2 0
-0.453675 0.231926 0.274977 234 6 0
-0.44995 0.231492 0.275669 239 24 4
-0.448759 0.232803 0.275993 250 50 34
-0.446338 0.233236 0.276494 251 62 49
-0.445161 0.234535 0.276815 193 56 47
-0.443988 0.235831 0.277134 118 54 44
-0.442214 0.236682 0.277539 98 53 38
-0.440452 0.237528 0.277941 142 34 20
-0.436929 0.237059 0.278592 189 11 0
-0.434623 0.237461 0.279068 200 8 0
-0.432915 0.23829 0.279458 212 3 0
-0.431791 0.239548 0.279766 222 13 2
-0.431243 0.241238 0.279992 230 38 25
-0.430694 0.242928 0.280218 244 57 43
-0.430145 0.244618 0.280444 221 66 52
-0.43074 0.247201 0.280512 156 64 55
-0.430763 0.249349 0.280659 100 57 53
-0.554505 0.172157 0.248923 91 67 58
-0.555749 0.175045 0.248877 99 63 60
-0.557003 0.177958 0.24883 126 61 50
-0.558267 0.180894 0.248783 175 43 32
-0.558561 0.183426 0.2489 202 28 12
-0.558856 0.185969 0.249018 197 13 1
-0.558169 0.188083 0.249301 186 9 1
-0.557482 0.190198 0.249584 185 10 1
-0.556796 0.192312 0.249867 191 3 0
-0.554165 0.193528 0.250474 203 6 0
-0.547751 0.192956 0.251706 217 13 0
-0.5452 0.19415 0.252295 224 10 0
-0.542668 0.195334 0.25288 224 11 0
-0.541998 0.197398 0.253156 217 14 0
-0.541328 0.199461 0.253432 213 12 0
-0.539738 0.201072 0.253859 209 12 0
-0.538155 0.202676 0.254284 224 10 0
-0.537487 0.204731 0.25456 243 38 26
-0.527899 0.202245 0.256289 250 43 36
-0.52464 0.20292 0.256982 251 36 27
-0.52313 0.204477 0.25739 246 21 7
-0.52248 0.206477 0.257658 231 13 0
-0.521831 0.208477 0.257925 224 10 0
-0.521181 0.210477 0.258193 224 9 0
-0.517987 0.2111 0.25887 237 17 2
-0.514829 0.211716 0.259539 250 49 31
-0.508447 0.210524 0.260722 254 86 77
-0.505403 0.211132 0.261368 255 90 83
-0.504773 0.213072 0.261628 255 65 56
-0.504143 0.215012 0.261887 250 34 27
-0.503513 0.216952 0.262147 237 11 0
-0.502091 0.218433 0.262532 229 6 0
-0.49755 0.218082 0.263408 237 6 0
-0.490077 0.215956 0.264743 249 26 8
-0.488718 0.217399 0.265113 255 53 44
-0.488107 0.219282 0.265365 255 85 61
-0.487495 0.221166 0.265617 251 94 68
-0.484672 0.221695 0.266214 200 64 48
-0.482605 0.222666 0.266691 221 34 26
-0.480553 0.223631 0.267165 228 13 4
-0.47568 0.222803 0.268074 227 7 0
-0.473682 0.223754 0.268537 235 4 0
-0.472391 0.225142 0.268889 246 16 3
-0.471797 0.226972 0.269134 253 39 27
-0.470512 0.228352 0.269485 255 58 46
-0.469231 0.229727 0.269834 229 67 54
-0.465918 0.229745 0.270493 170 64 55
-0.460667 0.228434 0.271443 135 45 39
-0.458777 0.229339 0.271881 183 27 19
-0.457547 0.230679 0.272218 216 11 0
-0.455678 0.231572 0.272651 222 1 0
-0.453821 0.232458 0.273081 229 2 0
-0.451977 0.233339 0.273508 236 13 1
-0.448894 0.233332 0.274119 246 38 29
-0.447086 0.234201 0.274538 253 58 46
-0.445289 0.235064 0.274954 202 65 52
-0.444114 0.236361 0.275277 127 62 52
-0.442942 0.237654 0.275599 91 58 48
-0.441172 0.238499 0.276009 120 44 34
-0.439414 0.239339 0.276416 188 8 1
-0.4359 0.238855 0.27708 199 8 3
-0.433598 0.239248 0.277563 210 0 0
-0.432469 0.240508 0.277875 222 1 0
-0.431919 0.242204 0.278102 229 26 10
-0.431368 0.2439 0.278329 240 51 34
-0.430818 0.245595 0.278555 235 66 53
-0.430841 0.24774 0.2787 189 65 58
-0.430864 0.249892 0.278845 114 54 54
-0.552696 0.16939 0.246852 89 65 56
-0.552024 0.171461 0.247129 98 60 56
-0.553253 0.174335 0.247076 146 51 42
-0.553532 0.176823 0.247188 193 45 33
-0.553813 0.179321 0.247301 216 32 12
-0.556027 0.182675 0.247081 212 22 2
-0.556315 0.185206 0.247195 196 13 0
-0.555632 0.187311 0.247477 182 12 4
-0.554948 0.189417 0.247758 181 6 4
-0.554264 0.191523 0.24804 185 4 1
-0.549744 0.191853 0.248978 190 8 0
-0.547174 0.193056 0.249581 195 12 0
-0.544624 0.19425 0.250178 200 8 0
-0.542095 0.195434 0.250771 203 13 0
-0.541425 0.197498 0.251047 202 11 0
-0.540755 0.199562 0.251324 199 11 0
-0.538251 0.20072 0.251909 196 9 0
-0.537584 0.202776 0.252184 204 6 0
-0.535103 0.203917 0.252765 217 8 0
-0.527339 0.202343 0.25423 229 9 0
-0.524083 0.203019 0.254936 232 9 0
-0.522574 0.204575 0.255347 227 13 0
-0.521924 0.206576 0.255615 220 14 0
-0.521275 0.208576 0.255883 215 12 0
-0.51808 0.20921 0.256573 210 12 0
-0.515756 0.210289 0.257117 217 9 0
-0.509349 0.209114 0.258335 233 19 17
-0.507098 0.210175 0.258863 246 45 50
-0.504864 0.211228 0.259387 252 53 51
-0.504234 0.213168 0.259647 252 38 23
-0.503604 0.215108 0.259907 244 24 12
-0.502181 0.216593 0.260296 231 12 0
-0.499195 0.217162 0.260939 223 8 0
-0.491667 0.215045 0.26232 224 6 0
-0.489552 0.216051 0.262817 233 14 5
-0.488194 0.217493 0.26319 250 37 33
-0.487582 0.219377 0.263442 255 82 75
-0.486971 0.221261 0.263694 255 99 80
-0.484884 0.222239 0.264184 255 69 45
-0.483542 0.223663 0.264552 253 43 36
-0.480756 0.224175 0.265152 236 16 4
-0.475872 0.223341 0.266084 226 8 0
-0.473171 0.223847 0.266665 229 4 0
-0.471881 0.225235 0.267021 236 9 0
-0.471287 0.227065 0.267266 249 28 19
-0.470003 0.228445 0.26762 255 60 45
-0.468723 0.22982 0.267973 251 85 68
-0.467448 0.23119 0.268324 231 79 68
-0.46215 0.229855 0.269307 210 53 49
-0.459588 0.230315 0.269857 219 30 33
-0.457701 0.231214 0.2703 222 9 0
-0.456474 0.232551 0.27064 221 2 0
-0.453967 0.232993 0.271178 224 0 0
-0.452754 0.234318 0.271514 233 8 1
-0.450914 0.235192 0.271946 242 29 15
-0.447218 0.234732 0.272663 252 53 38
-0.446033 0.236036 0.272992 243 60 51
-0.44424 0.236893 0.273413 186 58 53
-0.443067 0.238187 0.273739 121 57 51
-0.441897 0.239477 0.274064 121 45 35
-0.44013 0.240316 0.274479 188 15 5
-0.438375 0.241151 0.274891 200 8 3
-0.434869 0.240652 0.275567 206 0 0
-0.433152 0.241475 0.275971 220 0 0
-0.4326 0.243177 0.276199 223 16 3
-0.432047 0.244878 0.276426 234 44 29
-0.430919 0.246132 0.27674 245 63 52
-0.430942 0.248281 0.276882 207 61 56
-0.430966 0.250438 0.277024 121 54 53
-0.551847 0.16703 0.244628 90 59 57
-0.551175 0.169097 0.244905 107 58 54
-0.550504 0.171164 0.245181 172 46 50
-0.550777 0.173631 0.245289 224 49 36
-0.550104 0.175702 0.245566 233 36 19
-0.550376 0.178183 0.245676 228 23 1
-0.5516 0.181091 0.245616 214 21 0
-0.552835 0.184022 0.245556 196 16 0
-0.552155 0.186116 0.245836 188 10 0
-0.551475 0.188209 0.246116 188 9 0
-0.549842 0.189865 0.246564 191 12 1
-0.548216 0.191514 0.247011 196 19 4
-0.545657 0.192716 0.24762 201 20 5
-0.543118 0.193909 0.248224 200 19 1
-0.541522 0.195534 0.248662 194 17 0
-0.540852 0.197598 0.248939 192 8 0
-0.540181 0.199662 0.249215 189 10 0
-0.53768 0.20082 0.249809 187 6 0
-0.536104 0.202421 0.250242 189 9 0
-0.532738 0.203108 0.250984 196 8 0
-0.527653 0.202889 0.25202 202 10 0
-0.523526 0.203117 0.252889 206 7 0
-0.522018 0.204674 0.253304 207 11 0
-0.521368 0.206674 0.253572 206 15 0
-0.520719 0.208674 0.25384 203 11 0
-0.517527 0.209308 0.254542 198 7 0
-0.515205 0.210387 0.255094 199 5 0
-0.509618 0.209657 0.2562 211 5 0
-0.506556 0.210272 0.256875 225 8 0
-0.504324 0.211325 0.257406 234 11 0
-0.503694 0.213265 0.257666 235 12 0
-0.503064 0.215205 0.257925 227 12 0
-0.501642 0.21669 0.258318 219 10 0
-0.49866 0.217259 0.258973 214 8 0
-0.491895 0.215582 0.26026 209 8 0
-0.489775 0.216589 0.260765 212 8 1
-0.488414 0.218033 0.261143 231 14 10
-0.487058 0.219472 0.261519 246 35 39
-0.486446 0.221356 0.261771 252 62 50
-0.485097 0.222786 0.262146 253 41 20
-0.483021 0.223758 0.26264 248 30 15
-0.480959 0.224722 0.26313 232 16 2
-0.476064 0.22388 0.264086 222 10 0
-0.474058 0.224831 0.264564 222 4 0
-0.472065 0.225774 0.265039 225 5 0
-0.470777 0.227159 0.265398 235 15 11
-0.470183 0.22899 0.265643 249 50 48
-0.468901 0.230366 0.266 255 84 79
-0.466941 0.231284 0.266466 255 83 70
-0.464995 0.232195 0.266929 253 55 42
-0.460404 0.231299 0.267819 246 32 26
-0.457855 0.231751 0.268376 229 11 0
-0.455978 0.232643 0.268823 219 5 0
-0.454113 0.233529 0.269268 220 0 0
-0.452261 0.23441 0.26971 227 9 0
-0.451054 0.23573 0.270047 236 18 5
-0.447351 0.235264 0.270782 251 41 36
-0.446164 0.23657 0.271114 255 81 62
-0.444367 0.237427 0.271543 241 90 70
-0.443191 0.238722 0.271872 212 72 61
-0.441414 0.239567 0.272296 189 50 39
-0.440851 0.2413 0.272528 192 25 16
-0.439088 0.242134 0.272948 203 6 0
-0.436744 0.242515 0.273458 204 0 0
-0.434423 0.242893 0.273963 217 0 0
-0.433285 0.244156 0.274283 221 12 1
-0.43273 0.245863 0.274511 231 36 23
-0.431597 0.247119 0.274829 246 57 45
-0.431044 0.248824 0.275057 208 62 54
-0.43049 0.250528 0.275285 125 58 54
-0.430513 0.252693 0.275425 74 60 56
-0.551 0.164679 0.242413 91 61 52
-0.55033 0.166742 0.242689 110 60 48
-0.54966 0.168805 0.242965 198 49 46
-0.548054 0.170476 0.243413 253 59 45
-0.54832 0.172932 0.243517 255 46 31
-0.54765 0.174995 0.243793 248 32 5
-0.547916 0.177465 0.243898 233 23 1
-0.548183 0.179944 0.244003 216 24 0
-0.549396 0.182854 0.243937 205 23 1
-0.54872 0.184934 0.244216 204 17 0
-0.548991 0.187444 0.244322 214 20 2
-0.548314 0.189529 0.244601 227 28 7
-0.546694 0.191176 0.24505 234 34 13
-0.54508 0.192816 0.245498 233 35 16
-0.542544 0.194009 0.246111 223 30 8
-0.541872 0.196077 0.246387 203 26 4
-0.540278 0.197698 0.24683 192 24 7
-0.539608 0.199762 0.247106 187 19 4
-0.537109 0.20092 0.247708 185 14 4
-0.53463 0.202069 0.248306 185 13 2
-0.532171 0.203208 0.2489 189 13 0
-0.527091 0.202987 0.249957 194 12 0
-0.524696 0.204108 0.250535 195 11 1
-0.522319 0.205219 0.25111 195 7 0
-0.520812 0.206772 0.251529 192 4 0
-0.519312 0.208319 0.251946 188 8 0
-0.516974 0.209406 0.25251 184 10 0
-0.514654 0.210485 0.25307 185 11 0
-0.509073 0.209754 0.2542 192 9 0
-0.506014 0.210368 0.254885 199 7 0
-0.503784 0.211421 0.255425 204 8 0
-0.503154 0.213361 0.255684 207 9 0
-0.502524 0.215302 0.255944 206 8 0
-0.501103 0.216787 0.25634 203 8 0
-0.498124 0.217355 0.257006 201 8 0
-0.492124 0.216122 0.258192 196 10 0
-0.490751 0.217575 0.258576 194 9 0
-0.488635 0.218575 0.259088 208 6 0
-0.487276 0.220015 0.259468 223 9 0
-0.485922 0.221451 0.259848 233 12 0
-0.484573 0.222881 0.260226 236 12 0
-0.482499 0.223853 0.260727 228 11 0
-0.48044 0.224817 0.261224 220 11 0
-0.476258 0.224422 0.262081 215 10 0
-0.474247 0.225372 0.262567 212 5 0
-0.471555 0.225868 0.263167 210 6 0
-0.470268 0.227252 0.263529 215 7 5
-0.469673 0.229083 0.263774 232 22 24
-0.469079 0.230914 0.264019 247 41 37
-0.467114 0.231831 0.264493 252 46 32
-0.464489 0.232288 0.265077 251 34 17
-0.462558 0.233193 0.265543 242 23 8
-0.458664 0.232737 0.266335 226 13 0
-0.456128 0.233182 0.266899 216 5 0
-0.454903 0.234516 0.267245 214 1 0
-0.452404 0.234948 0.2678 218 8 0
-0.451194 0.23627 0.268142 225 10 1
-0.448732 0.23669 0.268689 239 38 31
-0.445677 0.236661 0.269331 251 78 62
-0.444494 0.237962 0.269666 255 104 80
-0.442707 0.238813 0.270099 250 90 69
-0.441535 0.240104 0.27043 236 57 47
-0.440368 0.241391 0.27076 220 34 30
-0.439205 0.242674 0.271089 212 7 0
-0.43745 0.243502 0.271514 205 2 0
-0.435706 0.244324 0.271935 214 0 0
-0.43456 0.245592 0.27226 220 2 0
-0.433418 0.246855 0.272583 227 28 16
-0.43228 0.248113 0.272905 242 55 40
-0.431145 0.249368 0.273226 217 67 54
-0.430591 0.251076 0.273455 146 64 52
-0.430036 0.252783 0.273683 93 59 50
-0.429482 0.254491 0.273912 81 62 57
-0.546432 0.16085 0.240913 91 62 53
-0.547621 0.163642 0.240835 108 68 55
-0.546955 0.165692 0.24111 219 52 48
-0.546289 0.167743 0.241384 254 61 47
-0.544699 0.169407 0.241832 255 49 40
-0.546814 0.172633 0.241583 255 35 11
-0.546145 0.174693 0.241859 255 33 9
-0.545476 0.176752 0.242134 244 29 7
-0.545737 0.179221 0.242236 233 28 6
-0.545999 0.181699 0.242337 231 28 4
-0.546262 0.184188 0.24244 245 29 6
-0.547467 0.187115 0.242367 254 40 15
-0.546791 0.189195 0.242646 255 51 26
-0.545178 0.19084 0.243098 255 46 20
-0.544503 0.192917 0.243376 255 39 15
-0.542897 0.19455 0.243826 236 35 15
-0.541298 0.196177 0.244274 209 28 15
-0.539705 0.197798 0.24472 202 44 38
-0.539034 0.199863 0.244996 195 40 30
-0.536537 0.20102 0.245607 195 27 16
-0.533162 0.201717 0.246378 201 23 11
-0.530713 0.202856 0.246978 209 25 7
-0.52653 0.203086 0.247893 214 27 5
-0.524136 0.204206 0.24848 210 25 5
-0.521761 0.205318 0.249062 200 17 2
-0.520256 0.206871 0.249485 191 12 0
-0.51791 0.207965 0.25006 185 13 1
-0.515582 0.209052 0.25063 183 10 1
-0.513272 0.21013 0.251196 183 6 0
-0.508529 0.209851 0.252199 184 4 0
-0.505473 0.210465 0.252896 187 6 0
-0.504041 0.211964 0.2533 189 8 0
-0.502615 0.213458 0.253702 190 7 0
-0.501984 0.215399 0.253962 189 6 1
-0.500564 0.216883 0.254362 187 9 0
-0.498367 0.217906 0.2549 186 10 0
-0.495414 0.218466 0.255572 184 10 0
-0.490977 0.218119 0.256504 184 8 0
-0.489606 0.219569 0.256892 193 6 0
-0.487494 0.220561 0.25741 199 9 0
-0.486138 0.221998 0.257794 201 7 0
-0.484786 0.22343 0.258176 206 4 0
-0.482707 0.224402 0.258685 204 5 0
-0.480643 0.225366 0.259191 205 5 0
-0.477163 0.225416 0.259943 204 7 0
-0.474436 0.225915 0.260562 199 7 0
-0.471738 0.226409 0.261174 195 6 0
-0.470448 0.227795 0.26154 199 2 0
-0.469163 0.229177 0.261905 214 3 0
-0.468569 0.231008 0.26215 227 6 0
-0.467289 0.232381 0.262513 234 8 1
-0.464658 0.232836 0.263108 232 11 1
-0.462723 0.23374 0.263583 225 10 0
-0.45882 0.23328 0.264393 216 8 0
-0.456279 0.233722 0.264968 211 4 0
-0.454407 0.234608 0.265428 207 6 0
-0.452548 0.235488 0.265884 206 7 0
-0.450702 0.236361 0.266337 210 4 0
-0.448868 0.237229 0.266787 222 17 10
-0.445806 0.237197 0.267444 238 38 28
-0.444622 0.2385 0.267782 248 53 49
-0.442831 0.23935 0.268222 253 53 44
-0.441051 0.240195 0.268659 248 37 20
-0.439885 0.241482 0.268992 232 21 8
-0.439322 0.243215 0.269224 213 9 0
-0.436969 0.243592 0.269754 204 0 0
-0.435817 0.244865 0.270083 207 1 0
-0.434669 0.246134 0.270412 211 5 3
-0.433524 0.247398 0.270739 222 31 21
-0.432384 0.248658 0.271064 240 51 40
-0.431247 0.249915 0.271389 239 62 51
-0.430114 0.251167 0.271713 195 62 55
-0.42956 0.252874 0.271941 117 51 55
-0.429005 0.254582 0.27217 75 59 61
-0.540151 0.156384 0.239794 82 63 58
-0.544028 0.160211 0.239182 103 57 58
-0.544283 0.162616 0.239276 222 53 49
-0.543621 0.164655 0.239549 254 71 55
-0.542959 0.166694 0.239822 255 49 39
-0.541385 0.16835 0.24027 255 42 15
-0.542549 0.171161 0.24019 255 49 48
-0.541885 0.173204 0.240464 255 46 74
-0.542137 0.175645 0.240561 255 43 25
-0.544236 0.17891 0.240304 255 40 15
-0.544494 0.181383 0.240402 255 42 20
-0.544753 0.183866 0.2405 255 51 32
-0.545014 0.186359 0.240599 255 47 25
-0.545275 0.188863 0.240698 255 47 23
-0.544601 0.19094 0.240975 255 45 16
-0.542994 0.192578 0.24143 254 41 13
-0.542321 0.19465 0.241707 234 33 6
-0.540723 0.196278 0.24216 212 29 11
-0.539131 0.197898 0.24261 203 41 40
-0.537545 0.199512 0.243059 204 48 46
-0.53506 0.200669 0.243677 218 40 32
-0.532594 0.201817 0.24429 237 44 33
-0.529261 0.202505 0.245064 245 47 31
-0.525968 0.203185 0.245829 244 41 20
-0.522714 0.203858 0.246585 233 34 15
-0.520349 0.204968 0.247173 212 26 7
-0.51885 0.206519 0.247599 197 20 2
-0.516514 0.207613 0.24818 194 22 5
-0.513364 0.20825 0.248911 198 20 4
-0.511895 0.209776 0.249329 201 12 2
-0.507984 0.209948 0.250198 198 12 6
-0.506539 0.211457 0.250609 199 18 8
-0.504298 0.21251 0.251167 202 23 8
-0.502869 0.214005 0.251574 197 19 5
-0.501444 0.215496 0.25198 189 12 2
-0.500814 0.217437 0.252239 183 11 1
-0.499396 0.218918 0.252643 180 12 0
-0.497204 0.219933 0.253187 179 9 0
-0.494257 0.220482 0.253868 178 8 0
-0.48983 0.220116 0.254817 180 5 1
-0.487713 0.221108 0.255343 183 4 0
-0.486354 0.222548 0.255732 185 7 0
-0.484261 0.223526 0.256252 189 6 0
-0.482184 0.224497 0.256768 189 6 0
-0.480122 0.225461 0.257281 190 5 0
-0.477359 0.225963 0.257919 190 9 0
-0.474626 0.226461 0.25855 188 6 0
-0.471922 0.226953 0.259174 185 5 0
-0.469938 0.227889 0.259668 189 2 0
-0.468653 0.229271 0.260036 198 2 0
-0.468058 0.231102 0.260281 205 5 0
-0.46678 0.232475 0.260647 209 5 0
-0.464827 0.233386 0.261133 209 5 0
-0.462218 0.233834 0.261733 207 5 0
-0.458977 0.233824 0.262444 205 4 0
-0.457082 0.234716 0.262915 202 8 0
-0.454555 0.23515 0.263497 199 8 0
-0.452692 0.23603 0.263961 192 10 1
-0.450842 0.236903 0.264421 195 4 0
-0.449004 0.237771 0.264879 206 5 0
-0.445937 0.237735 0.26555 217 9 4
-0.444135 0.238591 0.265999 227 13 13
-0.442345 0.239441 0.266444 232 14 10
-0.440567 0.240286 0.266887 230 12 2
-0.439401 0.241573 0.267223 221 9 0
-0.438839 0.243306 0.267455 208 8 0
-0.436488 0.243683 0.267995 200 4 0
-0.435336 0.244956 0.268327 200 1 0
-0.434189 0.246225 0.268658 203 10 5
-0.433631 0.247944 0.268888 225 39 30
-0.431906 0.248749 0.269317 244 53 42
-0.43077 0.250005 0.269644 246 58 50
-0.430214 0.251716 0.269873 206 59 55
-0.429659 0.253427 0.270102 120 53 55
-0.429103 0.255138 0.270331 77 66 58
-0.537565 0.153416 0.238 86 68 61
-0.536915 0.155419 0.238268 89 67 59
-0.538043 0.158134 0.238182 188 58 55
-0.538283 0.160508 0.238273 253 73 54
-0.537629 0.162522 0.238542 255 50 43
-0.536975 0.164537 0.238811 255 48 33
-0.54082 0.168446 0.23819 255 68 51
-0.538351 0.169711 0.238819 255 152 95
-0.537693 0.171738 0.23909 255 93 125
-0.537034 0.173766 0.239361 255 57 37
-0.539082 0.176987 0.2391 255 56 34
-0.542072 0.180657 0.238655 255 51 36
-0.54325 0.183546 0.238568 255 50 30
-0.543507 0.186034 0.238662 255 49 26
-0.543765 0.188532 0.238757 255 46 21
-0.543092 0.190605 0.239034 255 38 9
-0.542419 0.192678 0.239312 245 31 8
-0.54082 0.194309 0.239769 231 30 7
-0.540148 0.196378 0.240045 225 29 4
-0.538557 0.197998 0.2405 230 30 7
-0.536973 0.199613 0.240953 246 38 15
-0.534489 0.200769 0.241579 254 49 24
-0.531132 0.201466 0.242373 255 47 27
-0.526937 0.201709 0.243326 255 43 25
-0.523671 0.202391 0.244098 255 40 19
-0.521298 0.20351 0.244697 241 35 13
-0.519793 0.205067 0.245129 217 26 4
-0.517449 0.206169 0.245721 210 28 5
-0.515122 0.207262 0.246308 225 45 23
-0.512814 0.208347 0.246891 244 40 18
-0.511346 0.209874 0.247312 241 29 11
-0.508251 0.210493 0.248042 232 38 26
-0.506802 0.212004 0.248459 235 47 37
-0.506166 0.213964 0.248721 234 45 31
-0.503923 0.215009 0.249286 221 34 16
-0.502491 0.216503 0.249698 203 21 4
-0.501065 0.217992 0.250108 187 14 1
-0.499644 0.219475 0.250516 181 12 0
-0.498228 0.220952 0.250923 180 12 1
-0.495264 0.221498 0.251619 180 12 3
-0.493099 0.222498 0.252165 181 14 4
-0.488683 0.222114 0.253129 186 11 2
-0.486571 0.223099 0.253662 189 12 3
-0.484473 0.224077 0.254191 189 13 0
-0.483125 0.225506 0.254579 187 9 0
-0.480325 0.226012 0.255237 184 11 0
-0.477556 0.226513 0.255887 183 10 0
-0.475525 0.227463 0.256399 182 4 0
-0.472807 0.227951 0.257037 180 6 0
-0.470118 0.228434 0.257668 181 5 0
-0.468831 0.229817 0.25804 185 7 0
-0.467548 0.231196 0.258411 188 10 0
-0.46627 0.232569 0.258781 191 8 0
-0.464319 0.233479 0.259273 192 6 0
-0.462382 0.234383 0.259761 192 5 0
-0.459796 0.234825 0.260367 192 7 0
-0.457236 0.235262 0.260966 190 10 0
-0.45535 0.236147 0.261442 188 9 1
-0.452836 0.236573 0.262031 182 6 1
-0.450348 0.236995 0.262613 184 4 0
-0.448512 0.237863 0.263077 192 8 0
-0.445448 0.237826 0.26376 198 3 0
-0.443647 0.238682 0.264215 203 2 0
-0.441859 0.239532 0.264667 205 3 0
-0.440083 0.240377 0.265116 207 4 0
-0.438918 0.241664 0.265455 205 6 0
-0.437757 0.242946 0.265793 201 5 0
-0.436007 0.243774 0.266235 195 5 0
-0.434268 0.244596 0.266674 192 3 0
-0.43371 0.246315 0.266904 216 21 13
-0.432567 0.24758 0.267237 242 56 42
-0.431428 0.24884 0.267568 251 65 51
-0.430871 0.250554 0.267797 243 65 51
-0.430315 0.252267 0.268027 197 61 50
-0.429758 0.253981 0.268256 117 52 49
-0.429202 0.255695 0.268485 78 61 52
-0.536124 0.153163 0.236133 90 64 58
-0.535475 0.155162 0.2364 109 60 51
-0.535709 0.157516 0.236488 245 70 48
-0.535943 0.159879 0.236575 255 60 41
-0.535291 0.161886 0.236843 255 47 31
-0.53464 0.163893 0.237112 255 55 50
-0.534873 0.166273 0.2372 255 100 83
-0.533336 0.167908 0.237648 255 80 66
-0.532684 0.169915 0.237917 255 58 41
-0.532032 0.171923 0.238185 255 59 39
-0.53226 0.174319 0.238276 255 64 42
-0.537853 0.179124 0.237288 255 54 35
-0.542677 0.183645 0.236458 255 53 27
-0.543862 0.186558 0.236361 255 45 19
-0.542261 0.188202 0.236824 255 41 18
-0.541589 0.190271 0.237101 255 33 7
-0.540917 0.19234 0.237377 245 28 4
-0.540245 0.194409 0.237654 244 28 6
-0.539573 0.196478 0.237931 249 33 13
-0.537983 0.198099 0.23839 254 44 25
-0.5364 0.199713 0.238847 255 52 34
-0.533018 0.200419 0.23966 255 50 29
-0.530565 0.201566 0.240287 255 45 27
-0.526374 0.201808 0.241257 255 45 25
-0.52225 0.202046 0.242211 255 39 17
-0.519887 0.203164 0.242817 240 31 7
-0.517542 0.204273 0.243418 224 29 5
-0.515215 0.205374 0.244014 242 42 22
-0.512906 0.206467 0.244605 254 53 33
-0.511438 0.207997 0.245031 255 41 19
-0.509157 0.209074 0.245615 255 39 21
-0.507705 0.21059 0.246037 255 47 35
-0.506257 0.212101 0.246457 255 47 38
-0.505621 0.214061 0.246719 248 42 30
-0.50418 0.215563 0.247137 232 33 15
-0.502746 0.217059 0.247553 209 24 3
-0.501316 0.218549 0.247968 194 17 0
-0.499892 0.220034 0.248381 189 22 5
-0.498473 0.221513 0.248793 189 31 16
-0.497059 0.222987 0.249203 193 31 20
-0.492565 0.222595 0.250204 202 32 16
-0.488154 0.22221 0.251186 209 31 15
-0.485301 0.222739 0.251868 211 29 14
-0.483948 0.224172 0.252262 207 26 5
-0.4826 0.225601 0.252655 198 21 0
-0.479803 0.226107 0.253322 192 17 0
-0.477037 0.226607 0.253983 187 16 0
-0.475008 0.227557 0.254502 184 13 6
-0.472994 0.2285 0.255017 181 12 5
-0.470299 0.228982 0.25566 181 11 4
-0.46832 0.229911 0.256167 182 12 2
-0.467038 0.23129 0.256541 185 14 1
-0.465761 0.232663 0.256914 186 12 1
-0.463812 0.233573 0.257413 186 9 0
-0.461876 0.234477 0.257908 185 8 0
-0.459292 0.234918 0.258523 183 11 0
-0.456735 0.235354 0.259132 181 9 1
-0.4555 0.236695 0.259494 179 10 6
-0.453624 0.237574 0.259974 178 6 7
-0.450487 0.237539 0.260687 178 4 3
-0.44802 0.237955 0.261274 182 7 0
-0.444959 0.237918 0.26197 186 3 0
-0.44316 0.238773 0.262431 188 4 0
-0.440767 0.239177 0.263 189 6 0
-0.438997 0.240021 0.263454 190 7 0
-0.437836 0.241307 0.263795 191 8 1
-0.436085 0.24214 0.264244 189 7 2
-0.434346 0.242968 0.26469 190 7 3
-0.433203 0.244238 0.265026 211 14 11
-0.432645 0.245954 0.265256 242 56 41
-0.432088 0.247671 0.265485 253 74 59
-0.43095 0.248931 0.26582 252 72 55
-0.430393 0.250645 0.266049 225 70 52
-0.429836 0.252358 0.266278 164 65 54
-0.429858 0.254537 0.266403 101 55 54
-0.4293 0.256254 0.266633 77 61 56
-0.534688 0.152912 0.234273 88 61 54
-0.53404 0.154907 0.23454 168 54 49
-0.534271 0.157256 0.234623 255 73 46
-0.533621 0.159255 0.23489 255 63 38
-0.532972 0.161254 0.235158 255 50 29
-0.532323 0.163254 0.235425 255 59 42
-0.53255 0.165624 0.23551 255 69 44
-0.531024 0.167253 0.235959 255 73 50
-0.530375 0.169253 0.236227 255 66 43
-0.529725 0.171253 0.236494 255 64 40
-0.529076 0.173253 0.236761 255 59 40
-0.531048 0.176427 0.236488 255 48 30
-0.540092 0.189938 0.235175 255 35 10
-0.540342 0.19244 0.235262 255 33 5
-0.53967 0.194509 0.235539 255 36 12
-0.538998 0.196578 0.235815 255 45 28
-0.537409 0.198199 0.236279 255 56 39
-0.535827 0.199813 0.23674 255 53 36
-0.532448 0.200519 0.237566 255 50 28
-0.528226 0.20077 0.238561 255 45 20
-0.523205 0.200575 0.239715 255 38 13
-0.51998 0.201261 0.240504 252 32 12
-0.516792 0.201938 0.241284 242 37 14
-0.513641 0.202608 0.242055 251 39 18
-0.512171 0.204146 0.242486 255 54 29
-0.509888 0.205237 0.243079 255 42 20
-0.508434 0.206761 0.243506 255 35 16
-0.507796 0.208724 0.243768 255 43 25
-0.506349 0.210239 0.244193 255 45 25
-0.504907 0.211748 0.244615 255 41 19
-0.504271 0.213704 0.244877 252 36 13
-0.502836 0.215204 0.245297 235 30 5
-0.501406 0.216698 0.245716 212 24 0
-0.499982 0.218186 0.246134 202 26 4
-0.498563 0.219669 0.24655 203 47 26
-0.497932 0.221611 0.246809 209 67 52
-0.497302 0.223553 0.247069 220 56 48
-0.491267 0.22223 0.248393 236 51 35
-0.486131 0.221395 0.249537 239 48 31
-0.484035 0.22238 0.250081 237 41 25
-0.482687 0.223812 0.250478 229 32 12
-0.480615 0.224782 0.251015 218 22 0
-0.478559 0.225746 0.251549 206 21 0
