ply
format ascii 1.0
element vertex 1220
property float x
property float y
property float z
property uchar diffuse_red
property uchar diffuse_green
property uchar diffuse_blue
end_header
-0.364088 -0.00321479 0.322315 255 62 41
-0.364303 -0.0019874 0.322395 255 64 41
-0.363568 -0.000876662 0.322498 255 66 43
-0.362836 0.000229211 0.322601 255 64 40
-0.363364 0.00149875 0.322673 255 61 41
-0.363262 0.00268653 0.322761 255 65 43
-0.322073 -0.0474798 0.319601 186 21 4
-0.321987 -0.0464799 0.319675 205 27 7
-0.321902 -0.04548 0.319749 230 34 18
-0.321816 -0.04448 0.319822 250 44 32
-0.321958 -0.0434863 0.319887 255 65 49
-0.322328 -0.0424961 0.319943 255 91 88
-0.411092 -0.0391206 0.316864 255 85 69
-0.4114 -0.0377524 0.316949 255 77 59
-0.411709 -0.0363807 0.317034 255 76 58
-0.412019 -0.0350054 0.317119 255 75 55
-0.41233 -0.0336265 0.317205 255 74 53
-0.414805 -0.0322149 0.317212 255 75 52
-0.415998 -0.0308043 0.317267 255 74 53
-0.412405 -0.0294868 0.317494 255 72 53
-0.411857 -0.0281192 0.317611 255 68 50
-0.411311 -0.026755 0.317727 255 67 47
-0.411621 -0.0253652 0.317814 255 67 46
-0.411503 -0.0239881 0.317915 255 65 46
-0.411385 -0.022611 0.318016 255 65 47
-0.366184 -0.0125343 0.320415 255 60 38
-0.365441 -0.0113955 0.320523 255 58 38
-0.36502 -0.0102324 0.320621 255 59 39
-0.364918 -0.00904103 0.320709 255 58 36
-0.364498 -0.00788167 0.320806 255 61 40
-0.363762 -0.00675804 0.320913 255 59 42
-0.36303 -0.00563932 0.321019 255 60 40
-0.362928 -0.00445437 0.321106 255 61 41
-0.363141 -0.00323237 0.321185 255 62 41
-0.363039 -0.00204599 0.321272 255 63 42
-0.362623 -0.000899168 0.321368 255 62 42
-0.362208 0.000245169 0.321464 255 62 41
-0.362106 0.00142907 0.321552 255 60 41
-0.362318 0.00265647 0.32163 255 64 41
-0.36316 0.0039766 0.321692 255 67 44
-0.321722 -0.0464355 0.318707 184 23 4
-0.321636 -0.0454355 0.318781 206 26 7
-0.321551 -0.0444355 0.318855 230 33 13
-0.321692 -0.0434416 0.318919 253 46 29
-0.321834 -0.0424459 0.318982 255 68 51
-0.321976 -0.0414482 0.319047 255 103 97
-0.41189 -0.0376929 0.315587 255 82 66
-0.411345 -0.0363185 0.315706 255 74 58
-0.411227 -0.0349453 0.315807 255 74 56
-0.411109 -0.033572 0.315908 255 75 54
-0.410991 -0.0321987 0.316009 255 73 51
-0.411728 -0.0308102 0.316076 255 72 50
-0.410756 -0.0294519 0.316212 255 72 51
-0.410638 -0.0280784 0.316313 255 71 49
-0.41052 -0.0267048 0.316414 255 67 47
-0.411256 -0.0253019 0.316482 255 65 47
-0.411995 -0.0238917 0.31655 255 66 46
-0.365227 -0.0125321 0.319283 255 58 37
-0.364806 -0.0113676 0.319382 255 57 37
-0.364069 -0.010235 0.319492 255 58 37
-0.363967 -0.00904624 0.319579 255 58 36
-0.363549 -0.00788935 0.319678 255 59 39
-0.362817 -0.00676808 0.319787 255 57 39
-0.362402 -0.00561742 0.319884 255 58 39
-0.362614 -0.00439801 0.319961 255 59 39
-0.362512 -0.00321288 0.320048 255 58 40
-0.36241 -0.00202773 0.320136 255 57 40
-0.36137 -0.000960991 0.320253 255 62 40
-0.360958 0.000179747 0.320351 255 60 39
-0.36148 0.00144378 0.320418 255 61 39
-0.362004 0.00271345 0.320485 255 61 39
-0.362845 0.00403389 0.320543 255 64 41
-0.321598 -0.0453991 0.317803 187 16 3
-0.321512 -0.044398 0.317876 207 27 6
-0.321427 -0.0433969 0.31795 231 36 10
-0.321568 -0.042401 0.318013 254 46 28
-0.321482 -0.0413989 0.318087 255 71 50
-0.321396 -0.0403967 0.318161 255 116 106
-0.410981 -0.0362564 0.314378 255 78 60
-0.410863 -0.034883 0.314479 255 78 57
-0.410745 -0.0335097 0.31458 255 76 54
-0.410202 -0.0321421 0.3147 255 72 49
-0.410084 -0.0307704 0.314801 255 68 46
-0.410391 -0.0293892 0.314883 255 68 46
-0.410274 -0.0280155 0.314984 255 68 45
-0.410156 -0.0266418 0.315085 255 67 45
-0.41089 -0.0252386 0.31515 255 67 46
-0.411629 -0.0238282 0.315215 255 64 45
-0.364592 -0.012503 0.318142 255 57 37
-0.364173 -0.0113397 0.318242 255 57 38
-0.363754 -0.010179 0.318342 255 57 38
-0.363652 -0.00899011 0.31843 255 59 37
-0.36355 -0.00780115 0.318518 255 57 36
-0.362817 -0.00667874 0.318629 255 55 36
-0.362087 -0.00556121 0.31874 255 59 37
-0.362299 -0.00434164 0.318816 255 59 37
-0.361884 -0.00319343 0.318915 255 55 38
-0.361158 -0.00208589 0.319025 255 55 38
-0.361057 -0.00090448 0.319112 255 62 39
-0.360645 0.000236287 0.31921 255 60 39
-0.360854 0.00145849 0.319286 255 59 37
-0.362002 0.00281411 0.319328 255 59 38
-0.362529 0.00409118 0.319393 255 64 40
-0.321247 -0.0443534 0.316908 188 16 4
-0.321161 -0.0433522 0.316981 207 29 5
-0.321075 -0.0423509 0.317055 233 36 14
-0.321216 -0.0413539 0.317117 253 48 33
-0.32113 -0.0403517 0.317191 255 73 57
-0.321044 -0.0393493 0.317265 255 114 89
-0.410498 -0.0348208 0.31315 255 77 60
-0.409956 -0.0334515 0.313272 255 73 55
-0.409414 -0.0320856 0.313394 255 69 47
-0.408874 -0.0307232 0.313515 255 66 42
-0.408757 -0.0293548 0.313615 255 67 42
-0.408639 -0.0279863 0.313716 255 68 42
-0.409791 -0.0265788 0.313757 255 67 42
-0.410099 -0.0251902 0.313838 255 66 43
-0.411262 -0.0237646 0.313879 255 64 44
-0.364174 -0.0112555 0.317078 255 58 38
-0.363755 -0.0100934 0.317179 255 56 39
-0.36397 -0.00887222 0.317253 255 59 37
-0.363867 -0.00768052 0.317341 255 56 36
-0.363448 -0.00652232 0.317442 255 55 36
-0.3624 -0.00543596 0.317569 255 58 35
-0.362299 -0.00424938 0.317657 255 56 36
-0.362197 -0.00306275 0.317744 255 56 37
-0.361468 -0.00195296 0.317857 255 56 38
-0.360743 -0.000847981 0.31797 255 59 39
-0.360642 0.000333575 0.318057 255 59 39
-0.360852 0.00155732 0.318131 255 56 37
-0.362316 0.0029589 0.318156 255 59 39
-0.362845 0.00423924 0.318219 255 65 42
-0.363376 0.00552532 0.318281 255 70 45
-0.394664 0.0155394 0.317427 241 78 60
-0.320895 -0.0433074 0.316012 188 24 2
-0.321036 -0.0423113 0.316074 210 29 4
-0.32095 -0.041309 0.316147 236 37 16
-0.320864 -0.0403066 0.316221 252 49 32
-0.320778 -0.0393042 0.316295 255 69 49
-0.320466 -0.0383003 0.316381 255 85 68
-0.409709 -0.034761 0.311844 255 76 59
-0.409168 -0.0333934 0.311967 255 70 53
-0.408628 -0.0320293 0.31209 255 66 46
-0.40767 -0.0306763 0.312235 255 63 41
-0.406716 -0.02933 0.312379 255 64 41
-0.4066 -0.0279684 0.312479 255 65 41
-0.408159 -0.026555 0.312493 255 63 40
-0.409734 -0.025127 0.312507 255 64 41
-0.363756 -0.0100077 0.316014 255 56 38
-0.363653 -0.00881593 0.316101 255 56 37
-0.363551 -0.00762412 0.316189 255 57 37
-0.363449 -0.00643228 0.316277 255 57 37
-0.36303 -0.0052753 0.316379 255 56 35
-0.362928 -0.00408466 0.316467 255 54 35
-0.362511 -0.00293147 0.316568 255 57 38
-0.362094 -0.00178078 0.31667 255 57 39
-0.361053 -0.000712201 0.3168 255 55 39
-0.360951 0.000472072 0.316887 255 56 38
-0.361162 0.00169878 0.31696 255 54 37
-0.362315 0.00306019 0.316992 255 60 40
-0.362844 0.00434227 0.317052 255 66 46
-0.363059 0.00558299 0.317126 255 72 51
-0.392369 0.0152824 0.316225 255 77 56
-0.391102 0.0164066 0.316371 243 77 61
-0.32077 -0.0422664 0.315104 191 26 1
-0.320684 -0.041264 0.315177 212 30 6
-0.320598 -0.0402616 0.315251 238 37 15
-0.320286 -0.0392567 0.315338 252 48 30
-0.3202 -0.0382551 0.315412 255 64 48
-0.320114 -0.0372535 0.315485 255 77 62
-0.320028 -0.0362518 0.315559 255 79 64
-0.319942 -0.0352501 0.315633 255 75 57
-0.407542 -0.0333442 0.310713 255 70 51
-0.407425 -0.0319791 0.310814 255 65 46
-0.407308 -0.030614 0.310914 255 61 42
-0.406355 -0.0292678 0.311062 255 61 41
-0.406238 -0.027906 0.311162 255 62 39
-0.363654 -0.00872855 0.314933 255 53 36
-0.363235 -0.00756772 0.315037 255 58 37
-0.363133 -0.00637578 0.315124 255 57 38
-0.36303 -0.00518377 0.315212 255 58 38
-0.362928 -0.00399172 0.3153 255 55 36
-0.36251 -0.00283723 0.315403 255 55 38
-0.362093 -0.00168525 0.315506 255 58 40
-0.361677 -0.000535795 0.315609 255 55 39
-0.360949 0.000569968 0.315727 255 55 39
-0.361786 0.00188359 0.315769 255 55 39
-0.36263 0.00320603 0.315811 255 62 41
-0.362844 0.00444554 0.315883 255 67 52
-0.363058 0.00568786 0.315956 255 97 72
-0.391249 0.0152189 0.314985 255 76 51
-0.390371 0.0164056 0.315117 255 78 59
-0.389117 0.0175204 0.315266 246 77 64
-0.320418 -0.0412191 0.314207 193 25 3
-0.320332 -0.0402165 0.314281 218 30 5
-0.32002 -0.0392116 0.314369 240 37 16
-0.319934 -0.03821 0.314442 252 48 32
-0.319848 -0.0372082 0.314516 255 64 49
-0.319537 -0.036207 0.314604 255 73 58
-0.319451 -0.0352061 0.314677 255 75 57
-0.319365 -0.0342052 0.314751 255 70 50
-0.405812 -0.0319353 0.309569 255 65 45
-0.363133 -0.00628546 0.313954 255 57 39
-0.36303 -0.00509203 0.314042 255 57 39
-0.362928 -0.00389854 0.31413 255 58 35
-0.362509 -0.00274278 0.314235 255 56 37
-0.362092 -0.00158953 0.314339 255 58 40
-0.361675 -0.000438788 0.314443 255 56 39
-0.361573 0.000750932 0.314531 255 58 40
-0.362415 0.00206965 0.314569 255 57 39
-0.362629 0.00330795 0.31464 255 61 42
-0.362844 0.00454906 0.314712 255 68 58
-0.363058 0.00579297 0.314783 255 123 91
-0.363273 0.00703971 0.314855 255 132 95
-0.388882 0.0162752 0.313904 255 78 54
-0.387638 0.0173865 0.314057 255 76 60
-0.387151 0.0186237 0.314172 247 76 62
-0.320066 -0.0401715 0.313311 196 25 5
-0.31998 -0.0391688 0.313384 220 31 8
-0.319668 -0.0381648 0.313473 242 39 19
-0.319582 -0.037163 0.313547 253 53 36
-0.319496 -0.0361611 0.31362 255 66 50
-0.319185 -0.0351607 0.313709 255 72 55
-0.319099 -0.0341597 0.313782 255 69 51
-0.319464 -0.0331519 0.313827 255 66 45
-0.365116 -0.0180785 0.311845 255 56 36
-0.364055 -0.0169464 0.311991 255 57 35
-0.363953 -0.015752 0.312079 255 55 36
-0.36385 -0.0145576 0.312167 255 53 34
-0.361854 -0.0135181 0.312369 255 54 35
-0.361126 -0.0123852 0.312494 255 50 35
-0.363133 -0.00619493 0.312782 255 58 38
-0.362713 -0.00503533 0.312888 255 58 37
-0.362611 -0.00384173 0.312976 255 57 37
-0.362508 -0.0026481 0.313064 255 58 37
-0.362406 -0.00145441 0.313151 255 58 37
-0.361988 -0.000301162 0.313257 255 57 38
-0.362201 0.000933125 0.313327 255 59 39
-0.362415 0.00217021 0.313397 255 58 38
-0.362629 0.00341009 0.313467 255 60 43
-0.362843 0.00465281 0.313537 255 66 54
-0.363058 0.00589834 0.313607 255 85 75
-0.362955 0.0070977 0.313696 255 96 91
-0.387029 0.0160815 0.312721 255 81 58
-0.385427 0.0171232 0.312897 255 75 53
-0.385315 0.0184199 0.312992 255 75 54
-0.385575 0.0197848 0.313068 252 76 57
-0.319714 -0.0391237 0.312414 200 26 5
-0.319402 -0.0381196 0.312503 222 33 9
-0.319316 -0.0371177 0.312577 243 43 24
-0.31923 -0.0361157 0.312651 253 55 39
-0.319144 -0.0351137 0.312724 255 65 48
-0.319284 -0.0341092 0.312782 255 68 49
-0.319423 -0.0331028 0.312841 255 68 46
-0.319789 -0.0320901 0.312883 255 67 44
-0.323149 -0.0310035 0.312722 255 63 41
-0.363841 -0.0180852 0.310748 255 53 35
-0.363421 -0.0169128 0.310856 255 52 36
-0.363318 -0.0157196 0.310944 255 52 35
-0.363216 -0.0145263 0.311032 255 54 34
-0.360602 -0.0135393 0.311281 255 55 33
-0.359879 -0.0124101 0.311408 255 53 31
-0.36071 -0.0111454 0.311435 255 56 37
-0.363133 -0.00610419 0.311606 255 56 39
-0.362713 -0.00494329 0.311714 255 56 35
-0.36261 -0.00374828 0.311802 255 53 35
-0.362192 -0.00259119 0.311909 255 53 35
-0.362089 -0.0013974 0.311997 255 53 37
-0.361987 -0.000203543 0.312085 255 55 40
-0.361884 0.000990347 0.312172 255 56 39
-0.362097 0.00222761 0.312241 255 60 40
-0.362628 0.00351249 0.312291 255 59 41
-0.362525 0.00471054 0.312379 255 63 44
-0.36274 0.00595622 0.312448 255 70 57
-0.362637 0.00715572 0.312536 255 92 77
-0.385194 0.0158898 0.311548 255 101 78
-0.383975 0.0169921 0.311708 255 83 60
-0.383864 0.0182841 0.311803 255 76 51
-0.384121 0.019644 0.311876 255 75 50
-0.384748 0.021077 0.311929 255 74 54
-0.319362 -0.0380756 0.311517 201 29 4
-0.319276 -0.0370727 0.31159 225 33 10
-0.318964 -0.0360704 0.311681 246 43 24
-0.319103 -0.0350667 0.311738 254 55 36
-0.319243 -0.0340612 0.311795 255 62 41
-0.319609 -0.0330502 0.311836 255 63 44
-0.320203 -0.032031 0.31186 255 62 43
-0.321951 -0.0309788 0.311801 255 61 40
-0.323959 -0.029904 0.311725 255 61 39
-0.323871 -0.0288787 0.3118 255 59 38
-0.324254 -0.0278363 0.311842 255 57 36
-0.36448 -0.0179669 0.309526 255 52 31
-0.363104 -0.0168571 0.309702 255 52 35
-0.363002 -0.0156638 0.30979 255 54 34
-0.362899 -0.0144705 0.309877 255 53 32
-0.359667 -0.0135349 0.31018 255 58 35
-0.359257 -0.0123814 0.310287 255 59 36
-0.359465 -0.0111742 0.310353 255 58 39
-0.36303 -0.00481549 0.310516 255 55 37
-0.36261 -0.00365458 0.310625 255 55 37
-0.36219 -0.00249621 0.310734 255 57 37
-0.361772 -0.00134037 0.310842 255 55 35
-0.361985 -0.000105698 0.310909 255 57 38
-0.362199 0.00113176 0.310977 255 56 41
-0.362413 0.00237203 0.311044 255 56 39
-0.36231 0.00357011 0.311132 255 54 39
-0.362207 0.00476827 0.31122 255 61 44
-0.362104 0.00596647 0.311308 255 68 63
-0.362318 0.00721372 0.311376 255 127 103
-0.383743 0.015763 0.310364 255 126 101
-0.383265 0.0169905 0.310481 255 107 84
-0.383521 0.0183473 0.310553 255 85 63
-0.38341 0.0196395 0.310648 255 77 51
-0.383667 0.0210013 0.310721 255 75 50
-0.384663 0.0225091 0.310748 255 74 54
-0.319235 -0.0370276 0.310602 207 27 3
-0.319374 -0.0360229 0.310658 232 33 8
-0.319288 -0.035018 0.310732 249 42 21
-0.319654 -0.0340078 0.310771 254 53 34
-0.320022 -0.0329938 0.31081 255 60 41
-0.320848 -0.031967 0.310814 255 60 41
-0.321681 -0.0309323 0.310818 255 59 38
-0.32252 -0.0298898 0.310822 255 59 37
-0.323365 -0.0288392 0.310826 255 61 38
-0.323511 -0.0278062 0.310883 255 58 36
-0.324364 -0.0267425 0.310888 255 57 35
-0.324749 -0.0256919 0.310928 255 56 36
-0.323952 -0.0246951 0.311056 255 57 35
-0.323159 -0.023704 0.311185 255 58 34
-0.362787 -0.0168014 0.308548 255 53 33
-0.362582 -0.0144146 0.308723 255 54 34
-0.359664 -0.013454 0.309015 255 58 37
-0.358944 -0.0123259 0.309147 255 56 39
-0.359461 -0.0110904 0.309189 255 56 38
-0.363667 -0.00465126 0.30929 255 55 40
-0.362609 -0.00356068 0.309445 255 51 38
-0.362189 -0.00240103 0.309556 255 50 38
-0.36177 -0.0012439 0.309666 255 55 38
-0.361668 -4.85114e-05 0.309753 255 52 38
-0.361881 0.00118912 0.309819 255 53 41
-0.362095 0.00242956 0.309885 255 57 39
-0.361992 0.00362776 0.309973 255 53 37
-0.361889 0.00482601 0.310061 255 54 42
-0.362103 0.00607205 0.310128 255 62 52
-0.362 0.00727175 0.310216 255 86 72
-0.383033 0.0157628 0.309139 255 109 93
-0.382923 0.0170535 0.309233 255 123 106
-0.382812 0.0183442 0.309328 255 115 95
-0.383067 0.0197028 0.309399 255 91 68
-0.383323 0.0210647 0.30947 255 75 53
-0.383948 0.0225013 0.309517 255 75 51
-0.384206 0.0238717 0.309588 255 75 53
-0.31956 -0.035976 0.309648 211 27 5
-0.319927 -0.0349657 0.309685 233 33 10
-0.320296 -0.0339516 0.309722 250 44 23
-0.320666 -0.0329336 0.309759 255 56 37
-0.321268 -0.0319071 0.309778 255 61 41
-0.321873 -0.0308747 0.309796 255 58 40
-0.322481 -0.0298365 0.309815 255 58 40
-0.323093 -0.0287922 0.309834 255 58 38
-0.323708 -0.0277419 0.309853 255 57 36
-0.324327 -0.0266855 0.309872 255 56 35
-0.324238 -0.0256549 0.309948 255 56 35
-0.322975 -0.0246822 0.310117 255 55 34
-0.321491 -0.023731 0.310302 255 51 34
-0.321404 -0.0227111 0.310377 255 54 34
-0.362266 -0.0143587 0.307568 255 57 36
-0.35935 -0.0133985 0.307872 255 60 39
-0.359248 -0.0122167 0.307959 255 56 36
-0.359147 -0.0110348 0.308045 255 57 40
-0.363348 -0.00459413 0.308127 255 48 35
-0.362608 -0.00346656 0.308263 255 46 33
-0.361871 -0.00234395 0.308398 254 50 37
-0.361453 -0.00118678 0.308509 252 53 40
-0.36135 8.71762e-06 0.308597 252 56 39
-0.361563 0.00124651 0.308662 255 55 40
-0.361776 0.00248711 0.308726 255 60 44
-0.361673 0.00368541 0.308814 255 56 38
-0.361887 0.00493023 0.30888 255 54 40
-0.382801 0.0145349 0.307796 255 97 87
-0.382691 0.0158257 0.30789 255 106 87
-0.38258 0.0171165 0.307985 255 105 88
-0.382469 0.0184073 0.30808 255 113 108
-0.382724 0.0197661 0.308149 255 120 101
-0.38298 0.0211282 0.308219 255 97 74
-0.383604 0.0225651 0.308263 255 79 59
-0.383492 0.0238624 0.308358 255 78 54
-0.38375 0.0252346 0.308428 255 75 52
-0.320343 -0.0349148 0.308649 213 26 8
-0.320484 -0.0339003 0.308704 235 33 13
-0.320855 -0.0328801 0.308739 251 46 29
-0.321228 -0.0318561 0.308775 255 55 40
-0.321833 -0.0308225 0.308791 255 60 41
-0.32221 -0.0297897 0.308826 255 59 41
-0.322821 -0.0287452 0.308842 255 57 40
-0.323201 -0.0277033 0.308878 255 56 38
-0.323817 -0.0266477 0.308895 255 56 37
-0.323494 -0.0256287 0.30899 255 53 36
-0.322702 -0.0246348 0.309124 255 56 35
-0.321221 -0.0236838 0.309315 255 55 33
-0.320902 -0.0226772 0.309409 255 53 29
-0.361949 -0.0143028 0.306413 255 59 39
-0.359036 -0.0133431 0.306728 255 57 39
-0.358935 -0.0121611 0.306815 255 58 38
-0.358833 -0.0109791 0.306902 255 59 40
-0.363132 -0.0057391 0.306876 255 54 38
-0.362392 -0.00460891 0.307014 253 52 37
-0.361973 -0.00344663 0.307128 252 51 32
-0.361554 -0.00228688 0.30724 251 52 33
-0.361136 -0.00112967 0.307353 249 51 34
-0.361033 6.59349e-05 0.307441 251 49 35
-0.361245 0.0013039 0.307504 255 53 40
-0.361143 0.00250093 0.307592 255 57 44
-0.361355 0.00374309 0.307655 255 55 41
-0.361568 0.00498807 0.307719 255 51 33
-0.382459 0.0145977 0.306547 255 70 61
-0.382348 0.0158885 0.306642 255 87 82
-0.382603 0.0172443 0.30671 255 103 88
-0.382492 0.0185368 0.306805 255 98 87
-0.382381 0.0198294 0.306899 255 109 101
-0.382636 0.0211917 0.306967 255 122 101
-0.382892 0.0225573 0.307035 255 103 80
-0.383148 0.0239263 0.307103 255 81 61
-0.383037 0.0252238 0.307199 255 76 52
-0.383662 0.0266743 0.30724 255 76 51
-0.320673 -0.0338487 0.307682 215 30 3
-0.321045 -0.0328265 0.307716 238 37 10
-0.321188 -0.031805 0.30777 253 48 25
-0.321794 -0.0307702 0.307783 255 56 36
-0.322171 -0.0297362 0.307817 255 55 38
-0.322782 -0.0286904 0.30783 255 53 37
-0.322928 -0.0276561 0.307885 255 56 38
-0.323074 -0.0266196 0.307939 255 56 37
-0.323221 -0.0255812 0.307994 255 56 36
-0.322898 -0.0245641 0.30809 255 54 34
-0.322342 -0.0235614 0.308206 255 56 34
-0.320632 -0.0226298 0.308422 255 54 33
-0.361632 -0.0142469 0.305258 255 58 41
-0.358722 -0.0132876 0.305584 255 60 40
-0.358312 -0.0121326 0.305697 255 59 38
-0.358519 -0.0109235 0.305758 255 56 41
-0.359346 -0.00965193 0.305766 255 54 39
-0.36186 -0.00578596 0.305792 251 52 34
-0.361757 -0.00458779 0.30588 251 49 29
-0.361339 -0.00342671 0.305994 248 50 29
-0.360606 -0.00230649 0.306134 249 48 26
-0.360504 -0.00111217 0.306222 247 47 26
-0.360715 0.000123158 0.306284 249 49 29
-0.360927 0.0013613 0.306346 254 53 37
-0.360825 0.00255844 0.306434 255 54 42
-0.361037 0.00380076 0.306496 255 52 41
-0.36125 0.00504591 0.306558 255 50 31
-0.382481 0.0147222 0.30527 255 56 43
-0.38237 0.0160148 0.305365 255 65 52
-0.382259 0.0173074 0.30546 255 88 73
-0.382514 0.0186666 0.305526 255 102 91
-0.382403 0.0199609 0.305621 255 100 90
-0.382659 0.0213251 0.305687 255 106 90
-0.382547 0.022621 0.305782 255 114 94
-0.382436 0.023917 0.305877 255 108 88
-0.382325 0.025213 0.305972 255 88 67
-0.382948 0.0266619 0.306011 255 77 52
-0.383575 0.0281179 0.30605 255 75 51
-0.321006 -0.0327764 0.30671 219 29 9
-0.321611 -0.0317444 0.30672 241 37 13
-0.321987 -0.0307121 0.306751 255 48 25
-0.322365 -0.0296759 0.306783 255 56 37
-0.32251 -0.0286434 0.306837 255 57 38
-0.322889 -0.0276001 0.306869 255 57 37
-0.322801 -0.0265723 0.306944 255 58 35
-0.323182 -0.025523 0.306977 255 55 36
-0.323094 -0.0244931 0.307052 255 55 34
-0.323005 -0.0234632 0.307128 255 56 30
-0.322214 -0.0224743 0.307267 255 58 34
-0.359027 -0.0131803 0.304385 255 56 38
-0.357999 -0.0120771 0.304555 255 57 39
-0.358823 -0.0108107 0.304559 255 54 39
-0.359031 -0.00959595 0.304619 255 55 38
-0.358929 -0.00840975 0.304706 253 56 41
-0.361014 -0.00699364 0.304601 251 49 32
-0.35997 -0.00590101 0.304771 247 48 26
-0.359868 -0.0047094 0.304858 246 46 22
-0.360078 -0.00348085 0.304918 246 47 21
-0.359976 -0.00228779 0.305006 248 48 30
-0.360187 -0.0010551 0.305066 246 49 34
-0.360084 0.00013938 0.305154 247 53 35
-0.360609 0.00141872 0.305188 248 54 37
-0.360507 0.00261595 0.305276 251 56 43
-0.360719 0.00385845 0.305337 252 52 41
-0.360931 0.00510378 0.305398 252 49 32
-0.382138 0.0147851 0.30402 255 50 38
-0.382027 0.0160777 0.304114 255 54 40
-0.381916 0.0173705 0.304209 255 63 48
-0.382171 0.0187299 0.304274 255 75 64
-0.382059 0.0200243 0.304369 255 93 84
-0.382314 0.0213887 0.304434 255 106 88
-0.382203 0.0226847 0.304529 255 104 85
-0.382092 0.0239808 0.304624 255 107 95
-0.382347 0.0253518 0.304689 255 114 92
-0.382603 0.0267261 0.304755 255 95 68
-0.383229 0.0281823 0.30479 255 75 50
-0.384229 0.0297263 0.304796 255 75 49
-0.321803 -0.0316882 0.305686 220 31 5
-0.32218 -0.0306537 0.305716 242 39 15
-0.322325 -0.0296221 0.305768 255 49 31
-0.322705 -0.0285807 0.305798 255 54 39
-0.323086 -0.0275352 0.305829 255 54 37
-0.322997 -0.0265053 0.305904 255 54 34
-0.323144 -0.0254646 0.305957 255 57 37
-0.32329 -0.0244218 0.30601 255 55 35
-0.324385 -0.0233254 0.305973 255 55 35
-0.325731 -0.0222042 0.305913 255 58 37
-0.358818 -0.0107262 0.303384 255 57 38
-0.358716 -0.00953997 0.303471 254 53 36
-0.358614 -0.00835367 0.303558 252 51 38
-0.358512 -0.0071673 0.303645 247 46 25
-0.35841 -0.00598089 0.303732 245 46 22
-0.359551 -0.00465276 0.303705 245 44 24
-0.359449 -0.00346098 0.303792 246 49 30
-0.359347 -0.00226915 0.30388 246 48 35
-0.359557 -0.00103768 0.303939 243 51 35
-0.359767 0.000196569 0.303998 240 51 37
-0.360291 0.00147613 0.304029 241 52 35
-0.360503 0.00271741 0.304089 242 54 42
-0.360715 0.00396152 0.304149 245 50 38
-0.360928 0.00520845 0.304208 244 47 30
-0.365645 0.0071455 0.303867 243 45 24
-0.381177 0.0134347 0.302739 246 42 31
-0.381795 0.014848 0.302769 250 45 34
-0.381684 0.0161408 0.302864 254 50 38
-0.381938 0.0174988 0.302927 255 52 39
-0.38256 0.0189272 0.302958 255 57 44
-0.382081 0.0201562 0.303085 255 68 57
-0.38197 0.0214523 0.30318 255 91 77
-0.381859 0.0227484 0.303275 255 103 87
-0.381748 0.0240446 0.30337 255 101 87
-0.382002 0.0254158 0.303434 255 106 91
-0.382258 0.0267903 0.303498 255 113 91
-0.382883 0.0282468 0.303531 255 101 76
-0.382771 0.0295495 0.303626 255 81 60
-0.383769 0.0310987 0.303628 255 74 51
-0.322374 -0.0305951 0.304676 221 30 6
-0.32252 -0.0295614 0.304728 243 40 17
-0.3229 -0.0285177 0.304756 255 50 33
-0.323518 -0.0274611 0.30476 255 54 38
-0.323666 -0.0264183 0.304812 255 56 37
-0.324288 -0.0253514 0.304817 255 55 38
-0.324675 -0.0242904 0.304846 255 54 37
-0.326025 -0.0231726 0.304778 255 57 40
-0.325935 -0.0221274 0.304855 255 57 39
-0.329267 -0.020866 0.304593 255 58 39
-0.358299 -0.00829757 0.302409 248 48 25
-0.357888 -0.00714377 0.302526 243 46 20
-0.357786 -0.00595856 0.302613 244 47 25
-0.358613 -0.00466721 0.302611 244 47 28
-0.359132 -0.0034042 0.302639 243 46 29
-0.35903 -0.00221228 0.302726 239 43 29
-0.35924 -0.000980654 0.302784 233 44 27
-0.359762 0.000294918 0.302813 229 45 29
-0.359973 0.00153356 0.302871 228 50 33
-0.3605 0.0028191 0.302899 230 50 34
-0.360712 0.00406483 0.302958 232 48 32
-0.365426 0.00598244 0.302595 232 46 26
-0.368289 0.00765863 0.302408 233 42 19
-0.380834 0.0134973 0.301491 235 39 26
-0.380724 0.014787 0.301586 240 41 27
-0.38134 0.0162038 0.301613 246 45 30
-0.382326 0.017693 0.301608 252 49 36
-0.382215 0.0189906 0.301703 255 50 39
-0.382471 0.0203572 0.301765 255 54 43
-0.382359 0.0216566 0.30186 255 65 54
-0.381881 0.022884 0.301988 255 80 69
-0.381769 0.0241819 0.302084 255 93 82
-0.382024 0.025555 0.302146 255 99 84
-0.38228 0.0269314 0.302208 255 103 87
-0.382537 0.0283113 0.302271 255 109 95
-0.382425 0.0296141 0.302366 255 105 88
-0.383051 0.0310812 0.302396 255 86 67
-0.38331 0.0324713 0.302459 255 74 54
-0.32295 -0.0294935 0.303658 222 32 11
-0.323332 -0.0284466 0.303684 242 42 23
-0.323716 -0.0273956 0.303711 253 51 35
-0.324339 -0.0263305 0.303712 255 56 38
-0.325205 -0.0252481 0.303688 255 58 39
-0.326078 -0.0241571 0.303665 255 60 40
-0.326958 -0.0230576 0.303641 255 60 41
-0.327355 -0.0219783 0.303667 255 57 38
-0.328985 -0.0208167 0.303567 255 60 40
-0.329888 -0.0196896 0.303542 255 61 39
-0.330296 -0.0185897 0.303569 255 58 38
-0.330204 -0.0175235 0.303647 255 57 39
-0.356753 -0.00836674 0.301385 244 47 20
-0.356652 -0.00718538 0.301472 243 48 23
-0.357164 -0.00593628 0.301497 242 48 29
-0.358297 -0.00461067 0.30146 239 48 28
-0.358816 -0.00334744 0.301485 234 44 24
-0.358713 -0.00215541 0.301573 224 38 18
-0.358923 -0.000923608 0.301629 217 35 14
-0.359445 0.000352202 0.301655 215 38 18
-0.360284 0.00167656 0.30165 212 43 27
-0.361446 0.00305445 0.301614 215 44 28
-0.365206 0.00481922 0.301323 218 42 26
-0.367072 0.00633509 0.30122 219 39 21
-0.368294 0.0077694 0.301181 221 38 15
-0.369866 0.00927013 0.301108 221 38 16
-0.376311 0.0115749 0.300565 220 37 20
-0.379408 0.0133796 0.300348 223 33 15
-0.380019 0.014788 0.300373 228 36 17
-0.380997 0.0162668 0.300362 233 41 22
-0.381982 0.0177563 0.300352 239 45 31
-0.382237 0.0191215 0.300412 248 45 34
-0.382125 0.0204209 0.300508 253 48 37
-0.382381 0.0217911 0.300568 255 53 42
-0.381902 0.0230199 0.300698 255 61 50
-0.381791 0.0243195 0.300793 255 71 60
-0.381679 0.0256191 0.300889 255 88 72
-0.381934 0.0269958 0.30095 255 102 82
-0.38219 0.0283758 0.301011 255 105 88
-0.382079 0.0296787 0.301106 255 112 97
-0.381967 0.0309817 0.301202 255 128 97
-0.382592 0.0324523 0.301229 255 112 77
-0.38285 0.0338443 0.30129 255 76 58
-0.32353 -0.0283831 0.302632 221 34 12
-0.324153 -0.0273208 0.302631 239 45 25
-0.325018 -0.0262421 0.302603 250 53 38
-0.32589 -0.025155 0.302575 255 57 41
-0.326769 -0.0240593 0.302547 255 59 42
-0.328146 -0.0229279 0.302465 255 57 39
-0.328795 -0.0218272 0.302463 255 56 38
-0.328951 -0.0207516 0.302514 255 58 41
-0.329356 -0.019657 0.302539 255 57 40
-0.329763 -0.0185579 0.302563 255 56 38
-0.329921 -0.0174736 0.302615 255 59 39
-0.32983 -0.0164073 0.302693 255 56 38
-0.354616 -0.0084971 0.300433 243 48 24
-0.355423 -0.00722672 0.300424 240 49 29
-0.356236 -0.0059479 0.300415 237 45 24
-0.357363 -0.00462517 0.300373 229 44 21
-0.358499 -0.00329066 0.300332 213 39 19
-0.358708 -0.00206008 0.300387 200 36 15
-0.35923 -0.000786743 0.30041 194 33 11
-0.359754 0.000492304 0.300433 192 33 13
-0.361229 0.00190668 0.300358 193 33 17
-0.366956 0.00393319 0.299849 195 35 20
-0.368178 0.00535646 0.299803 201 34 16
-0.369076 0.00674271 0.299792 204 33 14
-0.368969 0.00798336 0.299882 208 32 9
-0.369873 0.00938365 0.299871 209 34 11
-0.375621 0.0115795 0.29937 210 32 12
-0.378707 0.0133822 0.299141 213 34 13
-0.378956 0.0147274 0.299199 218 34 14
-0.38029 0.0162661 0.299148 222 36 16
-0.381637 0.0178197 0.299097 229 39 21
-0.381892 0.0191851 0.299155 236 41 26
-0.382148 0.0205538 0.299214 245 45 32
-0.382036 0.0218549 0.299309 251 47 34
-0.381924 0.0231561 0.299405 254 51 37
-0.381812 0.0244574 0.2995 255 57 43
-0.3817 0.0257587 0.299595 255 67 55
-0.381956 0.0271373 0.299655 255 85 70
-0.381844 0.0284403 0.29975 255 95 81
-0.381365 0.029663 0.299882 255 102 89
-0.381253 0.0309645 0.299977 255 124 105
-0.381508 0.0323497 0.300037 255 139 107
-0.381397 0.0336529 0.300132 255 114 84
-0.381285 0.0349562 0.300228 255 80 61
-0.324831 -0.0272363 0.301517 219 36 14
-0.325702 -0.026153 0.301485 236 46 27
-0.326337 -0.0250726 0.30148 248 54 39
-0.327956 -0.0239356 0.301365 254 55 42
-0.328357 -0.0228516 0.301387 255 53 38
-0.328513 -0.021778 0.301437 255 54 38
-0.328917 -0.0206864 0.301459 255 55 40
-0.329074 -0.0196074 0.301509 255 54 40
-0.329729 -0.0184901 0.301504 255 55 40
-0.329638 -0.0174237 0.301582 255 58 40
-0.330046 -0.0163168 0.301605 255 56 39
-0.350831 -0.00996615 0.299602 245 49 26
-0.35132 -0.00874721 0.299623 241 47 23
-0.353902 -0.00729992 0.299416 235 45 24
-0.355922 -0.00589183 0.299271 225 40 18
-0.358182 -0.00323388 0.299178 178 37 18
-0.358391 -0.00200311 0.299231 170 31 18
-0.359225 -0.000689455 0.299218 171 27 14
-0.360379 0.00067487 0.299171 171 24 10
-0.369066 0.00308064 0.298318 175 25 11
-0.369295 0.00436863 0.298373 176 33 17
-0.369188 0.00561071 0.298464 183 32 13
-0.369756 0.00695375 0.298484 188 30 9
-0.369649 0.00819881 0.298575 193 29 6
-0.371238 0.00971274 0.298487 195 31 11
-0.373193 0.0113007 0.298361 198 30 11
-0.375174 0.0129113 0.298234 202 31 9
-0.378255 0.0147284 0.297992 209 32 10
-0.379585 0.0162654 0.297936 215 31 11
-0.381292 0.0178831 0.297841 219 33 14
-0.381546 0.0192486 0.297898 226 36 19
-0.38217 0.020687 0.297917 233 40 23
-0.382058 0.0219898 0.298012 241 43 27
-0.381946 0.0232927 0.298108 248 46 32
-0.381834 0.0245956 0.298203 253 49 38
-0.381722 0.0258987 0.298299 255 53 42
-0.38161 0.0272017 0.298394 255 63 51
-0.381498 0.0285048 0.29849 255 77 63
-0.381386 0.029808 0.298585 255 90 75
-0.380907 0.0310292 0.298718 255 109 92
-0.381162 0.0324145 0.298776 255 125 105
-0.38105 0.0337178 0.298872 255 132 108
-0.380938 0.0350212 0.298967 255 116 90
-0.380826 0.0363247 0.299063 255 85 63
-0.326149 -0.0260736 0.300387 216 37 14
-0.327031 -0.0249781 0.30035 232 47 25
-0.328167 -0.0238614 0.300284 245 53 37
-0.328323 -0.0227887 0.300333 252 54 39
-0.328479 -0.0217139 0.300382 254 52 37
-0.328883 -0.0206211 0.300402 255 52 36
-0.32904 -0.0195408 0.300451 255 53 38
-0.329446 -0.0184403 0.300472 255 54 38
-0.329854 -0.0173353 0.300492 255 54 39
-0.330264 -0.0162259 0.300513 254 54 38
-0.345719 -0.0115319 0.298955 244 45 22
-0.345904 -0.0103662 0.299006 242 48 26
-0.349254 -0.00887288 0.298698 234 44 19
-0.35359 -0.00724436 0.29828 218 41 16
-0.357866 -0.00317709 0.298023 132 48 30
-0.358385 -0.0019075 0.298041 131 46 34
-0.359533 -0.000551603 0.297989 133 40 29
-0.369179 0.00194413 0.296989 144 32 21
-0.370422 0.00337148 0.29693 157 27 16
-0.370315 0.00461939 0.297021 163 32 17
-0.370547 0.00591682 0.297075 167 33 15
-0.37078 0.00721731 0.297129 173 28 9
-0.371013 0.00852091 0.297183 177 26 7
-0.372276 0.00999098 0.297124 181 27 8
-0.372857 0.0113619 0.29714 187 25 8
-0.374487 0.0129144 0.297043 191 27 4
-0.376844 0.0146071 0.296867 199 28 6
-0.378521 0.0162013 0.296766 204 29 7
-0.380582 0.0178806 0.296624 210 29 9
-0.381568 0.01938 0.2966 216 30 12
-0.382561 0.0208904 0.296576 222 35 15
-0.383189 0.0223399 0.296592 229 39 20
-0.383077 0.0236492 0.296688 237 42 26
-0.382964 0.0249586 0.296784 245 45 30
-0.382481 0.0261915 0.29692 253 47 32
-0.382369 0.0274994 0.297015 255 53 39
-0.382257 0.0288074 0.297111 255 60 48
-0.381407 0.0299534 0.297285 255 72 60
-0.380928 0.031176 0.29742 255 93 79
-0.380816 0.0324794 0.297515 255 117 95
-0.381438 0.033954 0.297533 255 128 102
-0.381326 0.0352607 0.297629 255 129 107
-0.381582 0.0366565 0.297686 255 120 98
-0.381839 0.0380557 0.297744 255 89 71
-0.326995 -0.0249179 0.299299 210 38 14
-0.327886 -0.0238124 0.299258 228 44 24
-0.328288 -0.0227258 0.299276 239 53 36
-0.328691 -0.0216348 0.299294 246 53 38
-0.3286 -0.0205716 0.299372 252 50 32
-0.329005 -0.0194741 0.29939 253 50 35
-0.329662 -0.018354 0.299379 253 52 35
-0.330071 -0.0172466 0.299397 252 50 35
-0.333284 -0.0159059 0.299082 248 53 37
-0.342257 -0.0140422 0.298085 242 50 34
-0.342713 -0.0128688 0.298101 239 45 24
-0.343172 -0.0116904 0.298118 239 45 23
-0.344473 -0.0104239 0.298036 231 44 21
-0.345504 -0.00917325 0.297986 211 43 20
-0.371111 0.00357167 0.295604 127 45 35
-0.371003 0.00482403 0.295695 146 36 20
-0.371922 0.00622652 0.295669 157 30 13
-0.372158 0.00753509 0.295722 164 26 8
-0.37205 0.00879349 0.295814 167 23 7
-0.372631 0.0101616 0.295827 170 22 6
-0.372868 0.0114796 0.29588 176 20 3
-0.37415 0.012976 0.295815 181 23 3
-0.375443 0.0144866 0.295749 188 26 4
-0.377463 0.0161376 0.295601 194 26 4
-0.379874 0.0178781 0.295411 200 26 4
-0.381589 0.0195117 0.2953 206 29 6
-0.382583 0.0210245 0.295271 213 31 7
-0.382841 0.0224042 0.295325 220 34 11
-0.382729 0.0237136 0.295421 227 36 14
-0.382616 0.0250231 0.295517 235 39 18
-0.382504 0.0263327 0.295613 243 44 25
-0.382762 0.0277208 0.295668 251 46 29
-0.382279 0.028952 0.295805 255 49 35
-0.382166 0.0302618 0.295901 255 56 43
-0.381684 0.0314886 0.296037 255 69 56
-0.381572 0.0327968 0.296133 255 95 74
-0.381459 0.0341052 0.296229 255 117 93
-0.381347 0.0354135 0.296325 255 123 105
-0.381603 0.0368113 0.29638 255 128 113
-0.381861 0.0382126 0.296436 255 117 100
-0.383235 0.0398977 0.296371 255 87 62
-0.32785 -0.0237506 0.298201 207 33 15
-0.328006 -0.0226766 0.298248 219 43 24
-0.328409 -0.0215854 0.298264 230 50 33
-0.328565 -0.0205061 0.298311 240 50 32
-0.328971 -0.0194073 0.298328 245 49 32
-0.329879 -0.0182674 0.298282 246 51 34
-0.330289 -0.0171574 0.298298 244 49 31
-0.335071 -0.0156851 0.297776 239 52 37
-0.340041 -0.0141546 0.297233 235 49 31
-0.34049 -0.0129899 0.297247 235 43 22
-0.34149 -0.0117682 0.297195 227 44 23
-0.342775 -0.0105087 0.297108 204 44 20
-0.370778 0.00363177 0.294391 100 61 54
-0.371696 0.00503013 0.29436 120 52 38
-0.37262 0.00643837 0.294329 137 38 19
-0.372512 0.00769977 0.294421 154 28 10
-0.372749 0.00901484 0.294473 161 21 7
-0.372641 0.0102778 0.294565 163 19 7
-0.373225 0.0116545 0.294576 168 19 4
-0.373812 0.0130376 0.294586 173 17 3
-0.374753 0.014488 0.294556 180 20 2
-0.377121 0.0162002 0.294358 185 22 1
-0.379529 0.0179414 0.294157 191 26 1
-0.381243 0.0195754 0.294039 198 29 3
-0.382235 0.0210886 0.294005 205 28 2
-0.382493 0.0224685 0.294058 210 31 4
-0.382381 0.023778 0.294154 217 32 6
-0.382268 0.0250877 0.29425 224 33 9
-0.382526 0.0264743 0.294303 231 37 16
-0.382413 0.0277856 0.294399 241 40 21
-0.382301 0.029097 0.294495 248 43 26
-0.381818 0.0303268 0.294633 253 49 33
-0.381705 0.0316367 0.294729 255 53 39
-0.381593 0.0329466 0.294825 255 66 49
-0.38148 0.0342567 0.294921 255 88 69
-0.381368 0.0355668 0.295017 255 104 92
-0.381625 0.0369666 0.295071 255 112 103
-0.381882 0.0383698 0.295125 255 108 91
-0.382884 0.0399639 0.295096 255 90 73
-0.383145 0.0413779 0.29515 255 78 58
-0.32797 -0.0226134 0.297188 197 34 15
-0.328374 -0.021521 0.297202 208 40 20
-0.328779 -0.0204242 0.297216 220 43 24
-0.328936 -0.0193403 0.297263 227 45 26
-0.330096 -0.0181804 0.29718 230 46 31
-0.332032 -0.0169492 0.297 231 48 28
-0.33478 -0.0156338 0.296716 228 49 32
-0.338394 -0.0142191 0.296324 224 45 22
-0.339649 -0.0129867 0.296234 215 42 21
-0.340097 -0.0118193 0.296246 190 43 25
-0.372393 0.00523769 0.293016 98 63 55
-0.372285 0.00649913 0.293108 108 57 40
-0.372522 0.00781287 0.293158 130 40 27
-0.372759 0.00912973 0.293207 151 22 11
-0.372997 0.0104498 0.293258 157 21 7
-0.372889 0.0117159 0.29335 163 19 5
-0.373475 0.0130993 0.293358 169 17 4
-0.374064 0.0144894 0.293366 173 17 2
-0.375714 0.0160738 0.293245 177 17 3
-0.378462 0.0178732 0.292991 182 24 1
-0.380165 0.019503 0.292866 188 25 2
-0.381519 0.0210824 0.292784 195 26 2
-0.381775 0.0224607 0.292835 200 29 5
-0.382032 0.0238425 0.292886 205 30 6
-0.38192 0.0251522 0.292982 213 32 8
-0.381807 0.026462 0.293078 220 34 11
-0.382065 0.0278505 0.29313 228 36 16
-0.381952 0.029162 0.293226 236 40 21
-0.381839 0.0304735 0.293322 244 44 26
-0.381357 0.0317018 0.293462 252 47 30
-0.381614 0.0330968 0.293514 255 51 36
-0.381501 0.0344086 0.29361 255 61 46
-0.381389 0.0357204 0.293706 255 76 65
-0.381646 0.0371222 0.293758 255 89 84
-0.381903 0.0385275 0.293811 255 92 85
-0.382534 0.0400301 0.29382 255 88 71
-0.382794 0.0414442 0.293873 255 83 64
-0.38268 0.0427644 0.29397 255 75 56
-0.338811 -0.0129835 0.295224 166 44 28
-0.372295 0.00661072 0.291842 90 63 57
-0.372532 0.00792623 0.291891 102 57 49
-0.37277 0.00924491 0.291939 129 35 23
-0.372661 0.0105111 0.292032 149 24 9
-0.372899 0.0118345 0.29208 160 20 2
-0.373138 0.013161 0.292129 165 18 5
-0.373726 0.0145513 0.292134 167 18 5
-0.374668 0.0160107 0.292094 170 16 6
-0.376684 0.017675 0.291921 174 20 3
-0.378368 0.0192959 0.29179 178 18 3
-0.380072 0.0209365 0.291657 184 24 3
-0.381059 0.0224531 0.291615 190 25 5
-0.381315 0.0238332 0.291665 196 28 5
-0.381203 0.0251415 0.29176 203 29 6
-0.381459 0.0265267 0.29181 209 31 7
-0.381716 0.0279153 0.29186 217 32 11
-0.381603 0.0292269 0.291956 223 34 15
-0.381491 0.0305386 0.292052 231 38 20
-0.381378 0.0318504 0.292148 242 42 25
-0.381265 0.0331622 0.292244 250 46 28
-0.381522 0.0345608 0.292295 254 49 32
-0.38178 0.035963 0.292346 255 56 42
-0.381667 0.0372782 0.292442 255 66 56
-0.381925 0.0386855 0.292493 255 76 66
-0.381812 0.0400024 0.29259 255 82 66
-0.38207 0.0414149 0.292641 255 83 66
-0.382329 0.0428309 0.292692 255 79 61
-0.382589 0.0442504 0.292744 255 77 56
-0.372889 0.00809263 0.290575 89 66 57
-0.37278 0.00936035 0.290667 104 57 41
-0.372671 0.0106281 0.29076 132 35 19
-0.372909 0.0119533 0.290807 152 23 6
-0.3728 0.0132227 0.2909 160 17 3
-0.373388 0.0146132 0.290902 162 16 5
-0.374329 0.016073 0.290858 165 18 6
-0.375986 0.0176728 0.290722 168 17 4
-0.377305 0.0192247 0.29063 172 16 4
-0.378274 0.0207224 0.290585 175 20 4
-0.379614 0.0223023 0.290492 181 22 3
-0.379867 0.0236773 0.29054 188 25 2
-0.379755 0.024981 0.290635 194 25 1
-0.380743 0.0265144 0.29059 199 27 3
-0.380998 0.0279014 0.290638 206 28 6
-0.381255 0.0292919 0.290687 213 30 8
-0.381511 0.0306858 0.290736 220 32 12
-0.381399 0.0319993 0.290832 229 37 18
-0.381286 0.0333128 0.290928 239 41 21
-0.381914 0.0348009 0.29093 247 44 25
-0.381801 0.0361177 0.291026 253 49 33
-0.381688 0.0374346 0.291122 255 53 39
-0.381575 0.0387515 0.291219 255 61 46
-0.381461 0.0400685 0.291315 255 70 55
-0.381719 0.0414812 0.291365 255 78 62
-0.381978 0.0428974 0.291415 255 81 64
-0.381865 0.0442178 0.291511 255 79 60
-0.382497 0.0457404 0.291515 255 75 57
-0.37279 0.00947609 0.289393 94 66 53
-0.372681 0.0107455 0.289485 108 55 40
-0.372572 0.0120149 0.289578 135 35 20
-0.37281 0.0133435 0.289624 153 20 5
-0.373049 0.0146752 0.28967 158 17 3
-0.373639 0.0160727 0.289669 161 17 5
-0.37529 0.0176707 0.289526 165 15 5
-0.376246 0.0191539 0.289476 168 18 4
-0.377209 0.0206478 0.289427 171 16 3
-0.377818 0.0220817 0.289425 174 18 3
-0.378429 0.0235226 0.289424 180 20 2
-0.379044 0.0249705 0.289422 186 21 0
-0.379296 0.026349 0.289469 190 25 0
-0.380282 0.0278876 0.289419 196 27 2
-0.380906 0.0293569 0.289417 203 29 4
-0.381162 0.030751 0.289464 210 30 6
-0.381049 0.0320646 0.28956 217 32 11
-0.381306 0.0334638 0.289608 226 35 15
-0.381564 0.0348666 0.289655 234 39 20
-0.381451 0.0361835 0.289752 244 45 27
-0.381338 0.0375005 0.289848 252 48 32
-0.381224 0.0388176 0.289944 255 52 37
-0.381111 0.0401347 0.290041 255 59 43
-0.381369 0.0415476 0.290089 255 66 53
-0.381255 0.0428664 0.290185 255 73 60
-0.381514 0.0442845 0.290234 255 78 61
-0.381772 0.0457061 0.290282 255 77 59
-0.382781 0.0473379 0.290234 254 73 54
-0.372343 0.010807 0.288256 92 65 56
-0.372581 0.0121341 0.2883 108 56 41
-0.37282 0.0134645 0.288345 136 36 18
-0.372711 0.0147372 0.288438 154 18 4
-0.3733 0.0161349 0.288434 158 18 3
-0.374949 0.0177334 0.288283 162 16 5
-0.375904 0.0192169 0.288229 165 19 3
-0.376507 0.0206423 0.288225 167 17 3
-0.377113 0.0220746 0.28822 169 15 4
-0.377362 0.0234413 0.288265 174 15 2
-0.377972 0.0248857 0.288261 177 17 0
-0.378586 0.026337 0.288256 181 21 0
-0.379568 0.0278738 0.288202 186 24 0
-0.380189 0.0293414 0.288197 192 26 2
-0.380444 0.0307339 0.288243 199 28 4
-0.3807 0.0321299 0.288289 205 30 7
-0.380957 0.0335293 0.288335 214 31 9
-0.381214 0.0349323 0.288381 223 34 11
-0.381471 0.0363387 0.288427 232 37 16
-0.381358 0.0376574 0.288523 242 42 24
-0.380874 0.0388836 0.288669 250 48 32
-0.380761 0.0402009 0.288766 254 52 38
-0.381018 0.0416139 0.288812 255 56 44
-0.380905 0.0429329 0.288909 255 64 51
-0.380791 0.0442519 0.289005 255 72 57
-0.381049 0.0456719 0.289052 255 74 58
-0.38168 0.0471983 0.28905 255 73 55
-0.382689 0.0488378 0.288997 252 71 52
-0.372591 0.0122537 0.287019 88 66 57
-0.37283 0.0135859 0.287062 110 55 40
-0.37307 0.0149213 0.287105 138 32 17
-0.373661 0.0163229 0.287098 154 19 5
-0.374608 0.0177961 0.28704 158 16 4
-0.375561 0.01928 0.286982 161 19 2
-0.375807 0.0206368 0.287025 163 17 4
-0.37641 0.0220675 0.287018 165 17 7
-0.376658 0.0234327 0.287061 169 15 3
-0.376906 0.0248012 0.287105 172 15 1
-0.377877 0.0263251 0.287047 174 20 0
-0.378128 0.0277039 0.287091 178 21 0
-0.379474 0.029326 0.28698 183 23 2
-0.380095 0.0307991 0.286973 190 23 3
-0.380351 0.0321952 0.287017 196 27 5
-0.380607 0.0335949 0.287061 204 29 5
-0.380863 0.034998 0.287106 213 30 6
-0.38075 0.0363152 0.287202 220 33 9
-0.380637 0.0376324 0.287298 230 36 16
-0.380524 0.0389497 0.287394 240 41 23
-0.380411 0.040267 0.287491 248 47 31
-0.380297 0.0415844 0.287587 253 50 37
-0.380554 0.0429994 0.287632 255 55 44
-0.380441 0.0443185 0.287729 255 63 47
-0.380698 0.0457387 0.287774 255 68 52
-0.380955 0.0471624 0.287819 255 68 52
-0.381587 0.0486946 0.287814 255 67 50
-0.382221 0.0502344 0.287808 250 69 50
-0.372491 0.0136478 0.285828 89 64 58
-0.373431 0.0151063 0.285766 112 50 40
-0.373672 0.0164484 0.285807 139 31 17
-0.37462 0.017924 0.285745 152 21 9
-0.375219 0.019343 0.285734 158 17 2
-0.375464 0.0207001 0.285776 162 17 1
-0.375709 0.0220604 0.285818 164 15 5
-0.375955 0.0234241 0.28586 166 18 2
-0.376202 0.0247911 0.285903 168 19 3
-0.37645 0.0261614 0.285945 170 20 2
-0.377419 0.0276904 0.285882 172 18 0
-0.378032 0.0291507 0.285872 176 20 2
-0.379013 0.0306999 0.285809 182 19 3
-0.379633 0.0321765 0.285798 187 24 2
-0.379888 0.0335746 0.285841 195 27 3
-0.380144 0.034976 0.285884 203 30 4
-0.3804 0.036381 0.285927 211 33 6
-0.380287 0.0376984 0.286023 219 33 11
-0.380173 0.0390158 0.286119 228 35 15
-0.38006 0.0403332 0.286215 236 42 21
-0.380316 0.0417467 0.286259 246 46 29
-0.380203 0.0430659 0.286355 253 49 33
-0.38009 0.0443852 0.286452 255 54 37
-0.380346 0.0458055 0.286495 255 61 45
-0.380233 0.0471265 0.286592 255 66 50
-0.38049 0.048552 0.286636 255 69 51
-0.381493 0.0501947 0.286575 255 67 49
-0.381753 0.0516312 0.286619 250 70 50
-0.373441 0.0152303 0.284474 92 60 58
-0.374388 0.0167016 0.284406 117 50 36
-0.374987 0.0181177 0.284393 142 28 14
-0.375231 0.0194734 0.284433 155 16 3
-0.375477 0.0208323 0.284473 159 17 1
-0.375366 0.0221239 0.284567 160 17 5
-0.375611 0.0234877 0.284608 162 19 4
-0.3755 0.024781 0.284703 165 20 5
-0.375747 0.0261498 0.284743 167 17 5
-0.376352 0.0275994 0.28473 169 16 2
-0.376961 0.029056 0.284717 171 15 1
-0.377573 0.0305197 0.284704 174 16 1
-0.378552 0.0320742 0.284637 179 20 1
-0.379171 0.0335543 0.284623 187 24 1
-0.379426 0.0349542 0.284665 193 27 1
-0.379681 0.0363575 0.284706 201 30 3
-0.379936 0.0377643 0.284747 209 32 9
-0.379823 0.0390819 0.284844 215 33 12
-0.380079 0.0404939 0.284885 224 37 15
-0.379966 0.0418131 0.284982 234 40 21
-0.379852 0.0431324 0.285078 245 46 25
-0.380108 0.0445513 0.28512 252 49 31
-0.379995 0.0458723 0.285217 255 52 37
-0.379881 0.0471934 0.285313 255 60 44
-0.379768 0.0485146 0.28541 255 66 48
-0.380395 0.0500485 0.285398 255 67 49
-0.381026 0.05159 0.285387 255 71 49
-0.381285 0.0530284 0.285429 248 69 51
-0.374755 0.0168923 0.283051 94 61 56
-0.375355 0.0183124 0.283034 120 46 36
-0.375244 0.019604 0.283128 146 25 12
-0.375133 0.0208957 0.283222 154 17 4
-0.375022 0.0221874 0.283316 157 19 6
-0.375267 0.0235514 0.283356 160 15 6
-0.375156 0.0248448 0.28345 162 15 6
-0.375402 0.0262137 0.283489 165 15 7
-0.375291 0.0275088 0.283584 167 15 3
-0.375895 0.0289618 0.283568 167 16 1
-0.376503 0.0304219 0.283552 168 16 1
-0.377114 0.0318891 0.283536 171 18 1
-0.378091 0.0334487 0.283464 178 19 1
-0.378709 0.0349323 0.283448 184 22 1
-0.379331 0.0364233 0.283432 190 26 2
-0.379586 0.0378303 0.283472 198 29 5
-0.379841 0.0392408 0.283512 207 32 7
-0.379728 0.0405602 0.283608 215 33 10
-0.379984 0.0419759 0.283648 223 37 15
-0.379871 0.0432969 0.283745 233 43 20
-0.379757 0.044618 0.283841 243 45 26
-0.379643 0.0459391 0.283938 252 47 33
-0.37953 0.0472604 0.284034 255 52 38
-0.379416 0.0485816 0.284131 255 59 43
-0.379303 0.049903 0.284227 255 66 48
-0.3803 0.0515489 0.284157 255 72 50
-0.380932 0.0530963 0.284142 254 70 51
-0.381941 0.0547644 0.284072 239 66 54
-0.375368 0.0184417 0.281725 98 63 58
-0.375257 0.019735 0.28182 124 42 32
-0.375146 0.0210283 0.281914 145 24 14
-0.375035 0.0223217 0.282008 156 18 6
-0.374923 0.0236151 0.282103 159 15 5
-0.374812 0.0249085 0.282197 160 13 7
-0.375058 0.0262777 0.282235 162 13 6
-0.374946 0.0275729 0.282329 164 14 4
-0.375192 0.028947 0.282367 165 14 4
-0.375797 0.0304054 0.282349 164 19 3
-0.376405 0.0318709 0.28233 165 21 4
-0.377379 0.0334287 0.282254 170 19 4
-0.37836 0.0349979 0.282177 176 20 2
-0.37898 0.0364891 0.282158 182 22 1
-0.379235 0.0378963 0.282196 189 25 0
-0.37949 0.039307 0.282234 198 28 1
-0.379746 0.0407213 0.282273 206 30 3
-0.379633 0.0420424 0.282369 212 34 8
-0.379519 0.0433635 0.282466 220 37 13
-0.379405 0.0446847 0.282562 232 39 18
-0.379292 0.046006 0.282659 243 43 28
-0.379178 0.0473273 0.282755 252 48 35
-0.379065 0.0486487 0.282852 255 52 39
-0.378951 0.0499702 0.282948 255 59 44
-0.379947 0.0516165 0.282873 255 66 48
-0.380578 0.0531641 0.282855 255 67 49
-0.381962 0.0549461 0.282722 252 69 52
-0.382602 0.0565136 0.282704 223 69 54
-0.37527 0.0198663 0.280508 96 64 57
-0.375158 0.0211613 0.280602 124 42 34
-0.375047 0.0224563 0.280697 147 22 11
-0.374936 0.0237514 0.280791 157 17 5
-0.374824 0.0250465 0.280886 158 13 6
-0.374713 0.0263417 0.28098 160 13 6
-0.374602 0.027637 0.281075 161 16 4
-0.374847 0.0290113 0.281111 162 12 5
-0.375093 0.030389 0.281148 162 19 5
-0.376059 0.0319358 0.281068 162 22 5
-0.376669 0.0334087 0.281046 165 20 5
-0.378011 0.0350634 0.280906 169 19 4
-0.37863 0.0365549 0.280883 174 20 3
-0.378884 0.0379623 0.28092 180 22 1
-0.379508 0.0394665 0.280897 188 25 0
-0.379395 0.0407877 0.280994 195 27 1
-0.379281 0.0421089 0.28109 202 30 4
-0.379167 0.0434301 0.281186 210 32 8
-0.379054 0.0447515 0.281283 221 35 13
-0.37894 0.0460729 0.281379 231 39 22
-0.378827 0.0473943 0.281476 243 44 30
-0.378713 0.0487158 0.281572 252 47 31
-0.378968 0.0501438 0.28161 255 52 35
-0.379595 0.0516841 0.281589 255 58 42
-0.380224 0.0532319 0.281568 255 65 46
-0.381607 0.0550144 0.281428 255 69 47
-0.382246 0.0565822 0.281407 251 68 50
-0.382509 0.0580398 0.281445 212 65 57
-0.374814 0.0212248 0.279348 96 60 58
-0.374702 0.0225199 0.279442 126 38 30
-0.374591 0.0238151 0.279537 148 20 9
-0.37448 0.0251104 0.279631 154 16 6
-0.374368 0.0264057 0.279726 159 14 2
-0.374257 0.0277011 0.27982 159 14 2
-0.374502 0.0290756 0.279855 161 12 3
-0.374747 0.0304535 0.27989 160 18 2
-0.375352 0.0319176 0.279865 160 21 5
-0.376321 0.0334738 0.27978 163 19 4
-0.377297 0.0350415 0.279695 165 17 3
-0.37828 0.0366207 0.279608 169 19 3
-0.378534 0.0380283 0.279643 174 19 1
-0.379157 0.0395328 0.279618 179 21 0
-0.379043 0.0408541 0.279714 186 24 0
-0.37893 0.0421754 0.279811 195 27 3
-0.379185 0.0435952 0.279846 202 29 6
-0.379071 0.0449183 0.279943 212 31 10
-0.378957 0.0462415 0.280039 221 35 17
-0.378844 0.0475646 0.280136 232 40 23
-0.37873 0.0488879 0.280232 243 45 26
-0.379356 0.050425 0.280208 252 48 29
-0.379612 0.0518606 0.280244 255 53 36
-0.380616 0.0535224 0.280159 255 60 42
-0.381251 0.0550827 0.280134 255 65 45
-0.381512 0.0565349 0.280171 255 66 47
-0.382152 0.0581086 0.280146 250 64 50
-0.374358 0.0225836 0.278187 96 57 51
-0.374246 0.0238789 0.278282 129 35 20
-0.374135 0.0251743 0.278376 150 16 4
-0.374024 0.0264697 0.278471 156 13 1
-0.374268 0.0278428 0.278504 157 17 3
-0.374514 0.0292193 0.278537 159 12 2
-0.374402 0.030518 0.278632 159 15 3
-0.375006 0.0319824 0.278604 160 16 5
-0.375973 0.033539 0.278515 161 17 4
-0.376948 0.035107 0.278424 163 15 3
-0.37793 0.0366865 0.278333 166 13 1
-0.378183 0.0380943 0.278367 169 15 1
-0.378805 0.0395991 0.278338 173 19 1
-0.378691 0.0409205 0.278434 179 22 0
-0.378947 0.0423389 0.278468 186 25 1
-0.379202 0.0437608 0.278502 194 27 4
-0.379088 0.0450856 0.278599 203 30 7
-0.378975 0.0464104 0.278696 211 32 11
-0.379231 0.0478393 0.27873 221 34 16
-0.379117 0.0491659 0.278827 232 39 20
-0.379373 0.0506 0.278861 244 45 25
-0.380003 0.0521473 0.278833 251 49 31
-0.38101 0.0538143 0.278742 255 54 38
-0.380895 0.055151 0.27884 255 59 43
-0.380781 0.0564878 0.278937 255 63 45
-0.381041 0.0579419 0.278972 254 64 46
-0.374615 0.0240889 0.2769 100 55 41
-0.374146 0.0253128 0.277058 133 30 17
-0.374391 0.0266862 0.27709 150 17 4
-0.37428 0.0279849 0.277184 155 18 1
-0.374168 0.0292837 0.277279 157 14 1
-0.374771 0.0307451 0.277248 158 13 3
-0.375018 0.0321303 0.27728 159 12 3
-0.375626 0.0336041 0.277249 159 14 4
-0.376963 0.0352601 0.27709 160 13 4
-0.377579 0.0367524 0.277058 163 11 2
-0.377832 0.0381604 0.27709 165 15 2
-0.378453 0.0396654 0.277058 168 16 2
-0.378708 0.0410823 0.27709 172 19 1
