ply
format ascii 1.0
element vertex 1223
property float x
property float y
property float z
property uchar diffuse_red
property uchar diffuse_green
property uchar diffuse_blue
end_header
-0.331078 -0.0419367 0.310899 254 73 64
-0.443313 -0.0200543 0.304197 255 73 51
-0.442144 -0.0185773 0.304379 255 72 48
-0.441497 -0.0170813 0.304524 255 71 48
-0.439827 -0.0156479 0.304739 255 69 47
-0.438678 -0.0141955 0.304918 255 66 45
-0.437031 -0.0127841 0.30513 255 63 44
-0.438927 -0.0111389 0.3051 255 64 42
-0.379024 -0.00256269 0.310005 255 55 36
-0.37471 -0.00178378 0.310369 255 52 29
-0.372204 -0.000822901 0.310614 255 58 34
-0.371082 0.00029001 0.310768 255 56 36
-0.370975 0.00152526 0.310857 255 54 35
-0.370869 0.00276058 0.310945 255 53 36
-0.370426 0.0039497 0.311055 255 53 36
-0.37032 0.00518368 0.311144 255 58 41
-0.368544 0.00617399 0.311338 255 70 75
-0.367445 0.00725195 0.311488 255 156 127
-0.36734 0.00847487 0.311576 255 188 146
-0.396463 0.0211737 0.310297 255 83 57
-0.395549 0.0223756 0.310442 255 87 61
-0.395036 0.0236464 0.310563 223 76 59
-0.395318 0.0250673 0.310635 162 67 58
-0.33486 -0.0600032 0.308389 161 16 1
-0.332747 -0.0587634 0.308632 167 20 3
-0.331162 -0.0575843 0.30883 172 22 7
-0.32984 -0.0564386 0.309006 174 20 7
-0.327322 -0.0552123 0.309279 174 17 3
-0.326994 -0.0541628 0.309372 171 24 5
-0.326426 -0.0530991 0.309485 167 30 7
-0.32515 -0.0519943 0.309655 161 29 9
-0.323651 -0.050886 0.309842 151 34 16
-0.334181 -0.0462161 0.30934 171 21 9
-0.332572 -0.0450992 0.309536 187 25 7
-0.33223 -0.0440333 0.309631 209 28 8
-0.330643 -0.0429367 0.309825 234 38 14
-0.330058 -0.0418747 0.309939 250 50 32
-0.330462 -0.0408346 0.309975 254 67 59
-0.441873 -0.0200324 0.302795 255 72 50
-0.440712 -0.0185594 0.30298 255 71 50
-0.438539 -0.0171486 0.303239 255 68 47
-0.436893 -0.0157248 0.303458 255 68 47
-0.43526 -0.0143129 0.303675 255 63 42
-0.435132 -0.0128149 0.303782 255 61 39
-0.378335 -0.00254416 0.308804 255 50 34
-0.37438 -0.00172616 0.30916 255 56 31
-0.372217 -0.000724639 0.309391 255 59 34
-0.371093 0.000389331 0.30955 255 56 37
-0.370649 0.00158254 0.309661 255 57 39
-0.370543 0.00281797 0.30975 255 57 38
-0.370437 0.00405343 0.309839 255 55 36
-0.367994 0.00495712 0.310085 255 61 40
-0.366898 0.00603805 0.310239 255 65 52
-0.366793 0.00725963 0.310327 255 87 74
-0.366688 0.00848128 0.310415 255 94 95
-0.394796 0.0223661 0.309166 255 79 53
-0.394681 0.0237104 0.309263 255 80 59
-0.394565 0.0250547 0.309359 234 74 63
-0.39445 0.026399 0.309456 179 69 62
-0.33509 -0.0600057 0.307316 164 17 5
-0.333223 -0.0587855 0.307546 169 28 7
-0.331133 -0.0575611 0.307794 172 27 6
-0.330301 -0.0564535 0.307933 174 18 3
-0.329475 -0.0553523 0.308071 173 20 3
-0.326961 -0.0541364 0.308353 170 26 6
-0.326155 -0.0530555 0.308488 162 30 9
-0.323003 -0.051832 0.308821 148 34 15
-0.321989 -0.0507602 0.308973 126 50 33
-0.321902 -0.0497471 0.309046 127 51 39
-0.334064 -0.0451146 0.308364 172 22 8
-0.332957 -0.0440182 0.308524 187 24 6
-0.33111 -0.0429108 0.308745 209 30 8
-0.330275 -0.0418402 0.308882 234 37 15
-0.330184 -0.040789 0.308957 249 49 38
-0.440311 -0.0184914 0.30151 255 67 48
-0.439668 -0.0169995 0.301658 255 65 46
-0.43801 -0.0155702 0.301885 255 62 44
-0.437881 -0.0140595 0.301993 255 64 42
-0.378001 -0.00248589 0.307579 255 52 36
-0.37405 -0.00166854 0.307951 255 56 37
-0.371889 -0.000667301 0.30819 255 55 39
-0.370766 0.000446586 0.308353 255 55 39
-0.370323 0.00163983 0.308466 255 58 41
-0.370217 0.00287535 0.308555 255 55 40
-0.369775 0.00406455 0.308667 255 56 41
-0.36767 0.00501427 0.308899 255 61 40
-0.366576 0.0060951 0.309057 255 64 44
-0.366471 0.00731681 0.309145 255 69 57
-0.394441 0.02243 0.307866 255 74 49
-0.394326 0.0237743 0.307962 255 72 49
-0.39421 0.0251187 0.308059 255 77 61
-0.3937 0.0263849 0.308182 248 79 68
-0.39319 0.0276479 0.308305 199 74 64
-0.334809 -0.0599612 0.306285 169 25 9
-0.333448 -0.0587855 0.306476 171 27 9
-0.330856 -0.0575171 0.306778 170 23 7
-0.330766 -0.0564685 0.306853 169 20 7
-0.330182 -0.0553826 0.306972 161 29 11
-0.325794 -0.0519822 0.307564 122 49 30
-0.322415 -0.0507581 0.30793 99 62 54
-0.334292 -0.0450862 0.307287 163 23 9
-0.332677 -0.0439724 0.307496 172 24 7
-0.331831 -0.0428912 0.307637 186 26 8
-0.330741 -0.0418109 0.307799 207 28 11
-0.329907 -0.0407434 0.307939 231 35 20
-0.329817 -0.039692 0.308014 249 49 41
-0.373033 -0.00169136 0.306794 255 59 41
-0.371222 -0.000651104 0.307015 255 59 42
-0.369767 0.00041935 0.307208 255 59 42
-0.369661 0.00165351 0.307296 255 56 42
-0.369555 0.00288773 0.307385 255 58 39
-0.36878 0.00402943 0.307524 255 55 39
-0.367016 0.00502432 0.307738 255 55 38
-0.366582 0.00620046 0.307851 255 62 43
-0.393576 0.0237632 0.306691 255 75 52
-0.393066 0.0250295 0.306815 255 73 48
-0.392951 0.0263708 0.306912 255 79 57
-0.392836 0.0277121 0.307008 255 82 61
-0.392328 0.0289721 0.307132 213 75 59
-0.334528 -0.0599167 0.305253 171 22 10
-0.333168 -0.0587411 0.30545 171 18 8
-0.330827 -0.0574937 0.305738 169 17 5
-0.330737 -0.0564441 0.305813 158 30 15
-0.335035 -0.0450752 0.306159 159 24 7
-0.333155 -0.0439494 0.306398 164 24 10
-0.332306 -0.0428649 0.306543 171 23 9
-0.331211 -0.0417814 0.30671 186 26 10
-0.330124 -0.0407064 0.306876 206 30 13
-0.329539 -0.0396463 0.306996 231 37 19
-0.328956 -0.0385904 0.307116 249 49 37
-0.328866 -0.0375409 0.307191 255 71 68
-0.372704 -0.00163384 0.305587 255 57 42
-0.369547 -0.000757733 0.305925 255 56 42
-0.369107 0.000434331 0.30604 255 57 42
-0.36767 0.00149389 0.306236 255 55 41
-0.368561 0.0028552 0.306244 255 58 39
-0.36779 0.00399446 0.306386 255 53 38
-0.366693 0.00508141 0.306553 255 52 34
-0.366588 0.00630606 0.306641 255 59 41
-0.392828 0.0237521 0.305422 255 116 92
-0.392712 0.0250935 0.305518 255 78 66
-0.392597 0.0264348 0.305614 255 70 49
-0.392482 0.0277762 0.30571 255 75 52
-0.391974 0.0290363 0.305836 255 81 59
-0.391859 0.0303761 0.305932 223 76 61
-0.334247 -0.0598722 0.304222 169 21 7
-0.332889 -0.0586967 0.304423 168 15 6
-0.330798 -0.0574704 0.304696 164 21 7
-0.330707 -0.0564196 0.304772 142 42 24
-0.335784 -0.0450641 0.305021 154 22 10
-0.333636 -0.0439262 0.305294 159 26 10
-0.33253 -0.042832 0.305467 163 24 10
-0.331181 -0.041741 0.305662 170 23 8
-0.330342 -0.0406693 0.305809 185 26 7
-0.329508 -0.0396039 0.305954 207 30 12
-0.328925 -0.0385469 0.306076 231 38 19
-0.328589 -0.0374951 0.306174 249 48 35
-0.32899 -0.0364458 0.306204 255 64 58
-0.330655 -0.0268869 0.306657 255 63 42
-0.330564 -0.0258244 0.306733 255 65 45
-0.372033 -0.00161655 0.30441 255 58 42
-0.369221 -0.000700707 0.30473 255 60 43
-0.36712 0.000281731 0.304988 255 59 42
-0.367015 0.00150766 0.305076 255 54 39
-0.367571 0.00282282 0.305108 255 60 40
-0.367465 0.00405166 0.305196 255 56 39
-0.366369 0.00513853 0.305368 255 52 37
-0.366264 0.00636329 0.305455 255 52 38
-0.392358 0.0251574 0.30422 255 149 121
-0.391851 0.0264207 0.304348 255 107 76
-0.391736 0.0277605 0.304444 255 72 52
-0.39162 0.0291005 0.30454 255 76 51
-0.391505 0.0304405 0.304636 255 81 60
-0.392174 0.0319505 0.30467 236 76 65
-0.334312 -0.0609164 0.303087 167 27 7
-0.333966 -0.0598276 0.30319 165 21 3
-0.333114 -0.0586966 0.303345 164 18 4
-0.331017 -0.0574677 0.303627 152 30 16
-0.330926 -0.0564147 0.303702 121 53 37
-0.3355 -0.0450178 0.303978 143 33 20
-0.333609 -0.0438877 0.304234 155 24 13
-0.332501 -0.0427925 0.304411 160 25 12
-0.331152 -0.0417005 0.304612 163 23 10
-0.330561 -0.0406321 0.304737 170 21 10
-0.329725 -0.0395645 0.304886 184 24 11
-0.32914 -0.0385054 0.30501 206 30 12
-0.328803 -0.0374516 0.305109 233 37 19
-0.328712 -0.0363998 0.305185 251 49 35
-0.329115 -0.0353462 0.305212 255 65 52
-0.329271 -0.0342903 0.305264 255 73 61
-0.329181 -0.0332354 0.305339 255 74 60
-0.329585 -0.0321723 0.305367 255 73 57
-0.329991 -0.0311049 0.305395 255 72 56
-0.330149 -0.0300395 0.305447 255 70 54
-0.330558 -0.0289647 0.305476 255 67 49
-0.330466 -0.0279022 0.305552 255 64 45
-0.330375 -0.0268396 0.305628 255 62 43
-0.330284 -0.025777 0.305704 255 59 41
-0.371363 -0.00159928 0.303234 255 59 41
-0.368561 -0.000684525 0.303565 255 57 41
-0.366797 0.000338486 0.303802 255 57 41
-0.366691 0.00156452 0.30389 255 57 42
-0.36791 0.00296966 0.30386 255 59 42
-0.367804 0.00420143 0.303948 255 61 43
-0.367366 0.00538551 0.304066 255 56 40
-0.367261 0.00661596 0.304154 255 52 37
-0.391497 0.0264847 0.303052 255 160 119
-0.390991 0.0277449 0.303181 255 115 78
-0.390876 0.0290833 0.303276 255 79 58
-0.391151 0.0305048 0.30334 255 73 51
-0.391819 0.0320151 0.30337 254 77 57
-0.391703 0.0333586 0.303467 251 77 65
-0.334031 -0.0608719 0.302055 164 22 7
-0.333685 -0.0597831 0.302158 162 17 3
-0.333086 -0.0586742 0.302289 155 25 9
-0.331987 -0.0575277 0.302473 130 43 28
-0.331896 -0.0564694 0.302548 100 63 49
-0.336254 -0.0450064 0.302827 117 57 44
-0.333582 -0.0438491 0.303171 142 34 22
-0.33222 -0.0427464 0.303379 153 31 14
-0.331122 -0.0416599 0.303559 157 28 14
-0.330531 -0.0405904 0.303686 161 24 12
-0.330191 -0.0395282 0.303788 170 19 11
-0.329356 -0.0384638 0.303939 186 23 10
-0.329018 -0.0374078 0.30404 209 30 12
-0.328927 -0.0363539 0.304116 234 38 22
-0.328837 -0.0353 0.304191 249 50 36
-0.328993 -0.034244 0.304242 255 62 48
-0.328902 -0.0331889 0.304317 255 70 54
-0.329306 -0.0321257 0.304343 255 70 54
-0.329711 -0.0310581 0.304369 255 67 49
-0.329869 -0.0299926 0.30442 255 65 47
-0.330277 -0.0289176 0.304446 255 66 46
-0.330436 -0.0278466 0.304498 255 65 44
-0.330846 -0.0267641 0.304524 255 61 42
-0.331763 -0.025656 0.304501 255 60 40
-0.371035 -0.00154188 0.30203 255 58 41
-0.368236 -0.000627534 0.302371 255 56 43
-0.366473 0.000395266 0.302615 255 59 42
-0.366367 0.0016214 0.302703 255 57 43
-0.367585 0.00302691 0.302667 255 54 43
-0.367479 0.00425877 0.302756 255 59 43
-0.367041 0.0054429 0.302875 255 56 41
-0.366936 0.00667347 0.302963 255 51 39
-0.391143 0.0265487 0.301755 255 121 97
-0.390638 0.0278089 0.301886 255 128 100
-0.390523 0.0291474 0.301981 255 132 97
-0.390797 0.0305691 0.302043 255 105 73
-0.391072 0.0319944 0.302105 255 74 54
-0.391348 0.0334234 0.302167 255 77 57
-0.391233 0.0347671 0.302263 252 75 59
-0.333404 -0.0597385 0.301126 154 21 8
-0.333313 -0.058674 0.301202 132 41 23
-0.332715 -0.0575672 0.301335 101 56 43
-0.336229 -0.0449686 0.301751 90 68 56
-0.333555 -0.0438104 0.302106 111 55 40
-0.332445 -0.0427131 0.302292 140 36 21
-0.331595 -0.0416298 0.30245 154 25 11
-0.330751 -0.0405528 0.302607 158 26 11
-0.33016 -0.0394854 0.302736 163 24 13
-0.32982 -0.0384242 0.302838 173 22 9
-0.329729 -0.0373661 0.302914 190 26 6
-0.329638 -0.0363079 0.30299 211 30 10
-0.329547 -0.0352497 0.303066 233 37 19
-0.329456 -0.0341915 0.303141 249 48 31
-0.329365 -0.0331332 0.303217 255 60 43
-0.329523 -0.0320708 0.303267 255 66 48
-0.32968 -0.0310061 0.303317 255 64 45
-0.330088 -0.0299331 0.303341 255 64 43
-0.330246 -0.0288631 0.303391 255 64 42
-0.330908 -0.0277741 0.303389 255 64 43
-0.331068 -0.0266976 0.30344 255 61 40
-0.331988 -0.025587 0.303412 255 59 39
-0.368016 -0.00180372 0.301089 255 54 40
-0.366254 -0.000774175 0.30134 255 53 43
-0.366149 0.000452034 0.301428 255 55 41
-0.366044 0.0016783 0.301516 255 55 41
-0.366928 0.00303912 0.301507 254 53 41
-0.366822 0.00426969 0.301595 255 57 43
-0.367048 0.00554816 0.301651 255 56 42
-0.366942 0.00678025 0.30174 255 52 40
-0.371894 0.00878682 0.301341 255 50 33
-0.387618 0.0178977 0.300248 255 50 37
-0.388653 0.0194267 0.300235 255 53 42
-0.390082 0.0210382 0.300184 255 60 49
-0.390355 0.0224461 0.300243 255 79 64
-0.390399 0.0265344 0.300494 255 127 103
-0.390284 0.027873 0.30059 255 120 101
-0.390169 0.0292116 0.300686 255 143 125
-0.390443 0.0306335 0.300746 255 164 114
-0.390718 0.032059 0.300806 255 125 85
-0.390602 0.0334011 0.300902 255 78 67
-0.390878 0.034832 0.300963 255 73 53
-0.390762 0.0361759 0.301059 251 74 56
-0.333031 -0.0586293 0.30017 104 53 37
-0.334297 -0.0437941 0.300953 95 68 56
-0.332924 -0.0426861 0.301173 114 56 44
-0.331566 -0.0415889 0.301391 139 33 24
-0.331223 -0.0405193 0.301495 154 23 13
-0.330629 -0.0394487 0.301627 159 23 12
-0.330288 -0.0383843 0.30173 165 23 9
-0.330197 -0.0373229 0.301806 174 21 6
-0.329856 -0.0362616 0.30191 191 24 8
-0.329765 -0.0352012 0.301986 211 30 10
-0.329674 -0.0341408 0.302062 233 36 17
-0.329583 -0.0330803 0.302137 249 47 29
-0.32974 -0.0320156 0.302186 255 58 41
-0.329898 -0.0309488 0.302235 255 59 43
-0.330057 -0.0298797 0.302284 255 61 41
-0.330466 -0.0288011 0.302306 255 62 41
-0.330877 -0.0277182 0.302328 255 60 40
-0.331796 -0.0266116 0.302296 255 60 40
-0.332468 -0.0255069 0.302291 255 61 41
-0.365052 -0.00206082 0.300166 253 54 37
-0.364947 -0.000838734 0.300253 254 52 38
-0.365169 0.000425106 0.300307 253 53 39
-0.365064 0.00164868 0.300395 252 54 40
-0.365614 0.0029616 0.300416 250 52 38
-0.366497 0.00432698 0.300404 251 58 42
-0.366722 0.00560565 0.300459 251 54 41
-0.368282 0.00708624 0.300379 251 50 36
-0.370538 0.00868828 0.300231 251 47 30
-0.372831 0.0103166 0.30008 249 46 28
-0.37944 0.0126655 0.299499 248 47 31
-0.379691 0.0140142 0.299555 247 46 28
-0.381402 0.0156154 0.299467 247 47 32
-0.385752 0.0176947 0.299118 251 48 36
-0.386395 0.0191474 0.299137 254 49 40
-0.388572 0.0208887 0.299006 255 50 39
-0.389614 0.0224366 0.298988 255 56 41
-0.389887 0.0238464 0.299045 255 69 52
-0.390161 0.0252597 0.299103 255 82 71
-0.390046 0.0265984 0.299199 255 112 93
-0.38993 0.027937 0.299295 255 118 101
-0.389815 0.0292758 0.299391 255 117 100
-0.390479 0.0307814 0.299411 255 143 109
-0.390754 0.032209 0.29947 255 152 123
-0.390638 0.0335529 0.299566 255 137 110
-0.390523 0.0348969 0.299662 255 105 73
-0.390407 0.0362409 0.299759 255 74 54
-0.390682 0.0376773 0.299818 251 73 52
-0.333663 -0.0426652 0.300017 94 64 56
-0.332296 -0.0415637 0.300241 112 55 46
-0.331193 -0.0404773 0.300434 138 34 25
-0.33085 -0.0394087 0.300539 153 25 12
-0.330508 -0.0383421 0.300644 159 25 9
-0.330416 -0.0372786 0.30072 165 22 9
-0.330075 -0.0362151 0.300825 174 22 9
-0.329983 -0.0351525 0.300901 190 27 8
-0.329892 -0.0340899 0.300977 210 31 9
-0.329801 -0.0330272 0.301053 233 38 16
-0.329709 -0.0319645 0.301129 249 46 26
-0.330117 -0.0308911 0.301149 255 53 37
-0.330276 -0.0298198 0.301197 255 59 40
-0.330687 -0.0287389 0.301217 255 60 39
-0.331605 -0.0276363 0.30118 255 60 40
-0.332276 -0.0265347 0.301172 255 63 44
-0.332439 -0.0254481 0.30122 255 69 46
-0.333629 -0.0243112 0.301155 255 66 44
-0.364835 -0.00322657 0.298895 253 55 35
-0.364078 -0.00208216 0.299052 251 54 34
-0.364298 -0.000822542 0.299104 252 52 36
-0.364519 0.000439993 0.299157 250 52 39
-0.364741 0.00170546 0.29921 248 52 38
-0.36529 0.00301861 0.299229 245 50 31
-0.366172 0.00438431 0.299212 244 56 40
-0.368061 0.00590479 0.299091 244 52 35
-0.370315 0.00749725 0.298932 244 47 31
-0.371231 0.00890424 0.298914 242 45 25
-0.372499 0.0103757 0.29886 240 44 24
-0.374477 0.0119746 0.298733 238 43 27
-0.378989 0.0140146 0.298344 236 42 28
-0.379239 0.0153651 0.298399 235 44 29
-0.381314 0.017039 0.298265 239 43 31
-0.386046 0.0192099 0.297859 245 45 32
-0.38899 0.0210936 0.297639 250 46 33
-0.389649 0.0225731 0.297656 254 49 35
-0.389922 0.0239849 0.297712 255 53 39
-0.389807 0.0253236 0.297808 255 58 48
-0.389304 0.0265841 0.297943 255 73 61
-0.389189 0.0279212 0.298039 255 87 74
-0.389074 0.0292584 0.298134 255 103 86
-0.389735 0.0307622 0.298152 255 122 95
-0.390399 0.0322736 0.298169 255 124 104
-0.390283 0.0336177 0.298266 255 139 121
-0.390167 0.0349617 0.298362 255 151 111
-0.390052 0.0363059 0.298458 255 114 78
-0.390327 0.0377425 0.298515 255 78 60
-0.390211 0.0390885 0.298612 253 75 53
-0.332776 -0.0415331 0.299113 97 66 57
-0.331668 -0.0404434 0.299311 114 54 46
-0.33082 -0.0393654 0.299478 136 36 27
-0.330728 -0.0382997 0.299554 152 26 15
-0.330637 -0.037234 0.29963 159 23 11
-0.330294 -0.0361683 0.299736 165 22 9
-0.330202 -0.0351036 0.299812 175 23 6
-0.330111 -0.0340388 0.299889 191 25 5
-0.330019 -0.0329739 0.299965 212 30 7
-0.329928 -0.031909 0.300041 233 35 13
-0.330086 -0.0308387 0.300088 249 45 24
-0.330497 -0.0297597 0.300106 255 55 37
-0.331161 -0.0286688 0.300094 255 60 41
-0.332084 -0.0275626 0.300052 255 64 43
-0.332502 -0.0264671 0.30007 255 62 44
-0.332665 -0.0253782 0.300118 255 63 42
-0.333343 -0.0242629 0.300106 255 61 42
-0.359697 -0.00736254 0.298024 255 55 42
-0.363318 -0.00453677 0.297769 252 55 38
-0.363213 -0.0033201 0.297856 249 54 36
-0.363108 -0.00210339 0.297943 250 53 35
-0.363976 -0.000766091 0.297922 247 51 36
-0.364196 0.000496602 0.297974 244 49 36
-0.364744 0.00180558 0.297989 239 46 28
-0.365953 0.00321074 0.297932 235 43 24
-0.36784 0.00472316 0.297802 230 49 37
-0.36874 0.00610912 0.29778 231 47 29
-0.369985 0.00755567 0.297722 231 44 26
-0.372274 0.00917489 0.29755 229 43 20
-0.37425 0.0107654 0.297414 228 42 19
-0.374843 0.0121485 0.297429 227 38 19
-0.378648 0.0140753 0.297096 225 36 19
-0.37926 0.015488 0.297111 226 36 16
-0.381705 0.0172297 0.296928 228 36 19
-0.38532 0.0192044 0.296621 233 40 23
-0.389024 0.0212281 0.296307 238 42 29
-0.389296 0.0226366 0.296361 245 44 32
-0.389568 0.0240486 0.296416 250 47 36
-0.389453 0.0253874 0.296512 254 51 40
-0.388951 0.026648 0.296649 255 55 43
-0.388836 0.0279852 0.296744 255 62 49
-0.388335 0.0292411 0.296881 255 77 65
-0.388606 0.0306599 0.296936 255 96 79
-0.389265 0.0321674 0.29695 255 106 90
-0.389538 0.0335952 0.297005 255 113 97
-0.389812 0.0350267 0.297061 255 135 105
-0.390087 0.0364617 0.297116 255 139 108
-0.389971 0.0378077 0.297213 255 114 94
-0.389855 0.0391538 0.297309 255 90 68
-0.38974 0.0404999 0.297406 254 75 54
-0.3324 -0.0404134 0.29815 94 66 60
-0.331294 -0.0393281 0.298351 110 56 51
-0.330698 -0.0382552 0.29849 135 35 30
-0.330606 -0.0371884 0.298566 155 23 13
-0.330514 -0.0361214 0.298643 161 25 9
-0.330422 -0.0350545 0.298719 166 26 9
-0.33008 -0.0339897 0.298826 176 25 6
-0.329988 -0.0329237 0.298902 191 27 5
-0.330147 -0.0318533 0.298948 211 29 7
-0.33081 -0.0307697 0.298933 231 35 12
-0.33097 -0.0296927 0.298979 248 45 25
-0.331893 -0.0285906 0.298933 255 56 38
-0.33231 -0.0274972 0.298949 255 63 43
-0.332729 -0.0263993 0.298964 255 58 40
-0.33315 -0.0252969 0.29898 255 55 38
-0.333832 -0.0241779 0.298964 255 53 37
-0.335825 -0.0229846 0.298793 255 53 35
-0.358229 -0.00863132 0.296921 255 56 41
-0.358127 -0.00743636 0.297007 255 54 38
-0.359276 -0.00610719 0.296947 252 57 39
-0.360436 -0.00476607 0.296887 250 52 39
-0.362247 -0.0033386 0.296752 247 52 35
-0.362465 -0.00208593 0.296801 245 50 33
-0.363653 -0.000709635 0.29674 238 48 31
-0.363873 0.000553236 0.29679 231 42 24
-0.365404 0.00199323 0.29669 222 37 14
-0.367619 0.00354139 0.296513 217 35 15
-0.368855 0.004971 0.296448 212 40 25
-0.370784 0.00651353 0.296306 212 38 19
-0.373088 0.00812995 0.296122 214 38 17
-0.374024 0.00955598 0.296094 214 39 15
-0.374616 0.0109363 0.296106 213 35 14
-0.376272 0.0124966 0.295998 214 33 12
-0.378308 0.014136 0.295848 213 33 14
-0.378919 0.015549 0.29586 215 32 10
-0.385462 0.0180144 0.295208 219 34 10
-0.386486 0.0195405 0.295175 222 35 10
-0.389057 0.021363 0.294971 227 34 16
-0.38933 0.0227735 0.295024 234 38 22
-0.389603 0.0241876 0.295077 240 41 31
-0.389487 0.0255281 0.295173 246 46 36
-0.389372 0.0268688 0.295269 253 48 35
-0.388482 0.0280492 0.29545 255 52 38
-0.387982 0.0293052 0.295588 255 58 44
-0.388252 0.0307241 0.295641 255 69 55
-0.388523 0.0321467 0.295695 255 81 67
-0.389184 0.0336599 0.295706 255 94 79
-0.389457 0.0350916 0.29576 255 108 90
-0.389731 0.0365268 0.295814 255 117 101
-0.389615 0.037873 0.29591 255 124 112
-0.3895 0.0392191 0.296006 255 123 101
-0.389384 0.0405654 0.296103 255 100 70
-0.389268 0.0419117 0.296199 255 76 56
-0.332534 -0.0392996 0.297121 91 67 59
-0.331424 -0.0382164 0.297327 108 52 47
-0.331332 -0.0371452 0.297404 135 34 25
-0.33124 -0.0360739 0.297481 154 25 12
-0.330895 -0.0350039 0.297589 160 24 10
-0.330803 -0.0339336 0.297666 166 25 8
-0.330711 -0.0328632 0.297742 175 26 7
-0.330619 -0.0317928 0.297819 189 27 7
-0.331032 -0.0307113 0.297832 207 30 8
-0.331701 -0.0296187 0.297813 229 35 12
-0.332118 -0.0285273 0.297827 248 45 25
-0.332793 -0.0274226 0.297808 255 56 36
-0.333215 -0.0263211 0.297821 255 56 38
-0.333638 -0.0252152 0.297835 255 54 36
-0.334323 -0.0240924 0.297816 255 55 35
-0.335536 -0.0229356 0.297732 255 53 36
-0.336497 -0.0217817 0.29768 255 55 36
-0.336667 -0.0206665 0.297726 255 57 37
-0.337905 -0.01948 0.297641 255 60 37
-0.35575 -0.00879053 0.296025 254 57 40
-0.355648 -0.00760467 0.29611 252 55 37
-0.358332 -0.00611943 0.29586 249 52 37
-0.359485 -0.00478125 0.295795 246 49 34
-0.361606 -0.00331987 0.295614 243 48 30
-0.361822 -0.0020685 0.295662 236 45 26
-0.363331 -0.000653172 0.295557 223 41 21
-0.36355 0.000609876 0.295606 208 35 13
-0.365408 0.00209415 0.29546 199 31 6
-0.368633 0.00378367 0.295153 192 31 8
-0.370561 0.00531793 0.295002 191 33 12
-0.373907 0.00707744 0.294684 192 34 14
-0.37485 0.00850486 0.294651 194 34 11
-0.375093 0.00983295 0.294701 196 33 12
-0.376044 0.0112771 0.294667 196 30 10
-0.377002 0.0127316 0.294634 199 30 10
-0.377967 0.0141967 0.2946 201 31 12
-0.378578 0.01561 0.294609 203 30 11
-0.385113 0.0180768 0.293929 207 30 5
-0.388433 0.0200193 0.293626 212 30 2
-0.388704 0.0214264 0.293677 218 29 5
-0.388976 0.0228371 0.293728 223 32 10
-0.389248 0.0242514 0.293779 228 36 19
-0.389133 0.0255921 0.293875 235 40 26
-0.389018 0.0269328 0.293971 243 41 28
-0.388902 0.0282737 0.294067 250 46 32
-0.388014 0.0294508 0.294251 254 50 34
-0.388285 0.0308718 0.294302 255 54 39
-0.38817 0.0322111 0.294398 255 62 46
-0.388829 0.0337246 0.294406 255 74 59
-0.389102 0.0351565 0.294459 255 90 76
-0.389375 0.036592 0.294511 255 107 91
-0.38926 0.0379382 0.294607 255 117 101
-0.389144 0.0392845 0.294703 255 121 103
-0.389028 0.0406308 0.2948 255 114 92
-0.388912 0.0419773 0.294896 255 97 73
-0.388796 0.0433237 0.294992 255 78 60
-0.332668 -0.038181 0.296088 92 63 55
-0.332319 -0.0371024 0.296199 111 53 47
-0.331972 -0.036026 0.296309 132 38 30
-0.331879 -0.0349503 0.296386 151 26 12
-0.331533 -0.0338769 0.296496 159 25 8
-0.33144 -0.0328022 0.296573 165 23 8
-0.331856 -0.0317183 0.296584 174 24 9
-0.332019 -0.0306357 0.296627 188 27 9
-0.332437 -0.0295441 0.296638 207 29 8
-0.333115 -0.0284401 0.296616 228 34 12
-0.33328 -0.0273475 0.29666 245 45 24
-0.333703 -0.0262425 0.296671 253 54 36
-0.334129 -0.025133 0.296682 255 56 37
-0.335079 -0.0239939 0.296626 255 60 37
-0.335247 -0.0228866 0.296671 255 57 38
-0.335415 -0.0217769 0.296716 255 56 39
-0.336112 -0.020633 0.296693 255 58 41
-0.337613 -0.0194301 0.296569 255 60 40
-0.354014 -0.0100667 0.294983 255 55 41
-0.353913 -0.00888734 0.295067 253 55 38
-0.354418 -0.00764507 0.295076 250 52 34
-0.356462 -0.00623178 0.294893 247 48 30
-0.357913 -0.0048665 0.294785 241 47 27
-0.359064 -0.00352255 0.294715 233 44 24
-0.361501 -0.00201244 0.294486 215 42 20
-0.362684 -0.000637167 0.294414 192 36 17
-0.363227 0.000666503 0.294421 174 35 14
-0.365412 0.00219533 0.294227 166 31 11
-0.368641 0.00388807 0.293906 165 28 12
-0.373681 0.00586765 0.293364 169 27 12
-0.375681 0.0074461 0.293197 171 34 18
-0.376281 0.00883136 0.293202 175 33 14
-0.376527 0.0101679 0.29325 179 30 10
-0.376773 0.0115076 0.293298 181 29 10
-0.377378 0.0129094 0.293304 184 30 11
-0.377986 0.014318 0.293309 188 29 10
-0.378236 0.0156709 0.293357 191 24 8
-0.38552 0.0182731 0.292559 195 27 5
-0.387695 0.0200127 0.292379 201 27 1
-0.387965 0.0214182 0.292428 206 27 2
-0.388622 0.0229008 0.292431 211 29 3
-0.388507 0.0242399 0.292527 216 32 10
-0.388779 0.025656 0.292577 223 35 17
-0.388663 0.0269969 0.292673 231 37 20
-0.388548 0.0283378 0.292768 237 41 28
-0.388433 0.0296788 0.292864 243 46 34
-0.388317 0.0310199 0.29296 250 49 36
-0.388202 0.032361 0.293056 254 51 38
-0.388474 0.0337894 0.293107 255 56 45
-0.388746 0.0352214 0.293157 255 69 57
-0.38902 0.0366571 0.293208 255 86 72
-0.388904 0.0380035 0.293304 255 105 91
-0.388788 0.0393499 0.2934 255 119 101
-0.388672 0.0406963 0.293497 255 117 95
-0.388556 0.0420429 0.293593 255 107 90
-0.38844 0.0433894 0.293689 255 101 84
-0.388325 0.0447361 0.293785 255 86 66
-0.332802 -0.0370577 0.295051 95 64 58
-0.332453 -0.035978 0.295162 107 56 49
-0.332105 -0.0349003 0.295274 130 38 25
-0.332012 -0.0338223 0.295351 149 29 11
-0.332175 -0.0327407 0.295394 158 23 9
-0.332594 -0.0316523 0.295402 164 24 11
-0.332758 -0.0305651 0.295445 173 24 11
-0.33318 -0.0294689 0.295454 186 26 9
-0.333603 -0.0283681 0.295462 203 28 8
-0.334028 -0.0272629 0.295471 222 35 13
-0.334195 -0.0261634 0.295514 242 45 26
-0.334884 -0.0250388 0.295488 251 52 36
-0.335052 -0.0239324 0.295532 255 59 40
-0.33522 -0.0228238 0.295575 255 59 42
-0.335389 -0.0217129 0.295619 255 57 43
-0.336351 -0.0205514 0.295558 255 61 44
-0.337588 -0.0193629 0.295462 255 59 43
-0.339653 -0.0181056 0.295257 255 58 41
-0.351699 -0.0113835 0.294029 255 53 38
-0.352797 -0.0100991 0.293957 254 52 39
-0.353299 -0.00886347 0.293963 251 52 35
-0.353499 -0.00765383 0.294009 247 49 28
-0.354919 -0.00630987 0.293897 241 45 22
-0.356045 -0.00498567 0.293824 229 45 22
-0.358118 -0.00354036 0.29363 207 41 20
-0.360223 -0.00207223 0.293433 171 45 26
-0.362039 -0.000621195 0.293274 144 45 32
-0.362904 0.000723172 0.293237 132 46 34
-0.365416 0.00229674 0.292991 127 44 35
-0.373455 0.00465769 0.292044 132 39 32
-0.376163 0.00632879 0.291778 138 37 26
-0.376409 0.00766232 0.291824 146 38 22
-0.376655 0.00899911 0.291871 158 32 17
-0.376544 0.0102835 0.291963 165 28 10
-0.377149 0.0116824 0.291965 169 27 9
-0.377756 0.0130881 0.291966 172 26 9
-0.378006 0.0144396 0.292014 175 23 10
-0.378617 0.0158571 0.292016 178 19 7
-0.381432 0.017672 0.291743 184 24 4
-0.385814 0.0197979 0.291277 190 24 1
-0.387228 0.02141 0.291182 195 26 1
-0.387882 0.0228908 0.291182 201 28 1
-0.388153 0.0243036 0.29123 206 29 5
-0.388038 0.0256429 0.291326 214 31 9
-0.388309 0.027061 0.291374 219 31 11
-0.388194 0.028402 0.29147 224 34 18
-0.388078 0.0297431 0.291566 230 40 29
-0.387963 0.0310843 0.291662 238 43 34
-0.388234 0.0325112 0.29171 247 45 34
-0.388507 0.0339417 0.291759 253 47 35
-0.388779 0.0353758 0.291808 255 53 41
-0.388664 0.0367223 0.291904 255 63 48
-0.388548 0.0380687 0.292001 255 77 66
-0.388432 0.0394153 0.292097 255 98 86
-0.388316 0.0407618 0.292193 255 110 92
-0.3882 0.0421085 0.292289 255 106 91
-0.388084 0.0434552 0.292386 255 109 98
-0.387969 0.0448019 0.292482 255 110 95
-0.387853 0.0461488 0.292578 255 99 74
-0.332937 -0.0359297 0.294009 94 66 56
-0.332844 -0.0348473 0.294086 105 56 44
-0.332751 -0.0337648 0.294164 127 43 26
-0.332915 -0.0326787 0.294205 146 31 15
-0.33308 -0.0315904 0.294247 156 23 11
-0.333503 -0.0304939 0.294253 162 19 10
-0.333928 -0.029393 0.294259 170 22 10
-0.334355 -0.0282875 0.294265 182 25 8
-0.334522 -0.0271868 0.294307 197 30 9
-0.334689 -0.0260838 0.29435 217 35 15
-0.334857 -0.0249785 0.294392 235 41 25
-0.335287 -0.0238582 0.294398 248 51 36
-0.335193 -0.0227609 0.294477 253 57 43
-0.335362 -0.0216487 0.294519 255 59 46
-0.336325 -0.0204857 0.294454 255 64 47
-0.33837 -0.0192428 0.294242 255 58 44
-0.339357 -0.0180552 0.294175 255 56 42
-0.343683 -0.0166114 0.293657 255 54 40
-0.345567 -0.0153207 0.293471 255 54 38
-0.346614 -0.0140819 0.293398 255 55 40
-0.348834 -0.0127314 0.293168 254 54 39
-0.348734 -0.0115722 0.293251 253 54 38
-0.351289 -0.0101596 0.292978 250 53 36
-0.352385 -0.00886963 0.292902 247 51 31
-0.353188 -0.00759978 0.292866 239 49 28
-0.353692 -0.00635441 0.292869 224 44 20
-0.354503 -0.00506913 0.292832 197 44 23
-0.355936 -0.00370321 0.292714 158 46 27
-0.358638 -0.00216985 0.292427 119 56 44
-0.376919 0.0104552 0.290625 149 32 14
-0.377526 0.011858 0.290624 158 25 7
-0.377775 0.0132081 0.29067 163 19 7
-0.378386 0.0146227 0.290668 165 15 9
-0.378275 0.0159183 0.290761 169 17 6
-0.381086 0.0177339 0.290476 175 20 1
-0.383576 0.0195167 0.290235 180 18 0
-0.385729 0.0212594 0.290038 186 24 0
-0.387144 0.0228809 0.289936 192 23 1
-0.387413 0.0242921 0.289983 197 27 4
-0.387683 0.0257068 0.290029 203 28 5
-0.387954 0.0271251 0.290076 208 27 6
-0.387839 0.0284663 0.290171 214 29 8
-0.38811 0.0298899 0.290218 219 33 15
-0.387995 0.0312328 0.290314 225 37 21
-0.388267 0.0326618 0.290361 234 41 26
-0.388539 0.0340944 0.290408 243 43 31
-0.388423 0.0354409 0.290504 251 46 34
-0.388697 0.0368789 0.290552 254 49 36
-0.388581 0.0382271 0.290648 255 55 44
-0.388076 0.0394807 0.290793 255 69 58
-0.38796 0.0408274 0.290889 255 84 71
-0.387844 0.0421741 0.290986 255 92 81
-0.387728 0.0435209 0.291082 255 101 94
-0.387612 0.0448678 0.291178 255 114 108
-0.387497 0.0462148 0.291274 255 122 105
-0.387381 0.0475617 0.291371 255 102 70
-0.333331 -0.0347953 0.292926 90 68 56
-0.333496 -0.0337069 0.292966 100 60 48
-0.333662 -0.0326162 0.293007 123 50 33
-0.334087 -0.0315185 0.29301 140 33 20
-0.334254 -0.0304222 0.293051 153 21 11
-0.334682 -0.0293165 0.293055 161 20 10
-0.335112 -0.0282063 0.293059 168 25 10
-0.335018 -0.0271103 0.293137 177 28 11
-0.334923 -0.0260142 0.293215 191 30 13
-0.335092 -0.0249064 0.293256 209 34 14
-0.334997 -0.0238091 0.293335 228 42 22
-0.335166 -0.0226979 0.293376 243 51 34
-0.335598 -0.0215693 0.293381 250 57 43
-0.336831 -0.0203871 0.293273 253 61 45
-0.338616 -0.0191572 0.293089 255 59 44
-0.339606 -0.0179667 0.293017 255 57 42
-0.343103 -0.0165809 0.292595 255 53 39
-0.34413 -0.0153579 0.29252 254 52 34
-0.345166 -0.0141245 0.292443 253 54 36
-0.346211 -0.0128804 0.292366 251 54 37
-0.348428 -0.0115194 0.292128 248 49 33
-0.350386 -0.010163 0.291926 244 51 33
-0.351774 -0.00884583 0.291804 238 49 26
-0.352574 -0.00757719 0.291764 220 43 22
-0.353076 -0.00633304 0.291765 187 47 29
-0.353581 -0.00508338 0.291766 146 50 40
-0.354088 -0.00382814 0.291768 111 58 46
-0.377905 0.0120345 0.289277 141 31 15
-0.378155 0.0133882 0.289321 154 19 8
-0.378406 0.0147452 0.289365 160 14 6
-0.378294 0.0160424 0.289458 166 17 3
-0.38074 0.0177957 0.289209 169 16 3
-0.382108 0.0193746 0.289106 173 16 2
-0.383114 0.0208989 0.289051 177 19 1
-0.385263 0.0226519 0.288845 182 15 1
-0.386676 0.0242805 0.288738 187 23 3
-0.386945 0.0256936 0.288783 192 25 3
-0.387214 0.0271102 0.288828 198 26 3
-0.387484 0.0285305 0.288873 204 29 4
-0.387755 0.0299543 0.288918 208 31 5
-0.38764 0.0312974 0.289014 215 32 6
-0.388299 0.0328128 0.289008 222 34 15
-0.388183 0.0341593 0.289104 229 38 24
-0.388067 0.0355059 0.289201 238 41 30
-0.38834 0.0369441 0.289246 247 44 34
-0.388224 0.0382925 0.289343 252 48 36
-0.38772 0.0395461 0.289489 255 52 39
-0.387604 0.0408929 0.289586 255 61 48
-0.387488 0.0422397 0.289682 255 73 63
-0.387372 0.0435867 0.289778 255 89 82
-0.387256 0.0449337 0.289874 255 108 101
-0.38714 0.0462807 0.28997 255 124 107
-0.387024 0.0476278 0.290067 255 122 94
-0.387296 0.0490817 0.290114 255 96 68
-0.334247 -0.0336484 0.291759 88 66 58
-0.334675 -0.0325494 0.29176 99 65 53
-0.334843 -0.0314508 0.2918 113 55 41
-0.335274 -0.0303438 0.291801 131 39 28
-0.335442 -0.0292394 0.29184 148 30 15
-0.335612 -0.0281327 0.29188 157 29 11
-0.335517 -0.0270332 0.291959 164 26 12
-0.335422 -0.0259337 0.292037 172 31 14
-0.335328 -0.0248341 0.292116 185 29 10
-0.335497 -0.0237216 0.292156 203 33 9
-0.335402 -0.0226208 0.292235 219 37 16
-0.335572 -0.0215048 0.292275 230 45 30
-0.33734 -0.020288 0.292084 241 53 38
-0.338863 -0.0190714 0.29193 248 56 43
-0.339857 -0.0178779 0.291853 250 56 43
-0.342523 -0.0165504 0.291536 251 52 38
-0.343829 -0.0153062 0.291415 250 52 33
-0.344296 -0.0141196 0.291415 247 50 34
-0.345335 -0.0128782 0.291334 244 51 34
-0.347539 -0.0115199 0.291087 240 49 26
-0.349487 -0.0101664 0.290878 230 50 32
-0.351165 -0.00882208 0.290708 211 46 26
-0.352263 -0.00752317 0.290622 176 45 28
-0.352462 -0.00631171 0.290663 133 56 47
-0.352663 -0.00509752 0.290705 105 65 55
-0.378175 0.013509 0.288016 138 32 17
-0.378425 0.0148679 0.288058 153 19 7
-0.378677 0.0162301 0.288101 163 15 3
-0.380026 0.0177919 0.287992 166 13 5
-0.381019 0.0193012 0.287934 166 18 6
-0.381647 0.0207518 0.287926 169 14 3
-0.383026 0.0223532 0.287815 173 12 3
-0.384797 0.0240448 0.287652 179 16 2
-0.386207 0.0256805 0.287539 183 22 3
-0.386476 0.0270954 0.287582 187 26 2
-0.38713 0.0285947 0.287573 192 29 2
-0.3874 0.0300187 0.287617 198 28 2
-0.387285 0.0313619 0.287713 205 28 1
-0.387943 0.0328776 0.287704 212 29 5
-0.387827 0.0342243 0.2878 218 33 13
-0.387711 0.035571 0.287897 225 36 22
-0.387595 0.0369178 0.287993 234 41 29
-0.38748 0.0382646 0.288089 243 43 33
-0.387364 0.0396115 0.288185 250 46 33
-0.387248 0.0409584 0.288281 254 51 35
-0.387132 0.0423054 0.288378 255 58 44
-0.387016 0.0436525 0.288474 255 71 62
-0.3869 0.0449996 0.28857 255 91 85
-0.386784 0.0463467 0.288666 255 111 97
-0.386668 0.047694 0.288763 255 110 88
-0.386552 0.0490412 0.288859 255 94 72
-0.386823 0.0504971 0.288904 255 84 63
-0.335341 -0.0313875 0.290619 92 63 56
-0.335774 -0.0302769 0.290617 103 59 50
-0.335944 -0.029169 0.290656 120 50 36
-0.335849 -0.0280671 0.290735 137 38 23
-0.335754 -0.0269653 0.290813 149 34 17
-0.33566 -0.0258634 0.290892 160 30 12
-0.335301 -0.0247732 0.29101 169 28 10
-0.335206 -0.0236723 0.291089 180 31 8
-0.335375 -0.0225574 0.291128 193 29 10
-0.335545 -0.0214401 0.291167 202 34 18
-0.337853 -0.0201882 0.290888 214 40 23
-0.339111 -0.0189851 0.290766 224 47 33
-0.339833 -0.017808 0.290725 232 51 37
-0.341945 -0.0165199 0.290478 236 49 31
-0.342685 -0.0153212 0.290435 236 49 30
-0.343711 -0.0140914 0.29035 233 48 33
-0.344747 -0.0128509 0.290264 229 46 30
-0.346944 -0.0114938 0.290009 218 46 21
-0.348591 -0.0101697 0.289834 193 45 27
-0.350855 -0.0087684 0.289571 160 49 32
-0.351651 -0.00750067 0.289523 120 60 51
-0.35215 -0.00625752 0.28952 101 69 60
-0.378445 0.014991 0.286748 134 33 20
-0.378333 0.0162915 0.286841 154 19 7
-0.379315 0.0177881 0.286778 161 15 5
-0.380303 0.0192956 0.286715 162 13 7
-0.380929 0.0207446 0.286705 164 12 4
-0.381186 0.0221293 0.286746 167 13 3
-0.382563 0.0237376 0.28663 171 14 4
-0.385091 0.0255907 0.286352 173 17 5
-0.385739 0.0270807 0.28634 177 25 2
-0.38639 0.0285782 0.286328 182 25 1
-0.38666 0.0300005 0.28637 189 24 0
-0.386929 0.0314265 0.286412 196 25 0
-0.3872 0.032856 0.286454 203 27 2
-0.387471 0.0342892 0.286496 207 29 8
-0.387355 0.0356361 0.286592 214 32 13
-0.387239 0.0369829 0.286689 222 34 17
-0.387123 0.0383299 0.286785 230 38 24
-0.387008 0.0396769 0.286881 239 42 29
-0.386892 0.041024 0.286977 247 46 31
-0.386776 0.0423711 0.287073 253 50 34
-0.38666 0.0437182 0.287169 255 55 42
-0.386544 0.0450655 0.287266 255 67 59
-0.386428 0.0464128 0.287362 255 87 76
-0.386312 0.0477601 0.287458 255 102 81
-0.386196 0.0491075 0.287554 255 96 76
-0.386466 0.0505635 0.287598 255 89 68
-0.386737 0.0520233 0.287642 255 81 62
-0.336012 -0.0302158 0.289468 89 62 58
-0.336183 -0.0291054 0.289505 94 65 57
-0.336088 -0.0280012 0.289584 105 57 45
-0.335728 -0.0269067 0.289704 120 54 37
-0.335368 -0.0258143 0.289823 139 41 22
-0.335273 -0.0247122 0.289902 151 36 14
-0.335179 -0.0236101 0.289981 163 32 14
-0.335348 -0.0224939 0.290019 171 27 13
-0.336048 -0.0213446 0.289975 177 33 15
-0.338098 -0.0201046 0.289726 187 33 15
-0.339087 -0.0189165 0.289639 197 35 16
-0.33981 -0.0177379 0.289594 205 37 21
-0.341646 -0.0164687 0.28938 207 40 21
-0.342384 -0.0152697 0.289333 208 40 20
-0.343128 -0.0140631 0.289287 205 40 23
-0.34416 -0.0128238 0.289197 194 40 23
-0.346349 -0.0114678 0.288932 172 43 24
-0.347991 -0.0101448 0.288751 136 51 39
-0.350247 -0.00874472 0.288478 112 68 56
-0.35104 -0.00747822 0.288427 96 70 60
-0.378717 0.0164804 0.285474 133 34 20
-0.379702 0.0179814 0.285406 151 17 10
-0.379957 0.0193577 0.285446 158 12 9
-0.380581 0.0208069 0.285432 161 15 4
-0.380838 0.0221918 0.285472 162 16 2
-0.38184 0.0237269 0.285404 166 15 4
-0.383225 0.0253492 0.28528 167 17 5
-0.384623 0.0269876 0.285156 171 20 2
-0.385653 0.0285617 0.285086 175 20 0
-0.385921 0.0299824 0.285126 181 20 0
-0.386189 0.0314066 0.285166 187 24 0
-0.386459 0.0328345 0.285207 194 23 0
-0.386728 0.034266 0.285247 197 25 5
-0.386613 0.0356113 0.285343 203 28 8
-0.386883 0.0370482 0.285384 212 30 8
-0.386767 0.0383952 0.28548 219 33 13
-0.386651 0.0397423 0.285576 225 36 22
-0.386535 0.0410895 0.285672 234 41 28
-0.386419 0.0424368 0.285769 244 45 31
-0.386303 0.043784 0.285865 251 48 33
-0.386187 0.0451314 0.285961 255 53 40
-0.386072 0.0464788 0.286057 255 65 52
-0.385956 0.0478263 0.286153 255 81 65
-0.38584 0.0491738 0.28625 255 87 70
-0.385724 0.0505213 0.286346 255 84 67
-0.385993 0.0519793 0.286388 255 80 64
-0.386264 0.053441 0.28643 255 78 58
-0.336327 -0.0279351 0.288428 89 65 58
-0.335966 -0.0268382 0.28855 97 65 55
-0.335871 -0.0257327 0.288628 105 58 43
-0.335776 -0.0246272 0.288707 117 50 30
-0.335681 -0.0235216 0.288786 131 43 30
-0.335851 -0.0224017 0.288823 144 35 25
-0.337091 -0.0212174 0.288692 150 40 20
-0.338615 -0.0200037 0.288516 157 35 20
-0.339063 -0.0188479 0.28851 164 33 13
-0.339513 -0.0176871 0.288504 168 33 14
-0.341346 -0.0164174 0.288282 168 33 14
-0.341805 -0.0152404 0.288276 165 36 17
-0.342827 -0.0140113 0.288182 161 36 19
-0.343292 -0.0128216 0.288175 140 43 29
-0.345469 -0.0114684 0.287902 117 58 44
-0.347684 -0.0100918 0.287624 100 64 54
-0.349937 -0.00869107 0.287342 96 68 57
-0.379723 0.0181094 0.284083 131 37 26
-0.380347 0.0195556 0.284066 150 20 11
-0.380604 0.0209391 0.284104 156 17 4
-0.381232 0.0223977 0.284086 159 17 2
-0.381491 0.0237898 0.284125 163 17 3
-0.382124 0.0252609 0.284107 163 16 1
-0.38276 0.0267393 0.28409 167 14 1
-0.384156 0.0283848 0.283959 169 19 1
-0.385184 0.0299643 0.283885 172 19 0
-0.385451 0.0313869 0.283923 175 24 1
-0.385719 0.0328131 0.283962 183 19 1
-0.385988 0.0342429 0.284001 188 21 2
-0.386257 0.0356763 0.28404 194 25 3
-0.386141 0.0370217 0.284136 201 27 3
-0.386411 0.0384606 0.284175 208 29 9
-0.386295 0.0398078 0.284272 214 31 16
-0.386179 0.0411551 0.284368 220 34 20
-0.386063 0.0425024 0.284464 229 38 24
-0.385947 0.0438499 0.28456 241 42 26
-0.385831 0.0451973 0.284656 250 47 32
-0.385715 0.0465448 0.284752 253 51 39
-0.385599 0.0478924 0.284848 255 57 46
-0.385483 0.0492401 0.284945 255 68 54
-0.385367 0.0505878 0.285041 255 76 59
-0.385636 0.0520459 0.285081 255 79 64
-0.38552 0.0533954 0.285178 255 80 61
-0.38579 0.054859 0.285218 255 76 56
-0.336377 -0.0256507 0.287426 86 63 54
-0.336281 -0.0245416 0.287505 89 61 49
-0.336186 -0.0234325 0.287584 92 61 53
-0.336893 -0.02228 0.287533 98 59 50
-0.336797 -0.0211674 0.287613 106 53 36
-0.338319 -0.0199534 0.28743 112 49 33
-0.338767 -0.0187973 0.287422 122 45 28
-0.339216 -0.0176363 0.287414 124 47 26
-0.340493 -0.016408 0.287273 119 49 31
-0.341227 -0.0152112 0.28722 112 54 39
-0.341407 -0.0140538 0.287256 109 56 43
-0.342427 -0.0128195 0.287158 99 62 55
-0.343173 -0.0116009 0.287104 91 63 56
-0.347376 -0.0100387 0.286497 89 65 55
-0.380369 0.0196861 0.282735 132 37 27
-0.380997 0.0211418 0.282715 150 18 8
-0.381255 0.0225324 0.282751 157 20 3
-0.381514 0.0239265 0.282788 161 18 2
-0.381774 0.0253241 0.282825 160 18 2
-0.38166 0.0266478 0.282919 162 14 4
-0.382295 0.0281298 0.282899 165 17 4
-0.384068 0.0298642 0.282705 167 17 2
-0.384714 0.0313672 0.282683 167 19 3
-0.385364 0.0328777 0.282662 173 19 1
-0.385632 0.0343077 0.282699 179 20 0
-0.385516 0.0356515 0.282795 184 23 2
-0.385785 0.0370869 0.282833 190 25 2
-0.385669 0.0384325 0.282929 196 25 6
-0.385939 0.0398733 0.282967 202 27 9
-0.385823 0.0412207 0.283063 209 29 11
-0.385707 0.0425681 0.283159 217 33 14
-0.385591 0.0439157 0.283255 227 36 17
-0.385475 0.0452632 0.283351 238 40 23
-0.385359 0.0466109 0.283447 246 45 29
-0.385243 0.0479586 0.283543 253 49 34
-0.385127 0.0493064 0.28364 255 54 40
-0.385011 0.0506542 0.283736 255 65 48
-0.384895 0.052002 0.283832 255 75 58
-0.385163 0.0534621 0.283871 255 78 61
-0.385047 0.0548118 0.283967 255 76 57
-0.385316 0.0562774 0.284006 255 75 56
-0.38102 0.0212748 0.281378 131 35 27
-0.381278 0.0226675 0.281413 149 22 9
-0.381164 0.0239895 0.281507 156 16 6
-0.381423 0.0253873 0.281542 157 16 6
-0.381309 0.0267111 0.281637 158 16 7
-0.381569 0.0281141 0.281672 163 14 4
-0.382581 0.029683 0.281589 165 14 4
-0.3836 0.0312637 0.281506 164 16 4
-0.384626 0.0328562 0.281422 166 18 2
-0.384893 0.0342845 0.281458 169 22 2
-0.385161 0.0357165 0.281493 174 22 2
-0.385429 0.037152 0.281529 179 22 1
-0.385313 0.0384978 0.281625 185 22 1
-0.385582 0.0399387 0.281661 191 25 2
-0.385466 0.0412863 0.281757 199 28 3
-0.38535 0.0426339 0.281854 207 29 7
-0.385234 0.0439815 0.28195 215 31 11
-0.385118 0.0453292 0.282046 224 35 14
-0.385002 0.046677 0.282142 235 40 17
-0.384886 0.0480248 0.282238 244 45 25
-0.38477 0.0493726 0.282334 252 48 32
-0.384654 0.0507206 0.28243 255 55 38
-0.384538 0.0520686 0.282526 255 63 47
-0.384422 0.0534166 0.282623 255 70 54
-0.384306 0.0547647 0.282719 255 73 57
-0.384574 0.0562285 0.282756 255 77 59
-0.384458 0.0575784 0.282853 255 76 56
-0.380928 0.0227303 0.280132 130 36 28
-0.381187 0.0241266 0.280165 148 18 12
-0.381073 0.0254505 0.28026 155 14 5
-0.380959 0.0267744 0.280354 156 17 8
-0.381218 0.0281776 0.280388 160 16 5
-0.381853 0.0296654 0.280361 162 15 4
-0.382491 0.0311608 0.280334 161 16 4
-0.383511 0.0327491 0.280246 162 15 4
-0.384156 0.0342615 0.280219 163 20 3
-0.384423 0.0356917 0.280253 167 19 1
-0.385073 0.0372172 0.280225 171 18 1
-0.384957 0.0385631 0.280321 176 20 1
-0.384841 0.039909 0.280417 182 23 1
-0.384726 0.0412549 0.280513 190 26 0
-0.384994 0.0426996 0.280548 197 27 3
-0.384878 0.0440473 0.280644 204 29 7
-0.384762 0.0453952 0.28074 213 32 9
-0.384646 0.046743 0.280836 223 35 11
-0.38453 0.048091 0.280932 232 39 17
-0.384413 0.049439 0.281029 242 43 23
-0.384297 0.050787 0.281125 250 49 29
-0.384181 0.0521351 0.281221 255 53 36
-0.384065 0.0534833 0.281317 255 59 44
-0.383949 0.0548315 0.281413 255 68 51
-0.383833 0.0561798 0.281509 255 74 55
-0.3841 0.0576455 0.281545 255 76 56
-0.383984 0.0589956 0.281641 255 73 52
-0.38121 0.0242641 0.27882 128 35 28
-0.381096 0.0255897 0.278914 149 19 10
-0.380982 0.0269154 0.279009 155 13 6
-0.380868 0.0282411 0.279103 157 15 6
-0.381501 0.0297292 0.279073 158 16 5
-0.381762 0.0311415 0.279106 158 19 5
-0.383157 0.0328135 0.27895 160 19 7
-0.383421 0.0342384 0.278983 161 18 5
-0.383686 0.035667 0.279015 163 17 3
-0.384334 0.0371907 0.278985 166 14 2
-0.384601 0.0386284 0.279017 169 17 3
-0.384485 0.0399744 0.279113 174 20 3
-0.384369 0.0413205 0.279209 181 21 2
-0.384254 0.0426666 0.279305 188 24 2
-0.384138 0.0440128 0.279401 194 27 4
-0.384405 0.0454611 0.279434 202 29 7
-0.384289 0.0468091 0.279531 212 30 9
-0.384173 0.0481572 0.279627 221 33 11
-0.384057 0.0495053 0.279723 230 38 15
-0.383941 0.0508534 0.279819 239 44 23
-0.383825 0.0522017 0.279915 250 48 29
-0.383709 0.05355 0.280011 254 52 38
-0.383593 0.0548983 0.280107 255 59 42
-0.383476 0.0562467 0.280203 255 66 47
-0.38336 0.0575951 0.280299 255 70 51
-0.383627 0.0590628 0.280334 255 70 49
-0.383894 0.0605343 0.280368 255 67 48
-0.380745 0.025653 0.277629 130 35 22
-0.380631 0.0269788 0.277724 149 17 8
-0.38089 0.0283842 0.277754 155 16 7
-0.38115 0.029793 0.277785 156 19 8
-0.38141 0.0312055 0.277816 157 16 8
-0.382803 0.0328779 0.277654 159 17 6
-0.382688 0.0342155 0.277749 160 18 4
-0.382952 0.0356424 0.27778 160 19 4
-0.383597 0.0371642 0.277747 162 16 4
-0.383863 0.0386002 0.277778 166 14 3
-0.384129 0.0400398 0.277809 168 15 5
-0.384013 0.041386 0.277905 172 15 5
-0.383897 0.0427323 0.278001 178 21 3
-0.383781 0.0440786 0.278097 184 25 2
-0.383666 0.045425 0.278193 191 26 4
-0.383932 0.0468752 0.278225 201 29 7
-0.383816 0.0482234 0.278321 209 31 8
-0.3837 0.0495716 0.278417 217 34 11
-0.383584 0.0509199 0.278513 226 38 17
-0.383468 0.0522683 0.278609 239 43 23
-0.383352 0.0536166 0.278705 247 47 31
-0.383236 0.0549651 0.278801 254 50 34
-0.38312 0.0563136 0.278897 255 56 40
-0.383004 0.0576622 0.278993 255 62 44
-0.382887 0.0590108 0.279089 255 66 48
-0.383153 0.0604805 0.279122 255 69 50
-0.383804 0.0620771 0.279092 255 67 48
-0.380653 0.0271202 0.276373 128 37 25
-0.380912 0.0285276 0.276402 146 20 9
-0.381172 0.0299385 0.276431 153 17 7
-0.381809 0.0314367 0.276395 155 15 7
-0.382449 0.0329424 0.276358 158 17 4
-0.382334 0.03428 0.276453 158 19 5
-0.382597 0.0357071 0.276482 159 19 3
-0.382861 0.0371378 0.276512 160 16 2
-0.383507 0.0386654 0.276475 162 15 4
-0.383391 0.04001 0.276571 162 16 5
-0.383657 0.0414516 0.2766 164 15 4
-0.383541 0.0427979 0.276696 169 20 2
-0.383425 0.0441444 0.276792 174 22 2
-0.383309 0.0454909 0.276888 181 22 2
-0.383575 0.0469413 0.276918 189 27 4
-0.383459 0.0482896 0.277014 198 31 6
-0.383343 0.049638 0.27711 205 32 9
-0.383227 0.0509864 0.277206 214 34 11
-0.383111 0.0523348 0.277303 225 36 13
-0.382995 0.0536834 0.277399 236 43 22
-0.382879 0.0550319 0.277495 247 47 27
-0.382763 0.0563806 0.277591 252 49 35
-0.382647 0.0577292 0.277687 255 55 40
-0.38253 0.059078 0.277783 255 62 45
-0.382796 0.0605479 0.277814 255 69 50
-0.383445 0.0621448 0.277781 255 68 48
-0.384484 0.0638758 0.277681 255 64 48
-0.380935 0.0286714 0.275046 123 40 27
-0.381571 0.0301665 0.275006 144 20 10
-0.38221 0.0316691 0.274966 153 17 7
-0.382095 0.0330068 0.275061 156 18 5
-0.382358 0.0344324 0.275089 156 15 5
-0.382243 0.0357719 0.275184 158 16 2
-0.382506 0.0372028 0.275212 159 16 4
-0.38277 0.0386372 0.27524 160 15 5
-0.383035 0.0400754 0.275268 160 16 5
-0.383301 0.0415171 0.275296 160 15 4
-0.383185 0.0428636 0.275392 163 15 1
-0.383069 0.0442102 0.275488 168 18 3
-0.382953 0.0455568 0.275583 173 18 4
-0.383219 0.0470074 0.275612 180 20 4
-0.383102 0.0483559 0.275708 188 26 3
-0.382986 0.0497043 0.275804 196 28 4
-0.38287 0.0510528 0.2759 204 30 6
-0.382754 0.0524014 0.275996 213 32 6
-0.382638 0.0537501 0.276092 223 38 12
-0.382522 0.0550988 0.276188 234 42 19
-0.382406 0.0564475 0.276284 244 46 29
-0.38229 0.0577963 0.27638 252 50 34
-0.382555 0.0592646 0.27641 255 55 39
-0.382821 0.0607367 0.276439 255 61 45
-0.383087 0.0622124 0.276469 255 68 50
-0.383739 0.0638178 0.276432 255 65 48
-0.384008 0.0653031 0.276462 248 63 50
-0.381971 0.0303956 0.273574 122 39 30
-0.381856 0.0317334 0.273669 144 24 11
-0.382119 0.0331574 0.273695 153 17 4
-0.382003 0.034497 0.27379 155 18 2
-0.382267 0.0359264 0.273816 156 15 3
-0.382151 0.0372677 0.273912 157 15 4
-0.382415 0.0387024 0.273938 158 14 3
-0.382679 0.0401407 0.273964 158 17 3
-0.382563 0.0414856 0.27406 159 17 5
-0.382828 0.0429293 0.274087 162 15 2
-0.382712 0.044276 0.274182 164 13 1
-0.382978 0.0457251 0.274209 166 13 4
-0.382862 0.0470736 0.274305 171 18 4
-0.382746 0.0484221 0.274401 179 23 2
-0.382629 0.0497707 0.274497 188 26 2
-0.382513 0.0511193 0.274593 195 28 2
-0.382397 0.052468 0.274689 202 29 4
-0.382281 0.0538168 0.274785 212 32 7
-0.382165 0.0551656 0.274881 221 35 11
-0.382049 0.0565145 0.274977 231 42 21
-0.381933 0.0578634 0.275073 243 47 26
-0.382197 0.0593319 0.275101 252 49 32
-0.382463 0.0608041 0.275129 255 55 41
-0.382346 0.0621566 0.275225 255 63 47
-0.382995 0.0637599 0.275185 255 63 48
-0.383263 0.0652434 0.275213 255 64 48
-0.383531 0.0667308 0.275242 232 60 45
-0.382258 0.0319671 0.27223 125 36 29
-0.382143 0.0333085 0.272325 146 18 7
-0.382027 0.0346498 0.272421 152 15 1
-0.381912 0.0359912 0.272516 154 14 2
-0.381796 0.0373327 0.272612 155 16 5
-0.382059 0.0387676 0.272636 160 13 3
-0.382323 0.0402061 0.272661 159 16 3
-0.382207 0.0415511 0.272757 158 15 5
-0.382472 0.042995 0.272781 160 15 3
-0.382356 0.0443418 0.272877 162 13 1
-0.382621 0.0457911 0.272902 164 13 1
-0.382505 0.0471397 0.272998 167 16 1
-0.382389 0.0484884 0.273094 172 20 0
-0.382272 0.0498371 0.27319 178 24 1
-0.382156 0.0511858 0.273286 184 25 3
-0.38204 0.0525346 0.273382 191 28 4
-0.381924 0.0538835 0.273478 199 31 6
-0.381808 0.0552325 0.273574 209 31 8
-0.382072 0.0566977 0.2736 219 37 13
-0.381956 0.0580484 0.273696 231 42 19
-0.38184 0.0593992 0.273793 242 46 26
-0.381723 0.06075 0.273889 251 49 36
-0.381988 0.0622242 0.273915 255 56 41
-0.382253 0.0637022 0.273942 255 62 46
-0.38252 0.0651839 0.273968 255 63 47
-0.382786 0.0666694 0.273995 255 66 46
-0.381788 0.0333731 0.271025 123 34 26
