ply
format ascii 1.0
element vertex 1244
property float x
property float y
property float z
property uchar diffuse_red
property uchar diffuse_green
property uchar diffuse_blue
end_header
-0.301167 0.0340697 0.241145 255 78 58
-0.301059 0.0350915 0.24119 255 72 50
-0.301156 0.0361716 0.241153 255 67 48
-0.301664 0.0373714 0.240949 255 68 48
-0.378934 0.0648268 0.209819 255 54 37
-0.376992 0.0656916 0.210604 255 59 38
-0.375816 0.0667789 0.21108 255 66 42
-0.374645 0.0678607 0.211553 255 66 45
-0.373851 0.0690553 0.211875 255 60 40
-0.373058 0.0702469 0.212197 255 56 34
-0.372635 0.0715567 0.212369 255 53 37
-0.372212 0.0728666 0.212542 255 54 37
-0.371789 0.0741766 0.212714 255 54 37
-0.3721 0.0757402 0.212591 255 53 36
-0.372413 0.0773118 0.212467 255 50 33
-0.375727 0.0799568 0.211134 255 45 33
-0.380296 0.0830928 0.209295 255 50 35
-0.380642 0.0847361 0.209158 255 51 38
-0.380989 0.0863882 0.20902 255 50 38
-0.389888 0.0912622 0.205438 255 53 39
-0.390693 0.0931495 0.205115 255 55 40
-0.390237 0.0945627 0.205301 255 62 44
-0.38978 0.095976 0.205488 255 66 52
-0.390588 0.0978908 0.205164 255 69 56
-0.39013 0.0993101 0.205351 255 75 58
-0.390094 0.100901 0.205368 255 78 61
-0.389635 0.102323 0.205555 255 87 67
-0.389176 0.103744 0.205742 255 90 66
-0.388717 0.105166 0.205929 255 91 71
-0.387837 0.106407 0.206286 255 88 65
-0.387379 0.107827 0.206473 255 88 66
-0.38692 0.109247 0.20666 255 93 72
-0.387139 0.117516 0.206583 255 88 72
-0.386676 0.118948 0.206772 255 79 57
-0.386635 0.12058 0.206791 249 75 51
-0.386172 0.122015 0.20698 234 60 52
-0.385708 0.123449 0.207168 179 57 51
-0.384826 0.124676 0.207526 109 56 52
-0.383946 0.1259 0.207883 88 54 41
-0.383901 0.12754 0.207903 79 58 46
-0.383438 0.128973 0.208092 79 58 46
-0.384229 0.131051 0.207776 77 57 49
-0.383765 0.13249 0.207965 76 57 52
-0.385407 0.135038 0.207306 75 60 48
-0.425335 0.161853 0.191238 78 61 54
-0.424802 0.163501 0.191455 77 64 61
-0.42427 0.16515 0.191672 89 68 61
-0.423194 0.166494 0.192108 94 76 68
-0.422121 0.167834 0.192543 130 97 95
-0.419448 0.168251 0.193622 181 151 143
-0.416284 0.168361 0.194898 188 172 158
-0.413169 0.168468 0.196154 170 164 150
-0.411626 0.169473 0.196778 166 162 149
-0.410093 0.170471 0.197398 175 170 154
-0.408569 0.171463 0.198014 176 172 153
-0.406061 0.171846 0.199026 162 153 140
-0.404073 0.172524 0.199829 169 150 131
-0.403075 0.173798 0.200233 187 164 129
-0.401596 0.174765 0.200831 150 129 115
-0.399168 0.175122 0.201811 125 120 124
-0.395831 0.174877 0.203157 155 134 154
-0.3944 0.175824 0.203736 150 132 118
-0.392977 0.176765 0.204311 118 97 104
-0.392021 0.178 0.204698 85 93 78
-0.391068 0.179232 0.205084 73 67 59
-0.389211 0.179856 0.205834 72 65 58
-0.388268 0.181078 0.206216 71 62 58
-0.38688 0.181993 0.206778 75 61 54
-0.355955 0.00257326 0.217692 81 57 41
-0.3565 0.00381457 0.217469 83 54 36
-0.357357 0.00509676 0.217119 142 45 33
-0.358534 0.00642479 0.216639 227 50 34
-0.359409 0.00773217 0.216282 253 54 35
-0.359976 0.00901416 0.21605 255 59 37
-0.361183 0.0103833 0.215557 255 63 39
-0.361121 0.0116049 0.215583 255 66 43
-0.3617 0.0129138 0.215346 255 72 51
-0.362606 0.014276 0.214977 255 78 59
-0.364832 0.0158354 0.214068 255 88 67
-0.407232 0.033514 0.196765 255 77 60
-0.406779 0.0349152 0.196949 255 81 62
-0.300611 0.0309039 0.240271 255 99 81
-0.298892 0.0315035 0.240972 255 87 71
-0.298984 0.0325629 0.240934 255 77 61
-0.299075 0.0336262 0.240897 255 72 51
-0.299369 0.0347482 0.240777 255 70 46
-0.300885 0.0362138 0.240158 255 66 44
-0.382852 0.0646998 0.206709 255 60 36
-0.380478 0.0654606 0.207677 255 58 38
-0.378135 0.0662116 0.208633 255 63 43
-0.376197 0.0670695 0.209424 255 68 48
-0.37465 0.068036 0.210055 255 66 48
-0.373854 0.0692319 0.210379 255 64 43
-0.373061 0.0704249 0.210703 255 55 35
-0.372269 0.0716149 0.211026 255 51 33
-0.372213 0.0730483 0.211048 255 53 34
-0.372158 0.0744854 0.211071 255 51 35
-0.372471 0.0760538 0.210943 255 51 38
-0.375785 0.0786826 0.20959 255 47 35
-0.378412 0.0811049 0.208518 255 47 39
-0.380308 0.083295 0.207744 255 47 35
-0.380261 0.0847974 0.207763 255 47 28
-0.380214 0.0863037 0.207782 255 45 30
-0.380955 0.088111 0.207479 255 48 37
-0.38904 0.0927332 0.20418 255 48 37
-0.389841 0.0946268 0.203852 255 48 38
-0.389385 0.0960402 0.204039 255 53 41
-0.390191 0.0979554 0.203709 255 54 41
-0.389733 0.0993748 0.203896 255 60 42
-0.389697 0.100966 0.203911 255 63 47
-0.389237 0.102388 0.204098 255 70 49
-0.388778 0.103809 0.204285 255 77 55
-0.388319 0.105231 0.204472 255 75 61
-0.38786 0.106653 0.204659 255 82 64
-0.387401 0.108074 0.204847 255 79 64
-0.386941 0.109496 0.205034 255 82 65
-0.387742 0.111479 0.204707 255 90 69
-0.387583 0.117977 0.204771 255 144 114
-0.387119 0.119413 0.20496 255 128 88
-0.386655 0.120849 0.205149 255 93 70
-0.386191 0.122285 0.205338 255 77 59
-0.385728 0.123722 0.205527 246 73 53
-0.384844 0.12495 0.205888 228 59 49
-0.383962 0.126176 0.206247 166 56 44
-0.383499 0.127608 0.206436 101 54 47
-0.383872 0.129467 0.206284 82 58 44
-0.383826 0.13112 0.206302 76 58 50
-0.383781 0.132777 0.20632 76 59 55
-0.385425 0.135331 0.205649 75 59 49
-0.42434 0.16358 0.189766 129 117 105
-0.423808 0.165229 0.189983 141 94 86
-0.423275 0.166878 0.1902 132 88 89
-0.4222 0.168219 0.190639 177 143 126
-0.41899 0.16833 0.191949 200 174 153
-0.413753 0.167237 0.194086 180 165 151
-0.411695 0.167948 0.194926 165 157 143
-0.410161 0.168951 0.195551 169 161 147
-0.408637 0.169947 0.196173 177 165 147
-0.406625 0.170638 0.196994 167 149 131
-0.404631 0.171323 0.197807 144 121 113
-0.403142 0.172301 0.198415 151 128 122
-0.401663 0.173273 0.199018 170 151 134
-0.400192 0.174238 0.199618 149 131 122
-0.39778 0.174598 0.200602 188 186 166
-0.394465 0.174358 0.201955 231 220 225
-0.393042 0.175304 0.202535 220 217 190
-0.391628 0.176244 0.203112 176 157 143
-0.391133 0.177776 0.203314 119 116 113
-0.390183 0.179007 0.203702 86 81 70
-0.388783 0.179932 0.204273 75 67 60
-0.386944 0.18055 0.205023 74 64 58
-0.386008 0.181766 0.205405 75 65 57
-0.383753 0.182071 0.206325 72 64 55
-0.354491 0.00133035 0.216986 78 48 39
-0.354725 0.00253133 0.216887 80 50 37
-0.355264 0.00376842 0.216662 92 52 38
-0.355807 0.00501392 0.216436 193 45 33
-0.356661 0.0063017 0.216082 246 52 35
-0.357833 0.00763671 0.215596 255 59 36
-0.358705 0.00894978 0.215234 255 62 39
-0.358955 0.0101974 0.215129 255 64 41
-0.35889 0.0114105 0.215153 255 69 46
-0.358511 0.0125849 0.215308 255 77 57
-0.358761 0.0138453 0.215203 255 86 68
-0.361888 0.015517 0.213909 255 96 76
-0.405101 0.0317925 0.196047 255 76 60
-0.404652 0.0331843 0.19623 255 79 60
-0.404202 0.0345761 0.196413 255 83 60
-0.403753 0.0359679 0.196597 255 86 62
-0.298934 0.0305898 0.239866 255 89 70
-0.297238 0.0311877 0.240565 255 78 63
-0.297523 0.0322914 0.240446 255 73 55
-0.298009 0.0334545 0.240243 255 71 49
-0.298899 0.0347353 0.239874 255 67 44
-0.38619 0.05993 0.203805 255 65 43
-0.38695 0.0616196 0.203489 255 66 45
-0.386511 0.0629777 0.203667 255 65 44
-0.384088 0.0637579 0.204666 255 61 40
-0.381309 0.0644129 0.205812 255 57 38
-0.380105 0.0655192 0.206307 255 61 40
-0.378907 0.0666198 0.2068 255 67 47
-0.376957 0.0674791 0.207603 255 66 48
-0.375028 0.0683295 0.208398 255 66 50
-0.373858 0.069409 0.208879 255 66 45
-0.373433 0.0707241 0.209052 255 57 40
-0.372271 0.0717948 0.20953 255 51 34
-0.372215 0.0732304 0.209551 255 52 30
-0.372528 0.0747957 0.209419 255 50 33
-0.374711 0.077016 0.208514 255 47 32
-0.378085 0.0796816 0.207117 255 45 33
-0.378035 0.0811654 0.207135 255 44 27
-0.379929 0.0833561 0.20635 255 41 18
-0.379881 0.0848587 0.206367 255 38 17
-0.379833 0.0863652 0.206385 255 43 21
-0.380178 0.0880242 0.206239 255 42 25
-0.384937 0.0913789 0.20427 255 40 27
-0.388191 0.0942046 0.202922 255 44 33
-0.38899 0.0961045 0.202589 255 46 32
-0.389794 0.0980201 0.202254 255 48 31
-0.389758 0.0996098 0.202266 255 49 38
-0.389299 0.101031 0.202453 255 52 39
-0.389262 0.102628 0.202466 255 52 40
-0.38838 0.103875 0.202828 255 62 42
-0.387921 0.105296 0.203015 255 62 43
-0.387462 0.106718 0.203202 255 66 48
-0.387422 0.108322 0.203216 255 70 54
-0.387382 0.109931 0.203229 255 72 57
-0.387342 0.111545 0.203243 255 75 60
-0.388998 0.113928 0.202556 255 85 64
-0.39021 0.117793 0.202049 255 104 84
-0.388456 0.11864 0.202772 255 108 92
-0.386717 0.11948 0.203488 255 130 106
-0.3871 0.121321 0.203327 255 118 99
-0.386211 0.122557 0.203692 255 112 83
-0.385747 0.123995 0.203881 255 90 70
-0.384861 0.125225 0.204244 255 76 56
-0.384397 0.126662 0.204433 242 70 48
-0.383933 0.128098 0.204622 223 59 47
-0.383469 0.129535 0.204812 147 52 46
-0.383423 0.131188 0.204828 90 55 50
-0.383377 0.132846 0.204844 79 57 51
-0.385019 0.1354 0.204162 76 61 53
-0.386684 0.137991 0.203471 74 61 51
-0.415897 0.16882 0.191362 169 148 133
-0.411245 0.168025 0.193284 161 148 133
-0.409208 0.168729 0.194123 166 153 138
-0.406692 0.16913 0.195161 165 146 131
-0.404698 0.169821 0.195983 148 120 106
-0.399274 0.174015 0.198214 147 148 150
-0.394996 0.173188 0.199981 218 208 182
-0.393107 0.173843 0.20076 246 255 250
-0.391693 0.174787 0.201342 248 252 240
-0.391198 0.17632 0.201544 220 223 193
-0.390247 0.177552 0.201934 168 146 138
-0.3893 0.178782 0.202323 127 108 100
-0.387905 0.179706 0.202897 106 86 81
-0.386518 0.180625 0.203468 85 75 72
-0.384697 0.181238 0.204218 74 69 64
-0.38333 0.182146 0.204781 72 66 61
-0.381536 0.182747 0.20552 70 67 60
-0.353273 0.00129272 0.216188 81 55 43
-0.353804 0.00251882 0.215962 83 56 41
-0.354037 0.00372261 0.215861 136 49 33
-0.354573 0.00496385 0.215633 231 49 33
-0.355419 0.00624715 0.215276 253 55 36
-0.356272 0.00754212 0.214916 255 63 38
-0.357133 0.00884889 0.214552 255 64 41
-0.356756 0.010014 0.214706 255 66 45
-0.35669 0.0112187 0.21473 255 74 53
-0.356623 0.0124263 0.214753 255 85 63
-0.356246 0.0135942 0.214907 255 96 75
-0.356489 0.0148498 0.214802 255 104 87
-0.404294 0.0303122 0.194798 255 78 61
-0.402553 0.0314765 0.195521 255 75 60
-0.402536 0.0329352 0.195523 255 78 60
-0.402089 0.0343196 0.195705 255 82 60
-0.401641 0.0357041 0.195888 255 82 62
-0.402915 0.0374182 0.19535 255 85 66
-0.402465 0.0388103 0.195534 255 87 67
-0.29728 0.0302798 0.239467 255 80 63
-0.296385 0.0310769 0.239838 255 73 55
-0.296667 0.0321774 0.239716 255 72 50
-0.297742 0.0334958 0.239263 255 68 44
-0.385851 0.0585278 0.202405 255 67 42
-0.385812 0.0599888 0.202417 255 66 43
-0.384979 0.0612298 0.202761 255 67 43
-0.384147 0.0624675 0.203104 255 64 39
-0.382535 0.0634735 0.203774 255 60 39
-0.380935 0.0644716 0.204438 255 59 41
-0.380117 0.065694 0.204776 255 66 45
-0.378917 0.0667957 0.205273 255 68 49
-0.377724 0.0678918 0.205768 255 67 48
-0.376159 0.0688627 0.206418 255 65 48
-0.374234 0.0697063 0.207219 255 63 47
-0.373808 0.0710248 0.207392 255 59 45
-0.373011 0.0722204 0.207721 255 55 37
-0.372586 0.0735374 0.207894 255 51 30
-0.372901 0.0751076 0.207758 255 47 28
-0.374715 0.0772058 0.206994 255 46 29
-0.377708 0.0797419 0.205736 255 43 23
-0.377658 0.0812258 0.205752 251 40 13
-0.379158 0.0832758 0.20512 245 40 11
-0.3795 0.0849199 0.204971 240 38 18
-0.379061 0.0862809 0.205151 243 35 16
-0.379796 0.0880859 0.204838 246 34 15
-0.384142 0.0912864 0.203013 249 40 20
-0.385322 0.0933073 0.202515 251 40 18
-0.388176 0.0960042 0.201315 255 38 14
-0.389397 0.0980847 0.200798 255 44 19
-0.38936 0.0996747 0.200808 255 43 32
-0.388901 0.101096 0.200996 255 44 33
-0.388863 0.102693 0.201006 255 46 34
-0.388404 0.104117 0.201194 255 49 33
-0.387944 0.10554 0.201381 255 48 34
-0.387484 0.106964 0.201568 255 55 37
-0.387444 0.108571 0.20158 255 54 40
-0.387404 0.110183 0.201591 255 59 43
-0.387786 0.111988 0.201426 255 62 46
-0.388171 0.113803 0.20126 255 67 51
-0.388984 0.115823 0.200914 255 71 53
-0.389375 0.117662 0.200745 255 84 66
-0.388907 0.119108 0.200935 255 105 87
-0.387587 0.12015 0.201483 255 119 92
-0.387546 0.121796 0.201495 255 112 89
-0.386231 0.122829 0.20204 255 114 94
-0.385766 0.12427 0.20223 255 120 101
-0.384879 0.125501 0.202596 255 120 84
-0.383995 0.12673 0.202961 255 91 70
-0.383531 0.128166 0.20315 255 73 54
-0.383485 0.129817 0.203164 235 64 50
-0.383439 0.131473 0.203178 195 61 48
-0.383813 0.133354 0.203016 124 56 54
-0.385037 0.135694 0.202498 81 58 66
-0.385846 0.137831 0.202153 78 63 60
-0.385802 0.139522 0.202166 89 74 67
-0.411305 0.168402 0.191428 141 126 115
-0.407757 0.168212 0.192909 146 132 120
-0.403296 0.16744 0.194774 143 117 109
-0.394563 0.173264 0.198401 173 156 156
-0.392676 0.173919 0.199186 233 237 232
-0.391263 0.174863 0.199773 252 255 254
-0.390312 0.176098 0.200166 249 254 238
-0.389818 0.177628 0.200367 224 214 184
-0.388419 0.178558 0.200948 199 177 163
-0.387029 0.179481 0.201525 178 152 140
-0.385203 0.1801 0.202286 134 117 114
-0.383394 0.180713 0.203039 91 81 81
-0.382034 0.18162 0.203603 77 69 65
-0.380682 0.182522 0.204165 72 69 62
-0.379768 0.183719 0.204543 71 67 62
-0.352796 -0.00101498 0.215096 77 54 37
-0.35243 0.000120158 0.215245 81 57 41
-0.352956 0.00133832 0.215017 83 57 42
-0.352887 0.00250639 0.215041 95 56 41
-0.353417 0.00373807 0.214811 199 45 33
-0.353951 0.00497808 0.21458 250 51 35
-0.354488 0.0062265 0.214347 255 56 38
-0.354724 0.00744837 0.214242 255 62 41
-0.355574 0.00874892 0.213877 255 67 44
-0.3552 0.00990885 0.214029 255 71 50
-0.354825 0.0110688 0.214182 255 81 60
-0.35445 0.0122288 0.214335 255 95 73
-0.354688 0.0134729 0.214228 255 109 89
-0.354619 0.0146791 0.214252 255 132 108
-0.355785 0.0160686 0.213753 255 148 116
-0.400907 0.029863 0.194641 255 78 59
-0.400463 0.0312381 0.194822 255 78 59
-0.400018 0.0326133 0.195003 255 77 58
-0.399997 0.0340659 0.195005 255 81 60
-0.399553 0.0354431 0.195186 255 82 60
-0.400808 0.0371467 0.194648 255 85 64
-0.400361 0.0385314 0.19483 255 87 64
-0.399063 0.0397451 0.195372 255 89 69
-0.398617 0.0411262 0.195554 255 89 71
-0.296121 0.0311177 0.238866 255 68 51
-0.296795 0.0323218 0.238576 255 67 46
-0.385474 0.0585864 0.201019 255 64 40
-0.383855 0.0596089 0.201697 255 64 39
-0.38342 0.0609547 0.201875 255 62 39
-0.382204 0.0620759 0.202383 255 63 40
-0.380994 0.0631913 0.202888 255 60 40
-0.380176 0.0644155 0.203228 255 64 43
-0.378976 0.0655205 0.203729 255 68 48
-0.378163 0.066737 0.204066 255 66 48
-0.376973 0.067832 0.204563 255 65 49
-0.375789 0.0689213 0.205058 255 66 46
-0.374611 0.070005 0.20555 255 64 45
-0.373811 0.071205 0.205882 255 60 44
-0.373385 0.0725255 0.206056 255 53 36
-0.372958 0.073846 0.206229 255 49 27
-0.374022 0.0756771 0.205771 255 44 23
-0.374343 0.0772653 0.205628 254 41 19
-0.376183 0.079397 0.204842 245 37 14
-0.377281 0.0812863 0.204369 237 35 13
-0.378779 0.0833368 0.203727 231 35 10
-0.37873 0.0848375 0.203741 227 33 9
-0.379071 0.0864882 0.203589 228 32 8
-0.379414 0.0881477 0.203436 230 30 12
-0.382946 0.0910394 0.201931 232 33 11
-0.384931 0.0933707 0.201082 234 34 13
-0.38571 0.0952518 0.200745 239 35 11
-0.38858 0.0979814 0.199521 242 36 15
-0.388542 0.0995691 0.199529 246 40 23
-0.388503 0.101161 0.199538 251 41 22
-0.388465 0.102758 0.199546 255 40 22
-0.388005 0.104182 0.199734 255 44 27
-0.387966 0.105785 0.199742 255 44 27
-0.387505 0.107211 0.19993 255 47 29
-0.387466 0.108821 0.199939 255 46 33
-0.387848 0.110622 0.199769 255 54 39
-0.387808 0.112243 0.199778 255 50 34
-0.387769 0.113869 0.199787 255 57 39
-0.387729 0.1155 0.199796 255 56 40
-0.388114 0.117332 0.199625 255 64 46
-0.388502 0.119175 0.199452 255 75 58
-0.388035 0.120622 0.199643 255 91 71
-0.387568 0.122068 0.199833 255 113 91
-0.387101 0.123515 0.200024 255 117 96
-0.386633 0.124962 0.200214 255 118 96
-0.385319 0.125988 0.200764 255 121 96
-0.384431 0.127219 0.201133 255 113 102
-0.383966 0.12866 0.201322 255 105 79
-0.3835 0.130101 0.201512 255 86 63
-0.383454 0.131759 0.201523 248 74 52
-0.383829 0.133643 0.201356 223 70 62
-0.384206 0.135538 0.201188 156 79 86
-0.385437 0.137901 0.200657 103 53 57
-0.385393 0.139592 0.200668 89 53 40
-0.384921 0.141054 0.20086 83 50 38
-0.394129 0.173339 0.19682 126 110 114
-0.391785 0.1737 0.197807 222 208 191
-0.390833 0.174939 0.198204 245 253 250
-0.389883 0.176174 0.198599 253 255 251
-0.388935 0.177405 0.198993 250 253 243
-0.387541 0.178334 0.199577 251 249 225
-0.385711 0.178959 0.200347 238 226 202
-0.383457 0.17928 0.201296 204 182 165
-0.382097 0.180191 0.201866 144 121 118
-0.381178 0.181396 0.202248 99 81 79
-0.379831 0.182297 0.202813 79 69 65
-0.379347 0.183794 0.20301 75 66 62
-0.378436 0.184989 0.203389 73 63 59
-0.35248 -0.000969721 0.213929 76 51 37
-0.352114 0.000165512 0.214078 76 54 41
-0.352044 0.00132844 0.214101 88 54 46
-0.352271 0.00252305 0.213996 135 49 46
-0.352799 0.00375351 0.213763 236 48 40
-0.353029 0.0049603 0.213657 253 53 37
-0.35326 0.00617255 0.213551 255 58 39
-0.353796 0.00742514 0.213315 255 62 42
-0.353423 0.0085773 0.213466 255 69 49
-0.353051 0.00972951 0.213618 255 79 57
-0.352679 0.0108818 0.21377 255 91 68
-0.352307 0.0120341 0.213921 255 105 84
-0.353144 0.0133527 0.213556 255 137 110
-0.353988 0.0146833 0.213187 255 183 139
-0.353918 0.015891 0.213209 255 176 135
-0.400523 0.0299201 0.193228 255 78 58
-0.399656 0.0312218 0.19359 255 78 59
-0.399635 0.0326706 0.19359 255 78 59
-0.399191 0.034046 0.193771 255 83 61
-0.398746 0.0354214 0.193952 255 82 61
-0.398302 0.036797 0.194133 255 85 63
-0.397019 0.0380072 0.194673 255 86 62
-0.395742 0.0392111 0.195211 255 87 66
-0.394061 0.0403236 0.195921 255 86 67
-0.39362 0.0416865 0.196101 255 86 66
-0.39277 0.0429611 0.196456 255 88 67
-0.39233 0.0443223 0.196635 255 89 68
-0.391891 0.0456836 0.196814 255 89 68
-0.384348 0.0569757 0.199962 255 65 43
-0.383914 0.0583215 0.200139 255 65 43
-0.382696 0.0594496 0.200651 255 63 39
-0.381873 0.0606818 0.200995 255 61 36
-0.380666 0.0617995 0.201503 255 60 39
-0.379849 0.0630239 0.201844 255 61 42
-0.379034 0.0642452 0.202184 255 68 44
-0.37784 0.065348 0.202687 255 67 45
-0.377031 0.0665617 0.203025 255 67 47
-0.376224 0.0677723 0.203362 255 65 48
-0.375419 0.0689798 0.203698 255 63 44
-0.374616 0.0701843 0.204033 255 58 39
-0.374562 0.071631 0.204047 255 55 37
-0.374509 0.0730814 0.20406 255 48 27
-0.37408 0.0744089 0.204235 254 44 25
-0.374401 0.0759938 0.204088 242 40 21
-0.375481 0.0778506 0.203615 235 36 15
-0.376572 0.0797269 0.203138 226 33 16
-0.378061 0.0817618 0.202489 220 32 14
-0.378789 0.0835394 0.202168 213 31 14
-0.378739 0.0850425 0.202179 211 31 9
-0.379081 0.086696 0.202023 211 29 3
-0.379424 0.0883584 0.201866 214 28 4
-0.382559 0.0911021 0.200511 216 25 2
-0.383727 0.0931168 0.2 218 28 10
-0.384498 0.0949918 0.199659 223 27 3
-0.38693 0.0975445 0.198604 227 30 10
-0.388144 0.0996339 0.198073 231 29 8
-0.388106 0.101226 0.198079 235 35 8
-0.388067 0.102823 0.198086 240 33 9
-0.387607 0.104247 0.198273 244 36 14
-0.387567 0.105851 0.19828 248 38 20
-0.387527 0.107459 0.198287 251 40 24
-0.387487 0.109071 0.198294 255 43 29
-0.387447 0.110688 0.198301 255 43 31
-0.387407 0.11231 0.198308 255 44 34
-0.387367 0.113936 0.198315 255 50 34
-0.386903 0.115372 0.198504 255 50 34
-0.386861 0.117005 0.198511 255 52 37
-0.38767 0.119042 0.198153 255 57 41
-0.38763 0.120689 0.19816 255 62 44
-0.387589 0.122341 0.198167 255 73 57
-0.387121 0.12379 0.198357 255 89 72
-0.386653 0.125239 0.198548 255 112 94
-0.385761 0.126477 0.198921 255 114 95
-0.384448 0.127499 0.199475 255 111 91
-0.383982 0.128941 0.199665 255 104 84
-0.383516 0.130384 0.199855 255 99 81
-0.38347 0.132046 0.199864 255 92 69
-0.383423 0.133712 0.199873 255 80 62
-0.383799 0.135607 0.199701 234 81 65
-0.384601 0.137742 0.199345 202 58 49
-0.384556 0.13943 0.199354 137 42 31
-0.384511 0.141124 0.199362 85 41 29
-0.384038 0.142586 0.199555 73 43 31
-0.384848 0.144765 0.199196 75 42 36
-0.384373 0.146233 0.199389 75 43 36
-0.393233 0.17312 0.195438 128 109 101
-0.391355 0.173775 0.196236 205 189 163
-0.390402 0.175014 0.196634 237 233 220
-0.389 0.175953 0.197227 252 253 248
-0.387606 0.176886 0.197816 255 255 254
-0.385775 0.177517 0.198594 255 255 249
-0.38396 0.178142 0.199364 255 246 228
-0.382597 0.179058 0.19994 238 220 196
-0.381241 0.179969 0.200513 199 176 161
-0.379894 0.180875 0.201083 144 114 112
-0.37941 0.182372 0.20128 98 77 76
-0.378499 0.183568 0.201661 78 68 62
-0.378016 0.185064 0.201858 72 66 60
-0.37626 0.185648 0.202603 68 62 59
-0.352164 -0.000924446 0.212762 76 54 39
-0.351798 0.000210879 0.212911 76 54 45
-0.351727 0.00137397 0.212933 102 51 44
-0.351657 0.00253968 0.212954 202 40 33
-0.351883 0.00373845 0.212847 255 50 31
-0.35241 0.0049745 0.21261 255 60 39
-0.35234 0.0061522 0.212631 255 60 39
-0.35257 0.00736726 0.212522 255 64 42
-0.352801 0.00858783 0.212413 255 75 55
-0.352429 0.00973884 0.212564 255 88 68
-0.351757 0.0108512 0.212846 255 103 83
-0.351385 0.012001 0.212997 255 122 101
-0.351613 0.0132335 0.212889 255 162 127
-0.352447 0.0145577 0.212518 255 173 144
-0.353288 0.015894 0.212145 255 117 117
-0.353218 0.0171032 0.212166 255 84 67
-0.40014 0.0299772 0.191816 255 79 61
-0.399696 0.0313525 0.191997 255 81 63
-0.399252 0.032728 0.192178 255 79 62
-0.398807 0.0341035 0.192358 255 82 61
-0.397523 0.035321 0.192903 255 81 62
-0.396245 0.036532 0.193445 255 83 63
-0.395388 0.0378184 0.193805 255 83 61
-0.394121 0.0390181 0.194342 255 84 63
-0.39368 0.0403811 0.194522 255 84 63
-0.390796 0.0412273 0.19576 255 83 61
-0.388754 0.0422325 0.196633 255 83 60
-0.388319 0.0435778 0.19681 255 80 60
-0.386695 0.0446546 0.197503 255 82 61
-0.385475 0.0458134 0.19802 255 84 62
-0.385044 0.0471502 0.198196 255 81 61
-0.38202 0.0565088 0.199427 255 63 40
-0.381588 0.057846 0.199603 255 62 40
-0.38077 0.0590755 0.199946 255 59 39
-0.380339 0.060411 0.200122 255 58 37
-0.37914 0.0615252 0.200631 255 59 39
-0.377947 0.0626336 0.201136 255 64 43
-0.377518 0.0639624 0.201311 255 68 46
-0.377089 0.0652912 0.201486 255 68 46
-0.376282 0.0665036 0.201825 255 64 46
-0.375476 0.0677128 0.202163 255 63 45
-0.375048 0.0690384 0.202337 255 58 39
-0.37462 0.070364 0.202512 255 49 27
-0.374567 0.0718129 0.202523 254 46 20
-0.374889 0.0733911 0.202372 244 41 18
-0.374836 0.0748497 0.202383 231 41 23
-0.37516 0.0764421 0.202231 218 39 24
-0.375867 0.0781756 0.201912 207 35 20
-0.377733 0.0803315 0.20109 201 33 15
-0.37807 0.0819617 0.200932 197 30 12
-0.378798 0.0837425 0.200604 193 31 11
-0.37914 0.0853926 0.200443 192 28 5
-0.379091 0.0869044 0.200452 194 27 3
-0.379042 0.0884203 0.200462 198 26 4
-0.380971 0.0907025 0.199611 198 27 2
-0.382126 0.092707 0.199097 203 25 7
-0.383292 0.0947333 0.198578 206 28 5
-0.384882 0.0969463 0.197874 210 29 8
-0.386079 0.0990211 0.197342 214 26 3
-0.387288 0.101119 0.196803 218 28 8
-0.387248 0.102713 0.196808 222 28 3
-0.387629 0.10449 0.19663 228 26 4
-0.387589 0.106096 0.196635 231 29 9
-0.387549 0.107707 0.196639 236 32 10
-0.387087 0.109137 0.196827 239 35 19
-0.387046 0.110754 0.196832 246 38 18
-0.387005 0.112376 0.196837 251 42 22
-0.386964 0.114002 0.196842 255 44 23
-0.3865 0.115439 0.197031 255 47 33
-0.386036 0.116875 0.19722 255 48 37
-0.385994 0.118511 0.197225 255 51 37
-0.386799 0.120554 0.196862 255 49 34
-0.387184 0.122409 0.196681 255 52 39
-0.387142 0.124066 0.196686 255 60 46
-0.386674 0.125517 0.196877 255 72 59
-0.385355 0.126545 0.197438 255 82 66
-0.384888 0.127992 0.197628 255 94 75
-0.383998 0.129224 0.198002 255 99 81
-0.383532 0.130669 0.198193 255 105 83
-0.383065 0.132114 0.198383 255 98 79
-0.383018 0.133781 0.19839 255 88 70
-0.383392 0.135676 0.198214 255 82 60
-0.383345 0.137355 0.198221 251 72 51
-0.383722 0.139269 0.198043 223 57 43
-0.383675 0.14096 0.19805 153 48 33
-0.383629 0.142656 0.198057 95 43 31
-0.383156 0.144118 0.198249 73 36 32
-0.383535 0.146062 0.19807 69 33 30
-0.391878 0.172609 0.194261 147 122 107
-0.390467 0.173557 0.194863 177 170 154
-0.389064 0.1745 0.195461 222 199 176
-0.38767 0.175438 0.196055 248 241 225
-0.386284 0.17637 0.196646 253 254 249
-0.384024 0.176707 0.197619 255 255 253
-0.38266 0.177627 0.1982 255 255 245
-0.381305 0.178542 0.198778 253 243 223
-0.379957 0.179452 0.199352 231 216 191
-0.379473 0.180949 0.199549 193 171 153
-0.378562 0.182148 0.199933 141 110 106
-0.378078 0.183643 0.20013 94 71 70
-0.37717 0.184836 0.200513 73 67 61
-0.375842 0.185723 0.201079 68 66 61
-0.35281 -0.00196655 0.211186 77 52 38
-0.352145 -0.000853951 0.211465 80 55 37
-0.351778 0.000282747 0.211615 95 49 35
-0.351707 0.0014473 0.211635 151 44 33
-0.351637 0.00261449 0.211654 239 47 34
-0.351566 0.00378433 0.211674 255 59 38
-0.352092 0.00502063 0.211433 255 62 39
-0.351722 0.00616518 0.211584 255 64 42
-0.351651 0.00734436 0.211604 255 74 54
-0.351879 0.00856224 0.211493 255 88 71
-0.351508 0.00971077 0.211644 255 107 88
-0.351436 0.010898 0.211664 255 131 108
-0.351065 0.012048 0.211815 255 154 121
-0.350693 0.0131979 0.211967 255 146 120
-0.350621 0.0143906 0.211987 255 115 102
-0.351751 0.0157631 0.211481 255 90 76
-0.352589 0.0171049 0.211103 255 78 63
-0.352213 0.0182681 0.211256 255 74 58
-0.401887 0.0303964 0.18947 255 79 61
-0.40016 0.0315577 0.190212 255 80 64
-0.399714 0.032937 0.190394 255 79 61
-0.398424 0.0341609 0.190945 255 78 58
-0.39714 0.0353784 0.191494 255 81 61
-0.395863 0.0365894 0.19204 255 80 61
-0.394593 0.037794 0.192582 255 81 61
-0.393741 0.0390755 0.192942 255 82 63
-0.390856 0.0399321 0.194193 255 83 62
-0.388813 0.0409441 0.195074 255 83 60
-0.38798 0.0422032 0.195426 255 80 59
-0.386754 0.0433714 0.19595 255 77 58
-0.385534 0.0445337 0.196471 255 80 59
-0.384711 0.0457801 0.196819 255 80 59
-0.38428 0.0471152 0.196994 255 76 56
-0.383848 0.0484503 0.19717 255 75 54
-0.381647 0.0565667 0.198054 255 60 39
-0.380059 0.0575867 0.198737 255 61 40
-0.378483 0.0585989 0.199415 255 59 39
-0.378055 0.0599259 0.19959 255 60 39
-0.377247 0.0611435 0.199931 255 62 41
-0.376442 0.062358 0.200271 255 64 45
-0.376014 0.0636817 0.200445 255 64 46
-0.375963 0.06512 0.200454 255 65 47
-0.375534 0.0664456 0.200628 255 65 46
-0.375106 0.0677712 0.200802 255 61 43
-0.375053 0.0692168 0.200812 255 53 33
-0.374624 0.0705443 0.200986 253 45 20
-0.374947 0.0721192 0.200831 234 43 20
-0.374894 0.0735762 0.20084 211 38 23
-0.37484 0.075037 0.20085 195 41 30
-0.375165 0.0766321 0.200693 186 41 34
-0.376254 0.0785022 0.2002 182 36 28
-0.377742 0.0805292 0.199533 182 32 15
-0.378079 0.0821621 0.19937 180 31 12
-0.378808 0.0839462 0.199035 179 28 6
-0.378758 0.0854541 0.199043 177 21 2
-0.378709 0.0869661 0.19905 180 19 1
-0.378659 0.0884822 0.199058 185 16 1
-0.380585 0.090765 0.198196 185 24 2
-0.381737 0.09277 0.197674 188 25 3
-0.382497 0.0946363 0.197325 191 26 1
-0.383671 0.0966815 0.196794 197 24 3
-0.384036 0.0984149 0.196618 196 28 5
-0.385642 0.100669 0.195897 201 26 5
-0.38685 0.102779 0.195349 206 25 2
-0.387229 0.104556 0.195167 211 23 3
-0.387189 0.106162 0.19517 214 29 6
-0.386728 0.10759 0.195358 217 28 5
-0.386686 0.109203 0.19536 221 29 8
-0.386224 0.110633 0.195549 229 31 4
-0.385762 0.112064 0.195737 233 34 11
-0.38614 0.113877 0.195555 237 35 16
-0.385677 0.115312 0.195743 242 41 24
-0.385213 0.116746 0.195932 249 42 24
-0.38517 0.118379 0.195936 254 42 25
-0.385126 0.120017 0.19594 255 44 31
-0.386352 0.122272 0.195383 255 46 33
-0.386736 0.124134 0.195198 255 51 33
-0.386267 0.125586 0.195389 255 55 38
-0.385373 0.126825 0.195768 255 57 42
-0.384482 0.12806 0.196145 255 69 51
-0.384015 0.129507 0.196335 255 77 60
-0.383547 0.130955 0.196526 255 96 76
-0.38308 0.132402 0.196716 255 99 85
-0.382612 0.13385 0.196906 255 98 78
-0.382564 0.135521 0.196911 255 87 66
-0.382516 0.137197 0.196917 255 79 59
-0.382468 0.138878 0.196922 255 72 53
-0.38242 0.140564 0.196927 233 63 43
-0.382371 0.142255 0.196932 160 52 40
-0.382323 0.14395 0.196938 95 43 38
-0.381851 0.14541 0.19713 69 39 36
-0.389129 0.173047 0.193694 161 148 130
-0.387735 0.173989 0.194294 197 178 156
-0.386348 0.174925 0.19489 227 212 187
-0.384087 0.175271 0.195873 246 243 226
-0.382724 0.176196 0.196459 253 254 248
-0.381802 0.177408 0.19685 255 255 254
-0.380451 0.178322 0.197431 255 255 244
-0.379536 0.179526 0.197819 246 241 217
-0.379053 0.181024 0.198016 220 206 181
-0.378141 0.182223 0.198402 178 159 141
-0.377233 0.183418 0.198787 129 107 100
-0.376327 0.184609 0.199171 88 67 67
-0.375423 0.185798 0.199554 71 62 56
-0.374104 0.186679 0.200121 71 58 52
-0.352494 -0.00192127 0.210016 76 48 32
-0.352126 -0.000783262 0.210165 80 51 30
-0.351758 0.00035478 0.210315 118 49 31
-0.351688 0.0015208 0.210333 201 45 33
-0.351617 0.00268948 0.210352 254 56 37
-0.351546 0.00386079 0.21037 255 59 39
-0.351773 0.00506677 0.210257 255 58 39
-0.351403 0.00621142 0.210407 255 66 51
-0.351332 0.00739075 0.210426 255 97 72
-0.350961 0.00853677 0.210577 255 111 90
-0.350889 0.00972011 0.210596 255 155 117
-0.350519 0.0108675 0.210746 255 177 138
-0.350148 0.012015 0.210897 255 148 127
-0.350075 0.0132037 0.210917 255 111 97
-0.350001 0.0143951 0.210936 255 92 74
-0.349928 0.0155892 0.210955 255 81 64
-0.350753 0.0169229 0.210577 255 79 61
-0.350379 0.0180796 0.210729 255 77 61
-0.401501 0.0304539 0.188047 255 80 58
-0.400626 0.0317641 0.188419 255 77 58
-0.399754 0.0330707 0.188789 255 76 56
-0.398884 0.0343739 0.189158 255 76 55
-0.397596 0.0355942 0.189713 255 82 60
-0.396314 0.036808 0.190265 255 80 61
-0.394213 0.0378514 0.19118 255 80 61
-0.393772 0.0392164 0.19136 255 80 61
-0.390479 0.0399892 0.192804 255 83 61
-0.38804 0.0409164 0.193869 255 81 61
-0.387209 0.042174 0.194222 255 78 59
-0.38638 0.0434283 0.194573 255 78 58
-0.385161 0.0445905 0.195098 255 79 58
-0.384338 0.045837 0.195448 255 77 56
-0.383907 0.0471722 0.195623 255 74 53
-0.383476 0.0485074 0.195799 255 73 51
-0.379351 0.0561055 0.197534 255 61 39
-0.377782 0.0571208 0.198215 255 61 39
-0.376977 0.0583389 0.198557 255 59 39
-0.3758 0.059447 0.199064 255 60 39
-0.375 0.0606575 0.199404 255 64 43
-0.374575 0.0619746 0.199577 255 65 44
-0.374521 0.0634033 0.199585 255 64 44
-0.375217 0.0650637 0.19926 255 63 45
-0.375164 0.0665039 0.199267 255 60 42
-0.374736 0.0678297 0.199442 255 53 38
-0.374682 0.0692754 0.199449 252 50 30
-0.374253 0.070603 0.199624 223 45 26
-0.374575 0.0721783 0.199465 184 40 25
-0.374521 0.0736355 0.199473 152 44 29
-0.374845 0.0752248 0.199312 135 48 36
-0.37517 0.0768226 0.199151 134 49 38
-0.376644 0.0788306 0.198479 132 46 34
-0.377363 0.0805898 0.198143 140 41 21
-0.378087 0.082363 0.197804 157 36 17
-0.378818 0.0841505 0.197462 167 28 12
-0.378768 0.0856608 0.197468 169 21 4
-0.378326 0.0870278 0.197648 171 15 0
-0.378668 0.0886936 0.197479 175 15 0
-0.380996 0.0911357 0.196425 175 16 0
-0.381349 0.0928329 0.196251 176 22 4
-0.381704 0.0945395 0.196075 178 18 3
-0.382466 0.0964182 0.195719 184 18 2
-0.383234 0.0983124 0.195359 183 20 5
-0.384008 0.100222 0.194997 188 19 1
-0.384789 0.102148 0.194632 191 24 0
-0.385993 0.104266 0.194077 193 25 1
-0.386369 0.106047 0.193892 196 28 6
-0.386328 0.107656 0.193893 199 27 6
-0.385866 0.109085 0.19408 204 28 7
-0.385405 0.110513 0.194268 210 30 5
-0.384943 0.111942 0.194456 214 31 9
-0.384899 0.113561 0.194458 217 29 12
-0.384856 0.115185 0.194459 225 32 11
-0.384812 0.116813 0.194461 233 32 10
-0.384348 0.118248 0.19465 240 35 11
-0.383884 0.119683 0.194838 243 40 20
-0.385523 0.122135 0.194089 251 40 21
-0.386329 0.124203 0.19371 255 46 25
-0.385861 0.125654 0.193901 255 48 31
-0.384967 0.126893 0.194282 255 50 36
-0.384499 0.128342 0.194472 255 52 36
-0.383609 0.129576 0.194851 255 57 40
-0.383141 0.131023 0.195042 255 71 51
-0.382674 0.132471 0.195232 255 77 65
-0.382206 0.133918 0.195422 255 91 72
-0.381321 0.135143 0.1958 255 89 69
-0.381689 0.13704 0.195616 255 84 66
-0.38164 0.138718 0.195619 255 79 60
-0.381171 0.14017 0.19581 255 73 52
-0.381121 0.141856 0.195814 218 66 50
-0.380651 0.14331 0.196005 137 44 39
-0.380181 0.144764 0.196196 74 32 31
-0.386412 0.173481 0.193134 168 151 136
-0.384151 0.173836 0.194127 198 177 159
-0.382787 0.174764 0.194718 226 209 186
-0.381865 0.175979 0.195112 245 243 225
-0.380514 0.176897 0.195698 253 254 248
-0.379599 0.178103 0.196088 255 253 248
-0.379116 0.179601 0.196285 243 252 229
-0.378632 0.181099 0.196482 215 217 200
-0.377721 0.182297 0.19687 185 178 171
-0.376813 0.183493 0.197257 151 145 133
-0.375908 0.184684 0.197644 111 98 87
-0.374167 0.185269 0.198405 82 61 55
-0.372027 0.185548 0.199346 74 62 53
-0.353441 -0.00294513 0.208295 74 47 36
-0.352773 -0.00182756 0.208579 75 46 33
-0.352405 -0.000686927 0.208729 95 47 31
-0.352036 0.000453754 0.208879 150 48 31
-0.351966 0.00162259 0.208896 220 51 27
-0.351597 0.00276464 0.209046 254 48 21
-0.351824 0.00396822 0.20893 255 51 32
-0.351454 0.00511292 0.20908 255 51 39
-0.351383 0.00629107 0.209097 255 60 42
-0.351012 0.00743715 0.209248 255 75 53
-0.350642 0.00858327 0.209399 255 98 76
-0.35057 0.00976676 0.209416 255 115 89
-0.350199 0.0109143 0.209567 255 115 92
-0.349828 0.0120618 0.209718 255 97 79
-0.349457 0.0132094 0.209869 255 83 67
-0.349087 0.0143571 0.21002 255 78 64
-0.349012 0.0155486 0.210038 255 79 62
-0.349235 0.0167882 0.209923 255 81 61
-0.349757 0.0180803 0.209674 255 78 59
-0.400667 0.0318964 0.186806 255 77 56
-0.399794 0.0332048 0.187179 255 76 56
-0.398499 0.0344316 0.187741 255 75 54
-0.396793 0.0355724 0.188487 255 80 58
-0.3951 0.0367042 0.189228 255 82 61
-0.393832 0.0379088 0.189778 255 79 60
-0.393391 0.0392739 0.189957 255 78 57
-0.388897 0.0397955 0.191954 255 78 56
-0.387268 0.0408888 0.192667 255 76 57
-0.386439 0.0421449 0.19302 255 76 58
-0.386006 0.0434853 0.193197 255 75 56
-0.384788 0.0446474 0.193725 255 76 55
-0.384356 0.0459844 0.193901 255 76 54
-0.383534 0.0472292 0.194252 255 74 51
-0.383103 0.0485646 0.194427 255 70 48
-0.381127 0.0495195 0.195296 255 68 46
-0.378413 0.0502744 0.196497 255 66 43
-0.37761 0.0514964 0.196839 255 63 40
-0.377185 0.0528131 0.197012 255 61 39
-0.376759 0.05413 0.197185 255 62 38
-0.375214 0.0551439 0.197862 255 61 38
-0.374791 0.0564558 0.198034 255 60 37
-0.374738 0.0578718 0.19804 255 60 38
-0.374314 0.0591855 0.198213 255 62 40
-0.37315 0.0602846 0.198717 255 68 45
-0.372727 0.0615951 0.19889 255 67 46
-0.37341 0.063238 0.198564 255 64 43
-0.373727 0.0647801 0.198404 255 60 40
-0.374419 0.066446 0.198075 255 58 36
-0.373991 0.0677702 0.198249 252 50 32
-0.373937 0.0692141 0.198255 227 50 31
-0.373882 0.0706618 0.198261 164 46 32
-0.374203 0.0722373 0.198098 124 50 37
-0.374149 0.0736947 0.198104 105 55 41
-0.378335 0.0872369 0.196068 161 24 9
-0.378677 0.0889057 0.195895 166 19 4
-0.380609 0.0911983 0.195005 169 16 2
-0.380961 0.0928959 0.194827 170 17 6
-0.381315 0.0946027 0.194648 171 18 5
-0.382075 0.0964819 0.194285 173 18 1
-0.382841 0.0983765 0.19392 175 20 3
-0.382796 0.0999481 0.193921 177 22 1
-0.383569 0.101867 0.193552 177 20 0
-0.384349 0.103803 0.19318 179 19 0
-0.385135 0.105754 0.192805 182 19 4
-0.385092 0.107358 0.192804 185 18 5
-0.384631 0.108783 0.192992 188 27 4
-0.384171 0.110207 0.193179 194 23 2
-0.384126 0.11182 0.193179 197 27 6
-0.383666 0.113247 0.193367 202 27 6
-0.38362 0.114866 0.193367 208 30 10
-0.383158 0.116295 0.193554 214 30 7
-0.383946 0.118315 0.193178 221 30 4
-0.383482 0.11975 0.193367 226 34 10
-0.384275 0.121794 0.192988 237 33 11
-0.384651 0.123647 0.192797 243 35 16
-0.385454 0.125722 0.192413 248 41 23
-0.384561 0.126961 0.192796 253 42 28
-0.384093 0.128411 0.192986 255 47 30
-0.383203 0.129644 0.193367 255 49 29
-0.382736 0.131092 0.193558 255 53 34
-0.382268 0.13254 0.193748 255 59 43
-0.381382 0.133766 0.194127 255 68 50
-0.380084 0.134767 0.194694 255 74 55
-0.380033 0.136433 0.194696 255 78 60
-0.379981 0.138103 0.194698 255 80 62
-0.379514 0.139549 0.194888 255 77 58
-0.379462 0.141227 0.19489 244 73 55
-0.378994 0.142675 0.195081 171 44 35
-0.378526 0.144123 0.195271 86 22 22
-0.382415 0.173045 0.193175 167 152 138
-0.381495 0.17426 0.19357 196 175 161
-0.380577 0.175472 0.193964 230 216 190
-0.379663 0.17668 0.194357 246 240 222
-0.379179 0.178178 0.194554 252 250 242
-0.378695 0.179676 0.19475 254 252 228
-0.377784 0.180876 0.195141 248 240 213
-0.376876 0.182074 0.195531 234 205 194
-0.37597 0.183268 0.19592 196 157 157
-0.374229 0.183858 0.196689 135 109 109
-0.372089 0.184146 0.197639 90 62 57
-0.369974 0.18443 0.198578 74 64 52
-0.3695 0.185899 0.198772 66 57 49
-0.353724 -0.00285349 0.20685 74 51 36
-0.353354 -0.00170899 0.207 77 50 35
-0.352984 -0.000564431 0.207151 112 46 31
-0.352615 0.00058017 0.207301 167 41 23
-0.352245 0.00172482 0.207452 205 35 12
-0.351875 0.00286953 0.207602 220 32 9
-0.351505 0.00401428 0.207753 226 34 12
-0.351434 0.00519125 0.207768 233 36 17
-0.351063 0.00633738 0.207919 242 40 20
-0.350693 0.00748355 0.20807 253 47 32
-0.350323 0.00862978 0.20822 255 54 42
-0.35025 0.00981343 0.208237 255 61 50
-0.349879 0.010961 0.208387 255 74 62
-0.349508 0.0121087 0.208538 255 80 66
-0.348842 0.0132152 0.208823 255 82 64
-0.348471 0.0143616 0.208974 255 83 63
-0.348101 0.0155081 0.209125 255 80 63
-0.34773 0.0166547 0.209275 255 79 62
-0.347654 0.0178477 0.209293 255 79 61
-0.399833 0.0333393 0.185565 255 78 59
-0.398114 0.0344892 0.186323 255 76 55
-0.396409 0.03563 0.187075 255 79 60
-0.393892 0.036601 0.188196 255 80 62
-0.391814 0.0376402 0.189117 255 78 59
-0.391376 0.0389982 0.189296 255 78 54
-0.388521 0.0398524 0.19057 255 74 51
-0.386893 0.0409456 0.191288 255 74 53
-0.38646 0.0422878 0.191464 255 73 54
-0.385632 0.0435422 0.19182 255 73 53
-0.384806 0.0447934 0.192174 255 74 52
-0.383983 0.0460415 0.192528 255 75 51
-0.383162 0.0472863 0.19288 255 73 49
-0.382342 0.0485279 0.193232 255 69 46
-0.379229 0.0491996 0.194625 255 65 43
-0.377668 0.0502362 0.195314 255 64 41
-0.376867 0.0514568 0.195657 255 63 39
-0.376069 0.0526743 0.196 255 61 38
-0.3749 0.0537899 0.196511 255 62 38
-0.374107 0.0549999 0.196851 255 60 37
-0.373316 0.0562068 0.19719 255 58 36
-0.372894 0.0575139 0.197362 255 58 38
-0.372472 0.058821 0.197534 255 63 42
-0.372049 0.0601282 0.197706 255 67 47
-0.371993 0.0615438 0.197711 255 66 47
-0.371937 0.0629631 0.197717 255 64 43
-0.372987 0.0647246 0.197218 255 57 38
-0.373303 0.0662726 0.197054 254 52 35
-0.373248 0.0677109 0.197059 239 49 34
-0.373193 0.069153 0.197063 171 50 37
-0.373138 0.0705989 0.197068 112 52 41
-0.373082 0.0720485 0.197073 93 56 41
-0.378687 0.0891183 0.194307 133 34 21
-0.380621 0.0914159 0.193403 154 23 12
-0.380973 0.0931165 0.19322 163 17 6
-0.380926 0.094666 0.19322 166 18 4
-0.381684 0.0965455 0.192852 169 18 2
-0.382856 0.0986073 0.192295 169 19 4
-0.38322 0.100351 0.192106 170 18 2
-0.383174 0.101932 0.192105 171 15 1
-0.38354 0.103692 0.191915 173 15 0
-0.383907 0.105462 0.191724 175 20 1
-0.384277 0.107242 0.191533 175 17 3
-0.383817 0.108665 0.19172 177 20 2
-0.383772 0.110273 0.191718 181 19 0
-0.383312 0.111698 0.191905 183 22 4
-0.382852 0.113123 0.192092 189 22 4
-0.382805 0.11474 0.19209 193 23 6
-0.382344 0.116167 0.192278 198 28 5
-0.382296 0.11779 0.192277 202 29 7
-0.382664 0.119617 0.192085 207 30 8
-0.382617 0.121252 0.192084 216 31 8
-0.383405 0.123303 0.191699 224 30 9
-0.383359 0.124952 0.191697 231 33 12
-0.382892 0.126396 0.191887 238 35 17
-0.382426 0.127839 0.192077 245 39 23
-0.382378 0.129497 0.192075 251 43 23
-0.38233 0.131161 0.192073 254 46 27
-0.381444 0.132389 0.192455 255 53 35
-0.380145 0.133394 0.193026 255 53 37
-0.37968 0.134835 0.193216 255 57 39
-0.379214 0.136277 0.193405 255 63 47
-0.378748 0.137719 0.193595 255 72 54
-0.378282 0.139161 0.193784 255 76 57
-0.377405 0.140374 0.194162 254 75 57
-0.37694 0.141814 0.194351 190 51 37
-0.376475 0.143254 0.194541 101 26 23
-0.38021 0.173759 0.192428 165 147 140
-0.379726 0.175257 0.192625 196 176 159
-0.379242 0.176755 0.192822 219 197 189
-0.37833 0.17796 0.193216 237 237 235
-0.377421 0.179161 0.193608 250 255 254
-0.376515 0.180359 0.194 253 252 245
-0.375611 0.181554 0.19439 243 236 212
-0.374291 0.182448 0.194972 211 189 171
-0.372151 0.182743 0.195932 155 112 125
-0.370036 0.183036 0.196882 100 61 63
-0.36875 0.183913 0.197448 73 67 55
-0.367472 0.184785 0.198012 63 60 51
-0.366201 0.185653 0.198572 65 58 42
-0.354378 -0.00390855 0.205247 72 47 31
-0.353706 -0.00278475 0.205535 72 47 33
-0.353336 -0.00163886 0.205686 93 44 33
-0.352966 -0.000492931 0.205837 135 36 23
-0.352596 0.000653049 0.205987 168 24 9
-0.352225 0.00179908 0.206138 179 18 5
-0.352154 0.00297489 0.206152 183 22 6
-0.351784 0.00412231 0.206303 188 22 6
-0.351413 0.00526977 0.206453 193 21 5
-0.350744 0.00638369 0.206741 199 19 7
-0.350374 0.00752997 0.206891 208 27 13
-0.350301 0.00871244 0.206906 221 30 17
-0.34993 0.0098601 0.207057 236 38 26
-0.349559 0.0110078 0.207208 250 48 35
-0.348892 0.0121156 0.207494 255 50 40
-0.348522 0.0132621 0.207645 255 57 45
-0.347857 0.0143662 0.20793 255 68 51
-0.347487 0.0155115 0.208081 255 74 57
-0.347117 0.0166569 0.208231 255 80 62
-0.346747 0.0178023 0.208382 255 85 64
-0.346377 0.0189478 0.208532 255 81 64
-0.396026 0.0356875 0.185663 255 82 63
-0.391874 0.0363392 0.187544 255 81 61
-0.389818 0.0373745 0.188464 255 80 58
-0.38858 0.0385618 0.189009 255 79 54
-0.387746 0.039826 0.189368 255 76 53
-0.386519 0.0410023 0.189909 255 74 53
-0.386085 0.0423446 0.190085 255 72 53
-0.385258 0.0435991 0.190442 255 72 52
-0.384825 0.0449398 0.190619 255 73 50
-0.384 0.0461894 0.190975 255 71 48
-0.383178 0.0474358 0.19133 255 70 47
-0.38197 0.0485851 0.191862 255 67 45
-0.378859 0.0492563 0.193267 255 63 41
-0.377677 0.0503878 0.193788 255 62 39
-0.376126 0.0514174 0.194478 255 61 39
-0.374958 0.0525362 0.194993 255 60 37
-0.374165 0.0537478 0.195335 255 60 38
-0.373006 0.0548566 0.195845 255 60 37
-0.371853 0.0559597 0.196353 255 57 37
-0.371432 0.057262 0.196524 255 59 40
-0.371011 0.0585642 0.196695 255 65 45
-0.370954 0.0599725 0.196699 255 65 47
-0.370897 0.0613845 0.196703 255 65 46
-0.371205 0.0629102 0.196539 255 60 40
-0.371881 0.0645563 0.196205 255 53 35
-0.372563 0.0662152 0.195869 246 49 33
-0.372507 0.0676518 0.195872 196 49 37
-0.372081 0.0689728 0.196045 121 52 45
-0.372024 0.0704148 0.196049 87 57 48
-0.381341 0.0950506 0.191421 153 24 8
-0.382917 0.0972663 0.190668 163 20 3
-0.383691 0.0991748 0.190286 164 19 2
-0.383646 0.100756 0.190282 165 17 2
-0.384013 0.102516 0.190087 167 15 2
-0.383144 0.103757 0.190463 168 17 1
-0.383098 0.10535 0.190459 170 15 2
-0.38264 0.106767 0.190646 170 17 3
-0.383006 0.108548 0.190451 172 17 2
-0.382959 0.110154 0.190447 173 19 3
-0.382499 0.111577 0.190634 175 24 4
-0.382452 0.113189 0.19063 179 21 2
-0.381992 0.114615 0.190818 182 22 4
-0.381944 0.116234 0.190814 185 25 3
-0.381896 0.117857 0.190811 188 24 6
-0.381434 0.119286 0.190999 192 28 6
-0.381799 0.121118 0.190804 198 29 6
-0.382583 0.123165 0.190415 204 29 6
-0.382536 0.124812 0.19041 212 29 7
-0.38207 0.126253 0.1906 219 32 10
-0.381604 0.127695 0.190789 227 34 14
-0.381555 0.129351 0.190786 235 36 16
-0.381506 0.131012 0.190782 242 39 19
-0.381039 0.132458 0.190972 248 43 25
-0.379741 0.133462 0.191548 253 46 27
-0.379275 0.134904 0.191737 255 50 30
-0.378809 0.136346 0.191927 255 52 36
-0.377932 0.137562 0.192307 255 59 43
-0.377057 0.138775 0.192686 255 65 49
-0.376184 0.139985 0.193065 249 67 52
-0.37572 0.141421 0.193254 185 46 37
-0.375256 0.142857 0.193442 99 27 26
-0.374792 0.144294 0.193631 61 28 28
-0.378449 0.174754 0.191489 156 142 133
-0.377967 0.176248 0.191686 194 182 167
-0.377484 0.177742 0.191882 230 233 221
-0.376155 0.178649 0.192473 250 255 247
-0.375674 0.180139 0.192669 227 228 231
-0.374354 0.181037 0.193256 186 173 171
-0.372213 0.181341 0.194225 161 130 107
-0.370914 0.182228 0.194803 152 122 102
-0.368812 0.182522 0.195756 160 104 86
-0.367534 0.183399 0.196324 101 62 76
-0.365468 0.183684 0.19726 60 60 64
-0.36421 0.18455 0.19782 60 48 38
-0.362958 0.185411 0.198376 61 44 34
-0.354968 -0.00379649 0.203648 73 44 30
-0.354293 -0.00266894 0.203939 75 43 29
-0.353619 -0.00154388 0.20423 113 42 27
-0.353248 -0.00039528 0.20438 149 29 13
-0.352877 0.000753368 0.204531 160 15 3
-0.352506 0.00190207 0.204682 159 12 3
-0.352435 0.00308074 0.204695 160 14 4
-0.352064 0.00423083 0.204846 164 19 5
-0.351692 0.00538096 0.204997 166 19 6
-0.35132 0.00653114 0.205148 170 16 6
-0.350949 0.00768138 0.205299 173 17 8
-0.350279 0.00879529 0.205588 182 20 9
-0.34961 0.00990677 0.205877 195 25 9
-0.34924 0.0110546 0.206028 211 29 12
-0.348573 0.0121624 0.206315 229 32 15
-0.347908 0.0132678 0.206602 247 38 19
-0.347538 0.0144131 0.206753 255 44 26
-0.346874 0.0155149 0.207039 255 53 37
-0.346505 0.0166591 0.207189 255 65 47
-0.346135 0.0178034 0.20734 255 74 55
-0.345765 0.0189477 0.20749 255 81 62
-0.345396 0.020092 0.207641 255 84 66
-0.38864 0.037271 0.187447 255 78 59
-0.387806 0.038537 0.187809 255 78 58
-0.387371 0.0398828 0.187986 255 76 58
-0.38654 0.0411438 0.188346 255 75 56
-0.386105 0.042488 0.188523 255 73 55
-0.385671 0.0438322 0.1887 255 71 52
-0.384451 0.0449969 0.189241 255 70 49
-0.384017 0.0463377 0.189417 255 68 46
-0.382804 0.047493 0.189956 255 66 44
-0.382372 0.0488304 0.190131 255 65 42
-0.379631 0.0495958 0.191379 255 63 40
-0.377308 0.0504445 0.192434 255 60 39
-0.375759 0.051474 0.193129 255 59 38
-0.374592 0.0525927 0.193647 255 58 37
-0.373063 0.0536076 0.194333 255 58 37
-0.37191 0.054714 0.194844 255 58 36
-0.370762 0.0558149 0.195353 255 58 37
-0.370343 0.0571139 0.195524 255 63 42
-0.370285 0.0585169 0.195526 255 67 46
-0.370227 0.0599234 0.195529 255 66 46
-0.370168 0.0613336 0.195531 255 62 42
-0.37011 0.0627475 0.195534 255 55 33
-0.370781 0.0643889 0.195197 252 49 29
-0.371457 0.0660431 0.194857 225 49 32
-0.371768 0.0675928 0.194687 143 52 41
-0.371342 0.0689123 0.194861 93 56 50
-0.371284 0.0703525 0.194862 82 58 50
-0.384163 0.0979951 0.18846 126 39 20
-0.384119 0.0995773 0.188453 147 30 12
-0.384074 0.101164 0.188447 160 22 7
-0.383617 0.102581 0.188633 164 20 4
-0.382747 0.103822 0.189011 166 21 2
-0.38229 0.105237 0.189197 167 15 4
-0.381424 0.106474 0.189575 170 19 4
-0.381785 0.108249 0.189378 169 24 5
-0.381327 0.109667 0.189564 168 23 6
-0.381279 0.11127 0.189559 170 25 4
-0.38123 0.112877 0.189553 173 23 6
-0.381181 0.11449 0.189548 173 21 7
-0.381132 0.116106 0.189543 175 25 3
-0.381083 0.117727 0.189538 178 21 4
-0.380622 0.119155 0.189725 180 26 5
-0.380984 0.120984 0.189527 184 27 7
-0.381764 0.123027 0.189133 188 28 6
-0.381715 0.124672 0.189127 195 28 5
-0.38125 0.126112 0.189316 201 31 7
-0.3812 0.127763 0.189311 208 32 10
-0.38115 0.129419 0.189305 214 33 11
-0.3811 0.13108 0.1893 223 37 16
-0.380633 0.132526 0.18949 232 37 17
-0.379337 0.133531 0.190069 240 40 16
-0.378871 0.134973 0.190258 247 43 21
-0.377993 0.136191 0.190641 251 47 29
-0.377118 0.137406 0.191023 254 51 35
-0.376246 0.138618 0.191403 254 54 39
-0.375375 0.139826 0.191783 226 52 39
-0.374912 0.14126 0.191972 154 36 31
-0.374449 0.142695 0.19216 85 28 27
-0.376699 0.175744 0.190555 159 149 142
-0.376218 0.177234 0.190751 204 200 189
-0.375316 0.178431 0.191145 243 241 219
-0.373998 0.179333 0.191736 254 222 199
-0.372275 0.179938 0.192518 214 149 154
-0.370976 0.180829 0.193101 142 97 126
-0.369685 0.181715 0.19368 114 108 109
-0.367997 0.182303 0.194446 145 136 108
-0.365528 0.182305 0.195582 138 126 118
-0.363877 0.182885 0.196332 101 105 103
-0.362629 0.183749 0.196891 73 43 39
-0.361001 0.184319 0.19763 56 43 32
-0.355561 -0.00368368 0.202037 74 42 31
-0.354883 -0.00255235 0.202331 93 44 28
-0.354207 -0.00142352 0.202625 132 35 19
-0.353532 -0.000297162 0.202918 151 18 8
-0.35316 0.000854168 0.203069 152 9 3
-0.352788 0.00200555 0.20322 149 10 4
-0.352717 0.00318707 0.203231 149 15 4
-0.352345 0.00433985 0.203382 153 19 5
-0.352274 0.00552543 0.203393 153 20 8
-0.351901 0.0066796 0.203545 154 21 9
-0.351227 0.00779844 0.203837 156 19 12
-0.34892 0.0111014 0.204847 177 26 6
-0.348253 0.0122092 0.205136 190 24 7
-0.347588 0.0133146 0.205425 205 25 10
-0.34634 0.014333 0.205986 224 30 12
-0.345971 0.0154747 0.206136 244 36 16
-0.346186 0.0167062 0.206013 255 42 22
-0.345816 0.0178506 0.206163 255 50 32
-0.345155 0.0189475 0.20645 255 64 45
-0.344786 0.0200907 0.2066 255 76 58
-0.344998 0.0213341 0.206478 255 84 70
-0.345796 0.0226867 0.206082 255 102 81
-0.387828 0.0386753 0.186239 255 79 60
