ply
format ascii 1.0
element vertex 1293
property float x
property float y
property float z
property uchar diffuse_red
property uchar diffuse_green
property uchar diffuse_blue
end_header
-0.456291 0.12409 0.310763 202 3 0
-0.45405 0.124982 0.311059 205 1 0
-0.451265 0.125636 0.311379 213 1 0
-0.448513 0.126282 0.311694 218 7 0
-0.445795 0.12692 0.312006 216 3 0
-0.445291 0.128471 0.312216 212 0 0
-0.442068 0.128862 0.312547 208 1 0
-0.439425 0.129476 0.31285 204 0 0
-0.43734 0.130313 0.313126 203 0 0
-0.434234 0.130682 0.313444 201 1 0
-0.430663 0.130819 0.31378 200 3 0
-0.428156 0.131406 0.314067 201 5 0
-0.424689 0.131535 0.314393 200 5 0
-0.419838 0.130994 0.314772 197 6 0
-0.415109 0.130468 0.315142 196 4 0
-0.411411 0.130384 0.315466 193 4 0
-0.409133 0.130945 0.31573 190 7 0
-0.408223 0.132147 0.315939 189 7 0
-0.406868 0.133128 0.316164 191 11 3
-0.40641 0.134541 0.316355 211 24 18
-0.405951 0.135954 0.316546 255 62 50
-0.405493 0.137367 0.316736 255 65 55
-0.405035 0.13878 0.316927 255 52 34
-0.40502 0.14042 0.317102 255 54 40
-0.404561 0.141835 0.317293 252 63 48
-0.404546 0.143482 0.317468 155 73 60
-0.404086 0.1449 0.31766 97 70 62
-0.544799 0.0715073 0.295292 95 75 61
-0.545036 0.0735409 0.295482 97 70 59
-0.544433 0.0754004 0.295733 103 61 57
-0.54467 0.0774451 0.295924 122 52 41
-0.543227 0.0791197 0.296234 151 28 22
-0.542624 0.0809794 0.296485 183 17 11
-0.541186 0.0826447 0.296794 207 31 22
-0.539754 0.084304 0.297102 233 46 35
-0.538327 0.0859574 0.297409 252 50 34
-0.537727 0.0878073 0.297658 254 48 26
-0.536307 0.0894514 0.297963 255 41 19
-0.535708 0.0912982 0.298212 246 34 14
-0.536748 0.0935709 0.298352 222 22 6
-0.536147 0.0954245 0.298602 210 10 0
-0.528278 0.095326 0.299331 222 17 7
-0.526106 0.0967181 0.29968 236 34 21
-0.529485 0.0996374 0.299668 252 39 23
-0.527296 0.101022 0.300018 255 45 24
-0.523554 0.101946 0.300466 255 41 22
-0.516048 0.101748 0.30115 255 46 28
-0.513215 0.102867 0.301533 252 47 31
-0.511151 0.104197 0.301866 246 30 14
-0.510577 0.105968 0.302105 224 17 2
-0.509264 0.10751 0.302389 212 5 1
-0.507224 0.108818 0.302717 222 9 2
-0.504475 0.109886 0.303087 233 25 10
-0.499623 0.110255 0.303581 250 33 16
-0.496954 0.111299 0.303941 255 47 31
-0.495004 0.112564 0.304256 255 46 36
-0.492381 0.113588 0.304609 255 48 42
-0.489784 0.114602 0.304959 255 76 51
-0.486544 0.115375 0.305344 251 40 35
-0.484006 0.116369 0.305686 239 28 6
-0.482146 0.117585 0.305988 211 1 0
-0.479004 0.118328 0.306361 211 5 1
-0.475268 0.118828 0.306764 224 5 3
-0.472842 0.119783 0.307092 234 17 13
-0.46982 0.120497 0.30745 232 39 48
-0.466836 0.121202 0.307804 231 42 47
-0.46389 0.121898 0.308153 231 30 21
-0.460981 0.122586 0.308498 220 18 5
-0.458694 0.123495 0.308808 209 8 0
-0.456428 0.124396 0.309115 203 3 0
-0.454758 0.12552 0.309389 203 1 0
-0.453098 0.126637 0.309662 204 0 0
-0.449195 0.126817 0.310047 207 9 0
-0.445912 0.127224 0.310398 207 5 0
-0.442139 0.127395 0.31077 205 1 0
-0.439496 0.128018 0.311083 203 2 0
-0.43741 0.128862 0.311367 200 2 0
-0.436916 0.130386 0.311573 198 5 0
-0.433812 0.130755 0.311903 195 6 0
-0.430754 0.131119 0.312228 193 4 0
-0.42674 0.131025 0.312595 193 5 0
-0.42232 0.130711 0.312978 194 5 0
-0.415643 0.129313 0.313459 192 3 0
-0.411476 0.129027 0.31382 190 3 0
-0.409197 0.129595 0.314093 188 4 0
-0.407838 0.130585 0.314324 188 5 0
-0.406486 0.131569 0.314554 189 10 0
-0.405585 0.132763 0.314764 201 15 4
-0.405128 0.134172 0.314954 236 39 24
-0.405113 0.135802 0.315125 255 69 52
-0.404656 0.137213 0.315316 255 55 41
-0.404198 0.138624 0.315506 255 53 37
-0.404182 0.140262 0.315679 254 56 42
-0.404166 0.141905 0.315852 238 67 52
-0.404151 0.143552 0.316025 134 70 60
-0.403691 0.14497 0.316216 91 69 64
-0.546448 0.0760295 0.293644 91 68 61
-0.54669 0.0780867 0.293832 95 70 62
-0.546082 0.0799602 0.294085 105 65 57
-0.545475 0.0818338 0.294337 128 49 37
-0.544867 0.0837075 0.29459 158 24 17
-0.544259 0.0855812 0.294843 188 14 11
-0.542808 0.0872506 0.295157 213 33 25
-0.541363 0.0889139 0.29547 235 53 40
-0.539922 0.0905713 0.295782 255 54 37
-0.538487 0.0922226 0.296093 255 46 29
-0.536234 0.0936538 0.296461 253 39 19
-0.535632 0.0955076 0.296711 244 31 12
-0.535031 0.0973614 0.296961 222 20 4
-0.531987 0.0985471 0.297381 213 10 2
-0.531389 0.100391 0.29763 225 14 5
-0.527583 0.101329 0.298099 236 29 13
-0.524617 0.102479 0.298508 252 34 16
-0.522461 0.103843 0.29886 255 45 27
-0.519548 0.10497 0.299261 255 46 29
-0.513641 0.105175 0.29986 254 43 25
-0.512314 0.106729 0.300151 250 46 29
-0.510992 0.108279 0.30044 244 35 21
-0.508936 0.10959 0.300776 220 14 5
-0.506163 0.11066 0.301158 212 4 1
-0.503419 0.111719 0.301536 224 8 3
-0.498578 0.112069 0.302046 233 23 10
-0.495914 0.113105 0.302413 244 36 27
-0.493968 0.114363 0.302734 255 49 38
-0.491349 0.115379 0.303095 255 84 60
-0.488083 0.116151 0.303494 255 51 37
-0.484198 0.116679 0.303929 251 44 21
-0.481679 0.117664 0.304277 214 20 3
-0.479833 0.118872 0.304582 204 6 0
-0.476717 0.119604 0.304963 207 0 0
-0.47364 0.120326 0.305338 211 2 2
-0.469983 0.120806 0.305746 215 5 7
-0.467605 0.121742 0.306075 213 7 7
-0.46344 0.121974 0.306507 210 5 3
-0.461127 0.122892 0.306828 206 3 0
-0.458836 0.123802 0.307146 205 1 0
-0.457147 0.124935 0.307428 203 6 0
-0.455469 0.126061 0.307709 203 2 0
-0.453229 0.126946 0.308019 200 5 0
-0.451009 0.127823 0.308327 199 9 0
-0.448251 0.128458 0.308662 199 11 0
-0.44171 0.127469 0.309201 198 9 0
-0.438008 0.127637 0.30958 196 6 0
-0.435413 0.128253 0.309898 193 4 0
-0.430292 0.127741 0.310346 190 2 0
-0.429806 0.129239 0.310548 189 2 0
-0.42631 0.129387 0.310906 189 2 0
-0.416646 0.12671 0.311576 188 4 0
-0.416178 0.128155 0.311771 188 6 0
-0.411541 0.127669 0.312174 188 8 0
-0.409714 0.128457 0.312434 190 9 0
-0.407903 0.129239 0.312692 190 8 0
-0.406551 0.130226 0.312927 190 9 1
-0.405649 0.131423 0.313138 195 12 0
-0.40475 0.132616 0.313349 216 22 8
-0.404293 0.134023 0.313539 254 53 34
-0.404278 0.13565 0.313708 255 68 51
-0.403821 0.13706 0.313898 255 52 35
-0.403804 0.138694 0.314069 255 55 38
-0.403347 0.140105 0.314259 248 61 44
-0.40333 0.141745 0.31443 193 72 56
-0.403755 0.143622 0.314582 112 70 62
-0.403295 0.14504 0.314773 87 71 64
-0.546412 0.0802343 0.292105 97 71 60
-0.54751 0.0825037 0.292225 102 73 63
-0.546899 0.0843879 0.292479 109 62 54
-0.547143 0.0864764 0.292666 132 44 31
-0.546531 0.0883642 0.292921 162 22 13
-0.545918 0.0902522 0.293176 193 13 12
-0.544454 0.0919256 0.293495 215 34 32
-0.542149 0.0933764 0.293878 236 56 46
-0.540699 0.095035 0.294194 255 55 37
-0.539255 0.0966876 0.29451 254 44 30
-0.537815 0.0983342 0.294824 251 38 18
-0.536381 0.0999749 0.295137 245 34 16
-0.535777 0.101839 0.295388 227 23 6
-0.531898 0.102777 0.295879 214 10 3
-0.525688 0.103014 0.296536 224 9 4
-0.52352 0.104382 0.296896 236 30 17
-0.521368 0.10574 0.297253 249 41 28
-0.518461 0.106857 0.297663 255 50 29
-0.51407 0.107499 0.298176 255 52 38
-0.511242 0.108591 0.298575 254 64 50
-0.509921 0.110137 0.298867 246 43 37
-0.507869 0.111443 0.299209 232 25 6
-0.504376 0.112268 0.299649 212 2 0
-0.500931 0.113082 0.300083 211 4 1
-0.496831 0.11365 0.300558 220 11 6
-0.494181 0.114677 0.300932 235 16 9
-0.492243 0.115928 0.301257 234 32 23
-0.488959 0.116698 0.30167 233 26 14
-0.485054 0.117224 0.302122 229 23 5
-0.482523 0.118209 0.30248 210 9 1
-0.480668 0.11942 0.302792 202 6 0
-0.477535 0.120151 0.303185 202 0 0
-0.475078 0.121107 0.303533 201 4 1
-0.470768 0.121349 0.303997 205 4 0
-0.467764 0.122052 0.304374 202 2 0
-0.463591 0.122282 0.304823 200 2 0
-0.46068 0.122968 0.305189 199 7 0
-0.458978 0.124109 0.305479 198 4 0
-0.456703 0.12501 0.305802 197 2 0
-0.455605 0.126371 0.306052 196 5 0
-0.453935 0.127491 0.306337 195 6 0
-0.452275 0.128604 0.306619 194 7 0
-0.450059 0.129474 0.306933 193 8 0
-0.447306 0.130098 0.307277 193 6 0
-0.437583 0.12771 0.308025 193 8 0
-0.43036 0.126316 0.308618 190 8 0
-0.429874 0.127813 0.30882 187 6 0
-0.426876 0.128195 0.309165 186 6 0
-0.418129 0.125972 0.309829 187 5 0
-0.412069 0.124885 0.310336 188 10 0
-0.41024 0.125685 0.310604 190 12 0
-0.408876 0.126686 0.310845 190 8 0
-0.407073 0.127473 0.311108 189 5 0
-0.40617 0.128673 0.311322 191 8 0
-0.405713 0.130082 0.311512 192 16 0
-0.404814 0.131277 0.311726 200 19 2
-0.404357 0.132685 0.311916 226 35 18
-0.403901 0.134092 0.312105 255 60 42
-0.403444 0.1355 0.312295 255 55 40
-0.402988 0.136907 0.312485 255 53 35
-0.40297 0.138538 0.312653 255 54 38
-0.402953 0.140174 0.312821 241 57 46
-0.402935 0.141815 0.31299 152 68 59
-0.402918 0.14346 0.313159 93 74 66
-0.54809 0.0848736 0.290414 105 72 61
-0.550941 0.087593 0.290386 110 68 58
-0.550323 0.0894987 0.290643 118 56 48
-0.549705 0.0914045 0.2909 143 37 28
-0.549087 0.0933103 0.291157 173 21 12
-0.546739 0.0947723 0.291552 201 18 12
-0.543557 0.096001 0.292013 222 38 34
-0.541251 0.0974397 0.292401 238 58 52
-0.538962 0.098868 0.292787 255 57 38
-0.537521 0.100514 0.293105 254 52 38
-0.536085 0.102154 0.293422 250 57 38
-0.534654 0.103788 0.293738 243 45 32
-0.530783 0.104711 0.29424 231 20 9
-0.525378 0.105157 0.294857 217 6 3
-0.522423 0.106286 0.295283 227 11 7
-0.520274 0.107638 0.295646 237 30 17
-0.517373 0.108745 0.296065 240 49 50
-0.512992 0.10937 0.296591 254 66 58
-0.510169 0.110453 0.296999 254 53 42
-0.507376 0.111524 0.297402 237 38 17
-0.504611 0.112584 0.297801 211 11 0
-0.501875 0.113633 0.298196 202 2 0
-0.49705 0.113965 0.298741 206 3 0
-0.494394 0.114991 0.299125 212 2 0
-0.493142 0.11648 0.299407 213 12 3
-0.489841 0.11725 0.299834 210 10 2
-0.486585 0.118009 0.300255 210 5 0
-0.483372 0.118759 0.30067 205 5 0
-0.480853 0.119735 0.301035 202 2 0
-0.478359 0.120701 0.301396 197 4 0
-0.47589 0.121658 0.301753 195 7 0
-0.472185 0.122132 0.302193 195 7 0
-0.467923 0.122363 0.302668 193 5 0
-0.463141 0.122358 0.303173 194 1 2
-0.460232 0.123044 0.30355 192 4 0
-0.45912 0.124418 0.303806 190 2 0
-0.457425 0.125553 0.304099 190 2 0
-0.455741 0.126681 0.304391 189 4 0
-0.454645 0.128039 0.304643 190 2 0
-0.452405 0.128917 0.304969 193 1 0
-0.45189 0.130502 0.305183 192 4 0
-0.426927 0.125076 0.30728 188 7 0
-0.426446 0.126561 0.30748 187 13 1
-0.419147 0.125014 0.308097 187 16 1
-0.415372 0.124983 0.308493 189 11 2
-0.410305 0.124332 0.308964 192 8 1
-0.409392 0.125545 0.309183 193 9 0
-0.408032 0.126546 0.309427 191 7 0
-0.406234 0.127332 0.309697 192 4 0
-0.405334 0.128531 0.309912 194 10 0
-0.404437 0.129727 0.310127 196 13 0
-0.403541 0.130919 0.310342 213 17 6
-0.403086 0.132323 0.310531 245 48 30
-0.402631 0.133726 0.310721 255 70 49
-0.402176 0.13513 0.31091 255 52 35
-0.40172 0.136534 0.311099 255 51 35
-0.402138 0.138384 0.311241 252 56 41
-0.40212 0.140017 0.311407 221 65 50
-0.402101 0.141656 0.311574 128 66 59
-0.402082 0.143298 0.311741 86 73 65
-0.551285 0.0878865 0.288366 102 74 65
-0.552419 0.0902237 0.288473 103 69 62
-0.551798 0.0921403 0.288731 109 64 57
-0.5503 0.0938357 0.289064 124 55 41
-0.548807 0.0955247 0.289395 151 34 18
-0.547321 0.0972075 0.289726 185 15 10
-0.54327 0.0982003 0.290269 210 20 19
-0.541807 0.0998627 0.290595 226 39 35
-0.539507 0.101288 0.290988 239 63 55
-0.537225 0.102702 0.291379 255 73 53
-0.534959 0.104106 0.291768 254 85 63
-0.53271 0.1055 0.292153 246 41 27
-0.526457 0.105705 0.29286 222 18 8
-0.523486 0.106836 0.293299 211 4 0
-0.521326 0.108191 0.29367 213 8 4
-0.518408 0.109299 0.294101 220 16 15
-0.514761 0.110158 0.294586 234 19 17
-0.510418 0.110769 0.295124 233 18 13
-0.507619 0.111841 0.295538 221 13 6
-0.504848 0.112901 0.295947 207 5 0
-0.501388 0.113714 0.296408 200 4 0
-0.497975 0.114516 0.296862 201 1 0
-0.495305 0.115543 0.297258 203 4 0
-0.493353 0.116798 0.297596 202 7 0
-0.490729 0.117805 0.297985 198 6 0
-0.488809 0.119042 0.298318 198 4 0
-0.48556 0.119789 0.298749 197 2 0
-0.481695 0.120288 0.299223 195 3 0
-0.479189 0.121256 0.299594 190 3 0
-0.476707 0.122213 0.299962 189 4 1
-0.473616 0.122923 0.300372 190 3 0
-0.468083 0.122675 0.300955 190 4 0
-0.46269 0.122434 0.301523 189 1 1
-0.459784 0.123119 0.301911 188 4 0
-0.458673 0.124494 0.302169 186 4 0
-0.457565 0.125863 0.302427 186 5 0
-0.45646 0.127229 0.302683 186 4 0
-0.454779 0.128352 0.302979 188 2 0
-0.451963 0.128992 0.303352 193 0 0
-0.451449 0.130578 0.303566 191 8 0
-0.426514 0.125147 0.305766 189 13 2
-0.421134 0.124474 0.306291 191 11 1
-0.417318 0.124449 0.306707 191 7 0
-0.41404 0.124634 0.307085 192 8 0
-0.409909 0.124401 0.307516 194 10 0
-0.408546 0.125406 0.307766 193 7 0
-0.40719 0.126406 0.308014 191 5 0
-0.405842 0.127401 0.308261 192 7 0
-0.404501 0.12839 0.308506 195 12 0
-0.403605 0.129584 0.308723 201 19 2
-0.402276 0.130563 0.308966 225 34 17
-0.401822 0.131963 0.309155 255 55 42
-0.401368 0.133363 0.309343 255 59 47
-0.401348 0.134981 0.309506 255 56 34
-0.401329 0.136603 0.309669 255 54 34
-0.401746 0.138453 0.309807 239 61 46
-0.401726 0.140087 0.309971 169 72 58
-0.401707 0.141725 0.310135 106 69 62
-0.401688 0.143368 0.3103 89 73 62
-0.552145 0.0924444 0.286696 96 71 63
-0.551522 0.0943649 0.286955 98 70 60
-0.550022 0.0960595 0.287291 112 56 46
-0.547657 0.0975199 0.287704 145 31 24
-0.546172 0.0991992 0.288037 182 6 3
-0.54213 0.100177 0.288593 200 9 9
-0.540669 0.101836 0.288922 214 20 18
-0.538374 0.103254 0.289322 230 32 26
-0.536096 0.104662 0.289719 232 53 43
-0.533012 0.105821 0.290183 230 33 19
-0.529153 0.106731 0.290712 215 20 4
-0.525349 0.107627 0.291232 205 3 0
-0.5216 0.10851 0.291746 202 2 0
-0.518676 0.109619 0.292187 205 6 0
-0.51502 0.110477 0.292687 211 5 0
-0.510668 0.111087 0.293242 208 8 0
-0.507125 0.111922 0.293727 203 3 0
-0.504357 0.112982 0.294146 200 2 0
-0.501617 0.114032 0.294561 196 4 0
-0.49749 0.114596 0.295086 194 5 0
-0.496222 0.116099 0.295377 196 6 0
-0.494261 0.117356 0.295724 195 2 0
-0.491623 0.118364 0.296123 193 3 0
-0.489694 0.119603 0.296463 193 3 0
-0.487777 0.120834 0.296802 189 4 0
-0.485203 0.121813 0.297191 188 4 0
-0.480024 0.121814 0.297781 185 4 0
-0.478177 0.123013 0.298108 185 6 0
-0.473154 0.123 0.298679 186 4 0
-0.467627 0.122752 0.299284 187 4 0
-0.460451 0.121817 0.300009 185 5 0
-0.458747 0.122964 0.300316 185 5 0
-0.457639 0.124336 0.300576 184 3 0
-0.457118 0.125939 0.300792 183 6 1
-0.456015 0.127305 0.301051 183 7 1
-0.454335 0.128428 0.301353 188 6 0
-0.451521 0.129067 0.301735 191 5 0
-0.451007 0.130653 0.301949 190 9 0
-0.425604 0.125002 0.304288 192 8 1
-0.420245 0.124332 0.304833 191 8 0
-0.416443 0.124309 0.305263 193 7 0
-0.41364 0.124703 0.305621 195 9 0
-0.409513 0.124469 0.306068 193 7 0
-0.408151 0.125475 0.306321 190 4 0
-0.406796 0.126475 0.306573 190 3 0
-0.405006 0.12726 0.306854 193 7 0
-0.403669 0.128249 0.307103 199 15 0
-0.40234 0.129231 0.307351 216 23 5
-0.401451 0.13042 0.307568 242 46 26
-0.400997 0.131818 0.307756 255 65 42
-0.400544 0.133216 0.307945 255 53 34
-0.400523 0.134831 0.308105 255 52 32
-0.400502 0.136451 0.308266 255 58 39
-0.400917 0.138299 0.3084 227 61 46
-0.400896 0.13993 0.308562 136 65 56
-0.400876 0.141566 0.308724 96 68 58
-0.551869 0.094674 0.284912 91 68 63
-0.550365 0.0963713 0.285253 99 68 58
-0.548867 0.0980624 0.285593 119 55 44
-0.546507 0.0995155 0.286011 156 23 17
-0.545024 0.101191 0.286348 183 0 0
-0.54099 0.102155 0.286916 191 1 1
-0.538689 0.103574 0.287325 201 5 5
-0.536406 0.104983 0.28773 207 14 11
-0.534966 0.106622 0.288058 208 10 4
-0.530257 0.107291 0.288677 203 7 0
-0.527233 0.108426 0.289143 198 5 0
-0.522662 0.109069 0.289744 197 6 0
-0.519721 0.110179 0.290198 198 6 0
-0.516045 0.111037 0.290714 197 10 0
-0.510918 0.111406 0.291354 194 6 0
-0.506631 0.112004 0.291917 192 6 0
-0.503866 0.113063 0.292345 192 6 0
-0.501129 0.114113 0.292769 190 5 0
-0.497006 0.114676 0.293309 188 7 0
-0.495738 0.116179 0.293603 189 3 0
-0.493779 0.117436 0.293956 188 1 0
-0.491832 0.118685 0.294306 189 2 0
-0.489899 0.119925 0.294653 190 5 0
-0.487978 0.121157 0.294999 187 4 0
-0.486745 0.122627 0.295286 184 4 0
-0.484176 0.123597 0.295682 182 4 0
-0.480316 0.124066 0.296183 182 9 0
-0.475876 0.124283 0.296727 182 7 0
-0.466556 0.122594 0.297662 183 6 0
-0.45941 0.121663 0.298414 183 11 0
-0.458299 0.123039 0.298678 183 10 1
-0.457192 0.124412 0.298941 182 11 1
-0.456088 0.12578 0.299203 182 14 2
-0.454408 0.126908 0.29951 184 12 3
-0.45389 0.128504 0.299725 188 7 1
-0.451079 0.129143 0.300118 192 4 0
-0.450565 0.130729 0.300332 192 8 0
-0.42519 0.125073 0.302777 192 5 0
-0.419837 0.124402 0.303343 193 8 0
-0.416039 0.124378 0.303788 196 16 0
-0.413239 0.124772 0.304156 198 16 0
-0.409117 0.124538 0.304619 194 9 0
-0.407755 0.125543 0.304877 189 4 0
-0.405957 0.126335 0.305165 192 4 0
-0.404173 0.127121 0.305451 200 9 0
-0.402403 0.1279 0.305735 209 18 2
-0.401515 0.12909 0.305955 231 33 15
-0.400628 0.130277 0.306174 253 55 41
-0.400175 0.131673 0.306362 255 62 49
-0.399722 0.13307 0.30655 255 53 38
-0.3997 0.134683 0.306709 255 53 37
-0.399247 0.136081 0.306897 239 60 44
-0.399656 0.137923 0.307026 180 70 54
-0.400068 0.139774 0.307157 108 66 61
-0.399612 0.14118 0.307346 92 72 60
-0.549832 0.0964571 0.283292 92 72 61
-0.548334 0.0981482 0.283636 101 62 55
-0.545976 0.0996011 0.284062 135 37 34
-0.544494 0.101277 0.284402 174 3 0
-0.541312 0.102475 0.284904 181 0 0
-0.539006 0.103896 0.28532 185 2 0
-0.537553 0.105545 0.285654 191 8 0
-0.535274 0.106947 0.286065 195 5 0
-0.533011 0.108339 0.286474 194 3 0
-0.529138 0.109234 0.287031 190 6 0
-0.524524 0.109874 0.287654 190 8 0
-0.519993 0.110502 0.288266 190 7 0
-0.516308 0.111359 0.288797 189 8 0
-0.51042 0.111488 0.289527 187 6 0
-0.506137 0.112085 0.290105 185 7 0
-0.501929 0.112672 0.290674 185 6 0
-0.497086 0.113015 0.291297 184 6 0
-0.495819 0.11452 0.291595 183 8 0
-0.493858 0.115783 0.291954 183 6 1
-0.492603 0.117276 0.292249 184 2 0
-0.491351 0.118765 0.292544 186 5 0
-0.490104 0.120248 0.292837 187 6 0
-0.48818 0.121481 0.293189 188 2 0
-0.486944 0.122953 0.29348 182 6 0
-0.483701 0.123677 0.293944 181 6 0
-0.483148 0.125381 0.294173 180 11 2
-0.478643 0.125588 0.294742 181 9 0
-0.466101 0.12267 0.295993 182 13 1
-0.458962 0.121738 0.296774 183 16 2
-0.457852 0.123115 0.297041 182 20 3
-0.456161 0.124255 0.297355 182 23 5
-0.455061 0.125621 0.297619 183 22 4
-0.453963 0.126984 0.297883 186 11 2
-0.451723 0.127868 0.29824 187 4 0
-0.449503 0.128744 0.298594 191 3 0
-0.446745 0.129376 0.29899 190 4 0
-0.44402 0.13 0.299382 192 5 0
-0.425272 0.125361 0.301225 191 3 0
-0.41991 0.124685 0.301814 194 11 0
-0.416106 0.124658 0.302275 196 20 1
-0.413302 0.125051 0.302655 197 20 1
-0.409172 0.124814 0.303135 196 15 0
-0.40736 0.125612 0.303432 193 9 0
-0.405563 0.126404 0.303727 197 13 0
-0.403781 0.127189 0.304018 211 20 0
-0.401578 0.12776 0.304341 224 25 5
-0.400692 0.128949 0.304563 242 43 25
-0.400239 0.130345 0.304751 255 58 42
-0.399355 0.131529 0.304971 255 56 42
-0.398903 0.132924 0.305159 255 54 37
-0.39888 0.134534 0.305315 255 54 39
-0.398427 0.135931 0.305503 224 57 46
-0.398403 0.137548 0.30566 138 65 56
-0.397949 0.138947 0.305849 94 69 60
-0.548423 0.0963164 0.28142 93 72 60
-0.546931 0.0980047 0.281766 99 62 55
-0.545445 0.0996867 0.282111 132 48 37
-0.544825 0.101597 0.282369 185 14 0
-0.542489 0.103032 0.282798 182 3 0
-0.54017 0.104457 0.283223 179 3 0
-0.537868 0.105871 0.283646 183 11 0
-0.536417 0.107517 0.283983 186 8 0
-0.534142 0.108912 0.2844 187 8 0
-0.531883 0.110297 0.284815 184 6 0
-0.528018 0.111177 0.285384 183 8 0
-0.522623 0.111555 0.286099 183 7 0
-0.516572 0.111683 0.286873 182 5 0
-0.509176 0.111332 0.287771 182 10 0
-0.503456 0.11146 0.288503 182 6 0
-0.497873 0.111584 0.289218 182 6 0
-0.495199 0.112628 0.289653 182 6 0
-0.493244 0.113896 0.290018 181 11 0
-0.491991 0.11539 0.290316 181 9 1
-0.491431 0.117117 0.290548 180 15 4
-0.490183 0.118604 0.290845 188 11 0
-0.489624 0.120328 0.291077 187 4 0
-0.487701 0.121561 0.291435 188 3 0
-0.486466 0.123033 0.291729 182 13 1
-0.483226 0.123756 0.292205 181 15 3
-0.480687 0.124716 0.292614 181 19 4
-0.476229 0.124929 0.293196 181 19 2
-0.465645 0.122747 0.294324 181 23 4
-0.458514 0.121814 0.295134 182 22 4
-0.457405 0.123191 0.295403 181 24 6
-0.455715 0.12433 0.295722 183 19 6
-0.454037 0.125463 0.29604 184 14 3
-0.452368 0.126589 0.296356 186 5 0
-0.450142 0.127472 0.296719 187 1 0
-0.446816 0.127879 0.297176 189 2 0
-0.444091 0.128512 0.297578 188 2 0
-0.437108 0.127299 0.298344 189 5 0
-0.430884 0.12635 0.299038 191 6 0
-0.424858 0.125432 0.299711 193 6 0
-0.420466 0.125183 0.300241 195 12 0
-0.416173 0.124939 0.300758 194 18 4
-0.413829 0.125541 0.30111 194 20 3
-0.409682 0.125298 0.301609 197 19 1
-0.407413 0.125888 0.30195 201 18 1
-0.405613 0.12668 0.302251 210 23 2
-0.403389 0.127257 0.302585 221 26 5
-0.401188 0.127828 0.302916 238 32 14
-0.400302 0.129017 0.303139 252 54 35
-0.399418 0.130203 0.303362 255 64 45
-0.398966 0.131597 0.30355 255 58 40
-0.398085 0.132778 0.303771 255 55 40
-0.398061 0.134387 0.303925 242 59 45
-0.397609 0.135781 0.304113 185 64 55
-0.397584 0.137396 0.304268 111 63 60
-0.397131 0.138793 0.304456 88 68 60
-0.54702 0.0961762 0.279554 93 68 60
-0.545534 0.0978617 0.279903 105 60 53
-0.544914 0.0997724 0.280161 148 48 35
-0.543434 0.101448 0.280508 193 28 8
-0.54196 0.103118 0.280854 187 10 2
-0.539642 0.104542 0.281287 178 5 1
-0.539027 0.106439 0.281543 180 7 0
-0.536729 0.107846 0.281971 183 4 0
-0.533619 0.108997 0.282482 183 6 0
-0.531362 0.110382 0.282904 180 8 0
-0.527501 0.111262 0.283487 178 7 2
-0.523695 0.112129 0.284062 178 10 2
-0.518385 0.112495 0.284785 179 5 0
-0.50646 0.110707 0.286169 179 8 0
-0.497953 0.109919 0.287202 180 7 0
-0.495279 0.110972 0.287647 180 8 0
-0.492631 0.112015 0.288088 181 9 0
-0.492071 0.113742 0.28832 180 11 0
-0.490822 0.115234 0.288621 182 6 1
-0.490263 0.116959 0.288853 183 19 4
-0.489703 0.118684 0.289085 193 21 2
-0.488461 0.120165 0.289384 191 3 0
-0.487222 0.121641 0.289681 188 4 0
-0.485314 0.122866 0.290043 185 12 1
-0.480765 0.123099 0.290655 183 16 2
-0.476952 0.12357 0.291194 184 19 3
-0.471304 0.123312 0.291904 183 19 2
-0.465189 0.122824 0.292654 183 19 4
-0.458066 0.12189 0.293493 183 18 3
-0.456372 0.123035 0.293819 183 14 4
-0.454689 0.124174 0.294143 186 11 3
-0.452441 0.125073 0.294519 186 6 1
-0.450783 0.126196 0.294838 186 1 0
-0.449134 0.127313 0.295155 188 0 0
-0.445267 0.127488 0.295674 188 2 0
-0.440928 0.127429 0.296233 186 2 0
-0.436681 0.127372 0.296779 188 7 0
-0.430463 0.126422 0.297499 196 16 3
-0.424444 0.125503 0.298196 197 15 1
-0.42054 0.125468 0.2987 192 14 0
-0.415768 0.125009 0.299278 190 18 4
-0.414828 0.126247 0.299515 191 22 7
-0.410195 0.125785 0.300074 202 22 7
-0.407018 0.125957 0.300503 214 26 9
-0.405664 0.126957 0.300771 224 29 8
-0.402997 0.127325 0.301152 231 27 10
-0.400798 0.127896 0.30149 245 39 25
-0.399913 0.129085 0.301716 255 55 41
-0.399029 0.130271 0.30194 255 57 42
-0.398148 0.131453 0.302164 255 54 38
-0.397697 0.132846 0.302352 253 53 40
-0.397245 0.134239 0.302539 216 56 46
-0.396793 0.135632 0.302727 141 62 56
-0.396767 0.137245 0.30288 95 66 61
-0.543901 0.0955887 0.277885 93 66 58
-0.544141 0.0977193 0.278047 110 54 49
-0.543522 0.0996266 0.278304 161 31 23
-0.542904 0.101534 0.278561 187 20 7
-0.540579 0.102967 0.279003 185 10 2
-0.539115 0.104628 0.279351 180 9 1
-0.536817 0.106041 0.279788 180 8 1
-0.534535 0.107445 0.280221 183 2 0
-0.532271 0.108838 0.280652 181 4 0
-0.529208 0.109975 0.281166 177 9 0
-0.526178 0.1111 0.281674 176 7 2
-0.523181 0.112214 0.282178 176 12 2
-0.519434 0.113068 0.282758 178 9 0
-0.516511 0.114157 0.283249 177 7 0
-0.497468 0.109999 0.285421 177 8 0
-0.492711 0.110367 0.286092 178 8 0
-0.492151 0.112094 0.286324 179 9 0
-0.490902 0.113589 0.286628 181 7 0
-0.490342 0.115314 0.28686 188 6 0
-0.489783 0.117039 0.287093 202 18 1
-0.48854 0.118523 0.287395 202 26 7
-0.487301 0.120002 0.287696 193 5 0
-0.485393 0.121233 0.288064 189 1 0
-0.483497 0.122455 0.288429 189 7 0
-0.47703 0.121966 0.289251 189 11 0
-0.473278 0.122443 0.289797 188 15 0
-0.468964 0.122674 0.290396 188 11 0
-0.464124 0.122666 0.291044 187 9 0
-0.457618 0.121965 0.291852 187 7 0
-0.455926 0.123111 0.292183 187 7 0
-0.453665 0.124018 0.292569 189 13 0
-0.450855 0.124685 0.293006 188 8 0
-0.449207 0.125806 0.293329 189 1 0
-0.44813 0.127154 0.293596 189 2 0
-0.443728 0.127099 0.294181 187 2 0
-0.439956 0.127274 0.294703 187 4 0
-0.436253 0.127445 0.295214 195 11 0
-0.430554 0.126717 0.295912 203 27 9
-0.42403 0.125574 0.296682 197 22 7
-0.420614 0.125754 0.297156 189 14 2
-0.416307 0.125503 0.29771 187 21 3
-0.414423 0.126317 0.298037 195 24 5
-0.409796 0.125854 0.298614 214 26 12
-0.406622 0.126025 0.299055 231 34 22
-0.405269 0.127026 0.299328 240 36 21
-0.402604 0.127393 0.299718 244 35 16
-0.400408 0.127964 0.300065 252 48 29
-0.399523 0.129153 0.300292 255 55 39
-0.39864 0.130339 0.300518 255 53 37
-0.39776 0.131521 0.300744 255 54 38
-0.397308 0.132914 0.300932 234 56 42
-0.396856 0.134307 0.301119 173 61 52
-0.396404 0.135701 0.301307 110 67 60
-0.395952 0.137094 0.301495 91 69 65
-0.53997 0.0947874 0.276331 97 65 54
-0.540201 0.096901 0.276489 123 48 42
-0.539587 0.0987942 0.276744 164 14 9
-0.538973 0.100688 0.276999 179 3 0
-0.537517 0.102347 0.277349 180 3 0
-0.536067 0.104 0.277698 179 6 0
-0.534623 0.105647 0.278045 178 10 1
-0.532358 0.107046 0.278483 180 6 0
-0.529294 0.108194 0.27901 179 6 1
-0.526264 0.109329 0.27953 175 12 1
-0.524062 0.110695 0.279957 175 13 1
-0.520302 0.111562 0.280554 174 13 0
-0.518924 0.113152 0.280887 175 13 2
-0.49223 0.110446 0.284329 179 8 0
-0.490981 0.111944 0.284636 182 8 0
-0.490422 0.113669 0.284868 186 11 0
-0.489862 0.115393 0.2851 197 16 1
-0.487938 0.116643 0.285478 221 33 13
-0.486703 0.118124 0.285782 212 22 6
-0.485471 0.119599 0.286084 196 10 1
-0.483575 0.120826 0.286456 194 5 0
-0.479714 0.12132 0.287034 193 12 0
-0.475272 0.121565 0.287669 193 13 0
-0.470918 0.121806 0.288292 190 15 0
-0.467264 0.122278 0.288838 189 9 0
-0.461856 0.122042 0.289564 186 5 0
-0.45717 0.122041 0.290211 188 5 0
-0.454316 0.122726 0.290666 190 14 0
-0.452644 0.123862 0.290999 189 13 0
-0.449845 0.124529 0.291445 189 7 0
-0.448202 0.12565 0.291773 190 1 0
-0.446012 0.126531 0.292154 189 3 0
-0.442197 0.126712 0.292697 187 3 0
-0.438987 0.127118 0.293177 193 7 0
-0.435825 0.127519 0.293649 202 16 0
-0.430133 0.126789 0.29437 206 28 9
-0.423616 0.125645 0.295167 195 25 11
-0.420203 0.125825 0.295654 189 11 3
-0.415901 0.125574 0.296225 191 22 2
-0.413552 0.126174 0.296603 207 27 4
-0.409397 0.125923 0.297154 232 31 13
-0.406226 0.126094 0.297608 245 38 24
-0.404874 0.127094 0.297884 245 42 29
-0.402212 0.127462 0.298285 250 45 25
-0.400018 0.128032 0.298639 253 50 31
-0.399133 0.129221 0.298868 251 51 33
-0.397823 0.130196 0.299136 252 50 33
-0.397371 0.131589 0.299324 245 53 38
-0.396919 0.132982 0.299511 200 58 47
-0.396042 0.13416 0.299738 129 65 57
-0.395591 0.135552 0.299926 94 67 60
-0.538375 0.0925505 0.274347 86 63 58
-0.537764 0.0944333 0.274601 100 58 50
-0.537991 0.0965385 0.274755 140 35 29
-0.537379 0.098425 0.275009 169 8 3
-0.535932 0.100082 0.275362 174 2 1
-0.53449 0.101733 0.275713 176 2 0
-0.53388 0.103613 0.275966 177 1 0
-0.532445 0.105255 0.276315 177 3 0
-0.529381 0.106412 0.276853 180 8 1
-0.52635 0.107557 0.277385 181 13 3
-0.524148 0.10893 0.277819 178 16 3
-0.520387 0.10981 0.278432 175 16 2
-0.518229 0.11116 0.278858 173 15 2
-0.517636 0.11299 0.279104 172 15 5
-0.490501 0.112023 0.282875 187 10 1
-0.489942 0.113748 0.283107 189 18 1
-0.488017 0.115004 0.283492 218 28 6
-0.486782 0.116487 0.283799 231 41 28
-0.48555 0.117965 0.284104 220 23 3
-0.482987 0.118959 0.284557 203 17 2
-0.479791 0.119705 0.285077 202 15 0
-0.477936 0.120918 0.285448 196 14 0
-0.473526 0.121167 0.286097 191 13 0
-0.46858 0.121176 0.286801 188 9 1
-0.464352 0.121418 0.287423 185 7 0
-0.460803 0.121886 0.287969 185 4 0
-0.456136 0.121887 0.288632 192 10 0
-0.453293 0.122572 0.289096 195 21 2
-0.451627 0.123707 0.289434 194 11 0
-0.449404 0.124604 0.289829 192 6 0
-0.446642 0.125263 0.29028 191 2 0
-0.444465 0.126144 0.290667 189 1 0
-0.441763 0.126786 0.291108 191 6 0
-0.439632 0.127651 0.291488 201 14 0
-0.434346 0.127138 0.292193 204 23 1
-0.429711 0.126862 0.292828 202 26 4
-0.423202 0.125717 0.293651 197 25 8
-0.419793 0.125895 0.294152 194 13 2
-0.415495 0.125644 0.29474 201 22 2
-0.413148 0.126244 0.295127 224 33 7
-0.408543 0.125783 0.29574 245 37 14
-0.40583 0.126163 0.29616 248 41 21
-0.404036 0.126954 0.296484 248 44 26
-0.40182 0.12753 0.29685 251 49 30
-0.399197 0.127892 0.297255 249 49 29
-0.398314 0.12908 0.297486 245 46 26
-0.397434 0.130264 0.297716 243 47 30
-0.396557 0.131446 0.297945 216 55 42
-0.396105 0.132837 0.298132 157 66 55
-0.395231 0.134014 0.298361 108 71 60
-0.39478 0.135403 0.298548 94 71 60
-0.537016 0.0924197 0.272528 91 63 58
-0.536406 0.0942992 0.272781 114 49 44
-0.535797 0.0961788 0.273034 158 20 13
-0.535187 0.0980584 0.273287 175 6 1
-0.533749 0.0997104 0.273641 173 4 2
-0.53314 0.101587 0.273894 174 4 0
-0.532532 0.103463 0.274146 176 4 0
-0.530283 0.104866 0.274597 182 5 0
-0.526436 0.105785 0.27524 188 14 1
-0.524233 0.107164 0.275682 189 26 5
-0.520471 0.108057 0.27631 182 22 4
-0.518314 0.109414 0.276744 174 15 3
-0.516945 0.111002 0.277082 170 14 5
-0.516352 0.112828 0.277328 172 15 6
-0.490021 0.112102 0.281114 186 14 2
-0.488097 0.113364 0.281505 197 18 3
-0.486861 0.114849 0.281815 238 39 20
-0.484957 0.116095 0.282202 238 33 21
-0.483065 0.117333 0.282587 225 26 6
-0.479869 0.118089 0.28312 214 20 1
-0.478013 0.119308 0.283498 207 23 2
-0.475525 0.120282 0.283946 195 9 0
-0.470531 0.120301 0.284678 185 6 0
-0.464427 0.119857 0.285531 182 7 0
-0.462079 0.120798 0.285957 184 6 0
-0.459158 0.1215 0.286445 190 10 0
-0.455105 0.121734 0.287058 201 19 0
-0.452848 0.122647 0.287467 205 25 6
-0.450613 0.123552 0.287873 203 15 1
-0.447834 0.12422 0.288337 197 8 0
-0.445091 0.124879 0.288796 194 3 0
-0.444028 0.126218 0.289068 193 2 0
-0.442421 0.127322 0.289399 200 12 0
-0.439199 0.127725 0.289905 207 21 0
-0.433919 0.127211 0.290632 202 25 1
-0.428271 0.126489 0.291395 196 24 1
-0.422787 0.125788 0.292136 203 26 6
-0.419382 0.125966 0.292649 204 22 5
-0.414149 0.125288 0.293355 217 26 5
-0.412744 0.126314 0.29365 238 36 10
-0.408144 0.125852 0.294282 249 42 22
-0.405433 0.126231 0.294711 247 42 25
-0.403641 0.127022 0.295042 248 45 27
-0.400991 0.12739 0.295462 246 47 31
-0.398378 0.127752 0.295875 240 45 25
-0.397497 0.128939 0.296107 237 43 23
-0.39662 0.130122 0.296339 221 48 34
-0.395744 0.131302 0.29657 171 60 51
-0.395294 0.132692 0.296757 117 69 61
-0.394843 0.134082 0.296944 94 73 63
-0.536271 0.0904133 0.270462 85 65 58
-0.535662 0.0922894 0.270715 98 63 54
-0.535053 0.0941656 0.270967 145 39 36
-0.534445 0.0960419 0.27122 180 18 6
-0.533836 0.0979183 0.271472 185 7 0
-0.533227 0.0997947 0.271725 179 6 1
-0.531796 0.101441 0.272081 178 5 1
-0.530369 0.103081 0.272436 185 11 0
-0.528136 0.10448 0.272892 198 17 0
-0.524319 0.105399 0.273544 205 28 3
-0.521343 0.106539 0.27409 196 30 5
-0.519178 0.107904 0.274532 180 25 5
-0.517805 0.109497 0.274875 170 15 5
-0.516436 0.111085 0.275217 168 16 6
-0.515844 0.112912 0.275463 177 14 4
-0.48694 0.113212 0.279832 213 25 4
-0.484365 0.114232 0.280306 233 41 27
-0.481155 0.11501 0.280856 232 26 5
-0.479947 0.116474 0.281163 223 25 3
-0.478091 0.117698 0.281547 220 23 2
-0.475602 0.11868 0.282005 207 24 4
-0.472502 0.119417 0.282534 190 11 0
-0.46634 0.118984 0.283423 182 6 0
-0.462154 0.119245 0.284074 180 7 0
-0.459232 0.119957 0.284574 189 8 0
-0.456347 0.120659 0.285068 201 19 0
-0.454077 0.121581 0.285488 210 28 3
-0.451829 0.122494 0.285905 214 24 5
-0.449601 0.123398 0.286317 210 20 0
-0.446834 0.124066 0.28679 203 15 0
-0.444653 0.124954 0.287194 197 9 0
-0.443591 0.126293 0.287469 199 8 0
-0.427851 0.126561 0.289857 198 21 1
-0.419449 0.124564 0.290948 211 27 6
-0.416101 0.124751 0.291467 219 31 13
-0.413744 0.125358 0.291874 234 30 7
-0.410952 0.125747 0.292327 247 34 12
-0.406843 0.125503 0.292923 247 38 22
-0.405037 0.1263 0.293263 247 41 26
-0.402806 0.126882 0.293648 244 44 29
-0.399733 0.127043 0.294124 237 42 25
-0.397561 0.127613 0.294499 231 40 23
-0.396683 0.128799 0.294733 221 45 30
-0.395807 0.129981 0.294966 186 56 46
-0.395356 0.13137 0.295153 134 66 61
-0.394906 0.13276 0.29534 98 72 65
-0.534921 0.0902868 0.268656 91 64 60
-0.535141 0.0923731 0.268798 124 58 49
-0.534532 0.0942495 0.26905 188 37 26
-0.533923 0.0961259 0.269303 205 27 12
-0.533314 0.0980024 0.269555 202 16 1
-0.531882 0.0996518 0.269916 194 15 3
-0.530456 0.101295 0.270275 196 17 3
-0.529034 0.102933 0.270633 209 23 4
-0.52681 0.10433 0.271094 220 31 4
-0.521428 0.104783 0.271963 212 34 9
-0.520045 0.106388 0.272312 191 29 9
-0.517889 0.10775 0.27276 172 19 5
-0.516521 0.109342 0.273106 167 16 6
-0.515928 0.111168 0.273352 173 18 3
-0.515335 0.112995 0.273597 192 23 4
-0.484443 0.112603 0.278333 222 32 12
-0.479918 0.112937 0.279059 224 22 7
-0.478065 0.114171 0.27945 219 19 1
-0.47687 0.115627 0.279757 216 18 0
-0.475679 0.117077 0.280064 214 24 3
-0.472578 0.117825 0.280605 201 18 1
-0.467032 0.117643 0.281446 186 8 0
-0.463438 0.118145 0.282043 183 9 0
-0.458713 0.118188 0.282776 189 11 0
-0.456421 0.119125 0.283209 200 16 0
-0.454151 0.120054 0.283638 209 24 1
-0.452476 0.121201 0.283993 212 28 8
-0.450813 0.122341 0.284347 217 19 1
-0.448593 0.123245 0.284766 214 21 0
-0.446394 0.124141 0.285181 208 20 0
-0.445325 0.125487 0.28546 202 15 0
-0.424419 0.125312 0.288672 203 22 0
-0.416168 0.12336 0.28978 219 28 6
-0.41381 0.123976 0.290196 236 36 19
-0.411017 0.124374 0.290661 248 33 12
-0.406907 0.124145 0.291276 247 32 12
-0.405102 0.124948 0.291623 245 35 17
-0.40287 0.125538 0.292017 243 44 25
-0.399796 0.12571 0.292506 236 41 23
-0.39848 0.126698 0.292793 228 38 21
-0.396746 0.127475 0.293126 218 41 25
-0.39587 0.128659 0.293361 188 50 40
-0.394997 0.129839 0.293596 139 63 57
-0.394547 0.131227 0.293783 106 72 65
-0.394096 0.132615 0.293969 96 75 66
-0.535008 0.0884973 0.26649 89 71 62
-0.5344 0.0903702 0.266742 104 66 58
-0.533792 0.0922432 0.266994 167 52 45
-0.533184 0.0941162 0.267246 228 46 26
-0.532577 0.0959894 0.267498 234 32 13
-0.531969 0.0978627 0.26775 229 30 9
-0.530542 0.0995094 0.268113 223 34 18
-0.52912 0.10115 0.268475 229 35 12
-0.527704 0.102785 0.268835 232 39 14
-0.524688 0.103948 0.26941 226 34 11
-0.52013 0.104634 0.270189 202 32 11
-0.518753 0.106237 0.270541 178 24 9
-0.51738 0.107834 0.270891 166 18 7
-0.516012 0.109425 0.27124 171 20 6
-0.515419 0.111252 0.271486 188 24 4
-0.47804 0.110655 0.277359 219 31 11
-0.476847 0.112114 0.27767 216 17 0
-0.475657 0.113568 0.277979 211 12 0
-0.474472 0.115018 0.278287 214 14 0
-0.472655 0.116233 0.278676 206 26 4
-0.467107 0.116072 0.279542 195 14 0
-0.463513 0.116587 0.280154 184 16 4
-0.457605 0.116203 0.281059 190 13 0
-0.455909 0.117369 0.281424 205 23 2
-0.454224 0.118528 0.281788 211 24 2
-0.452549 0.119679 0.282149 213 26 4
-0.450885 0.120824 0.282508 213 20 2
-0.448665 0.121735 0.282935 215 14 0
-0.447026 0.122864 0.283289 214 17 0
-0.445397 0.123987 0.28364 209 16 0
-0.409722 0.119108 0.288888 209 24 0
-0.408803 0.120338 0.289135 228 30 8
-0.408339 0.121768 0.289328 249 43 27
-0.406972 0.122788 0.289629 252 41 20
-0.405166 0.123597 0.289983 244 38 13
-0.402934 0.124194 0.290386 240 44 22
-0.39986 0.124377 0.290888 232 43 25
-0.398544 0.125369 0.291179 224 38 22
-0.397235 0.126355 0.291469 214 37 24
-0.395933 0.127337 0.291757 187 46 36
-0.39506 0.128519 0.291993 139 58 50
-0.393769 0.129491 0.292279 104 66 59
-0.39332 0.130875 0.292465 95 71 63
-0.533662 0.0883743 0.264694 90 68 59
-0.533055 0.090244 0.264945 124 60 52
-0.532449 0.0921137 0.265197 205 45 37
-0.531842 0.0939835 0.265448 244 46 28
-0.531235 0.0958534 0.2657 252 36 11
-0.530629 0.0977234 0.265951 251 44 25
-0.529207 0.0993676 0.266317 249 50 39
-0.52779 0.101006 0.266681 250 43 20
-0.524773 0.102179 0.267267 237 41 18
-0.521001 0.103109 0.267957 214 33 11
-0.518837 0.104486 0.268421 188 26 3
-0.517464 0.106086 0.268775 173 21 6
-0.516096 0.107681 0.269128 173 21 6
-0.514733 0.10927 0.26948 189 30 7
-0.514142 0.111094 0.269725 210 33 10
-0.478117 0.10905 0.275414 211 32 12
-0.475636 0.11007 0.275901 213 20 0
-0.473815 0.111302 0.276298 209 13 0
-0.473273 0.112971 0.276522 208 11 0
-0.472732 0.114641 0.276747 211 20 0
-0.467183 0.114501 0.277638 199 22 0
-0.464196 0.115251 0.278184 191 17 0
-0.45709 0.114448 0.279274 186 28 12
-0.454817 0.115399 0.279721 201 25 2
-0.453141 0.11656 0.280089 215 31 10
-0.451475 0.117715 0.280454 214 29 9
-0.449819 0.118862 0.280817 216 23 2
-0.448173 0.120002 0.281178 214 15 0
-0.447098 0.121359 0.281464 212 11 0
-0.446586 0.122939 0.281676 210 12 0
-0.407974 0.116955 0.287464 206 23 1
-0.40572 0.11759 0.287882 217 25 1
-0.406152 0.119404 0.28796 239 34 13
-0.405692 0.120824 0.288151 251 45 31
-0.405231 0.122245 0.288342 249 43 21
-0.402999 0.122849 0.288755 241 44 17
-0.399923 0.123044 0.28927 230 42 22
-0.398178 0.123837 0.289619 219 37 22
-0.397298 0.125029 0.28986 208 37 26
-0.395996 0.126014 0.290152 184 43 37
-0.395123 0.127199 0.290391 138 54 49
-0.393832 0.128174 0.29068 100 65 56
-0.532321 0.0882519 0.262903 99 69 56
-0.531716 0.0901183 0.263154 149 55 48
-0.53111 0.0919847 0.263405 227 43 26
-0.530504 0.0938513 0.263656 248 34 18
-0.529085 0.0954995 0.264025 254 41 26
-0.528481 0.0973629 0.264276 255 56 47
-0.527068 0.0990019 0.264643 254 50 40
-0.524061 0.100183 0.26524 247 41 17
-0.521086 0.101352 0.26583 224 36 14
-0.518922 0.102736 0.266302 196 32 7
-0.517549 0.104339 0.266659 180 25 6
-0.516181 0.105937 0.267016 177 25 7
-0.514817 0.107529 0.267371 189 29 10
-0.514226 0.109353 0.267616 209 36 14
-0.513634 0.111177 0.267862 218 37 16
-0.475713 0.108473 0.273965 212 27 10
-0.473892 0.109709 0.274368 207 18 0
-0.47335 0.111379 0.274593 205 11 0
-0.472174 0.112825 0.274905 205 13 0
-0.471002 0.114267 0.275216 205 23 0
-0.465494 0.114132 0.276124 196 17 0
-0.457164 0.112914 0.277414 194 21 0
-0.453732 0.113441 0.278029 198 30 10
-0.451492 0.11439 0.278478 205 29 6
-0.449839 0.115545 0.278847 214 28 15
-0.448196 0.116694 0.279213 219 27 12
-0.446005 0.117617 0.279653 218 20 3
-0.445495 0.11919 0.279864 216 13 0
-0.446658 0.121434 0.279851 211 12 0
-0.405798 0.114634 0.286115 212 24 2
-0.404454 0.115662 0.286421 211 26 3
-0.403996 0.117072 0.286611 229 30 8
-0.403979 0.11868 0.286743 248 41 18
-0.403521 0.120092 0.286933 249 40 23
-0.402184 0.121104 0.287237 244 40 19
-0.399555 0.121511 0.287708 230 41 20
-0.398241 0.122509 0.288008 216 37 20
-0.396935 0.123502 0.288305 203 37 24
-0.396059 0.124692 0.288547 179 45 38
-0.395186 0.125878 0.288788 138 54 51
-0.393895 0.126857 0.289082 100 61 56
-0.532408 0.0864683 0.260745 93 70 58
-0.531802 0.0883348 0.260996 114 66 55
-0.530381 0.089993 0.26137 185 50 45
-0.529776 0.0918563 0.26162 236 43 28
-0.529172 0.0937196 0.261871 248 36 23
-0.527758 0.0953652 0.262242 252 54 57
-0.526349 0.0970049 0.262613 255 69 78
-0.524146 0.0984167 0.263101 250 45 32
-0.521171 0.0995952 0.263702 231 41 17
-0.519007 0.100985 0.264182 204 33 11
-0.517633 0.102592 0.264543 187 31 7
-0.515493 0.103963 0.265017 186 30 6
-0.514902 0.105788 0.265262 193 33 8
-0.513543 0.107377 0.26562 209 36 13
-0.513718 0.109436 0.265753 219 39 19
-0.513126 0.11126 0.265998 214 38 20
-0.476433 0.10709 0.271936 217 35 17
-0.474606 0.108333 0.272347 220 24 5
-0.473427 0.109787 0.272663 213 20 0
-0.472251 0.111235 0.272979 209 11 0
-0.47171 0.112902 0.273203 204 11 0
-0.463207 0.113545 0.274706 198 16 0
-0.450939 0.110865 0.27659 199 22 1
-0.449858 0.112239 0.276883 198 26 6
-0.448218 0.113396 0.277254 209 32 11
-0.446031 0.114333 0.277702 224 34 13
-0.445521 0.115903 0.277913 227 29 8
-0.445567 0.117691 0.278047 223 22 1
-0.445056 0.119264 0.278258 218 17 0
-0.402361 0.110202 0.284835 227 28 1
-0.401907 0.111599 0.285023 216 28 4
-0.402323 0.113371 0.285092 214 25 4
-0.401869 0.114772 0.28528 221 29 8
-0.40185 0.116365 0.28541 240 40 16
-0.401394 0.117768 0.285598 247 39 15
-0.400505 0.118975 0.285846 242 40 17
-0.399618 0.120179 0.286092 228 42 23
-0.398305 0.121181 0.286396 210 36 23
-0.396998 0.122178 0.286698 193 39 26
-0.396122 0.123369 0.286942 171 45 35
-0.395249 0.124557 0.287185 135 57 51
-0.393957 0.12554 0.287483 103 64 60
-0.531889 0.0865511 0.258837 90 67 59
-0.530467 0.0882127 0.259215 123 63 53
-0.529863 0.090076 0.259465 210 52 46
-0.528447 0.0917283 0.259841 241 52 47
-0.527844 0.0935884 0.260091 250 50 46
-0.526434 0.0952314 0.260466 255 71 78
-0.523436 0.0964315 0.261084 253 70 88
-0.52047 0.0976187 0.261695 241 43 24
-0.519873 0.0994557 0.261942 214 35 10
-0.517718 0.100844 0.262427 196 32 7
-0.515578 0.102222 0.262908 192 32 10
-0.513452 0.103591 0.263386 197 31 10
-0.512101 0.105178 0.263746 211 36 11
-0.511512 0.106993 0.26399 223 40 16
-0.512445 0.109281 0.264005 223 38 18
-0.475323 0.106952 0.270318 225 36 23
-0.474141 0.10841 0.270638 225 23 1
-0.472327 0.109645 0.271052 218 20 0
-0.46741 0.109785 0.271923 213 17 1
-0.465032 0.110781 0.272416 208 22 1
-0.463282 0.111985 0.272816 206 17 0
-0.451012 0.109354 0.274758 202 15 0
-0.447121 0.109696 0.275465 197 15 1
-0.446612 0.111266 0.275676 204 24 7
-0.444994 0.112417 0.276049 221 35 17
-0.443935 0.113772 0.276339 238 40 21
-0.443428 0.115335 0.27655 238 33 17
-0.404157 0.111192 0.283098 224 31 4
-0.401518 0.111665 0.283597 216 27 1
-0.401064 0.113063 0.283785 225 27 3
-0.401478 0.114839 0.28385 239 36 13
-0.401023 0.11624 0.284039 244 44 18
-0.400136 0.117448 0.284288 238 42 18
-0.398821 0.118457 0.284596 223 41 17
-0.39794 0.119657 0.284844 203 37 19
-0.397062 0.120853 0.28509 183 39 27
-0.396185 0.122047 0.285336 156 50 38
-0.395312 0.123237 0.285581 124 59 52
-0.39402 0.124223 0.285884 102 64 58
-0.530553 0.0864321 0.25706 95 63 55
-0.529137 0.088091 0.25744 142 60 48
-0.528533 0.0899511 0.25769 232 61 48
-0.527123 0.0916008 0.258069 250 67 60
-0.52652 0.0934576 0.258318 255 70 61
-0.522728 0.0944533 0.259073 253 84 69
-0.520554 0.0958643 0.25957 245 55 45
-0.519176 0.0974829 0.259941 221 41 25
-0.517802 0.0990958 0.26031 204 35 10
-0.515662 0.10048 0.260799 196 34 9
-0.513536 0.101855 0.261285 196 35 14
-0.511426 0.10322 0.261767 211 34 13
-0.50933 0.104576 0.262246 228 41 17
-0.508745 0.106381 0.262488 229 41 20
-0.509663 0.108655 0.262497 217 40 20
-0.476043 0.105566 0.268283 222 34 18
-0.474217 0.106815 0.268705 231 26 14
-0.472404 0.108055 0.269125 229 24 0
-0.467485 0.108213 0.270017 222 23 0
-0.464497 0.109003 0.270613 216 23 3
-0.459157 0.108937 0.271564 212 24 2
-0.452799 0.108459 0.272666 204 22 0
-0.447193 0.108198 0.273651 196 16 0
-0.446128 0.109564 0.273946 197 18 0
-0.444514 0.110718 0.274323 216 28 9
-0.442909 0.111866 0.274698 244 41 27
-0.442404 0.113425 0.274907 251 43 32
-0.407333 0.111153 0.281015 233 32 5
-0.403764 0.111259 0.281662 222 28 0
-0.401128 0.111732 0.28217 223 28 1
-0.401542 0.113505 0.282232 237 35 9
-0.401087 0.114906 0.28242 242 42 17
-0.4002 0.116115 0.282671 232 42 18
-0.398884 0.117129 0.282984 215 38 18
-0.398003 0.11833 0.283234 196 36 16
-0.397125 0.119528 0.283482 175 38 29
-0.396248 0.120724 0.283731 141 49 42
-0.395374 0.121915 0.283978 112 63 53
-0.394503 0.123104 0.284225 95 68 59
-0.528414 0.086113 0.255422 102 64 56
-0.527811 0.0879698 0.255671 169 54 47
-0.526405 0.0896201 0.256053 243 63 44
-0.525003 0.0912646 0.256433 255 60 50
-0.522813 0.0926922 0.256941 254 60 47
-0.519856 0.0938976 0.257574 244 53 40
-0.518481 0.0955169 0.257947 226 44 31
-0.517887 0.0973475 0.258193 207 39 22
-0.515746 0.0987384 0.25869 199 36 15
-0.512857 0.0998991 0.259306 201 33 9
-0.510753 0.101269 0.259794 214 37 13
-0.508664 0.102629 0.260279 231 43 22
-0.505109 0.103531 0.260998 238 46 26
-0.503794 0.105095 0.261356 228 43 28
-0.503214 0.106881 0.261596 211 40 23
-0.503367 0.1089 0.26172 193 32 14
-0.476765 0.104175 0.26624 200 28 10
-0.474294 0.105219 0.266771 220 32 18
-0.47248 0.106464 0.267197 227 19 0
-0.468802 0.107063 0.267916 224 21 0
-0.464572 0.107441 0.26872 220 24 0
-0.459231 0.107395 0.269695 216 25 1
-0.454025 0.10735 0.270645 209 25 6
-0.451212 0.108122 0.271219 197 22 2
-0.4462 0.108069 0.272133 196 11 0
-0.444585 0.109228 0.272516 208 24 1
-0.44298 0.11038 0.272896 237 34 15
-0.441929 0.111732 0.27319 254 52 38
-0.441969 0.113498 0.273315 255 43 32
-0.410114 0.110924 0.27896 240 36 9
-0.406937 0.11122 0.279564 226 30 1
-0.403812 0.111512 0.280159 223 27 1
-0.402041 0.112357 0.280547 232 29 7
-0.401151 0.113572 0.280801 226 44 17
-0.400263 0.114783 0.281054 217 39 17
-0.399378 0.115991 0.281307 203 33 19
-0.398495 0.117196 0.281559 185 33 21
-0.397188 0.118203 0.281874 162 41 32
-0.396311 0.1194 0.282125 128 54 46
-0.39586 0.120791 0.282312 102 60 55
-0.394987 0.121983 0.282561 90 67 59
-0.526289 0.0857962 0.253795 106 64 57
-0.524095 0.0872435 0.254313 181 48 45
-0.522705 0.0888834 0.254694 238 53 36
-0.52132 0.0905175 0.255074 250 47 34
-0.519159 0.0919377 0.255584 246 44 29
-0.517788 0.0935577 0.25596 227 43 29
-0.516422 0.095172 0.256335 207 39 25
-0.515061 0.0967806 0.256708 198 35 17
-0.512941 0.0981663 0.257207 202 34 16
-0.510083 0.099324 0.257828 221 38 16
-0.505772 0.100034 0.258688 239 44 22
-0.504455 0.101603 0.259051 243 48 31
-0.501686 0.102725 0.259652 237 48 31
-0.498945 0.103835 0.260247 222 44 27
-0.49202 0.103617 0.261529 202 34 17
-0.488015 0.104265 0.262328 183 29 11
-0.477489 0.10278 0.264191 182 23 9
-0.475653 0.104042 0.264628 205 31 10
-0.472557 0.104874 0.265269 216 21 0
-0.468878 0.105485 0.266004 215 20 0
-0.46587 0.106296 0.266627 214 17 0
-0.461695 0.106679 0.267438 211 19 1
-0.456424 0.106643 0.268423 206 29 5
-0.453003 0.107219 0.269107 197 25 10
-0.449635 0.107786 0.26978 193 25 1
-0.444657 0.107738 0.270709 206 24 1
-0.443052 0.108895 0.271095 229 31 6
-0.441457 0.110045 0.271479 254 50 27
-0.440411 0.111393 0.271774 255 51 38
-0.44099 0.113361 0.27181 255 45 35
-0.416699 0.110577 0.276158 255 38 19
-0.413407 0.110881 0.276797 250 37 17
-0.409714 0.110992 0.277497 234 31 7
-0.406989 0.111476 0.278044 222 31 5
-0.404301 0.111953 0.278583 219 34 6
-0.402523 0.112799 0.278978 211 33 12
-0.401194 0.113827 0.279303 199 34 15
-0.399873 0.11485 0.279626 185 35 22
-0.398988 0.116058 0.27988 172 38 25
-0.398105 0.117263 0.280134 137 46 37
-0.396374 0.118077 0.280519 110 57 51
-0.395923 0.119467 0.280705 91 64 56
-0.39505 0.120661 0.280957 89 67 56
-0.52418 0.0854818 0.25218 105 59 54
-0.52279 0.0871249 0.252565 172 43 38
-0.521405 0.0887623 0.252949 217 41 21
-0.519244 0.0901888 0.253466 228 35 18
-0.517873 0.0918121 0.253846 221 36 17
-0.516506 0.0934296 0.254225 205 37 24
-0.514378 0.0948296 0.254734 200 35 23
-0.513025 0.0964333 0.255109 211 37 24
-0.510166 0.0976002 0.255741 229 45 30
-0.505855 0.0983251 0.256619 245 52 34
-0.503073 0.099466 0.257234 253 50 31
-0.501043 0.100812 0.25772 244 49 31
-0.499026 0.102148 0.258203 224 44 26
-0.492101 0.101955 0.259516 202 35 18
-0.488095 0.102618 0.260331 185 31 10
-0.47952 0.101795 0.261915 182 29 10
-0.476374 0.102648 0.262579 193 30 10
-0.473268 0.103491 0.263235 206 25 6
-0.468954 0.103907 0.264092 209 13 0
-0.467177 0.105143 0.264521 208 12 0
-0.463582 0.105746 0.265254 204 5 0
-0.460044 0.106339 0.265974 199 10 4
-0.454811 0.106308 0.266975 192 23 8
-0.450842 0.106681 0.267762 189 20 9
-0.446947 0.107048 0.268535 200 28 3
-0.443671 0.107609 0.269203 224 36 11
-0.441528 0.108563 0.269682 255 43 17
-0.440482 0.109914 0.26998 255 57 37
-0.439439 0.11126 0.270277 255 46 36
-0.439475 0.113017 0.270397 255 46 37
-0.41724 0.109377 0.274394 255 44 24
-0.41394 0.109692 0.275049 255 41 19
-0.412539 0.110759 0.275395 247 38 17
-0.409315 0.11106 0.276034 232 36 15
-0.407041 0.111732 0.276518 212 37 17
-0.404792 0.112397 0.276997 196 33 14
-0.403007 0.113244 0.2774 184 33 15
-0.400803 0.113894 0.27787 171 35 19
-0.399482 0.114917 0.278196 147 41 32
-0.398598 0.116125 0.278453 125 53 41
-0.397288 0.117137 0.278777 95 59 52
-0.395986 0.118144 0.279099 85 65 60
-0.522876 0.0853662 0.250436 100 61 53
-0.520705 0.0868075 0.250963 152 44 33
-0.519329 0.0884398 0.251348 195 33 13
-0.517957 0.0900662 0.251732 211 31 17
