# .PCD v0.7 - Point Cloud Data file format
VERSION 0.7
FIELDS x y z
SIZE 4 4 4
TYPE F F F
COUNT 1 1 1
WIDTH 1256
HEIGHT 1
VIEWPOINT 0 0 0 1 0 0 0
POINTS 1256
DATA ascii
0.050000004 0.046182543 -0.230792
-0.049919244 0.047538251 -0.23050204
-0.048541002 0.047584236 -0.230197
-0.047878783 0.047204573 -0.23019698
-0.045668803 0.047807857 -0.23019701
-0.044596542 0.04778875 -0.230197
-0.043253101 0.047494348 -0.230197
-0.042452775 0.047336861 -0.230197
-0.041710697 0.047869768 -0.230197
-0.040442802 0.047478773 -0.230197
-0.039773263 0.047545299 -0.230197
-0.038404476 0.047727652 -0.23019698
-0.037460249 0.047469418 -0.23019701
-0.036473092 0.04763595 -0.23019701
-0.035775099 0.047198303 -0.23019701
-0.034381069 0.047555909 -0.23019698
-0.033364192 0.047720712 -0.23019698
-0.03261108 0.047531351 -0.23019698
-0.031352665 0.047253665 -0.230197
-0.029436747 0.047183987 -0.230197
-0.028596522 0.047514286 -0.230197
-0.027660713 0.047988731 -0.23019701
-0.026322309 0.047588158 -0.23019701
-0.025425794 0.047060717 -0.230197
-0.024489943 0.047668636 -0.230197
-0.023315225 0.047587186 -0.23019701
-0.022662317 0.047518387 -0.23019701
-0.021870947 0.047831561 -0.23019698
-0.020196747 0.047912575 -0.23019701
-0.019393254 0.047635444 -0.230197
-0.018442106 0.047822788 -0.230197
-0.016322106 0.047297593 -0.23019698
-0.015511664 0.047784489 -0.230197
-0.01451337 0.047593638 -0.23019698
-0.013026034 0.047223441 -0.23019701
-0.012594692 0.047414221 -0.23019698
-0.011545022 0.047519401 -0.23019698
-0.010247519 0.047882069 -0.230197
-0.0090505797 0.047399111 -0.230197
-0.0085713351 0.047470056 -0.230197
-0.0076467693 0.047699448 -0.230197
-0.0068271514 0.047574606 -0.23019701
-0.0059542432 0.0478683 -0.230197
-0.004436797 0.047679082 -0.23019698
-0.0022454392 0.047472756 -0.230197
-0.0017845966 0.047742508 -0.230197
-0.00062295486 0.047668748 -0.230197
7.2279945e-05 0.04705004 -0.23019698
0.0027938029 0.047265276 -0.23019698
0.0034403806 0.047695737 -0.230197
0.0044929311 0.047948148 -0.230197
0.0057079159 0.047907166 -0.23019698
0.0064102411 0.047823906 -0.230197
0.0075296154 0.047523748 -0.23019698
0.0085235294 0.047538228 -0.23019698
0.0097875763 0.047673076 -0.230197
0.010382054 0.047517769 -0.23019701
0.011460225 0.047490589 -0.230197
0.01446279 0.047753815 -0.230197
0.015607062 0.047737882 -0.23019701
0.016464975 0.047357302 -0.23019698
0.017271189 0.04756248 -0.23019698
0.018385993 0.047562778 -0.23019701
0.019352026 0.047610525 -0.23019698
0.020734262 0.047685321 -0.230197
0.021962032 0.047364768 -0.230197
0.022544743 0.047462258 -0.23019698
0.023570927 0.047177088 -0.230197
0.024515515 0.047883511 -0.230197
0.025354564 0.047761582 -0.230197
0.026039291 0.047401078 -0.23019701
0.027299276 0.047685385 -0.230197
0.028399684 0.047543511 -0.230197
0.030278077 0.047587097 -0.230197
0.031618737 0.047373474 -0.23019698
0.032442674 0.047375597 -0.230197
0.033180203 0.047476321 -0.23019701
0.034277245 0.047335863 -0.230197
0.03569844 0.047305495 -0.230197
0.036395591 0.047193289 -0.23019701
0.037735179 0.047933739 -0.230197
0.038632136 0.047135547 -0.230197
0.039529055 0.047623999 -0.230197
0.040450357 0.047310282 -0.230197
0.041495018 0.047581248 -0.230197
0.042607754 0.047232132 -0.23019701
0.043397605 0.047552589 -0.230197
0.044929363 0.047367636 -0.230197
0.045511261 0.047576264 -0.230197
0.046327781 0.047590088 -0.23019698
0.047463309 0.047177866 -0.230197
0.048224404 0.047452688 -0.230197
0.04924383 0.047392379 -0.230197
0.050000004 0.047106139 -0.23097359
-0.049619079 0.04851751 -0.23023769
-0.04860821 0.048513785 -0.230197
-0.047007706 0.048993565 -0.230197
-0.046516694 0.048381519 -0.230197
-0.045488231 0.048531979 -0.23019698
-0.044714563 0.048424669 -0.230197
-0.043574747 0.048508596 -0.230197
-0.042360909 0.048586257 -0.230197
-0.041773912 0.048447583 -0.230197
-0.040435262 0.048812188 -0.23019698
-0.038031489 0.048519388 -0.23019698
-0.037349589 0.048447751 -0.23019701
-0.036403239 0.048879098 -0.230197
-0.034701277 0.048533153 -0.23019701
-0.03320168 0.048186727 -0.230197
-0.031711493 0.048681818 -0.23019701
-0.030244727 0.048375215 -0.230197
-0.02940663 0.048238344 -0.230197
-0.028866656 0.048510589 -0.230197
-0.027441407 0.048133411 -0.230197
-0.026283367 0.048662879 -0.23019698
-0.025341609 0.048893802 -0.230197
-0.024579149 0.048457034 -0.230197
-0.023715034 0.048277762 -0.23019701
-0.022627272 0.0489171 -0.230197
-0.020182654 0.048437916 -0.23019701
-0.019535948 0.048640322 -0.23019701
-0.018356362 0.048608564 -0.230197
-0.017641548 0.048063871 -0.230197
-0.016230952 0.048543062 -0.23019701
-0.01448379 0.048594985 -0.230197
-0.013422096 0.04848817 -0.230197
-0.012347437 0.048592322 -0.230197
-0.011450648 0.04863774 -0.230197
-0.010666272 0.04876421 -0.230197
-0.009343531 0.048215315 -0.23019701
-0.0081820982 0.048548996 -0.230197
-0.0064655319 0.048589811 -0.23019698
-0.0056411284 0.048845049 -0.230197
-0.0035971534 0.048718981 -0.230197
-0.0020346623 0.048891895 -0.23019701
-0.0016355189 0.048341013 -0.23019698
-0.00050848909 0.048131771 -0.230197
0.00017520413 0.048060119 -0.230197
0.0012526605 0.048564613 -0.230197
0.0025491184 0.048365273 -0.23019701
0.0037851862 0.048673343 -0.230197
0.0047528557 0.048348591 -0.23019698
0.00533228 0.04837849 -0.230197
0.0062263664 0.048408382 -0.230197
0.0070041679 0.048400559 -0.23019698
0.0083709732 0.048236132 -0.23019701
0.0094139874 0.048705135 -0.23019698
0.010516278 0.048585575 -0.230197
0.011503866 0.048480883 -0.23019701
0.012544692 0.048309907 -0.23019698
0.013385504 0.048227839 -0.230197
0.014736777 0.048982911 -0.230197
0.015691504 0.048266545 -0.23019701
0.016477397 0.048318919 -0.230197
0.017722979 0.048170753 -0.23019698
0.018604707 0.048280843 -0.23019701
0.020522226 0.04852559 -0.23019701
0.021373235 0.048616037 -0.230197
0.023068305 0.048030622 -0.23019698
0.024745882 0.048211485 -0.23019698
0.02578757 0.048716754 -0.23019698
0.026344035 0.048428208 -0.230197
0.02739325 0.048439778 -0.230197
0.029327605 0.048459094 -0.230197
0.030550014 0.048683494 -0.23019698
0.031498723 0.04846631 -0.23019701
0.032347668 0.048782025 -0.230197
0.033494566 0.048476525 -0.230197
0.034457516 0.048213292 -0.230197
0.035500914 0.048527747 -0.230197
0.036810305 0.048835941 -0.23019698
0.037690423 0.048516989 -0.230197
0.038249973 0.048109517 -0.230197
0.039467081 0.048458152 -0.230197
0.040618889 0.048912518 -0.230197
0.041417811 0.048241761 -0.230197
0.042391218 0.048334263 -0.230197
0.04338092 0.048500057 -0.230197
0.044413082 0.048511118 -0.230197
0.045275468 0.048911367 -0.230197
0.046565495 0.048531979 -0.230197
0.047627214 0.048040178 -0.230197
0.048304625 0.04838977 -0.230197
0.049842805 0.048520964 -0.2304469
-0.049431734 0.049766731 -0.23031911
-0.048221957 0.049713921 -0.23019698
-0.047565438 0.049754258 -0.23038092
-0.046584364 0.049898006 -0.23042201
-0.04548363 0.049576458 -0.2302039
-0.044674024 0.049877532 -0.23048107
-0.043314472 0.049881443 -0.23043147
-0.04265897 0.049486604 -0.230197
-0.04162544 0.049940705 -0.23027496
-0.040450618 0.049271226 -0.230197
-0.039220139 0.049594961 -0.230197
-0.038572457 0.04951581 -0.23030268
-0.037742544 0.049457856 -0.23019698
-0.036602143 0.049887534 -0.23027782
-0.035243176 0.049589008 -0.23030253
-0.034639545 0.049999997 -0.23038945
-0.033770267 0.049515355 -0.23019701
-0.032592498 0.049348995 -0.230197
-0.031635284 0.049975555 -0.23047712
-0.030105224 0.049726933 -0.23043072
-0.029558029 0.049480066 -0.23030259
-0.028525606 0.049514912 -0.23027441
-0.027721336 0.049953789 -0.2305475
-0.026353722 0.049738377 -0.23036504
-0.025369657 0.049601331 -0.23019701
-0.024548477 0.049669538 -0.23033831
-0.023548529 0.04976923 -0.23046426
-0.022369539 0.049779277 -0.23027794
-0.021511901 0.049748287 -0.2305734
-0.019491926 0.049649119 -0.23019724
-0.018411465 0.050000001 -0.23097087
-0.017260497 0.049587674 -0.23033014
-0.016373809 0.049292043 -0.230197
-0.015506992 0.049655914 -0.23030865
-0.014414651 0.049414098 -0.23019701
-0.013786239 0.049440354 -0.230197
-0.012830538 0.049923349 -0.23048234
-0.011541281 0.049639791 -0.23038623
-0.010638054 0.049578384 -0.23027445
-0.009335476 0.049551677 -0.23041776
-0.0086116325 0.049702611 -0.23049484
-0.0075696446 0.049354166 -0.23019698
-0.0066127907 0.049484856 -0.23019698
-0.0054070596 0.049460493 -0.23019907
-0.0045002061 0.04970615 -0.23045318
-0.0033948934 0.049082767 -0.230197
-0.0025981097 0.049442586 -0.23036109
-0.0019331761 0.049507782 -0.23019698
-0.00051715318 0.049955562 -0.23057322
0.00080200768 0.049767207 -0.23041831
0.0015510619 0.049430508 -0.230197
0.0023899996 0.049660157 -0.23027281
0.0034481157 0.049658146 -0.23035112
0.004366416 0.049746148 -0.23019905
0.005634909 0.049498908 -0.23027563
0.0066816374 0.049554773 -0.230197
0.0076249354 0.049850564 -0.23042667
0.0086439941 0.049807981 -0.23028064
0.0097589139 0.049679756 -0.23023061
0.010563093 0.049715206 -0.23019701
0.011838704 0.049268633 -0.230197
0.012028877 0.04919932 -0.230197
0.013295567 0.049656268 -0.23022583
0.014505625 0.049866188 -0.23055369
0.01572163 0.049982037 -0.23035875
0.016657211 0.049797125 -0.23055287
0.017439062 0.049451958 -0.23027167
0.01858899 0.049618527 -0.23033656
0.020835694 0.050000004 -0.23038524
0.021391625 0.049614012 -0.23026632
0.02211195 0.049027614 -0.230197
0.023430893 0.049521543 -0.23019698
0.024755258 0.049724869 -0.23019698
0.025477279 0.050000004 -0.23075786
0.026203426 0.049962983 -0.23019698
0.027330078 0.049602471 -0.23057392
0.028691091 0.049678531 -0.23042849
0.029116999 0.049801938 -0.23021325
0.030484598 0.049294803 -0.23019701
0.031538699 0.049718462 -0.23025882
0.032442659 0.049490012 -0.230197
0.033507898 0.04928194 -0.230197
0.034357067 0.049761754 -0.2304374
0.035536945 0.049775805 -0.23029661
0.03637303 0.049931921 -0.230434
0.037454046 0.049695577 -0.2303205
0.038597666 0.049599938 -0.230197
0.039422199 0.049690824 -0.2303611
0.040498771 0.050000001 -0.23089352
0.042319864 0.049675927 -0.23033004
0.043481652 0.049707815 -0.23031998
0.044588562 0.049530383 -0.2302433
0.045575839 0.049787682 -0.23043668
0.046447985 0.049907811 -0.23036817
0.047354728 0.049945477 -0.23039888
0.04823751 0.049732521 -0.230197
0.049736671 0.04949864 -0.23060644
-0.045611188 0.050000004 -0.23068525
-0.039480403 0.050000004 -0.23057139
-0.035464428 0.050000004 -0.23073858
-0.034890424 0.050000004 -0.23090212
-0.033743486 0.050000004 -0.23041081
-0.032041576 0.050000004 -0.23039451
-0.031335659 0.050000004 -0.23079742
-0.030504011 0.050000004 -0.23032118
-0.02967814 0.050000004 -0.23099849
-0.027803022 0.050000004 -0.23024233
-0.023714082 0.050000004 -0.23071045
-0.022653095 0.050000004 -0.2304215
-0.018549986 0.050000004 -0.23059043
-0.01341532 0.050000004 -0.23038658
-0.010125179 0.050000004 -0.230768
-0.0099223703 0.050000004 -0.23050348
-0.0055553764 0.050000004 -0.23022798
-0.0036803819 0.050000004 -0.23081437
0.0036051003 0.050000004 -0.2305987
0.0065351855 0.050000004 -0.23059899
0.0082977787 0.050000004 -0.23042178
0.010638626 0.050000004 -0.23076734
0.011446796 0.050000004 -0.23024631
0.01236912 0.050000004 -0.23047896
0.013057975 0.050000004 -0.23085353
0.015686298 0.050000004 -0.23097889
0.018005164 0.050000004 -0.23024651
0.02121461 0.050000004 -0.23095553
0.023645524 0.050000004 -0.23035346
0.024803288 0.050000004 -0.23037726
0.025757326 0.050000004 -0.23096073
0.03050586 0.050000004 -0.23047675
0.03156472 0.050000004 -0.23043549
0.036648784 0.050000004 -0.23053661
0.040950794 0.050000004 -0.23051357
0.045045011 0.050000004 -0.23036478
-0.0099171773 -0.0097177457 -0.22955123
-0.008484168 -0.0099999998 -0.22941659
-0.0074394969 -0.0099999998 -0.22962151
-0.0065189237 -0.0099999998 -0.22992429
-0.0053920383 -0.0099999998 -0.22986442
-0.004429474 -0.0099999998 -0.22931466
-0.0033024345 -0.0099999998 -0.22942114
-0.0027505066 -0.0099999998 -0.2298182
-0.0013556032 -0.0099999998 -0.22942042
-0.0003070673 -0.0099999998 -0.22946616
0.0003291443 -0.0099999998 -0.22970065
0.0013495365 -0.0099999998 -0.22976753
0.0020327312 -0.0099999998 -0.22906443
0.0034762742 -0.0099999998 -0.22917572
0.0045077503 -0.0099999998 -0.22955632
0.0054629557 -0.0099999998 -0.2298747
0.0063750185 -0.0099999998 -0.22973788
0.0077052899 -0.0099999998 -0.22911997
0.0096995216 -0.0097576436 -0.22932634
0.0099999998 -0.0083819125 -0.22956581
-0.0099999998 -0.0074645975 -0.22975306
0.0099999998 -0.0075007258 -0.2298215
-0.0099999998 -0.0064937007 -0.22939089
0.0099999998 -0.0061651724 -0.22939639
-0.0099999998 -0.0055027842 -0.22952694
0.0099999998 -0.0052715968 -0.2293698
-0.0099999998 -0.0043917079 -0.2298893
0.0099999998 -0.004414185 -0.22997582
-0.0099999998 -0.0037788413 -0.22968408
-0.0099999998 -0.0026249716 -0.22928333
0.0099999998 -0.0024966311 -0.22965062
-0.0099999998 -0.0014748282 -0.22949347
0.0099999998 -0.0015843923 -0.22943345
0.0099999998 -0.00053722336 -0.22959302
-0.0099999998 0.00052062003 -0.22947566
0.0099999998 0.00066296756 -0.2297527
-0.0099999998 0.0017964289 -0.22947192
0.0099999998 0.0014834439 -0.2291241
0.0099999998 0.0027218279 -0.22959667
-0.0099999998 0.0033552537 -0.22941819
0.0099999998 0.0034117578 -0.22923158
-0.0099999998 0.0049661477 -0.22936001
0.0099999998 0.0043415138 -0.22946689
-0.0099999998 0.0055680345 -0.22941792
0.0099999998 0.0054135234 -0.22960737
-0.0099999998 0.0067845378 -0.22945197
0.0099999998 0.0066138334 -0.22932325
-0.0099999998 0.0074716024 -0.22951643
0.0099999998 0.0074946838 -0.22958013
0.0099999998 0.0082919868 -0.22993746
-0.0097537842 0.0097724339 -0.22941774
-0.0084518222 0.0099999998 -0.22980885
-0.0072516147 0.0099999998 -0.22983329
-0.006453847 0.0099999998 -0.22958946
-0.0051392452 0.0099999998 -0.22961938
-0.0043650088 0.0099999998 -0.22958282
-0.003490933 0.0099999998 -0.22946885
-0.0024274415 0.0099999998 -0.22964202
-0.0015338885 0.0099999998 -0.22977777
-0.00067660143 0.0099999998 -0.22992185
0.0013064528 0.0099999998 -0.22990578
0.0026089279 0.0099999998 -0.22951928
0.0038440719 0.0099999998 -0.22959927
0.0045035421 0.0099999998 -0.2294407
0.00667617 0.0099999998 -0.22916009
0.0076792957 0.0099999998 -0.22944453
0.0083538061 0.0099999998 -0.22915606
0.0098584462 0.0096519515 -0.22941749
-0.0088090468 0.010000001 -0.22905457
-0.0058472236 0.010000001 -0.22966167
-0.0099009043 -0.0095362123 -0.22856328
-0.0089730155 -0.0099999998 -0.22803928
-0.0076015159 -0.0099999998 -0.22839205
-0.0068216925 -0.0099999998 -0.22829123
-0.0050048637 -0.0099999998 -0.22802374
-0.004572859 -0.0099999998 -0.22866763
-0.0026750839 -0.0099999998 -0.22832251
-0.0014147889 -0.0099999998 -0.22843347
-0.00040154983 -0.0099999998 -0.22841698
0.00023413869 -0.0099999998 -0.22853287
0.0013595489 -0.0099999998 -0.22838712
0.0024079792 -0.0099999998 -0.22831784
0.0032255112 -0.0099999998 -0.22821769
0.0047499491 -0.0099999998 -0.22879124
0.0053279991 -0.0099999998 -0.22879112
0.0065783258 -0.0099999998 -0.22857521
0.00752398 -0.0099999998 -0.22849932
0.0084185153 -0.0099999998 -0.22884817
0.0096528046 -0.0099083669 -0.22859713
-0.0099999998 -0.0081963576 -0.22884436
0.0099999998 -0.008305857 -0.22898874
0.0099999998 -0.007963758 -0.22830161
-0.0099999988 -0.0062074126 -0.22875972
0.0099999998 -0.0064183548 -0.22851002
-0.0099999998 -0.0051990235 -0.22847492
0.0099999998 -0.0054338472 -0.22850391
-0.0099999998 -0.0035420065 -0.22875822
0.0099999998 -0.0031970874 -0.22873209
-0.0099999998 -0.0026039591 -0.22865218
0.0099999998 -0.0023406292 -0.22836824
-0.0099999998 -0.0013027546 -0.22873186
0.0099999998 -0.0015455585 -0.22843665
-0.0099999998 -0.0004240328 -0.22854541
0.0099999998 -0.00092074554 -0.22883353
-0.0099999998 0.00057924399 -0.22854415
0.0099999998 0.00038589616 -0.22833988
-0.0099999988 0.0016642811 -0.22861502
0.0099999998 0.0014458071 -0.22813085
-0.0099999998 0.0025723025 -0.22846164
0.0099999998 0.0024729692 -0.22854023
-0.0099999998 0.0037631451 -0.22823942
-0.0099999998 0.0045613777 -0.22871101
0.0099999998 0.0044086273 -0.22814551
-0.0099999998 0.0054200604 -0.22827652
0.0099999998 0.0059405258 -0.22823578
-0.0099999998 0.0064257169 -0.22842446
0.0099999998 0.0063447664 -0.22857146
-0.0099999998 0.0076344046 -0.22867839
0.0099999998 0.0075355112 -0.22843949
-0.0099999998 0.0085133556 -0.22849688
0.0099999998 0.0087017622 -0.22852489
-0.0096759973 0.0097305179 -0.22852883
-0.008655264 0.0099999998 -0.22847554
-0.0078037656 0.0099999998 -0.2282673
-0.0068779597 0.0099999998 -0.22841589
-0.0055037523 0.0099999998 -0.22851069
-0.0044752052 0.0099999998 -0.22845352
-0.0034752726 0.0099999998 -0.22855663
-0.002485388 0.0099999998 -0.22852105
-0.0018385826 0.0099999998 -0.22827198
-0.00056937628 0.0099999998 -0.22834432
0.00043005706 0.0099999998 -0.22825037
0.0034710008 0.0099999998 -0.22855878
0.0045489175 0.0099999998 -0.22836402
0.0052031549 0.0099999998 -0.22839196
0.0066738292 0.0099999998 -0.22861573
0.0075167529 0.0099999998 -0.22867054
0.0082488153 0.0099999998 -0.22851209
0.0096327653 0.0099999998 -0.22849211
-0.0060886429 0.010000001 -0.22861895
-0.0098860655 -0.0096078785 -0.22771046
-0.0084228013 -0.0099999998 -0.22745825
-0.0078425091 -0.0099999998 -0.22777358
-0.0065771528 -0.0099999998 -0.22777186
-0.0054661715 -0.0099999998 -0.2277441
-0.004402604 -0.0099999998 -0.22746077
-0.0035952427 -0.0099999998 -0.22715665
-0.00212427 -0.0099999998 -0.2273259
-0.0016575478 -0.0099999998 -0.22727333
-0.00039917731 -0.0099999998 -0.22747704
0.00033818744 -0.0099999998 -0.22715364
0.0015290421 -0.0099999998 -0.22756094
0.0024985787 -0.0099999998 -0.22743718
0.0039837006 -0.0099999998 -0.22722532
0.0046869838 -0.0099999998 -0.2277119
0.0052863192 -0.0099999998 -0.22736321
0.00626822 -0.0099999998 -0.22744255
0.0073751193 -0.0099999998 -0.22741735
0.0081310859 -0.0099999998 -0.22744188
0.0093900729 -0.0099254316 -0.22720216
-0.0099999998 -0.0083911764 -0.22702558
0.0099999998 -0.0083271321 -0.22752658
-0.0099999998 -0.0071824337 -0.22779661
-0.0099999998 -0.0067633195 -0.22761966
0.0099999998 -0.0066184471 -0.22737408
-0.0099999998 -0.0055925846 -0.22760473
0.0099999998 -0.0057160547 -0.2274498
-0.0099999998 -0.0046745855 -0.22757015
0.0099999998 -0.004257259 -0.227562
0.0099999998 -0.0031688109 -0.2276141
-0.0099999998 -0.0023989254 -0.22723624
0.0099999998 -0.0022521026 -0.22729918
-0.0099999998 -0.0012377631 -0.22706243
0.0099999998 -0.0011105393 -0.22761986
-0.0099999998 -0.00054387935 -0.22715697
0.0099999998 -0.00040493612 -0.22731881
-0.0099999998 0.0005218056 -0.22753567
0.0099999998 0.00045028306 -0.22748433
-0.0099999998 0.0015305654 -0.2276264
-0.0099999998 0.0025496876 -0.22754316
0.0099999998 0.0023488768 -0.22766535
-0.0099999998 0.0034155964 -0.22731176
0.0099999998 0.0036460459 -0.22727267
-0.0099999998 0.0046872427 -0.2271544
0.0099999998 0.0046844082 -0.22772263
-0.0099999998 0.0053025112 -0.22735524
0.0099999998 0.0053087086 -0.22752845
-0.0099999998 0.0065103928 -0.22717226
0.0099999998 0.0064841188 -0.22757995
-0.0099999998 0.0072915014 -0.22763057
0.0099999998 0.0074697481 -0.22743642
-0.0099999998 0.008350756 -0.22730955
0.0099999998 0.0083146403 -0.2275354
-0.0095740994 0.0098774256 -0.22757277
-0.0074312789 0.0099999998 -0.22797699
-0.0045226915 0.0099999998 -0.22770813
-0.0032169702 0.0099999998 -0.22773427
-0.0020710994 0.0099999998 -0.22745037
-0.001473187 0.0099999998 -0.2271516
-0.00068431161 0.0099999998 -0.22709742
0.00095384242 0.0099999998 -0.22761151
0.0017357663 0.0099999998 -0.22728589
0.0026910424 0.0099999998 -0.22752099
0.0031985929 0.0099999998 -0.22767779
0.0051277019 0.0099999998 -0.22750047
0.0065615373 0.0099999998 -0.227586
0.0076375343 0.0099999998 -0.22720544
0.0089499857 0.0099999998 -0.2278873
0.0098434072 0.0097518293 -0.22756119
-0.0097786617 0.010000001 -0.22782469
-0.0082161091 0.010000001 -0.22762461
-0.0096625406 -0.009748973 -0.22650146
-0.0087655857 -0.0099999998 -0.2262997
-0.0074270652 -0.0099999998 -0.22652479
-0.0064738207 -0.0099999998 -0.22637019
-0.0056413673 -0.0099999998 -0.22657427
-0.004211063 -0.0099999998 -0.22649741
-0.0033446457 -0.0099999998 -0.22633815
-0.0026590209 -0.0099999998 -0.2264099
-0.0014700766 -0.0099999998 -0.22664367
-0.00040680062 -0.0099999998 -0.22648895
0.0005720451 -0.0099999998 -0.22656952
0.0012234785 -0.0099999998 -0.22628254
0.0027443755 -0.0099999998 -0.22657254
0.0030940135 -0.0099999998 -0.22684962
0.0044793054 -0.0099999998 -0.22647208
0.0065234448 -0.0099999998 -0.22620229
0.0070812711 -0.0099999998 -0.22646236
0.0081010694 -0.0099999998 -0.22698131
0.0097210389 -0.0098457858 -0.22632173
-0.0099999998 -0.0087766442 -0.22642511
0.0099999998 -0.0085750343 -0.22650115
-0.0099999998 -0.0070619984 -0.2268042
0.0099999998 -0.0075679952 -0.2263962
-0.0099999998 -0.0068757972 -0.22635937
-0.0099999998 -0.0055875876 -0.22634336
0.0099999998 -0.0057457639 -0.22609495
-0.0099999998 -0.0046811635 -0.22667685
0.0099999998 -0.0045807455 -0.22656183
-0.0099999998 -0.0032605252 -0.22658162
0.0099999998 -0.0036299992 -0.22645977
-0.0099999998 -0.0023761941 -0.22649594
0.0099999998 -0.0027669682 -0.22692674
-0.0099999998 -0.0014916977 -0.22642671
0.0099999998 -0.0019450379 -0.22660714
-0.0099999998 -0.00042977382 -0.22643118
0.0099999998 -0.0005236119 -0.22623754
-0.0099999998 0.00043646479 -0.22676761
0.0099999988 0.00058698497 -0.22653985
-0.0099999998 0.0019881898 -0.22644496
0.0099999998 0.0014876503 -0.22645432
0.0099999998 0.0024621037 -0.22602004
-0.0099999998 0.00339855 -0.22644889
0.0099999998 0.0034315165 -0.22678952
-0.0099999998 0.0045419596 -0.22687267
0.0099999998 0.0043490818 -0.22653154
-0.0099999998 0.0056644604 -0.22637823
0.0099999998 0.0053334399 -0.22686261
-0.0099999998 0.0062069623 -0.22632594
0.0099999998 0.0065844287 -0.2265832
-0.0099999998 0.0076977559 -0.22640003
0.0099999998 0.0072628427 -0.22658266
-0.0099999998 0.0088462709 -0.22651146
0.0099999998 0.00802348 -0.22622146
-0.0096997069 0.0096356366 -0.2264944
-0.0085965274 0.0099999998 -0.22668883
-0.0073555578 0.0099999998 -0.22663735
-0.0063802712 0.0099999998 -0.22619337
-0.0054761418 0.0099999998 -0.22663754
-0.0047134357 0.0099999998 -0.22657788
-0.0035078647 0.0099999998 -0.22630548
-0.0014291313 0.0099999998 -0.22632313
-0.00059954519 0.0099999998 -0.22650379
0.00070784398 0.0099999998 -0.22657511
0.0012812291 0.0099999998 -0.22669989
0.0023867234 0.0099999988 -0.22649667
0.0033109819 0.0099999998 -0.22679473
0.0047069509 0.0099999998 -0.226392
0.0062233359 0.0099999998 -0.22656816
0.007552145 0.0099999998 -0.2267891
0.0097766127 0.0097687151 -0.22653162
-0.0097990036 -0.0097062094 -0.22541055
-0.0086194584 -0.0099999998 -0.22527015
-0.0074385805 -0.0099999998 -0.2255443
-0.006368035 -0.0099999998 -0.22585809
-0.0054693576 -0.0099999998 -0.2253909
-0.0042867954 -0.0099999998 -0.22553062
-0.0036642984 -0.0099999998 -0.22592171
-0.0016689883 -0.0099999998 -0.22556643
-0.00043419533 -0.0099999998 -0.2257005
0.0003050052 -0.0099999998 -0.22523198
0.0011767657 -0.0099999998 -0.22561568
0.0022408299 -0.0099999998 -0.22547854
0.0031210328 -0.0099999998 -0.22536808
0.004091721 -0.0099999998 -0.22510749
0.0056656701 -0.0099999998 -0.22514273
0.006529252 -0.0099999998 -0.22519106
0.0072386283 -0.0099999998 -0.22597969
0.0088272113 -0.0099999998 -0.22572523
0.009387848 -0.0099605042 -0.22542119
-0.0099999998 -0.008237524 -0.22542194
0.0099999998 -0.0088579254 -0.22544876
-0.0099999998 -0.0076626213 -0.22561122
0.0099999998 -0.0077019027 -0.22562554
-0.0099999998 -0.0060200701 -0.22596627
0.0099999998 -0.0067120544 -0.22549486
-0.0099999998 -0.0052045542 -0.22519761
-0.0099999998 -0.0044171996 -0.22533719
0.0099999998 -0.0047211787 -0.22534512
-0.0099999998 -0.0036391281 -0.22550538
0.0099999998 -0.0037188635 -0.22521207
-0.0099999998 -0.0022409311 -0.22559302
0.0099999998 -0.0028156259 -0.22540902
-0.0099999998 -0.001643519 -0.22536886
0.0099999998 -0.001358103 -0.22595003
-0.0099999998 -0.00046804163 -0.22561648
0.0099999998 -0.00049989158 -0.22533871
-0.0099999998 0.00045841918 -0.22573861
-0.0099999998 0.0015642166 -0.22523728
0.0099999998 0.001599232 -0.22561231
-0.0099999998 0.0029154872 -0.22565342
0.0099999998 0.002408121 -0.22548571
-0.0099999998 0.0044907844 -0.22533438
0.0099999998 0.0044565061 -0.22548658
-0.0099999998 0.0055669532 -0.22537723
0.0099999998 0.0054957466 -0.22539772
-0.0099999998 0.0064966576 -0.22530319
-0.0099999998 0.0075449706 -0.22548687
0.0099999998 0.0085690571 -0.22566357
0.010000001 0.0085605541 -0.22517978
-0.0097138621 0.0099963751 -0.22556023
-0.0084678186 0.0099999998 -0.22558427
-0.0078922678 0.0099999998 -0.2252267
-0.0069530774 0.0099999998 -0.22569743
-0.0046660071 0.0099999998 -0.22550301
-0.0031485769 0.0099999998 -0.22529012
-0.0026519538 0.0099999998 -0.22519927
-0.001321998 0.0099999998 -0.22573084
-0.00021614903 0.0099999998 -0.22550899
0.00088591891 0.0099999998 -0.22555117
0.0015801543 0.0099999998 -0.22562279
0.0022500481 0.0099999998 -0.22524127
0.0036649872 0.0099999998 -0.22575969
0.0044941073 0.0099999998 -0.22552966
0.0057759425 0.0099999998 -0.22532824
0.0064250412 0.0099999998 -0.22564237
0.0073804297 0.0099999998 -0.22542918
0.0084882677 0.0099999998 -0.22562781
0.0099615073 0.009725255 -0.2253325
-0.0094789071 0.010000001 -0.22561303
-0.0066754245 0.010000001 -0.22552188
-0.0094739599 -0.0098463837 -0.22450542
-0.0081201093 -0.0099999998 -0.22430094
-0.0075525614 -0.0099999998 -0.22453332
-0.006422448 -0.0099999998 -0.2244757
-0.0054936018 -0.0099999998 -0.2245236
-0.004289648 -0.0099999998 -0.22455844
-0.0035910639 -0.0099999998 -0.22459599
-0.0025146659 -0.0099999998 -0.22471741
-0.001612898 -0.0099999998 -0.224316
0.0001976206 -0.0099999998 -0.22427571
0.0027171262 -0.0099999998 -0.22431976
0.0033888426 -0.0099999998 -0.22419231
0.0040354761 -0.0099999998 -0.22490543
0.005309579 -0.0099999998 -0.22440647
0.0067922343 -0.0099999998 -0.22453062
0.0077515589 -0.0099999998 -0.22465235
0.0083961282 -0.0099999998 -0.22485441
0.0097233569 -0.0093802754 -0.22443587
-0.0099999998 -0.0083258143 -0.22470796
0.0099999998 -0.0082526207 -0.22416225
-0.0099999998 -0.0072271489 -0.22456525
-0.0099999998 -0.0062774094 -0.22476923
0.0099999998 -0.0065218024 -0.2245989
-0.0099999998 -0.0055946275 -0.22447005
0.0099999998 -0.0056696371 -0.22471146
-0.0099999998 -0.0043909028 -0.224544
0.0099999998 -0.0047878977 -0.22456434
-0.0099999998 -0.0036661848 -0.22445956
0.0099999998 -0.0033457077 -0.22442031
-0.0099999998 -0.0023744903 -0.22432345
0.0099999998 -0.0021652123 -0.22476849
-0.0099999998 -0.0014503874 -0.22440246
0.0099999998 -0.0018306886 -0.22487392
-0.0099999998 -2.8663781e-05 -0.22465584
0.0099999998 -0.00016646506 -0.22462146
-0.0099999998 0.0004905212 -0.22448482
0.0099999998 0.00027737347 -0.22444999
0.0099999998 0.0014807258 -0.22428401
-0.0099999998 0.0026479575 -0.2242537
0.0099999998 0.0024146202 -0.22418946
-0.0099999998 0.003461035 -0.22469486
0.0099999998 0.0035403441 -0.22468522
-0.0099999998 0.0055952459 -0.22459435
0.0099999998 0.0059282109 -0.22496653
-0.0099999998 0.0063314168 -0.22436908
-0.0099999998 0.00737934 -0.22432461
0.0099999998 0.0074250195 -0.2246442
-0.0099999998 0.0082160793 -0.22459733
0.0099999998 0.0085105598 -0.22472867
-0.0098435543 0.0097236363 -0.22445163
-0.008330211 0.0099999998 -0.22457001
-0.0071410919 0.0099999998 -0.22443341
-0.0052378913 0.0099999998 -0.22481136
-0.0041776551 0.0099999998 -0.22450107
-0.0032910444 0.0099999998 -0.22442842
-0.0026524507 0.0099999998 -0.22469389
-0.0014624986 0.0099999998 -0.22430341
-0.00050089898 0.0099999998 -0.22425543
0.00062907254 0.0099999998 -0.22408876
0.0015874624 0.0099999998 -0.22484167
0.0026581008 0.0099999998 -0.22443281
0.0034923193 0.0099999998 -0.22466129
0.0040556937 0.0099999998 -0.22484857
0.0054388759 0.0099999998 -0.22414725
0.0067965845 0.0099999998 -0.22458027
0.007417642 0.0099999998 -0.22475755
0.0084547037 0.0099999998 -0.22446224
0.0094499309 0.0099275848 -0.22428516
-0.0073917513 0.010000001 -0.22461969
0.0096064182 0.010000001 -0.22495477
-0.0099404175 -0.0097756349 -0.22364363
-0.0084032882 -0.0099999998 -0.22382973
-0.0064999843 -0.0099999998 -0.22323436
-0.0053452421 -0.0099999998 -0.22338271
-0.0046646874 -0.0099999998 -0.22335908
-0.0020530738 -0.0099999998 -0.22358868
-0.0016004378 -0.0099999998 -0.22370827
-0.00056431978 -0.0099999998 -0.22368819
0.00072942348 -0.0099999998 -0.22381684
0.0012896589 -0.0099999998 -0.22338314
0.0031385038 -0.0099999998 -0.2238141
0.0043140524 -0.0099999998 -0.22360793
0.0054428414 -0.0099999998 -0.22354427
0.0062871967 -0.0099999998 -0.22366947
0.0083935224 -0.0099999998 -0.22347657
0.0099909594 -0.0096280072 -0.22342351
0.0099999998 -0.0085221473 -0.22350734
-0.0099999998 -0.0074831075 -0.22363846
0.0099999998 -0.0078271879 -0.22311234
-0.0099999998 -0.0067477701 -0.22368553
0.0099999998 -0.0060920618 -0.22359379
-0.0099999998 -0.0055475989 -0.22357588
0.0099999998 -0.0055262125 -0.22370708
-0.0099999998 -0.0046073999 -0.2231997
0.0099999998 -0.004444309 -0.22361933
-0.0099999998 -0.0036742967 -0.22362334
0.0099999998 -0.0038974786 -0.22340181
-0.0099999998 -0.0023598701 -0.22366786
-0.0099999998 -0.0015548974 -0.22346385
0.0099999998 -0.0015416297 -0.22348517
-0.0099999998 -0.00047871732 -0.22344366
0.0099999998 -0.0005749992 -0.22364812
-0.0099999998 7.9398509e-05 -0.22393267
0.0099999998 0.0005204503 -0.22333573
-0.0099999998 0.0013677733 -0.22336058
0.0099999998 0.00145246 -0.22339004
-0.0099999998 0.0025367197 -0.22339061
-0.0099999998 0.0033306426 -0.22338438
0.0099999998 0.0038293875 -0.22348702
-0.0099999998 0.004453165 -0.2236546
0.0099999998 0.0046872087 -0.22371593
-0.0099999998 0.0058718566 -0.22353044
0.0099999998 0.0054456498 -0.22333057
-0.0099999998 0.0064830082 -0.22351097
0.0099999998 0.0066700997 -0.22364716
-0.0099999998 0.0076644467 -0.22377583
0.0099999998 0.0071881982 -0.22354096
0.010000001 0.0072896248 -0.22382188
-0.0099999998 0.0082645593 -0.22334966
0.0099999998 0.0088021513 -0.22359306
0.010000001 0.0081147086 -0.22344245
-0.0096821329 0.0098500708 -0.22334269
-0.0084520541 0.0099999998 -0.22356935
-0.0073926984 0.0099999998 -0.2234811
-0.0065014949 0.0099999998 -0.22332214
-0.0058864593 0.0099999998 -0.22364525
-0.0046846727 0.0099999998 -0.22365484
-0.0025941923 0.0099999998 -0.22367629
-0.0014260933 0.0099999998 -0.2235461
0.00074854121 0.0099999998 -0.22358584
0.001414792 0.0099999998 -0.22333634
0.0026730183 0.0099999998 -0.22360188
0.0036936675 0.0099999998 -0.22347665
0.0043331501 0.0099999998 -0.22349282
0.0052532842 0.0099999998 -0.22340095
0.0067076581 0.0099999998 -0.22359917
0.0079553202 0.0099999998 -0.22380567
0.0085752234 0.0099999998 -0.22368981
0.0097108716 0.0098945638 -0.22357103
-0.009151265 0.010000001 -0.2238194
-0.0089658983 0.010000001 -0.22341029
-0.0077731228 0.010000001 -0.22384369
-0.009742205 -0.00980289 -0.22252345
-0.0075169588 -0.0099999998 -0.22210997
-0.0066768019 -0.0099999998 -0.22241217
-0.00527672 -0.0099999998 -0.22262391
-0.0042991936 -0.0099999998 -0.22201589
-0.0037193059 -0.0099999998 -0.22250149
-0.0021859482 -0.0099999998 -0.22247729
-0.0016568893 -0.0099999998 -0.22252303
-0.00059638999 -0.0099999998 -0.22259802
0.00049515394 -0.0099999998 -0.22238742
0.0015535443 -0.0099999998 -0.22265851
0.0023097533 -0.0099999998 -0.22277325
0.003471382 -0.0099999998 -0.22273108
0.0048603769 -0.0099999998 -0.22249907
0.0054108887 -0.0099999998 -0.2224555
0.0065017114 -0.0099999998 -0.22230229
0.0071417922 -0.0099999998 -0.22298229
0.0080348644 -0.0099999988 -0.2225517
0.0094915144 -0.0099681653 -0.22255081
-0.0099999998 -0.0085280687 -0.22260492
0.0099999998 -0.0086931242 -0.22243689
-0.0099999998 -0.0078400932 -0.22295183
0.0099999998 -0.0072342395 -0.22262886
-0.010000001 -0.0065804608 -0.22253989
0.0099999998 -0.0066493871 -0.22258358
-0.0099999998 -0.0045184637 -0.22231559
0.0099999998 -0.0046384996 -0.22241172
0.0099999998 -0.0032247964 -0.2221844
-0.0099999998 -0.002347887 -0.22265247
0.0099999998 -0.0027699503 -0.22221692
-0.0099999998 -0.0016351877 -0.22252119
0.0099999998 -0.001678512 -0.22217965
-0.0099999998 -0.00041392865 -0.22278416
0.0099999998 -0.00056230574 -0.22244096
-0.0099999998 0.00051981834 -0.22262011
0.0099999998 0.00046701657 -0.22240268
-0.0099999998 0.001676796 -0.22225301
0.0099999998 0.0013592977 -0.22255355
-0.0099999998 0.0025000069 -0.22245739
0.0099999998 0.0025609252 -0.22252345
-0.0099999998 0.0039617806 -0.22242357
0.0099999998 0.00352656 -0.22214282
0.0099999998 0.004206066 -0.22245824
-0.0099999998 0.0051065129 -0.2226748
-0.0099999998 0.0063824179 -0.22260964
0.0099999998 0.0065515032 -0.22231352
-0.0099999998 0.0075076832 -0.22248511
0.0099999998 0.0075644427 -0.22243436
0.0099999998 0.0084930062 -0.2222552
-0.0095278965 0.0098179923 -0.22255614
-0.0074908976 0.0099999998 -0.22282353
-0.0066197813 0.0099999998 -0.22268139
-0.0053164982 0.0099999998 -0.22227655
-0.0043276642 0.0099999998 -0.22205487
-0.0031927093 0.0099999998 -0.22225305
-0.0027264515 0.0099999998 -0.22244701
-0.0010601068 0.0099999998 -0.22273073
-0.00072435662 0.0099999998 -0.22243403
0.0018925271 0.0099999998 -0.22205372
0.0020942194 0.0099999998 -0.22240493
0.0035622641 0.0099999998 -0.22239833
0.0046654358 0.0099999998 -0.22210065
0.0064225243 0.0099999998 -0.22281258
0.0073833144 0.0099999998 -0.2225071
0.0083059352 0.0099999998 -0.22250174
0.0098460959 0.009643062 -0.22225581
0.010000001 0.0096820416 -0.22235405
-0.0099999998 -0.0092344657 -0.22159091
-0.0083393548 -0.0099999998 -0.2214701
-0.0076190955 -0.0099999998 -0.22118609
-0.0065347082 -0.0099999998 -0.22157988
-0.0054988172 -0.0099999998 -0.22133422
-0.0044397507 -0.0099999998 -0.22157168
-0.0034942105 -0.0099999998 -0.22174938
-0.0023037982 -0.0099999998 -0.22145888
-0.001706826 -0.0099999998 -0.22159527
-0.00061016972 -0.0099999998 -0.22131944
0.00033389207 -0.0099999998 -0.22166023
0.0014776418 -0.0099999998 -0.22150424
0.0029608486 -0.0099999998 -0.22173372
0.003619147 -0.0099999998 -0.22176497
0.0044370727 -0.0099999998 -0.22156332
0.0053429622 -0.0099999998 -0.22167319
0.0064088781 -0.0099999998 -0.22141451
0.0070799543 -0.0099999998 -0.22179475
0.0085667893 -0.0099999998 -0.22171378
0.0096594375 -0.0099999998 -0.2214369
-0.0099999998 -0.0084878989 -0.22164404
0.0099999998 -0.0081340885 -0.22170621
-0.010000001 -0.0070489147 -0.22170094
0.0099999998 -0.0075245621 -0.22152887
-0.0099999998 -0.0062969318 -0.22136168
0.0099999998 -0.0064202049 -0.22182055
-0.0099999998 -0.0056308568 -0.22112224
0.0099999998 -0.0053613493 -0.22157167
-0.0099999998 -0.0043244623 -0.22158687
0.0099999998 -0.0047072219 -0.2218715
-0.0099999998 -0.0036457749 -0.22179751
0.0099999998 -0.0034026883 -0.22113419
-0.0099999998 -0.0027764475 -0.22160439
0.0099999998 -0.0025981844 -0.22117171
-0.0099999998 -0.0011354932 -0.22136791
-0.0099999998 -0.00062288472 -0.22143471
0.0099999998 -0.00047043822 -0.22159141
-0.0099999998 0.00045563112 -0.22157428
0.0099999998 0.00045058317 -0.22138026
-0.0099999998 0.0014801662 -0.22146666
-0.0099999998 0.0021658419 -0.22148937
0.0099999998 0.0024249188 -0.2216706
-0.0099999998 0.0035728104 -0.22159368
0.0099999998 0.00373221 -0.22169718
0.0099999998 0.0044859843 -0.22123215
-0.0099999998 0.0053630667 -0.22160004
0.0099999998 0.0055866814 -0.22164099
-0.0099999998 0.0062106485 -0.22141454
0.0099999998 0.0064819697 -0.22140095
-0.0099999998 0.0071362928 -0.22143432
0.0099999998 0.0070633306 -0.22118974
0.010000001 0.0076171737 -0.22178771
-0.0099999998 0.0084110964 -0.22171843
-0.0099112187 0.0094170403 -0.22146872
-0.0083524995 0.0099999998 -0.22146203
-0.0065900171 0.0099999998 -0.22136037
-0.0047168788 0.0099999998 -0.22143292
-0.0032714666 0.0099999998 -0.22143729
-0.0020333619 0.0099999998 -0.2213544
-0.00035684416 0.0099999998 -0.22174284
0.00027049257 0.0099999998 -0.22160921
0.0016278224 0.0099999998 -0.22166061
0.0023257164 0.0099999998 -0.22132367
0.0032811705 0.0099999998 -0.22158232
0.0058060223 0.0099999998 -0.22142316
0.0065596192 0.0099999998 -0.22129476
0.0074180998 0.0099999998 -0.22148708
0.008551402 0.0099999998 -0.221531
0.0096535226 0.0097931186 -0.22140996
-0.0085992133 0.010000001 -0.22104838
-0.0096141119 -0.0099653052 -0.22046645
-0.0087025594 -0.0099999998 -0.22048406
-0.006657443 -0.0099999998 -0.2204528
-0.0057153152 -0.0099999998 -0.22037265
-0.004935558 -0.0099999998 -0.22007628
-0.0030286512 -0.0099999998 -0.22053248
-0.0024387627 -0.0099999998 -0.22045508
-0.0016476836 -0.0099999998 -0.22039253
-0.0002373734 -0.0099999998 -0.22054541
0.00086122914 -0.0099999998 -0.22045435
0.0021810727 -0.0099999998 -0.22015482
0.0034705475 -0.0099999998 -0.22065257
0.0051277531 -0.0099999998 -0.22039314
0.0066665895 -0.0099999998 -0.22047508
0.0075506871 -0.0099999998 -0.22028144
0.0084280577 -0.0099999998 -0.22068827
0.0097467965 -0.0098118819 -0.22056073
0.0099999998 -0.0086574759 -0.22035116
-0.010000001 -0.0075971028 -0.22037154
0.0099999998 -0.0073429635 -0.22027998
-0.0099999998 -0.0062531433 -0.22051558
0.0099999998 -0.0063795373 -0.22034414
0.0099999998 -0.0057140333 -0.22069836
-0.0099999998 -0.0047288635 -0.22028594
0.0099999998 -0.0041773925 -0.22039016
-0.0099999998 -0.003569467 -0.22050238
0.0099999998 -0.003682252 -0.22043328
-0.0099999998 -0.0023684993 -0.22025487
0.0099999998 -0.0026718578 -0.22056533
-0.0099999998 -0.0013985483 -0.2201207
0.0099999998 -0.0015175252 -0.22073318
-0.0099999998 -0.0003515284 -0.22081988
0.0099999998 -0.00030750874 -0.22061935
-0.0099999998 0.0002333317 -0.22049999
0.0099999998 0.00031340937 -0.22049595
0.0099999998 0.0010022847 -0.22003394
-0.0099999998 0.0026932356 -0.22068195
0.0099999998 0.0022590705 -0.22051331
-0.0099999998 0.0036906272 -0.22060524
0.0099999998 0.0036901822 -0.22066948
-0.0099999998 0.0047202818 -0.22074628
-0.0099999998 0.0055927318 -0.22043103
0.0099999998 0.0056124111 -0.2206777
-0.0099999998 0.0065205838 -0.22054395
0.0099999998 0.0065501309 -0.22093621
-0.0099999998 0.0071676215 -0.2201127
0.0099999998 0.0075715454 -0.22041014
-0.0099999998 0.0081810709 -0.22050905
0.0099999998 0.0086037619 -0.22066405
-0.0096520353 0.0098348157 -0.22064862
-0.0087135928 0.0099999998 -0.2205161
-0.0076378258 0.0099999998 -0.22063434
-0.0061557507 0.0099999998 -0.22028692
-0.0054226089 0.0099999998 -0.22084694
-0.0032304616 0.0099999998 -0.22027551
-0.0027239602 0.0099999998 -0.22052982
-0.0017485672 0.0099999998 -0.22050366
-0.00026200199 0.0099999998 -0.22058526
0.00030590734 0.0099999998 -0.22008421
0.0015008271 0.0099999998 -0.22052959
0.0024726912 0.0099999998 -0.22042489
0.0039297361 0.0099999998 -0.2206869
0.0045808847 0.0099999998 -0.22034407
0.0057585668 0.0099999998 -0.22017007
0.0064587444 0.0099999998 -0.22043613
0.0076105753 0.0099999998 -0.22035645
0.0087051056 0.0099999998 -0.22066674
0.0098553151 0.0095531391 -0.22062379
-0.0094588567 -0.0098901829 -0.21963024
-0.0087722521 -0.0099999998 -0.21940467
-0.0075403452 -0.0099999998 -0.21973488
-0.0053921072 -0.0099999998 -0.21922822
-0.0034105028 -0.0099999998 -0.21960442
-0.0013538408 -0.0099999998 -0.21955466
-0.00026332075 -0.0099999998 -0.21924734
0.00040790951 -0.0099999998 -0.21941617
0.0016480203 -0.0099999998 -0.21916921
0.002622091 -0.0099999998 -0.21950796
0.0036776327 -0.0099999998 -0.21924464
0.0043283692 -0.0099999998 -0.21938735
0.0057459557 -0.0099999998 -0.21920428
0.0064656986 -0.0099999998 -0.21955124
0.0074552149 -0.0099999998 -0.21931374
0.0085343523 -0.0099999998 -0.21918046
0.0096836984 -0.0096284272 -0.21933776
-0.0099999998 -0.0073786341 -0.219336
-0.0099999998 -0.0065807304 -0.21960476
0.0099999998 -0.0065698 -0.21932641
-0.0099999998 -0.0057469085 -0.21920194
0.0099999998 -0.005666486 -0.21973771
-0.0099999998 -0.0046874243 -0.21933895
0.0099999998 -0.0044748662 -0.21939072
-0.0099999998 -0.0035245284 -0.21946478
0.0099999998 -0.003700057 -0.21945283
-0.0099999998 -0.0024212778 -0.21941452
0.0099999998 -0.0021924195 -0.21947083
-0.0099999998 -0.0015673365 -0.21948096
0.0099999998 -0.0018378932 -0.2198557
-0.0099999998 -0.00065697648 -0.21946035
0.0099999998 -0.00038446503 -0.21945661
-0.0099999998 0.0009111166 -0.219255
0.0099999998 0.00034879951 -0.2195816
-0.0099999998 0.0016147929 -0.21946125
0.0099999998 0.0013822697 -0.21964854
-0.0099999998 0.0024388251 -0.21955347
0.0099999998 0.0025790846 -0.21973476
-0.0099999998 0.0033619476 -0.21942194
0.0099999998 0.0034221101 -0.21913363
-0.0099999998 0.0046928152 -0.21943127
0.0099999998 0.0047037401 -0.21948697
-0.0099999998 0.0058339536 -0.21957611
-0.0099999998 0.0066269045 -0.21950662
0.0099999998 0.0065650977 -0.2194401
-0.0099999998 0.0075694071 -0.21982132
0.0099999998 0.0078481836 -0.21953033
-0.0099999998 0.0085216872 -0.21954316
0.0099999998 0.0088825142 -0.21996215
-0.0097219674 0.0096143577 -0.21957205
-0.0086364709 0.0099999998 -0.21945682
-0.0079653664 0.0099999998 -0.21988863
-0.0064468062 0.0099999998 -0.21913999
-0.0053901495 0.0099999998 -0.21969192
-0.0044522854 0.0099999998 -0.21959403
-0.0034722285 0.0099999998 -0.21957217
-0.0023582377 0.0099999998 -0.21933834
-0.0014209826 0.0099999998 -0.21975285
-0.00068420474 0.0099999998 -0.21930164
0.00045182696 0.0099999998 -0.2192688
0.0014676556 0.0099999998 -0.21995699
0.002218015 0.0099999998 -0.21965259
0.0042926231 0.0099999998 -0.21972217
0.0050471979 0.0099999998 -0.21901222
0.006198212 0.0099999998 -0.21968457
0.0076167192 0.0099999998 -0.21969022
0.0084199738 0.0099999998 -0.21954015
0.0097128749 0.0098252036 -0.21939954
-0.0071768062 0.010000001 -0.21944596
-0.0096737444 -0.0099999998 -0.21839431
-0.0088531915 -0.0099999998 -0.21850678
-0.0073280716 -0.0099999998 -0.21838096
-0.0065357606 -0.0099999998 -0.21848071
-0.0043974514 -0.0099999998 -0.21821143
-0.0025194252 -0.0099999998 -0.21814376
-0.0014972331 -0.0099999998 -0.21862185
-0.00033055549 -0.0099999998 -0.21828276
0.00067806587 -0.0099999998 -0.21863747
0.0013901982 -0.0099999998 -0.21865836
0.0022707316 -0.0099999998 -0.21848673
0.0039493535 -0.0099999998 -0.21836782
0.0045533022 -0.0099999998 -0.21888357
0.0057200785 -0.0099999998 -0.21854191
0.0063867122 -0.0099999998 -0.21840017
0.0076551749 -0.0099999998 -0.21838103
0.008528972 -0.0099999998 -0.21847433
0.009671961 -0.0098802363 -0.21846257
0.0099999998 -0.0083946493 -0.21833414
-0.0099999998 -0.0073715011 -0.2185704
0.0099999998 -0.0073727695 -0.21830949
-0.0099999998 -0.006506904 -0.21827924
0.0099999998 -0.0065102689 -0.21846032
-0.0099999998 -0.0055481959 -0.21852672
0.0099999998 -0.0055663469 -0.21871381
-0.0099999998 -0.0045971237 -0.21861194
0.0099999998 -0.0045054532 -0.21839431
-0.0099999998 -0.0034858051 -0.21854155
0.0099999998 -0.0036421157 -0.21856919
0.0099999998 -0.0023173089 -0.21847889
-0.0099999998 -0.0013054991 -0.21852517
0.0099999998 -0.0012625535 -0.2188102
-0.0099999998 -0.00055753754 -0.21842889
0.0099999998 -0.00061659724 -0.21847278
-0.0099999998 0.00058591692 -0.21836022
0.0099999998 1.442153e-06 -0.21823177
-0.0099999998 0.0012018852 -0.21871492
0.0099999998 0.0013235019 -0.21870321
-0.0099999998 0.0020516671 -0.21884683
0.0099999998 0.0025027134 -0.21850646
-0.0099999998 0.003688616 -0.21868587
0.0099999998 0.0038623253 -0.21855195
-0.0099999998 0.0045737368 -0.21837786
0.0099999998 0.0045201029 -0.21856342
-0.0099999998 0.0062592085 -0.21847066
0.0099999998 0.0067424299 -0.21818897
-0.0099999998 0.0071894457 -0.21867745
0.0099999998 0.0074703796 -0.21832439
-0.0099999998 0.0083069801 -0.21853174
0.0099999998 0.0081125898 -0.21823387
-0.0097777983 0.0095373364 -0.21842346
-0.0084597347 0.0099999998 -0.21851379
-0.0070526507 0.0099999998 -0.21818769
-0.0055184374 0.0099999998 -0.21857616
-0.0044825939 0.0099999998 -0.2184623
-0.0032677245 0.0099999998 -0.21846807
-0.0021125814 0.0099999998 -0.21808878
-0.0019258924 0.0099999998 -0.21893182
0.0017881845 0.0099999998 -0.21843161
0.002312188 0.0099999998 -0.21870464
0.003496354 0.0099999998 -0.21890496
0.0042547225 0.0099999998 -0.21823198
0.0054717949 0.0099999998 -0.21876022
0.0063773245 0.0099999998 -0.2186249
0.0076727346 0.0099999998 -0.21833968
0.0082502011 0.0099999998 -0.21850523
0.0097882114 0.0097190924 -0.21841793
-0.0096677188 -0.0098282918 -0.21740514
-0.0085834702 -0.0099999998 -0.21761362
-0.0065717837 -0.0099999998 -0.2173124
-0.0056650057 -0.0099999998 -0.21728154
-0.004190593 -0.0099999998 -0.21770474
-0.0036205295 -0.0099999998 -0.21784924
-0.001656731 -0.0099999998 -0.21782671
-0.00050260825 -0.0099999998 -0.21742135
0.00049839949 -0.0099999998 -0.2175297
0.0019411235 -0.0099999998 -0.21784636
0.0023310359 -0.0099999998 -0.21762165
0.0045158244 -0.0099999998 -0.2174266
0.005557402 -0.0099999998 -0.2173861
0.0067424756 -0.0099999998 -0.21745753
0.007639912 -0.0099999998 -0.21723436
0.0086645819 -0.0099999998 -0.21718313
0.0097874217 -0.0098085236 -0.21731429
-0.0099999998 -0.0084055578 -0.21741176
0.0099999998 -0.0088731302 -0.21752688
-0.0099999998 -0.0078169713 -0.21742707
0.0099999998 -0.0075270957 -0.21726596
-0.0099999998 -0.0065745111 -0.21740828
0.0099999998 -0.0067802491 -0.21780446
-0.0099999998 -0.0054709744 -0.21763924
0.0099999998 -0.0052169138 -0.21724463
-0.0099999998 -0.0046780957 -0.21775031
0.0099999998 -0.0044077202 -0.21756969
-0.0099999998 -0.0033060359 -0.21746278
0.0099999998 -0.0036006961 -0.21745725
-0.0099999998 -0.0027938879 -0.21785936
0.0099999998 -0.0028070738 -0.21756822
-0.0099999998 -0.001275631 -0.21743238
0.0099999998 -0.0014272328 -0.2174309
-0.0099999998 -0.00042523057 -0.21765441
0.0099999998 -0.0004271036 -0.21741089
-0.0099999998 0.0005727394 -0.21734874
0.0099999998 0.00015685335 -0.21705447
-0.0099999998 0.0013632278 -0.21740566
0.0099999998 0.0011251543 -0.21766457
-0.0099999998 0.0023618601 -0.21768263
0.0099999998 0.0022536705 -0.21763691
-0.0099999998 0.0032994389 -0.21746589
0.0099999998 0.0039120493 -0.21782336
-0.0099999998 0.0043707979 -0.21729796
0.0099999998 0.0043441504 -0.21750963
-0.0099999998 0.0054636337 -0.21736668
0.0099999998 0.0055179461 -0.21787298
-0.0099999998 0.0067678792 -0.21750349
0.0099999998 0.0063909115 -0.21746045
0.010000001 0.0068792324 -0.21752487
-0.0099999998 0.0077232854 -0.21739046
-0.0099999998 0.0085291145 -0.21745417
-0.0097597735 0.0095818983 -0.21762609
-0.0086915921 0.0099999998 -0.21719527
-0.0072971242 0.0099999998 -0.21762757
-0.0065143383 0.0099999998 -0.2174242
-0.0054480433 0.0099999998 -0.21745114
-0.0044778772 0.0099999998 -0.21739815
-0.0026510963 0.0099999998 -0.21744435
-0.0014311501 0.0099999998 -0.21744308
-0.00099873543 0.0099999998 -0.21717565
0.00053986197 0.0099999998 -0.21744852
0.0035365254 0.0099999998 -0.2175813
0.0042965729 0.0099999998 -0.21725139
0.0055074887 0.0099999998 -0.21729478
0.0063805757 0.0099999998 -0.21743433
0.0072252108 0.0099999998 -0.21727082
0.008351176 0.0099999998 -0.21749106
0.0095009347 0.0097593442 -0.21731409
-0.0099295676 -0.0094876429 -0.21631919
-0.0082816631 -0.0099999998 -0.21653067
-0.0075730993 -0.0099999998 -0.21662816
-0.0062874686 -0.0099999998 -0.21694675
-0.0056827767 -0.0099999998 -0.21626455
-0.00480654 -0.0099999998 -0.21658874
-0.0034545728 -0.0099999998 -0.21614337
-0.0016973101 -0.0099999998 -0.21681383
-0.0005383211 -0.0099999998 -0.21655951
0.00058857538 -0.0099999998 -0.21695641
0.0015327729 -0.0099999998 -0.21654642
0.0024700018 -0.0099999998 -0.21682449
0.0034223343 -0.0099999998 -0.21641695
0.0044612149 -0.0099999998 -0.21631074
0.0053943121 -0.0099999998 -0.21662322
0.006521103 -0.0099999998 -0.21684718
0.0074323509 -0.0099999998 -0.21672529
0.0084648561 -0.0099999998 -0.21646957
0.009750763 -0.0096804714 -0.21658993
-0.0099999998 -0.0084927464 -0.21650356
0.0099999998 -0.0082559194 -0.21655706
-0.0099999998 -0.0079988036 -0.2169629
0.0099999998 -0.0074669044 -0.21626216
-0.0099999998 -0.0063824034 -0.21607351
0.0099999998 -0.0063436399 -0.21654755
0.0099999998 -0.0052332939 -0.21651496
-0.0099999998 -0.0047335792 -0.21640077
0.0099999998 -0.0044219252 -0.21638954
-0.0099999998 -0.003546379 -0.21669666
0.0099999998 -0.0034122691 -0.21630929
-0.0099999998 -0.0015272163 -0.21662937
0.0099999998 -0.0014899092 -0.21654852
-0.0099999998 -0.00063130783 -0.21662453
-0.0099999998 0.0007253628 -0.21653368
0.0099999998 0.0004471573 -0.21620095
-0.0099999998 0.0016803613 -0.21692625
