# .PCD v0.7 - Point Cloud Data file format
VERSION 0.7
FIELDS x y z
SIZE 4 4 4
TYPE F F F
COUNT 1 1 1
WIDTH 1229
HEIGHT 1
VIEWPOINT 0 0 0 1 0 0 0
POINTS 1229
DATA ascii
0.00655788 -0.0099999998 -0.11573815
0.0075591933 -0.0099999988 -0.1154668
0.0085551757 -0.0099999998 -0.11534961
0.0095235556 -0.0098522846 -0.1155243
-0.0099999998 -0.0084014153 -0.11538535
0.0099999998 -0.0086079538 -0.1154858
-0.0099999998 -0.0075978786 -0.11561163
0.0099999988 -0.0076580816 -0.11554594
-0.0099999998 -0.0067020925 -0.11566751
0.0099999998 -0.0064031743 -0.11558235
-0.0099999998 -0.0056326799 -0.11549371
0.0099999998 -0.0053333133 -0.11542986
0.0099999998 -0.0045165191 -0.11555364
-0.0099999998 -0.003496771 -0.11576001
0.0099999998 -0.0035025026 -0.11544451
-0.0099999988 -0.0024424675 -0.11550477
0.0099999998 -0.0022762138 -0.11533733
-0.0099999998 -0.0016178512 -0.11548814
0.0099999998 -0.0013445141 -0.11551117
-0.0099999998 -0.00073781394 -0.11563079
0.0099999998 -0.00061804953 -0.11552668
-0.0099999998 0.00058258761 -0.11573561
0.0099999998 0.00029828193 -0.11557286
-0.0099999998 0.0015889142 -0.11540502
0.0099999998 0.001440354 -0.11533856
-0.0099999998 0.0023702024 -0.11521757
0.0099999998 0.0026273297 -0.11566951
-0.0099999998 0.0033629651 -0.115454
0.0099999998 0.0034985505 -0.11557864
-0.0099999998 0.0046163215 -0.11548541
0.0099999998 0.0044355066 -0.11575678
-0.0099999998 0.0059106569 -0.11570679
0.0099999998 0.0051369369 -0.1156318
-0.0099999998 0.0065342812 -0.11509018
0.0099999998 0.0060362201 -0.11553142
-0.0099999998 0.0076205684 -0.11521335
0.0099999998 0.0074098143 -0.11545788
-0.0099999998 0.0083492277 -0.11536483
0.0099999998 0.0083904509 -0.11573926
-0.009793221 0.0096368734 -0.1155246
-0.0083520273 0.0099999998 -0.11547536
-0.0075392639 0.0099999988 -0.11558146
-0.0066513009 0.0099999998 -0.11586277
-0.0053357054 0.0099999998 -0.11588866
-0.0044563832 0.0099999998 -0.11548762
-0.0033662131 0.0099999988 -0.11545318
-0.0024712037 0.0099999998 -0.11529242
-0.0014866575 0.0099999998 -0.11546388
-0.00031225538 0.0099999998 -0.115623
0.00056215248 0.0099999998 -0.11546587
0.0016416586 0.0099999998 -0.11557206
0.0024909552 0.0099999998 -0.11542425
0.0034887579 0.0099999988 -0.11546991
0.0046238685 0.0099999998 -0.11549095
0.0054480787 0.0099999998 -0.11536996
0.0065384503 0.0099999998 -0.11556523
0.0075680218 0.0099999998 -0.11544957
0.0083066812 0.0099999998 -0.11547821
0.009800314 0.0096533149 -0.11552033
-0.00952248 -0.0097721433 -0.11452433
-0.0085811736 -0.0099999988 -0.11441108
-0.0075029 -0.0099999998 -0.11467537
-0.0064482638 -0.0099999988 -0.11432558
-0.0053789988 -0.0099999998 -0.11461806
-0.0047416948 -0.0099999998 -0.11454935
-0.0035759758 -0.0099999998 -0.11449372
-0.002302862 -0.0099999998 -0.11443995
-0.0015066763 -0.0099999998 -0.11460333
-0.00021498754 -0.0099999998 -0.11444172
0.00070285791 -0.0099999998 -0.11428048
0.0015194502 -0.0099999998 -0.11406886
0.002293502 -0.0099999998 -0.11441067
0.0034904962 -0.0099999998 -0.11449467
0.0044411016 -0.0099999998 -0.11458892
0.0055502388 -0.0099999998 -0.11470022
0.0064350753 -0.0099999998 -0.11441161
0.0074071884 -0.0099999998 -0.11442169
0.008402464 -0.0099999998 -0.1146705
0.0096434765 -0.0097622043 -0.11446036
-0.0099999998 -0.0083995517 -0.11450538
0.0099999998 -0.008496155 -0.11462414
-0.0099999998 -0.0072857467 -0.11407628
0.0099999998 -0.0075906971 -0.1146526
-0.0099999998 -0.0065414486 -0.11478522
0.0099999998 -0.0064759911 -0.1140326
-0.0099999998 -0.0054402943 -0.11452161
0.0099999998 -0.0053338604 -0.11458733
-0.0099999998 -0.0044593597 -0.11463782
0.0099999998 -0.0044138106 -0.11440034
-0.0099999998 -0.0037407305 -0.11446712
0.0099999998 -0.0036931597 -0.11422178
-0.0099999998 -0.0025587489 -0.11451169
0.0099999998 -0.002633499 -0.11426182
-0.0099999998 -0.0012078935 -0.11441121
0.0099999998 -0.0014556354 -0.11422689
-0.0099999998 -0.00015485274 -0.11469255
0.0099999988 -0.00040011236 -0.1145473
-0.0099999998 0.00044032704 -0.11468145
0.0099999998 0.00057364453 -0.11477825
-0.0099999998 0.00174784 -0.11442365
0.0099999998 0.0011992704 -0.11483014
-0.0099999998 0.002364513 -0.11461112
0.0099999988 0.0025311003 -0.11466579
-0.0099999998 0.0035679049 -0.11454124
0.0099999998 0.0034150437 -0.11481615
-0.0099999998 0.0044617448 -0.11442777
0.0099999998 0.0043212557 -0.11444271
-0.0099999998 0.0050395005 -0.11456957
0.0099999998 0.0054486054 -0.11443983
-0.0099999998 0.0061563044 -0.11478156
0.0099999998 0.0066289101 -0.11475771
-0.0099999998 0.007650842 -0.11434516
0.0099999998 0.0072972653 -0.11438932
-0.0099999998 0.0086852182 -0.11458727
0.0099999998 0.0086490288 -0.11441889
-0.0098176906 0.0095738657 -0.11456701
-0.008428704 0.0099999988 -0.11453299
-0.0074272403 0.0099999998 -0.1145703
-0.0062103868 0.0099999998 -0.11446147
-0.0055152504 0.0099999998 -0.11414023
-0.0041627968 0.0099999998 -0.11400008
-0.0034734393 0.0099999998 -0.1145497
-0.0023767555 0.0099999998 -0.1146253
-0.0015004635 0.0099999988 -0.11437184
-0.00074368773 0.0099999998 -0.11466134
0.00046679846 0.0099999998 -0.11462607
0.0015258664 0.0099999988 -0.11449852
0.0023164325 0.0099999998 -0.1146107
0.003392044 0.0099999998 -0.11442176
0.0042644739 0.0099999998 -0.11441302
0.0053008748 0.0099999998 -0.1145611
0.0064233034 0.0099999988 -0.11451053
0.0075449958 0.0099999998 -0.11440385
0.0087687252 0.0099999998 -0.11470754
0.0098952763 0.0097260596 -0.11451283
-0.0098790713 -0.0097041791 -0.11355063
-0.0085746758 -0.0099999998 -0.11345907
-0.0076167248 -0.0099999998 -0.1136406
-0.0064528543 -0.0099999998 -0.11358187
-0.005479374 -0.0099999998 -0.11344481
-0.0044773109 -0.0099999998 -0.1132253
-0.0031792633 -0.0099999998 -0.11354077
-0.0025143502 -0.0099999998 -0.11362269
-0.0013631684 -0.0099999998 -0.11342354
-0.00048174965 -0.0099999988 -0.11347188
0.00071592897 -0.0099999998 -0.1136132
0.0013815403 -0.0099999998 -0.11321071
0.0027154617 -0.0099999998 -0.11328753
0.0035680423 -0.0099999998 -0.11351798
0.0045422334 -0.0099999998 -0.11347949
0.0058865803 -0.0099999998 -0.11386443
0.0066856043 -0.0099999998 -0.11341631
0.0075285616 -0.0099999988 -0.11345854
0.0083685406 -0.0099999998 -0.11341521
0.0098499162 -0.0096076382 -0.11352779
-0.0099999988 -0.008416689 -0.11354621
0.0099999998 -0.0085656028 -0.11357606
-0.0099999998 -0.0072495285 -0.11361212
0.0099999988 -0.007626371 -0.11354858
-0.0099999998 -0.0068458309 -0.11360434
0.0099999998 -0.0063398955 -0.11344118
-0.0099999998 -0.0058339117 -0.11309793
0.0099999998 -0.0055399244 -0.11344489
-0.0099999998 -0.0040783589 -0.11381498
0.0099999998 -0.0045102723 -0.11343417
-0.0099999998 -0.0033428641 -0.11343993
0.0099999998 -0.0034166202 -0.11342066
-0.0099999998 -0.0023086341 -0.11362029
0.0099999998 -0.0025838353 -0.11358081
-0.0099999998 -0.0015001416 -0.11336653
0.0099999998 -0.0011673643 -0.11380191
-0.0099999998 -0.0003920013 -0.11343585
0.0099999988 -0.0004059661 -0.11344292
0.0099999998 0.00059366564 -0.11360846
-0.0099999998 0.0015695479 -0.11345592
0.0099999998 0.001514158 -0.11334874
-0.0099999998 0.0023379663 -0.11363386
0.0099999998 0.002465433 -0.11366727
-0.0099999998 0.00329665 -0.11354956
0.0099999998 0.0035935231 -0.11381762
-0.0099999998 0.0041693682 -0.113344
0.0099999988 0.0043643848 -0.11361258
-0.0099999998 0.0055561098 -0.11327367
0.0099999998 0.0057069487 -0.11353847
-0.0099999998 0.0065902467 -0.11367872
0.0099999998 0.006442578 -0.11341143
-0.0099999998 0.0073487097 -0.11359221
0.0099999998 0.0070279669 -0.11399471
-0.0099999998 0.0086787641 -0.11366633
0.0099999988 0.0085725095 -0.11346728
-0.0095630111 0.0097454051 -0.11356842
-0.0086856987 0.0099999998 -0.11336862
-0.0075830962 0.0099999998 -0.11353811
-0.0065420391 0.0099999998 -0.11343814
-0.0055529708 0.0099999988 -0.11369457
-0.004423894 0.0099999998 -0.11356492
-0.0037406534 0.0099999998 -0.11381403
-0.0028474573 0.0099999998 -0.11341278
-0.0014056911 0.0099999998 -0.11355021
-0.00053211278 0.0099999998 -0.11349761
0.00063412939 0.0099999998 -0.11341269
0.0013196252 0.0099999998 -0.11365525
0.0025155644 0.0099999998 -0.11342791
0.0034326098 0.0099999998 -0.11348309
0.0043431921 0.0099999998 -0.11384394
0.0054469667 0.0099999998 -0.11349581
0.0066388804 0.0099999998 -0.1135936
0.0074202418 0.0099999998 -0.11335141
0.0085049709 0.0099999998 -0.11345079
0.0098321531 0.0097306948 -0.11362848
0.0076604215 0.010000001 -0.11316008
-0.009765774 -0.0097565344 -0.11258505
-0.0083664916 -0.0099999998 -0.11231432
-0.007252689 -0.0099999998 -0.11260005
-0.0063215261 -0.0099999998 -0.1125034
-0.0054146345 -0.0099999998 -0.11246762
-0.0045684418 -0.0099999998 -0.11245496
-0.0036223745 -0.0099999998 -0.11244284
-0.0025323231 -0.0099999998 -0.11246141
-0.0012943182 -0.0099999988 -0.11264718
-0.00062170287 -0.0099999998 -0.11243501
0.0007942919 -0.0099999998 -0.11298914
0.0014646249 -0.0099999998 -0.11252987
0.0024568471 -0.0099999998 -0.11232275
0.003914414 -0.0099999998 -0.11250351
0.004515389 -0.0099999988 -0.11250275
0.0055700382 -0.0099999998 -0.11255409
0.0066202236 -0.0099999998 -0.11214356
0.0075714281 -0.0099999998 -0.11278348
0.008487911 -0.0099999988 -0.11240705
0.0096632279 -0.009845119 -0.11236693
-0.0099999998 -0.008450062 -0.11267929
0.0099999998 -0.0086759459 -0.11237602
-0.0099999998 -0.007182817 -0.11229502
0.0099999998 -0.0075152279 -0.11249463
-0.0099999988 -0.0065367874 -0.11250556
0.0099999998 -0.0065805074 -0.11251061
-0.0099999998 -0.0054713697 -0.11238056
0.0099999988 -0.005394978 -0.11248454
-0.0099999988 -0.0045874915 -0.11247879
0.0099999998 -0.0042918823 -0.11291851
-0.0099999998 -0.0034337696 -0.1122814
0.0099999988 -0.0035040043 -0.11250293
-0.0099999998 -0.0027026723 -0.11267268
0.0099999988 -0.002454553 -0.11247203
-0.0099999998 -0.0015639538 -0.11242205
0.0099999998 -0.0014429546 -0.11237564
-0.0099999998 -0.0004697016 -0.11253069
0.0099999998 -0.00043177963 -0.11263377
-0.0099999998 0.00041481174 -0.1125256
0.0099999998 0.00036020105 -0.11235553
-0.0099999998 0.0015098399 -0.11239881
0.0099999998 0.0012468002 -0.11236142
-0.0099999998 0.0025071681 -0.11238068
0.0099999988 0.0023846487 -0.1124576
-0.0099999998 0.0032954509 -0.1124707
0.0099999998 0.0033076468 -0.11244093
-0.0099999998 0.0045030168 -0.11291497
0.0099999998 0.0043951096 -0.11239427
-0.0099999998 0.005471752 -0.112367
0.0099999998 0.0056161871 -0.11298694
-0.0099999998 0.00665069 -0.11245713
0.0099999998 0.0061901463 -0.11296111
-0.0099999998 0.0076320311 -0.11245757
0.0099999998 0.0074243611 -0.11241188
-0.0099999998 0.0087551922 -0.11251517
0.0099999998 0.0085539324 -0.11231019
-0.0099634556 0.0095596695 -0.11247277
-0.0085519766 0.0099999998 -0.11251981
-0.0075636259 0.0099999998 -0.11267111
-0.0064822175 0.0099999998 -0.11252038
-0.0054335999 0.0099999998 -0.11233195
-0.0044360738 0.0099999998 -0.11284477
-0.0035092738 0.0099999998 -0.11221246
-0.0025925688 0.0099999998 -0.11222329
-0.0012561068 0.0099999998 -0.11257704
-0.00072200038 0.0099999998 -0.11249131
0.00039990223 0.0099999998 -0.11229645
0.0011689615 0.0099999998 -0.11265096
0.0023250028 0.0099999998 -0.11233331
0.0034450772 0.0099999998 -0.11258706
0.0045299674 0.0099999998 -0.11271301
0.0051677804 0.0099999998 -0.112775
0.0067387735 0.0099999998 -0.11258111
0.0074101682 0.0099999998 -0.11245637
0.0083565554 0.0099999998 -0.11248197
0.0097366376 0.0098510254 -0.11251324
-0.0097588487 -0.0097631514 -0.11129705
-0.0084830523 -0.0099999998 -0.1111933
-0.0073343827 -0.0099999998 -0.11119822
-0.0057774703 -0.0099999998 -0.11147992
-0.0045152782 -0.0099999998 -0.1115149
-0.0034399822 -0.0099999998 -0.11161099
-0.0023681545 -0.0099999998 -0.11144239
-0.0014616143 -0.0099999998 -0.11163739
0.00022299253 -0.0099999998 -0.11170526
0.0017813321 -0.0099999988 -0.11161456
0.0025239713 -0.0099999998 -0.1115609
0.0035685529 -0.0099999998 -0.11168034
0.0044279094 -0.0099999998 -0.11143123
0.005454049 -0.0099999998 -0.1113513
0.0066557922 -0.0099999998 -0.11135858
0.0078912908 -0.0099999998 -0.11148787
0.0085141025 -0.0099999988 -0.11153916
0.0097344015 -0.0096931579 -0.11148705
-0.0099999998 -0.0084088724 -0.11142339
0.0099999998 -0.0085409414 -0.11136305
-0.0099999998 -0.0075308331 -0.11139348
0.0099999998 -0.0074599856 -0.1116769
-0.0099999998 -0.0063756681 -0.11169463
0.0099999998 -0.0062881457 -0.11148296
-0.0099999998 -0.0055333092 -0.11120082
0.0099999998 -0.0053784777 -0.11151727
-0.0099999998 -0.0044564772 -0.1115405
0.0099999998 -0.0046414747 -0.11142925
-0.0099999998 -0.0035106265 -0.11146743
0.0099999998 -0.0035012392 -0.11133694
-0.0099999998 -0.0024331529 -0.11132006
0.0099999988 -0.0025117572 -0.11140991
-0.0099999998 -0.0013763702 -0.11143012
0.0099999998 -0.0016326385 -0.11161241
-0.0099999998 -0.0002719184 -0.11153127
0.0099999998 -0.0006461048 -0.11131336
-0.0099999998 0.0007626859 -0.11193374
0.0099999988 0.00060259365 -0.11145683
-0.0099999998 0.0013725653 -0.11127585
0.0099999998 0.0013524926 -0.11139989
-0.0099999998 0.0024654686 -0.1115502
0.0099999998 0.0025961227 -0.111652
-0.0099999998 0.0037441573 -0.11187258
0.0099999998 0.003509507 -0.11159676
-0.0099999988 0.004490295 -0.11123931
0.0099999998 0.0044878419 -0.11128502
-0.0099999998 0.0053654592 -0.11156328
0.0099999998 0.0052707791 -0.11156774
-0.0099999998 0.0063718362 -0.11166426
0.0099999988 0.0064280089 -0.11154713
-0.0099999998 0.0074601136 -0.11152489
0.0099999998 0.0075982027 -0.11139083
-0.0099999998 0.0087825637 -0.1114667
0.0099999988 0.0085092112 -0.11139136
-0.0095648291 0.0098971399 -0.11143565
-0.0082764551 0.0099999988 -0.11184138
-0.0075708255 0.0099999998 -0.11158126
-0.0062995832 0.0099999998 -0.1118505
-0.0056029311 0.0099999998 -0.1114146
-0.0048055798 0.0099999998 -0.11136232
-0.0035883419 0.0099999998 -0.11163416
-0.0024139909 0.0099999998 -0.11148114
-0.0014625002 0.0099999998 -0.1112112
-0.0005764392 0.0099999998 -0.11160034
0.00045686393 0.0099999998 -0.11148261
0.0014224508 0.0099999998 -0.11145984
0.0026217019 0.0099999988 -0.11150505
0.0035088656 0.0099999998 -0.11160543
0.0045518028 0.0099999998 -0.11151936
0.0057123862 0.0099999998 -0.11138227
0.0063610878 0.0099999998 -0.11137015
0.0073155775 0.0099999998 -0.11152125
0.0085147657 0.0099999998 -0.11139297
0.009911987 0.0096334117 -0.11154266
0.0099057015 0.010000001 -0.11137244
-0.0097298864 -0.0097766817 -0.11054959
-0.0082424879 -0.0099999998 -0.11052296
-0.0074317101 -0.0099999998 -0.11025639
-0.0067051044 -0.0099999998 -0.11065385
-0.0053843707 -0.0099999998 -0.11079806
-0.0043441611 -0.0099999998 -0.11045608
-0.0033540167 -0.0099999998 -0.11038204
-0.0023728646 -0.0099999998 -0.11050225
-0.0012583553 -0.0099999998 -0.11046886
-0.00011110489 -0.0099999998 -0.11073582
0.00060659344 -0.0099999998 -0.11081927
0.0014546313 -0.0099999998 -0.11094293
0.0024432291 -0.0099999988 -0.11036217
0.003423674 -0.0099999998 -0.11056509
0.0044459035 -0.0099999998 -0.11052489
0.0056095449 -0.0099999998 -0.11052791
0.0066718548 -0.0099999998 -0.11046796
0.0071712425 -0.0099999998 -0.11067577
0.0086616846 -0.0099999998 -0.11086219
0.0094712442 -0.009835382 -0.11055341
-0.0099999998 -0.0083466172 -0.11041281
0.0099999998 -0.0083622318 -0.11017177
-0.0099999998 -0.0077109979 -0.11049089
0.0099999998 -0.007693192 -0.11059421
-0.0099999998 -0.0062981658 -0.11055851
0.0099999998 -0.006407795 -0.11067282
-0.0099999998 -0.0055621397 -0.11041868
0.0099999998 -0.0058105532 -0.11075974
-0.0099999998 -0.0045447778 -0.11029714
0.0099999998 -0.0046447329 -0.11056498
-0.0099999998 -0.0035525109 -0.11041266
0.0099999998 -0.0036197728 -0.11054479
-0.0099999998 -0.0026729074 -0.11057743
0.0099999998 -0.0023413547 -0.11026295
-0.0099999998 -0.0015812251 -0.11048165
0.0099999998 -0.0015850337 -0.11059546
-0.0099999998 -0.00040657812 -0.11073491
0.0099999998 -0.00054277648 -0.11048698
-0.0099999998 0.00076433877 -0.11056989
0.0099999998 0.00039557132 -0.11042824
-0.0099999988 0.0014846019 -0.11065508
0.0099999998 0.0017471827 -0.11055994
-0.0099999998 0.0023278194 -0.11022168
0.0099999998 0.002452933 -0.11023825
-0.0099999998 0.0033249378 -0.11051368
0.0099999998 0.0035632283 -0.11032214
-0.0099999998 0.0045316741 -0.11063009
0.0099999998 0.0045389961 -0.11047719
-0.0099999998 0.0057882657 -0.11013114
0.0099999998 0.0057161064 -0.11050485
-0.0099999998 0.0064932778 -0.11076335
0.0099999998 0.0067399135 -0.11026341
-0.0099999998 0.0074849706 -0.11074153
0.0099999998 0.0073735313 -0.11039606
-0.0099999998 0.0084720207 -0.11050626
0.0099999998 0.0084395017 -0.11058416
-0.0097707082 0.0096116038 -0.11052544
-0.0085005984 0.0099999998 -0.11045228
-0.0077676219 0.0099999998 -0.11057054
-0.0067747785 0.0099999998 -0.11063938
-0.0053905197 0.0099999998 -0.11031684
-0.0047256052 0.0099999998 -0.11042994
-0.0036609208 0.0099999998 -0.1104282
-0.0023873094 0.0099999998 -0.11056732
-0.0014121152 0.0099999998 -0.1105192
-0.00066213741 0.0099999998 -0.11024775
0.00027370013 0.0099999998 -0.11043565
0.0015198521 0.0099999998 -0.11038946
0.0024710873 0.0099999998 -0.11047778
0.003860591 0.0099999998 -0.11034371
0.0047535785 0.0099999998 -0.11037357
0.0055157957 0.0099999998 -0.1103545
0.006290582 0.0099999998 -0.11053943
0.0076673166 0.0099999998 -0.1105835
0.0085557494 0.0099999998 -0.11070599
0.0098008038 0.0099050319 -0.11032371
-0.0096578253 -0.0098685771 -0.10949282
-0.0086264228 -0.0099999998 -0.1096736
-0.0077057206 -0.0099999998 -0.10948912
-0.0064733401 -0.0099999988 -0.10943144
-0.0055225221 -0.0099999988 -0.10969321
-0.0047222609 -0.0099999998 -0.10958897
-0.0035487839 -0.0099999998 -0.10949094
-0.0024095844 -0.0099999998 -0.10936785
-0.00029945106 -0.0099999998 -0.10971927
0.00042832171 -0.0099999998 -0.10946352
0.0024943734 -0.0099999998 -0.10966406
0.0036251741 -0.0099999998 -0.10932648
0.0048931413 -0.0099999998 -0.10903734
0.0054921783 -0.0099999998 -0.10952096
0.0067575364 -0.0099999998 -0.1095699
0.0072836364 -0.0099999998 -0.10951623
0.0082480274 -0.0099999998 -0.1092253
0.0098645808 -0.0096368743 -0.10944816
-0.0099999998 -0.0084235733 -0.10945478
0.0099999998 -0.0086997999 -0.10951042
-0.0099999998 -0.0075196433 -0.10977968
0.0099999998 -0.0075956546 -0.10958898
-0.0099999998 -0.0066996459 -0.10944237
0.0099999998 -0.0063733472 -0.10928397
-0.0099999998 -0.0056651579 -0.10951369
0.0099999998 -0.0058464874 -0.10929727
-0.0099999998 -0.0045999442 -0.10949027
0.0099999998 -0.0043538241 -0.10966198
-0.0099999998 -0.0033556267 -0.10946961
0.0099999998 -0.0036183875 -0.1098271
-0.0099999998 -0.0027822091 -0.10949467
0.0099999998 -0.0026967113 -0.10963645
-0.0099999998 -0.0012297591 -0.10952061
0.0099999998 -0.001486318 -0.10948056
-0.0099999998 -0.00045528999 -0.10946199
0.0099999998 -0.00013998858 -0.10929909
-0.0099999998 0.00045831548 -0.10979217
0.0099999988 0.00060944754 -0.10960633
-0.0099999988 0.0014931404 -0.10952043
0.0099999998 0.0015937638 -0.10962571
-0.0099999998 0.0025624947 -0.10933522
0.0099999998 0.0025581426 -0.1095734
-0.0099999988 0.0036214525 -0.10945476
0.0099999998 0.0033941714 -0.10938454
-0.0099999998 0.0045007588 -0.10941292
0.0099999998 0.004276664 -0.10954492
-0.0099999998 0.0054561831 -0.10935289
0.0099999998 0.0055706119 -0.10989013
-0.0099999998 0.0066232579 -0.10946685
0.0099999998 0.0065870024 -0.10968874
-0.0099999998 0.0075106728 -0.10923082
0.0099999998 0.0075457157 -0.1092305
-0.0099999998 0.0083244387 -0.10955183
0.0099999998 0.0086877784 -0.10937442
-0.0098178182 0.0097035533 -0.10930363
-0.0084647369 0.0099999998 -0.10937513
-0.0075922278 0.0099999988 -0.10954745
-0.0066648037 0.0099999998 -0.10956202
-0.0053157862 0.0099999998 -0.10922825
-0.0046073953 0.0099999998 -0.10919084
-0.0033532234 0.0099999998 -0.10939279
-0.0026836935 0.0099999998 -0.10947688
-0.0014204354 0.0099999998 -0.10953166
-0.00061900821 0.0099999998 -0.10937311
0.00047446208 0.0099999998 -0.10973176
0.001536891 0.0099999998 -0.10926205
0.0025168043 0.0099999998 -0.1096404
0.0035265374 0.0099999998 -0.10962826
0.0043317312 0.0099999998 -0.10959499
0.0054214299 0.0099999998 -0.10952171
0.0075001023 0.0099999998 -0.10959201
0.0081029069 0.0099999998 -0.1099794
0.0097664511 0.0095431264 -0.10948628
-0.0096457144 -0.0098171169 -0.10851968
-0.0085021975 -0.0099999998 -0.10855212
-0.0074940673 -0.0099999998 -0.10825671
-0.0064783255 -0.0099999998 -0.10856904
-0.0054672956 -0.0099999998 -0.10828142
-0.004569036 -0.0099999998 -0.10898603
-0.0034848196 -0.0099999998 -0.1085519
-0.0023146402 -0.0099999998 -0.10848737
-0.0014314582 -0.0099999998 -0.10865653
-0.00048997358 -0.0099999998 -0.10871376
0.00021491123 -0.0099999998 -0.10825944
0.0013293549 -0.0099999998 -0.10865735
0.0022234484 -0.0099999998 -0.10861697
0.0034056781 -0.0099999998 -0.10855715
0.0043070307 -0.0099999998 -0.10877885
0.0053204908 -0.0099999998 -0.10815433
0.0065465495 -0.0099999998 -0.10843124
0.0072114621 -0.0099999998 -0.10851458
0.0097734649 -0.0095278518 -0.10856632
-0.0099999988 -0.0085852696 -0.10856389
0.0099999998 -0.0085834386 -0.10874633
-0.0099999998 -0.0074260435 -0.10843025
0.0099999998 -0.0075393496 -0.10847445
-0.0099999998 -0.0064261565 -0.10848645
0.0099999998 -0.0064884527 -0.10845546
-0.0099999998 -0.0052843224 -0.10837843
0.0099999998 -0.0053533777 -0.10833848
-0.0099999998 -0.0045227665 -0.10834541
0.0099999998 -0.0045866878 -0.10849734
-0.0099999998 -0.003313117 -0.10840814
0.0099999998 -0.0034967395 -0.10828593
-0.0099999998 -0.002751379 -0.10872638
0.0099999998 -0.0025495519 -0.10844432
-0.0099999998 -0.0016996491 -0.10843496
0.0099999998 -0.0015142419 -0.1084941
-0.0099999998 -0.00067821686 -0.10848287
0.0099999998 -0.00048896507 -0.10803272
-0.0099999998 0.00061088486 -0.10811169
0.0099999998 0.0006526747 -0.10841197
-0.0099999998 0.0015220298 -0.10861405
0.0099999998 0.0013533658 -0.10844082
-0.0099999998 0.0025699581 -0.10853019
0.0099999998 0.0025929192 -0.10816552
-0.0099999998 0.0038490938 -0.10860745
0.0099999998 0.0035034993 -0.10877421
-0.0099999998 0.0044632661 -0.10848849
0.0099999998 0.004711871 -0.10846211
-0.0099999998 0.0055590416 -0.108542
0.0099999998 0.0053782258 -0.10863032
-0.0099999988 0.0065701189 -0.10849299
0.0099999998 0.0066821887 -0.1085878
-0.0099999998 0.007495509 -0.10849511
0.0099999998 0.007543561 -0.10852855
-0.0099999998 0.0083625419 -0.10838195
0.0099999998 0.0084618675 -0.10860707
-0.0097405268 0.0097227534 -0.10841508
-0.0083312141 0.0099999998 -0.10846117
-0.0074605709 0.0099999998 -0.10857465
-0.0064503797 0.0099999998 -0.10848097
-0.0053013731 0.0099999998 -0.10849316
-0.0042518042 0.0099999998 -0.10844627
-0.003610051 0.0099999998 -0.10836358
-0.0025906977 0.0099999988 -0.10827795
-0.0015606892 0.0099999998 -0.10812644
-0.00036528203 0.0099999998 -0.10832172
0.00050444092 0.0099999998 -0.10891145
0.0015058605 0.0099999998 -0.10859828
0.0034395347 0.0099999998 -0.1085369
0.0045322273 0.0099999998 -0.1083102
0.0055881953 0.0099999998 -0.10820612
0.0063994937 0.0099999998 -0.10850887
0.0079583228 0.0099999998 -0.10866591
0.0081915753 0.0099999998 -0.10872273
0.0097745666 0.0098832613 -0.108538
-0.0097425012 -0.0098900823 -0.10748889
-0.0083682509 -0.0099999998 -0.10723522
-0.0072988309 -0.0099999998 -0.10773264
-0.0061644833 -0.0099999998 -0.1073947
-0.0052984427 -0.0099999998 -0.10753874
-0.0046094013 -0.0099999998 -0.10741242
-0.003298261 -0.0099999998 -0.1074871
-0.0027084928 -0.0099999998 -0.10769282
-0.0016011762 -0.0099999998 -0.10742846
-0.00038347504 -0.0099999998 -0.10738607
0.0003508559 -0.0099999998 -0.10752382
0.0014851688 -0.0099999998 -0.10750308
0.0023191585 -0.0099999998 -0.10759193
0.0032789959 -0.0099999998 -0.1073978
0.0044867303 -0.0099999998 -0.10761257
0.0059275497 -0.0099999998 -0.1075325
0.0063850218 -0.0099999998 -0.10725817
0.0077141984 -0.0099999998 -0.10742676
0.0086552314 -0.0099999998 -0.1070837
0.0097250445 -0.0096402979 -0.10752918
-0.0099999998 -0.0084866658 -0.10743192
0.0099999998 -0.0084265685 -0.10755106
-0.0099999998 -0.0075087561 -0.107246
0.0099999998 -0.007700399 -0.10731775
-0.0099999998 -0.0064264275 -0.10760985
0.0099999998 -0.0066325851 -0.10759778
-0.0099999998 -0.0055307364 -0.10751654
0.0099999998 -0.0054672249 -0.10729846
-0.0099999998 -0.0045030043 -0.10738453
0.0099999998 -0.0043746326 -0.10741024
-0.0099999998 -0.0034686194 -0.10755433
0.0099999998 -0.0035446112 -0.10751655
-0.0099999998 -0.0024439858 -0.10731985
0.0099999998 -0.0025705267 -0.10712694
-0.0099999998 -0.0015462637 -0.10760343
0.0099999998 -0.0014991898 -0.1073243
-0.0099999998 -0.00054116512 -0.10706995
0.0099999998 -0.00034044209 -0.10731311
-0.0099999998 0.00026702115 -0.10748389
0.0099999998 0.00080834946 -0.10761064
-0.0099999998 0.0017854654 -0.10772641
0.0099999998 0.0017948661 -0.10756867
-0.0099999998 0.0025909804 -0.1075941
0.0099999998 0.0025195922 -0.10755186
-0.0099999998 0.0032785139 -0.10724243
0.0099999998 0.0034688483 -0.10752454
-0.0099999998 0.0044714077 -0.10747565
0.0099999998 0.0044218348 -0.10763817
-0.0099999998 0.0052529033 -0.10742828
0.0099999998 0.0056056795 -0.10737595
-0.0099999998 0.0064652711 -0.10750745
0.0099999998 0.0064302715 -0.10739581
-0.0099999998 0.0078836679 -0.10753041
0.0099999998 0.007573396 -0.10760117
-0.0099999998 0.0085420981 -0.10751059
0.0099999998 0.0084407106 -0.10746782
-0.009897111 0.0098294197 -0.10735238
-0.0086716274 0.0099999998 -0.107501
-0.0075506843 0.0099999998 -0.10763433
-0.006436782 0.0099999998 -0.1074312
-0.005571478 0.0099999998 -0.10786022
-0.0044924021 0.0099999998 -0.10713132
-0.0035356805 0.0099999998 -0.10745722
-0.0023868689 0.0099999998 -0.10711643
-0.0014724724 0.0099999988 -0.10760608
-0.00063703698 0.0099999998 -0.10725643
0.00050772808 0.0099999988 -0.10731632
0.0016103613 0.0099999988 -0.10751849
0.0025073676 0.0099999998 -0.1076782
0.0036820006 0.0099999998 -0.10731848
0.0055051716 0.0099999998 -0.10744106
0.0066174259 0.0099999998 -0.10763421
0.0074676392 0.0099999998 -0.10759798
0.0084833764 0.0099999998 -0.10725443
0.0096696867 0.0097484309 -0.10739999
-0.0098432852 -0.0096499994 -0.10646507
-0.0085141584 -0.0099999998 -0.10638639
-0.0076183663 -0.0099999998 -0.10650329
-0.0062429211 -0.0099999998 -0.10655426
-0.0055540963 -0.0099999998 -0.10648616
-0.0043743956 -0.0099999998 -0.10620566
-0.0033777633 -0.0099999998 -0.10626657
-0.0023690201 -0.0099999998 -0.10673471
-0.0012708807 -0.0099999998 -0.10632154
-0.00062089722 -0.0099999998 -0.10664728
0.00014298377 -0.0099999998 -0.1068875
0.0013582859 -0.0099999998 -0.10648813
0.0026166958 -0.0099999998 -0.10658107
0.003820485 -0.0099999998 -0.10660897
0.0043698503 -0.0099999998 -0.10676657
0.0052027251 -0.0099999998 -0.10622163
0.0068375682 -0.0099999998 -0.10654359
0.007538124 -0.0099999998 -0.10663325
0.0085914759 -0.0099999998 -0.1064493
0.0097082751 -0.0098444624 -0.10672903
-0.0099999998 -0.0087171448 -0.10637666
0.0099999998 -0.0084941396 -0.10641151
-0.0099999998 -0.0073864702 -0.10654074
0.0099999998 -0.0072727855 -0.10640658
-0.0099999998 -0.0061886571 -0.10637093
0.0099999998 -0.0065954281 -0.10642387
-0.0099999988 -0.0056464789 -0.10651986
0.0099999998 -0.0053249435 -0.10651097
-0.0099999998 -0.0045334473 -0.10663393
0.0099999998 -0.0045411731 -0.10670159
-0.0099999998 -0.0032759388 -0.10669544
0.0099999998 -0.0034083989 -0.10659754
-0.0099999998 -0.0026553229 -0.1067188
0.0099999998 -0.0024065573 -0.10647465
-0.0099999998 -0.001542018 -0.10655306
0.0099999998 -0.0013227736 -0.10655993
-0.0099999998 -0.00046772428 -0.10676919
0.0099999998 -0.00031856852 -0.10637718
-0.0099999998 0.00042932588 -0.10631271
0.0099999998 0.0008365346 -0.10660286
-0.0099999998 0.0017747231 -0.10658021
0.0099999998 0.0013930001 -0.10631987
-0.0099999998 0.0026241927 -0.10641193
0.0099999998 0.0025283266 -0.10637096
-0.0099999998 0.0035446812 -0.106458
0.0099999998 0.0033634901 -0.10616512
-0.0099999998 0.0044663586 -0.1064634
0.0099999998 0.0043220446 -0.10650965
-0.0099999998 0.005632936 -0.10646816
0.0099999998 0.0052062664 -0.1064912
-0.0099999988 0.0064904746 -0.10652985
0.0099999998 0.0065424326 -0.10651591
-0.0099999998 0.0077209212 -0.10654049
0.0099999998 0.0075108293 -0.10649469
-0.0099999998 0.0083771897 -0.10664453
0.0099999998 0.008688597 -0.10632207
-0.0098104123 0.009742531 -0.10647096
-0.0085785836 0.0099999998 -0.10665001
-0.0076618548 0.0099999998 -0.10643514
-0.0065026679 0.0099999988 -0.10654844
-0.0056590685 0.0099999998 -0.10651862
-0.0044714916 0.0099999998 -0.10639987
-0.0034794146 0.0099999998 -0.10634528
-0.0024792941 0.0099999998 -0.10640582
-0.0011601493 0.0099999998 -0.10659892
-0.0004873396 0.0099999998 -0.10648286
0.00045684824 0.0099999998 -0.10607333
0.0013495624 0.0099999998 -0.10641803
0.002401185 0.0099999998 -0.10635084
0.0035005882 0.0099999998 -0.10668914
0.004417866 0.0099999998 -0.10651509
0.0054959655 0.0099999998 -0.10654052
0.0062688501 0.0099999998 -0.10646445
0.0075046616 0.0099999998 -0.10641728
0.0086117405 0.0099999998 -0.10656972
0.0098249381 0.009867317 -0.106587
-0.009717566 -0.0098296497 -0.10548184
-0.008281108 -0.0099999998 -0.10567808
-0.0073771086 -0.0099999998 -0.10540283
-0.0064262813 -0.0099999998 -0.10556339
-0.0055890805 -0.0099999998 -0.1052339
-0.0045856903 -0.0099999998 -0.10556719
-0.0032916451 -0.0099999998 -0.10557248
-0.00262843 -0.0099999998 -0.10533767
-0.0012020376 -0.0099999998 -0.10572407
-0.00052625086 -0.0099999988 -0.10558321
0.00094778708 -0.0099999998 -0.10592516
0.0019890857 -0.0099999998 -0.10518341
0.0025262751 -0.0099999998 -0.1056367
0.0035634723 -0.0099999998 -0.10549366
0.004319068 -0.0099999998 -0.10550667
0.0053788237 -0.0099999998 -0.10548607
0.0076057995 -0.0099999988 -0.10561685
0.0083872564 -0.0099999998 -0.10546233
0.0097117182 -0.0097105969 -0.10560058
-0.0099999998 -0.0086106444 -0.10559876
0.0099999998 -0.0086179888 -0.10542229
-0.0099999998 -0.0076020318 -0.10542144
0.0099999998 -0.0073043555 -0.10545839
-0.0099999998 -0.0065150443 -0.10545792
0.0099999998 -0.0065443446 -0.10573363
-0.0099999998 -0.0057362784 -0.1054819
0.0099999998 -0.0051775705 -0.10519228
-0.0099999998 -0.0046260059 -0.10555439
0.0099999998 -0.0043041203 -0.10537257
-0.0099999998 -0.0034346343 -0.10558337
0.0099999998 -0.0034805471 -0.10544647
-0.0099999998 -0.00261469 -0.10546105
0.0099999998 -0.002794143 -0.10545973
-0.0099999998 -0.0013593445 -0.10565683
0.0099999998 -0.0015635195 -0.10552188
-0.0099999998 -0.00063396851 -0.10573323
0.0099999988 -0.00062392023 -0.10552416
-0.0099999998 0.00054423488 -0.1051815
0.0099999998 0.00054938172 -0.1055836
-0.0099999998 0.0014640994 -0.10558904
0.0099999988 0.0014874437 -0.10553805
-0.0099999998 0.0025378843 -0.10555606
0.0099999988 0.0024374984 -0.10556697
-0.0099999998 0.0034963237 -0.10539227
-0.0099999998 0.0045432383 -0.10562113
0.0099999998 0.0046046013 -0.10533217
-0.0099999998 0.0054796156 -0.10545624
0.0099999998 0.0055002319 -0.10555735
-0.0099999998 0.0066196648 -0.10561323
0.0099999998 0.0065174475 -0.1056004
-0.0099999998 0.0077265473 -0.10542858
0.0099999998 0.0074467333 -0.10560956
-0.0099999998 0.0084489752 -0.10556646
0.0099999998 0.008273568 -0.10549404
-0.0098091224 0.009691285 -0.10547933
-0.0086077973 0.0099999998 -0.10568795
-0.0073122787 0.0099999998 -0.10553612
-0.0065785972 0.0099999998 -0.10533076
-0.0055160774 0.0099999998 -0.10558026
-0.0043664295 0.0099999998 -0.10557475
-0.0033829 0.0099999998 -0.10557806
-0.002407874 0.0099999998 -0.10556211
-0.0014793634 0.0099999998 -0.10546453
-0.00056502194 0.0099999998 -0.10581619
0.00043491909 0.0099999998 -0.10558021
0.0015367155 0.0099999998 -0.10554348
0.0023593202 0.0099999998 -0.10540508
0.0034296988 0.0099999998 -0.10545646
0.0045518307 0.0099999998 -0.10552174
0.0058093816 0.0099999998 -0.10536033
0.0065194732 0.0099999998 -0.10557772
0.007401906 0.0099999998 -0.10541981
0.0086339237 0.0099999988 -0.10547382
0.0099157477 0.0097312834 -0.10550565
-0.0096255802 -0.0099432804 -0.10444036
-0.0084758159 -0.0099999998 -0.10445702
-0.0076686903 -0.0099999988 -0.10444923
-0.0063377591 -0.0099999998 -0.10420583
-0.0056383181 -0.0099999998 -0.10446119
-0.0044688666 -0.0099999998 -0.10434859
-0.0035889768 -0.0099999998 -0.10443063
-0.0027822019 -0.0099999998 -0.10451333
-0.0015092446 -0.0099999998 -0.1043881
-0.0004165901 -0.0099999998 -0.10452683
0.00066362391 -0.0099999998 -0.10473087
0.001449527 -0.0099999998 -0.10451161
0.0024948982 -0.0099999998 -0.10440131
0.0035417813 -0.0099999998 -0.10473375
0.0045603821 -0.0099999998 -0.10436253
0.0055087414 -0.0099999998 -0.10446171
0.0067361994 -0.0099999998 -0.10447268
0.0074559962 -0.0099999988 -0.10443258
0.0084133437 -0.0099999998 -0.10458558
0.0098066526 -0.0097285332 -0.10451957
-0.0099999998 -0.0083990097 -0.1047801
0.0099999998 -0.0085532079 -0.10442621
-0.0099999988 -0.0075395778 -0.10462106
0.0099999988 -0.0073319483 -0.10444727
-0.0099999998 -0.0062948931 -0.10478392
0.0099999998 -0.0065691168 -0.10465483
-0.0099999998 -0.0057651913 -0.10472144
0.0099999998 -0.0055772178 -0.10456918
-0.0099999998 -0.0046811136 -0.10447031
0.0099999998 -0.0040849494 -0.104219
-0.0099999998 -0.0034576354 -0.10443546
0.0099999998 -0.0035663857 -0.10453819
-0.0099999998 -0.0023850901 -0.10460605
0.0099999988 -0.0023916434 -0.1045085
-0.0099999998 -0.0016603525 -0.10441846
0.0099999998 -0.0015916164 -0.10457986
-0.0099999998 -0.00040468114 -0.10441059
0.0099999998 -0.00040209442 -0.10465494
-0.0099999998 0.00042733553 -0.10446294
0.0099999998 0.00073493086 -0.1045123
-0.0099999998 0.001223451 -0.10459416
0.0099999998 0.0017661566 -0.10463744
-0.0099999998 0.0025041378 -0.10452454
0.0099999998 0.0023103508 -0.10434484
-0.0099999998 0.003533646 -0.10455294
0.0099999998 0.003571986 -0.10462385
-0.0099999998 0.0042867167 -0.10460379
0.0099999998 0.0045337528 -0.10452867
-0.0099999998 0.0055010384 -0.10465007
0.0099999998 0.0054010279 -0.10471553
-0.0099999998 0.0064323037 -0.10441874
0.0099999998 0.0064004487 -0.10437223
-0.0099999998 0.0076979334 -0.10476132
0.0099999998 0.0078746891 -0.10488065
-0.0099999998 0.0087789046 -0.10438125
0.0099999998 0.0086453194 -0.10444459
-0.0099557359 0.009642927 -0.10451753
-0.0084971292 0.0099999998 -0.10457911
-0.0074244081 0.0099999998 -0.10461109
-0.0065054498 0.0099999998 -0.10438621
-0.005533637 0.0099999998 -0.10438286
-0.004456413 0.0099999988 -0.10449743
-0.0035438684 0.0099999998 -0.10457411
-0.0024793376 0.0099999988 -0.10457701
-0.0017865112 0.0099999998 -0.1042835
-0.00053706433 0.0099999988 -0.10459232
0.00045993272 0.0099999998 -0.10448615
0.0017690546 0.0099999998 -0.10423877
0.0024319065 0.0099999998 -0.10432439
0.0036278591 0.0099999998 -0.10456549
0.0045262929 0.0099999998 -0.10447718
0.0054308595 0.0099999998 -0.10458978
0.0064807842 0.0099999998 -0.1047556
0.0072446205 0.0099999998 -0.10471169
0.0082967021 0.0099999998 -0.10452352
0.0096762469 0.0098402873 -0.10440671
-0.0075525744 0.010000001 -0.10429397
-0.0098774359 -0.0096946843 -0.10351019
-0.0083303144 -0.0099999998 -0.10329266
-0.0073600784 -0.0099999998 -0.10365818
-0.0065018586 -0.0099999998 -0.10376631
-0.0055444054 -0.0099999998 -0.103345
-0.0045397161 -0.0099999988 -0.10361119
-0.0038593137 -0.0099999998 -0.10361516
-0.0024483376 -0.0099999998 -0.10359353
-0.00036777215 -0.0099999998 -0.10350746
0.00065100199 -0.0099999988 -0.10353126
0.0014439932 -0.0099999998 -0.10369474
0.0022667968 -0.0099999998 -0.10360625
0.0034402977 -0.0099999998 -0.1035204
0.004547976 -0.0099999998 -0.10364279
0.005459805 -0.0099999998 -0.10356529
0.0065224906 -0.0099999998 -0.10346689
0.0075090318 -0.0099999998 -0.10338079
0.0084989611 -0.0099999998 -0.10349816
0.0098239658 -0.0096962182 -0.10356037
-0.0099999998 -0.0086915242 -0.10359056
0.0099999988 -0.0085818702 -0.10354032
-0.0099999998 -0.0070176106 -0.10367709
0.0099999998 -0.0075301379 -0.10342129
-0.0099999998 -0.0063610012 -0.10350978
0.0099999998 -0.006402941 -0.10349181
-0.0099999998 -0.0055824905 -0.10346648
0.0099999998 -0.0055164094 -0.10338141
-0.0099999998 -0.0043741064 -0.10312277
0.0099999998 -0.0045180763 -0.10344697
-0.0099999998 -0.003519699 -0.10358047
0.0099999998 -0.003360488 -0.10331278
-0.0099999998 -0.0022863082 -0.10352283
0.0099999998 -0.0025689136 -0.10352122
-0.0099999998 -0.0017582227 -0.10338886
0.0099999998 -0.0015804006 -0.1031545
-0.0099999998 -0.00041169731 -0.10359425
0.0099999998 -0.00031810926 -0.10350674
-0.0099999998 0.00087060651 -0.10322887
0.0099999998 0.00058713258 -0.1035402
-0.0099999998 0.0013589317 -0.10368191
0.0099999998 0.0015058493 -0.10368528
-0.0099999998 0.0024848764 -0.10338895
0.0099999998 0.002391316 -0.10373277
-0.0099999998 0.0035229181 -0.10353965
0.0099999998 0.0036270821 -0.10375555
-0.0099999998 0.0045988662 -0.10367996
0.0099999998 0.0045709927 -0.10345133
-0.0099999988 0.0054742885 -0.10352126
0.0099999998 0.0057178726 -0.1034719
-0.0099999998 0.0062762229 -0.10332805
0.0099999998 0.0066726501 -0.10338235
-0.0099999998 0.0073883235 -0.10341326
0.0099999998 0.0072436593 -0.10358007
-0.0099999998 0.0083859451 -0.10330048
0.0099999998 0.0086409599 -0.10363841
-0.0097347153 0.009680164 -0.10357813
-0.0085416622 0.0099999998 -0.1032825
-0.0073340032 0.0099999998 -0.10356902
-0.0065767835 0.0099999998 -0.10343777
-0.0055240123 0.0099999998 -0.10360353
-0.0043157148 0.0099999998 -0.10346871
-0.0034318571 0.0099999998 -0.10373563
-0.0027265521 0.0099999998 -0.10368312
-0.0015225497 0.0099999998 -0.1036767
-0.00042231428 0.0099999998 -0.10332899
0.00042213986 0.0099999988 -0.10334168
0.001438377 0.0099999998 -0.10342494
0.0025297492 0.0099999998 -0.10360865
0.0033640121 0.0099999998 -0.10351827
0.0048911483 0.0099999998 -0.10393053
0.005268083 0.0099999998 -0.10316777
0.0065604751 0.0099999998 -0.10351859
0.0074663004 0.0099999998 -0.10350008
0.0083388537 0.0099999998 -0.10341168
0.009888852 0.0096376361 -0.10335714
-0.0097560976 -0.0097138016 -0.10233557
-0.0085355472 -0.0099999998 -0.1026938
-0.0077837165 -0.0099999998 -0.1028372
-0.0063905171 -0.0099999998 -0.10262848
-0.0056383973 -0.0099999988 -0.10266265
-0.0048748585 -0.0099999998 -0.10283452
-0.0034922115 -0.0099999998 -0.1024509
-0.0025629555 -0.0099999998 -0.10218841
-0.0016833174 -0.0099999998 -0.10238583
-0.00053619838 -0.0099999998 -0.10242638
0.00058857596 -0.0099999998 -0.10252278
0.0016209121 -0.0099999988 -0.10244915
0.0027161972 -0.0099999998 -0.10231787
0.0035044956 -0.0099999998 -0.10244194
0.0045749466 -0.0099999998 -0.10240861
0.0056855408 -0.0099999998 -0.10256552
0.0065012015 -0.0099999998 -0.10246532
0.007389924 -0.0099999988 -0.10250943
0.0084684351 -0.0099999988 -0.10266636
0.0096118841 -0.0098563414 -0.10242764
-0.0099999998 -0.0084817437 -0.10243175
0.0099999998 -0.0084489072 -0.10245185
-0.0099999998 -0.007494004 -0.10252932
0.0099999998 -0.0073541026 -0.10254052
-0.0099999998 -0.0064916685 -0.10231546
0.0099999998 -0.0065010381 -0.10246536
-0.0099999998 -0.0055082194 -0.10232556
0.0099999998 -0.0054799793 -0.10252953
-0.0099999998 -0.0044216271 -0.10239926
0.0099999988 -0.0045484044 -0.1024469
-0.0099999998 -0.0035617014 -0.10247111
0.0099999998 -0.0035876851 -0.10247592
-0.0099999998 -0.0023356224 -0.102887
0.0099999998 -0.0025899583 -0.10230812
-0.0099999998 -0.0015724268 -0.10256828
0.0099999998 -0.0012489032 -0.10275528
-0.0099999998 -0.00014650072 -0.10257818
0.0099999998 -0.00076174439 -0.10263699
-0.0099999998 0.00053555483 -0.10259836
0.0099999998 0.00063972949 -0.10255798
-0.0099999998 0.0015022994 -0.10254675
0.0099999998 0.0014118491 -0.10242753
-0.0099999998 0.0024829782 -0.10245682
0.0099999998 0.0027915556 -0.10229251
-0.0099999998 0.0033584989 -0.10239646
0.0099999998 0.0034379833 -0.10259984
-0.0099999998 0.0041430714 -0.10234979
0.0099999998 0.0043332563 -0.10279052
-0.0099999998 0.0055241538 -0.10239726
0.0099999998 0.0055848598 -0.10232686
-0.0099999998 0.0067778714 -0.10245549
0.0099999998 0.0066481871 -0.10243593
-0.0099999998 0.0073047644 -0.1023479
0.0099999998 0.0074064368 -0.10242815
-0.0099999998 0.0084456168 -0.10244146
0.0099999998 0.0084216185 -0.10237347
-0.0096742818 0.0097407568 -0.10253953
-0.0086142272 0.0099999998 -0.10239651
-0.0074872738 0.0099999998 -0.10243043
-0.0065149828 0.0099999998 -0.10268817
-0.0055521689 0.0099999998 -0.10278758
-0.0043135779 0.0099999998 -0.10210322
-0.0036277161 0.0099999998 -0.10260867
-0.0024474366 0.0099999998 -0.10236172
-0.001356323 0.0099999998 -0.10261779
-0.0005064616 0.0099999998 -0.1024859
0.00056162896 0.0099999988 -0.10222743
0.0012716253 0.0099999998 -0.10229757
0.0025334822 0.0099999998 -0.10252961
0.0033462723 0.0099999998 -0.10263759
0.0044582868 0.0099999998 -0.10256662
0.0057775257 0.0099999998 -0.10277992
0.0065323911 0.0099999998 -0.10219871
0.0075320788 0.0099999998 -0.10262593
0.0086836349 0.0099999998 -0.10270625
0.0098010926 0.0097142039 -0.10246974
-0.0098763807 -0.0095743872 -0.10138984
-0.0086594857 -0.0099999998 -0.10133658
-0.0075381612 -0.0099999998 -0.1014525
-0.006693989 -0.0099999998 -0.10173677
-0.0054850499 -0.0099999998 -0.10135236
-0.0047110878 -0.0099999998 -0.10154457
-0.0034591712 -0.0099999998 -0.10132624
-0.0014344103 -0.0099999998 -0.10134427
-0.00050141721 -0.0099999998 -0.10156497
0.00010380751 -0.0099999998 -0.10153116
0.0014846098 -0.0099999998 -0.1015489
0.002496362 -0.0099999998 -0.10155036
0.0034455431 -0.0099999998 -0.10143631
0.0044804104 -0.0099999998 -0.10160978
0.0054798992 -0.0099999998 -0.10142134
0.0065873275 -0.0099999998 -0.10149588
0.0074455375 -0.0099999998 -0.10118951
0.0097079407 -0.0098048309 -0.10146489
-0.0099999998 -0.0086057289 -0.10161396
0.0099999988 -0.0083527602 -0.10153097
-0.010000001 -0.0071763424 -0.10142573
0.0099999998 -0.0075303353 -0.10117875
-0.0099999998 -0.0066082398 -0.10155882
0.0099999998 -0.0064928457 -0.1015324
-0.0099999988 -0.0055450886 -0.10144765
0.0099999998 -0.0055108303 -0.10134372
-0.0099999998 -0.0044317576 -0.10175738
0.0099999998 -0.0044046408 -0.10144986
-0.0099999998 -0.0035273589 -0.10145118
0.0099999998 -0.0034388991 -0.10150594
-0.0099999998 -0.0025002847 -0.10136333
0.0099999998 -0.0026229599 -0.10153186
-0.0099999998 -0.0014571846 -0.1014288
0.0099999998 -0.0015588559 -0.10153995
-0.0099999998 -0.0005216453 -0.10147304
0.0099999998 -0.00077846058 -0.1012141
-0.0099999998 0.00032861216 -0.10134023
0.0099999998 0.00068141299 -0.10166144
-0.0099999998 0.0013746831 -0.10144548
0.0099999998 0.0011573569 -0.10134535
-0.0099999998 0.0024615652 -0.10147443
0.0099999988 0.0024172915 -0.10159038
-0.0099999998 0.0035650868 -0.10137913
0.0099999998 0.0035409643 -0.10145502
-0.0099999998 0.0041491808 -0.1016506
0.0099999998 0.004511795 -0.10130073
-0.0099999998 0.005409684 -0.10133655
0.0099999998 0.0056581916 -0.10185058
-0.0099999988 0.0063192449 -0.10129014
-0.0099999998 0.0076266169 -0.10140158
0.0099999998 0.0074616694 -0.1016653
-0.0099999988 0.0084215589 -0.10133706
0.0099999998 0.0087011224 -0.10160187
-0.0095744729 0.0096785566 -0.10156471
-0.0085165845 0.0099999988 -0.10140134
-0.007729358 0.0099999998 -0.10106506
-0.0069281459 0.0099999998 -0.10124493
-0.0055210134 0.0099999998 -0.10191874
-0.004151762 0.0099999998 -0.10116951
-0.003568646 0.0099999998 -0.1016333
-0.0025787016 0.0099999998 -0.10152761
-0.0012560003 0.0099999998 -0.10153547
-0.00030314262 0.0099999998 -0.10151558
0.00034783676 0.0099999998 -0.10163394
0.0014674817 0.0099999998 -0.10144671
0.0024868599 0.0099999998 -0.10155537
0.0033622552 0.0099999998 -0.10146302
0.0046067345 0.0099999998 -0.10143717
0.0054998845 0.0099999998 -0.10157092
0.0065576294 0.0099999998 -0.10161644
0.0076890737 0.0099999998 -0.1015562
0.0080454666 0.0099999998 -0.1018502
0.0099120485 0.0095418636 -0.10148377
-0.0097178416 -0.0098979622 -0.10041049
-0.0087058991 -0.0099999998 -0.10038608
-0.0075681536 -0.0099999998 -0.10037509
-0.0066051274 -0.0099999998 -0.10070749
-0.0054926178 -0.0099999998 -0.10050376
-0.0041449429 -0.0099999998 -0.10043899
-0.0035015766 -0.0099999998 -0.10055058
-0.0026193121 -0.0099999998 -0.10053374
-0.001523422 -0.0099999988 -0.10050676
-0.0005443549 -0.0099999998 -0.10065307
0.00051524793 -0.0099999998 -0.10050505
0.0014852807 -0.0099999998 -0.10042523
0.0023746982 -0.0099999998 -0.10053273
0.003520452 -0.0099999998 -0.10043921
0.0042701508 -0.0099999998 -0.10069525
0.0055704289 -0.0099999998 -0.10050611
0.0062846467 -0.0099999998 -0.10048647
0.0075450637 -0.0099999998 -0.10048407
0.0083791828 -0.0099999998 -0.10050394
0.0097136414 -0.0099019408 -0.10045085
-0.0099999998 -0.0086538857 -0.10045246
0.0099999998 -0.0084862523 -0.10017496
-0.0099999998 -0.0072671426 -0.1007781
0.0099999998 -0.0074405209 -0.10039745
-0.0099999998 -0.0063885991 -0.10052952
0.0099999998 -0.0065477174 -0.10047718
-0.0099999998 -0.0052717347 -0.10045531
0.0099999998 -0.0056862272 -0.10063167
-0.0099999998 -0.0043750321 -0.10084999
0.0099999998 -0.0043736468 -0.10036104
-0.0099999998 -0.0035182443 -0.10044146
0.0099999998 -0.0036219533 -0.10047639
-0.0099999998 -0.0023713517 -0.1004518
0.0099999998 -0.0026507429 -0.10046466
-0.0099999998 -0.001622232 -0.10055946
0.0099999998 -0.0014670335 -0.10036427
-0.0099999998 -0.00026822111 -0.10050359
0.0099999998 -0.00019626078 -0.10041197
-0.0099999998 0.00058615074 -0.10053749
0.0099999998 0.0005262575 -0.10061301
-0.0099999998 0.0015995663 -0.10051361
0.0099999998 0.0017406093 -0.10061009
-0.0099999998 0.0025299413 -0.10058558
0.0099999998 0.0026052701 -0.10084401
-0.0099999998 0.0031112744 -0.10069039
0.0099999998 0.0036126436 -0.10065778
-0.0099999988 0.0043072454 -0.1004298
0.0099999998 0.0045033591 -0.10047098
0.0099999988 0.0054710745 -0.10035719
-0.0099999998 0.006648432 -0.10064415
0.0099999998 0.0063227192 -0.10017425
-0.0099999998 0.0076079289 -0.1005462
0.0099999998 0.0070605753 -0.10002431
-0.0099999998 0.0085427593 -0.10034116
0.0099999998 0.0086397175 -0.10058478
-0.0097741382 0.0097391065 -0.1003321
-0.008473359 0.0099999998 -0.10033269
-0.0077573718 0.0099999998 -0.10030977
-0.0063922917 0.0099999998 -0.10076057
-0.005419984 0.0099999998 -0.10041827
-0.0043365755 0.0099999998 -0.10050195
-0.0035931801 0.0099999998 -0.10074513
-0.0027154491 0.0099999998 -0.10062276
-0.0016400013 0.0099999988 -0.1004469
-0.00069172197 0.0099999998 -0.10060611
0.00048545384 0.0099999998 -0.10065015
0.0012284146 0.0099999998 -0.10066076
0.0022907425 0.0099999998 -0.10051884
0.0034457825 0.0099999998 -0.10057479
0.004311888 0.0099999998 -0.10050394
0.0054619978 0.0099999998 -0.10060875
0.0065590735 0.0099999998 -0.10029655
0.0073869959 0.0099999998 -0.10048234
0.0086966995 0.0099999998 -0.10094099
0.0095835542 0.0097909421 -0.10046038
-0.0084582064 0.010000001 -0.10093918
-0.0095617054 -0.0099999998 -0.099436738
-0.0083640199 -0.0099999998 -0.099408537
-0.0075815194 -0.0099999998 -0.099531546
-0.0066626268 -0.0099999998 -0.099457115
-0.0056277383 -0.0099999998 -0.099647425
-0.0042052949 -0.0099999998 -0.099433839
-0.0035540233 -0.0099999998 -0.099685855
-0.0026066315 -0.0099999998 -0.099224858
-0.0014457515 -0.0099999998 -0.09975493
-0.00081107661 -0.0099999998 -0.099149108
0.00062269147 -0.0099999998 -0.099289209
0.0015656439 -0.0099999998 -0.099385589
0.0025117374 -0.0099999998 -0.099635325
0.0035481444 -0.0099999998 -0.099698193
0.0047158045 -0.0099999998 -0.099681571
0.0053345431 -0.0099999998 -0.099419482
0.0064682504 -0.0099999998 -0.099513829
0.0074962028 -0.0099999998 -0.099621423
0.0087531749 -0.0099999998 -0.099493228
0.0098021179 -0.0097759711 -0.099652946
-0.0099999998 -0.00847557 -0.099638313
0.0099999998 -0.0084671378 -0.099163108
-0.0099999998 -0.0075570978 -0.099473588
0.0099999998 -0.0075362064 -0.099464379
-0.0099999998 -0.0064910292 -0.099716127
0.0099999998 -0.0061999536 -0.099804513
-0.0099999998 -0.0056022881 -0.099326491
0.0099999998 -0.0052965693 -0.099264607
-0.0099999998 -0.0041730655 -0.099623233
0.0099999998 -0.0049456507 -0.099702418
-0.0099999998 -0.0036408184 -0.09960185
0.0099999988 -0.003529751 -0.099671841
-0.0099999998 -0.0024421629 -0.099642575
0.0099999998 -0.0023525604 -0.099484839
-0.0099999998 -0.0012747783 -0.099258684
0.0099999998 -0.0015986535 -0.099377446
-0.0099999998 -0.00057655259 -0.099536449
0.0099999998 -0.00072602986 -0.099779084
-0.0099999988 0.00042159003 -0.099482529
0.0099999998 0.00067520887 -0.09946686
-0.0099999998 0.0015375486 -0.099438034
0.0099999998 0.0016747998 -0.099643074
