# .PCD v0.7 - Point Cloud Data file format
VERSION 0.7
FIELDS x y z
SIZE 4 4 4
TYPE F F F
COUNT 1 1 1
WIDTH 1237
HEIGHT 1
VIEWPOINT 0 0 0 1 0 0 0
POINTS 1237
DATA ascii
0.0094182659 -0.073056422 -0.0094304597
0.010000001 -0.073029138 -0.0068411734
0.010000001 -0.072814964 -0.005084483
0.0099999998 -0.073146634 -0.0029162897
0.0099999988 -0.072873458 -0.00087076356
0.0099999998 -0.072908208 0.0012522654
0.0099999998 -0.073040716 0.002825836
0.0099999988 -0.072687566 0.0049660555
0.010000001 -0.072997957 0.0069764638
0.0094294911 -0.073068082 0.0095814466
0.0092755165 -0.073702082 0.010000001
0.010000001 -0.073162943 -0.0094311116
0.010000001 -0.073718071 0.0074162623
-0.0095248884 -0.070990041 -0.009586025
-0.0099999998 -0.071135908 -0.0069021103
-0.0099999988 -0.071341954 -0.004685624
-0.010000001 -0.071116656 -0.0029420359
-0.0099999998 -0.071005009 -0.0010121686
-0.0099999998 -0.070941426 0.00095771649
-0.0099999998 -0.070932843 0.0028167728
-0.0099999998 -0.070924848 0.0050234767
-0.0099999988 -0.070682324 0.0070073567
-0.0093599781 -0.071019113 0.0095298663
-0.0067987326 -0.071084268 -0.0099999998
-0.0071911793 -0.070924662 0.0099999988
-0.0074672517 -0.071070001 0.010000001
-0.0051835161 -0.071228139 -0.0099999998
-0.0048808027 -0.071002334 0.0099999998
-0.0051880726 -0.071832344 0.010000001
-0.0026193245 -0.071024664 -0.0099999998
-0.0027456491 -0.071040578 0.0099999988
-0.0032242567 -0.071796536 0.010000001
-0.0011903479 -0.070737347 -0.0099999998
-0.00086346397 -0.071102597 0.0099999998
0.0011794256 -0.071056515 -0.0099999988
0.0010379868 -0.07096377 0.0099999998
0.0030186705 -0.071069315 -0.0099999998
0.0029683227 -0.070756599 0.010000001
0.0051429789 -0.071237341 -0.0099999988
0.0049958155 -0.070922181 0.0099999998
0.007011923 -0.070935607 -0.0099999998
0.0070423582 -0.070844904 0.010000001
0.0093457494 -0.07091672 -0.0096874023
0.010000001 -0.070787638 -0.0069158399
0.010000001 -0.070935801 -0.0048106783
0.010000001 -0.071111843 -0.0030315411
0.0099999988 -0.07092084 -0.0010922775
0.0099999998 -0.070728473 0.00089711067
0.0099999988 -0.070843384 0.0029932191
0.0099999998 -0.071138896 0.0050766296
0.0099999988 -0.071154967 0.0070692808
0.0095486296 -0.070908152 0.0093629546
0.010000001 -0.071396202 0.0076063033
-0.0094016511 -0.06904453 -0.0094943363
-0.0099999988 -0.069132805 -0.0066739721
-0.010000001 -0.069099285 -0.0048496416
-0.0099999998 -0.068956628 -0.0029895515
-0.0099999988 -0.068858624 -0.00091851188
-0.010000001 -0.068985499 0.0012315316
-0.0099999988 -0.0693027 0.0029800416
-0.010000002 -0.068974629 0.0050501404
-0.0099999988 -0.069253735 0.0068293875
-0.0094896751 -0.069105998 0.009615262
-0.0085913176 -0.069253609 0.010000001
-0.0071061254 -0.068921313 -0.0099999998
-0.0070993816 -0.06928926 0.0099999988
-0.0070722201 -0.068191551 0.010000001
-0.0049768547 -0.068907745 -0.0099999998
-0.0047591883 -0.069254801 0.0099999988
-0.0040252106 -0.068390377 0.010000001
-0.0030549474 -0.068824314 -0.010000001
-0.0029634631 -0.068981841 0.0099999998
-0.0029459703 -0.068783596 0.010000001
-0.001095589 -0.069277868 -0.0099999998
-0.0011873676 -0.068992779 0.0099999998
-0.0015825063 -0.069083437 0.010000001
0.00088292203 -0.068752162 -0.0099999988
0.0013347892 -0.068983898 0.0099999988
0.0029237478 -0.069260471 -0.0099999988
0.0027817169 -0.069168419 0.010000001
0.0050407196 -0.068927139 -0.010000002
0.0051337159 -0.068987004 0.0099999998
0.0069980412 -0.068789184 -0.010000001
0.007444826 -0.069377117 0.0099999988
0.0073209465 -0.069052309 0.010000001
0.0095837321 -0.068922907 -0.0094930138
0.0099999988 -0.069007188 -0.0069848835
0.0099999998 -0.068799697 -0.0049998583
0.0099999998 -0.069060825 -0.0029399947
0.0099999988 -0.068918541 -0.0012872302
0.0099999998 -0.069159389 0.0011272627
0.0099999998 -0.06880343 0.0031287563
0.0099999998 -0.069035895 0.0050209914
0.0099999988 -0.069019228 0.007073469
0.0093787769 -0.069041044 0.0094429879
0.010000001 -0.068316706 0.0084156394
-0.0094658015 -0.067119695 -0.0096237045
-0.0099999998 -0.067237794 -0.0069030267
-0.0099999988 -0.067026481 -0.0048041958
-0.0099999988 -0.066827632 -0.0028944302
-0.010000001 -0.066726528 -0.00082122575
-0.0099999998 -0.06677448 0.0011200914
-0.0099999988 -0.066910587 0.003095835
-0.010000001 -0.067016482 0.004674288
-0.010000001 -0.067091942 0.0070882598
-0.0095151272 -0.066945046 0.0094426451
-0.0069682728 -0.067026369 -0.0099999998
-0.0066223927 -0.067075968 0.0099999998
-0.0049386667 -0.067163348 -0.0099999988
-0.0046142554 -0.066980332 0.0099999988
-0.0026348641 -0.067005165 -0.0099999988
-0.003029028 -0.066556521 0.0099999998
-0.0010697305 -0.066957369 -0.0099999988
-0.0011056432 -0.067317232 0.0099999988
-0.0017086368 -0.067645445 0.010000001
0.001089439 -0.0672554 -0.010000001
0.00092257542 -0.066930696 0.010000001
0.0032130799 -0.06714768 -0.0099999998
0.0029682356 -0.06722606 0.010000001
0.0049016736 -0.066948548 -0.0099999988
0.0051018172 -0.066973999 0.0099999998
0.0069779437 -0.066915639 -0.0099999998
0.0072129476 -0.066835448 0.0099999998
0.0068820552 -0.06699843 0.010000001
0.0094738416 -0.06698145 -0.0096062962
0.010000001 -0.066952802 -0.0069347224
0.0099999988 -0.0670733 -0.0050810026
0.0099999988 -0.067029871 -0.0029707304
0.0099999998 -0.067196682 -0.0012144175
0.0099999998 -0.067010693 0.00094567897
0.010000001 -0.06691242 0.0030893285
0.0099999998 -0.066869497 0.0047727241
0.010000001 -0.066985816 0.0071003288
0.0095371651 -0.067081228 0.0092804777
0.0094381152 -0.067075007 0.010000001
0.010000001 -0.066928424 0.0090380749
-0.0094541516 -0.065085702 -0.0095208539
-0.010000001 -0.065044999 -0.0069328663
-0.010000001 -0.065002397 -0.0049430626
-0.0099999998 -0.065028057 -0.0028508781
-0.010000001 -0.065286502 -0.0011047506
-0.010000001 -0.064980082 0.00093100109
-0.0099999998 -0.06519907 0.0028087019
-0.010000001 -0.065031208 0.0050466396
-0.0099999988 -0.064788416 0.0075370432
-0.009359166 -0.064859062 0.0095425565
-0.0094787739 -0.065461479 0.010000001
-0.007217471 -0.065003499 -0.0099999998
-0.0072538038 -0.064989321 0.0099999998
-0.0065007466 -0.064075023 0.010000001
-0.0050143586 -0.064965002 -0.0099999988
-0.0050049843 -0.064850375 0.0099999998
-0.0054697488 -0.064751141 0.010000001
-0.0028514194 -0.065069787 -0.010000001
-0.0026502747 -0.065023713 0.0099999998
-0.0029438201 -0.065823972 0.010000001
-0.0011744982 -0.065522298 -0.0099999988
-0.00097100454 -0.065154806 0.0099999988
0.0010430118 -0.065048002 -0.0099999988
0.0012618585 -0.064899191 0.0099999988
0.0031658344 -0.064732254 -0.010000001
0.0030065058 -0.064953551 0.0099999988
0.0026918692 -0.064130038 0.010000001
0.0048175752 -0.064884357 -0.010000002
0.0046218177 -0.065230876 0.010000001
0.0068737194 -0.064706638 -0.0099999988
0.0069135083 -0.064922139 0.0099999998
0.0072004641 -0.06522429 0.010000001
0.0094420537 -0.064971633 -0.0095137311
0.010000002 -0.064889126 -0.0070691342
0.0099999998 -0.064677946 -0.0051507563
0.010000001 -0.064919636 -0.0029864919
0.0099999988 -0.064899832 -0.00084519404
0.010000001 -0.064840056 0.0010161672
0.0099999988 -0.065481275 0.0032195468
0.010000001 -0.064964868 0.0050252699
0.010000001 -0.064848445 0.0071114493
0.0093453126 -0.065019906 0.0095644137
0.010000001 -0.064459212 -0.0099454215
0.010000001 -0.065469034 0.0095136026
-0.014444842 -0.063034512 -0.0146571
-0.014774391 -0.063044652 -0.013310731
-0.014770337 -0.062855028 -0.01114757
-0.014773243 -0.063054718 -0.0093088876
-0.014822831 -0.062807679 -0.0070010535
-0.014782325 -0.062863752 -0.0052906717
-0.014728902 -0.062908396 -0.0028579873
-0.014743962 -0.062994197 -0.0011086576
-0.014736173 -0.062842168 0.001172244
-0.01472031 -0.063165858 0.0029437684
-0.014713433 -0.063110262 0.0049504656
-0.01475012 -0.063006543 0.0071468316
-0.014712902 -0.063017651 0.0087647494
-0.014773111 -0.062954716 0.011120348
-0.01473673 -0.063052714 0.013233664
-0.014502123 -0.062937811 0.014676427
-0.012858392 -0.06318213 -0.014707575
-0.012948918 -0.063492499 -0.013012379
-0.012965983 -0.063492492 -0.011006463
-0.013082331 -0.063492507 -0.0091578923
-0.013044225 -0.063492499 -0.0071302401
-0.013128342 -0.063492507 -0.0050751544
-0.013163907 -0.063492492 -0.0030383843
-0.012868203 -0.063492507 -0.00074167032
-0.013220794 -0.063492492 0.001244408
-0.012885391 -0.063492507 0.0028804531
-0.013064751 -0.063492492 0.0050206864
-0.012967486 -0.063492499 0.0071738008
-0.013307182 -0.063492492 0.008743329
-0.013108678 -0.063492492 0.011012687
-0.012986447 -0.063492492 0.013014579
-0.012875117 -0.062926553 0.014721708
-0.010932142 -0.063030444 -0.014621584
-0.010852837 -0.063492507 -0.012879827
-0.011110548 -0.063492492 -0.011095391
-0.011102239 -0.063492492 -0.0088882297
-0.011322671 -0.063492492 -0.0068231137
-0.011395394 -0.063492507 -0.0051136645
-0.01101192 -0.063492492 -0.0030780053
-0.011345665 -0.063492492 -0.00091312319
-0.011018413 -0.063492492 0.00098987448
-0.010936931 -0.063492499 0.0030156286
-0.010769626 -0.063492499 0.0049137184
-0.011191173 -0.063492499 0.0067603779
-0.011045538 -0.063492499 0.008759765
-0.011051747 -0.063492492 0.010891638
-0.011120182 -0.063492492 0.012908648
-0.010789172 -0.063009843 0.014841248
-0.008925966 -0.063153952 -0.014706412
-0.0088676484 -0.063492492 -0.013043894
-0.0090193925 -0.063492507 -0.010966497
-0.0095216688 -0.06354782 -0.0091299042
-0.0092640659 -0.063546658 -0.0067476132
-0.0092539517 -0.063522518 -0.0050818864
-0.0093269935 -0.063516647 -0.0030153149
-0.0094511621 -0.063614041 -0.00087943353
-0.0092006233 -0.063572213 0.0010936096
-0.0092652403 -0.063581169 0.0030081486
-0.0091200145 -0.063534968 0.004956285
-0.0093072467 -0.063557833 0.0069766194
-0.0089988327 -0.063582435 0.0089784646
-0.0092102354 -0.063503824 0.010745528
-0.0090543106 -0.063492499 0.012934456
-0.0090169944 -0.062990472 0.014708879
-0.0068726521 -0.062959872 -0.014816859
-0.0069739576 -0.063492514 -0.013169334
-0.0070245015 -0.063492499 -0.010735726
-0.0071435249 -0.063559659 -0.0093153454
-0.0070716538 -0.063492499 -0.0070951656
-0.0069336025 -0.063492492 -0.0049733119
-0.0068607447 -0.063492492 -0.0030476809
-0.0071880841 -0.063492492 -0.00096930022
-0.0069492455 -0.063492499 0.0010292123
-0.0069849528 -0.063492499 0.0028025857
-0.006681304 -0.063492499 0.0049158433
-0.0068378281 -0.063492492 0.0070989346
-0.0067957435 -0.063528918 0.0090247048
-0.0070471023 -0.063492492 0.010772188
-0.0068028434 -0.063492499 0.013120649
-0.0072122137 -0.06299293 0.01475295
-0.004877578 -0.063223936 -0.014565634
-0.0049476512 -0.063492507 -0.012802909
-0.0052796826 -0.063492492 -0.011361456
-0.0046788179 -0.06352067 -0.0091538252
-0.0051461374 -0.063492492 -0.0069319406
-0.0049873795 -0.063492507 -0.0047369702
-0.0049836333 -0.063492499 -0.0029332764
-0.0047920351 -0.063492492 -0.0011486813
-0.0050438708 -0.063492507 0.0010754906
-0.0049964329 -0.063492492 0.0030777503
-0.0048188404 -0.063492507 0.0050916099
-0.005071247 -0.063492499 0.0067678145
-0.0050867298 -0.063523181 0.0092289606
-0.0049338192 -0.063492492 0.011039182
-0.004982519 -0.063492492 0.012843962
-0.0048463163 -0.063083842 0.014663456
-0.0031322215 -0.062899135 -0.01477475
-0.0028291687 -0.063492499 -0.013209549
-0.003018006 -0.063492492 -0.011058574
-0.0029521578 -0.063588671 -0.0092210351
-0.0029935921 -0.063492492 -0.0070700217
-0.0030634864 -0.063492492 -0.0052173641
-0.0030331234 -0.063492499 -0.0030658334
-0.0028937322 -0.063492492 -0.0012647678
-0.0030522884 -0.063492499 0.00065468473
-0.0031678926 -0.063492492 0.0029995334
-0.002776409 -0.063492492 0.0047548553
-0.0032451707 -0.063492492 0.007168808
-0.0033012165 -0.06353499 0.0093782283
-0.0030674196 -0.063492492 0.010957411
-0.0030274286 -0.063492499 0.012899125
-0.0028672726 -0.063042991 0.014729857
-0.0011352238 -0.0631366 -0.014718326
-0.0011561445 -0.063492507 -0.013231257
-0.0012540909 -0.063492499 -0.011091861
-0.0010243822 -0.063516572 -0.0091516934
-0.00083637214 -0.063492507 -0.0070761563
-0.00091638061 -0.063492492 -0.0046661082
-0.00069505273 -0.063492507 -0.0031361089
-0.0011134807 -0.063492499 -0.000817583
-0.0010257182 -0.063492492 0.00097229437
-0.0010682915 -0.063492492 0.0028819635
-0.0010698196 -0.063492492 0.0050200364
-0.0011863754 -0.063492492 0.0067822221
-0.00098960078 -0.063575454 0.0091051599
-0.00097025407 -0.063492492 0.011007783
-0.0011952185 -0.063492499 0.012881207
-0.0011475139 -0.063035168 0.014643637
0.00080085511 -0.063263118 -0.014552467
0.00095599244 -0.063492492 -0.013011219
0.0011273475 -0.063492499 -0.011146453
0.00078488595 -0.063562259 -0.00940785
0.0013872834 -0.063492507 -0.0069345231
0.0012073885 -0.063492492 -0.0053567286
0.0012033246 -0.063492492 -0.0030581716
0.0011976125 -0.063492492 -0.0013372495
0.00060081109 -0.063492492 0.00090259104
0.0011502987 -0.063492492 0.003083738
0.0012223184 -0.063492507 0.0046792873
0.001048571 -0.063492507 0.0069595482
0.00085059192 -0.063550845 0.0092718378
0.0010495931 -0.063492507 0.01122331
0.00082926702 -0.063492492 0.012795507
0.0011242735 -0.063090727 0.01465863
0.0028720803 -0.063083269 -0.014739337
0.0029112806 -0.063492507 -0.012755703
0.0029517615 -0.063492492 -0.011040275
0.0030682061 -0.0635757 -0.0092718843
0.0029557329 -0.063492499 -0.0072007584
0.0027949431 -0.063492492 -0.0050614253
0.0031606271 -0.063492499 -0.0029747982
0.0031886182 -0.063492492 -0.0010665498
0.0028256017 -0.063492492 0.00097671174
0.0028002493 -0.063492492 0.0031981478
0.0029314144 -0.063492492 0.004996527
0.0030709128 -0.063492492 0.0072199591
0.0031184687 -0.063505866 0.0090361321
0.0028806382 -0.063492499 0.010836266
0.0028931226 -0.063492499 0.013210139
0.0031128537 -0.063058481 0.01471879
0.0050854394 -0.063024513 -0.014672706
0.0049331286 -0.063492514 -0.013077829
0.0050954237 -0.063492499 -0.011096042
0.0051097344 -0.063575096 -0.0093417782
0.0049784151 -0.063492492 -0.0067340634
0.0050240438 -0.063492492 -0.0048559383
0.0049142078 -0.063492499 -0.0030053388
0.0048210975 -0.063492492 -0.00078870181
0.0047831838 -0.063492492 0.0011528281
0.0050152126 -0.063492492 0.0031628183
0.0051748846 -0.063492507 0.0052027311
0.0049540708 -0.063492499 0.0071326089
0.0049146139 -0.063532226 0.0090779364
0.005009627 -0.063492492 0.011122257
0.005072766 -0.063492499 0.013184796
0.0050954684 -0.062848203 0.014776882
0.0070244581 -0.063002333 -0.014697367
0.0070094536 -0.063492499 -0.012858572
0.0073013394 -0.063492492 -0.010744767
0.0070987069 -0.063556299 -0.0091637988
0.007124925 -0.063492492 -0.0069386479
0.0067671412 -0.063492499 -0.0049688616
0.0069209849 -0.063492492 -0.0031799246
0.0070213792 -0.063492499 -0.00077145605
0.0068027461 -0.063492492 0.00095436181
0.0068230382 -0.063492507 0.0030142849
0.00714722 -0.063492492 0.0050487071
0.0071292045 -0.063492492 0.0067885802
0.0070786844 -0.063519515 0.0091726724
0.0069582304 -0.063492492 0.01098336
0.0068458281 -0.063492499 0.012889648
0.0069368905 -0.06299147 0.014787654
0.0091034248 -0.062988527 -0.014715801
0.0089491634 -0.063492507 -0.013066173
0.0089984434 -0.063492492 -0.011057484
0.0090488149 -0.063583978 -0.0091409516
0.0089884223 -0.063511439 -0.0069431546
0.0089965984 -0.063543327 -0.0052125752
0.0095364973 -0.06357611 -0.0028944325
0.0093826661 -0.063557781 -0.00095548772
0.0088768378 -0.063517399 0.0011681997
0.0094481045 -0.063584164 0.0030928967
0.0092411144 -0.063518003 0.0048508053
0.0091446573 -0.063520275 0.0070678671
0.0093718013 -0.063564524 0.0092383567
0.0087968949 -0.063496731 0.010992973
0.0093002832 -0.063492492 0.012911312
0.0088341925 -0.062977761 0.014740782
0.010879063 -0.063089579 -0.014579015
0.010952776 -0.063492492 -0.012859387
0.010996955 -0.063492492 -0.010973579
0.011134326 -0.063492507 -0.0090564573
0.0108433 -0.063492492 -0.0071456027
0.011092474 -0.063492492 -0.0049574175
0.010917016 -0.063492507 -0.0029108294
0.011000611 -0.063492492 -0.00095130055
0.011100299 -0.063492492 0.00099314714
0.011256083 -0.063492499 0.0032150045
0.010814537 -0.063492499 0.0049102739
0.011114627 -0.063492492 0.007053264
0.010759197 -0.063492492 0.0087744649
0.011051666 -0.063492492 0.010956058
0.011112682 -0.063492492 0.012900698
0.010811034 -0.063189156 0.014705828
0.01284672 -0.062888153 -0.014702109
0.012928815 -0.063492499 -0.012859385
0.012843998 -0.063492492 -0.011238286
0.013043026 -0.063492507 -0.0088341562
0.012923825 -0.063492492 -0.0068499702
0.013149166 -0.063492492 -0.0049203769
0.012939825 -0.063492492 -0.0031330234
0.012982661 -0.063492492 -0.0010990953
0.013063361 -0.063492499 0.0011839697
0.013028993 -0.063492499 0.002859775
0.01288978 -0.063492507 0.0049931058
0.012901683 -0.063492492 0.0071410956
0.01300182 -0.063492492 0.0089166714
0.0131342 -0.063492499 0.010890795
0.012939575 -0.063492499 0.01308441
0.013058941 -0.063051678 0.014797835
0.014615173 -0.062966213 -0.014635094
0.014651035 -0.062925868 -0.012874753
0.014789639 -0.062929504 -0.010970988
0.01478547 -0.062980592 -0.0089267436
0.014603477 -0.063092045 -0.007052938
0.014694693 -0.062800139 -0.0050167437
0.014530482 -0.063295595 -0.0030149024
0.014840454 -0.062954701 -0.0010620375
0.01478137 -0.063070014 0.00094838435
0.014660263 -0.063136391 0.0028931554
0.014770307 -0.062848784 0.0048039579
0.014746074 -0.063039392 0.006826798
0.01466668 -0.063154884 0.0090233283
0.014568792 -0.063205615 0.011061279
0.014633706 -0.0629749 0.012977147
0.014406295 -0.063171647 0.014559332
-0.014771406 -0.061002292 -0.014491919
-0.0148901 -0.06112228 -0.013175943
-0.014890101 -0.060879841 -0.011094369
-0.014890102 -0.060808964 -0.0091557251
-0.014890101 -0.060702283 -0.0071363607
-0.014890102 -0.06088813 -0.0051101251
-0.014890102 -0.060977854 -0.0028034374
-0.014890102 -0.060828187 -0.0011934743
-0.014890103 -0.061245512 0.00093968987
-0.014890101 -0.060726345 0.0031183623
-0.014890102 -0.060987148 0.0050833784
-0.014890101 -0.06084225 0.0070102178
-0.014890103 -0.061084706 0.0091026537
-0.014890102 -0.060976677 0.010903553
-0.014890103 -0.060786486 0.012999631
-0.014627344 -0.061059665 0.014609884
-0.012845801 -0.061117619 -0.014890102
-0.012879294 -0.061113391 0.014890101
-0.010646064 -0.061075859 -0.0148901
-0.010931722 -0.061347485 0.0148901
-0.0088976137 -0.060829043 -0.014890101
-0.009114502 -0.061029229 0.014890102
-0.0071079517 -0.060943827 -0.014890102
-0.0068793525 -0.06103814 0.014890103
-0.004922234 -0.060964715 -0.014890103
-0.0049749836 -0.061080884 0.014890101
-0.003374655 -0.061278176 -0.014890102
-0.0029079951 -0.06103937 0.014890103
-0.0007772072 -0.060821496 -0.014890101
-0.0011862146 -0.061023265 0.014890103
0.00083517283 -0.061063301 -0.014890102
0.00091185485 -0.060824767 0.014890101
0.0027354446 -0.060957365 -0.014890103
0.0030394807 -0.060959764 0.014890102
0.0050549051 -0.061034717 -0.014890102
0.0048760264 -0.061094992 0.014890101
0.00684861 -0.060919102 -0.014890103
0.0071352632 -0.060938042 0.014890102
0.0089474833 -0.06087365 -0.014890103
0.0091123227 -0.061006691 0.014890102
0.010887493 -0.061269794 -0.014890102
0.01119573 -0.060924731 0.014890102
0.012994059 -0.060883489 -0.014890102
0.012991869 -0.061027713 0.014890103
0.014709308 -0.061107088 -0.014666104
0.014890103 -0.061113071 -0.013055702
0.014890102 -0.061053563 -0.011211072
0.014890102 -0.06084875 -0.008855015
0.014890101 -0.060932621 -0.0069529517
0.014890102 -0.06095659 -0.0052400911
0.014890102 -0.060822647 -0.0030831238
0.014890103 -0.061166257 -0.0011725625
0.014890102 -0.060950659 0.001114506
0.014890102 -0.060918227 0.0032919177
0.014890103 -0.060733479 0.0053999401
0.014890101 -0.061064716 0.0070422417
0.014890102 -0.061048746 0.0090955412
0.014890102 -0.06080294 0.010994232
0.014890102 -0.061115649 0.013087185
0.014612827 -0.060779862 0.014729431
-0.014555042 -0.059099823 -0.014585008
-0.014890102 -0.05876353 -0.012823228
-0.014890103 -0.058957584 -0.010825764
-0.014890103 -0.059004623 -0.0089634759
-0.014890102 -0.059156138 -0.0068946765
-0.014890103 -0.059158117 -0.00499395
-0.014890103 -0.05883624 -0.0027636013
-0.014890102 -0.059038579 -0.0012517876
-0.014890103 -0.059120238 0.0011523743
-0.014890101 -0.05916087 0.0027635978
-0.014890102 -0.058922473 0.0051763644
-0.0148901 -0.059023693 0.0067086099
-0.014890102 -0.059074886 0.0088044237
-0.014890102 -0.058826134 0.010958698
-0.014890102 -0.058810104 0.013000379
-0.01478627 -0.058842439 0.014756312
-0.012849241 -0.05900703 -0.014890102
-0.013166868 -0.05895377 0.014890102
-0.010866861 -0.059047323 -0.014890104
-0.010907507 -0.059151776 0.014890102
-0.0092294989 -0.058974229 -0.0148901
-0.008961848 -0.059097812 0.014890101
-0.0069984235 -0.059003752 -0.014890101
-0.0071260128 -0.05896898 0.014890102
-0.0051544122 -0.058957007 -0.014890103
-0.0048141298 -0.058801364 0.014890102
-0.0029612472 -0.059075337 -0.014890102
-0.0032109506 -0.0589334 0.014890101
-0.00071046961 -0.059041865 -0.014890103
-0.00093986536 -0.058884114 0.014890104
0.00096090633 -0.058944497 -0.014890101
0.0010500152 -0.059029192 0.0148901
0.0031057068 -0.05915086 -0.014890103
0.0027189187 -0.058905981 0.014890101
0.0048949029 -0.059096225 -0.014890101
0.0052512116 -0.058909059 0.014890101
0.0069956286 -0.058960859 -0.014890102
0.0071528452 -0.059031259 0.014890101
0.0089505184 -0.059110049 -0.014890102
0.00882506 -0.059094779 0.014890102
0.010997596 -0.059128843 -0.014890103
0.011052699 -0.058923706 0.014890102
0.013217906 -0.059351873 -0.0148901
0.013277745 -0.058913033 0.014890102
0.0145257 -0.058891971 -0.014696414
0.014890102 -0.059010182 -0.013104222
0.014890102 -0.05894867 -0.01104934
0.014890101 -0.059330851 -0.0091594495
0.014890103 -0.059071116 -0.0069609098
0.014890101 -0.059127413 -0.0051696352
0.014890102 -0.059246603 -0.0029240756
0.014890102 -0.059000324 -0.00099167041
0.014890101 -0.059124336 0.0011914988
0.014890102 -0.059065752 0.0030999011
0.0148901 -0.058942292 0.0046991385
0.014890101 -0.059357721 0.0070745377
0.014890103 -0.059077628 0.0088179642
0.0148901 -0.058838725 0.010712232
0.014890102 -0.058767095 0.013198303
0.014811682 -0.058935914 0.014647523
-0.01476138 -0.056976527 -0.014425195
-0.014890103 -0.057004847 -0.012862417
-0.014890102 -0.056911901 -0.010833931
-0.014890102 -0.057002865 -0.0090463078
-0.014890102 -0.0569572 -0.0069916644
-0.014890101 -0.056819677 -0.0047941823
-0.014890103 -0.056892905 -0.002885985
-0.014890102 -0.057042159 -0.00099999574
-0.014890102 -0.0570057 0.00098632567
-0.014890103 -0.05710452 0.0030298987
-0.014890102 -0.05721819 0.0050219609
-0.014890102 -0.057155874 0.0070268442
-0.014890102 -0.057068318 0.0089918412
-0.014890102 -0.056847572 0.0111307
-0.014890101 -0.057148058 0.012886982
-0.014705217 -0.056883521 0.014740943
-0.013068712 -0.056952797 -0.014890102
-0.013046971 -0.057139289 0.014890103
-0.010950889 -0.056896415 -0.014890101
-0.011177728 -0.056801789 0.014890101
-0.0091252448 -0.057155158 -0.014890103
-0.0089802677 -0.057028282 0.014890103
-0.0071400739 -0.056758296 -0.014890101
-0.0069000619 -0.056850459 0.014890101
-0.0047530206 -0.056988653 -0.014890102
-0.005183659 -0.057039782 0.014890102
-0.003090356 -0.057062611 -0.014890104
-0.0029803794 -0.057143696 0.014890102
-0.00093243265 -0.057128791 -0.014890103
-0.0010496051 -0.056963861 0.014890103
0.001062423 -0.057003461 -0.014890103
0.00088808098 -0.056956701 0.014890103
0.0031077671 -0.056796487 -0.014890102
0.0029010708 -0.056907851 0.014890102
0.0046603726 -0.05707721 -0.014890102
0.0050898902 -0.057015173 0.014890102
0.007032176 -0.056854103 -0.014890102
0.0070446124 -0.056981537 0.014890102
0.0090961782 -0.057251006 -0.014890103
0.0088486066 -0.057059702 0.0148901
0.011081308 -0.057109326 -0.014890103
0.011056622 -0.056892999 0.014890103
0.012908595 -0.056682792 -0.014890098
0.013009087 -0.057086807 0.014890103
0.014589977 -0.057063263 -0.014735416
0.014890102 -0.0568913 -0.013199645
0.014890103 -0.056878988 -0.010868523
0.014890103 -0.057209559 -0.0086304741
0.014890102 -0.056867983 -0.0068688761
0.014890103 -0.057165537 -0.0049378066
0.014890102 -0.057041854 -0.0030304107
0.014890103 -0.057127707 -0.0011705173
0.014890103 -0.056637485 0.00078012643
0.0148901 -0.056921996 0.0029461712
0.014890102 -0.057045881 0.0049457154
0.014890102 -0.056965716 0.0071538794
0.014890101 -0.056757286 0.009196884
0.014890102 -0.056639474 0.010890431
0.014890102 -0.056925554 0.013033845
0.014743873 -0.057178367 0.014685891
-0.014644118 -0.055057604 -0.01484098
-0.0148901 -0.054861654 -0.012843356
-0.014890101 -0.055037305 -0.01105341
-0.014890103 -0.054934699 -0.0088913916
-0.014890101 -0.05468135 -0.0069097262
-0.014890102 -0.055067457 -0.005238635
-0.014890099 -0.0552557 -0.0032626938
-0.014890101 -0.0548639 -0.00084880245
-0.014890103 -0.054962773 0.001254015
-0.014890102 -0.05510094 0.003088118
-0.014890103 -0.05526419 0.0051870611
-0.014890102 -0.054695163 0.0067041274
-0.0148901 -0.05497529 0.0088603152
-0.014890103 -0.054900974 0.01089513
-0.014890101 -0.055374071 0.01290531
-0.014739818 -0.055154331 0.014433006
-0.012976686 -0.054891635 -0.014890102
-0.013276721 -0.055092908 0.014890102
-0.011322247 -0.055076011 -0.014890102
-0.011057808 -0.055118274 0.014890102
-0.0091034342 -0.055115089 -0.014890102
-0.0091843856 -0.055284869 0.014890103
-0.0072021019 -0.055329449 -0.014890102
-0.0069372463 -0.055129435 0.014890103
-0.0053679803 -0.055245172 -0.0148901
-0.0050759213 -0.054995175 0.014890102
-0.0029233883 -0.054780044 -0.014890102
-0.0032381914 -0.055064201 0.014890102
-0.00084814336 -0.055150427 -0.014890102
-0.00084098359 -0.055060074 0.014890102
0.0010202449 -0.055035204 -0.014890102
0.00089855795 -0.054829869 0.014890102
0.0031021636 -0.055080581 -0.014890103
0.003057732 -0.055142414 0.0148901
0.0051481789 -0.055044759 -0.014890101
0.0050580273 -0.055079877 0.0148901
0.0068042874 -0.054984841 -0.014890103
0.0072046183 -0.055054098 0.014890102
0.008834878 -0.055119544 -0.014890102
0.0090929596 -0.054820646 0.014890102
0.011198695 -0.055182736 -0.014890102
0.010969091 -0.054977242 0.014890102
0.012950062 -0.054751001 -0.014890102
0.013010658 -0.055025123 0.014890103
0.014603548 -0.05527107 -0.01481739
0.014890102 -0.055146322 -0.01275819
0.014890102 -0.05532838 -0.010864362
0.014890101 -0.05479249 -0.009174116
0.014890102 -0.055127956 -0.0070844241
0.014890103 -0.054712091 -0.0050561512
0.014890102 -0.055062436 -0.0028747329
0.014890102 -0.054831076 -0.0011718223
0.014890102 -0.055171739 0.0010191404
0.014890103 -0.054929111 0.003267192
0.014890101 -0.054992173 0.0051332191
0.014890103 -0.055228405 0.0068330122
0.014890102 -0.055082068 0.0088299457
0.0148901 -0.05503802 0.011171509
0.014890102 -0.055111144 0.012882732
0.014799731 -0.054854605 0.014487775
-0.014698234 -0.052808855 -0.014575254
-0.014890101 -0.053287059 -0.013223207
-0.014890101 -0.052989155 -0.011023562
-0.014890103 -0.052969616 -0.0090336883
-0.014890103 -0.052932151 -0.0071488223
-0.014890103 -0.053077657 -0.0047986279
-0.014890102 -0.052817199 -0.0030374655
-0.014890103 -0.052924033 -0.001030073
-0.014890101 -0.052921072 0.00096206972
-0.014890101 -0.052862823 0.0030635286
-0.014890102 -0.053048123 0.0047616144
-0.0148901 -0.052771077 0.0065042037
-0.014890103 -0.053117514 0.0089089181
-0.014890102 -0.05312689 0.010996186
-0.014890099 -0.052991703 0.013328074
-0.014624628 -0.052586146 0.014688365
-0.01291533 -0.053112227 -0.014890102
-0.013181751 -0.052947067 0.014890103
-0.010738484 -0.052959587 -0.014890102
-0.011176538 -0.05326039 0.014890102
-0.0089056753 -0.05305675 -0.014890102
-0.0086954664 -0.053330809 0.014890101
-0.0071180938 -0.053156588 -0.014890103
-0.0068220864 -0.053059809 0.014890102
-0.0047879377 -0.053217478 -0.014890101
-0.0051763952 -0.052802544 0.0148901
-0.0025398296 -0.052789722 -0.0148901
-0.0028473185 -0.053031046 0.014890101
-0.00074470619 -0.052827001 -0.014890102
-0.0012056263 -0.053027697 0.014890101
0.00093398872 -0.052559644 -0.014890101
0.00094590819 -0.053024482 0.014890102
0.0027604948 -0.053236738 -0.014890102
0.0030649945 -0.05326286 0.014890104
0.0051018568 -0.052869312 -0.014890101
0.0051053409 -0.052958637 0.014890102
0.0072012441 -0.053027205 -0.014890101
0.0067810263 -0.053003993 0.014890102
0.0088542188 -0.05319012 -0.014890103
0.0090441806 -0.053106863 0.014890102
0.010937813 -0.053012185 -0.014890102
0.011006726 -0.053192586 0.0148901
0.012699076 -0.053132944 -0.014890101
0.01320711 -0.053200662 0.0148901
0.014712743 -0.053073071 -0.014736602
0.014890101 -0.052928064 -0.013321771
0.014890102 -0.052866228 -0.011180992
0.014890102 -0.05284173 -0.0089766653
0.014890102 -0.053003009 -0.0067180875
0.014890103 -0.052976646 -0.0051034535
0.014890101 -0.052963518 -0.00287439
0.014890102 -0.053231113 -0.0010961475
0.014890102 -0.052943204 0.00093683269
0.014890103 -0.053000793 0.0031086933
0.014890103 -0.053090699 0.0054547261
0.014890101 -0.053422093 0.0070565091
0.014890103 -0.053162504 0.0090338392
0.014890102 -0.052999053 0.011009065
0.014890102 -0.053142678 0.013080715
0.014733791 -0.052808598 0.014677638
-0.014852815 -0.05112249 -0.014456077
-0.014890101 -0.051036619 -0.013181096
-0.014890102 -0.051278356 -0.011201583
-0.014890101 -0.050922092 -0.0091915401
-0.014890102 -0.050820109 -0.0070279799
-0.014890099 -0.05108349 -0.0045782905
-0.014890103 -0.051409908 -0.0030000929
-0.014890102 -0.051029969 -0.0013213994
-0.014890101 -0.050719216 0.00094558299
-0.014890103 -0.051118944 0.0029598288
-0.0148901 -0.051133748 0.0049935142
-0.0148901 -0.051517505 0.0071055344
-0.014890102 -0.051064245 0.0091650411
-0.0148901 -0.050896466 0.011021733
-0.014890102 -0.051254131 0.012986986
-0.014631333 -0.051154148 0.014705482
-0.013100808 -0.05108152 -0.014890101
-0.013202007 -0.050688334 0.014890102
-0.01107339 -0.050632603 -0.014890104
-0.011070536 -0.050934378 0.014890102
-0.0088962996 -0.051326182 -0.014890101
-0.0089229392 -0.050898116 0.014890101
-0.0068937792 -0.050985593 -0.014890103
-0.0069988319 -0.051283807 0.014890102
-0.0050456431 -0.051157545 -0.014890102
-0.0046690167 -0.050734304 0.014890101
-0.0029554751 -0.050384354 -0.014890102
-0.0029493398 -0.050873965 0.014890103
-0.0011080209 -0.051108383 -0.014890103
-0.0010666818 -0.050873879 0.014890102
0.00099360372 -0.051086798 -0.014890099
0.00090912404 -0.050927985 0.014890102
0.0029644107 -0.051116206 -0.014890102
0.0029644349 -0.051102616 0.014890102
0.0049213385 -0.050991327 -0.014890102
0.0050561232 -0.051048703 0.014890103
0.0071024434 -0.050878402 -0.0148901
0.0069755842 -0.051032044 0.014890102
0.0089302193 -0.050899964 -0.014890103
0.008887955 -0.050966702 0.014890103
0.010772422 -0.051049173 -0.014890102
0.010832561 -0.051020976 0.014890103
0.013130561 -0.051333409 -0.014890101
0.012970651 -0.050924852 0.014890103
0.014667123 -0.050821628 -0.014653328
0.014890102 -0.050949771 -0.012791791
0.0148901 -0.050844882 -0.011010732
0.014890102 -0.051170025 -0.0090892538
0.014890102 -0.050866727 -0.007132838
0.014890103 -0.050939206 -0.004789616
0.014890102 -0.051017176 -0.003067184
0.014890102 -0.051156521 -0.001260347
0.014890103 -0.051142327 0.0011623256
0.014890102 -0.05127665 0.0033593338
0.014890103 -0.051162861 0.0049592867
0.014890102 -0.050985079 0.0070829676
0.014890101 -0.050857421 0.0092515675
0.014890102 -0.051191803 0.010693678
0.014890103 -0.051066041 0.012919512
0.014518547 -0.051200934 0.014706997
-0.014614345 -0.049134728 -0.014777445
-0.014890103 -0.049043681 -0.013293194
-0.014890101 -0.049176939 -0.011049624
-0.014890102 -0.049138933 -0.0088652773
-0.014890103 -0.049088892 -0.0070310775
-0.014890102 -0.049207654 -0.0052826577
-0.014890102 -0.04910484 -0.0028747795
-0.014890101 -0.049110502 -0.00092490797
-0.014890103 -0.049082156 0.00095018244
-0.014890102 -0.049112935 0.0029706077
-0.014890102 -0.049308304 0.0050260955
-0.014890103 -0.049116623 0.0071615041
-0.014890101 -0.04884835 0.0090210726
-0.014890103 -0.048783347 0.011112347
-0.014890102 -0.049035069 0.012846322
-0.014698012 -0.048841823 0.014558589
-0.012952494 -0.048681535 -0.0148901
-0.013335626 -0.04879133 0.014890102
-0.010908663 -0.048886009 -0.014890103
-0.011309493 -0.049016234 0.014890101
-0.0087431855 -0.049075607 -0.014890102
-0.0090032173 -0.048828177 0.014890102
-0.0067984294 -0.049161918 -0.014890101
-0.0071474635 -0.04902051 0.014890102
-0.005402125 -0.048901036 -0.014890101
-0.004999652 -0.048981272 0.014890102
-0.0033564221 -0.049006563 -0.0148901
-0.002667119 -0.049092032 0.0148901
-0.00099403295 -0.048930384 -0.014890102
-0.0011142737 -0.049059685 0.014890102
0.00088078651 -0.048441362 -0.0148901
0.0011380216 -0.048854973 0.014890102
0.0030808372 -0.0491575 -0.014890102
0.0027626243 -0.048875023 0.014890101
0.0047382442 -0.049106091 -0.014890103
0.0049561453 -0.048805725 0.014890101
0.0069472394 -0.048966598 -0.014890102
0.0069481502 -0.048936877 0.014890101
0.0088855624 -0.049130082 -0.014890101
0.0091535952 -0.048989061 0.014890102
0.010952629 -0.049557831 -0.0148901
0.010864942 -0.049099892 0.014890102
0.013014318 -0.048889682 -0.0148901
0.013085024 -0.049022298 0.014890104
0.014678346 -0.048953224 -0.014641576
0.014890101 -0.049182151 -0.012957573
0.014890101 -0.048862115 -0.010974448
0.014890101 -0.048842628 -0.0092170751
0.014890099 -0.048716355 -0.0069738193
0.014890101 -0.049108498 -0.0050894711
0.014890103 -0.049034208 -0.0030703191
0.014890101 -0.048789114 -0.0010678009
0.014890101 -0.048827942 0.00076105667
0.014890102 -0.048997086 0.0029774408
0.014890103 -0.049099002 0.0050695548
0.014890102 -0.048909336 0.0069067203
0.014890099 -0.049276389 0.0089411931
0.014890101 -0.048977878 0.010857712
0.014890103 -0.048886146 0.012771309
0.014602795 -0.048883311 0.014711692
-0.014613465 -0.046915486 -0.014625066
-0.014890102 -0.046936329 -0.013024314
-0.014890101 -0.046658963 -0.010515271
-0.014890102 -0.047181547 -0.009091205
-0.014890102 -0.04685745 -0.0068907728
-0.014890104 -0.047254283 -0.0052887653
-0.0148901 -0.046530008 -0.0033276789
-0.014890102 -0.046978049 -0.0010765538
-0.014890102 -0.046925046 0.00092947175
-0.014890102 -0.047038525 0.0029440827
-0.014890102 -0.046835762 0.0049922862
-0.014890103 -0.047116742 0.0070502558
-0.014890102 -0.047072127 0.0091558592
-0.014890102 -0.046938419 0.0109266
-0.014890101 -0.046851728 0.012926474
-0.014681803 -0.047096357 0.014711723
-0.013223465 -0.046839956 -0.014890103
-0.013167406 -0.046982396 0.014890102
-0.011287177 -0.046778694 -0.014890101
-0.011004382 -0.047064517 0.014890101
-0.009117513 -0.046669703 -0.014890103
-0.0089707738 -0.046888724 0.014890101
-0.0070228493 -0.047040414 -0.014890103
-0.0069435942 -0.046872787 0.014890101
-0.0047739418 -0.046779461 -0.014890102
-0.0052146781 -0.047080655 0.014890103
-0.0027406702 -0.0470642 -0.014890104
-0.0025470273 -0.046837434 0.014890103
-0.0010059527 -0.047235381 -0.014890104
-0.00094515627 -0.047069993 0.014890102
0.0010806904 -0.047138855 -0.014890099
0.0015224786 -0.046857506 0.014890103
0.0030452532 -0.047293454 -0.014890101
0.0030735673 -0.047050606 0.014890102
0.0046717906 -0.046868067 -0.014890101
0.0049215183 -0.047068097 0.014890102
0.0067510805 -0.047233135 -0.014890101
0.0069155293 -0.047299776 0.014890102
0.0090056257 -0.0468776 -0.014890103
0.0090719406 -0.047089659 0.014890103
0.010905783 -0.047071077 -0.014890101
0.011028292 -0.046856605 0.014890102
0.012862475 -0.047372099 -0.014890101
0.013043853 -0.046870574 0.014890101
0.014639729 -0.046892688 -0.014790133
0.014890102 -0.046995163 -0.012925223
0.014890101 -0.046754133 -0.011301117
0.014890102 -0.046858262 -0.009108237
0.014890103 -0.047012873 -0.0072000939
0.014890102 -0.046747033 -0.005123761
0.014890101 -0.04712468 -0.0031990467
0.0148901 -0.046881922 -0.0010230164
0.014890104 -0.046962097 0.0011691832
0.014890102 -0.046919372 0.0030213643
0.014890102 -0.04694657 0.0051334761
0.014890102 -0.046887003 0.0069480753
0.014890101 -0.046921406 0.009250436
0.014890103 -0.047100168 0.010902706
0.014890101 -0.046773665 0.012713915
0.014655655 -0.047290605 0.01455872
-0.014803594 -0.045041516 -0.014594003
-0.014890102 -0.045117315 -0.013244489
-0.014890102 -0.044856831 -0.011225617
-0.014890102 -0.04514486 -0.0090440027
-0.014890101 -0.044947028 -0.0069509065
-0.014890101 -0.044796292 -0.0051283264
-0.014890101 -0.044889629 -0.0028609084
-0.0148901 -0.045017935 -0.00087607157
-0.014890101 -0.044625018 0.0007945394
-0.014890102 -0.044952761 0.0028869193
-0.014890102 -0.045106661 0.0048821559
-0.014890103 -0.044907641 0.0070970482
-0.014890102 -0.04505562 0.0089814197
-0.014890101 -0.044950049 0.011064553
-0.014890102 -0.044969961 0.013019652
-0.014722773 -0.044992954 0.014585834
-0.013118559 -0.044802096 -0.014890102
-0.013001601 -0.044818621 0.014890104
-0.010949356 -0.045238473 -0.014890102
-0.010840906 -0.044926427 0.0148901
-0.009104427 -0.044817101 -0.014890101
-0.0087778093 -0.044856519 0.0148901
-0.0070832334 -0.04491898 -0.014890104
-0.0068566282 -0.044986118 0.014890102
-0.0050041554 -0.044845764 -0.014890102
-0.0048789703 -0.04527631 0.014890102
-0.0030404145 -0.044872962 -0.014890103
-0.0029210809 -0.044923358 0.014890102
-0.0013091497 -0.044971 -0.014890101
-0.00095026055 -0.044998407 0.014890103
0.00087156106 -0.045133401 -0.014890102
0.0011145007 -0.0453698 0.0148901
0.0029985413 -0.044934019 -0.014890102
0.0031970206 -0.044776659 0.014890101
0.0052809864 -0.044880673 -0.014890104
0.0049881339 -0.044950023 0.014890102
0.0071518933 -0.045115571 -0.014890103
0.0070581571 -0.045159675 0.014890102
0.0093189068 -0.044870824 -0.014890101
0.0090592513 -0.045141827 0.014890101
0.010855556 -0.044911396 -0.014890102
0.011147814 -0.044656441 0.014890104
0.013108876 -0.044875786 -0.014890102
0.012963325 -0.044829786 0.014890103
0.014718844 -0.044734877 -0.014618278
0.014890101 -0.045058273 -0.012850313
0.014890103 -0.044935416 -0.010869396
0.014890103 -0.045051198 -0.0093628112
0.014890103 -0.044723872 -0.0070985672
0.014890102 -0.044780865 -0.0050258404
0.014890102 -0.044956818 -0.003097648
0.014890102 -0.04513796 -0.0011410377
0.014890102 -0.04495839 0.00099341862
0.0148901 -0.044986349 0.0028250453
0.014890101 -0.045154311 0.0053993231
0.014890102 -0.044917401 0.0070270943
0.014890102 -0.04478946 0.0091574211
0.014890102 -0.045219239 0.011005049
0.014890102 -0.044649869 0.012799577
0.014745885 -0.045124259 0.014642351
-0.014604663 -0.043125335 -0.014681054
-0.014890102 -0.043164674 -0.013177228
-0.014890102 -0.042782385 -0.010857624
-0.0148901 -0.043062415 -0.0088151516
-0.014890102 -0.043079268 -0.0071603749
-0.014890103 -0.043116868 -0.005052275
-0.014890102 -0.042783607 -0.0029860034
-0.014890102 -0.042948477 -0.0011672818
-0.014890101 -0.043023601 0.00099027262
-0.014890102 -0.042992208 0.0029380533
-0.014890102 -0.043065209 0.005147662
-0.014890102 -0.042839438 0.0071127759
-0.014890102 -0.043183915 0.0086543411
-0.014890102 -0.042726036 0.011157093
-0.014890101 -0.043076154 0.013113523
-0.01458245 -0.043016087 0.014729766
-0.012829685 -0.042910744 -0.014890103
-0.013064762 -0.043155961 0.014890102
-0.011141289 -0.042578634 -0.014890101
-0.010761197 -0.042933717 0.014890102
-0.0089440299 -0.042709745 -0.014890102
-0.0090251137 -0.043253798 0.014890102
-0.0069679283 -0.043223418 -0.014890102
-0.0071310028 -0.043095104 0.014890101
-0.0051190001 -0.042998634 -0.014890102
-0.0050449553 -0.043275326 0.014890102
-0.0028118077 -0.043117657 -0.014890102
-0.0028319154 -0.043104831 0.014890103
-0.001051932 -0.04298364 -0.014890104
-0.001257415 -0.042620108 0.014890098
0.00090386323 -0.043002371 -0.014890102
0.0010587299 -0.04320164 0.014890103
0.0031075676 -0.043204051 -0.014890101
0.002879347 -0.043086231 0.014890102
0.0051422329 -0.04311097 -0.014890102
0.0049701538 -0.042686351 0.014890102
0.0070743412 -0.043024532 -0.014890103
0.006942967 -0.043205909 0.014890102
0.0091075888 -0.042932801 -0.014890099
0.0092788553 -0.043117147 0.014890102
0.010892975 -0.042936336 -0.014890101
0.010955847 -0.042871654 0.014890101
0.012925841 -0.043181669 -0.014890101
0.01327077 -0.043143459 0.0148901
0.014581963 -0.042640015 -0.014756617
0.014890101 -0.04305033 -0.01281189
0.0148901 -0.042945947 -0.01132594
0.014890102 -0.043094214 -0.0088595664
0.014890102 -0.042989172 -0.0069239032
0.014890101 -0.04294287 -0.0051878858
0.014890101 -0.043155991 -0.0027430952
0.014890101 -0.043084934 -0.0012093742
0.014890101 -0.043026082 0.00082104368
0.014890101 -0.043070145 0.0029815033
0.014890102 -0.042874184 0.0050868052
0.014890101 -0.042948466 0.0071820002
0.014890101 -0.04308825 0.0093109757
0.014890102 -0.042812996 0.011136349
0.014890103 -0.043105036 0.012986819
0.014694095 -0.043133896 0.014594528
-0.01465431 -0.040856436 -0.014698897
-0.014890102 -0.041096807 -0.012878628
-0.014890103 -0.040859155 -0.011279179
-0.014890103 -0.04112386 -0.0091880457
-0.014890101 -0.041072812 -0.0069344561
-0.014890102 -0.040822417 -0.0047819316
-0.014890102 -0.040716965 -0.0031606383
-0.014890103 -0.041067533 -0.0010515148
-0.014890103 -0.041106105 0.00087228464
-0.014890101 -0.04111347 0.0029070389
-0.014890101 -0.040775917 0.00471598
-0.014890102 -0.041049041 0.007087497
-0.014890103 -0.040911153 0.0091459136
-0.014890101 -0.041148141 0.011062359
-0.014890103 -0.041136518 0.013445839
-0.014696301 -0.041031107 0.014620985
-0.012902645 -0.040996067 -0.0148901
-0.012969857 -0.041054502 0.014890104
-0.011052763 -0.040885352 -0.014890101
-0.011004411 -0.041298997 0.0148901
-0.0089998757 -0.041298661 -0.014890101
-0.0091575142 -0.040919129 0.014890102
-0.0068010143 -0.041050654 -0.014890101
-0.0068859975 -0.041061793 0.014890102
-0.00494029 -0.040970914 -0.014890103
-0.005114052 -0.041141581 0.014890102
-0.0028578746 -0.041007057 -0.014890101
-0.0028194026 -0.040717743 0.014890101
-0.0010221966 -0.041068379 -0.014890102
-0.00092896307 -0.041012447 0.014890103
0.00094269798 -0.04102071 -0.014890103
0.0012229491 -0.041113704 0.014890101
0.0028995371 -0.040926199 -0.014890101
0.0029547999 -0.04095073 0.014890103
0.0050198603 -0.040958352 -0.014890102
0.0050063455 -0.041098952 0.014890102
0.0069264728 -0.040926203 -0.014890102
0.006894534 -0.040852658 0.014890102
0.0088253822 -0.040795397 -0.014890099
0.0087853335 -0.040952388 0.014890103
0.011150968 -0.040757824 -0.014890102
0.010939364 -0.040941227 0.014890102
0.012885016 -0.040981755 -0.014890102
0.012957935 -0.04098092 0.014890102
0.014542422 -0.040972777 -0.014707537
0.014890103 -0.041123237 -0.01330294
0.014890103 -0.040709052 -0.010798734
0.014890101 -0.040940348 -0.0088064037
0.014890102 -0.040950041 -0.0068605551
0.014890102 -0.041191779 -0.0049671801
0.014890101 -0.040928848 -0.0030900906
0.014890102 -0.041058611 -0.0010311113
0.014890101 -0.041011985 0.0012786245
0.014890102 -0.041211378 0.0028998209
0.014890101 -0.041176014 0.005110601
0.014890102 -0.04097449 0.0071131438
0.014890101 -0.041001234 0.0088298181
0.014890101 -0.041140147 0.010762932
0.014890103 -0.040878858 0.013186648
0.01478322 -0.041116141 0.014533547
-0.014740318 -0.039061479 -0.014568961
-0.014890101 -0.039114956 -0.013010039
-0.014890103 -0.038842808 -0.010915073
-0.014890102 -0.039015841 -0.0090999221
-0.014890103 -0.039087798 -0.0068742782
-0.014890103 -0.038828563 -0.0050646709
-0.014890102 -0.039120413 -0.0028070728
-0.014890103 -0.038854796 -0.0010788137
-0.014890101 -0.03926523 0.0011707431
-0.014890102 -0.0390651 0.0028032509
-0.014890101 -0.038919754 0.0047186399
-0.014890103 -0.038925298 0.007036224
-0.014890102 -0.039162006 0.0090118386
-0.014890102 -0.038923405 0.010960118
-0.014890102 -0.039369188 0.012998816
-0.014733404 -0.038674567 0.014377374
-0.012999994 -0.03890112 -0.014890103
-0.013014128 -0.039098572 0.014890102
-0.011120483 -0.0389545 -0.014890101
-0.01110575 -0.039052255 0.014890102
-0.0088648554 -0.039031506 -0.014890102
-0.009281653 -0.038903423 0.014890102
-0.0069775945 -0.039024271 -0.014890102
-0.006935901 -0.038980193 0.014890103
-0.0051284391 -0.038864329 -0.014890102
-0.0048626857 -0.038927551 0.014890103
-0.0030259711 -0.038788982 -0.014890101
-0.0030826475 -0.039171197 0.014890101
-0.0009404 -0.038937416 -0.014890103
-0.00096806977 -0.039117713 0.014890102
0.00072864979 -0.039080203 -0.014890101
0.0008556954 -0.038887274 0.014890102
0.0030984839 -0.038788095 -0.014890101
0.0028936376 -0.038933322 0.014890101
0.0048905639 -0.038817961 -0.014890102
0.0048017264 -0.039121896 0.014890102
0.0068754009 -0.038971618 -0.014890102
0.0071550203 -0.039063677 0.014890101
0.0088576647 -0.038839437 -0.014890103
0.0092320656 -0.039085396 0.0148901
0.010926777 -0.038793076 -0.014890101
0.010929482 -0.039235048 0.014890102
0.013117737 -0.03888284 -0.014890101
0.013190302 -0.038823996 0.014890103
0.014500605 -0.039116185 -0.01466381
0.014890101 -0.039357241 -0.013016139
0.014890102 -0.039121889 -0.010980307
0.0148901 -0.038659919 -0.0087023275
0.014890102 -0.039085355 -0.0068803374
0.014890102 -0.038883653 -0.005206557
0.014890102 -0.039019186 -0.0030093023
0.014890101 -0.039028522 -0.0010626048
0.014890102 -0.039078273 0.0011781867
0.014890102 -0.039036043 0.0030072145
0.014890101 -0.038885865 0.0049868636
0.014890103 -0.039172806 0.0067243367
0.014890102 -0.039404027 0.0091325361
0.014890103 -0.039132699 0.010882389
0.014890103 -0.038929462 0.012969318
0.014616072 -0.038800497 0.014757291
-0.014645947 -0.036814395 -0.014713824
-0.014890102 -0.036851268 -0.012977556
-0.014890102 -0.036930997 -0.010989706
-0.014890101 -0.037126668 -0.0090896571
-0.014890102 -0.03690112 -0.0070325532
-0.014890101 -0.036907323 -0.0051753744
-0.014890102 -0.036903303 -0.0029895778
-0.014890102 -0.03691332 -0.00096339604
-0.014890103 -0.037201181 0.0010232825
-0.014890102 -0.036874063 0.0028699911
-0.014890101 -0.037070934 0.0052442588
-0.014890103 -0.036943413 0.0070687896
-0.014890102 -0.036826689 0.0090338374
-0.014890101 -0.037012622 0.011163056
-0.014890102 -0.037205413 0.013052766
-0.014648197 -0.037173115 0.01471623
-0.012875356 -0.03667099 -0.0148901
-0.013260746 -0.037200894 0.014890102
-0.01079949 -0.036994457 -0.014890102
-0.010935722 -0.037128039 0.014890102
-0.0090050735 -0.037076831 -0.014890102
-0.0090465657 -0.037092656 0.014890103
-0.0070382976 -0.036778264 -0.014890099
-0.0069280528 -0.036827561 0.014890102
-0.0050281119 -0.03697703 -0.014890102
-0.0048419223 -0.037135877 0.014890102
-0.0031543139 -0.037027758 -0.014890101
-0.0029075604 -0.037037395 0.014890103
-0.00097717706 -0.037015241 -0.014890102
-0.0010774164 -0.037104506 0.014890102
0.00083651725 -0.036804687 -0.014890102
0.00096317782 -0.037316252 0.014890101
0.0030503392 -0.036887672 -0.0148901
0.0028405888 -0.037158854 0.014890101
0.0050556581 -0.037116583 -0.014890104
0.0049674748 -0.037010983 0.014890102
0.0069665015 -0.036961034 -0.014890101
0.0071951095 -0.036989227 0.014890102
0.0088173244 -0.037011646 -0.014890104
0.0090283612 -0.037247896 0.014890102
0.011180077 -0.036745477 -0.014890102
0.010970056 -0.036876954 0.014890103
0.012972903 -0.03705823 -0.014890102
0.013064211 -0.037050158 0.014890102
0.014643355 -0.037046336 -0.014625675
0.014890102 -0.037239127 -0.012920607
0.014890102 -0.036565017 -0.010919336
0.014890102 -0.037141226 -0.0090303663
0.014890102 -0.036960132 -0.0069089681
0.014890104 -0.037042219 -0.0051191128
0.014890103 -0.036995739 -0.0030990667
0.014890101 -0.036976662 -0.0010425568
0.014890102 -0.037225813 0.00077960733
0.014890102 -0.036871113 0.0029855811
0.014890104 -0.036908653 0.0049078763
0.014890103 -0.036952924 0.006968216
0.0148901 -0.037114423 0.0091230795
0.014890102 -0.037048079 0.010937095
0.014890102 -0.036814343 0.013047535
0.01465609 -0.036838535 0.014781932
-0.014588784 -0.034943841 -0.014790682
-0.014890101 -0.034944367 -0.012910748
-0.014890102 -0.035382163 -0.010943196
-0.014890102 -0.034664068 -0.0090056984
-0.014890102 -0.035081726 -0.0070266686
-0.014890102 -0.0350217 -0.0051614209
-0.014890099 -0.035110753 -0.003611444
-0.014890103 -0.035132259 -0.00082918198
-0.014890102 -0.03514716 0.0010150971
-0.014890102 -0.034958225 0.0029502308
-0.0148901 -0.034659658 0.0055682464
-0.0148901 -0.034823898 0.0070747049
-0.014890102 -0.035009094 0.0088821966
-0.014890099 -0.035427261 0.011001829
-0.014890104 -0.03480427 0.013203558
-0.014664077 -0.035106894 0.014613279
-0.013109624 -0.034972098 -0.014890102
-0.012805096 -0.034878518 0.014890102
-0.011020063 -0.035051525 -0.014890101
-0.011003567 -0.035163026 0.014890102
-0.0090776067 -0.034899093 -0.014890102
