# .PCD v0.7 - Point Cloud Data file format
VERSION 0.7
FIELDS x y z
SIZE 4 4 4
TYPE F F F
COUNT 1 1 1
WIDTH 1238
HEIGHT 1
VIEWPOINT 0 0 0 1 0 0 0
POINTS 1238
DATA ascii
-0.0006130315 -0.16697256 0.0099999988
0.00098957226 -0.16694675 -0.0099999998
0.00077300734 -0.16719447 0.0099999988
0.002854781 -0.16692108 -0.0099999988
0.0031802971 -0.16725151 0.0099999988
0.0051993458 -0.16693377 -0.010000001
0.0049983645 -0.16714163 0.010000001
0.0069246241 -0.16645896 -0.0099999988
0.0070176069 -0.16706285 0.0099999998
0.0095613506 -0.16695982 -0.0094844401
0.0099999998 -0.16713712 -0.0071338522
0.0099999988 -0.16672504 -0.005010826
0.0099999988 -0.16677 -0.0029356251
0.0099999988 -0.16716217 -0.001333511
0.0099999998 -0.16696882 0.00096379721
0.0099999998 -0.16695987 0.0029557312
0.010000001 -0.16708967 0.004975385
0.0099999998 -0.1669466 0.0071015656
0.0094987052 -0.16702846 0.0094488058
0.010000001 -0.16757143 0.0064828242
-0.0095117632 -0.16502987 -0.0095002139
-0.010000001 -0.16493358 -0.0071086893
-0.0099999988 -0.16461404 -0.0045460309
-0.0099999988 -0.16470891 -0.0029388189
-0.010000001 -0.16486241 -0.0010544799
-0.010000001 -0.16512498 0.00076073251
-0.010000002 -0.16511838 0.0029925155
-0.0099999998 -0.16503468 0.0048824456
-0.0099999988 -0.16507334 0.0065062731
-0.0095610674 -0.16502452 0.0095395502
-0.0070535224 -0.16490176 -0.010000002
-0.0071697258 -0.1651582 0.0099999998
-0.0050077001 -0.16527866 -0.010000002
-0.0049449354 -0.16495173 0.010000001
-0.0031479772 -0.16527577 -0.0099999998
-0.0032304814 -0.165108 0.0099999998
-0.0010820957 -0.16511248 -0.010000002
-0.00088022993 -0.16486615 0.010000001
0.0011288255 -0.16504841 -0.0099999998
0.0010816001 -0.16500695 0.0099999988
0.0030837774 -0.16506602 -0.010000001
0.0031812538 -0.16467524 0.0099999998
0.0052215513 -0.16497681 -0.0099999998
0.0049968986 -0.16492289 0.0099999998
0.0068532936 -0.16512534 -0.0099999998
0.00697777 -0.16505426 0.0099999998
0.0093774265 -0.16473643 -0.0094283856
0.010000001 -0.16494103 -0.0071559688
0.010000001 -0.16479386 -0.0047771018
0.0099999998 -0.16490364 -0.0030971591
0.010000001 -0.16483217 -0.001204282
0.0099999998 -0.16515474 0.0011892181
0.010000001 -0.16496581 0.0028592742
0.0099999998 -0.16493858 0.0050133886
0.0099999988 -0.16506472 0.0071025067
0.0096623115 -0.16494434 0.0093975123
-0.0094533153 -0.16308704 -0.009460574
-0.0099999988 -0.16302742 -0.0070119835
-0.010000001 -0.1627849 -0.0050671878
-0.0099999988 -0.16321442 -0.002989721
-0.0099999988 -0.16303921 -0.0011506621
-0.010000002 -0.16297974 0.0013532051
-0.0099999998 -0.16326684 0.0030339055
-0.0099999998 -0.16297789 0.0050528822
-0.0099999998 -0.16235983 0.0075246352
-0.0094918264 -0.16288501 0.0094975512
-0.0068165255 -0.16320349 -0.0099999998
-0.0070463587 -0.16298719 0.010000001
-0.0048901183 -0.16304885 -0.010000001
-0.0050851479 -0.16302718 0.0099999998
-0.0029561759 -0.16321301 -0.0099999988
-0.0031828056 -0.16242659 0.0099999988
-0.0011179234 -0.16289823 -0.010000001
-0.00071363663 -0.16300711 0.0099999988
0.0008212839 -0.16300644 -0.0099999998
0.00096383656 -0.16292638 0.0099999988
0.0032980125 -0.16289429 -0.010000001
0.0030913036 -0.16288531 0.0099999998
0.0050008656 -0.16304831 -0.0099999988
0.0048884777 -0.16277745 0.0099999988
0.0071586259 -0.16291639 -0.010000001
0.0069756992 -0.16301173 0.0099999998
0.00919085 -0.16276683 -0.0097728642
0.0099999988 -0.16300468 -0.0067531979
0.0099999998 -0.16318657 -0.0050177504
0.0099999998 -0.16303563 -0.002617476
0.010000001 -0.16293223 -0.0010922188
0.010000001 -0.16281757 0.00077977742
0.0099999988 -0.16272579 0.0029001618
0.0099999998 -0.16303803 0.0046929321
0.0099999998 -0.16278367 0.0070470311
0.0096959844 -0.16312316 0.0092460094
-0.0095771346 -0.16099603 -0.0095637543
-0.0099999998 -0.16104999 -0.0071997656
-0.0099999998 -0.16117878 -0.0048505347
-0.010000002 -0.16108355 -0.0029939397
-0.0099999998 -0.16119036 -0.00099680549
-0.010000002 -0.16104305 0.0007800688
-0.0099999998 -0.16101485 0.0031845449
-0.010000001 -0.16095966 0.0051321601
-0.0099999998 -0.16081239 0.0071125836
-0.0093221739 -0.1611187 0.0095281238
-0.0072932881 -0.16102083 -0.0099999998
-0.0068186722 -0.16073397 0.0099999998
-0.0053125666 -0.1608928 -0.0099999988
-0.0048764078 -0.16104086 0.0099999998
-0.0031693373 -0.16105998 -0.0099999998
-0.0030744567 -0.16088435 0.010000001
-0.00082994677 -0.1608682 -0.0099999988
-0.0011606275 -0.16104397 0.0099999998
0.00087032025 -0.16102521 -0.0099999998
0.00092721538 -0.16077064 0.010000002
0.0029227063 -0.16102019 -0.010000001
0.0031840226 -0.16113944 0.0099999998
0.0050609359 -0.1610239 -0.0099999998
0.0050424044 -0.16112873 0.010000001
0.0072307852 -0.16104558 -0.010000001
0.0073053576 -0.16101398 0.0099999998
0.0093531534 -0.1607326 -0.0096272519
0.0099999998 -0.16096343 -0.0070575788
0.0099999988 -0.16079025 -0.004913284
0.010000001 -0.16101722 -0.00282075
0.0099999998 -0.16093716 -0.0005713299
0.010000001 -0.16110784 0.0010143616
0.0099999988 -0.16101149 0.002885303
0.0099999988 -0.16113554 0.0049473536
0.0099999998 -0.16083263 0.007055168
0.0095183179 -0.16113086 0.0095683262
0.010000001 -0.16102487 0.0069853552
-0.0097060176 -0.15902996 -0.0094507411
-0.0099999998 -0.15877889 -0.0068547693
-0.0099999988 -0.15921727 -0.0049038935
-0.0099999988 -0.15923689 -0.0029973127
-0.0099999998 -0.15906084 -0.00092291675
-0.010000001 -0.15873384 0.00091637328
-0.0099999988 -0.15889436 0.0029984398
-0.0099999998 -0.15920083 0.0050674812
-0.0099999998 -0.15912776 0.007013421
-0.0094831586 -0.15903659 0.0093792565
-0.0071153576 -0.1592821 -0.0099999988
-0.0071238563 -0.15903814 0.010000001
-0.0049874843 -0.15907426 -0.0099999998
-0.0049594096 -0.1590751 0.0099999988
-0.0027250871 -0.15896687 -0.0099999998
-0.002975734 -0.15909193 0.010000001
-0.00076721341 -0.1590863 -0.0099999988
-0.0011532739 -0.1590459 0.0099999988
0.00078826264 -0.15885334 -0.0099999998
0.00081699464 -0.15913445 0.0099999998
0.0030674727 -0.15912321 -0.0099999998
0.0025449721 -0.15892713 0.0099999998
0.0049035326 -0.15910982 -0.0099999998
0.0049128388 -0.15882811 0.0099999998
0.0069924798 -0.15897961 -0.0099999998
0.0070610046 -0.15881945 0.0099999988
0.0095357504 -0.15897626 -0.0093239062
0.0099999988 -0.15905087 -0.0070120012
0.010000002 -0.15880382 -0.004919163
0.010000002 -0.15869772 -0.0027813518
0.010000002 -0.15900187 -0.0011261419
0.0099999998 -0.15936129 0.0010356911
0.010000001 -0.15893231 0.0030177117
0.0099999988 -0.1589717 0.0048096837
0.0099999988 -0.15888856 0.0070558158
0.0097880475 -0.15897788 0.0093142288
0.010000001 -0.15841497 0.0085244589
-0.0095136119 -0.15701656 -0.0094243148
-0.0099999998 -0.15694271 -0.0070818383
-0.0099999998 -0.15696846 -0.0053986395
-0.0099999998 -0.15714116 -0.0030083675
-0.010000001 -0.15701124 -0.00097728311
-0.010000002 -0.15713701 0.00097216072
-0.0099999988 -0.15694784 0.0032031198
-0.010000002 -0.15703282 0.0050967047
-0.010000001 -0.15705164 0.0068247179
-0.0091994153 -0.1570076 0.0096785165
-0.0067463522 -0.15658855 -0.0099999988
-0.0070631867 -0.15723544 0.010000002
-0.0049450914 -0.15712009 -0.010000001
-0.0050033242 -0.15714045 0.0099999998
-0.0030158991 -0.15735327 -0.0099999998
-0.0031531393 -0.15691952 0.010000002
-0.00095048035 -0.15708955 -0.0099999998
-0.00082738523 -0.1569345 0.0099999998
0.00080108619 -0.1570223 -0.0099999998
0.00092866214 -0.15702087 0.0099999998
0.0032459579 -0.15697253 -0.0099999988
0.0029149642 -0.15705286 0.0099999998
0.0051064231 -0.1569007 -0.0099999998
0.0050313296 -0.15679286 0.0099999988
0.0069643073 -0.15699343 -0.010000001
0.0069874995 -0.1571015 0.0099999998
0.0095728301 -0.15698795 -0.0093029737
0.0099999988 -0.15684865 -0.0071165226
0.0099999998 -0.1570137 -0.0050815693
0.010000002 -0.15718257 -0.0030690369
0.0099999988 -0.15703323 -0.0012021186
0.0099999988 -0.15735157 0.0008477497
0.0099999998 -0.15704732 0.0027125813
0.0099999998 -0.15702869 0.0049640038
0.0099999998 -0.1567722 0.0071064066
0.0096096508 -0.15688032 0.0095914798
0.010000001 -0.15769517 0.0086377021
-0.0094700931 -0.15511675 -0.0094950516
-0.0099999998 -0.15475123 -0.0072548105
-0.0099999998 -0.15506077 -0.0048235185
-0.0099999998 -0.15481821 -0.0031848899
-0.0099999998 -0.15516463 -0.00078298996
-0.0099999998 -0.15496619 0.00078181963
-0.0099999998 -0.15491129 0.0030418271
-0.010000001 -0.15516411 0.0047680121
-0.0099999988 -0.15538099 0.0069240197
-0.0094334986 -0.15474012 0.0096381828
-0.0068802009 -0.15476996 -0.0099999998
-0.0070556933 -0.15489519 0.0099999998
-0.0049395817 -0.15508114 -0.0099999998
-0.0053498829 -0.15508665 0.0099999988
-0.0029036198 -0.15515858 -0.0099999998
-0.0030907867 -0.15499447 0.0099999988
-0.0010766786 -0.15531485 -0.010000001
-0.0011625788 -0.15506636 0.0099999988
0.0010368332 -0.15496361 -0.0099999988
0.0011049419 -0.15520808 0.0099999998
0.0030933351 -0.15511338 -0.0099999998
0.0030135557 -0.15491922 0.010000001
0.0048984047 -0.15512057 -0.0099999998
0.005453439 -0.15525822 0.0099999988
0.0066320444 -0.15499003 -0.0099999998
0.0071717822 -0.15475386 0.010000001
0.0097134216 -0.15503301 -0.0093804039
0.0099999998 -0.1548852 -0.0069632269
0.010000001 -0.15501343 -0.0050104391
0.0099999998 -0.15499106 -0.0029420101
0.0099999998 -0.15494719 -0.0012652774
0.0099999998 -0.15493652 0.0008855777
0.0099999998 -0.15506242 0.0028774438
0.010000001 -0.15497033 0.0051852656
0.0099999988 -0.15525842 0.0067894543
0.0090841549 -0.15493035 0.0096066138
0.010000001 -0.15465274 0.0072714961
0.010000001 -0.15579699 0.0083893435
-0.0096093761 -0.15298393 -0.0093527595
-0.010000001 -0.15297084 -0.0072014974
-0.0099999998 -0.1531807 -0.0052705645
-0.0099999988 -0.1532122 -0.0029517761
-0.0099999988 -0.15302293 -0.0010541847
-0.0099999998 -0.15266863 0.0010659619
-0.010000001 -0.15315951 0.0028950749
-0.0099999998 -0.1531523 0.0050512673
-0.0099999988 -0.15283443 0.0070207799
-0.0096543953 -0.15299514 0.0094400169
-0.0071187457 -0.15307897 -0.0099999988
-0.0069051008 -0.15298542 0.010000001
-0.0053067608 -0.15295142 -0.0099999988
-0.0048267678 -0.15317805 0.0099999998
-0.0030248193 -0.15300372 -0.0099999998
-0.0030389091 -0.15285195 0.0099999998
-0.00099036959 -0.15298204 -0.0099999988
-0.0010070672 -0.15272711 0.010000002
0.0010498707 -0.15282819 -0.0099999988
0.0012322562 -0.15307927 0.0099999988
0.0030272088 -0.15294479 -0.0099999988
0.0029911867 -0.15318738 0.010000001
0.0048524472 -0.15289728 -0.0099999998
0.0049481196 -0.15316427 0.010000001
0.0072775977 -0.15304425 -0.0099999998
0.0071436195 -0.15303537 0.0099999998
0.0095296679 -0.1531437 -0.0092831375
0.0099999998 -0.15287979 -0.0069401809
0.010000002 -0.15294735 -0.0049413219
0.0099999998 -0.15317085 -0.0028918658
0.0099999998 -0.15269311 -0.0010763572
0.0099999998 -0.15318564 0.00072155299
0.0099999998 -0.15279789 0.0029032174
0.0099999988 -0.15316069 0.0050101564
0.0099999988 -0.15298855 0.0069823619
0.0094406251 -0.15286162 0.0094930651
0.010000001 -0.15322091 0.0074894703
0.010000001 -0.15324238 0.0090744002
-0.0093977954 -0.15101215 -0.0096372562
-0.010000001 -0.15104134 -0.0068824715
-0.010000002 -0.15077066 -0.0049458812
-0.0099999998 -0.1511527 -0.00317639
-0.0099999988 -0.1512091 -0.00088185101
-0.010000002 -0.15081677 0.0010100909
-0.0099999988 -0.15102227 0.0030382217
-0.0099999988 -0.15080494 0.0049750591
-0.0099999998 -0.15112358 0.0069990195
-0.009732537 -0.15106417 0.0092495726
-0.0069142152 -0.15073045 -0.0099999998
-0.0068180808 -0.15111029 0.0099999998
-0.0050806561 -0.15093553 -0.0099999988
-0.0051332698 -0.15074557 0.0099999998
-0.0028382153 -0.15123366 -0.0099999998
-0.0032263703 -0.15081136 0.0099999988
-0.00086250249 -0.15095301 -0.010000002
-0.00089299376 -0.15102765 0.0099999998
0.00090395473 -0.15130785 -0.0099999988
0.00089552859 -0.1510791 0.0099999998
0.0031096032 -0.15085867 -0.0099999988
0.0029626898 -0.15112543 0.010000001
0.0050892686 -0.15085214 -0.0099999998
0.0052591157 -0.15086892 0.010000001
0.0067076539 -0.15110502 -0.0099999988
0.0071565285 -0.15077566 0.0099999998
0.0096919667 -0.15093459 -0.0094005857
0.010000001 -0.15097891 -0.0069945375
0.0099999998 -0.15070602 -0.0050633526
0.010000001 -0.15113845 -0.0029435232
0.0099999988 -0.15084143 -0.0010960446
0.0099999988 -0.1510157 0.0011393892
0.0099999998 -0.15121387 0.0030165899
0.010000001 -0.15120339 0.0052138688
0.0099999998 -0.15084188 0.0070714103
0.0096863434 -0.15097107 0.0096614016
-0.0094360523 -0.14895228 -0.0096525764
-0.0099999988 -0.14896052 -0.007139584
-0.010000001 -0.14904933 -0.004939435
-0.0099999988 -0.14941476 -0.0027822314
-0.0099999998 -0.14894302 -0.00078280573
-0.0099999988 -0.14907449 0.0011925632
-0.0099999988 -0.14917187 0.002848235
-0.0099999998 -0.14906317 0.0046380707
-0.010000001 -0.14906755 0.0066318219
-0.0095018549 -0.14895019 0.0093332594
-0.0065630395 -0.14887619 -0.0099999988
-0.0071852608 -0.14886637 0.0099999998
-0.0048969234 -0.14922814 -0.0099999998
-0.0050438195 -0.14893302 0.0099999988
-0.0030766574 -0.1486958 -0.0099999988
-0.0028938961 -0.14923437 0.0099999988
-0.00099003862 -0.14907992 -0.010000002
-0.0013564028 -0.14905185 0.0099999988
0.0012188725 -0.14921544 -0.0099999988
0.00091665523 -0.14882925 0.0099999998
0.0028469663 -0.14914133 -0.010000001
0.0032448338 -0.1491234 0.010000001
0.0050431234 -0.1488729 -0.010000001
0.0051646167 -0.14879631 0.0099999998
0.0069312723 -0.14905356 -0.0099999998
0.0070827515 -0.14906624 0.0099999998
0.009611588 -0.14886987 -0.0095218532
0.0099999998 -0.1489062 -0.0069227624
0.010000001 -0.14907403 -0.0050165495
0.0099999988 -0.14909008 -0.0028976731
0.0099999988 -0.14891367 -0.0010528008
0.0099999998 -0.14901291 0.0010790658
0.0099999998 -0.14882404 0.0030886049
0.010000001 -0.1491053 0.0048828158
0.010000001 -0.14909129 0.0069520525
0.0094304457 -0.14922881 0.0094667692
0.010000001 -0.14806388 0.0075704316
0.010000001 -0.14944266 0.0095226094
-0.0095690219 -0.14702679 -0.0093203057
-0.010000002 -0.14705899 -0.0070262849
-0.010000002 -0.14703251 -0.004840082
-0.0099999998 -0.14687733 -0.0029670917
-0.0099999998 -0.14718117 -0.0010701068
-0.0099999988 -0.14674275 0.0010581331
-0.0099999988 -0.14684318 0.0027268266
-0.010000001 -0.14718735 0.0050372705
-0.0099999988 -0.14684571 0.0068891654
-0.0092993975 -0.14701746 0.0095631061
-0.0069457251 -0.14700632 -0.010000001
-0.0068617491 -0.14715882 0.0099999988
-0.0050634723 -0.14686301 -0.010000001
-0.0051347944 -0.14692374 0.0099999998
-0.0031339598 -0.14711273 -0.0099999988
-0.0029111221 -0.14710674 0.0099999998
-0.00086798769 -0.1469772 -0.010000002
-0.00098645955 -0.14687085 0.0099999988
0.00093311042 -0.1469579 -0.0099999988
0.001337559 -0.14694056 0.0099999988
0.003165168 -0.1469325 -0.010000002
0.0031625631 -0.1471238 0.0099999988
0.0047512772 -0.14680521 -0.0099999998
0.0049410476 -0.1473226 0.0099999988
0.0072157956 -0.14689299 -0.0099999988
0.0070127491 -0.14688976 0.010000002
0.0095092505 -0.14698817 -0.0094918208
0.0099999998 -0.14709884 -0.0067278934
0.0099999988 -0.14703715 -0.0051495847
0.0099999998 -0.1470435 -0.0028983473
0.010000001 -0.14670022 -0.00082850771
0.0099999988 -0.14699839 0.00075227168
0.0099999998 -0.14708951 0.0032322551
0.0099999998 -0.14698663 0.0048955735
0.0099999988 -0.14693004 0.0070970575
0.0092990678 -0.14695175 0.0097714374
0.010000001 -0.14708199 0.0084984582
-0.0094257845 -0.14499801 -0.0096178278
-0.0099999998 -0.14497449 -0.0069675953
-0.0099999988 -0.14484385 -0.0050207437
-0.010000002 -0.1451295 -0.0027814824
-0.0099999998 -0.14506713 -0.00086412596
-0.0099999998 -0.14491445 0.00093524827
-0.0099999988 -0.1451382 0.0030709621
-0.010000002 -0.1449268 0.0048577981
-0.010000002 -0.14504634 0.0072297729
-0.009477132 -0.14492981 0.009588751
-0.0069279247 -0.14508019 -0.0099999998
-0.0069142617 -0.14501531 0.010000001
-0.0051618367 -0.14511503 -0.0099999998
-0.0048638033 -0.14513135 0.0099999988
-0.0028731017 -0.14494544 -0.010000001
-0.0030586668 -0.14488705 0.010000001
-0.00099345122 -0.14478754 -0.0099999988
-0.0010925323 -0.14482516 0.0099999998
0.00099642412 -0.14511299 -0.010000001
0.00085740513 -0.14505529 0.010000002
0.0031741974 -0.14483286 -0.0099999998
0.0030181692 -0.14512125 0.0099999988
0.0048596347 -0.14494912 -0.0099999998
0.0049996069 -0.14532265 0.0099999988
0.0068652476 -0.14506608 -0.010000002
0.0071771005 -0.14504094 0.0099999988
0.0093986774 -0.14510585 -0.0095777912
0.010000001 -0.14497025 -0.0071177841
0.0099999988 -0.14518441 -0.0052286182
0.010000001 -0.14487597 -0.0030010305
0.0099999998 -0.14503102 -0.00080163457
0.0099999988 -0.14512172 0.00083474407
0.0099999988 -0.1447991 0.003135459
0.0099999998 -0.14513227 0.0050097876
0.0099999988 -0.14472313 0.0070710378
0.0093114311 -0.14498505 0.009674402
0.010000001 -0.14465976 0.0093337148
-0.009644893 -0.14302158 -0.0093327677
-0.0099999998 -0.14329682 -0.006999997
-0.0099999988 -0.14286783 -0.0051002353
-0.010000001 -0.14297898 -0.0030549706
-0.0099999988 -0.14277194 -0.001070942
-0.0099999988 -0.14320101 0.00075027131
-0.010000001 -0.14310114 0.0028321852
-0.0099999998 -0.14301734 0.0049956618
-0.0099999998 -0.14269541 0.0070095006
-0.0093917707 -0.14306808 0.0095327068
-0.0067429515 -0.1428047 -0.0099999988
-0.0070392317 -0.14283305 0.0099999998
-0.0050925799 -0.1434606 -0.0099999988
-0.0046904441 -0.14314356 0.010000001
-0.0029819002 -0.14285345 -0.0099999998
-0.0031273207 -0.14317039 0.0099999988
-0.00094380009 -0.14293709 -0.0099999998
-0.00075523608 -0.14275552 0.0099999988
0.00099468033 -0.14298533 -0.010000002
0.0008539136 -0.14291677 0.010000001
0.0030709142 -0.14273429 -0.0099999988
0.0028808133 -0.14320499 0.0099999988
0.0050191293 -0.14290038 -0.0099999998
0.0051593161 -0.1429894 0.0099999988
0.0069440976 -0.14297532 -0.010000002
0.0072185718 -0.14286037 0.010000001
0.0096521256 -0.14320055 -0.0095845982
0.0099999998 -0.14290136 -0.0069051264
0.0099999998 -0.14314847 -0.0049299486
0.010000002 -0.14318147 -0.003119275
0.0099999998 -0.14297946 -0.00097992062
0.0099999998 -0.14304474 0.001242411
0.0099999988 -0.14298563 0.0028673301
0.010000001 -0.1430601 0.0048053944
0.0099999998 -0.14295876 0.0069507812
0.0096826795 -0.14290109 0.0093371989
-0.0093740802 -0.1408612 -0.0093855029
-0.010000001 -0.14080842 -0.0067827371
-0.010000001 -0.14097166 -0.0052274964
-0.0099999998 -0.1411422 -0.0032128638
-0.0099999988 -0.14086032 -0.00062352757
-0.0099999998 -0.1411764 0.00094912539
-0.010000002 -0.14098324 0.0028256751
-0.010000002 -0.14091881 0.005020442
-0.010000001 -0.14096589 0.0070529548
-0.0095837321 -0.14093046 0.0095396023
-0.0070473477 -0.14103036 -0.0099999988
-0.0069637648 -0.14088492 0.010000001
-0.0051256916 -0.14070717 -0.010000001
-0.0051767104 -0.14103529 0.0099999998
-0.0030420122 -0.14105916 -0.0099999988
-0.0032504981 -0.14135931 0.0099999988
-0.00089225563 -0.14077096 -0.010000001
-0.0010162671 -0.14131923 0.010000001
0.00087611174 -0.14112394 -0.0099999998
0.00098855491 -0.1409905 0.0099999988
0.0031995794 -0.14079909 -0.0099999988
0.0030504046 -0.1409898 0.0099999988
0.0050704987 -0.14089338 -0.0099999988
0.0050557028 -0.14104776 0.0099999998
0.007252506 -0.14122975 -0.0099999998
0.0069697215 -0.14086604 0.0099999998
0.0093532084 -0.1410275 -0.009581848
0.0099999998 -0.14120436 -0.0070057251
0.0099999988 -0.14094949 -0.0048459629
0.0099999988 -0.14077675 -0.0031287931
0.0099999998 -0.14115405 -0.0012450962
0.0099999998 -0.14127392 0.00096018059
0.0099999998 -0.14105351 0.002989911
0.0099999998 -0.14092569 0.0046720859
0.0099999988 -0.14093837 0.0070686862
0.0093772989 -0.14107597 0.0094616981
0.010000001 -0.14064492 0.0077545913
0.010000001 -0.1410618 0.0087056644
-0.0094728805 -0.13910428 -0.0094326334
-0.0099999998 -0.13898002 -0.0070451782
-0.010000002 -0.13897611 -0.0049064048
-0.010000001 -0.13900097 -0.0031484009
-0.010000001 -0.13896035 -0.0010470824
-0.010000002 -0.13897185 0.00099427416
-0.0099999998 -0.13920808 0.0030302072
-0.0099999988 -0.13921322 0.0050451141
-0.0099999998 -0.13911362 0.0068286839
-0.0097278804 -0.13915659 0.0093954103
-0.0070332778 -0.13902469 -0.0099999998
-0.0070264838 -0.13881607 0.0099999998
-0.0050792722 -0.1391485 -0.0099999998
-0.004980946 -0.13886349 0.0099999998
-0.0029533296 -0.13899168 -0.0099999998
-0.0032755875 -0.13904957 0.010000002
-0.00099263689 -0.13904251 -0.0099999998
-0.001123857 -0.13869973 0.010000001
0.00083292188 -0.13902913 -0.0099999988
0.0012398914 -0.13899046 0.0099999988
0.0029863848 -0.13903034 -0.0099999988
0.0027233108 -0.13895397 0.0099999988
0.0048785973 -0.13912892 -0.010000001
0.0050919577 -0.13874689 0.0099999988
0.00713953 -0.13898183 -0.0099999998
0.0072072642 -0.1388562 0.0099999988
0.00960836 -0.13879763 -0.0094586564
0.0099999998 -0.13895345 -0.0072230399
0.0099999988 -0.1390858 -0.0049925572
0.0099999998 -0.13914464 -0.0028455716
0.010000001 -0.13894026 -0.00082669669
0.0099999988 -0.13887072 0.0010201611
0.010000001 -0.13907395 0.0031279891
0.0099999998 -0.13886142 0.0051433607
0.0099999998 -0.13898081 0.0068669394
0.0093485471 -0.13919343 0.0095436014
0.010000001 -0.13925901 0.0067895446
0.010000001 -0.13970722 0.0081167808
-0.009565196 -0.13703981 -0.0095233005
-0.0099999988 -0.13707031 -0.0069697211
-0.010000001 -0.13679992 -0.0050603584
-0.0099999998 -0.13699935 -0.0029239554
-0.0099999998 -0.13699876 -0.00095107011
-0.010000001 -0.13695112 0.0010611836
-0.0099999988 -0.13668498 0.0030268636
-0.010000001 -0.13715217 0.0051004724
-0.010000001 -0.13703944 0.0069895536
-0.0095309662 -0.13712105 0.0093931397
-0.0067136637 -0.13714342 -0.010000001
-0.0069806734 -0.13709722 0.0099999998
-0.0048616291 -0.13715346 -0.010000001
-0.0051018735 -0.13689029 0.0099999988
-0.0030761815 -0.13698357 -0.0099999998
-0.0031015086 -0.1366661 0.0099999988
-0.00099938828 -0.13733278 -0.0099999998
-0.000950941 -0.13703847 0.010000001
0.00084919372 -0.13693273 -0.0099999988
0.00094662618 -0.13645487 0.0099999998
0.0030133815 -0.13685396 -0.010000001
0.0031423217 -0.13702114 0.010000002
0.0047083558 -0.13713159 -0.010000002
0.004802925 -0.13711306 0.010000001
0.0070605432 -0.13690868 -0.0099999998
0.0069131553 -0.13711534 0.0099999998
0.0094988039 -0.13702804 -0.0094139809
0.010000001 -0.13688463 -0.0069814962
0.0099999998 -0.13699861 -0.0046107629
0.0099999998 -0.13701202 -0.0028985653
0.0099999998 -0.13699341 -0.0010903316
0.0099999998 -0.13695994 0.0011349992
0.0099999998 -0.13706002 0.0029445773
0.0099999998 -0.137041 0.0047742021
0.0099999998 -0.13711727 0.0067590354
0.0094400635 -0.13704418 0.0095360354
-0.0093829157 -0.13489445 -0.0096381428
-0.010000002 -0.13480772 -0.0068541537
-0.0099999998 -0.13500357 -0.0048294198
-0.010000001 -0.13517423 -0.0027378511
-0.010000001 -0.13497366 -0.0011290612
-0.0099999988 -0.13530029 0.0007937621
-0.0099999988 -0.13468575 0.0027885032
-0.010000001 -0.13509847 0.0050902804
-0.0099999988 -0.13496739 0.0068917796
-0.0096363975 -0.13489807 0.0093824873
-0.0071336166 -0.13522169 -0.0099999988
-0.006916122 -0.13525948 0.0099999998
-0.0048616803 -0.13492291 -0.010000001
-0.0046482924 -0.13522545 0.0099999988
-0.0029441437 -0.13516667 -0.0099999998
-0.0030717521 -0.134905 0.0099999998
-0.00096167868 -0.13511173 -0.010000001
-0.00088504556 -0.13505873 0.0099999998
0.00097458734 -0.13477495 -0.010000002
0.00087723311 -0.13495904 0.010000001
0.002839044 -0.13497874 -0.0099999998
0.0028085881 -0.13495483 0.0099999998
0.0050458456 -0.13483426 -0.010000001
0.004975161 -0.1351829 0.0099999988
0.0069655715 -0.13514072 -0.0099999988
0.0072509958 -0.13500829 0.0099999998
0.0094533833 -0.13486801 -0.0094686281
0.0099999988 -0.13515729 -0.0068074865
0.010000001 -0.13495101 -0.0050220317
0.0099999988 -0.1347982 -0.002955575
0.0099999988 -0.13490629 -0.00089519267
0.0099999998 -0.13510036 0.0010352498
0.0099999988 -0.13513617 0.0027386891
0.010000001 -0.13481177 0.0048579848
0.010000001 -0.13485688 0.0069148601
0.0093494095 -0.13503592 0.009643551
0.010000001 -0.1352879 0.0080745565
-0.009448274 -0.13305844 -0.0095702456
-0.010000001 -0.13291158 -0.0069848406
-0.0099999988 -0.13336432 -0.0050009936
-0.0099999988 -0.13286276 -0.0028406277
-0.010000002 -0.13304456 -0.0010809357
-0.0099999988 -0.13282414 0.0011175522
-0.0099999988 -0.13283847 0.0028269957
-0.0099999998 -0.13307796 0.0047558844
-0.010000001 -0.1331951 0.0068272911
-0.0095496746 -0.13323432 0.0096249068
-0.0070652897 -0.13302812 -0.010000001
-0.0068375305 -0.1332331 0.0099999998
-0.005146774 -0.13279386 -0.0099999988
-0.0047371895 -0.13295434 0.0099999998
-0.0029178984 -0.13311364 -0.0099999998
-0.0029275271 -0.13271412 0.010000001
-0.00099023466 -0.13313061 -0.0099999998
-0.001038481 -0.1330409 0.010000002
0.0011648956 -0.13323098 -0.010000001
0.0011172232 -0.13302575 0.0099999998
0.0030811112 -0.13296904 -0.0099999998
0.0030027686 -0.13312748 0.0099999998
0.0049170214 -0.13303131 -0.0099999998
0.0050216238 -0.13317053 0.0099999998
0.0073298244 -0.13297789 -0.0099999988
0.0069861421 -0.13329434 0.010000001
0.0092563154 -0.13284877 -0.009740402
0.0099999998 -0.13311917 -0.0069425926
0.0099999998 -0.13298054 -0.0049679303
0.0099999998 -0.13297792 -0.0026864235
0.010000002 -0.13300157 -0.00099837803
0.010000001 -0.13296847 0.0011582978
0.0099999988 -0.1330841 0.0029287031
0.0099999988 -0.13290735 0.0049682283
0.0099999988 -0.13314648 0.0071154488
0.0094718365 -0.1330687 0.0095572043
0.010000001 -0.13272616 -0.008748333
-0.0095659234 -0.13114762 -0.009540855
-0.0099999988 -0.13057934 -0.0072095916
-0.010000001 -0.13112938 -0.0050058672
-0.010000002 -0.13095514 -0.0029528753
-0.0099999998 -0.13102898 -0.0010499655
-0.010000002 -0.13113345 0.000847043
-0.0099999998 -0.1312203 0.0030176218
-0.0099999988 -0.13090882 0.0053329412
-0.0099999988 -0.13103515 0.0071196267
-0.0093827853 -0.13097104 0.0097244522
-0.0068939649 -0.13084385 -0.0099999988
-0.0069544795 -0.13129 0.0099999988
-0.0048669376 -0.13084483 -0.010000001
-0.0052046031 -0.13119325 0.0099999998
-0.0028354949 -0.13083662 -0.010000001
-0.0029478143 -0.13091552 0.010000001
-0.0011155002 -0.13112716 -0.0099999988
-0.001080265 -0.13099934 0.0099999998
0.0011652746 -0.13077958 -0.0099999998
0.001116066 -0.13094065 0.010000002
0.0029290887 -0.13104793 -0.010000001
0.002932281 -0.13074966 0.010000002
0.0048115514 -0.13101067 -0.010000001
0.0053929407 -0.1312083 0.0099999988
0.0072816568 -0.13080844 -0.0099999988
0.0071169226 -0.13113321 0.0099999988
0.0096782073 -0.13099054 -0.009316165
0.0099999998 -0.13069323 -0.0070004733
0.0099999998 -0.13098373 -0.0051654628
0.0099999988 -0.13123578 -0.0027586892
0.0099999988 -0.13094227 -0.0008359059
0.0099999998 -0.13117436 0.00078456022
0.010000001 -0.13099739 0.0030462241
0.0099999998 -0.13105127 0.0049372325
0.0099999988 -0.13124041 0.0072474885
0.0095336195 -0.13105103 0.009572533
-0.0095399339 -0.12891307 -0.0094661759
-0.0099999998 -0.12916228 -0.0070315283
-0.0099999998 -0.12898073 -0.0049375705
-0.010000002 -0.12893002 -0.0031706817
-0.010000001 -0.12901463 -0.0011709855
-0.0099999988 -0.12917358 0.0010224187
-0.0099999998 -0.12900706 0.003062557
-0.0099999988 -0.1291794 0.0050579733
-0.0099999988 -0.12877205 0.0069823242
-0.0095002605 -0.12894876 0.0095838346
-0.0070646033 -0.1292688 -0.010000002
-0.0070846649 -0.12896399 0.010000002
-0.0050312108 -0.1288503 -0.010000001
-0.0049072737 -0.12908976 0.010000002
-0.0028450652 -0.12883945 -0.010000001
-0.003009778 -0.12924705 0.010000001
-0.00080010289 -0.12912814 -0.0099999998
-0.00106562 -0.12904163 0.010000002
0.00088939286 -0.12897965 -0.0099999998
0.0010751445 -0.12901239 0.0099999998
0.0029422864 -0.12895241 -0.0099999998
0.003148596 -0.12906925 0.0099999998
0.0050832429 -0.12911862 -0.0099999998
0.0051255091 -0.12867658 0.0099999998
0.0070649078 -0.12914655 -0.0099999988
0.0068760207 -0.12882388 0.0099999998
0.0092652859 -0.12886618 -0.0096297255
0.0099999998 -0.12901381 -0.0069266642
0.0099999988 -0.12925242 -0.0049732621
0.0099999988 -0.12900169 -0.0031030504
0.010000001 -0.12900753 -0.00078829151
0.010000001 -0.12915438 0.0011419582
0.0099999998 -0.12886442 0.0029161409
0.0099999988 -0.12931342 0.0050736461
0.0099999998 -0.12897763 0.0070208968
0.0095434589 -0.12884647 0.0094375545
0.010000001 -0.12952419 0.0078214072
-0.009414549 -0.12695271 -0.0095633613
-0.0099999988 -0.12688853 -0.0070995288
-0.010000002 -0.12671207 -0.0050299834
-0.0099999998 -0.12713648 -0.002935512
-0.0099999998 -0.12689964 -0.0010252902
-0.0099999988 -0.12696059 0.0008575031
-0.010000001 -0.12717849 0.0027915237
-0.0099999998 -0.12695459 0.0049736449
-0.0099999998 -0.12697919 0.0069066985
-0.0092343036 -0.1270241 0.0095652575
-0.0071158074 -0.12685847 -0.010000002
-0.0071272003 -0.12713288 0.0099999998
-0.0051049003 -0.12710424 -0.010000002
-0.0049492815 -0.1268978 0.010000001
-0.0031126507 -0.12725905 -0.010000001
-0.0032007901 -0.12721463 0.0099999998
-0.00081876904 -0.12679397 -0.0099999998
-0.0011113334 -0.12693872 0.0099999988
0.0013533909 -0.12671153 -0.0099999988
0.0010365224 -0.12713194 0.0099999998
0.0030849152 -0.12720376 -0.0099999998
0.0028474489 -0.12703438 0.010000002
0.0050742468 -0.12677631 -0.0099999988
0.0051323562 -0.12694995 0.0099999988
0.0071574333 -0.12705481 -0.0099999988
0.0069355713 -0.12704758 0.0099999988
0.0095250113 -0.12706541 -0.0096180309
0.0099999998 -0.12698817 -0.0069430284
0.0099999998 -0.12698363 -0.0051268353
0.0099999998 -0.12696433 -0.0031157932
0.010000001 -0.12705576 -0.00088158203
0.0099999998 -0.1270939 0.00095737248
0.0099999988 -0.1265195 0.0026473755
0.0099999998 -0.1267648 0.0049664984
0.010000001 -0.12745364 0.0071752379
0.0095120231 -0.12700875 0.0094701601
0.010000001 -0.12775515 0.0094903205
-0.0095200585 -0.1250363 -0.0095921103
-0.0099999998 -0.12502407 -0.0067375852
-0.010000002 -0.12516047 -0.0051494702
-0.0099999988 -0.12489551 -0.0027984395
-0.0099999998 -0.1252089 -0.0010903215
-0.0099999998 -0.12514709 0.00086583768
-0.0099999988 -0.12493613 0.0027463112
-0.010000001 -0.12471839 0.0049447278
-0.010000001 -0.12491927 0.0071858889
-0.0095724007 -0.12487497 0.0093928203
-0.0068798135 -0.1247788 -0.0099999988
-0.0071226815 -0.12466712 0.0099999988
-0.0050421162 -0.1250698 -0.010000002
-0.0050005862 -0.12482323 0.010000002
-0.0028128105 -0.12529598 -0.010000001
-0.0028201772 -0.12490104 0.010000001
-0.00095622655 -0.12500715 -0.010000001
-0.00076044898 -0.12476399 0.0099999998
0.00093962124 -0.12497194 -0.010000001
0.00097446848 -0.12510078 0.0099999998
0.0029639571 -0.12510653 -0.010000001
0.0030816824 -0.12488148 0.010000001
0.0047306172 -0.12476982 -0.0099999998
0.0050167539 -0.12495629 0.0099999988
0.0068333787 -0.12498884 -0.0099999998
0.0067978152 -0.1250618 0.0099999988
0.0094657447 -0.1250737 -0.0095207067
0.0099999998 -0.12499923 -0.007182268
0.0099999998 -0.12515433 -0.0050967904
0.010000001 -0.1247711 -0.0029266959
0.0099999988 -0.124945 -0.00088292733
0.0099999998 -0.12487572 0.00096344418
0.0099999998 -0.12523377 0.0028369944
0.0099999998 -0.12488684 0.0049613859
0.0099999998 -0.12478547 0.0070355558
0.0095114876 -0.12506704 0.0093761263
0.010000001 -0.12501869 0.0084331091
-0.0093223462 -0.12301823 -0.0096089775
-0.0099999988 -0.12314484 -0.0070626885
-0.0099999998 -0.12321009 -0.0048975321
-0.0099999988 -0.12304233 -0.0027681564
-0.010000001 -0.12298768 -0.00085807784
-0.0099999988 -0.12285063 0.0010247519
-0.0099999998 -0.12266621 0.0030322056
-0.0099999998 -0.12302429 0.0048320279
-0.0099999988 -0.12293055 0.006993033
-0.0095423926 -0.1228428 0.0096566482
-0.0070192064 -0.12280121 -0.0099999998
-0.0071855499 -0.12302743 0.0099999998
-0.0051926891 -0.12294669 -0.0099999988
-0.0050333682 -0.12295799 0.0099999988
-0.0031310306 -0.12304839 -0.010000001
-0.0032313243 -0.1229906 0.0099999998
-0.0011306892 -0.12314992 -0.0099999998
-0.0010107375 -0.1231955 0.0099999988
0.0010009431 -0.12291779 -0.0099999988
0.00098983152 -0.12278321 0.0099999998
0.0029289436 -0.12283851 -0.010000001
0.0028604609 -0.1232912 0.0099999998
0.0051883394 -0.12297725 -0.0099999988
0.0050835731 -0.12301581 0.010000001
0.0069136242 -0.12319407 -0.0099999988
0.0067215213 -0.12324053 0.0099999998
0.0093316566 -0.12296984 -0.0094923032
0.0099999988 -0.12303738 -0.0068503967
0.010000001 -0.12321595 -0.0051599378
0.010000001 -0.12310619 -0.0030147508
0.0099999998 -0.12302173 -0.00097658997
0.010000001 -0.12303902 0.00088293891
0.0099999988 -0.12293275 0.002943089
0.0099999988 -0.12297367 0.0053298809
0.0099999988 -0.12303446 0.0069206748
0.0093344226 -0.1229561 0.0096431803
-0.0095503479 -0.12095247 -0.0093917316
-0.010000002 -0.12100966 -0.0069238362
-0.0099999998 -0.12080654 -0.0048585557
-0.0099999988 -0.12090703 -0.0031070788
-0.0099999998 -0.12098206 -0.00084371917
-0.010000001 -0.12107653 0.00099875312
-0.0099999988 -0.12091541 0.0031606827
-0.0099999988 -0.12099887 0.0051414063
-0.0099999988 -0.12103206 0.0068331296
-0.0097230198 -0.12089363 0.0093305949
-0.0069252145 -0.12126313 -0.010000002
-0.0070643714 -0.1210473 0.0099999988
-0.0051729726 -0.12116533 -0.0099999988
-0.0048437356 -0.12090914 0.0099999998
-0.0031828661 -0.12116992 -0.0099999988
-0.003097187 -0.12098188 0.0099999988
-0.0010090738 -0.12092732 -0.0099999988
-0.00081472838 -0.12113712 0.0099999998
0.00051234732 -0.12089466 -0.0099999998
0.00096265337 -0.12095825 0.0099999998
0.0031475273 -0.12090176 -0.0099999988
0.0028008274 -0.12099525 0.0099999998
0.0050515048 -0.1210646 -0.0099999988
0.0048937942 -0.1209984 0.0099999998
0.0067880736 -0.12138249 -0.0099999988
0.007130031 -0.12103766 0.0099999988
0.0095418775 -0.12105763 -0.0096432483
0.0099999998 -0.12101232 -0.007098468
0.0099999998 -0.12106888 -0.0048699896
0.0099999998 -0.12075488 -0.002916082
0.0099999988 -0.12119309 -0.00094261928
0.0099999998 -0.12094687 0.0011306568
0.0099999998 -0.12102336 0.0029056778
0.0099999998 -0.12094421 0.0049959975
0.0099999988 -0.12094393 0.0072032842
0.0094708586 -0.12085656 0.0094060712
-0.0096484376 -0.11890155 -0.0094280066
-0.0099999998 -0.11892004 -0.0072110468
-0.010000001 -0.11900052 -0.0048266938
-0.0099999998 -0.11871164 -0.002940079
-0.010000002 -0.1190388 -0.0010417885
-0.0099999988 -0.11892539 0.00088076416
-0.0099999988 -0.11920424 0.0028906863
-0.0099999988 -0.11931191 0.0052284496
-0.0099999988 -0.11868613 0.0070986729
-0.009533464 -0.11909809 0.0094911912
-0.0070884428 -0.11918061 -0.010000001
-0.0070683681 -0.11910819 0.010000002
-0.0050159167 -0.11894772 -0.0099999998
-0.0049447678 -0.11890319 0.0099999998
-0.0029124599 -0.11921364 -0.0099999998
-0.0028741234 -0.11892094 0.010000001
-0.0011342774 -0.11896987 -0.0099999998
-0.0008383338 -0.11904957 0.0099999988
0.00066272536 -0.11905451 -0.010000002
0.0013293242 -0.11933556 0.0099999988
0.0027868247 -0.1190303 -0.0099999988
0.0029636787 -0.11903035 0.010000001
0.005153704 -0.11883194 -0.0099999998
0.0049380683 -0.1189753 0.0099999988
0.0071221949 -0.11917596 -0.0099999998
0.0068565854 -0.11894131 0.0099999998
0.0096007464 -0.11893056 -0.0092988089
0.010000002 -0.11898319 -0.0068464391
0.0099999998 -0.1193549 -0.004912117
0.010000001 -0.11889438 -0.0029280463
0.0099999998 -0.11916316 -0.0010507866
0.0099999998 -0.11900608 0.00079516938
0.010000001 -0.11874284 0.003239254
0.0099999998 -0.11902175 0.0050606742
0.0099999988 -0.11867966 0.0067592561
0.0096373344 -0.11903197 0.0095513323
-0.0094909305 -0.11695652 -0.0095170913
-0.010000002 -0.11714549 -0.0070279036
-0.010000001 -0.11690385 -0.0052010925
-0.0099999988 -0.11730051 -0.0028325319
-0.0099999998 -0.11699156 -0.00076343323
-0.0099999988 -0.11697909 0.00085444981
-0.0099999988 -0.11701614 0.0028111821
-0.010000001 -0.11721224 0.0048166611
-0.0099999998 -0.11687949 0.0068190941
-0.0096301483 -0.11713354 0.0093909604
-0.0071279062 -0.1167303 -0.0099999988
-0.0071153385 -0.11704011 0.010000001
-0.005000704 -0.11705334 -0.010000001
-0.0049600597 -0.11692327 0.010000001
-0.0029929245 -0.11697278 -0.0099999998
-0.0027643924 -0.11689275 0.0099999988
-0.0012006991 -0.11697724 -0.0099999998
-0.0012596268 -0.11698594 0.0099999988
0.0011234444 -0.11673498 -0.0099999988
0.001083953 -0.11689953 0.010000001
0.0029881196 -0.11712222 -0.0099999988
0.0031043179 -0.11696277 0.0099999988
0.0048799291 -0.11693072 -0.010000002
0.0047059595 -0.11689929 0.0099999998
0.0072305393 -0.11691378 -0.0099999988
0.007074574 -0.1169895 0.0099999988
0.0095148943 -0.11731213 -0.0094934367
0.0099999988 -0.11701999 -0.0071035372
0.0099999988 -0.11709844 -0.0047213528
0.0099999998 -0.11733961 -0.0029884086
0.0099999988 -0.11691775 -0.00080587197
0.010000001 -0.11711281 0.0012023586
0.0099999998 -0.1170939 0.0031858217
0.010000001 -0.11686128 0.0049813222
0.010000002 -0.1168078 0.0068245837
0.0094680497 -0.11706868 0.0095908279
0.010000001 -0.11620885 0.0075721331
-0.0096038301 -0.1148878 -0.0094231917
-0.0099999998 -0.11486219 -0.0068368413
-0.0099999998 -0.11521211 -0.0050251619
-0.0099999998 -0.11505388 -0.0029983425
-0.0099999998 -0.11506605 -0.00073667767
-0.0099999988 -0.11509624 0.0011706455
-0.0099999988 -0.11477531 0.0029061504
-0.0099999998 -0.11503435 0.0051213219
-0.010000001 -0.11498255 0.0071530654
-0.0096848924 -0.11494203 0.0094518047
-0.0074501703 -0.1154333 -0.0099999988
-0.0073066289 -0.11537421 0.0099999998
-0.0051940167 -0.11493151 -0.0099999988
-0.0048654941 -0.11502522 0.0099999998
-0.0028396 -0.11505204 -0.0099999998
-0.0031568387 -0.11493489 0.0099999998
-0.0011409061 -0.11523069 -0.0099999988
-0.00092766777 -0.1148148 0.010000001
0.0012052442 -0.11505369 -0.0099999988
0.00090563047 -0.11514602 0.0099999998
0.0028772587 -0.11505133 -0.0099999998
0.0029820146 -0.11516673 0.010000001
0.0047029811 -0.11491712 -0.0099999998
0.0050579933 -0.11468118 0.0099999988
0.0069734226 -0.11485802 -0.0099999998
0.0071851625 -0.11501993 0.0099999988
0.009383915 -0.11491624 -0.0094956998
0.0099999998 -0.11525089 -0.0072408188
0.0099999988 -0.11516418 -0.0050774221
0.010000002 -0.11488696 -0.0030764586
0.0099999998 -0.11499444 -0.0011719926
0.010000001 -0.11497071 0.0011236437
0.0099999998 -0.1150925 0.0030302873
0.0099999988 -0.11492608 0.0047963201
0.010000001 -0.11492085 0.006954547
0.0094476631 -0.11515863 0.0096373586
-0.009425181 -0.11310655 -0.0095720114
-0.0099999988 -0.11318602 -0.0071605481
-0.0099999998 -0.11275616 -0.005075241
-0.0099999998 -0.11298884 -0.0028356311
-0.010000001 -0.11295813 -0.00091751461
-0.0099999988 -0.11313801 0.0011080159
-0.0099999988 -0.11290278 0.002917835
-0.0099999998 -0.11293878 0.0048258333
-0.0099999998 -0.11321278 0.0072551211
-0.0096129738 -0.11299692 0.0093547739
-0.006872477 -0.11283682 -0.0099999998
-0.0069913114 -0.1130609 0.010000002
-0.0049310438 -0.11260787 -0.0099999998
-0.0052729645 -0.11300571 0.010000001
-0.0029473773 -0.11275692 -0.0099999988
-0.0030154064 -0.11293168 0.010000002
-0.00099109823 -0.11281268 -0.010000002
-0.00083987718 -0.11295248 0.0099999998
0.0012179824 -0.11273346 -0.0099999998
0.00086901989 -0.11261846 0.0099999988
0.0029298766 -0.11299254 -0.0099999998
0.002899976 -0.11284639 0.010000002
0.0049666106 -0.11275229 -0.0099999988
0.0045537269 -0.11312141 0.0099999998
0.0072757653 -0.11311203 -0.0099999998
0.0070029506 -0.11293014 0.0099999988
0.0093823643 -0.11322732 -0.0096776523
0.0099999988 -0.11322438 -0.0070574237
0.0099999998 -0.11307216 -0.0050118268
0.0099999988 -0.11302029 -0.0034170095
0.0099999988 -0.1130154 -0.0010825413
0.0099999998 -0.11312135 0.0008787564
0.0099999998 -0.11318997 0.002826568
0.0099999998 -0.11341955 0.0047636698
0.0099999988 -0.11311252 0.0070918747
0.0094567779 -0.11292908 0.0094907181
0.010000001 -0.11316008 0.0076604215
-0.0093966322 -0.11091743 -0.0095314365
-0.0099999998 -0.11067221 -0.0070534684
-0.0099999988 -0.11125828 -0.005295462
-0.0099999998 -0.11092825 -0.0030692781
-0.0099999988 -0.11108232 -0.0011559447
-0.0099999998 -0.11112541 0.0010339357
-0.010000001 -0.11098649 0.0028749465
-0.0099999998 -0.11095626 0.0051335813
-0.0099999998 -0.11091829 0.0068778452
-0.0097040785 -0.11123326 0.0092074908
-0.0068856883 -0.11109053 -0.0099999998
-0.0070160809 -0.11111011 0.010000001
-0.0048820321 -0.11097874 -0.0099999998
-0.0050042663 -0.11119851 0.0099999998
-0.0032764836 -0.11100338 -0.0099999998
-0.0027471953 -0.1109531 0.0099999998
-0.0012213944 -0.11091742 -0.0099999998
-0.0010395132 -0.11092283 0.0099999988
0.0012725665 -0.11079592 -0.0099999988
0.0008787674 -0.11106537 0.010000001
0.0030110239 -0.11124303 -0.0099999998
0.0030993677 -0.11078744 0.010000001
0.004753361 -0.11106893 -0.010000001
0.0050160643 -0.11063777 0.010000002
0.0071359486 -0.11098596 -0.0099999988
0.0068614208 -0.111349 0.010000001
0.0094376123 -0.1110067 -0.0095635718
0.0099999988 -0.11109735 -0.0073861917
0.0099999998 -0.11080773 -0.0052148472
0.0099999988 -0.11127203 -0.0029518574
0.010000001 -0.11093398 -0.0010331991
0.010000001 -0.11102378 0.00099824381
0.0099999998 -0.11114664 0.0029464946
0.0099999988 -0.11111115 0.00517753
0.0099999998 -0.11103526 0.0069088521
0.0094310641 -0.11103242 0.0095955422
0.010000001 -0.11137244 0.0099057015
-0.0094461273 -0.10893604 -0.0094914818
-0.010000002 -0.10895082 -0.0070005939
-0.0099999988 -0.10949211 -0.0052212756
-0.010000001 -0.10893374 -0.0030069822
-0.0099999988 -0.10897338 -0.00087687047
-0.0099999988 -0.10911854 0.00077556702
-0.0099999988 -0.10895482 0.0032251249
-0.0099999998 -0.10887571 0.0050640018
-0.0099999998 -0.10882239 0.0069211577
-0.009436897 -0.10905427 0.0095528644
-0.0068627838 -0.10884736 -0.010000001
-0.0071815043 -0.10916395 0.0099999998
-0.005028062 -0.10881458 -0.010000001
-0.0049196072 -0.10879308 0.0099999998
-0.0031643882 -0.10906114 -0.0099999988
-0.0029289864 -0.10891784 0.0099999998
-0.0010179098 -0.10896559 -0.010000001
-0.0012738259 -0.10896923 0.0099999988
0.0011820821 -0.10931869 -0.0099999998
0.001109374 -0.10915662 0.0099999998
0.003078036 -0.10901123 -0.010000001
0.0031234708 -0.10902224 0.010000002
0.0049250191 -0.10889477 -0.0099999998
0.0047634626 -0.10898831 0.0099999998
0.0069782883 -0.10890197 -0.010000002
0.0070169689 -0.10919145 0.0099999998
0.0092754075 -0.10892174 -0.0095561575
0.0099999998 -0.10889094 -0.0068960148
0.0099999998 -0.10875495 -0.0048200767
0.010000001 -0.10880427 -0.0030367915
0.010000001 -0.10885773 -0.0009132984
0.0099999998 -0.10906478 0.0011683466
0.0099999998 -0.10914893 0.0031919456
0.0099999998 -0.10922394 0.0048936061
0.0099999988 -0.10910032 0.0071610087
0.0093498034 -0.10892428 0.009622436
-0.0094724689 -0.10689896 -0.0096055176
-0.0099999988 -0.10694737 -0.0069687446
-0.0099999998 -0.10687619 -0.004808079
-0.0099999988 -0.1071224 -0.0030980892
-0.0099999998 -0.10704033 -0.0010860936
-0.0099999988 -0.10720458 0.00090996531
-0.0099999998 -0.10691849 0.0029654042
-0.0099999988 -0.10706173 0.0048187347
-0.0099999988 -0.10699624 0.0074246684
-0.009366449 -0.10696959 0.0096470052
-0.0069701942 -0.10696065 -0.0099999988
-0.0070475703 -0.10728446 0.0099999998
-0.0051099928 -0.10687663 -0.010000002
-0.0049995617 -0.10693008 0.010000001
-0.0029558253 -0.10700824 -0.010000002
-0.0031972895 -0.1070505 0.0099999988
-0.0013094131 -0.1068799 -0.0099999988
-0.00085960404 -0.10680105 0.0099999998
0.0011758296 -0.10687573 -0.0099999988
0.0013090387 -0.10694877 0.0099999998
0.0029449789 -0.10694467 -0.0099999988
0.0029312538 -0.10700064 0.010000002
0.0049374048 -0.10710809 -0.010000001
0.0050530359 -0.10707673 0.0099999998
0.0068649221 -0.1067661 -0.0099999998
0.0070082098 -0.10679217 0.0099999998
0.0096028764 -0.10701837 -0.0095025925
0.010000002 -0.10692976 -0.007036129
0.010000001 -0.10694826 -0.0049606306
0.0099999988 -0.10672958 -0.0032179316
0.0099999998 -0.10708091 -0.00095709087
0.0099999998 -0.10721128 0.0010197824
0.0099999988 -0.10709744 0.0029111947
0.0099999988 -0.10657904 0.005112865
0.0099999988 -0.10689975 0.0069545773
0.0096002063 -0.10692081 0.0094865449
-0.0097120171 -0.10505091 -0.0093431845
-0.010000002 -0.10467356 -0.0072112079
-0.0099999998 -0.10502201 -0.0049904422
-0.0099999998 -0.10488064 -0.0030620876
-0.0099999998 -0.1050166 -0.00078284519
-0.0099999988 -0.1049384 0.00097136106
-0.010000001 -0.10512751 0.0029008978
-0.0099999988 -0.10512566 0.0048116045
-0.010000001 -0.10489044 0.0073694652
-0.0095959222 -0.10494984 0.0094086844
-0.0071740774 -0.10502403 -0.010000002
-0.0069369711 -0.10473082 0.010000001
-0.0050238771 -0.10495179 -0.0099999988
-0.0048463824 -0.10510653 0.0099999988
-0.0032012397 -0.10503501 -0.0099999988
-0.0030136872 -0.10490535 0.0099999998
-0.0010068854 -0.10480625 -0.0099999998
-0.0009245947 -0.10500962 0.010000002
0.00091324706 -0.10469895 -0.0099999998
0.0012734983 -0.10504751 0.0099999998
0.0028893091 -0.10500289 -0.0099999998
0.0026938301 -0.1050773 0.010000001
0.0051308437 -0.10505476 -0.010000001
0.0050505758 -0.10528147 0.0099999988
0.0068924534 -0.10497954 -0.0099999988
0.0069009559 -0.10508871 0.0099999988
0.0095509673 -0.10500135 -0.0095799081
0.0099999998 -0.10475285 -0.00707197
0.010000002 -0.10487988 -0.004943077
0.010000001 -0.10517571 -0.0028196983
0.010000002 -0.10499714 -0.00096728595
0.010000001 -0.10496414 0.0011125935
0.0099999998 -0.10479717 0.0027966697
0.010000001 -0.10487601 0.0049446691
0.0099999998 -0.10517936 0.0070453258
0.0094947657 -0.10503064 0.0094159292
-0.0093988674 -0.10299712 -0.0096556861
-0.0099999988 -0.10311827 -0.0069828341
-0.010000001 -0.10312197 -0.0051489994
-0.010000001 -0.10282119 -0.0029609958
-0.0099999988 -0.10281638 -0.0010228032
-0.010000002 -0.10301371 0.0010643885
-0.0099999988 -0.10288385 0.0029269138
-0.0099999988 -0.10295682 0.0052504381
-0.010000002 -0.10274527 0.0070182662
-0.0094800713 -0.10301154 0.0095242402
-0.0067349821 -0.10288341 -0.010000001
-0.0069509009 -0.10318325 0.0099999988
-0.0050990637 -0.1028114 -0.010000001
-0.0049815816 -0.10297612 0.010000002
-0.0030412844 -0.10309052 -0.0099999998
-0.0032255745 -0.10295338 0.0099999998
-0.00098822417 -0.10293053 -0.010000001
-0.0008888928 -0.10311249 0.0099999998
0.0011691113 -0.10297453 -0.010000001
0.0010620377 -0.10319836 0.010000001
0.0029861189 -0.10307576 -0.0099999998
0.0031104875 -0.10315893 0.0099999998
0.0051263003 -0.10309272 -0.0099999998
0.0050729457 -0.10294044 0.0099999988
0.0069970558 -0.10295724 -0.0099999988
0.0070886998 -0.10288548 0.0099999998
0.0094381105 -0.10286342 -0.0094752982
0.0099999998 -0.10282378 -0.0070151021
0.0099999998 -0.10308309 -0.0051078182
0.0099999998 -0.10301117 -0.0027811315
0.0099999988 -0.10299683 -0.0008399323
0.010000001 -0.10300434 0.00078206544
0.0099999998 -0.10307096 0.002957898
0.0099999998 -0.1029637 0.0049399571
0.0099999988 -0.10321206 0.0067933276
0.0096278107 -0.1029748 0.0093887569
-0.0094113145 -0.10096551 -0.0096356254
-0.0099999998 -0.10123574 -0.0072188866
-0.0099999988 -0.1010957 -0.0052486435
-0.0099999988 -0.10079251 -0.0034067421
-0.010000002 -0.10096161 -0.0011780772
-0.0099999988 -0.10069433 0.0010199074
-0.0099999998 -0.10103423 0.0029647662
-0.0099999988 -0.10111296 0.0048606331
-0.0099999988 -0.10098974 0.0070723193
-0.0094813649 -0.10097801 0.0095415069
-0.0067846915 -0.10092641 -0.0099999998
-0.0070860279 -0.10097086 0.0099999998
-0.0050370223 -0.10122461 -0.0099999998
-0.0047041504 -0.10102362 0.0099999998
-0.0028796089 -0.10101018 -0.0099999998
-0.0032879054 -0.10086296 0.0099999998
-0.00089902361 -0.10084286 -0.0099999988
-0.00095095683 -0.10100865 0.0099999988
0.00097654277 -0.10075696 -0.0099999988
0.0010424902 -0.10089213 0.010000001
0.0027979754 -0.10111923 -0.010000001
0.0031359384 -0.1011457 0.010000002
0.004382343 -0.10077281 -0.0099999988
0.004968246 -0.10072906 0.010000001
0.0069116191 -0.10098846 -0.010000002
0.0071626822 -0.10109305 0.0099999998
0.0095024258 -0.1009908 -0.0093591185
0.0099999988 -0.10081803 -0.0070657376
0.0099999988 -0.10096524 -0.004764514
0.0099999998 -0.10121617 -0.0028995213
0.0099999998 -0.10086726 -0.0010056057
0.0099999988 -0.10126485 0.00097995915
0.0099999988 -0.10121739 0.0028569908
0.0099999988 -0.10096842 0.0048723663
0.0099999998 -0.10080206 0.006939596
0.0095325224 -0.10099029 0.0096384184
-0.0096043376 -0.098858222 -0.0094157513
-0.010000002 -0.098934047 -0.0070452569
-0.010000001 -0.098893791 -0.0052732984
-0.0099999988 -0.099259011 -0.0027357859
-0.0099999988 -0.098965943 -0.00086483109
-0.0099999998 -0.098862782 0.0012579156
-0.0099999998 -0.099528804 0.0026198444
