# .PCD v0.7 - Point Cloud Data file format
VERSION 0.7
FIELDS x y z
SIZE 4 4 4
TYPE F F F
COUNT 1 1 1
WIDTH 1284
HEIGHT 1
VIEWPOINT 0 0 0 1 0 0 0
POINTS 1284
DATA ascii
-0.0035271319 0.053604867 -0.23019698
-0.0026142776 0.053761713 -0.23019701
-0.0013802781 0.053435195 -0.230197
-0.00036379238 0.053330712 -0.230197
0.00031992831 0.053300254 -0.230197
0.0017843889 0.053484965 -0.23019701
0.0025254218 0.05316323 -0.23019701
0.0032777002 0.053306427 -0.230197
0.0042222617 0.053575609 -0.23019701
0.0051451284 0.053431179 -0.230197
0.0065261181 0.053603206 -0.23019697
0.0085750874 0.053267945 -0.23019698
0.0097104348 0.053402718 -0.2303347
-0.0095036952 0.05442309 -0.23038808
-0.0085503459 0.054470889 -0.230197
-0.0077957343 0.05437443 -0.23019701
-0.0064730532 0.054546244 -0.23019698
-0.0054644351 0.054497816 -0.230197
-0.0044832248 0.05452479 -0.23019701
-0.0034681796 0.054525182 -0.23019698
-0.0022835415 0.054522187 -0.230197
-0.0017123017 0.054522928 -0.230197
-0.00076728861 0.05456394 -0.230197
0.00043789158 0.054019324 -0.230197
0.0015096802 0.054489661 -0.23019701
0.0022373053 0.054620083 -0.23019698
0.0036947243 0.054491218 -0.230197
0.0044430578 0.05438764 -0.230197
0.0055084671 0.0542529 -0.23019701
0.0066196229 0.054806747 -0.23019698
0.0077181375 0.054637663 -0.230197
0.0083625931 0.054432161 -0.230197
0.009800001 0.054298218 -0.23044372
-0.0096634794 0.055403318 -0.2304197
-0.00833253 0.055775389 -0.230197
-0.0077191708 0.055455662 -0.230197
-0.0063839788 0.055367928 -0.23019701
-0.005394958 0.055695262 -0.23019701
-0.0046419236 0.055572536 -0.230197
-0.0033682985 0.055649273 -0.230197
-0.0024518117 0.055365186 -0.230197
-0.0011103011 0.055190243 -0.230197
-0.00083743664 0.055551149 -0.230197
0.00038916658 0.055262804 -0.230197
0.0014031405 0.055554837 -0.230197
0.0025655015 0.055556539 -0.23019697
0.0035005573 0.055217192 -0.23019698
0.0044327369 0.055800129 -0.230197
0.005587819 0.055457287 -0.23019701
0.0063472674 0.055220999 -0.230197
0.0076325778 0.05539649 -0.23019698
0.0084027145 0.055524044 -0.23019698
0.0097540393 0.055530373 -0.23031449
-0.0097764023 0.056529038 -0.23057026
-0.0086827474 0.056590445 -0.230197
-0.0075804759 0.056595631 -0.230197
-0.0065210909 0.056857523 -0.230197
-0.005208727 0.056158856 -0.230197
-0.0045284308 0.056459703 -0.230197
-0.0033910417 0.056693874 -0.230197
-0.0026599404 0.056674775 -0.230197
-0.0016234461 0.056436121 -0.230197
-0.00046334541 0.056561328 -0.230197
0.00069498667 0.056524526 -0.23019701
0.0018535713 0.056521613 -0.23019701
0.0027459897 0.056510299 -0.23019698
0.0035589579 0.056510575 -0.230197
0.0045500286 0.056617849 -0.23019698
0.0058814138 0.056475334 -0.230197
0.0065203877 0.056705035 -0.230197
0.0075084101 0.056504041 -0.230197
0.0086239139 0.05660376 -0.23019698
0.0094888126 0.056630611 -0.230197
-0.0096839424 0.057410877 -0.2304714
-0.0083100572 0.057720698 -0.230197
-0.0075892126 0.057497006 -0.230197
-0.0063909199 0.057523608 -0.230197
-0.0049260585 0.057749391 -0.23019698
-0.00342298 0.057651259 -0.230197
-0.0028382624 0.05743951 -0.23019698
-0.0015824469 0.05731478 -0.230197
-0.00067010534 0.05742991 -0.230197
0.00077056268 0.057563134 -0.23019698
0.0015896683 0.057352252 -0.230197
0.0021567061 0.057029519 -0.230197
0.0037284477 0.057720158 -0.230197
0.0056519541 0.057476886 -0.230197
0.0064299554 0.057510324 -0.23019698
0.0077855168 0.057144713 -0.23019698
0.0084694065 0.057324223 -0.230197
0.0096288687 0.057334945 -0.2303195
-0.0098890346 0.058527146 -0.23030728
-0.0083783185 0.058389302 -0.23019698
-0.0076885605 0.05857873 -0.230197
-0.0063651679 0.058565006 -0.23019698
-0.0053850771 0.058302902 -0.230197
-0.0045928154 0.058565669 -0.230197
-0.0036478569 0.058364104 -0.23019701
-0.0026106089 0.058155615 -0.230197
-0.0013833152 0.058636885 -0.230197
-0.000627206 0.058652896 -0.230197
0.00059905759 0.058361996 -0.230197
0.0012857304 0.058420867 -0.230197
0.0022392971 0.058482893 -0.23019698
0.0034581919 0.058472443 -0.230197
0.0047160252 0.058981765 -0.23019698
0.0053456402 0.058339667 -0.230197
0.0065392321 0.05825913 -0.23019698
0.0072440039 0.058400188 -0.23019701
0.0085826311 0.058584299 -0.230197
0.0094458312 0.058561377 -0.230197
-0.0097461808 0.059373241 -0.23035799
-0.0083276602 0.059609573 -0.23019701
-0.0074362149 0.059474878 -0.230197
-0.0063856952 0.059522461 -0.230197
-0.0058595762 0.059396882 -0.23019698
-0.0043496653 0.059536114 -0.230197
-0.0035841854 0.059268262 -0.230197
-0.0026495741 0.059338618 -0.230197
-0.0018321922 0.059297837 -0.23019701
-0.0006543491 0.059917249 -0.230197
0.00029034103 0.059312373 -0.23019698
0.0014933248 0.059305273 -0.230197
0.0021868045 0.05962 -0.230197
0.0032811179 0.059375025 -0.23019701
0.004703721 0.059183653 -0.230197
0.0054827649 0.059487183 -0.230197
0.0068864748 0.059590548 -0.230197
0.0075234389 0.059444714 -0.230197
0.0086049717 0.059502989 -0.230197
0.0098748198 0.059319794 -0.23038466
-0.0096881827 0.060628425 -0.23042898
-0.0087263957 0.060333468 -0.230197
-0.0072617703 0.060491551 -0.23019701
-0.0064883027 0.060357649 -0.230197
-0.0054638153 0.06064678 -0.230197
-0.0044386657 0.060504101 -0.23019698
-0.0032466918 0.060501941 -0.23019698
-0.0026354934 0.060436003 -0.23019701
-0.0014101791 0.060270652 -0.230197
-0.00038409917 0.060456436 -0.230197
0.00041410822 0.060593713 -0.230197
0.0013820881 0.060594097 -0.23019698
0.0025888486 0.060444817 -0.23019697
0.0035717278 0.060486205 -0.23019698
0.0047235722 0.060582217 -0.23019698
0.0053409021 0.060382634 -0.230197
0.006437059 0.060421314 -0.230197
0.0074117072 0.060497597 -0.230197
0.0083410814 0.060792707 -0.23019701
0.0096414229 0.060565215 -0.23040354
-0.0097428067 0.061251175 -0.2305125
-0.0084776795 0.061895218 -0.230197
-0.0075949985 0.061567184 -0.230197
-0.006278825 0.061033957 -0.23019701
-0.0056059998 0.061611217 -0.23019698
-0.0044736783 0.061611891 -0.23019698
-0.0032447013 0.061319329 -0.23019698
-0.0022029225 0.061206259 -0.23019698
-0.0015091043 0.061390989 -0.230197
-0.00043530724 0.061487895 -0.230197
0.00020936131 0.061134629 -0.230197
0.0013323416 0.061552286 -0.230197
0.0025122862 0.061755862 -0.230197
0.0036870062 0.061501324 -0.230197
0.0045793364 0.061615452 -0.23019698
0.0055900007 0.061515622 -0.230197
0.0065310635 0.061801441 -0.230197
0.0076084216 0.061176173 -0.23019698
0.0087451693 0.061336365 -0.230197
0.0096586514 0.061360329 -0.230197
-0.009753312 0.062343881 -0.23034333
-0.0084700054 0.062628381 -0.23019701
-0.0074307676 0.06224497 -0.230197
-0.0063015642 0.062585093 -0.230197
-0.0052544521 0.062331509 -0.230197
-0.0042697871 0.062187608 -0.230197
-0.003480589 0.06225694 -0.23019701
-0.0029333318 0.062301785 -0.23019701
-0.0014445618 0.062511258 -0.230197
-0.00056934147 0.06235116 -0.23019698
0.00024147227 0.062630378 -0.230197
0.0015223937 0.06250336 -0.230197
0.0026044301 0.062654532 -0.230197
0.0035738668 0.062558807 -0.23019698
0.0044744899 0.062620349 -0.23019698
0.0055576689 0.062749349 -0.230197
0.0066134711 0.062402517 -0.230197
0.0073481048 0.062525287 -0.230197
0.0083199525 0.06253013 -0.23019698
0.0098246001 0.062491678 -0.23035578
-0.0097322017 0.063412689 -0.23047419
-0.0088057006 0.063474186 -0.230197
-0.0074887462 0.063376926 -0.230197
-0.0064261002 0.063573837 -0.23019698
-0.0055981614 0.063291244 -0.23019701
-0.00423832 0.063539289 -0.23019701
-0.003553916 0.06357488 -0.230197
-0.0024923466 0.06352631 -0.230197
-0.0014649103 0.063601136 -0.23019698
-0.00054350018 0.063649856 -0.230197
0.00068369834 0.06360364 -0.230197
0.0018509461 0.063339256 -0.230197
0.0026417729 0.063400216 -0.230197
0.003315306 0.063430816 -0.230197
0.0043891971 0.063772164 -0.230197
0.0053624292 0.063510165 -0.23019698
0.0061273989 0.063933626 -0.23019698
0.0077190585 0.063598976 -0.230197
0.0086954385 0.063495614 -0.230197
0.0095278872 0.063553512 -0.23025575
-0.0096542453 0.064356498 -0.23026593
-0.0086885691 0.064626478 -0.230197
-0.007509985 0.064486414 -0.23019698
-0.0065087155 0.064901918 -0.23019698
-0.0055089118 0.064201765 -0.23019701
-0.0046849959 0.06474705 -0.23019701
-0.0037825287 0.064935856 -0.23019701
-0.0014539452 0.064482547 -0.230197
-0.00014658645 0.064595371 -0.230197
0.00030847103 0.064276367 -0.230197
0.0013543026 0.064763047 -0.230197
0.0024271565 0.064620316 -0.230197
0.0033689621 0.064374641 -0.23019698
0.0045396849 0.064379491 -0.230197
0.0056107347 0.064556815 -0.23019701
0.0066648545 0.064467497 -0.230197
0.0073769344 0.064462394 -0.23019701
0.0096460581 0.064450614 -0.23038831
0.010000001 0.064545162 -0.23031007
-0.0096292058 0.065481625 -0.23030363
-0.0087156929 0.065678388 -0.230197
-0.0074811713 0.06561444 -0.230197
-0.0061461367 0.065596655 -0.23019701
-0.0057060095 0.065344073 -0.230197
-0.0042595374 0.065305293 -0.23019698
-0.0033166432 0.065480441 -0.230197
-0.0025685211 0.065397948 -0.230197
-0.0014975056 0.065703139 -0.230197
-0.0005295896 0.065442197 -0.230197
0.00027721026 0.065659083 -0.23019701
0.0013654341 0.065313779 -0.230197
0.0027094274 0.065495491 -0.230197
0.0036451693 0.065430686 -0.230197
0.0045565334 0.065477572 -0.230197
0.0054070558 0.065457575 -0.230197
0.0063699493 0.065663062 -0.230197
0.0077114659 0.065443926 -0.23019698
0.0087864716 0.065654382 -0.230197
0.0096627818 0.065462723 -0.23042102
-0.0095685115 0.066561617 -0.23021543
-0.0083031245 0.066606119 -0.230197
-0.0075931298 0.066820547 -0.23019698
-0.0063206796 0.066443086 -0.230197
-0.0052864184 0.066771485 -0.23019701
-0.0045357738 0.066428863 -0.230197
-0.0036354482 0.06624198 -0.230197
-0.0026260854 0.066124298 -0.230197
-0.0015505617 0.06666325 -0.230197
-0.00064480375 0.066567734 -0.230197
0.00036416692 0.066605531 -0.230197
0.001483388 0.066414192 -0.230197
0.0027102977 0.066240981 -0.230197
0.0035891901 0.066409372 -0.230197
0.0045226873 0.066512883 -0.230197
0.0053802747 0.066511035 -0.23019698
0.0065855086 0.066596404 -0.230197
0.0074796388 0.066540316 -0.230197
0.0085031409 0.066494524 -0.230197
0.0097129531 0.066530749 -0.23032135
-0.0097118318 0.067486599 -0.23035793
-0.0085440502 0.067486465 -0.230197
-0.007573483 0.06727986 -0.230197
-0.0065139942 0.067327276 -0.230197
-0.0057392968 0.067171969 -0.23019698
-0.0044282759 0.067866355 -0.230197
-0.0034491583 0.067571536 -0.230197
-0.0027399848 0.067602061 -0.230197
-0.0015715286 0.067725621 -0.230197
-0.00043672166 0.067264669 -0.230197
0.00068148086 0.06773749 -0.230197
0.0014337262 0.067572303 -0.230197
0.0023619155 0.067569651 -0.23019701
0.0035916658 0.067647174 -0.23019698
0.0048644114 0.067332417 -0.23019698
0.0051300172 0.067874417 -0.230197
0.0064586061 0.067567714 -0.230197
0.007480341 0.067456692 -0.23019698
0.0085111912 0.067353927 -0.230197
0.0097021079 0.067519546 -0.2303278
-0.0097833676 0.068396397 -0.23042053
-0.0073473346 0.06858144 -0.230197
-0.0068365587 0.068419516 -0.230197
-0.0053819935 0.068340175 -0.230197
-0.0044049555 0.068479411 -0.23019698
-0.0032678689 0.068340823 -0.230197
-0.0024848206 0.068440557 -0.23019701
-0.001446179 0.068492457 -0.23019698
-0.0002988698 0.068454593 -0.230197
0.00052688911 0.068283692 -0.230197
0.0012453089 0.068309695 -0.23019701
0.0024307845 0.068292484 -0.230197
0.003488376 0.068426751 -0.230197
0.0046133716 0.068553805 -0.230197
0.0054226113 0.068768561 -0.23019701
0.0062159174 0.06826932 -0.23019698
0.0075881425 0.068347871 -0.23019701
0.0083773723 0.068437025 -0.230197
0.0096201757 0.068348162 -0.23040067
-0.0095854895 0.069448352 -0.2301978
-0.0085393935 0.069874585 -0.2301615
-0.00737572 0.069594316 -0.23018776
-0.0066860034 0.069592349 -0.23019639
-0.0054624323 0.06964758 -0.23019698
-0.004521843 0.069520205 -0.230197
-0.0032631157 0.069410026 -0.230197
-0.0023729538 0.069707192 -0.23019698
-0.0014522769 0.069812544 -0.23011982
-0.00080735562 0.069868535 -0.23010941
0.00066818501 0.069638066 -0.23016231
0.0015449856 0.069410197 -0.23019698
0.0025696037 0.069565021 -0.23016182
0.0037468709 0.069584861 -0.23019701
0.004579288 0.069646701 -0.23015526
0.0054445933 0.06971097 -0.23016112
0.0065742712 0.069673583 -0.23018654
0.007381185 0.069599316 -0.23017392
0.0089312661 0.069600284 -0.230197
0.0094113555 0.069618754 -0.23024255
-0.0099999998 0.070449144 -0.23026583
-0.0013944381 0.070000008 -0.23012254
0.0047963001 0.070000008 -0.23007429
0.0097698942 0.070250213 -0.23042724
-0.0099999998 0.07157591 -0.2305381
0.0099999998 0.071527027 -0.23064725
0.010000001 0.07129509 -0.23099332
-0.0099999998 0.072474375 -0.23025753
0.0099999998 0.072543755 -0.23062171
-0.0099999998 0.073466219 -0.23026457
0.0099999998 0.073512003 -0.23058383
-0.0099999998 0.074148789 -0.23073265
0.0099999998 0.074547507 -0.23048607
0.0099999988 0.075597681 -0.23048574
-0.0099999998 0.076274157 -0.23056273
0.0099999998 0.076456159 -0.23027158
-0.0099999998 0.077186868 -0.23003164
0.0099999998 0.077788122 -0.23058629
-0.0099999998 0.07853023 -0.23039462
-0.0096244998 0.079704531 -0.23052774
-0.008623898 0.079999998 -0.23013726
-0.0074251341 0.079999998 -0.23053116
-0.0066700876 0.079999998 -0.23055427
-0.0053515323 0.079999998 -0.2303407
-0.0045175096 0.079999998 -0.23022205
-0.0035951787 0.079999998 -0.23024778
-0.0027509991 0.079999998 -0.23038009
-0.0015632325 0.079999998 -0.23064587
-0.00043864985 0.079999998 -0.23059306
0.00041827196 0.079999998 -0.23061757
0.0016315574 0.079999998 -0.23049362
0.0026336978 0.079999998 -0.23070976
0.00354817 0.079999998 -0.23042057
0.0055940785 0.079999998 -0.23052147
0.0063616568 0.079999998 -0.2306885
0.0074325977 0.079999998 -0.23034826
0.008724371 0.079999998 -0.2306456
0.0096357875 0.079810821 -0.23033941
0.0061949459 0.080000006 -0.23039636
0.0085059013 0.080000006 -0.2308901
-0.0097877402 -0.009782875 -0.22949819
-0.0086278347 -0.0099999998 -0.2295343
-0.0076439851 -0.0099999998 -0.22952209
-0.0066154636 -0.0099999998 -0.22950807
-0.0054542287 -0.0099999998 -0.22972816
-0.0045318427 -0.0099999998 -0.22971351
-0.0034767757 -0.0099999998 -0.2297744
-0.0026538982 -0.0099999998 -0.22941129
-0.0015382178 -0.0099999998 -0.22939123
-0.00059809891 -0.0099999988 -0.2293483
0.00036456957 -0.0099999998 -0.22940584
0.002566919 -0.0099999998 -0.22939828
0.0032831174 -0.0099999998 -0.22928156
0.0045805308 -0.0099999998 -0.22953306
0.0052773328 -0.0099999998 -0.22941236
0.0065075615 -0.0099999998 -0.22979179
0.0075298836 -0.0099999998 -0.22951622
0.008475855 -0.0099999998 -0.22944565
0.0098044816 -0.0097867996 -0.22969246
-0.0099999998 -0.0085750595 -0.22946981
0.0099999998 -0.0087922607 -0.22950715
-0.0099999988 -0.0074416343 -0.22939321
0.0099999998 -0.0074728862 -0.2293901
0.010000001 -0.0073202038 -0.22934338
-0.0099999998 -0.0065441667 -0.22969842
0.0099999998 -0.0064267539 -0.22943367
-0.0099999998 -0.005764659 -0.22938913
0.0099999998 -0.0057484647 -0.22956747
-0.0099999998 -0.004274644 -0.22928536
0.0099999998 -0.004906537 -0.22944021
-0.0099999998 -0.003545308 -0.22972409
0.0099999998 -0.0034991484 -0.22980347
-0.0099999998 -0.0025512103 -0.22964922
0.0099999998 -0.0026324377 -0.22931811
-0.0099999998 -0.0015910817 -0.22916034
0.0099999998 -0.0015696491 -0.2296277
-0.0099999998 -0.00027164799 -0.22967516
0.0099999998 -0.00012635192 -0.2295243
-0.0099999998 0.00030843308 -0.2294479
0.0099999998 0.00071915844 -0.22996292
-0.0099999998 0.001715567 -0.22951953
0.0099999998 0.0015607281 -0.22957185
-0.0099999998 0.0024308842 -0.22945832
0.0099999998 0.0026192495 -0.22972958
-0.0099999998 0.0037342261 -0.2298321
0.0099999998 0.0031723666 -0.22953759
-0.0099999998 0.0046206135 -0.22939318
-0.0099999998 0.0054674181 -0.22970775
0.0099999998 0.0052297506 -0.22921386
-0.0099999998 0.0064872201 -0.22975112
0.0099999998 0.006592154 -0.2295378
-0.0099999998 0.0076669361 -0.22947377
0.0099999998 0.0076092407 -0.22965959
-0.0099999998 0.0087310001 -0.22988272
0.0099999998 0.0086799841 -0.22973458
-0.0096866516 0.0098152086 -0.22954777
-0.0084147127 0.0099999998 -0.22982624
-0.0076169046 0.0099999998 -0.22925949
-0.0065185758 0.0099999998 -0.22940388
-0.0054842681 0.0099999998 -0.22925022
-0.0046179388 0.0099999988 -0.22944295
-0.0034729601 0.0099999998 -0.22931167
-0.0026807529 0.0099999998 -0.22991078
-0.0014749435 0.0099999998 -0.22956751
-0.00069262506 0.0099999998 -0.22929712
0.00075392332 0.0099999998 -0.22942157
0.0015310247 0.0099999998 -0.22953101
0.0023873961 0.0099999998 -0.2294769
0.0037914375 0.0099999998 -0.22938532
0.0043290579 0.0099999998 -0.22970611
0.0055962345 0.0099999998 -0.22919676
0.0063660424 0.0099999998 -0.22935876
0.0074848249 0.0099999998 -0.22930148
0.0082355896 0.0099999998 -0.22957002
0.0098717036 0.0097782593 -0.22929339
-0.008616169 0.010000001 -0.2299055
-0.0099683395 0.07 -0.22944169
-0.0083288131 0.070000008 -0.22923428
-0.0076403059 0.07 -0.22978358
-0.0065247221 0.07 -0.22952998
-0.0055259848 0.07 -0.22946832
-0.0044534523 0.07 -0.22949539
-0.0033260665 0.07 -0.22969933
-0.0022777219 0.07 -0.22939822
-0.0016137556 0.069999993 -0.22957402
-0.00097418902 0.07 -0.22900572
0.00026080245 0.069999993 -0.2294167
0.0013590598 0.07 -0.22954226
0.0034512607 0.07 -0.22953613
0.0042550527 0.069999993 -0.22963333
0.0055926489 0.07 -0.22958443
0.0067799236 0.07 -0.22955054
0.0078283958 0.069999993 -0.22916387
0.0084685506 0.07 -0.22975066
0.0095291315 0.070000008 -0.22962442
-0.0099914866 0.070617989 -0.22957854
-0.0016424672 0.070000008 -0.22906852
0.0068131993 0.070000008 -0.22976077
0.0082829092 0.070000008 -0.22905356
0.0099999988 0.070618831 -0.22932269
0.010000001 0.070785888 -0.22940154
-0.0099999998 0.071425341 -0.22942626
0.0099999998 0.071641371 -0.22938757
0.010000001 0.071785428 -0.22914179
-0.0099999998 0.07260105 -0.22939463
0.0099999998 0.072415844 -0.2293677
-0.0099999998 0.073408261 -0.22971293
0.0099999998 0.07346496 -0.22971211
-0.0099999998 0.074675858 -0.22952089
0.0099999998 0.075740814 -0.22930694
-0.0099999998 0.076346956 -0.2295251
-0.0099999998 0.077654466 -0.22974911
0.0099999998 0.077507325 -0.22970062
-0.0099999998 0.078549199 -0.22957949
0.0099999998 0.078686491 -0.22959748
-0.009814891 0.079698429 -0.22951514
-0.0085189026 0.079999998 -0.22960021
-0.0073921941 0.079999998 -0.22958642
-0.0061665308 0.079999998 -0.22951426
-0.0054094587 0.079999998 -0.22963552
-0.0044054734 0.079999998 -0.22921607
-0.0032707849 0.079999998 -0.22967397
-0.0024608809 0.079999998 -0.22950655
-0.0015784908 0.079999998 -0.22966261
-0.00052603759 0.079999998 -0.22951381
0.00040768119 0.079999998 -0.22950971
0.0014875021 0.079999998 -0.22951889
0.0026015255 0.079999998 -0.22979033
0.003420772 0.079999998 -0.22938852
0.0044185519 0.079999998 -0.22954443
0.0055112531 0.079999998 -0.22930451
0.006909267 0.079999998 -0.22991002
0.007576413 0.079999998 -0.22936845
0.008448286 0.079999998 -0.22936361
0.0098355515 0.079725966 -0.22958954
-0.0096143484 -0.0097869532 -0.22850907
-0.0086217672 -0.0099999988 -0.2284666
-0.0064330129 -0.0099999998 -0.22829621
-0.0055357418 -0.0099999998 -0.22845624
-0.0046377471 -0.0099999998 -0.22852589
-0.0038217674 -0.0099999998 -0.22887397
-0.0023653414 -0.0099999998 -0.22852193
-0.001455414 -0.0099999998 -0.2284767
-0.00036078616 -0.0099999998 -0.2283591
0.00044780216 -0.0099999998 -0.22856465
0.0010410752 -0.0099999998 -0.22801107
0.0023412257 -0.0099999998 -0.22854111
0.0035365631 -0.0099999998 -0.22878326
0.0046981191 -0.0099999998 -0.22834195
0.0055332761 -0.0099999998 -0.22864138
0.0062503824 -0.0099999998 -0.22821864
0.0073599978 -0.0099999998 -0.22845629
0.0085501252 -0.0099999998 -0.22844656
0.0097438563 -0.0098100305 -0.22850628
-0.0099999998 -0.0083902981 -0.2287423
0.010000001 -0.0089583024 -0.22821882
-0.0099999998 -0.0072893552 -0.22856623
0.0099999998 -0.0075371442 -0.22825685
-0.0099999998 -0.006572132 -0.2285693
0.0099999998 -0.006449373 -0.22839651
-0.0099999998 -0.0054783039 -0.22856227
0.0099999998 -0.0053254734 -0.22846103
-0.0099999998 -0.0045422404 -0.22821924
0.0099999998 -0.0045328648 -0.22865257
-0.0099999998 -0.0035937259 -0.22866547
0.0099999998 -0.0035016937 -0.22865245
-0.0099999998 -0.0026787415 -0.22839336
0.0099999998 -0.0025251121 -0.22827992
-0.0099999998 -0.0016285989 -0.2285779
0.0099999998 -0.0015790932 -0.228451
-0.0099999998 -0.00016618194 -0.22864512
0.0099999998 -0.00043600582 -0.22882549
-0.0099999998 0.00079070264 -0.22810417
0.0099999998 0.00054312981 -0.22830682
-0.0099999998 0.0013525805 -0.22828186
0.0099999998 0.0013897092 -0.22832653
0.010000001 0.0017086368 -0.22828212
-0.0099999998 0.0025400964 -0.22831538
0.0099999998 0.0023216016 -0.22866693
-0.0099999998 0.0038752423 -0.22864409
0.0099999998 0.0037095516 -0.22872445
-0.0099999998 0.0045431126 -0.22879212
0.0099999998 0.0044570132 -0.22839248
-0.0099999998 0.0057092523 -0.22827296
0.0099999998 0.0059225922 -0.22865081
-0.0099999998 0.0065043177 -0.22850981
0.0099999998 0.0067205103 -0.22843698
-0.0099999998 0.0076794336 -0.22871785
0.0099999998 0.0073292768 -0.22829056
-0.0099999998 0.0086438805 -0.22847156
0.0099999998 0.0084546665 -0.22852719
-0.009888282 0.0096609164 -0.2287086
-0.0084760655 0.0099999998 -0.22839829
-0.0075441739 0.0099999998 -0.22844236
-0.006458126 0.0099999998 -0.22861539
-0.005632692 0.0099999998 -0.22852305
-0.0045679687 0.0099999998 -0.22856201
-0.0037058548 0.0099999998 -0.22847819
-0.0026332885 0.0099999998 -0.2287095
-0.0016000763 0.0099999998 -0.22842221
-0.00045132518 0.0099999998 -0.22841667
0.0019770628 0.0099999998 -0.22885042
0.0024276795 0.0099999998 -0.22864711
0.0034552901 0.0099999988 -0.22861758
0.0045848321 0.0099999998 -0.22836113
0.0067141759 0.0099999998 -0.2283136
0.008359897 0.0099999998 -0.2285445
0.0097709624 0.009871806 -0.22860609
-0.0085744085 0.010000001 -0.22807202
-0.0060886429 0.010000001 -0.22861895
-0.0092318719 0.070000008 -0.2283484
-0.0083647175 0.07 -0.22828045
-0.0076675173 0.07 -0.22841597
-0.0062716897 0.070000008 -0.22844192
-0.0053423289 0.07 -0.22860333
-0.0042564636 0.07 -0.22882321
-0.0035938844 0.069999993 -0.22845863
-0.0023060758 0.069999993 -0.22838166
-0.0015743417 0.07 -0.22811618
-0.0007261869 0.069999993 -0.22854543
0.00081316894 0.07 -0.22872415
0.0015876284 0.07 -0.22846559
0.0023788949 0.069999993 -0.22832406
0.0037475962 0.070000008 -0.22858095
0.004499252 0.070000008 -0.22859024
0.0054086572 0.070000008 -0.22846763
0.0065754647 0.069999993 -0.22850411
0.0075891041 0.07 -0.22883719
0.008606771 0.07 -0.22843568
0.0093735196 0.069999993 -0.22847004
-0.0099999998 0.07019905 -0.22860569
0.002032422 0.070000008 -0.22810978
0.0034908697 0.070000008 -0.22857417
0.0041467715 0.070000008 -0.22809941
0.0051356414 0.070000008 -0.22876242
0.0072339545 0.070000008 -0.22877082
0.0088696508 0.070000008 -0.22802618
-0.0099999988 0.071500085 -0.22852689
0.0099999998 0.071331069 -0.22825859
0.0099999998 0.072306179 -0.22861043
-0.0099999998 0.073564231 -0.22857468
0.0099999998 0.073468022 -0.22865388
-0.0099999998 0.074647315 -0.2285196
0.0099999998 0.074525945 -0.2284888
-0.0099999998 0.075546138 -0.22839734
0.0099999998 0.075502589 -0.22870287
-0.0099999998 0.076388277 -0.22848971
0.0099999998 0.076537594 -0.22805291
-0.0099999998 0.077558607 -0.22879347
0.0099999998 0.077437818 -0.22832429
-0.0099999998 0.07846123 -0.22858781
0.0099999998 0.07851325 -0.22838721
-0.009737256 0.079629742 -0.22856939
-0.0084282309 0.079999998 -0.22858405
-0.0073706298 0.079999998 -0.22853652
-0.0066724913 0.079999998 -0.22842264
-0.0056674173 0.079999998 -0.22831407
-0.0043132091 0.079999998 -0.22852883
-0.0033375891 0.079999998 -0.22864251
-0.0021395995 0.079999998 -0.2286233
-0.0017100134 0.079999991 -0.22842349
-0.00036984624 0.079999998 -0.22839281
0.00042568124 0.079999998 -0.22845702
0.0014370967 0.079999998 -0.22833811
0.002564504 0.079999998 -0.22861557
0.003066381 0.079999998 -0.22868744
0.0046423059 0.079999998 -0.22848648
0.0052954159 0.079999998 -0.2284472
0.0073168701 0.079999998 -0.22833
0.0085905064 0.079999998 -0.22850758
0.0096633062 0.079840258 -0.22858447
0.0072640935 0.080000006 -0.22823963
-0.0097482931 -0.0098889004 -0.22743995
-0.0085998038 -0.0099999998 -0.22748087
-0.007396874 -0.0099999998 -0.22774953
-0.0063704834 -0.0099999998 -0.22750828
-0.0054394747 -0.0099999998 -0.22728062
-0.004404353 -0.0099999998 -0.22751252
-0.0034220337 -0.0099999998 -0.22748537
-0.0024479823 -0.0099999998 -0.22758153
-0.0013648079 -0.0099999998 -0.22759943
-0.00051719567 -0.0099999998 -0.22742493
0.00060057233 -0.0099999998 -0.22745362
0.0017208605 -0.0099999998 -0.22728442
0.0027376709 -0.0099999998 -0.22747746
0.0035679692 -0.0099999998 -0.22762826
0.0045893728 -0.0099999998 -0.22759128
0.0055631194 -0.0099999998 -0.22779968
0.006001405 -0.0099999998 -0.22730254
0.0073836274 -0.0099999998 -0.22736776
0.008668148 -0.0099999998 -0.22789109
0.0096377125 -0.009701997 -0.22742164
-0.0099999998 -0.0085266633 -0.22762799
0.0099999998 -0.0081919776 -0.22738038
-0.0099999998 -0.0071067773 -0.2275914
0.0099999988 -0.0075461403 -0.22742744
-0.0099999998 -0.0065846387 -0.22744709
0.0099999998 -0.0065867784 -0.22729722
-0.0099999998 -0.005265852 -0.22740114
0.0099999988 -0.0056062713 -0.22753029
-0.0099999998 -0.0043746568 -0.22740732
0.0099999998 -0.0044880682 -0.22729512
-0.0099999998 -0.0035802545 -0.22741979
0.0099999998 -0.0035902706 -0.22743814
-0.0099999998 -0.0025151209 -0.2273452
0.0099999998 -0.0023187117 -0.22770959
-0.0099999998 -0.0015192395 -0.22736764
0.0099999988 -0.0014475606 -0.22744556
-0.0099999998 -0.00048089179 -0.22741237
-0.0099999998 0.00036482024 -0.22753401
0.0099999998 0.00054609019 -0.22760634
-0.0099999998 0.0015616894 -0.22751018
0.0099999998 0.0014725212 -0.22760367
-0.0099999998 0.0026576689 -0.22743906
0.0099999998 0.0024968549 -0.22723529
-0.0099999998 0.0034619954 -0.22754936
0.0099999998 0.0038346788 -0.22793549
-0.0099999998 0.0048417863 -0.22750482
0.0099999998 0.0046542501 -0.22760642
-0.0099999998 0.0054511577 -0.22749454
0.0099999998 0.0055950917 -0.22777317
-0.0099999998 0.0062722261 -0.22745115
0.0099999988 0.0063636829 -0.22737923
-0.0099999998 0.0072962847 -0.22745365
0.0099999998 0.0076457812 -0.2278419
-0.0099999998 0.0083467308 -0.22726884
0.0099999998 0.0085623544 -0.22728431
-0.0099999998 0.0093787946 -0.22735338
-0.0085613923 0.0099999998 -0.22765523
-0.007441137 0.0099999998 -0.22773543
-0.006272444 0.0099999998 -0.22771737
-0.0052658478 0.0099999998 -0.22762623
-0.0045625898 0.0099999998 -0.22754152
-0.0034633838 0.0099999998 -0.22749701
-0.0023841651 0.0099999988 -0.22752908
-0.0014893579 0.0099999998 -0.22744475
-0.00027793995 0.0099999998 -0.22760347
0.00050825899 0.0099999998 -0.22734658
0.0014799124 0.0099999998 -0.22762534
0.002645317 0.0099999998 -0.22764204
0.0031069538 0.0099999998 -0.22780398
0.0054575456 0.0099999988 -0.22742791
0.0067408634 0.0099999998 -0.22772586
0.0075967773 0.0099999998 -0.22725414
0.0085008247 0.0099999998 -0.22759323
0.009837958 0.0096850162 -0.22739309
0.010000001 0.0094787739 -0.22761779
-0.0093600713 0.069999993 -0.22745562
-0.0085744169 0.070000008 -0.22736517
-0.0074149249 0.070000008 -0.22749631
-0.0061394502 0.07 -0.22779986
-0.0054687262 0.07 -0.22769664
-0.0043454664 0.07 -0.22754325
-0.0033923879 0.069999993 -0.22731042
-0.0023601169 0.07 -0.2273441
-0.0015026156 0.07 -0.22794935
-0.00059278007 0.07 -0.22738077
0.00044673562 0.07 -0.2274448
0.0014938344 0.07 -0.22787035
0.0024741478 0.07 -0.22759157
0.0034795548 0.07 -0.22779012
0.0044790991 0.070000008 -0.22783288
0.0056046266 0.07 -0.2277721
0.0061272322 0.070000008 -0.22756222
0.0072926651 0.069999993 -0.22771414
0.0088903792 0.07 -0.22742276
0.0096199652 0.07 -0.22775602
-0.0099999998 0.070469372 -0.22779104
-0.0060582254 0.070000008 -0.22713222
-0.0057146009 0.070000008 -0.22735322
0.0019651456 0.070000008 -0.22765169
0.0020553728 0.070000008 -0.22786398
0.0034078541 0.070000008 -0.22707936
0.0055979476 0.070000008 -0.22735988
0.0079001309 0.070000008 -0.2271648
0.0099189002 0.070438683 -0.22745061
-0.0099999998 0.071306244 -0.22748451
0.0099999998 0.071683556 -0.22764716
0.010000001 0.071223408 -0.22769618
-0.0099999998 0.072626553 -0.22735018
0.0099999998 0.072384104 -0.22739135
0.010000001 0.072618403 -0.22771926
-0.0099999998 0.073594719 -0.22751494
0.0099999998 0.073394254 -0.22759295
-0.0099999998 0.074478984 -0.22762358
0.0099999998 0.074109152 -0.22725697
-0.0099999998 0.075247511 -0.22738348
0.0099999998 0.075511299 -0.22720937
-0.0099999998 0.076305375 -0.22745815
0.0099999998 0.07650125 -0.22727227
-0.0099999988 0.077385068 -0.22759135
0.0099999998 0.07743752 -0.22748661
-0.0099999998 0.078089774 -0.22725904
-0.0095981825 0.079872802 -0.22754136
-0.008463244 0.079999998 -0.22746091
-0.0073106671 0.079999998 -0.22726592
-0.0065579172 0.079999998 -0.22739398
-0.0054389271 0.079999998 -0.22752914
-0.0047738431 0.079999998 -0.227312
-0.0032911887 0.079999998 -0.22707893
-0.0025510727 0.079999998 -0.22749472
-0.0015137922 0.079999998 -0.22730878
-0.00054170523 0.079999998 -0.22763452
0.00046806427 0.079999998 -0.2276427
0.0016682975 0.079999998 -0.22748861
0.0022809827 0.079999998 -0.22718395
0.0031744121 0.079999998 -0.22728948
0.0040925778 0.079999998 -0.22774668
0.0054312292 0.079999998 -0.22767681
0.0064509958 0.079999998 -0.22750267
0.0073335683 0.079999998 -0.2276043
0.0082342504 0.079999998 -0.22751424
0.009989542 0.079668887 -0.227597
0.0086418474 0.080000006 -0.22724274
-0.0097798146 -0.0096403947 -0.22644357
-0.0083518615 -0.0099999998 -0.22622544
-0.0075414241 -0.0099999998 -0.22638772
-0.0062728357 -0.0099999988 -0.2263207
-0.0053913696 -0.0099999998 -0.2264936
-0.0045524174 -0.0099999998 -0.22650111
-0.003545007 -0.0099999998 -0.22648416
-0.0023560098 -0.0099999988 -0.22634026
-0.0015674832 -0.0099999988 -0.22642201
-0.00045377668 -0.0099999998 -0.22647071
0.00048142998 -0.0099999998 -0.22642288
0.002327383 -0.010000001 -0.22641507
0.0035860855 -0.0099999998 -0.22677469
0.0042655529 -0.0099999998 -0.22671506
0.005401168 -0.0099999998 -0.22649939
0.0064158328 -0.0099999998 -0.22669461
0.0085689407 -0.0099999998 -0.22630471
0.0098600704 -0.009672557 -0.22643839
-0.0099999998 -0.0082944073 -0.22616141
0.0099999998 -0.0087712929 -0.22642863
-0.0099999998 -0.0078102089 -0.22663483
0.0099999998 -0.007423074 -0.22666943
-0.0099999998 -0.0069849268 -0.22615351
0.0099999988 -0.0069481218 -0.22691119
-0.0099999998 -0.0055226996 -0.22646306
0.0099999998 -0.0055886679 -0.22653255
-0.0099999998 -0.0045877895 -0.22683764
0.0099999998 -0.0042633116 -0.22663991
-0.0099999998 -0.0035023817 -0.2265728
0.0099999998 -0.0034268429 -0.22654009
-0.0099999998 -0.0024030304 -0.22683612
0.0099999998 -0.0022980783 -0.22646746
-0.0099999998 -0.0015678856 -0.22634485
0.0099999998 -0.0015052073 -0.2261945
-0.0099999998 -0.00050499337 -0.2264024
0.0099999998 -0.00052028819 -0.22665823
-0.0099999998 0.00050261943 -0.22658339
0.0099999998 0.00085157342 -0.2263511
-0.0099999998 0.0017772404 -0.22638975
0.0099999998 0.0011722976 -0.22660995
0.010000001 0.0015825063 -0.22627372
-0.0099999998 0.0028135411 -0.22653632
0.0099999998 0.0024952288 -0.22654897
0.010000001 0.0023288447 -0.22607714
-0.0099999998 0.0035663806 -0.22651964
0.0099999998 0.0035732714 -0.22618009
-0.0099999998 0.0046458421 -0.22655049
0.0099999998 0.0045730257 -0.22660443
0.010000001 0.0040252106 -0.2260742
-0.0099999998 0.005826809 -0.22636548
0.0099999998 0.0054435655 -0.226513
-0.0099999998 0.0068199662 -0.22681485
0.0099999998 0.0065098861 -0.22648732
-0.0099999998 0.0078212153 -0.22658764
0.0099999998 0.0073654391 -0.22672033
-0.0099999998 0.0083704079 -0.22648558
0.0099999998 0.0086552976 -0.22650662
-0.0097045172 0.0097003775 -0.22640033
-0.0089532984 0.0099999998 -0.22612812
-0.0073300246 0.0099999998 -0.22654963
-0.0065568108 0.0099999998 -0.22664154
-0.0055526453 0.0099999998 -0.22647557
-0.004260208 0.0099999998 -0.22622743
-0.0037898794 0.0099999998 -0.22658645
-0.0023799124 0.0099999998 -0.22635508
-0.0015919711 0.0099999998 -0.22626811
-0.00065670779 0.0099999988 -0.22661008
0.00047863089 0.0099999998 -0.22620285
0.0012914634 0.0099999998 -0.22661746
0.0026555313 0.0099999998 -0.22662805
0.0033628142 0.0099999998 -0.22660047
0.0046006311 0.0099999998 -0.22633782
0.0055352016 0.0099999998 -0.22639725
0.0063538691 0.0099999998 -0.22675624
0.007099709 0.0099999998 -0.22674587
0.0084870681 0.0099999998 -0.22661601
0.0099122245 0.0096882042 -0.22632158
-0.0095447153 0.069999993 -0.22643358
-0.0088177174 0.07 -0.22630252
-0.0073149903 0.07 -0.22648332
-0.0064427336 0.069999993 -0.22653921
-0.00532478 0.07 -0.22688526
-0.0040336628 0.07 -0.22627775
-0.0031411059 0.070000008 -0.22656666
-0.002638961 0.07 -0.22650579
-0.0015093479 0.07 -0.22666042
-0.00073765242 0.070000008 -0.22651295
0.00060934504 0.07 -0.22625788
0.0012470376 0.07 -0.22632451
0.0024385171 0.07 -0.22656207
0.0031223027 0.07 -0.2265161
0.0043173535 0.070000008 -0.22627079
0.0055199931 0.07 -0.22639112
0.0065097604 0.07 -0.22642815
0.0076465821 0.07 -0.2268244
0.0086122677 0.07 -0.22637099
0.0093381731 0.07 -0.2264137
-0.0099999998 0.070537567 -0.22650516
-0.0041185189 0.070000008 -0.22646135
-0.0025675909 0.070000008 -0.22640423
-0.00092562567 0.070000008 -0.22637779
0.0062515941 0.070000008 -0.22647688
0.0099999998 0.070443563 -0.22677892
0.010000001 0.070752375 -0.22632682
-0.0099999998 0.071596466 -0.2267347
-0.0099999998 0.072331995 -0.22673553
0.0099999998 0.072878674 -0.22631612
-0.0099999998 0.073421672 -0.22637561
0.0099999998 0.073423982 -0.22639106
-0.0099999998 0.074114174 -0.22657108
0.0099999998 0.074474476 -0.22670344
-0.0099999998 0.075703718 -0.22662356
0.0099999998 0.07534986 -0.22645783
-0.0099999998 0.076270252 -0.22683918
0.0099999998 0.076378763 -0.226372
-0.0099999998 0.077545546 -0.22678506
0.0099999998 0.077424914 -0.22643176
-0.0099999998 0.078678124 -0.22656605
0.0099999998 0.078657448 -0.22616199
-0.0098578222 0.079670675 -0.22649217
-0.0082974238 0.079999998 -0.22647414
-0.0064250501 0.079999998 -0.22662228
-0.0054781898 0.079999998 -0.22670464
-0.0045062788 0.079999998 -0.22648787
-0.0034493273 0.079999998 -0.2263695
-0.0026880857 0.079999998 -0.22672397
-0.0014984364 0.079999998 -0.22663242
-0.00036378106 0.079999998 -0.22627178
0.00036906532 0.079999998 -0.22671339
0.0010060063 0.079999998 -0.22603831
0.0026675595 0.079999998 -0.22656338
0.003327644 0.079999998 -0.22666043
0.0041712536 0.079999998 -0.22656825
0.0053924853 0.079999998 -0.22652987
0.0065790317 0.079999998 -0.22661154
0.0072529209 0.079999998 -0.22634868
0.0086911013 0.079999998 -0.2265362
0.0097303065 0.079766676 -0.22659995
0.0062376065 0.080000006 -0.22617768
-0.009709985 -0.0097582461 -0.22533984
-0.0083515029 -0.0099999998 -0.22542146
-0.0074045658 -0.0099999998 -0.22567311
-0.0069640558 -0.0099999998 -0.22529282
-0.005350952 -0.0099999998 -0.22564133
-0.0043956749 -0.0099999998 -0.22546414
-0.0034197681 -0.0099999998 -0.22550994
-0.0024791677 -0.0099999998 -0.22524381
-0.0019086492 -0.0099999998 -0.22506601
-0.00081359525 -0.0099999998 -0.22547449
0.0004852835 -0.0099999998 -0.22549997
0.001538019 -0.0099999998 -0.22529183
0.0024990169 -0.0099999998 -0.22542052
0.0035647028 -0.0099999998 -0.22527277
0.0044469787 -0.0099999998 -0.22555563
0.006757169 -0.0099999998 -0.22561693
0.0076795495 -0.0099999998 -0.22551842
0.0083097294 -0.0099999998 -0.22534317
0.0098269926 -0.0096748881 -0.22544794
0.010000001 -0.0092637064 -0.22511913
-0.0099999998 -0.0083661461 -0.22539672
0.0099999998 -0.0084186345 -0.22520438
-0.0099999998 -0.0073656063 -0.22561702
0.0099999998 -0.0077303336 -0.22543015
-0.0099999998 -0.0064993519 -0.22579947
0.0099999998 -0.0065247407 -0.22554976
-0.0099999998 -0.0055550043 -0.22534725
0.0099999998 -0.0053118127 -0.22546214
-0.0099999998 -0.004076276 -0.22528392
0.0099999998 -0.004652814 -0.22524273
-0.0099999998 -0.0033568889 -0.22551748
0.0099999998 -0.003855384 -0.22566693
-0.0099999988 -0.0025020582 -0.225346
0.0099999998 -0.0024486559 -0.22559029
-0.0099999998 -0.0014766634 -0.22540227
0.0099999998 -0.0018554003 -0.22553217
-0.0099999998 -0.00032362249 -0.22566673
0.0099999998 -0.00036820909 -0.22542502
-0.0099999998 0.00067125959 -0.22539407
0.0099999998 0.00040831295 -0.22537819
-0.0099999988 0.0015884712 -0.22541746
0.0099999998 0.0016643921 -0.22530416
-0.0099999988 0.0023644373 -0.22576685
0.0099999998 0.0021059776 -0.22511876
0.010000001 0.0023289218 -0.22586708
-0.0099999988 0.0034119952 -0.22543076
0.0099999998 0.0035241581 -0.22526032
0.010000001 0.0035630956 -0.22599703
-0.0099999998 0.0043742578 -0.22550003
0.0099999998 0.0042568054 -0.22598337
-0.0099999988 0.0054598371 -0.22552104
0.0099999998 0.0058010109 -0.22512092
-0.0099999998 0.0064589158 -0.22568792
0.0099999998 0.0065450706 -0.22567159
-0.0099999998 0.0073905024 -0.22555172
0.0099999998 0.0073963813 -0.2251433
-0.0099999998 0.008707813 -0.22525388
0.0099999998 0.0084306225 -0.22551344
-0.0097793601 0.0097705564 -0.22525132
-0.0087298304 0.0099999998 -0.22525007
-0.007925231 0.0099999998 -0.22556913
-0.0063108196 0.0099999998 -0.22582814
-0.0054302453 0.0099999998 -0.22536328
-0.004585491 0.0099999998 -0.22563939
-0.0039131474 0.0099999998 -0.22570458
-0.002454354 0.0099999998 -0.22533515
-0.0016222001 0.0099999998 -0.22568434
-0.00071274012 0.0099999998 -0.2254457
0.000545257 0.0099999998 -0.22570986
0.0015959069 0.0099999998 -0.22533374
0.0023807816 0.0099999998 -0.22542791
0.0036446962 0.0099999998 -0.2254497
0.0043605622 0.0099999998 -0.22531047
0.0055157775 0.0099999998 -0.22571996
0.0066754343 0.0099999998 -0.22560462
0.0075515946 0.0099999998 -0.2253809
0.0084496588 0.0099999998 -0.22559564
0.0096789869 0.0097742034 -0.22559495
-0.0085605541 0.010000001 -0.22517978
-0.0096456166 0.07 -0.22552118
-0.0084762676 0.070000008 -0.22559759
-0.0074638599 0.07 -0.22550999
-0.0067289872 0.069999993 -0.22545674
-0.0054100109 0.07 -0.22530088
-0.0044955476 0.07 -0.22569257
-0.0034472386 0.07 -0.22513831
-0.0024827425 0.07 -0.22522223
-0.0018989178 0.07 -0.22542153
-0.00043389032 0.07 -0.22537531
0.00029749743 0.070000008 -0.22543989
0.0016442438 0.070000008 -0.22537903
0.0024764198 0.07 -0.22553729
0.0034510822 0.07 -0.22523069
0.0045989328 0.07 -0.22550941
0.0057552275 0.07 -0.2255785
0.006626457 0.070000008 -0.22590491
0.0084718298 0.07 -0.2253301
0.0096289124 0.07 -0.22546951
-0.0099999998 0.070409961 -0.22578411
-0.0053583891 0.070000008 -0.22515029
-0.0040359031 0.070000008 -0.22507434
0.007620695 0.070000008 -0.22584589
0.0099999998 0.070482001 -0.225596
-0.0099999998 0.071834356 -0.22547309
0.0099999998 0.071305349 -0.22586623
-0.0099999998 0.072492816 -0.22528043
0.0099999998 0.072553933 -0.22536638
0.010000001 0.072734073 -0.22599317
-0.0099999998 0.07352756 -0.22542301
0.0099999998 0.073710226 -0.22528878
-0.0099999988 0.074366651 -0.22537446
0.0099999998 0.074497491 -0.22556019
-0.0099999998 0.075508364 -0.22544424
0.0099999998 0.075813577 -0.22545242
-0.0099999998 0.07647562 -0.22556296
0.0099999998 0.076371074 -0.22572261
-0.0099999998 0.077478953 -0.22532019
0.0099999998 0.07752692 -0.22555046
-0.0099999998 0.078399196 -0.22556737
0.0099999998 0.078550339 -0.22545789
-0.0097890776 0.079798803 -0.22553253
-0.0084453737 0.079999998 -0.22546335
-0.0072891018 0.079999998 -0.22522168
-0.0064755743 0.079999998 -0.22540724
-0.0055456064 0.079999998 -0.22556069
-0.0043445001 0.079999998 -0.2255915
-0.003890312 0.079999998 -0.22559127
-0.0026365053 0.079999998 -0.22554025
-0.0011437724 0.079999998 -0.22521567
0.00068384822 0.079999998 -0.22561948
0.0015253897 0.079999998 -0.22551911
0.0026042205 0.079999998 -0.22547731
0.0033506572 0.079999998 -0.22547482
0.0045744199 0.079999998 -0.22538297
0.0056529343 0.079999998 -0.22560589
0.0064550224 0.079999998 -0.22524716
0.0077456576 0.079999998 -0.22532393
0.0086229071 0.079999998 -0.22548971
0.0094941836 0.079999998 -0.22528403
0.007821165 0.080000006 -0.22528407
0.0091421129 0.080000006 -0.22510901
-0.0096627995 -0.0098606218 -0.22453642
-0.0086710742 -0.0099999998 -0.22462507
-0.0079256818 -0.0099999998 -0.22488388
-0.0062716962 -0.0099999998 -0.22456427
-0.0054978631 -0.0099999998 -0.22467674
-0.0046139117 -0.0099999998 -0.22467554
-0.0037712669 -0.0099999998 -0.22431692
-0.0025636407 -0.0099999998 -0.2245609
-0.0014226533 -0.0099999998 -0.22438234
-0.00052185025 -0.0099999998 -0.22450677
0.00056862837 -0.0099999998 -0.22453319
0.001306663 -0.0099999998 -0.22465871
0.0026777736 -0.0099999998 -0.22460936
0.0037693663 -0.0099999998 -0.22410251
0.0045328825 -0.0099999998 -0.22476682
0.0057147434 -0.0099999998 -0.22428957
0.0067541231 -0.0099999998 -0.22441071
0.0074333488 -0.0099999998 -0.22454374
0.0085214684 -0.0099999998 -0.22439845
0.0097003579 -0.0098862154 -0.2246675
0.010000001 -0.0092873266 -0.22477373
-0.0099999998 -0.0082869586 -0.22478294
0.0099999998 -0.0084180832 -0.22441608
-0.0099999998 -0.0074444748 -0.22468086
0.0099999998 -0.0075885053 -0.22477359
-0.0099999998 -0.0066861911 -0.22475617
0.0099999998 -0.0066553927 -0.22462027
-0.0099999998 -0.0052000396 -0.22470164
0.0099999998 -0.0052098497 -0.2244688
-0.0099999998 -0.0045586484 -0.22452807
0.0099999998 -0.0044692466 -0.22456053
-0.0099999998 -0.00369307 -0.2246443
0.0099999998 -0.0034343642 -0.22447336
-0.0099999998 -0.0024064651 -0.22446266
0.0099999998 -0.0024293594 -0.22416109
-0.0099999998 -0.0012913968 -0.22462308
0.0099999998 -0.0013290627 -0.22437698
-0.0099999998 -0.00055914809 -0.22449875
0.0099999998 -0.00041927164 -0.22430994
-0.0099999998 0.00061089254 -0.22445199
0.0099999998 0.00031074788 -0.22479004
-0.0099999998 0.0013169926 -0.22456746
0.0099999998 0.0015990216 -0.22476263
-0.0099999998 0.002632953 -0.22454266
0.0099999998 0.0025462029 -0.22431044
-0.0099999998 0.003230934 -0.22440213
0.0099999998 0.003827366 -0.2241478
-0.0099999998 0.0044598761 -0.22467041
0.0099999988 0.0044252123 -0.22427885
-0.0099999998 0.005511337 -0.22452274
0.0099999998 0.005517317 -0.22428221
-0.0099999998 0.0065396782 -0.22459927
0.0099999998 0.0063854023 -0.22444145
0.010000001 0.0062854858 -0.2249959
-0.0099999998 0.007634325 -0.22425386
0.010000001 0.0075310399 -0.22439072
-0.0099999988 0.0086601386 -0.22461855
0.0099999998 0.0086576175 -0.22415867
0.010000001 0.0082613742 -0.22471352
-0.0097432211 0.0097962646 -0.2246135
-0.0087120673 0.0099999998 -0.22458303
-0.0074388073 0.0099999998 -0.22448641
-0.0066424324 0.0099999998 -0.22436643
-0.0056894636 0.0099999998 -0.22468647
-0.0044912556 0.0099999998 -0.22476143
-0.0037076527 0.0099999998 -0.22462577
-0.0023567951 0.0099999998 -0.22467327
-0.0014671477 0.0099999988 -0.22437172
-0.00049534487 0.0099999998 -0.22430949
0.00079489406 0.0099999998 -0.22440147
0.0015658446 0.0099999998 -0.22454587
0.0020580261 0.0099999998 -0.22485742
0.0034961817 0.0099999998 -0.22443461
0.0046369471 0.0099999998 -0.22469491
0.00522184 0.0099999998 -0.22435781
0.0066797319 0.0099999998 -0.22449553
0.0072649224 0.0099999998 -0.22481261
0.0084747598 0.0099999998 -0.22454272
0.0097002145 0.0097639309 -0.22432458
0.0095378337 0.010000001 -0.22470574
-0.0092225047 0.07 -0.2247453
-0.008364453 0.070000008 -0.22435045
-0.00550257 0.069999993 -0.22445065
-0.0044464581 0.069999993 -0.22437301
-0.0036222851 0.069999993 -0.22487462
-0.0026234929 0.069999993 -0.22438985
-0.0014152138 0.07 -0.22433469
-0.00056585303 0.07 -0.22447479
0.0006343904 0.07 -0.22454087
0.0016330706 0.070000008 -0.22452627
0.0025792806 0.07 -0.22447431
0.0035079503 0.070000008 -0.22417721
0.0048293006 0.07 -0.22461845
0.005896321 0.07 -0.22426045
0.0066485195 0.07 -0.22453018
0.0077479049 0.07 -0.22464141
0.0087738298 0.07 -0.22447275
0.0091334451 0.07 -0.22423515
-0.0099999998 0.070630118 -0.22439682
-0.0034295917 0.070000008 -0.22470674
0.005411502 0.070000008 -0.22492717
0.0089322943 0.070000008 -0.2247749
0.010000001 0.070690051 -0.22428602
-0.0099999998 0.071498483 -0.22439949
0.0099999998 0.071639456 -0.2243938
-0.0099999998 0.072082907 -0.22479916
-0.0099999998 0.07355848 -0.22428444
0.0099999998 0.073508278 -0.22428994
-0.0099999998 0.074244902 -0.22454572
0.0099999998 0.074486598 -0.22456741
-0.0099999998 0.075448424 -0.22480281
0.0099999998 0.075401701 -0.22430746
-0.0099999998 0.076563418 -0.22451811
0.0099999998 0.076500028 -0.22457105
-0.0099999998 0.077363379 -0.22445862
-0.0099999998 0.078584045 -0.22443639
0.0099999998 0.07868883 -0.2248766
-0.0096386904 0.079826295 -0.22446585
-0.0084991371 0.079999991 -0.22454207
-0.0078467187 0.079999998 -0.22425245
-0.0062917583 0.079999998 -0.22452058
-0.0056286701 0.079999991 -0.22450474
-0.0043306886 0.079999998 -0.2245836
-0.0034415582 0.079999991 -0.22446786
-0.0025079788 0.079999998 -0.22455283
-0.0013406749 0.079999998 -0.2245439
-0.00048456067 0.079999998 -0.2246215
0.00033289668 0.079999998 -0.22455013
0.0014569222 0.079999998 -0.22446521
0.0022374121 0.079999998 -0.2243375
0.0034533432 0.079999998 -0.2245101
0.0044402969 0.079999998 -0.22446245
0.0054980335 0.079999998 -0.224347
0.0063530495 0.079999998 -0.22439294
0.0075035114 0.079999998 -0.22481486
0.008709345 0.079999998 -0.22439668
0.0098720705 0.079678476 -0.22459033
0.0084036049 0.080000006 -0.22492436
-0.0097635388 -0.0098040281 -0.22356281
-0.0085161487 -0.0099999998 -0.22340737
-0.0074264552 -0.0099999998 -0.22332458
-0.0064641293 -0.0099999988 -0.22339925
-0.0055122389 -0.0099999998 -0.22358996
-0.0043178461 -0.0099999998 -0.22349697
-0.0035728195 -0.0099999998 -0.22322142
-0.0025878984 -0.0099999998 -0.22340094
-0.0016995301 -0.0099999998 -0.22339952
-0.0005734982 -0.0099999998 -0.22360757
0.00023468304 -0.0099999998 -0.22347251
0.0016955486 -0.0099999998 -0.22333929
0.0026354264 -0.0099999998 -0.22366677
0.0036756569 -0.0099999998 -0.22348189
0.0046969536 -0.010000001 -0.22333287
0.0054657562 -0.0099999998 -0.22355297
0.0067488621 -0.0099999998 -0.22350179
0.0071310555 -0.0099999998 -0.22342254
0.0083094332 -0.0099999998 -0.22335452
0.0098798135 -0.0096625686 -0.22361903
0.010000001 -0.0099886907 -0.22391872
-0.0099999998 -0.0082930764 -0.2233606
0.0099999988 -0.0085266149 -0.2237149
-0.0099999998 -0.0075102011 -0.22324443
0.0099999998 -0.0075230198 -0.22365586
-0.0099999998 -0.0063742162 -0.22327936
0.0099999998 -0.0064579337 -0.2234358
-0.0099999998 -0.0055739912 -0.22344863
0.0099999998 -0.005645751 -0.2234036
-0.0099999998 -0.0046663038 -0.22326051
0.0099999998 -0.0042731767 -0.22358972
-0.0099999998 -0.0035037769 -0.22351579
0.0099999998 -0.0033323145 -0.22359824
-0.0099999998 -0.0023139198 -0.22337776
0.0099999998 -0.0025853321 -0.22359908
-0.0099999998 -0.001411977 -0.22362
0.0099999998 -0.0013699671 -0.22348337
-0.0099999998 -0.00010496425 -0.22348867
0.0099999998 -0.00047737872 -0.22353952
-0.0099999998 0.00041280533 -0.22336261
0.0099999998 0.00054935075 -0.22340719
-0.0099999998 0.001507032 -0.22348446
0.0099999998 0.0015180224 -0.22347805
-0.0099999998 0.0023794505 -0.22341
0.0099999998 0.0026272093 -0.22357884
-0.0099999998 0.0030978266 -0.22383428
0.0099999998 0.0034601416 -0.22354218
-0.0099999988 0.0046677417 -0.22362632
0.0099999998 0.0044079549 -0.2238683
-0.0099999998 0.0057907663 -0.22330326
0.0099999998 0.0054043494 -0.22362755
-0.0099999998 0.0064025815 -0.22362605
0.0099999998 0.0063064704 -0.22357897
-0.0099999998 0.0076861288 -0.2234392
0.0099999998 0.0073452638 -0.22348568
-0.0099999998 0.0085977288 -0.22340804
0.0099999998 0.0083412975 -0.22352353
0.010000001 0.0081134653 -0.22336005
-0.0095728794 0.0098151844 -0.2233973
-0.0084865801 0.0099999998 -0.22348556
-0.0072755162 0.0099999998 -0.22359315
-0.0065813791 0.0099999998 -0.22348444
-0.0055944528 0.0099999998 -0.2234067
-0.0044122967 0.0099999998 -0.22394828
-0.0026400432 0.0099999998 -0.22349629
-0.001523611 0.0099999998 -0.22342654
-0.00044871526 0.0099999998 -0.22333813
0.00032568816 0.0099999998 -0.22347124
0.0014613613 0.0099999998 -0.22365069
0.0027045747 0.0099999998 -0.22365026
0.0036952826 0.0099999998 -0.22353409
0.0044433633 0.0099999998 -0.22338727
0.005917083 0.0099999998 -0.22389485
0.0068770507 0.0099999998 -0.22389345
0.0076042954 0.0099999998 -0.22348073
0.0086755333 0.0099999998 -0.22345057
0.0098306742 0.0098813809 -0.22334333
-0.0071074539 0.010000001 -0.22375181
-0.0093591735 0.07 -0.2234388
-0.0084122811 0.07 -0.22383036
-0.0074457051 0.07 -0.2233161
-0.0064992122 0.07 -0.22368321
-0.0052948208 0.069999993 -0.22371343
