# .PCD v0.7 - Point Cloud Data file format
VERSION 0.7
FIELDS x y z
SIZE 4 4 4
TYPE F F F
COUNT 1 1 1
WIDTH 1359
HEIGHT 1
VIEWPOINT 0 0 0 1 0 0 0
POINTS 1359
DATA ascii
0.070000008 0.030416101 -0.23562309
0.079999998 0.030491835 -0.23529705
-0.079999998 0.031522989 -0.23551944
-0.059999995 0.031220039 -0.23506564
-0.050000004 0.031508241 -0.23553282
-0.039999999 0.031320974 -0.2352438
-0.029999999 0.031209044 -0.2354266
-0.02 0.031532954 -0.23534986
-0.0099999998 0.031703159 -0.23548079
0.0099999998 0.031042222 -0.23539662
0.02 0.031438541 -0.23542342
0.029999997 0.031837683 -0.23536915
0.039999999 0.031609699 -0.23573212
0.07 0.031449985 -0.23532766
0.079999998 0.031375393 -0.23552455
-0.079999998 0.03212316 -0.23515844
-0.07 0.032795839 -0.23557463
-0.060000002 0.032522686 -0.23575428
-0.039999999 0.032428659 -0.23599941
-0.029999999 0.032589503 -0.23582974
-0.02 0.032678895 -0.23529796
0.0099999998 0.032552607 -0.23555931
0.02 0.032560676 -0.23548058
0.029999997 0.032259796 -0.2354825
0.030000001 0.032194167 -0.23502716
0.039999999 0.03264254 -0.23552625
0.050000001 0.03204567 -0.23581707
0.059999995 0.032711677 -0.23596479
0.07 0.032704845 -0.23531754
0.070000008 0.032690644 -0.23592852
-0.079999998 0.033360161 -0.23528141
-0.070000008 0.033615302 -0.23587307
-0.050000004 0.033128306 -0.2358622
-0.039999999 0.03372835 -0.23571466
-0.02 0.033588123 -0.2356955
-0.0099999998 0.033795178 -0.23540822
0.0099999998 0.033318773 -0.23565236
0.02 0.033758875 -0.23546314
0.029999997 0.03324797 -0.23542345
0.030000001 0.033084642 -0.2356095
0.049999997 0.033395354 -0.23519489
0.059999999 0.033969987 -0.23594514
0.070000008 0.033387676 -0.23566791
0.070000008 0.033061035 -0.23512194
0.079999998 0.03343581 -0.23553626
-0.079999998 0.034540281 -0.23591517
-0.07 0.034565799 -0.23560247
-0.060000002 0.034349613 -0.23529607
-0.050000001 0.03427355 -0.23541227
-0.039999999 0.034089416 -0.23568593
-0.029999999 0.034355845 -0.23560248
-0.02 0.034370672 -0.2353968
-0.0099999998 0.034819584 -0.2355125
0.02 0.034117453 -0.23538223
0.029999997 0.034730308 -0.23581031
0.050000001 0.034481697 -0.23515356
0.050000004 0.034331653 -0.23588727
0.060000002 0.034675241 -0.2353735
0.07 0.03456112 -0.23540036
-0.079999998 0.035280764 -0.23527977
-0.070000008 0.035706177 -0.23527774
-0.060000002 0.035602212 -0.23560539
-0.050000001 0.035781894 -0.23533699
-0.029999999 0.03544246 -0.23536353
-0.02 0.035095438 -0.23589398
-0.0099999998 0.03546226 -0.23534313
0.0099999998 0.035954248 -0.23543803
0.02 0.035544455 -0.23545055
0.029999997 0.035390213 -0.23528498
0.039999999 0.03548792 -0.23550335
0.050000001 0.035850726 -0.23519319
0.050000004 0.035989936 -0.23549926
0.059999999 0.035069641 -0.23506832
0.060000002 0.035454527 -0.23521715
0.07 0.035302486 -0.23556855
0.070000008 0.035679836 -0.23519927
0.079999998 0.035435583 -0.23578785
-0.079999998 0.03645128 -0.23514859
-0.07 0.036524855 -0.23549604
-0.050000001 0.036354519 -0.23528439
-0.039999999 0.036189876 -0.23596911
-0.029999997 0.036503553 -0.23549837
-0.02 0.036748141 -0.23571332
0.0099999998 0.036399283 -0.23539026
0.02 0.036525838 -0.23539883
0.029999997 0.036568046 -0.23547332
0.039999999 0.036570746 -0.23504479
0.050000001 0.036912993 -0.23590718
0.059999999 0.036347061 -0.23570734
0.060000002 0.036144357 -0.23551509
0.069999993 0.036901493 -0.2356988
0.079999998 0.036526937 -0.23536503
-0.079999998 0.037371334 -0.23568955
-0.070000008 0.037201811 -0.23527837
-0.060000002 0.03724049 -0.23570028
-0.039999999 0.037465505 -0.23567547
-0.029999999 0.03742408 -0.23550086
-0.02 0.037428491 -0.23539348
-0.0099999998 0.03745541 -0.23588467
0.0099999998 0.037784748 -0.2358743
0.02 0.037535794 -0.23562278
0.029999999 0.037448429 -0.23574403
0.049999997 0.037431717 -0.23540106
0.059999999 0.037409239 -0.23561847
0.060000002 0.03727318 -0.23570561
0.07 0.037695199 -0.23554644
0.079999998 0.037727393 -0.23525012
-0.079999998 0.038495958 -0.23589243
-0.059999999 0.03848144 -0.23572622
-0.050000001 0.038254552 -0.23522072
-0.029999999 0.038072083 -0.23583408
-0.02 0.038565349 -0.23528929
-0.0099999998 0.03875773 -0.23578669
0.0099999998 0.038120098 -0.235642
0.02 0.038876206 -0.23583025
0.029999999 0.038832527 -0.23519032
0.030000001 0.038665425 -0.23545814
0.039999999 0.038287565 -0.23501495
0.050000001 0.0387154 -0.2355541
0.059999999 0.038936723 -0.23550715
0.07 0.038283549 -0.2351075
0.079999998 0.038568106 -0.23554336
-0.079999998 0.039747555 -0.2357394
-0.070000008 0.039726116 -0.23538837
-0.059999995 0.039340563 -0.23521048
-0.050000004 0.039390694 -0.23530205
-0.039999999 0.039864548 -0.23531134
-0.029999999 0.039435558 -0.23553397
-0.02 0.039793678 -0.23596103
-0.0099999988 0.039343908 -0.23574333
0.0099999998 0.039400786 -0.23540115
0.02 0.039755665 -0.235037
0.029999997 0.039607473 -0.23549527
0.039999999 0.039364714 -0.23547292
0.050000001 0.039609686 -0.23588848
0.059999999 0.039642625 -0.23523298
0.079999998 0.039520733 -0.23528044
-0.079999998 0.040173598 -0.23543607
-0.07 0.040212769 -0.2356618
-0.059999999 0.040627595 -0.23556381
-0.039999999 0.040615272 -0.23549502
-0.029999999 0.040259711 -0.23519002
-0.02 0.040614378 -0.23555999
-0.0099999998 0.040392123 -0.23508739
0.0099999998 0.040934127 -0.23516241
0.02 0.040436126 -0.235349
0.029999999 0.040453024 -0.23543732
0.030000001 0.040500671 -0.23573717
0.039999999 0.040693365 -0.23524828
0.050000001 0.040575527 -0.23552856
0.059999999 0.040393524 -0.23551369
0.060000002 0.040119607 -0.23557498
0.07 0.040721036 -0.23539551
-0.079999998 0.041446228 -0.23573026
-0.069999993 0.041586544 -0.23542985
-0.060000002 0.041769631 -0.23552758
-0.050000008 0.041350037 -0.23544243
-0.039999999 0.041240811 -0.2351937
-0.02 0.041505888 -0.235416
0.0099999998 0.041407339 -0.23559171
0.029999997 0.04135862 -0.23530632
0.030000001 0.041920952 -0.23516104
0.050000001 0.04144673 -0.23565716
0.059999995 0.041810766 -0.23552814
0.060000002 0.04198195 -0.23541453
0.070000008 0.04147131 -0.23584947
-0.079999998 0.042526893 -0.2353687
-0.070000008 0.042402845 -0.23575738
-0.059999999 0.04235759 -0.23520875
-0.050000004 0.042185415 -0.23516859
-0.039999999 0.042259328 -0.23526973
-0.029999999 0.042341314 -0.23542857
-0.02 0.04244272 -0.23528317
-0.0099999998 0.04251308 -0.23521623
0.02 0.042771112 -0.23547024
0.030000001 0.042417131 -0.23584823
0.039999999 0.042022191 -0.23549819
0.050000004 0.042585474 -0.23556159
0.050000004 0.042885885 -0.23530944
0.059999999 0.042116575 -0.23528582
0.060000002 0.042660013 -0.23585784
0.07 0.042416006 -0.23544508
0.079999998 0.042801481 -0.23533624
-0.079999998 0.043444172 -0.23543712
-0.07 0.043642562 -0.23543587
-0.059999995 0.0431857 -0.23575385
-0.050000001 0.04356857 -0.23566598
-0.039999999 0.0434273 -0.23548023
-0.030000001 0.043734021 -0.23544703
-0.02 0.043415517 -0.23538315
-0.0099999998 0.043623939 -0.23588234
0.0099999998 0.043498237 -0.23573595
0.02 0.043753698 -0.23552649
0.029999997 0.04383539 -0.23577788
0.030000001 0.043448996 -0.23530099
0.039999999 0.043812837 -0.23564547
0.050000001 0.04348053 -0.2356139
0.050000004 0.043919247 -0.23584065
0.059999995 0.043468066 -0.23543343
0.060000002 0.04392115 -0.2357447
0.070000008 0.043431379 -0.23556051
0.070000008 0.043635637 -0.23539324
0.079999998 0.043371942 -0.2353292
-0.079999998 0.044625409 -0.23542862
-0.07 0.044187505 -0.23525822
-0.059999995 0.044566356 -0.235964
-0.039999999 0.044089556 -0.23558459
-0.029999997 0.044394508 -0.23585239
-0.02 0.044225037 -0.23527804
-0.0099999998 0.044633441 -0.2356232
0.0099999998 0.044084247 -0.23596801
0.02 0.044736452 -0.2356647
0.030000001 0.044456899 -0.2352082
0.039999999 0.044413734 -0.2356246
0.050000004 0.044359025 -0.23544592
0.060000002 0.044532634 -0.23550697
0.070000008 0.044651978 -0.2355518
0.079999998 0.044522353 -0.23573574
-0.070000008 0.04573781 -0.23537078
-0.060000002 0.045391727 -0.23546313
-0.050000004 0.045373589 -0.23557007
-0.039999999 0.045640975 -0.23542576
-0.029999999 0.045745563 -0.23573127
-0.02 0.045485422 -0.23561305
-0.0099999998 0.045171089 -0.23592919
0.0099999998 0.045737967 -0.23577599
0.02 0.045542087 -0.23555216
0.029999997 0.045206644 -0.23522209
0.030000001 0.045882039 -0.23539746
0.039999999 0.045431696 -0.23542973
0.049999997 0.045632768 -0.23532681
0.059999995 0.045180861 -0.23556608
0.060000002 0.045588553 -0.23535851
0.070000008 0.045468852 -0.23548496
0.079999998 0.045566805 -0.23581792
-0.079999998 0.046523467 -0.23542795
-0.07 0.046158385 -0.23583351
-0.050000004 0.046040285 -0.23512754
-0.039999999 0.046286903 -0.23538187
-0.030000001 0.046624273 -0.23548108
-0.02 0.046584368 -0.23540306
-0.0099999998 0.046680026 -0.23533556
0.0099999998 0.046665665 -0.23561864
0.02 0.046405368 -0.23535816
0.030000001 0.046397679 -0.23531073
0.039999999 0.046033673 -0.23583999
0.049999997 0.046726111 -0.23559055
0.059999995 0.046255171 -0.23570648
0.07 0.046373174 -0.23556611
0.079999998 0.046481654 -0.23525584
-0.079999998 0.047731753 -0.2354635
-0.070000008 0.047506385 -0.23534942
-0.059999999 0.047699388 -0.23563255
-0.050000004 0.04760256 -0.23579317
-0.039999999 0.047754671 -0.23518515
-0.030000001 0.047486097 -0.23538837
-0.0099999998 0.047418043 -0.23543617
0.0099999998 0.047227703 -0.23557416
0.02 0.047702339 -0.23542477
0.029999997 0.04777319 -0.23546863
0.039999999 0.047849327 -0.23530278
0.049999997 0.047185004 -0.23512881
0.059999999 0.047554858 -0.23544243
0.07 0.047570147 -0.23548809
0.079999998 0.047809549 -0.23503534
-0.079999998 0.048760612 -0.23554534
-0.050000004 0.048316885 -0.23514634
-0.039999999 0.048459779 -0.23529461
-0.030000001 0.048505355 -0.23508358
-0.02 0.048486322 -0.23517007
0.0099999998 0.048345514 -0.235332
0.02 0.048626855 -0.23558101
0.029999997 0.048213735 -0.23508076
0.039999999 0.048775181 -0.2356143
0.049999997 0.04869201 -0.23531781
0.050000004 0.048426755 -0.23553294
0.059999995 0.048308149 -0.23582238
0.060000002 0.048092138 -0.23595046
0.07 0.04853949 -0.23557368
0.070000008 0.048252255 -0.23574814
0.079999998 0.048325893 -0.23557994
-0.079999998 0.049009345 -0.23594122
-0.07 0.049064413 -0.23511994
-0.060000002 0.049321078 -0.23527992
-0.050000001 0.049454361 -0.23565476
-0.039999999 0.049444381 -0.23538129
-0.030000001 0.049087401 -0.23562948
-0.02 0.049490809 -0.23558943
-0.0099999998 0.049935013 -0.23532499
0.0099999998 0.049304001 -0.23518851
0.02 0.049343728 -0.23534775
0.039999999 0.04986959 -0.23549151
0.049999997 0.049618326 -0.23557618
0.059999995 0.049208853 -0.23588639
0.060000002 0.049693592 -0.23538177
0.07 0.049744252 -0.2353102
0.079999998 0.049489792 -0.23533887
-0.079999998 0.050707977 -0.23598823
-0.070000008 0.050463051 -0.23526761
-0.059999999 0.050812609 -0.23561013
-0.039999999 0.05032032 -0.23537894
-0.029999999 0.050689809 -0.23559573
-0.02 0.050491229 -0.23582038
-0.0099999998 0.050615322 -0.23570687
0.0099999998 0.0502709 -0.23528574
0.029999997 0.050689947 -0.23515356
0.030000001 0.050049216 -0.23560241
0.039999999 0.050201636 -0.23539321
0.050000004 0.05084629 -0.23571956
0.059999995 0.050543591 -0.23541401
0.079999998 0.050603863 -0.2355938
-0.079999998 0.051341079 -0.23560922
-0.059999999 0.051406533 -0.23560789
-0.050000004 0.05148178 -0.23550062
-0.039999999 0.051354483 -0.23525433
-0.029999997 0.051534772 -0.23540419
-0.02 0.051339407 -0.23584622
-0.0099999998 0.051376499 -0.23580769
0.0099999998 0.051418386 -0.23563018
0.02 0.051689547 -0.2354458
0.029999997 0.0511939 -0.23562208
0.030000001 0.05110376 -0.235286
0.039999999 0.051003158 -0.23565441
0.050000001 0.051642425 -0.23541129
0.050000004 0.051888488 -0.23530054
0.060000002 0.051478304 -0.2358886
0.07 0.051793262 -0.23528765
-0.079999998 0.05269774 -0.23537332
-0.07 0.052891582 -0.23558274
-0.049999997 0.052496236 -0.23543015
-0.039999999 0.052553311 -0.23545316
-0.029999997 0.052597526 -0.2355154
-0.02 0.052593172 -0.23500109
0.0099999998 0.052479349 -0.2353019
0.02 0.052563529 -0.23534635
0.029999999 0.052367445 -0.23599012
0.039999999 0.052487046 -0.23545882
0.050000004 0.052446824 -0.23541641
0.050000004 0.052399717 -0.235908
0.07 0.052316695 -0.23537388
0.070000008 0.052667819 -0.23591577
0.079999998 0.052539848 -0.23556103
-0.079999998 0.053659908 -0.23545557
-0.069999993 0.053347338 -0.23550303
-0.059999995 0.053602494 -0.2354034
-0.049999997 0.053143185 -0.23545037
-0.039999999 0.05351422 -0.23530099
-0.029999997 0.053656526 -0.23595589
-0.02 0.05370177 -0.23598596
-0.0099999998 0.053693868 -0.23579285
0.0099999998 0.05345577 -0.23554027
0.02 0.053636231 -0.23550798
0.029999999 0.053132929 -0.23551224
0.030000001 0.053992249 -0.2358679
0.039999999 0.053419661 -0.23527806
0.050000001 0.053615704 -0.23573352
0.050000004 0.053128306 -0.235496
0.059999995 0.05385574 -0.23525724
0.060000002 0.053148217 -0.23549658
0.07 0.053512491 -0.23549664
-0.079999998 0.054317798 -0.23535137
-0.07 0.05442325 -0.23533952
-0.059999995 0.054620475 -0.23543058
-0.050000001 0.054549411 -0.2356858
-0.039999999 0.054565191 -0.23548448
-0.029999999 0.054637652 -0.23544185
-0.02 0.054658778 -0.23532507
-0.0099999998 0.05452181 -0.23547274
0.0099999988 0.054496501 -0.23511636
0.02 0.05462645 -0.23557566
0.029999999 0.05424739 -0.23578887
0.039999999 0.054605506 -0.23536894
0.050000001 0.054365691 -0.23571676
0.059999999 0.054167487 -0.23554771
0.060000002 0.054083958 -0.23584795
0.070000008 0.054309405 -0.23554325
0.079999998 0.054780662 -0.235796
-0.079999998 0.055829313 -0.23541754
-0.070000008 0.055401921 -0.23586085
-0.060000002 0.055626296 -0.23546946
-0.039999999 0.05541604 -0.23540679
-0.029999999 0.055317469 -0.23527768
-0.0099999998 0.055773012 -0.23550911
0.0099999998 0.055409517 -0.23545274
0.02 0.055449963 -0.2355824
0.029999999 0.055576377 -0.23517212
0.039999999 0.055568814 -0.2358688
0.050000004 0.055370957 -0.23541193
0.059999995 0.05522155 -0.23562089
0.060000002 0.05543926 -0.23572001
0.07 0.05548393 -0.23563693
0.079999998 0.055512782 -0.23550777
-0.079999998 0.056558684 -0.23574111
-0.07 0.056501985 -0.23586234
-0.059999999 0.056476906 -0.23505449
-0.050000004 0.056491978 -0.23559575
-0.039999999 0.056387201 -0.23520818
-0.029999997 0.056278743 -0.23548195
-0.02 0.056542516 -0.23544
0.0099999998 0.056664333 -0.23550777
0.02 0.056639947 -0.23543715
0.029999999 0.056853734 -0.23556414
0.030000001 0.056242019 -0.23575579
0.039999999 0.056530219 -0.23558061
0.050000004 0.056321334 -0.23575598
0.060000002 0.056832857 -0.23540093
0.070000008 0.056295078 -0.23551767
0.079999998 0.056373537 -0.23529777
-0.079999998 0.057283323 -0.23523906
-0.070000008 0.057436265 -0.23586124
-0.060000002 0.057441045 -0.2353546
-0.050000001 0.057819009 -0.23562999
-0.039999999 0.057699665 -0.23558614
-0.029999999 0.057759464 -0.23590502
-0.02 0.057586484 -0.23537891
-0.0099999998 0.057891257 -0.2355286
0.0099999998 0.057856582 -0.2356873
0.029999997 0.057559207 -0.23565248
0.039999999 0.0572212 -0.23583379
0.049999997 0.057683252 -0.23538344
0.050000004 0.057897948 -0.23518415
0.059999995 0.057342879 -0.2354309
0.060000002 0.057236783 -0.23562549
0.07 0.057143144 -0.2351746
0.079999998 0.057617325 -0.23589492
-0.079999991 0.058359127 -0.23536649
-0.070000008 0.058461107 -0.23584488
-0.060000002 0.058662936 -0.23557845
-0.050000001 0.058611423 -0.23537207
-0.039999999 0.058518924 -0.23547086
-0.029999997 0.058549739 -0.23590097
-0.02 0.058113553 -0.23520261
-0.0099999998 0.058882173 -0.23538169
0.0099999998 0.05827558 -0.23537347
0.02 0.058597602 -0.23521513
0.049999997 0.058648467 -0.23541701
0.050000004 0.058626588 -0.23576255
0.059999995 0.058042862 -0.23569486
0.060000002 0.058089435 -0.23508492
0.07 0.058844063 -0.23544331
0.079999998 0.058418807 -0.23543122
-0.0797626 0.059931085 -0.2355738
-0.07863114 0.059999995 -0.23587009
-0.077195607 0.059999995 -0.2354726
-0.076252244 0.059999995 -0.23541953
-0.075430013 0.059999995 -0.23583624
-0.074319661 0.059999995 -0.23555249
-0.073474973 0.059999999 -0.23570566
-0.072607704 0.059999995 -0.23571274
-0.07136552 0.059999999 -0.23573929
-0.070216335 0.059999999 -0.23525587
-0.07 0.059000574 -0.23536849
-0.05971035 0.059749514 -0.23537412
-0.058534041 0.059999995 -0.23558609
-0.057258256 0.059999995 -0.23500691
-0.055190075 0.059999999 -0.23515242
-0.053416617 0.059999999 -0.23501554
-0.052888103 0.059999995 -0.23539671
-0.05145051 0.059999995 -0.23500569
-0.050503835 0.059999999 -0.23531809
-0.050000004 0.059776694 -0.23563069
-0.039999999 0.059669152 -0.23564397
-0.038613223 0.059999999 -0.23549025
-0.037514485 0.059999995 -0.23546273
-0.036364302 0.059999999 -0.23564333
-0.0357375 0.059999999 -0.23563817
-0.034251899 0.059999995 -0.23558712
-0.033667196 0.059999999 -0.23536436
-0.03156149 0.059999999 -0.2354168
-0.03058766 0.059999999 -0.23576078
-0.029999999 0.059475638 -0.23557338
-0.02 0.059376389 -0.23573419
-0.017750286 0.059999995 -0.2357921
-0.016797818 0.059999999 -0.23531595
-0.01579308 0.059999999 -0.23502228
-0.014573414 0.059999999 -0.23526101
-0.013120575 0.059999999 -0.23516904
-0.012301628 0.059999995 -0.23549227
-0.01177239 0.059999999 -0.23512568
-0.010734524 0.059999999 -0.23520294
-0.0099999998 0.059830677 -0.23585707
0.0099999998 0.059485182 -0.23541622
0.01061607 0.059999999 -0.2352939
0.011709237 0.059999995 -0.23563462
0.012778978 0.059999999 -0.2355765
0.015554246 0.059999999 -0.23570897
0.016485931 0.059999995 -0.23549944
0.017437052 0.059999995 -0.23556092
0.02 0.059103299 -0.23555794
0.029999999 0.059823327 -0.23517406
0.030250369 0.059539333 -0.23581529
0.031515002 0.059999995 -0.2356219
0.032404128 0.059999995 -0.23571998
0.03391457 0.059999999 -0.23514858
0.034482148 0.059999999 -0.23570806
0.035321232 0.059999999 -0.23538269
0.036770202 0.059999995 -0.23538178
0.038597494 0.059999995 -0.23532382
0.039999999 0.059342071 -0.23575954
0.050000001 0.059039 -0.2355369
0.050368577 0.059912581 -0.2354041
0.051930182 0.059999995 -0.23505896
0.053590383 0.059999995 -0.23557261
0.054270864 0.059999999 -0.235401
0.055423301 0.059999999 -0.23527578
0.056473993 0.059999995 -0.23584454
0.058907945 0.059999999 -0.23563138
0.059635766 0.059999999 -0.23575227
0.060000002 0.059856243 -0.23537663
0.07 0.059218671 -0.23523208
0.070441924 0.059999999 -0.2354252
0.071302369 0.059999999 -0.23503411
0.072269551 0.059999999 -0.23550782
0.073161185 0.059999995 -0.23518637
0.075353414 0.059999995 -0.2358851
0.07666333 0.059999999 -0.23548403
0.077078566 0.059999999 -0.2356075
0.078577988 0.059999995 -0.23511979
0.079735518 0.059629381 -0.23543492
-0.072693691 0.060000002 -0.23537475
-0.07141982 0.060000002 -0.23542219
-0.056056403 0.060000002 -0.23558037
-0.052557092 0.060000002 -0.23573233
-0.037793819 0.060000002 -0.23546575
-0.036035314 0.060000002 -0.23576723
-0.034134328 0.060000002 -0.23544577
-0.032554597 0.060000002 -0.23592702
-0.030660193 0.060000002 -0.23540378
-0.019514484 0.060000002 -0.23550919
-0.018384479 0.060000002 -0.23542824
-0.017369658 0.060000002 -0.23573075
-0.01651324 0.060000002 -0.23538145
-0.010449422 0.060000002 -0.235699
0.011296031 0.060000002 -0.235221
0.013437688 0.060000002 -0.23504174
0.017595343 0.060000002 -0.23557006
0.031238217 0.060000002 -0.23529474
0.033511084 0.060000002 -0.23522875
0.034023922 0.060000002 -0.23595634
0.035663806 0.060000002 -0.23563531
0.039231546 0.060000002 -0.2350345
0.05146135 0.060000002 -0.23501644
0.052726686 0.060000002 -0.2357883
0.056813017 0.060000002 -0.23583868
0.058215525 0.060000002 -0.2356194
0.073470935 0.060000002 -0.2355215
0.077614047 0.060000002 -0.23577331
0.078354508 0.060000002 -0.23527037
-0.059828889 -0.0096170325 -0.23460996
-0.058742866 -0.0099999998 -0.23486841
-0.057419349 -0.0099999998 -0.23440059
-0.056300551 -0.0099999998 -0.23420453
-0.055317301 -0.0099999998 -0.23436373
-0.054705299 -0.0099999998 -0.23448658
-0.053306632 -0.0099999998 -0.23485839
-0.052259486 -0.0099999998 -0.23433426
-0.051183686 -0.0099999998 -0.23472548
-0.050952978 -0.0099999998 -0.23468435
-0.049530908 -0.0099999998 -0.23450001
-0.048384849 -0.0099999998 -0.23489997
-0.047204312 -0.0099999998 -0.23450029
-0.046419494 -0.0099999998 -0.23451547
-0.045188107 -0.0099999998 -0.23469189
-0.044803884 -0.0099999998 -0.23448525
-0.043368842 -0.0099999998 -0.23427288
-0.042361721 -0.0099999998 -0.23441659
-0.041564859 -0.0099999998 -0.23440966
-0.040674351 -0.0099999998 -0.23416051
-0.039488457 -0.0099999998 -0.23445252
-0.038395949 -0.0099999998 -0.23447853
-0.03779621 -0.0099999998 -0.23481631
-0.036487851 -0.0099999998 -0.2344918
-0.035573959 -0.0099999998 -0.23458445
-0.034120016 -0.0099999998 -0.23450914
-0.033377476 -0.0099999998 -0.23468089
-0.032943014 -0.0099999998 -0.2346763
-0.031361654 -0.0099999998 -0.23479348
-0.030727793 -0.0099999998 -0.23440269
-0.029550787 -0.0099999998 -0.2343294
-0.028145485 -0.0099999998 -0.2342262
-0.025269018 -0.0099999998 -0.2345289
-0.024845857 -0.0099999998 -0.23491235
-0.023511358 -0.0099999998 -0.2345401
-0.022232059 -0.0099999998 -0.23426028
-0.021475835 -0.0099999998 -0.23456061
-0.020629063 -0.0099999998 -0.23428653
-0.019596942 -0.0099999998 -0.23454522
-0.017299281 -0.0099999998 -0.23475358
-0.01643618 -0.0099999998 -0.23433344
-0.015473202 -0.0099999998 -0.23452403
-0.014243744 -0.0099999998 -0.23453419
-0.013572503 -0.0099999998 -0.23446977
-0.012603194 -0.0099999998 -0.23449877
-0.011761031 -0.0099999998 -0.23455521
-0.0092980862 -0.0099999998 -0.23496471
-0.0080536623 -0.0099999998 -0.23461102
-0.0074746134 -0.0099999998 -0.23469625
-0.0066701896 -0.0099999998 -0.23461422
-0.0056328974 -0.0099999998 -0.234466
-0.0045394138 -0.0099999998 -0.23414484
-0.0023611668 -0.0099999998 -0.23410168
-0.0014279829 -0.0099999998 -0.23448211
-0.00054388092 -0.0099999998 -0.23465684
0.0013806697 -0.0099999998 -0.23444557
0.0023088863 -0.0099999998 -0.23456477
0.0033634063 -0.0099999998 -0.23464036
0.0045028604 -0.0099999998 -0.23473062
0.0057324879 -0.0099999998 -0.23458722
0.0061073117 -0.0099999998 -0.23473632
0.0074102818 -0.0099999998 -0.23457508
0.0085817426 -0.0099999998 -0.23404133
0.0093237991 -0.0099999998 -0.23455513
0.010369129 -0.0099999998 -0.23425977
0.011273107 -0.0099999998 -0.23422125
0.012568126 -0.0099999998 -0.23460273
0.013469315 -0.0099999998 -0.23431537
0.014610035 -0.0099999998 -0.23411565
0.015496467 -0.0099999998 -0.23459347
0.016421309 -0.0099999998 -0.23455441
0.017320439 -0.0099999998 -0.23446552
0.018403983 -0.0099999998 -0.23480722
0.019288477 -0.0099999998 -0.23476928
0.020551089 -0.0099999998 -0.23416455
0.021804588 -0.0099999998 -0.23454759
0.022303199 -0.0099999998 -0.23476426
0.024347048 -0.0099999998 -0.23456684
0.025419911 -0.0099999998 -0.23437652
0.026415417 -0.0099999998 -0.23443951
0.027193584 -0.0099999998 -0.23420131
0.028364768 -0.0099999998 -0.23452373
0.029449945 -0.0099999998 -0.23470359
0.031323828 -0.0099999998 -0.23424189
0.032557104 -0.0099999998 -0.23459212
0.033465236 -0.0099999998 -0.23467456
0.034701355 -0.0099999998 -0.2343898
0.035623439 -0.0099999998 -0.23454602
0.036186025 -0.0099999998 -0.23472509
0.037739206 -0.0099999998 -0.23477653
0.038398251 -0.0099999998 -0.23419751
0.039534315 -0.0099999998 -0.23434219
0.040334649 -0.0099999998 -0.23437691
0.041670896 -0.0099999998 -0.23468024
0.042383604 -0.0099999998 -0.23464477
0.043716222 -0.0099999988 -0.23438725
0.044798762 -0.0099999998 -0.23488757
0.045602329 -0.0099999998 -0.23458123
0.046080016 -0.0099999998 -0.234488
0.047483899 -0.0099999998 -0.23440354
0.048506036 -0.0099999998 -0.23450866
0.049741596 -0.0099999998 -0.23465884
0.050867312 -0.0099999998 -0.23448868
0.051461212 -0.0099999998 -0.23434031
0.052600976 -0.0099999998 -0.23460749
0.053269319 -0.0099999998 -0.23442863
0.054911263 -0.0099999998 -0.23401445
0.055343024 -0.0099999998 -0.23432161
0.056971904 -0.0099999998 -0.23456779
0.05714849 -0.0099999998 -0.2343754
0.058615744 -0.0099999998 -0.23425478
0.059796426 -0.0096468776 -0.23424053
-0.059889805 -0.0082975747 -0.23467241
-0.059850574 -0.0076915785 -0.23481777
0.05983733 -0.0074453056 -0.23454821
-0.059930805 -0.0060889618 -0.23476028
0.059911147 -0.0063069323 -0.23435354
-0.060020626 -0.0050931973 -0.23489156
-0.059941798 -0.0059670694 -0.23416416
0.059965126 -0.0057084486 -0.23440602
-0.060074493 -0.0046679648 -0.23451604
0.060035888 -0.0049239956 -0.23420116
-0.060356371 -0.0034056406 -0.23426434
0.060349651 -0.0034325654 -0.23448543
-0.060577251 -0.0025201535 -0.23406686
0.060624022 -0.0023326739 -0.23488718
-0.061003178 -0.0012607622 -0.23479235
-0.060785964 -0.0017759093 -0.23461547
0.06089329 -0.0015213767 -0.23441309
0.061085507 -0.0010654841 -0.23495561
-0.061272286 -0.00062251289 -0.23427579
0.061380297 -0.0003663539 -0.23469323
-0.062008448 0.00095872517 -0.2349413
0.06182019 0.00062761892 -0.23462108
-0.062571466 0.0018697048 -0.23434785
0.062466007 0.0016990699 -0.2347523
-0.063141853 0.0027926173 -0.23492876
-0.062997445 0.0025589636 -0.23411089
0.06293416 0.0024565761 -0.23406166
0.063003972 0.0025695246 -0.23445529
-0.063653879 0.0034279318 -0.23450734
0.063541681 0.0032969019 -0.23447764
0.064122207 0.0039748712 -0.23460682
-0.064512171 0.0044302903 -0.23434348
0.064803615 0.0047706533 -0.23452604
-0.066011243 0.0058658868 -0.23444282
-0.065636232 0.0055447756 -0.23449519
0.065196097 0.0051679136 -0.23421404
-0.066783905 0.0065274835 -0.2347502
0.066615939 0.0063836584 -0.23414357
-0.069018975 0.007977766 -0.23438422
-0.06841962 0.0076073362 -0.23442677
-0.067962229 0.0073246532 -0.23470031
0.068509951 0.0076631652 -0.23433942
0.069024131 0.0079809474 -0.23470229
-0.07090538 0.0088469926 -0.23428485
-0.069529019 0.0082666511 -0.2349494
0.069340438 0.008161433 -0.23438518
-0.075051263 0.0099756271 -0.2349565
-0.074532464 0.0099247713 -0.23428074
-0.073886901 0.0097637251 -0.23425539
-0.072820216 0.0094976239 -0.23432928
-0.071813092 0.0092297317 -0.23432198
0.071520247 0.0091062551 -0.23474681
0.073665269 0.0097084371 -0.23457031
0.074552253 0.0099087274 -0.23463981
0.075194366 0.0099885333 -0.2341709
-0.079809964 0.01047818 -0.23428215
-0.078533582 0.010094918 -0.23437169
-0.076311752 0.010089308 -0.23481143
-0.075532496 0.010019029 -0.23408124
0.07572037 0.010035973 -0.23418479
0.076315247 0.010089625 -0.23448096
0.077477112 0.010153744 -0.23458473
0.078508258 0.010096557 -0.23449536
0.079626329 0.01040436 -0.23429318
-0.079999998 0.011821546 -0.23458032
0.079999998 0.011661673 -0.2345835
-0.079999998 0.012639395 -0.23444651
0.079999998 0.012527156 -0.23474011
-0.079999998 0.013524933 -0.23426804
0.079999998 0.013372024 -0.23437634
-0.079999998 0.014651619 -0.23484707
0.079999998 0.014362692 -0.23443829
-0.079999998 0.01572578 -0.23458329
0.079999998 0.015325864 -0.23457952
-0.079999998 0.016727282 -0.2346451
0.079999998 0.016353771 -0.23451535
0.079999998 0.017373197 -0.23471031
-0.079999998 0.018657679 -0.23456334
0.079999998 0.018614898 -0.2343978
-0.079999998 0.019544913 -0.23463739
-0.069512732 0.02 -0.2345715
-0.068574563 0.02 -0.23450902
-0.067242883 0.02 -0.23481235
-0.065458506 0.02 -0.23448116
-0.06421762 0.02 -0.23403338
-0.063731909 0.02 -0.23413303
-0.062521569 0.02 -0.23480356
-0.061374456 0.02 -0.23455119
-0.060411185 0.02 -0.2347329
-0.049843468 0.02 -0.23451035
-0.047702592 0.02 -0.23464562
-0.046902604 0.02 -0.23442775
-0.045442604 0.02 -0.23441605
-0.043499392 0.02 -0.23437086
-0.042553663 0.02 -0.23450243
-0.041488253 0.02 -0.2344847
-0.040284086 0.02 -0.2344458
-0.029456217 0.02 -0.23449776
-0.02877829 0.02 -0.23466572
-0.027637172 0.02 -0.23451054
-0.026935298 0.02 -0.23413111
-0.025563926 0.02 -0.2349242
-0.024385339 0.02 -0.23457421
-0.023244774 0.02 -0.23448597
-0.022499111 0.02 -0.23457067
-0.021689599 0.02 -0.2342757
-0.020577867 0.02 -0.23419343
-0.0091466606 0.02 -0.23464501
-0.0085829403 0.02 -0.23435006
-0.0078191208 0.02 -0.23447558
-0.0065700011 0.02 -0.23460054
-0.0054959944 0.02 -0.23456602
-0.0041616326 0.02 -0.23489174
-0.0039929943 0.02 -0.23447172
-0.0024292362 0.02 -0.23414318
-0.0015581599 0.02 -0.23453751
-0.00078551692 0.02 -0.23443264
0.00071467226 0.02 -0.2344164
0.0010788117 0.02 -0.23483621
0.0022790267 0.02 -0.23434278
0.0031986027 0.02 -0.23449299
0.0042473492 0.02 -0.23425668
0.0055630086 0.02 -0.23460013
0.0062808632 0.02 -0.23419672
0.0078113265 0.02 -0.23421213
0.020129789 0.02 -0.23477635
0.021643605 0.02 -0.23453468
0.022192717 0.02 -0.2349627
0.023585264 0.02 -0.23479448
0.024331491 0.02 -0.23458494
0.026472485 0.02 -0.23438558
0.028175067 0.02 -0.23492
0.02966788 0.02 -0.2344933
0.040558569 0.02 -0.2342269
0.04148097 0.02 -0.23464762
0.042720851 0.02 -0.23437893
0.043171696 0.02 -0.2344393
0.044700187 0.02 -0.23453194
0.045646328 0.02 -0.23419684
0.046669822 0.02 -0.23484352
0.047216609 0.02 -0.23454523
0.048432469 0.02 -0.23449445
0.049599648 0.02 -0.23460786
0.060851514 0.02 -0.2346493
0.061401617 0.02 -0.23471028
0.062637612 0.02 -0.23444416
0.065689348 0.02 -0.23430748
0.066861473 0.02 -0.23467337
0.067368798 0.02 -0.234409
0.068009824 0.02 -0.23454279
0.069355592 0.02 -0.23461203
0.079999998 0.019504968 -0.23469187
-0.079999998 0.020445269 -0.23469584
-0.059999999 0.020667065 -0.23464863
-0.049999997 0.020813365 -0.2344026
-0.039999999 0.020600501 -0.23431832
-0.02 0.020408563 -0.23471013
-0.0099999998 0.020532861 -0.23450671
0.02 0.020472152 -0.23436247
0.029999997 0.020317886 -0.23412874
0.030000001 0.020983359 -0.23487356
0.039999999 0.020458415 -0.2344794
0.050000001 0.020337729 -0.23462966
0.050000004 0.02016947 -0.23401052
0.059999999 0.020249158 -0.23441093
0.07 0.020518478 -0.23469806
0.079999998 0.020560026 -0.23422392
-0.079999998 0.021847464 -0.23444247
-0.070000008 0.021525186 -0.23466341
-0.060000002 0.021648727 -0.23450571
-0.050000001 0.021518562 -0.2343175
-0.039999999 0.021444589 -0.23449735
-0.030000001 0.021022184 -0.23411706
-0.02 0.021332309 -0.23446238
-0.0099999998 0.021461876 -0.23425376
0.0099999998 0.021386052 -0.23438451
0.029999997 0.02145366 -0.23437265
0.030000001 0.02194196 -0.23402098
0.039999999 0.021665946 -0.23447497
0.050000004 0.02110176 -0.23491752
0.060000002 0.021737091 -0.23411727
0.07 0.021467712 -0.23451252
0.079999998 0.021599356 -0.23461497
-0.079999998 0.022148395 -0.23488697
-0.07 0.022082066 -0.23438831
-0.059999999 0.022204077 -0.23450732
-0.049999997 0.022857299 -0.23461549
-0.039999999 0.022216499 -0.23462598
-0.030000001 0.022230899 -0.23463449
-0.02 0.02237669 -0.23455703
-0.0099999998 0.022633687 -0.23493062
0.02 0.02222218 -0.23436812
0.029999997 0.022027267 -0.23447013
0.039999999 0.022797748 -0.23438844
0.050000001 0.022272591 -0.23450527
0.059999995 0.022425208 -0.23443912
0.07 0.022279449 -0.23424552
0.070000008 0.02213306 -0.23420137
-0.079999998 0.023290088 -0.23483694
-0.060000002 0.023425754 -0.23431396
-0.050000004 0.02340319 -0.23435086
-0.039999999 0.023519937 -0.2344262
-0.029999999 0.023275856 -0.23459537
-0.02 0.023488965 -0.23476219
0.0099999998 0.02340968 -0.23462957
0.02 0.023563415 -0.23450427
0.029999999 0.023482736 -0.23452449
0.030000001 0.023845175 -0.23409459
0.039999999 0.023638159 -0.23430277
0.050000001 0.0235289 -0.23404628
0.050000004 0.023655901 -0.23420081
0.07 0.023295216 -0.23469147
-0.079999998 0.024468815 -0.23412566
-0.07 0.024538388 -0.23444337
-0.060000002 0.024328491 -0.23423055
-0.050000004 0.024620023 -0.23458636
-0.039999999 0.024749435 -0.23457506
-0.02 0.024230095 -0.23412699
-0.0099999998 0.024673603 -0.23450178
0.0099999998 0.024018694 -0.2349529
0.02 0.024651844 -0.23450708
0.029999999 0.02402287 -0.23424746
0.039999999 0.024490509 -0.23466414
0.049999997 0.024537317 -0.2341477
0.059999999 0.024798177 -0.23482677
0.060000002 0.024111297 -0.23477608
0.07 0.0242295 -0.23441282
0.079999998 0.024451196 -0.23438478
-0.079999998 0.025645724 -0.23410887
-0.070000008 0.025586491 -0.2344247
-0.060000002 0.025184102 -0.23420364
-0.050000001 0.025870873 -0.23441364
-0.039999999 0.025451053 -0.23468897
-0.030000001 0.025234368 -0.23427501
-0.0099999998 0.025642917 -0.2345883
0.0099999998 0.025224164 -0.23433369
0.02 0.025755523 -0.23465526
0.029999997 0.025562948 -0.23495248
0.030000001 0.025491353 -0.23465846
0.039999999 0.025291895 -0.23442128
0.050000001 0.025231322 -0.23439637
0.050000004 0.025543425 -0.23446742
0.059999999 0.025269147 -0.23464946
0.070000008 0.025752865 -0.23464298
0.079999998 0.025623523 -0.23420851
-0.079999998 0.026867861 -0.23458377
-0.07 0.026530342 -0.23485097
-0.059999999 0.026508175 -0.23451805
-0.050000001 0.026399624 -0.23438016
-0.029999999 0.026536107 -0.23449379
-0.02 0.026345529 -0.23441991
-0.0099999998 0.0263437 -0.23464088
0.0099999998 0.026406892 -0.23446169
0.02 0.026388116 -0.23477128
0.029999999 0.026397575 -0.23477711
0.030000001 0.026027864 -0.23428881
0.039999999 0.026793495 -0.2349596
0.059999995 0.026779559 -0.23449963
0.060000002 0.026815526 -0.23417088
0.07 0.026626989 -0.23464195
0.079999998 0.026325289 -0.23409717
-0.079999998 0.027603408 -0.23472059
-0.070000008 0.027706234 -0.23473907
-0.060000002 0.027477434 -0.23428763
-0.050000004 0.027179576 -0.23463142
-0.039999999 0.027466906 -0.23463476
-0.02 0.027326824 -0.23434269
-0.0099999998 0.027314138 -0.23468083
0.0099999998 0.027338421 -0.23450112
0.02 0.027349798 -0.23463801
0.030000001 0.027039006 -0.23438977
0.039999999 0.027697533 -0.23421508
0.049999997 0.027624773 -0.23462775
0.059999995 0.027445827 -0.23473789
0.060000002 0.027138697 -0.23432225
0.07 0.02761551 -0.23455057
0.079999998 0.027742775 -0.23407596
-0.069999993 0.028712299 -0.23427334
-0.050000004 0.028192947 -0.23462397
-0.030000001 0.028391561 -0.2346694
-0.02 0.028535811 -0.23438613
-0.0099999998 0.028568434 -0.23453563
0.0099999998 0.028326079 -0.23468262
0.02 0.028474368 -0.23409157
0.029999999 0.028998917 -0.23437692
0.039999999 0.028433133 -0.23472817
0.050000001 0.028468102 -0.2345358
0.050000004 0.028707417 -0.23490587
0.059999999 0.028529048 -0.23437706
0.07 0.028525051 -0.23430923
0.079999998 0.028414212 -0.23419783
-0.079999998 0.029544756 -0.23452345
-0.069999993 0.029410772 -0.23409931
-0.059999995 0.029900726 -0.23493853
-0.050000004 0.029518664 -0.23462245
-0.039999999 0.029030638 -0.23464529
-0.030000001 0.029415561 -0.23446977
-0.02 0.0294185 -0.23458354
0.0099999998 0.029485483 -0.23410259
0.02 0.029186886 -0.23405898
0.030000001 0.029407389 -0.2344327
0.060000002 0.029348955 -0.23421556
0.07 0.029547054 -0.23447837
0.079999998 0.029721949 -0.23425458
-0.079999998 0.030364251 -0.23457643
-0.070000008 0.030927319 -0.23483866
-0.059999995 0.030350264 -0.23450077
-0.039999999 0.030520465 -0.23459557
-0.029999997 0.030383123 -0.23435184
-0.02 0.030474685 -0.23460069
-0.0099999998 0.030798484 -0.23498394
0.0099999998 0.030590553 -0.23454797
0.02 0.030418856 -0.23454754
0.029999997 0.030857116 -0.23484725
0.030000001 0.030046029 -0.23455685
0.039999999 0.03058546 -0.23436931
0.050000001 0.03062354 -0.23424393
0.050000004 0.030282002 -0.2345652
0.059999999 0.030147726 -0.23415668
0.070000008 0.030455647 -0.23424946
0.079999998 0.030780699 -0.23458306
-0.069999993 0.031751521 -0.23443489
-0.059999995 0.031032391 -0.23466948
-0.050000004 0.031414948 -0.234451
-0.039999999 0.031573799 -0.23460558
-0.02 0.031444028 -0.23468271
-0.0099999998 0.031774703 -0.2345909
0.0099999998 0.031547152 -0.23434132
0.029999997 0.031529583 -0.23452492
0.039999999 0.031642377 -0.23451486
0.049999997 0.031547926 -0.23441419
0.060000002 0.031822696 -0.2344984
0.07 0.03156884 -0.23459849
0.079999998 0.031479716 -0.23451599
-0.079999998 0.032350503 -0.23411566
-0.070000008 0.032603003 -0.23425822
-0.049999997 0.032043431 -0.23473144
-0.039999999 0.032826528 -0.23442137
-0.030000001 0.032874282 -0.23400509
-0.02 0.032280173 -0.23427844
-0.0099999998 0.032482073 -0.23446959
0.0099999998 0.03248439 -0.2346763
0.02 0.032388724 -0.23478426
0.029999997 0.032066133 -0.23462637
0.039999999 0.03245195 -0.23421891
0.050000001 0.032712013 -0.23422606
0.050000004 0.032196715 -0.23453909
0.059999995 0.03204364 -0.23400526
0.070000008 0.032677744 -0.23445617
-0.079999998 0.033430524 -0.23420788
-0.069999993 0.033566996 -0.23463622
-0.059999995 0.033569265 -0.23463041
-0.049999997 0.033286612 -0.23448008
-0.039999999 0.03307531 -0.2341008
-0.029999999 0.033748798 -0.23475268
-0.02 0.03358113 -0.23414081
-0.0099999998 0.033624545 -0.23454016
0.0099999998 0.03384991 -0.23463687
0.02 0.033577632 -0.23450002
0.029999997 0.033130854 -0.2347447
0.039999999 0.033489477 -0.23459843
0.049999997 0.033574022 -0.23448944
0.050000004 0.03394476 -0.23476517
0.07 0.033289555 -0.23428351
0.079999998 0.033563316 -0.23452184
-0.079999998 0.034598842 -0.23425762
-0.07 0.03497592 -0.23464501
-0.060000002 0.034495011 -0.23404911
-0.050000001 0.034445018 -0.23458213
-0.039999999 0.034608953 -0.23448983
-0.029999997 0.034179818 -0.23400149
-0.02 0.03451594 -0.23430309
-0.0099999998 0.034777015 -0.23481119
0.0099999998 0.034479324 -0.2347749
0.029999999 0.034111109 -0.23401847
0.039999999 0.034325309 -0.23441333
0.050000001 0.034469351 -0.23414099
0.050000004 0.034396868 -0.23461722
0.060000002 0.034344621 -0.23416126
0.07 0.034384754 -0.23447615
0.079999998 0.034459822 -0.23461184
-0.079999998 0.035415798 -0.23483308
-0.07 0.035361931 -0.23445806
-0.059999999 0.035707511 -0.23425853
-0.049999997 0.03560254 -0.23468661
-0.039999999 0.035633363 -0.23466039
-0.030000001 0.035833985 -0.23469752
-0.02 0.035655413 -0.23441513
-0.0099999998 0.035654679 -0.23486161
0.0099999998 0.035672039 -0.23460349
0.02 0.035819884 -0.23437753
0.029999997 0.035473965 -0.23455958
0.039999999 0.035441633 -0.23429801
0.050000001 0.035759304 -0.23461205
0.050000004 0.035371657 -0.23458225
0.059999995 0.035291433 -0.23485048
0.060000002 0.035893887 -0.23407918
0.07 0.035715956 -0.23426671
-0.079999998 0.036333337 -0.23457085
-0.07 0.036521435 -0.23457503
-0.060000002 0.036728226 -0.23446393
-0.050000001 0.03659774 -0.23415995
-0.039999999 0.036580727 -0.23432264
-0.030000001 0.036403876 -0.23428643
-0.02 0.036637388 -0.23455338
-0.0099999998 0.036457151 -0.23454911
0.0099999998 0.036505591 -0.23446906
0.02 0.036405697 -0.23437887
0.029999999 0.036543731 -0.23438823
0.039999999 0.036213882 -0.23437902
0.059999995 0.036595166 -0.23431049
0.060000002 0.036963031 -0.23409924
0.070000008 0.036419537 -0.23477559
0.079999998 0.036809307 -0.23413816
-0.07 0.037314832 -0.23467702
-0.059999995 0.037874252 -0.23449531
-0.050000001 0.03747613 -0.23463774
-0.039999999 0.037347801 -0.23456256
-0.030000001 0.037701316 -0.23463306
-0.02 0.037563406 -0.23496744
-0.0099999998 0.037413005 -0.23441324
0.0099999998 0.037464578 -0.23457125
0.02 0.037692856 -0.23449676
0.039999999 0.037145972 -0.23457198
0.050000001 0.037718192 -0.23421264
0.050000004 0.037061535 -0.23463245
0.059999999 0.037178755 -0.23409688
0.07 0.037465032 -0.23450279
-0.079999998 0.038567867 -0.23440525
-0.070000008 0.038340665 -0.23445424
-0.060000002 0.038707711 -0.23452607
-0.050000004 0.038383849 -0.23449162
-0.039999999 0.038199835 -0.23447978
-0.029999999 0.038594253 -0.23448859
-0.02 0.038769603 -0.23450312
-0.0099999998 0.038460575 -0.23448499
0.0099999998 0.038065132 -0.2343957
0.02 0.038516015 -0.23451403
0.029999997 0.038416006 -0.23488069
0.039999999 0.038078059 -0.23417524
0.050000001 0.038539946 -0.23430564
0.059999999 0.038417786 -0.23421805
0.07 0.03858662 -0.23422799
0.070000008 0.038346812 -0.23481217
0.079999998 0.038514942 -0.23436615
-0.079999998 0.039569266 -0.23487309
-0.070000008 0.039115056 -0.23437792
-0.050000001 0.039343715 -0.23426865
-0.039999999 0.039639838 -0.2345705
-0.029999999 0.039397463 -0.23415768
-0.02 0.039559551 -0.23467311
-0.0099999998 0.039677486 -0.23476131
0.0099999998 0.039446384 -0.23444867
0.02 0.039620068 -0.23450947
0.029999999 0.039254986 -0.23401408
0.039999999 0.039506238 -0.23403397
0.050000001 0.039714444 -0.23469433
0.059999999 0.039694466 -0.234837
0.060000002 0.039402384 -0.23426111
0.07 0.039746977 -0.2347381
0.079999998 0.039321139 -0.23447292
-0.079999998 0.040392455 -0.23471178
-0.060000002 0.040771723 -0.23416474
-0.039999999 0.040594667 -0.23450202
-0.029999999 0.040416978 -0.23487164
-0.02 0.04093001 -0.23424996
-0.0099999998 0.040426888 -0.23471764
0.0099999998 0.040603235 -0.23433097
0.02 0.040866084 -0.23466508
0.029999999 0.040403008 -0.23462015
0.039999999 0.040141515 -0.23468459
0.050000001 0.040201288 -0.23419614
0.059999999 0.040350027 -0.23484543
0.060000002 0.040698811 -0.23439117
0.07 0.040981054 -0.23426041
0.079999998 0.040550981 -0.23461992
-0.079999998 0.041449033 -0.23467974
-0.07 0.041631974 -0.234577
-0.059999999 0.041233324 -0.23419179
-0.050000001 0.041010201 -0.2341007
-0.039999999 0.041256789 -0.23486334
-0.029999997 0.04189207 -0.23410904
-0.02 0.041341171 -0.2341748
-0.0099999998 0.041430585 -0.23437573
0.02 0.04140152 -0.23426199
0.039999999 0.041265711 -0.23466121
0.050000004 0.041326635 -0.23455364
0.059999999 0.041127458 -0.23455368
0.070000008 0.041433044 -0.23468696
0.079999998 0.041344091 -0.23469965
-0.079999998 0.042243905 -0.23443034
-0.070000008 0.042556249 -0.23446229
-0.060000002 0.042771116 -0.23470438
-0.050000004 0.04262583 -0.23448136
-0.039999999 0.042936623 -0.23426983
-0.029999999 0.042587325 -0.23440656
-0.02 0.042338185 -0.23478523
-0.0099999998 0.042439811 -0.23423749
0.0099999998 0.042743795 -0.23403263
0.02 0.042923879 -0.23412953
0.029999997 0.042408198 -0.23460507
0.050000004 0.04223191 -0.23472108
0.059999999 0.04216256 -0.23483163
0.060000002 0.042007696 -0.23496355
0.07 0.042936604 -0.23498811
0.079999998 0.042910434 -0.23458925
-0.079999998 0.043117769 -0.23408869
-0.07 0.043359205 -0.23448281
-0.059999999 0.043320045 -0.23461962
-0.049999997 0.043137025 -0.23466003
-0.039999999 0.043331161 -0.23473427
-0.030000001 0.04377554 -0.23427042
-0.02 0.043351382 -0.23458031
-0.0099999998 0.043769479 -0.23471257
0.0099999998 0.043964699 -0.23441243
0.02 0.04355976 -0.23441389
0.039999999 0.043692995 -0.23416248
0.050000001 0.043663077 -0.23445074
0.050000004 0.043357968 -0.23436046
0.059999999 0.043416243 -0.23459683
0.060000002 0.043903474 -0.23477677
0.07 0.043173861 -0.23438814
0.070000008 0.043606147 -0.2343507
0.079999998 0.043228798 -0.23431368
-0.079999998 0.044387266 -0.23455474
-0.07 0.044716388 -0.23471399
-0.059999999 0.044303633 -0.23427156
-0.050000001 0.044770159 -0.23426667
-0.039999999 0.044467725 -0.23474889
-0.030000001 0.04433763 -0.23440859
-0.02 0.044770963 -0.23456779
-0.0099999998 0.044595137 -0.23446248
0.0099999998 0.04465057 -0.23431957
0.02 0.044288971 -0.23488107
0.029999999 0.044619992 -0.2346023
0.030000001 0.044766352 -0.23403862
0.039999999 0.044363465 -0.23423424
0.049999997 0.044824272 -0.23461518
0.059999999 0.044191193 -0.23440793
0.07 0.044627666 -0.23442475
0.079999998 0.044527523 -0.23463042
-0.079999998 0.04579166 -0.23427139
-0.07 0.045415368 -0.23457171
-0.060000002 0.045359373 -0.23479494
-0.039999999 0.045557655 -0.23453644
-0.030000001 0.045442488 -0.2346143
-0.02 0.04591785 -0.23457894
-0.0099999998 0.045563299 -0.23422694
0.0099999998 0.045319468 -0.23430893
0.02 0.045502987 -0.23412739
0.029999997 0.045682721 -0.23470202
0.039999999 0.045545094 -0.23456016
0.049999997 0.045700565 -0.23446302
0.059999995 0.045821529 -0.23478755
0.070000008 0.045845903 -0.23459916
0.070000008 0.04557303 -0.23472166
0.079999998 0.045393556 -0.23437023
-0.079999998 0.046345957 -0.23464534
-0.070000008 0.046632111 -0.23458472
-0.059999999 0.046411827 -0.23453937
-0.050000004 0.046441369 -0.23449293
-0.039999999 0.046572775 -0.23470943
-0.029999999 0.046551842 -0.23483269
-0.02 0.046499532 -0.23435104
-0.0099999998 0.046463497 -0.23433435
0.02 0.046342336 -0.23448996
0.029999997 0.046638131 -0.23463994
0.039999999 0.046744838 -0.23481619
0.049999997 0.046583883 -0.23481065
0.060000002 0.046424896 -0.23409852
0.07 0.046559192 -0.23429476
0.070000008 0.046264231 -0.23410857
0.079999998 0.046455987 -0.23442924
-0.079999998 0.04729867 -0.2345455
-0.070000008 0.047829807 -0.23477687
-0.059999999 0.047618039 -0.23441724
-0.050000004 0.047645852 -0.23453927
-0.039999999 0.047306966 -0.23440802
-0.029999999 0.047553986 -0.23455229
-0.0099999998 0.047309421 -0.23442742
0.0099999998 0.047478013 -0.23472923
0.02 0.047714978 -0.23410907
0.030000001 0.047282316 -0.23419589
0.039999999 0.047729619 -0.23418394
0.049999997 0.04744928 -0.23444125
0.059999999 0.047157709 -0.23417893
0.060000002 0.047473695 -0.23463097
0.07 0.047280237 -0.23484235
-0.079999998 0.0482741 -0.23460989
-0.07 0.048622537 -0.23472102
-0.060000002 0.048772387 -0.23434606
-0.050000001 0.048748344 -0.23424867
-0.039999999 0.048890412 -0.23455586
-0.02 0.04894577 -0.23489365
-0.0099999998 0.048095915 -0.23439167
0.0099999998 0.048360091 -0.23455119
0.029999999 0.048618346 -0.23464653
0.050000001 0.048299409 -0.23485869
0.07 0.048548557 -0.23453517
-0.079999998 0.04965229 -0.23433714
-0.059999999 0.049256276 -0.23464435
-0.049999997 0.049487229 -0.23454244
-0.039999999 0.049289078 -0.23494092
-0.029999999 0.049494259 -0.23434886
-0.02 0.049238354 -0.23470528
0.0099999998 0.049989119 -0.23473977
0.02 0.04994192 -0.23421016
0.030000001 0.049126029 -0.23466501
0.039999999 0.049652062 -0.23452286
0.049999997 0.049332611 -0.23459305
0.059999995 0.049441807 -0.23479974
0.060000002 0.049775533 -0.23415503
0.07 0.049475595 -0.23441982
0.079999998 0.049349785 -0.23454681
-0.079999998 0.050470583 -0.23426513
-0.07 0.050483681 -0.23466946
-0.050000004 0.050431468 -0.23441014
-0.039999999 0.05078952 -0.23433977
-0.029999997 0.05038286 -0.23415294
-0.02 0.050444733 -0.23474377
-0.0099999998 0.050654393 -0.23463485
0.02 0.050649188 -0.2345155
0.029999999 0.050283834 -0.23426729
0.039999999 0.050635267 -0.2348474
0.050000004 0.05058416 -0.23444712
0.059999999 0.050027266 -0.23405442
0.07 0.050231829 -0.23481885
0.070000008 0.050402783 -0.23420504
0.079999998 0.050297663 -0.23482552
-0.079999998 0.051437803 -0.23438512
-0.07 0.051734179 -0.23438974
-0.060000002 0.051432222 -0.2344
-0.039999999 0.051368073 -0.2343632
-0.030000003 0.051654015 -0.23443857
-0.02 0.051351532 -0.23453808
-0.0099999998 0.051452473 -0.23452944
0.0099999998 0.051461574 -0.23445988
0.02 0.051439762 -0.23494971
0.029999997 0.051405668 -0.23456383
0.039999999 0.051608175 -0.23489863
0.050000001 0.051524024 -0.23421685
0.050000004 0.051926032 -0.23453787
0.059999999 0.051623166 -0.23452836
0.07 0.051408678 -0.23467404
0.070000008 0.051850788 -0.23490503
0.079999998 0.051462196 -0.23461714
-0.070000008 0.052744992 -0.23446761
-0.060000002 0.052469406 -0.23460564
-0.049999997 0.052486107 -0.23424813
-0.039999999 0.052256629 -0.23451504
-0.030000001 0.052192129 -0.23429412
-0.0099999998 0.052487206 -0.23457704
0.0099999998 0.052010477 -0.23423988
0.02 0.052080885 -0.23457621
0.029999999 0.052119605 -0.23445326
0.039999999 0.052726455 -0.2344431
0.050000001 0.052797426 -0.23472163
0.050000004 0.052534286 -0.2349216
0.059999999 0.052474074 -0.23410252
0.07 0.052350637 -0.23478028
0.079999998 0.052573811 -0.23443386
-0.070000008 0.053252798 -0.2346171
-0.059999999 0.053825524 -0.23402429
-0.050000001 0.053234372 -0.23470785
-0.039999999 0.053308509 -0.2345621
-0.029999999 0.053581871 -0.23451729
-0.02 0.053866975 -0.23490348
-0.0099999998 0.053359989 -0.23472886
0.0099999998 0.053619973 -0.23448226
0.02 0.053560697 -0.23417723
0.039999999 0.053171847 -0.23421164
0.050000001 0.053479616 -0.23468839
0.059999995 0.053499177 -0.23416846
0.060000002 0.053597819 -0.23473309
0.07 0.053356916 -0.23461679
0.079999998 0.053293087 -0.23457399
-0.079999998 0.054546103 -0.23453912
-0.07 0.054562263 -0.23437861
-0.050000001 0.054197073 -0.23467243
-0.029999999 0.05431965 -0.23452684
-0.02 0.054165568 -0.23450045
0.02 0.054430291 -0.23465188
0.029999997 0.054206982 -0.23468231
0.049999997 0.054647561 -0.23472697
0.059999995 0.054516464 -0.2345653
0.07 0.054642353 -0.23406811
0.079999998 0.05425366 -0.23464417
-0.079999998 0.055544313 -0.23458022
-0.060000002 0.055424046 -0.23450123
-0.050000001 0.055226278 -0.23462008
-0.039999999 0.055214137 -0.2341975
-0.030000001 0.055988595 -0.2347739
-0.02 0.055581599 -0.23443729
-0.0099999998 0.05553503 -0.23424709
0.0099999998 0.055902448 -0.23448461
0.02 0.055571392 -0.23457775
0.030000001 0.055619333 -0.23444147
0.039999999 0.055638209 -0.23421313
0.050000004 0.05551172 -0.23471186
