# .PCD v0.7 - Point Cloud Data file format
VERSION 0.7
FIELDS x y z
SIZE 4 4 4
TYPE F F F
COUNT 1 1 1
WIDTH 1236
HEIGHT 1
VIEWPOINT 0 0 0 1 0 0 0
POINTS 1236
DATA ascii
-0.0099999998 -0.22711231 0.0071079074
-0.0094548957 -0.22692771 0.0096044475
-0.0067897495 -0.22697715 -0.0099999988
-0.0069994619 -0.22687155 0.0099999988
-0.0047181309 -0.22665396 -0.0099999998
-0.0050659934 -0.22704941 0.0099999988
-0.0031897209 -0.22709714 -0.0099999998
-0.0029901359 -0.22691122 0.0099999988
-0.0011450943 -0.22696869 -0.0099999988
-0.00099490886 -0.22696911 0.0099999998
0.0010548118 -0.22716752 -0.0099999988
0.001049865 -0.22687139 0.0099999998
0.0030160765 -0.22723952 -0.0099999998
0.0031713161 -0.22689117 0.0099999988
0.0053620646 -0.22727589 -0.0099999998
0.0049868105 -0.22708701 0.0099999998
0.0067529809 -0.22711037 -0.0099999998
0.0071996297 -0.2271881 0.0099999988
0.0072219148 -0.22744502 0.010000001
0.0093530398 -0.22690982 -0.0096004261
0.0099999998 -0.22632274 -0.0067549027
0.0099999988 -0.2272049 -0.0047069388
0.010000002 -0.22706898 -0.0029534779
0.0099999998 -0.2267288 -0.0012142375
0.0099999988 -0.2270053 0.00097876578
0.010000001 -0.22693883 0.0027940688
0.0099999988 -0.22694349 0.0051734583
0.0099999988 -0.22719638 0.0071324855
0.0095419418 -0.22698879 0.0095225563
0.010000001 -0.22762461 -0.0082161091
-0.0093846843 -0.22516002 -0.0094399182
-0.010000001 -0.22505143 -0.0069021704
-0.0099999998 -0.22505744 -0.0049153231
-0.0099999998 -0.22483452 -0.0028779642
-0.0099999988 -0.22503503 -0.00075519312
-0.0099999988 -0.22505318 0.00075944827
-0.0099999998 -0.22509429 0.0024777474
-0.0099999988 -0.22519766 0.0051237671
-0.010000001 -0.22509263 0.0072744205
-0.0094728014 -0.22500648 0.0096540786
-0.0071357698 -0.22512956 -0.010000001
-0.0069446191 -0.22483981 0.010000002
-0.0049867509 -0.2249165 -0.0099999988
-0.0049031973 -0.22503611 0.0099999988
-0.0029351064 -0.22504374 -0.010000001
-0.0030787771 -0.22480121 0.0099999988
-0.0009688331 -0.22478028 -0.0099999988
-0.00091349846 -0.22527324 0.0099999998
0.0011356362 -0.22487867 -0.0099999998
0.00080782402 -0.22492009 0.0099999988
0.0029257829 -0.22505771 -0.0099999988
0.0030549171 -0.22507054 0.0099999988
0.0050934418 -0.2250341 -0.0099999988
0.0050282031 -0.2252353 0.0099999998
0.0071473652 -0.22510269 -0.010000001
0.0069898516 -0.22491634 0.0099999988
0.0067495676 -0.2250783 0.010000001
0.0095414585 -0.22495371 -0.0095818331
0.0099999988 -0.22493686 -0.0072522587
0.0099999998 -0.22503908 -0.0048346096
0.0099999998 -0.22489978 -0.0029933923
0.010000001 -0.22474286 -0.0011013506
0.0099999988 -0.22500627 0.0012021338
0.0099999988 -0.2250127 0.0029836472
0.0099999988 -0.22521628 0.0050250175
0.0099999998 -0.22512493 0.0071831839
0.0096461726 -0.22509047 0.0093062734
0.009996607 -0.22561716 0.010000001
0.010000001 -0.22561303 -0.0094789071
0.010000001 -0.22552188 -0.0066754245
0.010000001 -0.22470574 0.0095378337
-0.0094381608 -0.22291094 -0.0093997382
-0.0099999988 -0.22274081 -0.0072246389
-0.0099999988 -0.22296594 -0.0046776757
-0.0099999988 -0.22303283 -0.0028278162
-0.010000002 -0.22317982 -0.00099867117
-0.0099999988 -0.22296774 0.00091021962
-0.0099999988 -0.2230911 0.0030410471
-0.0099999998 -0.22310199 0.0049369847
-0.0099999988 -0.22313718 0.0071123336
-0.0094456887 -0.22290632 0.0092778821
-0.0094269793 -0.223463 0.010000001
-0.0070677558 -0.22271928 -0.0099999988
-0.0072618322 -0.22265892 0.0099999998
-0.0049440837 -0.22281358 -0.0099999998
-0.0051155873 -0.22308484 0.010000002
-0.0029995977 -0.22293305 -0.0099999988
-0.0029536358 -0.2231556 0.0099999998
-0.0010507946 -0.223084 -0.0099999988
-0.0012823404 -0.2232357 0.0099999998
0.0013036077 -0.22309664 -0.0099999988
0.0009181021 -0.22314878 0.0099999988
0.0028779043 -0.22299024 -0.0099999988
0.0030251699 -0.22306743 0.0099999988
0.005001904 -0.22317283 -0.0099999988
0.0050055045 -0.22300854 0.0099999988
0.0070257839 -0.22323687 -0.0099999998
0.0066318698 -0.2229076 0.0099999998
0.0094437357 -0.22295485 -0.0096410923
0.0099999998 -0.22313222 -0.0069284923
0.0099999998 -0.22290055 -0.0050946856
0.0099999988 -0.22276555 -0.0026794232
0.0099999998 -0.22309622 -0.0010760023
0.0099999988 -0.22295706 0.0010191664
0.0099999988 -0.22310996 0.0030228
0.0099999988 -0.22282079 0.005172228
0.0099999988 -0.22312443 0.0072215386
0.009614327 -0.22315562 0.0093755936
0.010000001 -0.22361484 -0.0090585817
0.010000001 -0.22384369 -0.0077731228
-0.0092864577 -0.22092758 -0.0095292227
-0.0099999998 -0.22087547 -0.0069565303
-0.0099999998 -0.22102928 -0.0049474551
-0.0099999988 -0.22076467 -0.0030238922
-0.010000001 -0.22082782 -0.00086392369
-0.0099999998 -0.22043255 0.00070300972
-0.0099999998 -0.22078288 0.0030453722
-0.0099999988 -0.22096679 0.0049419189
-0.0099999988 -0.22103377 0.0069057904
-0.0096060019 -0.2209783 0.0095020821
-0.0071132532 -0.22109677 -0.0099999988
-0.0068404255 -0.22116816 0.0099999988
-0.0047514066 -0.22087693 -0.0099999988
-0.0050217155 -0.2211706 0.0099999998
-0.0030384229 -0.2206517 -0.0099999988
-0.0028379112 -0.22119457 0.0099999988
-0.00096821465 -0.22136581 -0.0099999988
-0.0011266649 -0.22110932 0.0099999988
0.0010623891 -0.22106868 -0.0099999988
0.0010981108 -0.22078173 0.0099999988
0.002872319 -0.22102301 -0.0099999988
0.0028627245 -0.22096343 0.0099999998
0.0049976278 -0.22090518 -0.0099999998
0.0045365705 -0.22073464 0.0099999998
0.0070093409 -0.22092061 -0.010000002
0.0070033311 -0.22077268 0.0099999998
0.009529083 -0.221072 -0.0095154289
0.0099999988 -0.22090514 -0.0070714415
0.0099999988 -0.22131702 -0.005001782
0.0099999988 -0.22108978 -0.0032151369
0.0099999988 -0.22130103 -0.00085989857
0.0099999998 -0.22114857 0.0010756307
0.0099999998 -0.22102475 0.0028136617
0.0099999988 -0.22078452 0.0051162038
0.0099999988 -0.22134061 0.007021274
0.0096014803 -0.22087394 0.0095057292
0.0084758364 -0.22075367 0.010000001
0.010000001 -0.22135457 -0.0089553632
0.010000001 -0.22050242 -0.0067575574
-0.0094026932 -0.21875171 -0.0095344307
-0.0099999998 -0.21909539 -0.0070764595
-0.0099999998 -0.21869116 -0.0050971704
-0.0099999998 -0.21905744 -0.0031086777
-0.0099999998 -0.21899356 -0.00073899387
-0.0099999998 -0.21900724 0.00097888405
-0.0099999988 -0.21900941 0.0031709666
-0.0099999988 -0.21945556 0.0049657896
-0.0099999988 -0.21882899 0.0071499199
-0.0095831566 -0.21920326 0.0092829587
-0.0069582039 -0.21929587 -0.0099999988
-0.0069175703 -0.2187497 0.0099999988
-0.0051612784 -0.21897247 -0.0099999998
-0.0052286009 -0.21903867 0.0099999988
-0.0028123148 -0.21885164 -0.0099999988
-0.0032008854 -0.21899568 0.0099999988
-0.00086665433 -0.21880999 -0.0099999998
-0.0011264881 -0.21920562 0.0099999998
0.00097642135 -0.21882878 -0.0099999998
0.0010881487 -0.21907014 0.0099999988
0.0031048623 -0.2191283 -0.0099999998
0.0030353335 -0.21912901 0.0099999998
0.0046780272 -0.21886389 -0.0099999988
0.005205004 -0.21890493 0.010000001
0.006847424 -0.21898863 -0.0099999998
0.0070072347 -0.21872841 0.0099999998
0.0077666906 -0.21906209 0.010000001
0.0096880998 -0.21899557 -0.0093252314
0.0099999988 -0.21895307 -0.0071449783
0.0099999988 -0.21876894 -0.0050026448
0.0099999998 -0.21915951 -0.0029998177
0.0099999988 -0.21907003 -0.0011668766
0.0099999988 -0.21923466 0.0012889318
0.0099999998 -0.21910372 0.0026889851
0.0099999988 -0.2187143 0.0050352258
0.0099999988 -0.21876064 0.007090915
0.0095453719 -0.21910816 0.0094709313
0.010000001 -0.21944596 -0.0071768062
-0.0096356533 -0.21707724 -0.0094667384
-0.0099999988 -0.21705928 -0.006764458
-0.0099999988 -0.21733005 -0.0050416822
-0.0099999998 -0.21682495 -0.0028066959
-0.0099999988 -0.21688542 -0.00098062074
-0.0099999998 -0.21692118 0.0010644756
-0.0099999998 -0.2171049 0.002780196
-0.010000001 -0.21733396 0.0048090294
-0.0099999988 -0.21716702 0.0071083447
-0.0092956442 -0.21695834 0.0094949603
-0.0069745397 -0.2171924 -0.010000001
-0.0068949386 -0.21668485 0.0099999988
-0.0051078997 -0.21702233 -0.0099999988
-0.0053064842 -0.21720976 0.0099999988
-0.0028957569 -0.21690385 -0.0099999988
-0.0031016974 -0.21678543 0.0099999998
-0.0013019443 -0.21694729 -0.0099999988
-0.0011591563 -0.21698783 0.0099999988
0.00098978728 -0.2172188 -0.0099999988
0.00094464293 -0.2169019 0.0099999998
0.002805413 -0.21699536 -0.0099999988
0.0025770999 -0.21713707 0.0099999998
0.0050962334 -0.21720761 -0.010000001
0.0049486635 -0.2170132 0.0099999988
0.0068078041 -0.21689565 -0.0099999998
0.0069157286 -0.21703713 0.0099999998
0.0094989454 -0.21690983 -0.0094800098
0.0099999988 -0.2168861 -0.0071112057
0.010000001 -0.21701065 -0.004701071
0.0099999988 -0.21677592 -0.0030489338
0.0099999988 -0.2170433 -0.0014370596
0.0099999988 -0.21710731 0.0008618756
0.0099999988 -0.21710426 0.0031021605
0.0099999988 -0.21711351 0.0048971549
0.0099999988 -0.21741767 0.0071683661
0.0095661497 -0.21717733 0.0095978407
0.010000001 -0.21693948 -0.0084632216
0.010000001 -0.21729504 -0.0069974037
-0.0096855983 -0.21485546 -0.0095289936
-0.0099999988 -0.21492305 -0.007047154
-0.0099999998 -0.21494602 -0.0050708922
-0.0099999998 -0.21530573 -0.0031276213
-0.0099999998 -0.21511203 -0.00090554391
-0.0099999998 -0.21494389 0.00082667934
-0.0099999988 -0.21492928 0.0031934842
-0.0099999988 -0.2150563 0.0047430005
-0.0099999998 -0.21510209 0.006924524
-0.0094790673 -0.21502973 0.0094621284
-0.0098145921 -0.21547987 0.010000001
-0.0073471284 -0.21509464 -0.010000001
-0.0072580678 -0.21507755 0.0099999998
-0.0051807705 -0.21497801 -0.0099999988
-0.0051366426 -0.21487901 0.0099999998
-0.0030912235 -0.2149971 -0.0099999988
-0.0028357622 -0.21518578 0.0099999988
-0.00081196608 -0.21479712 -0.0099999988
-0.00082328566 -0.21495578 0.0099999988
0.001369135 -0.2148467 -0.0099999988
0.00079777371 -0.21514556 0.0099999988
0.002917741 -0.21502061 -0.0099999998
0.002854561 -0.21511197 0.0099999998
0.0052682506 -0.21510842 -0.0099999988
0.0049533183 -0.21492317 0.0099999988
0.0070675649 -0.21480249 -0.0099999988
0.006798462 -0.21497555 0.0099999988
0.0076343026 -0.21562582 0.010000001
0.00964256 -0.21510845 -0.0093651731
0.0099999988 -0.21496263 -0.0069202646
0.0099999988 -0.21514547 -0.004964652
0.010000002 -0.21510808 -0.0030780172
0.0099999988 -0.21494679 -0.0013017926
0.0099999998 -0.21490511 0.0010090821
0.0099999998 -0.21497858 0.0030635463
0.010000001 -0.21481711 0.0050044823
0.010000002 -0.21488459 0.0070251059
0.009506979 -0.21508661 0.0094941184
0.010000001 -0.21524626 -0.0084103914
-0.009437399 -0.21287276 -0.0095509943
-0.0099999988 -0.2129371 -0.0067502093
-0.0099999998 -0.21271333 -0.0052512814
-0.0099999988 -0.21269502 -0.0031597062
-0.0099999998 -0.21293335 -0.0011848896
-0.0099999988 -0.21319424 0.0011949188
-0.0099999988 -0.21298622 0.0030519506
-0.010000001 -0.21300285 0.0050760126
-0.0099999988 -0.21315899 0.007080189
-0.0096723065 -0.21281198 0.0093556875
-0.0090570571 -0.21210633 0.010000001
-0.0069942013 -0.21296865 -0.0099999998
-0.006958988 -0.21300276 0.0099999988
-0.0049876338 -0.2131381 -0.0099999988
-0.0052617546 -0.2130965 0.0099999988
-0.0030589581 -0.21277449 -0.0099999988
-0.0030185117 -0.2130574 0.0099999988
-0.0011261667 -0.21292591 -0.010000002
-0.00088963413 -0.21281308 0.0099999998
0.00064049789 -0.21314333 -0.0099999988
0.00095643773 -0.21286538 0.0099999988
0.0029642866 -0.21286577 -0.0099999988
0.0029464317 -0.21276769 0.0099999988
0.0048584458 -0.21306564 -0.0099999998
0.0046438999 -0.21301296 0.0099999998
0.0068391347 -0.21308596 -0.0099999988
0.0066922405 -0.2131225 0.0099999998
0.0074974135 -0.21362746 0.010000001
0.0094850361 -0.21316543 -0.0093774674
0.0099999988 -0.21283443 -0.0070104389
0.0099999988 -0.21307668 -0.0050107939
0.0099999988 -0.21310978 -0.0029132275
0.0099999988 -0.21327814 -0.00095164793
0.0099999998 -0.21319316 0.00090151408
0.0099999988 -0.21252397 0.0031280546
0.0099999988 -0.21300565 0.0051520425
0.0099999988 -0.21291725 0.0067064986
0.00949986 -0.21330224 0.0095676957
0.0088881776 -0.21325259 0.010000001
0.010000001 -0.21359964 -0.0098885689
0.010000001 -0.21299934 0.0095941275
-0.0096347556 -0.21111189 -0.0094214566
-0.0099999998 -0.21133856 -0.0070009776
-0.0099999998 -0.21100305 -0.0051113428
-0.0099999988 -0.21098325 -0.0030008045
-0.0099999988 -0.21090899 -0.0011987174
-0.0099999988 -0.21099128 0.0010379459
-0.0099999998 -0.21102768 0.0028528126
-0.0099999988 -0.21112746 0.0049829744
-0.0099999988 -0.21090513 0.0070167249
-0.0093540829 -0.21093552 0.0096310554
-0.0098865116 -0.21144547 0.010000001
-0.0069125011 -0.21088295 -0.0099999998
-0.0069965925 -0.21110483 0.010000002
-0.0050295368 -0.21117221 -0.010000001
-0.0048396359 -0.21105883 0.0099999998
-0.003112033 -0.21071362 -0.0099999988
-0.002845261 -0.21104802 0.0099999988
-0.0010312388 -0.21085799 -0.0099999988
-0.0013335742 -0.21105687 0.0099999988
0.0010299445 -0.21078412 -0.0099999988
0.0010477104 -0.21097238 0.0099999988
0.0029528632 -0.21118836 -0.0099999998
0.0032314991 -0.21072146 0.0099999988
0.00515491 -0.21077831 -0.0099999988
0.0047469619 -0.21124721 0.0099999988
0.0068517928 -0.21104009 -0.0099999998
0.006715904 -0.21136965 0.0099999988
0.0075180372 -0.21123597 0.010000001
0.0092440275 -0.21096885 -0.0095421569
0.0099999988 -0.21091646 -0.0070327609
0.0099999988 -0.21127585 -0.0052541089
0.0099999988 -0.21080035 -0.0027342997
0.0099999988 -0.21131968 -0.0011830722
0.0099999988 -0.21068652 0.0010415995
0.0099999998 -0.21096833 0.0031414251
0.0099999988 -0.21103388 0.0052146027
0.0099999988 -0.21114276 0.0070141698
0.009508457 -0.21099254 0.009622423
-0.0092837429 -0.20919412 -0.0097238589
-0.0099999998 -0.20911191 -0.0067166099
-0.0099999988 -0.20917645 -0.0048209801
-0.0099999988 -0.20872292 -0.0033492791
-0.0099999998 -0.20913526 -0.0010436864
-0.010000001 -0.20877747 0.00097737042
-0.0099999988 -0.208977 0.0030086592
-0.0099999988 -0.20919465 0.0048898505
-0.010000001 -0.20886596 0.0069863945
-0.0096359765 -0.2089577 0.0093219923
-0.0069394768 -0.20889556 -0.0099999988
-0.0071302825 -0.20897433 0.0099999988
-0.005123524 -0.20881522 -0.0099999988
-0.0052509326 -0.20900176 0.0099999988
-0.002734846 -0.20883542 -0.0099999988
-0.0029235168 -0.20888346 0.0099999988
-0.0012277641 -0.20887451 -0.0099999998
-0.00086902682 -0.20915382 0.010000001
0.0010549785 -0.20912468 -0.0099999988
0.00091969356 -0.20917207 0.0099999998
0.0030348706 -0.20860595 -0.0099999988
0.0029753167 -0.20906702 0.0099999998
0.0048333132 -0.20876573 -0.0099999988
0.0051862649 -0.20913881 0.0099999988
0.0071373549 -0.20910901 -0.0099999988
0.0070970547 -0.20934972 0.0099999988
0.0092117907 -0.20882227 -0.0097687291
0.0099999998 -0.20902346 -0.0069007026
0.0099999998 -0.2088519 -0.004942541
0.010000001 -0.20910437 -0.0028785192
0.0099999988 -0.20942526 -0.00097471959
0.010000001 -0.20894486 0.0010599844
0.0099999998 -0.20882879 0.0028271808
0.0099999988 -0.20897226 0.0051675714
0.0099999998 -0.20901766 0.0071949805
0.0094303144 -0.20887692 0.0095921485
0.0087988814 -0.20895155 0.010000001
0.010000001 -0.20887861 -0.0090736132
0.010000001 -0.20822521 0.0087071275
-0.009432097 -0.20699012 -0.0096155573
-0.0099999998 -0.20733874 -0.0069968719
-0.010000001 -0.20662767 -0.0050193467
-0.0099999998 -0.20704995 -0.0032185637
-0.0099999988 -0.20686142 -0.0011963467
-0.0099999988 -0.20690179 0.00090805377
-0.0099999998 -0.20709321 0.0030158153
-0.0099999988 -0.20701443 0.0051553263
-0.0099999998 -0.20702516 0.0070963129
-0.0097918147 -0.20677805 0.0091325846
-0.0084952516 -0.20792438 0.010000001
-0.0068610674 -0.20673347 -0.0099999998
-0.0067834919 -0.20699595 0.0099999988
-0.0048830183 -0.20682962 -0.0099999988
-0.0047010174 -0.20702285 0.0099999988
-0.0031962758 -0.20720977 -0.0099999988
-0.0026514218 -0.20685244 0.0099999988
-0.0010239952 -0.20701142 -0.010000001
-0.0011339902 -0.20742561 0.0099999998
0.00090509903 -0.20717999 -0.010000001
0.0010018632 -0.2068011 0.0099999988
0.0032892546 -0.20685418 -0.0099999988
0.0032548085 -0.20696785 0.010000001
0.0048451824 -0.2070341 -0.0099999998
0.0051079453 -0.20675287 0.0099999988
0.0069355168 -0.20695904 -0.010000001
0.0070964759 -0.20707856 0.0099999988
0.0093972003 -0.2070736 -0.0095764175
0.0099999998 -0.2071339 -0.0070798681
0.0099999988 -0.20697653 -0.0047855028
0.0099999988 -0.20700951 -0.0032774801
0.0099999988 -0.20693058 -0.00083167845
0.0099999988 -0.20672707 0.00099555764
0.0099999988 -0.20701757 0.0026687467
0.0099999988 -0.2069325 0.004687903
0.0099999988 -0.20704593 0.0068952623
0.0094990637 -0.20699725 0.0097134616
0.0094314842 -0.20697847 0.010000001
0.010000001 -0.20708825 -0.008884144
-0.0093241436 -0.20498447 -0.0095827067
-0.0099999988 -0.2050682 -0.0068829507
-0.0099999988 -0.20535797 -0.004781154
-0.010000001 -0.20492519 -0.0029875543
-0.010000002 -0.20491014 -0.0010395648
-0.010000001 -0.20485622 0.00085705734
-0.0099999988 -0.20492284 0.0030180623
-0.010000001 -0.20492363 0.0051562786
-0.0099999998 -0.20475069 0.0073655979
-0.0093693109 -0.2047856 0.0094742142
-0.0071080867 -0.20519583 -0.0099999998
-0.0067955921 -0.20495668 0.0099999998
-0.0049368655 -0.20492627 -0.0099999998
-0.0049904236 -0.20514512 0.0099999988
-0.0028827884 -0.20520882 -0.0099999988
-0.0032051632 -0.20491293 0.0099999988
-0.0012197806 -0.20524216 -0.0099999988
-0.0011549749 -0.20525067 0.0099999988
0.00098158082 -0.20508334 -0.010000001
0.0011493404 -0.20505658 0.0099999988
0.003138015 -0.2049146 -0.0099999988
0.0031298383 -0.20516808 0.0099999988
0.0051059811 -0.20528086 -0.0099999998
0.0049392651 -0.20505887 0.0099999998
0.0067613404 -0.20497988 -0.0099999988
0.0070199603 -0.20487471 0.010000001
0.0094780894 -0.20501791 -0.0093779834
0.0099999988 -0.20525064 -0.0067450637
0.0099999988 -0.20512448 -0.0047753886
0.0099999988 -0.20517987 -0.0032384947
0.0099999988 -0.20481104 -0.00095384882
0.0099999988 -0.2051342 0.00093894091
0.0099999988 -0.20497005 0.0030690413
0.0099999988 -0.20521058 0.0046752426
0.0099999988 -0.205057 0.0070247399
0.0095087728 -0.20503908 0.0092920922
0.0095200371 -0.20420828 0.010000001
0.010000001 -0.2055254 -0.0089658853
-0.0092393821 -0.20291427 -0.0096652778
-0.0099999988 -0.20302467 -0.0070118168
-0.0099999988 -0.20287327 -0.004887139
-0.0099999988 -0.20310387 -0.0030732122
-0.0099999998 -0.2026612 -0.00093797717
-0.0099999988 -0.2031236 0.00079477113
-0.0099999998 -0.20312162 0.002998115
-0.0099999998 -0.20286289 0.0050501018
-0.0099999998 -0.20304517 0.0064008841
-0.0096686194 -0.20299494 0.0094592413
-0.0090390937 -0.20203458 0.010000001
-0.0070023723 -0.2030599 -0.0099999988
-0.0068890154 -0.20291184 0.0099999988
-0.0049995333 -0.20293906 -0.010000001
-0.005013227 -0.20292246 0.0099999988
-0.0033140548 -0.20303832 -0.010000001
-0.0031105266 -0.20310929 0.010000002
-0.00095836923 -0.20293039 -0.0099999988
-0.00098214997 -0.2027595 0.0099999998
0.00083971838 -0.20291874 -0.0099999998
0.0010989243 -0.20324235 0.0099999988
0.0028723783 -0.20310433 -0.0099999998
0.0027937631 -0.20299205 0.010000001
0.0049498044 -0.20287545 -0.0099999998
0.0051365136 -0.20313345 0.010000001
0.0069610709 -0.20300883 -0.0099999998
0.0070991842 -0.20307641 0.0099999988
0.0094396081 -0.20301498 -0.0094287628
0.0099999988 -0.20283373 -0.0070121041
0.0099999998 -0.20303783 -0.005160098
0.0099999988 -0.20294555 -0.0027777646
0.0099999998 -0.20302132 -0.00096751412
0.0099999988 -0.20312782 0.0012246475
0.0099999998 -0.20292477 0.0029160497
0.0099999988 -0.20308234 0.0049596489
0.0099999988 -0.20326976 0.0069440487
0.0096941637 -0.20270766 0.009753068
0.010000001 -0.2022524 -0.0085501941
-0.0095378188 -0.20103069 -0.0095617501
-0.0099999998 -0.2009054 -0.0072089178
-0.0099999988 -0.20080039 -0.0053390618
-0.0099999988 -0.20104861 -0.0030492821
-0.0099999998 -0.20071539 -0.00078213867
-0.0099999988 -0.20086867 0.00076883426
-0.0099999988 -0.20107788 0.0027988597
-0.0099999988 -0.20069617 0.0050763572
-0.0099999988 -0.20124555 0.0068979799
-0.0094783828 -0.20115227 0.0095641539
-0.0098282285 -0.20191482 0.010000001
-0.0068676025 -0.20119341 -0.0099999988
-0.0070600407 -0.20086475 0.0099999998
-0.0075998809 -0.2003845 0.010000001
-0.0051709819 -0.20100895 -0.0099999998
-0.0048118369 -0.20101115 0.0099999988
-0.0031205527 -0.20082496 -0.0099999988
-0.0029587073 -0.2010458 0.0099999988
-0.0013244466 -0.20084734 -0.0099999988
-0.00083162985 -0.20087887 0.0099999998
0.00098478876 -0.20120844 -0.0099999998
0.00096517376 -0.20054889 0.0099999998
0.0031136249 -0.20129405 -0.0099999998
0.0029213177 -0.20085919 0.0099999988
0.0047941809 -0.20104793 -0.0099999998
0.0048720557 -0.20108977 0.0099999988
0.0067164307 -0.20108232 -0.0099999998
0.0072130766 -0.2010055 0.0099999988
0.0093735904 -0.20096859 -0.0096955318
0.0099999988 -0.20097938 -0.0067961132
0.0099999998 -0.2009874 -0.0047367588
0.0099999988 -0.20056601 -0.0031057405
0.0099999988 -0.2011746 -0.001113123
0.0099999998 -0.20083959 0.0012167754
0.0099999988 -0.20103461 0.0030057214
0.0099999988 -0.20109354 0.0052696033
0.0099999988 -0.20103453 0.0067319139
0.0094259279 -0.2009389 0.0096245939
-0.0096309101 -0.1987256 -0.0094707813
-0.0099999998 -0.19886194 -0.0068012783
-0.0099999998 -0.19901414 -0.0050804331
-0.0099999988 -0.19907577 -0.0025003524
-0.0099999988 -0.19891146 -0.00091507129
-0.0099999998 -0.19897184 0.0012637139
-0.0099999998 -0.19926988 0.0029671991
-0.0099999988 -0.19893605 0.0050042341
-0.0099999988 -0.19905703 0.0069725732
-0.0094342912 -0.19888076 0.0095229885
-0.0090889791 -0.19969416 0.010000001
-0.0071142954 -0.19868906 -0.0099999988
-0.006977269 -0.19904785 0.0099999988
-0.0046491991 -0.1988284 -0.0099999988
-0.0053628394 -0.1992179 0.0099999998
-0.0030704134 -0.19917233 -0.010000002
-0.0030071263 -0.19882689 0.010000001
-0.0012717862 -0.19924344 -0.0099999988
-0.00077042228 -0.19863304 0.0099999988
0.0010189839 -0.19899385 -0.0099999988
0.00072106457 -0.19873974 0.0099999998
0.0028498836 -0.19863552 -0.0099999988
0.0030228561 -0.19916143 0.0099999988
0.0049389903 -0.19915636 -0.0099999988
0.005087534 -0.19873494 0.0099999988
0.0069088498 -0.19883081 -0.0099999998
0.0070675374 -0.19891804 0.0099999988
0.0095137078 -0.19909997 -0.0093776137
0.0099999988 -0.19921763 -0.0072073722
0.0099999998 -0.19923845 -0.0052972389
0.0099999998 -0.19926384 -0.0027951882
0.0099999998 -0.19874537 -0.00099545263
0.0099999998 -0.19877999 0.00074524956
0.0099999988 -0.19920939 0.0027572648
0.0099999988 -0.19919288 0.004873788
0.0099999998 -0.19894582 0.0067938273
0.0094060041 -0.19907586 0.0095081963
0.010000001 -0.19943416 0.0095958244
-0.0096897725 -0.1969617 -0.0092364028
-0.0099999988 -0.19699268 -0.0071310955
-0.0099999988 -0.19703749 -0.0052403058
-0.0099999988 -0.19689493 -0.0032694247
-0.0099999998 -0.19719869 -0.0010184473
-0.0099999998 -0.19709964 0.00088272913
-0.010000001 -0.19696702 0.0028161155
-0.0099999998 -0.19712049 0.0049343947
-0.010000002 -0.19689231 0.0071764323
-0.0096688876 -0.19685312 0.0095475642
-0.0086198933 -0.1961797 0.010000001
-0.0072755725 -0.19697692 -0.0099999988
-0.007353493 -0.19700815 0.0099999988
-0.0051693511 -0.19694139 -0.0099999998
-0.0050837495 -0.19730389 0.0099999988
-0.0027718535 -0.19698426 -0.0099999998
-0.0030797832 -0.19696081 0.0099999988
-0.0010704622 -0.19701247 -0.0099999988
-0.00090089097 -0.19694762 0.0099999988
0.0012265601 -0.19709635 -0.0099999988
0.0010194745 -0.19688617 0.010000001
0.0029283683 -0.19685504 -0.0099999988
0.00353884 -0.19697143 0.0099999988
0.0050616269 -0.19743986 -0.0099999998
0.0048367218 -0.19696558 0.0099999988
0.0072072819 -0.1969489 -0.0099999998
0.007069387 -0.1969544 0.0099999998
0.0097864429 -0.19690095 -0.0092742201
0.0099999998 -0.19678813 -0.0072923163
0.0099999998 -0.19705695 -0.0051632165
0.010000001 -0.1967923 -0.0030713403
0.0099999988 -0.19702636 -0.00089645357
0.0099999998 -0.19690952 0.0010322655
0.0099999988 -0.1970799 0.0028918255
0.0099999988 -0.19691716 0.0048512584
0.0099999998 -0.19692281 0.0067692348
0.0093320627 -0.19695252 0.0095886514
0.0086781466 -0.19715393 0.010000001
0.010000001 -0.19753808 0.0081851333
-0.0098446058 -0.19503315 -0.0091795176
-0.0099999988 -0.1951618 -0.007040984
-0.0099999988 -0.19499524 -0.0050245305
-0.0099999988 -0.19502148 -0.003423867
-0.0099999998 -0.19488029 -0.00088078837
-0.0099999988 -0.19516757 0.001004596
-0.0099999988 -0.19497176 0.0031977019
-0.0099999988 -0.19495299 0.0048459447
-0.010000001 -0.19510253 0.0069473791
-0.00938999 -0.19486417 0.0092928028
-0.0071478668 -0.19485247 -0.0099999988
-0.0070699435 -0.1948 0.0099999988
-0.0050966823 -0.19521181 -0.0099999988
-0.0049504526 -0.19497409 0.010000001
-0.0028198399 -0.19493711 -0.0099999988
-0.0027400141 -0.19527391 0.0099999998
-0.00084217946 -0.19514078 -0.0099999998
-0.0010635402 -0.19536857 0.0099999988
0.0012831418 -0.19510731 -0.0099999988
0.00079108175 -0.19497079 0.0099999998
0.0029325103 -0.19506042 -0.0099999988
0.0028521777 -0.19486648 0.0099999988
0.0045132367 -0.19480795 -0.0099999998
0.0051613082 -0.19514638 0.0099999988
0.0067483913 -0.19493803 -0.0099999988
0.0071266238 -0.19498257 0.0099999998
0.0096292412 -0.19497119 -0.0093741957
0.0099999988 -0.19515651 -0.0070351465
0.0099999998 -0.19527315 -0.0054027713
0.0099999998 -0.19479884 -0.0030481776
0.0099999988 -0.19496092 -0.0012533442
0.0099999988 -0.19501908 0.0010341097
0.0099999988 -0.19523786 0.0028277987
0.0099999988 -0.19498652 0.0049609393
0.0099999988 -0.19498265 0.0068141776
0.0096521629 -0.19500709 0.009319948
0.0098695317 -0.1946844 0.010000001
0.010000001 -0.195981 -0.0095665455
0.010000001 -0.19425645 0.0071494393
0.010000001 -0.1948529 0.008877648
-0.0094760023 -0.19302249 -0.0095374025
-0.0099999988 -0.19334707 -0.006739011
-0.0099999988 -0.19305341 -0.0049519669
-0.0099999998 -0.19282226 -0.0031369331
-0.0099999998 -0.1926067 -0.0011278241
-0.0099999998 -0.19326428 0.00086175464
-0.0099999988 -0.1929118 0.0031584469
-0.010000001 -0.19315237 0.0051733884
-0.0099999988 -0.19324908 0.006798198
-0.0095840208 -0.19292685 0.0094271954
-0.007060776 -0.19314376 -0.010000001
-0.0066799568 -0.19259316 0.0099999988
-0.0069797295 -0.19253872 0.010000001
-0.0049179182 -0.19281586 -0.010000001
-0.0048939972 -0.1931234 0.0099999988
-0.0031511788 -0.19312669 -0.0099999998
-0.0028813216 -0.19300987 0.0099999998
-0.00087058212 -0.19321008 -0.0099999988
-0.00099162012 -0.19308695 0.010000001
0.00098576397 -0.19302614 -0.010000001
0.0009310366 -0.193094 0.0099999988
0.0030077426 -0.19284825 -0.0099999988
0.0027996511 -0.19294859 0.0099999998
0.0049744816 -0.19305269 -0.0099999988
0.0046497742 -0.19316442 0.0099999988
0.0074206269 -0.1931784 -0.0099999988
0.0071525471 -0.19308171 0.0099999998
0.0093597136 -0.19301134 -0.0095738331
0.0099999988 -0.19311097 -0.0070618885
0.0099999988 -0.19282709 -0.0048714802
0.0099999998 -0.19293608 -0.0031802005
0.0099999998 -0.19299787 -0.00098525919
0.0099999988 -0.19306085 0.0007755782
0.0099999998 -0.19310713 0.002885418
0.0099999988 -0.19286756 0.0048939064
0.0099999988 -0.19286275 0.007036359
0.0093439268 -0.19302037 0.0095818797
0.0090445699 -0.19255669 0.010000001
0.010000001 -0.19272497 -0.0095442515
-0.0095548425 -0.19110684 -0.0095310537
-0.0099999998 -0.19090687 -0.0070642354
-0.0099999988 -0.19108081 -0.0050816038
-0.0099999988 -0.19058107 -0.0029962857
-0.0099999998 -0.19093315 -0.0012430726
-0.0099999988 -0.19115081 0.0011003711
-0.0099999988 -0.19122462 0.0032505731
-0.0099999988 -0.19095528 0.004699246
-0.0099999998 -0.19071122 0.0068775881
-0.009050915 -0.19107753 0.0098849563
-0.0070726909 -0.19120391 -0.0099999988
-0.0069616148 -0.19087867 0.0099999988
-0.0051179263 -0.19111398 -0.0099999988
-0.004824481 -0.19080034 0.0099999998
-0.0029098063 -0.19105387 -0.0099999998
-0.0031953694 -0.19088461 0.0099999998
-0.0012175379 -0.1910747 -0.010000001
-0.0011474201 -0.19084701 0.0099999998
0.00083036989 -0.19097742 -0.0099999988
0.00079794967 -0.19104321 0.0099999998
0.0032901561 -0.19121261 -0.0099999988
0.0028627825 -0.1908562 0.0099999998
0.0046839784 -0.19092147 -0.0099999988
0.0051635131 -0.19069609 0.0099999988
0.0068053491 -0.19097188 -0.0099999998
0.0069686119 -0.19103374 0.0099999988
0.0093492884 -0.19101372 -0.0094636604
0.0099999988 -0.19067276 -0.007169222
0.0099999988 -0.19073755 -0.0048964438
0.010000001 -0.19083358 -0.0029537613
0.010000001 -0.1909049 -0.00093252282
0.0099999988 -0.19101554 0.00082823902
0.0099999998 -0.19084576 0.0026812449
0.0099999988 -0.19111675 0.0049524289
0.0099999998 -0.19077606 0.0071578068
0.0094089927 -0.19114919 0.0097091943
0.010000001 -0.19056882 -0.0097007416
-0.0092474865 -0.18904662 -0.0096113253
-0.0099999988 -0.18898064 -0.0070129125
-0.0099999988 -0.18876837 -0.0049812286
-0.0099999988 -0.18871912 -0.0032489204
-0.0099999988 -0.18918176 -0.0012434
-0.0099999998 -0.1890913 0.00099634158
-0.0099999988 -0.1889215 0.0031723757
-0.0099999988 -0.1887769 0.005281426
-0.0099999988 -0.1888164 0.0069410126
-0.0093055312 -0.18890069 0.0097185206
-0.0085886344 -0.18925975 0.010000001
-0.0071481182 -0.18915421 -0.0099999988
-0.0071607917 -0.18909381 0.010000001
-0.0075557819 -0.18909717 0.010000001
-0.0050221151 -0.18894576 -0.0099999998
-0.0048839715 -0.18905225 0.0099999988
-0.0032073027 -0.18915769 -0.0099999988
-0.0028270041 -0.18880031 0.0099999988
-0.00089035276 -0.18907233 -0.0099999988
-0.0010027483 -0.1890111 0.0099999988
0.00082634605 -0.18913579 -0.0099999988
0.0012240765 -0.1892584 0.0099999998
0.0030076264 -0.18877457 -0.0099999988
0.0032836918 -0.18900298 0.0099999988
0.0049211392 -0.18932094 -0.0099999998
0.0049612136 -0.1887808 0.0099999998
0.0068849656 -0.18894258 -0.0099999988
0.006753616 -0.18904084 0.0099999988
0.009435826 -0.18917687 -0.0095639611
0.0099999988 -0.18882976 -0.006852285
0.0099999988 -0.18884365 -0.0046162568
0.010000002 -0.18897238 -0.0029061469
0.0099999988 -0.18926157 -0.0012815663
0.0099999988 -0.18902323 0.0013556541
0.0099999988 -0.18881969 0.0030018098
0.0099999998 -0.18925184 0.0051194821
0.0099999998 -0.18909386 0.0066822646
0.0091708442 -0.18877877 0.0097586457
0.010000001 -0.18942177 0.007700894
0.010000001 -0.18893935 0.0085456185
-0.0094828922 -0.18716738 -0.0096810944
-0.0099999998 -0.18694672 -0.0071218633
-0.010000001 -0.18722296 -0.0050838888
-0.0099999998 -0.18708399 -0.003232592
-0.0099999998 -0.18705808 -0.00076704292
-0.0099999988 -0.18690629 0.00096977554
-0.0099999998 -0.18711394 0.0029658922
-0.0099999988 -0.18683568 0.0047645411
-0.0099999988 -0.18682151 0.006777422
-0.0094415089 -0.18691976 0.0094411084
-0.006955775 -0.18708202 -0.0099999988
-0.0068677333 -0.18715629 0.0099999998
-0.0048451889 -0.18710139 -0.0099999998
-0.0047844895 -0.18684337 0.0099999988
-0.0028527603 -0.18724884 -0.0099999998
-0.0028743253 -0.186645 0.0099999998
-0.00084562454 -0.1869624 -0.0099999998
-0.0012015606 -0.18676001 0.0099999998
0.0010086532 -0.18701588 -0.0099999988
0.0010517278 -0.18690214 0.0099999988
0.0028073662 -0.18702467 -0.0099999988
0.0031914015 -0.18700284 0.0099999998
0.0052196272 -0.18712738 -0.0099999988
0.0048895814 -0.18714657 0.0099999998
0.0071016303 -0.18683645 -0.0099999988
0.0069529433 -0.18698628 0.0099999998
0.0095739346 -0.18687694 -0.0096053584
0.0099999988 -0.18735822 -0.0068827355
0.0099999998 -0.1870182 -0.0047445898
0.0099999988 -0.18683195 -0.0028551251
0.0099999988 -0.18679446 -0.0010886826
0.0099999998 -0.18702838 0.00097896939
0.0099999988 -0.18754986 0.0032161002
0.0099999988 -0.18716758 0.0049164193
0.0099999988 -0.18708847 0.0071096076
0.0094885621 -0.18703881 0.0094489185
-0.0095233908 -0.18504195 -0.0094613563
-0.0099999998 -0.18477152 -0.0068311398
-0.0099999998 -0.18540213 -0.0048413635
-0.0099999988 -0.18478589 -0.0031177206
-0.0099999988 -0.18497336 -0.0010240338
-0.0099999988 -0.18489139 0.0013918558
-0.0099999988 -0.18501262 0.0030052017
-0.0099999988 -0.18500794 0.0048149182
-0.0099999988 -0.18476181 0.0070730718
-0.0096093444 -0.18486263 0.0093872622
-0.0066839713 -0.18495971 -0.0099999988
-0.0068190298 -0.18489265 0.0099999998
-0.0049811825 -0.18485479 -0.0099999998
-0.0047270241 -0.18469314 0.0099999988
-0.0031004427 -0.18517919 -0.010000001
-0.0030222093 -0.18484998 0.0099999988
-0.0010658873 -0.18504572 -0.0099999998
-0.0010787415 -0.1850363 0.0099999988
0.00086166669 -0.18487528 -0.0099999998
0.00095785747 -0.18500078 0.0099999988
0.0029214602 -0.18497017 -0.0099999998
0.0030369156 -0.18475778 0.0099999998
0.0050388342 -0.18489367 -0.0099999988
0.0049946983 -0.18506393 0.0099999988
0.0066569848 -0.18510887 -0.0099999988
0.006792977 -0.18505549 0.0099999988
0.009592114 -0.18513346 -0.0092251394
0.010000001 -0.18495287 -0.0069147917
0.0099999988 -0.18498141 -0.0049640099
0.0099999998 -0.18514019 -0.0028691576
0.0099999988 -0.18497725 -0.0010801653
0.0099999988 -0.18494186 0.0011053637
0.0099999998 -0.18488948 0.0030439955
0.010000002 -0.18503426 0.0050190631
0.0099999988 -0.18477716 0.0069926591
0.0097121214 -0.18511279 0.0093055302
0.0094938474 -0.18481882 0.010000001
-0.0093931202 -0.18274032 -0.0095482906
-0.0099999998 -0.18274447 -0.0068317866
-0.0099999988 -0.18314803 -0.0049525173
-0.0099999988 -0.18316515 -0.0028069762
-0.0099999988 -0.18294424 -0.00085969502
-0.0099999998 -0.18315271 0.00091034849
-0.0099999998 -0.18313326 0.0030418986
-0.0099999998 -0.18281882 0.0052485135
-0.0099999988 -0.1835212 0.0066218576
-0.0093729682 -0.18297175 0.0095582837
-0.0087133544 -0.18389125 0.010000001
-0.0066530029 -0.18302387 -0.0099999998
-0.0074844277 -0.18283944 0.0099999988
-0.0065616956 -0.18258707 0.010000001
-0.0051134736 -0.18285689 -0.0099999988
-0.0046643536 -0.18296842 0.0099999988
-0.0028929419 -0.1826825 -0.0099999988
-0.0029501151 -0.18302038 0.0099999988
-0.00085550873 -0.18300343 -0.010000001
-0.0010644149 -0.18265708 0.0099999988
0.00085034204 -0.18285166 -0.0099999988
0.0011677741 -0.18318416 0.0099999998
0.0027227593 -0.18300369 -0.0099999988
0.0029735654 -0.1832711 0.0099999988
0.0048419936 -0.18326698 -0.0099999988
0.0050842371 -0.18309528 0.0099999998
0.006949007 -0.18313444 -0.0099999988
0.0070263026 -0.18268366 0.0099999998
0.0095137693 -0.18303144 -0.0095993746
0.0099999988 -0.18263744 -0.0070466576
0.0099999988 -0.18284607 -0.0050567957
0.0099999988 -0.18299592 -0.0031860557
0.0099999988 -0.18324284 -0.0007993239
0.0099999988 -0.182843 0.0011620736
0.0099999988 -0.18307337 0.0030178407
0.0099999998 -0.18294036 0.0050145271
0.0099999998 -0.18316513 0.0069396398
0.0095468555 -0.18295808 0.0094522042
0.010000001 -0.18287058 -0.0099396314
0.010000001 -0.18295604 0.0076193302
0.010000001 -0.18355243 0.0090844296
-0.0095733656 -0.18089841 -0.0095193041
-0.0099999998 -0.1808299 -0.0070130751
-0.0099999998 -0.18108468 -0.0048858849
-0.0099999988 -0.18095025 -0.0028564006
-0.0099999988 -0.18118441 -0.00093678251
-0.0099999998 -0.18117185 0.00092781812
-0.0099999988 -0.1807978 0.0028943818
-0.0099999988 -0.18138349 0.0051503633
-0.0099999988 -0.1811329 0.0069448142
-0.0093932655 -0.18109123 0.0096699325
-0.008954538 -0.18127126 0.010000001
-0.0069640721 -0.18112282 -0.0099999998
-0.0067776311 -0.18104732 0.0099999988
-0.0075554987 -0.18094869 0.010000001
-0.0047656405 -0.18106417 -0.0099999988
-0.0050771944 -0.18096551 0.0099999998
-0.0033903066 -0.18093319 -0.0099999998
-0.0028304288 -0.18098277 0.0099999998
-0.0010283794 -0.1807881 -0.0099999988
-0.0010380534 -0.18113762 0.0099999988
0.00093256804 -0.18105517 -0.010000001
0.0013755577 -0.18092763 0.0099999988
0.0030369884 -0.18108892 -0.0099999988
0.0025351562 -0.18104154 0.0099999988
0.0051956917 -0.18102467 -0.0099999988
0.0050544715 -0.18081842 0.0099999998
0.0069977194 -0.18139681 -0.0099999998
0.0071168616 -0.18121503 0.0099999988
0.0096354932 -0.18093576 -0.0093840417
0.0099999988 -0.18101023 -0.0070532802
0.0099999988 -0.18071596 -0.0054026144
0.0099999998 -0.1809562 -0.002834375
0.0099999988 -0.18130891 -0.0011510215
0.0099999988 -0.18105814 0.00098553579
0.0099999998 -0.18102768 0.0032820273
0.0099999998 -0.18086185 0.0047734217
0.0099999988 -0.18105151 0.0070732338
0.0094921403 -0.18114704 0.0097230487
0.010000001 -0.18028185 0.0080258092
-0.0092545189 -0.17917594 -0.0096154483
-0.0099999988 -0.17920677 -0.0068374942
-0.0099999988 -0.17912704 -0.0048616733
-0.0099999998 -0.17854862 -0.0027498652
-0.0099999988 -0.17923282 -0.0010275729
-0.0099999988 -0.17902012 0.0010529765
-0.0099999998 -0.17912655 0.0030740905
-0.0099999988 -0.17939843 0.0051338663
-0.0099999998 -0.17901455 0.00698013
-0.0093947481 -0.17901227 0.0095578888
-0.0085077211 -0.1791932 0.010000001
-0.0070861275 -0.17913398 -0.0099999988
-0.0071466686 -0.17882119 0.0099999998
-0.0073220311 -0.17972192 0.010000001
-0.0050326134 -0.17899039 -0.0099999988
-0.0048916498 -0.17912841 0.0099999988
-0.002857707 -0.17902306 -0.0099999988
-0.0030292338 -0.17897426 0.0099999998
-0.00098958507 -0.17924182 -0.0099999988
-0.00083578815 -0.17893268 0.0099999988
0.0011220081 -0.17909531 -0.0099999988
0.00079594547 -0.17909916 0.0099999988
0.00292087 -0.17890175 -0.0099999998
0.002779142 -0.17918567 0.0099999988
0.0050468412 -0.1792843 -0.0099999998
0.0052227792 -0.17871228 0.0099999998
0.0069942111 -0.17893806 -0.0099999998
0.0071585961 -0.1791185 0.0099999988
0.0095179928 -0.17906789 -0.0095717879
0.0099999988 -0.17917757 -0.00697259
0.0099999998 -0.17941386 -0.0047351299
0.0099999988 -0.1790394 -0.0032636782
0.0099999988 -0.1792749 -0.00084542064
0.0099999998 -0.17899719 0.0010297551
0.0099999988 -0.1790918 0.0032022039
0.0099999998 -0.17874557 0.0049686059
0.0099999998 -0.17903161 0.0068738004
0.0094331577 -0.17896512 0.0097079789
0.010000001 -0.17976196 0.0064645889
0.010000001 -0.1786962 0.0091476748
-0.0095315995 -0.17709211 -0.0094748233
-0.0099999988 -0.17704843 -0.0073543373
-0.0099999998 -0.17684132 -0.0046288474
-0.0099999988 -0.17709467 -0.003270562
-0.0099999998 -0.17708378 -0.00097902841
-0.0099999988 -0.17680798 0.0010716931
-0.0099999988 -0.17701137 0.0030996841
-0.0099999988 -0.17673349 0.0050666407
-0.0099999988 -0.17695527 0.006895158
-0.0095442422 -0.17707404 0.0097262785
-0.0068717087 -0.17701176 -0.0099999988
-0.0069847615 -0.17684704 0.0099999998
-0.0073852334 -0.17631041 0.010000001
-0.0049349023 -0.17717141 -0.0099999988
-0.0048082485 -0.17708077 0.0099999988
-0.0030261732 -0.17708281 -0.0099999988
-0.0031467399 -0.17688818 0.010000001
-0.0011852187 -0.17701365 -0.010000001
-0.0010817609 -0.17688346 0.0099999998
0.00073255866 -0.17705075 -0.010000001
0.00080404058 -0.17678916 0.0099999998
0.0029998999 -0.17669132 -0.0099999988
0.0031140917 -0.17708607 0.0099999998
0.0049037496 -0.17713976 -0.0099999998
0.0052451207 -0.1768996 0.0099999988
0.0070404829 -0.17689218 -0.010000001
0.0070204944 -0.17679456 0.0099999988
0.0095553529 -0.17707251 -0.0093199844
0.0099999998 -0.17693762 -0.0072838659
0.0099999988 -0.17717464 -0.0051586437
0.010000001 -0.17675498 -0.0031428016
0.0099999988 -0.17718609 -0.0012335009
0.0099999988 -0.17712113 0.00076485437
0.0099999998 -0.17713827 0.0027948155
0.0099999998 -0.17692716 0.0051071895
0.0099999988 -0.17700399 0.0071239145
0.0092474287 -0.17702766 0.0096560335
-0.0094599118 -0.17478044 -0.009503345
-0.0099999988 -0.17481039 -0.0069619939
-0.0099999998 -0.17514345 -0.0049561849
-0.0099999998 -0.17510061 -0.0033357877
-0.0099999988 -0.17470285 -0.00089892553
-0.0099999988 -0.17507911 0.00090653042
-0.0099999998 -0.17506988 0.0031809164
-0.0099999998 -0.17503677 0.0050671827
-0.0099999988 -0.17520969 0.0068096342
-0.0096106743 -0.17496529 0.009493418
-0.0070882044 -0.1749626 -0.0099999988
-0.006829306 -0.17500407 0.0099999988
-0.0049561127 -0.17510773 -0.0099999998
-0.0047452934 -0.17471737 0.0099999988
-0.0030465133 -0.17525795 -0.0099999988
-0.0029322295 -0.17536943 0.0099999988
-0.0010455457 -0.17479369 -0.010000001
-0.00077973632 -0.17459293 0.0099999988
0.00092536001 -0.17504309 -0.0099999988
0.0010122 -0.17471091 0.0099999988
0.0031607377 -0.17500459 -0.0099999998
0.0031434805 -0.17500834 0.0099999998
0.0049249912 -0.17492458 -0.0099999998
0.0048365635 -0.17512411 0.0099999988
0.0069288588 -0.17494386 -0.0099999998
0.0066816327 -0.17496081 0.0099999988
0.0092352685 -0.17519316 -0.0096861906
0.0099999988 -0.17491636 -0.0069679394
0.0099999998 -0.17487039 -0.0051493822
0.010000001 -0.17514054 -0.0031013868
0.010000001 -0.17473486 -0.00091521721
0.0099999988 -0.17484882 0.00087788812
0.0099999988 -0.17496264 0.0027438484
0.0099999998 -0.17506662 0.0048789107
0.0099999998 -0.17507628 0.0069048381
0.0094042383 -0.17512411 0.0095725302
0.010000001 -0.17463019 0.0095760785
-0.0095172357 -0.17292559 -0.0096008107
-0.0099999988 -0.17272562 -0.006939264
-0.0099999988 -0.17288601 -0.0049136565
-0.0099999988 -0.17288275 -0.0028375525
-0.0099999998 -0.17278157 -0.0010001014
-0.0099999988 -0.1729909 0.0012274748
-0.0099999998 -0.17273143 0.0031582187
-0.0099999988 -0.17305875 0.0049877902
-0.0099999988 -0.17275791 0.006793756
-0.009343816 -0.17315227 0.0095160035
-0.0069439309 -0.17294016 -0.0099999998
-0.006753223 -0.17315787 0.0099999998
-0.0067340247 -0.17388465 0.010000001
-0.0049951561 -0.17295776 -0.0099999998
-0.0048877313 -0.17295416 0.0099999988
-0.0027283744 -0.17287475 -0.0099999998
-0.0031114225 -0.17316033 0.010000001
-0.001010168 -0.17278102 -0.010000001
-0.0012486186 -0.17292553 0.0099999988
0.0011759894 -0.17282651 -0.0099999988
0.0011574455 -0.17308137 0.0099999988
0.0028838166 -0.17290463 -0.0099999998
0.002952642 -0.17323434 0.0099999988
0.005032646 -0.17293265 -0.0099999998
0.0053362022 -0.17288896 0.0099999988
0.0066900658 -0.17310469 -0.0099999998
0.0069596865 -0.17250703 0.0099999988
0.00944266 -0.17273049 -0.0095991064
0.0099999988 -0.17323247 -0.0068291076
0.0099999988 -0.17310871 -0.0051035569
0.0099999988 -0.17297298 -0.0032733984
0.0099999998 -0.17290504 -0.00095769251
0.0099999998 -0.17292747 0.0011721671
0.0099999998 -0.17303625 0.0030318527
0.0099999988 -0.17323098 0.0048855329
0.0099999988 -0.17286633 0.0067498968
0.0096398247 -0.17293927 0.0091892229
0.010000001 -0.17272869 0.0066396082
-0.0093074683 -0.17088318 -0.0094159814
-0.0099999988 -0.17120807 -0.0070868218
-0.0099999988 -0.17104419 -0.0051100287
-0.0099999998 -0.17106225 -0.0029094664
-0.0099999988 -0.1707311 -0.0011004162
-0.0099999998 -0.17093474 0.00088472402
-0.0099999988 -0.17103088 0.0028033862
-0.0099999988 -0.17089103 0.0049507893
-0.0099999988 -0.17110127 0.0069509437
-0.0096740872 -0.17079835 0.0094331065
-0.0070164776 -0.17103952 -0.010000001
-0.0069005601 -0.17111708 0.0099999988
-0.0051642512 -0.17118521 -0.0099999998
-0.0050926819 -0.17136855 0.0099999988
-0.0030942366 -0.17085642 -0.010000001
-0.0029944361 -0.17125106 0.0099999988
-0.0013092521 -0.17096987 -0.0099999998
-0.0010385915 -0.17108338 0.0099999988
0.0010664295 -0.17102838 -0.0099999998
0.0010832999 -0.17095412 0.0099999988
0.0031552943 -0.17090654 -0.0099999988
0.0032203987 -0.17112987 0.0099999988
0.004844924 -0.17104448 -0.0099999988
0.0053378339 -0.17103168 0.0099999988
0.007031742 -0.17092626 -0.010000001
0.0070249811 -0.17096645 0.0099999988
0.0094042914 -0.17091544 -0.0096132113
0.010000001 -0.17097811 -0.006986965
0.0099999998 -0.17103964 -0.0049607805
0.0099999988 -0.17085332 -0.0031208133
0.0099999988 -0.17131932 -0.00069726555
0.0099999988 -0.17150477 0.00093756896
0.0099999998 -0.17104775 0.0033865646
0.0099999988 -0.17103979 0.0049850605
0.0099999988 -0.17122141 0.0068796626
0.0096933581 -0.17097004 0.0093058869
-0.0093473699 -0.16899401 -0.009772826
-0.0099999988 -0.168991 -0.0069668796
-0.0099999998 -0.16891646 -0.0051203622
-0.0099999998 -0.16919072 -0.0031803192
-0.0099999988 -0.16921976 -0.0012723793
-0.0099999988 -0.16904761 0.0011451393
-0.0099999998 -0.16891189 0.0032479241
-0.0099999988 -0.16940103 0.0048830411
-0.0099999988 -0.16870861 0.0070140753
-0.0094229383 -0.16894279 0.0097376201
-0.0097064469 -0.16804273 0.010000001
-0.0069712517 -0.16890335 -0.0099999988
-0.0066261101 -0.1692728 0.0099999988
-0.0067890068 -0.16992219 0.010000001
-0.0049703773 -0.16906255 -0.0099999998
-0.0050452305 -0.16890626 0.0099999988
-0.0030314603 -0.16900031 -0.0099999998
-0.0031302394 -0.16884016 0.0099999988
-0.0011014054 -0.16877797 -0.0099999988
-0.00098216475 -0.16930723 0.0099999988
0.0010999033 -0.16918811 -0.0099999988
0.0012437095 -0.16884087 0.010000001
0.003262925 -0.16911194 -0.0099999988
0.0031012448 -0.16912726 0.0099999998
0.0049720826 -0.16906993 -0.0099999998
0.0051760292 -0.16905785 0.0099999988
0.0068740202 -0.16922453 -0.0099999998
0.0067990376 -0.16908883 0.0099999988
0.0093570035 -0.16886675 -0.0096036335
0.0099999988 -0.16885576 -0.0066118422
0.0099999998 -0.16902383 -0.0050831116
0.0099999988 -0.16900107 -0.0030709689
0.0099999998 -0.1687092 -0.0012751046
0.0099999998 -0.16889235 0.0010334991
0.0099999988 -0.16874249 0.0032349869
0.0099999998 -0.16866112 0.0052010147
0.0099999988 -0.16892041 0.0070518637
0.0091866516 -0.16912727 0.0097578717
0.009379833 -0.16829513 0.010000001
0.010000001 -0.16935384 0.0094695985
-0.0093416646 -0.16722217 -0.0095581245
-0.0099999988 -0.16701572 -0.0072017605
-0.0099999998 -0.16700028 -0.0050746971
-0.0099999998 -0.16693972 -0.0029757093
-0.0099999998 -0.16686374 -0.0010778535
-0.0099999988 -0.16673687 0.00099857629
-0.010000001 -0.16704918 0.003064248
-0.0099999998 -0.16694352 0.0052475855
-0.0099999988 -0.16716269 0.0068752114
-0.0094121657 -0.16692604 0.009555296
-0.0070495624 -0.1669589 -0.0099999988
-0.0069515822 -0.1668631 0.0099999988
-0.0072963671 -0.1672595 0.010000001
-0.0050723422 -0.16678104 -0.0099999998
-0.004884738 -0.16722827 0.0099999998
-0.002858304 -0.16691315 -0.0099999988
-0.003136761 -0.1672751 0.0099999998
-0.00095953885 -0.1672992 -0.0099999988
-0.00071427954 -0.16708764 0.0099999988
0.0010920522 -0.16709749 -0.0099999988
0.00087378692 -0.16685741 0.0099999998
0.0028384158 -0.16694026 -0.0099999998
0.0033788614 -0.16704406 0.0099999988
0.0049158894 -0.1671246 -0.0099999988
0.0051042652 -0.16674021 0.0099999988
0.0071054618 -0.16679662 -0.0099999998
0.0068621449 -0.1672204 0.0099999988
0.0095770564 -0.16692036 -0.0093781473
0.0099999998 -0.16708061 -0.0071904687
0.0099999998 -0.16701372 -0.0053080823
0.0099999988 -0.16702624 -0.0030988746
0.0099999988 -0.16732635 -0.0014411286
0.0099999988 -0.16718411 0.0010767024
0.0099999988 -0.16708799 0.0029291201
0.0099999998 -0.16709015 0.0050885803
0.0099999988 -0.1670727 0.0070449719
0.0095872851 -0.16707589 0.0094168894
0.010000001 -0.16757143 0.0064828242
-0.0095490422 -0.16493884 -0.0094908299
-0.0099999988 -0.16501911 -0.0070041972
-0.010000001 -0.16506177 -0.0050917584
-0.010000001 -0.16493629 -0.0029662671
-0.0099999988 -0.16499162 -0.00081430149
-0.0099999988 -0.16503835 0.0010528681
-0.0099999988 -0.16491781 0.0029641967
-0.0099999988 -0.16520314 0.0051216483
-0.0099999998 -0.16510762 0.0070373439
-0.0093636466 -0.16487087 0.0095010148
-0.0099848909 -0.16509283 0.010000001
-0.0069268434 -0.16482785 -0.0099999988
-0.0069720824 -0.164819 0.0099999988
-0.0068543404 -0.16523096 0.010000001
-0.004992757 -0.16495213 -0.0099999998
-0.0048288926 -0.16502528 0.0099999988
-0.0031559845 -0.16485246 -0.0099999998
-0.0030216612 -0.16493924 0.0099999988
-0.00074491644 -0.16496404 -0.0099999988
-0.00068180327 -0.16492099 0.0099999988
0.00067045458 -0.16513766 -0.0099999988
0.0010967331 -0.16504423 0.0099999988
0.003111246 -0.16507939 -0.0099999998
0.003246584 -0.1649259 0.0099999998
0.0048011723 -0.16510095 -0.010000001
0.004859536 -0.16511323 0.0099999988
0.0070035472 -0.16517144 -0.0099999988
0.0070377691 -0.16508378 0.0099999998
0.0093755983 -0.16489157 -0.0095766196
0.0099999998 -0.1651437 -0.0071691629
0.0099999988 -0.16474505 -0.0049235523
0.0099999988 -0.16475257 -0.002961301
0.0099999998 -0.16497456 -0.001134002
0.0099999988 -0.16500752 0.001181466
0.010000001 -0.16500065 0.0027346131
0.0099999998 -0.16498055 0.0049200878
0.0099999998 -0.16493714 0.0071610664
0.0093731778 -0.1651314 0.0095040184
-0.0093892077 -0.1631375 -0.009525544
-0.0099999988 -0.16284131 -0.0067416304
-0.0099999988 -0.16304483 -0.0050347159
-0.0099999988 -0.16306697 -0.0033747896
-0.0099999988 -0.1630947 -0.00093876373
-0.0099999998 -0.162661 0.0011912376
-0.0099999998 -0.16316137 0.0028242895
-0.0099999998 -0.16286878 0.0051146876
-0.0099999988 -0.16356428 0.0068822866
-0.0097401282 -0.16314732 0.0095608402
-0.0090619996 -0.16358429 0.010000001
