# .PCD v0.7 - Point Cloud Data file format
VERSION 0.7
FIELDS x y z
SIZE 4 4 4
TYPE F F F
COUNT 1 1 1
WIDTH 1317
HEIGHT 1
VIEWPOINT 0 0 0 1 0 0 0
POINTS 1317
DATA ascii
0.00072564825 -0.230197 0.037004061
0.00084490434 -0.23019698 0.039050672
0.0011696462 -0.23019698 0.040862154
0.0013439021 -0.23019698 0.042919755
0.0009487585 -0.23019698 0.045134477
0.0010202636 -0.23019698 0.047194097
0.00090457208 -0.230197 0.049136683
0.00088141626 -0.23019698 0.05087648
0.00093403598 -0.23019698 0.052900709
0.0011392166 -0.230197 0.054926209
0.0007349588 -0.230197 0.057074968
0.0014163897 -0.230197 0.058896683
0.0010894787 -0.23019698 0.060718093
0.0013199985 -0.23019698 0.06284526
0.0012017086 -0.230197 0.064696692
0.00092378631 -0.23019698 0.066786505
0.0010688461 -0.230197 0.069008186
0.0011072574 -0.23078792 0.070827462
0.0030632147 -0.2309165 -0.072886832
0.0031015899 -0.230197 -0.071022011
0.0026120564 -0.23019698 -0.06904947
0.0031730062 -0.230197 -0.067295268
0.0029045087 -0.230197 -0.065208063
0.0030152474 -0.23019698 -0.062772289
0.0031612143 -0.23019698 -0.060912266
0.0029705241 -0.23019698 -0.058923375
0.0031433324 -0.23019697 -0.057248984
0.003049328 -0.23019698 -0.055126827
0.0028569987 -0.23019698 -0.052943483
0.0030061658 -0.23019698 -0.051057983
0.0032964114 -0.23019698 -0.048953399
0.0028920856 -0.23019698 -0.047126915
0.0028407467 -0.23019698 -0.044875801
0.0034781932 -0.230197 -0.042888369
0.0028420715 -0.23019698 -0.040796623
0.0031735604 -0.23019698 -0.038894653
0.0032608244 -0.230197 -0.037040584
0.0026055507 -0.23019698 -0.035114583
0.0031696483 -0.230197 -0.032835901
0.0029690808 -0.23019697 -0.030937819
0.0031005715 -0.23019698 -0.029325901
0.0028815491 -0.23019697 -0.027047241
0.0031411634 -0.23019698 -0.025016598
0.0030895835 -0.23019698 -0.022971824
0.0027875791 -0.23019698 -0.020786971
0.0028013855 -0.23019698 -0.01887827
0.0026721277 -0.23019698 -0.016786985
0.0029867389 -0.23019698 -0.015273343
0.0030388986 -0.23019698 -0.013265173
0.0029399856 -0.23019698 -0.011035247
0.0026002643 -0.23016834 -0.0099999998
0.003216695 -0.230197 0.011061135
0.002919229 -0.23019698 0.013133045
0.0029293455 -0.23019698 0.014609801
0.0029751263 -0.230197 0.016906708
0.0032332204 -0.230197 0.018808672
0.0031765571 -0.23019698 0.021077693
0.002802904 -0.23019698 0.023156188
0.0029452422 -0.23019698 0.024977639
0.0032054044 -0.23019698 0.026893497
0.0030150097 -0.23019698 0.028862147
0.0028411399 -0.23019698 0.030559404
0.0029767349 -0.23019698 0.033132363
0.0031857637 -0.23019698 0.034867927
0.0031148789 -0.23019698 0.037080098
0.0030855641 -0.23019698 0.039104335
0.0030663391 -0.23019698 0.041120566
0.0033058631 -0.23019698 0.042485125
0.0030883362 -0.23019698 0.045263819
0.0033023551 -0.23019698 0.046898145
0.0033710112 -0.230197 0.048980564
0.002820228 -0.23019698 0.0512904
0.003057023 -0.23019698 0.053148039
0.002934447 -0.23019698 0.055065066
0.0035344805 -0.23019698 0.057159159
0.0028909117 -0.230197 0.059573535
0.0029756126 -0.23019698 0.061188504
0.0027852941 -0.23019698 0.062931634
0.0030396688 -0.23019698 0.065036371
0.0029962342 -0.23019698 0.067413703
0.0031672975 -0.23019698 0.068720497
0.0029141356 -0.23019698 0.070857219
0.003086664 -0.23066746 0.072765663
0.0052295271 -0.23083097 -0.074767381
0.0051901876 -0.23019698 -0.072937705
0.0048172916 -0.23019698 -0.071135059
0.0048927846 -0.23019697 -0.068757899
0.0048770467 -0.23019698 -0.067128919
0.0048606545 -0.23019698 -0.065034747
0.0049845143 -0.23019698 -0.063050725
0.0049281619 -0.23019698 -0.0610306
0.0052934787 -0.23019698 -0.058974016
0.0053563681 -0.23019698 -0.056623511
0.005272673 -0.23019698 -0.055161152
0.0051246807 -0.230197 -0.053001665
0.0051846956 -0.23019698 -0.050982833
0.0051273354 -0.23019698 -0.048938826
0.0049909526 -0.23019698 -0.047001459
0.0050090863 -0.23019698 -0.045157403
0.0047316924 -0.23019698 -0.042979877
0.0051042181 -0.23019698 -0.041126672
0.0048068576 -0.23019698 -0.038502496
0.0051312931 -0.23019698 -0.037069924
0.0053235185 -0.230197 -0.034783266
0.0050792792 -0.230197 -0.032805156
0.0049631572 -0.23019698 -0.031224605
0.0051806718 -0.23019698 -0.028850947
0.0051626074 -0.23019698 -0.02703006
0.0047970046 -0.23019698 -0.025238235
0.0050143423 -0.23019698 -0.023236314
0.0051738163 -0.230197 -0.020865139
0.004873781 -0.23019698 -0.018977884
0.004952752 -0.230197 -0.017491719
0.0050121415 -0.230197 -0.01526243
0.0052391277 -0.23019698 -0.013036162
0.0047081895 -0.23019698 -0.01112888
0.0048272195 -0.23019698 0.011117618
0.0051437002 -0.23019698 0.012806999
0.0050061941 -0.23019698 0.015356886
0.0048795384 -0.23019698 0.01691415
0.0051592398 -0.23019698 0.018903738
0.0046600648 -0.23019698 0.02092202
0.0049839527 -0.23019698 0.023013908
0.0050674919 -0.230197 0.024961319
0.0049825078 -0.23019698 0.027012972
0.0050363108 -0.23019698 0.029108733
0.0049924399 -0.23019698 0.030930428
0.0050186529 -0.23019698 0.032911096
0.0049544265 -0.23019698 0.035041012
0.005023113 -0.23019698 0.036647372
0.0049863206 -0.23019698 0.039073851
0.0050045708 -0.23019698 0.04111959
0.0046307575 -0.230197 0.042891499
0.0050282455 -0.230197 0.045149188
0.0048929211 -0.23019698 0.046689589
0.0050680884 -0.23019698 0.049283132
0.0051463703 -0.23019698 0.050643619
0.0049246862 -0.23019698 0.053090949
0.0049132155 -0.23019698 0.055224176
0.0049307896 -0.23019698 0.056889649
0.0052910396 -0.23019698 0.058950946
0.0048310831 -0.230197 0.060922004
0.0049715186 -0.230197 0.063314281
0.0052318894 -0.23019698 0.064889319
0.0049765762 -0.230197 0.067856163
0.0046772487 -0.230197 0.068924613
0.0051385667 -0.23019698 0.071088016
0.0050157444 -0.23019698 0.072967768
0.0052183922 -0.23072605 0.074886747
0.0068562776 -0.23091084 -0.07676132
0.0071789105 -0.23019698 -0.074826971
0.0070459167 -0.23019698 -0.072789289
0.0067850044 -0.23019698 -0.071044147
0.0069529456 -0.23019698 -0.069083974
0.0068999198 -0.23019698 -0.067177802
0.0066563338 -0.230197 -0.064789221
0.007535696 -0.230197 -0.062872082
0.0070181685 -0.23019698 -0.060933288
0.0070929416 -0.23019698 -0.059119366
0.006702214 -0.230197 -0.056449119
0.00711247 -0.230197 -0.054732069
0.0068212464 -0.23019698 -0.053091943
0.0070672142 -0.23019698 -0.051092934
0.006816614 -0.23019698 -0.048861105
0.0070984531 -0.23019698 -0.046863738
0.0069620335 -0.230197 -0.044679031
0.0070979795 -0.23019698 -0.042837057
0.0068131476 -0.23019698 -0.040944684
0.0071492228 -0.23019698 -0.039162118
0.007154075 -0.23019698 -0.036992665
0.0072540282 -0.23019698 -0.034706809
0.0070251133 -0.23019697 -0.03275831
0.0066654352 -0.23019698 -0.030892279
0.0070289448 -0.230197 -0.029262049
0.007335661 -0.230197 -0.026947072
0.0067832433 -0.23019698 -0.02515202
0.0069608414 -0.23019698 -0.023169724
0.0066777361 -0.23019698 -0.021232888
0.0070485193 -0.23019698 -0.018660333
0.0070551797 -0.23019698 -0.016978502
0.0070285811 -0.23019698 -0.015147435
0.0070183096 -0.23019698 -0.01317503
0.00721284 -0.230197 -0.010675754
0.0063779214 -0.23001134 -0.0099999998
0.0061254175 -0.23008163 0.0099999998
0.0071720388 -0.23019698 0.011043143
0.0071764835 -0.23019698 0.012653746
0.0072837039 -0.23019698 0.014953898
0.0069651739 -0.23019698 0.017177664
0.006987893 -0.23019698 0.018904198
0.0069394647 -0.23019698 0.020670742
0.0068042288 -0.23019698 0.023219476
0.0074209869 -0.23019698 0.025183123
0.0068347743 -0.230197 0.026860181
0.0071815662 -0.23019698 0.029273216
0.0070715095 -0.23019698 0.030869512
0.0069282469 -0.23019698 0.032863546
0.0068648574 -0.230197 0.03493068
0.0069802357 -0.23019698 0.036925599
0.0069806487 -0.23019698 0.039032966
0.0072934357 -0.23019697 0.041180365
0.0071072066 -0.23019698 0.042722404
0.0070687314 -0.230197 0.0446233
0.0068937861 -0.23019698 0.047252484
0.0073950598 -0.230197 0.049182963
0.0067470083 -0.230197 0.051304732
0.0073679062 -0.230197 0.052918844
0.0070165312 -0.23019698 0.054757703
0.0068382001 -0.23019698 0.057182789
0.0073569063 -0.23019698 0.059312869
0.0073567573 -0.23019698 0.061277058
0.0067737643 -0.23019698 0.063239731
0.0069727469 -0.23019698 0.064719662
0.0067810826 -0.230197 0.066534869
0.0067092855 -0.23019698 0.068903431
0.0072800554 -0.23019698 0.071496822
0.0067949081 -0.23019698 0.072863393
0.0070475983 -0.23019698 0.074829139
0.0070219315 -0.23068944 0.076780997
0.0089450348 -0.23066306 -0.078787155
0.0091384472 -0.23019698 -0.076982409
0.0090374248 -0.23019698 -0.075231738
0.0088713886 -0.23019698 -0.07328371
0.0091414647 -0.23019698 -0.070790261
0.0090424689 -0.23019698 -0.068897322
0.0088248877 -0.23019698 -0.066980802
0.0089506358 -0.23019698 -0.065306917
0.0090094209 -0.23019698 -0.062825702
0.0090060355 -0.23019698 -0.060942519
0.0087261125 -0.23019698 -0.058811896
0.0089308154 -0.23019698 -0.056910791
0.0091079241 -0.23019698 -0.054910321
0.008626312 -0.230197 -0.052804742
0.0090209525 -0.23019698 -0.051129621
0.009230705 -0.23019698 -0.048971053
0.0090854522 -0.23019697 -0.047040004
0.0092653548 -0.23019698 -0.045124367
0.0092099272 -0.23019698 -0.042928915
0.0092716338 -0.23019698 -0.041297548
0.0089605572 -0.23019698 -0.039228231
0.008922223 -0.23019698 -0.03713309
0.0089828502 -0.230197 -0.035086233
0.0087546855 -0.230197 -0.032901451
0.0090632467 -0.23019698 -0.031112732
0.008863071 -0.230197 -0.029400388
0.0091527812 -0.23019698 -0.027083924
0.0085523408 -0.23019698 -0.025341785
0.0088343751 -0.23019698 -0.022990361
0.0091250008 -0.23019698 -0.020815242
0.0090552298 -0.23019698 -0.019065848
0.0088661294 -0.23019698 -0.017022274
0.0088663623 -0.23019698 -0.014936046
0.0088693891 -0.23019698 -0.012943821
0.0091840457 -0.23019698 -0.010804772
0.0098112244 -0.23015462 -0.0093252193
0.0099999998 -0.23005885 -0.0066077067
0.0099999998 -0.23017269 -0.0055918628
0.0099999998 -0.23012555 -0.0026651602
0.0099999998 -0.23012073 -0.00037392601
0.0099999998 -0.23002279 0.0014893967
0.0099999998 -0.23007666 0.0023700367
0.0099999998 -0.23018926 0.0051312461
0.0099999998 -0.23018792 0.0076037096
0.0085889474 -0.23008355 0.0099999998
0.0092731332 -0.23019698 0.010981304
0.0088134799 -0.230197 0.012688209
0.0090706795 -0.23019698 0.014841943
0.0089850044 -0.23019698 0.016739482
0.0088009797 -0.23019698 0.019024068
0.0085288566 -0.23019698 0.021092962
0.0090292627 -0.23019698 0.022761958
0.0089894151 -0.23019697 0.024907107
0.0089871529 -0.23019698 0.026745429
0.0091533754 -0.23019698 0.029072076
0.0088854767 -0.230197 0.030867564
0.0089266896 -0.23019698 0.033024672
0.0086534154 -0.23019698 0.034902439
0.0089732585 -0.23019698 0.037041426
0.008937737 -0.23019698 0.038963091
0.0090828128 -0.23019698 0.040725656
0.0088151051 -0.23019698 0.042761665
0.0094381711 -0.23019698 0.044972785
0.0090477625 -0.23019698 0.047025133
0.0090760142 -0.23019698 0.049039651
0.0085310107 -0.230197 0.051142987
0.0092544379 -0.23019698 0.053375356
0.0087802103 -0.23019698 0.054905266
0.0091597708 -0.230197 0.057173662
0.0090611801 -0.23019698 0.059188183
0.0090919826 -0.230197 0.061374463
0.0091448491 -0.23019698 0.062663682
0.0088554323 -0.23019698 0.065259524
0.0088205757 -0.23019698 0.066886581
0.0089285225 -0.23019698 0.069056824
0.0092793275 -0.230197 0.070910856
0.0089042615 -0.23019698 0.073166505
0.0091304611 -0.230197 0.075313747
0.0089921821 -0.23019698 0.076902822
0.0088892253 -0.2311056 0.078670591
0.011089688 -0.23061755 -0.079564311
0.011186262 -0.23019698 -0.076819167
0.010859711 -0.23019698 -0.075395457
0.011007422 -0.23019698 -0.073047914
0.011001587 -0.230197 -0.071083605
0.010871468 -0.23019698 -0.069165856
0.010852939 -0.23019698 -0.066904292
0.011061269 -0.23019698 -0.06518504
0.011082268 -0.23019698 -0.062875383
0.010984253 -0.23019698 -0.060940307
0.010988967 -0.23019698 -0.059213828
0.01101199 -0.23019698 -0.057006735
0.011072921 -0.23019698 -0.05516462
0.011126845 -0.23019698 -0.053002547
0.010774969 -0.23019698 -0.05077102
0.011058286 -0.23019698 -0.049006924
0.011048599 -0.230197 -0.047058798
0.010931913 -0.23019698 -0.044971906
0.011019626 -0.23019698 -0.042878229
0.010587744 -0.230197 -0.041086435
0.01097648 -0.23019698 -0.039093431
0.011207423 -0.23019698 -0.036993913
0.011097345 -0.23019698 -0.034859795
0.011079549 -0.23019698 -0.032754645
0.011114842 -0.23019698 -0.030781945
0.01097188 -0.23019698 -0.028982375
0.010832677 -0.23019698 -0.026944542
0.010893417 -0.23019698 -0.02479035
0.010745333 -0.23019698 -0.022990039
0.01078021 -0.23019698 -0.021006361
0.010959595 -0.23019698 -0.019038636
0.011071864 -0.230197 -0.017413393
0.010962129 -0.23019698 -0.014852149
0.010938321 -0.23019698 -0.01258159
0.011274844 -0.23019698 -0.010926314
0.010710907 -0.23019698 -0.0089125708
0.010856985 -0.23019698 -0.0069414135
0.010821012 -0.23019698 -0.0050250744
0.010806923 -0.23019698 -0.0029206311
0.01086653 -0.230197 -0.00078272517
0.011130067 -0.23019698 0.00087618612
0.010724527 -0.23019698 0.0026699766
0.011117469 -0.23019698 0.0051391153
0.010755157 -0.23019698 0.0068664905
0.010970333 -0.23019698 0.0087765278
0.011171485 -0.23019697 0.010703221
0.010859452 -0.23019698 0.013140061
0.011306922 -0.23019698 0.015077574
0.011165124 -0.23019698 0.017089944
0.011027873 -0.230197 0.019126875
0.01102488 -0.23019698 0.021135567
0.011061176 -0.23019698 0.022879893
0.011220732 -0.23019698 0.025323818
0.010934524 -0.23019698 0.026942406
0.011073602 -0.23019698 0.028909909
0.010836248 -0.23019698 0.031116191
0.011486962 -0.23019698 0.032936189
0.010663834 -0.23019698 0.034726191
0.010763145 -0.23019697 0.037092622
0.010720798 -0.23019698 0.038920846
0.011329195 -0.23019698 0.040829178
0.010702621 -0.23019698 0.043098543
0.011318793 -0.23019698 0.044731345
0.011113314 -0.23019698 0.046931807
0.010985135 -0.23019698 0.048929866
0.011099178 -0.23019698 0.051056717
0.01091296 -0.23019698 0.053217258
0.01097658 -0.23019698 0.055027023
0.010944718 -0.23019697 0.056897406
0.010693308 -0.230197 0.058681849
0.01107349 -0.23019697 0.060861669
0.011215085 -0.23019698 0.063079245
0.011502671 -0.230197 0.06508562
0.01074399 -0.23019698 0.06699425
0.011203572 -0.230197 0.068839073
0.011050541 -0.23019698 0.070651926
0.010932741 -0.23019698 0.073095046
0.011091336 -0.23019698 0.075111195
0.011033611 -0.23019698 0.077304535
0.010766423 -0.23088808 0.079717442
0.012944089 -0.23062445 -0.079351649
0.012971581 -0.23019698 -0.077111661
0.013180659 -0.23019698 -0.074768268
0.012611684 -0.230197 -0.073415831
0.013148412 -0.23019698 -0.071338594
0.013149395 -0.23019698 -0.069203839
0.01319579 -0.230197 -0.067014828
0.012918742 -0.23019698 -0.065301575
0.012817133 -0.23019698 -0.063088983
0.012978122 -0.230197 -0.060818553
0.012874806 -0.230197 -0.058873761
0.013018131 -0.23019698 -0.056976069
0.013327826 -0.23019698 -0.055074558
0.012703444 -0.23019698 -0.052896183
0.013152147 -0.23019698 -0.050984696
0.012966268 -0.23019698 -0.048808198
0.012738228 -0.23019698 -0.04682539
0.012729044 -0.230197 -0.044945326
0.013011265 -0.23019698 -0.043286961
0.013064645 -0.23019698 -0.040758822
0.012542062 -0.230197 -0.039270908
0.013254888 -0.230197 -0.03669646
0.013146455 -0.23019698 -0.035007227
0.013025906 -0.23019697 -0.033023808
0.013198402 -0.230197 -0.031235473
0.01301054 -0.23019698 -0.029127285
0.013399757 -0.230197 -0.026906013
0.013028915 -0.23019698 -0.024888081
0.012974503 -0.230197 -0.023031591
0.012876054 -0.23019698 -0.021123417
0.013078657 -0.23019698 -0.019478712
0.012791298 -0.23019698 -0.01707045
0.012883727 -0.23019698 -0.014900834
0.012878044 -0.23019698 -0.012958069
0.012684231 -0.230197 -0.011020185
0.012962001 -0.23019698 -0.0090134293
0.012892568 -0.23019698 -0.0067429715
0.012848444 -0.23019698 -0.0050322539
0.013197836 -0.23019698 -0.0031060437
0.012833444 -0.23019698 -0.0011003698
0.013093799 -0.23019698 0.00088407035
0.012940538 -0.23019698 0.0034858629
0.013027794 -0.23019698 0.0048867543
0.013216384 -0.23019698 0.0071435194
0.013048328 -0.23019697 0.0091570662
0.013152765 -0.23019698 0.010721037
0.013035296 -0.23019698 0.013098398
0.01301014 -0.230197 0.01523222
0.012922166 -0.23019698 0.016983785
0.012771007 -0.23019698 0.019215023
0.012772226 -0.23019698 0.020941576
0.01291814 -0.23019698 0.02295007
0.012800422 -0.23019698 0.025181377
0.013185245 -0.23019698 0.026998779
0.012964212 -0.23019698 0.028889518
0.012866755 -0.23019698 0.031022595
0.013056336 -0.23019698 0.033063076
0.012708608 -0.23019698 0.034974672
0.013067747 -0.230197 0.037294395
0.012943771 -0.23019698 0.039145879
0.012603467 -0.23019701 0.040858082
0.012865421 -0.23019698 0.042751737
0.012846813 -0.23019698 0.044997677
0.012910342 -0.23019698 0.047001109
0.012787679 -0.23019698 0.048739478
0.01280237 -0.230197 0.050811883
0.013024317 -0.23019698 0.053294808
0.012862188 -0.23019698 0.054492652
0.012972089 -0.23019698 0.057403006
0.012972531 -0.23019698 0.059221465
0.012922924 -0.23019698 0.061086301
0.012836397 -0.23019698 0.06319692
0.013198491 -0.23019698 0.065237984
0.013371366 -0.230197 0.067436665
0.013029285 -0.23019698 0.06903515
0.012980955 -0.230197 0.071475379
0.012967962 -0.23019698 0.072802827
0.012919194 -0.230197 0.07516925
0.013013734 -0.23019698 0.077073745
0.01316788 -0.23037075 0.079165556
0.015078611 -0.23083635 -0.07973735
0.014961173 -0.23019698 -0.076875314
0.015048523 -0.23019698 -0.074984916
0.014995834 -0.23019698 -0.073187798
0.015140012 -0.23019698 -0.070871137
0.015003217 -0.230197 -0.069000982
0.015625332 -0.23019698 -0.066945754
0.015519298 -0.230197 -0.06455531
0.014925061 -0.230197 -0.062704615
0.015127664 -0.23019698 -0.061163567
0.014909483 -0.23019698 -0.058935318
0.01488777 -0.23019698 -0.057073977
0.015136338 -0.23019698 -0.054953367
0.015065284 -0.23019697 -0.052759368
0.015164773 -0.23019698 -0.051234674
0.014943417 -0.23019698 -0.048784729
0.014723535 -0.23019698 -0.047054116
0.014967537 -0.23019698 -0.044940822
0.014775297 -0.230197 -0.042703163
0.014918299 -0.23019698 -0.041268796
0.014881641 -0.23019698 -0.03928731
0.014837906 -0.230197 -0.036647655
0.014783788 -0.23019698 -0.035448935
0.015078393 -0.23019698 -0.033223134
0.014713555 -0.23019698 -0.031014612
0.015108205 -0.23019698 -0.028955404
0.015142242 -0.23019698 -0.027063293
0.014939704 -0.23019698 -0.025259513
0.015188025 -0.23019698 -0.022877075
0.014801498 -0.23019698 -0.021091325
0.015027444 -0.23019698 -0.018729059
0.015223468 -0.23019698 -0.016946029
0.015100348 -0.230197 -0.01474359
0.015354675 -0.23019698 -0.012983993
0.014802214 -0.23019698 -0.011038981
0.015021553 -0.23019698 -0.0091083562
0.014784439 -0.23019698 -0.0066036438
0.015038836 -0.230197 -0.0052192733
0.014972553 -0.23019698 -0.0030884328
0.01545485 -0.23019698 -0.0010106222
0.014941568 -0.23019698 0.0011522654
0.014857332 -0.230197 0.0030420264
0.014927543 -0.23019698 0.0054916842
0.015064052 -0.23019698 0.0071449252
0.01489731 -0.23019698 0.0090200305
0.015057521 -0.23019698 0.010671032
0.015148235 -0.23019698 0.012681657
0.015026622 -0.23019697 0.015099235
0.015060531 -0.23019698 0.016897786
0.01545722 -0.230197 0.019350372
0.015179105 -0.23019698 0.020591021
0.014997727 -0.23019698 0.023068605
0.014854353 -0.230197 0.025273573
0.014894467 -0.230197 0.027020929
0.014935029 -0.23019698 0.029139906
0.015089037 -0.23019698 0.03085476
0.014965475 -0.23019698 0.032769427
0.014917396 -0.23019698 0.034950454
0.0150949 -0.23019698 0.037194058
0.014824021 -0.23019698 0.038996749
0.014844651 -0.23019698 0.040857285
0.014983711 -0.23019698 0.043202057
0.015089864 -0.23019698 0.045307875
0.014850154 -0.23019698 0.047200747
0.015087339 -0.230197 0.04919843
0.015014206 -0.23019698 0.050978243
0.01523814 -0.23019698 0.053210631
0.015048919 -0.23019698 0.055308826
0.014899983 -0.23019697 0.057122253
0.014866957 -0.230197 0.059228122
0.015488155 -0.230197 0.061158132
0.014606014 -0.230197 0.063152745
0.015365394 -0.23019698 0.06497477
0.015024722 -0.23019697 0.066985868
0.015001562 -0.23019698 0.068935692
0.015056623 -0.23019698 0.070970528
0.015032401 -0.23019698 0.072828233
0.015050086 -0.23019698 0.074900851
0.015056018 -0.23019698 0.077103324
0.015027157 -0.23048413 0.079413623
0.016798697 -0.23069623 -0.079477221
0.016904529 -0.23019697 -0.07681828
0.016902026 -0.23019698 -0.074754119
0.016920047 -0.23019698 -0.073128857
0.016825965 -0.23019698 -0.071294487
0.016814744 -0.23019698 -0.06881021
0.017041137 -0.23019698 -0.067205079
0.017151905 -0.230197 -0.065058842
0.017236639 -0.23019698 -0.063326374
0.017045567 -0.23019698 -0.061000004
0.01683446 -0.23019698 -0.05897963
0.0167417 -0.230197 -0.057204776
0.016776793 -0.23019697 -0.054817971
0.017072177 -0.23019697 -0.053138651
0.016923223 -0.23019698 -0.05079275
0.016501749 -0.230197 -0.049624592
0.017083704 -0.23019698 -0.047088236
0.017195771 -0.23019698 -0.045401886
0.017137749 -0.23019698 -0.04293213
0.016987439 -0.23019698 -0.040963702
0.016679797 -0.23019698 -0.039053854
0.016852081 -0.23019698 -0.036909565
0.016611418 -0.230197 -0.034979992
0.0169813 -0.230197 -0.032973573
0.016931413 -0.23019698 -0.031132916
0.016854338 -0.23019698 -0.029500153
0.017463306 -0.23019698 -0.027174145
0.017234294 -0.23019698 -0.024997577
0.017028637 -0.23019698 -0.022877354
0.01702453 -0.23019698 -0.021127466
0.016989518 -0.230197 -0.018680707
0.017297791 -0.23019698 -0.016762037
0.017077178 -0.23019698 -0.015125083
0.017011572 -0.23019698 -0.01277449
0.017032538 -0.23019698 -0.011225248
0.016632251 -0.23019698 -0.0088602537
0.016585737 -0.23019698 -0.0073045716
0.016807621 -0.230197 -0.0049739531
0.017066104 -0.23019698 -0.0027587051
0.016881496 -0.23019698 -0.0013316801
0.016842823 -0.23019698 0.00075707876
0.016799828 -0.23019698 0.00284218
0.016924661 -0.23019698 0.0050004893
0.016871836 -0.23019698 0.0070483251
0.017008908 -0.23019698 0.0090622678
0.017055189 -0.23019698 0.010897779
0.016962832 -0.230197 0.012735681
0.017068658 -0.23019698 0.015009331
0.017178895 -0.23019698 0.017266415
0.016933894 -0.23019698 0.019074505
0.01739898 -0.23019698 0.021411072
0.017125832 -0.23019697 0.022980981
0.017376876 -0.23019698 0.025100837
0.016713785 -0.23019698 0.027062038
0.016965294 -0.23019698 0.029149599
0.017051062 -0.23019698 0.03090536
0.017077919 -0.23019698 0.032894108
0.016873481 -0.23019697 0.035036098
0.016959853 -0.230197 0.037414797
0.01723587 -0.23019698 0.039214171
0.017007861 -0.23019698 0.041184068
0.016760921 -0.230197 0.04262739
0.016932122 -0.23019698 0.045261737
0.016952652 -0.23019698 0.047037061
0.017189408 -0.230197 0.048503246
0.016980693 -0.23019698 0.050799947
0.01680994 -0.230197 0.053175036
0.017112186 -0.23019698 0.055096775
0.016935712 -0.23019698 0.056805186
0.017156845 -0.23019698 0.058951929
0.017062824 -0.23019698 0.061232209
0.016817817 -0.23019697 0.063172065
0.016687568 -0.230197 0.064890109
0.016444184 -0.23019698 0.066951014
0.017081475 -0.23019697 0.069117464
0.016973769 -0.23019698 0.070561245
0.017086757 -0.23019697 0.072807714
0.01696068 -0.230197 0.075185351
0.017263839 -0.23019698 0.077000484
0.016952408 -0.23068924 0.079638116
0.018983403 -0.23051971 -0.079380393
0.019005153 -0.23019698 -0.076727219
0.018948095 -0.23019698 -0.075204179
0.018985156 -0.23019698 -0.072935678
0.019259483 -0.23019698 -0.070865534
0.019046577 -0.23019698 -0.069084495
0.019405115 -0.230197 -0.0668694
0.019034972 -0.23019698 -0.064863756
0.0190199 -0.23019698 -0.062997408
0.019266415 -0.230197 -0.060870089
0.019153828 -0.230197 -0.058722526
0.01906907 -0.23019698 -0.057024263
0.019008432 -0.23019698 -0.055059683
0.019038541 -0.23019698 -0.053364787
0.019042516 -0.23019698 -0.050731108
0.018975371 -0.23019698 -0.049220972
0.019236341 -0.23019698 -0.047078755
0.018793646 -0.230197 -0.044993103
0.018983467 -0.23019698 -0.043075755
0.018935485 -0.230197 -0.041256841
0.018788721 -0.23019698 -0.039022811
0.01909373 -0.23019698 -0.037317324
0.01920021 -0.23019698 -0.034883194
0.01884586 -0.23019698 -0.032927427
0.018964285 -0.23019698 -0.03040777
0.018994899 -0.230197 -0.029639361
0.018627599 -0.23019698 -0.026839346
0.019065922 -0.23019698 -0.0249083
0.019098211 -0.23019698 -0.022581667
0.018777063 -0.23019698 -0.021120787
0.019102871 -0.23019698 -0.019006653
0.018847317 -0.23019698 -0.017050257
0.018404139 -0.23019698 -0.014829068
0.018806491 -0.230197 -0.013493846
0.019054096 -0.23019698 -0.010976726
0.018916395 -0.23019698 -0.0088640442
0.018843461 -0.23019698 -0.0068111857
0.019299516 -0.23019698 -0.0048431689
0.019204246 -0.23019698 -0.003190462
0.019092156 -0.23019698 -0.0010555875
0.019145468 -0.23019698 0.0012059407
0.019414227 -0.23019698 0.0025376605
0.018904591 -0.23019698 0.0048576752
0.019098749 -0.23019698 0.006947753
0.01917308 -0.230197 0.0092129484
0.019159667 -0.23019698 0.011004373
0.019028749 -0.23019698 0.012915187
0.018968862 -0.23019698 0.015042434
0.018910661 -0.230197 0.016993569
0.018855767 -0.23019698 0.019177195
0.018693546 -0.230197 0.020959698
0.018426729 -0.230197 0.023131683
0.019186515 -0.230197 0.025016034
0.019165207 -0.23019698 0.027193937
0.01899432 -0.230197 0.029062072
0.019127158 -0.23019698 0.031022688
0.018948272 -0.23019698 0.033030368
0.019489484 -0.23019698 0.034868795
0.018687611 -0.230197 0.037184637
0.018512867 -0.23019698 0.038719214
0.0193628 -0.23019698 0.040809076
0.019057697 -0.23019698 0.043054309
0.018909723 -0.23019698 0.045127042
0.018918011 -0.23019698 0.047013171
0.019094894 -0.23019698 0.049068172
0.019308666 -0.23019698 0.050948657
0.019013993 -0.23019698 0.053047784
0.019333988 -0.23019698 0.055188775
0.018966788 -0.23019698 0.057041269
0.019112322 -0.23019698 0.058979619
0.018636866 -0.23019698 0.060823787
0.019321291 -0.230197 0.063393526
0.018789602 -0.23019698 0.0650227
0.018633215 -0.23019698 0.066635288
0.01917805 -0.23019698 0.069142617
0.019104267 -0.23019698 0.070831589
0.019033123 -0.230197 0.073083162
0.018913401 -0.23019698 0.07492926
0.018807853 -0.23019698 0.076822676
0.018838808 -0.23052229 0.079336338
0.020935733 -0.23087402 -0.078957066
0.020819634 -0.23019698 -0.076815642
0.020896018 -0.23019698 -0.074834399
0.021197258 -0.230197 -0.07341738
0.021032607 -0.23019698 -0.071025483
0.020989107 -0.23019698 -0.068963878
0.020734157 -0.23019698 -0.067183688
0.020973727 -0.23019698 -0.064965472
0.020753186 -0.23019698 -0.063250452
0.020693338 -0.230197 -0.060975198
0.020819813 -0.23019698 -0.058994886
0.020951746 -0.23019698 -0.056996677
0.021060459 -0.230197 -0.055379204
0.021014731 -0.23019698 -0.053187028
0.021010829 -0.23019698 -0.050873414
0.021001117 -0.23019698 -0.049114376
0.020869613 -0.23019698 -0.047318663
0.021269204 -0.230197 -0.044932816
0.020906929 -0.23019698 -0.043200456
0.021207467 -0.23019698 -0.041241374
0.020962914 -0.23019698 -0.039007973
0.021156633 -0.23019698 -0.036880247
0.020822721 -0.23019698 -0.035247248
0.021236004 -0.23019698 -0.033426933
0.020834021 -0.23019698 -0.030960113
0.02120487 -0.23019698 -0.029091271
0.021039564 -0.23019698 -0.026953213
0.02110238 -0.23019697 -0.024830073
0.02095457 -0.23019698 -0.022955269
0.020789547 -0.230197 -0.021091972
0.021044021 -0.23019698 -0.018891063
0.020969011 -0.23019698 -0.016819619
0.020653114 -0.230197 -0.015086506
0.021163002 -0.23019698 -0.012860631
0.020962166 -0.23019698 -0.010982186
0.021243062 -0.23019698 -0.0088542225
0.020959795 -0.23019698 -0.0070042661
0.02094553 -0.23019698 -0.0051348805
0.020737797 -0.23019698 -0.003258067
0.020612009 -0.23019698 -0.00064005546
0.020961698 -0.23019698 0.0009135608
0.021172658 -0.23019697 0.0030860887
0.020889519 -0.23019698 0.0050540543
0.020808585 -0.23019698 0.0068665063
0.020876197 -0.23019698 0.0088575017
0.021073544 -0.230197 0.010604629
0.020662019 -0.23019698 0.013184686
0.020973954 -0.23019698 0.014854404
0.021115672 -0.23019698 0.017097674
0.021263286 -0.23019698 0.019405648
0.021129211 -0.230197 0.02128418
0.021076774 -0.23019698 0.023145314
0.020870209 -0.230197 0.024916491
0.02116302 -0.23019698 0.027005881
0.021359645 -0.23019698 0.02908827
0.02109196 -0.23019698 0.030799007
0.020598691 -0.23019698 0.032624692
0.021098979 -0.23019698 0.034876309
0.020853605 -0.23019698 0.036971819
0.020939516 -0.23019698 0.039135769
0.021376761 -0.23019698 0.040858548
0.021226967 -0.23019698 0.043129332
0.02125266 -0.230197 0.044647429
0.020710181 -0.23019698 0.047025099
0.021160712 -0.23019698 0.04888235
0.021454275 -0.23019698 0.050719749
0.021085391 -0.23019697 0.053238086
0.021234278 -0.230197 0.054959051
0.021007471 -0.23019698 0.057057261
0.02161843 -0.23019698 0.058690533
0.020990165 -0.23019698 0.061040431
0.020996915 -0.23019698 0.063036092
0.021096339 -0.23019698 0.065182924
0.021017037 -0.23019698 0.066884756
0.020813067 -0.230197 0.068984777
0.021092948 -0.23019698 0.071090251
0.02084481 -0.23019698 0.073139094
0.021155631 -0.23019698 0.07498461
0.020533005 -0.23019698 0.076978467
0.020985272 -0.23055381 0.078758948
0.022918308 -0.23091756 -0.076932915
0.022864314 -0.230197 -0.074882708
0.022836378 -0.23019698 -0.072790198
0.023306208 -0.230197 -0.071146019
0.022957206 -0.23019698 -0.06925597
0.023121154 -0.23019698 -0.066856213
0.022654545 -0.23019698 -0.064920589
0.022890793 -0.23019698 -0.062914915
0.022948941 -0.230197 -0.061397012
0.022957822 -0.23019697 -0.058868617
0.023013689 -0.23019698 -0.05690936
0.023295376 -0.23019698 -0.054863013
0.022975558 -0.23019698 -0.053060811
0.023019427 -0.23019698 -0.051064774
0.023095936 -0.23019698 -0.048803188
0.022921942 -0.23019698 -0.047091544
0.022974761 -0.23019698 -0.044821147
0.022908444 -0.230197 -0.043087404
0.023095034 -0.23019698 -0.041154038
0.022798551 -0.23019697 -0.038962666
0.02324572 -0.230197 -0.036870226
0.022709282 -0.23019698 -0.034760807
0.023214065 -0.230197 -0.032764364
0.023110392 -0.23019698 -0.030820385
0.023079783 -0.23019698 -0.029035609
0.02315107 -0.23019698 -0.026761048
0.023001105 -0.23019698 -0.024963457
0.022967797 -0.230197 -0.023025539
0.023203259 -0.230197 -0.020676104
0.023137571 -0.23019698 -0.018922644
0.023391597 -0.230197 -0.017171748
0.023219857 -0.230197 -0.014553911
0.022980526 -0.23019698 -0.01302461
0.023149921 -0.23019698 -0.011120503
0.022722714 -0.230197 -0.0086384704
0.023084728 -0.230197 -0.006890011
0.023118442 -0.23019698 -0.0053611528
0.023228593 -0.23019698 -0.003149939
0.02314174 -0.23019698 -0.0010302737
0.022555899 -0.23019701 0.0010165465
0.022893554 -0.23019698 0.0030828526
0.022872396 -0.23019698 0.0049384348
0.023014003 -0.23019698 0.0070758807
0.023015618 -0.23019698 0.0088624414
0.023164509 -0.23019698 0.011004426
0.022929657 -0.23019698 0.013028212
0.022745706 -0.23019698 0.015042863
0.022926599 -0.23019698 0.017212713
0.023048593 -0.23019698 0.019089719
0.023305865 -0.230197 0.020922711
0.022581758 -0.23019698 0.02288799
0.022924121 -0.23019698 0.025017438
0.022901706 -0.23019698 0.027122781
0.023022227 -0.23019698 0.028946053
0.023176581 -0.23019698 0.030780345
0.023120064 -0.23019698 0.032937832
0.023328176 -0.23019697 0.034969285
0.023124281 -0.23019698 0.037322883
0.022922903 -0.23019698 0.038815882
0.022726392 -0.23019698 0.041202821
0.022980081 -0.23019698 0.043001987
0.02303022 -0.23019698 0.044861235
0.022931142 -0.23019698 0.046771705
0.023211863 -0.23019698 0.048859607
0.023046887 -0.23019698 0.050762881
0.022828784 -0.23019698 0.053003769
0.02309818 -0.23019698 0.055087943
0.023160525 -0.23019698 0.056914113
0.023097614 -0.23019698 0.058863927
0.023118794 -0.23019698 0.060865469
0.022718178 -0.23019698 0.063007265
0.023081806 -0.23019697 0.064848758
0.023149094 -0.23019698 0.066950649
0.022964388 -0.23019698 0.068977877
0.022718197 -0.23019698 0.071396999
0.023012768 -0.23019698 0.072821558
0.022942785 -0.23019698 0.075388491
0.022834433 -0.23073915 0.07671205
0.024841055 -0.23075101 -0.075025685
0.024863265 -0.23019698 -0.073213123
0.024792857 -0.23019698 -0.07106863
0.025015086 -0.23019698 -0.069290392
0.024828507 -0.23019698 -0.067274049
0.025035674 -0.23019698 -0.065221444
0.02481401 -0.23019698 -0.062985182
0.02493001 -0.23019698 -0.061056349
0.025191616 -0.23019698 -0.058738224
0.024683446 -0.23019698 -0.057071861
0.024964675 -0.23019698 -0.054977484
0.025011171 -0.23019698 -0.052983265
0.025164967 -0.23019698 -0.051125094
0.024855183 -0.23019698 -0.049042426
0.025040125 -0.23019698 -0.046788741
0.025312563 -0.230197 -0.045089945
0.024852067 -0.23019698 -0.043057881
0.024863936 -0.23019698 -0.040827982
0.024691032 -0.230197 -0.039157342
0.025037121 -0.23019698 -0.037094705
0.024806557 -0.23019698 -0.034642488
0.024979657 -0.23019698 -0.033043727
0.024865761 -0.23019698 -0.030950356
0.024893252 -0.23019698 -0.028976448
0.024982182 -0.23019698 -0.026831154
0.024725959 -0.23019698 -0.02533696
0.025116932 -0.230197 -0.023113653
0.024969935 -0.23019698 -0.020978626
0.02479041 -0.23019698 -0.019006675
0.02529325 -0.230197 -0.016530175
0.025078459 -0.230197 -0.015323982
0.024729799 -0.23019698 -0.012994218
0.025050318 -0.23019698 -0.01106523
0.025073791 -0.23019698 -0.0089785885
0.024629124 -0.23019698 -0.0070972852
0.025214637 -0.23019698 -0.0054059443
0.024971984 -0.23019697 -0.0031057801
0.024874352 -0.230197 -0.001061338
0.02510274 -0.23019698 0.00086708233
0.025303075 -0.23019698 0.0026360471
0.024857365 -0.23019698 0.0049347202
0.024874127 -0.23019698 0.0068103862
0.024978062 -0.23019698 0.0089881076
0.025245873 -0.23019698 0.010975202
0.024721848 -0.23019698 0.012822197
0.025259033 -0.23019698 0.015104082
0.02517893 -0.23019698 0.017112451
0.024770699 -0.23019698 0.01891893
0.024859266 -0.23019698 0.020809412
0.025134126 -0.23019698 0.023447849
0.024947835 -0.23019698 0.025002314
0.024977222 -0.23019698 0.027441937
0.025004463 -0.23019698 0.028894449
0.025154483 -0.23019698 0.031083401
0.025053805 -0.230197 0.033027396
0.024793778 -0.23019698 0.034956116
0.024757609 -0.230197 0.037057593
0.025051886 -0.23019698 0.039000075
0.025397304 -0.23019698 0.040943291
0.02505284 -0.23019698 0.043048225
0.025168689 -0.23019698 0.044900171
0.025148286 -0.230197 0.04683071
0.025256831 -0.23019698 0.049246088
0.025028948 -0.23019698 0.050723977
0.025027005 -0.23019698 0.053072214
0.025153602 -0.23019698 0.055316027
0.025064155 -0.23019698 0.057314236
0.025202939 -0.23019698 0.058988739
0.025145868 -0.230197 0.061079383
0.02506171 -0.23019698 0.063167877
0.025005257 -0.23019698 0.064971104
0.025054377 -0.23019697 0.0670297
0.024891373 -0.230197 0.069147862
0.025031965 -0.23019698 0.070908017
0.024994703 -0.23019698 0.073073551
0.024726406 -0.23067339 0.075075649
0.026642961 -0.23089033 -0.073099963
0.026947767 -0.23019698 -0.07126338
0.027201958 -0.230197 -0.068986297
0.027008893 -0.23019698 -0.066638313
0.026882431 -0.23019698 -0.064829744
0.027094355 -0.230197 -0.062931433
0.027131721 -0.23019698 -0.061463248
0.02696424 -0.23019698 -0.058898233
0.027083218 -0.23019698 -0.057102375
0.026645882 -0.23019701 -0.054917306
0.027137775 -0.23019698 -0.053113241
0.026943268 -0.23019698 -0.050889928
0.026743833 -0.23019698 -0.049359653
0.026904646 -0.23019698 -0.04725587
0.027018966 -0.230197 -0.045142543
0.026803011 -0.23019698 -0.04301301
0.026819047 -0.23019698 -0.040875524
0.026923168 -0.23019698 -0.0389902
0.026839731 -0.23019698 -0.037120007
0.026756464 -0.230197 -0.034643423
0.02704221 -0.23019698 -0.03309115
0.027163237 -0.23019698 -0.031031374
0.026932258 -0.23019698 -0.028837839
0.02694721 -0.23019698 -0.02705884
0.026743174 -0.23019698 -0.025008477
0.026968597 -0.23019698 -0.022822183
0.027389761 -0.230197 -0.02095289
0.027152902 -0.23019698 -0.01886599
0.027182473 -0.23019698 -0.016845616
0.027285429 -0.23019698 -0.014780959
0.026657935 -0.230197 -0.012928728
0.027037993 -0.23019698 -0.010764387
0.02745196 -0.23019701 -0.0090313572
0.026933556 -0.23019698 -0.0067186519
0.026610896 -0.23019698 -0.0050369292
0.027186425 -0.23019698 -0.0028855796
0.026829192 -0.23019698 -0.00080038834
0.02685662 -0.23019698 0.0012243174
0.026698694 -0.23019698 0.0033710646
0.026770538 -0.23019698 0.0051965639
0.026676049 -0.23019698 0.0075530065
0.027215188 -0.23019698 0.0088634603
0.0271383 -0.23019698 0.011195052
0.026867136 -0.23019698 0.013076681
0.027006259 -0.23019698 0.015101918
0.026856048 -0.23019697 0.017089793
0.027229099 -0.23019698 0.019090053
0.026937168 -0.23019698 0.021017
0.027026571 -0.23019698 0.022891287
0.027215144 -0.230197 0.025050161
0.026916066 -0.23019698 0.027077153
0.026736733 -0.23019701 0.029054258
0.026843159 -0.23019698 0.031035835
0.026883394 -0.230197 0.033046372
0.027063895 -0.23019698 0.034833822
0.02666581 -0.23019698 0.036952391
0.026856823 -0.23019698 0.038791053
0.02655891 -0.230197 0.041312095
0.027007407 -0.23019698 0.043266378
0.027319884 -0.23019698 0.045046497
0.026885841 -0.23019698 0.046851274
0.026820505 -0.230197 0.049097382
0.026873322 -0.23019698 0.051174365
0.026884208 -0.23019698 0.053056024
0.027070049 -0.23019698 0.055239856
0.026830057 -0.230197 0.057298675
0.027291987 -0.23019698 0.058928825
0.026972841 -0.23019698 0.061083872
0.026895817 -0.23019698 0.062829092
0.027223963 -0.23019698 0.064954661
0.026733441 -0.23019698 0.067240275
0.026828432 -0.230197 0.068773165
0.027034577 -0.230197 0.07107424
0.026803961 -0.23091948 0.072958007
0.0286003 -0.23065315 -0.07103958
0.029129753 -0.23019698 -0.068979457
0.02900568 -0.23019698 -0.066972643
0.029004101 -0.23019698 -0.065211117
0.028740488 -0.230197 -0.062937103
0.028870018 -0.230197 -0.060943343
0.029135147 -0.230197 -0.058821641
0.029248204 -0.23019698 -0.05709039
0.029357769 -0.230197 -0.054842636
0.029231152 -0.23019698 -0.05276531
0.028767947 -0.23019698 -0.051264033
0.028952744 -0.23019698 -0.04914692
0.028910492 -0.23019698 -0.047094386
0.029304147 -0.23019698 -0.045001168
0.029275149 -0.230197 -0.042777658
0.029096028 -0.23019698 -0.041064151
0.028983032 -0.23019698 -0.038804669
0.0288969 -0.23019698 -0.03725218
0.029065143 -0.23019698 -0.035163343
0.029318651 -0.23019698 -0.032806799
0.02875188 -0.23019698 -0.031076852
0.029114215 -0.230197 -0.028990228
0.029529391 -0.23019698 -0.027638011
0.028832767 -0.23019698 -0.024894668
0.028857704 -0.23019698 -0.023185425
0.028599795 -0.230197 -0.021121185
0.0292268 -0.23019698 -0.01908065
0.029139519 -0.23019698 -0.017192096
0.028855661 -0.23019698 -0.014850467
0.029133815 -0.230197 -0.012580773
0.028914379 -0.23019698 -0.010569583
0.028907603 -0.23019698 -0.0089011723
0.029086474 -0.23019698 -0.0070655011
0.029360019 -0.23019698 -0.0051254053
0.029239276 -0.23019698 -0.002849262
0.02885125 -0.23019698 -0.00083499931
0.029262602 -0.23019698 0.0010347714
0.028928675 -0.23019698 0.0031511341
0.02925428 -0.23019698 0.0048795366
0.028930441 -0.23019698 0.0068423003
0.029108902 -0.230197 0.0090663843
0.028858408 -0.23019698 0.011028726
0.029129921 -0.23019698 0.012839026
0.029115792 -0.23019698 0.01493087
0.02891745 -0.23019698 0.016835766
0.029161617 -0.23019698 0.019053185
0.028941099 -0.23019698 0.021153349
0.029034019 -0.23019698 0.02298981
0.028976433 -0.23019698 0.024867976
0.029019197 -0.23019698 0.027144585
0.028919177 -0.23019698 0.029228184
0.029042138 -0.23019698 0.030973382
0.028743915 -0.23019698 0.033112977
0.02915325 -0.23019698 0.034862075
0.029062824 -0.23019698 0.037376534
0.029290779 -0.23019698 0.038923424
0.028970907 -0.23019698 0.041126419
0.02920774 -0.23019698 0.042941909
0.028747439 -0.23019698 0.045111801
0.028944604 -0.23019698 0.047170542
0.02907512 -0.23019698 0.049233977
0.028980363 -0.23019698 0.05082402
0.02906253 -0.23019698 0.053144645
0.028994897 -0.23019698 0.054863296
0.028790733 -0.230197 0.056792781
0.028985595 -0.23019698 0.059150439
0.029063324 -0.23019698 0.060622375
0.028919509 -0.23019698 0.063224368
0.029138386 -0.23019697 0.064999543
0.029245697 -0.230197 0.066715598
0.028796319 -0.23019698 0.068830997
0.028723309 -0.230812 0.071118891
0.031119669 -0.2307737 -0.068661377
0.031296238 -0.23019698 -0.066947296
0.030941334 -0.23019698 -0.065117083
0.031553119 -0.23019698 -0.063049607
0.031085342 -0.23019698 -0.060669459
0.030907908 -0.230197 -0.058754735
0.031112172 -0.230197 -0.057040595
0.031168196 -0.230197 -0.055116463
0.030563883 -0.23019698 -0.053010926
0.030996544 -0.23019698 -0.050959587
0.030889578 -0.23019698 -0.049180962
0.031038748 -0.23019698 -0.046988573
0.031067064 -0.230197 -0.044933755
0.03106617 -0.23019698 -0.042884961
0.031277921 -0.23019698 -0.040959682
0.031101603 -0.23019698 -0.038950205
0.030799394 -0.230197 -0.03699825
0.031236783 -0.23019698 -0.035294417
0.031182596 -0.23019698 -0.032817785
0.030598875 -0.23019698 -0.031272054
0.030839352 -0.23019698 -0.02868633
0.030906491 -0.23019698 -0.026891056
0.031196468 -0.23019698 -0.024697496
0.031021867 -0.23019698 -0.023121294
0.030982759 -0.23019701 -0.021540355
0.030617466 -0.23019698 -0.018970845
0.031171661 -0.23019698 -0.017116055
0.031070061 -0.23019698 -0.01477785
0.031136192 -0.23019698 -0.013136895
0.031090735 -0.23019698 -0.010776064
0.031315088 -0.23019698 -0.0088378675
0.031068169 -0.23019698 -0.0072841453
0.031051319 -0.23019698 -0.0054552099
0.030800223 -0.23019698 -0.0029701323
0.031157946 -0.23019698 -0.00074043166
0.031092726 -0.23019698 0.00045421763
0.030625593 -0.230197 0.0033048219
0.031055275 -0.23019698 0.0049350332
0.03092476 -0.230197 0.0066366899
0.031034557 -0.23019698 0.0089657605
0.030912224 -0.23019698 0.011407433
0.030848924 -0.23019698 0.013125693
0.03087653 -0.23019698 0.01520103
0.031231603 -0.23019698 0.016651114
0.031225229 -0.23019698 0.019311603
0.030748609 -0.230197 0.020740792
0.030960774 -0.230197 0.023055753
0.03090029 -0.23019698 0.025189007
0.030827349 -0.23019698 0.027139181
0.031101478 -0.23019698 0.029226977
0.030904984 -0.230197 0.030867739
0.030809307 -0.23019698 0.033055287
0.030854939 -0.23019698 0.034847714
0.030603047 -0.23019698 0.036766816
0.030848995 -0.23019697 0.039126351
0.030876016 -0.23019698 0.041047167
0.031052001 -0.23019698 0.042998269
0.031223552 -0.23019698 0.04473741
0.031152133 -0.23019698 0.04680676
0.031214917 -0.23019698 0.049150635
0.030706394 -0.23019698 0.050903257
0.031165745 -0.230197 0.053192873
0.031198908 -0.23019698 0.054953218
0.03111545 -0.23019698 0.057360794
0.030940795 -0.23019698 0.058822442
0.031032486 -0.23019698 0.061052885
0.030831741 -0.23019698 0.063034311
0.031203886 -0.23019698 0.06483677
0.030643493 -0.230197 0.067012377
0.031062003 -0.23074977 0.068778336
0.032675929 -0.23083864 -0.067095652
0.033014391 -0.23019697 -0.065053903
0.033056185 -0.23019698 -0.062973171
0.032887094 -0.23019698 -0.060810547
0.033018216 -0.23019698 -0.05907993
0.032881334 -0.23019698 -0.057291884
0.032787871 -0.23019698 -0.054942507
0.033144087 -0.230197 -0.052772693
0.032829031 -0.23019698 -0.051052559
0.032842822 -0.23019698 -0.049196791
0.032816403 -0.23019698 -0.046882529
0.033188559 -0.23019698 -0.044683468
0.033067733 -0.23019698 -0.042998213
0.032924403 -0.23019698 -0.041239116
0.033087976 -0.23019698 -0.039045841
0.032844231 -0.23019698 -0.036884617
0.033187773 -0.23019698 -0.034997322
0.032689359 -0.23019698 -0.033109374
0.032735955 -0.23019698 -0.031129066
0.033093724 -0.23019698 -0.028901409
0.033164509 -0.23019698 -0.026856784
0.033254132 -0.230197 -0.025311809
0.033178464 -0.23019697 -0.023001438
0.033203322 -0.23019698 -0.020896057
0.033042293 -0.23019698 -0.018880537
0.032942064 -0.23019698 -0.017033711
0.032881767 -0.23019698 -0.014633329
0.032944426 -0.23019698 -0.012671365
0.032992054 -0.23019698 -0.011041358
0.033504162 -0.23019698 -0.0091735674
0.033254988 -0.23019698 -0.0071558654
0.033008251 -0.230197 -0.0050621754
0.033045344 -0.23019698 -0.0026693628
0.032890186 -0.23019698 -0.0010495544
0.033310898 -0.23019698 0.00089513027
0.032815591 -0.23019698 0.0032110775
0.03308621 -0.23019698 0.0050482922
0.032618448 -0.23019697 0.0071027642
0.033047765 -0.23019698 0.0088844579
0.033170875 -0.23019698 0.010852466
0.032780178 -0.23019698 0.013010434
0.033161264 -0.23019698 0.015110015
0.033381294 -0.23019698 0.016888997
0.032997217 -0.23019698 0.019386629
0.033106226 -0.23019697 0.020931475
0.0330902 -0.23019698 0.022891123
0.033245374 -0.23019698 0.025021093
0.033090267 -0.23019698 0.026691314
0.033431023 -0.23019698 0.02909215
0.033234492 -0.23019698 0.030924169
0.032712288 -0.23019698 0.033382513
0.033009578 -0.23019698 0.034871753
0.032961264 -0.23019698 0.036920637
0.032869827 -0.23019698 0.03883253
0.032800633 -0.230197 0.040818792
0.033240899 -0.23019698 0.043188024
0.032833945 -0.23019698 0.044955026
0.033033799 -0.23019698 0.046982668
0.03306504 -0.23019698 0.049023449
0.032890424 -0.23019698 0.050992817
0.032779034 -0.23019698 0.052769877
0.033255707 -0.23019698 0.054935627
0.032700527 -0.23019698 0.056997485
0.032787751 -0.23019698 0.05919968
0.033129122 -0.23019698 0.061039459
0.033046868 -0.23019698 0.06310945
0.033151776 -0.23019698 0.064851582
0.032867264 -0.23082262 0.06683322
0.034954902 -0.23087302 -0.06486097
0.03501327 -0.23019698 -0.062908731
0.034859758 -0.230197 -0.061098259
0.035137665 -0.23019698 -0.058773562
0.034609627 -0.23019698 -0.057288457
0.034792427 -0.230197 -0.05470496
0.034808662 -0.23019698 -0.053200908
0.034920607 -0.23019698 -0.050867457
0.034672014 -0.230197 -0.049286067
0.034980625 -0.23019698 -0.047356557
0.035003595 -0.230197 -0.044785623
0.035352036 -0.230197 -0.043229569
0.035059083 -0.23019698 -0.041054308
0.035044093 -0.230197 -0.038701992
0.034875017 -0.23019698 -0.036767684
0.035244383 -0.23019698 -0.034766112
0.034742799 -0.230197 -0.033154245
0.034968004 -0.230197 -0.03129825
0.035002768 -0.23019698 -0.029164961
0.034764223 -0.23019698 -0.027174516
0.035104334 -0.23019698 -0.024989031
0.035316724 -0.23019698 -0.023100659
0.034972716 -0.23019698 -0.021207787
0.034785874 -0.230197 -0.019164093
0.034951374 -0.23019698 -0.016992871
0.03492913 -0.23019698 -0.015088401
0.035037439 -0.23019698 -0.012936431
0.034931224 -0.230197 -0.011061052
0.034939356 -0.23019698 -0.0087947696
0.034840293 -0.23019698 -0.0066906391
0.035069626 -0.23019698 -0.0052195974
0.035128132 -0.23019698 -0.0028034966
0.034784764 -0.23019697 -0.00098825188
0.035025459 -0.23019698 0.00086728035
0.035161469 -0.23019698 0.0029754671
0.035212673 -0.23019698 0.0048323493
0.034988843 -0.23019698 0.0067050243
0.03466697 -0.23019698 0.0089486409
0.034800675 -0.23019698 0.010977074
0.034946818 -0.23019698 0.012858558
0.034793381 -0.23019698 0.015095209
0.034963243 -0.23019698 0.016908145
0.034850277 -0.23019698 0.019012099
0.034725063 -0.23019698 0.02091602
0.034775496 -0.23019698 0.023145404
0.034961477 -0.23019698 0.024682976
0.035127528 -0.23019698 0.027118146
0.034796298 -0.23019698 0.02910408
0.035258651 -0.230197 0.030786538
0.034848265 -0.23019698 0.032937318
0.035017341 -0.23019698 0.034829564
0.035110015 -0.23019698 0.036747016
0.035004213 -0.23019698 0.039175786
0.034760147 -0.23019698 0.041059982
0.035236578 -0.230197 0.043514039
0.035151403 -0.230197 0.044881854
0.034901626 -0.23019698 0.046748769
0.035051774 -0.230197 0.049303364
0.03465876 -0.23019698 0.050990209
0.034895446 -0.23019698 0.052960619
0.035102129 -0.23019698 0.054897573
0.035023779 -0.23019698 0.057261474
0.035247024 -0.23019698 0.059145391
0.035340827 -0.230197 0.060543515
0.035026062 -0.23019698 0.062979594
0.034904994 -0.23059745 0.064691655
0.036904901 -0.23052205 -0.062982351
0.036923569 -0.23019698 -0.061146222
0.036922213 -0.23019698 -0.058904108
0.036911815 -0.23019698 -0.05676296
0.036534749 -0.230197 -0.055245336
0.036869433 -0.230197 -0.053116634
0.037111063 -0.23019698 -0.051185083
0.037122261 -0.230197 -0.049019959
0.037226237 -0.23019698 -0.047125556
0.036873166 -0.23019698 -0.044702809
0.03702933 -0.23019698 -0.043073732
0.037088882 -0.23019698 -0.041158233
0.036979306 -0.23019698 -0.039232127
0.037060052 -0.23019698 -0.036671028
0.037064053 -0.23019698 -0.034877174
0.036681294 -0.230197 -0.032766178
0.037072767 -0.230197 -0.03146432
0.036910024 -0.230197 -0.028693587
0.036900684 -0.23019698 -0.026874933
0.037048876 -0.23019698 -0.024811808
0.037065241 -0.23019698 -0.023224376
0.0371585 -0.23019698 -0.02083938
0.037018515 -0.23019698 -0.01882777
0.037135907 -0.23019698 -0.016864235
0.037440788 -0.23019698 -0.015009097
0.037270147 -0.23019698 -0.013175207
0.036824051 -0.23019698 -0.010750256
0.037083127 -0.23019698 -0.009040189
0.037049171 -0.23019698 -0.0075195944
0.037435945 -0.23019698 -0.0051418352
0.036878869 -0.23019697 -0.0026869446
0.037452549 -0.230197 -0.00090548239
0.037113577 -0.23019698 0.0011310431
0.037413009 -0.23019698 0.0030330222
