# .PCD v0.7 - Point Cloud Data file format
VERSION 0.7
FIELDS x y z
SIZE 4 4 4
TYPE F F F
COUNT 1 1 1
WIDTH 1311
HEIGHT 1
VIEWPOINT 0 0 0 1 0 0 0
POINTS 1311
DATA ascii
0.021328289 0.033321589 -0.24000001
0.022557236 0.033528283 -0.23999999
0.023415616 0.033682093 -0.24000001
0.024495598 0.03318724 -0.23999998
0.025419144 0.033485577 -0.23999999
0.026559822 0.033495236 -0.23999998
0.027600065 0.033902798 -0.24000001
0.028350974 0.0331356 -0.24000001
0.030354921 0.033832937 -0.24000001
0.031007184 0.033373863 -0.23999999
0.032522805 0.033587754 -0.24000001
0.033494398 0.033681609 -0.23999999
0.034701265 0.033971839 -0.23999999
0.036682047 0.033740424 -0.23999998
0.037366569 0.033555306 -0.23999999
0.039528869 0.033854369 -0.23999998
0.040177397 0.033134468 -0.23999998
0.041303113 0.033279475 -0.24000001
0.042496085 0.033473976 -0.24000001
0.043316726 0.033670664 -0.23999998
0.04459925 0.033481855 -0.23999999
0.047480863 0.033461101 -0.24000001
0.048508517 0.033302695 -0.24000001
0.049193032 0.033504404 -0.23999999
0.050453961 0.033455543 -0.23999998
0.051054642 0.033406388 -0.23999998
0.052103154 0.033238657 -0.23999999
0.054350622 0.033353612 -0.24000001
0.055224836 0.033177175 -0.23999999
0.05637544 0.033212896 -0.23999999
0.057301693 0.033446901 -0.23999999
0.059456456 0.033732615 -0.24000001
0.060557764 0.033759709 -0.23999999
0.061427556 0.033502199 -0.24000001
0.063615702 0.03353953 -0.23999999
0.064390935 0.03352353 -0.23999999
0.065529056 0.033438236 -0.24000001
0.066343129 0.033548605 -0.23984116
-0.065656573 0.034280419 -0.23947717
-0.064330906 0.034451045 -0.23999998
-0.063603774 0.034659684 -0.23999999
-0.062402256 0.034432009 -0.23999999
-0.061687775 0.034805134 -0.23999999
-0.060494073 0.034528803 -0.24000001
-0.059638094 0.034828506 -0.23999999
-0.058490895 0.034684941 -0.23999999
-0.057564121 0.034672841 -0.23999999
-0.056229591 0.034608569 -0.24000001
-0.055138022 0.034822363 -0.23999999
-0.054223962 0.034520328 -0.23999999
-0.053286944 0.034759104 -0.23999999
-0.052529849 0.03461045 -0.24000001
-0.051479496 0.03457677 -0.23999999
-0.050225552 0.034387324 -0.24000001
-0.049375258 0.034258612 -0.23999999
-0.048242152 0.034633487 -0.23999999
-0.0471806 0.034361433 -0.23999999
-0.046538915 0.034658894 -0.23999999
-0.045363583 0.034447577 -0.24000001
-0.044555016 0.034488641 -0.24000001
-0.043180179 0.034189463 -0.23999999
-0.042972054 0.034396186 -0.23999999
-0.041484196 0.034136578 -0.23999999
-0.040376194 0.034581862 -0.24000001
-0.039335977 0.034774438 -0.23999999
-0.038411047 0.03451249 -0.24000001
-0.037612982 0.034497093 -0.23999999
-0.03520193 0.034577306 -0.23999999
-0.034491006 0.034585126 -0.24000002
-0.033366941 0.034223869 -0.23999999
-0.032446548 0.034649149 -0.24000001
-0.031221045 0.034680888 -0.24000001
-0.030462757 0.034722559 -0.24000001
-0.029931054 0.034742862 -0.23999999
-0.028525667 0.034553442 -0.23999998
-0.027602151 0.034377307 -0.23999999
-0.026145943 0.034232005 -0.23999999
-0.02592852 0.034823775 -0.23999999
-0.024683861 0.034391809 -0.23999999
-0.023779413 0.034915496 -0.23999998
-0.022421673 0.034609862 -0.23999998
-0.021834854 0.034337755 -0.23999998
-0.020695889 0.034005981 -0.23999999
-0.019441202 0.034452036 -0.23999999
-0.018354243 0.034621336 -0.23999999
-0.017243851 0.03465914 -0.23999998
-0.016210835 0.034757532 -0.23999999
-0.015540305 0.034443136 -0.24000002
-0.014194695 0.034538172 -0.23999999
-0.013416645 0.034495361 -0.23999999
-0.012556259 0.03465721 -0.24000001
-0.01058582 0.034518164 -0.23999999
-0.0097863674 0.034393732 -0.24000001
-0.0087055005 0.034370095 -0.23999999
-0.0074022226 0.034007978 -0.24000001
-0.0065382817 0.034653779 -0.24000001
-0.005344592 0.034510411 -0.24000001
-0.0042312201 0.034328427 -0.24000001
-0.0036520779 0.034701131 -0.24000001
-0.0025342684 0.034196019 -0.23999999
-0.0014769481 0.034728184 -0.23999999
-0.00055405189 0.034568198 -0.23999999
0.00038872752 0.034677513 -0.23999999
0.0012898648 0.034568783 -0.24000001
0.0023732584 0.034688309 -0.24000001
0.0036965541 0.034550153 -0.24000001
0.0044310172 0.034314122 -0.24000001
0.0055973986 0.034822255 -0.24000001
0.0062417043 0.034573454 -0.24000001
0.0074783703 0.034333311 -0.24000001
0.0084301447 0.034332056 -0.24000001
0.0099645518 0.034797691 -0.23999999
0.01067664 0.034514189 -0.24000001
0.011780391 0.034926891 -0.24000001
0.012659108 0.03442388 -0.23999999
0.013286747 0.034190826 -0.23999998
0.014388618 0.034720253 -0.23999999
0.015269998 0.034717709 -0.24000001
0.016717533 0.034439754 -0.24000001
0.018728685 0.034338623 -0.23999999
0.019468956 0.034529492 -0.24000001
0.020337066 0.034552798 -0.24000001
0.02185113 0.03462252 -0.23999999
0.022384237 0.034782063 -0.23999999
0.023570355 0.034238201 -0.23999999
0.02450073 0.034310855 -0.23999998
0.025506236 0.034633771 -0.23999998
0.026299654 0.034218185 -0.23999999
0.027008088 0.034893971 -0.23999998
0.028194759 0.034430519 -0.23999999
0.029534357 0.034648478 -0.23999998
0.030426519 0.034667324 -0.23999998
0.031885322 0.034825888 -0.24000001
0.032697465 0.034852635 -0.23999999
0.033594191 0.034262236 -0.23999999
0.034071907 0.03452957 -0.23999998
0.035637736 0.034324329 -0.24000001
0.036186665 0.034405097 -0.23999998
0.037559018 0.034553699 -0.23999998
0.038485046 0.034547903 -0.23999998
0.039509617 0.034293756 -0.23999999
0.040337712 0.034327611 -0.24000001
0.041444026 0.034554198 -0.23999998
0.042408884 0.034651648 -0.23999999
0.043559771 0.03463652 -0.23999998
0.044446401 0.034830682 -0.23999999
0.045555182 0.034561262 -0.23999999
0.046282973 0.034232829 -0.23999999
0.047410045 0.034476683 -0.24000001
0.048448175 0.034623601 -0.23999999
0.049329627 0.034595519 -0.23999999
0.050403602 0.034252889 -0.23999998
0.051822636 0.034242675 -0.24000001
0.052546054 0.03465772 -0.24000001
0.053342085 0.034233466 -0.24000001
0.054360513 0.034557693 -0.23999999
0.055299722 0.034521446 -0.24000001
0.056511905 0.034286041 -0.23999999
0.057435136 0.034320723 -0.24000001
0.058520894 0.03433314 -0.23999999
0.059451081 0.034545209 -0.24000001
0.060224839 0.034657087 -0.23999999
0.061676983 0.034387682 -0.24000001
0.062294826 0.034444392 -0.23999999
0.063504793 0.034550674 -0.23999999
0.06458395 0.03403132 -0.23999998
0.06559521 0.034404788 -0.23924986
-0.064337745 0.03566226 -0.23925687
-0.063650504 0.035622522 -0.23999999
-0.062471151 0.035160296 -0.23999999
-0.061261367 0.035650499 -0.23999998
-0.058615543 0.035284191 -0.23999999
-0.057618268 0.035645902 -0.24000001
-0.056465253 0.035672061 -0.23999998
-0.055416703 0.035424653 -0.23999999
-0.054502554 0.035447273 -0.23999999
-0.053595196 0.035879336 -0.24000001
-0.052313667 0.035420924 -0.24000001
-0.051652789 0.035290919 -0.24000001
-0.050438471 0.035431188 -0.23999999
-0.049336411 0.03587392 -0.24000001
-0.048703875 0.035359554 -0.23999999
-0.047777437 0.035381999 -0.23999999
-0.046536442 0.035591956 -0.23999999
-0.045526221 0.035902709 -0.23999999
-0.044458207 0.035190098 -0.24000001
-0.043719891 0.035599113 -0.24000001
-0.042396419 0.035215486 -0.23999998
-0.041440472 0.035480522 -0.23999998
-0.040633868 0.035669725 -0.24000001
-0.038047355 0.035077747 -0.23999999
-0.037268847 0.035424158 -0.24000001
-0.036337234 0.035454113 -0.24000001
-0.035657864 0.035586979 -0.24000001
-0.034178808 0.035576403 -0.23999999
-0.033312589 0.035227984 -0.24000001
-0.032517653 0.035506949 -0.24000001
-0.031631105 0.035081524 -0.23999999
-0.02992495 0.035464302 -0.23999999
-0.028271396 0.035607383 -0.24000001
-0.026355533 0.035232879 -0.24000001
-0.025271121 0.035927936 -0.24000001
-0.024475217 0.035264105 -0.24000001
-0.023640044 0.035705954 -0.24000001
-0.022055928 0.035163198 -0.24000001
-0.021719923 0.03570012 -0.24000001
-0.020555705 0.035376966 -0.23999999
-0.019771352 0.035804864 -0.23999999
-0.018516498 0.035540693 -0.24000001
-0.017496638 0.035386056 -0.23999999
-0.016547799 0.035237558 -0.23999998
-0.015424078 0.035358664 -0.23999999
-0.014474953 0.035562366 -0.24000001
-0.012204125 0.035766095 -0.23999999
-0.011376865 0.035363108 -0.23999998
-0.010264315 0.035556938 -0.24000001
-0.009532731 0.035745494 -0.24000001
-0.0089655872 0.035161864 -0.24000001
-0.0076962402 0.03556028 -0.23999999
-0.0069723614 0.035507094 -0.24000001
-0.0055120136 0.035542883 -0.23999999
-0.0047209705 0.035655737 -0.23999998
-0.0034015118 0.035236031 -0.23999999
-0.0024792831 0.035512712 -0.23999998
-9.8706223e-05 0.035365589 -0.24000001
0.00042136386 0.035718963 -0.24000001
0.0017542709 0.035083167 -0.24000001
0.0020304187 0.035520196 -0.23999999
0.0036298959 0.035285112 -0.23999999
0.0045510642 0.035661336 -0.24000001
0.0056938995 0.03527331 -0.23999998
0.0064474307 0.035841834 -0.24000001
0.0075202705 0.03556484 -0.24000001
0.0082475189 0.035368219 -0.23999999
0.010570886 0.035491578 -0.23999999
0.011351328 0.035539392 -0.23999999
0.012355371 0.035463057 -0.23999999
0.014480954 0.035786133 -0.24000001
0.015283804 0.035671428 -0.24000001
0.017423809 0.035058375 -0.23999998
0.018613972 0.035227563 -0.24000001
0.019170869 0.035942972 -0.24000001
0.020678628 0.035547711 -0.23999998
0.021563103 0.035504121 -0.23999999
0.022259559 0.035308264 -0.23999999
0.023436885 0.035110328 -0.23999998
0.02458241 0.035613801 -0.23999999
0.025520466 0.035976909 -0.24000001
0.02661266 0.035343435 -0.23999999
0.027445704 0.03532102 -0.23999999
0.028363828 0.035727654 -0.23999999
0.029268084 0.035575017 -0.23999998
0.030676454 0.03576792 -0.23999999
0.031746395 0.035450425 -0.23999999
0.032603428 0.035726648 -0.23999999
0.033263557 0.035820052 -0.23999999
0.034511503 0.035673838 -0.23999998
0.035206486 0.03548133 -0.23999998
0.036555178 0.035369232 -0.24000001
0.037494298 0.035750575 -0.24000001
0.03859596 0.035388473 -0.24000001
0.04149976 0.035657749 -0.23999998
0.042468425 0.035292201 -0.23999999
0.043458853 0.035358712 -0.23999999
0.04448257 0.035527326 -0.23999998
0.045265749 0.035464756 -0.24000001
0.047411133 0.035537712 -0.24000001
0.048281524 0.035973474 -0.23999999
0.049161084 0.035753381 -0.23999999
0.050727591 0.035582885 -0.23999999
0.05156558 0.035708599 -0.23999999
0.052458182 0.03565558 -0.23999998
0.053908892 0.035379875 -0.23999998
0.054706916 0.03527927 -0.24000001
0.055220187 0.035898592 -0.23999999
0.056623802 0.035476189 -0.24000001
0.057493221 0.035128541 -0.23999999
0.058727555 0.035488825 -0.23999999
0.060489397 0.035177402 -0.23999999
0.061595272 0.035775676 -0.23999999
0.062471047 0.035331588 -0.23999999
0.063400947 0.035623971 -0.23999999
0.064494319 0.035463784 -0.23968846
-0.06323465 0.036541592 -0.2395436
-0.061389904 0.036879163 -0.23999998
-0.060715776 0.03684558 -0.23999999
-0.058482088 0.036573187 -0.24000001
-0.057226606 0.036353059 -0.24000001
-0.056449816 0.03644073 -0.24000002
-0.055608202 0.036871724 -0.23999998
-0.054308746 0.036632597 -0.23999999
-0.052602798 0.036592942 -0.23999999
-0.051992234 0.03675472 -0.23999999
-0.050379887 0.036318474 -0.24000001
-0.049691256 0.036621042 -0.23999999
-0.047663625 0.036922835 -0.23999999
-0.046535671 0.036472477 -0.24000001
-0.045399915 0.036322072 -0.23999999
-0.044299882 0.036497716 -0.23999998
-0.043779951 0.036096986 -0.23999999
-0.041010067 0.03655532 -0.23999999
-0.040530369 0.036528513 -0.24000001
-0.039627597 0.036661759 -0.24000001
-0.038217872 0.036418863 -0.23999999
-0.037249986 0.036935922 -0.24000001
-0.036435805 0.036436334 -0.24000001
-0.034440156 0.036354411 -0.24000001
-0.033541482 0.036409244 -0.23999999
-0.032572705 0.036350869 -0.23999998
-0.031497858 0.036846485 -0.23999999
-0.030772332 0.036702648 -0.23999998
-0.029168284 0.036765445 -0.23999998
-0.028578669 0.036504876 -0.23999999
-0.027599245 0.036557022 -0.24000001
-0.026474968 0.036253963 -0.23999998
-0.025484942 0.036544751 -0.24000001
-0.024666561 0.0361531 -0.23999998
-0.023697801 0.036595538 -0.24000001
-0.022602782 0.036015138 -0.23999998
-0.021256689 0.036245003 -0.23999998
-0.02037305 0.0365577 -0.24000001
-0.019711718 0.036528274 -0.23999998
-0.018449577 0.036609747 -0.24000001
-0.017362799 0.036105495 -0.23999999
-0.016244892 0.036533926 -0.24000001
-0.015331851 0.036694638 -0.23999998
-0.014689658 0.036165237 -0.23999999
-0.013471805 0.036302548 -0.23999998
-0.01260476 0.036481302 -0.23999999
-0.011533958 0.036444988 -0.24000001
-0.010497488 0.03631103 -0.24000001
-0.0093202461 0.036897287 -0.24000001
-0.0080724023 0.036265984 -0.24000001
-0.0078513091 0.036719676 -0.23999999
-0.0065322295 0.036384098 -0.24000001
-0.0033554453 0.036437534 -0.24000001
-0.0022983961 0.036461405 -0.23999999
-0.0017630045 0.036506724 -0.23999999
-0.00054418389 0.036274359 -0.23999999
8.290261e-05 0.036157705 -0.23999999
0.0016125583 0.036738947 -0.23999999
0.0025200525 0.036583215 -0.23999998
0.003524401 0.036369279 -0.23999999
0.0045027956 0.036594193 -0.23999999
0.0059670317 0.036406603 -0.24000001
0.0063491771 0.03645201 -0.23999998
0.0071887872 0.036669903 -0.23999999
0.0084133707 0.036650319 -0.23999999
0.0095315343 0.0369679 -0.23999999
0.010454945 0.036532663 -0.23999999
0.011539189 0.036551014 -0.23999999
0.013607587 0.036367215 -0.24000001
0.014624811 0.036571041 -0.24000001
0.015683789 0.036828384 -0.24000001
0.016478149 0.036478221 -0.24000001
0.0173514 0.036396004 -0.24000001
0.018510299 0.036790114 -0.23999999
0.019260775 0.036405455 -0.23999999
0.021474663 0.036783233 -0.24000001
0.022246055 0.036168601 -0.23999999
0.023562524 0.036394279 -0.23999999
0.024488423 0.036480516 -0.24000001
0.025301015 0.036491416 -0.24000001
0.026551371 0.03646297 -0.24000001
0.027575785 0.036613788 -0.23999999
0.028575588 0.036730841 -0.23999999
0.029407393 0.036486007 -0.23999998
0.031624291 0.036650095 -0.24000001
0.032144997 0.036032032 -0.24000001
0.033375546 0.036281593 -0.23999998
0.034403719 0.03644941 -0.23999998
0.035852596 0.036563657 -0.23999998
0.0366165 0.036548927 -0.23999999
0.037604265 0.036260843 -0.23999998
0.038534772 0.036432303 -0.23999999
0.039830647 0.036620218 -0.23999999
0.040693693 0.036378644 -0.24000001
0.041125648 0.036482826 -0.23999999
0.042412587 0.036695268 -0.23999998
0.043417253 0.036434215 -0.24000001
0.044987142 0.036013853 -0.24000001
0.045642342 0.036254581 -0.23999999
0.046324741 0.036509529 -0.23999999
0.047603734 0.036537386 -0.24000001
0.048989166 0.036011234 -0.23999998
0.049522344 0.03682889 -0.23999998
0.050509997 0.036762271 -0.23999999
0.051598322 0.036651067 -0.23999999
0.052667614 0.036787577 -0.23999999
0.053466152 0.036322266 -0.23999999
0.054941878 0.036341578 -0.23999999
0.055353619 0.03643322 -0.23999999
0.056305453 0.036599152 -0.23999999
0.057195976 0.03620464 -0.23999999
0.058172435 0.036454823 -0.23999999
0.059949756 0.03673153 -0.23999999
0.060660988 0.036651157 -0.23999999
0.061345011 0.03636523 -0.23999999
0.06252031 0.036352951 -0.24000002
0.063515812 0.036458898 -0.2395134
-0.062146671 0.037753027 -0.23976032
-0.061496478 0.037565574 -0.24000001
-0.060038522 0.037328422 -0.23999999
-0.058603358 0.037545603 -0.24000001
-0.057424929 0.037517607 -0.23999999
-0.056673735 0.037495635 -0.23999999
-0.055710305 0.037640974 -0.24000001
-0.054395851 0.037546672 -0.23999999
-0.053563662 0.037338261 -0.24000001
-0.052443177 0.037805196 -0.23999999
-0.051510502 0.037499122 -0.23999999
-0.050527047 0.037251338 -0.23999999
-0.049642265 0.037450675 -0.23999999
-0.048352513 0.037679639 -0.24000001
-0.047862299 0.037440285 -0.24000001
-0.046687178 0.037043244 -0.23999999
-0.045185953 0.037290893 -0.23999999
-0.044444822 0.037529167 -0.23999999
-0.043496408 0.03756943 -0.24000001
-0.042368706 0.037358973 -0.23999999
-0.040618464 0.03751573 -0.23999999
-0.039557066 0.037586819 -0.24000001
-0.038559459 0.037213035 -0.23999999
-0.037809275 0.037762355 -0.23999999
-0.036660623 0.037538104 -0.24000001
-0.034531482 0.037522022 -0.23999999
-0.0335631 0.037529342 -0.24000001
-0.03245534 0.037360124 -0.23999999
-0.031406417 0.037784994 -0.23999999
-0.030951221 0.037161581 -0.23999999
-0.029684966 0.037820108 -0.23999999
-0.028510058 0.037154973 -0.23999999
-0.025776792 0.037524872 -0.24000001
-0.024729243 0.037692007 -0.23999999
-0.0234528 0.03748475 -0.23999998
-0.022555087 0.037563659 -0.23999999
-0.021450309 0.037587769 -0.24000001
-0.02028754 0.037169255 -0.23999999
-0.019739849 0.037185848 -0.23999999
-0.018788647 0.037790041 -0.23999999
-0.017773883 0.037356682 -0.24000001
-0.016646596 0.037626404 -0.24000001
-0.015547881 0.037659783 -0.23999999
-0.014599431 0.037583526 -0.24000001
-0.01322185 0.037881248 -0.23999999
-0.012527933 0.037464056 -0.23999999
-0.011327068 0.037382767 -0.24000001
-0.010069432 0.037437532 -0.24000001
-0.009613608 0.037455376 -0.24000001
-0.0084767565 0.037513897 -0.23999999
-0.007570771 0.037453752 -0.24000001
-0.0064868941 0.037143461 -0.23999999
-0.0054896092 0.037612703 -0.24000001
-0.0036318195 0.037258733 -0.23999998
-0.00274143 0.037620526 -0.24000001
-0.001560573 0.037525233 -0.24000001
-0.00043914589 0.037566435 -0.24000001
0.00032564471 0.037405498 -0.24000001
0.0015766565 0.037569396 -0.23999999
0.0025452813 0.037583791 -0.24000001
0.0037533692 0.037667375 -0.23999998
0.0045774179 0.037337322 -0.23999999
0.0055924607 0.037401281 -0.23999998
0.0063422252 0.037268654 -0.23999998
0.0085126916 0.037587713 -0.24000001
0.010078406 0.037905354 -0.24000001
0.011457492 0.037394516 -0.23999998
0.012366013 0.037349142 -0.24000001
0.013125557 0.037488624 -0.24000001
0.014350615 0.037720032 -0.23999998
0.015859898 0.037616115 -0.23999999
0.016733199 0.037278086 -0.24000001
0.017293893 0.037299931 -0.23999999
0.018345751 0.037504353 -0.24000001
0.019594586 0.037562091 -0.24000001
0.02032242 0.037579045 -0.24000001
0.021622628 0.037816219 -0.23999998
0.022722159 0.037992872 -0.23999998
0.023509433 0.037324965 -0.23999999
0.024586502 0.037264135 -0.23999999
0.025606887 0.037692763 -0.23999998
0.02651247 0.037338857 -0.24000001
0.027259825 0.037352081 -0.24000001
0.028109632 0.037020192 -0.24000001
0.02912212 0.037597395 -0.24000001
0.030415103 0.037562631 -0.24000001
0.03225676 0.037081581 -0.24000001
0.033207767 0.037620973 -0.23999999
0.034681078 0.037385918 -0.23999999
0.035404664 0.037429906 -0.23999999
0.036291659 0.037151694 -0.23999999
0.037735179 0.037618272 -0.23999998
0.038562208 0.037591659 -0.24000001
0.039611973 0.037163571 -0.23999999
0.040528078 0.037284639 -0.23999999
0.042534675 0.037426539 -0.23999999
0.043337151 0.037620295 -0.23999999
0.044837303 0.037385512 -0.23999998
0.045848131 0.037219442 -0.23999999
0.04659728 0.037366446 -0.24000001
0.047340419 0.037401341 -0.23999999
0.048144981 0.037979867 -0.23999999
0.049310505 0.037456997 -0.24000001
0.050684482 0.03740605 -0.23999999
0.051521406 0.037619881 -0.23999999
0.053465478 0.037404377 -0.24000001
0.05423706 0.037414186 -0.23999999
0.056937449 0.03745091 -0.23999999
0.057455469 0.0376346 -0.23999999
0.058629923 0.037383821 -0.24000001
0.059540808 0.037429158 -0.23999999
0.060347177 0.037561491 -0.23999999
0.061868411 0.037707523 -0.23999999
0.06259653 0.03739991 -0.23975395
-0.061490823 0.038427863 -0.23965791
-0.060552474 0.03871417 -0.24000001
-0.059471585 0.038041566 -0.24000001
-0.058170017 0.038704265 -0.23999999
-0.057414941 0.038588915 -0.23999999
-0.056464411 0.038453601 -0.23999999
-0.054360494 0.03814435 -0.23999999
-0.053458579 0.038365081 -0.23999999
-0.052773111 0.038063724 -0.23999999
-0.051313397 0.03863138 -0.23999999
-0.050629571 0.038500354 -0.23999999
-0.049407624 0.038960423 -0.23999999
-0.048447765 0.038610578 -0.23999998
-0.047449138 0.038496315 -0.23999999
-0.046383254 0.038695723 -0.24000001
-0.045159213 0.038470231 -0.23999998
-0.044437964 0.038392831 -0.24000002
-0.043178089 0.038363442 -0.23999999
-0.042525031 0.03863325 -0.23999999
-0.041444063 0.038195796 -0.23999999
-0.04071565 0.038716812 -0.23999999
-0.039339602 0.038612556 -0.24000001
-0.038509235 0.038836308 -0.24000001
-0.03783657 0.038228743 -0.24000001
-0.036368504 0.0386765 -0.23999999
-0.035752129 0.038153835 -0.24000001
-0.034254421 0.038543284 -0.23999998
-0.032662563 0.038526114 -0.24000001
-0.03158718 0.038688745 -0.23999999
-0.029439664 0.038165372 -0.23999999
-0.028359149 0.038581043 -0.23999999
-0.027199712 0.038043488 -0.23999998
-0.02658155 0.038474683 -0.23999999
-0.024551701 0.038406976 -0.23999999
-0.023865454 0.03834299 -0.23999998
-0.022872165 0.038507372 -0.23999999
-0.021459494 0.038491171 -0.23999999
-0.020273902 0.038665406 -0.23999999
-0.019573344 0.038484734 -0.24000001
-0.018461596 0.038589455 -0.23999998
-0.017530471 0.038632244 -0.24000001
-0.016348792 0.038236812 -0.24000001
-0.01569918 0.038214184 -0.23999999
-0.014855709 0.03865831 -0.23999998
-0.013465138 0.038680151 -0.24000001
-0.012340463 0.038840655 -0.23999999
-0.011430942 0.038349058 -0.24000001
-0.010300364 0.038491085 -0.23999999
-0.009634071 0.038476121 -0.24000001
-0.0085003152 0.038438164 -0.23999999
-0.0078673419 0.03883782 -0.23999999
-0.006417715 0.038409665 -0.24000001
-0.0055958512 0.03858377 -0.24000002
-0.0045020012 0.038528316 -0.23999999
-0.0034292466 0.038398352 -0.24000001
-0.0024520559 0.038708858 -0.23999999
-0.0016135805 0.038343485 -0.24000001
-0.00065937819 0.038535815 -0.23999998
0.00094761932 0.038427904 -0.23999999
0.0012075235 0.038521692 -0.24000001
0.0024907368 0.03852056 -0.23999999
0.0033459 0.038330343 -0.23999999
0.0057614157 0.038984112 -0.23999999
0.006151468 0.038922548 -0.23999999
0.0076215579 0.038595729 -0.24000001
0.0085959695 0.03840046 -0.24000001
0.0096173519 0.038736559 -0.24000001
0.010556733 0.038310386 -0.23999999
0.011604596 0.038627319 -0.24000001
0.012477669 0.038223132 -0.23999999
0.013293354 0.038455531 -0.23999999
0.014643003 0.038474649 -0.23999998
0.015833745 0.038625117 -0.23999999
0.016478579 0.038420048 -0.23999999
0.017965192 0.038997773 -0.23999999
0.019353976 0.038688224 -0.23999999
0.021459803 0.038302671 -0.24000001
0.022321168 0.038677014 -0.24000001
0.023379356 0.038476717 -0.23999999
0.02446395 0.038580857 -0.23999999
0.026489377 0.038641751 -0.24000001
0.027883111 0.038342841 -0.24000001
0.028607946 0.03832021 -0.23999999
0.029415762 0.038600892 -0.23999998
0.030657969 0.038565621 -0.23999999
0.031706069 0.038300902 -0.24000001
0.032928552 0.038369223 -0.23999999
0.033353016 0.038532004 -0.23999999
0.034410998 0.038571037 -0.23999998
0.035267908 0.03867355 -0.23999999
0.036205146 0.038446873 -0.23999999
0.037344232 0.038481705 -0.24000001
0.038589012 0.038578372 -0.23999999
0.039719041 0.038391944 -0.23999999
0.040519163 0.038664125 -0.23999999
0.041828826 0.038471743 -0.24000001
0.042518035 0.03819311 -0.23999998
0.043514773 0.038748905 -0.23999999
0.044865221 0.038684409 -0.24000001
0.046661533 0.038483646 -0.23999998
0.047334414 0.038659327 -0.23999999
0.048278283 0.038217515 -0.23999999
0.049644083 0.038302287 -0.23999999
0.051234066 0.038505457 -0.23999998
0.052502155 0.038540579 -0.23999999
0.053737294 0.038471665 -0.23999999
0.054575287 0.03823483 -0.23999999
0.055400357 0.038475804 -0.23999998
0.056572668 0.038534433 -0.23999999
0.057946648 0.038265172 -0.23999999
0.058359317 0.03869712 -0.23999999
0.059285562 0.038387023 -0.23999999
0.060544383 0.038567018 -0.23999999
0.061283469 0.038699217 -0.23961136
-0.060652293 0.039199647 -0.23974431
-0.059372779 0.039588518 -0.24000001
-0.058486111 0.039694019 -0.23999999
-0.057316214 0.039906938 -0.23999999
-0.05658564 0.039557584 -0.23999998
-0.055225812 0.039527766 -0.23999999
-0.054785706 0.039664887 -0.23999999
-0.053319823 0.039468855 -0.23999999
-0.052248053 0.039674718 -0.23999999
-0.051226616 0.039504748 -0.23999999
-0.050598167 0.039479036 -0.24000001
-0.04968638 0.039913192 -0.23999998
-0.048458226 0.039446637 -0.24000001
-0.047789048 0.039534599 -0.23999999
-0.046580061 0.039576888 -0.23999999
-0.045485616 0.039512008 -0.23999999
-0.044463739 0.039446913 -0.23999998
-0.043291368 0.039197177 -0.23999999
-0.042487953 0.039435033 -0.23999999
-0.041164622 0.039633844 -0.23999999
-0.040474534 0.039593272 -0.23999999
-0.039772905 0.039380558 -0.24000001
-0.038702767 0.039316222 -0.24000001
-0.037577786 0.0395624 -0.23999998
-0.036774509 0.039642185 -0.23999998
-0.035458505 0.039217409 -0.23999999
-0.034187477 0.03949501 -0.24000001
-0.033682577 0.039097216 -0.23999999
-0.032374304 0.039497107 -0.23999998
-0.031354982 0.039256778 -0.24000001
-0.030559039 0.039547808 -0.23999999
-0.028526254 0.039651744 -0.23999999
-0.025288193 0.039418288 -0.23999999
-0.024650253 0.03969733 -0.23999999
-0.023347009 0.039144732 -0.23999998
-0.022651773 0.039538458 -0.24000001
-0.02137458 0.039560392 -0.24000001
-0.020045444 0.039407104 -0.23999998
-0.019659856 0.039772015 -0.24000001
-0.018529415 0.039403897 -0.24000001
-0.01744239 0.039529353 -0.24000001
-0.016699549 0.03945775 -0.23999998
-0.015565249 0.039555497 -0.23999999
-0.014590297 0.039631467 -0.24000001
-0.013739395 0.039382968 -0.23999999
-0.01240585 0.039244846 -0.24000001
-0.011015186 0.039555207 -0.23999999
-0.010561816 0.039483413 -0.23999998
-0.0098618036 0.039269775 -0.23999998
-0.0086682104 0.039726205 -0.23999999
-0.0079609714 0.039240785 -0.23999998
-0.0056397822 0.039133094 -0.23999998
-0.0043944428 0.039567016 -0.23999999
-0.0013677548 0.039680008 -0.23999998
-0.00045610717 0.039626062 -0.23999999
0.00052414101 0.039370798 -0.24000001
0.0014918299 0.039508719 -0.23999999
0.0026495703 0.039525654 -0.23999999
0.0031039421 0.039400019 -0.23999999
0.0047381185 0.039294045 -0.23999999
0.0053255293 0.039567754 -0.23999999
0.0062073153 0.039382748 -0.24000001
0.0073390501 0.039530315 -0.24000001
0.0083711669 0.039227717 -0.23999999
0.010655854 0.039654255 -0.24000001
0.011549428 0.039225206 -0.23999998
0.012556134 0.039545551 -0.24000001
0.013187028 0.039605245 -0.23999998
0.014559623 0.039980162 -0.23999998
0.015933998 0.039812706 -0.23999999
0.01640562 0.039065577 -0.23999999
0.01768261 0.039602406 -0.24000001
0.018516796 0.039260752 -0.23999999
0.019678753 0.039443288 -0.24000001
0.020894583 0.039345421 -0.23999998
0.02151666 0.039549351 -0.24000001
0.022289976 0.039705873 -0.23999998
0.023712181 0.039406344 -0.23999998
0.024567759 0.039355993 -0.24000001
0.025390642 0.039155409 -0.24000001
0.02651592 0.039609097 -0.24000001
0.027945975 0.039075986 -0.23999998
0.028590001 0.039656222 -0.23999999
0.029087981 0.039326411 -0.23999998
0.030379549 0.03964673 -0.24000001
0.031420529 0.039535906 -0.24000001
0.032801643 0.039804358 -0.23999999
0.033317935 0.039723754 -0.24000001
0.034337655 0.039595567 -0.23999998
0.035401281 0.03939873 -0.24000001
0.03613238 0.039628081 -0.23999999
0.03772442 0.039491616 -0.23999999
0.03883497 0.039535463 -0.23999999
0.039646398 0.039399371 -0.24000001
0.040495504 0.039480004 -0.24000001
0.043474644 0.039317518 -0.23999998
0.044357888 0.039478481 -0.23999999
0.045594089 0.039377142 -0.23999999
0.046212915 0.039499767 -0.23999999
0.047132112 0.03914883 -0.23999999
0.048917942 0.03977238 -0.23999999
0.050487399 0.039549112 -0.24000001
0.051028423 0.03907204 -0.23999999
0.052303374 0.039810829 -0.23999999
0.053213105 0.039073929 -0.23999999
0.055479977 0.039476193 -0.23999999
0.056639876 0.039842162 -0.23999999
0.057921439 0.039426912 -0.23999999
0.058578156 0.039472409 -0.23999999
0.059564721 0.039785102 -0.23999999
0.060646717 0.039344668 -0.23977205
-0.05970002 0.040638663 -0.23985855
-0.058504462 0.040892627 -0.23999999
-0.057374436 0.040450484 -0.23999999
-0.056003287 0.0402686 -0.24000001
-0.055647153 0.040525239 -0.23999999
-0.054181166 0.040884309 -0.23999999
-0.053643517 0.04045283 -0.24000001
-0.052786864 0.040344618 -0.23999998
-0.050543092 0.040763564 -0.23999999
-0.049274519 0.040534232 -0.23999998
-0.048418015 0.040588763 -0.24000001
-0.047050558 0.040348049 -0.23999999
-0.046658263 0.040600762 -0.24000001
-0.045400523 0.040794719 -0.23999999
-0.044273734 0.040656097 -0.23999998
-0.04315811 0.040590167 -0.23999999
-0.042751469 0.040377986 -0.23999999
-0.041596599 0.040682413 -0.24000001
-0.0405185 0.040183149 -0.23999998
-0.039543994 0.040526655 -0.24000001
-0.038350858 0.040674958 -0.24000001
-0.037668817 0.040534202 -0.23999999
-0.036490113 0.040442787 -0.24000001
-0.035645258 0.040293541 -0.23999999
-0.03336221 0.040668454 -0.23999999
-0.03277256 0.040544972 -0.23999998
-0.031766824 0.040513162 -0.23999999
-0.030417314 0.040477343 -0.24000001
-0.02974101 0.040766906 -0.24000001
-0.028699543 0.04040134 -0.24000001
-0.027339442 0.04004091 -0.23999999
-0.026518768 0.040534716 -0.24000001
-0.025416609 0.040193733 -0.24000001
-0.024729759 0.040668566 -0.23999999
-0.023817243 0.040121578 -0.23999998
-0.022403521 0.040447377 -0.24000001
-0.021332918 0.040244117 -0.23999998
-0.02068254 0.040433381 -0.24000001
-0.019738313 0.040565841 -0.23999998
-0.018677138 0.040398724 -0.23999998
-0.017687773 0.040296152 -0.24000001
-0.016244691 0.040355243 -0.24000001
-0.015369512 0.040506959 -0.23999998
-0.014819508 0.040397335 -0.24000001
-0.013431297 0.040608838 -0.24000001
-0.012189371 0.040845022 -0.23999998
-0.011687608 0.040695366 -0.23999999
-0.01045854 0.040139936 -0.24000001
-0.0096998271 0.040593974 -0.23999999
-0.0083410963 0.040517949 -0.23999999
-0.0071324259 0.040430881 -0.23999998
-0.0066521736 0.040362008 -0.23999999
-0.005493097 0.040851228 -0.23999999
-0.004356469 0.040375359 -0.23999999
-0.0034640869 0.040971372 -0.23999998
-0.0023497101 0.040640626 -0.23999998
-0.0018916205 0.040452473 -0.23999998
-0.00083442032 0.040057138 -0.24000001
0.00024618767 0.040554166 -0.24000001
0.0013681911 0.040748283 -0.23999999
0.0026216886 0.0406036 -0.24000001
0.0044017676 0.040433545 -0.24000001
0.0056556184 0.040873166 -0.24000001
0.0066075497 0.040422261 -0.24000001
0.0074361125 0.040576272 -0.23999999
0.0084116235 0.040412575 -0.24000001
0.0093169715 0.040631868 -0.23999999
0.010640233 0.04065197 -0.23999999
0.011934198 0.040402986 -0.23999999
0.012405565 0.040491905 -0.23999999
0.013283625 0.040831529 -0.24000001
0.014582627 0.040569201 -0.23999999
0.015685363 0.040648099 -0.24000001
0.016346669 0.040578157 -0.24000001
0.017233135 0.04037429 -0.23999998
0.019346548 0.04052614 -0.23999999
0.020597914 0.040469587 -0.24000001
0.02129559 0.040517714 -0.23999999
0.022227233 0.040759854 -0.23999999
0.02354731 0.040668048 -0.24000001
0.024511619 0.040567912 -0.24000001
0.025488956 0.040531695 -0.23999999
0.026497658 0.040341079 -0.23999998
0.027219201 0.040966384 -0.24000001
0.028652988 0.040430553 -0.23999999
0.030637864 0.040546928 -0.23999999
0.03230517 0.040208835 -0.23999999
0.033126749 0.040596966 -0.23999998
0.034671135 0.040664118 -0.24000001
0.036141016 0.040276904 -0.24000001
0.0377203 0.040588316 -0.23999999
0.038476743 0.04059241 -0.24000001
0.040146902 0.040511463 -0.24000001
0.04165528 0.040511943 -0.23999999
0.042524707 0.040698055 -0.24000001
0.043114401 0.040608976 -0.24000001
0.044322107 0.04057198 -0.23999999
0.045655087 0.040554155 -0.23999999
0.046611339 0.040533587 -0.24000001
0.047787935 0.040943045 -0.23999999
0.04879231 0.04025577 -0.23999999
0.049908884 0.040465191 -0.23999999
0.050394494 0.040382512 -0.23999998
0.051319338 0.040642761 -0.24000001
0.052610174 0.040850144 -0.24000001
0.05353399 0.040493675 -0.23999999
0.054265343 0.040444136 -0.24000001
0.055296518 0.040432688 -0.23999999
0.056263216 0.040617123 -0.24000001
0.057017397 0.040128358 -0.23999999
0.058461145 0.040919345 -0.23999999
0.059686255 0.040593021 -0.23996373
-0.059919123 0.041355949 -0.23936521
-0.058622316 0.041346304 -0.23999999
-0.057616837 0.041467983 -0.23999999
-0.056686603 0.041887932 -0.24000001
-0.055312235 0.041382559 -0.24000001
-0.05431721 0.041995157 -0.23999998
-0.053138472 0.041581728 -0.23999999
-0.050103195 0.041887872 -0.24000001
-0.049203884 0.041112565 -0.24000001
-0.048635483 0.041459695 -0.24000001
-0.047358625 0.041557778 -0.24000001
-0.046755422 0.041211016 -0.24000001
-0.044686537 0.041550584 -0.23999998
-0.043583363 0.041513514 -0.24000001
-0.04257784 0.041548677 -0.23999999
-0.041422844 0.041247662 -0.23999998
-0.040898614 0.041468687 -0.23999999
-0.039494097 0.041441228 -0.23999999
-0.038423903 0.041639205 -0.23999999
-0.037453793 0.041749418 -0.23999998
-0.036610439 0.041389059 -0.24000001
-0.035606068 0.041568641 -0.24000001
-0.034529638 0.041602761 -0.23999999
-0.033574589 0.041316524 -0.23999999
-0.032485124 0.041656923 -0.24000001
-0.031606473 0.041434508 -0.23999999
-0.029404622 0.041322511 -0.23999998
-0.028791346 0.041624911 -0.24000001
-0.027905241 0.041202579 -0.24000001
-0.026827309 0.041626088 -0.23999998
-0.025388015 0.041326847 -0.23999999
-0.024210095 0.041532028 -0.23999999
-0.023572093 0.041630432 -0.24000001
-0.022839401 0.041247524 -0.23999998
-0.021775108 0.041480824 -0.23999999
-0.020044804 0.041228838 -0.24000001
-0.018814666 0.041716706 -0.23999999
-0.017592371 0.041886061 -0.23999998
-0.016121242 0.0415719 -0.24000001
-0.015586989 0.041695084 -0.23999999
-0.014536305 0.041530564 -0.24000001
-0.013329091 0.04132868 -0.23999999
-0.012675991 0.04165791 -0.23999999
-0.01193297 0.041495316 -0.24000001
-0.009398859 0.041419283 -0.23999998
-0.0085467286 0.041391846 -0.23999999
-0.0077729756 0.041257992 -0.23999998
-0.00638681 0.041290622 -0.23999999
-0.0052622599 0.041450094 -0.23999998
-0.0041916315 0.041572824 -0.24000001
-0.0031092847 0.041246109 -0.23999999
-0.0024232036 0.041668523 -0.23999998
-0.0014582271 0.041756459 -0.23999999
-0.00047025894 0.041603234 -0.24000001
0.00050366111 0.041498024 -0.24000001
0.0016347456 0.041392278 -0.24000001
0.0026833888 0.041493244 -0.23999999
0.0034243413 0.041409373 -0.23999999
0.0056929514 0.041344326 -0.23999999
0.0068801246 0.041758329 -0.23999999
0.0083231758 0.041628636 -0.24000001
0.0095214946 0.041590545 -0.24000001
0.010519067 0.041541725 -0.23999998
0.011505464 0.041512251 -0.24000001
0.012485541 0.041462265 -0.24000001
0.01441931 0.041324243 -0.23999998
0.015608203 0.0412912 -0.23999999
0.016803375 0.041455626 -0.23999999
0.017912783 0.041534673 -0.23999999
0.018486137 0.041427094 -0.23999998
0.019319966 0.041435577 -0.23999998
0.021196652 0.041358419 -0.23999999
0.022778146 0.041346356 -0.23999999
0.02367132 0.0412312 -0.23999999
0.024441972 0.041259244 -0.23999999
0.025718484 0.041448839 -0.23999999
0.026383139 0.041715421 -0.23999999
0.028826367 0.041849963 -0.23999999
0.029565152 0.041567326 -0.23999999
0.030477513 0.04113299 -0.23999998
0.031578891 0.041366946 -0.23999998
0.032400742 0.041503668 -0.24000001
0.033265114 0.041510917 -0.23999999
0.034602895 0.041093796 -0.23999999
0.035200745 0.041534923 -0.23999999
0.037533447 0.041382346 -0.23999998
0.038350955 0.041544892 -0.23999999
0.039497714 0.041471839 -0.23999999
0.040500365 0.04141232 -0.23999999
0.041564934 0.04161882 -0.23999999
0.042188969 0.04163225 -0.24000001
0.043729313 0.041336209 -0.23999999
0.04556657 0.041567214 -0.23999998
0.046718635 0.041550506 -0.23999999
0.047187719 0.041057613 -0.23999999
0.048806332 0.041331135 -0.23999999
0.049639747 0.041405782 -0.23999999
0.050838906 0.041227389 -0.23999999
0.051447235 0.041219246 -0.24000001
0.052534841 0.041683275 -0.24000001
0.053319559 0.041576914 -0.24000001
0.054482713 0.041611899 -0.23999999
0.055488624 0.04150442 -0.24000001
0.056302331 0.041610226 -0.23999999
0.057506539 0.041566771 -0.23999999
0.058413438 0.041559048 -0.23999999
0.059579179 0.041571047 -0.23999998
-0.060000002 0.042637058 -0.23952031
-0.058540411 0.042491376 -0.23999999
-0.057688713 0.04214067 -0.23999999
-0.056152422 0.042588718 -0.23999998
-0.055610508 0.042608537 -0.23999998
-0.054852441 0.04247953 -0.24000001
-0.053415447 0.042482194 -0.23999999
-0.052875627 0.042658862 -0.23999998
-0.05156523 0.042740852 -0.23999999
-0.050477829 0.042384245 -0.23999999
-0.048576251 0.042737618 -0.23999999
-0.047547501 0.042337473 -0.24000001
-0.046475738 0.042551465 -0.23999999
-0.045648668 0.042095639 -0.23999998
-0.044905096 0.042777959 -0.23999998
-0.043946248 0.042175412 -0.24000001
-0.042705905 0.042125605 -0.24000001
-0.041416477 0.042507075 -0.23999998
-0.040633455 0.042359099 -0.24000001
-0.039388139 0.042531658 -0.23999999
-0.038338058 0.042480994 -0.23999999
-0.037397742 0.04263711 -0.23999999
-0.035444751 0.042551469 -0.24000001
-0.034542024 0.042795464 -0.24000001
-0.033670444 0.042462554 -0.23999998
-0.032318767 0.042571642 -0.24000001
-0.031518601 0.042627022 -0.23999999
-0.03013956 0.042878151 -0.23999998
-0.029411308 0.04267513 -0.24000001
-0.028587226 0.042497888 -0.24000001
-0.027706657 0.042565458 -0.24000001
-0.026866689 0.042452384 -0.24000001
-0.025298882 0.042598449 -0.23999998
-0.024338137 0.042532675 -0.24000001
-0.02374021 0.042665385 -0.24000001
-0.021502286 0.042672791 -0.24000001
-0.020518299 0.04251032 -0.23999998
-0.019605875 0.042459711 -0.23999998
-0.018683799 0.042659141 -0.24000001
-0.017628003 0.042679146 -0.23999998
-0.016529201 0.0426923 -0.24000001
-0.014181114 0.042183433 -0.23999999
-0.013293751 0.042445309 -0.23999999
-0.012274177 0.042189166 -0.23999999
-0.011320718 0.042740673 -0.23999999
-0.010850633 0.042431492 -0.23999998
-0.0097308969 0.042518191 -0.24000001
-0.0084567042 0.042435642 -0.24000001
-0.00781288 0.042325221 -0.24000001
-0.0064049209 0.042446312 -0.23999999
-0.0034719734 0.042774148 -0.23999999
-0.0025640992 0.042199247 -0.24000001
-0.00029118126 0.042610288 -0.23999999
0.00019934028 0.042465173 -0.23999999
0.0012939372 0.042564563 -0.23999999
0.0027494631 0.04238629 -0.23999999
0.0037853834 0.042173408 -0.24000001
0.0046441085 0.042426251 -0.24000001
0.0058199493 0.042952314 -0.23999998
0.0063924463 0.042553633 -0.24000001
0.007568555 0.042277377 -0.23999998
0.0084260162 0.042412527 -0.23999999
0.0094871549 0.042152129 -0.24000001
0.010531689 0.042637512 -0.23999998
0.011413485 0.042768255 -0.23999999
0.012763386 0.042585254 -0.23999999
0.013974588 0.042999495 -0.23999999
0.014468667 0.042423975 -0.23999998
0.016964411 0.042079218 -0.23999998
0.017157301 0.042360522 -0.24000001
0.018202007 0.042403638 -0.23999999
0.019162217 0.042669393 -0.23999999
0.020278772 0.042488154 -0.24000001
0.021288123 0.042328194 -0.23999999
0.022600591 0.042798027 -0.24000001
0.023689743 0.042423304 -0.24000001
0.025497176 0.042560086 -0.23999998
0.026086207 0.04273098 -0.23999999
0.027364016 0.042704705 -0.24000001
0.028583771 0.042375978 -0.24000001
0.029021684 0.042054858 -0.23999999
0.030635923 0.042744525 -0.23999999
0.031287394 0.042472832 -0.23999999
0.032336883 0.042267516 -0.23999999
0.035570323 0.042437911 -0.24000001
0.037384957 0.042345215 -0.24000001
0.039817419 0.042118654 -0.23999999
0.040585436 0.042337265 -0.24000001
0.041211158 0.042503074 -0.24000001
0.042491637 0.04251213 -0.23999999
0.043271616 0.042337138 -0.24000001
0.04446255 0.042694133 -0.24000001
0.045200646 0.042161167 -0.24000001
0.046896201 0.042725932 -0.23999998
0.047317658 0.042535402 -0.24000001
0.048662513 0.042411949 -0.24000001
0.049627893 0.042487945 -0.23999999
0.050015181 0.042736948 -0.24000001
0.051963247 0.042523127 -0.23999998
0.052394073 0.042559475 -0.23999998
0.053469561 0.042371005 -0.23999999
0.054689363 0.042480044 -0.23999999
0.055227663 0.042702589 -0.24000001
0.05630701 0.042538121 -0.23999999
0.057633899 0.042457107 -0.23999998
0.058075853 0.042376149 -0.23999998
0.059763055 0.04238347 -0.2395864
-0.059613552 0.043329697 -0.23972869
-0.058639333 0.043315936 -0.23999999
-0.057035565 0.043967269 -0.24000001
-0.056404889 0.043172933 -0.23999998
-0.055491447 0.043654125 -0.24000001
-0.054507501 0.043432012 -0.23999999
-0.053510137 0.043645203 -0.24000001
-0.052431386 0.043655805 -0.24000001
-0.051532444 0.043580536 -0.24000001
-0.05037776 0.043474641 -0.23999999
-0.049722284 0.043735594 -0.23999998
-0.048464604 0.043630734 -0.24000001
-0.047949724 0.043609433 -0.24000001
-0.046126366 0.043457072 -0.23999998
-0.045603164 0.043785166 -0.23999999
-0.044756841 0.043559961 -0.24000001
-0.043352172 0.04356797 -0.23999998
-0.042277988 0.043836474 -0.24000001
-0.041288752 0.043467712 -0.24000001
-0.040528886 0.043364257 -0.23999999
-0.039727148 0.043532785 -0.23999998
-0.038518637 0.043818928 -0.24000001
-0.037363924 0.043504372 -0.24000001
-0.03620512 0.043355666 -0.23999999
-0.035584521 0.043693524 -0.23999999
-0.03353722 0.043423697 -0.23999999
-0.032161176 0.043862008 -0.23999998
-0.031690236 0.043707997 -0.24000001
-0.030577183 0.04394035 -0.24000001
-0.029307589 0.043172747 -0.23999999
-0.027618852 0.043502759 -0.24000001
-0.026400503 0.043528926 -0.24000001
-0.025346294 0.043290805 -0.24000001
-0.024589237 0.04352773 -0.24000001
-0.023470761 0.043585148 -0.23999999
-0.022466918 0.043559082 -0.24000001
-0.021288831 0.043411948 -0.23999999
-0.020441137 0.043497831 -0.24000001
-0.019569855 0.043377191 -0.24000001
-0.018238772 0.043778677 -0.23999999
-0.017514911 0.043528825 -0.23999998
-0.016597195 0.043453682 -0.23999999
-0.015573117 0.043457538 -0.24000001
-0.014530182 0.04346019 -0.23999999
-0.013470273 0.043572515 -0.24000001
-0.012341894 0.04389777 -0.23999999
-0.011566147 0.043711938 -0.23999998
-0.010404881 0.043789975 -0.23999998
-0.0093963891 0.043652914 -0.24000001
-0.0085431775 0.043499492 -0.24000001
-0.0076344274 0.043603122 -0.23999999
-0.0063657872 0.043547489 -0.24000001
-0.0057603642 0.043604385 -0.23999999
-0.0046400446 0.043659754 -0.23999999
-0.0034607202 0.043600857 -0.23999998
-0.0022641046 0.043753706 -0.23999998
-0.0019392865 0.043820217 -0.23999998
-0.00029986104 0.043640003 -0.24000001
0.00069204159 0.043697324 -0.24000001
0.0019721827 0.043517359 -0.23999999
0.0021533109 0.043057404 -0.23999998
0.003560992 0.043775357 -0.24000001
0.004265483 0.043746199 -0.24000001
0.0058635655 0.043737866 -0.24000001
0.0067352294 0.043270674 -0.23999999
0.0076760179 0.043900087 -0.23999999
0.0084757544 0.043602835 -0.23999999
0.009063134 0.043678023 -0.23999999
0.010591078 0.043285474 -0.23999999
0.01148334 0.043567076 -0.23999998
0.012454528 0.043562286 -0.24000001
0.013280368 0.043354407 -0.24000001
0.014466929 0.043308951 -0.23999998
0.015716447 0.043448828 -0.23999999
0.016796915 0.043600563 -0.23999998
0.017481182 0.043487784 -0.23999999
0.018482864 0.043619018 -0.23999999
0.019504502 0.043102339 -0.23999998
0.020294661 0.043644156 -0.24000001
0.021633765 0.043655843 -0.23999999
0.022694282 0.043402757 -0.23999998
0.023572264 0.043406215 -0.24000001
0.024690595 0.043666765 -0.24000001
0.025510771 0.043365654 -0.23999999
0.027288087 0.043581124 -0.24000001
0.02869579 0.043767534 -0.23999999
0.029603265 0.043783464 -0.23999998
0.030199084 0.043051243 -0.23999998
0.031091474 0.043468829 -0.23999998
0.032760516 0.043647062 -0.23999999
0.033347052 0.043030605 -0.23999999
0.034759499 0.043168955 -0.24000001
0.035486113 0.043331943 -0.23999999
0.036290076 0.043306705 -0.23999999
0.037341934 0.043500584 -0.24000001
0.038405091 0.043706521 -0.23999999
0.039492421 0.043678865 -0.23999999
0.040692464 0.043192953 -0.23999999
0.041406702 0.043790072 -0.23999998
0.042373836 0.043591406 -0.23999999
0.043520492 0.043090608 -0.23999999
0.044544656 0.043273635 -0.23999999
0.045516863 0.043480121 -0.24000001
0.046272453 0.043498531 -0.23999999
0.047231771 0.043593209 -0.24000001
0.048308611 0.043425638 -0.23999999
0.049382813 0.0437508 -0.24000001
0.050925933 0.043101363 -0.23999999
0.051648013 0.043688174 -0.24000001
0.052121162 0.043450251 -0.24000001
0.053584982 0.043786332 -0.23999998
0.054288059 0.043994378 -0.23999999
0.055651374 0.043568179 -0.24000001
0.056199074 0.043801934 -0.23999998
0.05762757 0.04360133 -0.23999999
0.058440972 0.04344767 -0.23999998
0.059817545 0.043550003 -0.23988356
0.060000002 0.043116856 -0.23978856
-0.059808597 0.044381041 -0.23962134
-0.058844313 0.044346105 -0.23999998
-0.057444021 0.044193469 -0.23999998
-0.056528836 0.044331007 -0.24000001
-0.055547073 0.044171818 -0.24000001
-0.054639488 0.044008598 -0.24000001
-0.053563103 0.044492684 -0.23999999
-0.051436454 0.044354822 -0.24000001
-0.050205763 0.044130102 -0.24000001
-0.049465999 0.044567131 -0.23999999
-0.048998334 0.044609226 -0.23999999
-0.047543496 0.044358339 -0.23999999
-0.046363529 0.044557922 -0.24000001
-0.04547935 0.044726763 -0.24000001
-0.044963796 0.044252887 -0.23999998
-0.043871582 0.044776764 -0.24000001
-0.042546749 0.044536006 -0.24000001
-0.041950673 0.044534415 -0.23999999
-0.040435612 0.044143066 -0.23999999
-0.039598927 0.044540733 -0.23999999
-0.038452692 0.044639368 -0.24000001
-0.03680044 0.044620603 -0.23999998
-0.035491332 0.044575058 -0.24000001
-0.034392964 0.044552024 -0.24000001
-0.033318322 0.044319585 -0.23999998
-0.032384634 0.044821303 -0.23999999
-0.031444009 0.044514399 -0.24000001
-0.029301185 0.044530913 -0.24000001
-0.028608929 0.044530235 -0.24000001
-0.027380582 0.044595405 -0.24000001
-0.026460789 0.044510461 -0.23999998
-0.025993949 0.044471886 -0.24000001
-0.024753049 0.044569366 -0.24000001
-0.023869703 0.044625569 -0.23999998
-0.022760855 0.044186167 -0.24000001
-0.020830773 0.044468455 -0.23999998
-0.019389711 0.044570282 -0.23999999
-0.018467899 0.044670925 -0.24000001
-0.017627412 0.044579208 -0.24000001
-0.016509965 0.044319578 -0.23999999
-0.015315093 0.044351988 -0.23999999
-0.014289135 0.044454373 -0.24000001
-0.012352063 0.044507071 -0.24000001
-0.011430377 0.044111904 -0.23999999
-0.010447836 0.04431228 -0.23999999
-0.0091926381 0.044033699 -0.23999998
-0.0085316338 0.044603284 -0.23999999
-0.0075716074 0.044529986 -0.23999998
-0.0064428425 0.044510093 -0.23999999
-0.0053997501 0.044707187 -0.23999998
-0.0043033925 0.044433489 -0.23999998
-0.0032687921 0.044504445 -0.23999999
-0.0014227155 0.044665698 -0.23999998
-0.00039781653 0.044710964 -0.23999999
0.00073705747 0.044967301 -0.23999998
0.0015053218 0.044214323 -0.24000001
0.0024308334 0.044289123 -0.24000001
0.0033482835 0.044773217 -0.23999999
0.0054990822 0.044084918 -0.23999999
0.0063149775 0.044072282 -0.23999999
0.0075013228 0.044542458 -0.23999999
0.0087344591 0.044127893 -0.23999998
0.0095945466 0.044734329 -0.24000001
0.010931326 0.044227079 -0.24000001
0.011353534 0.04447607 -0.24000001
0.012361631 0.044378258 -0.23999999
0.013409823 0.044684015 -0.23999999
0.014426669 0.044647969 -0.23999999
0.015597939 0.044443354 -0.24000001
0.016165912 0.044554196 -0.23999998
0.017373407 0.044485521 -0.24000001
0.018860703 0.044710938 -0.23999998
0.019655529 0.04472886 -0.23999999
0.020497095 0.044049289 -0.23999999
0.021721099 0.044150412 -0.23999998
0.022314882 0.04418594 -0.23999998
0.023320483 0.044551969 -0.24000001
0.024091411 0.044894494 -0.23999998
0.026525762 0.04463695 -0.24000001
0.027293148 0.044788502 -0.23999999
0.02856642 0.0446399 -0.23999999
0.03026076 0.04421778 -0.23999998
0.031633735 0.044465724 -0.23999999
0.033474743 0.044519346 -0.24000001
0.034559868 0.044485278 -0.23999999
0.035429977 0.044618748 -0.24000001
0.036576383 0.044179462 -0.24000001
0.037612356 0.044554722 -0.23999999
0.039424598 0.044459455 -0.24000001
0.040681966 0.044575751 -0.23999999
0.041512579 0.044420358 -0.24000001
0.042651772 0.044673529 -0.23999999
0.043503068 0.044382215 -0.24000001
0.044726245 0.04462729 -0.23999998
0.045637608 0.044403959 -0.23999998
0.047559254 0.044360738 -0.24000001
0.048781257 0.044799432 -0.23999999
0.049441092 0.044697441 -0.24000001
0.050488345 0.044401459 -0.24000001
0.051578492 0.044341728 -0.24000001
0.052345246 0.044570766 -0.24000001
0.053826749 0.044484302 -0.24000001
0.054298401 0.044527985 -0.24000001
0.055413038 0.044333667 -0.23999998
0.056517642 0.04462216 -0.24000001
0.057783727 0.044659663 -0.23999999
0.058905169 0.044484876 -0.24000001
0.059555005 0.044501491 -0.23977411
0.060000002 0.044388838 -0.23955831
-0.059866637 0.045344576 -0.23967162
-0.058633864 0.045480333 -0.24000001
-0.057767592 0.045846369 -0.23999999
-0.056533977 0.04557934 -0.23999999
-0.055297192 0.045275681 -0.24000001
-0.054442137 0.045455068 -0.23999999
-0.053350501 0.045482017 -0.24000001
-0.052395247 0.04552592 -0.24000001
-0.05154179 0.045442678 -0.23999998
-0.050458916 0.045788132 -0.23999999
-0.049525224 0.045601796 -0.24000001
-0.048213661 0.045556676 -0.23999998
-0.047083452 0.045970108 -0.23999999
-0.046288446 0.045453832 -0.24000001
-0.045507614 0.045457914 -0.24000001
-0.044568434 0.045544781 -0.24000001
-0.043658704 0.045587383 -0.23999999
-0.042543046 0.045357645 -0.23999999
-0.040509071 0.045615818 -0.23999998
