# .PCD v0.7 - Point Cloud Data file format
VERSION 0.7
FIELDS x y z
SIZE 4 4 4
TYPE F F F
COUNT 1 1 1
WIDTH 1323
HEIGHT 1
VIEWPOINT 0 0 0 1 0 0 0
POINTS 1323
DATA ascii
0.077557273 0.0001829192 -0.230197
0.078408673 0.00054943271 -0.230197
0.079590991 0.00078835594 -0.2305185
-0.079666696 0.0013819746 -0.23041284
-0.078404799 0.0013615934 -0.230197
-0.077799141 0.0014943777 -0.230197
-0.076483801 0.0014446783 -0.23019698
-0.075352304 0.0011584269 -0.230197
-0.074600182 0.0017766536 -0.230197
-0.073593251 0.001449424 -0.230197
-0.072236657 0.0014929241 -0.23019698
-0.071619496 0.0015238241 -0.23019698
-0.070854016 0.0015455759 -0.23019698
-0.069568336 0.0012745694 -0.23019698
-0.068646505 0.0010815621 -0.23019701
-0.067511484 0.0015522516 -0.23019698
-0.066719234 0.0012473818 -0.23019698
-0.065425873 0.0017241701 -0.230197
-0.06421534 0.0016057726 -0.23019701
-0.063568451 0.0015612169 -0.23019701
-0.062394224 0.0017203719 -0.230197
-0.061789211 0.0013796099 -0.230197
-0.060433891 0.0012261367 -0.23019701
-0.059581734 0.0013026018 -0.23019701
-0.058949549 0.0015502865 -0.230197
-0.057643063 0.0017009065 -0.23019701
-0.056532763 0.0013486622 -0.23019701
-0.055444844 0.0010959869 -0.230197
-0.054725401 0.0014661102 -0.23019701
-0.053151749 0.0017665392 -0.23019701
-0.052351914 0.0014884872 -0.230197
-0.051393215 0.0012112801 -0.23019701
-0.050021358 0.0017123334 -0.23019698
-0.049666628 0.0015582767 -0.230197
-0.048409246 0.0013088835 -0.230197
-0.047444314 0.0015809729 -0.230197
-0.046355769 0.0014856372 -0.230197
-0.045707449 0.0011265372 -0.230197
-0.044605989 0.0012977101 -0.230197
-0.043681365 0.0011652713 -0.230197
-0.042353168 0.0016348904 -0.23019698
-0.041913331 0.0017395287 -0.23019698
-0.04049455 0.0014895254 -0.230197
-0.039163813 0.0012824618 -0.23019701
-0.038148589 0.0013082132 -0.23019701
-0.037311532 0.0010347595 -0.230197
-0.036474355 0.0012886161 -0.23019701
-0.035050962 0.0015294537 -0.230197
-0.034694668 0.0016340588 -0.230197
-0.033682887 0.0017349652 -0.23019701
-0.032574922 0.0018968051 -0.23019701
-0.031794511 0.0015031898 -0.23019701
-0.030840807 0.0012145682 -0.230197
-0.029481625 0.0015570743 -0.230197
-0.028342649 0.0012663531 -0.23019698
-0.027246889 0.0012815788 -0.23019701
-0.026239734 0.0014061274 -0.23019698
-0.025020441 0.001134648 -0.230197
-0.02480682 0.0014255783 -0.230197
-0.023579113 0.0014071865 -0.230197
-0.022297885 0.0012459271 -0.230197
-0.021393327 0.0014560845 -0.230197
-0.020043049 0.0019350592 -0.230197
-0.019435767 0.0013102227 -0.230197
-0.018728068 0.0014818092 -0.230197
-0.017436389 0.0013588875 -0.23019701
-0.016381176 0.001768026 -0.230197
-0.015126773 0.0014140555 -0.230197
-0.014322322 0.0013409157 -0.23019698
-0.013393938 0.0014944635 -0.230197
-0.012341628 0.0016646043 -0.23019698
-0.011267155 0.001440966 -0.23019698
-0.010712969 0.001299587 -0.23019698
-0.0099999998 0.0018432825 -0.23007435
0.011457547 0.001231455 -0.230197
0.012250277 0.0010506012 -0.230197
0.013543028 0.0011719784 -0.23019701
0.014238707 0.0013376987 -0.230197
0.015056146 0.0014366345 -0.23019701
0.016355503 0.0013494557 -0.230197
0.017439978 0.0013318699 -0.230197
0.018479727 0.0015255937 -0.23019701
0.019174846 0.0015133594 -0.230197
0.020667849 0.0012149482 -0.23019701
0.021428766 0.001803746 -0.230197
0.022545582 0.0011640397 -0.230197
0.023807734 0.0014903666 -0.23019698
0.024260337 0.0013813854 -0.230197
0.025528304 0.0012125778 -0.230197
0.026599342 0.0012668718 -0.230197
0.027693829 0.0011679603 -0.230197
0.028527414 0.0015172049 -0.230197
0.029617731 0.0017216764 -0.230197
0.030390274 0.0016022605 -0.230197
0.031021412 0.0019997968 -0.230197
0.032551568 0.0018606139 -0.23019698
0.03315207 0.0010765522 -0.230197
0.034613084 0.0016188265 -0.23019701
0.035646241 0.0015436864 -0.23019701
0.037514653 0.0015478295 -0.230197
0.038477246 0.001325199 -0.230197
0.039497115 0.0012878071 -0.230197
0.040419504 0.0018025545 -0.23019698
0.041944049 0.0011551217 -0.23019698
0.042721301 0.0016325498 -0.230197
0.043616436 0.0013591112 -0.230197
0.044389434 0.001564984 -0.23019701
0.045863505 0.0016059659 -0.23019701
0.046323508 0.0012327868 -0.23019698
0.04753691 0.0017040041 -0.230197
0.048477452 0.0015925616 -0.230197
0.049426384 0.0015462091 -0.23019698
0.051537365 0.0018025087 -0.23019698
0.052549154 0.0015282554 -0.23019701
0.054231793 0.0016328309 -0.23019698
0.055711456 0.0013411595 -0.230197
0.056633569 0.0014595056 -0.23019701
0.057110444 0.0018394212 -0.230197
0.05846126 0.0018970112 -0.23019701
0.059460606 0.001474633 -0.230197
0.060457166 0.0016266525 -0.230197
0.061366908 0.0016296869 -0.230197
0.062060297 0.001504807 -0.23019698
0.063337415 0.0016854031 -0.23019698
0.064488493 0.0013975437 -0.23019698
0.065682724 0.0011811564 -0.230197
0.066236913 0.0017193694 -0.230197
0.067292631 0.001398579 -0.230197
0.068804517 0.0014722506 -0.23019698
0.069351487 0.0015397945 -0.230197
0.070304632 0.0014044963 -0.230197
0.0714105 0.0014172423 -0.230197
0.072022185 0.0010199319 -0.23019701
0.073534802 0.0012975631 -0.23019701
0.074744619 0.0014737402 -0.23019698
0.075410411 0.0015402748 -0.230197
0.076163612 0.0019247751 -0.230197
0.077573955 0.0013059264 -0.230197
0.078280725 0.0014498592 -0.230197
0.079790398 0.0016187483 -0.2303894
-0.079949886 0.0025757612 -0.23038565
-0.078439578 0.0026631057 -0.230197
-0.077103972 0.0024669461 -0.230197
-0.076558672 0.0023800319 -0.23019698
-0.075416863 0.0025988733 -0.23019701
-0.074488819 0.0023399151 -0.230197
-0.072581068 0.0025481437 -0.230197
-0.071438044 0.0025367462 -0.230197
-0.069498822 0.0025739374 -0.23019698
-0.068117343 0.0021921885 -0.23019701
-0.067213058 0.0025259196 -0.23019701
-0.06627351 0.0023441461 -0.23019701
-0.064156786 0.0028767101 -0.23019698
-0.062428553 0.0025558223 -0.230197
-0.061551116 0.0028252422 -0.230197
-0.060482703 0.0024766542 -0.23019701
-0.05937171 0.0025233792 -0.23019698
-0.058702707 0.0027122186 -0.230197
-0.057555996 0.0025169782 -0.230197
-0.056359224 0.0025883031 -0.230197
-0.055766389 0.00276392 -0.23019698
-0.054386429 0.0026408304 -0.23019698
-0.053140339 0.002134419 -0.230197
-0.052747026 0.00287497 -0.23019698
-0.051394477 0.0025733043 -0.230197
-0.050409645 0.0026040822 -0.23019701
-0.049801618 0.0023572682 -0.23019698
-0.048323702 0.0021639706 -0.230197
-0.047280617 0.0027147986 -0.230197
-0.046444446 0.0021610688 -0.230197
-0.045534652 0.0023269332 -0.230197
-0.044358641 0.0025890942 -0.230197
-0.042401604 0.0024123522 -0.23019701
-0.041201711 0.0021043315 -0.23019701
-0.040057775 0.0026109717 -0.23019701
-0.03925062 0.0028522494 -0.230197
-0.038416483 0.0024547582 -0.23019701
-0.036656387 0.0021258837 -0.230197
-0.035503112 0.0026184632 -0.230197
-0.034305185 0.0024403022 -0.23019701
-0.03386331 0.0023607407 -0.23019698
-0.032425173 0.002303137 -0.230197
-0.031594686 0.0021580025 -0.230197
-0.030730091 0.0024636218 -0.230197
-0.028762128 0.0027343426 -0.23019698
-0.027448859 0.0024026372 -0.230197
-0.026616571 0.002687884 -0.230197
-0.025392435 0.0024394616 -0.230197
-0.024544628 0.0022299034 -0.230197
-0.02310496 0.0025947411 -0.230197
-0.022243051 0.0025533042 -0.230197
-0.021642357 0.0027112714 -0.230197
-0.020684687 0.0023533385 -0.230197
-0.019762125 0.0024381615 -0.230197
-0.018221505 0.0021816827 -0.23019698
-0.017607505 0.0022662184 -0.230197
-0.016669681 0.0025361567 -0.230197
-0.015460653 0.0025716098 -0.230197
-0.014537009 0.0024311435 -0.230197
-0.013464706 0.0023395524 -0.23019698
-0.012436583 0.0022588326 -0.230197
-0.011918909 0.002728851 -0.230197
-0.010571403 0.0024798205 -0.230197
-0.0099999998 0.0028007927 -0.2301638
0.010658909 0.0026869569 -0.230197
0.011813283 0.0023794856 -0.230197
0.012088887 0.0020760461 -0.23019698
0.014669457 0.0029248628 -0.230197
0.015426719 0.0024457155 -0.230197
0.016514946 0.0025114364 -0.230197
0.018339394 0.0023781701 -0.230197
0.019432589 0.002725672 -0.23019701
0.020493675 0.002469958 -0.230197
0.021593783 0.0024618912 -0.230197
0.022759117 0.002728051 -0.230197
0.023130823 0.002168027 -0.23019701
0.024066759 0.0020276695 -0.23019698
0.025451845 0.0024869672 -0.230197
0.0264042 0.0026396154 -0.23019698
0.027536092 0.0023243157 -0.23019701
0.028425703 0.0026399465 -0.230197
0.029102517 0.0026176816 -0.230197
0.03063157 0.002723224 -0.230197
0.031140968 0.0027146037 -0.23019701
0.032544784 0.0024475451 -0.230197
0.033788487 0.0025546981 -0.230197
0.034962203 0.0025392557 -0.23019698
0.035657786 0.0025812001 -0.23019698
0.037505157 0.0022732168 -0.230197
0.038317919 0.0024710754 -0.230197
0.039518066 0.002719834 -0.230197
0.040521055 0.0025366477 -0.23019701
0.04186229 0.0024610576 -0.230197
0.04237403 0.0027340015 -0.23019698
0.043526661 0.0024752573 -0.230197
0.044162735 0.0026276784 -0.23019698
0.04535453 0.0023579816 -0.230197
0.046632305 0.0025359816 -0.230197
0.047443509 0.0023251371 -0.230197
0.048968025 0.0024321706 -0.23019701
0.049695712 0.002404266 -0.23019698
0.050593849 0.0025793905 -0.23019698
0.051538959 0.0026624289 -0.23019698
0.052455224 0.0025576733 -0.230197
0.054507498 0.0026461347 -0.230197
0.055515464 0.0025556397 -0.230197
0.056477673 0.0025838872 -0.23019698
0.058459207 0.0025484953 -0.230197
0.059382237 0.0023315544 -0.230197
0.060554959 0.0028736424 -0.230197
0.061374929 0.0026278603 -0.230197
0.062405322 0.0024463953 -0.230197
0.063706599 0.0021823475 -0.230197
0.064273447 0.0026132138 -0.23019701
0.065598272 0.002459063 -0.230197
0.066523358 0.0023226726 -0.230197
0.06760326 0.0024658111 -0.230197
0.068413846 0.0026376275 -0.23019698
0.070520744 0.0023797653 -0.230197
0.071634747 0.0026837869 -0.23019701
0.072387069 0.0027942983 -0.230197
0.073700845 0.0025288605 -0.230197
0.074415341 0.0027017992 -0.230197
0.075456515 0.0021306297 -0.23019698
0.076774165 0.0023662169 -0.23019701
0.07737577 0.0023547895 -0.230197
0.078506798 0.0023760893 -0.230197
0.07974124 0.002461754 -0.23028947
-0.079589896 0.0035038837 -0.23042221
-0.078464985 0.0035668914 -0.230197
-0.077511922 0.0037057172 -0.23019698
-0.076202445 0.0032044381 -0.23019698
-0.075624242 0.003546387 -0.230197
-0.074554235 0.0036587021 -0.23019698
-0.073668934 0.0033027201 -0.23019701
-0.072397739 0.0032185726 -0.23019698
-0.071046397 0.0034020995 -0.230197
-0.069250792 0.0035628367 -0.230197
-0.068443924 0.0035639936 -0.23019698
-0.067560233 0.0035096027 -0.230197
-0.06537883 0.0035474636 -0.230197
-0.06486851 0.0037252596 -0.23019698
-0.063305572 0.0038011924 -0.230197
-0.062356807 0.003237362 -0.230197
-0.061637927 0.0036626561 -0.230197
-0.060414851 0.0039654882 -0.23019698
-0.059982646 0.0036232104 -0.23019698
-0.058488954 0.0038542575 -0.23019698
-0.057169534 0.0035276976 -0.23019698
-0.056461107 0.0037259571 -0.230197
-0.055230029 0.0036331019 -0.230197
-0.054270279 0.0036073923 -0.230197
-0.053372443 0.0036700231 -0.230197
-0.052515924 0.0036181873 -0.230197
-0.051041771 0.0032946635 -0.23019701
-0.050436348 0.0035936323 -0.230197
-0.049382772 0.00385814 -0.23019698
-0.048448797 0.0035519635 -0.230197
-0.047266882 0.0034736383 -0.230197
-0.046243034 0.0036152084 -0.23019698
-0.045441706 0.0035851221 -0.230197
-0.044468008 0.0034816235 -0.230197
-0.043076769 0.0035139648 -0.230197
-0.042157575 0.0036958137 -0.23019701
-0.04158964 0.0033946345 -0.230197
-0.040528581 0.003473537 -0.23019701
-0.039109334 0.0034561881 -0.23019698
-0.038522296 0.0036453027 -0.230197
-0.03758423 0.0034817359 -0.23019698
-0.036587052 0.0035294238 -0.230197
-0.035735741 0.0037124935 -0.230197
-0.034706574 0.0037784975 -0.23019698
-0.033097263 0.0031373152 -0.23019701
-0.032732014 0.0034780973 -0.23019701
-0.031485911 0.0035370092 -0.230197
-0.030265979 0.003728196 -0.230197
-0.029296651 0.003521353 -0.230197
-0.027162012 0.0030685733 -0.230197
-0.02649932 0.0035425113 -0.230197
-0.025668046 0.0035092207 -0.230197
-0.024409642 0.0034850028 -0.230197
-0.02368572 0.0034236088 -0.230197
-0.022081636 0.0034163892 -0.230197
-0.021624776 0.0034396988 -0.23019701
-0.020442002 0.0036726999 -0.23019698
-0.019593915 0.0033336438 -0.230197
-0.018188523 0.0033484106 -0.23019701
-0.017412299 0.0035139814 -0.23019698
-0.016389348 0.0037002787 -0.23019701
-0.015465239 0.0032800497 -0.230197
-0.014351651 0.0036192201 -0.230197
-0.013437933 0.0033460776 -0.230197
-0.012404401 0.0035419641 -0.230197
-0.011352113 0.0035949729 -0.230197
-0.01043104 0.0038932634 -0.23019701
-0.0099999998 0.0038988006 -0.23001018
0.010202287 0.0032375581 -0.23019698
0.011296866 0.0033820109 -0.23019701
0.012453873 0.0035557938 -0.23019698
0.013556201 0.0037599965 -0.230197
0.014424269 0.0037652422 -0.23019698
0.015824113 0.00307807 -0.230197
0.017363025 0.0035892704 -0.230197
0.018657956 0.0033451214 -0.230197
0.019553453 0.0034921011 -0.230197
0.02013988 0.003277095 -0.230197
0.021681359 0.0034696122 -0.230197
0.02358425 0.0031944204 -0.23019701
0.024314314 0.003409104 -0.230197
0.025400206 0.0034029342 -0.230197
0.026503392 0.0037765957 -0.230197
0.027534084 0.0034019426 -0.23019698
0.028377755 0.0034208614 -0.230197
0.02946648 0.0037829247 -0.230197
0.03047872 0.0032292488 -0.230197
0.031833299 0.0033086068 -0.230197
0.032592703 0.0036832611 -0.230197
0.03318442 0.0038552003 -0.23019698
0.034220118 0.00362571 -0.230197
0.035409093 0.0034282936 -0.230197
0.036895443 0.0039285319 -0.23019698
0.037293702 0.0037283849 -0.230197
0.038334727 0.0032989336 -0.230197
0.04011216 0.0031241062 -0.230197
0.041688185 0.0037858922 -0.230197
0.042432282 0.0035582725 -0.230197
0.043413304 0.0033999765 -0.23019701
0.044056561 0.0032048444 -0.23019698
0.045281932 0.003771778 -0.230197
0.046762306 0.0034959165 -0.230197
0.047637101 0.003415602 -0.230197
0.048275676 0.0033716834 -0.23019701
0.049582429 0.0035210303 -0.23019698
0.050598457 0.0032355106 -0.23019701
0.051051646 0.003200369 -0.23019701
0.052515227 0.0036069646 -0.230197
0.0531229 0.0034096604 -0.23019698
0.054480277 0.0036426927 -0.23019701
0.055352658 0.0034614159 -0.230197
0.056879807 0.0038344515 -0.230197
0.057568401 0.0034762337 -0.230197
0.058860533 0.0034803727 -0.23019701
0.059733786 0.0034563653 -0.23019701
0.060606439 0.0035543749 -0.230197
0.061814539 0.0036422517 -0.230197
0.062455285 0.0037458413 -0.230197
0.063702695 0.0035371725 -0.23019701
0.064424574 0.0034504521 -0.230197
0.065585136 0.0036833249 -0.230197
0.0668125 0.0033491857 -0.230197
0.06774497 0.003645998 -0.23019701
0.068581596 0.0032434633 -0.230197
0.069485471 0.003345272 -0.230197
0.070485413 0.0034405673 -0.230197
0.07134591 0.0033167098 -0.23019701
0.072440051 0.0033205198 -0.23019701
0.073471144 0.0033678138 -0.230197
0.074389569 0.0035106023 -0.230197
0.075602204 0.0035962705 -0.230197
0.076786213 0.0034066113 -0.23019698
0.077173509 0.0035730279 -0.23019698
0.078324541 0.0031264732 -0.230197
0.079999998 0.0034865439 -0.23037037
-0.079717368 0.0045317262 -0.23022781
-0.078839809 0.0044564093 -0.230197
-0.0776916 0.0044972943 -0.23019701
-0.076604992 0.0044854544 -0.23019698
-0.075843543 0.0044353507 -0.23019701
-0.074455202 0.0045933146 -0.230197
-0.072951972 0.0045866352 -0.23019701
-0.071320996 0.0045992378 -0.23019701
-0.070496261 0.0047985041 -0.230197
-0.069562934 0.0045917695 -0.23019701
-0.068664029 0.0044306032 -0.23019701
-0.067680895 0.0044841715 -0.230197
-0.066425391 0.0044693286 -0.23019701
-0.065325171 0.004312099 -0.230197
-0.064464189 0.0044819559 -0.230197
-0.063521028 0.0044831308 -0.230197
-0.062329371 0.0043099578 -0.230197
-0.061557937 0.0049172938 -0.23019698
-0.060094617 0.0045270622 -0.230197
-0.059595238 0.0044126078 -0.23019701
-0.05862423 0.0043928935 -0.230197
-0.057678729 0.0044751917 -0.230197
-0.056345679 0.0045460225 -0.23019698
-0.055466555 0.004473255 -0.230197
-0.054513492 0.0045494684 -0.23019698
-0.053435706 0.0043570586 -0.230197
-0.052640412 0.0043962854 -0.23019701
-0.051531605 0.0045244 -0.23019701
-0.05077979 0.0047815014 -0.230197
-0.049469326 0.0045974371 -0.23019701
-0.048460543 0.0044801747 -0.230197
-0.047588021 0.0042442251 -0.23019701
-0.046238452 0.0042867889 -0.230197
-0.045599777 0.0046916166 -0.230197
-0.044574767 0.0046421625 -0.230197
-0.042516034 0.0043150219 -0.23019698
-0.041299291 0.0043925382 -0.230197
-0.040455189 0.0045602894 -0.230197
-0.039550554 0.0045180004 -0.23019698
-0.038110565 0.0046919324 -0.23019698
-0.037757576 0.0048118364 -0.230197
-0.036371309 0.0049618897 -0.230197
-0.035509624 0.00468953 -0.230197
-0.034923308 0.0041162693 -0.23019698
-0.033553276 0.0044796593 -0.230197
-0.032700874 0.0043379851 -0.23019698
-0.031355303 0.0043941801 -0.230197
-0.030445877 0.0048136786 -0.230197
-0.029569162 0.004598204 -0.230197
-0.028736545 0.0045406995 -0.230197
-0.02739846 0.0041893227 -0.23019701
-0.026421955 0.004316288 -0.230197
-0.02552579 0.0045193145 -0.230197
-0.024794541 0.0044845534 -0.230197
-0.023311591 0.0045179981 -0.23019698
-0.022307133 0.0045278501 -0.230197
-0.021330554 0.0045001353 -0.230197
-0.020473905 0.0045918464 -0.230197
-0.019502517 0.0043000681 -0.230197
-0.018329324 0.0043425141 -0.23019701
-0.017451854 0.00435396 -0.23019698
-0.016424343 0.0044615902 -0.23019701
-0.015440159 0.0044459878 -0.230197
-0.014215507 0.0045073139 -0.23019698
-0.012239864 0.0047671143 -0.230197
-0.011656354 0.0045396904 -0.230197
-0.0099999998 0.0045557278 -0.23013796
0.0099999998 0.004766976 -0.23017979
0.010382453 0.0045120921 -0.230197
0.011639817 0.0045935721 -0.230197
0.012681877 0.004583457 -0.230197
0.01306585 0.0046623042 -0.23019701
0.014635412 0.0045678345 -0.230197
0.0152154 0.0046373131 -0.23019698
0.016304057 0.0047253333 -0.230197
0.017489042 0.0042520501 -0.23019701
0.019597068 0.0042882031 -0.23019698
0.020588361 0.0046223607 -0.23019701
0.021607645 0.0043015955 -0.23019701
0.022904612 0.0043777991 -0.23019698
0.023624901 0.0042604348 -0.230197
0.024497252 0.0046766084 -0.23019698
0.025723811 0.0042690765 -0.23019701
0.026772415 0.0043434999 -0.230197
0.027452001 0.0045509757 -0.230197
0.028443856 0.004817131 -0.230197
0.029689845 0.0046047806 -0.230197
0.03034075 0.0044359462 -0.230197
0.031620849 0.0043023597 -0.230197
0.033357985 0.0041764006 -0.23019701
0.034537151 0.0046172868 -0.23019698
0.035747793 0.0044729481 -0.23019698
0.0365244 0.0045184344 -0.23019701
0.037072696 0.0040843934 -0.23019701
0.039562821 0.0047221668 -0.23019698
0.040221594 0.0045776041 -0.23019698
0.041454356 0.0045905793 -0.230197
0.042694047 0.0044495636 -0.23019701
0.043701649 0.0045029586 -0.23019698
0.044442587 0.0044202851 -0.230197
0.045714386 0.0044951639 -0.230197
0.046353139 0.0041998639 -0.230197
0.047265552 0.0045912242 -0.23019701
0.048551958 0.0041486085 -0.23019701
0.049217597 0.0043798825 -0.23019701
0.050670937 0.0045138206 -0.23019698
0.051234029 0.0040355162 -0.230197
0.052336261 0.0045845602 -0.230197
0.05354717 0.0047281715 -0.230197
0.055393189 0.0041099852 -0.230197
0.056347143 0.0046222913 -0.230197
0.057459991 0.0044396752 -0.23019701
0.05852975 0.0045517692 -0.23019698
0.059637714 0.0044108601 -0.23019701
0.060555886 0.0044700392 -0.230197
0.061372906 0.0041777794 -0.23019701
0.06247431 0.0045373165 -0.230197
0.063765921 0.0045172172 -0.230197
0.064619988 0.0046247169 -0.230197
0.065366812 0.0046070372 -0.23019698
0.06686125 0.0043704296 -0.23019701
0.067814521 0.0042226254 -0.23019701
0.068834797 0.0045234021 -0.23019698
0.069330372 0.0046454468 -0.230197
0.070357561 0.0045428164 -0.230197
0.071391486 0.0041975905 -0.23019701
0.072578087 0.0047843698 -0.230197
0.073578909 0.0045298254 -0.23019698
0.074380435 0.0046688719 -0.23019698
0.075467825 0.0046109315 -0.230197
0.076070569 0.004486897 -0.23019698
0.07830105 0.0049551898 -0.23019701
0.07972794 0.0043181824 -0.23036852
-0.07972689 0.0055438811 -0.23033008
-0.078420512 0.0051953774 -0.23019701
-0.077399209 0.0056489678 -0.230197
-0.076207213 0.0053704935 -0.23019698
-0.075374812 0.0054055685 -0.230197
-0.074482173 0.0052890098 -0.230197
-0.073622197 0.0057202135 -0.230197
-0.072423071 0.0056273835 -0.23019698
-0.071645327 0.0054800007 -0.230197
-0.07053417 0.0054549999 -0.23019698
-0.069632232 0.0056045535 -0.230197
-0.068633735 0.0057089212 -0.23019701
-0.067421958 0.0054348987 -0.230197
-0.066466086 0.0053419224 -0.230197
-0.065311514 0.0056211888 -0.230197
-0.064265609 0.005061789 -0.23019698
-0.063633084 0.0053734644 -0.230197
-0.0615701 0.0056005931 -0.23019698
-0.059479848 0.0055359877 -0.23019698
-0.058388058 0.0056396257 -0.23019698
-0.057557352 0.0053716805 -0.230197
-0.056042224 0.0050049862 -0.23019701
-0.055332828 0.0057997843 -0.23019701
-0.054442346 0.0055436767 -0.230197
-0.053058833 0.0050944863 -0.23019698
-0.052664459 0.005282443 -0.230197
-0.051495962 0.0052588042 -0.230197
-0.05053075 0.0054825759 -0.23019698
-0.049813546 0.0054728608 -0.230197
-0.048256587 0.0056050606 -0.23019698
-0.047794025 0.0051706382 -0.230197
-0.046597451 0.0054473206 -0.230197
-0.045933731 0.0054783011 -0.23019698
-0.044576406 0.0058352416 -0.23019701
-0.043515667 0.0058017741 -0.230197
-0.042045917 0.0052904631 -0.23019701
-0.041386787 0.0052706404 -0.230197
-0.040308557 0.0056354553 -0.23019701
-0.039550945 0.0055047288 -0.230197
-0.038488179 0.0056675603 -0.230197
-0.037324768 0.0055742408 -0.23019698
-0.036551476 0.0053923246 -0.230197
-0.035430413 0.0055424836 -0.230197
-0.034446366 0.0054353308 -0.230197
-0.033250615 0.0052936166 -0.230197
-0.032596283 0.0054323198 -0.230197
-0.031404369 0.0054560062 -0.230197
-0.030870039 0.0051261233 -0.23019701
-0.029048299 0.0055842837 -0.230197
-0.028505463 0.0057047699 -0.230197
-0.027343489 0.005645426 -0.23019701
-0.026251368 0.0052718036 -0.230197
-0.025303215 0.0057261488 -0.230197
-0.02473788 0.005107196 -0.230197
-0.023285968 0.0057241591 -0.23019698
-0.022530342 0.0056297663 -0.230197
-0.021351872 0.0053023263 -0.23019701
-0.020376027 0.005185632 -0.230197
-0.019620791 0.0054221954 -0.23019701
-0.018252203 0.0058177556 -0.230197
-0.017728124 0.005111665 -0.230197
-0.016504005 0.0053457282 -0.230197
-0.015364178 0.0052472064 -0.230197
-0.014260563 0.0051786629 -0.230197
-0.01354807 0.0054671536 -0.230197
-0.012623324 0.0052756364 -0.230197
-0.011294579 0.0051032393 -0.230197
-0.010892292 0.005020591 -0.23019698
0.010426356 0.0055318801 -0.230197
0.011487909 0.0057991249 -0.230197
0.012183741 0.0056870333 -0.230197
0.013658448 0.0055979248 -0.230197
0.015239818 0.005077302 -0.23019701
0.016460143 0.0054281009 -0.230197
0.017443119 0.0058848052 -0.23019698
0.018759068 0.0054568793 -0.230197
0.019438228 0.0054680724 -0.23019698
0.020691225 0.0056689982 -0.230197
0.022734586 0.0057991883 -0.230197
0.023517042 0.0055481708 -0.23019701
0.025168333 0.0050544869 -0.23019701
0.027153954 0.0059358967 -0.230197
0.028542839 0.0056102043 -0.23019701
0.030394651 0.0056405393 -0.230197
0.031610258 0.0056406404 -0.230197
0.032468852 0.0055030193 -0.230197
0.033783868 0.0052035255 -0.23019701
0.034704801 0.0055154567 -0.230197
0.035450704 0.005329465 -0.230197
0.036371857 0.0052992082 -0.230197
0.037683684 0.0057474743 -0.23019701
0.039285153 0.0059266426 -0.23019701
0.04062745 0.0052183541 -0.23019698
0.041537635 0.0054068579 -0.23019698
0.042319588 0.0057594171 -0.23019698
0.043408521 0.0056135803 -0.23019701
0.044473909 0.0056321649 -0.23019698
0.045259133 0.005494508 -0.230197
0.046492361 0.0055366643 -0.230197
0.047967058 0.0059353616 -0.230197
0.04891374 0.0050715972 -0.230197
0.050457835 0.0053866496 -0.23019698
0.051368006 0.0052482923 -0.23019698
0.052423015 0.0052938526 -0.23019701
0.053122222 0.0053749429 -0.23019698
0.054527938 0.0054996512 -0.230197
0.055487998 0.005726303 -0.23019701
0.056437969 0.0050877179 -0.230197
0.057698064 0.0058708582 -0.230197
0.058494397 0.0052905697 -0.23019698
0.059590176 0.0056734886 -0.23019701
0.060253412 0.0055810413 -0.23019701
0.06177029 0.0055598021 -0.230197
0.062710762 0.0054976372 -0.230197
0.063544922 0.0053314976 -0.230197
0.064563558 0.005763147 -0.23019698
0.065384045 0.0054090112 -0.23019701
0.066604123 0.0054851444 -0.23019698
0.06759274 0.0057172738 -0.230197
0.068317831 0.005614785 -0.23019701
0.069096774 0.0059482921 -0.230197
0.070184693 0.0056017078 -0.23019698
0.071730353 0.0058614779 -0.23019698
0.07285025 0.0056127529 -0.23019701
0.074851066 0.0052300398 -0.23019698
0.075455487 0.0054156906 -0.23019701
0.076734655 0.0057063252 -0.230197
0.077365153 0.00538817 -0.230197
0.078291975 0.0054760873 -0.230197
0.079896905 0.005475692 -0.23049441
0.080000006 0.0050633275 -0.23094682
-0.07961458 0.0065837717 -0.23029563
-0.078547508 0.0066052652 -0.23019698
-0.07707791 0.0065478012 -0.230197
-0.07628341 0.0066376328 -0.23019701
-0.075089835 0.0061764154 -0.230197
-0.074204698 0.0064052111 -0.230197
-0.073595136 0.0062755304 -0.23019698
-0.071590029 0.0065830532 -0.230197
-0.070739761 0.0065164845 -0.23019698
-0.06955304 0.0064937882 -0.23019701
-0.068547837 0.0067495382 -0.230197
-0.0678811 0.00680011 -0.230197
-0.06668698 0.00650129 -0.23019698
-0.065833516 0.0062686047 -0.230197
-0.064177945 0.0065578297 -0.230197
-0.063386321 0.0064552333 -0.23019701
-0.062642664 0.0063319169 -0.230197
-0.061551817 0.0064326325 -0.23019701
-0.060237944 0.0065912483 -0.23019701
-0.059353638 0.0064644604 -0.23019698
-0.058557663 0.0064590792 -0.230197
-0.056376446 0.0067713857 -0.230197
-0.055824306 0.0065666065 -0.230197
-0.054384686 0.0062034666 -0.230197
-0.053270042 0.0063712969 -0.230197
-0.052413683 0.0065120822 -0.230197
-0.051289525 0.0066057141 -0.230197
-0.050327782 0.0062329844 -0.230197
-0.049247853 0.0062028868 -0.230197
-0.048397996 0.0065010493 -0.23019701
-0.047795203 0.0067635672 -0.23019698
-0.046401888 0.0064021097 -0.23019698
-0.045525428 0.0064873444 -0.23019701
-0.044781946 0.0065869009 -0.23019701
-0.042480271 0.0064014145 -0.230197
-0.041335709 0.0068955012 -0.230197
-0.040622815 0.0065055816 -0.23019698
-0.039291311 0.0060689384 -0.230197
-0.038930595 0.0063735507 -0.23019698
-0.03747566 0.0062863915 -0.230197
-0.036413543 0.0064512552 -0.23019698
-0.035661042 0.0064599952 -0.230197
-0.034485865 0.0066454797 -0.230197
-0.032717235 0.0065078521 -0.230197
-0.031702638 0.0068000085 -0.23019701
-0.03023858 0.0060541839 -0.230197
-0.029037606 0.006120231 -0.23019701
-0.028689688 0.006686213 -0.23019701
-0.02768423 0.0066222278 -0.23019701
-0.026276762 0.0063895788 -0.230197
-0.025132926 0.0065022148 -0.23019698
-0.024553783 0.0067552794 -0.23019701
-0.02359939 0.0064605526 -0.230197
-0.022412851 0.0067462083 -0.23019701
-0.021166949 0.0064988784 -0.230197
-0.020629819 0.0063371034 -0.230197
-0.019387912 0.0064161033 -0.23019698
-0.018355522 0.0062208949 -0.230197
-0.017633263 0.0067711705 -0.230197
-0.016208317 0.0067319013 -0.23019701
-0.015347293 0.0064920122 -0.23019701
-0.014630094 0.0067289853 -0.230197
-0.013132151 0.0061034169 -0.23019701
-0.012465447 0.0062965639 -0.230197
-0.010609971 0.0069206255 -0.230197
-0.0099999998 0.0061081019 -0.23004313
0.0099999998 0.0061254175 -0.23008163
0.010390351 0.0064675165 -0.230197
0.011500414 0.006463632 -0.230197
0.012455578 0.0063462327 -0.230197
0.013430191 0.0064301481 -0.230197
0.014363277 0.0067653731 -0.230197
0.01513497 0.0067473399 -0.23019698
0.01739613 0.0061861291 -0.230197
0.018290045 0.0061505632 -0.230197
0.019019971 0.0064095599 -0.23019701
0.020803617 0.0065107127 -0.23019698
0.021331374 0.0064656804 -0.230197
0.022338724 0.0065271268 -0.23019698
0.023518626 0.0065269647 -0.230197
0.024236437 0.006254138 -0.23019701
0.025435328 0.006525672 -0.23019698
0.026705889 0.0062363292 -0.23019701
0.027310269 0.0066474532 -0.23019698
0.028236117 0.0061900462 -0.23019698
0.029610235 0.0068806307 -0.230197
0.030126594 0.0068089431 -0.23019698
0.031528827 0.0065470138 -0.230197
0.033474568 0.0067742318 -0.23019701
0.034377031 0.0062860772 -0.23019698
0.035948768 0.0065176208 -0.230197
0.036657602 0.0066484534 -0.23019698
0.037580848 0.0066745132 -0.230197
0.038592339 0.006170731 -0.23019701
0.03927844 0.0062049236 -0.230197
0.04054857 0.0065665627 -0.230197
0.041566562 0.0068240031 -0.230197
0.042616054 0.0065568425 -0.230197
0.04366437 0.006573624 -0.230197
0.04479944 0.006438191 -0.23019698
0.04548718 0.0065724212 -0.23019698
0.046483792 0.0062987357 -0.23019701
0.04757122 0.0065196441 -0.23019698
0.048563045 0.0064606513 -0.230197
0.050544094 0.0064189769 -0.23019701
0.051820934 0.006880919 -0.23019698
0.05233752 0.0065331734 -0.230197
0.053736087 0.0065243952 -0.23019698
0.054457746 0.0066608926 -0.230197
0.05518271 0.0060626417 -0.230197
0.056307264 0.0066974633 -0.23019701
0.057439297 0.006326044 -0.23019698
0.058596604 0.0065870099 -0.23019698
0.059604835 0.0065614595 -0.230197
0.060450152 0.0065437146 -0.23019701
0.061895236 0.0064280364 -0.230197
0.062459905 0.0062702419 -0.230197
0.063531101 0.0063616419 -0.23019701
0.064653181 0.0063125044 -0.23019698
0.065619439 0.0068153236 -0.230197
0.066382185 0.0064949798 -0.230197
0.06851612 0.0064279484 -0.23019698
0.069418244 0.006487797 -0.23019701
0.070311628 0.0064006257 -0.230197
0.071224362 0.0064331554 -0.23019701
0.07262373 0.0064075058 -0.23019701
0.073409483 0.0067062625 -0.23019701
0.074491888 0.0065439246 -0.23019701
0.075523689 0.006278533 -0.23019698
0.076462224 0.0062181493 -0.230197
0.077462196 0.0065213251 -0.230197
0.078378029 0.0065748333 -0.230197
0.079649597 0.0064334827 -0.23038614
-0.079579175 0.0074804774 -0.23048532
-0.07830289 0.0076651275 -0.230197
-0.077875875 0.0075744838 -0.23019698
-0.07665059 0.0074983481 -0.23019701
-0.075672835 0.007540585 -0.230197
-0.074506879 0.0073596044 -0.230197
-0.073501974 0.0075470484 -0.230197
-0.072574079 0.0073360251 -0.23019701
-0.071625575 0.0074657127 -0.230197
-0.070589259 0.00743753 -0.23019698
-0.06974186 0.0079417219 -0.230197
-0.06840983 0.0074945395 -0.23019701
-0.067238264 0.0076422589 -0.23019701
-0.06675604 0.0076550716 -0.230197
-0.065363601 0.0079096304 -0.23019701
-0.064540833 0.0077903289 -0.23019701
-0.063715681 0.0074969628 -0.23019698
-0.062978126 0.0079642385 -0.230197
-0.061710395 0.0075450689 -0.23019698
-0.060491376 0.0074436688 -0.23019698
-0.059493434 0.0075507709 -0.230197
-0.058539413 0.0074456399 -0.230197
-0.057571001 0.0075491956 -0.23019698
-0.056756493 0.0075167953 -0.230197
-0.055751331 0.007399844 -0.23019698
-0.054798156 0.0075240936 -0.23019698
-0.053500846 0.0073741316 -0.23019698
-0.052302659 0.0072064186 -0.23019701
-0.051004075 0.0070501268 -0.23019701
-0.050486665 0.0076891924 -0.230197
-0.049998783 0.0072117364 -0.23019698
-0.048656344 0.007635111 -0.23019701
-0.047702767 0.0077509023 -0.23019701
-0.046789926 0.0076703196 -0.230197
-0.045695405 0.0074402764 -0.23019701
-0.043802951 0.0070584211 -0.23019698
-0.042618554 0.0075142491 -0.230197
-0.041470997 0.0075162672 -0.23019701
-0.040521532 0.0078195231 -0.230197
-0.039686643 0.0072032865 -0.230197
-0.038481399 0.0075721028 -0.23019698
-0.037520878 0.0070608901 -0.23019698
-0.036736898 0.007558981 -0.230197
-0.03575952 0.0075102183 -0.23019698
-0.034810193 0.0075666513 -0.23019701
-0.033603989 0.0072523346 -0.23019698
-0.032558423 0.0073520145 -0.230197
-0.030541902 0.0077738659 -0.230197
-0.029587928 0.0071514095 -0.230197
-0.028337229 0.0073822336 -0.230197
-0.02750393 0.0075829662 -0.23019698
-0.026245838 0.0074411561 -0.230197
-0.025539344 0.0076308483 -0.230197
-0.024520833 0.0075190458 -0.23019701
-0.023455976 0.0073186248 -0.230197
-0.022542756 0.0074656769 -0.230197
-0.021266948 0.0071526486 -0.23019698
-0.020552171 0.0076983618 -0.230197
-0.019553717 0.0070258016 -0.23019701
-0.01852056 0.0077584363 -0.23019701
-0.017427951 0.0075585782 -0.23019701
-0.016622752 0.0070613977 -0.230197
-0.015594839 0.0074654273 -0.230197
-0.014548591 0.0074946303 -0.230197
-0.013217889 0.0076888381 -0.23019701
-0.012564963 0.0071932767 -0.230197
-0.011609469 0.0076671382 -0.230197
-0.010336503 0.0072100069 -0.230197
0.0099999998 0.0070703831 -0.23008418
0.011576656 0.007614621 -0.230197
0.012242682 0.0072726137 -0.230197
0.013476707 0.0075223809 -0.230197
0.014861254 0.0074730851 -0.230197
0.015727794 0.0070122276 -0.230197
0.016381279 0.0074595548 -0.230197
0.017552298 0.0075249216 -0.230197
0.018712264 0.0073988186 -0.23019698
0.019723995 0.0073889457 -0.230197
0.020370973 0.0075305314 -0.230197
0.021618558 0.0075179432 -0.23019698
0.022516448 0.0077534481 -0.230197
0.023904696 0.0076767262 -0.23019701
0.024282183 0.0072658448 -0.230197
0.025036948 0.0073910183 -0.230197
0.026478358 0.0074104294 -0.230197
0.027424343 0.0076205418 -0.23019701
0.028713398 0.007326222 -0.23019701
0.029541602 0.0074666617 -0.230197
0.030442985 0.0073177451 -0.230197
0.031426776 0.0074850162 -0.230197
0.032636303 0.0072725229 -0.23019698
0.033319749 0.0078254361 -0.230197
0.034626275 0.0073269354 -0.230197
0.035749022 0.0079318825 -0.23019698
0.036710855 0.0070450436 -0.23019698
0.037213266 0.0072926469 -0.23019698
0.038258813 0.0071569756 -0.23019698
0.039394323 0.0079832366 -0.230197
0.041167196 0.0076020821 -0.23019698
0.043257426 0.0074559487 -0.230197
0.044599134 0.0075776004 -0.23019701
0.045678079 0.0073838751 -0.230197
0.047497626 0.0076884031 -0.230197
0.048332285 0.0074807978 -0.230197
0.049638025 0.0075733662 -0.230197
0.050672542 0.0073832748 -0.230197
0.051404532 0.0073819766 -0.230197
0.052435484 0.0076992633 -0.230197
0.05332781 0.0074422038 -0.230197
0.05453667 0.0077690855 -0.230197
0.055966314 0.0076240613 -0.23019701
0.056576416 0.0078536384 -0.230197
0.05738268 0.0077607241 -0.23019701
0.059308715 0.007350964 -0.230197
0.060800761 0.007406028 -0.230197
0.061481386 0.0072363261 -0.230197
0.062500209 0.0073682508 -0.230197
0.063569136 0.0078403298 -0.230197
0.064709142 0.0072333245 -0.23019701
0.065318421 0.0077895597 -0.23019698
0.066580161 0.0071679968 -0.23019701
0.067627095 0.0077942889 -0.230197
0.068733491 0.0075205448 -0.230197
0.069270849 0.00791308 -0.230197
0.070091404 0.0076396717 -0.230197
0.071500368 0.0074056187 -0.230197
0.072825097 0.0078043416 -0.230197
0.073537812 0.0074808672 -0.23019701
0.074463561 0.0073843747 -0.230197
0.075743578 0.0076319585 -0.230197
0.076307952 0.0074841604 -0.23019701
0.078427985 0.0075946497 -0.230197
0.07944005 0.0077675562 -0.230197
-0.079832271 0.0082730073 -0.23046894
-0.078259513 0.008726622 -0.23019698
-0.0777459 0.008442522 -0.230197
-0.075596355 0.008475977 -0.23019698
-0.074326932 0.0088292137 -0.23019701
-0.073290125 0.0085179266 -0.230197
-0.072360799 0.0081112143 -0.230197
-0.07168743 0.008393677 -0.23019701
-0.070463106 0.0086308718 -0.23019698
-0.06956847 0.0085194856 -0.230197
-0.068490312 0.0083511015 -0.23019698
-0.067609817 0.0083947107 -0.230197
-0.066407815 0.0087414756 -0.230197
-0.065432809 0.0082619963 -0.230197
-0.064401403 0.0084110424 -0.230197
-0.063505024 0.0083750272 -0.230197
-0.062711425 0.0083472561 -0.23019698
-0.061542928 0.0087403795 -0.23019701
-0.060514554 0.0083382968 -0.23019701
-0.059372567 0.0086264303 -0.230197
-0.058549829 0.0084081003 -0.230197
-0.057737935 0.0087401364 -0.230197
-0.056330256 0.0084554367 -0.23019698
-0.055469383 0.0086441571 -0.230197
-0.054464824 0.0085470909 -0.23019701
-0.053028546 0.0080652395 -0.23019698
-0.052495521 0.0085765943 -0.230197
-0.051035292 0.008240154 -0.23019698
-0.05054035 0.0083970511 -0.23019698
-0.049487054 0.0086413901 -0.230197
-0.048615556 0.0084414873 -0.23019701
-0.047827389 0.0081546549 -0.23019698
-0.046492931 0.008361741 -0.23019698
-0.045202028 0.0083721653 -0.23019698
-0.044391099 0.0083005773 -0.230197
-0.043627009 0.0087674363 -0.23019701
-0.04246372 0.0084903985 -0.230197
-0.041711893 0.0081149684 -0.23019701
-0.040664207 0.0085485168 -0.23019698
-0.039495349 0.0085513387 -0.23019701
-0.038227592 0.0087075457 -0.23019698
-0.035484366 0.008611124 -0.230197
-0.034185313 0.0087226182 -0.23019701
-0.033020563 0.0086680735 -0.23019701
-0.032321915 0.0083928434 -0.23019701
-0.031487975 0.0087424545 -0.230197
-0.030654736 0.0087394221 -0.23019701
-0.028479753 0.0084455181 -0.23019701
-0.027390426 0.008553246 -0.23019698
-0.02663121 0.0085321497 -0.23019698
-0.02526411 0.0086003141 -0.230197
-0.024288798 0.008112058 -0.23019701
-0.023212831 0.0086142598 -0.23019701
-0.022489058 0.0084980428 -0.230197
-0.021295995 0.0080919042 -0.230197
-0.020469962 0.0083155474 -0.230197
-0.019692022 0.0087196194 -0.23019698
-0.018556248 0.0085164616 -0.230197
-0.017212229 0.0083548147 -0.23019698
-0.016563538 0.0085239559 -0.23019698
-0.01558524 0.0080528427 -0.230197
-0.014780122 0.0086877784 -0.23019701
-0.013533657 0.0086187599 -0.230197
-0.012429989 0.0086158831 -0.230197
-0.011611277 0.0083298646 -0.230197
-0.010671744 0.0083222464 -0.230197
0.0099999998 0.0085889474 -0.23008355
0.010744322 0.0082193855 -0.23019701
0.011656759 0.0083700223 -0.230197
0.012316305 0.0083660698 -0.230197
0.013474228 0.0085911956 -0.230197
0.014734106 0.0083574075 -0.230197
0.015584849 0.0083567183 -0.230197
0.016378593 0.0086766658 -0.230197
0.017552139 0.0088707125 -0.23019698
0.018654138 0.0085558593 -0.230197
0.02060944 0.0085685616 -0.230197
0.021394581 0.0086419675 -0.230197
0.022379816 0.0086420253 -0.23019701
0.023435725 0.0089632468 -0.23019698
0.024466936 0.008459758 -0.23019698
0.025784455 0.0085846651 -0.23019698
0.02637287 0.0083266944 -0.23019698
0.02769517 0.0082241455 -0.230197
0.028746335 0.008362541 -0.23019701
0.029530864 0.0085091963 -0.230197
0.030763049 0.0084054507 -0.23019698
0.031609531 0.0086488649 -0.230197
0.032500051 0.008876021 -0.230197
0.033576693 0.0087816892 -0.23019701
0.034687579 0.0084130391 -0.23019698
0.035463966 0.0086387414 -0.230197
0.036073714 0.0082210824 -0.230197
0.037510034 0.008654315 -0.230197
0.038410157 0.0085185347 -0.230197
0.039682288 0.008363829 -0.230197
0.040532298 0.0084322682 -0.23019698
0.041591138 0.0085791638 -0.23019701
0.042381458 0.0084699551 -0.23019698
0.043481767 0.0087416861 -0.230197
0.044465244 0.0087703876 -0.230197
0.045652758 0.0085412655 -0.230197
0.046385795 0.0084242523 -0.230197
0.047312938 0.008550575 -0.23019698
0.048928641 0.0081147058 -0.230197
0.049526006 0.0087293442 -0.23019698
0.050564677 0.0086650625 -0.230197
0.051741406 0.0085365213 -0.230197
0.052272439 0.0083995294 -0.230197
0.053585343 0.0081854844 -0.23019701
0.054260746 0.00847599 -0.230197
0.055269491 0.008313762 -0.23019701
0.056485772 0.0083450703 -0.23019698
0.057587892 0.0083421487 -0.23019701
0.058660917 0.0084112622 -0.230197
0.059324704 0.0084527312 -0.230197
0.060404707 0.0088584814 -0.230197
0.061428752 0.008603232 -0.230197
0.062548257 0.0084548555 -0.23019701
0.063716047 0.008326035 -0.23019701
0.064591274 0.00851251 -0.23019698
0.065529868 0.008519344 -0.23019701
0.066050366 0.0081813745 -0.23019701
0.0674624 0.0083318111 -0.230197
0.068486504 0.0084195826 -0.230197
0.06970349 0.0087564737 -0.23019701
0.071273506 0.0087666828 -0.23019701
0.07363072 0.0083268359 -0.23019701
0.074169397 0.0082186032 -0.23019698
0.075070322 0.0082565974 -0.230197
0.076009102 0.0081982547 -0.23019701
0.077700213 0.0087976111 -0.23019701
0.079801716 0.0083679883 -0.23045558
-0.079816833 0.0095432503 -0.23050863
-0.078728795 0.0093927365 -0.230197
-0.077080607 0.0094649298 -0.23019701
-0.076063477 0.0099624759 -0.230197
-0.075659446 0.0096621308 -0.23019701
-0.074341193 0.0099099241 -0.230197
-0.073675632 0.0092562092 -0.230197
-0.071527027 0.0096306251 -0.23019701
-0.070672058 0.0097600399 -0.23019698
-0.069318771 0.0098341163 -0.23019701
-0.068667755 0.0096759852 -0.230197
-0.067072138 0.0095541626 -0.230197
-0.066333428 0.0096457582 -0.23019701
-0.065537885 0.0096372459 -0.230197
-0.064419195 0.0093284054 -0.230197
-0.063302442 0.0094435168 -0.23019701
-0.062320057 0.0092311287 -0.23019698
-0.061511151 0.0093719549 -0.230197
-0.060080852 0.0098549752 -0.23019701
-0.059824236 0.0099984827 -0.23019701
-0.058735311 0.0093837567 -0.230197
-0.057565443 0.009524934 -0.23019698
-0.056386329 0.0092551904 -0.230197
-0.055419166 0.0095393835 -0.230197
-0.054577194 0.0092181806 -0.230197
-0.053244419 0.0092678554 -0.230197
-0.052574843 0.0096230498 -0.23019701
-0.051788591 0.0092773279 -0.230197
-0.050433856 0.0093500558 -0.230197
-0.0495046 0.0091080731 -0.230197
-0.048400145 0.0095598251 -0.230197
-0.047904536 0.009875318 -0.23019701
-0.046435744 0.0093325116 -0.23019698
-0.045941658 0.0095479358 -0.230197
-0.044226799 0.0099186897 -0.23019698
-0.043940712 0.0094946856 -0.230197
-0.042447083 0.0093555944 -0.230197
-0.041783374 0.0094275456 -0.230197
-0.040184356 0.0092144031 -0.23019701
-0.039460234 0.0094709909 -0.230197
-0.038339943 0.0096527059 -0.230197
-0.037527755 0.0097190905 -0.230197
-0.036557119 0.0094385296 -0.230197
-0.035667062 0.009900406 -0.230197
-0.034572832 0.0094611207 -0.230197
-0.033474598 0.0096080573 -0.230197
-0.032766625 0.0096658077 -0.23019698
-0.031175159 0.0094423555 -0.23019701
-0.030790953 0.0094617568 -0.23019701
-0.029210754 0.0097117145 -0.230197
-0.028289286 0.0094123669 -0.230197
-0.027431186 0.0095973527 -0.230197
-0.026460597 0.009336628 -0.230197
-0.025393959 0.0091456249 -0.230197
-0.024599236 0.009475613 -0.23019698
-0.023785528 0.0096896607 -0.23019698
-0.022277495 0.009420027 -0.230197
-0.021287989 0.0097622173 -0.23019701
-0.020503078 0.0093133505 -0.23019701
-0.019190062 0.0098944567 -0.23019698
-0.017559998 0.0093829073 -0.230197
-0.016796831 0.0092961099 -0.23019701
-0.014255978 0.0095441332 -0.230197
-0.013900656 0.0096758138 -0.230197
-0.012490025 0.0095720924 -0.230197
-0.011663705 0.0094602127 -0.230197
-0.010837423 0.0097102076 -0.23019698
-0.0099684978 0.0099999998 -0.23015296
-0.0080071595 0.0099999998 -0.23013787
-0.0066077067 0.0099999998 -0.23005885
-0.0055918628 0.0099999998 -0.23017269
-0.0026651602 0.0099999998 -0.23012555
-0.0011615767 0.0099999998 -0.23009536
-0.00037392601 0.0099999998 -0.23012073
0.0014893967 0.0099999998 -0.23002279
0.0023700367 0.0099999998 -0.23007666
0.0051312461 0.0099999998 -0.23018926
0.0076037096 0.0099999998 -0.23018792
0.008009945 0.0099999998 -0.23018083
0.010811371 0.0096018706 -0.230197
0.011398422 0.0096281152 -0.230197
0.012332445 0.0094793588 -0.230197
0.013354119 0.0095182592 -0.230197
0.014543124 0.009637367 -0.230197
0.015762094 0.0098268781 -0.23019701
0.016447678 0.0097014382 -0.230197
0.017371273 0.0093969256 -0.230197
0.018743364 0.0099823289 -0.23019698
0.019452851 0.0097002573 -0.230197
0.020132244 0.0093688704 -0.23019701
0.021600198 0.0095327524 -0.230197
0.022425942 0.0093723517 -0.230197
0.023426335 0.0095554311 -0.230197
0.024446335 0.0097897835 -0.230197
0.025375012 0.0094671454 -0.230197
0.026599301 0.0093064075 -0.23019698
0.027456244 0.0095184799 -0.230197
0.028683808 0.0093784742 -0.23019698
0.029491849 0.0093178991 -0.230197
0.030257907 0.0091780229 -0.23019701
0.031397793 0.0094234413 -0.230197
0.03313835 0.0097883306 -0.230197
0.034669772 0.0093196388 -0.230197
0.035614066 0.0095295133 -0.230197
0.036322109 0.0096033728 -0.230197
0.037558194 0.0093563218 -0.23019701
0.038826089 0.0093390085 -0.23019701
0.039591223 0.0096243275 -0.230197
0.041781902 0.0092555583 -0.230197
0.042618711 0.0096744103 -0.230197
0.043343671 0.009492619 -0.230197
0.044540238 0.0096042482 -0.230197
0.045505103 0.0094267735 -0.230197
0.046446688 0.0096819568 -0.23019701
0.047322899 0.0094477301 -0.230197
0.049398363 0.0096312473 -0.230197
0.050526172 0.0094064102 -0.230197
0.051396225 0.00980247 -0.23019701
0.052455038 0.0095369313 -0.230197
0.053679127 0.0094643272 -0.23019698
0.054531679 0.0093177268 -0.230197
0.055580862 0.0092063025 -0.23019698
0.056498419 0.0096316775 -0.230197
0.057351634 0.0096525019 -0.23019698
0.05843357 0.0096085351 -0.230197
0.059518985 0.0094443839 -0.23019698
0.060387276 0.0095074968 -0.230197
0.061479568 0.0097878221 -0.23019698
0.062050611 0.009760201 -0.23019701
0.063856646 0.009358638 -0.23019698
0.064913392 0.009241065 -0.23019698
0.065418482 0.0098191714 -0.230197
0.06618882 0.0096475957 -0.230197
0.067733809 0.0095598912 -0.230197
0.068577334 0.0098017454 -0.230197
0.069484442 0.0094623342 -0.230197
0.07060425 0.0093709342 -0.230197
0.071097091 0.009101728 -0.230197
0.07254529 0.0093537644 -0.230197
0.073050454 0.0098013049 -0.230197
0.074728847 0.009100182 -0.23019698
0.075697333 0.0096449703 -0.23019701
0.076400965 0.0093742786 -0.230197
0.077593796 0.0096105449 -0.23019701
0.078800812 0.0091878138 -0.23019698
0.079710156 0.0096343905 -0.23036751
-0.079909451 0.010410171 -0.23049515
-0.078933105 0.010281831 -0.23019701
-0.077414133 0.010547398 -0.230197
-0.076273337 0.010550703 -0.23019701
-0.075936154 0.010652179 -0.230197
-0.07457374 0.01081217 -0.23019698
-0.073394664 0.010232034 -0.230197
-0.072300635 0.010558782 -0.230197
-0.071509883 0.010512765 -0.230197
-0.070633076 0.010711591 -0.230197
-0.069520205 0.010448906 -0.23019701
-0.068525553 0.01057849 -0.23019698
-0.067888126 0.010446616 -0.230197
-0.066636562 0.010446245 -0.230197
-0.065766208 0.010484065 -0.230197
-0.064308256 0.010859564 -0.23019698
-0.063517593 0.010480889 -0.230197
-0.062453363 0.010547454 -0.230197
-0.061128397 0.010209886 -0.23019701
-0.06072332 0.010435054 -0.23019701
-0.05962301 0.010203928 -0.23019701
-0.05868452 0.010077282 -0.230197
-0.057365574 0.010681301 -0.230197
-0.056836773 0.010666556 -0.23019698
-0.054444045 0.010345053 -0.230197
-0.053195074 0.010189001 -0.230197
-0.052564882 0.010466613 -0.230197
-0.051474333 0.010543339 -0.230197
-0.050643444 0.010553676 -0.230197
-0.049596354 0.010494675 -0.230197
-0.047510423 0.010394652 -0.230197
-0.046611466 0.010499597 -0.230197
-0.045418039 0.010510666 -0.23019701
-0.044421356 0.010283193 -0.23019701
-0.042163786 0.010082075 -0.23019701
-0.04178638 0.010422257 -0.230197
-0.040518872 0.010490686 -0.230197
-0.039586976 0.010652922 -0.23019701
-0.03860645 0.010563238 -0.230197
-0.037280656 0.01056448 -0.230197
-0.036650009 0.010276534 -0.23019698
-0.035616785 0.010651069 -0.23019698
-0.034595605 0.010594946 -0.230197
-0.033426166 0.010397188 -0.23019701
-0.032338075 0.010332629 -0.23019698
-0.031685803 0.010256436 -0.230197
-0.030418713 0.010404584 -0.230197
-0.029029209 0.010255792 -0.23019698
-0.028581381 0.010536175 -0.230197
-0.027273297 0.0104275 -0.230197
-0.026453322 0.010839913 -0.230197
-0.025985058 0.010914516 -0.23019701
-0.024406424 0.010035547 -0.23019701
-0.022447195 0.010333247 -0.230197
-0.021776309 0.010578709 -0.230197
-0.020427115 0.010325089 -0.23019698
-0.019505043 0.010338972 -0.230197
-0.018179864 0.010482568 -0.230197
-0.017085139 0.010480267 -0.230197
-0.016462218 0.010466294 -0.23019698
-0.015289844 0.010613461 -0.230197
-0.014459401 0.010509228 -0.23019698
-0.013405061 0.010510835 -0.230197
-0.012335159 0.010501205 -0.23019698
-0.011497408 0.010299795 -0.230197
-0.010092175 0.010151978 -0.230197
-0.0093859462 0.010397073 -0.230197
-0.008472533 0.010993842 -0.230197
-0.0075676884 0.010609073 -0.230197
-0.0066319355 0.01050535 -0.230197
-0.0053236461 0.010677024 -0.230197
-0.0044299462 0.010521624 -0.23019698
-0.0016227425 0.010442756 -0.230197
-0.00043016952 0.010501616 -0.23019701
0.00036445039 0.010617603 -0.230197
0.0016222326 0.010288655 -0.230197
0.0028220294 0.010307914 -0.23019701
0.0033688855 0.01020827 -0.230197
0.0042949314 0.010484285 -0.230197
0.0050217314 0.010464028 -0.23019698
0.0064931586 0.010533653 -0.230197
0.0075980425 0.010566471 -0.230197
0.0084871966 0.010464303 -0.230197
0.0095061064 0.010417221 -0.23019698
0.0106218 0.010624586 -0.23019701
0.011532703 0.010472549 -0.230197
0.012858301 0.010678651 -0.230197
0.013394143 0.010475144 -0.230197
0.014230698 0.010711942 -0.230197
0.015474593 0.010606507 -0.230197
0.016568545 0.010391252 -0.23019698
0.017340466 0.010431962 -0.23019701
0.018239923 0.010135398 -0.23019701
0.019478114 0.010629757 -0.230197
0.020682337 0.010549013 -0.23019701
0.02184944 0.010709995 -0.23019701
0.023376042 0.01023686 -0.23019701
0.024823561 0.010474181 -0.23019698
0.025826339 0.010159817 -0.23019698
0.026448097 0.010337145 -0.230197
0.027728502 0.010254932 -0.230197
0.028401321 0.010473891 -0.23019701
0.029326117 0.010218611 -0.230197
0.030505519 0.010553772 -0.23019698
0.031473551 0.010495009 -0.23019701
0.032778632 0.01056174 -0.23019701
0.033241391 0.010915669 -0.23019701
0.034184303 0.010464914 -0.230197
0.036830194 0.010443909 -0.230197
0.037582483 0.010824486 -0.230197
0.038419873 0.010229958 -0.23019701
