# .PCD v0.7 - Point Cloud Data file format
VERSION 0.7
FIELDS x y z
SIZE 4 4 4
TYPE F F F
COUNT 1 1 1
WIDTH 1200
HEIGHT 1
VIEWPOINT 0 0 0 1 0 0 0
POINTS 1200
DATA ascii
0.0012165619 -0.0099999998 -0.081524447
0.002767063 -0.0099999998 -0.08110901
0.0034335717 -0.0099999998 -0.081456438
0.0046853707 -0.0099999998 -0.081398576
0.0052676136 -0.0099999998 -0.081467099
0.006129601 -0.0099999998 -0.081141546
0.0073409164 -0.0099999998 -0.081227198
0.0082882894 -0.0099999998 -0.081302665
0.00977467 -0.0098651573 -0.0815925
-0.0099999998 -0.008410207 -0.081808016
0.0099999998 -0.0084383972 -0.081444353
-0.0099999998 -0.0075089834 -0.081653178
0.0099999998 -0.0076020746 -0.081673101
-0.0099999998 -0.0064031309 -0.081599668
0.0099999998 -0.0063351952 -0.081868425
-0.0099999998 -0.0055103893 -0.081319109
0.0099999998 -0.0056592613 -0.081810959
-0.0099999998 -0.0045485501 -0.081262477
0.0099999998 -0.0046296115 -0.081346452
-0.0099999998 -0.0031560161 -0.081384793
0.0099999998 -0.0035068004 -0.081474178
-0.0099999998 -0.0024809346 -0.081490874
0.0099999998 -0.002482225 -0.081398092
-0.0099999998 -0.001360902 -0.081365518
0.0099999998 -0.00119416 -0.081511162
-0.0099999998 -0.00028558608 -0.081466377
-0.0099999998 0.00020128291 -0.081465885
-0.0099999998 0.0012441026 -0.081652083
0.0099999998 0.001186731 -0.08125966
-0.0099999998 0.0025758285 -0.081682734
0.0099999998 0.0027682292 -0.081661545
-0.0099999998 0.0039596399 -0.081375875
0.0099999998 0.0033143428 -0.081586853
-0.0099999998 0.0042501856 -0.081393793
-0.0099999998 0.00547443 -0.081309348
0.0099999998 0.0054381862 -0.081016615
-0.0099999998 0.0064185159 -0.081565984
0.0099999998 0.0068478617 -0.081704803
-0.0099999998 0.007312506 -0.081607074
0.0099999998 0.0073810434 -0.08141803
-0.0099999998 0.0089082653 -0.081220038
0.0099999998 0.0086368285 -0.081174433
-0.0097380709 0.0096821524 -0.081548095
-0.0084140627 0.0099999998 -0.081600517
-0.0075735576 0.0099999998 -0.081762053
-0.0062421695 0.0099999998 -0.081281736
-0.0058316295 0.0099999998 -0.081370622
-0.0046513071 0.0099999998 -0.081741385
-0.0032452426 0.0099999998 -0.081515476
-0.0028171802 0.0099999998 -0.081633545
-0.0014642458 0.0099999998 -0.081463441
-0.00066756422 0.0099999998 -0.081315182
0.00044193512 0.0099999998 -0.081304274
0.0015089614 0.0099999998 -0.081412211
0.0026600827 0.0099999998 -0.08190152
0.0030648024 0.0099999998 -0.081746556
0.0045727161 0.0099999998 -0.081337079
0.0050681382 0.0099999998 -0.081746221
0.0062218746 0.0099999998 -0.08168029
0.0075751506 0.0099999998 -0.081533484
0.0086064627 0.0099999998 -0.081537232
0.0096548283 0.0098829148 -0.081488594
-0.009502654 -0.0098592257 -0.080290429
-0.008844249 -0.0099999998 -0.080134541
-0.0073163114 -0.0099999998 -0.080877542
-0.0065857656 -0.0099999998 -0.080336064
-0.0057546413 -0.0099999998 -0.08029291
-0.004538246 -0.0099999998 -0.080942169
-0.0026068147 -0.0099999998 -0.080210947
-0.0015068605 -0.0099999998 -0.080624685
-0.00049866614 -0.0099999998 -0.080288127
0.00040495742 -0.0099999998 -0.080471449
0.0013562534 -0.0099999998 -0.080618069
0.0021724929 -0.0099999998 -0.080596134
0.0033426099 -0.0099999998 -0.080478154
0.004407099 -0.0099999998 -0.080483638
0.0054724552 -0.0099999998 -0.080395937
0.0066176807 -0.0099999998 -0.080585726
0.0075198705 -0.0099999998 -0.080504857
0.0087071918 -0.0099999998 -0.080938466
0.0098932646 -0.0095084887 -0.080393344
-0.0099999998 -0.0087119332 -0.080226682
0.0099999998 -0.00839708 -0.080251284
-0.0099999998 -0.0073895156 -0.080707759
0.0099999998 -0.0074404911 -0.080492757
-0.0099999998 -0.0063614827 -0.080356121
0.0099999998 -0.0063979072 -0.08059632
-0.0099999998 -0.0054924209 -0.080377765
0.0099999998 -0.0054591703 -0.080800518
-0.0099999998 -0.004910301 -0.080507226
0.0099999998 -0.004635524 -0.080538154
-0.0099999998 -0.0036049243 -0.080667153
0.0099999998 -0.0035370863 -0.080503777
-0.0099999998 -0.0025318633 -0.08053647
0.0099999998 -0.002370947 -0.080765516
-0.0099999998 -0.0015270278 -0.080557369
0.0099999998 -0.0015754669 -0.080550835
-0.0099999998 -0.00053438242 -0.080480896
0.0099999998 -0.0003279238 -0.080157846
0.0099999998 0.00028955721 -0.080503009
-0.0099999998 0.0018696814 -0.080162577
0.0099999998 0.0013312218 -0.080541685
-0.0099999998 0.0026336405 -0.080643296
0.0099999998 0.0021762056 -0.080603614
-0.0099999998 0.0031511676 -0.080788866
0.0099999998 0.0032775712 -0.080399811
-0.0099999998 0.0046178969 -0.080181807
0.0099999998 0.00484771 -0.080605693
-0.0099999998 0.0053027975 -0.080654979
-0.0099999998 0.0066184727 -0.080564268
-0.0099999998 0.0073351902 -0.080353253
0.0099999988 0.0078850463 -0.0806126
-0.0099999998 0.0086598126 -0.080526903
0.0099999998 0.0085865408 -0.080173276
0.010000001 0.0086440528 -0.080985226
-0.0097696893 0.0097742584 -0.080595769
-0.008665083 0.0099999998 -0.080310255
-0.0076311072 0.0099999998 -0.08035662
-0.0063070641 0.0099999998 -0.080706052
-0.005351821 0.0099999998 -0.080527686
-0.0046704249 0.0099999998 -0.080620795
-0.0025586775 0.0099999998 -0.080433734
-0.0012887171 0.0099999998 -0.080599941
-0.00070854492 0.0099999998 -0.080450632
0.00040216549 0.0099999998 -0.080324009
0.0013373657 0.0099999998 -0.080520816
0.0023349901 0.0099999998 -0.08048594
0.0031341864 0.0099999998 -0.080568895
0.0043915119 0.0099999998 -0.080178276
0.0057934616 0.0099999998 -0.080808446
0.0066562537 0.0099999998 -0.080654219
0.0074067074 0.0099999998 -0.080866732
0.0084410906 0.0099999998 -0.080725543
0.0098842988 0.0096603138 -0.080530107
-0.0098199975 0.010000001 -0.080427311
-0.0096171387 -0.0099046286 -0.07946305
-0.0084956652 -0.0099999998 -0.079428561
-0.0077034249 -0.0099999998 -0.079253368
-0.0065069883 -0.0099999998 -0.079170316
-0.0056149573 -0.0099999998 -0.079613775
-0.0048911953 -0.0099999998 -0.079447649
-0.0027069671 -0.0099999998 -0.079583541
-0.0013742127 -0.0099999998 -0.079277068
0.0006814067 -0.0099999998 -0.079576515
0.0013702293 -0.0099999998 -0.079781547
0.0024442805 -0.0099999998 -0.079394817
0.0056819292 -0.0099999998 -0.079363123
0.0063539273 -0.0099999998 -0.079482071
0.0078670038 -0.0099999998 -0.079490378
0.0085771196 -0.0099999998 -0.079415202
0.0097978562 -0.0096826553 -0.079546556
-0.0099999998 -0.0085433722 -0.079506844
0.0099999998 -0.008655644 -0.079518847
-0.0099999998 -0.0076046265 -0.079594545
0.0099999998 -0.0074577066 -0.079527229
-0.0099999998 -0.006475382 -0.079648651
0.0099999998 -0.0066098529 -0.079448923
-0.0099999998 -0.005498691 -0.079584122
0.0099999998 -0.0056759072 -0.079510957
-0.0099999998 -0.0043176766 -0.07950744
0.0099999998 -0.0045381361 -0.079596087
-0.0099999998 -0.0036303881 -0.07912311
0.0099999998 -0.0034451424 -0.079893038
-0.0099999998 -0.0024120118 -0.079384409
0.0099999998 -0.0022782118 -0.079723097
-0.0099999998 -0.001496298 -0.079650596
0.0099999998 -0.0017175082 -0.079655364
-0.0099999998 -0.00054855534 -0.079293028
0.0099999998 -0.00061566225 -0.079404049
-0.0099999998 0.00054615922 -0.07930357
-0.0099999998 0.0011798769 -0.079284444
0.0099999998 0.0015763778 -0.079700492
-0.0099999998 0.0024650926 -0.0791118
0.0099999998 0.0024634239 -0.079253457
-0.0099999998 0.0033786146 -0.079369597
0.0099999998 0.0035808559 -0.079457879
-0.0099999998 0.0044648382 -0.079624012
0.0099999998 0.0047280379 -0.079366773
-0.0099999998 0.0052440572 -0.079518408
0.0099999998 0.0056468272 -0.079503998
-0.0099999988 0.0065986104 -0.079500429
0.0099999998 0.0063948454 -0.079589412
-0.0099999998 0.0072541041 -0.079910502
0.0099999998 0.0075975196 -0.079038084
0.010000001 0.0078616161 -0.079016238
-0.0099999998 0.0085358499 -0.079125255
0.0099999998 0.0082063153 -0.079730771
-0.0097788405 0.0097471839 -0.079735875
-0.0089498134 0.0099999998 -0.079897732
-0.0073621287 0.0099999998 -0.079425618
-0.0064725238 0.0099999998 -0.079495795
-0.0054976782 0.0099999998 -0.079535529
-0.0041045174 0.0099999998 -0.079548672
-0.0035230441 0.0099999998 -0.079481237
-0.002536725 0.0099999998 -0.079479307
-0.0016450936 0.0099999998 -0.079182439
-0.0006747361 0.0099999998 -0.079364195
0.00035139968 0.0099999998 -0.079579033
0.0014522668 0.0099999998 -0.079808004
0.0025534641 0.0099999998 -0.079472452
0.0034926999 0.0099999998 -0.079391375
0.00540064 0.0099999998 -0.079131059
0.0067735491 0.0099999998 -0.079304039
0.0074584754 0.0099999998 -0.079549171
0.0082707526 0.0099999998 -0.079241686
0.0099999998 0.0095329303 -0.079397559
-0.0097828526 -0.0097210389 -0.07848379
-0.0086740386 -0.0099999998 -0.078385167
-0.0075817248 -0.0099999998 -0.078851506
-0.0065151034 -0.0099999998 -0.078573667
-0.0050737858 -0.0099999998 -0.078029811
-0.004823158 -0.0099999998 -0.078206874
-0.0035353021 -0.0099999998 -0.078434043
-0.0023137424 -0.0099999998 -0.078488246
-0.0015995357 -0.0099999998 -0.078363925
-0.00054145034 -0.0099999998 -0.078525029
0.0015369694 -0.0099999998 -0.078400776
0.0026265674 -0.0099999998 -0.078662634
0.0038647689 -0.0099999998 -0.078278169
0.0043554972 -0.0099999998 -0.078292809
0.005624223 -0.0099999998 -0.0788261
0.0063599451 -0.0099999998 -0.078522317
0.0072204457 -0.0099999998 -0.078237019
0.0084050614 -0.0099999998 -0.078428052
0.0096620452 -0.0097238114 -0.078502201
-0.0099999998 -0.0085517382 -0.078342691
0.0099999988 -0.008756334 -0.078109033
-0.0099999998 -0.0071692839 -0.078579433
0.0099999998 -0.0073851589 -0.07863988
-0.0099999998 -0.0063999752 -0.078588173
0.0099999998 -0.0064562298 -0.078403689
-0.0099999998 -0.0054745781 -0.078527115
0.0099999998 -0.0054536313 -0.078024037
-0.0099999998 -0.0045607858 -0.078566186
0.0099999998 -0.0045437394 -0.078713119
-0.0099999998 -0.0036519363 -0.078372404
0.0099999998 -0.0035699396 -0.078567237
-0.0099999998 -0.0026841334 -0.078612141
0.0099999998 -0.0022876021 -0.078451753
-0.0099999998 -0.0015206693 -0.078438364
0.0099999998 -0.0012509705 -0.078513548
-0.0099999998 -0.00032991325 -0.078439645
0.0099999998 -0.00049005146 -0.078112423
-0.0099999998 0.00056542561 -0.078620188
0.0099999998 0.00027861848 -0.078262553
0.0099999998 0.0016565229 -0.0787431
-0.0099999998 0.0025779088 -0.078210548
0.0099999998 0.0022403067 -0.078417562
-0.0099999998 0.0032892232 -0.078490093
0.0099999998 0.0035004036 -0.078526691
-0.0099999998 0.0043561356 -0.078321926
0.0099999998 0.0044780942 -0.07879211
-0.0099999998 0.0056132935 -0.078323223
0.0099999998 0.0053901761 -0.07839343
-0.0099999998 0.0065421541 -0.078474537
0.0099999998 0.0062851636 -0.078805894
-0.0099999998 0.0074140942 -0.078438699
0.0099999998 0.0075194864 -0.078509293
-0.0099999998 0.0083422903 -0.078649297
0.0099999998 0.0083939135 -0.078732818
-0.0095223077 0.0095713697 -0.078553036
-0.0083717518 0.0099999998 -0.07830409
-0.0075018825 0.0099999998 -0.078635216
-0.0064616897 0.0099999998 -0.078179009
-0.0052870838 0.0099999998 -0.078417018
-0.004489712 0.0099999998 -0.078348503
-0.0034908187 0.0099999998 -0.078382902
-0.0026616491 0.0099999998 -0.078447022
-0.0015061458 0.0099999998 -0.078563623
-0.00052262621 0.0099999998 -0.078669108
0.00037124101 0.0099999998 -0.078582942
0.0014417856 0.0099999998 -0.078440525
0.0025361476 0.0099999998 -0.078434609
0.003393275 0.0099999998 -0.078586362
0.0045551541 0.0099999998 -0.078168735
0.0056732837 0.0099999998 -0.078684315
0.0064623971 0.0099999998 -0.078267634
0.007391341 0.0099999998 -0.078692213
0.0084892539 0.0099999998 -0.078462385
0.0096022291 0.0098083718 -0.078146562
-0.008041963 0.010000001 -0.078091025
-0.0097319447 -0.0096522048 -0.077521831
-0.0084757144 -0.0099999998 -0.07772027
-0.0075152875 -0.0099999998 -0.077375583
-0.0064280569 -0.0099999998 -0.077454612
-0.0051451111 -0.0099999998 -0.077106923
-0.0045912866 -0.0099999998 -0.077463321
-0.0036465463 -0.0099999998 -0.077513695
-0.0023793734 -0.0099999998 -0.077601433
-0.0005626753 -0.0099999998 -0.077349775
0.00043214584 -0.0099999998 -0.077860184
0.0015637926 -0.0099999998 -0.077212781
0.0027091163 -0.0099999998 -0.077055685
0.0035288108 -0.0099999998 -0.077560626
0.0047707912 -0.0099999998 -0.077022806
0.0052546952 -0.0099999998 -0.077609077
0.0065375166 -0.0099999998 -0.077518873
0.0075986637 -0.0099999998 -0.077754937
0.0095396796 -0.0095849726 -0.077485591
-0.0099999998 -0.0085748034 -0.077393286
0.0099999998 -0.0084461225 -0.077250808
-0.0099999998 -0.0076231761 -0.077579953
0.0099999998 -0.0076528876 -0.077467375
-0.0099999998 -0.0064234021 -0.077661455
0.0099999998 -0.0065363906 -0.077691741
-0.0099999998 -0.0053459359 -0.077357873
0.0099999998 -0.0053415513 -0.077363454
-0.0099999998 -0.0044283965 -0.07738065
0.0099999998 -0.0047236974 -0.077620357
-0.0099999998 -0.0035888241 -0.07739763
0.0099999998 -0.0034158162 -0.077506125
-0.0099999998 -0.0027107981 -0.077204473
-0.0099999998 -0.0014184853 -0.0775856
0.0099999998 -0.0015546213 -0.077471852
-0.0099999998 -0.00023519824 -0.077556506
0.0099999998 -0.00059588323 -0.077398211
-0.0099999998 0.00038637128 -0.077494979
0.0099999998 0.00041285355 -0.077435821
-0.0099999998 0.0015675094 -0.077533513
0.0099999998 0.0013974851 -0.077278525
-0.0099999998 0.002632855 -0.077437967
0.0099999998 0.0027046863 -0.077475563
-0.0099999998 0.0034454181 -0.077264771
0.0099999998 0.0032353965 -0.077231266
0.0099999998 0.0042351871 -0.077606022
-0.0099999998 0.0055402331 -0.077595055
0.0099999998 0.0056527886 -0.077709742
-0.0099999998 0.0066105472 -0.077319637
0.0099999998 0.0064613647 -0.077789366
-0.0099999998 0.0073622987 -0.0774322
0.0099999998 0.0075354823 -0.077012271
-0.0099999998 0.0087666232 -0.077655666
0.0099999998 0.0083453348 -0.077414848
-0.0097705042 0.0097059486 -0.077391982
-0.0085624577 0.0099999998 -0.077336945
-0.0073048915 0.0099999998 -0.077296361
-0.0063341185 0.0099999998 -0.07743413
-0.0055131055 0.0099999998 -0.07722345
-0.0045169555 0.0099999998 -0.077645995
-0.0033127135 0.0099999998 -0.077139065
-0.0023219939 0.0099999998 -0.077432781
-0.0010653018 0.0099999998 -0.077270396
-0.00089863542 0.0099999998 -0.077674679
0.00041169737 0.0099999998 -0.077340171
0.0013712195 0.0099999998 -0.077622965
0.0027203159 0.0099999998 -0.077887103
0.0034942348 0.0099999998 -0.077381447
0.0045967884 0.0099999998 -0.077788681
0.0057534995 0.0099999998 -0.077544689
0.0067181936 0.0099999998 -0.077430919
0.0076533272 0.0099999998 -0.077767
0.0086621335 0.0099999998 -0.077598564
0.0099798702 0.0098978076 -0.0775984
-0.0069981152 0.010000001 -0.077070013
-0.0096894922 -0.0098112766 -0.07643275
-0.0076747709 -0.0099999998 -0.07661581
-0.0064151827 -0.0099999998 -0.076428503
-0.0055288123 -0.0099999998 -0.076293223
-0.0043326556 -0.0099999998 -0.076480314
-0.0035785262 -0.0099999998 -0.076730736
-0.0026442809 -0.0099999998 -0.076438181
-0.0012598841 -0.0099999998 -0.076127648
-0.00059021544 -0.0099999998 -0.076498337
0.00051575078 -0.0099999998 -0.076464184
0.0011671333 -0.0099999998 -0.076788157
0.0025218641 -0.0099999998 -0.076516621
0.0035450216 -0.0099999998 -0.076522514
0.0044870134 -0.0099999998 -0.076302044
0.0054496853 -0.0099999998 -0.076791085
0.0067247972 -0.0099999998 -0.076651983
0.0075540477 -0.0099999998 -0.076363958
0.0084727844 -0.0099999998 -0.076332308
0.0099999998 -0.0093251513 -0.076635107
-0.0099999998 -0.0087584015 -0.076416075
0.0099999998 -0.008487545 -0.076384865
-0.0099999998 -0.0077212639 -0.076733015
0.0099999998 -0.0073689776 -0.076378994
0.0099999998 -0.0064285705 -0.076214179
-0.0099999998 -0.0059923078 -0.07686054
0.0099999998 -0.00539653 -0.076499149
-0.0099999998 -0.0045559504 -0.076754168
0.0099999998 -0.0044398438 -0.076619104
-0.0099999998 -0.0031952278 -0.076320015
0.0099999998 -0.0039541381 -0.076539524
-0.0099999998 -0.0025615911 -0.076280907
0.0099999998 -0.0025258253 -0.076438017
-0.0099999998 -0.001561685 -0.076456808
0.0099999998 -0.0016109904 -0.076726697
-0.0099999998 -0.00065106701 -0.07676997
0.0099999998 -0.00070969359 -0.076619148
-0.0099999998 0.00043430668 -0.076342404
0.0099999998 0.00060652284 -0.076559596
-0.0099999998 0.0013423078 -0.076342449
0.0099999998 0.0016378229 -0.076384127
-0.0099999998 0.0027556631 -0.076516896
0.0099999998 0.0025559161 -0.076233648
-0.0099999998 0.00345616 -0.076389574
0.0099999998 0.0033812453 -0.07653676
-0.0099999998 0.0040136264 -0.076896563
0.0099999998 0.0044396888 -0.076370664
-0.0099999998 0.0056319581 -0.076204762
0.0099999998 0.0055718208 -0.076684684
-0.0099999998 0.0065782377 -0.076298118
0.0099999998 0.0065814233 -0.076441251
-0.0099999998 0.0073346212 -0.076396368
0.0099999998 0.0074001253 -0.076806977
0.0099999998 0.0085128844 -0.076668434
-0.0098066796 0.0096945232 -0.076573037
-0.0084123788 0.0099999998 -0.076539069
-0.0074898042 0.0099999998 -0.076745406
-0.0056419047 0.0099999998 -0.076566145
-0.0044756564 0.0099999998 -0.076401502
-0.0034062739 0.0099999998 -0.076340698
-0.002358037 0.0099999998 -0.076353773
-0.0016899128 0.0099999998 -0.076317824
-0.00023842049 0.0099999998 -0.07641387
4.5267749e-05 0.0099999998 -0.076268159
0.0014050718 0.0099999998 -0.076567568
0.0025559156 0.0099999998 -0.076553926
0.0032691162 0.0099999998 -0.076782852
0.0048676082 0.0099999998 -0.076104008
0.0054997643 0.0099999998 -0.076734528
0.0069165337 0.0099999998 -0.076884933
0.0076795635 0.0099999998 -0.076470226
0.0083339401 0.0099999998 -0.076151177
0.0097069619 0.0096431784 -0.076543294
-0.009555174 -0.0098260734 -0.075430557
-0.0086430851 -0.0099999998 -0.075682595
-0.0072446251 -0.0099999998 -0.075270623
-0.0065461835 -0.0099999998 -0.075570285
-0.005427124 -0.0099999998 -0.075379312
-0.0044504898 -0.0099999998 -0.075389333
-0.0034267157 -0.0099999998 -0.075563148
-0.0025209864 -0.0099999998 -0.075564295
-0.0015816827 -0.0099999998 -0.075446956
0.00043740636 -0.0099999998 -0.075397395
0.0014084456 -0.0099999998 -0.075584918
0.0024653529 -0.0099999998 -0.075836882
0.0030785515 -0.0099999998 -0.075605556
0.0045477226 -0.0099999998 -0.075330995
0.0055823503 -0.0099999998 -0.075715668
0.0064536864 -0.0099999998 -0.075834781
0.0074936138 -0.0099999998 -0.075435862
0.0084616682 -0.0099999998 -0.075457051
0.0094800135 -0.009876742 -0.075494379
-0.0099999998 -0.0086861765 -0.075766668
0.0099999998 -0.0084905624 -0.07568562
0.0099999998 -0.0075529898 -0.075261906
-0.0099999998 -0.0065646041 -0.075588465
0.0099999998 -0.0062275412 -0.075590491
-0.0099999998 -0.0057150861 -0.075988494
0.0099999998 -0.0056521511 -0.075545207
-0.0099999998 -0.0046941899 -0.07557179
0.0099999998 -0.0045441813 -0.075452499
-0.0099999998 -0.0038204181 -0.075489402
0.0099999998 -0.0036933203 -0.075750761
-0.0099999998 -0.0026029022 -0.07560014
0.0099999998 -0.0023886962 -0.075490728
-0.0099999998 -0.0012234943 -0.07539124
0.0099999998 -0.0016416882 -0.075618289
-0.0099999998 -0.00059694768 -0.075574711
0.0099999998 -0.00069314771 -0.075582981
-0.0099999998 0.00069297885 -0.075639382
0.0099999998 0.00053924933 -0.07547988
-0.0099999998 0.0013894802 -0.075612113
0.0099999998 0.0016602587 -0.075491637
-0.0099999998 0.0023774374 -0.075436443
0.0099999998 0.002165003 -0.075128198
-0.0099999998 0.0035497525 -0.075579159
-0.0099999998 0.0048006494 -0.075456612
0.0099999998 0.0046100942 -0.075366773
-0.0099999998 0.0053975047 -0.075503401
0.0099999998 0.00535757 -0.075676896
-0.0099999998 0.0060871551 -0.075591415
0.0099999998 0.0062842257 -0.075502962
-0.0099999998 0.0074188504 -0.075602993
0.0099999998 0.0074208141 -0.075305581
-0.0099999998 0.0087383799 -0.075745404
0.0099999998 0.0087137818 -0.075010732
0.010000001 0.0080628432 -0.075041056
-0.0097458186 0.0095882323 -0.075345486
-0.0083536431 0.0099999998 -0.075183742
-0.0074502872 0.0099999998 -0.075281277
-0.0064848601 0.0099999998 -0.075616956
-0.0055661378 0.0099999998 -0.075692907
-0.0043579615 0.0099999998 -0.075650528
-0.0039579966 0.0099999998 -0.075703658
-0.0029658182 0.0099999998 -0.075037003
-0.0018890551 0.0099999998 -0.0759314
-0.00034688937 0.0099999998 -0.075542808
0.0006693636 0.0099999998 -0.075353608
0.0013883084 0.0099999998 -0.075789012
0.0025400808 0.0099999998 -0.075333253
0.0034538943 0.0099999998 -0.075364992
0.0044216514 0.0099999998 -0.075734958
0.005421659 0.0099999998 -0.075415552
0.0068666018 0.0099999998 -0.075053208
0.0072728149 0.0099999998 -0.07527259
0.0082965763 0.0099999998 -0.075016297
0.0098770084 0.0099045401 -0.075588405
-0.0097266575 -0.0097668935 -0.074455589
-0.0083568627 -0.0099999998 -0.074357666
-0.0074524474 -0.0099999998 -0.074626163
-0.0061474536 -0.0099999998 -0.074045323
-0.0052293334 -0.0099999998 -0.074808598
-0.0044294214 -0.0099999998 -0.074230231
-0.0035667594 -0.0099999998 -0.074304096
-0.0023065989 -0.0099999998 -0.074356094
-0.0013320636 -0.0099999998 -0.0743047
-0.00054762047 -0.0099999998 -0.074328415
0.00022181449 -0.0099999998 -0.074490488
0.0011258444 -0.0099999998 -0.074771248
0.0024644556 -0.0099999998 -0.074442953
0.0034316932 -0.0099999998 -0.074607953
0.0045290007 -0.0099999998 -0.074671298
0.005364879 -0.0099999998 -0.074332118
0.0066547012 -0.0099999998 -0.074613675
0.007326697 -0.0099999998 -0.074777648
0.008552975 -0.0099999998 -0.074676901
0.0095352065 -0.0097258659 -0.074340276
-0.0099999998 -0.0085283108 -0.074899852
0.0099999998 -0.0082728425 -0.074798524
-0.0099999998 -0.0075579863 -0.074632198
0.0099999998 -0.0074794106 -0.074577995
-0.0099999998 -0.0065539693 -0.074245676
0.0099999998 -0.0066021397 -0.074740045
-0.0099999998 -0.0054653371 -0.074566342
0.0099999998 -0.0055203559 -0.074309826
-0.0099999998 -0.0046543325 -0.07444337
0.0099999998 -0.0045865108 -0.07447961
-0.0099999998 -0.0035537328 -0.07453806
0.0099999998 -0.003781555 -0.074426003
-0.0099999998 -0.002186974 -0.07463868
0.0099999998 -0.0025085402 -0.074471474
-0.0099999998 -0.0014558893 -0.07427913
0.0099999998 -0.0016429011 -0.074413091
-0.0099999998 -0.00072312204 -0.074252725
0.0099999998 -0.00058768137 -0.07459949
-0.0099999998 0.00064260821 -0.074469052
0.0099999998 0.00010878261 -0.074263081
-0.0099999998 0.0014633359 -0.074581392
0.0099999998 0.0017799982 -0.074334197
-0.0099999998 0.0024116933 -0.074502409
0.0099999998 0.0027455993 -0.074679576
-0.0099999998 0.0034575211 -0.074650586
0.0099999998 0.0036217091 -0.074492559
-0.0099999998 0.0043872232 -0.074579976
0.0099999998 0.004148813 -0.074876994
-0.0099999998 0.0056900661 -0.074640043
0.0099999998 0.0057718679 -0.07432273
0.0099999998 0.006560503 -0.07455752
-0.0099999998 0.0074493829 -0.074281067
0.0099999988 0.007368315 -0.074564196
-0.0099999998 0.0088534951 -0.074326627
0.0099999998 0.0086662136 -0.074920401
-0.0096128527 0.0099387085 -0.074510239
-0.0083620828 0.0099999998 -0.074254036
-0.0074101598 0.0099999998 -0.074160784
-0.0068088169 0.0099999998 -0.074613184
-0.0056156823 0.0099999998 -0.074148506
-0.0043743085 0.0099999998 -0.07458812
-0.0034682811 0.0099999998 -0.074565656
-0.0026125605 0.0099999998 -0.074589573
-0.0015020862 0.0099999998 -0.074435666
-0.00069877174 0.0099999998 -0.07457944
0.00024229789 0.0099999998 -0.074165843
0.0012305628 0.0099999998 -0.074463643
0.0026605413 0.0099999998 -0.074625082
0.0037758898 0.0099999998 -0.074322134
0.0046477378 0.0099999998 -0.074583314
0.0053917603 0.0099999998 -0.074177958
0.0063032461 0.0099999998 -0.074464083
0.0073216744 0.0099999998 -0.074748188
0.0084289117 0.0099999998 -0.07470037
0.0097478218 0.0096788537 -0.074596174
-0.0083893435 0.010000001 -0.074400015
-0.0074567646 0.010000001 -0.074624918
-0.0098073157 -0.0094753578 -0.073256634
-0.008744359 -0.0099999998 -0.073616326
-0.007848735 -0.0099999998 -0.073939823
-0.006308055 -0.0099999998 -0.073336616
-0.0054072416 -0.0099999998 -0.073625758
-0.0043413555 -0.0099999998 -0.073373288
-0.0033432625 -0.0099999998 -0.07351999
-0.0022554446 -0.0099999998 -0.073501028
-0.0010759681 -0.0099999998 -0.07339336
-0.00026625462 -0.0099999998 -0.073164672
0.00065998791 -0.0099999998 -0.073365562
0.0012876111 -0.0099999998 -0.073473826
0.00256268 -0.0099999998 -0.073494285
0.0035462165 -0.0099999998 -0.073749945
0.0047211722 -0.0099999998 -0.073422462
0.0053480952 -0.0099999998 -0.073735215
0.0063320375 -0.0099999998 -0.073540777
0.0074687377 -0.0099999998 -0.07337182
0.0083134137 -0.0099999998 -0.073504269
0.0098020658 -0.0095588965 -0.073230028
-0.0099999998 -0.008254976 -0.073570438
0.0099999998 -0.0083900234 -0.073187038
-0.0099999998 -0.0074929646 -0.073451221
0.0099999998 -0.0075501441 -0.073668234
-0.0099999998 -0.0063568433 -0.073575675
0.0099999998 -0.0067730034 -0.07331825
-0.0099999998 -0.0053991089 -0.073524579
0.0099999998 -0.0059727412 -0.073687352
-0.0099999998 -0.0042495299 -0.073727623
0.0099999998 -0.0047149621 -0.073413841
-0.0099999998 -0.0034864228 -0.073251009
0.0099999998 -0.0032865237 -0.073499143
-0.0099999998 -0.0025764573 -0.073445715
0.0099999998 -0.0026958897 -0.073477998
-0.0099999998 -0.0017249435 -0.073503487
0.0099999998 -0.0016401873 -0.073431201
-0.0099999998 -0.00042816921 -0.073220119
-0.0099999998 0.00061909447 -0.073729053
0.0099999998 0.00035604805 -0.073225439
0.0099999998 0.0016938754 -0.073306844
-0.0099999998 0.0025773069 -0.07359191
0.0099999998 0.0023499753 -0.073656715
-0.0099999998 0.0035991305 -0.073400021
0.0099999998 0.0044895406 -0.073743731
-0.0099999998 0.0055959332 -0.073513672
0.0099999998 0.0052511692 -0.073642507
-0.0099999998 0.0064549148 -0.073394738
0.0099999998 0.0066528702 -0.073442578
-0.0099999998 0.0073817754 -0.073424377
0.0099999998 0.0077412529 -0.073516198
-0.0099999998 0.0084415078 -0.073667169
0.0099999998 0.0087401019 -0.073621601
-0.0097289803 0.0098369066 -0.073393203
-0.0086635519 0.0099999998 -0.073631585
-0.0075438404 0.0099999998 -0.073663138
-0.0065579936 0.0099999998 -0.07352519
-0.0051891552 0.0099999998 -0.073343158
-0.0042349338 0.0099999998 -0.073380738
-0.0039068563 0.0099999998 -0.07333234
-0.0024152142 0.0099999998 -0.073570311
-0.00069383206 0.0099999998 -0.073495492
0.00017740927 0.0099999998 -0.073741019
0.0014471541 0.0099999998 -0.073702186
0.002099487 0.0099999998 -0.073997125
0.0033884011 0.0099999998 -0.073273584
0.004394731 0.0099999988 -0.073542282
0.005405047 0.0099999998 -0.07348001
0.0064005265 0.0099999998 -0.073610432
0.008500969 0.0099999998 -0.073146619
0.0098992698 0.0094066383 -0.073327146
0.010000001 0.0099144531 -0.073257357
-0.0097663626 -0.0097197657 -0.072420463
-0.0083869249 -0.0099999998 -0.072373524
-0.0074208486 -0.0099999998 -0.072421893
-0.0041928655 -0.0099999998 -0.072502114
-0.0034193196 -0.0099999998 -0.072682634
-0.0023606136 -0.0099999998 -0.072420165
-0.0015797745 -0.0099999998 -0.072326019
-0.00036752372 -0.0099999998 -0.072270401
0.00013600208 -0.0099999998 -0.072537571
0.0014907995 -0.0099999998 -0.072371587
0.002643079 -0.0099999998 -0.072517484
0.0037139645 -0.0099999998 -0.072707891
0.0043255324 -0.0099999998 -0.072321437
0.0056478889 -0.0099999998 -0.072578222
0.0064328853 -0.0099999998 -0.072646767
0.0077012903 -0.0099999998 -0.072433829
0.008367613 -0.0099999998 -0.072402552
0.0096933134 -0.0097136404 -0.072319016
-0.0099999998 -0.0085704839 -0.072220482
0.0099999998 -0.0084420554 -0.072565153
-0.0099999998 -0.0074119214 -0.072442137
0.0099999998 -0.0074283071 -0.072136484
-0.0099999998 -0.0062569221 -0.072677456
0.0099999998 -0.006520133 -0.0729426
-0.0099999998 -0.0054472401 -0.072771758
0.0099999998 -0.0053699668 -0.072349042
-0.0099999998 -0.0043975241 -0.072379313
0.0099999998 -0.0044717654 -0.072163455
-0.0099999998 -0.0032815174 -0.072321415
0.0099999998 -0.0036528108 -0.072410882
-0.0099999998 -0.0024268462 -0.072268769
0.0099999988 -0.0023838375 -0.072410829
-0.0099999998 -0.0012272401 -0.07297793
0.0099999998 -0.0014013633 -0.072566025
-0.0099999998 -0.00079955108 -0.072451904
0.0099999998 -0.00063066249 -0.072259143
-0.0099999998 0.00083500595 -0.072233364
0.0099999998 0.00044490711 -0.072212391
-0.0099999998 0.0016491585 -0.072329238
0.0099999998 0.0011568794 -0.072484151
-0.0099999998 0.0027366155 -0.072850607
0.0099999998 0.0022799685 -0.072394766
-0.0099999998 0.0033349241 -0.072251424
0.0099999998 0.0035454889 -0.072294548
-0.0099999998 0.004683922 -0.072315007
0.0099999998 0.004664978 -0.07254415
-0.0099999998 0.0053710151 -0.072354332
0.0099999998 0.0051804162 -0.07227952
-0.0099999998 0.0063120304 -0.072231203
0.0099999998 0.0064102886 -0.072556965
-0.0099999998 0.0076562595 -0.072805986
0.0099999998 0.0077193901 -0.072318114
0.010000001 0.0078659263 -0.072341554
-0.0099999998 0.008443444 -0.072638862
0.0099999998 0.0087372009 -0.072460487
-0.0094708484 0.0099117551 -0.072247311
-0.0089526642 0.0099999998 -0.072716497
-0.0074089393 0.0099999998 -0.072449327
-0.0065356251 0.0099999998 -0.072501302
-0.0054288819 0.0099999998 -0.072693467
-0.0045939847 0.0099999998 -0.072618954
-0.0035455259 0.0099999998 -0.072576165
-0.0028111115 0.0099999998 -0.072405539
-0.001478834 0.0099999998 -0.072464153
-0.00057088956 0.0099999998 -0.072591171
0.00076430675 0.0099999998 -0.072431646
0.001435179 0.0099999998 -0.072190009
0.0024152598 0.0099999998 -0.072431967
0.0037076517 0.0099999998 -0.072619721
0.0042977366 0.0099999998 -0.07260447
0.0055670524 0.0099999998 -0.072584674
0.0064779459 0.0099999998 -0.072578564
0.0074758437 0.0099999998 -0.072564989
0.0085010165 0.0099999998 -0.072563112
0.0096871853 0.009599437 -0.072387151
-0.008768701 0.010000001 -0.072398737
-0.0093949083 -0.0098428112 -0.071572885
-0.0084938556 -0.0099999998 -0.07161054
-0.007311515 -0.0099999998 -0.071513727
-0.0068984563 -0.0099999998 -0.071416423
-0.0053014215 -0.0099999998 -0.071363188
-0.0044338466 -0.0099999998 -0.071701132
-0.0038430709 -0.0099999998 -0.071606107
-0.002560559 -0.0099999998 -0.071488768
-0.0016718041 -0.0099999998 -0.071334742
-0.00011613517 -0.0099999998 -0.071732439
0.00062588626 -0.0099999998 -0.0715729
0.0015297709 -0.0099999998 -0.071392439
0.0023379626 -0.0099999998 -0.071951315
0.0036330209 -0.0099999998 -0.071704358
0.0041621635 -0.0099999998 -0.071910203
0.005611069 -0.0099999998 -0.071810991
0.0068182442 -0.0099999998 -0.071506366
0.0079405764 -0.0099999998 -0.071353793
0.008422859 -0.0099999998 -0.071325883
0.0097711002 -0.0097546494 -0.07163547
-0.0099999998 -0.0082589192 -0.071476042
0.0099999998 -0.0085089458 -0.07160221
-0.0099999998 -0.007598117 -0.071406409
0.0099999998 -0.0073722349 -0.071675688
-0.0099999998 -0.0062447768 -0.071654543
0.0099999998 -0.0064724246 -0.071637414
-0.0099999998 -0.0052301381 -0.071345702
0.0099999998 -0.0055943439 -0.071681619
-0.0099999998 -0.0046399073 -0.071580842
0.0099999998 -0.0048315846 -0.071687639
-0.0099999998 -0.0036210255 -0.071630664
0.0099999998 -0.0037074862 -0.071743511
-0.0099999998 -0.0025303327 -0.071575128
0.0099999998 -0.0024465194 -0.071303159
-0.0099999998 -0.0014182832 -0.071522683
0.0099999998 -0.0015927689 -0.071650997
-0.0099999998 -0.00088723795 -0.071380019
0.0099999998 -0.00014075567 -0.07161326
-0.0099999998 0.00066752417 -0.071865775
0.0099999998 0.0004944714 -0.071493894
-0.0099999998 0.0017952147 -0.071410753
-0.0099999998 0.0023760635 -0.071386397
0.0099999998 0.0021850769 -0.071217343
-0.0099999998 0.0036047706 -0.07161995
0.0099999998 0.0033617963 -0.07181856
-0.0099999998 0.0041715219 -0.071746401
0.0099999998 0.0045189983 -0.071462899
-0.0099999998 0.0054480494 -0.071478069
0.0099999998 0.0053012734 -0.071457431
-0.0099999998 0.0063144108 -0.071464062
0.0099999998 0.0062350295 -0.071657985
-0.0099999998 0.0075551169 -0.071444184
0.0099999998 0.007357996 -0.071588352
-0.0099999998 0.0085473899 -0.071790092
0.0099999988 0.0089489222 -0.071238853
-0.0095562236 0.0097551038 -0.071450531
-0.0083479658 0.0099999998 -0.07153561
-0.0075658662 0.0099999998 -0.07165207
-0.0064592646 0.0099999998 -0.071621969
-0.005770742 0.0099999998 -0.071377523
-0.0046206834 0.0099999998 -0.071577638
-0.0035503351 0.0099999998 -0.07134892
-0.0023774144 0.0099999998 -0.071405612
-0.0016133441 0.0099999998 -0.071776651
-0.00073654833 0.0099999998 -0.07157094
0.00052333012 0.0099999998 -0.071333908
0.0015630822 0.0099999998 -0.071452461
0.0027882792 0.0099999998 -0.07165651
0.0046316311 0.0099999998 -0.071630016
0.005437999 0.0099999998 -0.071395896
0.0063102562 0.0099999998 -0.071907446
0.0076815989 0.0099999998 -0.071340591
0.0084808115 0.0099999998 -0.071553133
0.0098908441 0.0097641265 -0.071269952
-0.0068076877 0.010000001 -0.071129948
-0.0097973999 -0.0099723879 -0.070674494
-0.0084941154 -0.0099999998 -0.070272774
-0.0071900729 -0.0099999998 -0.070535779
-0.0061933482 -0.0099999998 -0.070539795
-0.005672914 -0.0099999998 -0.070232928
-0.0046388293 -0.0099999998 -0.070825532
-0.0021641676 -0.0099999998 -0.07033328
-0.0016374856 -0.0099999998 -0.070629239
-0.00043522177 -0.0099999998 -0.070557915
0.00089198188 -0.0099999998 -0.070765488
0.0010113214 -0.0099999998 -0.070717655
0.0024429332 -0.0099999998 -0.070900582
0.0045547839 -0.0099999998 -0.070606753
0.0054501146 -0.0099999998 -0.070535272
0.0074490132 -0.0099999998 -0.070474297
0.0086416863 -0.0099999998 -0.0703751
0.0097856931 -0.0098796366 -0.070508018
-0.0099999998 -0.0081107914 -0.070078224
0.0099999998 -0.0085969148 -0.070303224
-0.0099999998 -0.007578264 -0.070467502
0.0099999998 -0.0075571188 -0.070643902
-0.0099999998 -0.0063558808 -0.070411488
0.0099999988 -0.0065874145 -0.070505358
-0.0099999998 -0.0055664983 -0.070645534
0.0099999998 -0.0053179767 -0.070909083
-0.0099999998 -0.0045827595 -0.070330076
0.0099999998 -0.004535859 -0.070620425
-0.0099999998 -0.0033290493 -0.070687085
0.0099999998 -0.0036059101 -0.070832491
-0.0099999998 -0.0022568896 -0.070540771
0.0099999998 -0.0022741996 -0.070718944
-0.0099999998 -0.0012460973 -0.070533574
0.0099999998 -0.0018540095 -0.07039737
-0.0099999998 -0.0004173693 -0.070498735
0.0099999998 -0.00048725674 -0.070361502
-0.0099999998 0.00040924287 -0.070895121
0.0099999998 0.00079753785 -0.070378393
-0.0099999998 0.0018110148 -0.070497513
0.0099999998 0.0015059977 -0.070453793
-0.0099999998 0.002745572 -0.070572071
0.0099999998 0.0026409058 -0.070754468
-0.0099999998 0.0036169987 -0.070674658
0.0099999998 0.0035205684 -0.070189223
-0.0099999998 0.0043336032 -0.070579432
0.0099999998 0.0044631939 -0.070401594
-0.0099999998 0.0055198125 -0.070403591
0.0099999998 0.0051180744 -0.070821911
-0.0099999998 0.0065764999 -0.070474453
0.0099999998 0.006722996 -0.070421502
-0.0099999998 0.0076557565 -0.0706295
0.0099999998 0.0079220813 -0.070202954
-0.0099999998 0.0085331379 -0.070590906
0.0099999998 0.0086210323 -0.07068792
-0.0097346576 0.0097787082 -0.070560411
-0.0089571439 0.0099999998 -0.070384592
-0.0075592734 0.0099999998 -0.070417315
-0.0068953452 0.0099999998 -0.070339404
-0.0054375245 0.0099999998 -0.070634946
-0.0046134768 0.0099999998 -0.070941508
-0.003486126 0.0099999998 -0.070220061
-0.0025442194 0.0099999998 -0.070632234
-0.0014577114 0.0099999998 -0.070318304
-0.00033288047 0.0099999998 -0.070648313
0.00055407913 0.0099999998 -0.070745885
0.0012558964 0.0099999998 -0.070568085
0.002584171 0.0099999998 -0.070490845
0.0031539998 0.0099999998 -0.070525661
0.0041788891 0.0099999998 -0.070581391
0.0055529959 0.0099999998 -0.070652977
0.0062770862 0.0099999998 -0.070546135
0.0075833346 0.0099999998 -0.070654586
0.0097661121 0.0097176433 -0.070648879
-0.0097389957 0.010000001 -0.070864536
-0.0099999998 -0.0093800817 -0.069920912
-0.0083308462 -0.0099999998 -0.069631338
-0.0074650007 -0.0099999998 -0.069475606
-0.0054271026 -0.0099999988 -0.069627926
-0.0047380859 -0.0099999998 -0.069439776
-0.0037423403 -0.0099999998 -0.069729544
-0.0021673571 -0.0099999998 -0.06908831
-0.0017902959 -0.0099999998 -0.06947282
-0.00028519263 -0.0099999998 -0.069289893
0.00018525022 -0.0099999998 -0.069392778
0.0017113213 -0.0099999998 -0.069350347
0.0026468597 -0.0099999998 -0.069676593
0.0035346516 -0.0099999998 -0.069522619
0.0043382067 -0.0099999998 -0.069225095
0.0063888356 -0.0099999998 -0.0694976
0.0076446831 -0.0099999998 -0.069285884
0.0084809158 -0.0099999998 -0.069381848
0.009679242 -0.0099275718 -0.069484226
-0.0099999998 -0.0084635466 -0.069483779
0.0099999988 -0.008567431 -0.069463871
-0.0099999998 -0.0076536573 -0.069355987
0.0099999998 -0.0075092204 -0.069542393
-0.0099999998 -0.0064984076 -0.06948185
0.0099999998 -0.0067842645 -0.069886692
-0.0099999998 -0.0053185886 -0.069633611
0.0099999998 -0.0057783108 -0.069654346
-0.0099999998 -0.0045407526 -0.069621347
0.0099999998 -0.0040764622 -0.069285616
-0.0099999998 -0.0033761787 -0.069480158
-0.0099999998 -0.002666784 -0.069786429
0.0099999998 -0.0027325852 -0.069337904
-0.0099999998 -0.0015340348 -0.069568343
0.0099999998 -0.0010816397 -0.069473796
-0.0099999998 -0.00052536209 -0.069738731
-0.0099999998 0.00048089126 -0.069454923
0.0099999998 0.00043540477 -0.069446176
-0.0099999998 0.0013461284 -0.069561593
0.0099999998 0.0013639949 -0.069373712
-0.0099999988 0.0025439027 -0.069573686
0.0099999998 0.0024269102 -0.06966944
-0.0099999998 0.0034451485 -0.069593132
0.0099999998 0.0039730226 -0.069462962
-0.0099999998 0.0047314758 -0.069405437
0.0099999998 0.0046205278 -0.06964837
-0.0099999998 0.0052469145 -0.069496982
0.0099999998 0.0053083091 -0.069277734
-0.0099999998 0.0065908222 -0.069557741
0.0099999998 0.006637068 -0.069571964
-0.0099999998 0.0074615292 -0.069028482
0.0099999998 0.0075489725 -0.069700874
-0.0099999998 0.0087463325 -0.06960842
0.0099999998 0.0086334823 -0.069441698
-0.00980205 0.0095681595 -0.069330573
-0.008628441 0.0099999998 -0.069227181
-0.0078006256 0.0099999998 -0.069281593
-0.0065811328 0.0099999998 -0.069169044
-0.0052433172 0.0099999998 -0.069605887
-0.004613224 0.0099999998 -0.069617003
-0.0035576108 0.0099999998 -0.069636017
-0.0025603059 0.0099999988 -0.069599137
-0.0015380664 0.0099999998 -0.069236577
-0.00042855923 0.0099999998 -0.069538593
0.0017210102 0.0099999998 -0.069432855
0.0022382094 0.0099999998 -0.069473363
0.0035031289 0.0099999998 -0.069532052
0.0046424917 0.0099999998 -0.0696375
0.0051925965 0.0099999998 -0.069400482
0.0065688347 0.0099999998 -0.069489382
0.0076198233 0.0099999998 -0.069256067
0.0085651334 0.0099999998 -0.0694215
0.0099999998 0.0093732765 -0.069296479
-0.009855289 -0.0094215143 -0.068142913
-0.0082771927 -0.0099999998 -0.068445586
-0.0074680168 -0.0099999998 -0.068417922
-0.0055852393 -0.0099999998 -0.068636872
-0.0046865353 -0.0099999998 -0.068906926
-0.0038063256 -0.0099999998 -0.068121791
-0.0025644137 -0.0099999998 -0.068687819
-0.0014540049 -0.0099999998 -0.068627283
-0.00085132581 -0.0099999998 -0.068106234
0.0003154664 -0.0099999998 -0.068242431
0.0014325584 -0.0099999998 -0.068264484
0.0025993905 -0.0099999998 -0.068637669
0.0035524364 -0.0099999998 -0.068588354
0.0041413493 -0.0099999998 -0.068676345
0.0053363619 -0.0099999998 -0.068764389
0.0067254701 -0.0099999998 -0.068478487
0.0070741461 -0.0099999998 -0.068506107
0.0081735849 -0.0099999998 -0.068539023
0.0095654055 -0.009840115 -0.068556532
-0.0099999998 -0.0083408877 -0.068668693
-0.0099999998 -0.0076343841 -0.068509899
0.0099999998 -0.0075157564 -0.068608679
-0.0099999998 -0.0064489748 -0.068710059
0.0099999998 -0.0065941713 -0.068456553
-0.0099999998 -0.0053568776 -0.068404749
0.0099999998 -0.0053762412 -0.068101704
0.0099999998 -0.0041896501 -0.068665817
-0.0099999998 -0.00343192 -0.068642497
0.0099999998 -0.0035955571 -0.068603292
-0.0099999998 -0.0022436751 -0.068364382
0.0099999998 -0.002358041 -0.068530232
-0.0099999998 -0.001813716 -0.068664469
0.0099999998 -0.0010805469 -0.068621032
-0.0099999998 -0.00055038108 -0.068695769
0.0099999998 -0.00066754094 -0.068597421
-0.0099999998 0.00051141629 -0.068906248
0.0099999998 0.00038838573 -0.068481028
-0.0099999998 0.0016443786 -0.068465129
0.0099999998 0.0013241582 -0.068483561
-0.0099999998 0.0025527978 -0.068680875
0.0099999998 0.0027239188 -0.068295926
-0.0099999998 0.0033234293 -0.068295181
0.0099999998 0.0035277817 -0.068486452
-0.0099999998 0.0043887841 -0.068206064
0.0099999998 0.0047026547 -0.068505481
-0.0099999998 0.005771365 -0.068546973
0.0099999998 0.0055821175 -0.068498611
-0.0099999998 0.0062287156 -0.068896517
0.0099999998 0.0065751104 -0.068714261
-0.0099999998 0.0075611016 -0.06842009
0.0099999998 0.0072458154 -0.06883651
-0.0099999998 0.0084502539 -0.068474546
0.0099999998 0.0084343776 -0.068257682
-0.0099448524 0.0094174854 -0.068445668
-0.008480805 0.0099999998 -0.068648122
-0.0076735183 0.0099999998 -0.068774484
-0.0066272588 0.0099999998 -0.068587102
-0.0055588987 0.0099999998 -0.068848029
-0.0041052732 0.0099999998 -0.068500832
-0.0034709293 0.0099999998 -0.068696439
-0.0025417246 0.0099999998 -0.068653405
-0.0013058211 0.0099999998 -0.068315707
-0.0006687647 0.0099999998 -0.068603769
0.00019950568 0.0099999998 -0.068598397
0.0022844356 0.0099999998 -0.068728149
0.0033982773 0.0099999998 -0.068789445
0.0044621918 0.0099999998 -0.068394288
0.0055369893 0.0099999998 -0.068529859
0.0065116165 0.0099999998 -0.068358839
0.0077071814 0.0099999998 -0.068740979
0.0085742921 0.0099999998 -0.068298817
0.0096970825 0.0098648537 -0.068500146
0.010000001 0.0090228338 -0.068357989
-0.0096370159 -0.0098829055 -0.067550458
-0.0080474 -0.0099999998 -0.067549668
-0.0062977872 -0.0099999998 -0.067719787
-0.0055067046 -0.0099999998 -0.067683034
-0.0044516372 -0.0099999998 -0.067445718
-0.0035949021 -0.0099999998 -0.067472905
-0.0027047156 -0.0099999998 -0.06733267
-0.0014064283 -0.0099999998 -0.067433633
-0.00041233079 -0.0099999998 -0.067606062
0.0002688051 -0.0099999998 -0.067565165
0.0010865537 -0.0099999998 -0.067800492
0.0021672775 -0.0099999998 -0.067523375
0.0033953572 -0.0099999998 -0.067810506
0.004561868 -0.0099999998 -0.067239448
0.0052446038 -0.0099999998 -0.0676523
0.006654554 -0.0099999998 -0.067456096
0.0077271918 -0.0099999998 -0.067280844
0.0086460738 -0.0099999998 -0.06772463
0.0099252257 -0.0093649831 -0.067687675
-0.010000001 -0.0083405813 -0.067344233
0.0099999998 -0.0081086941 -0.067921184
-0.0099999998 -0.0074718269 -0.067351416
0.0099999998 -0.0074978503 -0.06764318
-0.0099999998 -0.0066521331 -0.067409441
0.0099999998 -0.0064496011 -0.067621894
-0.0099999998 -0.0054272632 -0.067821726
0.0099999998 -0.0055277641 -0.067644358
-0.0099999998 -0.0044718883 -0.067451291
0.0099999998 -0.0042664157 -0.067321256
-0.0099999998 -0.0035266879 -0.067381635
0.0099999998 -0.0036361418 -0.067661405
-0.0099999998 -0.0029435609 -0.067596421
0.0099999998 -0.0026806439 -0.067146115
-0.0099999998 -0.0016072602 -0.067736164
0.0099999998 -0.0017313971 -0.067209594
-0.0099999998 -0.00021655402 -0.067527868
0.0099999998 -0.00054942071 -0.067630619
-0.0099999998 0.00043812569 -0.067154884
0.0099999998 0.0004239741 -0.067355216
-0.0099999998 0.0017756606 -0.067546077
0.0099999998 0.0017384896 -0.067341432
-0.0099999998 0.002436328 -0.067462757
0.0099999998 0.0021714843 -0.067610793
-0.0099999998 0.0032901817 -0.067503504
0.0099999998 0.0034450362 -0.06745106
-0.0099999998 0.0046654888 -0.067387342
0.0099999998 0.0043443479 -0.067402631
-0.0099999998 0.0053564701 -0.06714619
0.0099999998 0.0055529396 -0.067593172
-0.0099999998 0.0064493562 -0.067557484
0.0099999998 0.0068539144 -0.067045368
-0.0099999998 0.0075174491 -0.067381591
0.0099999998 0.0076155132 -0.067750722
0.010000001 0.0072181774 -0.067240447
-0.0099999998 0.0087401681 -0.067792021
0.0099999998 0.0081591289 -0.067430139
0.010000001 0.0087325023 -0.067229614
-0.0099081174 0.0099588465 -0.067400232
-0.0084507577 0.0099999998 -0.067396805
-0.0076253205 0.0099999998 -0.067395151
-0.0064977533 0.0099999998 -0.067428574
-0.0054188538 0.0099999998 -0.067407154
-0.0046498948 0.0099999998 -0.067570046
-0.0035014241 0.0099999998 -0.067375675
-0.0022616982 0.0099999998 -0.067442395
-0.0016128578 0.0099999998 -0.067709245
-0.0003269696 0.0099999998 -0.067620471
0.00058503618 0.0099999998 -0.067443676
0.0014082098 0.0099999998 -0.067878261
0.0024605053 0.0099999998 -0.067786336
0.0035968281 0.0099999998 -0.067570738
0.0042750244 0.0099999998 -0.067708105
0.0059431437 0.0099999998 -0.067441657
0.0067149159 0.0099999998 -0.067365699
0.0078975316 0.0099999998 -0.067027465
0.0081150495 0.0099999998 -0.067621849
0.0098699378 0.0097054197 -0.06738665
0.010000001 0.0095770312 -0.067044638
-0.00926081 -0.0099999998 -0.066558413
-0.0080846818 -0.0099999998 -0.066216387
-0.0064262785 -0.0099999998 -0.066603161
-0.0057202457 -0.0099999998 -0.066109456
-0.004308363 -0.0099999998 -0.066699669
-0.0034974138 -0.0099999998 -0.066202722
-0.0028588506 -0.0099999998 -0.06661588
-0.0018785497 -0.0099999998 -0.066384479
-0.00047418283 -0.0099999998 -0.066062719
0.00043015895 -0.0099999998 -0.0664948
0.0010667726 -0.0099999998 -0.066446073
0.0028322579 -0.0099999998 -0.066013865
0.003085067 -0.0099999998 -0.066631041
0.0048260512 -0.0099999998 -0.066693582
0.0050682751 -0.0099999998 -0.066116855
0.0065849586 -0.0099999998 -0.066681564
0.007590632 -0.0099999998 -0.066473424
0.0081047313 -0.0099999998 -0.066116385
0.0099447574 -0.0096823135 -0.066641741
-0.010000001 -0.0084493747 -0.066344246
0.0099999998 -0.0083697494 -0.066412419
-0.0099999998 -0.0074114441 -0.06660416
0.0099999998 -0.0074632075 -0.066752188
-0.0099999998 -0.0065637049 -0.066400677
0.0099999998 -0.0066507766 -0.06652008
-0.0099999998 -0.0055213519 -0.066356711
0.0099999998 -0.0052826554 -0.066611826
-0.0099999998 -0.0046499223 -0.066288456
0.0099999998 -0.0043546483 -0.066261932
0.0099999998 -0.0035125164 -0.066629082
-0.0099999998 -0.002225616 -0.066563956
0.0099999998 -0.0024700551 -0.06656336
-0.0099999998 -0.0017461345 -0.066693947
0.0099999998 -0.0012952759 -0.066566885
-0.0099999998 -0.00024636067 -0.066571087
0.0099999998 -0.00010640465 -0.06682907
-0.0099999998 0.0008997246 -0.06671311
0.0099999998 0.00041154725 -0.066697367
-0.0099999998 0.0015220834 -0.066486374
0.0099999998 0.0013270284 -0.066711545
-0.0099999998 0.0020788759 -0.066325739
0.0099999998 0.0024472997 -0.066570282
-0.0099999998 0.0036853291 -0.066425472
-0.0099999998 0.004123278 -0.066846773
0.0099999998 0.00420328 -0.066306368
-0.0099999998 0.0059172628 -0.066788204
0.0099999998 0.0052678562 -0.066580884
-0.0099999998 0.0064467359 -0.066431269
0.0099999998 0.0067385733 -0.066603079
-0.0099999998 0.0073308619 -0.06626609
0.0099999998 0.0075811022 -0.066519789
-0.0099999998 0.0089178607 -0.066396952
0.0099999998 0.008262042 -0.066511557
-0.009643089 0.0097082257 -0.066604048
-0.008501173 0.0099999998 -0.066653192
-0.0073951613 0.0099999998 -0.066383213
-0.0053888327 0.0099999998 -0.066221595
-0.0047426359 0.0099999998 -0.066462383
-0.0032391534 0.0099999998 -0.066259794
-0.0023251208 0.0099999998 -0.066296376
-0.0019383217 0.0099999998 -0.066133983
-0.00039340422 0.0099999998 -0.066225179
0.00060060655 0.0099999998 -0.066382848
0.0012645349 0.0099999998 -0.066373445
0.0023156533 0.0099999998 -0.066570744
0.003431632 0.0099999998 -0.066451341
0.0046160789 0.0099999998 -0.066784963
0.0057556145 0.0099999998 -0.066668585
0.0064361878 0.0099999998 -0.066580534
0.0073583638 0.0099999998 -0.066483036
0.0097786589 0.0094211586 -0.06650725
-0.0096069304 -0.0097922264 -0.065725729
-0.0086647477 -0.0099999998 -0.06533429
-0.0074644154 -0.0099999998 -0.06538102
-0.0066264956 -0.0099999998 -0.065456077
-0.0057550725 -0.0099999998 -0.065624639
-0.0046137995 -0.0099999998 -0.065567091
-0.0033691756 -0.0099999998 -0.065447241
-0.0028379541 -0.0099999998 -0.065864645
-0.00016052322 -0.0099999998 -0.065495908
0.00085083034 -0.0099999998 -0.065931723
0.0019627667 -0.0099999998 -0.065348275
0.0028190326 -0.0099999998 -0.065979809
0.0031942674 -0.0099999998 -0.065676808
0.0045707277 -0.0099999998 -0.065363064
0.0053962674 -0.0099999998 -0.065739833
0.0065519558 -0.0099999998 -0.065421283
0.0074702995 -0.0099999998 -0.06580247
0.008482811 -0.0099999998 -0.065312564
0.0099999998 -0.0092524923 -0.06523928
-0.0099999998 -0.0083277188 -0.06531354
0.0099999998 -0.0086877737 -0.065654859
-0.0099999998 -0.0073670023 -0.065548196
0.0099999998 -0.0074340696 -0.065711372
-0.0099999998 -0.0060824482 -0.065946177
0.0099999998 -0.0067592277 -0.065762952
-0.0099999998 -0.0056370134 -0.065336749
0.0099999998 -0.0052484302 -0.065579697
-0.0099999998 -0.0043040547 -0.065597773
0.0099999998 -0.0044609853 -0.065605976
-0.0099999998 -0.0032737495 -0.065180324
0.0099999998 -0.0033011758 -0.065429077
-0.0099999998 -0.0027310913 -0.065713249
-0.0099999998 -0.0012045432 -0.065606281
0.0099999998 -0.0015610758 -0.065709002
-0.0099999998 -0.00057804305 -0.065414608
