# .PCD v0.7 - Point Cloud Data file format
VERSION 0.7
FIELDS x y z
SIZE 4 4 4
TYPE F F F
COUNT 1 1 1
WIDTH 1231
HEIGHT 1
VIEWPOINT 0 0 0 1 0 0 0
POINTS 1231
DATA ascii
0.0099999998 0.0045945323 -0.16036662
-0.0099999998 0.0054791369 -0.16045193
0.0099999988 0.0055568349 -0.160547
-0.0099999998 0.0065823765 -0.16063617
0.0099999998 0.0064839376 -0.16059151
-0.0099999998 0.0076712118 -0.1603667
0.0099999998 0.0074104965 -0.16049656
-0.0099999998 0.0083769364 -0.16016406
0.0099999998 0.0086538857 -0.16065203
-0.0098272711 0.0097448155 -0.16033909
-0.0089200316 0.0099999998 -0.16058326
-0.0074880766 0.0099999998 -0.16064587
-0.0065939007 0.0099999998 -0.16032022
-0.0054241898 0.0099999998 -0.16046855
-0.0045026997 0.0099999998 -0.16045251
-0.0033893627 0.0099999998 -0.16033675
-0.0025148075 0.0099999998 -0.16037123
-0.0011369847 0.0099999998 -0.16081458
-0.00040952271 0.0099999988 -0.16039607
0.00043697338 0.0099999998 -0.16068177
0.001594371 0.0099999998 -0.16015482
0.0024301864 0.0099999998 -0.16059415
0.0048024599 0.0099999998 -0.1607684
0.0051612337 0.0099999998 -0.16067076
0.0069144098 0.0099999998 -0.16030347
0.0078243688 0.0099999998 -0.16060928
0.0084496308 0.0099999998 -0.16067541
0.0098185102 0.0097875623 -0.16052102
0.0069232355 0.010000001 -0.16029982
-0.0099999998 -0.0093704844 -0.15946022
-0.0089344587 -0.0099999998 -0.15935045
-0.0076320306 -0.0099999998 -0.15956426
-0.0064596925 -0.0099999998 -0.15983118
-0.0052914629 -0.0099999998 -0.15989512
-0.0046322523 -0.0099999998 -0.1594488
-0.0035499474 -0.0099999998 -0.15980348
-0.0024197581 -0.0099999998 -0.15956013
-0.0014237337 -0.0099999998 -0.15957594
-0.00050659635 -0.0099999998 -0.15976229
0.00033051404 -0.0099999998 -0.15926528
0.0018159949 -0.0099999998 -0.15973586
0.0025159738 -0.0099999998 -0.1595037
0.003443127 -0.0099999998 -0.15971492
0.0042918427 -0.0099999998 -0.15927437
0.0056392308 -0.0099999998 -0.15951107
0.0067205443 -0.0099999998 -0.1597144
0.0073887068 -0.0099999998 -0.15934621
0.0086570475 -0.0099999998 -0.15930432
0.0097470162 -0.0096780043 -0.15932594
-0.0099999998 -0.0086303335 -0.15923946
0.0099999998 -0.0083947694 -0.15944603
-0.0099999998 -0.0073572565 -0.15935414
-0.0099999998 -0.0062877545 -0.15940256
-0.0099999998 -0.0054074107 -0.15984881
-0.0099999998 -0.0045344317 -0.15961008
0.0099999998 -0.0042436542 -0.15951788
-0.0099999998 -0.0033605816 -0.15962166
0.0099999998 -0.0032913166 -0.15952888
-0.0099999998 -0.002717688 -0.15958166
0.0099999998 -0.0024068202 -0.15935475
-0.0099999998 -0.0015828519 -0.15948163
0.0099999998 -0.0012224711 -0.15961976
-0.0099999998 -0.00074761704 -0.15939163
0.0099999998 -0.00035302658 -0.15968907
-0.0099999998 0.00062183198 -0.15940104
0.0099999998 0.00075056707 -0.15972704
-0.0099999998 0.0011653918 -0.15963045
0.0099999998 0.0015113145 -0.15980208
-0.0099999998 0.0026152558 -0.15933356
0.0099999998 0.0024945864 -0.15951009
-0.0099999998 0.0035486198 -0.15935919
-0.0099999998 0.0049418686 -0.15955147
0.0099999998 0.0044185226 -0.15963583
-0.0099999998 0.0053115548 -0.15968555
0.0099999998 0.0055099698 -0.15905006
-0.0099999998 0.0065746447 -0.15971932
0.0099999998 0.0063860235 -0.15961577
-0.0099999998 0.0072577456 -0.15926221
0.0099999998 0.0072705196 -0.15955393
-0.0099999998 0.0085071716 -0.15925737
0.0099999998 0.0085036792 -0.15925378
-0.0098830294 0.0099999998 -0.15928283
-0.008424079 0.0099999998 -0.15954825
-0.0074402625 0.0099999998 -0.15948722
-0.0065972591 0.0099999998 -0.15928398
-0.0051743821 0.0099999998 -0.15963359
-0.0045236386 0.0099999998 -0.15947716
-0.0036528003 0.0099999998 -0.15925464
-0.0023629905 0.0099999998 -0.15928499
-0.0018162704 0.0099999998 -0.15961337
-0.00052360824 0.0099999998 -0.15950538
8.6787972e-05 0.0099999998 -0.1599168
0.0016463051 0.0099999998 -0.15941197
0.0026807096 0.0099999998 -0.15952918
0.0034521197 0.0099999998 -0.15959512
0.0047193877 0.0099999998 -0.15947479
0.0057713641 0.0099999998 -0.15974569
0.0063060997 0.0099999998 -0.1594092
0.007508812 0.0099999998 -0.15970054
0.0084538888 0.0099999998 -0.15935904
0.0096198386 0.0099262539 -0.15942346
-0.0097231911 -0.0097365798 -0.15861961
-0.0080335243 -0.0099999998 -0.15890545
-0.0076279999 -0.0099999998 -0.15841998
-0.0061708773 -0.0099999998 -0.1588383
-0.0055401381 -0.0099999998 -0.15849529
-0.0044863177 -0.0099999998 -0.15869766
-0.0035897945 -0.0099999998 -0.15862653
-0.002695343 -0.0099999998 -0.15873364
-0.0013504552 -0.0099999998 -0.15844271
-0.00038750665 -0.0099999998 -0.15839712
0.00065698539 -0.0099999998 -0.15822509
0.0013099432 -0.0099999998 -0.15858999
0.0026650568 -0.0099999998 -0.15866926
0.0034107016 -0.0099999998 -0.15829568
0.00484771 -0.0099999998 -0.15844823
0.0050345538 -0.0099999998 -0.15886261
0.0065019033 -0.0099999998 -0.1582007
0.0075800121 -0.0099999998 -0.15854938
0.0084068608 -0.0099999998 -0.158516
0.0095373625 -0.0099999998 -0.15881781
-0.0099999998 -0.0086437277 -0.15854667
0.0099999998 -0.008433097 -0.15831156
-0.0099999998 -0.0072202506 -0.15839043
0.0099999998 -0.0075398088 -0.15869121
0.010000001 -0.0078664143 -0.15872331
-0.0099999998 -0.0063978052 -0.15855272
0.0099999998 -0.0063359626 -0.15826559
-0.0099999998 -0.0055001858 -0.15843725
0.0099999998 -0.005745234 -0.15878527
-0.0099999998 -0.0048197019 -0.15821224
0.0099999998 -0.0048589082 -0.15872121
-0.0099999998 -0.0036426333 -0.15866373
0.0099999998 -0.0035140673 -0.15827577
-0.0099999998 -0.0025481 -0.15866689
0.0099999998 -0.0014277573 -0.15869658
-0.0099999998 -0.00053601741 -0.15878984
0.0099999998 -0.00064057024 -0.15835927
-0.0099999998 0.00041380199 -0.15851684
0.0099999998 0.00059329846 -0.15856817
-0.0099999998 0.0012758581 -0.15885638
0.0099999998 0.0016814475 -0.15875822
-0.0099999998 0.0024148042 -0.15863636
0.0099999998 0.0023422919 -0.15866287
-0.0099999998 0.0035665196 -0.15848848
0.0099999998 0.0031473802 -0.15846655
-0.0099999998 0.0043289792 -0.15838306
0.0099999998 0.0043619345 -0.15836063
-0.0099999998 0.0052092983 -0.15856078
0.0099999998 0.0055267415 -0.15848771
-0.0099999998 0.0066193622 -0.15859061
0.0099999998 0.0064265104 -0.15842271
-0.0099999998 0.0070130737 -0.15808913
0.0099999998 0.007542124 -0.15860611
-0.0099999998 0.008851625 -0.15855514
0.0099999998 0.0086136004 -0.15862067
-0.0097286422 0.0096992878 -0.15844159
-0.0087524028 0.0099999998 -0.1585522
-0.0076875295 0.0099999998 -0.15854336
-0.0064955847 0.0099999998 -0.1584392
-0.0053496361 0.0099999998 -0.15836972
-0.0045410735 0.0099999998 -0.15827912
-0.0035553533 0.0099999998 -0.15859084
-0.0023782912 0.0099999998 -0.1585705
-0.0014192861 0.0099999998 -0.15842938
-0.0003322915 0.0099999998 -0.15861301
0.00098648982 0.0099999998 -0.158612
0.0019917502 0.0099999998 -0.15844086
0.0024306325 0.0099999998 -0.15850082
0.0033392839 0.0099999998 -0.15826528
0.0044703274 0.0099999998 -0.15879411
0.0057303077 0.0099999998 -0.15847251
0.0064736432 0.0099999998 -0.15875916
0.0076766936 0.0099999998 -0.15819469
0.0085778246 0.0099999998 -0.15848227
0.0099999998 0.0094409455 -0.15842369
0.0085244589 0.010000001 -0.15841497
-0.0096581373 -0.0099042524 -0.15763906
-0.0085408324 -0.0099999998 -0.15738007
-0.0074997018 -0.0099999998 -0.15748937
-0.0065419045 -0.0099999998 -0.15735716
-0.0054811556 -0.0099999998 -0.15773307
-0.0045910133 -0.0099999998 -0.15746427
-0.003678222 -0.0099999998 -0.15735079
-0.0025113213 -0.0099999998 -0.15766391
-0.0014171517 -0.0099999998 -0.15730596
-0.00050411286 -0.0099999998 -0.15741895
0.00061371468 -0.0099999998 -0.1573675
0.0021107956 -0.0099999998 -0.15722007
0.0034664478 -0.0099999998 -0.15734901
0.0048269411 -0.0099999998 -0.15771523
0.0054409038 -0.0099999998 -0.15747166
0.0066729235 -0.0099999998 -0.15798339
0.0085721547 -0.0099999998 -0.15760921
0.0096818563 -0.0097678592 -0.15767106
-0.0099999998 -0.0089847157 -0.15742476
0.0099999998 -0.0085705239 -0.15753898
-0.0099999998 -0.0076498762 -0.15748578
0.0099999998 -0.0078984573 -0.15746866
0.010000001 -0.0079539595 -0.15724033
-0.0099999998 -0.0064614504 -0.15771948
0.0099999998 -0.0066919597 -0.15736362
-0.0099999998 -0.0053760437 -0.15756157
0.0099999998 -0.0053664488 -0.15744182
-0.0099999998 -0.0044196444 -0.15735567
0.0099999998 -0.0043701474 -0.15738788
-0.0099999998 -0.0035423876 -0.15756938
0.0099999998 -0.003503592 -0.15754585
-0.0099999998 -0.0025340235 -0.15721273
0.0099999998 -0.0028404635 -0.15737054
-0.0099999998 -0.0015618507 -0.15795085
0.0099999998 -0.0018778618 -0.15705296
-0.0099999998 -0.00037972227 -0.15740621
0.0099999998 -0.00059498433 -0.15757239
-0.0099999998 0.0004897957 -0.15742248
0.0099999998 0.00060696399 -0.15752262
-0.0099999998 0.0016524981 -0.15772581
0.0099999998 0.0016113804 -0.15762477
-0.0099999998 0.0028017627 -0.15760833
0.0099999998 0.0023905009 -0.15762196
-0.0099999998 0.003494544 -0.15710214
0.0099999998 0.0035488023 -0.15754786
-0.0099999998 0.0046277493 -0.15727489
0.0099999998 0.0045891469 -0.15755518
-0.0099999998 0.0056394334 -0.15754513
0.0099999998 0.0055756895 -0.1575951
-0.0099999998 0.0066426243 -0.15719423
0.0099999998 0.0064437119 -0.15784957
-0.0099999998 0.0075113187 -0.15740965
0.0099999998 0.0077386163 -0.15744619
-0.0099999998 0.0084700584 -0.15733324
0.0099999998 0.0084175058 -0.15743941
-0.0098743914 0.0097211888 -0.15766613
-0.0084888227 0.0099999998 -0.15763786
-0.0077509489 0.0099999998 -0.15783478
-0.0065350356 0.0099999998 -0.1572925
-0.0053827325 0.0099999998 -0.15756631
-0.0047988519 0.0099999998 -0.15756629
-0.0033878027 0.0099999988 -0.15753837
-0.0027107913 0.0099999998 -0.15781254
-0.0016493731 0.0099999998 -0.15775184
-0.00015760632 0.0099999998 -0.15767892
0.00040167372 0.0099999998 -0.15735665
0.0014523966 0.0099999998 -0.15742618
0.0024146293 0.0099999998 -0.15769465
0.003584363 0.0099999998 -0.15749352
0.0046078698 0.0099999998 -0.15744703
0.0053566229 0.0099999998 -0.15764874
0.0064906832 0.0099999998 -0.15754797
0.0084050987 0.0099999998 -0.15752667
0.0098133031 0.0096332487 -0.15756746
0.0087094363 0.010000001 -0.15759934
-0.0098692784 -0.0095851598 -0.15652165
-0.0085456874 -0.0099999998 -0.15660392
-0.0071438476 -0.0099999998 -0.15615034
-0.0065471381 -0.0099999998 -0.15667616
-0.0054206629 -0.0099999998 -0.15666544
-0.0042216592 -0.0099999998 -0.15631349
-0.003458726 -0.0099999998 -0.15628381
-0.0025083851 -0.0099999998 -0.15656607
-0.0017474417 -0.0099999998 -0.15668924
-0.0005526552 -0.0099999998 -0.15646636
0.00055560376 -0.0099999998 -0.15649563
0.0016739701 -0.0099999998 -0.15632619
0.0024367981 -0.0099999998 -0.15652728
0.003402197 -0.0099999998 -0.15650041
0.0045181336 -0.0099999998 -0.15639621
0.0053374441 -0.0099999998 -0.15646325
0.0065547833 -0.0099999998 -0.15658361
0.0073874635 -0.0099999998 -0.15624815
0.0085722171 -0.0099999998 -0.15637593
0.009661003 -0.0099462345 -0.15649186
0.010000001 -0.0099839335 -0.15620103
-0.0099999998 -0.0089266896 -0.15672672
0.0099999998 -0.0086889155 -0.15682119
-0.0099999998 -0.0074577234 -0.15621106
0.0099999998 -0.007788559 -0.15644062
-0.0099999998 -0.0067484742 -0.15661612
0.0099999998 -0.0066921725 -0.15680078
-0.0099999998 -0.005245768 -0.15635465
0.0099999998 -0.0054879459 -0.15619765
-0.0099999998 -0.0042251796 -0.15672433
0.0099999998 -0.0047952505 -0.15650958
-0.0099999998 -0.0034741703 -0.15642947
0.0099999998 -0.0033690736 -0.15652579
-0.0099999998 -0.0026508986 -0.15642338
0.0099999998 -0.0024551041 -0.15614235
-0.0099999998 -0.0015827768 -0.15621915
0.0099999998 -0.0013020474 -0.15657768
-0.0099999998 -0.00040272035 -0.15638845
0.0099999998 -0.00049732992 -0.15655051
-0.0099999998 0.00032253843 -0.15663674
0.0099999998 0.0008004246 -0.15658244
-0.0099999998 0.0013581554 -0.15635833
0.0099999998 0.0015894368 -0.15660749
-0.0099999988 0.0024556813 -0.15655544
0.0099999998 0.0024914972 -0.15651134
-0.0099999998 0.003469982 -0.15638004
0.0099999998 0.003598508 -0.15645728
-0.0099999998 0.0044455063 -0.15650015
0.0099999998 0.0045206454 -0.15619603
-0.0099999998 0.0053371256 -0.1565381
0.0099999998 0.0056128642 -0.15647134
-0.0099999998 0.0062094014 -0.15642521
0.0099999998 0.0062240018 -0.1566774
-0.0099999998 0.0074133789 -0.15657383
0.0099999998 0.0073021627 -0.15670857
0.0099999998 0.0086613279 -0.15650702
-0.0097506531 0.009798185 -0.15671203
-0.0083761727 0.0099999998 -0.15630034
-0.007422097 0.0099999998 -0.15650451
-0.0066352775 0.0099999998 -0.15669847
-0.0054600639 0.0099999998 -0.1562569
-0.0045516076 0.0099999998 -0.15633595
-0.0035972281 0.0099999998 -0.15642372
-0.0027704234 0.0099999998 -0.15648797
-0.0017510336 0.0099999998 -0.15642723
-0.00063847518 0.0099999998 -0.15655969
0.0011070806 0.0099999998 -0.15611093
0.0024587966 0.0099999998 -0.15666278
0.0032480902 0.0099999998 -0.15637051
0.0041234428 0.0099999998 -0.15660813
0.005602221 0.0099999998 -0.15668543
0.0064750975 0.0099999998 -0.15661404
0.00754542 0.0099999988 -0.15648921
0.0086535513 0.0099999998 -0.15662113
0.0096149733 0.0099612549 -0.15657982
-0.0098089343 -0.0097878277 -0.15536164
-0.0076506604 -0.0099999998 -0.15547402
-0.0063682492 -0.0099999998 -0.15527909
-0.00559517 -0.0099999998 -0.15556419
-0.0045923572 -0.0099999998 -0.15573592
-0.0036786105 -0.0099999998 -0.15525039
-0.0024514284 -0.0099999998 -0.155526
-0.0011624095 -0.0099999998 -0.15593535
-0.00056177721 -0.0099999998 -0.15567411
0.00052154029 -0.0099999998 -0.15552561
0.0016416073 -0.0099999998 -0.15560277
0.0023371773 -0.0099999998 -0.15542966
0.0036004863 -0.0099999998 -0.15543614
0.0042408803 -0.0099999998 -0.15582597
0.0056434651 -0.0099999988 -0.15538232
0.0065967795 -0.0099999998 -0.15567812
0.0074489508 -0.0099999998 -0.15542117
0.0084140077 -0.0099999998 -0.15560795
0.009706595 -0.0096473033 -0.1554687
-0.0099999988 -0.008532647 -0.15554067
0.0099999998 -0.0085592391 -0.15540159
-0.0099999998 -0.0073261457 -0.15544347
0.0099999998 -0.0073453463 -0.15549713
-0.0099999988 -0.0065364935 -0.15560722
0.0099999998 -0.0063348198 -0.1554676
-0.0099999998 -0.0056036152 -0.15542555
0.0099999998 -0.0056638308 -0.15588181
-0.0099999998 -0.0047408356 -0.15555726
0.0099999998 -0.0043100081 -0.15538147
-0.0099999998 -0.0033933572 -0.15545999
0.0099999998 -0.0031696504 -0.15507071
-0.0099999998 -0.0023972266 -0.1557568
0.0099999998 -0.0025234984 -0.15559755
-0.0099999998 -0.0013912176 -0.15574041
0.0099999998 -0.0017238562 -0.15552683
-0.0099999998 -0.00050353131 -0.15569583
0.0099999998 -0.00041034096 -0.15557961
-0.0099999998 0.00094216247 -0.15558645
0.0099999998 0.00047890574 -0.15560949
-0.0099999998 0.0017281849 -0.15551747
0.0099999998 0.001318679 -0.15571351
-0.0099999998 0.0026461519 -0.15538009
0.0099999998 0.0024377264 -0.15546088
-0.0099999998 0.0033157375 -0.15577
0.0099999998 0.0034358457 -0.15550454
-0.0099999998 0.004489088 -0.15561098
0.0099999998 0.0044850796 -0.15549219
-0.0099999998 0.0053473804 -0.15565811
0.0099999998 0.0055519501 -0.15556934
-0.0099999998 0.006572945 -0.15572263
0.0099999998 0.0068107927 -0.15593049
-0.0099999998 0.007588116 -0.15559445
0.0099999998 0.0076759099 -0.15567017
-0.0099999998 0.0086196177 -0.15555215
0.0099999998 0.0085076224 -0.15534502
-0.0098228129 0.0096817035 -0.15568657
-0.00850295 0.0099999998 -0.15549983
-0.0076363022 0.0099999998 -0.1554054
-0.0066220183 0.0099999998 -0.1553939
-0.0055250716 0.0099999998 -0.15566802
-0.0045085875 0.0099999998 -0.15553696
-0.0033685672 0.0099999998 -0.15555081
-0.0026884249 0.0099999998 -0.15523002
-0.0012950805 0.0099999998 -0.15551692
-0.00063251099 0.0099999998 -0.15521185
0.00058025523 0.0099999998 -0.1554216
0.0014912895 0.0099999998 -0.15520291
0.0023966813 0.0099999998 -0.15546626
0.0039071906 0.0099999998 -0.15520988
0.0046194629 0.0099999998 -0.15558615
0.0052478677 0.0099999998 -0.15559317
0.0064021074 0.0099999998 -0.15563169
0.0074458607 0.0099999998 -0.1557498
0.0086932145 0.0099999998 -0.15539353
0.0099999998 0.0094589805 -0.15553212
0.0070402324 0.010000001 -0.15592979
-0.0097156353 -0.009657694 -0.15457463
-0.0085715093 -0.0099999998 -0.15446822
-0.007421562 -0.0099999998 -0.15438652
-0.0065929564 -0.0099999998 -0.15457311
-0.0054106261 -0.0099999998 -0.15443537
-0.0045797206 -0.0099999998 -0.15444593
-0.0034272156 -0.0099999998 -0.15470266
-0.0028108978 -0.0099999998 -0.15452525
-0.001457465 -0.0099999998 -0.15472542
-0.00047280052 -0.0099999998 -0.15482956
0.00060138339 -0.0099999998 -0.15455338
0.001683083 -0.0099999998 -0.15415305
0.0027667894 -0.0099999998 -0.15455468
0.0035576145 -0.0099999998 -0.1544978
0.0042539071 -0.0099999998 -0.15476291
0.0053544766 -0.0099999998 -0.15478408
0.0063958867 -0.0099999998 -0.15437679
0.0074408078 -0.0099999998 -0.15431963
0.0083640795 -0.0099999998 -0.15468267
0.009531457 -0.0099999998 -0.15440038
-0.0099999998 -0.0087103955 -0.15473709
0.0099999998 -0.0081448704 -0.15467787
-0.0099999998 -0.007481751 -0.15446806
0.0099999998 -0.0075847902 -0.15433073
-0.0099999998 -0.0065344665 -0.15456121
0.0099999998 -0.006281218 -0.15429245
-0.0099999998 -0.0053632678 -0.15458526
0.0099999998 -0.0053973831 -0.15424848
-0.0099999998 -0.0045303069 -0.15460747
0.0099999998 -0.0045480402 -0.15443847
-0.0099999998 -0.0034993 -0.15464401
0.0099999998 -0.0035480228 -0.15450811
-0.0099999998 -0.0028034125 -0.15463604
0.0099999998 -0.0025200574 -0.15473108
-0.0099999988 -0.0014968853 -0.15452094
0.0099999998 -0.0017405241 -0.15457959
-0.0099999998 -0.00043971612 -0.15465668
0.0099999998 -0.00076935656 -0.15456824
-0.0099999998 0.00033768531 -0.15454909
0.0099999998 0.00031714825 -0.15478228
-0.0099999998 0.0016470482 -0.15427083
0.0099999998 0.0012192173 -0.15467821
-0.0099999998 0.0024007587 -0.15415588
0.0099999998 0.002363387 -0.1544272
-0.0099999998 0.0033713018 -0.15435116
0.0099999998 0.0034553027 -0.15458621
-0.0099999998 0.0041987482 -0.15482131
0.0099999998 0.0045491941 -0.15442482
-0.0099999998 0.005372934 -0.1545139
0.0099999998 0.0058321627 -0.1542397
-0.0099999998 0.0062825754 -0.15455258
0.0099999998 0.0075398772 -0.15460542
-0.0099999998 0.0083276015 -0.15418039
0.0099999998 0.0086010238 -0.15442814
-0.0095166536 0.0098921182 -0.15439995
-0.0081737414 0.0099999998 -0.15451527
-0.0072908271 0.0099999998 -0.15448549
-0.0064327 0.0099999998 -0.15441868
-0.0057420572 0.0099999998 -0.15450272
-0.0046124943 0.0099999998 -0.15420923
-0.0034378578 0.0099999998 -0.15469232
-0.0022068238 0.0099999998 -0.15451638
-0.0016036418 0.0099999998 -0.15435047
-0.00078000169 0.0099999998 -0.15434785
0.00063712988 0.0099999998 -0.15430599
0.0012413987 0.0099999998 -0.1540703
0.0023971554 0.0099999998 -0.15457849
0.0046810322 0.0099999998 -0.15459518
0.0056259455 0.0099999998 -0.15454397
0.0066461293 0.0099999998 -0.15438817
0.0084325438 0.0099999998 -0.15440744
0.0098404093 0.0097525716 -0.1546763
0.0073871277 0.010000001 -0.15401421
-0.0097348085 -0.0098245917 -0.15364246
-0.0084180944 -0.0099999998 -0.15339932
-0.0078477003 -0.0099999998 -0.15341954
-0.00672762 -0.0099999998 -0.15357792
-0.0058161831 -0.0099999998 -0.15363066
-0.0044958103 -0.0099999998 -0.15325041
-0.0033017262 -0.0099999998 -0.15344714
-0.0025841314 -0.0099999998 -0.15357654
-0.0013486265 -0.0099999998 -0.15361664
-0.00059161911 -0.0099999998 -0.15345497
0.00013456424 -0.0099999998 -0.15387434
0.0017086727 -0.0099999998 -0.15333253
0.0037776744 -0.0099999998 -0.15371591
0.004394691 -0.0099999998 -0.1536473
0.0061585456 -0.0099999998 -0.15315047
0.0077350768 -0.0099999998 -0.15387177
0.008183389 -0.0099999998 -0.15362099
0.0097336266 -0.0098878499 -0.153488
-0.0099999998 -0.0084583219 -0.15347087
0.0099999998 -0.0086295409 -0.15336472
-0.0099999998 -0.0075774165 -0.15359062
0.0099999998 -0.0075723785 -0.15358052
0.010000001 -0.0073812045 -0.15383472
0.0099999988 -0.0063342168 -0.15344031
-0.0099999998 -0.005666642 -0.15348941
0.0099999998 -0.0055562728 -0.15328199
-0.0099999998 -0.0045967372 -0.15336379
0.0099999998 -0.0044834358 -0.15340309
0.0099999998 -0.0034647987 -0.15319741
-0.0099999998 -0.0026501922 -0.15373258
0.0099999998 -0.0025930938 -0.15359542
-0.0099999998 -0.0014784674 -0.15347058
0.0099999998 -0.0013520066 -0.1535857
-0.0099999998 -0.00059799041 -0.15341601
0.0099999998 -0.00039185147 -0.15337583
-0.0099999998 0.00035647495 -0.153228
0.0099999998 0.00046910392 -0.15346961
-0.0099999998 0.0014011586 -0.15350851
0.0099999998 0.0013588987 -0.15341824
-0.0099999998 0.0024223912 -0.1535099
0.0099999998 0.0024382691 -0.15348634
-0.0099999998 0.0035684474 -0.1534577
0.0099999998 0.0037373155 -0.15372108
-0.0099999998 0.0046275347 -0.15335219
0.0099999998 0.0045530084 -0.15354906
-0.0099999998 0.0058160713 -0.1534556
0.0099999998 0.005628746 -0.15366955
-0.0099999998 0.0064899055 -0.15351969
0.0099999998 0.0066438606 -0.15356857
-0.0099999998 0.007618513 -0.15340827
0.0099999998 0.0073992871 -0.15357322
-0.0099999998 0.0086647058 -0.15365061
0.0099999998 0.0087828254 -0.15346104
-0.0095583312 0.0099896332 -0.15341571
-0.0085105458 0.0099999998 -0.15358461
-0.0074769147 0.0099999998 -0.15343903
-0.0065754368 0.0099999988 -0.15348423
-0.0054030772 0.0099999998 -0.15328288
-0.0045487853 0.0099999998 -0.15350395
-0.0032646307 0.0099999998 -0.1532867
-0.0024985289 0.0099999998 -0.15367612
-0.0016762549 0.0099999998 -0.15340695
-0.00070860359 0.0099999998 -0.15359196
0.00044425784 0.0099999998 -0.15348201
0.0018494546 0.0099999998 -0.15356448
0.0023820605 0.0099999998 -0.15340248
0.004762359 0.0099999998 -0.15364
0.0055784611 0.0099999998 -0.1535013
0.0061677219 0.0099999998 -0.15355431
0.007541941 0.0099999998 -0.15344135
0.0083221262 0.0099999998 -0.153716
0.0098569253 0.0096191764 -0.15340905
0.0074894703 0.010000001 -0.15322091
0.0095906183 0.010000001 -0.15381059
-0.0097042294 -0.0098701185 -0.15235448
-0.0084198909 -0.0099999998 -0.15238686
-0.0077996994 -0.0099999998 -0.15236272
-0.0063775205 -0.0099999988 -0.15267502
-0.0056065852 -0.0099999998 -0.15261364
-0.0044328258 -0.0099999998 -0.15259334
-0.0035868171 -0.0099999998 -0.15208383
-0.002293217 -0.0099999998 -0.15269625
-0.0016038049 -0.0099999998 -0.15207897
-0.00070674228 -0.0099999998 -0.15227708
0.00038889897 -0.0099999998 -0.1523677
0.0015903807 -0.0099999998 -0.15247506
0.0021688039 -0.0099999998 -0.1525462
0.0034883944 -0.0099999998 -0.15260269
0.0043743346 -0.0099999998 -0.15218246
0.005709629 -0.0099999998 -0.15214309
0.0064589302 -0.0099999998 -0.1526358
0.0073746997 -0.0099999998 -0.15264487
0.0085924808 -0.0099999988 -0.15239704
0.0098832697 -0.0095743118 -0.1526264
-0.0099999998 -0.0083345724 -0.15241335
0.0099999998 -0.0085429549 -0.15250641
-0.0099999998 -0.0075126658 -0.15243137
0.0099999998 -0.007609088 -0.15254115
-0.0099999998 -0.0065131355 -0.1523629
0.0099999998 -0.0061459327 -0.15291004
-0.0099999998 -0.0054957648 -0.15256095
0.0099999998 -0.0055972855 -0.1525591
-0.0099999988 -0.004294422 -0.1524874
0.0099999998 -0.0043992605 -0.15263598
-0.0099999998 -0.0034124972 -0.1525107
0.0099999998 -0.0032990065 -0.15209192
-0.0099999998 -0.0025497987 -0.15259899
0.0099999998 -0.0024725017 -0.15269527
-0.0099999998 -0.0017383425 -0.15244645
0.0099999998 -0.001433486 -0.15257174
-0.0099999998 -0.00061353657 -0.15263309
0.0099999998 -0.00058785517 -0.15222062
-0.0099999998 0.00073895871 -0.15246809
0.0099999998 0.00055618724 -0.15240811
-0.0099999998 0.0016007351 -0.15272532
0.0099999998 0.0013543356 -0.15270193
-0.0099999988 0.0023887132 -0.15249006
-0.0099999998 0.0034299288 -0.15206765
0.0099999998 0.0034197909 -0.15246134
-0.0099999998 0.0045025996 -0.15251787
0.0099999998 0.0045140223 -0.15243663
-0.0099999998 0.0055973241 -0.15225391
0.0099999998 0.0052077677 -0.15243655
-0.0099999998 0.0062336344 -0.15247941
0.0099999998 0.0062643746 -0.1525363
-0.0099999998 0.0075120344 -0.15256087
0.0099999998 0.0074542155 -0.15269713
-0.0099999998 0.0082694292 -0.15237229
0.0099999998 0.0085997786 -0.15259556
-0.0098557202 0.0097348262 -0.15261571
-0.0081437873 0.0099999998 -0.15271923
-0.0074161924 0.0099999998 -0.15232179
-0.0065405462 0.0099999998 -0.1525871
-0.00534245 0.0099999998 -0.15257412
-0.0044625457 0.0099999998 -0.1521042
-0.0036100706 0.0099999998 -0.15231295
-0.0023388877 0.0099999998 -0.15249538
-0.0015951471 0.0099999998 -0.15224755
-0.00055913086 0.0099999998 -0.15235882
0.00032287947 0.0099999998 -0.15255705
0.0012245532 0.0099999998 -0.15228897
0.0026836616 0.0099999998 -0.15268332
0.0034334001 0.0099999998 -0.15245698
0.0042274077 0.0099999998 -0.15236336
0.0051645264 0.0099999998 -0.15254457
0.0066178418 0.0099999998 -0.15285335
0.0072983988 0.0099999998 -0.1526272
0.0086949449 0.0099999998 -0.15244104
0.0099029345 0.009616035 -0.15241133
-0.0099365143 -0.0096624754 -0.15171865
-0.0087414002 -0.0099999998 -0.15169743
-0.0075924136 -0.0099999998 -0.15137146
-0.0063126683 -0.0099999998 -0.15126017
-0.0054021687 -0.0099999998 -0.15119126
-0.0046648099 -0.0099999998 -0.15145171
-0.0031779949 -0.0099999998 -0.15144464
-0.0025528686 -0.0099999998 -0.1515988
-0.0013619282 -0.0099999998 -0.15182064
-0.00035056932 -0.0099999998 -0.1514661
0.00082901318 -0.0099999998 -0.15112643
0.0016332705 -0.0099999998 -0.15135871
0.0025172736 -0.0099999998 -0.15179226
0.0031501302 -0.0099999998 -0.1511957
0.0041072024 -0.0099999998 -0.15161338
0.005321952 -0.0099999998 -0.15171006
0.0062073348 -0.0099999998 -0.15145057
0.0076542716 -0.0099999998 -0.15178762
0.0084561594 -0.0099999998 -0.15128902
0.009764378 -0.009599355 -0.15138353
-0.0099999998 -0.0086598322 -0.15148753
0.0099999998 -0.0087562278 -0.15150386
-0.0099999998 -0.0075242594 -0.15153222
0.0099999998 -0.0076523684 -0.15172242
0.010000001 -0.0078616161 -0.15118077
-0.0099999998 -0.006295749 -0.15142034
0.0099999998 -0.0065410812 -0.15145275
-0.0099999998 -0.0056105633 -0.15130372
0.0099999998 -0.0055112797 -0.15156698
-0.0099999998 -0.0043590129 -0.15138085
0.0099999998 -0.0044952328 -0.15137374
-0.0099999998 -0.0039980053 -0.15141118
0.0099999998 -0.0035388316 -0.15110907
-0.0099999998 -0.0027025826 -0.15122597
0.0099999998 -0.0023032394 -0.15107433
-0.0099999998 -0.0015584073 -0.15160879
0.0099999998 -0.0016280469 -0.15130168
-0.0099999998 -0.00014091283 -0.15196808
0.0099999998 -0.00041081762 -0.15138239
-0.0099999988 0.00044239269 -0.15145811
0.0099999998 0.00050847861 -0.15184742
-0.0099999998 0.0015094697 -0.15136932
0.0099999998 0.0019433128 -0.15125275
-0.0099999998 0.0024705043 -0.15121126
0.0099999998 0.0026594452 -0.15164325
-0.0099999998 0.0037085742 -0.15110829
0.0099999998 0.003597345 -0.15113077
-0.0099999998 0.0044201845 -0.15159626
0.0099999998 0.0045229653 -0.15143862
-0.0099999998 0.0056844861 -0.15159748
0.0099999998 0.0055770506 -0.15170424
0.0099999998 0.0062943981 -0.15149865
-0.0099999998 0.0074757896 -0.1514765
0.0099999998 0.0074239271 -0.15169634
-0.0099999998 0.0084639788 -0.15134057
0.0099999998 0.0088197207 -0.15160446
-0.0096358247 0.0097991377 -0.15134372
-0.0083534326 0.0099999998 -0.15190366
-0.0075950013 0.0099999998 -0.15157811
-0.00655752 0.0099999998 -0.15130819
-0.00553582 0.0099999998 -0.15126926
-0.0042732963 0.0099999998 -0.15143792
-0.0035915095 0.0099999998 -0.15130457
-0.0024200892 0.0099999998 -0.15181784
-0.001079717 0.0099999998 -0.15182447
-0.00076272275 0.0099999998 -0.15147567
0.00044810504 0.0099999998 -0.15163198
0.0015447056 0.0099999998 -0.15145583
0.0024980092 0.0099999998 -0.15118897
0.0034097012 0.0099999998 -0.15166894
0.0043799942 0.0099999998 -0.1515864
0.0054819286 0.0099999988 -0.15138024
0.0061744438 0.0099999998 -0.15184264
0.0072253523 0.0099999998 -0.15124233
0.0083566606 0.0099999998 -0.15101732
0.0099641494 0.0099053979 -0.15138447
-0.0098002888 -0.0097767543 -0.15041763
-0.0086208349 -0.0099999998 -0.15030223
-0.0077712066 -0.0099999998 -0.15053587
-0.0063945777 -0.0099999998 -0.15059784
-0.004756595 -0.0099999998 -0.15060082
-0.0035959869 -0.0099999998 -0.1506134
-0.0025322067 -0.0099999998 -0.15008235
-0.0017293289 -0.0099999998 -0.15054193
-0.00036986219 -0.0099999998 -0.15090191
0.00056017836 -0.0099999998 -0.15054068
0.0015296637 -0.0099999998 -0.15032861
0.0023966231 -0.0099999998 -0.15031102
0.0033178588 -0.0099999998 -0.15014589
0.0043146992 -0.0099999998 -0.15058607
0.0052713202 -0.0099999998 -0.15092334
0.0064748274 -0.0099999998 -0.1506395
0.0073105968 -0.0099999988 -0.15036802
0.0085535031 -0.0099999998 -0.15026894
0.0097505925 -0.0098746428 -0.15041693
-0.0099999998 -0.0084999595 -0.15047634
0.0099999998 -0.0083134389 -0.15029004
-0.0099999998 -0.0073425188 -0.15066025
0.0099999998 -0.0073088352 -0.15049595
-0.0099999998 -0.0063841059 -0.15054101
0.0099999998 -0.0065495311 -0.15045226
-0.0099999998 -0.0058048773 -0.15005891
0.0099999998 -0.0052722488 -0.15053074
-0.0099999998 -0.0045960634 -0.15038931
0.0099999998 -0.0048318431 -0.15057987
-0.0099999998 -0.0033990727 -0.15066253
0.0099999998 -0.0034834989 -0.15059242
-0.0099999998 -0.0020267875 -0.15003292
0.0099999998 -0.0027050911 -0.15088432
-0.0099999998 -0.0015084477 -0.15034448
0.0099999998 -0.0014957726 -0.15024404
-0.0099999998 -0.00017498787 -0.15044203
0.0099999998 -0.00045684859 -0.15075806
-0.0099999998 0.00028959208 -0.15053
0.0099999988 0.00053221465 -0.15047273
-0.0099999998 0.001280572 -0.15039688
0.0099999998 0.0012915374 -0.15069881
-0.0099999998 0.0025394512 -0.15055236
0.0099999998 0.002469115 -0.15046993
-0.0099999998 0.0033697679 -0.15043715
0.0099999998 0.0035888297 -0.1503763
-0.0099999998 0.0043259501 -0.15068132
0.0099999998 0.0046074335 -0.15024789
-0.0099999998 0.0055787633 -0.15038121
0.0099999998 0.0054891659 -0.15057173
-0.0099999998 0.0065571703 -0.15064782
0.0099999998 0.0066213063 -0.15033671
-0.0099999998 0.0075279227 -0.15055546
0.0099999998 0.0079467287 -0.15011618
-0.0099999998 0.0084891552 -0.15059112
0.0099999998 0.0084593706 -0.15086526
-0.0095395856 0.0098448507 -0.1505371
-0.0083094425 0.0099999998 -0.15043011
-0.0076661156 0.0099999998 -0.15064734
-0.0063473801 0.0099999998 -0.15059587
-0.0054792785 0.0099999998 -0.15037215
-0.0045698145 0.0099999998 -0.15039836
-0.0033702708 0.0099999998 -0.15061823
-0.0024234802 0.0099999998 -0.1501966
-0.0012848496 0.0099999998 -0.15045631
-0.00074764399 0.0099999998 -0.15084094
0.00033091713 0.0099999998 -0.15052426
0.0017295822 0.0099999998 -0.15037802
0.0027433173 0.0099999998 -0.15046349
0.0035097711 0.0099999998 -0.15052432
0.0055151964 0.0099999998 -0.15064304
0.006479119 0.0099999998 -0.15079626
0.0073314849 0.0099999998 -0.15041943
0.0083243484 0.0099999998 -0.15049839
0.0098797195 0.0095902793 -0.1505293
-0.00996124 0.010000001 -0.1502693
-0.0097972555 -0.0098578772 -0.14944658
-0.0087725092 -0.0099999998 -0.14985856
-0.0072923438 -0.0099999998 -0.14942077
-0.0062169554 -0.0099999998 -0.14920668
-0.005184215 -0.0099999998 -0.14948139
-0.0044969078 -0.0099999998 -0.14946195
-0.003266531 -0.0099999998 -0.14960566
-0.0026124008 -0.0099999998 -0.14962023
-0.0014116392 -0.0099999998 -0.14968038
-0.00023973326 -0.0099999998 -0.14954236
0.00075949944 -0.0099999998 -0.14948472
0.0017291703 -0.0099999998 -0.14913936
0.0025090813 -0.0099999998 -0.14946204
0.0037653283 -0.0099999998 -0.14948264
0.0045194728 -0.0099999998 -0.14949308
0.0053970637 -0.0099999998 -0.14916065
0.0066086901 -0.0099999998 -0.14957097
0.0077932943 -0.0099999998 -0.14945282
0.0084679713 -0.0099999998 -0.14947003
0.0096910624 -0.0095043462 -0.14944942
-0.0099999998 -0.0085872291 -0.14950532
0.0099999998 -0.0088017154 -0.14916986
-0.0099999998 -0.0072384253 -0.1494963
0.0099999998 -0.0075716069 -0.14927369
-0.0099999998 -0.006278473 -0.14914714
-0.0099999998 -0.0056555355 -0.14950776
0.0099999998 -0.0054635946 -0.1493876
-0.0099999998 -0.0042286604 -0.14941171
0.0099999998 -0.0040981583 -0.14930406
-0.0099999998 -0.0033184355 -0.14930508
0.0099999998 -0.0034288368 -0.14942655
-0.0099999998 -0.0022330517 -0.14946139
0.0099999998 -0.0026552435 -0.14971161
-0.0099999998 -0.0016569998 -0.14980695
0.0099999998 -0.0014031883 -0.14957199
-0.0099999998 -0.00026977772 -0.14976327
0.0099999998 -0.00021433318 -0.14944497
-0.0099999998 0.00046588806 -0.14961044
0.0099999998 0.00051317218 -0.14958932
-0.0099999998 0.0015632728 -0.14962736
0.0099999998 0.0013549493 -0.14959367
-0.0099999998 0.0024483684 -0.149684
0.0099999988 0.0025676743 -0.14936045
-0.0099999998 0.0036031576 -0.14961562
0.0099999998 0.0035200014 -0.14952502
-0.0099999998 0.0049218219 -0.14977497
0.0099999998 0.0045826836 -0.14929432
-0.0099999998 0.0054605133 -0.14962845
0.0099999998 0.005239903 -0.14946711
-0.0099999998 0.0063308123 -0.1496696
0.0099999998 0.0063952431 -0.14929166
-0.0099999998 0.0076221069 -0.14927846
0.0099999998 0.0075482456 -0.1496277
-0.0099999998 0.0086124316 -0.14956686
0.0099999998 0.0085575264 -0.149344
-0.0097765913 0.0098055135 -0.14962664
-0.0084706182 0.0099999998 -0.14943516
-0.0076127294 0.0099999998 -0.14924332
-0.0065000914 0.0099999998 -0.14931124
-0.0055518388 0.0099999998 -0.14949846
-0.0043875487 0.0099999998 -0.14963701
-0.0026443708 0.0099999998 -0.14972809
-0.0014362441 0.0099999998 -0.1498109
-0.0005493256 0.0099999998 -0.14916925
0.00035481734 0.0099999998 -0.14961815
0.0014646513 0.0099999998 -0.14949755
0.0029495696 0.0099999998 -0.14957768
0.0034163077 0.0099999998 -0.14946978
0.0042000925 0.0099999998 -0.14951783
0.0052651316 0.0099999998 -0.1496776
0.0069315229 0.0099999998 -0.1497689
0.0076883896 0.0099999998 -0.14958267
0.0085784048 0.0099999998 -0.14968669
0.0098089408 0.0096883643 -0.14944883
0.0095226094 0.010000001 -0.14944266
-0.0099300724 -0.009875414 -0.14852749
-0.0086012669 -0.0099999998 -0.14841023
-0.0075661391 -0.0099999998 -0.14832515
-0.0065556448 -0.0099999998 -0.1485936
-0.0056439703 -0.0099999998 -0.14871192
-0.0047438769 -0.0099999998 -0.14865875
-0.0032692999 -0.0099999998 -0.14858364
-0.0029369923 -0.0099999998 -0.14847535
-0.0013413548 -0.0099999998 -0.14858641
-0.0004211904 -0.0099999998 -0.14866239
0.00065931299 -0.0099999998 -0.14831956
0.0014132685 -0.0099999998 -0.14858362
0.0027089792 -0.0099999998 -0.14840123
0.0034669293 -0.0099999998 -0.14840011
0.0045085661 -0.0099999998 -0.14832595
0.0054411534 -0.0099999998 -0.14888173
0.0068016239 -0.0099999998 -0.14817128
0.0074931066 -0.0099999998 -0.14842498
0.0084838513 -0.0099999998 -0.14822905
0.0098575 -0.0098278886 -0.14849758
-0.0099999998 -0.0083718756 -0.14866382
0.0099999998 -0.0085546309 -0.14854348
-0.0099999998 -0.0074315458 -0.14851117
0.0099999998 -0.0074032247 -0.14853491
-0.0099999998 -0.0065241056 -0.14851122
0.0099999998 -0.0066311723 -0.14831793
-0.0099999998 -0.0055148774 -0.14860119
0.0099999998 -0.0055996864 -0.14842489
-0.0099999998 -0.0045057847 -0.14855897
0.0099999998 -0.0046795383 -0.14873648
-0.0099999998 -0.0035150743 -0.14840725
0.0099999998 -0.0035324774 -0.14853474
-0.0099999998 -0.0022223406 -0.14878118
0.0099999998 -0.0027332823 -0.14861143
-0.0099999998 -0.0012457843 -0.14824428
0.0099999998 -0.0015604319 -0.148911
-0.0099999998 -0.00074823049 -0.14878613
0.0099999998 -0.00038120337 -0.14820904
-0.0099999998 0.00066261296 -0.14831081
0.0099999998 0.00070676603 -0.14847729
-0.0099999998 0.0015411186 -0.14872606
0.0099999998 0.001321533 -0.14850351
-0.0099999998 0.0023788516 -0.14847787
0.0099999998 0.0026835322 -0.14839602
-0.0099999998 0.0033590111 -0.14837617
0.0099999998 0.0035881903 -0.14873117
-0.0099999998 0.0045275362 -0.14868098
0.0099999998 0.0043010749 -0.14855719
-0.0099999998 0.0053566876 -0.1482535
0.0099999998 0.0055797473 -0.14843445
-0.0099999998 0.0063044047 -0.14872751
0.0099999998 0.0064677023 -0.14861254
-0.0099999998 0.0075362558 -0.14867769
0.0099999998 0.0075228466 -0.14829251
-0.0099999998 0.0086371228 -0.14832658
0.0099999998 0.0084242597 -0.14830957
-0.0096317781 0.0096666012 -0.14857236
-0.0083714314 0.0099999998 -0.14870107
-0.0074453503 0.0099999998 -0.14856364
-0.0064537553 0.0099999998 -0.14834997
-0.0056344429 0.0099999998 -0.14850894
-0.0044892542 0.0099999998 -0.14857811
-0.0034127911 0.0099999998 -0.14864185
-0.0023787892 0.0099999998 -0.14868033
-0.0018847882 0.0099999998 -0.14842127
-0.00025791879 0.0099999998 -0.14851759
0.00091613573 0.0099999998 -0.14829633
0.0014409957 0.0099999998 -0.14836453
0.0024893247 0.0099999998 -0.1482937
0.0032458487 0.0099999998 -0.14829761
0.0045866393 0.0099999998 -0.14865407
0.005453039 0.0099999998 -0.14858887
0.0062051518 0.0099999998 -0.14856796
0.007276745 0.0099999998 -0.14833868
0.0084977001 0.0099999998 -0.14840104
0.0099838581 0.0095878905 -0.14842534
0.0075704316 0.010000001 -0.14806388
-0.0098491609 -0.0097780069 -0.14754838
-0.0083574094 -0.0099999998 -0.14745088
-0.0074925357 -0.0099999998 -0.14772807
-0.0064726374 -0.0099999998 -0.14781442
-0.0054793623 -0.0099999998 -0.14737637
-0.0045386013 -0.0099999998 -0.14767328
-0.0032538148 -0.0099999998 -0.14718199
-0.0025823414 -0.0099999998 -0.14744979
-0.0013408433 -0.0099999998 -0.14771478
-0.00061225583 -0.0099999998 -0.1473286
0.00059462438 -0.0099999998 -0.14760476
0.0011229718 -0.0099999998 -0.1472995
0.0026590712 -0.0099999998 -0.14753991
0.0034707186 -0.0099999998 -0.14766513
0.0046586809 -0.0099999998 -0.14778942
0.0052547841 -0.0099999998 -0.1473397
0.0066025062 -0.0099999998 -0.14720611
0.0076483488 -0.0099999998 -0.1473279
0.0087122973 -0.0099999998 -0.1477832
0.0098199658 -0.0096747186 -0.14734496
-0.0099999998 -0.0082186032 -0.14756928
0.0099999998 -0.0086677782 -0.14744377
0.010000001 -0.0082010347 -0.14727843
-0.0099999998 -0.0076824483 -0.14710557
0.0099999998 -0.0074221017 -0.14774072
-0.0099999998 -0.006564863 -0.14742462
0.0099999998 -0.0064384099 -0.14733124
-0.0099999998 -0.005470885 -0.14713946
0.0099999998 -0.0054841638 -0.14742421
-0.0099999998 -0.004610125 -0.14736247
0.0099999998 -0.0041653863 -0.14767368
-0.0099999998 -0.0032917766 -0.14796695
0.0099999998 -0.0035511269 -0.14741254
-0.0099999998 -0.0023489418 -0.14768523
-0.0099999998 -0.0016034094 -0.14772387
0.0099999988 -0.0013804137 -0.1475267
-0.0099999998 -0.00052949216 -0.1476506
0.0099999998 -0.00055964163 -0.14706644
-0.0099999998 0.00037350369 -0.14742805
0.0099999998 0.00062081922 -0.14782816
-0.0099999998 0.0014480173 -0.14751168
0.0099999998 0.0012779521 -0.14736095
-0.0099999998 0.002575845 -0.14747195
0.0099999998 0.0022859615 -0.14745426
-0.0099999998 0.0035840906 -0.14767972
0.0099999998 0.0036652954 -0.14721295
-0.0099999998 0.0042825621 -0.14739023
0.0099999998 0.0044734012 -0.1475604
-0.0099999998 0.0059115579 -0.14741582
0.0099999998 0.0052761678 -0.14738683
-0.0099999998 0.0064513101 -0.14718851
0.0099999998 0.0068497509 -0.14781754
-0.0099999998 0.007944569 -0.14793605
0.0099999998 0.0075367689 -0.14733273
-0.0099999998 0.0084897 -0.14733891
0.0099999998 0.0082806312 -0.14752159
-0.009622287 0.0098778419 -0.14741547
-0.0083753997 0.0099999998 -0.14745648
-0.0077193566 0.0099999998 -0.14749902
-0.0063919602 0.0099999998 -0.14758986
-0.0056386041 0.0099999998 -0.14757305
-0.0043713804 0.0099999998 -0.14749408
-0.003285422 0.0099999998 -0.14749762
-0.0026413507 0.0099999998 -0.14745796
-0.0014448651 0.0099999998 -0.1473271
-0.00041158567 0.0099999998 -0.14732686
0.00059175317 0.0099999998 -0.1477969
0.0027219439 0.0099999998 -0.14732631
0.0035216725 0.0099999998 -0.14744183
0.0046534259 0.0099999998 -0.14752315
0.005422852 0.0099999998 -0.14772156
0.0068417066 0.0099999998 -0.14760196
0.0072648996 0.0099999998 -0.14738192
0.0088658445 0.0099999998 -0.14730686
0.0099999998 0.0093031656 -0.14738891
0.0084984582 0.010000001 -0.14708199
-0.0099115623 -0.0098339943 -0.1464387
-0.0081540067 -0.0099999998 -0.14649791
-0.0078190062 -0.0099999998 -0.14674079
-0.0061541121 -0.0099999998 -0.14634094
-0.0053461441 -0.0099999998 -0.14649355
-0.0045522163 -0.0099999998 -0.14656328
-0.0033506388 -0.0099999988 -0.14667098
-0.0025396852 -0.0099999998 -0.14627713
-0.00040962143 -0.0099999998 -0.14663327
0.00017204613 -0.0099999998 -0.14656928
0.0015169989 -0.0099999998 -0.1465475
0.002468979 -0.0099999998 -0.14629343
0.0037772618 -0.0099999998 -0.14672193
0.0045616999 -0.0099999998 -0.14681925
0.0052590035 -0.0099999998 -0.1464761
0.0064151501 -0.0099999998 -0.14631578
0.0074403374 -0.0099999998 -0.14641094
0.0085508078 -0.0099999998 -0.14657286
0.0095351944 -0.0097777974 -0.14659816
-0.0099999998 -0.0080160685 -0.14615242
0.0099999998 -0.0082504787 -0.14631435
-0.0099999998 -0.0075877514 -0.14641115
0.0099999998 -0.0075012306 -0.14658767
-0.0099999998 -0.0066003795 -0.14663917
0.0099999998 -0.006514187 -0.14653057
0.010000001 -0.0069255447 -0.14635442
-0.0099999998 -0.0055065542 -0.14679001
0.0099999998 -0.005723008 -0.1468111
-0.0099999998 -0.0044450774 -0.14660655
0.0099999998 -0.0044929571 -0.14674649
-0.0099999988 -0.0035262601 -0.14648786
0.0099999998 -0.0035522634 -0.1468011
-0.0099999998 -0.0026634259 -0.14670341
0.0099999998 -0.0024714503 -0.14649083
-0.0099999998 -0.0015863264 -0.14655003
0.0099999998 -0.0016238213 -0.14648682
-0.0099999998 -0.00053075695 -0.14641765
0.0099999998 -0.0006408685 -0.14647233
-0.0099999998 0.00049439154 -0.14665088
0.0099999998 0.00047165481 -0.14667605
-0.0099999998 0.0013050166 -0.14652567
0.0099999998 0.0014056891 -0.14649795
-0.0099999998 0.0024916225 -0.14625594
0.0099999998 0.0020913689 -0.14638035
-0.0099999998 0.0032748883 -0.14630465
0.0099999998 0.0034190358 -0.14647463
-0.0099999998 0.0044984845 -0.14637163
0.0099999998 0.0043899035 -0.14647338
-0.0099999998 0.0053713168 -0.14658324
0.0099999998 0.0054388228 -0.14677835
-0.0099999998 0.0064933123 -0.14652228
0.0099999998 0.006908848 -0.14635657
-0.0099999998 0.0070649777 -0.14637583
0.0099999998 0.0073074028 -0.14643282
-0.0099999998 0.0085465834 -0.1464252
0.0099999998 0.008608928 -0.14633772
-0.0099999998 0.0097832689 -0.14676803
-0.0084777493 0.0099999998 -0.14640589
-0.0071543436 0.0099999998 -0.14677706
-0.0065087099 0.0099999998 -0.14641719
-0.0050543086 0.0099999998 -0.14616056
-0.0048886347 0.0099999998 -0.14659405
-0.0032856949 0.0099999998 -0.14651403
-0.0022408818 0.0099999998 -0.14664699
-0.0014043582 0.0099999998 -0.14623693
-0.00045958156 0.0099999988 -0.14642479
0.00059417915 0.0099999998 -0.14686291
0.001097637 0.0099999998 -0.14630297
0.0022596093 0.0099999998 -0.14646779
0.0037345064 0.0099999998 -0.14645836
0.0043618144 0.0099999998 -0.14659727
0.0055226889 0.0099999998 -0.14627109
0.0064168349 0.0099999998 -0.14673489
0.0076023163 0.0099999998 -0.14650258
0.0087220585 0.0099999998 -0.14665812
0.0098100333 0.0096239699 -0.14671406
-0.0097294636 -0.0098990649 -0.14566725
-0.0072714873 -0.0099999998 -0.1458146
-0.0066147568 -0.0099999998 -0.1454539
-0.0052814041 -0.0099999998 -0.14547476
-0.0046727313 -0.0099999998 -0.14571801
-0.0037785571 -0.0099999998 -0.1453824
-0.002520649 -0.0099999998 -0.14532427
-0.0012543653 -0.0099999998 -0.14530975
-0.00040516979 -0.0099999998 -0.14536497
0.00046511804 -0.0099999998 -0.1457371
0.001384335 -0.0099999998 -0.14543013
0.0035585519 -0.0099999988 -0.14548203
0.0043209186 -0.0099999998 -0.14563513
0.0055519426 -0.0099999998 -0.14549914
0.0065433932 -0.0099999998 -0.1454429
0.0074055362 -0.0099999998 -0.14569157
0.0086849844 -0.0099999998 -0.14565323
0.0094832089 -0.0099315345 -0.14551371
0.0099999998 -0.0085192015 -0.14560668
-0.0099999998 -0.0075435801 -0.1453988
0.0099999998 -0.0074190162 -0.14571445
-0.0099999998 -0.0066917976 -0.14569822
0.0099999998 -0.0064556506 -0.14521989
-0.0099999998 -0.0054000821 -0.14550188
0.0099999998 -0.0058023883 -0.14556369
-0.0099999998 -0.0044720694 -0.14535268
0.0099999998 -0.0042884191 -0.14565842
-0.0099999998 -0.0033917304 -0.14579299
0.0099999998 -0.0033716883 -0.14547877
-0.0099999998 -0.002495494 -0.14545599
0.0099999998 -0.0027564671 -0.14549705
-0.0099999998 -0.0014916675 -0.14549516
0.0099999998 -0.0015349031 -0.14503586
-0.0099999998 -0.00050946232 -0.14556615
0.0099999998 -0.00072620611 -0.14550272
-0.0099999998 0.00051424839 -0.14556149
0.0099999998 0.00038615812 -0.1456252
-0.0099999988 0.0013967883 -0.1455847
0.0099999998 0.0017466814 -0.14534947
-0.0099999998 0.0025700582 -0.14549851
0.0099999998 0.0025434589 -0.14551547
-0.0099999998 0.0031119469 -0.14512081
0.0099999998 0.00354722 -0.14538173
-0.0099999998 0.0041608713 -0.14538424
0.0099999998 0.0044865813 -0.14553918
-0.0099999998 0.0059230141 -0.14528033
0.0099999998 0.0052248002 -0.1455327
-0.0099999998 0.0065881675 -0.14537922
-0.0099999998 0.0076394305 -0.14548579
0.0099999998 0.0074282279 -0.14583807
-0.0099999998 0.0086526172 -0.14525005
0.0099999998 0.0086769322 -0.14573792
-0.0098459003 0.0095506627 -0.14559639
-0.0083888834 0.0099999988 -0.14536873
-0.0074301246 0.0099999998 -0.14536047
-0.0063456548 0.0099999998 -0.14579612
-0.0056381277 0.0099999998 -0.14553231
-0.0040107914 0.0099999998 -0.14534427
-0.0032296032 0.0099999998 -0.14527264
-0.0026094904 0.0099999998 -0.14534774
-0.0016196379 0.0099999998 -0.14554757
-0.00035773145 0.0099999998 -0.1456798
0.00054503646 0.0099999998 -0.1457521
0.0015317013 0.0099999998 -0.1455898
0.0020542135 0.0099999998 -0.1455469
0.0031882131 0.0099999998 -0.14525972
0.0044188569 0.0099999998 -0.14563081
0.0053837188 0.0099999998 -0.14559115
0.0062784227 0.0099999998 -0.14531526
0.0076511977 0.0099999998 -0.14549589
0.0086589158 0.0099999998 -0.1459161
0.0095586982 0.0096757263 -0.14539021
0.0091730393 0.010000001 -0.14527361
-0.0097838258 -0.009804395 -0.14446095
-0.0086585153 -0.0099999998 -0.14438315
-0.0076571219 -0.0099999998 -0.14442915
-0.0065434598 -0.0099999998 -0.14443223
-0.00537347 -0.0099999998 -0.14443174
-0.0049090022 -0.0099999998 -0.14469801
-0.0033582065 -0.0099999998 -0.14464733
-0.0022307304 -0.0099999998 -0.14479062
-0.0014735262 -0.0099999998 -0.14453371
-0.00052755605 -0.0099999998 -0.14439213
0.00039901276 -0.0099999998 -0.14456549
0.0018406382 -0.0099999998 -0.14448208
0.0025765756 -0.0099999998 -0.14453082
0.0034214202 -0.0099999998 -0.14430016
0.0045552664 -0.0099999998 -0.1447477
0.0065325066 -0.0099999998 -0.1449448
0.0075151562 -0.0099999998 -0.14436878
0.008462376 -0.0099999998 -0.14453177
0.0099411318 -0.0096173361 -0.14480777
-0.0099999998 -0.008212815 -0.14438316
0.0099999998 -0.0084312214 -0.14415
-0.0099999998 -0.007389687 -0.14442988
0.0099999998 -0.0075150188 -0.14444336
-0.0099999998 -0.0066368543 -0.144343
0.0099999988 -0.006509305 -0.14453474
0.0099999998 -0.0055189831 -0.14452018
-0.0099999998 -0.0047899452 -0.14491653
0.0099999998 -0.0045627858 -0.14462885
-0.0099999998 -0.003583645 -0.14474824
0.0099999998 -0.0037346489 -0.14440869
-0.0099999998 -0.0025335331 -0.14475045
0.0099999998 -0.0027504375 -0.14435971
-0.0099999998 -0.0014078913 -0.14453392
0.0099999998 -0.0013988009 -0.1445808
-0.0099999998 -0.00045928714 -0.14453922
0.0099999998 -0.00069770101 -0.14447388
-0.0099999998 9.9768979e-05 -0.14476359
0.0099999998 0.00056148489 -0.14457619
-0.0099999998 0.0012471564 -0.14483052
-0.0099999998 0.0021114862 -0.14484766
0.0099999998 0.0028993431 -0.14440036
-0.0099999998 0.0035270881 -0.14455239
0.0099999998 0.0035289039 -0.14457516
-0.0099999988 0.0044217631 -0.14453541
0.0099999998 0.0040742541 -0.14407906
-0.0099999998 0.005639731 -0.14483765
0.0099999998 0.0055997516 -0.14442186
-0.0099999998 0.0065047638 -0.14442426
0.0099999998 0.0066739647 -0.14494558
-0.0099999998 0.0075930073 -0.14465758
0.0099999998 0.0076603903 -0.14443821
-0.010000001 0.0080081252 -0.14474335
0.0099999998 0.0083398381 -0.14453107
-0.0097574163 0.0096556358 -0.14465657
-0.0077028139 0.0099999998 -0.14451315
-0.0064433753 0.0099999998 -0.14437214
-0.0058909194 0.0099999998 -0.14455277
-0.0048137316 0.0099999998 -0.14448079
-0.0034910566 0.0099999998 -0.14468548
-0.0021829952 0.0099999998 -0.14443237
-0.0016243057 0.0099999998 -0.14435586
-0.00012298604 0.0099999998 -0.1444414
0.00054153323 0.0099999998 -0.14451388
0.0010367814 0.0099999998 -0.14444751
0.0023214151 0.0099999998 -0.14476277
0.0034568151 0.0099999998 -0.14436297
0.0045626545 0.0099999998 -0.14444831
0.0057584825 0.0099999998 -0.14440161
0.0061042644 0.0099999998 -0.14470184
0.0075371629 0.0099999998 -0.14450392
0.0085268337 0.0099999998 -0.14410761
0.009726542 0.0098913768 -0.14472656
0.0094943913 0.010000001 -0.14404592
-0.0095708929 -0.0098935049 -0.14359136
-0.0085241767 -0.0099999998 -0.14339851
-0.0073436028 -0.0099999998 -0.14340755
-0.0064878352 -0.0099999998 -0.14371166
-0.0054754028 -0.0099999998 -0.1431638
