# .PCD v0.7 - Point Cloud Data file format
VERSION 0.7
FIELDS x y z
SIZE 4 4 4
TYPE F F F
COUNT 1 1 1
WIDTH 1250
HEIGHT 1
VIEWPOINT 0 0 0 1 0 0 0
POINTS 1250
DATA ascii
0.0048494544 -0.23019698 -0.036928933
0.0046736342 -0.23019698 -0.034948435
0.00507185 -0.23019698 -0.03277003
0.0050560539 -0.23019698 -0.031181831
0.0048425952 -0.23019698 -0.028867653
0.005332849 -0.23019698 -0.026970899
0.0050097541 -0.23019698 -0.024848955
0.0047798888 -0.23019697 -0.022860838
0.004819714 -0.23019697 -0.021043893
0.00472548 -0.23019698 -0.0191069
0.0050557451 -0.23019698 -0.016941477
0.0048821592 -0.23019698 -0.015067397
0.0051178136 -0.23019698 -0.013076507
0.005099277 -0.23019698 -0.010985751
0.0048029632 -0.23017785 -0.0093234554
0.00499273 -0.23019698 -0.0069758459
0.0048907241 -0.23019698 -0.0049039568
0.004868479 -0.23019698 -0.0029611101
0.0050561144 -0.23019698 -0.0007063438
0.00513562 -0.23019698 0.00088448729
0.0051504192 -0.23019697 0.0030815382
0.0047187372 -0.23019697 0.0048675751
0.0051728459 -0.23019698 0.0070102578
0.0050911442 -0.23019603 0.0088464888
0.0048848684 -0.23019698 0.011081751
0.0049989489 -0.23019698 0.012941283
0.0047557727 -0.23019698 0.014919747
0.0048928303 -0.23019697 0.016673977
0.0049563958 -0.23019698 0.018992934
0.0049573244 -0.23019698 0.020840347
0.0051339618 -0.23019698 0.022804234
0.004967791 -0.23019698 0.024925021
0.0050364658 -0.23019698 0.026883567
0.0051127896 -0.23019698 0.028999005
0.0052106208 -0.23019698 0.031041119
0.0049769375 -0.23019697 0.032914326
0.0049783438 -0.23019698 0.034836438
0.0049696327 -0.23019698 0.037114937
0.0051411986 -0.230197 0.039493978
0.0048974617 -0.23019698 0.040899806
0.0048031369 -0.23019698 0.042846479
0.0052310512 -0.230197 0.044996213
0.0049007297 -0.23019698 0.047192961
0.0049010743 -0.23075067 0.049384188
0.0043344009 -0.23100457 0.050000004
0.0070717949 -0.23068947 -0.049563613
0.0069795912 -0.23019697 -0.047308549
0.0067876112 -0.23019698 -0.044973329
0.0070330445 -0.23019698 -0.042882014
0.0071019316 -0.23019698 -0.040600628
0.0068285326 -0.23019698 -0.039046232
0.0069697443 -0.23019698 -0.036910377
0.0070927516 -0.230197 -0.035023808
0.0069743772 -0.23019698 -0.033172075
0.0068303184 -0.23019698 -0.030940056
0.0070259734 -0.23019697 -0.029031724
0.0071307193 -0.23019698 -0.027143916
0.0070210933 -0.23019698 -0.024822624
0.0069275885 -0.23019698 -0.022844439
0.007025572 -0.23019698 -0.021094734
0.007004125 -0.23019697 -0.01903419
0.0067774802 -0.23019698 -0.016830169
0.0066955844 -0.23019698 -0.014930703
0.0071501732 -0.23019698 -0.013226579
0.0069369427 -0.23019698 -0.01078735
0.0070615048 -0.23019698 -0.00906415
0.0068897665 -0.23019698 -0.0070942175
0.0068172016 -0.23019698 -0.0050305557
0.0071169077 -0.23019698 -0.0031600117
0.0071751992 -0.23019698 -0.00082786148
0.0070723202 -0.23019698 0.00118253
0.0067569795 -0.230197 0.003043697
0.0068206047 -0.23019697 0.0050847777
0.0068246848 -0.230197 0.0069566895
0.0071764281 -0.23018831 0.0091360388
0.0069177202 -0.23019697 0.010927627
0.0068423487 -0.23019698 0.013122807
0.0069094966 -0.23019698 0.015053606
0.0068108272 -0.23019698 0.01702603
0.0069943005 -0.23019698 0.018927995
0.007168992 -0.23019698 0.021204514
0.0069545815 -0.23019698 0.023161257
0.0069227754 -0.23019698 0.025315214
0.0069716731 -0.23019698 0.026915785
0.0069352253 -0.23019698 0.028811568
0.0070518828 -0.23019698 0.031124737
0.0069048633 -0.23019697 0.032727685
0.0069739162 -0.23019698 0.035015237
0.0069618314 -0.23019698 0.036689781
0.0070095668 -0.23019698 0.039026111
0.0068739839 -0.23019698 0.04097186
0.0069860467 -0.23019698 0.043125894
0.0070058694 -0.23019698 0.04528426
0.0070139333 -0.23019698 0.047055241
0.0072423653 -0.23050416 0.049186118
0.0064681456 -0.23095225 0.050000004
0.0093430737 -0.2307408 -0.049185921
0.0095204366 -0.23057869 -0.047056317
0.0094072176 -0.23068701 -0.044924982
0.0092871608 -0.23072781 -0.043014918
0.0095191179 -0.23061165 -0.041039579
0.0095947729 -0.23079991 -0.038984913
0.0094370237 -0.23042268 -0.036939815
0.0094899461 -0.23065597 -0.034968961
0.0093958676 -0.23045592 -0.032927085
0.0095262248 -0.23052643 -0.030825585
0.0093510663 -0.23055114 -0.028929874
0.0093017723 -0.23041354 -0.027008593
0.0094944015 -0.23062059 -0.024886586
0.0092122797 -0.23048843 -0.02286692
0.0095857335 -0.230516 -0.021154279
0.0096281655 -0.23071018 -0.018911177
0.0093837837 -0.23049296 -0.016951114
0.0093772076 -0.23056693 -0.014992696
0.0094737317 -0.23061202 -0.013068058
0.0094392309 -0.23062652 -0.010899133
0.0089777149 -0.23017046 -0.0092046484
0.0094493087 -0.23018703 -0.0066624084
0.009126748 -0.23019698 -0.0049805203
0.0089978706 -0.23019102 -0.002822059
0.0088007608 -0.23017795 -0.001238246
0.009155903 -0.23018788 0.0012733741
0.0091688912 -0.23018281 0.0028149751
0.0091560986 -0.23019512 0.0048954259
0.0092894733 -0.23018339 0.007331227
0.0092431372 -0.23016147 0.0091368463
0.0095656011 -0.23056996 0.010939387
0.0095418002 -0.23068839 0.01307249
0.0093332874 -0.23055434 0.01489804
0.009557806 -0.23062228 0.017146928
0.0095337238 -0.23082189 0.018783966
0.0094098058 -0.23052864 0.021129532
0.0094572529 -0.23059192 0.023042517
0.0094192447 -0.23044056 0.024972634
0.0094354739 -0.23052284 0.027013691
0.0093307188 -0.23063026 0.029027093
0.0095330058 -0.23058635 0.031151809
0.0094626276 -0.2305727 0.032964896
0.0092098014 -0.23052575 0.035001162
0.0095840376 -0.23069088 0.037000064
0.0094225239 -0.23055468 0.039106127
0.0092798872 -0.23076871 0.041060969
0.0095512643 -0.23053925 0.043004058
0.009555609 -0.23077032 0.045151312
0.0095968358 -0.23069845 0.047108389
0.0094853966 -0.23095021 0.049227305
0.0091596171 -0.2308871 0.050000004
0.010000001 -0.23120192 -0.047515068
0.010000001 -0.23176262 -0.045251261
0.010000001 -0.23070581 -0.014533289
0.010000001 -0.23081334 -0.010030111
0.011077015 -0.23052441 -0.00925483
0.010885641 -0.23019697 -0.0066558542
0.011259249 -0.23019697 -0.0051975413
0.011018447 -0.23019698 -0.0032665601
0.011251923 -0.23019698 -0.001076764
0.010917641 -0.23019698 0.0010704568
0.011063727 -0.23019698 0.0031129478
0.010830414 -0.23019698 0.0049875113
0.011040371 -0.23019698 0.0069024274
0.010910153 -0.23081701 0.0097266426
0.010000001 -0.23110411 0.011164393
0.010000001 -0.23036903 0.047065768
0.013000069 -0.230814 -0.0096250428
0.013035031 -0.23019698 -0.0071574366
0.012875355 -0.23019698 -0.0050653014
0.01289212 -0.23019698 -0.0031247532
0.013019085 -0.23019698 -0.0014026277
0.01303092 -0.23019698 0.0012322827
0.012794885 -0.23019698 0.0027327221
0.013062338 -0.23019698 0.0050530969
0.013228915 -0.23019698 0.0070733903
0.012923008 -0.23044823 0.0093801385
0.013759498 -0.2307276 0.010000001
0.01494603 -0.23049392 -0.0090991585
0.014864773 -0.23019698 -0.0070233578
0.015033734 -0.23019698 -0.0051022586
0.014949832 -0.23019698 -0.0029770802
0.015077479 -0.23019697 -0.00127236
0.014881139 -0.23019698 0.0011466682
0.014881073 -0.23019698 0.0026811906
0.015169989 -0.23019698 0.005026246
0.015307354 -0.23019698 0.0071184211
0.01495571 -0.23068064 0.0096404767
0.017085616 -0.23076177 -0.0096101975
0.016674129 -0.23019698 -0.0070703072
0.017035384 -0.23019698 -0.0050390777
0.01692231 -0.23019698 -0.0032916246
0.017115887 -0.23019698 -0.00093305204
0.017143879 -0.23019698 0.0011548868
0.017141452 -0.23019698 0.0027316888
0.017257906 -0.23019697 0.0049750498
0.017229365 -0.23019698 0.0069268122
0.017137976 -0.23060144 0.0093443403
0.019098446 -0.23074698 -0.0095521379
0.019175511 -0.23019697 -0.006916828
0.019094961 -0.23019697 -0.0050144121
0.018901391 -0.23019697 -0.0028668931
0.019272599 -0.230197 -0.00068649359
0.019173425 -0.23019698 0.00087788625
0.019031422 -0.23019697 0.003024756
0.019319529 -0.23019698 0.0050149648
0.019074023 -0.23019698 0.0073331436
0.019274894 -0.23043914 0.0093557211
0.020872734 -0.23050238 -0.0093234302
0.021175744 -0.23019698 -0.0071997717
0.020827409 -0.23019697 -0.0048435614
0.020758804 -0.23019697 -0.0029137204
0.021089857 -0.23019698 -0.0011990329
0.021015894 -0.23019698 0.00071611878
0.020796373 -0.23019698 0.0028673292
0.020792652 -0.23019698 0.0052203098
0.020796591 -0.23019697 0.007081775
0.020953087 -0.23058137 0.0094786752
0.020544199 -0.23046884 0.010000001
0.023135241 -0.2306049 -0.0094151413
0.022992402 -0.23019698 -0.0073388279
0.022987803 -0.23019698 -0.0051345346
0.022945248 -0.23019698 -0.0029647071
0.022909371 -0.23019698 -0.0010927561
0.022962024 -0.23019698 0.00088463904
0.022757335 -0.23019698 0.0030137599
0.022844749 -0.23019698 0.0051612775
0.022967089 -0.23019698 0.0069378414
0.0231284 -0.23079106 0.0096040173
0.022209123 -0.23098481 0.010000001
0.024997406 -0.23069747 -0.009491439
0.024997542 -0.23019697 -0.0070692082
0.024962863 -0.23019698 -0.005093676
0.025227206 -0.23019698 -0.0032439034
0.024998607 -0.23019698 -0.00075549091
0.024890263 -0.23019697 0.00098137173
0.024919139 -0.23019698 0.0028082433
0.025223503 -0.23019698 0.0051913531
0.025241803 -0.23019698 0.0068369508
0.024992982 -0.23038173 0.0092599932
0.026988504 -0.23052533 -0.0095013985
0.026756691 -0.23019698 -0.0069581335
0.026859766 -0.230197 -0.0055124369
0.026937876 -0.23019698 -0.0029320647
0.027175432 -0.23019698 -0.0012023372
0.026974117 -0.23019698 0.0010269906
0.026727861 -0.23019698 0.0028595857
0.026921233 -0.23019698 0.0050429646
0.026976386 -0.23019698 0.0069705355
0.027052103 -0.23074813 0.0096199
0.027904011 -0.23057537 0.010000001
0.028975954 -0.23048404 -0.0093204007
0.029015109 -0.23019697 -0.0072911601
0.02897026 -0.23019698 -0.0048854696
0.029026568 -0.23019698 -0.003118387
0.028679969 -0.23019698 -0.001095372
0.028988244 -0.23019697 0.00084922527
0.028906157 -0.23019698 0.0031245933
0.029043011 -0.23019698 0.0049804258
0.029091021 -0.23019698 0.0069699371
0.028902262 -0.23083295 0.0096368203
0.030680239 -0.23056045 -0.0094207032
0.030640714 -0.23019698 -0.0069711176
0.030889427 -0.23019698 -0.0048341397
0.030795142 -0.23019698 -0.0030152968
0.030914199 -0.23019698 -0.00084246782
0.030863009 -0.230197 0.001055618
0.031229364 -0.23019698 0.0026076999
0.030857539 -0.23019698 0.0051602451
0.031001205 -0.23019697 0.0071027335
0.030917671 -0.23060575 0.0093629286
0.032924205 -0.230773 -0.0094592171
0.032983553 -0.23019698 -0.0068455073
0.032886744 -0.23019698 -0.0050423332
0.033032767 -0.23019698 -0.0027715117
0.033195026 -0.23019698 -0.00083923759
0.033327091 -0.23019697 0.0011787068
0.032918807 -0.23019698 0.002871976
0.032966502 -0.23019698 0.0046767914
0.032959491 -0.23019697 0.007015124
0.033135727 -0.23063718 0.0096197184
0.034929805 -0.23058733 -0.0092514195
0.034599125 -0.23019698 -0.0071042916
0.034825206 -0.23019698 -0.0048168157
0.035042506 -0.23019698 -0.0029808877
0.035027973 -0.230197 -0.00071366178
0.034843646 -0.23019698 0.00097471196
0.034602433 -0.23019698 0.0027615076
0.035144437 -0.23019698 0.0050340933
0.035152528 -0.23019697 0.0066989819
0.034833394 -0.23071966 0.0095421877
0.03717012 -0.23069867 -0.0096037453
0.03716515 -0.230197 -0.0069157556
0.036925301 -0.23019698 -0.005239225
0.037197307 -0.23019697 -0.0030190405
0.037028458 -0.23019698 -0.001007819
0.036830761 -0.23019698 0.00068492157
0.037027128 -0.23019698 0.00298009
0.036866147 -0.23019697 0.0050346768
0.037021346 -0.23019697 0.0072111106
0.036990024 -0.2304226 0.0092376424
0.039084144 -0.23081623 -0.0095276041
0.038998257 -0.23019698 -0.0068009617
0.038717195 -0.23019698 -0.0048742453
0.039107192 -0.23019698 -0.0033110161
0.038801618 -0.23019698 -0.0011863636
0.038882859 -0.23019698 0.0010980973
0.039034799 -0.23019698 0.0031124521
0.038786527 -0.23019698 0.0050255251
0.038965207 -0.23019698 0.0068641901
0.038728431 -0.2306601 0.0095006106
0.041098919 -0.23063393 -0.0096510714
0.040809527 -0.23019698 -0.0068770419
0.040577967 -0.23019698 -0.0050905263
0.041073065 -0.23019698 -0.0030434821
0.040794551 -0.23019698 -0.0010855339
0.04107647 -0.23019698 0.00088641117
0.040944673 -0.23019698 0.0028486422
0.041007757 -0.23019698 0.0050949501
0.04096381 -0.23019698 0.0070317583
0.041036844 -0.23049964 0.0092783878
0.042850181 -0.23081481 -0.0096899252
0.043162957 -0.23019698 -0.0071308645
0.042861108 -0.23019698 -0.0050476156
0.042908106 -0.23019698 -0.0030051956
0.043006346 -0.23019698 -0.0011140988
0.043194138 -0.23019697 0.0011946112
0.042930447 -0.23019698 0.0027357775
0.043050613 -0.23019698 0.0050139171
0.042958278 -0.23019698 0.0069158413
0.042978488 -0.23062184 0.0095374044
0.043861125 -0.23060258 0.010000001
0.044894721 -0.2307228 -0.0096301772
0.045089014 -0.23019698 -0.0069794045
0.045012955 -0.23019698 -0.0049593239
0.045174364 -0.23019697 -0.0030500486
0.044950027 -0.23019698 -0.0010403689
0.045025665 -0.23019698 0.0011021873
0.044668701 -0.230197 0.0027933733
0.04472512 -0.23019698 0.0050513512
0.044880342 -0.23019698 0.0073335203
0.044967022 -0.23049888 0.0092238095
0.047127265 -0.23077358 -0.0096044773
0.046798699 -0.23019697 -0.0072710365
0.047129042 -0.23019698 -0.0050636977
0.047181152 -0.23019698 -0.002849834
0.046871666 -0.23019697 -0.00098134228
0.046867318 -0.23019697 0.00086429983
0.047034197 -0.23019697 0.0030560626
0.046986248 -0.23019698 0.0049097934
0.046815958 -0.23019698 0.0070929504
0.046971209 -0.23065498 0.0095663471
0.046787247 -0.23067755 0.010000001
0.049280316 -0.23075962 -0.0093353745
0.049729008 -0.23064756 -0.0070480211
0.049509808 -0.23047219 -0.0048427964
0.049348067 -0.23058054 -0.0031251328
0.049547765 -0.23074511 -0.0010592042
0.049408734 -0.23059341 0.0011904594
0.049303461 -0.23048657 0.0029698748
0.049491473 -0.23046148 0.0050645727
0.049668942 -0.230583 0.00691335
0.049218535 -0.2306059 0.009388933
0.048721284 -0.2304357 0.010000001
0.050000004 -0.23114781 -0.0095327124
0.050000004 -0.2316329 -0.0070537915
0.050000004 -0.23116192 -0.0041266624
0.050000004 -0.2314391 -0.0026089496
0.050000004 -0.23133171 -0.0014168327
0.050000004 -0.2319847 0.00073284376
0.050000004 -0.23104531 0.0029682647
0.050000004 -0.23081312 0.0051979683
0.050000004 -0.23080818 0.0065190494
-0.0096593443 -0.22906627 -0.0094601354
-0.010000002 -0.22900018 -0.0070236064
-0.0099999988 -0.22907342 -0.0051417244
-0.0099999988 -0.22895347 -0.0030343651
-0.0099999998 -0.22902034 -0.0013156213
-0.0099999988 -0.2287094 0.0010372936
-0.0099999988 -0.22891369 0.0030904799
-0.0099999998 -0.22898722 0.0051845205
-0.0099999988 -0.22946934 0.0071119517
-0.0094592785 -0.22910902 0.0095656198
-0.0072456608 -0.22906373 -0.0099999988
-0.0073643588 -0.22899106 0.0099999988
-0.0050487118 -0.22876257 -0.0099999998
-0.0051633539 -0.22887656 0.0099999998
-0.0034380534 -0.22928238 -0.0099999998
-0.0030127319 -0.22910421 0.0099999998
-0.00093210163 -0.22877662 -0.0099999998
-0.0008646971 -0.2289214 0.0099999988
0.0010718137 -0.22890773 -0.0099999998
0.00077983754 -0.22892267 0.0099999988
0.0028452445 -0.22883649 -0.0099999998
0.0028432729 -0.2287291 0.0099999998
0.0052227932 -0.22913212 -0.0099999998
0.0048418674 -0.22907251 0.0099999988
0.0070558088 -0.2289557 -0.010000001
0.006918666 -0.22882177 0.0099999998
0.0094720889 -0.22925432 -0.0095173372
0.0099999988 -0.22899 -0.0067473128
0.010000001 -0.22905393 -0.0048927637
0.010000001 -0.22900134 -0.0032405839
0.0099999998 -0.22881737 -0.0011199578
0.0099999998 -0.22940932 0.0015800446
0.010000001 -0.22897691 0.0028728885
0.0099999988 -0.22883606 0.0049274527
0.0099999988 -0.22888981 0.0069999532
0.009720102 -0.22879051 0.0093062399
0.010000001 -0.22898877 -0.0085952887
0.010000001 -0.22861895 -0.0060886429
-0.0094736954 -0.2270219 -0.0095491474
-0.0099999988 -0.22680576 -0.0071375454
-0.0099999988 -0.22710699 -0.0051325751
-0.0099999998 -0.22685291 -0.0030451848
-0.0099999998 -0.22706549 -0.0011971315
-0.0099999988 -0.22681996 0.00077360426
-0.0099999988 -0.22687618 0.0026775543
-0.010000001 -0.22716424 0.0051492453
-0.0099999988 -0.22719486 0.007139524
-0.0095332349 -0.22705398 0.0096353907
-0.0068682102 -0.22687502 -0.0099999998
-0.0071719754 -0.22664171 0.0099999988
-0.0046575209 -0.22679621 -0.0099999988
-0.0049741608 -0.22705105 0.0099999988
-0.0031698414 -0.22708909 -0.010000001
-0.0028699839 -0.22686194 0.0099999988
-0.0012395218 -0.22706205 -0.0099999988
-0.0010055827 -0.22713235 0.0099999998
0.0007356538 -0.22729339 -0.0099999988
0.0010793534 -0.22691768 0.010000002
0.0030849713 -0.22730654 -0.0099999998
0.0031725615 -0.22680539 0.0099999988
0.0051304572 -0.22720434 -0.0099999988
0.0049366946 -0.22714593 0.0099999998
0.0066739656 -0.22712816 -0.0099999998
0.0067968331 -0.22703527 0.0099999988
0.0092528835 -0.22704661 -0.0096737389
0.0099999998 -0.22670373 -0.0070341285
0.0099999998 -0.22701895 -0.0049130898
0.010000001 -0.22712322 -0.0029604156
0.0099999998 -0.22678167 -0.0011309603
0.0099999988 -0.22707412 0.0010343156
0.010000001 -0.22698916 0.0027767674
0.0099999998 -0.22704345 0.0052449261
0.0099999988 -0.22722405 0.0072069964
0.0095148785 -0.22696248 0.0094346125
0.0090586981 -0.22726826 0.010000001
0.010000001 -0.22762461 -0.0082161091
-0.0092733717 -0.22494774 -0.0095323613
-0.0099999988 -0.22485062 -0.0068642134
-0.010000001 -0.22498269 -0.0051467647
-0.0099999998 -0.22472151 -0.0031570885
-0.0099999988 -0.22491017 -0.00088256208
-0.0099999998 -0.22501813 0.0011696778
-0.0099999988 -0.2250378 0.00320024
-0.010000001 -0.22508645 0.0047961413
-0.0099999988 -0.22517705 0.006921615
-0.0094658704 -0.22489393 0.0096365632
-0.007151152 -0.22511937 -0.0099999998
-0.0070597581 -0.22480893 0.010000002
-0.0047872351 -0.22496302 -0.0099999988
-0.0048726387 -0.22501615 0.010000001
-0.0030842375 -0.22515388 -0.010000001
-0.0030969752 -0.22501758 0.0099999988
-0.0008752619 -0.22480774 -0.0099999988
-0.0012492234 -0.22502013 0.0099999988
0.0011209246 -0.22497556 -0.0099999988
0.00089217012 -0.2250762 0.0099999988
0.0030749121 -0.22503217 -0.0099999988
0.0029960405 -0.22482613 0.0099999988
0.0050256043 -0.22510737 -0.0099999988
0.0051987558 -0.22514758 0.0099999998
0.0070529161 -0.22492711 -0.010000001
0.0070031164 -0.22485454 0.0099999988
0.0067495676 -0.2250783 0.010000001
0.0094992165 -0.22493497 -0.0096214497
0.0099999988 -0.22476405 -0.0072215935
0.0099999988 -0.22506329 -0.0050787698
0.0099999998 -0.22508116 -0.0030176749
0.010000002 -0.2248023 -0.0010929909
0.0099999998 -0.22509286 0.0011774879
0.0099999988 -0.22498265 0.0031185404
0.0099999988 -0.22536229 0.0050648786
0.010000001 -0.22504309 0.007175087
0.0095749823 -0.22515596 0.0093725836
0.009996607 -0.22561716 0.010000001
0.010000001 -0.22561303 -0.0094789071
0.010000001 -0.22470574 0.0095378337
-0.0094835274 -0.2231167 -0.0094121601
-0.0099999998 -0.22284418 -0.0071197641
-0.0099999988 -0.22332206 -0.0048637833
-0.0099999998 -0.22275788 -0.002933223
-0.010000001 -0.22299264 -0.0010889977
-0.0099999998 -0.22320521 0.0011480279
-0.010000001 -0.22308986 0.0029442359
-0.010000001 -0.22311044 0.0050778924
-0.0099999988 -0.22305492 0.0069299433
-0.0097780265 -0.22293167 0.0093142856
-0.0094269793 -0.223463 0.010000001
-0.00700239 -0.22298233 -0.0099999998
-0.0069802818 -0.22235213 0.0099999988
-0.0051223538 -0.22269452 -0.0099999998
-0.0051462911 -0.22307308 0.010000002
-0.003177929 -0.2230002 -0.0099999988
-0.0028461649 -0.22288576 0.0099999988
-0.00097814552 -0.22299266 -0.0099999988
-0.0011718912 -0.22313477 0.010000001
0.001233317 -0.22315983 -0.0099999998
0.00079943863 -0.22324868 0.0099999988
0.0028333692 -0.22252464 -0.0099999988
0.0029697758 -0.22298792 0.0099999998
0.0049844803 -0.22307199 -0.0099999998
0.0049459264 -0.22307622 0.010000001
0.0068955012 -0.22335427 -0.0099999988
0.0065976973 -0.22295566 0.0099999988
0.0095233135 -0.22297478 -0.0095851636
0.010000001 -0.22304513 -0.0069765565
0.0099999998 -0.2228187 -0.0051159002
0.0099999988 -0.2228708 -0.0025388498
0.0099999998 -0.22309791 -0.0011188211
0.0099999998 -0.22300072 0.00097592227
0.0099999988 -0.22305821 0.0032092882
0.0099999988 -0.22282913 0.0050953329
0.0099999988 -0.22280082 0.0069866469
0.009614314 -0.22321449 0.0093836552
0.010000001 -0.2238194 -0.009151265
0.010000001 -0.22384369 -0.0077731228
-0.0093920799 -0.22100069 -0.009476386
-0.0099999988 -0.22098564 -0.0067905346
-0.0099999988 -0.22085407 -0.0050396286
-0.0099999988 -0.22126338 -0.0033205536
-0.0099999998 -0.2212683 -0.00090729183
-0.0099999988 -0.22115029 0.00078056671
-0.0099999998 -0.22100884 0.0033094783
-0.0099999988 -0.22131966 0.0047337585
-0.0099999988 -0.22111614 0.0067806998
-0.0095444247 -0.22120932 0.0094348015
-0.007154258 -0.22103971 -0.0099999998
-0.0067955861 -0.22120005 0.0099999988
-0.0050029075 -0.22086762 -0.0099999988
-0.0049158628 -0.22126351 0.0099999998
-0.0030851779 -0.22081852 -0.0099999988
-0.0028576241 -0.22123329 0.0099999998
-0.0011858348 -0.22126651 -0.0099999988
-0.0011622185 -0.22109087 0.0099999998
0.0011527315 -0.22114915 -0.0099999988
0.00094706455 -0.22098432 0.0099999988
0.0031047752 -0.2211262 -0.0099999998
0.0028440298 -0.22094396 0.0099999998
0.0049749711 -0.22101523 -0.010000001
0.0046900907 -0.2211827 0.0099999988
0.0071193422 -0.22098541 -0.010000002
0.0068327039 -0.22092867 0.0099999998
0.0096390815 -0.22099563 -0.009492672
0.0099999998 -0.22093329 -0.0071199508
0.0099999988 -0.2212604 -0.0052002203
0.0099999988 -0.22117119 -0.0032136042
0.0099999988 -0.22114763 -0.00103837
0.0099999998 -0.22111137 0.0010228527
0.0099999988 -0.22122569 0.0027074849
0.0099999988 -0.22082825 0.0049177688
0.0099999988 -0.22143142 0.007047914
0.0095824823 -0.22101358 0.0095676668
0.0084758364 -0.22075367 0.010000001
0.010000001 -0.22135457 -0.0089553632
0.010000001 -0.22050242 -0.0067575574
-0.0095107742 -0.21893094 -0.0093723554
-0.010000002 -0.21891931 -0.0070356182
-0.0099999998 -0.2190547 -0.0049558766
-0.0099999988 -0.219118 -0.0029498131
-0.0099999988 -0.21875837 -0.00097962038
-0.0099999998 -0.21911123 0.0010430451
-0.010000001 -0.21902929 0.0030249015
-0.0099999988 -0.21870895 0.0051442422
-0.010000001 -0.21904555 0.0070461244
-0.0094562322 -0.21906441 0.0094910767
-0.0068164719 -0.21916457 -0.0099999988
-0.0068881535 -0.21874779 0.0099999988
-0.0051301108 -0.21890889 -0.0099999998
-0.0052139619 -0.2190121 0.0099999988
-0.0029792413 -0.21925578 -0.0099999998
-0.003187295 -0.21921395 0.0099999988
-0.00077499897 -0.21905938 -0.0099999988
-0.0010283526 -0.2191465 0.010000001
0.00088020309 -0.21900065 -0.0099999988
0.00097965007 -0.2189713 0.0099999998
0.0030469582 -0.21910752 -0.0099999998
0.0028821626 -0.21907234 0.0099999998
0.0047597447 -0.2188057 -0.0099999998
0.0049797609 -0.21902607 0.0099999998
0.0068198238 -0.21909435 -0.010000001
0.0070196674 -0.21887599 0.010000001
0.0077666906 -0.21906209 0.010000001
0.0096461941 -0.21907088 -0.0093887728
0.0099999998 -0.218977 -0.0071254862
0.0099999988 -0.21880406 -0.0049687219
0.0099999998 -0.21906367 -0.0029558449
0.0099999998 -0.21912552 -0.001055651
0.0099999988 -0.21929073 0.0011851499
0.0099999988 -0.21911669 0.0030173045
0.0099999988 -0.21889226 0.0050768228
0.0099999988 -0.21872662 0.0069622314
0.0095420303 -0.21903621 0.009448356
0.010000001 -0.21955287 -0.0071120337
-0.0096450727 -0.2170545 -0.0094537679
-0.0099999988 -0.21748549 -0.0071990434
-0.010000001 -0.21695496 -0.0052087274
-0.0099999988 -0.21705505 -0.0029904577
-0.0099999998 -0.21693483 -0.00093160413
-0.010000001 -0.21703975 0.00097268412
-0.0099999988 -0.21737367 0.0031134454
-0.0099999998 -0.2175688 0.0052889367
-0.0099999998 -0.21704528 0.0070072133
-0.0095467325 -0.21692298 0.0095251817
-0.007015428 -0.21710916 -0.0099999998
-0.0070268521 -0.2168721 0.0099999988
-0.0049551292 -0.21707664 -0.0099999988
-0.0053893523 -0.21709093 0.0099999988
-0.0029480259 -0.21700692 -0.0099999998
-0.0031217907 -0.2168043 0.0099999988
-0.0012654685 -0.21702009 -0.0099999988
-0.0011233685 -0.21697818 0.0099999988
0.00072862353 -0.21708937 -0.0099999988
0.00092653523 -0.21688583 0.0099999998
0.0028297578 -0.21699172 -0.0099999988
0.0026517117 -0.21699458 0.0099999988
0.0049423641 -0.21723849 -0.0099999998
0.0050385799 -0.21713053 0.0099999988
0.0068093739 -0.21679164 -0.0099999998
0.0071252161 -0.21693268 0.0099999988
0.0096275518 -0.21690562 -0.0093761059
0.0099999988 -0.21688673 -0.0071717324
0.010000002 -0.21699895 -0.0046563996
0.0099999988 -0.21660095 -0.003128201
0.0099999988 -0.21684875 -0.0015300286
0.0099999988 -0.21712171 0.00082455791
0.0099999998 -0.21701904 0.0029665679
0.0099999988 -0.21721968 0.0048194192
0.0099999988 -0.21733102 0.0072612013
0.0096610682 -0.21701424 0.0094980998
0.0095534325 -0.21734317 0.010000001
0.010000001 -0.21693948 -0.0084632216
0.010000001 -0.21729504 -0.0069974037
-0.0095702279 -0.21492085 -0.009527781
-0.0099999988 -0.21532208 -0.0068327119
-0.0099999988 -0.21499011 -0.0050130794
-0.0099999998 -0.21492878 -0.0031699575
-0.0099999988 -0.21484831 -0.0010274294
-0.0099999988 -0.21486968 0.0011390296
-0.010000002 -0.21507671 0.0030982629
-0.0099999998 -0.21533158 0.0051057357
-0.0099999988 -0.21491826 0.0069658956
-0.0095169134 -0.21509017 0.0093224058
-0.0070866002 -0.21508333 -0.0099999998
-0.0070869206 -0.21523765 0.0099999988
-0.0050631603 -0.21493682 -0.0099999988
-0.0049712127 -0.21499062 0.0099999998
-0.0028667098 -0.21515381 -0.0099999988
-0.0028859684 -0.2153506 0.0099999988
-0.0008267808 -0.21505247 -0.0099999998
-0.00085652043 -0.21498838 0.0099999998
0.0012010469 -0.21488741 -0.0099999998
0.00092710205 -0.2151767 0.0099999998
0.0029032363 -0.21504919 -0.010000001
0.0028952586 -0.21508741 0.0099999998
0.0054086419 -0.21497954 -0.0099999998
0.0049342657 -0.2148902 0.0099999988
0.0070863715 -0.21497987 -0.0099999998
0.0068011484 -0.21501923 0.0099999988
0.0076343026 -0.21562582 0.010000001
0.0095117269 -0.21518472 -0.0094408439
0.0099999988 -0.21496005 -0.0070733214
0.0099999988 -0.21516353 -0.0050031529
0.010000002 -0.21512863 -0.0031628949
0.0099999988 -0.21510637 -0.0011702443
0.0099999988 -0.21501236 0.0011235692
0.010000001 -0.21487354 0.0029963795
0.0099999998 -0.21493369 0.0049785981
0.010000002 -0.21497554 0.0069682244
0.0095218336 -0.214947 0.0095742019
0.0086042685 -0.21505991 0.010000001
0.010000001 -0.21534845 -0.0082314238
-0.0094101774 -0.21296696 -0.0095724333
-0.0099999998 -0.21299174 -0.0068881582
-0.0099999998 -0.21280576 -0.004989828
-0.0099999998 -0.21299489 -0.0033422422
-0.0099999988 -0.21291533 -0.00094177824
-0.0099999988 -0.21276933 0.0012188796
-0.0099999988 -0.21299994 0.0030055793
-0.0099999998 -0.21277067 0.0050180033
-0.0099999998 -0.21287902 0.0071661677
-0.0096243508 -0.21292457 0.00962146
-0.0090570571 -0.21210633 0.010000001
-0.0068372195 -0.21293126 -0.010000001
-0.0069978437 -0.2129529 0.0099999988
-0.0051725456 -0.21323395 -0.0099999998
-0.0053774985 -0.21303539 0.0099999988
-0.0031377403 -0.21282354 -0.0099999988
-0.003079715 -0.21301134 0.0099999988
-0.0011409293 -0.21303554 -0.0099999998
-0.00089603668 -0.21281348 0.0099999998
0.00079987198 -0.21335934 -0.0099999988
0.0010273288 -0.21283595 0.0099999988
0.003013259 -0.21303037 -0.010000002
0.0027857136 -0.21291579 0.0099999988
0.0049422882 -0.21298175 -0.010000001
0.0047008679 -0.2129557 0.0099999988
0.0067394688 -0.21330824 -0.0099999988
0.0067982846 -0.21320115 0.0099999988
0.0095642647 -0.21318637 -0.0093480311
0.0099999988 -0.21280187 -0.0068990085
0.0099999998 -0.21279228 -0.0052487375
0.0099999998 -0.21301079 -0.0029635245
0.010000001 -0.21308713 -0.00099943625
0.0099999998 -0.21326047 0.0008244121
0.0099999988 -0.21248168 0.0031026572
0.0099999988 -0.21318181 0.0051318365
0.0099999988 -0.21300969 0.0065683434
0.0095220702 -0.21323326 0.009644933
0.010000001 -0.21359964 -0.0098885689
0.010000001 -0.21299934 0.0095941275
-0.0094888713 -0.2109524 -0.0096151531
-0.0099999998 -0.21120681 -0.0072249114
-0.0099999988 -0.2109517 -0.0051507312
-0.0099999988 -0.21117432 -0.0030622117
-0.0099999988 -0.21120872 -0.0010976329
-0.0099999988 -0.21107352 0.00095664558
-0.0099999998 -0.21120499 0.0031282941
-0.0099999998 -0.21115667 0.0051366957
-0.0099999988 -0.21100137 0.0071079615
-0.0094471974 -0.21106666 0.0095465891
-0.0071631572 -0.210934 -0.0099999988
-0.0070868875 -0.21106604 0.010000002
-0.0050753639 -0.21111596 -0.0099999998
-0.0045857434 -0.21105634 0.0099999988
-0.0033252812 -0.21070193 -0.0099999988
-0.002758262 -0.21107803 0.0099999988
-0.0010835717 -0.21098413 -0.0099999988
-0.0011824578 -0.21097799 0.0099999988
0.0009074104 -0.21088529 -0.0099999988
0.0009479188 -0.21118765 0.0099999998
0.0028567228 -0.21126859 -0.0099999998
0.0028983445 -0.21074609 0.0099999988
0.0050144186 -0.21049747 -0.0099999998
0.0047064559 -0.21096468 0.0099999988
0.0068217646 -0.21088487 -0.0099999998
0.0067742015 -0.21100913 0.0099999988
0.0075180372 -0.21123597 0.010000001
0.0094107622 -0.21111667 -0.0094240969
0.0099999988 -0.21088642 -0.0071299975
0.0099999998 -0.21129136 -0.005114431
0.0099999988 -0.21069661 -0.0029574814
0.0099999988 -0.21124631 -0.0012288257
0.0099999988 -0.21102467 0.00092706678
0.0099999998 -0.21105501 0.0030726746
0.0099999988 -0.21105175 0.0052710553
0.0099999988 -0.21118909 0.0069747367
0.0095397951 -0.21096836 0.0096375253
-0.0096084932 -0.20903593 -0.0093627144
-0.0099999988 -0.20911315 -0.0070435801
-0.0099999988 -0.20902239 -0.0050538192
-0.010000001 -0.20899105 -0.0030342836
-0.0099999998 -0.20895897 -0.0011006293
-0.0099999988 -0.20904151 0.0007744368
-0.0099999988 -0.2090266 0.0030523976
-0.0099999998 -0.20880431 0.0048901793
-0.0099999998 -0.20919503 0.0071485527
-0.0094496533 -0.20899083 0.0094818426
-0.0068940744 -0.20875385 -0.0099999998
-0.0070820325 -0.20913558 0.0099999988
-0.0052410695 -0.2090012 -0.0099999988
-0.0051300498 -0.20904537 0.0099999988
-0.0028917047 -0.20889838 -0.0099999998
-0.0027617295 -0.20893918 0.0099999998
-0.0011468123 -0.20889865 -0.0099999998
-0.00090718572 -0.20923117 0.010000001
0.0010242403 -0.20915632 -0.0099999988
0.00099830644 -0.2091531 0.0099999998
0.0030628301 -0.20874093 -0.0099999998
0.0029318354 -0.20902511 0.010000002
0.0048368787 -0.20884229 -0.0099999998
0.0051881894 -0.20923364 0.0099999988
0.0068406099 -0.20911653 -0.0099999998
0.0071908822 -0.20921679 0.0099999998
0.0095232828 -0.20900111 -0.0095155668
0.010000002 -0.20898239 -0.0069462089
0.010000002 -0.20879449 -0.0050466219
0.010000001 -0.20918486 -0.0030297451
0.0099999998 -0.20931892 -0.00097628648
0.0099999998 -0.20897505 0.0011888187
0.010000001 -0.20893064 0.0027641717
0.0099999988 -0.20911083 0.0051426492
0.0099999998 -0.20897372 0.0071532559
0.0093616443 -0.20896704 0.0095756454
0.0087988814 -0.20895155 0.010000001
0.010000001 -0.20887861 -0.0090736132
0.010000001 -0.20822521 0.0087071275
-0.009467612 -0.20700474 -0.0096256603
-0.0099999988 -0.20708168 -0.0069691101
-0.0099999998 -0.20710696 -0.0051022456
-0.0099999998 -0.20711659 -0.0028832674
-0.0099999988 -0.20692481 -0.00098018639
-0.0099999988 -0.20674364 0.0011387061
-0.0099999998 -0.20704068 0.003274445
-0.0099999998 -0.20687266 0.0050321002
-0.0099999998 -0.20689631 0.0068789655
-0.0098334113 -0.20711848 0.0094507365
-0.0084952516 -0.20792438 0.010000001
-0.0067249993 -0.20688963 -0.0099999988
-0.0068366029 -0.20708407 0.0099999988
-0.0049871542 -0.206911 -0.0099999988
-0.0047185696 -0.20692933 0.0099999988
-0.0031718742 -0.20711923 -0.0099999988
-0.0027483471 -0.20683934 0.010000001
-0.0011362376 -0.20708312 -0.010000001
-0.0010395931 -0.2073828 0.0099999988
0.0010087042 -0.20712551 -0.010000002
0.00065119046 -0.2071486 0.0099999998
0.0032630272 -0.20694017 -0.0099999988
0.0033175414 -0.20700254 0.010000002
0.0049222396 -0.20686841 -0.0099999988
0.0051566148 -0.20689295 0.0099999998
0.0070628719 -0.20693924 -0.010000001
0.0071157673 -0.20689745 0.0099999988
0.0094097592 -0.2070886 -0.0095965881
0.0099999998 -0.20712726 -0.0072342698
0.0099999998 -0.20693211 -0.0047595096
0.0099999988 -0.20687529 -0.0032842641
0.0099999988 -0.2070411 -0.00086163904
0.0099999988 -0.20681736 0.00092910591
0.0099999998 -0.20707355 0.002717504
0.0099999998 -0.20684332 0.0048096096
0.0099999988 -0.20704594 0.0068952623
0.0094317226 -0.20702511 0.0096818851
0.0094314842 -0.20697847 0.010000001
0.010000001 -0.20708825 -0.008884144
0.010000001 -0.20654304 0.008762165
-0.0093201064 -0.20488746 -0.0095135886
-0.0099999998 -0.20495623 -0.007189393
-0.0099999988 -0.20469329 -0.0046789246
-0.0099999988 -0.20514309 -0.0029154015
-0.0099999988 -0.20502399 -0.00128729
-0.010000002 -0.20490655 0.00097120152
-0.010000001 -0.20498602 0.0028709888
-0.0099999988 -0.20521216 0.0050164685
-0.0099999988 -0.20507467 0.0068664146
-0.0092485119 -0.20495138 0.0097213825
-0.0071453988 -0.20513171 -0.0099999998
-0.0068825828 -0.20495522 0.0099999988
-0.0050165346 -0.20499511 -0.0099999988
-0.0051649865 -0.20517275 0.0099999988
-0.0029448932 -0.20532107 -0.0099999988
-0.0030486095 -0.20494445 0.0099999988
-0.0012005018 -0.20500891 -0.0099999988
-0.0012551036 -0.20520262 0.0099999998
0.0010642264 -0.20512143 -0.010000001
0.0012636199 -0.20524566 0.0099999988
0.0030285099 -0.20505397 -0.010000001
0.0030725228 -0.20509344 0.0099999998
0.00507815 -0.20513563 -0.0099999998
0.0049020611 -0.20485157 0.0099999998
0.0068553165 -0.2050233 -0.0099999998
0.0068072337 -0.20494315 0.0099999998
0.0094437189 -0.20503509 -0.0094885258
0.0099999988 -0.20507672 -0.0069597745
0.0099999998 -0.20479411 -0.0048952233
0.0099999988 -0.20492506 -0.0033018391
0.0099999988 -0.20484217 -0.00094743515
0.0099999988 -0.20512967 0.0009025404
0.0099999988 -0.20502119 0.002966258
0.0099999988 -0.20510635 0.0048855813
0.0099999998 -0.20508395 0.0070545604
0.0095341736 -0.20486869 0.009316504
0.010000001 -0.2055254 -0.0089658853
-0.0093462132 -0.20306252 -0.0095285354
-0.0099999988 -0.20292562 -0.0069947764
-0.010000001 -0.2029074 -0.0049043396
-0.010000001 -0.20299566 -0.0029950901
-0.0099999998 -0.20305879 -0.00086393813
-0.0099999988 -0.20284277 0.0014409494
-0.0099999988 -0.20314792 0.0028540823
-0.0099999988 -0.20316495 0.0048144795
-0.0099999998 -0.20308974 0.0069086468
-0.0096503096 -0.20297526 0.0096160406
-0.0090390937 -0.20203458 0.010000001
-0.0069662924 -0.2031187 -0.0099999988
-0.0068775997 -0.20303153 0.0099999988
-0.0052441107 -0.20301865 -0.0099999998
-0.0046451795 -0.2025467 0.0099999988
-0.0032109544 -0.20310846 -0.010000001
-0.0030960774 -0.20297077 0.010000001
-0.0011178601 -0.20302138 -0.0099999998
-0.0011723768 -0.20290504 0.0099999998
0.00074726681 -0.20291063 -0.0099999998
0.0010669072 -0.20315836 0.0099999998
0.0031306474 -0.20304684 -0.0099999988
0.0026744134 -0.20301871 0.010000001
0.0048919101 -0.20289499 -0.0099999998
0.005051773 -0.20293558 0.010000001
0.0069835884 -0.20290142 -0.010000001
0.0071717538 -0.20282997 0.0099999988
0.0093369801 -0.20302314 -0.0095406547
0.0099999988 -0.20294419 -0.0067494302
0.0099999988 -0.20309053 -0.0051203552
0.0099999998 -0.20312922 -0.0027576522
0.0099999998 -0.20311615 -0.0011167297
0.0099999998 -0.20296958 0.0011514897
0.0099999998 -0.20266378 0.0031551952
0.0099999988 -0.20300296 0.0048627807
0.0099999988 -0.20307051 0.0068207681
0.0097111687 -0.20274864 0.0097184116
0.010000001 -0.2022524 -0.0085501941
-0.0095333634 -0.20097585 -0.0095232353
-0.0099999998 -0.20107798 -0.0069984691
-0.0099999988 -0.20139062 -0.0049156575
-0.0099999998 -0.2012101 -0.003213048
-0.0099999998 -0.20109579 -0.001178965
-0.0099999998 -0.20092228 0.00087209477
-0.010000001 -0.20094444 0.0032643175
-0.0099999998 -0.20078413 0.0048760525
-0.0099999988 -0.20080532 0.0070325276
-0.0095026586 -0.20115368 0.0094603049
-0.0068987627 -0.20106597 -0.0099999998
-0.0069973068 -0.20090999 0.0099999998
-0.0075998809 -0.2003845 0.010000001
-0.0050201169 -0.20101708 -0.0099999998
-0.0049596084 -0.2010154 0.0099999988
-0.0030019011 -0.20085065 -0.0099999988
-0.0030024222 -0.20096579 0.0099999988
-0.0013503437 -0.20105974 -0.0099999988
-0.0010370634 -0.20090605 0.0099999998
0.00098868925 -0.20115711 -0.0099999998
0.00067613431 -0.20092468 0.0099999988
0.0030895714 -0.20101923 -0.0099999988
0.002957606 -0.20111677 0.0099999988
0.0047960882 -0.20088577 -0.0099999998
0.00497449 -0.20095338 0.010000001
0.0066760015 -0.20101646 -0.0099999998
0.0070786886 -0.20111658 0.0099999998
0.0095073553 -0.20098494 -0.0096139284
0.0099999988 -0.20100987 -0.0067159375
0.010000001 -0.20112467 -0.0047900458
0.0099999988 -0.20062561 -0.0032800115
0.0099999988 -0.20112076 -0.00090622867
0.0099999998 -0.20078236 0.0012195196
0.0099999998 -0.20106235 0.0028949776
0.0099999998 -0.20112924 0.0050800843
0.0099999988 -0.20111883 0.0068445792
0.0095007708 -0.20092289 0.0095671201
-0.0096388804 -0.19897933 -0.0093398066
-0.010000002 -0.19891031 -0.0070698312
-0.010000001 -0.19886543 -0.0049680946
-0.0099999998 -0.19873638 -0.0031481222
-0.0099999998 -0.1989668 -0.0012039024
-0.010000001 -0.19893102 0.0010710809
-0.0099999988 -0.19908266 0.0031108977
-0.0099999998 -0.19896847 0.0048139459
-0.0099999998 -0.19917813 0.0072836718
-0.0093733864 -0.19925207 0.0095602041
-0.0090889791 -0.19969416 0.010000001
-0.0070675546 -0.1985846 -0.0099999988
-0.0070905406 -0.19888274 0.0099999998
-0.0049132528 -0.19908339 -0.0099999988
-0.0052083484 -0.19897693 0.0099999988
-0.0031996306 -0.19925368 -0.010000001
-0.0031254592 -0.19900516 0.0099999998
-0.0011556763 -0.19911006 -0.0099999988
-0.00094536331 -0.19855887 0.0099999988
0.00086658966 -0.19867784 -0.0099999988
0.00049078162 -0.19885504 0.0099999998
0.0028068458 -0.19865045 -0.0099999988
0.0030428991 -0.1990314 0.0099999988
0.0048452229 -0.19904831 -0.0099999988
0.0050039547 -0.19887148 0.0099999988
0.0069940216 -0.19897689 -0.010000002
0.0070005157 -0.1990321 0.0099999988
0.0093937768 -0.1990485 -0.0094526904
0.0099999988 -0.19916339 -0.007218678
0.0099999998 -0.19917826 -0.0053895586
0.0099999998 -0.19906421 -0.0028941245
0.0099999998 -0.19872893 -0.00093515671
0.0099999998 -0.19878525 0.0008815793
0.0099999988 -0.19902253 0.0027002573
0.0099999998 -0.19908226 0.0049764197
0.0099999998 -0.19894373 0.006890439
0.0093899872 -0.19903547 0.0095209917
0.010000001 -0.19943416 0.0095958244
-0.0096077444 -0.19703062 -0.0094826818
-0.0099999988 -0.19695522 -0.0073502203
-0.0099999998 -0.197285 -0.0050401725
-0.0099999998 -0.19697586 -0.0030664594
-0.0099999988 -0.19701166 -0.00096939894
-0.0099999998 -0.19692402 0.00080877676
-0.0099999988 -0.19691938 0.0028994023
-0.0099999998 -0.19714712 0.0052102194
-0.0099999988 -0.19709873 0.007367637
-0.0096479738 -0.19692729 0.0094721615
-0.0086198933 -0.1961797 0.010000001
-0.0071426481 -0.19698575 -0.0099999988
-0.0071332254 -0.19694467 0.0099999998
-0.0053453445 -0.1968291 -0.0099999998
-0.0049622986 -0.19708058 0.0099999988
-0.0030634566 -0.19686452 -0.0099999988
-0.002829534 -0.19688691 0.0099999988
-0.0012259488 -0.1969334 -0.0099999988
-0.00088202785 -0.19672427 0.0099999988
0.0011176735 -0.19698133 -0.0099999998
0.0011051778 -0.19682203 0.0099999988
0.0028432156 -0.19700186 -0.0099999988
0.0032786231 -0.19677155 0.0099999988
0.0051110922 -0.19743007 -0.0099999998
0.0049197762 -0.19722284 0.010000001
0.0071902685 -0.19693336 -0.010000001
0.0069453949 -0.19708127 0.0099999998
0.0096947169 -0.19684955 -0.0094810799
0.0099999988 -0.19671048 -0.0071526635
0.0099999988 -0.19701317 -0.0051550264
0.010000002 -0.1967669 -0.0029668715
0.0099999988 -0.19702636 -0.00089645368
0.0099999988 -0.19690239 0.0011041996
0.0099999988 -0.19702077 0.0028465861
0.0099999988 -0.19699214 0.0047786273
0.0099999988 -0.19707817 0.0069170832
0.0092305122 -0.1969637 0.0095886523
0.0086781466 -0.19715393 0.010000001
0.010000001 -0.19753808 0.0081851333
-0.0095412703 -0.19515207 -0.0093728667
-0.010000001 -0.19491622 -0.0070606754
-0.0099999998 -0.1948764 -0.0051817051
-0.0099999998 -0.19481757 -0.0031250424
-0.010000001 -0.19492428 -0.00093348866
-0.0099999998 -0.19486277 0.00072715856
-0.0099999988 -0.19513625 0.0031668306
-0.0099999998 -0.19498301 0.0048097041
-0.0099999998 -0.19482379 0.0069953548
-0.0093743801 -0.19480167 0.0097116632
-0.0071217832 -0.19508223 -0.0099999988
-0.0070096874 -0.19482823 0.0099999988
-0.0049671098 -0.1951708 -0.0099999998
-0.0048804092 -0.19500212 0.010000001
-0.002959385 -0.19474636 -0.0099999988
-0.0030517555 -0.19500144 0.0099999988
-0.00090065174 -0.195076 -0.0099999988
-0.0014734012 -0.1951787 0.0099999988
0.0011888804 -0.19493453 -0.0099999998
0.00082535937 -0.19495113 0.0099999998
0.0029400773 -0.19517824 -0.0099999988
0.0029130827 -0.19495066 0.0099999988
0.0050873216 -0.19503009 -0.0099999988
0.0051657711 -0.19525655 0.0099999988
0.0068086553 -0.19488287 -0.010000001
0.0071488353 -0.19500631 0.0099999988
0.0095235715 -0.19501284 -0.0093817646
0.0099999998 -0.19512577 -0.0071205231
0.0099999998 -0.19523458 -0.0053120218
0.0099999998 -0.19467878 -0.0029710876
0.0099999988 -0.19492371 -0.0012246423
0.0099999988 -0.19495694 0.00095013448
0.0099999988 -0.19533491 0.0027624588
0.0099999998 -0.19514345 0.0048511969
0.0099999998 -0.19496906 0.006868321
0.0096567664 -0.19503871 0.0092767524
0.0098695317 -0.1946844 0.010000001
0.010000001 -0.195981 -0.0095665455
0.010000001 -0.19425645 0.0071494393
0.010000001 -0.1948529 0.008877648
-0.0095204646 -0.19308865 -0.0096596647
-0.010000001 -0.19297867 -0.0069866721
-0.0099999988 -0.19284578 -0.0050629447
-0.0099999988 -0.19325693 -0.0031963943
-0.0099999988 -0.19313028 -0.0011117324
-0.0099999988 -0.19303592 0.0010742772
-0.0099999988 -0.19318123 0.0029656002
-0.0099999988 -0.19303851 0.0050181514
-0.0099999988 -0.19274585 0.0070499675
-0.0094444156 -0.19291444 0.0095324703
-0.0069826622 -0.19307163 -0.0099999998
-0.0067982553 -0.19253047 0.0099999988
-0.0069797295 -0.19253872 0.010000001
-0.0049346462 -0.19277304 -0.010000001
-0.004947897 -0.19329806 0.0099999988
-0.0031330993 -0.1929837 -0.0099999998
-0.0029644698 -0.1931036 0.0099999998
-0.0010612879 -0.19307579 -0.010000001
-0.0010377627 -0.19308993 0.010000001
0.0011945132 -0.19293784 -0.010000001
0.0011132587 -0.19298927 0.0099999998
0.0030644643 -0.19280954 -0.0099999988
0.0027415203 -0.19280754 0.0099999988
0.0049074679 -0.19326361 -0.0099999998
0.0046269167 -0.19318543 0.0099999988
0.0072498554 -0.19318454 -0.0099999988
0.0070826816 -0.19291177 0.0099999998
0.0092746485 -0.19304296 -0.0095868139
0.0099999998 -0.19298697 -0.0070741326
0.0099999988 -0.19283544 -0.0049226256
0.0099999998 -0.19298951 -0.0032305957
0.0099999998 -0.19296438 -0.00093890942
0.0099999998 -0.19312635 0.00086280942
0.0099999998 -0.19313417 0.0029138601
0.0099999988 -0.1929398 0.0050257868
0.0099999998 -0.19295624 0.0070138886
0.009436463 -0.19299573 0.0095021687
0.0090445699 -0.19255669 0.010000001
0.010000001 -0.19272497 -0.0095442515
-0.009524419 -0.19098273 -0.0095440764
-0.0099999998 -0.1910432 -0.0069674118
-0.0099999988 -0.1911059 -0.0049810894
-0.0099999988 -0.19110003 -0.0027932473
-0.0099999988 -0.19067086 -0.00085976964
-0.0099999998 -0.19110337 0.0010058146
-0.0099999988 -0.190533 0.0030965169
-0.010000001 -0.19099504 0.0051597236
-0.0099999988 -0.19101545 0.0067790984
-0.0091154836 -0.1911222 0.0097565157
-0.0070403828 -0.19114564 -0.010000002
-0.0069474708 -0.19092923 0.0099999988
-0.0051082205 -0.1909987 -0.0099999988
-0.0049446323 -0.1908325 0.0099999998
-0.0029436671 -0.19104324 -0.010000001
-0.0033578053 -0.19072381 0.0099999988
-0.0012536296 -0.19098644 -0.010000001
-0.0011829588 -0.19114919 0.0099999998
0.00106542 -0.19095881 -0.0099999988
0.00086358946 -0.19087644 0.0099999988
0.0031105857 -0.19138667 -0.0099999988
0.0028973403 -0.19086784 0.0099999998
0.0050852303 -0.19085096 -0.0099999998
0.0050058509 -0.19083957 0.0099999988
0.0069217463 -0.19097155 -0.0099999988
0.0070296102 -0.19088453 0.0099999998
0.0093476018 -0.19101693 -0.0094526485
0.0099999988 -0.19078679 -0.0071238019
0.0099999988 -0.19082181 -0.0049057389
0.010000001 -0.19083357 -0.002953761
0.010000002 -0.190888 -0.00097872165
0.0099999988 -0.19098212 0.00080944097
0.010000001 -0.19088037 0.0027610229
0.0099999988 -0.19109514 0.005076563
0.010000001 -0.19072761 0.0072057014
0.0095053483 -0.19114023 0.0096308114
0.010000001 -0.19056882 -0.0097007416
-0.0094196973 -0.18908273 -0.0096142748
-0.0099999998 -0.18894328 -0.0069100419
-0.0099999988 -0.18864019 -0.0050666295
-0.0099999988 -0.1886214 -0.003083651
-0.010000001 -0.18897773 -0.00097085442
-0.0099999998 -0.18899709 0.00099748501
-0.010000001 -0.18895839 0.0031353142
-0.0099999988 -0.18876319 0.0048816777
-0.0099999988 -0.18922868 0.0069535114
-0.0095711239 -0.18893233 0.0094116535
-0.0070410185 -0.18883389 -0.0099999988
-0.0071304305 -0.18899408 0.010000001
-0.0075557819 -0.18909717 0.010000001
-0.004982681 -0.18901271 -0.010000002
-0.0050069341 -0.18917364 0.0099999988
-0.0031130339 -0.18910119 -0.0099999988
-0.0027300308 -0.18885258 0.0099999988
-0.00093886274 -0.189092 -0.0099999988
-0.0010520821 -0.18898211 0.0099999998
0.00090094481 -0.18910587 -0.0099999998
0.0011883598 -0.18875487 0.0099999988
0.0029048175 -0.18887836 -0.0099999988
0.0031985249 -0.18907803 0.0099999988
0.0049504167 -0.18921646 -0.0099999988
0.0049923719 -0.18894173 0.0099999998
0.0069014505 -0.18890613 -0.0099999998
0.0068798717 -0.18895179 0.0099999998
0.009411592 -0.18917416 -0.0095135607
0.0099999988 -0.18873377 -0.0069362544
0.0099999988 -0.18895394 -0.0047064647
0.010000001 -0.18887907 -0.0028152748
0.0099999988 -0.18918723 -0.0011347616
0.0099999988 -0.18891422 0.0012861369
0.0099999988 -0.1887912 0.0029548756
0.0099999998 -0.18925183 0.0051194825
0.0099999998 -0.18909384 0.0066822646
0.0091240937 -0.18882754 0.0097669661
0.010000001 -0.18942177 0.007700894
0.010000001 -0.18909401 0.0087709874
-0.0095892325 -0.18708783 -0.0093998797
-0.0099999988 -0.18731105 -0.0066656666
-0.0099999998 -0.18694906 -0.004850992
-0.0099999998 -0.18688253 -0.0032265554
-0.0099999988 -0.18682379 -0.00072026579
-0.0099999998 -0.18712486 0.001200142
-0.0099999998 -0.18720661 0.0033908938
-0.0099999988 -0.18666123 0.00470042
-0.0099999988 -0.18713397 0.0070369663
-0.0094005764 -0.1869856 0.0096445531
-0.0071583944 -0.18720883 -0.0099999988
-0.0068298662 -0.18713567 0.0099999988
-0.0047488017 -0.18679759 -0.0099999988
-0.0051722936 -0.18681929 0.0099999998
-0.0029051618 -0.18723033 -0.010000001
-0.0028720871 -0.18675987 0.0099999988
-0.00087219407 -0.18712209 -0.0099999998
-0.00098850986 -0.18680769 0.0099999998
0.00094239565 -0.18709575 -0.0099999988
0.00094529602 -0.18699512 0.0099999988
0.0028835402 -0.18692809 -0.0099999998
0.003230517 -0.18710633 0.010000001
0.005182059 -0.18726854 -0.0099999988
0.0049399403 -0.1870653 0.010000001
0.0071501359 -0.18683685 -0.0099999988
0.0068801604 -0.18701513 0.0099999998
0.0096524451 -0.18686971 -0.0094229085
0.0099999988 -0.18719175 -0.0068883351
0.0099999998 -0.1870243 -0.0046822624
0.0099999988 -0.18702662 -0.0029429041
0.0099999988 -0.18695799 -0.0010842634
0.0099999998 -0.18703464 0.00095078012
0.0099999988 -0.18746109 0.0031107375
0.0099999988 -0.18713051 0.0047537866
0.0099999988 -0.18708849 0.0071096071
0.0094204508 -0.1870393 0.0095378011
-0.0095317084 -0.18497667 -0.0095007597
-0.0099999998 -0.18484139 -0.0069470415
-0.0099999988 -0.18455264 -0.0052489871
-0.0099999998 -0.18499696 -0.0028771015
-0.0099999988 -0.18516855 -0.0010321687
-0.0099999998 -0.18482044 0.00083102949
-0.010000001 -0.18483348 0.0031004411
-0.0099999988 -0.18485022 0.0050772531
-0.0099999988 -0.1851342 0.006897972
-0.0095764883 -0.18508071 0.0094927913
-0.0066901171 -0.18450737 -0.0099999988
-0.0069227717 -0.18485136 0.0099999988
-0.0075863507 -0.18510984 0.010000001
-0.0049227262 -0.18498866 -0.0099999988
-0.0046709129 -0.18462312 0.0099999998
-0.0029983136 -0.18511182 -0.0099999988
-0.0031971415 -0.18469763 0.0099999988
-0.0011345149 -0.18512578 -0.010000002
-0.0010175034 -0.18492348 0.0099999988
0.00079097116 -0.18483105 -0.0099999988
0.00090378145 -0.18485345 0.0099999988
0.0027761266 -0.18494977 -0.0099999998
0.0027983948 -0.18475401 0.0099999988
0.0051602693 -0.18497536 -0.0099999988
0.0050907293 -0.18510205 0.0099999988
0.0067128679 -0.18517689 -0.0099999988
0.0067738327 -0.18510506 0.010000001
0.0094978791 -0.18522649 -0.0094117261
0.010000001 -0.18499571 -0.0068932907
0.0099999998 -0.18487333 -0.0050217314
0.0099999998 -0.18513907 -0.0028652383
0.0099999998 -0.18496205 -0.0009890626
0.0099999988 -0.18478724 0.0010779767
0.0099999998 -0.18509354 0.003171202
0.010000001 -0.18499681 0.0050864019
0.0099999988 -0.18486761 0.006916462
