# .PCD v0.7 - Point Cloud Data file format
VERSION 0.7
FIELDS x y z
SIZE 4 4 4
TYPE F F F
COUNT 1 1 1
WIDTH 1214
HEIGHT 1
VIEWPOINT 0 0 0 1 0 0 0
POINTS 1214
DATA ascii
0.010000001 -0.080074273 0.0064828242
0.010000001 -0.080754638 0.0093549155
-0.0094910571 -0.078942597 -0.0095426477
-0.010000001 -0.078871861 -0.0070470455
-0.0099999988 -0.078952111 -0.0049226619
-0.0099999998 -0.079065256 -0.0029614442
-0.0099999988 -0.07910531 -0.0008510605
-0.010000002 -0.079134762 0.0010621567
-0.010000001 -0.07896816 0.0029874989
-0.0099999988 -0.079022981 0.0049517145
-0.010000001 -0.079132542 0.0070823105
-0.0096971998 -0.078881361 0.0093810549
-0.0067119906 -0.079010673 -0.010000002
-0.0071347677 -0.079018451 0.010000001
-0.0050610998 -0.079025045 -0.0099999979
-0.0050126007 -0.079040028 0.0099999998
-0.0030128411 -0.079073407 -0.0099999988
-0.0030626222 -0.078846768 0.010000002
-0.00089991547 -0.078934163 -0.010000002
-0.00094722182 -0.07885281 0.010000002
0.00070330716 -0.078950442 -0.010000002
0.0010153349 -0.079071507 0.010000001
0.0029592454 -0.079175562 -0.010000001
0.0033783815 -0.079073228 0.010000001
0.0050638057 -0.078993589 -0.010000001
0.0049343118 -0.078905769 0.010000002
0.0053653112 -0.078879692 0.010000001
0.0070091034 -0.078617468 -0.010000002
0.0071148574 -0.078785531 0.0099999998
0.0074011916 -0.07899902 0.010000001
0.0094960155 -0.078882195 -0.0094897458
0.0099999979 -0.079017855 -0.0070987707
0.0099999979 -0.078874893 -0.004884141
0.010000001 -0.078908883 -0.0029857969
0.0099999988 -0.078850187 -0.001225576
0.0099999998 -0.078978255 0.00096279313
0.010000001 -0.0790525 0.0029119775
0.0099999979 -0.078970827 0.0049844054
0.010000001 -0.07909105 0.0071757808
0.0094242552 -0.078975506 0.009436639
0.0085324487 -0.079918355 0.010000001
0.010000001 -0.07872209 0.0088270344
-0.0093780216 -0.077099778 -0.0096387025
-0.0099999988 -0.077092059 -0.0070684878
-0.0099999988 -0.077161036 -0.004988906
-0.010000001 -0.076806717 -0.0029630596
-0.010000002 -0.077073418 -0.00092446117
-0.010000001 -0.077023439 0.0010682751
-0.0099999979 -0.076964997 0.0029289015
-0.010000001 -0.076845437 0.0050994656
-0.0099999988 -0.076970659 0.007018954
-0.009496985 -0.07696268 0.0095906649
-0.006838636 -0.077009916 -0.010000001
-0.0069995318 -0.076954305 0.010000001
-0.0050101187 -0.076985188 -0.0099999979
-0.0050051832 -0.07699208 0.010000001
-0.0030701419 -0.076966278 -0.009999997
-0.0030037058 -0.076911278 0.0099999979
-0.0010506017 -0.076798461 -0.010000001
-0.00092505646 -0.07687813 0.010000001
0.00097014708 -0.077040248 -0.0099999988
0.0008947879 -0.076943412 0.010000001
0.0027837828 -0.07686428 -0.010000001
0.0029426119 -0.077157356 0.0099999988
0.0050441455 -0.076946102 -0.0099999998
0.0049815006 -0.077054642 0.0099999988
0.0052322643 -0.077604622 0.010000001
0.0069343089 -0.077009432 -0.0099999998
0.0069035725 -0.076954089 0.010000001
0.0076521426 -0.076207094 0.010000001
0.0094481762 -0.076928124 -0.0096270014
0.010000001 -0.076975748 -0.0070700729
0.010000002 -0.076782048 -0.0048717624
0.0099999988 -0.076991878 -0.0027355666
0.0099999988 -0.076863967 -0.00096264557
0.0099999988 -0.07712701 0.00091751886
0.010000001 -0.077100068 0.0029424909
0.010000001 -0.077189356 0.0048851226
0.0099999998 -0.076967247 0.0070316978
0.0095328847 -0.076900803 0.0095687089
0.010000001 -0.07694599 0.0069853552
0.010000001 -0.076137275 0.0097389957
-0.0093737608 -0.074973635 -0.0097027188
-0.010000001 -0.074848786 -0.0068904841
-0.0099999979 -0.074983396 -0.004933856
-0.010000002 -0.074967399 -0.0029698238
-0.0099999988 -0.07497327 -0.0010844924
-0.010000002 -0.074880421 0.0010179463
-0.0099999979 -0.074947394 0.0029786818
-0.0099999998 -0.074878462 0.0051551661
-0.010000001 -0.075007893 0.0069430596
-0.0093216719 -0.074868903 0.0094920285
-0.0068816477 -0.074945204 -0.009999997
-0.0070169237 -0.074808754 0.0099999988
-0.0051180376 -0.07508833 -0.0099999988
-0.0048698592 -0.075071633 0.010000001
-0.0029983907 -0.074968904 -0.0099999988
-0.0030469829 -0.074990295 0.0099999998
-0.00079253706 -0.07484974 -0.010000002
-0.0010468062 -0.075022936 0.010000001
0.0010604187 -0.074913912 -0.0099999979
0.0010325904 -0.075135358 0.0099999988
0.0028502531 -0.07512781 -0.010000002
0.002908021 -0.074917667 0.010000002
0.0037207932 -0.074993856 0.010000001
0.0052004755 -0.074901171 -0.0099999988
0.0049921898 -0.075042926 0.010000001
0.0056159496 -0.074734285 0.010000001
0.007034156 -0.074863642 -0.010000001
0.0068224417 -0.074901477 0.010000002
0.0094987089 -0.075020701 -0.0094100116
0.010000001 -0.074835822 -0.0070267292
0.0099999988 -0.075099766 -0.0050308267
0.0099999979 -0.075166903 -0.0030297351
0.0099999998 -0.075156711 -0.0010806302
0.010000002 -0.074781582 0.00092557207
0.010000001 -0.075042322 0.0028909978
0.010000002 -0.075022966 0.0048622536
0.0099999988 -0.074988015 0.0070049497
0.0094675627 -0.075161658 0.0095255412
0.010000001 -0.074511297 0.0070402324
0.010000001 -0.075141303 0.0086590452
-0.009491818 -0.073126607 -0.0094728284
-0.0099999988 -0.073028594 -0.0070317131
-0.0099999979 -0.073036388 -0.0050691017
-0.010000001 -0.073055573 -0.0029612002
-0.0099999998 -0.072860226 -0.00090533798
-0.010000001 -0.072924174 0.00095005229
-0.0099999998 -0.073076233 0.0031039279
-0.010000001 -0.072973207 0.004896733
-0.0099999979 -0.073018961 0.0068157599
-0.0095770108 -0.073031552 0.0094024893
-0.0069485232 -0.073066212 -0.010000002
-0.007043804 -0.073174186 0.0099999988
-0.0047911191 -0.072993062 -0.0099999988
-0.005185382 -0.073070407 0.0099999988
-0.0029997819 -0.072850682 -0.010000001
-0.0028800708 -0.072958544 0.010000002
-0.0010589546 -0.073131122 -0.010000002
-0.00108757 -0.073165961 0.0099999998
0.00082582753 -0.072977826 -0.0099999998
0.0011394095 -0.072938524 0.010000002
0.0027700181 -0.073069721 -0.0099999988
0.0030071386 -0.073125802 0.0099999998
0.0048209745 -0.073085539 -0.010000001
0.0049372534 -0.073029883 0.010000001
0.0046952656 -0.072839253 0.010000001
0.0073978296 -0.073065311 -0.010000001
0.0070302128 -0.072976127 0.009999997
0.0094448086 -0.073053233 -0.0095369555
0.009999997 -0.072932661 -0.006966623
0.0099999979 -0.073050171 -0.0050133234
0.0099999988 -0.073072866 -0.0028610923
0.010000002 -0.07296595 -0.00108594
0.010000001 -0.073150434 0.00079921354
0.0099999998 -0.072931394 0.0029941802
0.0099999979 -0.073019005 0.0051291739
0.010000001 -0.072966129 0.0068293572
0.0092747286 -0.072827585 0.0095682694
0.010000001 -0.073469579 0.0074212421
0.010000001 -0.073227122 0.0090744002
-0.0094687771 -0.071062438 -0.0096791908
-0.0099999998 -0.071125649 -0.0070751216
-0.0099999998 -0.070867293 -0.0049126847
-0.0099999988 -0.070865847 -0.003067547
-0.0099999979 -0.070994481 -0.00099212804
-0.010000001 -0.070871651 0.0010067674
-0.010000001 -0.071015015 0.0030204537
-0.0099999988 -0.070892431 0.0048369048
-0.010000001 -0.071175814 0.0070916158
-0.0094336318 -0.070985965 0.0096302126
-0.0069429805 -0.071080893 -0.0099999979
-0.0069464897 -0.070717931 0.010000001
-0.0050151427 -0.070938297 -0.0099999988
-0.0050829789 -0.070921987 0.0099999979
-0.0028889833 -0.070658185 -0.0099999988
-0.0029079029 -0.070865795 0.010000001
-0.0011420677 -0.070991836 -0.010000002
-0.0010087204 -0.070957631 0.010000001
0.0011487544 -0.070844337 -0.0099999988
0.00094265339 -0.071025491 0.010000001
0.0030370126 -0.071125597 -0.010000001
0.002790557 -0.071061313 0.010000001
0.0050789262 -0.071041569 -0.0099999988
0.0048670182 -0.070968643 0.0099999988
0.0046279067 -0.070244573 0.010000001
0.0072405497 -0.070729151 -0.010000001
0.0071093538 -0.070925288 0.0099999998
0.00956327 -0.071003623 -0.009482421
0.0099999998 -0.07104028 -0.0068671834
0.009999997 -0.07109914 -0.0050260853
0.010000001 -0.07106401 -0.002935095
0.010000001 -0.070988052 -0.00099786464
0.010000001 -0.070995867 0.00089759688
0.010000001 -0.070997149 0.0031234659
0.010000001 -0.070992157 0.0048779515
0.010000001 -0.071141794 0.0071506733
0.0095921895 -0.071025908 0.0095044412
0.010000001 -0.070752569 0.0075704316
0.010000001 -0.0710354 0.0091812257
-0.0096877059 -0.068891972 -0.0093756886
-0.010000002 -0.068909869 -0.006974516
-0.0099999988 -0.069079593 -0.005149697
-0.0099999988 -0.068968385 -0.0030074969
-0.010000001 -0.068913892 -0.00080039678
-0.010000001 -0.069015726 0.0010369575
-0.0099999979 -0.068980917 0.0030125761
-0.0099999998 -0.069075741 0.0051122317
-0.010000001 -0.06915734 0.0070144478
-0.0094734095 -0.068919703 0.0094888182
-0.0069858101 -0.06876751 -0.010000002
-0.0068262448 -0.069130033 0.0099999979
-0.0048439754 -0.068912916 -0.0099999988
-0.0050645429 -0.069009222 0.0099999998
-0.0030310021 -0.069041848 -0.0099999979
-0.0029298244 -0.068797678 0.009999997
-0.00094198139 -0.06907513 -0.0099999988
-0.0011801325 -0.068917103 0.010000001
0.00092952279 -0.06895455 -0.0099999988
0.00088428636 -0.068894587 0.0099999998
0.0031544717 -0.068948224 -0.0099999988
0.0030147838 -0.068909258 0.0099999988
0.0049511883 -0.068898775 -0.0099999979
0.0051335576 -0.069160782 0.010000002
0.0071453196 -0.069178656 -0.0099999998
0.0071711494 -0.068963647 0.0099999979
0.0094577773 -0.069041274 -0.0096187238
0.0099999998 -0.06906499 -0.0069616926
0.010000002 -0.068861187 -0.0051068566
0.0099999979 -0.068907946 -0.0030436423
0.010000001 -0.069225714 -0.00094299769
0.010000002 -0.06895864 0.0010270389
0.010000001 -0.068883292 0.0030512456
0.0099999988 -0.069024362 0.0048959153
0.010000002 -0.068908393 0.0069484287
0.0095038377 -0.068840355 0.0095981276
0.010000001 -0.069125906 0.0093337148
-0.0094379699 -0.066945419 -0.009505121
-0.0099999998 -0.06689202 -0.0072143739
-0.010000001 -0.067193389 -0.0052798451
-0.0099999988 -0.06705121 -0.003022488
-0.0099999998 -0.067032203 -0.00097088318
-0.0099999979 -0.067162834 0.0010869373
-0.010000001 -0.067049913 0.0032220336
-0.010000002 -0.066985726 0.0048854463
-0.0099999979 -0.066886231 0.0068577537
-0.0096643353 -0.067055576 0.0095361322
-0.0070664454 -0.066984989 -0.0099999979
-0.0069370703 -0.06720598 0.010000001
-0.0049964255 -0.066987634 -0.0099999988
-0.0052401321 -0.067014672 0.0099999998
-0.0030086867 -0.066989474 -0.0099999979
-0.0030536174 -0.06707105 0.0099999988
-0.0010014937 -0.06679181 -0.0099999979
-0.001009898 -0.06701909 0.010000001
0.00092245126 -0.067002051 -0.009999997
0.00087725016 -0.067070663 0.010000001
0.0028471227 -0.066937514 -0.010000001
0.0028312814 -0.066869624 0.0099999979
0.0030030806 -0.067809068 0.010000001
0.0049973028 -0.066986471 -0.010000001
0.0051131062 -0.066925399 0.0099999988
0.0068978006 -0.06684947 -0.0099999998
0.0067765014 -0.066972323 0.010000001
0.0094372248 -0.066986382 -0.0095987599
0.0099999998 -0.067061648 -0.0071221297
0.010000002 -0.066982403 -0.0049873702
0.010000001 -0.066914044 -0.0029843024
0.0099999988 -0.067029767 -0.001005951
0.010000002 -0.067225978 0.0010054162
0.0099999988 -0.066986874 0.0029855932
0.010000001 -0.066993311 0.0049360427
0.010000001 -0.066899516 0.0068610446
0.0093990434 -0.067063317 0.0095545854
0.010000001 -0.06687627 0.0072720679
0.010000001 -0.067082956 0.0084112231
-0.0095242942 -0.064909376 -0.0094153546
-0.010000002 -0.065085098 -0.0070624929
-0.010000001 -0.064975888 -0.0049038939
-0.010000001 -0.064933978 -0.003032729
-0.010000001 -0.065226249 -0.0010564036
-0.010000001 -0.065021686 0.0011727893
-0.010000001 -0.065019503 0.0028175358
-0.0099999988 -0.065109998 0.0048055919
-0.0099999998 -0.06486059 0.007079714
-0.009565982 -0.064888485 0.009463558
-0.0071357833 -0.064956784 -0.0099999961
-0.0068427068 -0.065072782 0.010000002
-0.0049729301 -0.064997189 -0.010000002
-0.0048726508 -0.065051273 0.010000001
-0.0031324616 -0.064686477 -0.0099999998
-0.0029739172 -0.065208428 0.0099999988
-0.00091804034 -0.064982772 -0.0099999979
-0.00091230776 -0.065002285 0.0099999988
0.00094584905 -0.065169908 -0.009999997
0.00088259229 -0.064830281 0.0099999998
0.0030251087 -0.065117016 -0.0099999988
0.0029490474 -0.065000288 0.010000002
0.0031736116 -0.064849339 0.010000001
0.0051020393 -0.065170504 -0.0099999988
0.0050999662 -0.064946786 0.010000001
0.0068698339 -0.064866737 -0.0099999988
0.0070788893 -0.065061398 0.010000001
0.0094067818 -0.065054029 -0.0094455983
0.0099999988 -0.065029152 -0.006920998
0.0099999988 -0.064914629 -0.0048421011
0.010000001 -0.065029994 -0.0029596232
0.010000002 -0.065023035 -0.00095082482
0.010000001 -0.065127268 0.0010501795
0.010000001 -0.065146714 0.0028467858
0.0099999979 -0.065013424 0.0048115775
0.0099999998 -0.064970039 0.0068660346
0.009532826 -0.065195821 0.009479844
0.010000001 -0.06464754 0.0080745565
-0.0095252236 -0.062982112 -0.0094872061
-0.010000002 -0.062871926 -0.006817406
-0.010000001 -0.063111342 -0.0050016399
-0.0099999979 -0.06299331 -0.0029828956
-0.010000002 -0.063068807 -0.00080924551
-0.010000002 -0.063072488 0.00090347131
-0.0099999998 -0.063040793 0.002893802
-0.010000001 -0.062943302 0.005009091
-0.010000002 -0.062901355 0.007146751
-0.0095816944 -0.063088812 0.0094326735
-0.0070507326 -0.062957346 -0.0099999998
-0.0068976558 -0.063119389 0.0099999988
-0.0050200829 -0.062986985 -0.0099999998
-0.0050020814 -0.06282983 0.010000001
-0.0028867149 -0.06315098 -0.0099999998
-0.0030829501 -0.062972143 0.010000001
-0.0010027939 -0.062779576 -0.010000001
-0.0011288646 -0.063117497 0.0099999988
0.00095358642 -0.063008964 -0.0099999988
0.00086724095 -0.062932111 0.0099999998
0.0030156784 -0.062958904 -0.0099999988
0.0031460498 -0.063020125 0.0099999979
0.0030841988 -0.063580796 0.010000001
0.0048518237 -0.062792011 -0.010000001
0.0051712543 -0.063011639 0.010000001
0.0070489324 -0.062839739 -0.010000001
0.0068669794 -0.062829114 0.010000001
0.0093746334 -0.062890679 -0.0095054973
0.010000001 -0.063130602 -0.0070745279
0.0099999988 -0.063009784 -0.0050802003
0.010000001 -0.063177034 -0.0027573179
0.0099999979 -0.063079581 -0.00090212142
0.0099999988 -0.063092507 0.0009856259
0.010000001 -0.063057818 0.0030754823
0.010000001 -0.062879138 0.0049215588
0.010000001 -0.063092157 0.0070748166
0.009494938 -0.062959626 0.0094574029
0.010000001 -0.063423403 -0.008748333
-0.0094958749 -0.061007947 -0.0095512401
-0.0099999988 -0.06098558 -0.0070543992
-0.0099999988 -0.060962521 -0.0051306691
-0.010000002 -0.060974024 -0.003035323
-0.010000001 -0.061103866 -0.0010321861
-0.010000001 -0.061179373 0.00084413972
-0.0099999988 -0.060965031 0.0031159611
-0.0099999988 -0.06093704 0.0048391777
-0.010000001 -0.061060879 0.0068197404
-0.0095392251 -0.060897309 0.0093245404
-0.0066903159 -0.061015956 -0.0099999988
-0.0069421628 -0.060855951 0.0099999998
-0.0049301856 -0.06077186 -0.010000001
-0.0048966575 -0.060994081 0.010000001
-0.0029490227 -0.061081331 -0.0099999988
-0.0031082318 -0.06101181 0.0099999979
-0.0010764372 -0.060888555 -0.010000001
-0.0010592107 -0.061034039 0.0099999988
0.00099915022 -0.060979847 -0.0099999998
0.00088666775 -0.061001703 0.010000001
0.0030290333 -0.060909647 -0.0099999979
0.0028681119 -0.060966209 0.0099999998
0.003489557 -0.061977308 0.010000001
0.0050458233 -0.060983658 -0.009999997
0.0050632255 -0.061038647 0.0099999979
0.0069265617 -0.06107096 -0.010000002
0.0069783567 -0.06108759 0.0099999979
0.009490123 -0.060862765 -0.0095311319
0.0099999988 -0.061006092 -0.0068903887
0.010000002 -0.060952887 -0.0051319925
0.010000002 -0.060983788 -0.0030971935
0.0099999979 -0.061094757 -0.00075739948
0.0099999998 -0.061168551 0.0010421142
0.0099999988 -0.060831759 0.0028291636
0.0099999998 -0.061077639 0.0050538126
0.0099999988 -0.061084695 0.0071507059
0.0096097738 -0.060992036 0.0093764002
0.010000001 -0.06189334 0.0078214072
0.010000001 -0.061047997 0.0094903205
-0.009396065 -0.058847766 -0.0096822679
-0.010000001 -0.05916762 -0.0070634116
-0.010000001 -0.058971506 -0.0049778298
-0.010000002 -0.059020311 -0.003156634
-0.009999997 -0.058970459 -0.00089449668
-0.0099999988 -0.059037428 0.0011251884
-0.010000001 -0.059155066 0.0030657675
-0.0099999988 -0.058915667 0.0049799546
-0.0099999998 -0.059081186 0.0068795499
-0.0095128492 -0.059037656 0.0094369072
-0.0070350445 -0.059097748 -0.010000001
-0.0069892281 -0.059114084 0.010000001
-0.0049581574 -0.059181225 -0.0099999979
-0.0051922798 -0.058898054 0.010000002
-0.0029055269 -0.059065279 -0.010000001
-0.0028974034 -0.058867358 0.0099999979
-0.00098679634 -0.058990151 -0.010000001
-0.0010397288 -0.059073415 0.010000002
0.0011034604 -0.059060924 -0.010000001
0.00093912182 -0.059122182 0.0099999988
0.0029225827 -0.059054404 -0.0099999998
0.0031065522 -0.059134107 0.010000001
0.0047973879 -0.059018698 -0.0099999988
0.0050211558 -0.058915239 0.0099999979
0.006886913 -0.059087928 -0.0099999988
0.0071153115 -0.059017498 0.0099999988
0.0094104828 -0.0590031 -0.0095540686
0.010000002 -0.059117477 -0.0070741824
0.0099999979 -0.059149627 -0.0051181717
0.0099999979 -0.059180375 -0.0029889967
0.010000001 -0.058922604 -0.00092518248
0.0099999979 -0.058988832 0.00091221055
0.010000002 -0.058853302 0.0028111984
0.0099999998 -0.059010416 0.0050819307
0.010000001 -0.05893011 0.0069626975
0.0094718952 -0.059087161 0.0095862877
0.010000001 -0.059740379 0.0084331091
-0.0094340788 -0.057077847 -0.0095432764
-0.010000002 -0.056990858 -0.0071442919
-0.010000001 -0.056922436 -0.0050489376
-0.010000002 -0.056946751 -0.0030596273
-0.010000001 -0.056975551 -0.0010359852
-0.0099999988 -0.057131566 0.00083638181
-0.010000001 -0.056962527 0.0028090025
-0.010000001 -0.056959186 0.0049579707
-0.010000002 -0.056812484 0.0068461611
-0.0095677357 -0.057059497 0.0095097395
-0.0070339744 -0.057090726 -0.010000001
-0.0070584128 -0.057062924 0.0099999979
-0.0050427821 -0.05694804 -0.0099999998
-0.0048870407 -0.05708969 0.0099999998
-0.0031457141 -0.057026226 -0.010000001
-0.0028507076 -0.056953602 0.0099999988
-0.0011800792 -0.057086691 -0.0099999988
-0.001092052 -0.056942899 0.010000002
0.00099297275 -0.057109058 -0.010000001
0.0010679107 -0.056889731 0.009999997
0.0029751956 -0.057113878 -0.0099999988
0.0030906994 -0.057076693 0.0099999979
0.0051103383 -0.057022214 -0.010000001
0.0051243966 -0.056949776 0.0099999979
0.0069586597 -0.05699122 -0.009999997
0.0071387724 -0.056999203 0.0099999988
0.0095272576 -0.056894403 -0.0094908206
0.0099999979 -0.057058677 -0.0069272402
0.0099999998 -0.057219982 -0.0048731733
0.0099999988 -0.056856103 -0.0028846974
0.010000002 -0.057041977 -0.0010229505
0.0099999998 -0.056933679 0.00099542609
0.0099999979 -0.056918867 0.0031447751
0.0099999998 -0.056852512 0.0049446132
0.010000002 -0.057028066 0.006881074
0.0094909407 -0.057039388 0.009506776
-0.0093844077 -0.055013619 -0.0096277278
-0.010000001 -0.055116914 -0.0068665138
-0.009999997 -0.054912932 -0.0049805488
-0.0099999988 -0.054989461 -0.0029559531
-0.0099999988 -0.055101596 -0.00093995966
-0.010000001 -0.055100176 0.00084296963
-0.0099999988 -0.054962438 0.0029040223
-0.0099999988 -0.055067103 0.0049162148
-0.0099999998 -0.055094793 0.006930212
-0.0094819861 -0.055094551 0.0094457576
-0.0070451056 -0.055008262 -0.010000003
-0.0069969539 -0.054998595 0.010000001
-0.004872926 -0.054706428 -0.0099999998
-0.0050044423 -0.05490138 0.0099999988
-0.0029336435 -0.055021342 -0.010000001
-0.0028955152 -0.05510775 0.010000001
-0.0011425744 -0.054838471 -0.010000001
-0.0010310854 -0.054916292 0.010000002
0.00096305076 -0.054851111 -0.0099999988
0.001119619 -0.054922719 0.009999997
0.0031887589 -0.054931153 -0.0099999998
0.002965264 -0.055122279 0.010000002
0.0048229974 -0.054928243 -0.010000002
0.0051343278 -0.054912295 0.0099999998
0.0068411725 -0.054991543 -0.0099999961
0.0068485159 -0.055174939 0.010000001
0.0094609624 -0.054978319 -0.0094605219
0.010000001 -0.055076409 -0.0071935626
0.010000002 -0.054889731 -0.0049375789
0.010000001 -0.054943547 -0.0031313824
0.0099999998 -0.055021755 -0.0010432532
0.0099999979 -0.055016685 0.00105546
0.0099999988 -0.054944668 0.0030750565
0.0099999988 -0.055000506 0.0048785354
0.0099999979 -0.055067532 0.0069390279
0.0094482088 -0.054987725 0.0095825065
0.010000001 -0.054802153 0.0076162773
-0.0093318764 -0.052960448 -0.009532826
-0.0099999988 -0.053036209 -0.0070586419
-0.010000001 -0.053005908 -0.0048675034
-0.010000002 -0.053099286 -0.0029537869
-0.0099999979 -0.052850675 -0.0010687644
-0.009999997 -0.053075034 0.00090122793
-0.0099999988 -0.053042464 0.0031652735
-0.0099999988 -0.052849784 0.0051324279
-0.0099999988 -0.052996766 0.0068988362
-0.0095802108 -0.053129286 0.0095419819
-0.0070046429 -0.052966531 -0.010000002
-0.0070370929 -0.053101853 0.0099999988
-0.0050892555 -0.053036302 -0.010000001
-0.0047793305 -0.052954007 0.0099999979
-0.0028747087 -0.0529369 -0.010000001
-0.0030353509 -0.053058565 0.0099999998
-0.0011207245 -0.053006969 -0.010000002
-0.00097644428 -0.052915636 0.0099999988
0.0010759013 -0.053005043 -0.010000002
0.0010653621 -0.052836966 0.010000002
0.0015850728 -0.053466626 0.010000001
0.003131238 -0.052889485 -0.010000001
0.0029636216 -0.053024225 0.0099999998
0.0020823972 -0.053532198 0.010000001
0.0048109177 -0.052962467 -0.010000001
0.0050823088 -0.052844476 0.010000001
0.0070478767 -0.052980494 -0.0099999988
0.006747969 -0.053046308 0.010000001
0.0093397135 -0.052957311 -0.0096967313
0.010000002 -0.052911852 -0.0071669659
0.010000001 -0.052870937 -0.0050662267
0.010000002 -0.052991517 -0.0030592461
0.010000001 -0.05293322 -0.0010022145
0.0099999988 -0.052888386 0.00098569714
0.0099999988 -0.053007528 0.0029252735
0.010000001 -0.052848574 0.0049838684
0.010000002 -0.053158347 0.007012099
0.0094731711 -0.053116426 0.0095072286
0.010000001 -0.053219497 0.0099057015
-0.0094801597 -0.050974656 -0.0094134398
-0.0099999988 -0.0510449 -0.0071659456
-0.0099999988 -0.050900146 -0.0051605566
-0.0099999988 -0.050844435 -0.003102717
-0.0099999998 -0.050915021 -0.0013426767
-0.010000001 -0.051058482 0.0010103473
-0.0099999988 -0.051019404 0.0030250349
-0.010000001 -0.051029768 0.0049460516
-0.010000001 -0.05091358 0.0070413901
-0.0094349869 -0.050968319 0.0094921896
-0.0069935126 -0.051012374 -0.0099999998
-0.0068410942 -0.050836038 0.0099999998
-0.004919921 -0.050923437 -0.010000001
-0.0050907554 -0.051228017 0.0099999979
-0.0029947525 -0.051148243 -0.010000001
-0.0029923848 -0.050926838 0.0099999988
-0.00091271929 -0.051175009 -0.010000001
-0.0011627194 -0.051013455 0.010000001
0.0009055165 -0.051093761 -0.010000001
0.001138787 -0.050891958 0.010000001
0.0029245929 -0.050942618 -0.010000001
0.0030084429 -0.051061086 0.0099999979
0.0049454644 -0.050856687 -0.0099999988
0.004826176 -0.050987612 0.0099999998
0.0069674044 -0.050908003 -0.010000002
0.0069993846 -0.051006582 0.0099999988
0.0096023176 -0.050888114 -0.0095106894
0.0099999988 -0.051005717 -0.007028264
0.0099999979 -0.051027942 -0.0049701431
0.0099999988 -0.050931368 -0.0030114246
0.0099999988 -0.050922051 -0.0010056302
0.0099999998 -0.050974637 0.0011517283
0.010000002 -0.050962187 0.0028423816
0.010000002 -0.05081591 0.0050453292
0.010000001 -0.050945725 0.0070069227
0.009477227 -0.050988894 0.0094948551
-0.0094851442 -0.049058117 -0.0095324647
-0.0099999979 -0.049086258 -0.0069592362
-0.0099999988 -0.048992943 -0.0051293639
-0.010000001 -0.048880383 -0.0029947676
-0.0099999988 -0.048846535 -0.0011112869
-0.010000002 -0.049074184 0.0010572131
-0.0099999988 -0.04895189 0.0030299521
-0.0099999979 -0.049076293 0.0049068374
-0.0099999988 -0.049199454 0.0070058773
-0.0093952911 -0.049081337 0.0095669953
-0.0069545698 -0.048957504 -0.010000001
-0.0070888591 -0.048950829 0.010000001
-0.0050882432 -0.049065314 -0.010000002
-0.005250202 -0.048993461 0.010000001
-0.0030691477 -0.049106583 -0.0099999988
-0.0029724408 -0.049000293 0.0099999998
-0.0010179334 -0.049170684 -0.010000001
-0.00086151087 -0.048832104 0.0099999988
0.00089443009 -0.04893738 -0.010000002
0.0011218491 -0.048906736 0.009999997
0.0031091883 -0.048890803 -0.010000001
0.0030908866 -0.048901286 0.010000001
0.0048537906 -0.048886195 -0.0099999988
0.0052657644 -0.048863374 0.0099999998
0.0069495793 -0.048829153 -0.009999997
0.0071064173 -0.048972182 0.0099999979
0.0094900196 -0.048933931 -0.0094448067
0.0099999998 -0.049014937 -0.006975655
0.010000001 -0.049325489 -0.0050284001
0.0099999979 -0.049001981 -0.0027812372
0.010000001 -0.0490884 -0.00085092685
0.0099999979 -0.049070895 0.00092463277
0.0099999998 -0.0490475 0.0029637066
0.010000001 -0.049001198 0.0048598195
0.010000002 -0.04901861 0.0069446517
0.0094702868 -0.049161136 0.0096278582
-0.0094537493 -0.046895113 -0.0096401609
-0.010000001 -0.047017701 -0.0070797596
-0.010000001 -0.046844993 -0.0050795735
-0.010000002 -0.046730112 -0.0030827462
-0.010000002 -0.047031656 -0.0011353102
-0.010000001 -0.047021627 0.00085885572
-0.010000001 -0.04686496 0.0030339211
-0.010000001 -0.046886124 0.0050233388
-0.010000002 -0.046926364 0.006968624
-0.0095541542 -0.04700676 0.0095121479
-0.0073166811 -0.047100015 -0.010000001
-0.0070433994 -0.046881672 0.0099999988
-0.0050707068 -0.04685491 -0.0099999988
-0.0050189854 -0.046970062 0.010000001
-0.0030096686 -0.046983268 -0.010000001
-0.0029991779 -0.046996478 0.0099999988
-0.00099139393 -0.04704982 -0.0099999961
-0.0011239272 -0.047071904 0.0099999988
0.00098626874 -0.046925206 -0.009999997
0.0010101217 -0.047133699 0.010000001
0.0028927496 -0.047024142 -0.0099999988
0.003105494 -0.047261737 0.010000002
0.0049750833 -0.047126647 -0.010000001
0.0052439598 -0.04705568 0.010000001
0.0070181815 -0.04703714 -0.0099999988
0.0069632982 -0.047150154 0.0099999998
0.0095555382 -0.047012247 -0.0094741555
0.0099999998 -0.047141209 -0.0070204088
0.0099999988 -0.046728853 -0.0049690958
0.010000001 -0.046941012 -0.0031066844
0.0099999979 -0.047004178 -0.0011565774
0.010000001 -0.046839643 0.00086234574
0.010000001 -0.04686138 0.0030119049
0.0099999998 -0.047104105 0.0051442008
0.0099999988 -0.047042247 0.0068203812
0.0095405942 -0.047053158 0.0094126891
-0.0095970798 -0.045050729 -0.0094559789
-0.0099999998 -0.044979919 -0.0070972466
-0.0099999988 -0.044834241 -0.0049726716
-0.010000001 -0.044893987 -0.0029651972
-0.0099999998 -0.045134135 -0.0010400389
-0.0099999988 -0.044999864 0.001099064
-0.0099999979 -0.045059554 0.0032309673
-0.010000002 -0.04514375 0.004827844
-0.0099999998 -0.045033883 0.007071049
-0.0095497994 -0.044958331 0.0095306784
-0.0070107193 -0.044965863 -0.010000001
-0.0068984902 -0.045091778 0.010000001
-0.0048613315 -0.044955205 -0.009999997
-0.0049402099 -0.044824615 0.010000002
-0.0029122494 -0.044998314 -0.0099999988
-0.0030332615 -0.044957567 0.0099999998
-0.00095574628 -0.045105189 -0.0099999998
-0.00095109781 -0.044889037 0.0099999988
0.00099471188 -0.045001555 -0.0099999979
0.00097842584 -0.044862282 0.010000002
0.0031632883 -0.045037601 -0.0099999979
0.0029912491 -0.044872042 0.0099999998
0.005026482 -0.04490564 -0.010000001
0.0050005051 -0.0449217 0.0099999988
0.0071974033 -0.045032218 -0.010000001
0.0070775747 -0.04495408 0.0099999979
0.0094059762 -0.045038234 -0.0095737437
0.0099999988 -0.044957399 -0.0070592384
0.0099999979 -0.044847287 -0.005004786
0.0099999979 -0.045126159 -0.0030190907
0.0099999998 -0.044837978 -0.0010539391
0.0099999998 -0.044957489 0.00090313738
0.0099999988 -0.045071393 0.0028547531
0.010000002 -0.045060117 0.0051480103
0.010000001 -0.044931423 0.0070010317
0.0096297609 -0.044919237 0.0093445992
0.010000001 -0.044481415 -0.007278569
-0.0096075479 -0.042951886 -0.0094492473
-0.010000001 -0.042966623 -0.0070388904
-0.0099999998 -0.043044455 -0.0049755638
-0.0099999998 -0.043152746 -0.0031709594
-0.010000001 -0.042964451 -0.00080701162
-0.0099999998 -0.042885687 0.00089699839
-0.0099999988 -0.042985413 0.0028987515
-0.010000002 -0.043027699 0.0050094547
-0.0099999998 -0.043026712 0.0071304729
-0.0095492704 -0.04282736 0.0094585959
-0.0069784736 -0.042936485 -0.010000003
-0.0070430255 -0.04325705 0.010000002
-0.0049433126 -0.043026172 -0.0099999988
-0.0049993196 -0.042798057 0.0099999988
-0.0032151705 -0.042981576 -0.010000001
-0.0029870791 -0.042916499 0.0099999998
-0.00099284539 -0.042976756 -0.010000002
-0.00088464504 -0.042933214 0.010000002
0.0010371675 -0.043194335 -0.010000002
0.00091686886 -0.042996693 0.010000001
0.0029730056 -0.043044604 -0.0099999988
0.0029407952 -0.043051094 0.0099999979
0.0048973984 -0.042881835 -0.010000001
0.0049449024 -0.043054778 0.0099999988
0.0069733015 -0.04287402 -0.0099999979
0.0070931413 -0.043074466 0.0099999988
0.0095725767 -0.042985801 -0.0095087858
0.0099999998 -0.042738352 -0.0069382484
0.009999997 -0.043068793 -0.0050441832
0.0099999998 -0.043004055 -0.0031934541
0.010000001 -0.043049593 -0.00093151082
0.010000002 -0.042900857 0.00093324593
0.010000002 -0.042853016 0.0031557225
0.010000001 -0.042956322 0.0050281109
0.010000001 -0.043042827 0.0069762566
0.0094613442 -0.043036837 0.0094349375
0.010000001 -0.042973995 -0.0088063255
0.010000001 -0.042720042 -0.0077517843
-0.0094728647 -0.040881936 -0.0094933314
-0.0099999988 -0.040943321 -0.0070450241
-0.0099999988 -0.041008644 -0.0049198288
-0.010000002 -0.040929455 -0.0027647628
-0.010000001 -0.040980749 -0.00088720158
-0.010000001 -0.040922668 0.00077060662
-0.0099999998 -0.041043725 0.0028840485
-0.0099999988 -0.040960897 0.0048360899
-0.009999997 -0.041056648 0.0069218436
-0.0095558027 -0.041023158 0.0093489224
-0.0069052014 -0.041053027 -0.0099999998
-0.0071450267 -0.041115116 0.0099999979
-0.0048701791 -0.040965326 -0.0099999988
-0.0051344554 -0.040774956 0.010000002
-0.0031817073 -0.041015632 -0.0099999988
-0.0031000152 -0.04123316 0.0099999988
-0.0010778425 -0.04111265 -0.010000001
-0.00097934599 -0.041063871 0.0099999988
0.0010677211 -0.040918488 -0.0099999988
0.00090544758 -0.041070595 0.010000001
0.0029017031 -0.04094426 -0.0099999988
0.0032523426 -0.040991832 0.009999997
0.004818832 -0.040921815 -0.010000002
0.0050467155 -0.041063525 0.0099999998
0.0067180055 -0.041049853 -0.0099999988
0.0069357306 -0.040958036 0.010000001
0.0095232399 -0.041011136 -0.0094345165
0.010000001 -0.040944315 -0.0069667907
0.010000001 -0.040894244 -0.0051123952
0.010000001 -0.040915385 -0.0029328777
0.010000002 -0.041034162 -0.0012057429
0.0099999988 -0.041100308 0.0009187386
0.010000001 -0.041113459 0.003048473
0.010000001 -0.040820159 0.0047897766
0.0099999988 -0.040847223 0.0068916818
0.0094913039 -0.041042909 0.0095382109
0.010000001 -0.041745283 -0.0095292488
0.010000001 -0.040064305 -0.0069255447
-0.0095001664 -0.03900972 -0.0094766961
-0.0099999988 -0.039048336 -0.0071475268
-0.010000002 -0.039138682 -0.0048305285
-0.010000001 -0.038899448 -0.0031895309
-0.010000002 -0.03924197 -0.00098804396
-0.0099999979 -0.03907349 0.0011088798
-0.010000001 -0.038909245 0.0028243086
-0.0099999988 -0.039229851 0.0052075614
-0.010000001 -0.038948171 0.006985093
-0.0095539466 -0.039054308 0.0094430083
-0.0070002014 -0.038953166 -0.010000001
-0.0069423919 -0.038835377 0.0099999998
-0.0050305594 -0.039035082 -0.010000001
-0.0052427547 -0.038887337 0.010000001
-0.0030488768 -0.039180089 -0.010000001
-0.0031023116 -0.039015792 0.010000001
-0.0010496723 -0.038773749 -0.0099999998
-0.0011588521 -0.038978949 0.010000001
0.00087727874 -0.039054282 -0.010000002
0.00096879527 -0.038935792 0.0099999979
0.0031006353 -0.039060246 -0.0099999988
0.0028348935 -0.038988423 0.0099999988
0.004869658 -0.038985025 -0.010000001
0.0051397313 -0.039073259 0.0099999988
0.0070286244 -0.039016608 -0.0099999998
0.0067042983 -0.038988207 0.010000002
0.0095807221 -0.039051618 -0.009489052
0.010000001 -0.03906228 -0.0069190441
0.010000002 -0.039008535 -0.0049611321
0.0099999998 -0.039114293 -0.0030188498
0.0099999998 -0.038934086 -0.001082967
0.009999997 -0.038986698 0.0009818105
0.010000001 -0.039087664 0.0027779918
0.010000001 -0.039178189 0.004799976
0.010000001 -0.039138835 0.0069875731
0.0094141085 -0.039026882 0.0095034391
0.010000001 -0.039622772 -0.0082010347
0.010000001 -0.038193576 0.00996124
-0.0096381688 -0.03703896 -0.0093625486
-0.0099999998 -0.036918595 -0.0069954558
-0.010000002 -0.037225522 -0.0049867113
-0.010000001 -0.037056144 -0.0029544558
-0.0099999998 -0.036977906 -0.0010723672
-0.0099999998 -0.036956061 0.00081073795
-0.010000001 -0.036901422 0.0028745579
-0.010000001 -0.037002739 0.0050414191
-0.010000002 -0.037142724 0.0070225652
-0.0094836345 -0.037086796 0.0095300507
-0.0070710341 -0.036921293 -0.010000002
-0.0071331779 -0.036937606 0.010000001
-0.0048353015 -0.037121464 -0.0099999998
-0.0050662737 -0.036896151 0.010000001
-0.0032253251 -0.036966708 -0.010000001
-0.0028840178 -0.036839765 0.0099999988
-0.00087497995 -0.036882013 -0.009999997
-0.0010342484 -0.036880378 0.010000002
0.00096119288 -0.036813874 -0.0099999998
0.0011935238 -0.036951296 0.010000002
0.0029441621 -0.037126709 -0.0099999998
0.0031049838 -0.037150964 0.0099999998
0.0050672782 -0.036933944 -0.0099999998
0.0049581453 -0.037001416 0.010000001
0.0069481661 -0.037072495 -0.0099999998
0.0069317105 -0.036916193 0.0099999988
0.0093079209 -0.036923476 -0.0096217459
0.0099999988 -0.037008531 -0.0071443939
0.0099999988 -0.036922574 -0.0049554845
0.0099999988 -0.037104141 -0.0031807511
0.010000001 -0.036967225 -0.00092591927
0.010000001 -0.037236609 0.0010334165
0.0099999998 -0.037008174 0.0029665055
0.010000001 -0.037054032 0.0052110003
0.010000001 -0.03711696 0.0071889935
0.0095369285 -0.037067015 0.0093720453
0.010000001 -0.036828026 -0.0069981152
-0.0095467595 -0.035111219 -0.0094008762
-0.010000002 -0.034970127 -0.0071850466
-0.010000001 -0.034944538 -0.0051350323
-0.010000001 -0.035003204 -0.003067764
-0.0099999979 -0.03503136 -0.0009994976
-0.0099999979 -0.034871589 0.0010059737
-0.0099999988 -0.03508706 0.0028929885
-0.0099999979 -0.034982357 0.0047817761
-0.0099999998 -0.035237167 0.0070685111
-0.0094439778 -0.034951828 0.0095984833
-0.0069992482 -0.034994811 -0.0099999998
-0.0069261091 -0.035018317 0.0099999998
-0.0050344989 -0.034959149 -0.010000001
-0.0050288788 -0.034903351 0.0099999979
-0.0030411812 -0.034988303 -0.0099999998
-0.0030196246 -0.035089213 0.0099999979
-0.0010139743 -0.034949802 -0.0099999988
-0.0010404398 -0.035111159 0.010000001
0.00099716743 -0.035157476 -0.010000002
0.00098506408 -0.034947142 0.0099999979
0.0029343436 -0.034989785 -0.0099999988
0.0031184054 -0.034952335 0.0099999988
0.0050011883 -0.034945611 -0.0099999988
0.0049960818 -0.034824315 0.0099999979
0.0069825118 -0.035033859 -0.0099999988
0.0070590577 -0.035125855 0.0099999998
0.0095270677 -0.034985077 -0.0093579469
0.010000001 -0.0349967 -0.0070914393
0.0099999998 -0.034998298 -0.0049648057
0.0099999988 -0.035068929 -0.003000574
0.0099999998 -0.035006355 -0.0011209515
0.0099999998 -0.034964729 0.0011262472
0.010000001 -0.035077866 0.0030337879
0.009999997 -0.034947533 0.0049153445
0.010000002 -0.035007492 0.0068991855
0.0093506631 -0.035108652 0.0096070273
0.010000001 -0.035359088 -0.0099839335
0.010000001 -0.035659634 -0.0074567646
-0.0096139759 -0.032927971 -0.0094442014
-0.010000001 -0.033065792 -0.0071681729
-0.0099999998 -0.032823972 -0.0048369789
-0.0099999988 -0.033224273 -0.0028893542
-0.0099999988 -0.03298451 -0.0010961872
-0.0099999998 -0.033095464 0.0011419944
-0.0099999998 -0.03299287 0.0029628107
-0.010000001 -0.032853581 0.0048436262
-0.0099999998 -0.032916255 0.0068168151
-0.0095913028 -0.032932252 0.009436612
-0.0072396272 -0.032805696 -0.0099999998
-0.0070023611 -0.032981414 0.0099999979
-0.005047584 -0.033032373 -0.010000001
-0.0050537516 -0.032927379 0.010000001
-0.0030208658 -0.033147633 -0.010000002
-0.003103961 -0.033053845 0.010000001
-0.00086909329 -0.032948893 -0.0099999988
-0.0010552694 -0.03309723 0.0099999998
0.0011484164 -0.032900937 -0.0099999988
0.0010085684 -0.032967184 0.0099999979
0.003030838 -0.032971222 -0.0099999998
0.0030343104 -0.032879166 0.0099999998
0.0049265008 -0.033001136 -0.0099999988
0.0051004738 -0.032843675 0.010000001
0.0070445198 -0.032939281 -0.010000001
0.0069629727 -0.033008628 0.0099999998
0.0094569549 -0.033053078 -0.0095513919
0.010000002 -0.032813709 -0.00708071
0.010000001 -0.033062853 -0.0049181776
0.0099999979 -0.033023778 -0.0028184855
0.0099999998 -0.033119883 -0.00089974602
0.010000001 -0.033098843 0.00082401745
0.010000001 -0.032935303 0.0030235779
0.010000001 -0.033079114 0.0050015035
0.0099999988 -0.032761652 0.0068680607
0.0094800135 -0.032974422 0.0095504588
0.010000001 -0.032008424 -0.0084474403
0.010000001 -0.033506401 -0.0069666924
-0.0094460091 -0.03095185 -0.0095682656
-0.0099999988 -0.031061629 -0.0071398695
-0.0099999979 -0.030950418 -0.0049435669
-0.0099999988 -0.031000948 -0.0031461599
-0.0099999998 -0.031005377 -0.0010582965
-0.009999997 -0.030931145 0.00094110082
-0.0099999998 -0.031069838 0.0029486381
-0.0099999979 -0.031164706 0.0048612733
-0.010000001 -0.030877342 0.0071227183
-0.0095017795 -0.030986113 0.0093784975
-0.0069963709 -0.031026177 -0.010000001
-0.0067037931 -0.030967131 0.0099999988
-0.0051275459 -0.030932739 -0.0099999988
-0.0050950474 -0.030968059 0.0099999998
-0.0030022182 -0.031083105 -0.010000002
-0.0030337202 -0.031032125 0.0099999998
-0.0009790163 -0.031245764 -0.0099999998
-0.0010038801 -0.031004854 0.010000001
0.00099990994 -0.031025922 -0.0099999988
0.001147641 -0.030982627 0.0099999979
0.0030561478 -0.030939531 -0.010000001
0.0029067157 -0.030999623 0.0099999998
0.0048816758 -0.031072808 -0.0099999988
0.0049902112 -0.031135811 0.0099999961
0.0070207706 -0.031010654 -0.0099999979
0.007004166 -0.031080658 0.010000002
0.0095358193 -0.030859256 -0.0095115742
0.010000002 -0.030803729 -0.0070894631
0.010000002 -0.030805532 -0.004919352
0.0099999998 -0.030992342 -0.0028552094
0.010000002 -0.030931728 -0.00084725278
0.010000001 -0.031203775 0.00089451711
0.010000001 -0.031048128 0.003077154
0.0099999979 -0.031138295 0.0051448587
0.010000001 -0.030947041 0.0069880793
0.0095140235 -0.031007461 0.0095004058
0.010000001 -0.031332202 -0.0095769269
0.010000001 -0.031086419 -0.0064390632
-0.009340561 -0.029041726 -0.0095591145
-0.010000002 -0.029076187 -0.0069829999
-0.010000001 -0.0291653 -0.0048999116
-0.010000001 -0.028997025 -0.0029242791
-0.0099999988 -0.028976899 -0.00089889066
-0.0099999988 -0.029003834 0.00093028747
-0.0099999998 -0.029129909 0.0029972838
-0.0099999988 -0.029005984 0.0050966176
-0.0099999979 -0.02884482 0.0070925471
-0.0095788715 -0.028956428 0.009558294
-0.0068992241 -0.02872557 -0.0099999979
-0.0069958633 -0.029158011 0.0099999988
-0.005001016 -0.02913123 -0.010000001
-0.0049897679 -0.029043505 0.010000002
-0.0029331171 -0.029138615 -0.0099999998
-0.0029912675 -0.028985446 0.0099999988
-0.00087075477 -0.028899586 -0.0099999988
-0.00087898428 -0.029056288 0.0099999988
0.00095503207 -0.028945277 -0.0099999988
0.00093697361 -0.028998107 0.010000002
0.0029010866 -0.029095501 -0.0099999988
0.0030724558 -0.028829781 0.010000001
0.0049198139 -0.029020717 -0.010000001
0.0047482341 -0.028910691 0.010000001
0.006986707 -0.029048832 -0.0099999979
0.0070360089 -0.029216601 0.010000001
0.0094424849 -0.028975761 -0.0095329182
0.0099999988 -0.028986555 -0.0068774368
0.0099999988 -0.029000109 -0.004883619
0.0099999979 -0.02891738 -0.0030979097
0.010000001 -0.029012213 -0.0010510862
0.010000001 -0.028850432 0.0010027526
0.010000001 -0.028809629 0.0030991824
0.010000001 -0.028882464 0.0052255378
0.010000002 -0.028902641 0.0069133076
0.0094810072 -0.029078433 0.009721403
0.010000001 -0.029700516 -0.0097064469
0.010000001 -0.02824693 -0.007895479
-0.0095691094 -0.027029295 -0.0094709117
-0.0099999979 -0.027110122 -0.0070267352
-0.0099999988 -0.027263453 -0.0047866115
-0.010000001 -0.02694463 -0.0030353323
-0.010000002 -0.026792828 -0.0010089804
-0.0099999988 -0.026899789 0.0009982835
-0.0099999998 -0.026887989 0.0027645573
-0.0099999988 -0.026938502 0.0048956242
-0.010000001 -0.026846105 0.0069154673
-0.0095343217 -0.026970357 0.0094515244
-0.006664467 -0.02699556 -0.0099999988
-0.006963863 -0.026988246 0.010000001
-0.0051403535 -0.027071735 -0.0099999979
-0.0050599487 -0.026938552 0.010000001
-0.0030553376 -0.027037565 -0.0099999998
-0.0030467922 -0.026967848 0.010000002
-0.00089662068 -0.027119357 -0.010000002
-0.00081621704 -0.027054248 0.0099999988
0.0010300792 -0.027143514 -0.009999997
0.001189162 -0.026892504 0.0099999998
0.0031055326 -0.02703217 -0.009999997
0.003107517 -0.026992951 0.0099999988
0.0049472488 -0.026977856 -0.0099999979
0.0049573132 -0.027050467 0.010000001
0.0071216919 -0.026982779 -0.010000001
0.0069704987 -0.026971951 0.0099999979
0.0093958601 -0.026895026 -0.0096766753
0.010000001 -0.026885876 -0.006925697
0.010000002 -0.027187221 -0.0049349307
0.010000001 -0.027092002 -0.0030235851
0.0099999998 -0.02694401 -0.00095660338
0.0099999979 -0.026831657 0.00087234867
0.010000002 -0.026837843 0.0030076297
0.0099999988 -0.02688616 0.0049976795
0.009999997 -0.026857471 0.0070101013
0.0094052712 -0.027147222 0.0095454715
0.010000001 -0.026908949 -0.0067340247
-0.0094492091 -0.025019595 -0.0095432205
-0.010000001 -0.02495485 -0.0068690125
-0.0099999988 -0.024873786 -0.0051032035
-0.010000002 -0.02489358 -0.0031900166
-0.010000001 -0.024901286 -0.00088771008
-0.010000002 -0.025063666 0.0010546527
-0.010000001 -0.024807474 0.0032462724
-0.0099999979 -0.024988059 0.0048099686
-0.0099999998 -0.025050018 0.0069945497
-0.0096827969 -0.025010888 0.0094453851
-0.0071051749 -0.025125919 -0.0099999961
-0.0069448883 -0.024904508 0.010000002
-0.0049904962 -0.024980498 -0.0099999988
-0.0050184908 -0.025128203 0.0099999998
-0.0029361327 -0.025088314 -0.010000001
-0.0029149333 -0.024879383 0.0099999979
-0.001075764 -0.025089864 -0.0099999988
-0.0011978208 -0.02507909 0.010000002
0.0010131351 -0.025013683 -0.0099999988
0.0011269129 -0.025223678 0.010000002
0.0029108161 -0.025234485 -0.010000001
0.0030260966 -0.02492696 0.010000001
0.005018271 -0.024979189 -0.0099999979
0.0048704525 -0.024974722 0.0099999998
0.0069629634 -0.024904633 -0.010000001
0.0070870365 -0.02501744 0.0099999979
0.0095588136 -0.024988566 -0.0095075723
0.0099999998 -0.025012711 -0.0070076603
0.0099999998 -0.025077119 -0.0048951656
0.010000002 -0.024929382 -0.0030290426
0.0099999979 -0.024909018 -0.00096553576
0.0099999988 -0.024915932 0.0010073425
0.0099999988 -0.025047412 0.002903789
0.0099999988 -0.024881322 0.0050183642
0.010000001 -0.025040869 0.0072491555
0.0095223384 -0.024846489 0.0094599864
0.010000001 -0.024959309 -0.0095364312
0.010000001 -0.024895011 -0.007521648
0.010000001 -0.024054511 -0.0056372099
-0.009451936 -0.022846043 -0.0095315408
-0.010000002 -0.02288116 -0.0068604252
-0.0099999979 -0.023128275 -0.0048974622
-0.010000001 -0.023034979 -0.0030082299
-0.0099999988 -0.023052465 -0.00091391901
-0.010000001 -0.022969173 0.00085043185
-0.010000002 -0.023148401 0.0030210537
-0.0099999979 -0.023007257 0.0048928247
-0.0099999988 -0.022966854 0.0069988109
-0.0095062554 -0.022996781 0.0096016554
-0.006962759 -0.023113735 -0.010000001
-0.007106483 -0.02289558 0.010000001
-0.0050317268 -0.023040537 -0.0099999998
-0.0049356963 -0.022766525 0.010000002
-0.0031115827 -0.023019711 -0.010000002
-0.0030631428 -0.023139853 0.010000001
-0.00091052789 -0.023069074 -0.0099999998
-0.0011441163 -0.022947546 0.0099999979
0.0011381037 -0.02299835 -0.010000001
0.0010723996 -0.022829574 0.010000002
0.0030187152 -0.023049142 -0.0099999979
0.0028606416 -0.022976767 0.0099999988
0.0051894435 -0.022961384 -0.0099999998
0.0051260106 -0.022959936 0.0099999988
0.0070222993 -0.023001695 -0.0099999979
0.0069322055 -0.022933651 0.010000001
0.0096095959 -0.023000812 -0.0093606925
0.010000001 -0.022925684 -0.0070075016
0.010000001 -0.023091422 -0.004979392
0.010000002 -0.022971777 -0.0029670403
0.0099999998 -0.022987574 -0.0010743083
0.0099999988 -0.022911536 0.00087835785
0.0099999979 -0.022968635 0.003030037
0.010000001 -0.022842811 0.0051133512
0.0099999988 -0.022938265 0.0071552149
0.0095618768 -0.022893637 0.009447854
0.010000001 -0.022127276 -0.0087133544
0.010000001 -0.022615004 0.0099396314
-0.0095372284 -0.021008583 -0.009505895
-0.010000001 -0.020982394 -0.0069317129
-0.0099999979 -0.020880876 -0.0050603375
-0.0099999988 -0.021030128 -0.0030320866
-0.010000001 -0.021118449 -0.0009268694
-0.010000001 -0.020935109 0.0010379849
-0.009999997 -0.021030949 0.002990406
-0.0099999988 -0.021062452 0.0050703906
-0.0099999998 -0.021027889 0.006841437
-0.0094312765 -0.021038784 0.0095798913
-0.0069571682 -0.02090184 -0.010000002
-0.0070346803 -0.021029294 0.0099999988
-0.0048768581 -0.020907208 -0.010000001
-0.0049616345 -0.020746101 0.010000001
-0.0055512944 -0.021684039 0.010000001
-0.002868436 -0.021111073 -0.010000001
-0.0029233901 -0.021033652 0.0099999998
-0.0010845197 -0.021069875 -0.0099999988
-0.0010506522 -0.020806117 0.0099999988
0.00096644298 -0.020930929 -0.010000001
0.0010076294 -0.020939672 0.010000002
0.0029113018 -0.020903287 -0.010000001
0.003014528 -0.021153508 0.010000001
0.0050400845 -0.021074232 -0.0099999998
0.004909676 -0.021079645 0.010000001
0.0068450058 -0.021116003 -0.0099999979
0.0071101123 -0.020949077 0.010000002
0.0093335751 -0.021000935 -0.0096584177
0.0099999998 -0.020785499 -0.0068643619
0.0099999979 -0.021002838 -0.0050234175
0.010000001 -0.020952931 -0.0029021713
0.010000002 -0.020949364 -0.001113176
0.0099999998 -0.020955224 0.0011045295
0.0099999988 -0.021022486 0.0028896539
0.0099999988 -0.020912176 0.0049725482
0.010000001 -0.021037955 0.0070779733
0.0094790235 -0.021084774 0.0095271962
0.010000001 -0.021123145 -0.0084038414
-0.0094157392 -0.019064071 -0.0095968246
-0.0099999998 -0.018740082 -0.0069767451
-0.0099999988 -0.018853702 -0.0051162331
-0.010000001 -0.019247748 -0.0030056599
-0.010000001 -0.018919896 -0.0010788704
-0.0099999988 -0.019173963 0.00092370051
-0.010000002 -0.018823372 0.0030133007
-0.010000001 -0.018883234 0.0049406663
-0.010000001 -0.018946171 0.0069565633
-0.0094413944 -0.019022424 0.0094057648
-0.0068957307 -0.018839046 -0.0099999998
-0.0070776641 -0.018824253 0.0099999979
-0.0049629495 -0.019020254 -0.010000002
-0.0049537169 -0.019119505 0.0099999988
-0.0029624053 -0.018928375 -0.010000002
-0.003016785 -0.019008264 0.0099999998
-0.00099385018 -0.018890778 -0.0099999979
-0.00092750398 -0.019064477 0.010000001
0.0010196288 -0.019257791 -0.010000001
0.0010074463 -0.018857446 0.010000001
0.0029304298 -0.019057598 -0.010000001
0.0028303377 -0.019090073 0.010000002
0.0050734649 -0.019231822 -0.010000001
0.0049935649 -0.018950682 0.0099999998
0.007008289 -0.018954864 -0.0099999988
0.0069815814 -0.018691245 0.010000001
0.0094420826 -0.018977219 -0.009420272
0.0099999988 -0.019010741 -0.0070449277
0.0099999988 -0.018957868 -0.0050718207
0.010000001 -0.018978339 -0.0030652913
0.0099999998 -0.019045712 -0.00093426264
0.0099999988 -0.019057477 0.000971812
0.0099999988 -0.019126805 0.0030560533
0.010000001 -0.018937582 0.0048711644
0.0099999998 -0.018956566 0.006892411
0.0094403308 -0.018930169 0.0094939098
0.010000001 -0.019659471 -0.0084513901
0.010000001 -0.018175706 -0.0073079406
0.010000001 -0.018817693 0.0094209518
-0.0093545979 -0.017044058 -0.0096655739
-0.0099999988 -0.017014388 -0.0069539454
-0.010000002 -0.016916944 -0.0050015342
-0.0099999979 -0.016887095 -0.0029891706
-0.0099999979 -0.017097013 -0.0010622918
-0.010000001 -0.017146939 0.0011884761
-0.0099999988 -0.01695445 0.0030724101
-0.0099999988 -0.017009046 0.0051127127
-0.0099999988 -0.017056772 0.0070481524
-0.0094463453 -0.016932907 0.0096043367
-0.0070170942 -0.017094305 -0.0099999979
-0.0070157233 -0.016891522 0.0099999998
-0.005087248 -0.017138237 -0.010000002
-0.0050404621 -0.017008739 0.0099999988
-0.0057742996 -0.017986484 0.010000001
-0.002915317 -0.017109659 -0.0099999988
-0.0029521887 -0.017049536 0.010000001
-0.001015958 -0.017111594 -0.0099999998
-0.00099796359 -0.016953636 0.0099999998
0.00095672638 -0.016985532 -0.0099999998
0.00095383282 -0.016687497 0.010000002
0.0031145853 -0.016983816 -0.010000001
0.0029622745 -0.016915567 0.010000002
0.0051660836 -0.016893985 -0.010000002
0.0051037208 -0.017042447 0.0099999998
0.0069828625 -0.017043037 -0.0099999988
0.0071277493 -0.016936971 0.009999997
0.0094521381 -0.01697088 -0.0095523763
0.010000001 -0.017050089 -0.0070653502
0.0099999988 -0.017044993 -0.0049768845
0.0099999988 -0.017011113 -0.0028732296
0.0099999988 -0.016922753 -0.00094699173
0.010000001 -0.017071201 0.0010064178
0.009999997 -0.016936403 0.0029087667
0.0099999988 -0.016988035 0.0050549041
