# .PCD v0.7 - Point Cloud Data file format
VERSION 0.7
FIELDS x y z
SIZE 4 4 4
TYPE F F F
COUNT 1 1 1
WIDTH 1228
HEIGHT 1
VIEWPOINT 0 0 0 1 0 0 0
POINTS 1228
DATA ascii
-0.0049999999 -0.00068242883 -0.22438957
0.0049282629 -0.00025848576 -0.22445366
-0.0049999999 0.00019516824 -0.22429733
0.004922939 0.0004645572 -0.22467926
-0.0049999999 0.0015516561 -0.22453867
0.0049152579 0.001507577 -0.22442506
-0.0049999999 0.0025086368 -0.22427809
0.0049084518 0.0024318756 -0.22437561
-0.0049999994 0.0036871438 -0.22456948
0.004899445 0.0036549519 -0.22448723
-0.0046767378 0.0047187638 -0.2244897
-0.0035979152 0.0049999994 -0.22448979
-0.002636217 0.0049999999 -0.22453384
-0.0013245891 0.0049999999 -0.22423524
-0.00044952717 0.0049999994 -0.22453707
0.00049427582 0.0049999999 -0.22453988
0.0014318604 0.0049999999 -0.22447988
0.0024677899 0.0049999999 -0.22434402
0.0033577036 0.0049999999 -0.2243405
0.0044800485 0.0047372766 -0.22441302
0.0044832332 0.0050000004 -0.22429271
-0.0047162175 -0.0047356882 -0.22341438
-0.0034024364 -0.0049999994 -0.22348085
-0.0026829578 -0.0049999994 -0.22354069
-0.0014307796 -0.0049999994 -0.22340544
-0.00037112221 -0.0049999999 -0.22354521
0.00052980561 -0.0049999999 -0.22355798
0.0018248435 -0.0049999999 -0.2236231
0.002504095 -0.0049999999 -0.22329056
0.0034522221 -0.0049999994 -0.22365651
0.0046561696 -0.0046124109 -0.22368617
-0.0049999999 -0.0033974627 -0.2233635
0.0049509145 -0.0033343737 -0.22373001
-0.0049999994 -0.0022847734 -0.22357646
0.0049446146 -0.0024789134 -0.22346838
-0.0049999994 -0.0014967066 -0.22339728
0.0049362183 -0.0013387012 -0.22357419
-0.0049999999 -0.00046373036 -0.22350185
0.0049305758 -0.00057248329 -0.22319423
-0.0049999999 0.00042129235 -0.22340558
0.0049227485 0.0004904641 -0.22350028
-0.0049999999 0.0016379392 -0.22348431
0.004914179 0.0016541462 -0.22341557
-0.0049999994 0.0024825563 -0.2235886
0.0049085151 0.0024232969 -0.22349927
-0.0049999994 0.0034915863 -0.22359329
0.0049012508 0.0034097282 -0.2235674
-0.0048127328 0.0046750288 -0.22364323
-0.0034147706 0.0049999999 -0.22339702
-0.0026395833 0.0049999999 -0.2236435
-0.0014700925 0.0049999999 -0.22340779
-0.000502087 0.0049999994 -0.22345169
0.00078485481 0.0049999999 -0.22343428
0.0015676805 0.0049999994 -0.22331199
0.0025208401 0.0049999999 -0.22341217
0.0034264696 0.0049999999 -0.2236508
0.0047438568 0.004636623 -0.22354448
0.0039630942 0.0050000004 -0.22342399
0.0041306713 0.0050000004 -0.22306374
-0.0048315241 -0.0046406197 -0.22257471
-0.0033618601 -0.0049999994 -0.22251804
-0.0025119008 -0.0049999999 -0.22250476
-0.0012857723 -0.0049999999 -0.22235015
-0.00050796114 -0.0049999999 -0.22259897
0.00044282753 -0.0049999994 -0.22266787
0.0014604694 -0.0049999999 -0.22262101
0.002341439 -0.0049999994 -0.22245646
0.0036938251 -0.0049999999 -0.22255473
0.0047581838 -0.0045978567 -0.22245918
-0.0049999999 -0.0036758713 -0.22251093
0.0049524331 -0.0035405676 -0.22232811
-0.0049999999 -0.0025198064 -0.22231102
0.0049446183 -0.0024794103 -0.22242436
-0.0049999999 -0.0015364726 -0.2228529
0.0049362499 -0.001343 -0.22259226
-0.0049999999 -0.00055372948 -0.22228013
0.0049302205 -0.00052420062 -0.22241765
-0.0049999994 0.00055421388 -0.22233191
0.0049223686 0.00054209714 -0.22257429
-0.0049999999 0.0013785682 -0.22246127
0.0049145846 0.0015990249 -0.22258392
-0.0049999994 0.0023944045 -0.22250581
0.0049073026 0.0025878693 -0.22245751
-0.0049999999 0.003473049 -0.22249511
0.0049005486 0.0035050872 -0.22248259
-0.0047524036 0.0047629443 -0.22254662
-0.0034588955 0.0049999994 -0.22243641
-0.0024353738 0.0049999994 -0.22234015
-0.0016114453 0.0049999994 -0.22240351
-0.000284882 0.0049999999 -0.22254619
0.00056344236 0.0049999999 -0.2224949
0.0014579395 0.0049999999 -0.22252922
0.0028043312 0.0049999999 -0.22254792
0.0034447492 0.0049999999 -0.22250545
0.0047160122 0.0046985014 -0.22260037
-0.0044141305 0.0050000004 -0.2222915
0.0036828241 0.0050000004 -0.22207662
0.0043567047 0.0050000004 -0.22216737
-0.0048227664 -0.0045628985 -0.22138914
-0.003248929 -0.0049999999 -0.22140437
-0.0024298688 -0.0049999999 -0.22145653
-0.0015193458 -0.0049999994 -0.2215752
-0.00038067761 -0.0049999999 -0.22178578
0.00051370793 -0.0049999994 -0.2214725
0.0014301182 -0.0049999999 -0.2214193
0.0025109758 -0.0049999999 -0.22130981
0.0035058267 -0.0049999994 -0.22144485
0.0047588325 -0.0047169649 -0.2216792
-0.0049999994 -0.0033888568 -0.22152281
0.0049512563 -0.003380829 -0.22135898
-0.0049999999 -0.0027282045 -0.22147259
0.0049443976 -0.0024494291 -0.22155364
-0.0049999999 -0.0013499948 -0.22154112
0.0049372562 -0.0014795803 -0.22149123
-0.0049999999 -0.00045763896 -0.22130524
0.00492898 -0.00035577911 -0.22145937
-0.0049999999 0.0004829668 -0.22150154
0.0049225697 0.00051471696 -0.22154835
-0.0049999999 0.0014712866 -0.22140996
0.0049147094 0.0015821884 -0.22147065
-0.0049999994 0.0027241311 -0.22139233
0.0049085789 0.0024146223 -0.22144738
-0.0049999999 0.0032761456 -0.22130394
0.004899689 0.0036218606 -0.22150603
-0.004839716 0.0047282227 -0.22158304
-0.0034177839 0.0049999999 -0.22141887
-0.0023105741 0.0049999999 -0.22144505
-0.0015509533 0.0049999999 -0.22128807
-0.00030661942 0.0049999999 -0.22155978
0.00082649628 0.0049999999 -0.22148646
0.0014641265 0.0049999994 -0.22156276
0.0025557133 0.0049999994 -0.22137149
0.0035799984 0.0049999994 -0.22136353
0.0046575437 0.0047494341 -0.22144847
-0.004894428 -0.0046244604 -0.22049686
-0.0035941394 -0.0049999999 -0.22007073
-0.0023628385 -0.0049999994 -0.22055574
-0.0016312324 -0.0049999999 -0.22038487
-0.00073367165 -0.0049999999 -0.22058657
0.00052063848 -0.0049999994 -0.22065338
0.0014511161 -0.0049999994 -0.22042875
0.002634523 -0.0049999999 -0.22058545
0.003605098 -0.0049999999 -0.22048913
0.0047125965 -0.0047412347 -0.22033642
-0.0049999999 -0.0032428964 -0.2204234
0.0049528088 -0.0035916429 -0.22042979
-0.0049999999 -0.0024248394 -0.22048454
0.004944514 -0.0024652043 -0.22042404
-0.0049999994 -0.0015142075 -0.22050247
0.0049381573 -0.0016020562 -0.220487
-0.0049999999 -0.00040057776 -0.22074263
0.0049296105 -0.00044140496 -0.22033219
-0.0049999994 0.00052873028 -0.22044481
0.0049229297 0.00046584246 -0.22049472
-0.0049999994 0.0013453696 -0.22049193
0.004914498 0.001610779 -0.22040451
-0.0049999999 0.0025152133 -0.22037849
0.0049086674 0.0024026204 -0.22051446
-0.0049999999 0.0036484846 -0.22049838
0.0049019391 0.0033162197 -0.22043835
-0.0047415346 0.0048918263 -0.22054163
-0.0033694464 0.0049999999 -0.22069049
-0.0026902582 0.0049999999 -0.22049204
-0.0014750145 0.0049999999 -0.22045325
-0.00051354652 0.0049999994 -0.22047955
0.00032538836 0.0049999999 -0.22049533
0.001584725 0.0049999999 -0.22040373
0.0025616577 0.0049999994 -0.22057337
0.0033706988 0.0049999999 -0.22036104
0.0047473209 0.0047523826 -0.22044587
-0.0046162289 -0.0048267287 -0.21954376
-0.0035257365 -0.0049999999 -0.21941614
-0.0023714341 -0.0049999994 -0.21952102
-0.0015652839 -0.0049999994 -0.21945427
-0.00050359708 -0.0049999999 -0.21966086
0.00054258469 -0.0049999999 -0.21955578
0.0015550531 -0.0049999999 -0.2193642
0.0026237015 -0.0049999999 -0.21956472
0.0034779257 -0.0049999999 -0.21954972
0.004959533 -0.0045047579 -0.21952932
-0.0049999999 -0.00351183 -0.21951512
0.0049515804 -0.0034248717 -0.21959376
-0.0049999999 -0.0024723231 -0.21961506
0.0049465355 -0.0027397459 -0.21947333
-0.0049999999 -0.0014190457 -0.21949399
0.004936059 -0.0013170484 -0.21957684
-0.0049999999 -0.00034126095 -0.21938889
0.0049297623 -0.00046199744 -0.21933894
-0.0049999994 0.00035262396 -0.21943247
0.0049218773 0.00060871424 -0.21955226
-0.0049999999 0.0012897978 -0.21960613
0.0049148281 0.0015660311 -0.21947891
-0.0049999994 0.0025440932 -0.21951103
0.0049065882 0.0026849061 -0.21948659
-0.0049999994 0.0033961211 -0.2195158
0.004900747 0.003478213 -0.21929012
-0.0046623051 0.0047832294 -0.21963063
-0.0034644704 0.0049999999 -0.21947196
-0.002504769 0.0049999999 -0.2195237
-0.001487033 0.0049999999 -0.21923943
-0.00046686604 0.0049999994 -0.21943569
0.00049273606 0.0049999994 -0.21957353
0.0014313404 0.0049999994 -0.2194697
0.0025717362 0.0049999999 -0.21956651
0.0033748131 0.0049999999 -0.21926075
0.0046812701 0.0048334035 -0.21948665
0.0037141051 0.0050000004 -0.21956828
-0.0048225187 -0.0048181703 -0.21867689
-0.0034735296 -0.0049999994 -0.21837361
-0.0027082663 -0.0049999999 -0.21860862
-0.0015469784 -0.0049999999 -0.21827069
-0.00049553829 -0.0049999999 -0.21846263
0.00076092291 -0.0049999999 -0.21856806
0.0015811857 -0.0049999999 -0.21848288
0.0025849128 -0.0049999994 -0.21848828
0.0034268864 -0.0049999999 -0.21854448
0.0046892362 -0.0048012645 -0.21847337
-0.0049999999 -0.0034307344 -0.21862707
0.0049516056 -0.003428224 -0.21832317
-0.0049999999 -0.0024744798 -0.21815714
0.0049428474 -0.0022388827 -0.21848287
-0.0049999994 -0.001540477 -0.21859048
0.0049367021 -0.0014044115 -0.21866965
-0.0049999994 -0.00050988939 -0.21847731
0.0049299723 -0.00049050228 -0.21845698
-0.0049999994 0.00067038811 -0.2185567
0.0049208677 0.00074585486 -0.21830788
-0.0049999994 0.0012926932 -0.21838303
0.0049151629 0.0015205074 -0.21836717
-0.0049999999 0.0026692459 -0.21839477
0.0049087205 0.0023953412 -0.21863718
-0.0049999999 0.0034329502 -0.21849829
0.004901961 0.0033132478 -0.21842901
-0.0047475053 0.0047966139 -0.21855453
-0.0036162562 0.0049999999 -0.21835186
-0.0024216245 0.0049999994 -0.21869057
-0.001244123 0.0049999999 -0.21854775
-0.0004646779 0.0049999999 -0.21856737
0.0005872075 0.0049999999 -0.21834287
0.0013926545 0.0049999994 -0.21841852
0.0024388193 0.0049999994 -0.21857397
0.0036547058 0.0049999999 -0.21865605
0.0047221845 0.004665181 -0.21847534
0.0048011728 0.0050000004 -0.21813053
-0.0047632325 -0.0048235701 -0.21756266
-0.0033622826 -0.0049999999 -0.21769653
-0.002461293 -0.0049999999 -0.21741049
-0.0016177431 -0.0049999999 -0.21726686
-0.00057539961 -0.0049999999 -0.21766865
0.00039606271 -0.0049999999 -0.21739565
0.0014700644 -0.0049999994 -0.21752219
0.0025700668 -0.0049999999 -0.21761172
0.0034298925 -0.0049999999 -0.21742433
0.0046572508 -0.0048892214 -0.21759517
-0.0049999999 -0.0033385856 -0.21755365
0.004952502 -0.0035498885 -0.2174014
-0.0049999994 -0.0025212592 -0.21768972
0.0049459208 -0.0026562759 -0.21757226
-0.0049999999 -0.0015718747 -0.21747199
0.0049375608 -0.0015209987 -0.21746166
-0.0049999999 -0.00087439053 -0.21759708
0.0049296264 -0.00044355707 -0.21739301
-0.0049999999 0.00043109866 -0.21760905
0.0049225185 0.0005217045 -0.21744524
-0.0049999999 0.0013687208 -0.21765676
0.0049155201 0.0014719983 -0.21758619
-0.0049999999 0.0023936809 -0.21770997
0.0049078525 0.0025131931 -0.21739884
-0.0049999994 0.0034888345 -0.2174782
0.004901127 0.0034265714 -0.21741402
-0.0047043618 0.0048000752 -0.21745215
-0.0033227773 0.0049999999 -0.21768415
-0.0025998375 0.0049999994 -0.21746691
-0.0013759074 0.0049999999 -0.21770856
-0.0004916226 0.0049999999 -0.2176317
0.0003142301 0.0049999999 -0.21737371
0.0014861905 0.0049999999 -0.21750031
0.0026349162 0.0049999999 -0.21763299
0.0034054699 0.0049999999 -0.21759371
0.0047284034 0.0048804414 -0.21754283
-0.0048100608 -0.0046433881 -0.21651433
-0.0034200845 -0.0049999999 -0.21668229
-0.0025441628 -0.0049999994 -0.21646653
-0.0014651305 -0.0049999999 -0.21658355
-0.00053760054 -0.0049999999 -0.21631138
0.00075228792 -0.0049999999 -0.21665999
0.001497625 -0.0049999994 -0.21646714
0.0023481818 -0.0049999999 -0.21633011
0.0036119029 -0.0049999999 -0.21695566
0.0048619574 -0.004658848 -0.21656775
-0.0049999999 -0.0035543926 -0.21648592
0.0049521932 -0.0035080551 -0.21649146
-0.0049999999 -0.0024980928 -0.21667016
0.0049437052 -0.0023554135 -0.21646988
-0.0049999999 -0.0015820267 -0.21635672
0.0049367691 -0.0014135449 -0.21650045
-0.0049999999 -0.0004903634 -0.21655703
0.0049294252 -0.00041620829 -0.21653655
-0.0049999994 0.00063283707 -0.21637671
0.0049223774 0.00054081 -0.21651785
-0.0049999999 0.001449779 -0.21657804
0.0049151401 0.0015236137 -0.21634233
-0.0049999999 0.0023736909 -0.21626322
0.0049076038 0.0025469102 -0.21650533
-0.0049999999 0.0035063531 -0.21645895
0.0049010809 0.0034328126 -0.21662696
-0.0046088556 0.0049074092 -0.21661974
-0.0033436727 0.0049999999 -0.21639796
-0.0025185382 0.0049999999 -0.21659872
-0.0014794898 0.0049999999 -0.21663621
-0.00059388706 0.0049999999 -0.21642098
0.00043060724 0.0049999999 -0.21666856
0.0013760775 0.0049999999 -0.21650678
0.0025166252 0.0049999999 -0.21656278
0.0033772467 0.0049999999 -0.21638793
0.0045974837 0.0047580423 -0.21651356
-0.0047435272 -0.0047069509 -0.21549071
-0.003502097 -0.0049999999 -0.21560445
-0.0024426666 -0.0049999999 -0.21544185
-0.001576391 -0.0049999999 -0.21542813
-0.00049285352 -0.0049999994 -0.21536888
0.00054458261 -0.0049999994 -0.2153209
0.0016193059 -0.0049999994 -0.21550064
0.0023967591 -0.0049999994 -0.21540384
0.0033286978 -0.0049999999 -0.21518834
0.0048030675 -0.0045150891 -0.21571523
-0.0049999994 -0.0036675057 -0.21545914
0.0049520414 -0.0034873688 -0.21549344
-0.0049999999 -0.0023874622 -0.21565935
0.0049447813 -0.0025015494 -0.21559066
-0.0049999999 -0.0012643989 -0.21553604
0.0049398784 -0.0018357213 -0.21563081
-0.0049999999 -0.00055579125 -0.21547642
0.004930364 -0.00054367469 -0.21562816
-0.0049999999 0.0004266687 -0.21550187
0.0049223006 0.0005512237 -0.21559569
-0.0049999999 0.0017321043 -0.21589796
0.0049157422 0.0014418843 -0.21533543
-0.0049999994 0.0025205016 -0.21539696
0.0049081743 0.002469525 -0.21543108
-0.0049999999 0.0035258322 -0.21540213
0.0048997132 0.0036184844 -0.21543284
-0.0047487463 0.0047102934 -0.21557239
-0.0033832313 0.0049999994 -0.21554363
-0.0023896701 0.0049999999 -0.21550538
-0.0015353328 0.0049999999 -0.21549575
-0.00053854228 0.0049999999 -0.21547663
0.00051319436 0.0049999994 -0.21547823
0.0016834885 0.0049999994 -0.21549629
0.0025097663 0.0049999999 -0.21558468
0.0033981793 0.0049999994 -0.21549305
0.0046876343 0.0047319438 -0.21535692
-0.0046602301 -0.0048880363 -0.21436942
-0.0034266463 -0.0049999999 -0.21443835
-0.0023576035 -0.0049999994 -0.21464548
-0.0014683887 -0.0049999999 -0.21446076
-0.0006772147 -0.0049999994 -0.21456151
0.00059676787 -0.0049999994 -0.21452582
0.0015063054 -0.0049999994 -0.21461542
0.0026343723 -0.0049999999 -0.21454985
0.0037604098 -0.0049999999 -0.21467999
0.0046359547 -0.0047107539 -0.21448961
-0.0049999994 -0.0034685184 -0.21452954
0.0049528913 -0.0036027895 -0.21451508
-0.0049999999 -0.0025351641 -0.21450213
0.0049449424 -0.0025234378 -0.21454877
-0.0049999999 -0.0016556359 -0.2144303
0.0049377913 -0.0015522672 -0.21426146
-0.0049999994 -0.00033550942 -0.21443339
0.0049310345 -0.00063476665 -0.21446964
-0.0049999999 0.00040711087 -0.21448521
0.00492279 0.00048480454 -0.21448536
-0.0049999999 0.0014330605 -0.21436593
0.0049159848 0.0014089107 -0.21457098
-0.0049999994 0.0025327972 -0.21454418
0.0049079843 0.0024953373 -0.21456295
-0.0049999994 0.0034499455 -0.21435484
0.0049019414 0.0033159496 -0.21451311
-0.0046044514 0.0049064644 -0.21449728
-0.0035203404 0.0049999994 -0.21456131
-0.0026152714 0.0049999994 -0.21452172
-0.00155638 0.0049999999 -0.2143365
-0.00058047235 0.0049999994 -0.21451707
0.00071990717 0.0049999994 -0.2145882
0.0013711039 0.0049999999 -0.21448654
0.0023656699 0.0049999999 -0.21452677
0.0034798048 0.0049999999 -0.21443427
0.0048155589 0.004626438 -0.2145185
0.0034750393 0.0050000004 -0.21412241
-0.0046103178 -0.0048294486 -0.21345393
-0.0034573181 -0.0049999999 -0.21346778
-0.0026347302 -0.0049999994 -0.21328026
-0.0014842079 -0.0049999994 -0.21348643
-0.00048922602 -0.0049999994 -0.21350406
0.00045605769 -0.0049999999 -0.2135421
0.0017369788 -0.0049999999 -0.21330982
0.0022920636 -0.0049999999 -0.21324204
0.0033963076 -0.0049999994 -0.21330892
0.0046982407 -0.0047426075 -0.2135493
-0.0049999999 -0.0035358001 -0.21344145
0.004950298 -0.0032507421 -0.21356761
-0.0049999994 -0.0025762445 -0.2133756
0.0049450882 -0.0025432056 -0.21344535
-0.0049999994 -0.0014490075 -0.21362592
0.0049379827 -0.0015783301 -0.21367326
-0.0049999999 -0.00054769858 -0.21338561
0.0049281269 -0.00023997747 -0.21334469
-0.0049999994 0.00056836091 -0.21336332
0.0049217138 0.00063094328 -0.21356539
-0.0049999994 0.0014891882 -0.21361962
0.004915982 0.0014093216 -0.21349081
-0.0049999994 0.0024607149 -0.21329029
0.0049079736 0.0024968539 -0.21324053
-0.0049999994 0.0034135415 -0.21374367
0.0049007991 0.0034710467 -0.21346331
-0.0046887277 0.0047050966 -0.21335447
-0.0033202888 0.0049999994 -0.2134594
-0.002243188 0.0049999999 -0.21368843
-0.0012675755 0.0049999999 -0.21337032
-0.00064046023 0.0049999999 -0.21362975
0.00064644287 0.0049999999 -0.21364126
0.0013926616 0.0049999994 -0.2133956
0.0024540483 0.0049999994 -0.21374467
0.0033626875 0.0049999994 -0.21337934
0.0047300151 0.0046625645 -0.21344642
-0.004680621 -0.0048458758 -0.21248248
-0.003276343 -0.0049999999 -0.21240388
-0.0025785454 -0.0049999999 -0.21256913
-0.001443636 -0.0049999994 -0.21248044
-0.00047859814 -0.0049999999 -0.21244109
0.00054995605 -0.0049999994 -0.21248341
0.0015476377 -0.0049999999 -0.21280651
0.0027623826 -0.0049999994 -0.21250364
0.003503172 -0.0049999994 -0.21245047
0.0046897032 -0.0047163931 -0.21240959
-0.0049999994 -0.0036169221 -0.21274689
0.0049519264 -0.0034717252 -0.21263562
-0.0049999999 -0.0026904312 -0.21253495
0.004943613 -0.0023429079 -0.21233808
-0.0049999999 -0.0012849182 -0.21267326
0.0049364134 -0.0013651699 -0.21238944
-0.0049999994 -0.00069699774 -0.2127827
0.0049295868 -0.00043818576 -0.21252906
-0.0049999999 0.00051064719 -0.2125185
0.0049217092 0.00063157134 -0.21257472
-0.0049999999 0.0018063728 -0.21254389
0.0049156048 0.0014605565 -0.2123896
-0.0049999994 0.002519055 -0.21247528
0.0049076127 0.0025458762 -0.21249728
-0.0049999999 0.0034379771 -0.2122699
0.0049000303 0.0035753981 -0.21232489
-0.0047326232 0.0047959983 -0.21239674
-0.003443615 0.0049999999 -0.2125627
-0.0026126513 0.0049999994 -0.21242027
-0.0012617193 0.0049999999 -0.21243851
-0.0004662241 0.0049999994 -0.21251236
0.00045601165 0.0049999994 -0.21263142
0.0017089361 0.0049999999 -0.21252379
0.002523805 0.0049999999 -0.21234503
0.0033641099 0.0049999999 -0.21250273
0.0046462063 0.0048048357 -0.21235444
0.0041865176 0.0050000004 -0.21238139
-0.0048230751 -0.0046625538 -0.21152832
-0.003625792 -0.0049999994 -0.21156578
-0.0023178819 -0.0049999999 -0.21171263
-0.0016457379 -0.0049999999 -0.21145588
-0.0006490823 -0.0049999994 -0.21157481
0.00065955869 -0.0049999999 -0.21138683
0.0015342472 -0.0049999999 -0.21158846
0.0026328273 -0.0049999999 -0.21143322
0.0034953041 -0.0049999999 -0.21148559
0.0049272766 -0.0046492568 -0.21166369
-0.0049999994 -0.0035179981 -0.2114825
0.0049523814 -0.0035335859 -0.21150577
-0.0049999999 -0.0025651939 -0.21165185
0.004943348 -0.0023068651 -0.21141477
-0.0049999999 -0.0015350808 -0.2116565
0.0049388446 -0.0016952953 -0.2113824
-0.0049999994 -0.00045235342 -0.21148004
0.0049299323 -0.00048507363 -0.21130958
-0.0049999999 0.0006246902 -0.21160741
0.0049219513 0.00059864542 -0.21165204
-0.0049999999 0.0013952366 -0.2115171
0.0049163285 0.0013622806 -0.21134973
-0.0049999999 0.0024802603 -0.21139622
0.0049075875 0.0025492203 -0.21153493
-0.0049999999 0.003636695 -0.21152978
0.0049001658 0.0035570767 -0.21164119
-0.0047759097 0.0048176567 -0.21154948
-0.003492763 0.0049999999 -0.21151543
-0.0021127444 0.0049999999 -0.2115436
-0.0016187144 0.0049999999 -0.21159264
-0.00046462222 0.0049999999 -0.21151827
0.00060554687 0.0049999999 -0.21145615
0.0015917326 0.0049999994 -0.21134551
0.0026812064 0.0049999999 -0.21148252
0.0036188718 0.0049999999 -0.21143515
0.0047125663 0.0047022202 -0.21163088
-0.0045763273 -0.0049166703 -0.21058725
-0.0033620272 -0.0049999999 -0.21026643
-0.0025086727 -0.0049999999 -0.21067493
-0.0017020653 -0.0049999994 -0.21057904
-0.00033404469 -0.0049999999 -0.21068281
0.00080938922 -0.0049999999 -0.21054944
0.001533129 -0.0049999999 -0.21037956
0.0024256068 -0.0049999994 -0.21052879
0.0036606218 -0.0049999999 -0.21049105
0.0046255756 -0.0048196125 -0.21046869
-0.0049999999 -0.0035691541 -0.21056549
0.0049525616 -0.0035580413 -0.21047026
-0.0049999994 -0.002352257 -0.21044917
0.0049447916 -0.0025029462 -0.21059504
-0.0049999999 -0.0016083893 -0.21052149
0.0049371049 -0.0014590779 -0.2103297
-0.0049999999 -0.00045647859 -0.21039318
0.0049296962 -0.00045297819 -0.2108158
-0.0049999999 0.00045335101 -0.2105829
0.0049219383 0.00060042524 -0.2108859
-0.0049999999 0.0015552357 -0.21055755
0.0049157063 0.0014467121 -0.21035103
-0.0049999999 0.0023473974 -0.21049021
0.0049080253 0.0024898213 -0.21048169
-0.0049999994 0.0035188477 -0.21050838
0.0048990962 0.0037023048 -0.21041252
-0.0046248436 0.0047103618 -0.21049893
-0.0036283284 0.0049999999 -0.21064021
-0.0023374145 0.0049999994 -0.21060084
-0.001512306 0.0049999994 -0.21042478
-0.00042042742 0.0049999999 -0.21029085
0.00043611095 0.0049999999 -0.21058987
0.0015433163 0.0049999994 -0.21029326
0.002549568 0.0049999999 -0.2104063
0.0034169555 0.0049999994 -0.21032603
0.0046522045 0.0046060639 -0.21036378
-0.004837445 -0.0047354125 -0.20945182
-0.003517607 -0.0049999999 -0.20937203
-0.0025472343 -0.0049999999 -0.20954019
-0.0014360178 -0.0049999999 -0.20953064
-0.00033955372 -0.0049999999 -0.209622
0.00031704741 -0.0049999999 -0.20947704
0.0014235262 -0.0049999999 -0.20947044
0.0025788306 -0.0049999999 -0.20922545
0.0034869963 -0.0049999994 -0.20953415
0.0046781669 -0.0047694584 -0.20955513
-0.0049999999 -0.0033728918 -0.2092173
0.0049522314 -0.00351323 -0.20942436
-0.0049999999 -0.0025080363 -0.2095893
0.0049435636 -0.0023361123 -0.20937088
-0.0049999999 -0.0015090698 -0.20938623
0.0049389903 -0.0017151181 -0.20928644
-0.0049999999 -0.00047540921 -0.20946318
0.0049300361 -0.00049917505 -0.20943326
-0.0049999999 0.00035730051 -0.20939623
0.0049221963 0.00056542229 -0.20939332
-0.0049999994 0.001668946 -0.20953912
0.0049159564 0.0014127827 -0.20953362
-0.0049999999 0.0025078498 -0.20969787
0.0049065547 0.0026895101 -0.2093595
-0.0049999999 0.0031994311 -0.20947686
0.0048988117 0.0037409356 -0.20952016
-0.0048524966 0.0047395448 -0.20942844
-0.0035768524 0.0049999999 -0.2093901
-0.0025340884 0.0049999994 -0.20945273
-0.0015380126 0.0049999999 -0.20944422
-0.00045608496 0.0049999999 -0.20965451
0.00057625904 0.0049999999 -0.20947604
0.0014585204 0.0049999999 -0.20935974
0.0026419882 0.0049999994 -0.20931947
0.0035585938 0.0049999999 -0.20970914
0.0046154736 0.0048386683 -0.20944366
-0.0048184269 -0.0047299191 -0.20842136
-0.0035726745 -0.0049999999 -0.20837359
-0.0023311304 -0.0049999994 -0.20862293
-0.0015063628 -0.0049999994 -0.20836821
-0.00043165154 -0.0049999999 -0.20831843
0.00048064333 -0.0049999994 -0.20854269
0.0014545294 -0.0049999999 -0.20857763
0.0026186272 -0.0049999999 -0.20856814
0.0034035514 -0.0049999994 -0.20856838
0.0047474382 -0.0046442808 -0.20851789
-0.0049999994 -0.0035179697 -0.20844726
0.0049512768 -0.0033835501 -0.20840769
-0.0049999999 -0.0025095991 -0.20842983
0.004944162 -0.002417397 -0.20847951
-0.0049999999 -0.001641712 -0.20848341
0.0049374127 -0.0015008625 -0.20860712
-0.0049999994 -0.00060350396 -0.20858414
0.0049303975 -0.00054820365 -0.20826855
-0.0049999999 0.00050564198 -0.20807847
0.0049214447 0.00066751865 -0.2082881
-0.0049999999 0.0016384906 -0.2084949
0.0049141156 0.0016627103 -0.20830475
-0.0049999999 0.0023984478 -0.20845935
0.0049075219 0.0025581401 -0.20861706
-0.0049999999 0.0035321349 -0.20851533
0.0049007772 0.0034739941 -0.20837477
-0.0046969494 0.0048418399 -0.20844525
-0.0037724415 0.0049999999 -0.2084019
-0.0022276638 0.0049999999 -0.20860136
-0.0014789331 0.0049999999 -0.20835231
-0.00052232802 0.0049999999 -0.20838037
0.00043262617 0.0049999994 -0.20849067
0.0015095718 0.0049999994 -0.20848373
0.0023181236 0.0049999999 -0.20870571
0.0034637796 0.0049999999 -0.20870301
0.0046718395 0.0047983737 -0.20842071
0.0040885662 0.0050000004 -0.20849895
-0.0046300739 -0.0048330883 -0.20757219
-0.0033513918 -0.0049999994 -0.20747964
-0.0027427941 -0.0049999999 -0.20747209
-0.0014367952 -0.0049999994 -0.20755258
-0.00041287646 -0.0049999994 -0.20744765
0.00050364109 -0.0049999999 -0.2074665
0.0015530308 -0.0049999999 -0.20737955
0.002315117 -0.0049999999 -0.20740837
0.0034472817 -0.0049999999 -0.20757206
0.0046293638 -0.0047734948 -0.20745099
-0.0049999999 -0.0037240307 -0.20748489
0.0049512885 -0.0033851885 -0.20758766
-0.0049999994 -0.0024887722 -0.20745897
0.0049442961 -0.0024356253 -0.20744096
-0.0049999999 -0.001757887 -0.20768636
0.0049377894 -0.0015520836 -0.20751181
-0.0049999999 -0.00051794737 -0.20745043
0.0049302932 -0.00053405704 -0.20752233
-0.0049999994 0.00052687933 -0.20753923
0.0049237004 0.00036119437 -0.20743863
-0.0049999994 0.0015484807 -0.20747708
0.004914715 0.0015814187 -0.20739983
-0.0049999999 0.0025823242 -0.20743003
0.004907331 0.0025840276 -0.20753911
-0.0049999994 0.0035500224 -0.20753552
0.0049010171 0.0034415063 -0.2074872
-0.0046877139 0.0047965683 -0.20744975
-0.0035872394 0.0049999994 -0.20746163
-0.0026159598 0.0049999994 -0.20749874
-0.0014664349 0.0049999994 -0.2074541
-0.00034819276 0.0049999999 -0.20750508
0.00036907534 0.0049999994 -0.20740391
0.0015021291 0.0049999994 -0.20755319
0.0024941049 0.0049999999 -0.20752867
0.003722426 0.0049999999 -0.20759538
0.0047345012 0.0045660976 -0.2075278
-0.0047662542 -0.0047562914 -0.20654459
-0.0035144128 -0.0049999999 -0.20651411
-0.0024196943 -0.0049999999 -0.20645981
-0.0014597231 -0.0049999994 -0.20651494
-0.00068371621 -0.0049999999 -0.20681676
0.00031748362 -0.0049999999 -0.206596
0.0017223908 -0.0049999999 -0.20660324
0.0025251943 -0.0049999994 -0.20649782
0.0034696464 -0.0049999994 -0.20636559
0.0048293467 -0.0048250388 -0.20644914
-0.0049999999 -0.0034792405 -0.20645685
0.0049512722 -0.0033829149 -0.20642462
-0.0049999999 -0.0025182075 -0.20674084
0.0049452791 -0.0025691346 -0.20650534
-0.0049999994 -0.0015745887 -0.20662333
0.0049373852 -0.0014971865 -0.2066801
-0.0049999999 -0.00056001608 -0.20680754
0.0049267039 -4.664436e-05 -0.20632344
-0.0049999999 0.0005932778 -0.20630896
0.0049240449 0.00031441808 -0.20649238
-0.0049999999 0.0014168154 -0.20647772
0.0049152807 0.0015045018 -0.20651111
-0.0049999994 0.002444692 -0.20657942
0.0049059028 0.0027780128 -0.2066727
-0.0049999999 0.0035125636 -0.20633808
0.0048996881 0.0036220185 -0.20655403
-0.0048100897 0.0047668503 -0.20640431
-0.0031321626 0.0049999999 -0.20625179
-0.0024467923 0.0049999994 -0.20655151
-0.0014843439 0.0049999999 -0.20634049
-0.0005201163 0.0049999994 -0.20648099
0.00041444806 0.0049999999 -0.20653462
0.0017743784 0.0049999999 -0.20674871
0.002535136 0.0049999994 -0.20642081
0.0036912886 0.0049999999 -0.20653707
0.0048437226 0.0048573441 -0.20647538
-0.0047459803 -0.0047963117 -0.20557776
-0.0035886765 -0.0049999999 -0.20561342
-0.0023783029 -0.0049999999 -0.20557734
-0.0014645363 -0.0049999999 -0.20552137
-0.00056953036 -0.0049999994 -0.205437
0.00043291893 -0.0049999994 -0.20545724
0.0015427213 -0.0049999994 -0.20545916
0.0024151804 -0.0049999994 -0.20549068
0.0035201022 -0.0049999994 -0.20550987
0.0046259309 -0.0048718033 -0.20547271
-0.0049999994 -0.0034206689 -0.20567302
0.0049536349 -0.003703713 -0.20566046
-0.0049999999 -0.002368645 -0.20562728
0.0049446644 -0.002485692 -0.20537606
-0.0049999999 -0.0016896178 -0.20564352
0.0049383845 -0.0016329255 -0.20564835
-0.0049999999 -0.00062117877 -0.20560603
0.0049290122 -0.00036013706 -0.20550454
-0.0049999999 0.00040194415 -0.20555288
0.0049220631 0.0005835474 -0.20556003
-0.0049999999 0.0012666038 -0.20536976
0.0049153618 0.001493532 -0.20535152
-0.0049999994 0.002592365 -0.2056267
0.0049087531 0.0023909486 -0.20568094
-0.0049999999 0.003368669 -0.20553146
0.0049001728 0.0035560702 -0.20553148
-0.0048210793 0.0045543402 -0.20564267
-0.0037698757 0.0049999999 -0.20564018
-0.0024160699 0.0049999999 -0.20519896
-0.0016373411 0.0049999999 -0.20558003
-0.00048407027 0.0049999999 -0.20540732
0.00064915948 0.0049999994 -0.20557651
0.0016593902 0.0049999999 -0.20561512
0.0024096144 0.0049999999 -0.20527866
0.0034579963 0.0049999999 -0.20527644
0.0045816191 0.004848497 -0.20550989
-0.0046867719 -0.0046793134 -0.20448557
-0.0033568714 -0.0049999994 -0.20462112
-0.0027691696 -0.0049999999 -0.20460792
-0.0017331874 -0.0049999999 -0.20432772
-0.00027246168 -0.0049999999 -0.20449051
0.00026622723 -0.0049999999 -0.20465599
0.0014355939 -0.0049999999 -0.20452897
0.0024916192 -0.0049999999 -0.20442574
0.0036608397 -0.0049999999 -0.20442997
0.0047450359 -0.0046108533 -0.20446946
-0.0049999999 -0.0035596327 -0.20435002
0.0049498407 -0.0031884972 -0.20444499
-0.0049999994 -0.002520137 -0.20453821
0.004944677 -0.0024873521 -0.20442018
-0.0049999999 -0.0015339211 -0.20443216
0.0049378732 -0.0015634623 -0.20473602
-0.0049999994 -0.000548593 -0.20459138
0.0049311323 -0.0006480146 -0.20439154
-0.0049999994 0.00069810991 -0.20446265
0.0049214293 0.0006696122 -0.20451938
-0.0049999994 0.0015666153 -0.20470224
0.004914986 0.0015445303 -0.20447731
-0.0049999999 0.002702004 -0.20446281
0.0049079643 0.0024980912 -0.204546
-0.0049999999 0.0034618631 -0.20457032
0.004901689 0.0033502057 -0.20456904
-0.0048140949 0.0047572469 -0.20442303
-0.0036272143 0.0049999999 -0.20447546
-0.0024421096 0.0049999994 -0.20452631
-0.0012482401 0.0049999994 -0.20442596
-0.00055469101 0.0049999994 -0.20449741
0.00065821933 0.0049999999 -0.20442286
0.0012834478 0.0049999999 -0.20450813
0.0025105344 0.0049999999 -0.20432803
0.0035966374 0.0049999999 -0.20455988
0.0047156662 0.0047171307 -0.20447612
0.0041892184 0.0050000004 -0.20475879
-0.0047253268 -0.0047150012 -0.20337632
-0.0034905102 -0.0049999999 -0.20341718
-0.0024257917 -0.0049999999 -0.20327497
-0.0013422318 -0.0049999999 -0.203578
-0.00053044013 -0.0049999999 -0.20351367
0.000679616 -0.0049999994 -0.20353465
0.0016215567 -0.0049999999 -0.20351076
0.0025071376 -0.0049999994 -0.20366727
0.0037899541 -0.0049999999 -0.2036256
0.00473923 -0.0047249971 -0.2034342
-0.0049999999 -0.0033864416 -0.20353429
0.0049511553 -0.0033670294 -0.20350446
-0.0049999999 -0.0023263064 -0.2034246
0.0049461233 -0.0026837538 -0.20339616
-0.0049999994 -0.0015336628 -0.20353523
0.0049367188 -0.0014066965 -0.20334585
-0.0049999994 -0.00035156106 -0.20348042
0.0049297358 -0.00045833486 -0.20340972
-0.0049999999 0.00036767102 -0.20372161
0.0049216878 0.00063447031 -0.20346771
-0.0049999999 0.0013402316 -0.2033594
0.004914985 0.001544646 -0.20352013
-0.0049999999 0.0023676853 -0.20342143
0.0049070502 0.0026222342 -0.20348281
-0.0049999999 0.0036629345 -0.20347473
0.0048986515 0.0037627043 -0.20337164
-0.0046545798 0.0047972957 -0.20344691
-0.0035033268 0.0049999994 -0.2033909
-0.0022405849 0.0049999999 -0.20345153
-0.0016701325 0.0049999999 -0.20340113
-0.00080455269 0.0049999999 -0.20332859
0.00046934292 0.0049999999 -0.2034293
0.0015838454 0.0049999994 -0.20346135
0.0025596544 0.0049999994 -0.20351103
0.0036155055 0.0049999999 -0.20351061
0.0047503207 0.0046194266 -0.20348737
-0.0048416373 -0.0047566248 -0.20250496
-0.0032774699 -0.0049999999 -0.20259094
-0.0026226188 -0.0049999999 -0.20254555
-0.0014864381 -0.0049999999 -0.20263374
-0.00043310132 -0.0049999999 -0.20256339
0.00086812105 -0.0049999999 -0.20241798
0.0016048048 -0.0049999999 -0.20282069
0.002275659 -0.0049999999 -0.20249879
0.0033574949 -0.0049999999 -0.20257434
0.0046824738 -0.0048120441 -0.2024816
-0.0049999999 -0.0036113975 -0.20230871
0.0049539148 -0.0037418194 -0.20248054
-0.0049999999 -0.0023306976 -0.2024069
0.0049436996 -0.002354563 -0.20264041
-0.0049999999 -0.0013758478 -0.20225069
0.004935497 -0.0012407074 -0.20246211
-0.0049999994 -0.00065595325 -0.20251715
0.0049295966 -0.00043946784 -0.20266661
-0.0049999999 0.00053900748 -0.20244412
0.004922282 0.00055378315 -0.20250741
-0.0049999994 0.0016049912 -0.20264111
0.0049137375 0.0017141107 -0.20270304
-0.0049999999 0.0025583298 -0.20249251
0.0049101994 0.0021945355 -0.20238052
-0.0049999999 0.0033786255 -0.20233871
0.0049013952 0.0033900491 -0.20234385
-0.0047960249 0.0047168271 -0.20256557
-0.0034775198 0.0049999999 -0.20230153
-0.0028114538 0.0049999999 -0.20250234
-0.0015693061 0.0049999999 -0.20243478
-0.00072797516 0.0049999999 -0.20259832
0.00049500994 0.0049999999 -0.20281067
0.0016383367 0.0049999999 -0.20262022
0.002525087 0.0049999994 -0.20252967
0.0037157906 0.0049999999 -0.20254362
0.0045296238 0.0048048948 -0.20261319
-0.0047641965 -0.0047287666 -0.20145914
-0.0035777108 -0.0049999994 -0.20154884
-0.0024889279 -0.0049999999 -0.20155762
-0.0015893767 -0.0049999999 -0.2016471
-0.00047713969 -0.0049999999 -0.20169929
0.00048999948 -0.0049999999 -0.20172481
0.0015238037 -0.0049999994 -0.20152521
0.0025798848 -0.0049999999 -0.20152953
0.0037313241 -0.0049999999 -0.20144352
0.0047832816 -0.0045837532 -0.20150922
-0.0049999999 -0.0032754587 -0.20112082
0.0049525071 -0.0035506706 -0.20137052
-0.0049999999 -0.0025809351 -0.2014876
0.0049439566 -0.0023895265 -0.20167786
-0.0049999994 -0.0014133191 -0.20144343
0.0049392409 -0.001749129 -0.20156896
-0.0049999994 -0.00058345107 -0.20133744
0.0049296259 -0.00044347707 -0.20162258
-0.0049999994 0.00053456449 -0.20156056
0.0049222354 0.00056014862 -0.20143542
-0.0049999999 0.0014633244 -0.2013597
0.0049163289 0.0013621799 -0.20152952
-0.0049999994 0.0024569996 -0.20154631
0.004909236 0.0023253269 -0.20145306
-0.0049999994 0.003387627 -0.20163277
0.004900319 0.0035362344 -0.20154586
-0.0047870926 0.0047815274 -0.20138176
-0.0034146176 0.0049999999 -0.20164894
-0.002447247 0.0049999999 -0.20155625
-0.0013994045 0.0049999994 -0.20152688
-0.00074318901 0.0049999999 -0.20129752
0.0004894695 0.0049999999 -0.20177329
0.0016947621 0.0049999994 -0.20152067
0.0023177101 0.0049999999 -0.20159903
0.0035529868 0.0049999999 -0.20174585
0.0047921431 0.0046934928 -0.20140786
0.0035809246 0.0050000004 -0.20138428
0.0043872767 0.0050000004 -0.20110835
-0.0048583327 -0.0045835045 -0.2005475
-0.0036994994 -0.0049999999 -0.20050783
-0.0024884222 -0.0049999994 -0.20067319
-0.0014123259 -0.0049999994 -0.2004385
-0.00050681242 -0.0049999994 -0.20050672
0.00072224968 -0.0049999999 -0.20041171
0.0014154607 -0.0049999994 -0.20045045
0.0025012766 -0.0049999994 -0.2003569
0.0037431007 -0.0049999999 -0.20043056
0.0048110434 -0.004692751 -0.20049796
-0.0049999994 -0.0035506387 -0.20047684
0.0049525076 -0.0035507239 -0.20039454
-0.0049999999 -0.0028451588 -0.20082274
0.0049459464 -0.0026596508 -0.2003846
-0.0049999999 -0.001450341 -0.20060763
0.0049375934 -0.0015254132 -0.20051134
-0.0049999999 -0.00066383008 -0.20055489
0.004928886 -0.00034297045 -0.20060797
-0.0049999999 0.00044998212 -0.20037618
0.0049224584 0.00052982243 -0.20048125
-0.0049999994 0.0014532609 -0.20034306
0.0049156607 0.0014528814 -0.20046866
-0.0049999994 0.0025431761 -0.20045111
0.0049102684 0.0021851365 -0.20047954
-0.0049999999 0.0036888726 -0.20040707
0.0049002944 0.0035395841 -0.2005814
-0.0048456239 0.0048150583 -0.20047352
-0.0033763426 0.0049999999 -0.2005931
-0.0025809659 0.0049999999 -0.20021077
-0.0015526293 0.0049999999 -0.20066121
-0.00052068965 0.0049999999 -0.20038682
0.00037012575 0.0049999999 -0.20027617
0.0015208418 0.0049999994 -0.20064212
0.0023613838 0.0049999994 -0.20043245
0.0036273887 0.0049999994 -0.20042032
0.0046854434 0.0048162462 -0.20065592
-0.0047208108 -0.0047650612 -0.1995645
-0.0033744255 -0.0049999999 -0.19949558
-0.0027203299 -0.0049999999 -0.19916883
-0.0014780461 -0.0049999999 -0.19949618
-0.00048556298 -0.0049999999 -0.19956788
0.0005066247 -0.0049999999 -0.19949354
0.0014939256 -0.0049999999 -0.19940493
0.0025157188 -0.0049999999 -0.19942193
0.0035565277 -0.0049999999 -0.19946375
0.0046840929 -0.0048618647 -0.19942899
-0.0049999994 -0.0036057797 -0.19946684
0.0049521062 -0.0034962019 -0.19961831
-0.0049999999 -0.0026623406 -0.19949949
0.0049441522 -0.0024160293 -0.19944398
-0.0049999994 -0.0014922706 -0.19960544
0.0049377936 -0.0015526196 -0.19960696
-0.0049999999 -0.00060302048 -0.19959605
0.0049306415 -0.00058147928 -0.19949614
-0.0049999999 0.00051292422 -0.19941092
0.0049222596 0.0005567951 -0.19945543
-0.0049999999 0.001419595 -0.19960801
0.0049143275 0.001633934 -0.19924447
-0.0049999994 0.0024256255 -0.19967622
0.004906462 0.0027020946 -0.19944835
-0.0049999999 0.0035680691 -0.19963744
0.0048999637 0.0035844925 -0.19966003
-0.0046606492 0.0047212271 -0.19938657
-0.0035482398 0.0049999994 -0.19949861
-0.0026964652 0.0049999999 -0.19966248
-0.0017562376 0.0049999999 -0.19941777
-0.00056559959 0.0049999999 -0.19944665
0.00057032239 0.0049999999 -0.19942233
0.0015444341 0.0049999999 -0.19955444
0.0026015972 0.0049999994 -0.19945148
0.0034153156 0.0049999994 -0.1996313
0.0047902046 0.004713791 -0.19959114
-0.0047910898 -0.0047689131 -0.19860359
-0.0033709817 -0.0049999999 -0.19854909
-0.0024498035 -0.0049999999 -0.19856831
-0.0014670587 -0.0049999999 -0.19816786
-0.00047993087 -0.0049999994 -0.19850263
0.00045351434 -0.0049999994 -0.19867299
0.0013734123 -0.0049999994 -0.19847472
0.0025821209 -0.0049999994 -0.19840033
0.0036461616 -0.0049999999 -0.198413
0.0048740776 -0.0046266485 -0.19844939
-0.0049999999 -0.0033166148 -0.19862692
0.0049517779 -0.0034516258 -0.19854255
-0.0049999994 -0.0025874332 -0.19850656
0.0049454113 -0.0025871005 -0.1983673
-0.0049999994 -0.0015744531 -0.19867891
0.0049362462 -0.0013424617 -0.1984251
-0.0049999994 -0.00047018699 -0.19854137
0.0049310699 -0.00063962629 -0.19861123
-0.0049999994 0.00028930503 -0.19835424
0.004921875 0.00060903642 -0.19858144
-0.0049999999 0.0015588229 -0.19861268
0.0049151792 0.0015183132 -0.19840318
-0.0049999994 0.0024842536 -0.19849579
0.0049082767 0.0024556336 -0.19849847
-0.0049999999 0.0034915565 -0.19826981
0.004901418 0.0033870162 -0.19843642
-0.0046585198 0.0047061597 -0.19839287
-0.0033746299 0.0049999994 -0.1984977
-0.0025317045 0.0049999999 -0.19831194
-0.0012687006 0.0049999999 -0.19850801
-0.00053351576 0.0049999994 -0.19838785
0.00049965066 0.0049999994 -0.19856857
0.0015003906 0.0049999999 -0.19847156
0.0024855521 0.0049999994 -0.19863668
0.0035418062 0.0049999999 -0.19848527
0.0048053502 0.0045127519 -0.19838554
-0.004739265 -0.0047803265 -0.19746813
-0.0034467534 -0.0049999994 -0.19754548
-0.0023551234 -0.0049999999 -0.19765443
-0.0017155346 -0.0049999994 -0.19753179
-0.00048012027 -0.0049999999 -0.19752687
0.00056067214 -0.0049999994 -0.19731122
0.001391995 -0.0049999999 -0.19736329
0.0023213406 -0.0049999999 -0.19737644
0.0035419918 -0.0049999999 -0.19780184
0.0048103156 -0.0047549605 -0.19735114
-0.0049999999 -0.00347789 -0.19767834
0.0049520079 -0.0034828391 -0.19751278
-0.0049999999 -0.0024276464 -0.1978417
0.0049443739 -0.002446214 -0.19752121
-0.0049999999 -0.0014566733 -0.19750398
0.0049371105 -0.001459871 -0.19753492
-0.0049999994 -0.00037929651 -0.19753654
0.0049305432 -0.00056806108 -0.19754343
-0.0049999994 0.00048348494 -0.19747914
0.0049241832 0.00029555129 -0.19751041
-0.0049999999 0.0016393255 -0.19747141
0.0049148081 0.0015686663 -0.19747825
-0.0049999994 0.0025225012 -0.19759999
0.0049075023 0.0025608216 -0.19723086
-0.0049999999 0.003486858 -0.19736505
0.0049004457 0.0035190007 -0.19778922
-0.0045947591 0.0048194225 -0.19743958
-0.0035571803 0.0049999999 -0.19752438
-0.0026057139 0.0049999999 -0.19747417
-0.0014021378 0.0049999999 -0.19760409
-0.00053710252 0.0049999994 -0.1978121
0.00052319193 0.0049999994 -0.1974348
0.0015247504 0.0049999994 -0.19762337
0.0027708691 0.0049999999 -0.19733554
0.0032614153 0.0049999999 -0.19756846
0.0045994679 0.0047940961 -0.19749166
-0.0048165801 -0.0046561109 -0.19648585
-0.0034216647 -0.0049999999 -0.1965571
-0.0026287325 -0.0049999999 -0.19640069
-0.0015386898 -0.0049999994 -0.19645543
-0.00046418014 -0.0049999999 -0.19658613
0.0006866589 -0.0049999994 -0.19639885
0.0014595581 -0.0049999999 -0.19642347
0.0025522315 -0.0049999999 -0.19653718
0.0035349377 -0.0049999999 -0.19663501
0.0047606947 -0.0047123982 -0.19661413
-0.0049999999 -0.0035108067 -0.19620903
0.0049505625 -0.0032865824 -0.19674438
-0.0049999994 -0.0023294233 -0.19671924
0.0049453704 -0.00258152 -0.19647583
-0.0049999999 -0.001530593 -0.19665544
0.0049363254 -0.0013532178 -0.19645628
-0.0049999999 -0.0003065659 -0.19660281
0.0049305446 -0.00056831812 -0.19633643
-0.0049999994 0.00049430598 -0.19644175
0.0049230941 0.0004434663 -0.19669871
-0.0049999999 0.0013536767 -0.19642943
0.0049163913 0.0013536764 -0.19635423
-0.0049999999 0.0024852052 -0.19630671
0.0049087536 0.0023909041 -0.19649747
-0.0049999994 0.0034354043 -0.19655575
0.0049010315 0.0034395303 -0.19663547
-0.0047188504 0.0046990523 -0.19646016
-0.003633637 0.0049999999 -0.19647533
-0.0026209685 0.0049999994 -0.1964166
-0.0013013699 0.0049999994 -0.19667849
-0.0004160543 0.0049999999 -0.19653663
0.00047953139 0.0049999999 -0.19639945
0.0015275549 0.0049999999 -0.1964304
0.0026089107 0.0049999999 -0.19652919
0.0035025831 0.0049999999 -0.19649826
0.0045601963 0.0048335134 -0.19671741
-0.0048953961 -0.0046226033 -0.19554202
-0.0035513344 -0.0049999994 -0.1955016
-0.0027943086 -0.0049999999 -0.19547197
-0.0015224934 -0.0049999994 -0.1954212
-0.00058393244 -0.0049999999 -0.19536719
0.00054942566 -0.0049999999 -0.19554515
0.001376008 -0.0049999999 -0.19554096
0.0024068602 -0.0049999999 -0.19524482
0.0034989954 -0.0049999994 -0.19557342
0.0046298373 -0.0048039639 -0.1956111
-0.0049999999 -0.0035094824 -0.19560313
0.0049518412 -0.003460268 -0.19538116
-0.0049999999 -0.0024187122 -0.19561905
0.0049447501 -0.0024972844 -0.19540007
-0.0049999999 -0.0016839321 -0.19545439
0.0049379356 -0.0015718787 -0.19550748
-0.0049999999 -0.00060559594 -0.19567014
0.004930058 -0.00050213322 -0.19545732
-0.0049999999 0.00060143147 -0.19533823
0.0049219355 0.00060082431 -0.19558644
-0.0049999994 0.001323306 -0.19554158
0.0049153054 0.0015011617 -0.19543801
-0.0049999999 0.0024591556 -0.1952647
0.0049072644 0.0025930586 -0.19562946
-0.0049999999 0.0035279659 -0.19554584
0.0048998101 0.0036053599 -0.19568281
-0.0046563451 0.0048389272 -0.19546548
-0.0036362607 0.0049999994 -0.19536889
-0.0025286926 0.0049999999 -0.19551097
-0.0016051851 0.0049999994 -0.19552211
-0.00041786185 0.0049999994 -0.19544199
0.00046664895 0.0049999999 -0.19556499
0.0014468449 0.0049999994 -0.19539192
0.0024503621 0.0049999994 -0.19539036
0.0034501068 0.0049999994 -0.1954838
0.0046961731 0.0047767581 -0.1955481
-0.0047841799 -0.0046294541 -0.19434464
-0.0034317418 -0.0049999999 -0.19446512
-0.002476926 -0.0049999999 -0.19439285
-0.0015376587 -0.0049999999 -0.19433129
-0.00047315133 -0.0049999999 -0.19462542
0.00060143019 -0.0049999999 -0.1944118
0.0014679462 -0.0049999999 -0.1945321
0.0023683307 -0.0049999999 -0.19457105
0.0034711678 -0.0049999994 -0.19450626
0.0046388777 -0.0047442918 -0.1945252
-0.0049999999 -0.0032351627 -0.19473036
0.0049513634 -0.0033952917 -0.19471681
-0.0049999999 -0.0024021654 -0.19452645
0.0049457354 -0.002631054 -0.19460535
-0.0049999999 -0.0014678504 -0.19451061
0.0049363002 -0.0013498163 -0.19457504
-0.0049999999 -0.00053341693 -0.19462161
0.0049297824 -0.00046465817 -0.19450201
-0.0049999994 0.00038561539 -0.19456552
0.0049230941 0.00044350364 -0.1945333
-0.0049999999 0.0014913663 -0.19460505
0.0049158419 0.0014282826 -0.19465549
-0.0049999999 0.0024702379 -0.19433823
0.0049078958 0.0025074126 -0.19468509
-0.0049999994 0.0034200884 -0.19448073
0.0049001323 0.0035615731 -0.19449338
-0.0047626169 0.0046448493 -0.19443014
-0.0037259103 0.0049999999 -0.19451901
-0.0022864488 0.0049999999 -0.19448277
-0.0015507051 0.0049999999 -0.19454625
-0.00073098997 0.0049999999 -0.19454166
0.00031327197 0.0049999994 -0.19457482
0.0012844295 0.0049999999 -0.19467896
0.0025225149 0.0049999999 -0.19448519
0.0034692751 0.0049999999 -0.1946681
0.0046193968 0.004895288 -0.19465688
0.0033257906 0.0050000004 -0.1945716
-0.0047709863 -0.0047178003 -0.19340938
-0.0036085146 -0.0049999999 -0.19355911
-0.0022499543 -0.0049999999 -0.19362631
-0.0015250582 -0.0049999994 -0.19343299
-0.00058788992 -0.0049999994 -0.19340916
0.00041680373 -0.0049999999 -0.19344644
0.0015331958 -0.0049999999 -0.19363794
0.0024933855 -0.0049999994 -0.19360839
0.003823441 -0.0049999999 -0.19350348
0.0047712633 -0.0046889745 -0.1934921
-0.0049999999 -0.0033963365 -0.19336574
0.0049514398 -0.0034057691 -0.19354127
-0.0049999999 -0.0025538616 -0.19362198
0.0049428488 -0.0022391144 -0.19365139
-0.0049999999 -0.0014630629 -0.19348279
0.0049378308 -0.0015576658 -0.19338432
-0.0049999999 -0.00052114954 -0.19344525
0.004930119 -0.00051051367 -0.19359174
-0.0049999994 0.00041797318 -0.19329011
0.004922668 0.00050131476 -0.19339469
-0.0049999994 0.0015219458 -0.1936267
0.0049144253 0.0016206618 -0.19351254
-0.0049999999 0.0023195487 -0.19355546
0.0049082837 0.0024547072 -0.19356193
-0.0049999999 0.0033677581 -0.19356409
0.0049004676 0.003516126 -0.19337437
-0.0048022876 0.0047279806 -0.19345129
-0.0034491871 0.0049999994 -0.19342494
-0.0025217838 0.0049999994 -0.19359678
-0.001554856 0.0049999999 -0.19346438
-0.00032598118 0.0049999999 -0.19313638
0.00034408347 0.0049999994 -0.19344126
0.0016949041 0.0049999999 -0.19323748
0.0026688597 0.0049999999 -0.19355261
0.00364575 0.0049999999 -0.19339383
0.0046976302 0.0047716079 -0.19358374
0.0039079646 0.0050000004 -0.19375016
0.0043151635 0.0050000004 -0.19372097
-0.0047180182 -0.0046988744 -0.1923603
-0.0034688439 -0.0049999999 -0.19261555
-0.0024194149 -0.0049999999 -0.19245826
-0.0015776871 -0.0049999999 -0.19268668
-0.00023422707 -0.0049999999 -0.19256778
0.00053022435 -0.0049999994 -0.19233605
0.0015056108 -0.0049999994 -0.19243191
0.0023638494 -0.0049999994 -0.19239494
0.0036674137 -0.0049999994 -0.19248299
0.0049039014 -0.004564838 -0.19253576
-0.0049999999 -0.0036133106 -0.19254333
0.0049534896 -0.003684093 -0.19268566
-0.0049999994 -0.0024254285 -0.19252446
0.0049439818 -0.0023929607 -0.19252993
-0.0049999999 -0.0016912885 -0.19270019
0.0049364772 -0.0013738283 -0.19250008
-0.0049999999 -0.00068656437 -0.19261341
0.0049299011 -0.0004808025 -0.19246846
-0.0049999999 0.00047004214 -0.19242305
0.0049218261 0.00061567407 -0.19257875
-0.0049999994 0.0014953248 -0.19231966
0.0049159336 0.0014158892 -0.19237076
-0.0049999999 0.0024011005 -0.19244075
0.0049081864 0.0024679266 -0.19245122
-0.0049999999 0.0034516663 -0.19247171
0.0049005351 0.0035068828 -0.19255069
-0.0047288123 0.0047523105 -0.19265388
-0.0035162538 0.0049999994 -0.19262151
-0.0026178788 0.0049999994 -0.19262026
-0.0013351022 0.0049999999 -0.19247966
-0.00052107708 0.0049999994 -0.19271296
0.00050972949 0.0049999999 -0.19248796
0.0015954112 0.0049999999 -0.19249944
0.0026342468 0.0049999999 -0.19235621
0.0033913858 0.0049999999 -0.19251947
0.0046372362 0.0047501619 -0.19236901
0.0046762363 0.0050000004 -0.19248576
-0.0046987603 -0.0047553582 -0.1917018
-0.0034235353 -0.0049999994 -0.19150771
-0.0025924917 -0.0049999994 -0.19166096
-0.0015505023 -0.0049999999 -0.19158463
-0.00059756532 -0.0049999999 -0.19149922
0.00048309605 -0.0049999999 -0.19144183
0.0012912469 -0.0049999999 -0.19135807
0.0024218508 -0.0049999999 -0.19153626
0.0035123625 -0.0049999999 -0.19150214
0.0045800135 -0.0049357256 -0.19155693
-0.0049999994 -0.0034342818 -0.19132422
0.0049520484 -0.0034883348 -0.19146614
-0.0049999999 -0.0025836881 -0.19146995
0.0049433555 -0.0023078842 -0.19151004
-0.0049999999 -0.001536736 -0.19144098
0.0049371901 -0.001470689 -0.19148195
-0.0049999994 -0.00040601427 -0.19143353
0.0049295384 -0.00043159313 -0.19146457
-0.0049999994 0.0004075061 -0.19142632
0.0049218866 0.00060749357 -0.19162279
-0.0049999999 0.0014596885 -0.19142884
0.0049155764 0.001464379 -0.19143769
-0.0049999999 0.0023277334 -0.19150335
0.0049071861 0.0026037779 -0.19156472
-0.0049999999 0.0034050383 -0.19151615
0.0049012788 0.003405974 -0.19155392
-0.0048016147 0.0048303837 -0.19149502
-0.003394274 0.0049999994 -0.1916099
-0.0027022406 0.0049999999 -0.19136052
-0.0016737401 0.0049999994 -0.19146377
-0.00050171366 0.0049999994 -0.19139275
0.00044724773 0.0049999999 -0.19151577
0.0015012459 0.0049999994 -0.19149639
0.0024109308 0.0049999994 -0.19159837
0.0035592509 0.0049999994 -0.19163899
0.0047229836 0.0047231745 -0.19138913
-0.0046352772 -0.0048233569 -0.19041103
-0.0035518182 -0.0049999994 -0.19049516
