# .PCD v0.7 - Point Cloud Data file format
VERSION 0.7
FIELDS x y z
SIZE 4 4 4
TYPE F F F
COUNT 1 1 1
WIDTH 1230
HEIGHT 1
VIEWPOINT 0 0 0 1 0 0 0
POINTS 1230
DATA ascii
-0.0047906833 -0.0014913776 -0.15154269
0.0046941922 -0.001423571 -0.15159313
-0.0049895314 -0.00034097131 -0.15168643
0.0048647174 -0.00060289347 -0.1515851
-0.0049719047 0.00056473538 -0.15134521
0.0048702536 0.00055848644 -0.15139678
-0.0047240756 0.0016594643 -0.15143986
0.0047065034 0.0014214453 -0.15161648
-0.0043328167 0.0025142448 -0.15127958
0.004233608 0.0025416887 -0.151751
-0.0034903104 0.0035686253 -0.15146013
0.0035168405 0.003436255 -0.15134771
-0.0023751468 0.0043828571 -0.15134542
-0.0014783664 0.0047565666 -0.15147372
-0.00031305591 0.0049652248 -0.15155408
0.00057400408 0.0049171597 -0.15152432
0.00141918 0.0047444245 -0.15143625
0.002456022 0.0042676949 -0.15134336
-0.0023298617 -0.0044222972 -0.15058218
-0.001543131 -0.004732931 -0.15052456
-0.00049214158 -0.00494248 -0.15045133
0.00059912464 -0.0049138526 -0.15053025
0.0015617443 -0.0046958881 -0.15041851
0.0023232196 -0.0043536318 -0.15054286
-0.0033269846 -0.0037326992 -0.15017518
0.003407615 -0.0035390225 -0.15055099
-0.0043385942 -0.0025083483 -0.15046878
0.0043068142 -0.0023684718 -0.15051638
-0.0047776285 -0.0015309229 -0.15046623
0.004634547 -0.0016238161 -0.15059832
-0.0049733454 -0.00047716725 -0.15067522
0.0049043703 -0.00027508053 -0.15034781
-0.0049737627 0.00052025297 -0.15041658
0.0048547457 0.00068381516 -0.15058577
-0.0048476174 0.0013606951 -0.15082276
0.0046990062 0.001435106 -0.1504899
-0.0043417513 0.002494632 -0.15058959
0.0038961575 0.0029935809 -0.15021563
0.0042304094 0.0025264926 -0.15046875
-0.0035602979 0.0035186149 -0.15045986
0.0029506991 0.0039419122 -0.15045077
0.0033942461 0.0035662397 -0.15032268
-0.0026258135 0.0042452253 -0.1505277
-0.0014460051 0.0047703269 -0.1503493
-0.00048448375 0.0049434882 -0.1507329
0.0007250192 0.0048972778 -0.15056041
0.001401912 0.0047571738 -0.15045452
0.0024936022 0.0042738351 -0.15059777
-0.0026843261 -0.0042155571 -0.14962856
-0.0015043209 -0.0047560888 -0.14960688
-0.00063545193 -0.0049236128 -0.14951
0.00063551415 -0.0049090618 -0.14953992
0.0015678557 -0.004691171 -0.14953414
0.0025781945 -0.004207599 -0.14960371
-0.0035262899 -0.0035260462 -0.14954093
0.0029854029 -0.0039152829 -0.14968097
0.0034862268 -0.0034920988 -0.14931665
-0.0043138932 -0.0025538269 -0.14949885
0.0039383308 -0.0029386203 -0.1494928
0.0042691859 -0.0024499893 -0.14943728
-0.0047245468 -0.0016603783 -0.14953241
0.0046587884 -0.0015315053 -0.14947303
-0.004977914 -0.00048678851 -0.14947744
0.0048815706 -0.00046170625 -0.14956987
-0.0049842806 0.00046947692 -0.14949778
0.0048621474 0.0006154431 -0.14942783
-0.0048758392 0.0012285961 -0.14942059
0.0047101462 0.001395372 -0.14960948
-0.0043935003 0.0024126086 -0.14932649
0.0039209188 0.0029613115 -0.14926514
0.0043174843 0.002361347 -0.14973311
-0.0035764009 0.0034752563 -0.14960404
0.0029481654 0.0039438568 -0.14979178
0.0033447733 0.0036160634 -0.14941424
-0.0025986289 0.0042661703 -0.14960802
-0.0016345198 0.0046985974 -0.14967041
-0.00014999973 0.0049875234 -0.14976527
0.00047980514 0.0049295612 -0.14934358
0.0014445595 0.0047323685 -0.14946334
0.0025893247 0.0042108083 -0.14976887
-0.0025809563 -0.004275857 -0.14862397
-0.0013806826 -0.004801603 -0.1483693
-0.00037499217 -0.0049573625 -0.14858092
0.00053546194 -0.0049222335 -0.14838476
0.001680607 -0.0046466542 -0.14837679
0.0024845575 -0.0042740307 -0.14849912
-0.0034976327 -0.0035701552 -0.14844978
0.0034554969 -0.0035031696 -0.1485091
-0.0043587536 -0.0024902457 -0.14847045
0.0039502634 -0.0029230691 -0.14872096
0.004290937 -0.0023997088 -0.14856525
-0.0046703573 -0.0017950794 -0.14851499
0.0047190962 -0.0013786949 -0.14846376
-0.0049717431 -0.00056021509 -0.14842811
0.0049124258 -0.00021805221 -0.1483548
-0.004976749 0.00045301439 -0.14859837
0.0048909276 0.00038622046 -0.14860848
-0.0047810446 0.0015037319 -0.14856815
0.0046826634 0.0015129702 -0.1485171
-0.0043572052 0.0024728514 -0.14843942
0.0039380309 0.002939011 -0.14887479
0.0043718289 0.0022525128 -0.1485309
-0.0035932362 0.0034705317 -0.1485028
0.0036950412 0.0032496369 -0.14858514
-0.0024612173 0.004346814 -0.14852555
-0.0014237267 0.0047634481 -0.14852436
-0.00033186769 0.0049616182 -0.14858037
0.00047600953 0.0049300604 -0.14851815
0.0017925953 0.0046002669 -0.14862224
0.0024174261 0.0043114782 -0.14848457
-0.0025007133 -0.0043172478 -0.14747748
-0.0013998355 -0.0047722622 -0.1475326
-0.00064887211 -0.0049218456 -0.14762387
0.00050143892 -0.0049267132 -0.14742504
0.0016377224 -0.0046569789 -0.14755733
0.0025030214 -0.0042546787 -0.14757337
-0.0034247227 -0.0036383099 -0.14732201
0.0029195023 -0.0039658505 -0.14758962
0.0034526198 -0.003506009 -0.14769384
-0.0043678153 -0.0024600618 -0.14743136
0.0039626211 -0.0029069646 -0.14728321
0.0042546382 -0.0025030386 -0.14754701
-0.0047763465 -0.0015085845 -0.14739282
0.0047014751 -0.0014608653 -0.14750539
-0.0049781026 -0.00047995197 -0.14736506
0.0048697009 -0.00054278004 -0.14752756
-0.0049952585 0.00031606789 -0.14762318
0.0048738024 0.00053906301 -0.1472297
-0.0048003024 0.0014508319 -0.14759533
0.0046964241 0.0014530406 -0.14746033
-0.0043224506 0.0025404308 -0.14741735
0.0039892881 0.0028722119 -0.14713818
0.0043098847 0.00237463 -0.1474798
-0.0035119418 0.0035631922 -0.14765939
0.0035395764 0.0034311037 -0.14746967
-0.0026606098 0.0042243623 -0.14754739
-0.0014659869 0.0047663413 -0.14759144
-0.00048136883 0.0049438984 -0.14747143
0.00053109659 0.0049228091 -0.14745724
0.0014488416 0.0047413241 -0.14740235
0.0024481472 0.0042888373 -0.14741778
-0.002530229 -0.0042896182 -0.14640425
-0.0012094532 -0.0048433389 -0.1467998
-0.00053508265 -0.0049368269 -0.14632583
0.00037261139 -0.0049436735 -0.14663552
0.0015097939 -0.0047174064 -0.14642487
0.0023885991 -0.0043365615 -0.14666359
-0.0035101187 -0.0035598772 -0.14640583
0.002918422 -0.0039666798 -0.14667822
0.0035039131 -0.0034397405 -0.1464909
-0.0042893784 -0.0025724897 -0.14648633
0.0039584236 -0.002912435 -0.14673316
0.0043565086 -0.0022860989 -0.1464415
-0.0048055928 -0.0014718326 -0.1464318
0.0047321348 -0.00137295 -0.14652982
-0.004978626 -0.00048486097 -0.14645949
0.00491129 -0.00022789711 -0.14637156
-0.0049787345 0.00053679908 -0.14642803
0.0048742862 0.00051057822 -0.14647362
-0.0047626095 0.0015505098 -0.14652297
0.0046571153 0.0015713603 -0.14667158
-0.0044027567 0.0024135779 -0.14636251
0.0043069669 0.0023631093 -0.14675783
-0.0036822993 0.0033796404 -0.14635323
0.0029610381 0.0039339783 -0.14673007
0.0033111179 0.0036304463 -0.14631103
-0.0024070737 0.0043811812 -0.14663973
-0.0013327653 0.0048173913 -0.14643818
-0.00031927146 0.0049652387 -0.1465885
0.00029676559 0.0049536587 -0.14656568
0.0014442971 0.0047353688 -0.14640296
0.0023834019 0.0043252259 -0.14638448
-0.0024595852 -0.0043466762 -0.14549093
-0.0012746418 -0.0048201056 -0.14542545
-0.0006502964 -0.0049216589 -0.14566417
0.00069069851 -0.0049017966 -0.14540669
0.0013952826 -0.004750167 -0.14542598
0.0025160301 -0.0042548114 -0.14522758
-0.0040006703 -0.0030013372 -0.14552723
-0.0035237768 -0.0035236569 -0.14547054
0.0029050538 -0.0039769374 -0.1450434
0.0032963175 -0.0036620502 -0.14551756
-0.0042415042 -0.0026611418 -0.14546603
0.0042095571 -0.0025501368 -0.14560591
-0.0047423225 -0.0016124506 -0.14549313
0.0046723471 -0.0014848179 -0.14529784
-0.004990736 -0.00035158714 -0.14549215
0.00485944 -0.00064813439 -0.14532945
-0.0049670362 0.00061207759 -0.14552568
0.0048648603 0.00058257079 -0.14552692
-0.0047880355 0.0015267872 -0.14551634
0.0046957396 0.0014231264 -0.14564846
-0.0043134601 0.0025653502 -0.14554389
0.0039319885 0.002946886 -0.14534789
0.0042272331 0.0025151444 -0.14566056
-0.0033588342 0.0037028487 -0.145383
0.003459801 0.0034924936 -0.145458
-0.0025231943 0.004311604 -0.14563483
-0.0015389852 0.0047275028 -0.14571486
-0.00069336907 0.0049159881 -0.14556932
0.0005250746 0.0049236012 -0.14535026
0.0015344092 0.0046993094 -0.14553678
0.0024077648 0.0042927475 -0.14547442
-0.0025489766 -0.004268303 -0.14435083
-0.0014046498 -0.0047936123 -0.14456728
-0.00044550915 -0.0049478873 -0.14452651
0.000245528 -0.0049604047 -0.1445474
0.0015155626 -0.004715017 -0.14437118
0.0023263271 -0.0043673362 -0.1446135
-0.0035913286 -0.00347108 -0.14438498
0.0028765453 -0.0039988132 -0.14425036
0.0035133155 -0.0034343768 -0.14436179
-0.0044414718 -0.0023207902 -0.14458708
0.0042797895 -0.002445813 -0.14459942
-0.004741936 -0.0015936199 -0.14465997
0.0046914052 -0.0014773548 -0.1444011
-0.0049698562 -0.00055544381 -0.14453872
0.0048797671 -0.00049372652 -0.14451723
-0.004975399 0.00054998562 -0.14446503
0.0048605367 0.00063616777 -0.14449596
-0.0048588854 0.0013199107 -0.14451952
0.0046348879 0.0016114818 -0.14451553
-0.004389747 0.0024152519 -0.14463589
0.0039468021 0.0029275804 -0.14494045
0.0042918492 0.0024289084 -0.1445072
-0.0035670861 0.003486929 -0.14448705
0.0033476874 0.0036021823 -0.14437912
-0.0026044685 0.0042660278 -0.1445953
-0.001410551 0.0047859401 -0.14457148
-0.00042282385 0.0049489508 -0.14432912
0.00053995894 0.0049216417 -0.14449397
0.0014329629 0.0047408342 -0.14443699
0.0024829747 0.0042704809 -0.1445877
-0.0024723054 -0.004354577 -0.14339225
-0.0014455125 -0.0047756555 -0.14339662
-0.00041592805 -0.0049525136 -0.14323559
0.00059221749 -0.004914762 -0.14366126
0.0015522407 -0.0046998244 -0.14355449
0.002477912 -0.0042704479 -0.14366011
-0.0036141153 -0.0034749131 -0.14344451
0.0035150084 -0.003443911 -0.1434512
-0.0043014199 -0.0025678878 -0.14354102
0.0043099718 -0.0023839625 -0.14345491
-0.0047866283 -0.0014735995 -0.14356682
0.0046516047 -0.0015641042 -0.14360707
-0.0049747089 -0.00049201288 -0.14353564
0.0048768846 -0.00049310247 -0.14362156
-0.0049671517 0.00062400091 -0.14346735
0.0049056676 0.00025506216 -0.14355054
-0.0047857612 0.0015135854 -0.14335331
0.0047083637 0.0014372241 -0.1436525
-0.0043640113 0.0024687792 -0.14357603
0.003938186 0.0029388096 -0.1435069
0.0042108791 0.0025317261 -0.14342761
-0.0036244052 0.0034472218 -0.14339538
0.0032974239 0.0036511603 -0.14347903
-0.0025964954 0.0042679547 -0.14358667
-0.0012564063 0.00481806 -0.1437549
-0.00048076137 0.0049439785 -0.14343022
0.00059340103 0.004914606 -0.1435166
0.001260886 0.0047920449 -0.14365838
0.0023550561 0.0043400382 -0.14352049
-0.0025660081 -0.0042731399 -0.14241627
-0.0014603431 -0.0047514886 -0.14257842
-0.00046889871 -0.0049455403 -0.14236562
0.00042630767 -0.0049366048 -0.14254223
0.00154181 -0.004694202 -0.14257202
0.002462395 -0.004274427 -0.14263397
-0.0037237792 -0.0033210514 -0.14250849
0.002971902 -0.003925642 -0.14214125
0.0036291438 -0.0033210977 -0.14244758
-0.0043017487 -0.0025563049 -0.14242117
0.0039277831 -0.0029523661 -0.14278847
0.0043759551 -0.0022560316 -0.14254592
-0.0048084832 -0.0014443478 -0.14252524
0.0046660043 -0.0015240253 -0.14259475
-0.0049745925 -0.00053892442 -0.1425797
0.0048506209 -0.00071512052 -0.14262012
-0.0049813599 0.00040290129 -0.14255369
0.0049216934 0.00012819043 -0.14248274
-0.0047885384 0.0015021801 -0.1422587
0.0046525272 0.0015639612 -0.14247137
-0.0042931223 0.0025934721 -0.14262415
0.0039651599 0.0029036561 -0.14243001
0.0043170019 0.0023700465 -0.14258943
-0.0035475714 0.0035250527 -0.14247215
0.0029783649 0.0039206832 -0.14200027
0.0034388423 0.0035127879 -0.14269558
-0.0025598938 0.0042872368 -0.14243561
-0.0016405074 0.004698528 -0.14254364
-0.00044983788 0.0049480493 -0.14258786
0.00047513878 0.0049301754 -0.14260221
0.0014033922 0.0047398042 -0.14252907
0.0023090621 0.0043682302 -0.14234555
-0.0024268953 -0.0043663168 -0.14152214
-0.0014687267 -0.0047538308 -0.14165175
-0.00066360191 -0.0049199066 -0.14139968
0.00053811626 -0.0049218847 -0.14127548
0.0013707265 -0.0047637187 -0.14152828
0.0024929368 -0.0042787543 -0.14160591
-0.0033598929 -0.0036646253 -0.14134732
0.0029251487 -0.0039615179 -0.14167771
0.0033275697 -0.003621957 -0.14157489
-0.0043829978 -0.0024226618 -0.14143862
0.0039050053 -0.0029820506 -0.14135788
0.0043017757 -0.0023903432 -0.14136036
-0.004870011 -0.0012313117 -0.14161783
0.0046063247 -0.0016998708 -0.14160657
-0.0049805683 -0.00042011309 -0.14152434
0.0048804786 -0.00048832025 -0.1413503
-0.0049513346 0.00078917918 -0.14172368
0.0048654159 0.00059164321 -0.14159989
-0.0047199656 0.0016921905 -0.14172789
0.0047095539 0.0014167866 -0.14152882
-0.0043094545 0.0025286458 -0.14157329
0.0039117979 0.002973198 -0.14101739
0.0043616993 0.0022786732 -0.1411937
-0.0034013034 0.0036589631 -0.14156531
0.0029083383 0.0039744172 -0.14137931
0.003571342 0.0033853184 -0.14130758
-0.0025014903 0.0043113944 -0.14146511
-0.0015699087 0.0047210599 -0.14146891
-0.00038978056 0.0049559562 -0.14143467
0.00052905444 0.0049230768 -0.14143109
0.0013771445 0.0047644172 -0.1415322
0.0023253164 0.0043796091 -0.14143306
-0.0025001622 -0.0043085958 -0.14061466
-0.0016815299 -0.0046883211 -0.1406225
-0.0004387245 -0.0049487161 -0.14041469
0.00047763958 -0.0049298462 -0.14035307
0.0014534652 -0.0047358167 -0.140569
0.0022910736 -0.0043770787 -0.1405042
-0.003541413 -0.0035097071 -0.14047718
0.0029230108 -0.0039631585 -0.14057642
0.0034799252 -0.0035039159 -0.14051817
-0.0041456837 -0.0028123527 -0.14028823
0.0039565573 -0.0029148681 -0.14038301
0.004291411 -0.0024156754 -0.14063756
-0.0048343954 -0.0013702573 -0.14046727
0.0047443043 -0.0013196561 -0.14027143
-0.0049838377 -0.00043495704 -0.1404874
0.0049034739 -0.00028034914 -0.1406346
-0.0049549118 0.00069379294 -0.14040379
0.004863949 0.00060109672 -0.14067893
-0.0048141014 0.001442901 -0.14046505
0.0047198036 0.0013861113 -0.14039156
-0.004254953 0.0026482206 -0.14042044
0.0039422736 0.0029334819 -0.14050314
0.0042744493 0.0024247193 -0.140535
-0.0035370351 0.0035205844 -0.14054602
0.0029296093 0.0039580949 -0.14031652
0.0034396611 0.0035242415 -0.14042686
-0.0024507563 0.0043632491 -0.14035103
-0.0014425004 0.004766087 -0.14058353
-0.00060838083 0.004927177 -0.14057817
0.00037571727 0.0049432646 -0.14060451
0.0014168398 0.0047373525 -0.14047562
0.0025158683 0.0042523337 -0.14027186
-0.002488428 -0.0043402547 -0.13952833
-0.0014938529 -0.0047565792 -0.13951153
-0.00045323226 -0.0049458006 -0.13950251
0.00054054346 -0.0049215653 -0.1394137
0.0015971063 -0.0046712654 -0.13969147
0.0024542124 -0.0043074703 -0.13955404
-0.0036197393 -0.0034381894 -0.13955319
0.0035099548 -0.0034462891 -0.13954096
-0.0043308511 -0.0025115423 -0.13955842
0.0039284467 -0.0029515014 -0.13915128
0.0042726626 -0.0024157688 -0.13952041
-0.0048035034 -0.0014551996 -0.13953759
0.0046294481 -0.0016353065 -0.13945431
-0.0049727508 -0.00062650524 -0.13930404
0.0048657823 -0.00059845607 -0.13949519
-0.0049786256 0.00051432569 -0.13948281
0.0048733726 0.00053995312 -0.13945711
-0.0047467886 0.0016080515 -0.13932088
0.0046673641 0.0015290998 -0.13959607
-0.0043080663 0.0025620449 -0.13960296
0.0039560101 0.0029155805 -0.13957395
0.0042074281 0.0025497333 -0.13951425
-0.0036944994 0.0033624179 -0.13964759
0.0029126345 0.0039711203 -0.13944648
0.0036416037 0.0033132948 -0.13960826
-0.0025067378 0.004313671 -0.13951185
-0.0014392862 0.0047685509 -0.13962746
-0.00051484111 0.0049394914 -0.13941261
0.00046149612 0.0049319714 -0.13946424
0.0014806031 0.0047190781 -0.13928914
0.0024334621 0.0043091048 -0.13927357
-0.0025123679 -0.0043119173 -0.13868695
-0.00144882 -0.0047676256 -0.13839763
-0.00058444927 -0.0049303276 -0.13848749
0.00031228591 -0.0049516154 -0.13849884
0.0016310354 -0.0046581645 -0.13846593
0.0024856848 -0.0042521758 -0.13837603
-0.0034433932 -0.0036005783 -0.13832399
0.0028765774 -0.0039987885 -0.13871959
0.0035565968 -0.0033984773 -0.13849893
-0.0043043783 -0.0025791451 -0.13852625
0.0039541787 -0.0029179673 -0.13888323
0.0042610401 -0.0024580297 -0.13859391
-0.0047269748 -0.0016752686 -0.13853265
0.0046892334 -0.0014733209 -0.13836311
-0.004990478 -0.0004240986 -0.13839251
0.0048788423 -0.0005007537 -0.13864183
-0.0049999999 0.00020539975 -0.13816959
0.0048690862 0.00056797732 -0.13856773
-0.0047429581 0.0016362582 -0.13838409
0.0046513169 0.0015668948 -0.13826239
-0.0042930925 0.0025761668 -0.13841283
0.0042729788 0.0024375513 -0.13858095
-0.0036027499 0.0034532896 -0.13851659
0.0029852302 0.0039154151 -0.13869828
0.003498777 0.0034517532 -0.13855168
-0.0026989994 0.0041993074 -0.13858305
-0.0014712269 0.0047694198 -0.13855705
-0.00040883967 0.0049528815 -0.13847503
0.00038155701 0.0049424958 -0.13848102
0.0014786305 0.0047222306 -0.13850322
0.0023775767 0.0043268162 -0.1386763
-0.0024395937 -0.0043701264 -0.13748108
-0.0017828008 -0.0046500806 -0.137301
-0.00034999169 -0.004961194 -0.13752471
0.0005096806 -0.0049256282 -0.13749318
0.0015979077 -0.0046730218 -0.13750312
0.0024084102 -0.0043103783 -0.13753808
-0.0035699704 -0.0034988807 -0.13748729
0.0029468234 -0.0039448859 -0.13743424
0.003445148 -0.0035066677 -0.13753606
-0.004273233 -0.0026367393 -0.13750812
0.0039515458 -0.0029213985 -0.13762806
0.0042683384 -0.0024547025 -0.13779283
-0.0047768624 -0.0015515506 -0.13748316
0.0046746125 -0.0015350087 -0.13736799
-0.0049612373 -0.00068386365 -0.13756865
0.004889301 -0.00040140332 -0.13744485
-0.0049886666 0.00036964036 -0.13746797
0.0048864223 0.00042635755 -0.13749561
-0.0048207585 0.0013933319 -0.13725211
0.0047258753 0.0013740612 -0.13742252
-0.0043449951 0.0025018454 -0.1374594
0.0042449017 0.0024904527 -0.13745955
-0.0036463924 0.0033883578 -0.13742994
-0.002985497 0.0039999736 -0.13721314
0.0035609296 0.0034203944 -0.13732609
-0.0026160066 0.0042679715 -0.13737698
-0.001656055 0.0046913265 -0.1375262
-0.00045889133 0.0049468577 -0.13736363
0.0006399941 0.0049084718 -0.13733543
0.0016127916 0.0046747434 -0.13742337
0.00238977 0.0043257861 -0.1375346
-0.0025785842 -0.0042858166 -0.13651472
-0.0015371547 -0.0047338563 -0.13662848
-0.00052422384 -0.0049382565 -0.13645288
0.00037753987 -0.0049430244 -0.13650779
0.0015186684 -0.0047051017 -0.13652132
0.0024673862 -0.0042881472 -0.13650949
-0.0035329729 -0.0035328425 -0.13652495
0.00334932 -0.0035893633 -0.13663094
-0.0043608034 -0.0024862322 -0.13638739
0.0039883014 -0.0028734975 -0.13680482
0.0042237504 -0.0025455109 -0.13647132
-0.0048062345 -0.0014392597 -0.13661367
0.00464762 -0.0015852683 -0.13640432
-0.0049761804 -0.00055301678 -0.13653378
0.0048798136 -0.00047099206 -0.13664244
-0.0049669538 0.00053760875 -0.13652968
0.0048959171 0.00034590723 -0.13650393
-0.0047565047 0.0016039775 -0.13635513
0.0046808664 0.0014958426 -0.13658148
-0.0042061559 0.0027308674 -0.13668205
0.0042335251 0.0025204851 -0.13638723
-0.0033475135 0.0037050145 -0.13634109
0.0029148266 0.0039694379 -0.13682473
0.0036192909 0.0033520218 -0.13632928
-0.0025439893 0.0042962423 -0.13656452
-0.0014467757 0.0047741216 -0.13654836
-0.00053758651 0.0049359421 -0.13626523
0.00048077325 0.004929434 -0.13660219
0.0016626194 0.0046541044 -0.13631201
0.0024509646 0.0042813388 -0.13658549
-0.0024755672 -0.0043285848 -0.1356045
-0.0015444042 -0.0047292481 -0.13548708
-0.00044876712 -0.0049481904 -0.13526958
0.00034903182 -0.0049467771 -0.13564326
0.0016603384 -0.0046550492 -0.13547449
0.0025411528 -0.0042319251 -0.13544038
-0.0034202139 -0.0036332509 -0.13536748
0.0029593203 -0.0039352966 -0.13556801
0.0034717966 -0.0034776577 -0.13540486
-0.0043223724 -0.0025164844 -0.13535474
0.0039829593 -0.0028804601 -0.13562821
0.0043509137 -0.0023164863 -0.13524796
-0.0048043965 -0.0014635854 -0.13554153
0.0047037844 -0.0013926759 -0.13535272
-0.0049683298 -0.00060964341 -0.13564961
0.0048541841 -0.00068805664 -0.13553622
-0.0049788076 0.00054590759 -0.13550067
0.0048865811 0.00041023301 -0.13549124
-0.0047827312 0.0014931547 -0.13548386
0.0046984362 0.0014528127 -0.13549311
-0.0044473209 0.0023220761 -0.13543417
0.0039577484 0.0029133148 -0.13574533
0.004265408 0.0024581959 -0.1355577
-0.0035567142 0.0035053273 -0.13544796
-0.0029952691 0.0039924751 -0.13501398
0.0029533736 0.00393986 -0.13514587
0.0035730829 0.0033899425 -0.13551691
-0.002604506 0.0042483457 -0.13550223
-0.0014474071 0.0047663371 -0.13559741
-0.00050843967 0.0049392665 -0.13554956
0.00054490403 0.0049209907 -0.13554059
0.0017019047 0.0046378323 -0.13542287
0.0025484953 0.0042425869 -0.13531362
-0.002498321 -0.0043286467 -0.13445505
-0.001478969 -0.0047484199 -0.13427614
-0.00048152515 -0.0049438779 -0.13450719
0.00047655788 -0.0049299886 -0.13439719
0.0015039812 -0.0047127623 -0.13443367
0.0025098729 -0.0042656148 -0.13430707
-0.0035898797 -0.0034641027 -0.13447648
0.0035106675 -0.0034483569 -0.13445084
-0.0043646283 -0.0024620064 -0.13428023
0.0039908076 -0.0028702323 -0.1343236
0.0042033601 -0.0025663541 -0.1346377
-0.0047922097 -0.0014829292 -0.13456301
0.0047137951 -0.00138415 -0.13459054
-0.0049764095 -0.00051428168 -0.1344417
0.0048583187 -0.000652202 -0.13472752
-0.0049805725 0.00043305621 -0.13451298
0.0049018576 0.00032005802 -0.13457288
-0.0047144946 0.0016928958 -0.13431318
0.0046451343 0.001570437 -0.13449779
-0.0043691704 0.0024457679 -0.13434914
0.0039408961 0.0029352775 -0.13409568
0.004234605 0.0024821733 -0.13450865
-0.0035609242 0.0034917046 -0.13460766
0.0035444619 0.0033998049 -0.13437766
-0.0022907252 0.0044269883 -0.13441302
-0.0014643822 0.0047602104 -0.13457933
-0.00045520545 0.0049473434 -0.1348033
0.00085526449 0.0048801312 -0.13411129
0.0015328005 0.0047078766 -0.1343697
0.00238978 0.0043207505 -0.13444552
-0.0026335772 -0.0042336453 -0.1333597
-0.0014000993 -0.0047839843 -0.13351062
-0.0006647624 -0.0049197543 -0.13355899
0.00055553461 -0.0049195914 -0.13351974
0.0014872204 -0.0047152871 -0.13371398
0.0022537196 -0.0044092648 -0.13319033
-0.0033816125 -0.0036559128 -0.13346748
-0.0029929064 -0.0039942879 -0.13363436
0.0029560532 -0.0039378037 -0.13305464
0.0036430117 -0.0032869328 -0.13356093
-0.0043485733 -0.0025072875 -0.1335106
0.0039978605 -0.0028610399 -0.13394293
0.0042355824 -0.002530792 -0.13335863
-0.0047792704 -0.0015266698 -0.13339664
0.0046584387 -0.0015592965 -0.13347314
-0.0049939253 -0.00042790818 -0.1335738
0.0048748124 -0.00053136516 -0.1336112
-0.0049634771 0.00069694489 -0.13327205
0.0048661092 0.00059750461 -0.13377158
-0.0048089651 0.0014379579 -0.13366243
0.0046857162 0.0014234537 -0.13361005
-0.0043485663 0.0024995958 -0.1333956
0.003926151 0.0029544937 -0.13340454
0.0042964485 0.0023736376 -0.13357072
-0.0035180163 0.0035294385 -0.13345063
0.0034280955 0.0035468244 -0.13344389
-0.0025718191 0.0042870352 -0.13343588
-0.0015315177 0.0047388948 -0.13358958
-0.00051858654 0.0049389983 -0.1334939
0.00058796618 0.0049153212 -0.13368516
0.0016267723 0.0046689524 -0.13340759
0.0024508524 0.0042967293 -0.13343196
-0.0025814725 -0.0042742779 -0.13249075
-0.0015300892 -0.0047480152 -0.13240823
-0.00071097742 -0.00491367 -0.13258627
0.00062524131 -0.0049104141 -0.13253123
0.0016112158 -0.0046698353 -0.13247877
0.0024930032 -0.004276284 -0.13252559
-0.0036425097 -0.0034128749 -0.13262045
0.0029505878 -0.0039419974 -0.13244262
0.0035090514 -0.0034244342 -0.13243015
-0.0043506757 -0.0024880907 -0.13236831
0.0039066989 -0.0029798429 -0.13292895
0.0042496435 -0.0024655967 -0.132713
-0.0047686305 -0.0015443867 -0.13227701
0.0046606264 -0.0015244774 -0.13254528
-0.0049809986 -0.00043308979 -0.13259387
0.0048611611 -0.00063505943 -0.1324276
-0.0049652895 0.00068317936 -0.13254027
0.0048851701 0.00044614644 -0.13259771
-0.0048124245 0.0014293544 -0.132348
0.0046700421 0.0015217656 -0.13243708
-0.0044163237 0.0024117506 -0.13251877
0.003971668 0.0028951745 -0.13276431
0.0043559 0.0022719936 -0.13252671
-0.0034840754 0.0035623731 -0.13243875
0.0029471084 0.0039446675 -0.13215651
0.0034401382 0.0035105222 -0.13245234
-0.0025272493 0.0043025156 -0.13258789
-0.0015074187 0.0047389995 -0.1325262
-0.00049613271 0.0049410509 -0.13243419
0.00027840585 0.0049560759 -0.13255608
0.0015569186 0.0046935412 -0.13265799
0.002493233 0.0042627566 -0.13245201
-0.0026372322 -0.0042495038 -0.13142882
-0.0014687058 -0.0047697201 -0.13161944
-0.00038558763 -0.0049565081 -0.13142571
0.00044045501 -0.0049347421 -0.13165703
0.0013060828 -0.0047847494 -0.13149931
0.0025347585 -0.0042456668 -0.13133571
-0.0034325831 -0.0036262001 -0.13153768
0.0035508834 -0.0034007586 -0.13155679
-0.0044007357 -0.0023861448 -0.13148689
0.0039606383 -0.0029095486 -0.13194945
0.004325367 -0.0023575856 -0.13157234
-0.0047863252 -0.0015090463 -0.13149495
0.0047435667 -0.0012989135 -0.13175127
-0.0049748188 -0.00052984641 -0.13152248
0.0048634582 -0.00060297159 -0.13144961
-0.0049797758 0.00049564848 -0.13148332
0.004859142 0.00065042608 -0.13150683
-0.0047699641 0.0015239755 -0.13141328
0.004678891 0.0014962078 -0.13150713
-0.0042632637 0.0026344939 -0.13160127
0.0039269244 0.0029534847 -0.13135904
0.004243962 0.0024851703 -0.13151847
-0.0035666635 0.0034741594 -0.13148361
-0.0029919462 0.0039950246 -0.13129303
0.0029574079 0.0039367643 -0.13199532
0.0034723848 0.0034905316 -0.13157068
-0.0025107889 0.0043092496 -0.1317571
-0.001697065 0.0046855938 -0.13145718
-0.00060720107 0.0049270908 -0.13154459
0.00063197716 0.004909527 -0.1314925
0.0016777217 0.0046478487 -0.13144575
0.0024929303 0.0042513469 -0.1315071
-0.0027194142 -0.0041864957 -0.13031276
-0.001593005 -0.0047068466 -0.13049625
-0.00042297947 -0.0049515851 -0.13052456
0.00057037809 -0.0049176374 -0.13058016
0.0013692694 -0.0047559896 -0.13059287
0.0023909851 -0.0043169833 -0.13062941
-0.0035691666 -0.0034741717 -0.13052781
0.002940817 -0.003949495 -0.1304341
0.0035476519 -0.003417331 -0.13052242
-0.004407804 -0.0023911553 -0.13060704
0.0039056635 -0.0029811924 -0.13080694
0.0042489329 -0.0024745951 -0.1305155
-0.0048289448 -0.0013532308 -0.13070022
0.0047870781 -0.0011901516 -0.13082927
-0.0049780449 -0.00058629311 -0.13034287
0.0049132947 -0.00021718175 -0.13013674
-0.0049896999 0.00028055979 -0.13066545
0.0048739337 0.00053550489 -0.13046356
-0.0048346058 0.0013668573 -0.13066882
0.0046448275 0.0015627482 -0.13055153
-0.0043876679 0.0024388849 -0.13043216
0.0043389713 0.0023170649 -0.13049646
-0.003358467 0.0036858497 -0.1305878
0.0029216441 0.0039642071 -0.1303352
0.0033487622 0.0036032761 -0.13040905
-0.0026717675 0.004218047 -0.13069481
-0.0015515812 0.0047302428 -0.1304376
-0.00041945357 0.0049520498 -0.13059019
0.0007686335 0.0048915367 -0.13045815
0.0014769959 0.0047269422 -0.13060206
0.0023076765 0.0043740547 -0.13044527
-0.0046419757 -0.0047044922 -0.12961276
-0.0035364977 -0.0048478912 -0.12964155
-0.0024507355 -0.0048725973 -0.12959397
-0.0014607658 -0.0049507087 -0.12962419
-0.00038431288 -0.0049999999 -0.12945434
0.00042074799 -0.0049999994 -0.12940891
0.00172305 -0.0049643093 -0.12965554
0.0025922142 -0.0048780786 -0.12970099
0.003443385 -0.004784835 -0.12966481
0.0046834215 -0.0047366801 -0.12966986
-0.004823003 -0.0035117422 -0.12978831
-0.0036839154 -0.0037055097 -0.13
0.0035354788 -0.0036820357 -0.13
0.0047534509 -0.0033960729 -0.12978184
-0.0047989665 -0.0026334675 -0.12981467
0.003927676 -0.0029886162 -0.13
0.0048243031 -0.0025647164 -0.12965277
-0.0049619391 -0.001492277 -0.12966709
0.0049063703 -0.0016052771 -0.12961571
-0.0049999999 -0.00035597477 -0.12946129
0.004915149 -0.00059154606 -0.12961125
-0.0049999999 0.00052960753 -0.12945893
0.0049217474 0.00062645739 -0.12943295
-0.0049851895 0.0016758866 -0.12963825
0.0048352168 0.0014345832 -0.12971699
-0.0048394632 0.0025251794 -0.12980852
0.0048016058 0.0025055681 -0.12968275
-0.0046525453 0.0035687278 -0.12976907
0.003761617 0.00335424 -0.13
0.0047264798 0.0035247202 -0.12965977
-0.0046797623 0.0047218231 -0.12963125
-0.0034215383 0.004854233 -0.12953784
-0.0025127102 0.0048833224 -0.12954995
-0.0016704666 0.0049732993 -0.12966019
-0.00062026171 0.0049999994 -0.12953342
0.00063486153 0.0049999994 -0.12954456
0.0013368775 0.0049506407 -0.12975898
0.002632319 0.0047873892 -0.12970904
0.0035134985 0.0048201783 -0.12965012
0.0046807015 0.0046552285 -0.12961023
-0.0042195613 0.0050000004 -0.12962025
-0.0046391301 -0.0047678635 -0.12854083
-0.0035443627 -0.0049999999 -0.12852113
-0.0025892619 -0.0049999994 -0.12861744
-0.0015660359 -0.0049999999 -0.12861927
-0.00044240331 -0.0049999999 -0.12856197
0.00066968147 -0.0049999999 -0.12851971
0.0013490354 -0.0049999994 -0.12838732
0.0024586848 -0.0049999999 -0.12859888
0.0035305778 -0.0049999999 -0.12873533
0.0048715286 -0.0044951625 -0.12846284
-0.0049999999 -0.0035559051 -0.12854017
0.0049515208 -0.0034168023 -0.12833843
-0.0049999994 -0.0026031665 -0.12845816
0.0049448325 -0.0025087111 -0.12843165
-0.0049999994 -0.0015962142 -0.12853484
0.0049377312 -0.0015445538 -0.12872376
-0.0049999999 -0.00057126814 -0.1283063
0.0049286895 -0.00031680692 -0.12861088
-0.0049999999 0.00065606751 -0.12861253
0.0049215439 0.00065393583 -0.12838094
-0.0049999999 0.0017566276 -0.12827264
0.0049159029 0.0014200915 -0.12866317
-0.0049999999 0.0025263622 -0.12829173
0.0049078511 0.0025135165 -0.12868863
-0.0049999994 0.0033867559 -0.1284488
0.0048998236 0.003603651 -0.12832211
-0.0047881398 0.0047381287 -0.12859651
-0.0033989889 0.0049999999 -0.12860997
-0.0026090425 0.0049999994 -0.12844163
-0.0014386926 0.0049999994 -0.12853527
-0.00046740746 0.0049999994 -0.12825945
0.00039857166 0.0049999999 -0.12852085
0.0014708553 0.0049999994 -0.12850161
0.0022544058 0.0049999999 -0.12847225
0.0034766286 0.0049999999 -0.12851426
0.0047443639 0.0045901439 -0.12849241
-0.0041169403 0.0050000004 -0.12886761
0.0015473543 0.0050000004 -0.12898426
-0.0048225219 -0.0046574776 -0.127528
-0.0035682712 -0.0049999994 -0.12744088
-0.002640771 -0.0049999994 -0.12734251
-0.0012899879 -0.0049999999 -0.12758723
-0.00045278171 -0.0049999999 -0.12743288
0.00046676624 -0.0049999994 -0.12763058
0.0013997852 -0.0049999994 -0.1275617
0.0024907303 -0.0049999994 -0.12778661
0.0035006038 -0.0049999994 -0.12747982
0.0046737166 -0.0046585067 -0.12742774
-0.0049999999 -0.0034465007 -0.12745304
0.0049530868 -0.0036294442 -0.12766764
-0.0049999999 -0.0023568617 -0.12747538
0.0049451357 -0.0025497896 -0.12746754
-0.0049999999 -0.0015627962 -0.12735286
0.0049378416 -0.0015593878 -0.12750287
-0.0049999999 -0.00046815566 -0.12733802
0.0049303775 -0.00054599391 -0.12737799
-0.0049999994 0.00064253272 -0.12769789
0.0049226517 0.00050315511 -0.12744637
-0.0049999994 0.0013867639 -0.12741752
0.0049157804 0.0014368078 -0.1275204
-0.0049999999 0.0022738455 -0.12774786
0.0049065533 0.0026897169 -0.12760745
-0.0049999999 0.0033999071 -0.12740451
0.0049021654 0.0032855412 -0.12733527
-0.0048596798 0.0047519202 -0.12756228
-0.0036269771 0.0049999994 -0.12739711
-0.0024684835 0.0049999994 -0.1273528
-0.0015418706 0.0049999994 -0.12747903
-0.00052013865 0.0049999999 -0.12738293
0.000333793 0.0049999999 -0.12735443
0.0014504332 0.0049999994 -0.12754324
0.0026574151 0.0049999994 -0.12743171
0.0033812802 0.0049999999 -0.12749343
0.0045486391 0.0049651191 -0.12737878
0.0010110913 0.0050000004 -0.12713939
-0.0047838641 -0.0048169601 -0.12653916
-0.0036222662 -0.0049999999 -0.1266214
-0.0024157069 -0.0049999999 -0.1266748
-0.0016511992 -0.0049999994 -0.12650008
-0.00048142712 -0.0049999994 -0.12638187
0.00053221971 -0.0049999994 -0.12657493
0.0014146146 -0.0049999999 -0.12665743
0.0024969678 -0.0049999999 -0.1265085
0.0034238694 -0.0049999999 -0.126412
0.0047218218 -0.0047881715 -0.1264675
-0.0049999999 -0.0034216437 -0.12627731
0.004952786 -0.0035884902 -0.12642922
-0.0049999999 -0.0024686295 -0.12649147
0.0049444945 -0.002462669 -0.12638944
-0.0049999994 -0.0014291647 -0.1264745
0.0049364725 -0.0013735355 -0.12661803
-0.0049999999 -0.00054839725 -0.12631844
0.0049319672 -0.00076176639 -0.12671678
-0.0049999999 0.00060566951 -0.12644069
0.0049229241 0.00046615981 -0.12647612
-0.0049999999 0.0014688906 -0.12636521
0.0049148267 0.0015662501 -0.1264516
-0.0050000004 0.002444254 -0.1264105
0.0049080993 0.002479804 -0.12641566
-0.0049999999 0.0035371606 -0.12653446
0.004899797 0.0036071651 -0.12636891
-0.004644617 0.0048002652 -0.12650549
-0.0036101562 0.0049999999 -0.12645447
-0.0025370526 0.0049999994 -0.12645626
-0.0015397154 0.0049999994 -0.12659958
-0.0003979553 0.0049999999 -0.12641096
0.00042660334 0.0049999994 -0.12653013
0.0014392443 0.0049999994 -0.12635997
0.0022521627 0.0049999994 -0.12652846
0.0035207272 0.0049999994 -0.12660432
0.0047973311 0.0048239622 -0.1263501
-0.0048384806 -0.0047391038 -0.1255938
-0.0034358546 -0.0049999999 -0.12543398
-0.00219521 -0.0049999999 -0.12543279
-0.0017902266 -0.0049999994 -0.12561877
-0.00058671675 -0.0049999994 -0.12564056
0.00048249163 -0.0049999994 -0.12545145
0.0015734764 -0.0049999994 -0.1253953
0.0024524936 -0.0049999999 -0.12539987
0.0031941014 -0.0049999999 -0.12539911
0.0048211939 -0.0047105895 -0.12544343
-0.0049999999 -0.0036703844 -0.12547567
0.0049525555 -0.0035572185 -0.12554117
-0.0049999994 -0.0025623213 -0.12541795
0.0049441853 -0.0024205877 -0.12547338
-0.0049999999 -0.0014053158 -0.12570268
0.0049382159 -0.0016101556 -0.12548426
-0.0049999994 -0.00058198138 -0.12549861
0.0049292166 -0.00038823028 -0.1255573
-0.0049999999 0.00032456836 -0.12555218
0.0049235509 0.0003810437 -0.12537229
-0.0049999999 0.0018105839 -0.12543362
0.0049158996 0.0014204697 -0.12553699
-0.0049999994 0.0024602183 -0.12542826
0.0049077165 0.0025317478 -0.12547719
-0.0049999994 0.0035775464 -0.12541056
0.0048991204 0.0036990624 -0.12534249
-0.0048763035 0.0045697405 -0.12542512
-0.003292816 0.0049999999 -0.12505403
-0.0025541999 0.0049999999 -0.12536347
-0.001839158 0.0049999999 -0.12553887
-0.00052041159 0.0049999994 -0.125416
0.00069193472 0.0049999994 -0.12535673
0.0014172744 0.0049999999 -0.12554818
0.0024959806 0.0049999994 -0.12560891
0.0036744922 0.0049999994 -0.12549345
0.0046184873 0.0046492699 -0.12555122
-0.0046618921 -0.0048348797 -0.12440115
-0.003604763 -0.0050000004 -0.12437697
-0.0026030077 -0.0049999994 -0.12451642
-0.0015102326 -0.0049999994 -0.12440259
-0.00048840896 -0.0049999999 -0.12449851
0.00043971938 -0.0049999999 -0.12462509
0.0014611708 -0.0049999999 -0.12451366
0.0025062442 -0.0049999999 -0.12444378
0.0036019622 -0.0049999994 -0.12471107
0.0047804066 -0.0045621702 -0.12456626
-0.0049999994 -0.0035739376 -0.12448245
0.0049521783 -0.0035060546 -0.12452465
-0.0049999994 -0.0025853578 -0.12440019
0.0049453285 -0.002575842 -0.12437578
-0.0049999999 -0.0013547533 -0.12456422
0.0049372362 -0.0014770029 -0.12453882
-0.0049999999 -0.00083638489 -0.12456932
0.0049304292 -0.00055284001 -0.12466088
0.0049226233 0.00050717517 -0.12454174
-0.0049999994 0.0014120816 -0.12442868
0.004915996 0.0014071168 -0.12453128
-0.0049999994 0.0024170955 -0.12469126
0.0049074022 0.0025744233 -0.12450328
-0.0049999999 0.0034065184 -0.12465941
0.0049022329 0.0032764066 -0.12426522
-0.0047806669 0.0046919952 -0.12445774
-0.0035365324 0.0049999994 -0.12446325
-0.0024663601 0.0049999999 -0.12434258
-0.0017819619 0.0049999999 -0.1244823
-0.00045812796 0.0049999999 -0.12438538
0.0005568763 0.0049999999 -0.12461646
0.0013250274 0.0049999999 -0.12486708
0.0024825754 0.0049999999 -0.12450137
0.0034961032 0.0049999999 -0.12447029
0.0047479076 0.0046615554 -0.12443674
-0.0048406236 -0.0046719317 -0.12354925
-0.0033723726 -0.0049999994 -0.1233048
-0.0025217014 -0.0049999999 -0.12375461
-0.0014682104 -0.0049999999 -0.12353191
-0.00041882563 -0.0049999994 -0.1235847
0.00058476761 -0.0049999999 -0.12341927
0.0013844876 -0.0049999994 -0.12359779
0.0026075938 -0.0049999999 -0.1234955
0.0034720555 -0.0049999994 -0.12359064
0.0048504798 -0.004664463 -0.12357709
-0.0049999999 -0.0034558252 -0.12341441
0.0049522994 -0.0035224147 -0.12364764
-0.0049999999 -0.0023676797 -0.12335895
0.0049442765 -0.0024329699 -0.12339257
-0.0049999994 -0.0014794817 -0.12346987
0.0049397415 -0.0018171251 -0.12364249
-0.0049999999 -0.0006877674 -0.12354543
0.0049313796 -0.0006817737 -0.12339866
-0.0049999994 0.00045000008 -0.12336438
0.0049221809 0.00056716945 -0.12353359
-0.0049999994 0.0014698338 -0.1234906
0.0049150968 0.0015292777 -0.12332761
-0.0049999999 0.0024423818 -0.12376621
0.0049078986 0.0025070133 -0.12348653
-0.0049999999 0.0034351749 -0.12339983
0.0048996466 0.0036276034 -0.1234867
-0.0048212404 0.0047492213 -0.12335736
-0.0034113445 0.0049999994 -0.12358367
-0.0023815949 0.0049999994 -0.12329326
-0.0014785713 0.0049999999 -0.12369261
-0.00053976511 0.0049999994 -0.12341037
0.00048347042 0.0049999994 -0.12372144
0.0013218954 0.0049999999 -0.12354558
0.0025656833 0.0049999999 -0.12345192
0.0032916253 0.0049999999 -0.12340216
0.0047696009 0.004786036 -0.12335259
-0.0048270407 -0.0047817822 -0.1224175
-0.0035886278 -0.0049999994 -0.12245726
-0.0028501241 -0.0049999999 -0.12231431
-0.0014493997 -0.0049999994 -0.12246994
-0.00049408822 -0.0049999994 -0.12246108
0.00057262986 -0.0049999999 -0.1228781
0.00140358 -0.0049999994 -0.12238812
0.0026009204 -0.0049999994 -0.12257546
0.0035992186 -0.0049999999 -0.1226277
0.0046723182 -0.0046299421 -0.12243061
-0.0049999999 -0.003545068 -0.12234875
0.0049514398 -0.0034057302 -0.12252573
-0.0049999999 -0.002296776 -0.12247573
0.0049448707 -0.0025136576 -0.12238526
-0.0049999999 -0.0014350843 -0.12253475
0.0049365475 -0.001383432 -0.12236908
-0.0049999999 -0.00054378476 -0.12231123
0.0049298769 -0.00047771371 -0.12258717
-0.0049999999 0.00070060435 -0.12235954
0.0049235406 0.00038263231 -0.12263826
-0.0049999994 0.0013870827 -0.12257364
0.0049162447 0.0013733485 -0.12255803
-0.0049999999 0.0024279205 -0.12249359
0.0049085408 0.0024198012 -0.12247487
-0.0049999999 0.0036109069 -0.12262832
0.0049031749 0.0031485357 -0.12244551
-0.0048991996 0.0047784913 -0.12238064
-0.0036500713 0.0049999994 -0.12240793
-0.00248001 0.0049999994 -0.12248807
-0.0014616253 0.0049999999 -0.12250402
-0.00053052354 0.0049999994 -0.12260107
0.00044482978 0.0049999994 -0.12259515
0.0013586971 0.0049999999 -0.12274155
0.0020684532 0.0049999999 -0.12271851
0.0034942199 0.0049999999 -0.12242335
0.0046235104 0.004757267 -0.1224993
-0.004770807 -0.0047803717 -0.12139014
-0.0035979361 -0.0049999999 -0.1216392
-0.0026375437 -0.0049999999 -0.12166937
-0.0016570576 -0.0049999999 -0.12160189
-0.00046410711 -0.0049999994 -0.12149218
0.00049928611 -0.0049999994 -0.1214871
0.0014722217 -0.0049999994 -0.12163519
0.0022675849 -0.0049999999 -0.12158845
0.003566426 -0.0049999999 -0.12135475
0.0047041955 -0.0047060205 -0.12127892
-0.0049999999 -0.0032951152 -0.12167075
0.0049523851 -0.0035341121 -0.12139923
-0.0049999999 -0.0024865349 -0.12147534
0.0049443631 -0.0024448016 -0.12146957
-0.0049999999 -0.0016794342 -0.12158116
0.0049382127 -0.0016094546 -0.12151693
-0.0049999999 -0.00056688685 -0.12162467
0.0049306126 -0.00057748461 -0.12147406
-0.0049999994 0.00057129975 -0.12150209
0.0049220766 0.00058155693 -0.12135686
-0.0049999999 0.0016300769 -0.1217725
0.004913751 0.0017118898 -0.12163036
-0.0049999999 0.0025319844 -0.12154672
0.00490889 0.0023724618 -0.12146378
-0.0049999999 0.0033716923 -0.12169847
0.0049009593 0.0034493376 -0.12163072
-0.0048582093 0.0045874282 -0.12146856
-0.003485339 0.0049999994 -0.12151168
-0.0024070584 0.0049999994 -0.12139992
-0.0015978434 0.0049999999 -0.12144701
-0.00036603474 0.0049999994 -0.12135328
0.00037475719 0.0049999999 -0.12175987
0.0013281379 0.0049999999 -0.12163377
0.0024474752 0.0049999999 -0.12143808
0.0035640032 0.0049999994 -0.12142854
0.0048084976 0.0044846362 -0.12145998
-0.0047235279 -0.0048337085 -0.12049314
-0.0037244409 -0.0049999994 -0.12063818
-0.0026250756 -0.0049999999 -0.12071224
-0.0014370156 -0.0049999999 -0.12028957
-0.0006994438 -0.0049999999 -0.12056582
0.00048390031 -0.0049999999 -0.12032729
0.0014135242 -0.0049999999 -0.1204912
0.0025667981 -0.0049999994 -0.12045296
0.0034614357 -0.0049999999 -0.1205162
0.0048024328 -0.0045431266 -0.12051614
-0.0049999994 -0.0033814248 -0.12045584
0.0049517467 -0.0034473902 -0.1205773
-0.0049999999 -0.002238648 -0.1205013
0.0049466761 -0.0027588697 -0.12054476
-0.0049999994 -0.0013636948 -0.12045269
0.0049384777 -0.0016454717 -0.12040183
-0.0049999999 -0.00048211403 -0.12056762
0.0049302611 -0.00052978529 -0.12064335
-0.0049999999 0.00056696456 -0.12083125
0.0049241418 0.00030115209 -0.12041523
-0.0049999999 0.0016436884 -0.12040477
0.0049162996 0.0013659768 -0.12036483
-0.0049999999 0.0023865735 -0.12033854
0.0049066073 0.0026823794 -0.12049012
-0.0049999999 0.0035348088 -0.12059069
0.004899757 0.003612573 -0.12060662
-0.0047250632 0.0046899309 -0.12056377
-0.0035194734 0.0049999994 -0.12030917
-0.0026625884 0.0049999994 -0.12039166
-0.0015651342 0.0049999999 -0.12057483
-0.0005865916 0.0049999999 -0.1205243
0.0005976879 0.0049999999 -0.12043644
0.001457052 0.0049999994 -0.1204145
0.0026030338 0.0049999994 -0.12049995
0.0034508456 0.0049999999 -0.12042058
0.0046711299 0.0047868937 -0.12056168
-0.0047853473 -0.0047545903 -0.11940362
-0.0036250532 -0.0049999994 -0.11939164
-0.0025808965 -0.0049999999 -0.1192544
-0.0012400025 -0.0049999999 -0.11948282
-0.00040990501 -0.0049999994 -0.11952113
0.00032679865 -0.0049999994 -0.11949515
0.0014562114 -0.0049999999 -0.11948065
0.0023537842 -0.0049999994 -0.11946147
0.0035055568 -0.0049999994 -0.11947231
0.0047613094 -0.0048164451 -0.11936671
-0.0049999994 -0.003350188 -0.11951288
0.0049510598 -0.0033540973 -0.11943869
-0.0049999999 -0.00252883 -0.11950036
0.0049445885 -0.0024753553 -0.11954495
-0.0049999999 -0.0014870757 -0.11940775
0.0049376674 -0.0015354963 -0.11942831
-0.0049999999 -0.00066497404 -0.11969107
0.0049306098 -0.00057708711 -0.11955698
-0.0049999999 0.00047277924 -0.11966035
0.0049232971 0.0004158841 -0.11962892
-0.0049999999 0.0015190467 -0.11960243
0.0049132109 0.0017853765 -0.11945373
-0.0049999994 0.0026092534 -0.11940936
0.0049068714 0.0026464749 -0.1194666
-0.0049999994 0.0036036074 -0.11966585
0.0049015572 0.0033681486 -0.11961278
-0.0046121785 0.0047509558 -0.11950747
-0.0033953576 0.0049999999 -0.11964361
-0.0025599953 0.0049999994 -0.1194415
-0.0015653687 0.0049999999 -0.11933934
-0.00062666665 0.0049999994 -0.11957102
0.00040656369 0.0049999999 -0.11912584
0.0014321229 0.0049999994 -0.1195151
0.0023148481 0.0049999999 -0.11950836
0.0035260199 0.0049999999 -0.11962489
0.0046715261 0.0046929419 -0.11941949
-0.0049159583 -0.0047338605 -0.11851813
-0.003273777 -0.0049999999 -0.1184993
-0.0025922041 -0.0049999994 -0.11845311
-0.001378378 -0.0049999999 -0.11838566
-0.00065618643 -0.0049999994 -0.11842135
0.00065963762 -0.0049999999 -0.11847964
0.0015362335 -0.0049999999 -0.11859144
0.0024862378 -0.0049999999 -0.11854939
0.003490397 -0.0049999994 -0.11853591
0.0046261782 -0.004846639 -0.11853463
-0.0049999994 -0.0035710514 -0.11867095
0.0049508228 -0.0033219233 -0.11854202
-0.0049999994 -0.0024924618 -0.11844702
0.0049443617 -0.0024445732 -0.11860771
-0.0049999994 -0.0015950496 -0.11867904
0.0049358578 -0.0012897732 -0.11862148
-0.0049999999 -0.00054546387 -0.11870418
0.0049306098 -0.00057712081 -0.11853061
-0.0049999999 0.00065352634 -0.11840753
0.0049237483 0.00035469228 -0.11837009
-0.0049999994 0.0014703657 -0.11857437
0.0049141319 0.0016604044 -0.11857122
-0.0049999999 0.0023847546 -0.11823699
0.004906618 0.0026807133 -0.11862997
-0.0049999999 0.0035724312 -0.11833632
0.0049013654 0.0033941865 -0.11845457
-0.004681753 0.0048607145 -0.11848791
-0.0034185988 0.0049999994 -0.11868688
-0.002344186 0.0049999994 -0.11856319
-0.001495884 0.0049999994 -0.1185208
-0.00049657619 0.0049999999 -0.11860292
0.00045943196 0.0049999994 -0.11851553
0.00147476 0.0049999994 -0.11841905
0.0024246401 0.0049999994 -0.11840723
0.0032772375 0.0049999999 -0.11858394
0.0046436479 0.0046880664 -0.11851063
-0.0047446792 -0.004638779 -0.11757324
-0.0033188185 -0.0049999994 -0.11762902
-0.0025218714 -0.0049999999 -0.11758586
-0.0015286544 -0.0049999994 -0.11764395
-0.00053713995 -0.0050000004 -0.11744547
0.00067181932 -0.0049999999 -0.11749173
0.0014733422 -0.0049999994 -0.1174483
0.0025678186 -0.0049999994 -0.11749898
0.0036563312 -0.0049999994 -0.11739007
0.0047529242 -0.0047333278 -0.11733609
-0.0049999994 -0.0035608697 -0.11747987
0.0049519637 -0.0034768307 -0.11764455
-0.0049999994 -0.0025880402 -0.11746493
0.0049450458 -0.0025374379 -0.11747582
-0.0049999994 -0.0015143109 -0.11752489
0.0049358974 -0.0012951087 -0.11771554
-0.0049999999 -0.00054134533 -0.1173521
0.0049302075 -0.00052248576 -0.11758652
-0.0049999994 0.00059706881 -0.117521
0.004921956 0.00059805519 -0.1174997
-0.0049999999 0.0016239424 -0.11757948
0.0049161119 0.0013916751 -0.11733148
-0.0049999999 0.002480112 -0.1174761
0.0049087754 0.0023878021 -0.11745144
-0.0049999994 0.0032732047 -0.11743241
0.0048997644 0.0036115642 -0.11742444
-0.0047922395 0.0046187388 -0.11738577
-0.0035398218 0.0050000004 -0.11748717
-0.0026077516 0.0049999994 -0.117452
-0.0013999857 0.0049999999 -0.11738734
-0.00046373092 0.0049999999 -0.11748652
0.00050388032 0.0049999999 -0.11738385
0.001485138 0.0049999999 -0.11745805
0.0025800625 0.0049999999 -0.11754477
0.0034496167 0.0049999999 -0.11750313
0.0045989156 0.0048345169 -0.11752598
0.0015687471 0.0050000004 -0.11770831
-0.0048486111 -0.0046959799 -0.11637459
-0.0035399008 -0.0049999994 -0.11644757
-0.002511861 -0.0049999994 -0.11653282
-0.0013491167 -0.0049999994 -0.11676844
-0.00061131589 -0.0049999999 -0.11675068
0.00043162415 -0.0049999999 -0.11650141
0.0017120148 -0.0049999999 -0.11635535
0.002110749 -0.0049999999 -0.11647147
0.0034989498 -0.0049999999 -0.11623975
0.00479247 -0.0047875289 -0.11658119
-0.0049999999 -0.0033998974 -0.11630501
0.0049509872 -0.0033441756 -0.11630916
-0.0049999994 -0.0025107444 -0.11646609
0.0049456405 -0.002618165 -0.11655805
-0.0049999999 -0.0016861755 -0.11650897
0.0049386984 -0.0016754661 -0.11636977
-0.0049999994 -0.00053252559 -0.11649024
0.0049303216 -0.00053796015 -0.1164936
-0.0049999994 0.0005841449 -0.11653125
0.0049237092 0.0003600299 -0.11655951
-0.0049999994 0.0014761472 -0.11647597
0.0049144584 0.0016161816 -0.11651269
-0.0049999999 0.0025538979 -0.11642379
0.0049081435 0.0024736354 -0.11642765
-0.0049999999 0.0034230719 -0.11674297
0.0049018981 0.0033216905 -0.11648264
-0.0047128787 0.0045239725 -0.11650658
-0.003426838 0.0049999994 -0.11651357
-0.0025500956 0.0049999994 -0.11640329
-0.0013392556 0.0049999999 -0.11661719
-0.00048065311 0.0049999994 -0.11655851
0.00053671951 0.0049999994 -0.11643276
0.0015889979 0.0049999994 -0.11642142
0.0023873784 0.0049999999 -0.11655159
0.0032826609 0.0049999994 -0.11634471
0.0047229528 0.0046212375 -0.11659244
-0.0048052468 -0.0047884923 -0.115486
-0.0036779572 -0.0049999999 -0.11575627
-0.0023977046 -0.0049999994 -0.11554886
-0.001381606 -0.0049999999 -0.11553987
-0.000399818 -0.0049999999 -0.11550356
0.00049553637 -0.0049999999 -0.11579257
0.0010643317 -0.0049999999 -0.11531416
0.0025026477 -0.0049999999 -0.11546379
0.00343317 -0.0049999999 -0.11543345
0.0047688759 -0.0046933643 -0.11553033
-0.0049999994 -0.0034584769 -0.11561445
0.0049519166 -0.0034704851 -0.115474
-0.0049999994 -0.0024847111 -0.1155799
0.0049455375 -0.0026042454 -0.1155187
-0.0049999999 -0.001608554 -0.11554253
0.004936514 -0.0013788415 -0.11545632
-0.0049999999 -0.00057483511 -0.11557531
0.0049306955 -0.00058868341 -0.11555997
-0.0049999999 0.00052203616 -0.11539934
0.0049216757 0.00063613569 -0.1155849
-0.0049999994 0.0013960614 -0.11551049
0.0049151648 0.0015202432 -0.11527722
-0.0049999994 0.0024274464 -0.11551707
0.0049075126 0.002559294 -0.11554936
-0.0049999999 0.0034569486 -0.11539134
0.004899207 0.0036872178 -0.11558815
-0.0049127587 0.0046242382 -0.11552981
-0.00352179 0.0049999999 -0.11556674
-0.0025636205 0.0049999999 -0.1154574
-0.0015573794 0.0049999994 -0.11555346
-0.00054357859 0.0049999999 -0.11545259
0.00048870814 0.0049999999 -0.11552636
0.001460371 0.0049999999 -0.11569844
0.0024438843 0.0049999994 -0.11545929
0.0035056856 0.0049999999 -0.11544356
0.0046851146 0.0047186185 -0.11549678
-0.004482212 -0.0048726597 -0.11456397
-0.0036205074 -0.0049999994 -0.11456428
-0.0027330988 -0.0049999999 -0.11444001
-0.0014766906 -0.0049999999 -0.1146469
-0.00045399336 -0.0049999994 -0.11449964
0.0003098367 -0.0049999994 -0.11445192
0.0013781325 -0.0049999994 -0.11454644
0.0025188269 -0.0049999999 -0.11439238
0.0034060422 -0.0049999999 -0.11427411
0.004697328 -0.0047541102 -0.11456635
-0.0049999994 -0.0035140754 -0.11440047
