ply
format ascii 1.0
element vertex 1229
property float x
property float y
property float z
property uchar diffuse_red
property uchar diffuse_green
property uchar diffuse_blue
end_header
-0.351695 0.0873136 0.159726 56 108 47
-0.350486 0.0880358 0.160518 59 110 50
-0.349004 0.0886119 0.161462 62 112 52
-0.348383 0.0896044 0.161924 63 113 53
-0.347483 0.0904514 0.162541 65 113 54
-0.346869 0.0914358 0.162998 63 108 54
-0.346534 0.09256 0.163298 60 104 51
-0.345924 0.0935381 0.163752 58 103 49
-0.345592 0.0946579 0.164051 58 104 49
-0.344985 0.0956298 0.164502 59 106 50
-0.343292 0.0960133 0.165557 62 109 51
-0.340556 0.095815 0.167189 66 113 52
-0.339184 0.0963356 0.168062 68 116 53
-0.336793 0.0962807 0.169499 69 116 53
-0.336227 0.0972197 0.169923 68 112 54
-0.335408 0.0980121 0.170486 64 108 52
-0.335354 0.0992324 0.170626 53 103 47
-0.3353 0.100454 0.170765 43 101 42
-0.334487 0.101236 0.171324 39 99 38
-0.299712 0.0971967 0.191937 133 188 115
-0.299666 0.0982497 0.192058 131 167 99
-0.299436 0.0991804 0.192278 100 132 75
-0.29939 0.100234 0.192399 81 120 63
-0.29916 0.101163 0.192619 87 134 70
-0.299114 0.102217 0.192739 111 161 89
-0.299068 0.103272 0.19286 119 166 92
-0.36627 0.0537398 0.146489 136 211 114
-0.366211 0.055069 0.146641 120 185 90
-0.367124 0.0567317 0.146231 106 170 81
-0.368043 0.0584075 0.145817 91 152 72
-0.369962 0.0604465 0.144828 78 137 66
-0.370569 0.062037 0.144598 69 132 62
-0.370843 0.0635149 0.14456 74 132 60
-0.371789 0.0652445 0.144135 71 132 60
-0.372066 0.0667355 0.144096 86 150 67
-0.372006 0.0681035 0.144252 102 164 77
-0.371945 0.0694724 0.144409 110 175 84
-0.370876 0.0704506 0.145144 116 179 86
-0.370148 0.0715536 0.145684 118 180 88
-0.369755 0.0727842 0.14603 119 184 90
-0.368701 0.073746 0.146755 119 183 90
-0.367655 0.0747016 0.147475 115 179 88
-0.366293 0.0755169 0.148375 112 176 88
-0.363984 0.0759233 0.149815 108 170 85
-0.36329 0.0769921 0.15033 101 162 78
-0.362598 0.0780566 0.150844 95 153 74
-0.36191 0.079117 0.151355 88 141 68
-0.360913 0.0800361 0.152042 78 134 64
-0.359615 0.0808122 0.152899 72 128 59
-0.358023 0.0814445 0.153923 69 123 58
-0.357357 0.0824831 0.154418 67 121 56
-0.356393 0.0833789 0.155083 64 118 58
-0.354838 0.0839916 0.156082 62 116 59
-0.353302 0.0845981 0.15707 59 114 56
-0.352366 0.0854758 0.157716 58 109 53
-0.351436 0.0863483 0.158358 58 107 50
-0.350513 0.0872157 0.158995 58 108 49
-0.349026 0.0877977 0.159951 56 110 50
-0.348119 0.088654 0.160577 57 112 50
-0.346938 0.0893648 0.161357 58 112 52
-0.346324 0.090352 0.161817 60 113 53
-0.345989 0.0914779 0.162119 61 110 55
-0.345379 0.0924588 0.162576 60 107 53
-0.345047 0.0935803 0.162875 61 107 52
-0.344716 0.0947002 0.163175 65 112 53
-0.344111 0.095672 0.163628 71 118 57
-0.343236 0.0964937 0.164231 77 125 61
-0.34156 0.0968711 0.165284 79 129 62
-0.339642 0.0970992 0.166471 79 129 61
-0.338535 0.0977589 0.167202 78 125 61
-0.336662 0.097979 0.16836 76 123 59
-0.334565 0.0980534 0.169643 71 121 58
-0.334511 0.0992738 0.169782 67 116 55
-0.3337 0.100059 0.170344 62 111 52
-0.331158 0.0998303 0.17187 53 106 45
-0.330859 0.100892 0.172145 44 102 39
-0.298624 0.0969914 0.191416 89 160 85
-0.29876 0.0981645 0.191435 109 173 97
-0.298713 0.0992174 0.191555 90 139 76
-0.298667 0.100271 0.191676 81 124 66
-0.29862 0.101325 0.191796 89 133 72
-0.298573 0.102381 0.191916 109 157 88
-0.298344 0.10331 0.192137 119 165 93
-0.364695 0.0535669 0.145931 132 211 112
-0.364956 0.0550015 0.145895 118 187 92
-0.365219 0.0564404 0.145859 108 175 84
-0.366452 0.0582223 0.145256 99 161 77
-0.368354 0.060255 0.144264 86 145 71
-0.369286 0.0619603 0.14384 78 135 64
-0.369558 0.0634363 0.143801 76 135 61
-0.36983 0.0649169 0.143762 77 136 60
-0.36977 0.0662773 0.143917 97 163 75
-0.369709 0.0676386 0.144072 111 176 84
-0.369649 0.0690008 0.144227 116 181 89
-0.369255 0.0702344 0.144575 118 183 89
-0.368863 0.0714659 0.144923 118 182 89
-0.368142 0.0725633 0.145461 118 183 93
-0.367424 0.0736563 0.145996 115 180 91
-0.366384 0.0746112 0.146717 110 174 87
-0.365352 0.07556 0.147433 105 167 84
-0.363368 0.0760999 0.148697 99 158 78
-0.362358 0.077035 0.149398 90 147 71
-0.361983 0.0782351 0.149732 82 137 66
-0.361295 0.0792965 0.150246 75 126 59
-0.360611 0.0803536 0.150758 68 118 57
-0.359619 0.0812683 0.151446 65 116 53
-0.358022 0.0819003 0.152481 66 115 54
-0.357049 0.0828026 0.153156 71 120 56
-0.355782 0.0835603 0.154 79 130 61
-0.353932 0.0840341 0.155176 90 136 66
-0.352401 0.0846405 0.156168 91 132 63
-0.351468 0.0855181 0.156817 80 122 58
-0.350541 0.0863906 0.157462 70 115 54
-0.34962 0.087258 0.158102 64 112 52
-0.348138 0.0878399 0.159062 60 111 51
-0.347234 0.0886962 0.159691 57 111 50
-0.346057 0.0894068 0.160475 56 111 50
-0.345444 0.090394 0.160937 57 111 52
-0.344558 0.0912357 0.161554 61 112 54
-0.344226 0.0923578 0.161854 60 110 54
-0.343896 0.0934783 0.162154 63 111 54
-0.343839 0.0947424 0.162298 70 117 56
-0.343236 0.0957143 0.162753 76 125 61
-0.342636 0.0966828 0.163205 81 132 65
-0.342308 0.0977956 0.163503 83 134 65
-0.340638 0.0981654 0.16456 83 133 65
-0.338726 0.0983844 0.165752 81 130 63
-0.335812 0.0980206 0.16751 77 127 61
-0.333974 0.0982382 0.168657 71 125 60
-0.333163 0.0990267 0.169222 67 118 56
-0.332358 0.099811 0.169785 61 113 53
-0.330817 0.100158 0.170761 56 107 51
-0.329783 0.100789 0.17145 52 101 47
-0.329729 0.101994 0.171587 45 100 40
-0.297539 0.0967869 0.190896 54 121 56
-0.298037 0.0982015 0.190713 68 131 61
-0.29799 0.0992544 0.190832 65 127 62
-0.297943 0.100308 0.190953 68 120 61
-0.297896 0.101363 0.191073 83 130 70
-0.297849 0.102418 0.191193 103 150 85
-0.297802 0.103474 0.191313 115 163 93
-0.297937 0.104658 0.191333 119 165 91
-0.363446 0.0535012 0.145188 126 204 109
-0.363705 0.0549341 0.145151 116 186 92
-0.363965 0.0563713 0.145113 110 179 87
-0.36519 0.0581508 0.144507 103 170 81
-0.367409 0.0602972 0.143318 92 155 74
-0.368336 0.0620026 0.14289 84 140 67
-0.368607 0.0634789 0.14285 77 138 67
-0.368546 0.0648367 0.143004 83 146 65
-0.368485 0.0661955 0.143158 104 175 80
-0.368425 0.0675553 0.143313 115 181 86
-0.368364 0.0689159 0.143467 119 185 90
-0.367972 0.0701482 0.143816 118 183 89
-0.367582 0.0713784 0.144163 114 181 90
-0.366864 0.0724748 0.144702 112 177 92
-0.36615 0.0735668 0.145238 110 172 87
-0.364793 0.0743879 0.146149 104 165 82
-0.363129 0.0750689 0.147238 97 156 77
-0.362433 0.0761429 0.147761 90 144 70
-0.361741 0.0772126 0.148282 81 133 63
-0.361366 0.0784141 0.148618 73 125 59
-0.360992 0.0796136 0.148952 68 117 55
-0.359994 0.0805345 0.149649 67 112 53
-0.359004 0.0814497 0.150341 67 116 52
-0.357714 0.0822202 0.151207 73 121 56
-0.356436 0.0829844 0.152064 81 132 62
-0.35547 0.0838818 0.152739 92 146 71
-0.353915 0.084494 0.153754 102 156 76
-0.352085 0.0849605 0.154928 105 159 79
-0.35115 0.0858392 0.155583 100 155 77
-0.350222 0.0867127 0.156233 93 146 69
-0.3493 0.0875811 0.156878 84 132 60
-0.347816 0.0881626 0.157847 73 121 55
-0.34691 0.0890198 0.158482 65 114 51
-0.346011 0.0898722 0.159112 61 112 51
-0.344841 0.0905777 0.159898 59 111 54
-0.34368 0.0912777 0.160676 62 113 53
-0.343076 0.092257 0.161135 58 112 53
-0.342747 0.0933765 0.161435 60 113 53
-0.342418 0.0944943 0.161735 64 114 55
-0.342361 0.0957566 0.161878 68 119 58
-0.342033 0.0968722 0.162177 73 125 60
-0.341436 0.097838 0.16263 77 129 63
-0.340305 0.0985033 0.163388 77 130 64
-0.337343 0.0981337 0.165191 76 127 61
-0.336248 0.0987886 0.165925 71 122 59
-0.333382 0.0984233 0.167669 66 117 58
-0.332322 0.099068 0.16838 62 112 53
-0.331519 0.0998523 0.168945 59 108 50
-0.330228 0.100343 0.169786 56 104 50
-0.328951 0.10083 0.170619 53 102 49
-0.328898 0.102035 0.170756 50 101 44
-0.296458 0.0965831 0.190378 39 107 42
-0.297314 0.0982384 0.18999 45 112 44
-0.297267 0.0992915 0.190109 50 112 50
-0.297401 0.100469 0.190128 56 110 54
-0.297354 0.101525 0.190247 71 121 64
-0.297307 0.102581 0.190368 91 140 77
-0.297441 0.103766 0.190386 110 159 89
-0.297394 0.104824 0.190506 117 163 93
-0.297346 0.105884 0.190627 118 164 92
-0.297846 0.107336 0.190442 120 166 92
-0.298853 0.110267 0.190071 131 172 103
-0.362199 0.0534357 0.144447 127 204 107
-0.362457 0.0548669 0.144408 116 186 93
-0.362714 0.0563025 0.14437 109 179 89
-0.363611 0.0579669 0.143951 105 173 85
-0.366463 0.0603393 0.142372 96 163 78
-0.367387 0.062045 0.14194 88 151 71
-0.367326 0.0634004 0.142094 81 145 67
-0.367265 0.0647568 0.142247 90 154 69
-0.367204 0.066114 0.142401 110 181 89
-0.367143 0.0674722 0.142555 118 185 90
-0.367082 0.0688313 0.142709 118 183 89
-0.366692 0.0700623 0.143058 115 181 89
-0.366303 0.0712912 0.143406 111 176 87
-0.365916 0.072518 0.143753 109 172 87
-0.36359 0.072951 0.145243 106 164 81
-0.36257 0.0739017 0.145961 99 155 75
-0.362192 0.0751118 0.146301 90 145 72
-0.361498 0.0761858 0.146826 83 134 65
-0.360808 0.0772556 0.147349 76 125 59
-0.360434 0.0784572 0.147685 70 120 57
-0.360374 0.0797944 0.147836 69 117 55
-0.359377 0.0807158 0.148538 72 117 54
-0.358387 0.0816316 0.149235 76 126 57
-0.356792 0.0822632 0.150285 83 134 64
-0.356124 0.0833063 0.150791 91 144 70
-0.354856 0.0840645 0.151648 100 155 77
-0.353303 0.0846764 0.152671 105 163 81
-0.351474 0.0851424 0.153853 109 167 82
-0.35054 0.0860216 0.154512 109 169 82
-0.349902 0.0870364 0.154998 111 171 82
-0.348978 0.0879057 0.155649 109 167 80
-0.347208 0.0883456 0.156792 104 156 75
-0.346304 0.0892034 0.15743 96 143 67
-0.345405 0.0900561 0.158065 84 130 59
-0.344236 0.0907617 0.158856 82 127 60
-0.342803 0.0913197 0.159798 78 125 58
-0.3422 0.0922991 0.160259 68 119 55
-0.3416 0.093275 0.160717 63 114 52
-0.341003 0.0942473 0.161173 60 111 51
-0.341216 0.0956527 0.16116 60 110 52
-0.340889 0.0967673 0.161459 62 114 55
-0.340563 0.0978803 0.161758 64 118 58
-0.339436 0.0985456 0.162519 66 120 58
-0.337267 0.0986152 0.16388 67 118 56
-0.335909 0.0991232 0.164772 65 115 56
-0.333801 0.0991885 0.166095 62 112 55
-0.331979 0.0993981 0.167251 62 111 52
-0.330927 0.100038 0.167963 61 108 50
-0.330377 0.100964 0.168385 59 105 50
-0.329094 0.10145 0.169229 56 102 50
-0.330268 0.103396 0.168661 53 101 47
-0.295738 0.0966197 0.189658 37 101 36
-0.296591 0.0982753 0.189267 40 107 37
-0.296905 0.0995752 0.189181 44 110 46
-0.296858 0.100631 0.189301 47 109 51
-0.296811 0.101688 0.189421 58 115 58
-0.296944 0.102872 0.189438 78 131 70
-0.297261 0.104186 0.189353 102 150 83
-0.297213 0.105248 0.189473 118 161 93
-0.297165 0.106311 0.189594 118 163 92
-0.297665 0.107768 0.189406 119 164 92
-0.298168 0.109235 0.189217 121 165 93
-0.298858 0.110846 0.188922 125 167 98
-0.299554 0.112469 0.188626 126 172 106
-0.300255 0.114106 0.188328 130 167 116
-0.301341 0.116039 0.187814 131 154 124
-0.361271 0.0534767 0.143517 128 202 104
-0.361211 0.0547999 0.143667 117 187 93
-0.361467 0.0562338 0.143627 111 182 90
-0.36204 0.0577839 0.143397 106 175 86
-0.365517 0.0603814 0.141425 101 167 82
-0.366109 0.0619684 0.141186 91 157 76
-0.366376 0.063443 0.141143 80 146 68
-0.366315 0.0647994 0.141296 95 159 73
-0.366253 0.0661568 0.14145 112 182 89
-0.365864 0.0673893 0.1418 117 185 91
-0.365803 0.0687468 0.141953 113 181 88
-0.365415 0.0699765 0.142302 107 177 87
-0.365028 0.0712042 0.14265 107 170 84
-0.363029 0.0717771 0.143958 105 164 82
-0.361693 0.0726022 0.144871 100 156 75
-0.361315 0.073813 0.145211 92 148 72
-0.360623 0.0748894 0.145738 84 139 68
-0.360248 0.0760949 0.146077 79 131 63
-0.359874 0.0772986 0.146415 75 125 59
-0.359501 0.0785002 0.146752 74 122 59
-0.359441 0.0798376 0.146903 77 124 59
-0.358757 0.0808976 0.147424 82 130 59
-0.35746 0.0816747 0.148307 89 140 65
-0.356175 0.0824453 0.149183 94 149 73
-0.355204 0.0833492 0.149871 102 158 78
-0.35424 0.0842477 0.150555 107 164 81
-0.352985 0.0849999 0.15141 110 169 83
-0.351154 0.0854648 0.152603 113 173 84
-0.349928 0.0862044 0.153439 115 177 86
-0.34929 0.08722 0.153927 117 180 88
-0.348368 0.0880899 0.154582 116 180 90
-0.347167 0.0888124 0.1554 113 176 89
-0.346259 0.0896716 0.156046 108 168 83
-0.345357 0.0905259 0.156686 101 157 75
-0.344184 0.0912318 0.157486 95 150 72
-0.342198 0.0915039 0.158761 90 141 66
-0.341324 0.0923411 0.159382 85 134 62
-0.340456 0.0931736 0.16 78 126 59
-0.34013 0.0942894 0.1603 68 117 54
-0.340073 0.0955491 0.160443 61 108 51
-0.339748 0.0966627 0.160742 58 105 51
-0.339156 0.097627 0.161197 57 106 51
-0.336722 0.0975579 0.162725 57 108 51
-0.336144 0.0985103 0.16317 58 109 52
-0.33531 0.0993121 0.163764 60 111 52
-0.333713 0.0996684 0.164801 61 111 54
-0.33239 0.100167 0.165677 63 112 55
-0.330831 0.100515 0.16669 64 109 53
-0.330031 0.101297 0.16726 62 106 52
-0.329729 0.102368 0.167541 58 103 52
-0.331164 0.104481 0.166816 55 101 49
-0.295019 0.0966564 0.188939 35 100 34
-0.296228 0.0985571 0.188337 37 104 36
-0.296362 0.099736 0.188353 40 106 42
-0.296858 0.101168 0.188161 43 107 46
-0.296993 0.102355 0.188177 52 109 51
-0.297127 0.103546 0.188193 68 119 61
-0.297079 0.10461 0.188314 89 137 75
-0.297031 0.105674 0.188434 110 157 89
-0.297165 0.106871 0.188451 116 163 93
-0.297483 0.108203 0.188363 118 162 92
-0.298171 0.109809 0.188065 120 163 93
-0.298864 0.111428 0.187766 122 166 96
-0.299562 0.11306 0.187464 123 169 98
-0.300455 0.114846 0.187052 129 171 107
-0.301738 0.116937 0.18642 132 161 118
-0.302458 0.118617 0.186109 133 150 127
-0.303183 0.120311 0.185795 133 140 129
-0.360028 0.0534113 0.142779 129 203 103
-0.359968 0.054733 0.142928 119 190 93
-0.360222 0.0561652 0.142887 112 186 89
-0.361107 0.0578253 0.142463 108 179 86
-0.364571 0.0604236 0.140478 104 170 83
-0.365161 0.0620107 0.140237 93 159 79
-0.365099 0.0633647 0.14039 80 149 73
-0.365038 0.0647196 0.140543 97 167 76
-0.364976 0.0660754 0.140696 111 184 88
-0.364914 0.0674321 0.140849 114 180 89
-0.364853 0.0687898 0.141002 112 177 86
-0.364141 0.069891 0.141547 106 170 83
-0.362789 0.0707296 0.142478 103 162 80
-0.36145 0.071561 0.143399 100 157 78
-0.360439 0.0725149 0.144122 94 151 73
-0.360063 0.0737246 0.144463 88 144 68
-0.359688 0.0749322 0.144803 83 137 64
-0.359314 0.0761379 0.145142 79 131 62
-0.358941 0.0773416 0.145481 79 128 61
-0.358568 0.0785433 0.145819 82 129 62
-0.358197 0.079743 0.146156 89 137 64
-0.357826 0.0809408 0.146492 96 146 68
-0.35684 0.081857 0.147196 101 156 74
-0.355252 0.0824882 0.148259 105 164 81
-0.354586 0.0835323 0.148771 111 171 85
-0.353323 0.0842906 0.149637 113 174 86
-0.352369 0.0851836 0.150319 117 176 85
-0.350833 0.0857887 0.151347 116 177 87
-0.349896 0.0866699 0.152017 118 177 87
-0.348677 0.0874041 0.152854 117 176 87
-0.348042 0.0884168 0.153343 114 175 87
-0.347125 0.0892825 0.153999 109 173 85
-0.346214 0.0901432 0.154651 104 166 81
-0.34559 0.0911429 0.155132 99 158 76
-0.344689 0.0919941 0.155776 92 150 72
-0.34324 0.0925504 0.156744 87 144 67
-0.341262 0.0928131 0.158025 85 142 66
-0.340121 0.0935028 0.158808 81 135 65
-0.33899 0.0941873 0.159585 78 127 62
-0.338666 0.0953004 0.159885 72 118 56
-0.338342 0.0964119 0.160184 65 109 52
-0.336177 0.096499 0.161568 58 105 50
-0.33534 0.0973085 0.162169 54 104 50
-0.334766 0.0982594 0.162614 54 105 50
-0.333938 0.0990604 0.163208 57 108 49
-0.33286 0.0997102 0.163948 58 110 54
-0.331039 0.0999167 0.165123 62 111 54
-0.330235 0.100703 0.1657 64 109 54
-0.329932 0.101778 0.165984 62 108 54
-0.330124 0.103149 0.165977 59 105 53
-0.330567 0.104674 0.165824 57 101 50
-0.333287 0.107594 0.164339 57 100 45
-0.294299 0.0966931 0.188219 35 101 34
-0.295865 0.0988399 0.187404 37 102 34
-0.29709 0.100771 0.186787 39 103 38
-0.297592 0.102217 0.186589 42 104 41
-0.297728 0.103414 0.186603 46 105 48
-0.297679 0.104485 0.186724 57 110 56
-0.29763 0.105556 0.186845 75 124 67
-0.297582 0.106628 0.186966 98 147 82
-0.297717 0.107833 0.186981 112 162 93
-0.297853 0.109041 0.186996 118 164 95
-0.298174 0.110388 0.186905 120 164 95
-0.29887 0.112015 0.1866 121 165 95
-0.299758 0.113796 0.186184 120 166 94
-0.301611 0.116309 0.185217 125 170 100
-0.302139 0.117845 0.18501 131 168 115
-0.303254 0.119834 0.184468 133 157 125
-0.304778 0.12215 0.183694 132 143 130
-0.307336 0.125283 0.18233 132 139 131
-0.3591 0.0534523 0.14185 131 204 103
-0.35904 0.0547741 0.141999 122 193 94
-0.358979 0.0560968 0.142148 116 189 90
-0.359859 0.0577548 0.141722 109 183 86
-0.363625 0.0604658 0.139532 105 173 85
-0.363887 0.0619342 0.139486 94 161 81
-0.36415 0.0634072 0.13944 81 151 72
-0.364088 0.0647622 0.139593 100 171 77
-0.364026 0.0661181 0.139745 112 184 89
-0.363964 0.067475 0.139898 113 180 89
-0.363578 0.0687055 0.140249 109 174 85
-0.362548 0.0696777 0.140991 107 170 83
-0.361525 0.0706438 0.141727 103 162 78
-0.359878 0.071346 0.142843 98 155 76
-0.359189 0.0724279 0.143375 93 150 72
-0.358814 0.0736364 0.143716 87 143 67
-0.358441 0.0748428 0.144057 84 138 65
-0.358068 0.0760472 0.144396 84 137 67
-0.357697 0.0772496 0.144735 87 140 69
-0.357636 0.0785863 0.144885 92 146 71
-0.357265 0.0797861 0.145223 100 154 73
-0.356587 0.0808452 0.145747 107 162 78
-0.355912 0.0819002 0.146268 110 170 83
-0.354329 0.0825313 0.147336 113 175 87
-0.353665 0.0835753 0.147849 118 180 89
-0.352705 0.0844743 0.14854 118 179 90
-0.351751 0.0853678 0.149226 118 178 88
-0.35051 0.0861141 0.150085 116 176 87
-0.349281 0.0868544 0.150936 115 174 85
-0.348351 0.0877309 0.151605 113 170 83
-0.347428 0.0886022 0.15227 107 164 80
-0.347082 0.0897558 0.152588 101 158 77
-0.346168 0.0906179 0.153247 94 150 73
-0.345825 0.0917657 0.153562 89 142 68
-0.345201 0.0927651 0.154046 82 136 63
-0.34374 0.0933203 0.15503 77 131 60
-0.342021 0.0937241 0.156167 74 126 56
-0.340325 0.0941234 0.157288 68 122 56
-0.338919 0.094663 0.158235 65 120 57
-0.337794 0.0953425 0.159013 64 117 55
-0.336943 0.0961623 0.159628 60 111 53
-0.334536 0.0961073 0.161168 58 106 51
-0.333706 0.0969154 0.161768 56 104 50
-0.333138 0.0978642 0.162212 56 104 48
-0.332317 0.0986639 0.162805 56 105 47
-0.330748 0.0990227 0.163841 55 108 51
-0.329447 0.0995224 0.164718 59 110 51
-0.328897 0.100453 0.165149 60 109 52
-0.329088 0.10182 0.16514 61 109 53
-0.329279 0.103191 0.165131 59 106 53
-0.329471 0.104565 0.165123 58 103 51
-0.329663 0.105944 0.165115 59 102 48
-0.331359 0.108255 0.164219 61 105 48
-0.331303 0.109494 0.164359 64 108 50
-0.331246 0.110733 0.164498 69 117 56
-0.298572 0.102335 0.184763 41 103 36
-0.298523 0.103412 0.184885 41 103 39
-0.298473 0.104489 0.185006 44 104 45
-0.298238 0.105436 0.185236 51 105 51
-0.298003 0.106382 0.185466 64 115 60
-0.297954 0.10746 0.185587 82 135 72
-0.29809 0.108673 0.185601 105 156 90
-0.298041 0.109753 0.185723 115 160 95
-0.298177 0.110971 0.185736 118 161 94
-0.299063 0.112746 0.185316 118 162 93
-0.300146 0.11468 0.184782 119 164 95
-0.30182 0.11707 0.183908 122 166 100
-0.30274 0.118911 0.183471 128 174 110
-0.304063 0.12107 0.182802 131 163 122
-0.307426 0.124813 0.180956 132 149 130
-0.307988 0.126429 0.18073 133 140 132
-0.357862 0.053387 0.141114 134 207 105
-0.358112 0.0548152 0.14107 126 198 95
-0.358051 0.056138 0.141219 119 193 91
-0.358926 0.0577963 0.140789 112 184 88
-0.362679 0.0605079 0.138585 107 177 87
-0.362939 0.0619765 0.138537 96 164 81
-0.362877 0.0633291 0.138689 83 154 72
-0.362815 0.0646825 0.138841 102 175 79
-0.362753 0.0660369 0.138994 111 182 87
-0.362691 0.0673922 0.139146 113 179 87
-0.361985 0.0684948 0.139695 108 171 84
-0.360963 0.0694655 0.140436 106 166 80
-0.359948 0.0704302 0.141173 103 160 75
-0.358627 0.0712602 0.142097 99 154 74
-0.358253 0.0724707 0.142439 96 149 72
-0.357568 0.0735484 0.142971 90 144 70
-0.357196 0.0747535 0.143312 89 143 70
-0.356825 0.0759567 0.143651 91 146 71
-0.356764 0.0772926 0.143802 95 153 73
-0.356394 0.0784931 0.14414 101 160 76
-0.355718 0.0795545 0.144666 108 168 81
-0.355044 0.0806118 0.145189 113 174 85
-0.354374 0.0816649 0.14571 115 177 88
-0.353406 0.0825743 0.146412 117 180 89
-0.352444 0.0834781 0.14711 120 181 89
-0.351786 0.0845172 0.147621 117 178 90
-0.351132 0.0855524 0.148131 116 176 86
-0.349892 0.0862988 0.148995 112 173 85
-0.348663 0.0870392 0.149852 109 167 83
-0.348024 0.0880591 0.15035 106 161 78
-0.347099 0.0889314 0.151021 99 152 74
-0.346467 0.0899429 0.151514 91 143 70
-0.346122 0.091096 0.151832 83 133 64
-0.345493 0.0921007 0.152322 76 126 59
-0.344868 0.0931018 0.15281 71 122 56
-0.344246 0.0940991 0.153295 67 117 54
-0.342513 0.0945 0.15445 66 115 52
-0.340803 0.0948963 0.15559 68 115 52
-0.339117 0.0952882 0.156714 70 117 53
-0.337453 0.0956757 0.157823 75 121 54
-0.334767 0.0954802 0.159545 70 117 54
-0.332905 0.0957181 0.16077 64 109 53
-0.332338 0.0966687 0.161216 61 105 51
-0.33152 0.0974716 0.161812 60 105 48
-0.330456 0.0981256 0.162555 61 107 48
-0.328905 0.0984864 0.163588 58 108 50
-0.328602 0.0995639 0.163874 58 109 50
-0.328054 0.100494 0.164306 57 111 50
-0.327998 0.101714 0.164443 59 109 50
-0.328187 0.103084 0.164433 58 108 53
-0.328131 0.104307 0.164571 58 106 53
-0.328075 0.105531 0.164709 61 109 53
-0.328512 0.107062 0.164552 67 115 56
-0.32895 0.1086 0.164396 72 122 60
-0.328894 0.109831 0.164534 78 129 63
-0.328096 0.110593 0.165114 79 130 64
-0.327059 0.111193 0.165835 79 128 64
-0.299658 0.104758 0.18304 42 101 40
-0.299608 0.105846 0.183162 43 104 44
-0.299181 0.106667 0.183507 46 103 50
-0.299131 0.107754 0.183629 54 109 56
-0.299081 0.108843 0.183751 69 123 66
-0.299219 0.110068 0.183763 93 145 84
-0.299169 0.111159 0.183886 110 159 93
-0.299497 0.112529 0.183787 116 160 93
-0.299636 0.113764 0.183799 118 161 94
-0.356935 0.0534279 0.140186 137 213 108
-0.356874 0.0547484 0.140334 128 202 98
-0.357122 0.0561792 0.140289 121 196 94
-0.357994 0.0578377 0.139856 115 187 90
-0.361732 0.0605501 0.137637 110 180 88
-0.36167 0.0619001 0.137789 98 168 82
-0.361929 0.0633715 0.13774 84 158 76
-0.361867 0.0647251 0.137892 102 177 83
-0.361804 0.0660795 0.138044 111 183 87
-0.36142 0.0673096 0.138396 112 177 86
-0.360399 0.0682851 0.139143 108 172 83
-0.359701 0.0693812 0.139688 105 165 78
-0.358692 0.070345 0.140426 102 162 76
-0.35769 0.0713028 0.141159 99 155 75
-0.357006 0.0723838 0.141695 96 152 73
-0.356325 0.0734606 0.142228 93 150 73
-0.355954 0.0746645 0.142569 94 151 73
-0.355893 0.0759996 0.142718 98 155 75
-0.355524 0.0772008 0.143058 103 161 77
-0.355155 0.0784002 0.143397 107 168 80
-0.354178 0.0793241 0.144111 112 174 84
-0.353509 0.0803795 0.144634 116 177 87
-0.352544 0.0812926 0.14534 117 178 88
-0.351585 0.0822002 0.146041 117 179 87
-0.350929 0.0832416 0.146555 118 179 86
-0.350571 0.0844194 0.146885 115 176 86
-0.350215 0.0855954 0.147214 111 172 84
-0.348979 0.0863418 0.148082 106 166 81
-0.347755 0.087082 0.148942 102 158 78
-0.347117 0.088102 0.149443 97 149 72
-0.346195 0.0889743 0.150116 90 140 67
-0.345849 0.0901304 0.150437 80 131 61
-0.345504 0.0912847 0.150757 73 122 57
-0.34516 0.0924373 0.151076 69 116 54
-0.344534 0.09344 0.151568 65 113 53
-0.34391 0.0944389 0.152057 65 112 52
-0.342731 0.0951357 0.152884 69 117 53
-0.340738 0.0953814 0.154206 78 125 56
-0.339317 0.095919 0.155178 85 135 62
-0.337644 0.0963041 0.156302 91 146 70
-0.334683 0.0959558 0.158207 94 151 74
-0.332047 0.0957597 0.159912 93 144 70
-0.331228 0.0965666 0.160513 86 132 63
-0.330666 0.0975133 0.160958 76 121 57
-0.329606 0.0981671 0.161704 67 113 54
-0.328307 0.0986719 0.162594 61 109 52
-0.327758 0.0996053 0.163029 58 109 50
-0.326966 0.10039 0.16361 56 111 50
-0.32691 0.101609 0.163747 57 112 52
-0.326854 0.102829 0.163884 56 110 53
-0.326797 0.10405 0.164021 58 110 52
-0.326741 0.105271 0.164158 61 113 53
-0.326684 0.106494 0.164295 65 118 57
-0.327362 0.108178 0.163991 70 123 61
-0.326816 0.109096 0.164423 75 128 63
-0.326271 0.110011 0.164853 79 129 63
-0.325006 0.110455 0.165717 79 129 62
-0.32423 0.111207 0.166285 78 129 62
-0.300957 0.107365 0.181168 42 102 45
-0.300906 0.108465 0.181291 43 102 47
-0.356007 0.0534689 0.139258 138 217 110
-0.355946 0.0547894 0.139406 129 206 101
-0.356193 0.0562204 0.13936 124 200 97
-0.357061 0.0578792 0.138923 119 192 91
-0.360786 0.0605923 0.13669 113 183 88
-0.360723 0.0619424 0.136841 99 171 82
-0.36066 0.0632935 0.136993 85 163 77
-0.360598 0.0646455 0.137144 103 179 82
-0.360535 0.0659985 0.137295 112 184 86
-0.360472 0.0673524 0.137447 111 175 85
-0.359137 0.068202 0.138396 107 173 82
-0.358443 0.069297 0.138942 105 165 79
-0.357127 0.0701329 0.139877 103 162 76
-0.356443 0.0712172 0.140416 99 157 75
-0.355762 0.0722972 0.140953 97 156 74
-0.355084 0.073373 0.141487 97 156 74
-0.35441 0.0744445 0.142018 99 158 74
-0.354348 0.0757765 0.142167 102 162 77
-0.354286 0.0771093 0.142316 107 167 80
-0.353311 0.078037 0.143034 111 172 83
-0.352645 0.0790947 0.143559 115 176 87
-0.351383 0.0798754 0.144454 118 178 88
-0.350726 0.080923 0.144972 119 179 87
-0.350071 0.0819665 0.145488 118 181 86
-0.349715 0.0831451 0.145819 118 179 86
-0.349359 0.0843218 0.146149 113 174 84
-0.348419 0.0852141 0.146841 106 162 79
-0.347775 0.0862427 0.147349 99 155 76
-0.34627 0.0868409 0.148389 93 146 71
-0.345637 0.0878591 0.14889 88 139 66
-0.345291 0.0890171 0.149212 81 130 61
-0.345231 0.0903183 0.149357 74 121 56
-0.344886 0.0914739 0.149679 69 115 54
-0.344541 0.0926277 0.149999 68 113 54
-0.344198 0.0937798 0.150319 68 114 54
-0.343292 0.094631 0.150985 71 118 55
-0.342114 0.0953277 0.151818 77 127 59
-0.340672 0.0958698 0.152812 86 137 65
-0.339246 0.0964066 0.153796 93 147 71
-0.33597 0.0959063 0.155913 98 156 77
-0.334336 0.0962886 0.157021 100 160 79
-0.331954 0.0962326 0.158586 103 160 78
-0.331132 0.0970407 0.159193 103 158 76
-0.330315 0.0978443 0.159796 100 150 71
-0.329254 0.0984983 0.160549 92 139 66
-0.327954 0.0990025 0.161446 80 125 60
-0.327158 0.0997919 0.162035 69 116 56
-0.326856 0.100869 0.162321 66 115 54
-0.326311 0.101798 0.162756 63 114 56
-0.326011 0.102871 0.163041 62 114 54
-0.325954 0.104092 0.163178 61 113 51
-0.325897 0.105313 0.163315 59 112 51
-0.325598 0.106384 0.163599 58 112 52
-0.325784 0.107759 0.163588 61 113 54
-0.325727 0.108983 0.163726 65 117 58
-0.325428 0.110053 0.16401 71 122 59
-0.324887 0.110964 0.16444 72 123 60
-0.324109 0.111717 0.165014 72 123 60
-0.323336 0.112465 0.165584 69 120 58
-0.313495 0.131472 0.173615 129 148 126
-0.35508 0.0535098 0.13833 139 219 112
-0.355019 0.0548305 0.138478 131 208 102
-0.355264 0.0562616 0.13843 128 204 99
-0.356129 0.0579206 0.137989 123 197 94
-0.359839 0.0606344 0.135743 117 188 90
-0.359776 0.0619847 0.135894 100 173 83
-0.359713 0.0633359 0.136045 87 165 77
-0.35965 0.0646881 0.136196 105 181 81
-0.359587 0.0660411 0.136347 112 183 86
-0.359205 0.06727 0.136699 109 176 84
-0.357563 0.0679938 0.137849 106 173 82
-0.357187 0.0692131 0.138197 104 166 80
-0.356189 0.0701755 0.138939 102 162 78
-0.355198 0.0711318 0.139674 98 158 76
-0.354521 0.0722108 0.140212 98 157 74
-0.354152 0.0734156 0.140554 101 160 75
-0.353175 0.0743562 0.141279 103 163 75
-0.353113 0.0756867 0.141428 106 165 78
-0.352446 0.0767507 0.141957 109 168 82
-0.351781 0.0778106 0.142485 112 172 86
-0.350523 0.0785966 0.143384 115 173 87
-0.349571 0.0795111 0.14409 115 174 86
-0.34892 0.080556 0.144607 114 174 82
-0.348859 0.0818715 0.144754 113 169 78
-0.348211 0.0829102 0.145269 110 164 78
-0.347566 0.0839449 0.145781 106 159 78
-0.346924 0.0849757 0.146291 100 154 77
-0.34571 0.0857208 0.147158 94 146 73
-0.344792 0.0866008 0.147839 88 139 67
-0.344447 0.0877595 0.148162 83 132 62
-0.344386 0.0890599 0.148307 78 125 58
-0.344326 0.0903613 0.148452 72 118 56
-0.343982 0.0915169 0.148774 70 115 55
-0.343638 0.0926708 0.149096 72 118 56
-0.343295 0.0938229 0.149417 76 123 58
-0.342673 0.0948235 0.149911 81 131 63
-0.341496 0.0955203 0.15075 88 140 68
-0.340055 0.096062 0.151751 95 150 73
-0.33755 0.0960042 0.153411 98 156 76
-0.335888 0.096389 0.154547 104 162 79
-0.334249 0.0967694 0.155667 106 163 80
-0.332116 0.096854 0.157091 110 168 81
-0.330527 0.0972273 0.158178 114 173 83
-0.329963 0.0981769 0.158629 114 175 85
-0.3289 0.098831 0.159388 112 171 83
-0.327599 0.0993345 0.160293 106 161 77
-0.327049 0.100271 0.160735 99 149 70
-0.326255 0.101057 0.161326 90 139 65
-0.325467 0.101839 0.161913 83 134 63
-0.32541 0.103061 0.162049 79 128 60
-0.324869 0.103984 0.162483 74 122 55
-0.324812 0.105205 0.16262 65 117 53
-0.324755 0.106426 0.162756 59 112 53
-0.32494 0.107801 0.162744 57 109 53
-0.324641 0.108871 0.163029 57 110 53
-0.324343 0.10994 0.163314 61 113 54
-0.323565 0.110695 0.163891 62 113 55
-0.322556 0.111291 0.164611 62 113 55
-0.313892 0.110441 0.1703 63 110 52
-0.311452 0.109983 0.171885 61 107 51
-0.309908 0.110117 0.172922 59 105 51
-0.309222 0.110831 0.173436 56 104 51
-0.308958 0.111835 0.173692 54 105 52
-0.307395 0.1131 0.174833 52 101 51
-0.306929 0.113949 0.175211 49 100 44
-0.306056 0.114499 0.175835 54 102 48
-0.305596 0.115341 0.176209 72 118 61
-0.304734 0.115884 0.176826 96 142 78
-0.313614 0.131007 0.172145 128 150 123
-0.312902 0.131685 0.172673 131 143 130
-0.353847 0.0534446 0.137599 136 214 111
-0.354091 0.0548715 0.137549 130 207 102
-0.354335 0.0563028 0.1375 128 205 100
-0.354888 0.0578501 0.137254 126 200 97
-0.358575 0.0605597 0.134999 119 191 93
-0.358829 0.062027 0.134946 103 175 85
-0.358765 0.0633783 0.135096 90 166 78
-0.358702 0.0647306 0.135247 104 181 82
-0.358321 0.0659602 0.135601 111 182 87
-0.357942 0.0671878 0.135953 109 177 83
-0.356309 0.0679113 0.137106 105 172 82
-0.355624 0.0690033 0.137653 103 165 81
-0.354942 0.070091 0.138197 101 161 79
-0.353956 0.0710466 0.138934 99 159 78
-0.353282 0.0721247 0.139473 101 158 75
-0.352611 0.0731985 0.140008 103 161 76
-0.351642 0.0741377 0.140733 106 166 78
-0.35158 0.0754651 0.140881 108 168 81
-0.35032 0.0762624 0.14179 110 171 84
-0.349663 0.0773185 0.142315 111 173 86
-0.348714 0.0782368 0.143025 116 174 86
-0.348065 0.0792838 0.143544 118 173 84
-0.347711 0.0804626 0.143875 113 170 82
-0.347066 0.0815026 0.144391 110 167 80
-0.346424 0.0825386 0.144904 105 163 78
-0.345786 0.0835707 0.145415 99 156 75
-0.344864 0.0844596 0.146104 96 149 73
-0.343948 0.0853432 0.146789 94 142 73
-0.343604 0.0865025 0.147112 87 134 64
-0.343543 0.0878022 0.147257 82 129 64
-0.343482 0.0891027 0.147402 78 124 60
-0.343138 0.090259 0.147725 75 123 58
-0.343077 0.0915599 0.14787 77 124 59
-0.342735 0.0927138 0.148192 82 129 62
-0.342393 0.093866 0.148514 87 137 67
-0.341772 0.0948666 0.14901 93 145 71
-0.340599 0.0955633 0.149852 99 154 76
-0.339437 0.0962546 0.150687 105 161 79
-0.337473 0.0964921 0.152023 107 165 81
-0.335806 0.096875 0.153171 114 170 83
-0.334161 0.0972536 0.154304 113 170 83
-0.33228 0.0974809 0.155583 114 173 83
-0.330173 0.0975598 0.157002 115 177 86
-0.329357 0.0983646 0.157614 114 177 87
-0.328295 0.0990187 0.158378 113 175 85
-0.327243 0.099668 0.159135 111 172 83
-0.326446 0.100459 0.159733 106 165 78
-0.325653 0.101246 0.160328 98 156 74
-0.325109 0.102175 0.160767 89 149 71
-0.324566 0.103102 0.161205 85 141 67
-0.324026 0.104026 0.161641 82 134 63
-0.323969 0.105247 0.161777 75 127 60
-0.323912 0.106468 0.161913 68 120 57
-0.324095 0.107843 0.1619 62 112 54
-0.323797 0.108913 0.162186 57 108 52
-0.322782 0.109518 0.162915 56 106 49
-0.320834 0.109503 0.16422 57 106 48
-0.320777 0.110714 0.164355 56 107 50
-0.31314 0.109309 0.169362 62 112 54
-0.310708 0.108863 0.170957 65 113 56
-0.309803 0.109439 0.171611 65 111 54
-0.309115 0.110157 0.172129 62 107 52
-0.308431 0.110872 0.172645 58 105 52
-0.308168 0.111876 0.172902 53 103 52
-0.308114 0.113026 0.17303 50 102 53
-0.306609 0.113141 0.174048 52 101 51
-0.306145 0.113989 0.174427 53 100 46
-0.305275 0.114539 0.175054 68 113 54
-0.304816 0.115381 0.17543 94 140 73
-0.303956 0.115924 0.176049 111 159 90
-0.304709 0.117658 0.175683 115 160 96
-0.315629 0.129507 0.16931 118 163 100
-0.314678 0.130025 0.169989 121 161 105
-0.313515 0.130369 0.170797 126 155 116
-0.313019 0.131221 0.171198 132 145 130
-0.312525 0.13207 0.171596 133 142 133
-0.352617 0.0533795 0.136869 133 211 111
-0.352859 0.0548048 0.136818 126 203 100
-0.353101 0.0562343 0.136768 124 203 99
-0.353956 0.0578915 0.136321 125 200 98
-0.357945 0.0607188 0.133847 121 194 93
-0.357881 0.0620693 0.133998 104 178 86
-0.357818 0.0634208 0.134148 92 168 79
-0.357754 0.0647731 0.134298 103 179 83
-0.357374 0.0660028 0.134653 110 181 87
-0.356995 0.0672304 0.135006 108 175 82
-0.355368 0.0679538 0.136164 105 170 80
-0.354376 0.0689201 0.136912 103 164 80
-0.353698 0.0700067 0.137457 101 161 79
-0.352717 0.0709616 0.138196 102 161 78
-0.35235 0.0721672 0.13854 104 160 77
-0.351681 0.073241 0.139078 105 164 79
-0.350416 0.07405 0.139998 109 167 80
-0.348866 0.0747221 0.1411 110 169 82
-0.348803 0.0760412 0.141246 111 174 84
-0.347858 0.0769631 0.141959 111 174 86
-0.34721 0.0780124 0.14248 121 174 87
-0.346566 0.0790577 0.142999 123 170 85
-0.345924 0.080099 0.143516 112 165 82
-0.345574 0.0812722 0.143846 106 162 80
-0.344937 0.0823065 0.144359 101 159 78
-0.343733 0.0830616 0.145233 96 153 75
-0.343105 0.0840862 0.145739 93 147 72
-0.342761 0.0852462 0.146064 88 137 67
-0.342418 0.0864044 0.146387 84 132 64
-0.342357 0.0877027 0.146532 78 127 62
-0.342296 0.0890019 0.146676 80 127 60
-0.342234 0.0903019 0.146821 84 131 62
-0.341892 0.0914565 0.147144 89 136 67
-0.341831 0.0927569 0.147289 93 144 72
-0.34149 0.0939092 0.147611 98 153 76
-0.340871 0.0949098 0.148109 104 160 80
-0.339702 0.0956064 0.148955 108 166 83
-0.337727 0.0958494 0.15031 113 169 84
-0.336586 0.0965349 0.151136 114 172 85
-0.33519 0.0970661 0.152122 119 176 87
-0.33381 0.0975923 0.153097 115 175 85
-0.332445 0.0981135 0.154062 114 175 84
-0.329819 0.0978939 0.155821 112 174 84
-0.329001 0.0986994 0.156438 109 170 83
-0.327938 0.0993536 0.157208 108 167 81
-0.326885 0.100003 0.157972 104 163 78
-0.326087 0.100795 0.158575 99 157 75
-0.325538 0.10173 0.15902 93 151 72
-0.324748 0.102513 0.159617 86 144 69
-0.324205 0.103441 0.160058 83 138 65
-0.323184 0.104068 0.160798 77 134 63
-0.323126 0.105288 0.160934 74 132 63
-0.320057 0.108336 0.163252 60 106 48
-0.319301 0.109088 0.163822 57 105 47
-0.310392 0.108034 0.169765 57 110 54
-0.309273 0.108469 0.170556 61 112 56
-0.309008 0.10948 0.170816 61 110 56
-0.308953 0.110636 0.170944 62 109 55
-0.308477 0.111499 0.171335 59 104 53
-0.308423 0.112654 0.171463 56 101 52
-0.308368 0.113811 0.171592 54 99 52
-0.306647 0.113772 0.172753 55 100 52
-0.30577 0.114326 0.17339 59 105 55
-0.305103 0.115024 0.173897 85 134 70
-0.304846 0.116017 0.174149 102 152 85
-0.304386 0.116859 0.174527 110 158 94
-0.305964 0.119218 0.173647 114 159 95
-0.314862 0.128348 0.168353 118 162 97
-0.314359 0.129209 0.168762 119 162 101
-0.313858 0.130068 0.169169 124 158 112
-0.313138 0.130753 0.16971 130 150 127
-0.312642 0.131606 0.170114 137 145 135
-0.35139 0.0533146 0.13614 132 211 112
-0.351629 0.0547382 0.136089 122 200 98
-0.351869 0.0561661 0.136037 120 199 97
-0.356119 0.059066 0.133366 121 200 98
-0.356998 0.060761 0.1329 119 196 94
-0.356934 0.0621116 0.13305 104 181 88
-0.35687 0.0634632 0.1332 93 168 81
-0.356806 0.0648157 0.13335 103 176 82
-0.356113 0.0659221 0.133909 109 179 86
-0.355736 0.0671484 0.134263 107 173 81
-0.354427 0.0679964 0.135223 105 168 79
-0.353131 0.068837 0.136173 104 164 78
-0.352456 0.0699227 0.136719 102 163 78
-0.351481 0.0708768 0.137459 104 163 77
-0.350814 0.0719529 0.137999 106 163 78
-0.349851 0.0728959 0.138731 107 167 80
-0.349191 0.0739626 0.139264 110 168 82
-0.34765 0.0746346 0.140369 111 171 83
-0.347002 0.0756902 0.140894 112 173 83
-0.346356 0.0767417 0.141418 111 173 86
-0.345713 0.0777891 0.141939 120 173 88
-0.345073 0.0788326 0.142457 120 170 86
-0.344724 0.0800066 0.142788 110 164 82
-0.344088 0.081043 0.143303 104 159 78
-0.342888 0.0818032 0.144182 100 156 76
-0.342262 0.08283 0.14469 98 151 74
-0.341919 0.0839906 0.145015 94 146 72
-0.341576 0.0851495 0.14534 89 141 70
-0.341235 0.0863066 0.145664 84 136 67
-0.341174 0.0876035 0.145808 83 135 65
-0.341112 0.0889013 0.145952 87 138 64
-0.341051 0.0901999 0.146096 95 143 67
-0.340989 0.0914995 0.14624 102 154 73
-0.340648 0.0926524 0.146563 104 161 80
-0.340309 0.0938035 0.146886 108 166 81
-0.339692 0.0948034 0.147385 112 170 83
-0.337711 0.0950528 0.148757 115 175 86
-0.336836 0.0958922 0.149419 118 177 87
-0.336236 0.0968763 0.149906 116 177 87
-0.334839 0.097407 0.150901 119 178 87
-0.332932 0.0976348 0.15222 113 175 85
-0.331572 0.0981559 0.153189 111 173 83
-0.329462 0.0982293 0.154635 109 168 80
-0.328643 0.0990357 0.155256 104 161 78
-0.32758 0.0996899 0.156034 99 155 76
-0.326526 0.100339 0.156804 94 148 70
-0.325973 0.10128 0.157255 88 141 66
-0.325177 0.102068 0.15786 81 134 64
-0.324143 0.102704 0.158615 76 128 63
-0.323359 0.103483 0.159212 73 123 59
-0.32282 0.104408 0.159652 67 119 56
-0.322283 0.10533 0.160091 65 116 55
-0.322225 0.106552 0.160227 61 114 55
-0.319223 0.108378 0.162419 62 109 55
-0.318934 0.109434 0.162699 63 108 54
-0.3118 0.108365 0.167483 65 110 53
-0.308955 0.10764 0.169366 61 109 54
-0.308478 0.108509 0.16976 57 108 56
-0.308212 0.10952 0.170021 55 108 56
-0.308158 0.110677 0.170149 57 108 56
-0.308103 0.111834 0.170278 56 104 55
-0.308048 0.112993 0.170406 55 102 55
-0.307993 0.114152 0.170535 59 103 55
-0.306893 0.114558 0.171317 72 111 58
-0.306424 0.115412 0.171705 89 133 69
-0.30575 0.116112 0.17222 100 145 80
-0.305285 0.116959 0.172604 103 148 84
-0.30523 0.118109 0.172731 107 152 88
-0.314039 0.128391 0.16753 117 161 100
-0.313982 0.129593 0.167664 120 160 107
-0.31348 0.130453 0.168074 126 153 123
-0.313201 0.131483 0.168345 133 146 137
-0.350165 0.0532499 0.135413 134 210 112
-0.350703 0.0547791 0.135162 123 195 96
-0.351547 0.0564264 0.13471 118 194 96
-0.354863 0.0589933 0.132628 117 196 96
-0.355737 0.0606861 0.132159 117 194 95
-0.355986 0.062154 0.132101 107 180 90
-0.355922 0.0635056 0.132251 93 166 80
-0.355858 0.0648583 0.132401 99 172 80
-0.355167 0.0659647 0.132962 106 177 85
-0.354479 0.0670666 0.133522 106 173 82
-0.353178 0.067914 0.134483 105 167 79
-0.351585 0.0686292 0.135636 107 165 78
-0.350613 0.0695872 0.136379 103 165 79
-0.349947 0.0706656 0.136921 104 166 78
-0.348987 0.0716124 0.137656 107 167 80
-0.348329 0.0726813 0.138192 107 169 82
-0.347086 0.0734885 0.139111 111 170 83
-0.346146 0.0744179 0.13983 112 172 84
-0.345792 0.0756019 0.140166 112 173 83
-0.344861 0.0765213 0.140879 111 171 84
-0.344223 0.0775669 0.141399 112 168 84
-0.343588 0.0786086 0.141918 111 166 84
-0.34324 0.0797802 0.142248 107 163 81
-0.342044 0.0805455 0.143131 103 158 78
-0.341419 0.0815744 0.143642 102 156 78
-0.341077 0.0827357 0.143968 102 152 77
-0.340456 0.0837578 0.144475 94 145 73
-0.340394 0.085053 0.144618 92 145 72
-0.340333 0.0863491 0.144762 88 142 71
-0.340271 0.0876461 0.144905 91 145 73
-0.340209 0.088944 0.145049 97 151 72
-0.340147 0.0902428 0.145193 102 156 75
-0.339808 0.0913964 0.145517 108 161 78
-0.339468 0.0925482 0.14584 110 168 83
-0.338854 0.0935501 0.146341 113 176 86
-0.337968 0.0943997 0.147017 115 179 89
-0.336276 0.0947993 0.148213 117 178 89
-0.335676 0.0957863 0.148702 116 177 87
-0.335347 0.0969192 0.149017 115 176 87
-0.333954 0.0974497 0.150017 115 175 85
-0.332055 0.0976773 0.151342 110 170 82
-0.330185 0.0979022 0.152647 106 167 79
-0.328596 0.0982715 0.153769 103 159 77
-0.32778 0.0990778 0.154393 96 150 74
-0.32672 0.0997319 0.155174 89 142 69
-0.326164 0.100677 0.15563 83 134 64
-0.325118 0.101322 0.156401 77 126 59
-0.324325 0.10211 0.157008 71 119 59
-0.323294 0.102745 0.157767 67 115 58
-0.322753 0.103674 0.158212 66 111 55
-0.322215 0.1046 0.158655 64 111 53
-0.32144 0.105372 0.159248 64 113 55
-0.321144 0.106442 0.159535 70 113 61
-0.320376 0.107207 0.160123 70 111 62
-0.319145 0.107664 0.161006 74 112 61
-0.318854 0.108724 0.161289 92 120 65
-0.310344 0.107967 0.167087 88 121 63
-0.308158 0.107681 0.168569 75 116 62
-0.307682 0.108549 0.168965 67 114 60
-0.307627 0.109706 0.169093 66 115 58
-0.307572 0.110864 0.169221 69 115 57
-0.308148 0.112469 0.16895 71 113 60
-0.308093 0.113632 0.169078 73 116 62
-0.308037 0.114796 0.169207 79 121 67
-0.307561 0.115656 0.169602 89 128 73
-0.306669 0.116209 0.170259 96 135 79
-0.306405 0.117215 0.170519 98 137 81
-0.306143 0.11822 0.170778 98 140 82
-0.307339 0.120313 0.170118 103 147 86
-0.313717 0.127569 0.166294 113 159 98
-0.313437 0.128603 0.166567 117 161 103
-0.313158 0.129636 0.16684 122 154 116
-0.313101 0.13084 0.166974 128 148 131
-0.313043 0.132045 0.167107 132 144 138
-0.348646 0.0530802 0.134886 141 211 113
-0.349179 0.0546056 0.134634 124 193 96
-0.350316 0.0563579 0.13398 115 190 93
-0.353921 0.0590352 0.131684 114 190 91
-0.35479 0.0607283 0.131212 116 191 92
-0.355038 0.0621963 0.131153 106 181 89
-0.354974 0.0635481 0.131302 92 165 78
-0.354909 0.0649008 0.131452 94 168 78
-0.35422 0.0660072 0.132015 103 176 85
-0.353225 0.066985 0.132782 105 174 83
-0.351626 0.0677075 0.133948 106 170 81
-0.349744 0.0682982 0.1353 107 170 80
-0.349081 0.0693789 0.135844 107 169 80
-0.347827 0.070204 0.136779 107 170 81
-0.347172 0.0712742 0.137315 109 171 83
-0.346521 0.0723403 0.13785 109 172 84
-0.345582 0.0732741 0.138575 111 172 85
-0.344649 0.0742022 0.139294 111 172 85
-0.344586 0.0755138 0.139439 109 171 83
-0.343373 0.0763019 0.140342 109 169 82
-0.34274 0.0773457 0.140862 108 164 81
-0.341826 0.0782534 0.141567 107 163 81
-0.3412 0.0792884 0.142081 105 161 80
-0.340577 0.0803195 0.142594 102 158 77
-0.339956 0.0813467 0.143104 103 157 78
-0.339616 0.0825057 0.14343 104 155 77
-0.339554 0.0838001 0.143573 97 149 74
-0.339492 0.0850954 0.143716 95 149 73
-0.33943 0.0863916 0.143859 94 149 74
-0.339368 0.0876888 0.144002 96 152 76
-0.339029 0.0888436 0.144327 106 159 77
-0.338691 0.0899966 0.144651 107 163 77
-0.338353 0.0911479 0.144975 110 167 81
-0.338016 0.0922975 0.145297 113 170 83
-0.337133 0.0931506 0.145976 113 175 86
-0.335446 0.093558 0.147179 114 177 87
-0.334848 0.094547 0.147671 114 177 87
-0.334519 0.0956806 0.147986 112 176 87
-0.33366 0.0965142 0.148647 111 171 85
-0.332281 0.0970453 0.149646 112 166 82
-0.329886 0.0969808 0.151304 106 160 77
-0.328296 0.0973562 0.152437 99 156 75
-0.326727 0.0977275 0.153555 93 150 74
-0.32592 0.0985322 0.154177 87 139 68
-0.325861 0.0997739 0.154314 81 131 63
-0.325306 0.100719 0.154772 74 123 59
-0.324263 0.101364 0.155546 69 117 57
-0.322987 0.101855 0.15647 67 113 56
-0.322446 0.102787 0.156918 65 111 55
-0.321906 0.103716 0.157364 65 110 53
-0.321369 0.104642 0.157809 67 115 55
-0.32036 0.105264 0.158558 78 127 67
-0.319594 0.106031 0.159149 94 140 84
-0.318833 0.106795 0.159736 101 151 87
-0.318309 0.107705 0.16017 101 154 85
-0.309539 0.108008 0.166282 90 134 80
-0.307782 0.10801 0.167502 88 131 76
-0.307305 0.10888 0.1679 88 128 69
-0.30725 0.110039 0.168028 90 126 65
-0.308674 0.112241 0.16721 91 122 64
-0.308831 0.113561 0.167203 91 122 65
-0.308775 0.114733 0.167332 93 127 72
-0.308506 0.115752 0.167598 93 129 78
-0.308238 0.116769 0.167863 92 127 81
-0.308182 0.117941 0.167992 93 127 81
-0.306651 0.118024 0.169061 93 132 80
-0.306595 0.119189 0.16919 93 136 80
-0.310156 0.123067 0.167018 97 141 84
-0.31295 0.126408 0.165336 103 148 89
-0.312892 0.127612 0.165469 110 154 97
-0.312613 0.128647 0.165743 119 156 109
-0.312555 0.129851 0.165876 126 147 126
-0.312498 0.131056 0.166009 131 143 134
-0.312219 0.132088 0.166283 132 141 135
-0.347134 0.0529114 0.134362 147 207 110
-0.347071 0.0542202 0.134506 127 195 97
-0.348192 0.0559624 0.133855 114 188 92
-0.352362 0.0588485 0.131155 112 186 90
-0.353223 0.0605369 0.130681 114 187 91
-0.353779 0.0621198 0.130413 109 178 88
-0.353714 0.06347 0.130562 95 162 78
-0.353339 0.0646993 0.130919 93 164 76
-0.352655 0.0658037 0.131483 104 176 85
-0.351668 0.0667799 0.132249 106 175 85
-0.350081 0.0675021 0.133415 105 173 83
-0.348813 0.0683404 0.134368 108 173 83
-0.346965 0.0689233 0.135707 110 173 82
-0.346312 0.0699959 0.136246 110 174 83
-0.345663 0.0710642 0.136782 112 173 85
-0.345308 0.0722553 0.137122 110 173 86
-0.344373 0.0731884 0.137848 106 169 85
-0.343733 0.0742443 0.138378 102 166 81
-0.342809 0.0751667 0.139095 99 162 79
-0.341892 0.0760836 0.139808 99 160 79
-0.340981 0.0769949 0.140515 99 157 79
-0.340357 0.078032 0.141032 100 157 79
-0.339456 0.0789331 0.141731 102 157 78
-0.339116 0.0800946 0.142059 101 156 77
-0.338777 0.0812543 0.142385 101 155 75
-0.338715 0.0825479 0.142528 101 155 76
-0.338652 0.0838424 0.14267 99 153 76
-0.338314 0.0849991 0.142996 98 152 74
-0.338252 0.086294 0.143139 99 155 75
-0.337914 0.0874483 0.143464 99 155 78
-0.337577 0.0886008 0.143788 104 163 80
-0.33724 0.0897516 0.144112 109 168 82
-0.336905 0.0909007 0.144435 114 172 84
-0.336298 0.0919022 0.144937 114 174 84
-0.334616 0.0923174 0.146146 114 174 85
-0.33402 0.0933084 0.14664 113 174 86
-0.333426 0.0942959 0.147131 111 172 86
-0.332835 0.0952797 0.14762 108 168 84
-0.331461 0.095817 0.148624 108 164 82
-0.329074 0.095764 0.150292 108 159 80
-0.327489 0.0961467 0.151431 99 152 75
-0.325924 0.0965253 0.152556 92 147 72
-0.32512 0.0973332 0.153181 87 142 70
-0.324321 0.0981366 0.153802 82 132 63
-0.324508 0.0995213 0.153777 76 125 58
-0.323468 0.10017 0.154555 70 118 56
-0.322196 0.100668 0.155484 67 114 56
-0.321656 0.101601 0.155934 67 113 56
-0.321357 0.10268 0.156226 68 115 55
-0.32082 0.103609 0.156673 71 119 57
-0.319812 0.104235 0.157427 86 129 63
-0.319047 0.105006 0.158022 104 152 81
-0.318053 0.105623 0.158764 105 153 88
-0.317531 0.106535 0.1592 99 145 83
-0.317241 0.107596 0.159484 94 135 80
-0.308678 0.109218 0.165606 93 119 76
-0.307983 0.109945 0.166148 94 119 75
-0.308352 0.111411 0.166002 93 119 73
-0.308722 0.112884 0.165855 92 118 74
-0.308666 0.114058 0.165985 93 119 75
-0.308609 0.115233 0.166114 100 125 82
-0.308553 0.116409 0.166244 96 122 84
-0.30871 0.117742 0.166236 90 120 82
-0.309513 0.119553 0.165812 89 123 80
-0.31054 0.121541 0.165245 91 128 80
-0.309399 0.121923 0.166074 92 133 79
-0.311962 0.125082 0.164521 95 137 81
-0.312125 0.126451 0.164512 100 143 87
-0.312067 0.127655 0.164644 110 148 100
-0.312009 0.12886 0.164777 124 146 120
-0.311951 0.130066 0.16491 133 143 135
-0.311893 0.131272 0.165043 133 142 136
-0.345336 0.0526395 0.134038 154 212 110
-0.345273 0.0539437 0.134182 132 203 103
-0.346088 0.0555707 0.13373 117 190 94
-0.348994 0.0579867 0.13186 110 185 91
-0.351971 0.0604626 0.129945 111 185 91
-0.352214 0.0619251 0.129885 107 179 88
-0.352457 0.0633922 0.129824 93 162 76
-0.351776 0.0644989 0.130389 89 162 75
-0.351403 0.0657235 0.130745 100 177 84
-0.349512 0.0663305 0.132128 106 177 86
-0.348544 0.0672976 0.132885 109 177 85
-0.347286 0.068135 0.133837 113 176 86
-0.345452 0.0687182 0.135176 114 176 84
-0.344805 0.0697887 0.135715 111 176 85
-0.34445 0.0709805 0.136056 116 177 88
-0.344097 0.0721704 0.136396 110 173 89
-0.343455 0.0732305 0.13693 96 161 79
-0.342817 0.0742864 0.137461 87 152 71
-0.341611 0.0750796 0.138372 82 145 68
-0.340418 0.0758663 0.139276 80 143 69
-0.339514 0.0767764 0.139983 83 145 71
-0.338616 0.077681 0.140686 86 148 73
-0.338 0.0787115 0.141199 93 152 75
-0.337662 0.0798707 0.141526 97 153 75
-0.337325 0.0810281 0.141852 98 152 74
-0.337263 0.0823188 0.141994 99 152 74
-0.3372 0.0836105 0.142136 100 153 75
-0.336864 0.0847649 0.142461 100 154 75
-0.336802 0.0860569 0.142603 101 158 76
-0.336739 0.0873497 0.142746 101 159 79
-0.336403 0.0885011 0.14307 104 163 81
-0.335797 0.0895077 0.143575 106 168 83
-0.334923 0.090367 0.144258 110 173 87
-0.334323 0.0913653 0.144757 114 173 85
-0.333193 0.0920705 0.145609 114 171 86
-0.3326 0.09306 0.146102 111 169 85
-0.331748 0.0939 0.146768 108 166 82
-0.330641 0.0945893 0.147603 105 163 80
-0.328517 0.0946923 0.149111 104 158 78
-0.32618 0.0946511 0.150759 103 153 75
-0.324875 0.0951807 0.151721 95 146 70
-0.323829 0.0958482 0.15251 89 140 68
-0.323036 0.096654 0.153132 84 135 64
-0.322248 0.0974554 0.15375 78 127 59
-0.321224 0.0981084 0.154522 73 122 57
-0.321165 0.099335 0.154657 71 118 56
-0.320866 0.100416 0.15495 70 117 56
-0.320568 0.101496 0.155243 70 119 58
-0.320033 0.102426 0.155691 77 126 60
-0.319499 0.103353 0.156138 91 138 69
-0.318499 0.103979 0.156893 107 151 80
-0.317506 0.1046 0.157641 108 153 85
-0.316753 0.105366 0.158231 98 140 82
-0.316695 0.106577 0.158364 89 128 78
