ply
format ascii 1.0
element vertex 1251
property float x
property float y
property float z
property uchar diffuse_red
property uchar diffuse_green
property uchar diffuse_blue
end_header
-0.423518 0.10059 0.176995 95 96 84
-0.420375 0.105157 0.178835 102 131 80
-0.41991 0.106426 0.179172 87 143 74
-0.40878 0.110074 0.184331 84 83 73
-0.429002 0.0898186 0.172004 92 112 74
-0.428952 0.0912982 0.172186 83 128 67
-0.428462 0.0926086 0.172539 66 122 58
-0.427973 0.0939166 0.172891 56 111 51
-0.427922 0.0953953 0.173073 57 120 53
-0.427435 0.0966998 0.173424 86 142 67
-0.427384 0.0981786 0.173606 101 162 81
-0.426464 0.0993016 0.174125 115 168 91
-0.425118 0.100241 0.174808 113 144 93
-0.423356 0.100995 0.175651 101 111 89
-0.418957 0.105025 0.177988 93 126 72
-0.414414 0.104488 0.179894 71 132 61
-0.413962 0.105739 0.180224 65 134 59
-0.409412 0.109439 0.182591 106 120 87
-0.408197 0.110305 0.18321 87 85 76
-0.428414 0.0900345 0.170799 96 108 81
-0.428363 0.0915162 0.170981 84 118 69
-0.428312 0.0929989 0.171163 67 118 55
-0.427822 0.0943099 0.171517 56 111 49
-0.427333 0.0956185 0.171871 51 114 49
-0.426845 0.0969247 0.172225 75 132 60
-0.426794 0.0984055 0.172406 96 156 77
-0.426308 0.0997083 0.172758 109 169 86
-0.424958 0.100649 0.173449 114 159 93
-0.424048 0.101763 0.173966 108 127 93
-0.421445 0.10215 0.175144 97 97 87
-0.417954 0.105075 0.176982 93 117 70
-0.413827 0.104715 0.178746 70 122 57
-0.412975 0.105788 0.179233 60 127 55
-0.412925 0.107218 0.179409 84 145 68
-0.412028 0.109713 0.180068 123 174 98
-0.408436 0.109488 0.181612 117 143 93
-0.407611 0.110536 0.182085 95 93 80
-0.427825 0.090251 0.169591 103 110 94
-0.427773 0.0917348 0.169773 92 113 76
-0.427721 0.0932196 0.169954 73 113 56
-0.42767 0.0947054 0.170136 55 111 48
-0.427179 0.0960171 0.170492 47 112 47
-0.42669 0.0973263 0.170848 60 121 56
-0.426203 0.0986331 0.171203 91 149 73
-0.425716 0.0999374 0.171557 100 161 79
-0.425231 0.101239 0.17191 113 168 90
-0.423885 0.102175 0.172604 113 142 94
-0.421277 0.10256 0.173795 106 112 93
-0.419125 0.10312 0.174804 101 98 88
-0.418658 0.104397 0.175146 99 101 84
-0.417777 0.105488 0.175651 96 110 76
-0.413641 0.105123 0.177436 73 118 58
-0.411987 0.105837 0.178242 58 123 53
-0.411937 0.107267 0.178417 75 139 62
-0.411887 0.108699 0.178592 98 160 78
-0.411042 0.109762 0.179079 116 172 90
-0.4102 0.11082 0.179563 119 157 92
-0.407411 0.110951 0.180807 103 118 84
-0.406588 0.111997 0.181281 88 84 78
-0.401459 0.115204 0.183886 84 88 72
-0.401038 0.116411 0.184201 90 111 74
-0.427233 0.0904681 0.16838 112 115 105
-0.427181 0.091954 0.168561 100 115 87
-0.427569 0.0936131 0.168565 79 113 62
-0.427517 0.095103 0.168747 58 111 49
-0.427025 0.0964178 0.169106 48 110 48
-0.426534 0.0977301 0.169464 51 116 54
-0.426045 0.0990399 0.169821 83 141 69
-0.425557 0.100347 0.170178 95 160 77
-0.424637 0.10147 0.170707 105 173 84
-0.423722 0.102589 0.171234 116 162 98
-0.422811 0.103702 0.171758 117 133 101
-0.418951 0.103531 0.173459 111 111 98
-0.41765 0.104446 0.174135 108 108 96
-0.417185 0.10572 0.174478 102 110 86
-0.415898 0.106624 0.175147 81 116 65
-0.412197 0.106427 0.176775 60 120 52
-0.410948 0.107316 0.177425 66 131 58
-0.410898 0.108748 0.1776 89 153 73
-0.410055 0.109811 0.178089 109 169 86
-0.40961 0.111055 0.178419 116 166 92
-0.408773 0.11211 0.178904 114 138 92
-0.406386 0.112415 0.18 101 99 86
-0.40595 0.113645 0.180325 91 93 84
-0.404366 0.11431 0.181101 90 93 81
-0.402798 0.11497 0.181869 90 91 78
-0.4005 0.115253 0.182923 91 98 76
-0.39897 0.115902 0.183674 88 116 73
-0.398553 0.117103 0.183987 78 133 65
-0.392501 0.122354 0.187241 89 88 77
-0.329855 0.0986573 0.212616 106 113 79
-0.329599 0.0996128 0.212832 109 113 80
-0.329343 0.100567 0.213047 103 104 78
-0.329087 0.101521 0.213263 96 91 78
-0.42791 0.0926873 0.166806 107 118 97
-0.427857 0.0941823 0.166988 87 114 70
-0.427805 0.0956784 0.16717 65 110 50
-0.427752 0.0971755 0.167352 49 108 48
-0.426817 0.0983148 0.167894 46 113 51
-0.426325 0.0996293 0.168254 69 131 62
-0.425834 0.100941 0.168614 95 157 76
-0.424909 0.102067 0.169149 99 162 80
-0.423557 0.103005 0.169857 113 167 92
-0.422644 0.10412 0.170385 119 152 103
-0.419616 0.104309 0.171767 117 128 109
-0.417057 0.104678 0.172957 114 116 106
-0.416591 0.105953 0.173302 111 115 96
-0.415715 0.107042 0.173811 93 114 77
-0.414028 0.107756 0.174645 65 117 53
-0.411154 0.107912 0.175954 59 124 55
-0.410306 0.108981 0.176449 82 145 68
-0.409859 0.11023 0.176782 101 164 82
-0.409413 0.111476 0.177115 113 170 91
-0.408574 0.112533 0.177604 117 157 95
-0.407739 0.113586 0.178091 111 125 96
-0.405359 0.113881 0.179193 101 99 92
-0.404158 0.114734 0.179823 97 97 89
-0.402587 0.115393 0.1806 95 97 87
-0.399911 0.115487 0.181813 94 104 84
-0.398014 0.11595 0.182715 88 116 74
-0.397233 0.116965 0.183174 75 126 59
-0.396819 0.118163 0.183487 60 126 51
-0.328858 0.0996518 0.212089 105 141 84
-0.32882 0.100735 0.212221 106 142 88
-0.328564 0.101689 0.212437 123 136 89
-0.328309 0.102642 0.212652 109 114 85
-0.427757 0.0930819 0.165399 114 121 107
-0.428148 0.0947562 0.165398 97 115 78
-0.428095 0.0962585 0.16558 73 110 54
-0.428041 0.0977618 0.165763 51 108 47
-0.427544 0.099085 0.166129 44 109 48
-0.427048 0.100406 0.166493 57 121 57
-0.426995 0.101908 0.166676 91 151 73
-0.425183 0.102669 0.167578 97 157 77
-0.423824 0.103608 0.168295 104 166 85
-0.422476 0.104541 0.169005 116 163 104
-0.420712 0.105281 0.169884 120 141 114
-0.417709 0.10546 0.171267 117 123 113
-0.415583 0.106003 0.17229 114 120 107
-0.41512 0.107276 0.172635 101 118 90
-0.414658 0.108547 0.172978 72 117 57
-0.412975 0.109255 0.173817 56 119 51
-0.410509 0.109584 0.174972 73 138 63
-0.409662 0.110651 0.175469 94 158 77
-0.409214 0.1119 0.175804 109 170 87
-0.408768 0.113147 0.176138 116 167 94
-0.407537 0.114013 0.176789 117 145 101
-0.404767 0.114118 0.178058 109 111 100
-0.403948 0.115159 0.178539 102 105 96
-0.402374 0.115818 0.179324 101 106 95
-0.40044 0.116284 0.180251 102 109 92
-0.397425 0.116184 0.18161 95 116 77
-0.396279 0.117013 0.182217 78 120 57
-0.395866 0.118212 0.182531 59 121 49
-0.395817 0.119597 0.1827 59 129 56
-0.393507 0.122602 0.184066 114 157 91
-0.39168 0.123021 0.184939 108 128 88
-0.328117 0.0996908 0.211346 88 149 78
-0.328078 0.100774 0.211477 101 157 87
-0.32804 0.101858 0.211609 127 163 96
-0.427549 0.094982 0.164166 104 117 88
-0.427941 0.0966646 0.164164 78 112 63
-0.427887 0.0981722 0.164346 55 109 50
-0.427388 0.0994985 0.164714 45 108 47
-0.427334 0.101006 0.164897 49 114 54
-0.426837 0.102329 0.165264 80 141 66
-0.426341 0.103649 0.16563 95 157 76
-0.424967 0.10459 0.166359 95 162 81
-0.422307 0.104963 0.167618 111 170 98
-0.420539 0.105703 0.168506 121 157 112
-0.419636 0.106811 0.169037 122 137 116
-0.416642 0.106977 0.170427 118 122 111
-0.414523 0.107511 0.171455 107 120 95
-0.41406 0.108784 0.171801 83 118 68
-0.413599 0.110054 0.172145 58 116 49
-0.412327 0.110943 0.172822 62 131 57
-0.409862 0.111261 0.173986 89 153 74
-0.409015 0.112326 0.174486 104 166 82
-0.408567 0.113576 0.174822 113 169 90
-0.406941 0.114252 0.175639 118 158 101
-0.405719 0.115112 0.17629 114 129 106
-0.403738 0.115587 0.177248 108 112 103
-0.40178 0.116056 0.178195 105 110 102
-0.400222 0.116709 0.178978 104 111 100
-0.39868 0.117357 0.179754 96 115 85
-0.396053 0.117436 0.180966 79 118 64
-0.395276 0.118448 0.181429 61 119 50
-0.394502 0.119457 0.18189 59 127 54
-0.394453 0.120842 0.182057 85 147 72
-0.394043 0.122035 0.182371 102 163 84
-0.393275 0.123034 0.182828 113 163 91
-0.391445 0.123452 0.183711 112 142 92
-0.391396 0.124827 0.183878 104 113 90
-0.387607 0.131088 0.186272 90 117 77
-0.315983 0.106756 0.216564 93 92 79
-0.315556 0.10754 0.216842 104 105 82
-0.313779 0.107425 0.217645 113 114 84
-0.313551 0.10833 0.217845 113 108 81
-0.313132 0.109104 0.218118 103 97 78
-0.313095 0.110135 0.218243 93 88 76
-0.312678 0.110907 0.218515 86 84 75
-0.427394 0.0953851 0.162744 109 119 99
-0.427786 0.097073 0.162739 88 114 73
-0.427731 0.0985847 0.162922 61 109 54
-0.427677 0.100098 0.163105 45 108 50
-0.427177 0.101426 0.163475 43 114 50
-0.427122 0.102939 0.163658 66 131 58
-0.426623 0.104264 0.164028 89 156 77
-0.426126 0.105586 0.164396 92 158 79
-0.424311 0.106333 0.165315 102 168 86
-0.420365 0.106128 0.167121 119 172 106
-0.419459 0.107238 0.167656 129 157 116
-0.418558 0.108342 0.168188 127 136 115
-0.415574 0.108495 0.169586 115 123 103
-0.413871 0.109209 0.170449 95 120 80
-0.413409 0.110482 0.170796 66 116 51
-0.412948 0.111753 0.171143 58 121 53
-0.412081 0.112829 0.171656 84 146 70
-0.410815 0.113708 0.172334 98 160 79
-0.408762 0.114198 0.173336 107 169 86
-0.406736 0.114683 0.174325 115 167 97
-0.405901 0.115735 0.174821 119 148 109
-0.404296 0.116399 0.175634 112 117 108
-0.401565 0.116484 0.176908 107 112 107
-0.400379 0.117328 0.177544 104 112 105
-0.39883 0.117975 0.17833 99 113 92
-0.397295 0.118617 0.179107 83 115 69
-0.395047 0.118874 0.180175 63 119 52
-0.39391 0.119695 0.180787 55 125 53
-0.3935 0.12089 0.181102 70 139 65
-0.39345 0.122276 0.18127 97 160 80
-0.393041 0.123469 0.181584 111 167 88
-0.392633 0.12466 0.181897 114 155 95
-0.391869 0.125654 0.182355 109 129 97
-0.383945 0.129562 0.186432 88 115 75
-0.313496 0.106685 0.216665 119 135 88
-0.313076 0.107464 0.216941 120 142 89
-0.312848 0.108368 0.217141 114 139 88
-0.312621 0.109271 0.21734 109 134 86
-0.312393 0.110173 0.21754 115 128 88
-0.311977 0.110945 0.217813 108 111 86
-0.311562 0.111715 0.218086 91 89 81
-0.427237 0.0957904 0.161314 116 121 106
-0.427182 0.0973033 0.161496 95 115 76
-0.427128 0.0988173 0.161679 69 112 55
-0.427073 0.100332 0.161862 48 110 49
-0.427018 0.101848 0.162045 41 110 47
-0.426963 0.103365 0.162229 55 119 55
-0.426463 0.104693 0.162601 86 149 75
-0.426408 0.10621 0.162784 93 155 75
-0.425466 0.107342 0.163342 86 158 75
-0.420189 0.106555 0.165727 109 177 97
-0.419282 0.107667 0.166267 128 178 113
-0.418378 0.108773 0.166805 133 161 118
-0.41748 0.109875 0.167339 127 140 111
-0.41492 0.110205 0.168571 109 127 90
-0.413217 0.110912 0.16944 77 118 60
-0.412346 0.111994 0.16996 55 118 51
-0.412293 0.113457 0.170137 73 138 63
-0.411427 0.114531 0.170653 95 158 77
-0.408162 0.11444 0.17217 103 166 83
-0.406923 0.115307 0.17284 110 167 91
-0.405693 0.116169 0.173504 118 156 104
-0.404472 0.117026 0.174164 112 126 110
-0.403261 0.117876 0.174819 108 113 110
-0.40016 0.117759 0.176257 106 112 107
-0.398981 0.118597 0.176895 103 111 96
-0.397811 0.11943 0.177529 88 114 74
-0.396281 0.120066 0.17831 68 117 56
-0.39404 0.120314 0.179383 54 121 53
-0.393267 0.121321 0.17985 62 133 60
-0.393217 0.122711 0.180018 92 156 76
-0.393166 0.124101 0.180186 104 165 83
-0.393116 0.125492 0.180354 113 161 91
-0.392347 0.126489 0.180817 111 137 96
-0.391581 0.127481 0.181278 101 107 97
-0.383019 0.12961 0.185503 86 111 72
-0.381631 0.13018 0.186211 74 118 57
-0.381582 0.131527 0.186374 59 118 48
-0.312793 0.106723 0.215959 104 153 84
-0.312564 0.107629 0.21616 99 155 84
-0.312336 0.108534 0.216361 99 155 84
-0.312109 0.109438 0.216561 105 156 85
-0.311881 0.110341 0.216761 124 159 98
-0.311655 0.111244 0.216961 114 132 95
-0.311239 0.112014 0.217235 100 102 88
-0.31158 0.113309 0.217211 89 91 84
-0.42708 0.0961979 0.159875 117 125 109
-0.427024 0.0977151 0.160058 103 123 81
-0.426969 0.0992333 0.160241 80 121 60
-0.427362 0.100938 0.160232 57 115 50
-0.427306 0.10246 0.160416 44 108 44
-0.427251 0.103984 0.160599 49 115 47
-0.426748 0.105317 0.160975 76 142 64
-0.425801 0.106454 0.161539 90 158 73
-0.425301 0.10778 0.161912 78 144 69
-0.422173 0.10794 0.163406 82 158 77
-0.419103 0.108098 0.164871 106 186 101
-0.418197 0.109206 0.165413 128 186 114
-0.417297 0.11031 0.165953 131 166 113
-0.416401 0.111409 0.166489 114 145 98
-0.415093 0.112308 0.1672 85 130 71
-0.41256 0.112621 0.168428 57 117 51
-0.41169 0.113701 0.16895 63 129 58
-0.410823 0.114776 0.169471 90 154 74
-0.409559 0.115652 0.170158 99 162 79
-0.407111 0.115937 0.171343 105 167 85
-0.405483 0.116606 0.172181 113 164 98
-0.404649 0.117657 0.172683 118 146 111
-0.403432 0.118509 0.173346 110 118 111
-0.401077 0.118772 0.174485 107 115 108
-0.398758 0.119031 0.175607 106 114 102
-0.397958 0.120058 0.17609 95 115 80
-0.397162 0.121081 0.176572 74 115 62
-0.39637 0.122099 0.177051 57 118 53
-0.393032 0.121754 0.178591 59 129 57
-0.392981 0.123147 0.178759 85 150 71
-0.392931 0.124541 0.178927 100 162 79
-0.39288 0.125936 0.179095 109 164 87
-0.392109 0.126934 0.179562 110 148 95
-0.3917 0.128128 0.179879 106 123 98
-0.381089 0.129075 0.184986 85 106 73
-0.380708 0.130228 0.185285 73 113 57
-0.380659 0.131576 0.185448 58 116 47
-0.379947 0.132529 0.185882 56 122 52
-0.378109 0.136908 0.187203 112 149 93
-0.376116 0.137042 0.188158 102 115 95
-0.31247 0.107015 0.2151 83 134 59
-0.312051 0.107795 0.215378 76 134 59
-0.311823 0.108701 0.215579 80 142 66
-0.311595 0.109605 0.21578 96 156 79
-0.311558 0.110639 0.215905 121 174 103
-0.311331 0.111543 0.216106 114 142 98
-0.310915 0.112314 0.216382 105 116 94
-0.35701 0.146949 0.198202 94 97 91
-0.356919 0.149471 0.198506 90 92 88
-0.357433 0.151136 0.198435 89 92 87
-0.299883 0.112709 0.22163 86 88 85
-0.299339 0.113319 0.22195 86 87 83
-0.298463 0.113677 0.222401 93 91 80
-0.29776 0.114157 0.222783 101 101 80
-0.296896 0.11451 0.223227 110 112 80
-0.296204 0.114985 0.223603 113 107 78
-0.295841 0.115707 0.223849 107 101 78
-0.295156 0.116177 0.224221 100 100 79
-0.294958 0.117021 0.224401 98 99 77
-0.294923 0.11799 0.224518 94 93 76
-0.42737 0.096788 0.158233 112 129 108
-0.426865 0.0981291 0.158612 106 139 86
-0.42681 0.0996516 0.158795 88 136 69
-0.427203 0.101362 0.158784 65 120 54
-0.427147 0.102888 0.158967 48 108 46
-0.427541 0.104607 0.158956 44 113 46
-0.427485 0.106138 0.159141 64 130 57
-0.42653 0.10728 0.159713 84 151 72
-0.425581 0.108416 0.160283 78 141 68
-0.424636 0.109548 0.160849 68 135 59
-0.421075 0.109497 0.162541 74 149 68
-0.418015 0.109642 0.164015 89 165 87
-0.417112 0.110747 0.164559 102 180 106
-0.415794 0.111653 0.16528 100 173 101
-0.415321 0.112944 0.165639 81 145 76
-0.414016 0.113839 0.166352 60 118 53
-0.411492 0.11414 0.167587 54 120 53
-0.410218 0.115022 0.168285 83 147 69
-0.40976 0.11629 0.168634 95 160 76
-0.408499 0.117161 0.169324 98 165 81
-0.405272 0.117045 0.17085 108 168 92
-0.404046 0.117902 0.171523 122 164 105
-0.403216 0.11895 0.172026 125 144 112
-0.402006 0.119797 0.17269 113 117 109
-0.399286 0.119856 0.173993 109 113 104
-0.397731 0.120496 0.1748 101 115 90
-0.397306 0.121716 0.175128 81 116 67
-0.396511 0.122737 0.175612 61 117 52
-0.393158 0.122383 0.177173 56 124 54
-0.393107 0.123782 0.177342 76 143 65
-0.393056 0.125181 0.17751 99 160 79
-0.392643 0.126382 0.177831 105 163 84
-0.39223 0.127581 0.178151 111 156 93
-0.39146 0.128577 0.17862 110 133 97
-0.380831 0.129512 0.183783 87 104 75
-0.379785 0.130277 0.18436 75 109 59
-0.379736 0.131624 0.184522 59 114 49
-0.379026 0.132577 0.184958 52 119 50
-0.378977 0.133924 0.18512 72 134 62
-0.378927 0.135271 0.185283 92 151 75
-0.378221 0.136216 0.185716 107 160 85
-0.377192 0.136956 0.186283 112 154 91
-0.375526 0.137291 0.187111 106 129 97
-0.311727 0.108089 0.214517 66 129 52
-0.311499 0.108996 0.214719 74 136 60
-0.311271 0.109902 0.214921 92 149 74
-0.311233 0.110938 0.215046 113 166 93
-0.311195 0.111975 0.21517 113 150 98
-0.358689 0.14879 0.19632 98 103 97
-0.357792 0.149457 0.196816 96 100 94
-0.356062 0.149518 0.197647 95 99 94
-0.356574 0.151184 0.197574 93 98 93
-0.356808 0.152654 0.197614 92 95 91
-0.299215 0.112746 0.22096 90 93 89
-0.298672 0.113356 0.221282 92 95 88
-0.298133 0.113964 0.221601 102 109 84
-0.297429 0.114444 0.221986 106 125 83
-0.296401 0.114672 0.2225 105 135 81
-0.2962 0.115522 0.222683 104 135 83
-0.29551 0.115995 0.22306 106 138 87
-0.295311 0.116842 0.223242 115 139 89
-0.295113 0.117689 0.223424 124 136 90
-0.294915 0.118534 0.223605 111 115 86
-0.29553 0.120021 0.223465 99 99 82
-0.42857 0.0977482 0.156179 104 131 101
-0.427607 0.0989129 0.156761 103 158 90
-0.42755 0.100444 0.156945 90 149 75
-0.427946 0.102165 0.156931 71 126 60
-0.428343 0.103891 0.156917 50 111 50
-0.428741 0.105624 0.156902 40 110 46
-0.428684 0.107165 0.157088 50 119 51
-0.428173 0.10851 0.157471 77 141 67
-0.428116 0.110051 0.157656 76 141 67
-0.426703 0.11099 0.158432 59 122 55
-0.422646 0.110725 0.160358 57 129 56
-0.419977 0.111056 0.161676 63 137 62
-0.416927 0.111187 0.163157 66 140 64
-0.416026 0.11229 0.163703 66 137 61
-0.414712 0.113191 0.164428 63 129 56
-0.41424 0.11448 0.164787 59 121 53
-0.410885 0.114386 0.166392 52 116 52
-0.410017 0.115464 0.16692 74 139 61
-0.409153 0.116538 0.167446 90 158 74
-0.408293 0.117607 0.167969 92 161 77
-0.406245 0.118076 0.169003 99 166 83
-0.403831 0.118344 0.170192 113 172 97
-0.403 0.119394 0.170699 128 170 111
-0.401787 0.120241 0.17137 132 149 113
-0.400583 0.121083 0.172036 120 126 110
-0.398254 0.121328 0.173181 108 117 97
-0.397077 0.122158 0.173832 87 116 72
-0.396652 0.123379 0.174162 63 116 54
-0.395118 0.124001 0.174964 53 121 51
-0.39433 0.125015 0.175447 67 136 60
-0.393912 0.126224 0.175772 98 156 78
-0.39386 0.127633 0.175941 101 159 81
-0.39199 0.128032 0.176882 111 161 89
-0.391218 0.129029 0.177355 111 143 96
-0.39045 0.130023 0.177827 107 121 100
-0.381914 0.130737 0.182008 90 103 80
-0.379855 0.130912 0.183016 78 108 66
-0.378812 0.131673 0.183596 60 113 53
-0.378763 0.133021 0.183758 50 117 49
-0.378055 0.133972 0.184196 64 127 58
-0.378005 0.135319 0.184358 89 148 74
-0.377628 0.136466 0.184657 105 159 83
-0.377251 0.137611 0.184955 110 155 89
-0.376225 0.138347 0.185524 111 140 96
-0.358108 0.14904 0.195337 101 106 99
-0.357494 0.149908 0.195722 98 103 97
-0.356041 0.150168 0.196447 96 102 96
-0.355995 0.151434 0.196599 94 100 95
-0.356508 0.153111 0.196524 92 99 95
-0.356461 0.154382 0.196676 89 97 94
-0.298546 0.112783 0.22029 88 98 93
-0.298005 0.113393 0.220613 94 108 90
-0.297634 0.114127 0.220866 106 132 85
-0.297264 0.114858 0.221119 95 138 77
-0.296233 0.115084 0.221638 88 140 73
-0.295704 0.115685 0.221955 86 139 72
-0.295504 0.116535 0.222138 91 141 77
-0.295304 0.117385 0.222321 108 150 85
-0.295105 0.118234 0.222504 124 156 96
-0.294906 0.119082 0.222686 118 138 98
-0.427561 0.0962661 0.154926 122 124 110
-0.427958 0.0979828 0.154908 108 135 79
-0.427448 0.0993337 0.155294 96 156 80
-0.427391 0.100869 0.155478 90 153 77
-0.427334 0.102405 0.155662 75 134 65
-0.42773 0.104135 0.155646 52 115 52
-0.428127 0.10587 0.155629 37 107 44
-0.428525 0.107611 0.155613 40 113 45
-0.428468 0.109158 0.155798 65 131 60
-0.428411 0.110706 0.155984 73 139 66
-0.427898 0.112052 0.15637 56 116 54
-0.422913 0.111373 0.158723 46 117 48
-0.421538 0.112297 0.159485 45 123 50
-0.418878 0.112616 0.16081 50 126 53
-0.415837 0.112734 0.162299 52 126 53
-0.41452 0.113636 0.163031 54 125 53
-0.413213 0.114531 0.163757 56 123 53
-0.411916 0.115421 0.164478 53 118 51
-0.409814 0.115909 0.165549 56 126 53
-0.408948 0.116984 0.166079 86 153 73
-0.408087 0.118055 0.166607 90 155 73
-0.40683 0.118921 0.167306 84 154 73
-0.405187 0.119582 0.168171 91 165 84
-0.402782 0.119839 0.169366 112 178 101
-0.401566 0.120688 0.170043 129 175 112
-0.400359 0.12153 0.170715 123 160 115
-0.399162 0.122367 0.171382 122 145 102
-0.397222 0.122801 0.172369 106 134 80
-0.396421 0.123826 0.172862 78 122 59
-0.395624 0.124847 0.173353 58 118 50
-0.394462 0.125663 0.174001 63 130 58
-0.394042 0.126877 0.174329 93 154 74
-0.393989 0.128291 0.174498 100 159 76
-0.392839 0.129093 0.175139 107 163 82
-0.390976 0.129484 0.176084 111 155 95
-0.390205 0.130479 0.176559 110 134 102
-0.389083 0.131266 0.177185 103 112 100
-0.381993 0.131381 0.180641 93 102 84
-0.38093 0.132147 0.181236 81 108 67
-0.378879 0.132313 0.182249 64 113 51
-0.378168 0.133268 0.182692 51 115 44
-0.377789 0.134419 0.182993 55 123 55
-0.377738 0.13577 0.183155 85 145 72
-0.377688 0.137121 0.183317 100 155 80
-0.37731 0.13827 0.183618 108 156 86
-0.376606 0.139211 0.184056 111 149 93
-0.374613 0.139331 0.185036 102 116 93
-0.366815 0.142423 0.18914 90 109 80
-0.357857 0.148215 0.194082 107 118 102
-0.357242 0.149087 0.194469 103 106 100
-0.357195 0.150362 0.194622 99 105 98
-0.356301 0.151025 0.195124 96 103 98
-0.355693 0.151889 0.195507 95 102 97
-0.355646 0.153159 0.19566 93 100 96
-0.297673 0.113681 0.219807 93 109 85
-0.297301 0.114415 0.220062 96 126 73
-0.296931 0.115148 0.220316 79 128 61
-0.296562 0.115878 0.22057 71 128 57
-0.295534 0.1161 0.221092 69 128 59
-0.295007 0.116699 0.221409 75 134 67
-0.294807 0.117549 0.221593 109 160 88
-0.294771 0.118527 0.22171 128 167 101
-0.294734 0.119505 0.221827 122 145 100
-0.426497 0.0963172 0.153857 123 128 110
-0.426439 0.0978506 0.154041 115 140 77
-0.426382 0.099385 0.154224 98 157 82
-0.426325 0.100921 0.154408 92 153 77
-0.426719 0.102647 0.154389 80 138 67
-0.427115 0.104379 0.154371 59 118 56
-0.427511 0.106117 0.154352 40 105 44
-0.427909 0.107861 0.154334 36 107 41
-0.427851 0.109411 0.154519 52 119 52
-0.427793 0.110961 0.154705 70 136 63
-0.427735 0.112513 0.15489 57 115 53
-0.424517 0.112632 0.156481 41 110 42
-0.4218 0.112951 0.157846 37 114 46
-0.41956 0.113467 0.158997 41 117 48
-0.416071 0.113378 0.160699 44 118 49
-0.413489 0.113687 0.161997 47 120 51
-0.412601 0.114781 0.162544 53 121 53
-0.411717 0.11587 0.163087 53 120 54
-0.410427 0.116754 0.16381 47 119 53
-0.408337 0.117234 0.164883 80 145 67
-0.407476 0.118305 0.165414 87 153 70
-0.407019 0.119573 0.165767 73 139 64
-0.405766 0.120435 0.166469 68 139 65
-0.404129 0.121089 0.167338 81 157 79
-0.401344 0.121136 0.168709 99 175 97
-0.400135 0.121979 0.169387 107 175 103
-0.398935 0.122817 0.170061 115 162 95
-0.398122 0.12385 0.170564 98 144 82
-0.396562 0.124476 0.171392 71 125 61
-0.395389 0.125298 0.172051 53 116 51
-0.394225 0.126115 0.172705 57 126 56
-0.394172 0.127534 0.172875 82 147 67
-0.394119 0.128954 0.173044 97 161 77
-0.392964 0.129756 0.173692 97 158 78
-0.391454 0.130349 0.174493 110 159 91
-0.389244 0.130529 0.175595 112 143 100
-0.38848 0.13152 0.17607 108 124 101
-0.385963 0.131489 0.177302 104 111 98
-0.381733 0.131829 0.179411 96 104 88
-0.381005 0.132796 0.179866 85 108 71
-0.379946 0.133559 0.180463 69 111 54
-0.377901 0.133715 0.181482 53 113 46
-0.377192 0.134668 0.181926 50 121 53
-0.377142 0.136021 0.182088 81 142 68
-0.377091 0.137374 0.182249 94 152 76
-0.377041 0.138728 0.182411 103 159 84
-0.376335 0.139671 0.182853 107 155 90
-0.375633 0.14061 0.183292 105 130 95
-0.365016 0.141869 0.188628 91 107 84
-0.364667 0.142973 0.188911 77 109 67
-0.363423 0.143472 0.189571 63 112 53
-0.362191 0.143967 0.190226 57 116 48
-0.361848 0.14506 0.190505 63 124 54
-0.359037 0.148398 0.192222 111 142 102
-0.357273 0.148465 0.193094 108 123 103
-0.356942 0.14954 0.193365 103 110 101
-0.356894 0.150817 0.193518 101 107 99
-0.356281 0.151685 0.193906 100 105 101
-0.354831 0.151936 0.194643 98 103 99
-0.354784 0.153207 0.194795 96 101 96
-0.296967 0.114705 0.219254 87 120 67
-0.296763 0.115565 0.219442 70 122 55
-0.296393 0.116297 0.219697 62 122 54
-0.295859 0.1169 0.22002 61 124 59
-0.295822 0.117884 0.220138 70 134 68
-0.295126 0.118354 0.220527 114 168 93
-0.29509 0.119336 0.220644 128 168 102
-0.295053 0.120319 0.220762 122 146 97
-0.425432 0.0963683 0.152789 123 133 112
-0.424924 0.0977188 0.153176 118 149 86
-0.424867 0.0992512 0.153359 113 170 92
-0.425258 0.100972 0.153338 94 148 75
-0.425651 0.102699 0.153318 80 141 70
-0.426498 0.104624 0.153092 62 122 59
-0.426894 0.106365 0.153072 44 105 45
-0.427291 0.108112 0.153051 33 101 40
-0.427232 0.109664 0.153236 44 112 48
-0.427174 0.111216 0.153422 68 128 58
-0.427116 0.11277 0.153607 58 115 52
-0.425696 0.113705 0.154404 43 102 40
-0.42295 0.114018 0.155796 37 106 42
-0.420248 0.114327 0.157165 38 110 43
-0.417591 0.114632 0.158511 40 111 44
-0.412875 0.113936 0.160776 43 114 47
-0.411987 0.11503 0.161327 49 117 51
-0.411103 0.11612 0.161874 51 118 52
-0.410635 0.117407 0.162235 43 116 51
-0.409349 0.118286 0.162961 66 133 60
-0.407266 0.118757 0.16404 80 146 70
-0.406407 0.119826 0.164573 69 131 62
-0.405951 0.121093 0.164926 61 123 55
-0.404702 0.12195 0.165631 59 124 53
-0.40307 0.122597 0.166504 64 134 59
-0.399909 0.122431 0.168053 72 143 69
-0.398326 0.123068 0.168901 79 150 77
-0.397892 0.124304 0.16924 72 140 74
-0.397082 0.125334 0.169745 61 124 58
-0.395527 0.125954 0.170578 49 115 52
-0.393987 0.126569 0.171402 53 121 54
-0.393565 0.127787 0.171734 72 139 62
-0.393143 0.129004 0.172065 94 159 76
-0.39309 0.130425 0.172235 98 156 75
-0.391574 0.131016 0.173045 104 163 84
-0.388996 0.130987 0.174319 117 162 98
-0.387167 0.131366 0.175263 121 145 104
-0.385709 0.131944 0.176043 113 124 100
-0.383231 0.131911 0.177267 107 114 99
-0.381471 0.132279 0.178175 102 108 93
-0.380743 0.133248 0.178633 92 108 77
-0.380354 0.134415 0.178944 74 110 59
-0.37963 0.135377 0.179399 55 112 49
-0.377252 0.13532 0.180571 48 119 52
-0.376872 0.136474 0.180875 72 137 61
-0.376493 0.137627 0.181179 91 153 74
-0.376442 0.138982 0.181341 100 159 81
-0.376063 0.140132 0.181644 105 154 88
-0.37536 0.141073 0.182087 109 141 96
-0.373691 0.141388 0.182945 102 111 96
-0.364126 0.141917 0.187735 93 107 87
-0.363778 0.143021 0.188019 78 109 68
-0.361946 0.143119 0.188936 64 111 54
-0.361015 0.143814 0.189467 56 115 48
-0.360382 0.144706 0.18987 58 121 52
-0.360333 0.145998 0.190024 79 138 66
-0.360285 0.147291 0.190179 95 150 77
-0.360236 0.148585 0.190333 105 155 87
-0.358738 0.148853 0.191102 112 148 100
-0.356972 0.148917 0.191983 108 126 102
-0.356924 0.150198 0.192136 105 113 103
-0.356592 0.151274 0.192408 104 108 102
-0.355978 0.152143 0.1928 103 107 103
-0.353414 0.151577 0.194013 101 107 101
-0.353366 0.152845 0.194164 98 105 99
-0.353596 0.154319 0.194199 95 102 96
-0.346212 0.159016 0.198328 112 167 96
-0.423471 0.0960579 0.152131 124 137 116
-0.423413 0.0975873 0.152313 121 150 100
-0.423356 0.0991178 0.152495 123 179 97
-0.423298 0.100649 0.152678 107 157 76
-0.424134 0.10256 0.152451 86 139 70
-0.424975 0.104483 0.152223 68 123 61
-0.42582 0.106417 0.151995 52 108 49
-0.426215 0.108165 0.151972 40 103 44
-0.426157 0.109716 0.152157 48 115 50
-0.426098 0.111269 0.152342 68 127 57
-0.426039 0.112823 0.152527 58 114 52
-0.42598 0.114378 0.152713 50 103 45
-0.424565 0.115308 0.153513 46 106 41
-0.421386 0.115402 0.155112 44 107 41
-0.414415 0.11368 0.158424 44 107 42
-0.412677 0.114384 0.159363 42 109 45
-0.411786 0.115481 0.159918 46 114 48
-0.4109 0.116573 0.160471 50 115 49
-0.410019 0.11766 0.16102 42 112 49
-0.409963 0.119149 0.161198 48 119 52
-0.409496 0.120434 0.16156 72 137 65
-0.407808 0.121098 0.16247 66 129 58
-0.406138 0.121756 0.163371 54 116 50
-0.404882 0.122614 0.164084 48 114 47
-0.403637 0.123466 0.164792 50 120 49
-0.400841 0.123493 0.166193 54 122 52
-0.398477 0.123723 0.167397 55 121 52
-0.397281 0.124557 0.168079 54 123 53
-0.396848 0.125792 0.168419 57 121 54
-0.39604 0.12682 0.168926 50 115 52
-0.39449 0.127433 0.169762 51 116 51
-0.392955 0.128042 0.170591 66 131 59
-0.392534 0.129259 0.170923 90 153 71
-0.392113 0.130475 0.171255 95 152 71
-0.392059 0.131897 0.171425 86 150 71
-0.390548 0.132483 0.172239 99 164 87
-0.386208 0.131416 0.174301 116 170 101
-0.385454 0.132402 0.174778 130 164 106
-0.382971 0.132365 0.176015 130 144 102
-0.381549 0.132934 0.176783 113 117 98
-0.380479 0.133702 0.177395 102 115 84
-0.380426 0.135076 0.177558 82 115 64
-0.3797 0.136039 0.178018 59 114 51
-0.378977 0.137 0.178476 49 118 49
-0.377592 0.137544 0.179223 64 131 56
-0.376879 0.138496 0.179675 89 151 72
-0.376498 0.139651 0.179981 98 154 79
-0.375463 0.140389 0.180572 105 154 85
-0.374759 0.14133 0.181018 109 147 92
-0.374059 0.142267 0.181462 106 120 95
-0.37272 0.142784 0.182183 104 107 95
-0.363535 0.142165 0.186713 97 107 90
-0.363186 0.143271 0.186998 82 109 70
-0.362541 0.144172 0.187411 67 111 56
-0.361013 0.144464 0.188204 56 113 49
-0.360085 0.145156 0.188737 55 119 49
-0.359453 0.146046 0.189142 76 135 62
-0.359404 0.147339 0.189296 91 148 73
-0.359356 0.148633 0.18945 102 154 83
-0.358438 0.149311 0.189977 111 152 93
-0.357813 0.15019 0.190377 109 132 103
-0.357192 0.151066 0.190776 107 119 106
-0.356288 0.151734 0.191294 106 111 106
-0.354548 0.151781 0.192169 104 107 104
-0.353384 0.152236 0.192796 102 107 102
-0.352506 0.152892 0.193301 98 106 101
-0.351907 0.15375 0.193686 95 105 99
-0.351039 0.1544 0.194186 94 102 93
-0.349635 0.154638 0.194911 90 106 78
-0.349587 0.155895 0.195061 79 111 64
-0.345419 0.157821 0.197338 85 143 73
-0.345372 0.159063 0.197486 112 164 91
-0.345325 0.160306 0.197634 124 167 94
-0.421022 0.0970933 0.151862 124 143 111
-0.420524 0.0984348 0.152248 124 171 98
-0.420027 0.0997737 0.152632 120 170 86
-0.419969 0.101296 0.152813 107 152 79
-0.422562 0.103958 0.15177 85 135 69
-0.424296 0.106274 0.151126 66 118 56
-0.42514 0.108217 0.150893 55 111 50
-0.425081 0.109769 0.151078 60 119 53
-0.425022 0.111322 0.151262 74 129 58
-0.424963 0.112876 0.151447 77 127 59
-0.424903 0.114431 0.151632 78 125 57
-0.423942 0.115569 0.152231 71 118 51
-0.419008 0.114839 0.154648 59 109 49
-0.415924 0.114938 0.156214 53 106 46
-0.412897 0.115036 0.157751 46 108 47
-0.411168 0.115733 0.158693 49 112 48
-0.410696 0.117027 0.15906 51 113 48
-0.410226 0.11832 0.159426 42 109 48
-0.409756 0.119609 0.159792 36 108 44
-0.409288 0.120897 0.160156 66 131 58
-0.409231 0.12239 0.160334 65 128 58
-0.408355 0.123465 0.160883 51 111 47
-0.405464 0.123491 0.162344 42 107 41
-0.403812 0.124136 0.163242 40 111 42
-0.402571 0.124984 0.163953 41 114 47
-0.398629 0.124384 0.165882 43 116 49
-0.397048 0.125014 0.166743 50 116 49
-0.396236 0.126047 0.167256 54 119 52
-0.395804 0.127281 0.167597 54 116 50
-0.395373 0.128513 0.167937 50 112 49
-0.393082 0.128707 0.169113 61 124 55
-0.391923 0.129516 0.169778 82 144 65
-0.391136 0.130525 0.170276 87 147 69
-0.391082 0.131948 0.170445 71 134 62
-0.38525 0.131465 0.17334 89 156 82
-0.385197 0.132863 0.173506 104 167 96
-0.383055 0.133025 0.174603 113 171 105
-0.380945 0.133186 0.175684 118 166 102
-0.380213 0.134158 0.17615 121 151 90
-0.379485 0.135125 0.176614 94 130 68
-0.379432 0.1365 0.176777 63 117 51
-0.379043 0.137669 0.17709 49 115 46
-0.378655 0.138835 0.177402 58 125 55
-0.378268 0.14 0.177714 87 149 72
-0.377882 0.141163 0.178025 95 152 76
-0.375515 0.141062 0.179209 101 155 81
-0.374158 0.141587 0.179946 107 151 88
-0.373458 0.142525 0.180393 113 139 100
-0.37244 0.143251 0.180979 108 117 101
-0.363542 0.142818 0.185426 100 109 94
-0.362594 0.143521 0.185974 87 111 75
-0.362246 0.144626 0.18626 69 110 59
-0.361602 0.145525 0.186675 56 111 49
-0.360079 0.145811 0.187471 54 117 46
-0.359154 0.146499 0.188007 70 132 59
-0.358814 0.147591 0.188287 87 145 70
-0.358475 0.148681 0.188567 100 152 80
-0.358425 0.149976 0.188721 107 152 90
-0.357511 0.15065 0.18925 110 139 105
-0.357174 0.151735 0.189528 110 125 108
-0.356268 0.152402 0.190052 108 114 108
-0.354521 0.152445 0.190937 107 111 106
-0.353632 0.153105 0.191452 104 110 104
-0.352196 0.15335 0.192201 101 109 102
-0.35023 0.153185 0.193177 99 106 99
-0.34883 0.153428 0.193907 96 105 95
-0.348514 0.154481 0.194172 91 105 81
-0.348466 0.155738 0.194321 78 108 64
-0.34815 0.156789 0.194585 63 111 51
-0.347569 0.157632 0.194963 56 114 50
-0.344886 0.156831 0.196237 67 125 59
-0.344578 0.157869 0.196495 86 142 73
-0.344531 0.159111 0.196643 113 163 91
-0.344484 0.160354 0.196791 122 166 93
-0.344436 0.161598 0.196939 114 145 89
-0.41865 0.0966034 0.151415 127 137 120
-0.418157 0.0979402 0.151799 119 148 102
-0.417664 0.0992744 0.152182 120 167 95
-0.417606 0.100791 0.152362 126 170 90
-0.418853 0.102871 0.151933 106 154 82
-0.421882 0.105741 0.150675 82 132 67
-0.423164 0.107873 0.150233 71 125 58
-0.424005 0.109821 0.149998 78 138 63
-0.423946 0.111375 0.150182 90 150 71
-0.423886 0.112929 0.150367 92 149 71
-0.423826 0.114484 0.150551 91 146 69
-0.421973 0.115206 0.151567 83 137 64
-0.418822 0.115301 0.153182 73 126 58
-0.41573 0.115396 0.154766 64 116 52
-0.413965 0.116099 0.155734 57 109 50
-0.411382 0.116389 0.157079 54 109 45
-0.410077 0.117281 0.157833 52 111 47
-0.410019 0.11878 0.15801 43 107 46
-0.409548 0.120072 0.158378 40 105 41
-0.409079 0.121363 0.158745 63 124 52
-0.40861 0.122651 0.159112 66 128 59
-0.408143 0.123937 0.159477 52 108 46
-0.407269 0.125008 0.160029 42 103 39
-0.404388 0.125021 0.161497 38 105 38
-0.402742 0.12566 0.162399 37 109 42
-0.401504 0.126502 0.163114 40 110 45
-0.396433 0.125269 0.165574 44 111 45
-0.395999 0.126508 0.165918 47 115 48
-0.395189 0.127538 0.166433 53 116 50
-0.395134 0.12898 0.166604 44 110 45
-0.393955 0.129794 0.167285 54 119 50
-0.392045 0.130187 0.168297 72 135 61
-0.390889 0.130991 0.168965 80 141 68
-0.384237 0.132912 0.172544 73 143 72
-0.382793 0.133485 0.173337 82 148 76
-0.379999 0.133236 0.174735 86 145 75
-0.379946 0.134616 0.174899 88 143 75
-0.379216 0.135585 0.175367 71 128 60
-0.378826 0.136756 0.175682 55 116 49
-0.378437 0.137926 0.175996 47 112 48
-0.378385 0.139303 0.176159 54 121 55
-0.378332 0.140681 0.176323 84 145 68
-0.374531 0.142475 0.178436 102 155 84
-0.373178 0.142994 0.179177 114 155 98
-0.371838 0.14351 0.179911 119 142 105
-0.370193 0.143812 0.180779 111 122 106
-0.366702 0.142872 0.182464 105 114 105
-0.363248 0.143271 0.184263 100 111 98
-0.362597 0.144178 0.184684 93 112 84
-0.361949 0.145082 0.185104 71 109 61
-0.361304 0.145982 0.185522 56 109 48
-0.360958 0.147085 0.185807 52 115 46
-0.359437 0.147363 0.18661 64 128 57
-0.358803 0.148253 0.187021 86 143 69
-0.358172 0.14914 0.18743 98 152 79
-0.357833 0.150231 0.187711 104 153 88
-0.357495 0.15132 0.187991 115 147 103
-0.356869 0.152199 0.188397 114 127 109
-0.356247 0.153075 0.188801 113 119 110
-0.353932 0.1527 0.189943 110 116 109
-0.353043 0.15336 0.190461 106 114 106
-0.352161 0.154016 0.190976 103 110 103
-0.349645 0.153437 0.1922 99 108 101
-0.347978 0.153476 0.193053 96 106 96
-0.347662 0.154529 0.193318 92 105 85
-0.347347 0.15558 0.193583 77 107 65
-0.346767 0.156425 0.193962 64 110 52
-0.345398 0.156652 0.194682 55 113 49
-0.344045 0.156878 0.195394 66 123 60
-0.343738 0.157916 0.195653 88 142 76
-0.34369 0.159158 0.1958 112 162 90
-0.343383 0.160195 0.196059 120 165 93
-0.343336 0.161437 0.196207 117 150 91
-0.416239 0.0976296 0.151151 123 135 115
-0.416181 0.0991428 0.15133 109 138 91
-0.416122 0.100657 0.15151 120 166 94
-0.416064 0.102172 0.151689 122 170 96
-0.416005 0.103689 0.151869 97 144 80
-0.420755 0.107333 0.149786 83 140 67
-0.42248 0.109673 0.149129 89 156 73
-0.422869 0.111427 0.149102 97 166 80
-0.422809 0.112982 0.149286 98 162 78
-0.4223 0.11433 0.149681 97 158 75
-0.421346 0.115466 0.150283 91 149 70
-0.418197 0.11556 0.151912 83 139 65
-0.415536 0.115857 0.153309 73 126 59
-0.41462 0.11697 0.15389 68 118 54
-0.41286 0.117665 0.154864 68 116 51
-0.410285 0.117944 0.156215 65 114 50
-0.409812 0.119242 0.156587 63 109 46
-0.408926 0.120331 0.157149 63 109 44
-0.408456 0.121623 0.157518 64 119 51
-0.408398 0.123122 0.157696 68 129 61
-0.40793 0.124411 0.158064 55 109 48
-0.407462 0.125697 0.158431 48 102 41
-0.406183 0.126553 0.159173 41 103 38
-0.40371 0.126765 0.160465 40 105 39
-0.40246 0.127608 0.161191 42 106 41
-0.400436 0.128022 0.162273 41 107 41
-0.395383 0.126765 0.164747 44 110 41
-0.39495 0.128003 0.165092 53 113 48
-0.394142 0.129031 0.165609 42 106 43
-0.394086 0.130473 0.165779 43 109 46
-0.394031 0.131917 0.16595 60 124 57
-0.383224 0.134361 0.171748 54 123 53
-0.380071 0.133897 0.173323 60 126 56
-0.379 0.134665 0.17395 60 127 57
-0.378946 0.136046 0.174114 57 120 51
-0.378219 0.137013 0.174583 52 114 49
-0.37783 0.138184 0.174898 46 112 46
-0.377441 0.139353 0.175213 51 119 48
-0.377388 0.140731 0.175377 77 137 60
-0.372302 0.141686 0.178086 93 153 79
-0.371928 0.142834 0.178392 104 161 91
-0.371554 0.14398 0.178697 117 165 104
-0.367705 0.142822 0.180562 124 150 109
-0.36672 0.143539 0.181139 118 133 105
-0.365129 0.143838 0.181986 111 120 102
-0.363254 0.143931 0.18296 105 113 98
-0.3623 0.144635 0.183519 101 110 86
-0.36195 0.145745 0.183809 75 109 60
-0.361601 0.146854 0.184098 57 110 48
-0.360955 0.147753 0.184519 49 114 48
-0.360607 0.148858 0.184806 59 123 56
-0.360261 0.149961 0.185093 87 142 69
-0.359327 0.150642 0.18564 95 150 76
-0.357239 0.150487 0.186699 102 153 86
-0.356901 0.151577 0.18698 111 151 99
-0.356563 0.152666 0.187261 113 132 109
-0.355369 0.153124 0.18792 114 122 111
-0.353622 0.153162 0.188822 112 117 110
-0.353011 0.15403 0.189222 106 115 107
-0.352126 0.154687 0.189742 104 112 105
-0.350147 0.154511 0.190742 101 110 102
-0.347393 0.153726 0.192081 98 108 97
-0.34681 0.154576 0.192464 95 105 87
-0.346496 0.155628 0.19273 78 104 64
-0.345917 0.156473 0.19311 64 106 52
-0.344553 0.1567 0.193834 56 111 48
-0.343463 0.157129 0.194437 63 120 58
-0.343155 0.158168 0.194697 88 142 75
-0.342849 0.159206 0.194957 110 160 88
-0.342543 0.160242 0.195217 119 166 93
-0.342495 0.161485 0.195364 121 154 94
-0.414273 0.0988299 0.150684 111 131 101
-0.414214 0.10034 0.150863 106 141 89
-0.413729 0.101666 0.151245 121 168 92
-0.414097 0.103364 0.15122 101 155 85
-0.414894 0.105257 0.150992 88 149 73
-0.420069 0.109126 0.148685 87 161 75
-0.421345 0.111277 0.148234 90 166 78
-0.421285 0.112829 0.148418 92 162 76
-0.421672 0.11459 0.148389 95 160 75
-0.420273 0.115519 0.149206 94 154 73
-0.418886 0.116442 0.150017 88 148 71
-0.417074 0.11715 0.151027 81 139 65
-0.414422 0.117435 0.152431 79 134 62
-0.413508 0.118545 0.153014 76 130 61
-0.412599 0.11965 0.153594 72 127 60
-0.41254 0.121171 0.153774 68 125 58
-0.412905 0.122906 0.153755 64 124 58
-0.393094 0.130524 0.164784 35 101 42
-0.393038 0.131969 0.164954 50 113 50
-0.379407 0.135539 0.172379 44 115 46
-0.378675 0.13651 0.172854 50 115 47
-0.377946 0.137478 0.173327 53 114 49
-0.37722 0.138442 0.173799 45 111 44
-0.376832 0.139613 0.174115 49 116 46
-0.376445 0.140781 0.17443 67 129 56
-0.327967 0.111226 0.196694 86 152 74
-0.327923 0.112366 0.196828 83 141 71
-0.327878 0.113506 0.196963 77 140 70
-0.327834 0.114647 0.197098 84 153 79
-0.32779 0.115788 0.197233 100 168 94
-0.367102 0.143078 0.179504 117 168 104
-0.365809 0.143588 0.180225 113 154 102
-0.364529 0.144093 0.18094 114 147 102
-0.363563 0.144801 0.18151 117 140 98
-0.362302 0.145299 0.182213 113 129 85
-0.361651 0.146206 0.18264 84 119 61
-0.361301 0.147317 0.182931 58 112 51
-0.360951 0.148426 0.183221 47 112 50
-0.360603 0.149533 0.183511 57 120 56
-0.360551 0.15085 0.183666 86 141 66
-0.3605 0.152168 0.183822 93 147 73
-0.358386 0.151999 0.184903 99 151 82
-0.356305 0.151834 0.185966 105 151 92
-0.355681 0.152714 0.186377 111 141 108
-0.355059 0.153591 0.186786 113 127 112
-0.354156 0.154255 0.187319 113 120 112
-0.352699 0.154496 0.188099 111 117 110
-0.351812 0.155153 0.188624 109 114 106
-0.350105 0.155181 0.189513 106 112 103
-0.347074 0.154182 0.190988 102 110 97
-0.345958 0.154624 0.19161 96 106 87
-0.345644 0.155676 0.191876 80 104 65
-0.345331 0.156726 0.192142 63 105 52
-0.344492 0.157363 0.192639 54 109 48
-0.343138 0.157585 0.193364 59 116 56
-0.342572 0.158421 0.19374 86 141 74
-0.342008 0.159253 0.194114 106 158 87
-0.341702 0.16029 0.194374 118 165 94
-0.341654 0.161533 0.194521 124 159 95
-0.413225 0.0988805 0.149632 118 133 111
-0.413166 0.100391 0.149811 107 133 87
-0.412682 0.101717 0.150193 117 164 87
-0.412623 0.103228 0.150371 103 164 89
-0.412989 0.104928 0.150346 88 155 72
-0.413782 0.106827 0.150115 80 155 67
-0.418939 0.110723 0.147793 78 155 70
-0.420655 0.113087 0.147125 80 155 71
-0.420594 0.114643 0.147308 83 154 71
-0.420534 0.1162 0.147492 86 152 71
-0.418697 0.116914 0.148523 83 147 70
-0.417756 0.118041 0.149126 80 140 65
-0.41595 0.118741 0.150141 78 136 63
-0.414593 0.119645 0.15094 74 130 61
-0.413247 0.120543 0.151732 69 125 58
-0.414904 0.122931 0.151097 68 123 57
-0.343363 0.103037 0.186636 31 96 37
-0.343316 0.104241 0.186778 47 108 45
-0.342753 0.105149 0.187162 63 121 53
-0.342706 0.106352 0.187304 60 118 50
-0.342401 0.107405 0.187566 43 99 35
-0.342098 0.108457 0.187827 33 99 31
-0.380108 0.138027 0.170797 42 111 42
-0.378687 0.138576 0.171595 52 113 48
-0.378633 0.139968 0.171759 44 109 43
-0.376221 0.139873 0.173013 42 110 45
-0.328141 0.110707 0.195358 55 121 55
-0.327188 0.111268 0.195912 82 142 68
-0.327143 0.112407 0.196047 80 136 67
-0.327099 0.113547 0.196181 66 125 58
-0.327054 0.114688 0.196316 61 127 59
-0.32701 0.11583 0.19645 68 142 71
-0.364898 0.143637 0.179312 93 158 87
-0.363927 0.144349 0.17989 99 154 88
-0.363569 0.145472 0.180187 101 147 86
-0.362607 0.146176 0.18076 93 137 76
-0.362555 0.147503 0.180916 69 119 54
-0.361599 0.1482 0.181485 49 112 46
-0.360948 0.149103 0.181914 43 111 47
-0.360002 0.149792 0.182477 53 119 54
-0.359654 0.150899 0.182767 83 138 62
-0.359603 0.152217 0.182922 90 145 70
-0.355472 0.150584 0.184927 94 149 76
-0.355421 0.151883 0.18508 99 151 86
-0.354799 0.152763 0.185492 113 151 105
-0.354463 0.15385 0.185774 116 136 112
-0.353844 0.154725 0.186184 116 126 113
-0.353228 0.155596 0.186591 113 119 111
-0.351775 0.155831 0.187375 111 115 107
-0.350062 0.155854 0.188275 107 114 106
-0.348101 0.155671 0.189285 102 111 99
-0.345636 0.15508 0.190518 96 108 87
-0.345057 0.155928 0.190904 82 106 66
-0.344744 0.15698 0.191171 63 105 54
-0.344168 0.157823 0.191555 53 108 51
-0.343334 0.158456 0.192053 57 116 57
-0.342245 0.15888 0.192665 85 141 74
-0.341423 0.159507 0.193157 104 157 86
-0.340862 0.160337 0.193532 119 167 95
-0.340558 0.161373 0.193792 132 168 98
-0.412176 0.0989312 0.14858 125 134 118
-0.412117 0.100442 0.148758 115 136 96
-0.411634 0.101768 0.149142 128 168 85
-0.411998 0.103466 0.149114 106 175 96
-0.411939 0.10498 0.149292 97 163 79
-0.412729 0.106879 0.149058 89 157 72
-0.417868 0.110776 0.146719 79 150 69
-0.420471 0.113553 0.145612 72 145 65
-0.420409 0.115113 0.145795 70 143 64
-0.420348 0.116674 0.145979 69 141 64
-0.418507 0.117387 0.147022 69 134 61
-0.417564 0.118517 0.14763 69 130 57
-0.417503 0.120068 0.147812 68 127 57
-0.416565 0.121189 0.148417 67 126 57
-0.416504 0.122739 0.148599 66 124 56
-0.343099 0.102167 0.185419 50 106 43
-0.342277 0.102933 0.185928 44 100 41
-0.341973 0.103989 0.186191 57 111 47
-0.341926 0.105191 0.186333 65 119 53
-0.341622 0.106245 0.186595 60 114 50
-0.341064 0.107148 0.186978 46 101 37
-0.341017 0.108349 0.187119 37 97 31
-0.340715 0.109398 0.187381 37 101 31
-0.375942 0.140345 0.171753 38 105 42
-0.328732 0.111625 0.193933 50 116 50
-0.327314 0.111892 0.194708 73 131 61
-0.327042 0.112889 0.194949 74 131 62
-0.326544 0.113736 0.195294 59 115 53
-0.326274 0.11473 0.195533 50 113 51
-0.326229 0.115872 0.195668 49 117 52
-0.363935 0.14502 0.178555 69 135 64
-0.362966 0.145729 0.179136 71 135 66
-0.362914 0.147061 0.179293 67 128 61
-0.362861 0.148394 0.17945 58 116 51
-0.362505 0.149516 0.179747 47 110 46
-0.361545 0.150209 0.180322 41 109 47
-0.359995 0.150474 0.181167 50 117 52
-0.312641 0.117928 0.203052 75 135 64
-0.312599 0.119012 0.203179 86 147 70
-0.312158 0.119808 0.203489 86 148 72
-0.312514 0.121183 0.203435 94 151 82
-0.353916 0.152811 0.184608 110 158 99
-0.353865 0.15411 0.184761 118 152 112
-0.353247 0.154985 0.185172 120 142 114
-0.352631 0.155857 0.185583 119 130 111
-0.352018 0.156726 0.185991 114 119 107
-0.35002 0.156533 0.187029 108 116 105
-0.348596 0.156762 0.187804 105 111 99
-0.347189 0.15699 0.18857 98 108 87
-0.344733 0.156388 0.18981 85 106 69
-0.344419 0.157441 0.190078 64 103 56
-0.343842 0.158285 0.190465 52 106 53
-0.343268 0.159126 0.19085 54 116 58
-0.341918 0.159341 0.191585 83 139 72
-0.341094 0.159968 0.192081 103 156 86
-0.340532 0.1608 0.192459 118 166 95
-0.339972 0.161628 0.192835 128 167 97
-0.411128 0.0989818 0.147528 129 140 126
-0.411068 0.100492 0.147705 126 145 110
-0.411008 0.102004 0.147883 146 182 91
-0.410948 0.103517 0.148061 116 182 98
-0.410889 0.105031 0.148238 111 176 87
-0.411676 0.10693 0.148001 110 179 88
-0.419452 0.112047 0.144344 103 168 79
-0.421185 0.114438 0.14365 92 152 70
-0.420223 0.115586 0.144274 80 140 65
-0.419713 0.116939 0.144676 68 131 60
-0.418316 0.117864 0.145511 63 126 57
-0.418254 0.119423 0.145694 61 124 56
-0.41775 0.120767 0.146093 63 125 55
-0.418131 0.122545 0.146061 64 127 57
-0.342576 0.101149 0.184322 73 118 55
-0.341755 0.101919 0.184834 72 114 53
-0.341194 0.10283 0.185221 65 112 52
-0.340891 0.103885 0.185484 65 115 51
-0.340844 0.105086 0.185626 65 118 54
-0.340796 0.106288 0.185767 61 113 52
-0.340239 0.10719 0.186151 54 103 45
-0.339938 0.108241 0.186413 50 100 40
-0.339132 0.108987 0.186915 44 102 36
-0.338582 0.10988 0.187294 40 102 36
-0.328911 0.111103 0.192573 35 101 38
-0.328404 0.111961 0.192927 46 109 44
-0.327899 0.112817 0.193279 64 122 55
-0.327625 0.113819 0.193522 67 127 59
-0.326668 0.114371 0.194086 57 109 48
-0.325944 0.115069 0.194539 43 107 42
-0.325673 0.116063 0.194779 39 109 39
-0.325628 0.117207 0.194914 42 111 39
-0.36297 0.146406 0.177798 49 113 45
-0.362918 0.147743 0.177955 51 113 48
-0.362865 0.149081 0.178112 52 113 49
-0.362507 0.150205 0.178412 49 108 47
-0.361544 0.150899 0.178993 38 108 44
-0.312946 0.117598 0.20172 45 116 49
-0.311903 0.117968 0.202312 66 129 60
-0.311861 0.119053 0.202439 83 144 69
-0.311818 0.120138 0.202567 80 141 68
-0.311576 0.121077 0.202786 83 148 76
-0.353034 0.15286 0.183723 92 159 89
-0.352982 0.154158 0.183876 113 169 107
-0.352931 0.155458 0.184028 118 160 110
-0.352314 0.156331 0.184441 119 149 111
-0.3517 0.157201 0.184853 118 137 108
-0.351089 0.158068 0.185263 115 128 103
-0.349097 0.157866 0.186306 111 118 97
-0.347679 0.158089 0.187085 101 111 87
-0.345205 0.157472 0.188346 85 107 73
-0.344622 0.158321 0.188738 64 102 55
-0.343779 0.158958 0.18925 49 105 52
-0.34294 0.159591 0.189758 51 115 57
-0.342629 0.16064 0.190026 80 135 69
-0.341021 0.16064 0.190883 103 156 85
-0.340201 0.161263 0.191382 117 166 94
-0.339385 0.161884 0.191877 124 163 96
-0.410019 0.100543 0.146652 134 157 120
-0.409959 0.102055 0.14683 161 200 100
-0.409898 0.103568 0.147007 123 183 94
-0.409838 0.105082 0.147184 112 178 86
-0.410622 0.106982 0.146944 110 185 92
-0.419587 0.11585 0.142965 85 146 71
-0.41863 0.116992 0.143589 73 134 64
-0.418123 0.118343 0.143992 67 128 58
-0.417617 0.119692 0.144394 67 125 54
-0.417555 0.121254 0.144577 65 123 54
-0.341489 0.101047 0.183614 73 124 60
-0.340671 0.101816 0.184128 68 123 60
-0.339859 0.102581 0.184639 63 119 57
-0.339557 0.103634 0.184902 65 118 55
-0.340018 0.105128 0.184797 69 120 56
-0.339462 0.106033 0.185183 70 119 57
-0.339161 0.107083 0.185446 71 116 55
-0.338861 0.108133 0.185708 69 113 50
-0.33831 0.109029 0.18609 61 112 45
-0.337512 0.109772 0.186591 55 108 44
-0.337215 0.110814 0.186851 49 103 40
-0.336671 0.111702 0.187229 44 102 39
-0.328629 0.110284 0.191425 44 104 45
-0.328121 0.111145 0.191781 31 95 35
-0.327845 0.112151 0.192026 40 102 41
-0.32757 0.113156 0.192271 55 115 51
-0.327066 0.11401 0.192624 63 121 56
-0.326792 0.115011 0.192868 56 104 46
-0.325387 0.11526 0.193648 40 101 36
-0.325116 0.116255 0.193889 35 103 32
-0.324846 0.117249 0.19413 35 106 33
-0.324577 0.118242 0.19437 36 107 37
-0.361952 0.14913 0.177197 46 110 46
-0.361899 0.150469 0.177354 51 108 47
-0.361542 0.151593 0.177654 34 107 41
-0.313412 0.118503 0.200409 41 112 46
-0.312362 0.118872 0.20101 59 123 57
-0.312318 0.119962 0.201138 81 139 68
-0.312275 0.121053 0.201266 78 134 63
-0.311433 0.121556 0.201768 71 131 63
-0.311988 0.123089 0.201615 71 136 69
-0.351996 0.156807 0.183295 109 163 103
-0.351944 0.158108 0.183448 112 154 102
-0.347304 0.159843 0.186113 76 115 69
-0.345631 0.159844 0.187015 58 103 48
-0.343979 0.159846 0.187904 44 104 50
-0.343136 0.160479 0.188419 51 114 57
-0.342561 0.16132 0.18881 77 130 66
-0.341727 0.161947 0.189319 103 156 85
-0.339868 0.16173 0.190299 117 165 93
-0.339051 0.16235 0.190799 123 162 95
-0.408969 0.100594 0.145599 137 166 123
-0.40849 0.101921 0.145987 166 213 109
-0.408848 0.103619 0.145953 127 183 90
-0.409208 0.105323 0.14592 105 171 84
-0.410415 0.10742 0.145464 103 176 88
