ply
format ascii 1.0
element vertex 1180
property float x
property float y
property float z
property uchar diffuse_red
property uchar diffuse_green
property uchar diffuse_blue
end_header
-0.377792 -0.0914369 -0.00652327 97 109 108
-0.378138 -0.0898756 -0.00685604 94 105 105
-0.378485 -0.0883081 -0.00718979 93 101 102
-0.378384 -0.086651 -0.00702844 91 103 102
-0.378732 -0.0850736 -0.0073628 86 105 102
-0.379986 -0.0836473 -0.00869719 83 99 98
-0.381252 -0.082206 -0.0100445 86 99 96
-0.381608 -0.0806 -0.0103872 83 98 98
-0.382427 -0.0790597 -0.0112403 86 97 98
-0.383251 -0.0775082 -0.0120989 77 100 99
-0.383613 -0.0758779 -0.0124475 77 97 98
-0.383977 -0.074241 -0.0127972 86 100 97
-0.384341 -0.0725977 -0.0131478 88 103 98
-0.384707 -0.0709478 -0.0134996 82 100 101
-0.385074 -0.0692913 -0.0138523 82 99 104
-0.384969 -0.067574 -0.0136851 80 89 103
-0.385337 -0.0659068 -0.0140385 73 89 99
-0.386181 -0.0642818 -0.014917 71 89 90
-0.387031 -0.0626448 -0.0158011 69 88 90
-0.387886 -0.0609956 -0.0166911 71 89 91
-0.38778 -0.0592524 -0.0165214 76 93 95
-0.389127 -0.0576222 -0.0179517 73 95 96
-0.390487 -0.0559743 -0.0193964 70 90 94
-0.393357 -0.0544079 -0.0225035 68 84 92
-0.395267 -0.0527463 -0.0245522 66 85 92
-0.396689 -0.0510325 -0.0260632 67 83 92
-0.397093 -0.0492497 -0.0264527 64 75 89
-0.397498 -0.0474594 -0.0268435 57 77 84
-0.397905 -0.0456617 -0.0272356 55 71 80
-0.397794 -0.043841 -0.0270583 55 69 78
-0.398722 -0.0420439 -0.0280234 53 68 79
-0.402837 -0.04029 -0.0324934 52 72 80
-0.403261 -0.0384397 -0.0329027 60 78 82
-0.404226 -0.0365846 -0.033907 66 82 85
-0.404654 -0.0347153 -0.0343206 64 85 89
-0.405629 -0.0328344 -0.0353352 62 83 89
-0.406611 -0.0309388 -0.0363569 64 82 90
-0.408155 -0.0290177 -0.0379955 61 79 91
-0.410279 -0.0270603 -0.0402701 58 77 91
-0.410727 -0.0251265 -0.0407038 60 80 89
-0.411745 -0.0231629 -0.0417632 58 80 86
-0.412198 -0.0212087 -0.0422017 55 76 84
-0.412653 -0.019246 -0.0426416 55 77 83
-0.413109 -0.0172748 -0.043083 55 77 84
-0.412991 -0.015331 -0.0428937 53 72 82
-0.413448 -0.0133464 -0.0433362 50 69 78
-0.41333 -0.0113963 -0.0431463 51 71 79
-0.413211 -0.00944494 -0.0429563 52 73 80
-0.413092 -0.00749226 -0.0427662 45 69 74
-0.41355 -0.00548427 -0.0432087 42 67 72
-0.413431 -0.00352533 -0.043018 50 68 74
-0.413312 -0.00156507 -0.0428271 60 77 79
-0.413192 0.000396488 -0.0426361 63 81 79
-0.303252 0.0127529 0.078583 24 42 53
-0.302928 0.0139949 0.0789772 30 44 56
-0.302849 0.0152951 0.0791038 25 47 56
-0.300367 0.0357936 0.0824561 33 49 53
-0.300769 0.0372736 0.0820596 30 46 59
-0.30093 0.0386733 0.0819246 30 46 56
-0.301335 0.0401675 0.0815255 29 44 59
-0.301741 0.0416697 0.0811246 30 47 55
-0.302641 0.0433694 0.0801878 33 42 51
-0.303301 0.0449892 0.0795118 30 44 48
-0.303716 0.0465224 0.0791019 32 44 49
-0.304133 0.0480641 0.0786901 31 39 39
-0.304052 0.0494077 0.0788209 27 28 21
-0.30397 0.0507522 0.0789518 26 29 24
-0.303888 0.0520977 0.0790828 27 26 23
-0.303557 0.0533363 0.0794847 28 26 23
-0.302978 0.0544638 0.0801551 30 24 25
-0.302156 0.055477 0.0810895 31 21 23
-0.299646 0.055717 0.0838553 32 26 26
-0.297665 0.056168 0.0860463 30 27 23
-0.297116 0.0572617 0.0866832 33 28 20
-0.296337 0.0582411 0.0875695 35 34 20
-0.296026 0.0594363 0.0879483 33 31 21
-0.295484 0.0605173 0.0885764 33 29 24
-0.294488 0.0613682 0.0896978 29 33 30
-0.293726 0.0623253 0.0905635 37 31 27
-0.292746 0.0631627 0.0916667 34 29 24
-0.292443 0.0643372 0.092035 34 32 27
-0.292142 0.06551 0.0924026 36 31 26
-0.292063 0.0667985 0.092528 38 31 26
-0.408937 0.147898 -0.0334647 20 33 31
-0.40881 0.149991 -0.0332609 32 50 43
-0.408682 0.152085 -0.033057 37 57 53
-0.409714 0.15489 -0.0341057 31 50 54
-0.409586 0.156995 -0.0339007 36 52 58
-0.409458 0.159102 -0.0336956 46 51 54
-0.377879 0.151179 0.000773192 33 46 44
-0.37636 0.152138 0.00247167 36 44 40
-0.375318 0.153402 0.00365599 34 39 40
-0.374282 0.15466 0.00483248 38 39 41
-0.372799 0.155594 0.00649136 61 51 48
-0.37178 0.156837 0.00764899 93 69 59
-0.370321 0.157755 0.00928057 115 82 69
-0.368877 0.158665 0.0108962 130 92 78
-0.36701 0.159251 0.012966 142 102 83
-0.364738 0.159516 0.0154712 150 108 88
-0.362502 0.159778 0.0179364 158 109 92
-0.361971 0.161284 0.0185663 165 113 93
-0.361441 0.162787 0.0191944 172 116 95
-0.359669 0.163339 0.0211596 173 115 96
-0.357512 0.163571 0.0235377 174 115 96
-0.35619 0.164424 0.0250164 175 116 96
-0.356081 0.166211 0.0251904 176 116 96
-0.355171 0.167366 0.0262259 177 115 96
-0.355063 0.16915 0.0263997 179 117 94
-0.354954 0.170935 0.0265735 178 110 91
-0.351868 0.174014 0.0300593 186 115 97
-0.349826 0.174169 0.0323083 192 118 98
-0.348573 0.174963 0.0337094 194 120 98
-0.347332 0.17575 0.035098 193 119 97
-0.34836 0.178468 0.0340507 193 119 98
-0.347874 0.179894 0.0346282 196 122 95
-0.347013 0.180989 0.035608 192 119 95
-0.345784 0.18175 0.0369821 197 125 102
-0.344936 0.182833 0.0379477 197 122 101
-0.34263 0.182603 0.0404747 198 124 101
-0.341801 0.183673 0.0414186 199 126 101
-0.341336 0.185065 0.0419721 197 122 97
-0.341232 0.186784 0.0421394 194 118 94
-0.341487 0.188836 0.0419213 186 111 90
-0.342105 0.191233 0.041315 184 112 89
-0.343092 0.193989 0.0403144 185 115 91
-0.343719 0.196422 0.0396989 186 115 93
-0.34435 0.198872 0.0390799 183 110 91
-0.344614 0.20098 0.0388544 178 103 83
-0.344507 0.202735 0.0390253 179 106 84
-0.34403 0.20413 0.0395919 175 105 82
-0.343555 0.205523 0.0401569 171 102 81
-0.342714 0.206548 0.0411117 167 100 79
-0.341516 0.207206 0.0424485 160 97 76
-0.34141 0.20895 0.0426183 161 95 76
-0.34203 0.211432 0.0420127 162 95 76
-0.372539 0.255038 0.00980635 145 85 69
-0.372419 0.257023 0.00999963 143 84 69
-0.372761 0.259509 0.00969927 137 84 69
-0.37264 0.2615 0.00989316 131 83 68
-0.372518 0.263493 0.0100872 122 83 70
-0.371935 0.264978 0.0107741 112 84 74
-0.371813 0.26697 0.0109681 104 89 84
-0.371692 0.268963 0.0111622 102 101 98
-0.37111 0.270441 0.0118465 101 110 107
-0.370989 0.272434 0.0120405 100 114 111
-0.370868 0.274428 0.0122347 99 114 115
-0.370288 0.275898 0.0129165 98 115 114
-0.370167 0.277892 0.0131106 97 114 112
-0.370045 0.279887 0.0133049 97 113 112
-0.369924 0.281884 0.0134993 101 114 112
-0.251472 -0.135137 0.129679 112 103 88
-0.250904 -0.133965 0.130343 106 100 87
-0.250596 -0.132968 0.130714 101 96 86
-0.250418 -0.132055 0.130939 100 95 86
-0.367723 -0.190502 -0.000813895 96 99 93
-0.367631 -0.189009 -0.000668946 97 100 94
-0.368355 -0.18798 -0.00144045 98 100 94
-0.368672 -0.186712 -0.00175501 101 102 94
-0.36899 -0.185439 -0.00207043 93 101 93
-0.369722 -0.184389 -0.00285064 79 98 90
-0.36963 -0.182878 -0.00270388 68 81 78
-0.370365 -0.181815 -0.00348823 61 70 69
-0.371524 -0.18097 -0.00474773 58 66 66
-0.372271 -0.179891 -0.00554424 59 68 67
-0.3726 -0.178582 -0.00586985 59 70 67
-0.372506 -0.177047 -0.0057208 59 71 67
-0.372412 -0.175512 -0.00557165 61 71 69
-0.372318 -0.173975 -0.00542239 62 72 70
-0.370964 -0.171801 -0.00385722 63 72 71
-0.369208 -0.16944 -0.00184184 63 72 72
-0.368292 -0.16751 -0.000769599 63 73 74
-0.36779 -0.165791 -0.000162181 63 75 75
-0.368106 -0.16447 -0.000474321 64 77 75
-0.368013 -0.162949 -0.000326549 65 78 75
-0.367511 -0.161233 0.000280479 66 79 76
-0.367418 -0.159712 0.000428228 71 81 78
-0.367325 -0.158189 0.000576077 73 83 80
-0.366825 -0.156481 0.00118109 73 85 82
-0.366732 -0.154959 0.0013289 74 85 85
-0.366639 -0.153436 0.00147681 77 88 87
-0.366953 -0.15209 0.00116844 80 90 88
-0.366859 -0.150563 0.00131678 82 89 89
-0.366766 -0.149035 0.0014652 84 89 91
-0.36708 -0.147677 0.00115661 83 91 93
-0.367806 -0.146486 0.000387512 83 94 94
-0.367712 -0.144947 0.000536923 85 96 96
-0.368441 -0.143741 -0.000236257 86 94 95
-0.36876 -0.142361 -0.000549409 86 97 95
-0.368666 -0.140813 -0.000399018 87 99 97
-0.368985 -0.139424 -0.000712745 88 97 100
-0.369723 -0.13819 -0.00149412 85 94 97
-0.370046 -0.136789 -0.00181081 87 97 93
-0.36995 -0.135226 -0.00165909 92 100 93
-0.368191 -0.133055 0.000354434 97 95 100
-0.367684 -0.131352 0.000967001 99 105 100
-0.367589 -0.129799 0.00111787 95 104 102
-0.367083 -0.128101 0.00172856 92 102 102
-0.366988 -0.126548 0.00187938 95 104 100
-0.366893 -0.124995 0.00203029 99 102 104
-0.367209 -0.123576 0.00172227 96 103 104
-0.367114 -0.122017 0.00187362 95 107 104
-0.36743 -0.12059 0.00156511 95 109 105
-0.369829 -0.119811 -0.0010716 97 103 106
-0.371421 -0.118753 -0.00280538 103 104 106
-0.372176 -0.117422 -0.00360299 102 109 104
-0.374666 -0.116595 -0.00633851 101 112 105
-0.37676 -0.115623 -0.0086317 101 109 106
-0.376661 -0.113997 -0.00847382 101 103 105
-0.376561 -0.112371 -0.00831586 102 105 105
-0.376462 -0.110743 -0.00815778 96 109 106
-0.376805 -0.109233 -0.00849323 96 111 105
-0.376705 -0.1076 -0.0083347 97 110 106
-0.376163 -0.105853 -0.00768289 95 106 106
-0.376063 -0.104221 -0.0075244 97 102 102
-0.375964 -0.102588 -0.00736577 94 105 104
-0.375424 -0.100849 -0.00671628 97 106 104
-0.374886 -0.0991139 -0.00606873 95 106 107
-0.374786 -0.0974827 -0.0059103 92 106 106
-0.374686 -0.0958505 -0.00575179 92 105 102
-0.375024 -0.0943117 -0.00608138 98 106 102
-0.375804 -0.0928594 -0.00690303 99 109 104
-0.376589 -0.0913967 -0.00772984 93 107 108
-0.376488 -0.089747 -0.00756961 92 104 104
-0.376831 -0.0881817 -0.00790435 91 103 101
-0.377623 -0.0866935 -0.00873808 85 105 101
-0.37797 -0.0851135 -0.00907609 80 103 102
-0.38013 -0.0838437 -0.0114342 83 97 99
-0.380485 -0.0822414 -0.0117797 86 100 96
-0.380382 -0.0805581 -0.0116162 85 98 99
-0.381657 -0.0790898 -0.0129868 88 102 99
-0.38248 -0.0775357 -0.013853 81 104 97
-0.382376 -0.0758352 -0.0136878 78 97 101
-0.382737 -0.0741982 -0.0140399 83 96 102
-0.383099 -0.0725547 -0.014393 87 99 99
-0.383462 -0.0709045 -0.0147472 84 101 99
-0.383827 -0.0692478 -0.0151024 79 103 98
-0.383722 -0.0675304 -0.0149356 71 90 94
-0.384087 -0.065863 -0.0152915 74 86 91
-0.384927 -0.0642377 -0.0161745 69 93 91
-0.385772 -0.0626004 -0.0170633 74 90 92
-0.386622 -0.0609509 -0.0179579 77 94 94
-0.387479 -0.0592893 -0.0188584 75 95 95
-0.387372 -0.0575389 -0.0186884 70 91 92
-0.38872 -0.0558932 -0.0201348 66 86 90
-0.391071 -0.0542954 -0.0226931 65 84 91
-0.393966 -0.0526996 -0.0258559 66 85 89
-0.394871 -0.0509577 -0.0268079 66 83 90
-0.395782 -0.0492024 -0.0277663 61 77 91
-0.396185 -0.0474119 -0.0281598 55 74 88
-0.396588 -0.045614 -0.0285546 57 76 80
-0.396477 -0.0437931 -0.0283777 53 75 78
-0.3974 -0.0419958 -0.0293479 56 72 78
-0.401496 -0.040241 -0.0338371 58 80 81
-0.402453 -0.0383967 -0.0348436 56 74 83
-0.402877 -0.036535 -0.0352587 55 70 77
-0.403302 -0.0346654 -0.0356752 54 66 76
-0.404272 -0.0327842 -0.036695 49 65 77
-0.405797 -0.0308811 -0.0383302 46 67 74
-0.407339 -0.0289561 -0.0399829 41 67 75
-0.408898 -0.0270089 -0.0416535 42 68 78
-0.409907 -0.0250569 -0.0427151 49 71 81
-0.410924 -0.0230894 -0.0437843 51 71 80
-0.411376 -0.0211313 -0.0442277 52 69 78
-0.41183 -0.0191647 -0.0446726 53 72 79
-0.411711 -0.017222 -0.0444839 52 75 80
-0.412166 -0.015242 -0.0449299 51 71 78
-0.412047 -0.0132931 -0.0447406 51 69 76
-0.411927 -0.0113429 -0.0445512 49 70 77
-0.411808 -0.00939137 -0.0443616 43 70 76
-0.411689 -0.00743854 -0.044172 39 68 73
-0.412721 -0.00537596 -0.0452553 45 68 73
-0.412601 -0.00341324 -0.0450646 56 70 77
-0.411904 -0.00151075 -0.0442369 58 76 79
-0.411785 0.000450963 -0.0440464 54 69 74
-0.302325 0.0127906 0.0776547 22 48 56
-0.302245 0.0140916 0.077781 26 44 51
-0.302166 0.0153934 0.0779075 29 44 49
-0.299361 0.0371406 0.0816558 40 48 56
-0.29976 0.0386249 0.0812572 36 51 54
-0.29992 0.0400272 0.081121 35 48 52
-0.299839 0.0413422 0.0812487 34 54 53
-0.300483 0.0429383 0.0805827 36 46 52
-0.301864 0.044836 0.0791068 34 46 51
-0.302275 0.0463653 0.0786966 32 45 53
-0.302687 0.0479029 0.0782845 27 32 34
-0.302853 0.0493461 0.0781428 31 28 20
-0.302771 0.0506891 0.0782733 31 27 21
-0.302442 0.051927 0.0786753 25 26 21
-0.302112 0.0531629 0.0790764 25 25 22
-0.301293 0.05418 0.0800143 29 27 21
-0.299995 0.0549734 0.0814765 33 27 20
-0.297999 0.0554334 0.0837029 29 28 23
-0.296507 0.0561009 0.0853769 32 27 22
-0.295497 0.0569762 0.086522 31 30 22
-0.295186 0.0581721 0.0869016 33 28 20
-0.294876 0.0593662 0.0872804 30 35 27
-0.294109 0.0603343 0.0881592 34 30 25
-0.293121 0.0611842 0.0892796 32 30 25
-0.292591 0.0622529 0.0898987 34 32 27
-0.291839 0.0632035 0.0907595 33 29 28
-0.29176 0.0644933 0.0908848 32 29 28
-0.291459 0.0656674 0.0912538 34 28 26
-0.29138 0.0669575 0.0913791 36 29 23
-0.293551 0.0694588 0.0890454 37 31 24
-0.407472 0.147965 -0.0349306 16 21 22
-0.407344 0.150059 -0.0347273 24 30 33
-0.40837 0.152855 -0.035783 39 46 50
-0.408242 0.154959 -0.0355786 44 49 53
-0.407535 0.156705 -0.0347442 31 50 53
-0.407984 0.159171 -0.0351695 31 48 50
-0.37655 0.151242 -0.000556528 27 32 31
-0.374114 0.151574 0.00215279 31 35 32
-0.372172 0.152212 0.00432436 34 33 34
-0.371153 0.153465 0.00549044 50 37 40
-0.370589 0.155026 0.00616154 78 57 53
-0.369136 0.155951 0.00779989 105 77 65
-0.367697 0.156869 0.00942221 123 86 73
-0.366272 0.15778 0.0110288 135 96 81
-0.363575 0.157744 0.0140176 146 106 84
-0.361348 0.158019 0.0164938 155 109 88
-0.359985 0.158908 0.0180311 161 110 93
-0.35946 0.160409 0.0186574 167 112 93
-0.358114 0.161282 0.0201749 172 115 95
-0.355972 0.161529 0.0225565 175 114 95
-0.355059 0.162699 0.0236028 176 117 96
-0.354152 0.163862 0.0246426 176 118 96
-0.35325 0.165019 0.0256761 176 117 96
-0.352354 0.16617 0.0267033 176 116 96
-0.351854 0.167629 0.0273005 179 117 95
-0.351746 0.1694 0.0274726 179 114 93
-0.348824 0.170716 0.0307502 184 119 97
-0.347575 0.171523 0.0321579 188 119 98
-0.347091 0.172955 0.0327374 192 119 99
-0.346232 0.174066 0.033722 194 119 98
-0.345751 0.175491 0.0342968 194 118 98
-0.34416 0.175954 0.0360742 193 121 100
-0.345538 0.178977 0.0346354 197 125 99
-0.344687 0.18007 0.0356103 196 123 98
-0.342742 0.180184 0.0377707 194 125 103
-0.341185 0.180619 0.0395092 193 120 99
-0.340361 0.181692 0.040454 193 122 99
-0.339542 0.182761 0.0413934 194 127 101
-0.339437 0.184473 0.0415597 198 124 99
-0.339332 0.186186 0.0417261 195 118 94
-0.339941 0.188564 0.0411214 187 111 89
-0.340194 0.19062 0.0409015 180 110 86
-0.340808 0.193024 0.0402919 181 112 88
-0.341788 0.19579 0.0392863 182 113 90
-0.343145 0.198934 0.0378749 178 109 89
-0.343406 0.201042 0.0376472 174 104 84
-0.343299 0.202798 0.0378177 175 103 82
-0.343191 0.204555 0.0379884 174 103 82
-0.342716 0.205949 0.0385562 169 101 80
-0.340787 0.205887 0.040693 162 98 77
-0.340319 0.207269 0.0412519 154 95 76
-0.339853 0.208648 0.0418093 156 95 76
-0.339746 0.21039 0.0419785 156 92 74
-0.371301 0.253127 0.00825515 143 84 67
-0.37118 0.255111 0.00844782 140 85 67
-0.371059 0.257096 0.00864062 138 86 68
-0.371398 0.259582 0.00833751 130 82 67
-0.371276 0.261573 0.00853091 121 81 68
-0.370694 0.26306 0.00921986 113 82 72
-0.370573 0.265051 0.00941321 106 86 79
-0.370451 0.267043 0.0096067 105 99 94
-0.369871 0.268523 0.0102931 107 111 106
-0.369749 0.270514 0.0104865 106 116 112
-0.369171 0.271988 0.0111705 103 115 112
-0.36905 0.27398 0.0113639 102 116 115
-0.368928 0.275972 0.0115574 101 116 114
-0.368352 0.277439 0.0122389 99 115 113
-0.367778 0.278902 0.0129182 97 113 112
-0.367206 0.280361 0.0135954 101 113 110
-0.250848 -0.135121 0.129053 105 97 82
-0.25041 -0.134034 0.129573 103 96 83
-0.250231 -0.133119 0.129799 99 92 82
-0.25018 -0.132287 0.12988 97 91 81
-0.366297 -0.191726 -0.00161665 97 100 92
-0.366206 -0.190236 -0.00147236 98 99 94
-0.366518 -0.188979 -0.00178606 97 100 95
-0.366832 -0.187717 -0.00210064 97 101 95
-0.367553 -0.186681 -0.00287792 97 102 94
-0.367869 -0.185408 -0.00319541 84 93 90
-0.368186 -0.18413 -0.0035138 66 79 84
-0.368094 -0.182621 -0.00336761 61 72 71
-0.369236 -0.181784 -0.0046212 59 68 65
-0.369973 -0.180714 -0.00541411 60 67 65
-0.370296 -0.179413 -0.00573848 59 68 66
-0.37062 -0.178107 -0.00606374 59 70 67
-0.370526 -0.176577 -0.00591548 60 71 68
-0.370432 -0.175045 -0.00576716 62 72 69
-0.369921 -0.1733 -0.00514625 62 74 69
-0.368996 -0.171348 -0.00405782 60 75 70
-0.367258 -0.168997 -0.00204773 62 73 71
-0.367165 -0.167478 -0.0019006 64 75 74
-0.366664 -0.165759 -0.00129183 65 79 77
-0.366571 -0.16424 -0.00114471 64 77 75
-0.366477 -0.162721 -0.00099753 67 79 76
-0.365978 -0.161008 -0.000390772 71 84 78
-0.36548 -0.1593 0.000214236 71 85 81
-0.365387 -0.157782 0.000361269 71 86 83
-0.365294 -0.156263 0.000508405 72 86 84
-0.364798 -0.154561 0.00111143 73 85 84
-0.365107 -0.153223 0.000802961 76 90 86
-0.365418 -0.151879 0.000493671 77 90 86
-0.36573 -0.15053 0.000183533 78 88 87
-0.365636 -0.149001 0.000331606 81 91 91
-0.365542 -0.147472 0.000479763 79 93 90
-0.365854 -0.146111 0.000169399 78 93 90
-0.367395 -0.145251 -0.00152962 80 92 92
-0.367301 -0.143707 -0.00138002 86 93 92
-0.367206 -0.142162 -0.00123031 88 97 93
-0.367523 -0.140778 -0.00154526 88 100 96
-0.367428 -0.139229 -0.00139514 89 99 99
-0.367745 -0.137837 -0.00171069 88 94 95
-0.369312 -0.136911 -0.00343656 91 99 94
-0.367142 -0.134574 -0.000944181 94 105 96
-0.366636 -0.132869 -0.000330077 92 104 101
-0.366541 -0.131317 -0.000179685 97 101 100
-0.366036 -0.129618 0.000432528 99 101 99
-0.365941 -0.128066 0.000582895 100 103 98
-0.365846 -0.126513 0.000733349 100 104 99
-0.36575 -0.124959 0.000883906 100 104 102
-0.365655 -0.123404 0.00103455 97 104 103
-0.365968 -0.121981 0.000724715 95 109 104
-0.365872 -0.120422 0.000875815 95 111 105
-0.366186 -0.11899 0.000565486 97 102 107
-0.368156 -0.118067 -0.00161091 99 99 104
-0.369735 -0.116999 -0.00334564 99 103 103
-0.370483 -0.115663 -0.00414389 101 109 104
-0.371662 -0.114442 -0.00542817 104 110 105
-0.374155 -0.113582 -0.00818996 106 105 105
-0.374055 -0.111963 -0.0080331 103 107 105
-0.373956 -0.110343 -0.00787616 101 109 106
-0.37473 -0.108957 -0.00870235 102 112 107
-0.37463 -0.10733 -0.00854469 102 113 108
-0.374093 -0.105589 -0.00789503 100 110 108
-0.373993 -0.103962 -0.0077374 102 106 103
-0.373893 -0.102334 -0.00757968 102 110 108
-0.373793 -0.100705 -0.00742186 102 110 108
-0.373258 -0.0989726 -0.00677461 100 108 109
-0.373158 -0.0973439 -0.00661682 98 106 107
-0.373058 -0.0957142 -0.00645894 97 107 102
-0.372958 -0.0940833 -0.00630094 98 105 100
-0.373729 -0.0926348 -0.00712106 94 102 102
-0.374944 -0.091266 -0.00844066 89 100 103
-0.375284 -0.0897066 -0.00877675 91 100 101
-0.376069 -0.0882267 -0.0096124 89 103 100
-0.376859 -0.0867362 -0.0104534 84 101 99
-0.378104 -0.0853166 -0.0118058 80 98 98
-0.379362 -0.0838819 -0.0131714 83 99 99
-0.379259 -0.0821996 -0.0130084 84 103 100
-0.379612 -0.0805907 -0.0133573 85 101 100
-0.380424 -0.0790476 -0.0142224 90 101 97
-0.381243 -0.0774932 -0.015093 86 102 97
-0.381138 -0.0757926 -0.0149283 83 102 100
-0.381497 -0.0741554 -0.0152828 85 102 101
-0.381856 -0.0725116 -0.0156383 85 102 101
-0.381752 -0.070802 -0.0154727 82 102 100
-0.382112 -0.0691477 -0.015829 76 98 96
-0.382474 -0.0674868 -0.0161863 67 87 92
-0.382837 -0.0658192 -0.0165447 70 90 92
-0.3832 -0.0641449 -0.0169041 72 90 94
-0.384038 -0.0625099 -0.0177943 77 97 96
-0.385358 -0.0609063 -0.0192249 77 95 95
-0.38573 -0.0592034 -0.0195921 70 90 93
-0.385623 -0.0574559 -0.0194228 66 88 91
-0.386476 -0.0557772 -0.0203299 63 87 90
-0.388799 -0.0541837 -0.0228816 60 83 88
-0.392162 -0.0526225 -0.0265969 60 80 86
-0.393565 -0.0509107 -0.0281167 62 81 88
-0.394471 -0.0491551 -0.0290801 59 79 90
-0.394871 -0.0473644 -0.0294763 55 72 85
-0.395272 -0.0455663 -0.0298738 54 72 79
-0.39516 -0.0437452 -0.0296974 53 75 80
-0.396595 -0.0419599 -0.0312514 60 79 81
-0.400155 -0.040192 -0.0351809 54 72 82
-0.401107 -0.0383473 -0.0361926 48 71 78
-0.401528 -0.0364854 -0.0366106 40 71 78
-0.402489 -0.0346151 -0.0376325 37 63 72
-0.402914 -0.032734 -0.038055 32 61 70
-0.404981 -0.0308233 -0.0403107 31 60 68
-0.405966 -0.0289051 -0.0413586 31 60 66
-0.408077 -0.0269431 -0.0436627 29 57 67
-0.408521 -0.0250051 -0.0441042 27 58 69
-0.4101 -0.0230156 -0.0458129 32 64 70
-0.410551 -0.0210536 -0.0462613 38 68 73
-0.410431 -0.0191121 -0.0460732 39 70 76
-0.410883 -0.0171367 -0.0465227 37 68 76
-0.410764 -0.0151889 -0.046334 42 69 74
-0.410644 -0.0132399 -0.0461452 47 70 75
-0.410525 -0.0112895 -0.0459562 38 67 76
-0.410405 -0.00933781 -0.0457672 37 67 73
-0.410857 -0.00733418 -0.0462163 46 67 74
-0.411311 -0.00532185 -0.0466669 59 71 77
-0.411191 -0.00335901 -0.0464768 59 82 81
-0.411071 -0.00139479 -0.0462864 57 78 80
-0.410377 0.000505471 -0.0454568 53 69 74
-0.301805 0.0142477 0.0763107 22 42 51
-0.301481 0.015492 0.076708 25 48 50
-0.298036 0.039709 0.0812447 40 52 64
-0.297956 0.0410178 0.0813715 39 52 63
-0.298113 0.0424199 0.0812358 41 55 56
-0.299467 0.0443002 0.0797751 35 53 60
-0.300841 0.0462089 0.0782931 38 59 56
-0.301248 0.0477425 0.0778807 30 30 25
-0.301412 0.0491821 0.0777386 29 28 22
-0.30133 0.0505219 0.0778684 32 27 21
-0.301248 0.0518627 0.0779983 29 26 22
-0.300675 0.0529904 0.0786699 29 29 22
-0.299379 0.0537911 0.0801416 28 28 23
-0.298337 0.0546907 0.0813319 30 27 25
-0.29613 0.0550448 0.08381 31 26 27
-0.295351 0.056034 0.0847089 31 30 28
-0.294347 0.0569086 0.0858555 31 30 24
-0.294038 0.0581034 0.0862351 32 30 24
-0.293501 0.0591855 0.0868659 33 31 27
-0.292967 0.0602635 0.0874938 32 27 22
-0.291985 0.0611128 0.0886157 33 25 22
-0.291681 0.0622937 0.0889885 34 27 24
-0.291378 0.0634727 0.0893605 32 26 26
-0.290853 0.0645342 0.0899771 31 30 24
-0.290774 0.0658251 0.0901022 30 28 22
-0.290695 0.0671169 0.0902273 31 28 21
-0.292634 0.0695005 0.0881272 33 29 22
-0.293236 0.0711811 0.087502 35 30 24
-0.295696 0.0739031 0.0848282 38 32 25
-0.40658 0.148376 -0.0370287 14 23 24
-0.407027 0.150821 -0.0374594 16 23 26
-0.406898 0.152923 -0.0372556 25 33 39
-0.406194 0.154672 -0.0364187 42 46 51
-0.406065 0.156773 -0.0362151 50 48 44
-0.370977 0.150395 0.00283143 29 26 27
-0.369514 0.151345 0.00449361 34 28 29
-0.368066 0.152286 0.00613952 58 44 44
-0.36751 0.153839 0.00680468 90 66 59
-0.366518 0.155075 0.00794905 113 81 69
-0.365098 0.155993 0.00956229 128 91 77
-0.362412 0.155974 0.0125647 140 99 83
-0.360194 0.156262 0.0150521 149 105 87
-0.358836 0.157158 0.0165957 158 109 90
-0.357491 0.158046 0.0181247 165 112 95
-0.355754 0.158621 0.0200831 170 115 95
-0.35524 0.160107 0.020699 174 119 97
-0.353134 0.160362 0.0230613 175 116 96
-0.352629 0.161834 0.023667 173 116 96
-0.351342 0.162688 0.0251305 172 114 95
-0.348527 0.162315 0.0282667 175 115 96
-0.348038 0.163763 0.0288546 180 118 97
-0.34755 0.165208 0.0294408 184 119 97
-0.346686 0.166342 0.0304391 185 119 96
-0.346579 0.168088 0.0306082 187 122 95
-0.346095 0.169523 0.0311894 188 120 97
-0.345988 0.171269 0.0313585 188 119 97
-0.345132 0.172384 0.0323469 189 119 98
-0.344653 0.17381 0.0329232 191 117 97
-0.343068 0.174282 0.0347083 191 116 95
-0.34223 0.17538 0.0356765 191 119 98
-0.340673 0.175841 0.0374295 196 126 102
-0.339492 0.176611 0.038772 197 124 101
-0.339387 0.178324 0.0389379 193 124 103
-0.33857 0.1794 0.0398811 191 119 98
-0.338112 0.18079 0.0404334 190 118 97
-0.337302 0.181856 0.0413682 191 123 98
-0.337198 0.183561 0.0415334 195 125 98
-0.337093 0.185267 0.0416987 194 119 95
-0.337692 0.187632 0.0410962 188 112 89
-0.338649 0.190346 0.0401025 177 107 85
-0.3389 0.192406 0.0398808 178 109 85
-0.340229 0.195506 0.038483 180 110 85
-0.342306 0.19935 0.0362698 174 106 83
-0.342566 0.201462 0.036039 171 102 82
-0.342458 0.203221 0.0362093 173 102 82
-0.34235 0.204981 0.0363798 172 101 80
-0.341875 0.206376 0.0369505 168 98 77
-0.340672 0.207038 0.0383133 159 94 74
-0.339481 0.207695 0.0396639 148 91 72
-0.339015 0.209076 0.040224 152 94 73
-0.33855 0.210453 0.0407826 152 90 71
-0.339159 0.212937 0.0401718 150 88 71
-0.371446 0.252679 0.00520067 143 84 66
-0.370401 0.253689 0.00639752 139 84 65
-0.37074 0.25617 0.00608929 136 85 65
-0.370617 0.258162 0.0062823 131 83 65
-0.370035 0.259655 0.00697552 123 80 65
-0.369455 0.261144 0.00766651 113 80 69
-0.369333 0.263133 0.00785926 107 85 78
-0.369211 0.265124 0.00805214 106 94 89
-0.369088 0.267117 0.00824516 109 108 103
-0.36851 0.268596 0.00893335 111 116 110
-0.367934 0.270072 0.00961936 111 117 113
-0.367812 0.272062 0.00981215 108 115 113
-0.367238 0.273533 0.0104958 107 117 114
-0.367115 0.275522 0.0106886 109 117 113
-0.366543 0.276987 0.0113698 107 115 113
-0.36508 0.277399 0.0130171 102 115 113
-0.363192 0.277288 0.0151244 101 112 112
-0.250224 -0.135105 0.128426 98 89 75
-0.249788 -0.134018 0.128947 98 91 77
-0.249609 -0.133103 0.129174 97 90 77
-0.249685 -0.132354 0.129108 95 90 75
-0.36568 -0.193424 -0.00333577 98 101 92
-0.365186 -0.191696 -0.00273152 99 102 94
-0.365095 -0.190207 -0.0025876 99 101 95
-0.365405 -0.188949 -0.00290332 98 102 95
-0.365716 -0.187687 -0.00321996 95 101 94
-0.366434 -0.186651 -0.00400101 84 96 88
-0.366748 -0.185378 -0.00432056 71 84 80
-0.367063 -0.184099 -0.00464102 60 71 72
-0.36697 -0.18259 -0.0044952 59 66 66
-0.367696 -0.181528 -0.00528455 60 65 64
-0.368426 -0.180459 -0.00607867 62 69 64
-0.368746 -0.179159 -0.00640387 60 67 67
-0.368652 -0.177634 -0.00625654 60 66 68
-0.368558 -0.176109 -0.00610912 62 68 67
-0.368051 -0.174368 -0.00549008 62 72 70
-0.367957 -0.172842 -0.0053427 61 72 72
-0.367863 -0.171316 -0.00519521 59 69 74
-0.366131 -0.168965 -0.00317853 62 75 73
-0.365631 -0.167244 -0.00256826 65 77 74
-0.365133 -0.165527 -0.00195976 67 75 77
-0.365039 -0.164011 -0.00181325 68 78 76
-0.364543 -0.1623 -0.00120663 73 79 79
-0.364047 -0.160593 -0.000601758 79 80 82
-0.363554 -0.15889 1.39107e-06 75 88 85
-0.36346 -0.157377 0.000147615 72 89 84
-0.363367 -0.155863 0.000293958 72 88 83
-0.362875 -0.154166 0.00089508 76 85 82
-0.36318 -0.152831 0.000586909 78 83 83
-0.363487 -0.15149 0.000277843 78 85 84
-0.363794 -0.150145 -3.20378e-05 78 88 85
-0.3637 -0.148621 0.000115219 76 90 90
-0.364411 -0.147438 -0.000654358 76 92 90
-0.364317 -0.145908 -0.000506449 78 93 89
-0.365032 -0.144711 -0.00128009 80 94 90
-0.364937 -0.143174 -0.00113154 84 93 92
-0.366065 -0.142128 -0.00237461 87 96 93
-0.36597 -0.140581 -0.00222519 86 99 92
-0.366284 -0.139194 -0.00254193 83 98 94
-0.36784 -0.13828 -0.00427078 88 90 93
-0.368159 -0.136876 -0.00459298 94 97 95
-0.368063 -0.135311 -0.00444177 98 105 98
-0.365493 -0.132834 -0.00147656 94 104 100
-0.364989 -0.131134 -0.000862824 98 102 99
-0.364894 -0.129583 -0.00071293 101 106 97
-0.364798 -0.128031 -0.000562931 103 108 97
-0.364703 -0.126477 -0.000412847 105 107 100
-0.364607 -0.124923 -0.000262659 102 109 103
-0.364511 -0.123368 -0.000112386 100 106 104
-0.364415 -0.121812 3.80096e-05 98 109 104
-0.364319 -0.120255 0.00018849 98 110 103
-0.36463 -0.118825 -0.000122805 100 105 103
-0.364941 -0.11739 -0.000434935 98 100 102
-0.366901 -0.116453 -0.00261936 97 103 103
-0.368053 -0.115248 -0.00388498 101 110 104
-0.368794 -0.113908 -0.00468396 106 112 105
-0.36954 -0.112558 -0.00548789 108 105 104
-0.370716 -0.111318 -0.00678072 103 109 102
-0.371045 -0.109829 -0.0071106 104 109 106
-0.372236 -0.108567 -0.00841914 105 111 108
-0.372136 -0.106947 -0.00826261 105 114 109
-0.372036 -0.105326 -0.00810599 103 115 108
-0.371936 -0.103704 -0.00794925 103 115 108
-0.371836 -0.102081 -0.00779243 102 108 110
-0.371736 -0.100457 -0.00763548 100 109 108
-0.370776 -0.0986298 -0.00650372 101 105 108
-0.370677 -0.0970087 -0.00634707 103 105 106
-0.371436 -0.0955783 -0.00716404 101 109 103
-0.371335 -0.0939499 -0.00700668 95 106 103
-0.371666 -0.0924117 -0.00733789 89 99 101
-0.373304 -0.0911358 -0.00914937 85 96 101
-0.374079 -0.0896662 -0.00998404 86 99 100
-0.37486 -0.0881861 -0.010824 85 100 100
-0.376539 -0.086863 -0.0126812 86 97 100
-0.377787 -0.0854392 -0.0140493 87 95 99
-0.378136 -0.0838403 -0.0144 89 101 99
-0.378487 -0.082235 -0.0147517 86 104 104
-0.378383 -0.0805488 -0.0145887 87 101 103
-0.379192 -0.0790054 -0.0154582 86 96 99
-0.379546 -0.0773809 -0.015813 83 96 98
-0.379901 -0.07575 -0.0161689 82 96 97
-0.380257 -0.0741125 -0.0165259 80 97 97
-0.380152 -0.0724067 -0.016361 78 97 98
-0.380508 -0.0707588 -0.0167187 76 95 98
-0.380403 -0.0690479 -0.0165533 73 91 95
-0.380761 -0.0673894 -0.0169117 69 86 92
-0.38112 -0.0657243 -0.0172711 70 88 92
-0.38148 -0.0640525 -0.0176316 77 91 92
-0.38231 -0.0624197 -0.018523 75 92 94
-0.383619 -0.0608182 -0.0199553 69 88 92
-0.384463 -0.0591585 -0.0208618 62 86 87
-0.384833 -0.0574486 -0.0212327 59 81 84
-0.384725 -0.0556968 -0.0210634 58 77 83
-0.386543 -0.0540727 -0.0230691 56 73 83
-0.390863 -0.0525759 -0.0278988 57 71 82
-0.392259 -0.0508637 -0.0294257 57 72 80
-0.392653 -0.0490833 -0.0298217 55 73 79
-0.393048 -0.0472954 -0.030219 53 69 77
-0.393955 -0.0455186 -0.0311932 53 72 79
-0.393843 -0.0436974 -0.0310172 54 74 83
-0.395271 -0.0419117 -0.0325786 55 72 80
-0.399343 -0.0401523 -0.0371224 46 69 77
-0.39976 -0.0382979 -0.0375419 48 70 79
-0.400713 -0.0364386 -0.0385658 44 72 82
-0.401134 -0.0345652 -0.0389898 40 70 75
-0.402097 -0.03268 -0.0400242 42 69 72
-0.403613 -0.0307726 -0.0416812 35 64 71
-0.405698 -0.0288323 -0.0439799 33 64 69
-0.406693 -0.0268915 -0.045049 33 60 68
-0.407696 -0.0249352 -0.0461258 31 57 66
-0.408705 -0.0229633 -0.0472103 27 55 67
-0.409153 -0.0210011 -0.0476617 23 53 67
-0.409602 -0.0190303 -0.0481147 25 56 66
-0.409482 -0.0170837 -0.0479266 27 62 67
-0.409362 -0.0151358 -0.0477384 32 66 69
-0.409242 -0.0131866 -0.04755 39 65 70
-0.409122 -0.0112361 -0.0473615 40 65 71
-0.409002 -0.00928424 -0.0471729 50 70 73
-0.409451 -0.00728036 -0.0476251 57 77 79
-0.409902 -0.00526774 -0.0480787 59 75 79
-0.409781 -0.00330471 -0.047889 53 71 76
-0.40966 -0.00134037 -0.0476992 51 68 78
-0.408968 0.00055995 -0.0468674 64 70 77
-0.408847 0.00252335 -0.0466777 65 68 73
-0.302345 0.0146444 0.0737325 23 41 46
-0.301038 0.0156518 0.0752329 27 38 46
-0.300714 0.0168969 0.0756319 28 39 52
-0.295857 0.0406068 0.0817536 44 57 65
-0.29601 0.0420002 0.0816189 44 59 64
-0.297104 0.0437722 0.0804335 39 62 64
-0.29869 0.0457605 0.0786989 33 54 59
-0.30006 0.0476831 0.0772071 30 29 24
-0.300221 0.049121 0.0770641 27 31 26
-0.300139 0.0504593 0.0771934 31 26 20
-0.299813 0.0516932 0.0775947 26 30 21
-0.299003 0.0527126 0.078535 27 29 25
-0.29796 0.0536187 0.0797356 28 28 22
-0.296455 0.0543032 0.0814512 31 26 20
-0.294971 0.0549788 0.0831425 34 29 20
-0.294197 0.0559672 0.0840423 33 28 22
-0.293428 0.0569494 0.0849359 32 28 22
-0.292892 0.0580347 0.0855701 33 34 24
-0.292358 0.0591159 0.0862013 36 32 26
-0.291378 0.0599708 0.0873302 37 31 26
-0.290851 0.0610417 0.0879531 39 27 24
-0.290771 0.0623345 0.0880781 32 26 22
-0.290469 0.0635136 0.0884508 31 25 23
-0.290168 0.0646908 0.0888228 31 27 22
-0.290088 0.0659833 0.0889477 30 30 20
-0.29023 0.0673956 0.088826 35 30 19
-0.291716 0.0695421 0.0872089 33 25 20
-0.292541 0.0713481 0.0863273 32 27 23
-0.293835 0.0734288 0.0849253 36 30 22
-0.295616 0.0758049 0.0829818 38 32 25
-0.296241 0.0775476 0.0823244 39 37 32
-0.405685 0.148788 -0.0391348 18 26 27
-0.405555 0.150889 -0.0389318 17 21 23
-0.404853 0.15264 -0.0380923 18 24 27
-0.404724 0.15474 -0.0378893 26 39 38
-0.404594 0.156842 -0.0376862 42 51 50
-0.368325 0.149537 0.00300833 34 31 32
-0.366442 0.150182 0.00514842 49 32 32
-0.365018 0.151123 0.00677984 75 51 49
-0.364471 0.152667 0.00743922 101 73 65
-0.363494 0.153899 0.00857363 119 86 73
-0.36125 0.154204 0.0111127 133 94 80
-0.359041 0.154506 0.0136111 145 103 85
-0.357688 0.155409 0.0151611 154 107 88
-0.355941 0.156001 0.0171469 164 109 93
-0.353815 0.156286 0.0195512 170 114 96
-0.353306 0.15777 0.0201655 173 113 97
-0.352008 0.158644 0.0216537 175 115 97
-0.351112 0.159814 0.0226952 174 114 95
-0.349833 0.160675 0.0241604 172 114 94
-0.347419 0.160623 0.0268812 174 115 95
-0.345798 0.161171 0.0287236 180 117 97
-0.345315 0.162612 0.0293068 185 120 99
-0.345208 0.164353 0.0294751 186 118 98
-0.345101 0.166095 0.0296434 187 118 96
-0.344994 0.167838 0.0298119 187 122 95
-0.345261 0.169895 0.0295667 190 118 96
-0.344779 0.171329 0.0301492 189 117 95
-0.344298 0.17276 0.03073 189 118 97
-0.343078 0.173554 0.0321266 190 116 97
-0.341141 0.173713 0.034315 191 115 95
-0.33995 0.174495 0.035679 190 119 97
-0.338414 0.174959 0.0374236 194 126 103
-0.336546 0.175109 0.0395346 197 123 103
-0.335743 0.176185 0.0404685 196 126 104
-0.335639 0.177882 0.0406325 194 122 101
-0.335882 0.179895 0.0404127 192 118 97
-0.33543 0.181278 0.0409606 191 118 95
-0.334978 0.182657 0.0415071 192 121 94
-0.33522 0.184679 0.0412893 188 118 93
-0.335811 0.187035 0.040687 185 113 90
-0.336406 0.189406 0.0400812 175 106 84
-0.337357 0.192129 0.0390828 172 105 83
-0.338674 0.195223 0.0376819 173 105 82
-0.341098 0.199413 0.0350626 168 99 79
-0.341356 0.201525 0.0348295 169 99 80
-0.341247 0.203284 0.0349995 171 102 80
-0.341139 0.205044 0.0351696 169 99 77
-0.340665 0.206439 0.0357416 164 95 73
-0.340193 0.207832 0.0363121 155 92 70
-0.33936 0.208854 0.0372789 147 88 70
-0.338174 0.209504 0.0386339 151 92 72
-0.338066 0.211252 0.0388027 150 90 71
-0.339759 0.214873 0.0369925 148 87 70
-0.37008 0.252751 0.00383571 137 82 65
-0.369498 0.254252 0.00453333 133 83 65
-0.369375 0.256243 0.00472572 129 82 65
-0.369252 0.258235 0.00491824 124 79 65
-0.36913 0.260229 0.0051109 113 79 67
-0.368093 0.261217 0.00630614 105 83 74
-0.367971 0.263207 0.00649843 102 93 86
-0.367848 0.265198 0.00669083 106 107 98
-0.367272 0.266679 0.00738105 109 113 107
-0.366697 0.268157 0.0080691 109 116 111
-0.366575 0.270146 0.00826126 109 117 112
-0.366002 0.271618 0.00894696 109 115 111
-0.36588 0.273607 0.00913908 107 115 113
-0.365309 0.275074 0.00982238 107 116 115
-0.363852 0.275494 0.0114768 107 117 117
-0.362848 0.27643 0.0126341 103 118 116
-0.361851 0.277361 0.0137839 99 115 115
-0.2496 -0.135089 0.127799 87 80 70
-0.249292 -0.134086 0.128175 91 84 73
-0.249113 -0.13317 0.128402 93 87 75
-0.249062 -0.132338 0.128483 92 88 74
-0.364752 -0.196373 -0.00473926 97 104 95
-0.36466 -0.194884 -0.00459575 97 102 95
-0.364568 -0.193395 -0.00445214 97 102 95
-0.364476 -0.191904 -0.00430843 97 103 94
-0.364384 -0.190412 -0.00416464 95 103 94
-0.364693 -0.189153 -0.00448364 87 95 90
-0.365407 -0.188122 -0.00526897 77 86 83
-0.36572 -0.186852 -0.00559092 70 79 74
-0.366033 -0.185577 -0.00591377 63 73 68
-0.36594 -0.184069 -0.0057684 57 68 65
-0.365846 -0.182559 -0.00562293 58 66 63
-0.366568 -0.181497 -0.0064161 59 66 62
-0.366884 -0.180204 -0.0067413 59 67 63
-0.3672 -0.178906 -0.0070674 60 67 66
-0.367106 -0.177383 -0.00692067 60 68 67
-0.367423 -0.176077 -0.00724734 61 70 69
-0.366918 -0.174336 -0.00662691 61 73 71
-0.366823 -0.17281 -0.00647988 63 73 72
-0.365504 -0.170658 -0.00492289 66 71 72
-0.364599 -0.168729 -0.00384405 65 75 73
-0.364102 -0.167011 -0.00323406 65 76 75
-0.363206 -0.165099 -0.00216508 66 74 80
-0.363112 -0.163587 -0.00201937 70 80 79
-0.363019 -0.162074 -0.00187356 73 82 81
-0.362526 -0.16037 -0.00126893 73 82 82
-0.362035 -0.15867 -0.000666089 69 85 83
-0.361545 -0.156974 -6.49328e-05 69 87 83
-0.361452 -0.155464 8.06034e-05 70 88 83
-0.360963 -0.153774 0.00067992 74 87 85
-0.361265 -0.152442 0.000371943 75 86 85
-0.361567 -0.151105 6.31433e-05 79 88 85
-0.36187 -0.149762 -0.000246449 82 90 87
-0.362174 -0.148415 -0.000556945 76 91 91
-0.362479 -0.147063 -0.000868276 78 89 91
-0.363186 -0.145874 -0.0016411 79 91 90
-0.363091 -0.144342 -0.00149345 77 96 91
-0.362996 -0.14281 -0.00134573 83 89 92
-0.363304 -0.141438 -0.00165931 85 93 91
-0.363612 -0.140062 -0.00197373 85 97 89
-0.363516 -0.138522 -0.00182524 82 93 92
-0.365045 -0.137609 -0.00353939 91 93 93
-0.366179 -0.136526 -0.00480126 97 102 98
-0.364445 -0.134351 -0.00277278 97 110 102
-0.364349 -0.132799 -0.00262321 95 107 102
-0.363847 -0.131099 -0.00200808 99 107 100
-0.363347 -0.129402 -0.00139474 102 109 99
-0.363251 -0.127853 -0.00124535 104 108 98
-0.363155 -0.126302 -0.00109587 103 106 98
-0.362656 -0.124612 -0.000484549 97 108 102
-0.362561 -0.123062 -0.000335085 94 107 107
-0.362465 -0.12151 -0.000185519 92 105 106
-0.362369 -0.119957 -3.58651e-05 96 104 103
-0.362273 -0.118404 0.00011389 104 107 102
-0.362982 -0.117101 -0.00065881 102 105 102
-0.363696 -0.115788 -0.00143616 101 108 105
-0.363599 -0.114222 -0.00128519 100 113 106
-0.364726 -0.113015 -0.00253511 100 112 106
-0.365863 -0.111797 -0.00379658 102 102 103
-0.367011 -0.110565 -0.00506979 102 110 102
-0.36733 -0.109088 -0.00539428 103 110 105
-0.369339 -0.108064 -0.00765193 103 110 106
-0.369665 -0.106567 -0.00798335 104 111 105
-0.369992 -0.105065 -0.00831577 104 114 106
-0.370319 -0.103556 -0.00864912 100 115 108
-0.370219 -0.101936 -0.00849292 100 108 108
-0.370119 -0.100314 -0.0083366 98 109 106
-0.369591 -0.0985907 -0.00769173 101 106 105
-0.369491 -0.0969695 -0.00753546 101 106 105
-0.369391 -0.0953472 -0.00737908 96 108 105
-0.369291 -0.0937238 -0.0072226 89 104 103
-0.370474 -0.0923719 -0.00853308 88 96 99
-0.372103 -0.0910956 -0.0103526 82 96 100
-0.372875 -0.0896258 -0.0111915 82 100 101
-0.374535 -0.0883173 -0.0130456 84 102 102
-0.375322 -0.0868219 -0.0139012 86 98 101
-0.376564 -0.0853978 -0.0152756 87 94 100
-0.376911 -0.0837987 -0.0156287 86 96 99
-0.377259 -0.0821932 -0.0159828 87 96 103
-0.377155 -0.0805068 -0.0158202 87 106 103
-0.377959 -0.0789632 -0.0166942 82 99 101
-0.37831 -0.0773385 -0.0170514 82 93 99
-0.378663 -0.0757073 -0.0174097 78 90 94
-0.379016 -0.0740697 -0.0177692 74 91 93
-0.378911 -0.0723637 -0.0176047 72 93 95
-0.379265 -0.0707156 -0.0179648 70 92 94
-0.379159 -0.0690045 -0.0177999 68 86 90
-0.379515 -0.0673458 -0.0181607 69 87 92
-0.379871 -0.0656805 -0.0185225 71 91 95
-0.380229 -0.0640085 -0.0188855 72 89 92
-0.381054 -0.0623755 -0.0197815 64 82 90
-0.382356 -0.0607735 -0.0212205 59 77 85
-0.383196 -0.0591136 -0.0221317 56 80 81
-0.383563 -0.0574035 -0.0225051 54 78 79
-0.385373 -0.055792 -0.0245211 54 73 80
-0.385264 -0.054027 -0.0243509 54 70 80
-0.388572 -0.0524689 -0.0280719 53 69 79
-0.390451 -0.0507893 -0.030164 52 68 77
-0.39084 -0.0490116 -0.030561 53 71 75
-0.391736 -0.047248 -0.0315336 49 70 76
-0.392638 -0.0454708 -0.0325128 45 70 78
-0.392526 -0.0436495 -0.0323373 50 71 79
-0.394461 -0.0418756 -0.0344915 46 67 74
-0.398528 -0.0401124 -0.039071 41 67 74
-0.398944 -0.0382546 -0.039495 52 72 79
-0.399361 -0.0363889 -0.0399205 46 70 78
-0.400315 -0.0345146 -0.040957 45 67 76
-0.401277 -0.0326257 -0.0420007 45 69 77
-0.40279 -0.0307144 -0.0436718 42 70 75
-0.404873 -0.02877 -0.0459895 46 69 75
-0.405866 -0.0268253 -0.0470684 46 69 78
-0.406867 -0.024865 -0.048155 39 64 75
-0.40731 -0.022911 -0.0486079 36 62 70
-0.407755 -0.0209486 -0.0490623 33 63 67
-0.408201 -0.0189775 -0.0495183 27 60 66
-0.408081 -0.0170308 -0.0493307 26 58 66
-0.40796 -0.0150827 -0.0491429 34 60 66
-0.40784 -0.0131333 -0.048955 49 60 68
-0.407719 -0.0111826 -0.048767 62 68 73
-0.407598 -0.00923064 -0.0485788 63 81 79
-0.408045 -0.0072265 -0.0490341 57 76 81
-0.407923 -0.00526824 -0.0488453 52 69 77
-0.408371 -0.00325044 -0.0493016 53 68 76
-0.408249 -0.00128592 -0.0491122 61 76 77
-0.40756 0.000614462 -0.0482783 61 76 75
-0.406872 0.00250919 -0.0474473 38 58 71
-0.302147 0.0148641 0.0719584 23 41 43
-0.300349 0.0157511 0.0740257 25 42 44
-0.300026 0.0169977 0.0744262 24 39 51
-0.29922 0.0181142 0.0753709 30 43 51
-0.294623 0.0418575 0.0812179 49 65 68
-0.295006 0.0433445 0.080821 45 61 65
-0.295859 0.04503 0.0798951 41 53 62
-0.297671 0.0471263 0.077889 32 33 28
-0.299033 0.04906 0.0763911 30 32 28
-0.29895 0.0503968 0.07652 35 28 22
-0.298144 0.05142 0.0774638 30 28 17
-0.297105 0.0523316 0.0786691 31 25 20
-0.295605 0.0530245 0.080392 34 28 19
-0.294128 0.0537085 0.0820904 32 29 20
-0.293586 0.0548067 0.0827353 32 28 22
-0.293046 0.0559005 0.0833772 32 33 24
-0.292509 0.0569901 0.0840162 32 30 22
-0.291975 0.0580755 0.0846522 34 35 22
-0.291443 0.0591567 0.0852853 39 32 21
-0.290466 0.0600115 0.0864182 43 37 30
-0.289941 0.0610824 0.0870429 42 33 26
-0.289861 0.0623754 0.0871676 35 29 24
-0.28956 0.0635545 0.0875411 32 28 24
-0.289259 0.0647317 0.0879138 32 28 22
-0.2894 0.0661418 0.0877905 42 28 21
-0.28932 0.0674368 0.0879153 40 26 22
-0.2917 0.0700765 0.0852776 32 24 20
-0.292529 0.0718937 0.0843823 30 25 20
-0.293828 0.0739883 0.0829595 35 30 22
-0.294677 0.0758479 0.0820425 36 32 26
-0.295299 0.0775908 0.0813815 43 37 32
-0.295924 0.0793473 0.0807158 45 42 40
-0.404213 0.148856 -0.0406069 23 30 29
-0.403513 0.150609 -0.039765 19 25 24
-0.403383 0.152708 -0.0395627 16 22 24
-0.403253 0.154809 -0.0393602 18 28 29
-0.403123 0.156911 -0.0391576 29 47 43
-0.363957 0.147486 0.00513309 34 40 40
-0.363411 0.149034 0.00579445 58 47 41
-0.362437 0.150275 0.00693353 88 64 54
-0.361896 0.151814 0.007589 109 81 69
-0.360088 0.152436 0.00966139 127 91 76
-0.357888 0.15275 0.0121709 139 96 81
-0.356131 0.15336 0.0141847 149 104 88
-0.3548 0.154263 0.0157216 159 110 91
-0.352683 0.154561 0.0181365 169 113 94
-0.350992 0.155152 0.0200756 172 114 97
-0.35049 0.156628 0.0206848 176 114 98
-0.3496 0.157802 0.0217272 175 113 97
-0.34833 0.158669 0.0231941 173 113 94
-0.346691 0.15923 0.0250727 173 115 93
-0.344697 0.159489 0.0273468 175 117 97
-0.343843 0.160633 0.0283473 179 118 99
-0.342995 0.161772 0.0293417 184 118 98
-0.343257 0.163807 0.0290962 186 118 97
-0.343893 0.166155 0.0284351 188 120 96
-0.341875 0.173614 0.0309235 193 121 99
-0.339226 0.173147 0.033924 194 120 98
-0.337337 0.173309 0.036076 193 120 97
-0.336175 0.174086 0.0374176 193 122 100
-0.334676 0.174549 0.0391338 196 123 103
-0.333881 0.175625 0.0400658 198 125 105
-0.334467 0.177941 0.0394607 196 123 102
-0.333329 0.178695 0.0407742 193 120 97
-0.333567 0.180703 0.0405553 190 117 93
-0.332778 0.181762 0.0414809 189 115 91
-0.333015 0.183773 0.0412636 185 113 89
-0.333596 0.186116 0.0406635 179 109 86
-0.334181 0.188474 0.0400599 173 105 82
-0.335118 0.191181 0.0390654 168 102 81
-0.337123 0.19494 0.036883 164 99 80
-0.33989 0.199475 0.0338553 162 97 79
-0.340146 0.201588 0.0336199 166 101 79
-0.340037 0.203347 0.0337895 168 102 80
-0.340293 0.205471 0.0335538 164 97 74
-0.339819 0.206868 0.0341289 157 91 68
-0.339347 0.208263 0.0347023 149 88 66
-0.339238 0.210024 0.034872 148 87 70
-0.339129 0.211786 0.0350419 150 92 73
-0.33902 0.21355 0.0352119 148 90 71
-0.369758 0.251809 0.00125721 137 80 63
-0.369174 0.253315 0.00196105 132 80 63
-0.368591 0.254817 0.00266264 128 81 64
-0.36801 0.256315 0.00336193 122 80 65
-0.367887 0.258308 0.00355398 112 79 64
-0.367764 0.260302 0.00374618 103 79 70
-0.366732 0.26129 0.00494556 98 88 82
-0.366609 0.26328 0.00513738 96 98 93
-0.366034 0.264763 0.00582963 99 108 104
-0.365461 0.266243 0.00651968 107 117 109
-0.365338 0.268231 0.00671126 110 118 111
-0.364767 0.269705 0.00739896 109 117 112
-0.364644 0.271692 0.00759047 106 116 113
-0.364075 0.273161 0.00827577 104 113 113
-0.362624 0.27359 0.00993735 102 114 115
-0.362062 0.275048 0.0106144 101 116 116
-0.361065 0.275985 0.0117723 100 117 116
-0.360075 0.276916 0.0129225 102 117 116
-0.249103 -0.135159 0.127024 78 73 73
-0.248669 -0.13407 0.127549 83 77 76
-0.248617 -0.133238 0.127629 88 83 78
-0.248565 -0.132405 0.127709 89 87 79
-0.364628 -0.199819 -0.00707476 101 104 96
-0.364536 -0.198327 -0.00693134 99 104 96
-0.36364 -0.196344 -0.00585508 99 104 96
-0.363548 -0.194855 -0.00571192 98 103 96
-0.364258 -0.193847 -0.00650056 92 102 94
-0.364165 -0.192351 -0.00635676 85 97 91
-0.364072 -0.190855 -0.00621288 77 86 85
-0.364381 -0.189592 -0.0065363 68 75 76
-0.364692 -0.188325 -0.00686063 62 68 68
-0.365003 -0.187053 -0.00718587 61 68 66
-0.364909 -0.185546 -0.00704095 57 68 64
-0.364816 -0.184038 -0.00689595 53 67 63
-0.364722 -0.182528 -0.00675083 54 67 62
-0.36544 -0.181466 -0.00754782 55 66 63
-0.365346 -0.17995 -0.00740207 56 65 65
-0.366068 -0.178874 -0.00820332 58 67 65
-0.365974 -0.177352 -0.00805694 59 69 67
-0.365471 -0.175612 -0.00743664 60 71 69
-0.364969 -0.173877 -0.00681817 60 73 71
-0.364469 -0.172146 -0.00620147 65 74 72
-0.363567 -0.170213 -0.00511919 72 74 71
-0.362671 -0.16829 -0.0040434 69 79 73
-0.362178 -0.166578 -0.00343531 68 80 77
-0.361687 -0.164869 -0.00282897 69 79 81
-0.361593 -0.16336 -0.00268384 74 83 82
-0.361499 -0.161849 -0.00253859 73 84 82
-0.361009 -0.160148 -0.0019343 69 84 82
-0.360521 -0.158451 -0.00133167 71 81 80
-0.360034 -0.156758 -0.000730754 74 86 80
-0.359548 -0.155069 -0.000131579 76 89 83
-0.359064 -0.153384 0.000465851 79 85 86
-0.35897 -0.151879 0.000610568 79 88 88
-0.358877 -0.150373 0.000755369 80 93 90
-0.359958 -0.149382 -0.000459769 80 97 91
-0.360653 -0.14821 -0.00122721 74 96 93
-0.360954 -0.146859 -0.00153946 77 91 91
-0.361257 -0.145503 -0.00185254 79 88 89
-0.36156 -0.144142 -0.00216647 80 90 88
-0.361465 -0.142611 -0.00201933 79 92 90
-0.361769 -0.141242 -0.00233379 84 91 91
-0.361674 -0.139707 -0.00218622 90 92 90
-0.361578 -0.138171 -0.00203858 94 99 89
-0.362284 -0.136946 -0.00281712 96 102 94
-0.36259 -0.135557 -0.00313389 94 105 99
-0.362495 -0.134011 -0.00298527 92 106 102
-0.362399 -0.132464 -0.00283653 94 101 101
-0.362302 -0.130916 -0.00268771 101 106 103
-0.361805 -0.129223 -0.00207462 105 105 104
-0.361709 -0.127675 -0.00192581 104 103 102
-0.361212 -0.125987 -0.00131466 101 104 100
-0.361116 -0.12444 -0.0011659 95 107 101
-0.36102 -0.122891 -0.00101703 91 105 105
-0.360526 -0.12121 -0.000407853 91 108 104
-0.36043 -0.119662 -0.000259023 96 109 101
-0.360732 -0.11824 -0.00056984 106 103 100
-0.361034 -0.116813 -0.00088149 106 109 104
-0.361338 -0.11538 -0.001194 106 110 107
-0.361241 -0.113821 -0.00104409 101 112 107
-0.361948 -0.112499 -0.00182161 99 110 104
-0.362659 -0.111167 -0.00260381 103 103 104
-0.364192 -0.110058 -0.00433465 103 112 106
-0.36533 -0.10882 -0.00560863 101 111 106
-0.366062 -0.107454 -0.00641334 100 108 103
-0.36806 -0.106416 -0.00867931 102 106 102
-0.368384 -0.104916 -0.00901262 103 106 102
-0.368708 -0.103409 -0.00934693 98 108 103
-0.36946 -0.102003 -0.0101746 101 108 106
-0.369359 -0.100379 -0.0100184 97 112 104
-0.368406 -0.0985516 -0.0088799 96 108 104
-0.368306 -0.0969303 -0.00872402 92 106 104
-0.368205 -0.0953079 -0.00856802 88 104 104
-0.369383 -0.0939645 -0.0098854 86 97 100
-0.369282 -0.0923321 -0.00972846 92 94 95
-0.371337 -0.0911454 -0.0120561 83 97 97
-0.37167 -0.0895854 -0.0123992 80 97 98
-0.373323 -0.0882765 -0.0142614 81 101 98
-0.374996 -0.0869494 -0.0161477 85 98 99
-0.37534 -0.0853564 -0.0165021 83 93 98
-0.375685 -0.0837571 -0.0168576 76 91 98
-0.376031 -0.0821514 -0.0172141 79 91 99
-0.375926 -0.0804649 -0.0170519 79 100 99
-0.376725 -0.0789209 -0.0179303 75 100 99
-0.37662 -0.0772266 -0.0177674 75 92 97
-0.376969 -0.0755978 -0.0181267 72 87 91
-0.377319 -0.0739625 -0.0184871 68 85 90
-0.37767 -0.0723207 -0.0188486 65 84 91
-0.377564 -0.0706135 -0.0186844 63 83 88
-0.377916 -0.0689612 -0.0190466 64 83 85
-0.378268 -0.0673023 -0.0194098 68 88 91
-0.378622 -0.0656368 -0.0197742 67 87 96
-0.379441 -0.0640128 -0.0206722 65 82 89
-0.379798 -0.0623312 -0.0210402 58 76 83
-0.381094 -0.0607289 -0.0224859 55 71 81
-0.381928 -0.0590687 -0.0234017 50 73 80
-0.382769 -0.0573962 -0.0243236 51 73 78
-0.384094 -0.0557464 -0.0258027 53 71 77
-0.383985 -0.0539812 -0.025633 54 71 77
-0.385809 -0.0523329 -0.0276841 54 71 78
-0.388649 -0.0507151 -0.0308999 51 69 77
-0.389034 -0.0489402 -0.0312979 45 67 75
-0.390424 -0.0472005 -0.0328484 43 66 72
-0.391321 -0.0454231 -0.0338326 40 67 73
-0.391208 -0.0436016 -0.0336575 40 69 75
-0.394164 -0.0418516 -0.0370033 39 65 71
-0.397711 -0.0400724 -0.0410266 38 67 72
-0.398125 -0.0382111 -0.0414554 49 72 77
-0.399075 -0.0363444 -0.0424978 42 67 73
-0.398958 -0.0344646 -0.0423171 42 69 75
-0.399914 -0.0325753 -0.0433662 43 68 74
-0.401419 -0.0306636 -0.0450451 46 69 76
-0.403492 -0.0287187 -0.0473733 52 72 79
-0.40448 -0.0267736 -0.0484576 49 72 80
-0.405475 -0.024813 -0.0495497 47 71 79
-0.405915 -0.0228587 -0.0500057 49 72 80
-0.406356 -0.020896 -0.0504632 44 70 76
-0.4068 -0.0189247 -0.0509222 36 67 71
-0.406679 -0.0169778 -0.050735 39 68 72
-0.406558 -0.0150296 -0.0505477 57 66 75
-0.406437 -0.0130801 -0.0503603 75 66 77
-0.406316 -0.0111292 -0.0501727 67 72 81
-0.406195 -0.00917704 -0.049985 54 74 79
-0.406073 -0.00722355 -0.0497972 51 67 74
-0.406516 -0.00521422 -0.050255 61 69 75
-0.406961 -0.00319617 -0.0507143 67 80 78
