ply
format ascii 1.0
element vertex 1217
property float x
property float y
property float z
property uchar diffuse_red
property uchar diffuse_green
property uchar diffuse_blue
end_header
0.0527158 -0.212115 0.0496299 233 58 42
0.0519899 -0.212843 0.0485376 253 62 46
0.0512639 -0.213571 0.0474453 255 99 72
0.0516849 -0.222666 0.0339788 166 46 33
0.0474333 -0.222118 0.034711 189 33 18
0.0441247 -0.221897 0.0349753 204 25 8
0.0429725 -0.222468 0.034107 217 21 2
0.0418235 -0.223038 0.033241 229 22 4
0.0410971 -0.223767 0.032148 237 33 19
0.0399522 -0.224334 0.0312859 244 49 37
0.0392267 -0.225062 0.0301944 252 60 42
0.038086 -0.225627 0.029336 254 60 45
0.0373614 -0.226353 0.0282458 255 61 47
0.0366369 -0.22708 0.0271557 255 63 50
0.0355012 -0.227641 0.0263026 255 69 59
0.0347776 -0.228367 0.0252138 255 83 69
0.0340539 -0.229092 0.024125 251 81 67
0.0337383 -0.229986 0.0227945 209 81 78
0.0330137 -0.230713 0.0217041 166 80 67
0.0322889 -0.23144 0.0206137 132 78 66
0.0315642 -0.232167 0.0195232 102 77 64
0.0308394 -0.232893 0.0184327 97 76 63
0.0301146 -0.23362 0.0173421 99 77 69
0.0770599 -0.20869 0.0524318 102 79 64
0.075309 -0.209162 0.0517077 104 79 65
0.0735684 -0.209631 0.0509877 106 82 65
0.071355 -0.20995 0.0504851 107 75 63
0.0691606 -0.210266 0.049987 105 80 68
0.0674577 -0.210727 0.0492801 110 83 66
0.0667057 -0.211481 0.0481486 113 78 64
0.0576797 -0.220532 0.0345678 252 132 94
0.056014 -0.220963 0.0339065 255 99 79
0.0548102 -0.221552 0.0330136 236 71 64
0.0513729 -0.221332 0.0332977 179 61 56
0.04843 -0.221275 0.0333458 157 52 36
0.0450991 -0.221061 0.0336227 176 36 18
0.0435149 -0.221478 0.0329822 198 26 9
0.0423619 -0.222051 0.0321153 209 22 1
0.041212 -0.222622 0.0312507 219 19 1
0.0400653 -0.223192 0.0303885 228 23 8
0.0389217 -0.22376 0.0295286 239 37 26
0.0381961 -0.224487 0.0284369 250 52 42
0.0370567 -0.225053 0.0275808 252 61 47
0.0363321 -0.22578 0.0264905 255 59 45
0.0356074 -0.226506 0.0254002 255 59 44
0.0348828 -0.227233 0.0243099 255 58 45
0.0341581 -0.22796 0.0232194 255 68 58
0.0338421 -0.228854 0.0218857 255 90 77
0.0331163 -0.229581 0.0207937 253 87 63
0.0323906 -0.230309 0.0197016 197 76 68
0.0316647 -0.231037 0.0186095 157 85 67
0.0309389 -0.231765 0.0175174 118 75 63
0.0302129 -0.232493 0.0164251 104 77 68
0.029487 -0.233221 0.0153329 97 79 66
0.0815208 -0.207712 0.0511694 118 72 66
0.079233 -0.208045 0.0506572 113 74 64
0.0769654 -0.208375 0.0501495 134 73 63
0.074227 -0.208556 0.049862 214 60 57
0.0729761 -0.209173 0.048931 237 72 60
0.0712445 -0.209642 0.0482199 236 93 74
0.0704849 -0.210404 0.0470769 231 78 68
0.0636466 -0.217261 0.0367877 244 41 28
0.0614789 -0.217546 0.0363469 253 55 45
0.0597928 -0.217988 0.0356767 255 70 57
0.0585766 -0.218585 0.0347761 255 69 59
0.0573639 -0.219181 0.0338781 255 75 69
0.0556991 -0.219615 0.0332187 255 98 93
0.0544956 -0.220207 0.0323267 253 107 84
0.0519511 -0.220317 0.0321468 248 99 71
0.0494352 -0.220425 0.0319689 249 89 68
0.0473825 -0.220691 0.0315593 218 66 61
0.044488 -0.220638 0.0316191 188 41 38
0.0424788 -0.2209 0.0312154 192 27 12
0.0413271 -0.221474 0.0303508 204 22 2
0.0401786 -0.222046 0.0294885 213 17 0
0.0390332 -0.222616 0.0286285 223 14 1
0.037891 -0.223186 0.0277709 230 28 18
0.0371653 -0.223913 0.0266791 238 51 41
0.0360272 -0.22448 0.0258253 254 58 40
0.0353025 -0.225206 0.0247348 254 58 43
0.0349882 -0.226096 0.0234032 255 60 43
0.0342624 -0.226824 0.0223112 255 57 43
0.0335366 -0.227552 0.0212191 255 62 48
0.0328107 -0.22828 0.020127 255 75 55
0.0320848 -0.229007 0.0190348 255 75 67
0.0313589 -0.229735 0.0179425 251 91 67
0.030633 -0.230463 0.0168503 177 75 64
0.0303115 -0.231362 0.0155055 129 78 68
0.0295845 -0.232091 0.0144117 103 79 64
0.0288575 -0.23282 0.0133177 100 79 68
0.096738 -0.20561 0.0515277 101 74 65
0.0937627 -0.205815 0.0512198 101 73 63
0.0908234 -0.206017 0.0509156 101 74 65
0.088973 -0.206513 0.0501719 99 77 68
0.0871336 -0.207005 0.0494327 100 76 68
0.0837532 -0.207051 0.0493641 109 71 65
0.0809298 -0.207243 0.0490766 112 73 64
0.0786412 -0.207578 0.0485728 147 67 57
0.0763727 -0.207911 0.0480733 233 57 45
0.0741241 -0.208241 0.0475783 255 75 54
0.0723817 -0.208714 0.0468679 255 103 73
0.0706381 -0.216254 0.0355539 190 28 16
0.0650366 -0.215445 0.0367677 209 15 6
0.0633278 -0.215895 0.0360914 221 22 5
0.0611615 -0.216187 0.0356535 236 22 11
0.0599398 -0.216789 0.0347503 241 44 37
0.0587215 -0.217389 0.0338497 252 52 41
0.0575068 -0.217988 0.0329516 255 61 46
0.0567532 -0.218743 0.0318177 255 66 53
0.055543 -0.219339 0.0309238 255 66 52
0.0538833 -0.219773 0.0302726 255 65 56
0.052233 -0.220204 0.0296251 255 87 76
0.0492629 -0.220155 0.0296993 250 92 85
0.0463347 -0.220106 0.0297725 247 87 72
0.0434474 -0.220058 0.0298446 231 68 53
0.0414426 -0.220322 0.0294482 207 38 30
0.0402922 -0.220897 0.0285858 199 22 7
0.0387277 -0.221312 0.0279616 206 18 1
0.038001 -0.222041 0.0268682 216 15 2
0.03686 -0.222611 0.0260129 226 12 2
0.0361343 -0.223339 0.0249209 235 25 11
0.0354085 -0.224066 0.0238288 242 50 40
0.0350938 -0.224956 0.022494 255 65 45
0.034367 -0.225685 0.0214003 254 61 44
0.0336401 -0.226414 0.0203066 255 60 46
0.0329131 -0.227143 0.0192129 255 59 43
0.0321862 -0.227871 0.018119 255 66 51
0.0314592 -0.2286 0.0170252 255 80 60
0.0307322 -0.229329 0.0159313 255 72 62
0.0300051 -0.230058 0.0148374 195 74 63
0.0292781 -0.230787 0.0137434 134 77 65
0.0285509 -0.231516 0.0126493 112 79 69
0.0278238 -0.232246 0.0115552 103 75 65
0.0988586 -0.203807 0.0513287 100 73 67
0.0958566 -0.204024 0.0510206 109 75 65
0.0950577 -0.204825 0.0498184 127 71 62
0.092635 -0.205181 0.049296 131 68 66
0.0907677 -0.205683 0.0485526 119 71 72
0.0883827 -0.206033 0.0480398 110 73 70
0.0854976 -0.206233 0.0477568 105 73 67
0.0831611 -0.206577 0.0472528 114 72 63
0.0808454 -0.206918 0.0467532 150 61 51
0.0785502 -0.207256 0.0462581 215 35 23
0.0777759 -0.208033 0.0450929 241 37 24
0.0725691 -0.21456 0.0352894 223 87 60
0.0693354 -0.21455 0.0353251 232 61 51
0.0656703 -0.214385 0.0355974 207 39 31
0.0639546 -0.21484 0.0349223 202 25 11
0.0622489 -0.215292 0.0342512 213 16 3
0.0614887 -0.216054 0.0331074 222 22 10
0.0602611 -0.216659 0.0322039 235 25 11
0.059037 -0.217262 0.0313028 243 42 24
0.0578164 -0.217863 0.0304044 252 50 35
0.0565993 -0.218463 0.0295085 255 53 39
0.0553857 -0.219061 0.0286152 255 54 40
0.0537215 -0.219497 0.0279686 255 59 46
0.0511703 -0.219611 0.0278126 255 62 52
0.0482076 -0.219566 0.0278996 255 79 65
0.0457198 -0.219678 0.0277458 251 91 79
0.0424067 -0.219477 0.0280697 246 88 67
0.040406 -0.219744 0.0276805 239 69 46
0.039257 -0.220319 0.0268205 220 35 28
0.0376953 -0.220737 0.0262011 207 21 6
0.0369685 -0.221466 0.0251075 212 17 0
0.0362416 -0.222194 0.0240138 221 12 1
0.0355148 -0.222923 0.0229201 231 14 4
0.0351997 -0.223812 0.0215821 241 33 17
0.0340609 -0.224381 0.0207327 245 50 43
0.0333339 -0.22511 0.0196388 255 62 44
0.0330158 -0.226002 0.0182961 255 58 42
0.0322877 -0.226732 0.0172007 255 63 47
0.0311529 -0.227296 0.0163571 255 63 51
0.0304258 -0.228025 0.0152631 255 71 53
0.0296987 -0.228755 0.014169 255 74 61
0.0289715 -0.229484 0.0130749 220 81 61
0.0286471 -0.230382 0.0117228 155 71 62
0.0279189 -0.231112 0.0106271 120 75 63
0.0271906 -0.231842 0.0095313 98 80 68
0.103253 -0.202569 0.0502174 100 71 63
0.0990771 -0.202505 0.0503676 106 72 63
0.0966174 -0.202875 0.0498386 145 72 60
0.0947237 -0.203387 0.0490879 204 74 60
0.0928415 -0.203896 0.0483417 220 90 75
0.0920448 -0.204695 0.047143 211 98 84
0.0896431 -0.205051 0.0466341 207 86 72
0.0877903 -0.205551 0.0459008 202 87 75
0.0869996 -0.206344 0.0447111 183 73 70
0.0780635 -0.213954 0.0333071 255 86 67
0.0732376 -0.213476 0.0340921 255 81 68
0.0699894 -0.213474 0.0341366 255 83 73
0.0682406 -0.213937 0.0334579 238 78 66
0.0655408 -0.214087 0.0332661 233 70 47
0.0638203 -0.214544 0.0325958 237 54 37
0.0621099 -0.214999 0.0319294 221 23 15
0.0608778 -0.215607 0.0310248 220 15 2
0.0596491 -0.216213 0.0301227 227 22 6
0.0588888 -0.216976 0.0289787 239 25 11
0.0572025 -0.217421 0.0283264 246 40 23
0.0555258 -0.217863 0.0276778 252 49 32
0.0543136 -0.218462 0.0267869 255 49 35
0.0526525 -0.2189 0.0261455 255 50 38
0.0501072 -0.219018 0.0259997 255 56 44
0.047152 -0.218977 0.0260994 255 62 51
0.0446701 -0.219093 0.0259557 255 72 57
0.0409423 -0.218742 0.0265338 253 86 71
0.0393693 -0.219166 0.0259125 248 86 67
0.0382217 -0.219742 0.0250548 237 60 43
0.0374927 -0.220473 0.0239581 221 28 27
0.0367638 -0.221204 0.0228613 208 19 3
0.0360348 -0.221934 0.0217645 214 15 0
0.0357195 -0.222825 0.0204209 225 10 2
0.0345768 -0.223396 0.0195706 233 15 9
0.0338477 -0.224127 0.0184737 240 40 25
0.0335293 -0.225021 0.0171254 251 51 43
0.0323896 -0.225589 0.0162796 255 62 47
0.0316604 -0.22632 0.0151824 255 60 49
0.0305247 -0.226886 0.0143404 255 72 59
0.0297965 -0.227616 0.0132447 255 73 61
0.0290683 -0.228346 0.012149 255 82 66
0.02834 -0.229076 0.0110532 250 79 64
0.0276117 -0.229807 0.00995737 174 74 63
0.0268834 -0.230537 0.00886151 115 80 70
0.0265555 -0.231438 0.0075013 93 80 74
0.117584 -0.199588 0.0515013 97 72 65
0.115542 -0.200133 0.0507132 97 71 66
0.112918 -0.200527 0.0501643 97 71 69
0.110319 -0.200917 0.0496205 97 74 66
0.106587 -0.201013 0.049547 98 75 64
0.10405 -0.201396 0.0490129 101 75 65
0.102101 -0.201922 0.0482518 121 71 61
0.0979354 -0.201864 0.04842 178 61 51
0.0954808 -0.202237 0.0478998 235 65 52
0.094134 -0.202896 0.0469246 253 84 69
0.0922506 -0.203407 0.0461837 255 91 77
0.0914527 -0.204207 0.044983 255 92 73
0.0906546 -0.205007 0.0437822 254 100 87
0.0863967 -0.209963 0.0363306 215 21 13
0.0850675 -0.210608 0.0353755 227 24 7
0.0842692 -0.211408 0.0341743 237 32 21
0.0829452 -0.21205 0.0332239 246 48 26
0.0800664 -0.212216 0.0330273 253 47 40
0.078245 -0.212694 0.0323356 255 56 45
0.0749153 -0.212698 0.0323939 255 57 51
0.0731283 -0.21317 0.0317111 255 68 57
0.0708569 -0.213482 0.0312801 255 73 59
0.0676308 -0.21348 0.0313452 255 79 59
0.0644521 -0.213478 0.0314093 255 90 74
0.0627347 -0.213937 0.0307443 241 61 48
0.061498 -0.214548 0.0298386 237 43 26
0.0602648 -0.215158 0.0289356 225 22 7
0.0590352 -0.215766 0.0280351 223 14 0
0.0578091 -0.216372 0.0271373 229 18 6
0.0561258 -0.216819 0.0264901 240 25 12
0.0544522 -0.217264 0.0258467 247 37 24
0.0532414 -0.217863 0.0249583 252 48 34
0.0515833 -0.218303 0.0243219 255 50 36
0.049044 -0.218424 0.0241864 255 48 37
0.0460962 -0.218387 0.0242988 255 53 40
0.0436201 -0.218507 0.0241651 255 63 50
0.0399026 -0.218162 0.0247607 255 77 60
0.0387509 -0.218741 0.0239021 252 81 70
0.0380199 -0.219474 0.0228021 246 70 64
0.0377065 -0.220363 0.0214563 235 55 30
0.0373922 -0.221255 0.0201067 216 17 11
0.0354122 -0.221515 0.0197504 209 12 0
0.0350955 -0.222406 0.018402 216 7 1
0.0343644 -0.223139 0.0173019 228 9 5
0.0336332 -0.223872 0.0162017 237 19 12
0.032902 -0.224605 0.0151014 239 43 35
0.0317613 -0.225175 0.0142571 255 50 43
0.0306238 -0.225743 0.013415 255 58 48
0.0298946 -0.226474 0.0123177 255 68 61
0.0291653 -0.227206 0.0112203 255 102 74
0.0280329 -0.22777 0.0103835 255 90 65
0.0273045 -0.228501 0.00928758 255 70 61
0.0265761 -0.229231 0.00819157 184 74 71
0.0262477 -0.230131 0.00683036 117 78 74
0.0255183 -0.230862 0.00573274 92 77 71
0.121131 -0.197963 0.0508221 101 75 68
0.117842 -0.198227 0.0505024 143 63 62
0.116399 -0.198922 0.0494797 183 64 60
0.114361 -0.199468 0.0486979 196 75 65
0.111742 -0.199866 0.0481584 191 82 68
0.109148 -0.200259 0.0476239 191 81 69
0.104852 -0.200216 0.0478006 172 73 70
0.102894 -0.200747 0.0470409 153 65 66
0.100948 -0.201274 0.0462858 173 53 48
0.0984566 -0.201653 0.0457706 215 42 30
0.0948904 -0.201742 0.0457278 237 43 31
0.0940874 -0.202547 0.0445196 246 51 44
0.0982558 -0.204684 0.04115 250 68 59
0.0936312 -0.208609 0.0352762 253 93 89
0.0900854 -0.208644 0.0353138 239 74 59
0.0860618 -0.208525 0.0355986 228 54 42
0.084733 -0.209173 0.0346445 232 37 19
0.0839347 -0.209973 0.0334432 227 17 5
0.0826112 -0.210617 0.0324938 228 22 6
0.0807709 -0.211103 0.0317994 241 31 23
0.0789418 -0.211586 0.0311092 247 44 26
0.0771237 -0.212066 0.0304231 254 44 33
0.0758243 -0.212701 0.029488 255 52 38
0.0730181 -0.212861 0.0293155 255 51 40
0.069752 -0.212863 0.0293956 255 58 46
0.066534 -0.212866 0.0294744 255 80 65
0.0633632 -0.212869 0.0295521 255 71 55
0.0616489 -0.21333 0.0288923 255 68 47
0.060884 -0.214096 0.0277414 242 43 27
0.0596498 -0.214708 0.0268399 231 25 10
0.0584192 -0.215317 0.0259411 220 13 2
0.0571921 -0.215925 0.0250448 223 11 0
0.0559686 -0.216531 0.024151 231 16 8
0.0547485 -0.217136 0.0232598 241 29 17
0.053532 -0.217738 0.0223711 248 38 23
0.0518657 -0.21818 0.0217393 253 46 30
0.0511094 -0.218938 0.0206013 255 48 32
0.0521652 -0.220344 0.0184283 255 47 31
0.0428097 -0.220034 0.0191417 255 77 62
0.0416358 -0.22062 0.0182775 251 91 62
0.0404651 -0.221204 0.0174156 241 65 49
0.0363503 -0.220675 0.01833 224 27 21
0.0368701 -0.221887 0.0164661 210 9 2
0.0361337 -0.222625 0.0153581 215 4 0
0.0353974 -0.223363 0.0142501 224 5 2
0.033005 -0.223454 0.0141733 233 11 7
0.0318626 -0.224026 0.013329 243 27 11
0.0307232 -0.224597 0.0124869 240 45 41
0.0295871 -0.225166 0.0116471 255 64 54
0.0288577 -0.225897 0.0105497 255 94 73
0.0277257 -0.226464 0.00971369 255 86 74
0.0269973 -0.227194 0.00861762 255 83 62
0.0262688 -0.227925 0.00752154 253 73 67
0.0255404 -0.228655 0.00642542 181 69 65
0.0248118 -0.229385 0.00532923 112 76 63
0.0240832 -0.230116 0.004233 90 77 63
0.133285 -0.197192 0.0485032 95 74 64
0.126628 -0.196741 0.0494096 98 74 63
0.122015 -0.19673 0.0495752 105 75 64
0.11871 -0.197004 0.0492623 164 61 58
0.116655 -0.197559 0.0484773 231 60 50
0.115214 -0.198255 0.0474577 254 81 60
0.113179 -0.198803 0.0466821 255 92 69
0.111157 -0.199349 0.0459114 255 91 75
0.107978 -0.199601 0.0456269 241 97 85
0.103692 -0.199564 0.0458221 212 97 82
0.102305 -0.20024 0.0448302 206 81 62
0.101488 -0.201059 0.0436013 224 54 38
0.100107 -0.201732 0.0426143 233 33 24
0.0992911 -0.202549 0.0413872 230 26 23
0.0971471 -0.206125 0.0359742 255 56 53
0.0941039 -0.206332 0.0357554 255 76 69
0.0916438 -0.206688 0.0352886 255 87 81
0.0908343 -0.207499 0.0340706 255 84 64
0.0894818 -0.208156 0.033107 255 76 57
0.0881333 -0.208811 0.0321464 254 62 47
0.086789 -0.209464 0.0311886 238 34 24
0.0843851 -0.209803 0.0307469 230 24 9
0.0825281 -0.210294 0.0300534 228 14 1
0.0806824 -0.210783 0.0293642 231 19 5
0.079885 -0.211582 0.0281644 244 26 17
0.0780529 -0.212065 0.0274829 248 43 27
0.0772578 -0.212862 0.0262867 254 45 34
0.0774927 -0.21398 0.0245648 255 50 37
0.0615068 -0.213028 0.0265401 255 59 42
0.0607396 -0.213798 0.0253856 250 49 31
0.0599723 -0.214567 0.0242311 235 37 21
0.0587357 -0.215179 0.023332 225 20 15
0.0579695 -0.215947 0.0221791 221 7 5
0.0572032 -0.216715 0.0210261 225 7 2
0.056437 -0.217484 0.0198732 234 16 7
0.0552072 -0.218091 0.0189815 243 28 13
0.054442 -0.218858 0.0178301 250 38 21
0.0574047 -0.220942 0.0145388 254 44 27
0.0491114 -0.221102 0.0145612 255 61 47
0.0430502 -0.21992 0.016569 255 85 69
0.0401529 -0.219874 0.0167344 253 96 79
0.0385618 -0.2203 0.0161324 246 70 58
0.0378222 -0.221041 0.0150196 235 44 23
0.0370827 -0.221782 0.0139068 222 7 0
0.035087 -0.222042 0.0135733 212 3 0
0.0343505 -0.22278 0.0124651 221 4 0
0.0315543 -0.222714 0.0126566 229 13 1
0.0304154 -0.223287 0.0118154 231 23 11
0.0292796 -0.223858 0.0109765 246 43 27
0.0285502 -0.224589 0.0098789 255 64 49
0.0274185 -0.225158 0.00904373 255 73 58
0.02669 -0.225888 0.00794759 255 74 54
0.0259614 -0.226618 0.00685137 255 64 48
0.0252329 -0.227349 0.00575514 209 74 60
0.0245043 -0.228079 0.00465884 130 73 65
0.0237757 -0.228809 0.00356249 95 69 67
0.132056 -0.1965 0.0464079 176 71 61
0.125417 -0.19606 0.0473449 152 70 62
0.120817 -0.196055 0.0475303 164 58 52
0.117519 -0.196334 0.0472305 209 46 35
0.116072 -0.197033 0.0462094 236 53 36
0.11463 -0.197731 0.0451915 245 67 51
0.113792 -0.19857 0.0439311 251 77 63
0.102174 -0.205044 0.034415 235 35 22
0.097366 -0.204804 0.034971 247 39 31
0.0959862 -0.205473 0.033994 251 52 36
0.0946108 -0.206141 0.03302 255 49 34
0.0926874 -0.206652 0.0323067 255 51 37
0.0907758 -0.207161 0.0315977 255 51 42
0.0888761 -0.207667 0.0308931 255 61 49
0.0880664 -0.208478 0.0296748 255 57 44
0.0861808 -0.208978 0.0289782 255 51 29
0.0843068 -0.209475 0.0282858 234 25 10
0.0829723 -0.210125 0.0273367 230 16 4
0.0816419 -0.210773 0.0263904 229 8 0
0.0808395 -0.211578 0.0251831 231 19 6
0.0800371 -0.212382 0.0239757 246 31 18
0.0818666 -0.213997 0.0214181 250 44 29
0.0652053 -0.213968 0.0221103 255 60 44
0.0644266 -0.214749 0.0209385 255 64 48
0.0631649 -0.21537 0.0200308 245 47 48
0.0619069 -0.21599 0.0191257 232 34 30
0.0611304 -0.216768 0.0179572 223 15 14
0.0598772 -0.217385 0.0170564 220 6 3
0.0586278 -0.218 0.0161582 226 11 0
0.0578534 -0.218776 0.0149931 235 19 8
0.057079 -0.219552 0.0138279 244 29 15
0.0563046 -0.220328 0.0126626 250 37 20
0.0536662 -0.220441 0.0125914 254 44 28
0.0492424 -0.2199 0.0135964 255 50 38
0.0466905 -0.220014 0.013521 255 65 58
0.0415568 -0.21917 0.0150193 255 91 79
0.0399526 -0.219601 0.0144186 255 98 80
0.0383573 -0.220029 0.0138212 252 67 48
0.0367711 -0.220455 0.0132271 239 23 10
0.0360314 -0.221197 0.0121142 214 12 0
0.0340402 -0.221459 0.011788 209 5 0
0.031246 -0.221402 0.0119842 216 6 0
0.0301074 -0.221976 0.0111438 222 8 1
0.028972 -0.222549 0.0103057 231 27 11
0.0278398 -0.223121 0.00946991 251 52 42
0.0267106 -0.223691 0.00863634 255 56 42
0.0259831 -0.22442 0.00754159 255 66 45
0.0252555 -0.225149 0.00644679 255 61 43
0.0245278 -0.225879 0.00535197 243 68 53
0.0241968 -0.226772 0.00398837 160 65 63
0.0230725 -0.227337 0.00316217 104 70 68
0.100998 -0.204383 0.0324095 231 19 5
0.0984589 -0.204756 0.0319495 234 29 16
0.0970687 -0.205429 0.0309709 248 35 20
0.0956828 -0.206101 0.0299953 251 47 27
0.0943012 -0.20677 0.0290228 255 44 30
0.0918169 -0.207128 0.0285827 255 45 30
0.0904498 -0.207792 0.0276184 255 45 34
0.0879988 -0.208143 0.0271875 255 55 37
0.0871865 -0.208957 0.0259652 255 42 30
0.0858351 -0.209614 0.0250107 255 41 19
0.0850239 -0.210427 0.0237902 232 19 7
0.0842128 -0.21124 0.0225697 228 13 3
0.082868 -0.211893 0.0216218 228 10 0
0.082058 -0.212705 0.020403 233 21 10
0.0833825 -0.214172 0.0180733 247 27 18
0.0836421 -0.215322 0.0162823 251 40 23
0.0795909 -0.21727 0.0134538 255 50 36
0.0725458 -0.216075 0.0156232 255 63 48
0.0707328 -0.216546 0.0149781 255 67 63
0.0664438 -0.216195 0.0157161 255 80 66
0.0632115 -0.216173 0.0158974 241 53 46
0.0619459 -0.216795 0.0149928 229 29 24
0.0606839 -0.217416 0.0140909 220 15 6
0.0594257 -0.218034 0.0131916 218 6 0
0.0576971 -0.218487 0.0125697 226 7 0
0.0559787 -0.218938 0.0119514 237 15 6
0.051502 -0.218411 0.0129697 246 26 14
0.0498266 -0.218855 0.0123592 249 40 28
0.046372 -0.218655 0.0128259 252 56 49
0.0425414 -0.218301 0.013548 255 81 71
0.0404968 -0.218579 0.0132116 255 94 81
0.0388954 -0.219012 0.0126158 255 64 49
0.0373031 -0.219442 0.0120234 246 36 18
0.0357198 -0.219869 0.0114342 220 20 4
0.0337297 -0.220137 0.0111109 205 7 0
0.0309377 -0.220089 0.0113117 206 2 0
0.029394 -0.220509 0.0107326 211 3 1
0.028261 -0.221084 0.00989611 219 17 7
0.0271313 -0.221656 0.0090619 245 50 37
0.0264037 -0.222386 0.00796711 255 50 37
0.025676 -0.223115 0.00687225 255 59 43
0.0249484 -0.223844 0.00577736 255 58 40
0.0242207 -0.224574 0.0046824 254 66 50
0.023493 -0.225303 0.00358742 168 65 64
0.0227653 -0.226032 0.00249239 104 73 66
0.105048 -0.205103 0.027986 222 16 3
0.100139 -0.20486 0.0286211 227 14 2
0.0987352 -0.205539 0.0276399 234 29 10
0.0973355 -0.206216 0.0266617 250 35 17
0.0965065 -0.207047 0.0254143 252 49 28
0.0996825 -0.208994 0.0222224 255 44 26
0.098844 -0.209835 0.0209609 255 44 29
0.0968575 -0.210348 0.0202674 255 44 25
0.0904029 -0.209568 0.0218161 255 52 33
0.0895802 -0.210393 0.0205782 255 38 25
0.0887575 -0.211218 0.0193403 255 32 15
0.0879348 -0.212042 0.0181023 229 16 5
0.0854761 -0.212376 0.0177123 224 14 2
0.0841165 -0.213033 0.0167629 228 7 0
0.0832988 -0.213853 0.0155325 236 19 0
0.082481 -0.214672 0.014302 248 26 11
0.0816633 -0.215492 0.0130715 251 36 21
0.0797794 -0.215975 0.0124193 254 42 27
0.0773813 -0.216288 0.012059 255 48 35
0.0714109 -0.215441 0.0136876 255 55 45
0.0696012 -0.215913 0.0130482 255 84 68
0.0668066 -0.216056 0.0129727 255 91 71
0.063557 -0.216035 0.0131752 255 71 60
0.0613175 -0.216336 0.0128242 237 32 22
0.0605349 -0.217121 0.0116467 218 8 1
0.0583188 -0.217416 0.0113039 213 2 0
0.0565934 -0.217871 0.0106875 219 1 0
0.0530181 -0.217676 0.0111771 229 6 1
0.0499591 -0.217644 0.0113868 237 19 13
0.0473918 -0.217771 0.0113236 244 37 31
0.0452966 -0.218055 0.010992 250 57 50
0.0414767 -0.217708 0.0117323 245 58 54
0.0390087 -0.217832 0.0116682 242 41 29
0.0369906 -0.21811 0.0113415 236 28 12
0.035408 -0.218542 0.0107542 217 15 4
0.0334192 -0.218815 0.0104336 205 6 0
0.0302221 -0.218623 0.0108996 202 1 0
0.0286824 -0.219046 0.0103224 205 2 0
0.027552 -0.219622 0.00948754 212 13 6
0.0268244 -0.220351 0.00839266 246 51 33
0.0260968 -0.22108 0.00729775 255 61 44
0.025369 -0.22181 0.00620278 255 56 39
0.0246413 -0.222539 0.0051078 255 58 40
0.0239136 -0.223268 0.00401273 255 67 50
0.0231858 -0.223998 0.00291761 165 65 65
0.0224579 -0.224727 0.0018225 105 71 64
0.102429 -0.205121 0.0249625 218 14 2
0.101589 -0.205962 0.023699 228 11 1
0.10075 -0.206804 0.0224355 234 28 12
0.106403 -0.209431 0.0180027 252 35 17
0.105548 -0.210288 0.0167163 252 47 30
0.104096 -0.210977 0.0157269 255 41 22
0.0968155 -0.210008 0.0176693 255 44 28
0.0937009 -0.210195 0.0175609 255 44 31
0.0923046 -0.210867 0.0165951 255 46 33
0.0909126 -0.211537 0.0156324 255 38 25
0.0878647 -0.211713 0.0155377 251 34 13
0.0870392 -0.21254 0.0142955 225 17 6
0.0851208 -0.213037 0.0136334 221 12 3
0.0832143 -0.213531 0.0129753 227 2 0
0.0813197 -0.214022 0.0123213 234 15 0
0.078907 -0.214345 0.0119603 247 26 9
0.0770403 -0.21483 0.0113144 252 44 25
0.0720931 -0.214328 0.012389 254 48 32
0.0702758 -0.214806 0.0117515 255 56 40
0.0684694 -0.21528 0.0111179 255 78 60
0.0656815 -0.215427 0.0110539 255 82 73
0.0624402 -0.215411 0.0112706 255 53 36
0.0606871 -0.215876 0.0106487 236 23 7
0.059423 -0.2165 0.00975027 214 8 1
0.0572118 -0.216798 0.00941588 207 2 0
0.0536204 -0.216612 0.00991806 213 0 0
0.0505479 -0.216588 0.0101375 222 0 0
0.0484205 -0.216879 0.00980806 231 4 0
0.0463117 -0.217169 0.00948146 234 11 7
0.0424649 -0.216828 0.01024 225 14 14
0.0386948 -0.216494 0.0109835 218 13 9
0.0362564 -0.216625 0.0109238 215 9 2
0.0346781 -0.21706 0.0103384 209 6 0
0.0326951 -0.217339 0.0100199 203 6 0
0.0295084 -0.21716 0.0104886 201 4 0
0.0279728 -0.217587 0.00991319 202 3 0
0.0272452 -0.218316 0.00881827 210 20 6
0.0261182 -0.218892 0.00798654 252 64 40
0.0253915 -0.21962 0.00689301 255 68 53
0.0246647 -0.220348 0.00579947 255 52 34
0.0239379 -0.221077 0.00470587 255 57 40
0.0236063 -0.221963 0.00334294 244 70 51
0.0228785 -0.222692 0.00224773 152 65 63
0.0221506 -0.223422 0.00115248 102 71 62
0.108358 -0.20634 0.0195014 226 18 5
0.107502 -0.207198 0.0182129 216 7 1
0.106646 -0.208056 0.0169243 228 2 1
0.10519 -0.20875 0.0159329 233 27 14
0.104335 -0.209607 0.0146463 253 33 16
0.100523 -0.209636 0.0148518 254 49 31
0.0973495 -0.209828 0.0147603 255 44 29
0.0947864 -0.210181 0.0143768 255 43 32
0.0928125 -0.210693 0.0137038 255 47 37
0.0902913 -0.211039 0.0133283 255 68 45
0.087794 -0.211381 0.0129563 255 54 44
0.0853202 -0.211721 0.0125878 242 37 26
0.0828697 -0.212057 0.0122227 220 10 5
0.0820493 -0.212879 0.0109881 217 4 0
0.0801582 -0.213372 0.0103401 223 1 0
0.0777507 -0.213698 0.0099882 232 15 1
0.0748452 -0.213858 0.00992983 246 33 18
0.0714641 -0.213853 0.0101599 252 59 39
0.0691404 -0.214171 0.00981505 253 84 61
0.0668379 -0.214486 0.00947335 252 69 57
0.0640639 -0.214637 0.00941918 251 47 33
0.0608395 -0.214627 0.00964771 234 31 15
0.0595733 -0.215254 0.00874926 214 10 4
0.0573581 -0.215558 0.00841876 205 0 0
0.0542261 -0.215541 0.00865142 206 0 0
0.0502251 -0.215211 0.00943298 210 1 0
0.0485508 -0.215665 0.00883153 214 3 0
0.0459915 -0.215804 0.00878289 215 7 0
0.0421479 -0.215477 0.00954838 209 7 0
0.0383809 -0.215157 0.0102986 205 3 0
0.0351056 -0.214993 0.0107709 204 3 0
0.0335349 -0.215432 0.0101874 202 5 0
0.0307441 -0.215417 0.0103944 200 5 0
0.0283937 -0.215551 0.0103389 198 4 0
0.0272651 -0.216131 0.00950504 201 5 1
0.0265384 -0.216859 0.00841154 224 32 14
0.0258116 -0.217588 0.00731797 255 81 52
0.0250849 -0.218316 0.00622435 255 60 48
0.0239623 -0.218891 0.00539714 255 52 35
0.0236312 -0.219773 0.00403699 255 56 39
0.0229043 -0.220501 0.00294323 217 76 56
0.0225711 -0.221387 0.0015777 132 67 62
0.0218432 -0.222116 0.000482347 93 74 64
0.11857 -0.20756 0.0136005 255 52 39
0.110183 -0.20646 0.0159427 253 39 23
0.108709 -0.207163 0.0149446 224 16 9
0.10724 -0.207863 0.0139497 212 3 0
0.106379 -0.208725 0.0126546 227 0 0
0.103717 -0.209091 0.0122733 234 23 13
0.100492 -0.209288 0.0121974 254 34 23
0.0967297 -0.20932 0.0124215 255 50 33
0.0941653 -0.209676 0.0120485 255 49 37
0.0916255 -0.210028 0.011679 255 57 43
0.0891098 -0.210377 0.011313 255 77 60
0.0866179 -0.210723 0.0109504 255 67 66
0.0841496 -0.211065 0.0105912 255 38 19
0.0817045 -0.211404 0.0102353 228 10 2
0.0792822 -0.21174 0.00988271 210 1 0
0.0763581 -0.211913 0.00982472 211 0 0
0.0755464 -0.212726 0.00860323 221 0 0
0.0731786 -0.213053 0.00826183 234 8 7
0.0703233 -0.213215 0.00821425 234 35 39
0.0675027 -0.213375 0.00816722 230 36 44
0.065211 -0.213694 0.00783336 228 26 21
0.0619634 -0.213691 0.00807468 220 14 4
0.059724 -0.214003 0.00774517 209 4 0
0.0570295 -0.214156 0.00770178 204 0 0
0.0543669 -0.214306 0.00765887 204 0 0
0.0508163 -0.214143 0.00817401 205 3 0
0.0482288 -0.214292 0.00812886 207 5 0
0.0456713 -0.214439 0.00808419 206 8 0
0.0409622 -0.213823 0.00939712 203 9 0
0.0376416 -0.213669 0.00988043 201 6 0
0.0339612 -0.21337 0.0106187 199 6 0
0.0311674 -0.21337 0.0108227 196 4 0
0.0288146 -0.213516 0.0107647 194 2 0
0.0276854 -0.214098 0.00993017 192 4 1
0.0265594 -0.214679 0.0090979 203 11 8
0.0258335 -0.215407 0.00800579 246 44 33
0.0251077 -0.216134 0.00691363 255 79 59
0.0243818 -0.216861 0.00582142 255 52 35
0.023656 -0.217589 0.00472918 255 54 39
0.0229301 -0.218316 0.00363688 255 59 43
0.0225973 -0.219197 0.00227414 184 77 59
0.0222637 -0.220081 0.000907581 111 69 61
0.0215357 -0.220811 -0.000187878 87 74 66
0.151717 -0.200505 0.0187678 254 45 27
0.140819 -0.202563 0.0163841 248 32 19
0.137806 -0.202983 0.0159593 221 18 8
0.135512 -0.203565 0.0152229 211 6 2
0.134603 -0.204475 0.0138562 223 12 8
0.13301 -0.205217 0.01281 234 29 14
0.130744 -0.205788 0.0120882 253 39 14
0.127824 -0.206187 0.0116911 255 51 27
0.122963 -0.20608 0.012248 255 43 23
0.119483 -0.206305 0.0121696 255 50 35
0.116049 -0.206527 0.0120921 255 58 43
0.113285 -0.206911 0.0117061 253 63 48
0.109932 -0.207127 0.0116325 252 43 23
0.107231 -0.207503 0.011253 226 8 6
0.105157 -0.20804 0.0105703 214 2 1
0.102501 -0.208409 0.010199 224 3 1
0.0992836 -0.208611 0.0101365 234 25 10
0.0955311 -0.208648 0.010377 251 41 26
0.0929723 -0.209007 0.0100137 255 62 42
0.0904381 -0.209362 0.00965373 255 89 68
0.087928 -0.209715 0.0092972 255 63 56
0.0843477 -0.209743 0.00953881 255 48 30
0.0818978 -0.210089 0.0091872 238 29 14
0.0794708 -0.210432 0.00883881 214 9 2
0.0770663 -0.210771 0.00849364 202 3 0
0.0746841 -0.211108 0.00815163 205 1 0
0.0718107 -0.211283 0.00810451 213 1 0
0.0689723 -0.211455 0.00805796 218 7 0
0.0661684 -0.211626 0.0080119 216 3 0
0.0653725 -0.212424 0.00681422 212 0 0
0.0621186 -0.21243 0.00706352 208 1 0
0.0593936 -0.212593 0.0070239 204 0 0
0.0571756 -0.21291 0.00670035 203 0 0
0.0540403 -0.212912 0.0069459 201 1 0
0.0504924 -0.212762 0.00746724 200 3 0
0.0479067 -0.212918 0.00742609 201 5 0
0.0444634 -0.21277 0.00793564 200 5 0
0.0397831 -0.212177 0.00924657 197 6 0
0.0352218 -0.2116 0.0105242 196 4 0
0.0315907 -0.211323 0.0112509 193 4 0
0.0292355 -0.21148 0.0111906 190 7 0
0.0281058 -0.212066 0.0103554 189 7 0
0.0265803 -0.212505 0.00978243 191 11 3
0.0258555 -0.213231 0.00869175 211 24 18
0.0251306 -0.213958 0.00760106 255 62 50
0.0244057 -0.214684 0.0065103 255 65 55
0.0236808 -0.21541 0.0054195 255 52 34
0.0233496 -0.216286 0.00406111 255 54 40
0.0226236 -0.217014 0.00296871 252 63 48
0.0222904 -0.217893 0.00160493 155 73 60
0.0215634 -0.218622 0.000510897 97 70 62
0.151327 -0.198826 0.0179148 236 34 21
0.151671 -0.201191 0.0141281 255 45 24
0.1478 -0.201463 0.0140325 255 41 22
0.140435 -0.200913 0.0155455 255 46 28
0.137424 -0.201343 0.0151249 252 47 31
0.135131 -0.20193 0.0143913 246 30 14
0.134223 -0.20284 0.0130245 224 17 2
0.13263 -0.203585 0.0119797 212 5 1
0.130366 -0.204162 0.0112606 222 9 2
0.127448 -0.204569 0.0108676 233 25 10
0.12259 -0.204478 0.0114327 250 33 16
0.119756 -0.204878 0.0110447 255 47 31
0.117588 -0.205436 0.0103456 255 46 36
0.114803 -0.205828 0.00996618 255 48 42
0.112045 -0.206215 0.00959053 255 76 51
0.1087 -0.206435 0.00953081 251 40 35
0.106004 -0.206815 0.0091616 239 28 6
0.103935 -0.207354 0.00848557 211 1 0
0.100692 -0.207564 0.00843377 211 5 1
0.0969101 -0.20761 0.00868912 224 5 3
0.0943322 -0.207976 0.00833207 234 17 13
0.0912133 -0.208178 0.00828208 232 39 48
0.0881339 -0.208377 0.00823274 231 42 47
0.0850936 -0.208574 0.00818391 231 30 21
0.0820915 -0.208769 0.00813567 220 18 5
0.0796597 -0.209118 0.00779156 209 8 0
0.0772505 -0.209465 0.00745061 203 3 0
0.0753858 -0.209966 0.00681719 203 1 0
0.0735326 -0.210463 0.0061876 204 0 0
0.0696477 -0.210328 0.00673934 207 9 0
0.0663316 -0.210351 0.00699149 207 5 0
0.0625763 -0.210219 0.00752666 205 1 0
0.0598484 -0.210395 0.00748424 203 2 0
0.0576284 -0.210722 0.00715856 200 2 0
0.0568465 -0.211505 0.00598208 198 5 0
0.0537135 -0.211518 0.00623281 195 6 0
0.0506265 -0.211532 0.00647984 193 4 0
0.0466852 -0.211244 0.00727857 193 5 0
0.0423858 -0.210815 0.00833372 194 5 0
0.0360689 -0.209675 0.0106934 192 3 0
0.0320141 -0.209276 0.0116793 190 3 0
0.0296566 -0.209444 0.0116164 188 4 0
0.0281247 -0.209892 0.0110392 188 5 0
0.0266013 -0.210336 0.0104651 189 10 0
0.0254812 -0.21092 0.00963536 201 15 4
0.0247583 -0.211644 0.00854762 236 39 24
0.0244296 -0.212512 0.00719733 255 69 52
0.0237056 -0.213238 0.00610795 255 55 41
0.0229816 -0.213963 0.00501854 255 53 37
0.0226498 -0.214836 0.00366139 254 56 42
0.0223171 -0.215711 0.00230041 238 67 52
0.0219834 -0.216589 0.000935595 134 70 60
0.0212563 -0.217317 -0.000158522 91 69 64
0.152019 -0.199667 0.0129394 236 29 13
0.148871 -0.200114 0.0125222 252 34 16
0.14648 -0.20072 0.0117796 255 45 27
0.143388 -0.201157 0.0113722 255 46 29
0.137521 -0.200938 0.0122734 254 43 25
0.135911 -0.201691 0.0112225 250 46 29
0.134308 -0.202442 0.0101752 244 35 21
0.132025 -0.203026 0.00945848 220 14 5
0.129083 -0.203441 0.0090727 212 4 1
0.126172 -0.203852 0.00869079 224 8 3
0.121327 -0.203769 0.00927795 233 23 10
0.118499 -0.204172 0.00890071 244 36 27
0.116335 -0.204733 0.00820857 255 49 38
0.113556 -0.205128 0.00783977 255 84 60
0.110184 -0.205357 0.00779128 255 51 37
0.106249 -0.205422 0.00805704 251 44 21
0.103574 -0.205805 0.00769607 214 20 3
0.101519 -0.206346 0.00702689 204 6 0
0.0983025 -0.206562 0.0069846 207 0 0
0.0951275 -0.206775 0.00694282 211 2 2
0.0914262 -0.206827 0.00720743 215 5 7
0.0888991 -0.207193 0.00686065 213 7 7
0.0847455 -0.207085 0.00742367 210 5 3
0.0822858 -0.207444 0.00708072 206 3 0
0.0798492 -0.207801 0.00674088 205 1 0
0.0779646 -0.20831 0.00610564 203 6 0
0.0760918 -0.208816 0.00547428 203 2 0
0.0737104 -0.209162 0.00514553 200 5 0
0.0713509 -0.209505 0.00481969 199 9 0
0.0685064 -0.20969 0.00479281 199 11 0
0.0622438 -0.2088 0.00680104 198 9 0
0.0585587 -0.208683 0.00733304 196 6 0
0.055879 -0.208867 0.00729191 193 4 0
0.0509247 -0.20831 0.00864598 190 2 0
0.0501564 -0.209079 0.00749001 189 2 0
0.0466784 -0.208964 0.00800107 189 2 0
0.0376596 -0.207002 0.0119783 188 4 0
0.0369185 -0.207744 0.010863 188 6 0
0.0324376 -0.207228 0.0121077 188 8 0
0.0304829 -0.207546 0.0117845 190 9 0
0.0285445 -0.207861 0.0114639 190 8 0
0.0270199 -0.208311 0.0108886 190 9 1
0.0258993 -0.208898 0.0100582 195 12 0
0.0247817 -0.209483 0.00923003 216 22 8
0.0240597 -0.210206 0.00814366 254 53 34
0.0237304 -0.211071 0.0067946 255 68 51
0.0230073 -0.211795 0.00570663 255 52 35
0.022676 -0.212664 0.00435222 255 55 38
0.0219519 -0.213389 0.00326262 248 61 44
0.0216186 -0.214261 0.00190289 193 72 56
0.0216764 -0.215284 0.000266176 112 70 62
0.0209492 -0.216012 -0.000828091 87 71 64
0.149949 -0.198754 0.011001 224 9 4
0.147545 -0.199368 0.010261 236 30 17
0.145159 -0.199977 0.00952629 249 41 28
0.142074 -0.200418 0.00913065 255 50 29
0.137618 -0.20053 0.00940141 255 52 38
0.134615 -0.200962 0.00901182 254 64 50
0.133014 -0.201715 0.00796818 246 43 37
0.130736 -0.202301 0.00725895 232 25 6
0.12713 -0.202557 0.00721299 212 2 0
0.123572 -0.20281 0.00716756 211 4 1
0.119416 -0.202898 0.0074459 220 11 6
0.116603 -0.203305 0.00707838 235 16 9
0.114449 -0.203868 0.00639335 234 32 23
0.11106 -0.204106 0.00635425 233 26 14
0.107104 -0.204182 0.00663268 229 23 5
0.104416 -0.204573 0.0062775 210 9 1
0.102351 -0.205119 0.00561063 202 6 0
0.0991186 -0.205344 0.00557732 202 0 0
0.0965089 -0.205724 0.00523229 201 4 1
0.0922081 -0.205628 0.005821 205 4 0
0.0891075 -0.205845 0.00578688 202 2 0
0.0849453 -0.205749 0.00636085 200 2 0
0.0819392 -0.205962 0.00632378 199 7 0
0.0800392 -0.206479 0.00568679 198 4 0
0.0776206 -0.206839 0.00535442 197 2 0
0.0762747 -0.207504 0.00442455 196 5 0
0.0744099 -0.208012 0.00379924 195 6 0
0.0725567 -0.208516 0.00317774 194 7 0
0.0702024 -0.208863 0.00286089 193 8 0
0.0673649 -0.209051 0.00284586 193 6 0
0.0582291 -0.207276 0.00661364 193 8 0
0.0513695 -0.20616 0.0090961 190 8 0
0.0506012 -0.206929 0.00794007 187 6 0
0.0475682 -0.206976 0.00817199 186 6 0
0.0393645 -0.20534 0.0116236 187 5 0
0.033593 -0.204447 0.0136374 188 10 0
0.0316335 -0.204776 0.0133079 190 12 0
0.030094 -0.205237 0.0127251 190 8 0
0.0281625 -0.205561 0.0124014 189 5 0
0.0270403 -0.206151 0.0115689 191 8 0
0.0263174 -0.206875 0.0104811 192 16 0
0.0251991 -0.207463 0.00965228 200 19 2
0.0244772 -0.208186 0.00856584 226 35 18
0.0237551 -0.20891 0.00747937 255 60 42
0.0230331 -0.209633 0.00639283 255 55 40
0.0223109 -0.210357 0.00530627 255 53 35
0.0219791 -0.211222 0.00395307 255 54 38
0.0216462 -0.21209 0.00259608 241 57 46
0.0213124 -0.21296 0.00123529 152 68 59
0.0209777 -0.213833 -0.000129301 93 74 66
0.149354 -0.198166 0.00839254 217 6 3
0.14622 -0.198621 0.00799934 227 11 7
0.143838 -0.199233 0.00727245 237 30 17
0.14076 -0.199678 0.00688858 240 49 50
0.136315 -0.199797 0.00717881 254 66 58
0.133319 -0.200233 0.00680068 254 53 42
0.130355 -0.200665 0.00642641 237 38 17
0.127422 -0.201093 0.00605598 211 11 0
0.124518 -0.201516 0.00568932 202 2 0
0.11969 -0.201457 0.00630675 206 3 0
0.116871 -0.201872 0.00594426 212 2 0
0.115347 -0.2026 0.00493708 213 12 3
0.111941 -0.202847 0.00490751 210 10 2
0.10858 -0.203091 0.00487826 210 5 0
0.105263 -0.203332 0.00484934 205 5 0
0.102588 -0.203727 0.00450332 202 2 0
0.09994 -0.204118 0.0041607 197 4 0
0.0973176 -0.204505 0.00382132 195 7 0
0.0935684 -0.204576 0.00411309 195 7 0
0.0893166 -0.204492 0.00470952 193 5 0
0.0845965 -0.204256 0.00559917 194 1 2
0.0815926 -0.204479 0.00556677 192 4 0
0.0802298 -0.205153 0.00462924 190 2 0
0.0783381 -0.205672 0.00399837 190 2 0
0.076458 -0.206188 0.0033714 189 4 0
0.0751137 -0.206854 0.00244447 190 2 0
0.072733 -0.20721 0.00212897 193 1 0
0.0719194 -0.208025 0.00090481 192 4 0
0.0483218 -0.203938 0.0100393 188 7 0
0.0475602 -0.204701 0.00889329 187 13 1
0.0406533 -0.203527 0.0115313 187 16 1
0.0369326 -0.203328 0.0122551 189 11 2
0.0320553 -0.202737 0.0137346 192 8 1
0.0309199 -0.203335 0.0128945 193 9 0
0.0293844 -0.203799 0.0123135 191 7 0
0.0274585 -0.204128 0.0119919 192 4 0
0.0263387 -0.20472 0.011161 194 10 0
0.025222 -0.205309 0.0103324 196 13 0
0.0241084 -0.205898 0.00950595 213 17 6
0.0233882 -0.206619 0.00842239 245 48 30
0.0226681 -0.207341 0.00733879 255 70 49
0.021948 -0.208062 0.00625513 255 52 35
0.0212278 -0.208784 0.00517143 255 51 35
0.021284 -0.209784 0.00355491 252 56 41
0.0209505 -0.210649 0.00219912 221 65 50
0.0206162 -0.211516 0.000839572 128 66 59
0.0202809 -0.212385 -0.000523794 86 73 65
0.150439 -0.196792 0.00684777 222 18 8
0.147288 -0.197256 0.00646135 211 4 0
0.144894 -0.197875 0.00573717 213 8 4
0.141799 -0.198329 0.00535997 220 16 15
0.138032 -0.198619 0.00532622 234 19 17
0.133626 -0.198747 0.00562892 233 18 13
0.130655 -0.199187 0.00525999 221 13 6
0.127714 -0.199623 0.00489483 207 5 0
0.124141 -0.199897 0.00486493 200 4 0
0.120616 -0.200167 0.00483536 201 1 0
0.117782 -0.20059 0.00447902 203 4 0
0.115613 -0.201165 0.00379903 202 7 0
0.112828 -0.201579 0.00345081 198 6 0
0.110693 -0.202147 0.0027799 198 4 0
0.10734 -0.202396 0.00276465 197 2 0
0.103428 -0.202485 0.00307142 195 3 0
0.100767 -0.202884 0.0027346 190 3 0
0.0981317 -0.203278 0.00240101 189 4 1
0.094942 -0.203514 0.00238837 190 3 0
0.0895262 -0.203134 0.00362861 190 4 0
0.0842477 -0.202764 0.00483735 189 1 1
0.0812459 -0.202995 0.0048096 188 4 0
0.0798835 -0.203672 0.00387314 186 4 0
0.0785255 -0.204346 0.00293956 186 5 0
0.0771717 -0.205018 0.00200888 186 4 0
0.0752952 -0.205536 0.00138795 188 2 0
0.0723907 -0.205747 0.00138177 193 0 0
0.0715771 -0.206563 0.000157487 191 8 0
0.0480011 -0.202569 0.00933949 189 13 2
0.0428186 -0.201971 0.0109053 191 11 1
0.0390552 -0.201786 0.0116394 191 7 0
0.0357831 -0.201736 0.0120986 192 8 0
0.0317482 -0.201427 0.0130645 194 10 0
0.0302083 -0.201897 0.0124821 193 7 0
0.0286768 -0.202365 0.011903 191 5 0
0.0271537 -0.20283 0.011327 192 7 0
0.0256391 -0.203292 0.0107541 195 12 0
0.0245247 -0.203883 0.00992708 201 19 2
0.0230234 -0.204341 0.00936029 225 34 17
0.0223052 -0.20506 0.00827962 255 55 42
0.021587 -0.20578 0.00719887 255 59 47
0.0212559 -0.206634 0.00585557 255 56 34
0.0209238 -0.207491 0.00450851 255 54 34
0.0209791 -0.208487 0.00289006 239 61 46
0.0206452 -0.20935 0.00153327 169 72 58
0.0203103 -0.210216 0.000172686 106 69 62
0.0199745 -0.211083 -0.00119174 89 73 62
0.153031 -0.195723 0.00459401 215 20 4
0.149101 -0.196038 0.0045651 205 3 0
0.145228 -0.196349 0.00453655 202 2 0
0.142126 -0.196812 0.00416496 205 6 0
0.13835 -0.197113 0.00413946 211 5 0
0.133933 -0.197255 0.00445294 208 8 0
0.130273 -0.197548 0.00442575 203 3 0
0.127335 -0.197992 0.00406475 200 2 0
0.124427 -0.198432 0.00370745 196 4 0
0.120242 -0.198559 0.00401638 194 5 0
0.118699 -0.199299 0.00300364 196 6 0
0.11652 -0.19988 0.00232623 195 2 0
0.113721 -0.200303 0.00198416 193 3 0
0.111576 -0.200876 0.00131575 193 3 0
0.109446 -0.201446 0.000651818 189 4 0
0.106715 -0.201856 0.000321951 188 4 0
0.101599 -0.201641 0.00129895 185 4 0
0.0995435 -0.202197 0.000647973 185 6 0
0.0945842 -0.201982 0.0016068 186 4 0
0.0891729 -0.201622 0.00285697 187 4 0
0.0822652 -0.200831 0.0049906 185 5 0
0.080361 -0.201365 0.00435647 185 5 0
0.0790022 -0.202043 0.00342205 184 3 0
0.0781797 -0.202867 0.00218442 183 6 1
0.0768263 -0.203542 0.00125479 183 7 1
0.0749508 -0.204064 0.000636082 188 6 0
0.0720484 -0.204285 0.000634458 191 5 0
0.0712347 -0.2051 -0.000589941 190 9 0
0.047232 -0.201065 0.0089136 192 8 1
0.0420677 -0.20049 0.0104832 191 8 0
0.0383171 -0.20032 0.0112203 193 7 0
0.0354726 -0.200411 0.0114209 195 9 0
0.0314411 -0.200117 0.0123942 193 7 0
0.0299019 -0.200591 0.0118137 190 4 0
0.0283712 -0.201062 0.0112362 190 3 0
0.026452 -0.201402 0.0109193 193 7 0
0.0249412 -0.201868 0.0103482 199 15 0
0.0234387 -0.202331 0.00978028 216 23 5
0.0223319 -0.202921 0.00895781 242 46 26
0.0216146 -0.20364 0.00787848 255 65 42
0.0208973 -0.204359 0.0067991 255 53 34
0.0205656 -0.20521 0.00545698 255 52 32
0.0202329 -0.206063 0.00411111 255 58 39
0.0202862 -0.207055 0.00249369 227 61 46
0.0199517 -0.207914 0.00113809 136 65 56
0.0196163 -0.208777 -0.000221256 96 68 58
0.154141 -0.194325 0.00301818 203 7 0
0.150935 -0.194807 0.00264813 198 5 0
0.146294 -0.194973 0.00298291 197 6 0
0.143176 -0.195445 0.00261813 198 6 0
0.139378 -0.195757 0.00260341 197 10 0
0.134242 -0.195757 0.00327268 194 6 0
0.129891 -0.195909 0.00359131 192 6 0
0.126955 -0.196362 0.00323455 192 6 0
0.124049 -0.19681 0.00288137 190 5 0
0.119867 -0.19695 0.0031972 188 7 0
0.118325 -0.197693 0.00218576 189 3 0
0.116147 -0.19828 0.00151097 188 1 0
0.113983 -0.198864 0.00084075 189 2 0
0.111834 -0.199443 0.000174936 190 5 0
0.1097 -0.200019 -0.000486452 187 4 0
0.108198 -0.200745 -0.00147672 184 4 0
0.105473 -0.201158 -0.0017961 182 4 0
0.101569 -0.201259 -0.00145142 182 9 0
0.0971408 -0.201205 -0.000786845 182 7 0
0.0882585 -0.199962 0.00239835 183 6 0
0.0813774 -0.199201 0.00453645 183 11 0
0.0800147 -0.199884 0.00360021 183 10 1
0.0786563 -0.200564 0.0026669 182 11 1
0.0773022 -0.201242 0.00173641 182 14 2
0.0754251 -0.201772 0.00111615 184 12 3
0.0746064 -0.202592 -0.000115905 188 7 1
0.0717061 -0.202822 -0.000112999 192 4 0
0.0708923 -0.203637 -0.00133753 192 8 0
0.0469117 -0.199698 0.0082145 192 5 0
0.041752 -0.199142 0.00979399 193 8 0
0.0380043 -0.198986 0.0105378 196 16 0
0.035162 -0.199087 0.0107431 198 16 0
0.0311339 -0.198807 0.0117239 194 9 0
0.0295955 -0.199285 0.011145 189 4 0
0.0276659 -0.199633 0.0108276 192 4 0
0.0257521 -0.199979 0.0105127 200 9 0
0.023854 -0.200322 0.0102003 209 18 2
0.0227466 -0.200914 0.00937718 231 33 15
0.0216422 -0.201506 0.00855626 253 55 41
0.0209258 -0.202223 0.00747831 255 62 49
0.0202094 -0.202941 0.00640028 255 53 38
0.0198771 -0.203789 0.00505936 255 53 37
0.0191597 -0.204508 0.00397978 239 60 44
0.0192098 -0.205492 0.00236632 180 70 54
0.0192602 -0.206482 0.000743922 108 66 61
0.0185387 -0.207205 -0.000341717 92 72 60
0.152788 -0.193562 0.000710022 190 6 0
0.148106 -0.19374 0.00106397 190 8 0
0.143507 -0.193914 0.00141152 190 7 0
0.1397 -0.194238 0.00140518 189 8 0
0.133857 -0.194103 0.00243091 187 6 0
0.12951 -0.194269 0.00275674 185 7 0
0.125237 -0.194433 0.00307691 185 6 0
0.120386 -0.194446 0.00372274 184 6 0
0.118843 -0.195193 0.00271029 183 8 0
0.116663 -0.195789 0.00203368 183 6 1
0.115135 -0.19653 0.00102916 184 2 0
0.113611 -0.197269 2.79658e-05 186 5 0
0.112093 -0.198005 -0.000969891 187 6 0
0.109954 -0.198586 -0.00162867 188 2 0
0.10845 -0.199316 -0.00261881 182 6 0
0.105106 -0.199585 -0.00259854 181 6 0
0.104231 -0.200461 -0.0039146 180 11 2
0.0997396 -0.200415 -0.00322025 181 9 0
0.0879056 -0.198452 0.00162769 182 13 1
0.0810306 -0.197717 0.00377901 183 16 2
0.0796684 -0.198402 0.00284385 182 20 3
0.0777781 -0.198942 0.00221812 182 23 5
0.0764273 -0.199622 0.00128971 183 22 4
0.0750808 -0.2003 0.000364151 186 11 2
0.0726961 -0.200687 5.74253e-05 187 4 0
0.0703336 -0.201071 -0.000246484 191 3 0
0.0674862 -0.201308 -0.000242982 190 4 0
0.0646736 -0.201542 -0.000239525 192 5 0
0.0470389 -0.198462 0.00723919 191 3 0
0.0418699 -0.197923 0.00883476 194 11 0
0.0381157 -0.197778 0.00958906 196 20 1
0.0352685 -0.197888 0.00980121 197 20 1
0.0312335 -0.197621 0.0107937 196 15 0
0.029289 -0.197978 0.0104763 193 9 0
0.0273606 -0.198332 0.0101615 197 13 0
0.025448 -0.198683 0.00984925 211 20 0
0.0231614 -0.198907 0.00979662 224 25 5
0.0220564 -0.199501 0.00897506 242 43 25
0.02134 -0.200219 0.00789705 255 58 42
0.0202389 -0.20081 0.00707911 255 56 42
0.0195234 -0.201527 0.00600248 255 54 37
0.0191906 -0.202372 0.00466273 255 54 39
0.018474 -0.20309 0.00358452 224 57 46
0.0181393 -0.203938 0.00223954 138 65 56
0.0174217 -0.204657 0.00115975 94 69 60
0.151435 -0.1928 -0.00159867 183 8 0
0.146029 -0.192832 -0.000866044 183 7 0
0.140023 -0.192713 0.000202533 182 5 0
0.13278 -0.192301 0.00193216 182 10 0
0.127101 -0.192192 0.0029371 182 6 0
0.121558 -0.192085 0.00391796 182 6 0
0.118714 -0.19255 0.00356531 182 6 0
0.116538 -0.193154 0.00288683 181 11 0
0.115012 -0.193898 0.00188249 181 9 1
0.114126 -0.194786 0.000548821 180 15 4
0.112607 -0.195526 -0.000450004 188 11 0
0.111722 -0.196412 -0.00178156 187 4 0
0.109584 -0.196999 -0.00243773 188 3 0
0.10808 -0.197732 -0.00342664 182 13 1
0.104738 -0.198011 -0.00340109 181 15 3
0.102044 -0.198436 -0.00370963 181 19 4
0.0975958 -0.19841 -0.00302086 181 19 2
0.0875527 -0.196941 0.000856902 181 23 4
0.0806837 -0.196233 0.00302145 182 22 4
0.079322 -0.19692 0.00208735 181 24 6
0.0774328 -0.197465 0.00146389 183 19 6
0.0755552 -0.198007 0.000844281 184 14 3
0.0736893 -0.198545 0.000228476 186 5 0
0.0713185 -0.198939 -7.67894e-05 187 1 0
0.0679533 -0.19905 0.000229519 189 2 0
0.0651377 -0.199298 0.000230026 188 2 0
0.0584682 -0.198447 0.00259994 189 5 0
0.0524977 -0.197759 0.00460143 191 6 0
0.046718 -0.197092 0.00653883 193 6 0
0.0424239 -0.196826 0.00760024 195 12 0
0.0382274 -0.196567 0.00863748 194 18 4
0.0357943 -0.19681 0.00859013 194 20 3
0.0317422 -0.196555 0.0095988 197 19 1
0.0293857 -0.196794 0.00954683 201 18 1
0.0274541 -0.197153 0.00923533 210 23 2
0.0251439 -0.197387 0.0091857 221 26 5
0.0228589 -0.197618 0.0091366 238 32 14
0.0217542 -0.198214 0.00831586 252 54 35
0.0206525 -0.198808 0.00749728 255 64 45
0.0199369 -0.199525 0.00642058 255 58 40
0.0188391 -0.200116 0.00560562 255 55 40
0.0185058 -0.200958 0.00426703 242 59 45
0.0177902 -0.201675 0.0031902 185 64 55
0.0174548 -0.202521 0.0018464 111 63 60
0.0167382 -0.203238 0.000768017 88 68 60
0.151036 -0.191082 -0.00247248 178 7 2
0.147106 -0.191432 -0.00245107 178 10 2
0.141785 -0.191478 -0.00171474 179 5 0
0.130338 -0.190219 0.00211806 179 8 0
0.122078 -0.189576 0.00444454 180 7 0
0.119231 -0.190054 0.0040891 180 8 0
0.116413 -0.190527 0.00373719 181 9 0
0.115526 -0.191414 0.00240348 180 11 0
0.114005 -0.19216 0.00140151 182 6 1
0.11312 -0.193047 6.99274e-05 183 19 4
0.112235 -0.193933 -0.00126167 193 21 2
0.110722 -0.194674 -0.00225594 191 3 0
0.109213 -0.195412 -0.00324694 188 4 0
0.107091 -0.196 -0.00389615 185 12 1
0.102548 -0.195998 -0.0031987 183 16 2
0.0986877 -0.196141 -0.00284455 184 19 3
0.0931524 -0.195852 -0.00152068 183 19 2
0.0871998 -0.19543 8.5976e-05 183 19 4
0.0803368 -0.194748 0.00226375 183 18 3
0.0784413 -0.195301 0.00163868 183 14 4
0.0765577 -0.19585 0.00101746 186 11 3
0.0741623 -0.196259 0.000707071 186 6 1
0.0723065 -0.196801 9.35011e-05 186 1 0
0.0704621 -0.19734 -0.000516389 188 0 0
0.0666048 -0.197326 9.60045e-05 188 2 0
0.0623259 -0.197178 0.000995737 186 2 0
0.0581369 -0.197032 0.00187656 188 7 0
0.0521716 -0.196366 0.00388968 196 16 3
0.0463971 -0.195722 0.00583836 197 15 1
0.0425432 -0.195598 0.00663347 192 14 0
0.0379136 -0.195228 0.00795272 190 18 4
0.0367454 -0.19585 0.00710237 191 22 7
0.0322536 -0.195482 0.00839713 202 22 7
0.0290787 -0.195485 0.00887693 214 26 9
0.0275479 -0.195971 0.00830643 224 29 8
0.0248396 -0.196091 0.00852204 231 27 10
0.0225563 -0.196329 0.00847649 245 39 25
0.0214519 -0.196927 0.00765651 255 55 41
0.0203505 -0.197523 0.00683875 255 57 42
0.0192522 -0.198117 0.00602315 255 54 38
0.0185375 -0.198833 0.00494776 253 53 40
0.0178229 -0.199549 0.00387233 216 56 46
0.0171081 -0.200265 0.00279684 141 62 56
0.0167723 -0.201107 0.00145423 95 66 61
0.1531 -0.188701 -0.00264009 177 9 0
0.149887 -0.189216 -0.00298126 176 7 2
0.146709 -0.189726 -0.00331884 176 12 2
0.142838 -0.190083 -0.0032917 178 9 0
0.139738 -0.190582 -0.00362353 177 7 0
0.121702 -0.187964 0.00362381 177 8 0
0.116927 -0.188043 0.00425829 178 8 0
0.116041 -0.188931 0.00292451 179 9 0
0.114519 -0.189681 0.00192164 181 7 0
0.113634 -0.190567 0.000589963 188 6 0
0.112749 -0.191454 -0.000741739 202 18 1
0.111234 -0.192198 -0.00173694 202 26 7
0.109725 -0.192941 -0.00272888 193 5 0
0.107601 -0.193537 -0.00337991 189 1 0
0.105491 -0.19413 -0.00402668 189 7 0
0.0991883 -0.193722 -0.00233783 189 11 0
0.0953865 -0.193882 -0.00199375 188 15 0
0.0910752 -0.193901 -0.00133302 188 11 0
0.0862897 -0.193782 -0.000367988 187 9 0
0.0799898 -0.193263 0.00150591 187 7 0
0.0780954 -0.193821 0.000883099 187 7 0
0.0756853 -0.19424 0.000572305 189 13 0
0.072778 -0.194522 0.000570636 188 8 0
0.0709322 -0.195068 -4.07733e-05 189 1 0
0.0696084 -0.195745 -0.000954691 189 2 0
0.0652646 -0.195612 -3.68692e-05 187 2 0
0.0615011 -0.195615 0.000563543 187 4 0
0.0578054 -0.195617 0.00115308 195 11 0
0.0523088 -0.195102 0.00289033 203 27 9
