ply
format ascii 1.0
element vertex 1165
property float x
property float y
property float z
property uchar diffuse_red
property uchar diffuse_green
property uchar diffuse_blue
end_header
0.0685831 -0.132054 0.00543179 255 58 38
0.0672535 -0.131736 0.00396059 255 57 36
0.065405 -0.131644 0.00225374 255 61 37
0.0654342 -0.130776 0.00143956 255 59 36
0.0654633 -0.129909 0.000625342 255 56 36
0.0654924 -0.129042 -0.000188932 255 57 38
0.0668606 -0.127598 -0.000389561 255 57 38
0.0677005 -0.126374 -0.000839666 255 60 38
0.0682734 -0.125261 -0.00141589 255 60 38
0.0683029 -0.124384 -0.00223938 255 62 39
0.0680602 -0.123628 -0.00318386 255 59 39
0.0686345 -0.122508 -0.00376609 255 58 39
0.0683913 -0.121753 -0.00470999 255 63 41
0.0686935 -0.120751 -0.00541513 255 64 43
0.0300332 -0.168344 0.00846936 254 48 34
0.0300582 -0.167599 0.00777014 255 71 52
0.0300832 -0.166854 0.00707087 255 95 90
0.0301082 -0.166109 0.0063716 255 156 122
0.0677337 -0.131457 0.0060391 255 57 36
0.0666784 -0.13103 0.00469379 255 57 36
0.0659005 -0.130495 0.00348796 255 60 38
0.0645959 -0.130188 0.00203869 255 58 35
0.064625 -0.12932 0.00122441 255 55 36
0.065186 -0.128224 0.000657856 255 56 38
0.0660176 -0.127006 0.000212714 255 57 37
0.0668547 -0.12578 -0.000235453 255 58 38
0.0671546 -0.124785 -0.000933886 255 58 37
0.067184 -0.123909 -0.00175649 255 60 38
0.0672134 -0.123033 -0.00257915 255 58 38
0.0672429 -0.122156 -0.00340183 255 56 38
0.0675435 -0.121157 -0.00410472 255 62 40
0.0678448 -0.120154 -0.00480922 255 66 44
0.0293377 -0.167095 0.00828691 253 49 33
0.0293627 -0.16635 0.00758761 255 72 57
0.0293877 -0.165605 0.00688827 255 108 98
0.0294127 -0.16486 0.0061889 255 183 139
0.0666424 -0.130096 0.00569022 255 58 37
0.0655932 -0.129675 0.00434791 255 57 38
0.0650867 -0.12903 0.00327174 255 55 36
0.0645824 -0.128388 0.00220032 255 56 35
0.0648781 -0.127402 0.00150849 255 55 35
0.0659794 -0.126061 0.00119057 255 56 38
0.0662783 -0.125066 0.00049369 255 53 38
0.0663077 -0.12419 -0.000328958 255 54 37
0.0660675 -0.123435 -0.00127459 255 59 38
0.0660969 -0.122559 -0.00209637 255 56 37
0.0661263 -0.121684 -0.00291823 255 56 37
0.0669665 -0.120436 -0.00337857 255 60 39
0.0669959 -0.119557 -0.00420323 255 66 43
0.067297 -0.118552 -0.00490873 255 69 45
0.0286421 -0.165846 0.00810443 253 51 34
0.028667 -0.165101 0.00740506 255 75 60
0.028498 -0.16442 0.0065935 255 118 102
0.065255 -0.129728 0.00603424 255 56 37
0.0647481 -0.129082 0.00495192 255 54 37
0.0647775 -0.128208 0.00413123 255 53 35
0.0645395 -0.12745 0.00318286 255 54 34
0.0645688 -0.126576 0.00236301 255 55 34
0.0651334 -0.125466 0.00179505 255 55 37
0.0654313 -0.124471 0.00109881 255 54 36
0.0654607 -0.123595 0.000276104 255 55 36
0.0652214 -0.12284 -0.000670284 255 56 37
0.0652508 -0.121965 -0.00149214 255 54 36
0.0655489 -0.120965 -0.00219221 255 56 37
0.0661175 -0.119839 -0.00277242 255 59 40
0.066147 -0.11896 -0.00359713 255 65 44
0.0661764 -0.118082 -0.00442187 255 70 49
0.0926829 -0.101764 0.00360352 255 82 61
0.027753 -0.16466 0.00780861 252 51 33
0.0277779 -0.163916 0.00710982 255 73 60
0.0279962 -0.163106 0.00652297 255 121 99
0.0280211 -0.162361 0.00582346 255 134 116
0.0641698 -0.128373 0.00568652 255 53 36
0.0639322 -0.127614 0.00473534 255 52 36
0.0639615 -0.12674 0.00391455 255 53 34
0.0639909 -0.125865 0.00309373 255 56 35
0.0642872 -0.124872 0.00239965 255 55 36
0.0645842 -0.123876 0.00170399 255 58 37
0.0646136 -0.122999 0.00088124 255 55 35
0.0643751 -0.122245 -6.58631e-05 255 56 39
0.0644045 -0.12137 -0.000887796 255 57 40
0.0647016 -0.12037 -0.00158723 255 54 36
0.0652684 -0.119242 -0.00216615 255 62 43
0.0652978 -0.118363 -0.00299095 255 71 52
0.0653273 -0.117485 -0.00381573 255 93 66
0.0904226 -0.101746 0.00370409 255 77 54
0.0898005 -0.1011 0.0025126 255 81 63
0.0270577 -0.163412 0.00762625 253 50 31
0.0270827 -0.162668 0.00692737 255 70 55
0.0273002 -0.161856 0.00634025 255 87 78
0.0273251 -0.161111 0.00564069 255 89 78
0.0633236 -0.127779 0.00629143 255 54 34
0.0628215 -0.127137 0.00520962 255 51 36
0.0631162 -0.126146 0.0045187 255 55 37
0.0636781 -0.125033 0.00395484 255 55 37
0.0637075 -0.124157 0.00313209 255 57 38
0.0637369 -0.12328 0.00230929 255 55 35
0.0637662 -0.122404 0.0014865 255 54 36
0.0637955 -0.121527 0.000663653 255 59 42
0.0638249 -0.120651 -0.000159234 255 59 41
0.0641217 -0.119649 -0.000858709 255 57 37
0.0644192 -0.118645 -0.00155981 255 64 46
0.0644485 -0.117766 -0.0023846 255 75 65
0.064478 -0.116887 -0.00320949 255 141 98
0.0888656 -0.100442 0.00317952 255 74 54
0.0885729 -0.0996369 0.00213161 255 78 63
0.0263623 -0.162163 0.0074438 253 52 31
0.0263872 -0.161419 0.00674486 255 69 50
0.0264122 -0.160674 0.00604588 255 79 62
0.026629 -0.159861 0.00545785 255 80 65
0.026654 -0.159116 0.00475813 255 74 60
0.0624771 -0.127184 0.00689648 255 58 36
0.0619769 -0.126544 0.00581327 255 57 36
0.0622706 -0.125552 0.00512291 255 59 38
0.0628307 -0.124438 0.00456034 255 56 38
0.0628601 -0.123561 0.00373755 255 54 37
0.0628894 -0.122685 0.0029147 255 58 35
0.0629188 -0.121808 0.00209187 255 55 37
0.0632145 -0.120808 0.00139488 255 56 41
0.0635109 -0.119805 0.000696346 255 53 38
0.0635403 -0.118926 -0.000128478 255 57 38
0.0638374 -0.11792 -0.000829563 255 64 46
0.0638669 -0.11704 -0.00165536 255 73 67
0.0638963 -0.11616 -0.00248124 255 116 108
0.0873161 -0.0991427 0.00265746 255 75 52
0.0873484 -0.0981776 0.0017515 255 77 60
0.0256667 -0.160914 0.00726135 253 53 32
0.0256916 -0.16017 0.00656234 255 68 50
0.0259078 -0.159356 0.00597471 255 74 57
0.0259328 -0.158611 0.00527497 255 72 54
0.0259577 -0.157865 0.00457518 255 69 50
0.0613665 -0.126707 0.00736916 255 58 38
0.0611322 -0.12595 0.00641699 255 57 35
0.0614249 -0.124958 0.00572728 255 57 38
0.0619831 -0.123842 0.00516599 255 56 37
0.0622779 -0.122844 0.00447249 255 54 36
0.0623072 -0.121966 0.00364868 255 57 37
0.0623366 -0.121089 0.00282486 255 56 36
0.0626319 -0.120086 0.00212786 255 57 40
0.0629281 -0.119081 0.00142927 255 57 40
0.0629575 -0.118201 0.000603512 255 55 39
0.0629869 -0.117322 -0.000222325 255 59 42
0.0630163 -0.116442 -0.00104818 255 63 47
0.0630458 -0.115562 -0.00187407 255 75 60
0.0864154 -0.0975208 0.00241689 255 72 53
0.0861265 -0.0967215 0.00137226 255 78 58
0.0251616 -0.159596 0.00719146 253 53 35
0.0251865 -0.158851 0.00649169 255 67 45
0.0252114 -0.158105 0.00579189 255 71 49
0.0252363 -0.15736 0.00509205 255 67 47
0.0254523 -0.156542 0.00450236 255 66 45
0.0260527 -0.155578 0.00413156 255 65 44
0.0282162 -0.154011 0.00464693 255 63 42
0.0605207 -0.126113 0.00797375 255 56 41
0.0605499 -0.125238 0.00715275 255 60 37
0.0608424 -0.124244 0.00646305 255 57 36
0.0613999 -0.123125 0.00590271 255 55 37
0.0614292 -0.122248 0.00507887 255 55 38
0.0614586 -0.12137 0.004255 255 55 38
0.0614879 -0.120492 0.0034311 255 50 38
0.0617823 -0.119489 0.00273471 255 57 40
0.0620774 -0.118483 0.00203677 255 55 40
0.0621068 -0.117603 0.00121091 255 52 39
0.0621363 -0.116724 0.000385031 255 55 38
0.0621657 -0.115844 -0.000440881 255 56 43
0.0852268 -0.0951011 0.00113185 255 80 58
0.024465 -0.158346 0.00700876 254 57 38
0.0244899 -0.1576 0.0063089 255 63 46
0.0247051 -0.156783 0.00572033 255 66 46
0.0249209 -0.155964 0.00513063 255 66 42
0.0253284 -0.155071 0.00465038 255 64 43
0.0263164 -0.15395 0.00450067 255 65 44
0.0275095 -0.152742 0.00446109 255 64 40
0.0279271 -0.151831 0.00397345 255 61 36
0.0281492 -0.150994 0.0033728 255 59 35
0.0281746 -0.150236 0.00266057 255 58 36
0.0281999 -0.149477 0.00194834 255 54 36
0.0284225 -0.148637 0.00134508 255 54 38
0.0594131 -0.125637 0.00844494 255 59 39
0.0594423 -0.124764 0.00762478 255 56 37
0.0599954 -0.123649 0.00706826 255 57 37
0.060551 -0.122529 0.0065092 255 56 39
0.0605804 -0.121651 0.00568531 255 55 39
0.0606097 -0.120774 0.00486138 255 55 38
0.060639 -0.119896 0.00403742 255 55 37
0.0609325 -0.118892 0.00334167 255 54 39
0.0612266 -0.117885 0.00264435 255 55 40
0.0612561 -0.117005 0.00181843 255 55 39
0.0612855 -0.116125 0.000992507 255 54 37
0.0613148 -0.115245 0.000166535 255 58 43
0.0843269 -0.0934803 0.000891373 255 78 53
0.024148 -0.156952 0.00705114 254 55 39
0.0243632 -0.156133 0.00646213 255 63 45
0.0247701 -0.155239 0.00598396 255 64 42
0.0249867 -0.154415 0.00539216 255 62 39
0.0257815 -0.153364 0.00513372 255 60 39
0.0265826 -0.152306 0.00487325 255 58 39
0.0271936 -0.151317 0.00449868 255 58 36
0.027219 -0.150559 0.00378713 255 57 36
0.0274403 -0.149721 0.00318624 255 56 36
0.0274657 -0.148962 0.00247392 255 58 37
0.0276876 -0.148122 0.00187115 255 55 38
0.0277129 -0.147362 0.00115809 255 53 37
0.0279352 -0.14652 0.000553384 255 52 36
0.0580484 -0.125281 0.0087816 255 56 39
0.0580775 -0.124409 0.00796321 255 56 38
0.0591484 -0.123054 0.00767359 255 54 37
0.0597021 -0.121933 0.00711583 255 58 39
0.0597314 -0.121055 0.0062919 255 55 39
0.0597607 -0.120177 0.00546791 255 57 39
0.05979 -0.119299 0.00464387 255 54 36
0.0600825 -0.118294 0.00394875 255 55 40
0.0603758 -0.117287 0.00325203 255 58 42
0.0604051 -0.116407 0.00242607 255 55 43
0.0604345 -0.115527 0.00160009 255 51 38
0.0604639 -0.114647 0.000774026 255 55 41
0.0836802 -0.0936187 0.00260122 255 118 80
0.0833946 -0.0928237 0.0015561 255 77 59
0.0834268 -0.0918592 0.000650838 255 73 50
0.0240199 -0.15548 0.00720681 255 55 35
0.0242358 -0.154657 0.00661618 255 60 40
0.0250277 -0.153607 0.00636242 255 60 38
0.0254386 -0.152702 0.00588071 255 60 37
0.025851 -0.151793 0.00539716 255 59 37
0.02646 -0.150803 0.00502406 255 59 38
0.0266807 -0.149965 0.00442433 255 60 37
0.0272944 -0.148965 0.00404693 255 58 37
0.0285071 -0.147714 0.00400399 255 57 36
0.0285327 -0.146948 0.00328539 255 54 35
0.027174 -0.146764 0.00179376 255 52 34
0.0270031 -0.146087 0.000971049 255 53 33
0.0270285 -0.145327 0.000257909 255 53 32
0.0577227 -0.12445 0.00965326 255 56 38
0.0577519 -0.123576 0.00883298 255 59 40
0.0580408 -0.122581 0.00814572 255 58 38
0.058853 -0.121336 0.00772257 255 57 40
0.0588823 -0.120458 0.00689855 255 55 39
0.0589116 -0.11958 0.00607452 255 55 36
0.0589409 -0.118702 0.00525044 254 54 37
0.0592324 -0.117697 0.00455593 253 53 40
0.0592618 -0.116818 0.00373083 255 54 40
0.0592911 -0.115938 0.00290574 255 56 41
0.0595834 -0.114928 0.00220773 255 52 39
0.0596128 -0.114048 0.00138167 255 52 37
0.0827467 -0.0929613 0.00326695 255 180 120
0.0824621 -0.092167 0.00222096 255 123 87
0.0824943 -0.0912024 0.00131564 255 80 64
0.0825265 -0.0902378 0.000410259 255 77 51
0.0242738 -0.15385 0.00759126 255 55 34
0.0246832 -0.152945 0.00711192 255 59 39
0.0250942 -0.152037 0.0066307 255 58 39
0.0255068 -0.151125 0.00614758 255 60 40
0.0257263 -0.150288 0.00554949 255 64 41
0.0265324 -0.14921 0.00528872 255 58 38
0.0277407 -0.14796 0.00525302 255 55 35
0.0277662 -0.147195 0.00453438 255 55 34
0.0277918 -0.146429 0.00381571 255 54 34
0.0278173 -0.145663 0.00309703 255 52 34
0.0264634 -0.145488 0.0016066 255 53 31
0.0259033 -0.14498 0.000567228 255 51 29
0.0259286 -0.144221 -0.00014466 255 53 30
0.0571361 -0.123736 0.0103931 255 54 37
0.0569064 -0.122982 0.00943725 255 55 38
0.0571944 -0.121986 0.00875057 254 57 39
0.0577431 -0.120864 0.00819573 253 55 39
0.058033 -0.119862 0.00750533 250 53 36
0.0580623 -0.118983 0.00668122 251 51 33
0.0580916 -0.118105 0.00585711 250 49 33
0.0581209 -0.117227 0.00503291 249 53 40
0.0584115 -0.11622 0.00433809 254 54 41
0.0584408 -0.115341 0.0035129 255 59 44
0.0584702 -0.114461 0.00268771 255 52 40
0.0587615 -0.11345 0.00198936 255 49 35
0.0804272 -0.0968298 0.00697654 255 73 65
0.0804592 -0.0958688 0.00607467 255 115 95
0.0808044 -0.0947403 0.00531544 255 122 112
0.0811504 -0.093609 0.00455429 255 122 111
0.0818129 -0.0923037 0.0039328 255 146 113
0.0815295 -0.0915102 0.00288592 255 157 121
0.0815617 -0.0905455 0.00198053 255 140 113
0.0815938 -0.0895807 0.00107512 255 99 76
0.081626 -0.088616 0.00016965 255 77 54
0.0241449 -0.152357 0.00774963 255 55 34
0.0247484 -0.151369 0.00738363 255 60 41
0.0249671 -0.150532 0.0067867 255 59 41
0.0253806 -0.149615 0.00630245 255 58 39
0.0257957 -0.148694 0.00581624 255 58 36
0.0268023 -0.147523 0.00566939 255 56 34
0.0270251 -0.146675 0.00506489 255 56 34
0.0270506 -0.145909 0.00434616 255 56 36
0.0270762 -0.145143 0.0036274 255 52 36
0.0265104 -0.144633 0.00257507 255 54 34
0.0251693 -0.144465 0.00109239 255 52 32
0.0251946 -0.143706 0.000380471 255 53 35
0.0562896 -0.123142 0.0109982 255 55 34
0.0560609 -0.122388 0.0100416 255 53 33
0.0560899 -0.121514 0.00922123 253 52 35
0.0563771 -0.120516 0.00853421 249 51 33
0.0569239 -0.11939 0.00797878 248 48 30
0.0569532 -0.118513 0.00715555 250 47 25
0.0572422 -0.117508 0.00646386 251 48 29
0.0572715 -0.11663 0.00563961 249 56 40
0.0575611 -0.115622 0.0049454 251 55 41
0.0575904 -0.114743 0.00412017 252 60 45
0.0576197 -0.113863 0.0032949 253 53 41
0.0579101 -0.112851 0.0025972 254 47 34
0.0800904 -0.0968067 0.00883539 255 50 40
0.0794979 -0.0961757 0.00763954 255 56 45
0.0798419 -0.0950475 0.00688216 255 72 59
0.0801868 -0.0939165 0.0061229 255 91 83
0.0802189 -0.092953 0.00521867 255 121 117
0.0805646 -0.091818 0.0044564 255 135 109
0.0805967 -0.0908532 0.00355101 255 127 107
0.0806288 -0.0898885 0.00264555 255 148 138
0.080661 -0.0889236 0.00174004 255 160 121
0.0806932 -0.0879588 0.000834525 255 115 79
0.0807253 -0.0869938 -7.10487e-05 255 77 58
0.0240151 -0.150855 0.00790882 255 54 37
0.0244264 -0.149939 0.00742714 255 58 39
0.0250335 -0.148939 0.00705835 255 58 37
0.0252536 -0.148096 0.00645812 255 57 35
0.0260619 -0.147004 0.00619949 255 57 35
0.026284 -0.146155 0.00559545 255 56 33
0.0265066 -0.145305 0.00499021 255 55 32
0.0265321 -0.144538 0.00427072 255 52 33
0.0259674 -0.144029 0.00321543 255 53 33
0.0257968 -0.143351 0.00238717 255 54 34
0.0260183 -0.1425 0.00178047 255 56 38
0.0554429 -0.122547 0.0116034 254 53 36
0.0549587 -0.121917 0.0105104 252 48 29
0.0549878 -0.121044 0.0096909 247 46 30
0.0552733 -0.120046 0.00900513 247 45 25
0.0558171 -0.11892 0.0084513 248 45 24
0.0561045 -0.117917 0.00776179 250 46 27
0.0563926 -0.116911 0.00707074 249 49 31
0.0564218 -0.116033 0.00624643 247 50 32
0.0567105 -0.115024 0.00555283 248 54 38
0.0567398 -0.114145 0.00472751 247 56 43
0.056769 -0.113265 0.00390223 247 51 38
0.0570585 -0.112252 0.00320514 247 50 33
0.0785044 -0.0974438 0.0101065 249 47 30
0.0791587 -0.0961511 0.00950015 253 48 34
0.0788792 -0.0953548 0.00844911 255 51 38
0.0795353 -0.0940554 0.00783785 255 54 42
0.0795674 -0.0930906 0.00693253 255 62 51
0.0792871 -0.092297 0.00588319 255 78 71
0.0793191 -0.0913334 0.00497887 255 107 90
0.0796638 -0.0901962 0.00421618 255 119 99
0.0796959 -0.0892313 0.00331067 255 116 104
0.0794154 -0.0884422 0.00226563 255 136 112
0.0797602 -0.0873014 0.00149952 255 149 110
0.0797923 -0.0863364 0.000593886 255 119 87
0.0801379 -0.0851915 -0.000175297 255 85 62
0.0242712 -0.149184 0.00830063 255 55 35
0.0244906 -0.148341 0.00770159 255 58 37
0.0251003 -0.147333 0.00733204 255 55 35
0.0255172 -0.146402 0.00684491 255 53 34
0.025739 -0.145551 0.00624087 255 54 31
0.0261585 -0.144614 0.00575012 255 55 30
0.0261841 -0.143846 0.00502914 255 55 34
0.0262096 -0.143078 0.00430816 255 55 35
0.0262352 -0.142309 0.00358714 255 55 36
0.0540847 -0.122197 0.0119339 252 50 29
0.052845 -0.121934 0.0104373 248 46 24
0.0531265 -0.120943 0.00975616 245 43 26
0.0536625 -0.119826 0.00920701 248 45 28
0.0544565 -0.118577 0.008789 246 49 27
0.0549984 -0.117448 0.00823461 246 47 28
0.0552849 -0.116443 0.00754477 241 47 28
0.0555721 -0.115436 0.00685334 238 46 27
0.0558598 -0.114426 0.00616033 238 51 35
0.0558891 -0.113546 0.00533502 237 51 40
0.0561775 -0.112533 0.00463949 239 50 34
0.0564666 -0.111518 0.00394237 239 47 27
0.0775749 -0.0967897 0.0107699 239 43 26
0.078538 -0.0953281 0.0103142 243 43 31
0.0785702 -0.0943634 0.00940882 249 47 33
0.0789143 -0.0932286 0.00865071 254 48 35
0.0789464 -0.0922626 0.00774418 255 53 39
0.0786664 -0.0914689 0.00669254 255 57 44
0.0786986 -0.090504 0.00578703 255 71 58
0.0784193 -0.0897133 0.004739 255 88 74
0.0784513 -0.0887495 0.00383452 255 100 88
0.0784834 -0.0877856 0.00293 255 109 92
0.0785155 -0.0868218 0.00202544 255 124 98
0.0788592 -0.0856788 0.00125895 255 125 106
0.0792036 -0.0845331 0.000490516 255 113 94
0.0792358 -0.0835667 -0.000416353 255 93 70
0.0243349 -0.147579 0.00857928 255 56 36
0.0247503 -0.146648 0.00809455 255 57 37
0.0255605 -0.145545 0.00784092 255 54 35
0.0255861 -0.144776 0.00711927 255 56 35
0.0258088 -0.143921 0.00651306 255 57 34
0.0264283 -0.142889 0.00613624 255 58 37
0.0266528 -0.142028 0.00552663 255 55 38
0.0280811 -0.140627 0.00560725 255 56 39
0.0519756 -0.122213 0.0118531 250 47 24
0.0510031 -0.121831 0.0104991 246 44 24
0.0517822 -0.120598 0.0100886 244 47 29
0.0523141 -0.119482 0.00954135 245 48 31
0.0536104 -0.117983 0.0093935 242 47 26
0.0544068 -0.116724 0.00897461 235 44 23
0.054693 -0.115717 0.00828476 228 42 19
0.0549797 -0.114707 0.00759336 224 41 21
0.0552671 -0.113696 0.00690034 224 44 26
0.0555552 -0.112682 0.00620578 224 46 30
0.0558439 -0.111665 0.00550961 226 44 26
0.0766451 -0.0961355 0.0114333 230 36 17
0.0776049 -0.0946714 0.01098 233 39 24
0.077637 -0.0937066 0.0100746 236 43 29
0.0779799 -0.0925709 0.00931722 244 45 32
0.078012 -0.0916048 0.0084106 251 49 35
0.0780442 -0.0906387 0.00750397 254 50 36
0.0777653 -0.0898468 0.00645252 255 55 42
0.0777974 -0.0888818 0.00554691 255 63 51
0.0775192 -0.0880929 0.00449906 255 75 63
0.0775513 -0.087129 0.00359449 255 94 78
0.0775833 -0.086165 0.00268985 255 110 91
0.0779258 -0.0850212 0.00192411 255 111 94
0.0782691 -0.0838745 0.00115645 255 111 97
0.0783013 -0.082908 0.00024949 255 110 92
0.0783334 -0.0819415 -0.000657484 255 95 75
0.0247905 -0.145792 0.00909556 255 57 39
0.0250124 -0.144938 0.00849128 255 59 38
0.0254321 -0.143996 0.00800294 255 57 39
0.0256553 -0.143137 0.00739574 255 58 38
0.0264754 -0.142011 0.00713725 255 57 39
0.0273019 -0.140876 0.00687666 255 56 39
0.0279326 -0.139824 0.00649671 255 57 39
0.0291793 -0.138486 0.0064669 255 60 41
0.0501375 -0.122108 0.0119089 249 45 22
0.0501662 -0.121243 0.0110973 245 46 30
0.050195 -0.120378 0.0102856 242 47 27
0.0514725 -0.118891 0.0101427 239 45 25
0.0530184 -0.117261 0.0101333 230 41 17
0.0538137 -0.115998 0.00971639 217 38 13
0.0543567 -0.114858 0.00916141 210 35 10
0.054902 -0.113713 0.00860393 205 35 12
0.0554498 -0.112562 0.00804393 206 36 15
0.0586398 -0.110033 0.00883721 207 38 17
0.0666768 -0.10494 0.0120792 208 37 17
0.0732199 -0.0987053 0.0126877 215 34 14
0.0732516 -0.0977533 0.0117943 217 33 10
0.0747977 -0.0959792 0.0116456 221 32 8
0.0760545 -0.0943518 0.0113447 223 35 14
0.0763947 -0.0932196 0.0105908 225 37 23
0.0770454 -0.0919131 0.00998384 233 39 24
0.0770775 -0.0909469 0.00907718 239 42 29
0.0771096 -0.0899806 0.00817047 245 45 33
0.0771417 -0.0890144 0.00726371 252 48 37
0.0771739 -0.088048 0.00635692 255 52 40
0.076896 -0.0872592 0.00530677 255 58 46
0.0766189 -0.0864722 0.00425909 255 70 58
0.0769602 -0.0853287 0.0034952 255 86 75
0.0773023 -0.0841823 0.00272943 255 97 84
0.0773344 -0.0832158 0.00182247 255 103 89
0.0773666 -0.0822493 0.000915453 255 115 97
0.0773987 -0.0812826 8.40425e-06 255 124 102
0.0774308 -0.080316 -0.000898674 255 110 87
0.0248565 -0.144157 0.00938 255 57 40
0.025277 -0.143211 0.00889188 255 58 41
0.0256992 -0.14226 0.00840183 255 57 40
0.0265227 -0.141126 0.00814623 255 56 40
0.0269498 -0.140166 0.00765173 255 57 40
0.0275807 -0.13911 0.0072733 255 56 38
0.028419 -0.137953 0.00701077 255 58 40
0.0309219 -0.136017 0.00770245 255 57 41
0.0317874 -0.134829 0.00743738 255 56 42
0.0337271 -0.133128 0.00777793 255 56 41
0.047826 -0.122244 0.0116945 246 46 25
0.0483439 -0.121142 0.0111561 241 46 29
0.0493579 -0.11979 0.0108839 236 43 20
0.0506308 -0.1183 0.0107441 222 40 16
0.0534753 -0.11514 0.0105964 189 32 8
0.0540187 -0.113995 0.0100421 184 28 9
0.0548235 -0.112711 0.00962146 182 28 10
0.0580087 -0.110181 0.0104371 182 28 11
0.0637741 -0.106273 0.0125667 185 33 12
0.0660645 -0.104159 0.0128663 189 33 12
0.0663808 -0.103078 0.0121409 194 34 12
0.0672724 -0.101687 0.0117051 198 32 10
0.0687517 -0.0999725 0.0115589 200 31 8
0.0702486 -0.0982371 0.011411 203 30 7
0.0720625 -0.0963171 0.0114095 208 32 7
0.0745116 -0.0940337 0.0117078 210 32 9
0.0751553 -0.0927338 0.0111058 214 31 14
0.0754943 -0.0915995 0.0103515 221 34 16
0.0761428 -0.0902889 0.00974382 227 36 19
0.0761749 -0.0893225 0.00883706 234 41 25
0.076207 -0.0883562 0.00793023 243 43 33
0.0762391 -0.0873897 0.00702339 249 47 37
0.0762712 -0.0864233 0.00611652 253 50 38
0.0759945 -0.0856362 0.0050665 255 56 43
0.0763354 -0.0844902 0.00430265 255 65 53
0.0763675 -0.0835236 0.00339566 255 77 65
0.0763997 -0.082557 0.00248861 255 88 76
0.0764317 -0.0815903 0.00158153 255 101 86
0.0764638 -0.0806236 0.000674427 255 113 97
0.0761869 -0.0798435 -0.000369161 255 124 107
0.076219 -0.0788779 -0.00127523 255 122 96
0.0247252 -0.142597 0.00954725 252 57 42
0.025544 -0.141466 0.0092964 255 58 42
0.0261689 -0.140417 0.00892396 255 57 41
0.0267974 -0.139361 0.0085493 255 55 40
0.0270251 -0.138485 0.007934 255 55 38
0.027862 -0.137325 0.00767383 255 55 38
0.0309882 -0.135085 0.00873914 255 56 41
0.0310147 -0.134287 0.00799009 255 56 41
0.0316727 -0.133188 0.00760366 254 54 41
0.0336173 -0.131466 0.00794668 253 54 39
0.0459971 -0.122995 0.0125534 246 45 29
0.0453044 -0.122497 0.0113497 240 45 25
0.0460539 -0.121284 0.0109476 231 43 23
0.047539 -0.119696 0.0109437 214 39 17
0.0515766 -0.115941 0.011481 160 40 19
0.0528789 -0.114409 0.0113427 148 39 16
0.0539372 -0.112994 0.0110646 148 34 15
0.0568449 -0.110607 0.0117594 155 28 13
0.0611928 -0.10744 0.013191 162 26 14
0.0645685 -0.104756 0.0140827 167 33 16
0.0651661 -0.103527 0.0135077 172 31 11
0.0654813 -0.102446 0.0127831 178 31 8
0.0657973 -0.101362 0.0120566 185 28 5
0.0664007 -0.100119 0.011474 186 29 8
0.0678748 -0.0983951 0.0113263 191 27 6
0.0693665 -0.0966501 0.0111769 195 29 6
0.0720717 -0.0942196 0.0116199 199 30 7
0.0739188 -0.092249 0.0116198 204 27 8
0.0742559 -0.0911154 0.0108669 210 31 10
0.075208 -0.0896307 0.0104106 217 33 12
0.0752401 -0.0886643 0.00950378 224 36 16
0.0752721 -0.0876978 0.0085969 230 40 24
0.0753042 -0.0867313 0.00769 236 42 33
0.0756447 -0.0855852 0.00692838 244 45 33
0.0753684 -0.0847981 0.00587606 253 48 34
0.0754005 -0.0838315 0.00496903 255 54 40
0.0754325 -0.0828648 0.00406195 255 61 47
0.0754646 -0.0818981 0.00315486 255 71 58
0.0754968 -0.0809313 0.00224775 255 87 73
0.0755288 -0.0799645 0.00134057 255 106 87
0.075253 -0.0791851 0.000296101 255 117 100
0.0752851 -0.0782193 -0.000610024 255 130 109
0.0756251 -0.0770639 -0.00138119 255 134 100
0.0251885 -0.140758 0.0100758 249 56 43
0.0258135 -0.139704 0.00970486 254 57 42
0.02604 -0.13883 0.0090913 255 54 39
0.0264682 -0.13786 0.00859612 255 54 37
0.0301889 -0.135341 0.0100411 255 54 37
0.0308444 -0.134245 0.00966091 255 54 40
0.0308709 -0.133445 0.00890951 254 55 40
0.0315305 -0.132339 0.00852469 252 52 40
0.0328349 -0.130917 0.00850615 249 52 39
0.0365696 -0.128298 0.00986749 245 48 22
0.0399798 -0.12581 0.0110171 243 45 21
0.0425578 -0.123709 0.011672 240 46 26
0.0432919 -0.12251 0.0112744 230 43 18
0.0445072 -0.121064 0.0111395 206 42 21
0.06452 -0.103673 0.01517 151 34 22
0.0648349 -0.10259 0.0144464 161 27 12
0.0648657 -0.101659 0.013573 167 27 8
0.0651814 -0.100573 0.0128466 172 26 8
0.0657839 -0.0993271 0.0122651 175 23 8
0.0669665 -0.0977561 0.0119745 180 21 4
0.0678687 -0.0963324 0.0115337 185 23 3
0.069661 -0.0944031 0.011533 191 25 3
0.0726851 -0.0917654 0.0121325 196 24 4
0.0733243 -0.0904597 0.0115314 201 28 4
0.0736611 -0.0893224 0.0107773 209 30 5
0.074305 -0.088006 0.0101706 215 30 9
0.0743371 -0.0870394 0.00926366 219 34 14
0.0746764 -0.0858936 0.00850399 225 36 22
0.0747085 -0.0849258 0.00759585 234 41 26
0.0747406 -0.0839579 0.00668769 244 42 29
0.0747727 -0.0829899 0.00577949 250 47 33
0.0744974 -0.0822059 0.00472839 254 52 38
0.0745295 -0.0812391 0.00382124 255 56 44
0.0745616 -0.0802722 0.00291404 255 67 53
0.0745937 -0.0793053 0.00200681 255 87 70
0.074319 -0.0785266 0.000961468 255 105 93
0.0746578 -0.0773714 0.000192195 255 121 109
0.0746899 -0.0764043 -0.000715166 255 141 116
0.074722 -0.0754373 -0.00162253 255 146 106
0.0252564 -0.139081 0.0103676 244 53 36
0.0254826 -0.138205 0.00975409 250 55 39
0.0259101 -0.137233 0.00925961 251 52 37
0.0300425 -0.134502 0.010967 252 50 34
0.0306995 -0.1334 0.0105884 252 50 38
0.0307262 -0.132597 0.00983465 250 52 38
0.0313873 -0.131486 0.00945139 247 52 39
0.0326949 -0.130053 0.0094385 242 51 40
0.0340187 -0.128603 0.00942542 240 48 26
0.0391708 -0.125242 0.0115956 237 46 23
0.0417392 -0.123134 0.0122572 224 43 22
0.0424707 -0.121934 0.0118615 199 42 21
0.063934 -0.101957 0.0150896 144 34 18
0.0642486 -0.100871 0.0143649 157 25 10
0.0645639 -0.0997823 0.0136385 163 23 9
0.0651657 -0.0985329 0.0130581 167 19 7
0.0660581 -0.097117 0.0126228 170 18 3
0.066957 -0.095691 0.0121843 175 20 0
0.0681551 -0.0940891 0.0118908 182 21 0
0.0696611 -0.0923031 0.0117433 186 21 1
0.0720896 -0.0899774 0.0120449 192 25 0
0.0724245 -0.0888408 0.0112924 200 27 0
0.0730646 -0.0875247 0.0106876 205 29 3
0.0734019 -0.0863808 0.00993052 210 30 6
0.073434 -0.0854141 0.0090235 216 32 11
0.0737721 -0.0842662 0.00826342 223 35 18
0.0738042 -0.0832982 0.0073552 230 36 23
0.0738363 -0.0823302 0.00644693 238 43 29
0.0738684 -0.0813621 0.00553863 247 48 34
0.0735942 -0.0805799 0.00448774 253 49 35
0.0736263 -0.079613 0.00358048 255 53 40
0.0736583 -0.078646 0.00267316 255 64 50
0.0736904 -0.0776789 0.00176582 255 80 71
0.0737224 -0.0767118 0.000858426 255 103 99
0.0737545 -0.0757447 -4.89652e-05 255 128 113
0.0737865 -0.0747776 -0.000956461 255 147 112
0.0741251 -0.0736162 -0.00172918 255 142 99
0.0741573 -0.0726477 -0.00263783 255 101 70
0.024924 -0.137579 0.0104182 233 51 36
0.0253508 -0.136605 0.00992458 239 50 36
0.0296853 -0.133758 0.0117727 243 49 32
0.0305537 -0.13255 0.0115216 244 49 35
0.0305804 -0.131744 0.0107655 243 49 32
0.0312431 -0.130627 0.0103839 239 51 37
0.0323387 -0.129291 0.0102509 235 49 34
0.0332288 -0.128049 0.00999026 230 45 23
0.0345642 -0.126577 0.00998044 214 44 25
0.0636298 -0.10008 0.0151588 136 37 20
0.0639446 -0.0989895 0.0144325 154 22 9
0.0645457 -0.0977366 0.0138532 160 19 5
0.065437 -0.0963161 0.0134201 164 19 3
0.0660452 -0.0950494 0.0128349 169 19 0
0.0669472 -0.0936106 0.0123955 173 20 2
0.0678557 -0.0921614 0.0119529 176 20 4
0.0708578 -0.0894961 0.0125573 184 20 1
0.0711908 -0.0883602 0.0118063 190 21 2
0.0715245 -0.0872215 0.0110534 195 27 2
0.0721624 -0.0859013 0.0104479 202 27 2
0.0724986 -0.0847553 0.00969045 207 30 4
0.0725306 -0.0837885 0.00878331 213 34 10
0.0728676 -0.0826385 0.00802281 219 34 15
0.0728997 -0.0816703 0.00711448 226 37 23
0.0729317 -0.0807022 0.00620611 235 43 28
0.0729639 -0.079734 0.00529772 243 46 31
0.0726908 -0.0789536 0.00424701 251 48 34
0.0727228 -0.0779865 0.00333965 254 51 39
0.0727548 -0.0770194 0.00243223 255 59 48
0.0727869 -0.0760522 0.00152478 255 74 69
0.0728189 -0.075085 0.000617325 255 103 92
0.0731563 -0.0739239 -0.000153542 255 126 99
0.0731885 -0.0729554 -0.0010622 255 120 91
0.0732205 -0.0719869 -0.0019709 255 96 76
0.0735588 -0.0708204 -0.00274597 255 80 62
0.0633239 -0.0981947 0.0152284 133 33 21
0.0639241 -0.0969384 0.0146503 153 21 7
0.0648142 -0.0955132 0.0142195 162 18 3
0.0651332 -0.0944076 0.0134857 166 15 1
0.065742 -0.0931331 0.0128992 168 18 5
0.0669371 -0.0915149 0.0126082 171 17 6
0.0678489 -0.0900528 0.0121647 176 16 3
0.0696606 -0.0880562 0.0121682 179 18 3
0.0702917 -0.0867428 0.0115676 185 23 3
0.0706243 -0.0856019 0.0108143 192 25 2
0.07126 -0.0842776 0.0102081 197 28 1
0.071595 -0.0831295 0.00945026 204 31 4
0.0716271 -0.0821625 0.00854303 209 31 7
0.0716591 -0.0811955 0.00763576 216 32 13
0.071995 -0.0800421 0.00687373 224 35 19
0.0717231 -0.0792613 0.00582108 231 39 24
0.0717551 -0.0782941 0.00491369 239 43 30
0.0717871 -0.0773269 0.00400624 248 46 32
0.0718192 -0.0763597 0.00309879 253 50 35
0.0718512 -0.0753924 0.00219126 255 56 43
0.0721874 -0.0742317 0.00142232 255 72 59
0.0722195 -0.0732631 0.000513613 255 92 71
0.0722515 -0.0722945 -0.000395104 255 95 74
0.0722836 -0.0713259 -0.0013039 255 86 73
0.0726207 -0.0701586 -0.00207821 255 83 69
0.0729586 -0.0689883 -0.00285447 255 79 63
0.0635861 -0.0959761 0.0156009 132 37 22
0.0639032 -0.0948723 0.0148696 155 18 6
0.0645084 -0.0936003 0.0142871 162 15 2
0.0648277 -0.0924897 0.0135515 164 15 5
0.0654373 -0.0912074 0.0129637 167 14 6
0.0660498 -0.0899189 0.012373 170 20 4
0.0669583 -0.0884508 0.0119285 172 19 3
0.0687636 -0.0864424 0.0119302 177 17 3
0.0693924 -0.0851249 0.0113289 181 21 1
0.0700243 -0.0838009 0.0107246 187 26 1
0.0703574 -0.0826535 0.0099683 194 23 2
0.0703894 -0.0816876 0.0090621 200 26 2
0.0707233 -0.0805362 0.00830272 207 29 4
0.0707553 -0.079569 0.00739534 214 29 10
0.0707873 -0.0786018 0.00648791 221 33 14
0.0708193 -0.0776345 0.00558046 227 37 22
0.0708513 -0.0766673 0.00467293 235 40 26
0.0708833 -0.0756999 0.00376542 245 45 27
0.0712183 -0.0745395 0.00299841 253 48 32
0.0712503 -0.0735709 0.00208968 255 52 39
0.0712824 -0.0726022 0.00118089 255 63 49
0.0713145 -0.0716335 0.00027211 255 73 57
0.0713465 -0.0706648 -0.000636771 255 78 64
0.0716825 -0.0694966 -0.00141031 255 81 69
0.0720192 -0.0683255 -0.00218584 255 78 65
0.0723569 -0.0671513 -0.00296326 255 76 59
0.0635638 -0.0939014 0.0158242 133 35 22
0.063595 -0.0929576 0.0149389 153 18 6
0.0639132 -0.0918461 0.014204 160 16 4
0.0642321 -0.0907319 0.0134674 162 16 5
0.064841 -0.0894437 0.0128786 166 19 3
0.0651623 -0.0883225 0.0121377 168 15 5
0.0660676 -0.0868485 0.0116922 172 16 4
0.0681633 -0.0846489 0.0118423 173 18 2
0.0687915 -0.0833253 0.01124 178 21 1
0.0691226 -0.0821786 0.0104852 184 20 2
0.0694546 -0.0810291 0.00972843 190 22 1
0.0694866 -0.0800631 0.00882213 198 25 1
0.0698194 -0.0789095 0.00806235 204 27 4
0.0698514 -0.0779422 0.00715488 210 29 8
0.0698833 -0.0769749 0.00624733 216 31 12
0.0699153 -0.0760075 0.00533979 223 35 15
0.0699474 -0.07504 0.00443217 232 40 19
0.0702811 -0.0738787 0.00366588 243 45 26
0.0703132 -0.07291 0.0027571 251 48 33
0.0703452 -0.0719413 0.00184827 254 50 37
0.0703772 -0.0709725 0.000939399 255 55 43
0.0704093 -0.0700036 3.05027e-05 255 65 51
0.0707441 -0.0688345 -0.000742286 255 75 58
0.0707762 -0.0678644 -0.0016524 255 77 62
0.0711118 -0.0666911 -0.00242832 255 77 61
0.0717534 -0.0653095 -0.00307237 255 75 59
0.0629673 -0.0921474 0.0157432 133 34 20
0.0632851 -0.0910335 0.0150084 152 19 7
0.0633164 -0.0900873 0.0141208 158 17 7
0.063923 -0.0887975 0.0135334 162 17 4
0.0642432 -0.0876754 0.0127932 164 15 5
0.064564 -0.0865506 0.0120512 166 19 5
0.0654683 -0.0850683 0.0116047 168 18 3
0.0672648 -0.0830325 0.0116039 172 16 3
0.0678907 -0.0817048 0.0110009 176 20 3
0.0682208 -0.080556 0.0102456 181 20 1
0.0685516 -0.0794044 0.00948851 187 24 1
0.0685836 -0.0784382 0.0085821 193 25 2
0.0689153 -0.0772825 0.00782193 199 26 4
0.0689472 -0.0763151 0.00691435 206 29 4
0.0689792 -0.0753476 0.0060067 212 31 7
0.0690112 -0.07438 0.00509906 219 36 13
0.0693438 -0.0732178 0.00433353 230 39 19
0.0693758 -0.072249 0.00342469 241 42 23
0.0694079 -0.0712801 0.00251578 249 46 28
0.0694399 -0.0703113 0.00160684 254 49 34
0.0694719 -0.0693423 0.000697866 255 54 40
0.0698055 -0.0681723 -7.4178e-05 255 64 45
0.0698376 -0.0672021 -0.000984341 255 72 53
0.070172 -0.0660279 -0.00175951 255 75 58
0.0708113 -0.0646445 -0.00240196 255 75 60
0.0711482 -0.0634628 -0.00318182 255 71 54
0.0623692 -0.0903889 0.0156619 134 33 20
0.0626867 -0.0892714 0.014926 152 19 9
0.0630049 -0.0881512 0.0141883 159 17 7
0.0633239 -0.0870282 0.0134488 161 16 5
0.0633553 -0.0860785 0.0125578 163 15 3
0.0639642 -0.0847741 0.0119644 166 12 1
0.0651593 -0.083103 0.0116664 168 17 3
0.066366 -0.0814157 0.0113654 170 17 4
0.0669897 -0.0800839 0.0107617 173 19 3
0.0673187 -0.078933 0.010006 177 22 2
0.0676484 -0.0777793 0.00924854 184 24 0
0.0676803 -0.076813 0.00834203 189 25 3
0.0677122 -0.0758466 0.00743547 196 27 2
0.0680429 -0.0746875 0.00667377 202 28 5
0.0680749 -0.0737199 0.00576606 209 32 10
0.0684063 -0.0725567 0.00500128 218 33 12
0.0684383 -0.0715879 0.00409237 228 35 15
0.0684703 -0.0706189 0.00318338 238 40 20
0.0685023 -0.0696499 0.00227439 246 45 27
0.0685343 -0.0686809 0.00136536 252 50 34
0.0688668 -0.0675099 0.000594065 255 54 38
0.0688988 -0.0665396 -0.000316173 255 60 44
0.0692321 -0.0653645 -0.00109057 255 68 51
0.0695663 -0.0641865 -0.00186689 255 72 55
0.0699012 -0.0630054 -0.00264515 255 71 52
0.0705414 -0.0616111 -0.00329158 255 70 48
0.0620553 -0.0884534 0.0157333 137 32 18
0.0620866 -0.0875048 0.0148434 153 20 10
0.0624045 -0.086381 0.0141046 160 16 4
0.0624358 -0.0854311 0.0132136 161 13 3
0.0627545 -0.0843033 0.0124719 163 14 1
0.0636522 -0.0828127 0.0120268 164 17 3
0.0642647 -0.0814938 0.0114291 166 17 5
0.0657616 -0.0796128 0.0112766 168 18 5
0.0660886 -0.0784627 0.0105225 172 17 2
0.0664164 -0.0773097 0.00976643 176 20 1
0.0667451 -0.0761538 0.00900851 181 21 1
0.066777 -0.0751874 0.0081019 187 24 0
0.0668088 -0.0742209 0.00719525 193 25 3
0.0671383 -0.0730597 0.00643316 200 28 6
0.0671703 -0.0720919 0.00552532 208 31 8
0.0675007 -0.0709266 0.00476016 215 32 11
0.0675326 -0.0699576 0.00385112 224 35 14
0.0675646 -0.0689885 0.00294206 233 39 19
0.0675966 -0.0680194 0.00203297 244 45 26
0.0679279 -0.0668475 0.00126243 252 48 32
0.0679599 -0.0658771 0.000352129 255 52 38
0.0682921 -0.0647011 -0.000421524 255 59 44
0.068625 -0.0635221 -0.0011971 255 65 49
0.0689588 -0.0623402 -0.0019746 255 67 51
0.0695966 -0.0609441 -0.00261943 255 69 49
0.0705431 -0.0593269 -0.00313294 254 72 53
0.0614536 -0.0866835 0.0156516 136 33 21
0.0614849 -0.0857336 0.0147605 153 21 6
0.0615162 -0.0847836 0.0138694 158 20 3
0.0618338 -0.083655 0.0131284 159 17 2
0.0621521 -0.0825236 0.0123857 161 16 3
0.0630487 -0.0810245 0.0119396 164 16 5
0.0639517 -0.0795145 0.0114903 165 17 4
0.0648614 -0.0779934 0.0110377 167 17 3
0.0651873 -0.0768411 0.0102832 170 16 3
0.0655139 -0.075686 0.00952676 174 18 2
0.0658415 -0.074528 0.00876842 179 19 1
0.0658734 -0.0735614 0.00786172 184 22 0
0.0662017 -0.0723993 0.00710036 191 26 2
0.0662336 -0.0714315 0.00619246 198 28 4
0.0662655 -0.0704636 0.00528453 205 30 7
0.0665948 -0.0692961 0.00451897 212 33 11
0.0666268 -0.068327 0.00360985 221 35 13
0.0666587 -0.0673577 0.00270067 232 38 17
0.0669889 -0.0661849 0.00193089 243 44 23
0.0670209 -0.0652144 0.00102054 251 49 30
0.0673518 -0.0640375 0.000247627 254 53 37
0.0679841 -0.062649 -0.000390068 255 57 43
0.0683174 -0.0614644 -0.00116763 255 62 47
0.0689544 -0.0600643 -0.00181131 255 67 50
0.0695946 -0.0586572 -0.00245823 255 72 55
0.0699321 -0.0574602 -0.0032433 252 74 55
0.0605651 -0.0850861 0.0154165 137 31 16
0.0605965 -0.084136 0.0145253 152 22 4
0.0609129 -0.0830065 0.0137851 158 16 4
0.0612302 -0.0818742 0.0130431 159 18 6
0.0618353 -0.0805562 0.0124491 160 18 6
0.0624435 -0.0792317 0.0118522 161 19 3
0.0633454 -0.0777131 0.0114019 165 15 3
0.063961 -0.0763736 0.0107988 166 16 4
0.0645795 -0.0750274 0.0101926 168 16 6
0.0649059 -0.0738686 0.0094351 173 16 3
0.0649377 -0.0729019 0.00852831 177 17 1
0.0652649 -0.0717389 0.00776771 183 19 0
0.0652968 -0.0707709 0.00685973 189 24 0
0.0653287 -0.0698029 0.00595175 195 28 3
0.0656568 -0.0686345 0.00518693 202 32 8
0.0656887 -0.0676653 0.00427774 211 33 11
0.0657206 -0.066696 0.00336851 220 34 11
0.0660496 -0.0655223 0.00259948 230 39 14
0.0660816 -0.0645517 0.00168908 240 44 21
0.0664114 -0.0633738 0.000916913 249 47 30
0.0670414 -0.0619835 0.000280768 254 50 36
0.0673735 -0.0607981 -0.000496015 255 55 41
0.0680082 -0.0593962 -0.00113812 255 63 47
0.068646 -0.0579874 -0.0017834 255 70 53
0.0689823 -0.0567895 -0.00256771 255 73 54
0.0693193 -0.0555885 -0.00335397 250 70 50
0.0599605 -0.0833093 0.0153342 141 32 15
0.0602766 -0.0821773 0.014594 155 15 5
0.0605934 -0.0810426 0.013852 157 17 6
0.0609109 -0.079905 0.0131081 159 16 4
0.0615168 -0.0785789 0.0125128 161 15 4
0.0621257 -0.0772462 0.0119145 164 13 4
0.0627374 -0.0759071 0.0113132 163 13 4
0.0633523 -0.0745613 0.0107091 165 13 5
0.0639701 -0.073209 0.0101018 168 18 4
0.0640019 -0.0722422 0.00919501 172 17 2
0.0643279 -0.0710783 0.00843516 176 14 1
0.0643598 -0.0701102 0.00752713 180 21 2
0.0643917 -0.0691421 0.00661907 186 25 3
0.0644236 -0.068174 0.00571094 194 27 3
0.0647505 -0.0670035 0.00494574 202 31 6
0.0647824 -0.0660341 0.00403644 210 32 7
0.0651103 -0.0648595 0.00326818 218 33 10
0.0651422 -0.0638888 0.00235771 227 38 16
0.0654708 -0.06271 0.0015863 240 43 22
0.0658003 -0.0615283 0.000813022 249 47 28
0.0661305 -0.0603436 3.77744e-05 254 50 34
0.0667613 -0.0589423 -0.000602275 255 57 40
0.0673952 -0.057534 -0.00124551 255 64 47
0.0677295 -0.0563368 -0.00202821 255 67 51
0.0680646 -0.0551368 -0.00281292 255 68 48
0.0687049 -0.0537118 -0.003465 249 64 47
0.0596385 -0.081346 0.015405 143 26 12
0.0596699 -0.0803922 0.0145104 153 15 7
0.0599863 -0.0792538 0.0137673 157 13 4
0.06059 -0.077926 0.0131734 161 14 6
0.0611966 -0.0765916 0.0125767 162 11 4
0.0618061 -0.0752508 0.011977 161 12 3
0.0621278 -0.0740962 0.0112243 162 14 3
0.0627418 -0.0727443 0.0106191 164 17 2
0.0630659 -0.0715824 0.00986184 166 20 1
0.0630977 -0.0706155 0.00895488 169 16 1
0.0634227 -0.0694494 0.00819464 172 18 3
0.0634545 -0.0684812 0.00728649 177 19 4
0.0637802 -0.0673111 0.00652321 186 22 3
0.0638121 -0.0663416 0.00561386 194 27 1
0.0638441 -0.0653721 0.00470454 201 29 2
0.0641707 -0.0641966 0.00393702 208 30 7
0.0644981 -0.0630181 0.00316754 216 33 12
0.0645301 -0.0620461 0.00225581 228 38 15
0.0648583 -0.0608635 0.00148329 239 44 21
0.0651875 -0.0596779 0.000708818 249 48 28
0.0658159 -0.0582748 7.03633e-05 255 51 31
0.0664474 -0.0568647 -0.000571311 255 56 39
0.0667805 -0.0556667 -0.00135325 255 62 45
0.0674168 -0.0542448 -0.0020009 255 65 47
0.0677523 -0.0530389 -0.0027876 255 63 46
0.0683934 -0.0516051 -0.00344135 248 66 51
0.0590302 -0.0795575 0.0153223 142 26 11
0.0596315 -0.0782303 0.0147322 153 19 5
0.059949 -0.077085 0.0139866 158 18 3
0.0605547 -0.075747 0.013391 161 13 2
0.0608746 -0.0745944 0.0126409 163 12 1
0.0611951 -0.0734389 0.0118889 162 14 1
0.0615165 -0.0722807 0.0111351 162 13 1
0.0618387 -0.0711195 0.0103794 162 16 1
0.0621616 -0.0699555 0.00962178 165 16 1
0.0624853 -0.0687885 0.00886226 167 16 3
0.0625172 -0.0678202 0.00795406 170 18 4
0.0628417 -0.0666492 0.00719151 177 20 3
0.0628736 -0.0656796 0.00628212 185 24 2
0.0629055 -0.06471 0.0053727 192 27 1
0.063231 -0.0635335 0.00460593 200 28 4
0.0635572 -0.0623542 0.00383721 207 29 8
0.0635892 -0.0613821 0.00292546 216 32 11
0.0639164 -0.0601985 0.00215368 227 37 16
0.0642442 -0.059012 0.00137997 239 44 22
0.0648703 -0.0576072 0.000743121 249 47 25
0.0657991 -0.0559772 0.000241756 254 50 32
0.0664329 -0.054556 -0.000401959 255 55 39
0.0667672 -0.0533505 -0.00118673 255 62 44
0.0671024 -0.0521419 -0.00197347 255 64 45
0.0674383 -0.0509303 -0.00276221 253 65 47
0.0680802 -0.0494875 -0.00341766 236 63 50
0.0589893 -0.0773898 0.0155474 141 24 14
0.0595926 -0.0760524 0.0149556 152 16 6
0.0599112 -0.0749001 0.0142074 157 13 4
0.0602306 -0.073745 0.0134573 161 15 2
0.0605507 -0.072587 0.0127053 161 15 1
0.0605825 -0.0716224 0.0118006 160 13 0
0.0609035 -0.0704603 0.0110456 160 15 1
0.0612252 -0.0692953 0.0102887 161 13 3
0.0615478 -0.0681275 0.00952999 162 16 3
0.0615797 -0.0671591 0.00862174 166 18 2
0.0619031 -0.0659871 0.00785993 170 17 2
0.061935 -0.0650175 0.00695048 175 20 4
0.0622592 -0.0638413 0.00618564 182 24 4
0.0625843 -0.0626623 0.00541885 190 25 3
0.0626162 -0.0616902 0.00450704 198 28 4
0.0629421 -0.0605069 0.0037372 206 29 7
0.0629741 -0.0595335 0.0028242 215 32 10
0.0633008 -0.058346 0.00205125 226 37 15
0.0639246 -0.0569395 0.00141595 238 42 21
0.065149 -0.0550873 0.00105692 248 47 28
0.065782 -0.053662 0.000414357 254 50 34
0.0661159 -0.0524538 -0.000370398 255 57 40
0.0661483 -0.051468 -0.00129503 255 62 42
0.0664831 -0.0502554 -0.00208299 255 64 45
0.0671225 -0.0488108 -0.00273681 251 64 44
0.0671551 -0.0478212 -0.00366496 214 60 45
0.0592343 -0.0750146 0.0159295 142 20 12
0.0592659 -0.0740511 0.0150259 154 15 6
0.0595849 -0.0728935 0.0142758 158 15 4
0.0596167 -0.0719287 0.013371 159 16 2
0.0596483 -0.0709639 0.0124662 160 15 1
0.0599681 -0.069801 0.0117119 160 15 1
0.0602888 -0.0686351 0.0109558 159 12 3
0.0606102 -0.0674664 0.0101979 161 16 1
0.0609324 -0.0662947 0.00943795 162 16 3
0.0609643 -0.065325 0.00852849 162 16 4
0.0609961 -0.0643552 0.00761896 166 18 4
0.0613192 -0.0631782 0.00685489 174 17 4
0.061643 -0.0619983 0.00608884 181 22 3
0.061675 -0.061026 0.00517696 188 27 4
0.0619997 -0.0598418 0.00440788 195 29 6
0.0620317 -0.0588683 0.00349481 205 30 8
0.0626515 -0.0574647 0.00286384 215 32 9
0.0638681 -0.0556174 0.00251241 224 37 15
0.0644971 -0.0541951 0.00187424 236 43 23
0.064829 -0.052989 0.00109223 248 47 29
0.0651617 -0.0517799 0.000308231 253 51 36
0.0651941 -0.0507939 -0.000616446 255 57 40
0.0655276 -0.0495804 -0.00140363 255 62 45
0.065862 -0.0483639 -0.00219285 255 64 44
0.0661972 -0.0471443 -0.00298403 250 64 44
0.0662297 -0.0461545 -0.00391233 183 51 41
0.0586189 -0.0731999 0.0158465 144 17 14
0.0586506 -0.0722351 0.0149417 152 15 5
0.0589692 -0.0710737 0.0141905 156 15 2
0.0590009 -0.0701076 0.0132845 158 14 1
0.0590327 -0.0691415 0.0123784 158 17 4
0.0593521 -0.0679748 0.011623 159 15 4
0.0596724 -0.0668051 0.0108658 160 13 3
0.0599934 -0.0656326 0.0101067 160 11 5
0.0600252 -0.0646627 0.00919713 160 16 5
0.0603472 -0.063486 0.00843495 163 18 3
0.0606697 -0.0623064 0.00767082 168 15 2
0.0607016 -0.0613341 0.00675893 173 18 3
0.0607336 -0.0603617 0.00584701 178 23 5
0.0610572 -0.0591767 0.00507867 186 26 7
0.0613815 -0.0579886 0.0043084 195 29 7
0.0620005 -0.056581 0.00367863 205 31 8
0.0632153 -0.0547269 0.00333071 213 32 12
0.0638435 -0.0533006 0.00269373 223 38 16
0.0638758 -0.0523159 0.00177021 236 44 23
0.0642073 -0.0511058 0.000986993 246 47 32
0.0639405 -0.0503463 -7.69198e-05 253 51 38
0.064272 -0.0491337 -0.000862524 255 58 43
0.0646044 -0.047918 -0.00165014 255 63 44
0.0649377 -0.0466993 -0.00243977 254 64 44
0.0652717 -0.0454774 -0.00323136 236 60 45
0.0580019 -0.0713805 0.0157632 145 16 7
0.0580336 -0.0704143 0.0148572 154 14 3
0.0580654 -0.0694482 0.0139511 158 13 0
0.0583836 -0.0682817 0.0131976 158 15 4
0.0584153 -0.0673143 0.0122904 159 15 4
0.0587344 -0.0661438 0.0115339 159 12 4
0.0587662 -0.0651751 0.0106255 159 10 4
0.0590861 -0.0640004 0.00986591 160 12 2
0.0594068 -0.0628227 0.00910449 160 16 2
0.0597282 -0.0616422 0.00834113 163 16 2
0.0597602 -0.0606698 0.00742915 166 14 4
0.0597921 -0.0596973 0.00651714 170 16 5
0.0604056 -0.0582974 0.00589439 177 22 5
0.0607295 -0.0571067 0.00512411 185 29 6
0.0616417 -0.0554765 0.00463946 194 31 9
0.0625608 -0.0538341 0.00415114 202 31 10
0.0628901 -0.0526274 0.00337188 212 33 10
0.0629225 -0.0516426 0.00244829 223 39 16
0.0629548 -0.0506578 0.0015247 235 43 27
0.0629871 -0.0496728 0.000601068 246 47 33
0.0630194 -0.0486879 -0.000322625 254 52 38
0.0633498 -0.0474731 -0.00110868 255 59 42
0.063681 -0.0462552 -0.00189669 255 62 44
0.0637135 -0.0452677 -0.00282279 251 65 44
0.0573832 -0.0695562 0.0156797 147 13 8
0.0574149 -0.0685887 0.0147725 154 15 1
0.0574466 -0.0676213 0.0138652 155 13 3
0.0577645 -0.066451 0.0131106 158 11 1
0.0577963 -0.0654823 0.0122021 159 14 0
0.057828 -0.0645135 0.0112936 159 14 1
0.0581468 -0.0633379 0.0105348 158 13 2
0.0584663 -0.0621594 0.00977412 158 12 2
0.0587866 -0.0609779 0.00901151 160 12 3
0.0588185 -0.0600054 0.00809948 162 15 6
0.0591396 -0.0588197 0.00733383 164 17 7
0.0597523 -0.0574158 0.00671223 171 19 4
0.0606608 -0.0557867 0.00623345 178 25 2
0.0609867 -0.0545869 0.00545968 184 28 4
0.0616085 -0.0531618 0.00482868 192 29 6
0.0619367 -0.0519541 0.00405017 202 31 6
0.061969 -0.0509692 0.00312652 212 34 11
0.0620013 -0.0499843 0.00220285 224 37 20
0.0617375 -0.049227 0.00113863 236 43 27
0.0617698 -0.0482432 0.000216007 247 46 31
0.0620982 -0.0470292 -0.00056842 252 53 38
0.0621305 -0.046044 -0.00149225 255 58 42
0.0624597 -0.0448258 -0.00227986 248 61 42
0.0567628 -0.0677271 0.0155959 146 17 7
0.0567945 -0.0667583 0.0146875 151 13 2
0.0568262 -0.0657895 0.013779 155 14 2
0.056858 -0.0648207 0.0128704 157 17 1
0.0571755 -0.0636454 0.0121135 156 16 1
0.0572073 -0.0626753 0.0112038 155 13 1
0.0575257 -0.0614958 0.0104439 156 13 1
0.0578448 -0.0603135 0.00968203 157 13 1
0.0581647 -0.0591281 0.0089183 157 15 4
0.0587749 -0.0577249 0.00830057 160 14 5
0.0590971 -0.0565319 0.00753224 164 16 4
0.059712 -0.0551169 0.0069087 168 19 2
0.0600366 -0.0539162 0.00613569 174 23 4
0.060362 -0.0527124 0.00536071 181 28 7
0.0606882 -0.0515056 0.00458376 191 30 7
0.0607205 -0.0505218 0.0036612 201 32 8
0.0607527 -0.049538 0.00273861 212 34 12
0.0604908 -0.0487821 0.00167499 223 37 16
0.060523 -0.0477994 0.000753433 234 41 24
0.0605552 -0.0468166 -0.00016813 242 48 30
0.0605874 -0.0458339 -0.00108974 246 53 37
0.060914 -0.0446182 -0.00187494 225 57 40
0.0561406 -0.0658932 0.0155119 145 19 6
0.0561724 -0.0649231 0.0146022 150 14 4
0.0562041 -0.063953 0.0136925 152 12 3
0.0562359 -0.0629828 0.0127827 153 16 4
0.0562676 -0.0620126 0.0118729 153 14 3
0.0565849 -0.0608322 0.0111138 155 12 1
0.0569028 -0.0596489 0.0103527 155 12 1
0.0572216 -0.0584627 0.00958969 156 13 3
0.0578294 -0.0570577 0.00897358 157 12 4
0.0581505 -0.0558638 0.00820598 158 13 4
0.0587629 -0.054447 0.00758404 160 15 3
0.0590864 -0.0532454 0.00681183 165 19 2
0.0594105 -0.0520407 0.00603761 172 25 5
0.0594427 -0.0510581 0.00511616 180 29 8
0.0594749 -0.0500754 0.00419468 190 31 10
0.0595071 -0.0490927 0.00327317 199 31 8
0.0586647 -0.0487929 0.0019282 209 32 10
0.0584067 -0.0480414 0.000870705 218 40 18
0.0581493 -0.0472918 -0.000184208 224 44 24
0.0581813 -0.046315 -0.0011002 216 48 29
0.0552326 -0.0642605 0.0152716 143 13 7
0.0552643 -0.0632903 0.0143618 149 12 5
0.0552961 -0.0623201 0.013452 151 10 5
0.0556121 -0.06114 0.0126948 152 16 4
0.0559289 -0.059957 0.0119356 153 16 2
0.0562464 -0.0587711 0.0111745 153 14 1
0.0568518 -0.0573668 0.0105623 154 13 2
0.0571716 -0.0561733 0.00979665 152 13 4
0.0574923 -0.0549767 0.00902903 152 14 2
0.0578137 -0.0537771 0.00825952 154 15 0
0.058136 -0.0525744 0.00748806 157 16 0
0.058459 -0.0513688 0.00671463 163 20 1
0.0584911 -0.0503861 0.00579311 170 24 7
0.0582323 -0.0496299 0.00472695 178 29 11
0.0576846 -0.0491023 0.00352064 187 30 8
0.0574277 -0.0483505 0.00246117 195 30 8
0.0571715 -0.0476004 0.00140426 200 36 12
0.056629 -0.0470802 0.000211924 196 41 18
0.0546074 -0.0624194 0.015187 146 18 2
0.0549228 -0.061238 0.0144309 150 14 2
0.0552392 -0.0600536 0.0136729 151 12 2
0.0555562 -0.0588663 0.012913 150 14 3
0.0561607 -0.0574605 0.0123043 150 14 3
0.0564801 -0.0562654 0.0115398 149 11 2
0.0568002 -0.0550674 0.0107734 148 13 1
0.0568323 -0.0540872 0.00985427 148 11 1
0.0574429 -0.0526624 0.00923477 149 12 1
0.0574751 -0.0516796 0.00831327 150 14 0
0.0575072 -0.0506969 0.00739175 154 14 1
0.0575393 -0.049714 0.00647017 160 18 3
0.0575715 -0.0487312 0.0055486 167 21 4
0.0564485 -0.0486595 0.00405183 173 26 6
0.0561935 -0.047909 0.00299294 176 34 11
0.0556534 -0.047388 0.00179669 174 34 11
0.0545476 -0.0601505 0.0154148 145 16 5
0.0551496 -0.0587478 0.0148122 147 13 3
0.0560421 -0.0571214 0.0143628 148 9 2
0.0563625 -0.0559214 0.013598 147 10 2
0.0566837 -0.0547185 0.0128313 145 10 4
0.0567158 -0.0537345 0.0119087 144 11 5
0.056748 -0.0527505 0.0109861 143 11 6
0.0567802 -0.0517665 0.0100634 143 12 4
0.0568124 -0.0507825 0.0091407 143 11 2
0.0568445 -0.0497984 0.00821795 144 11 2
0.0568767 -0.0488142 0.00729518 148 13 1
0.0566195 -0.0480589 0.00622569 151 16 1
0.0555013 -0.0479904 0.00472556 155 21 4
0.0549622 -0.0474685 0.00352353 152 27 10
0.0559225 -0.0567798 0.0164369 141 13 3
0.0562439 -0.0555749 0.0156718 142 10 3
0.0565661 -0.0543669 0.0149047 141 10 3
0.0565985 -0.0533792 0.0139786 139 9 5
0.0566307 -0.0523915 0.0130526 137 6 5
0.0560835 -0.0518537 0.0118181 136 6 5
0.0561157 -0.0508684 0.0108942 135 9 5
0.0558591 -0.0501095 0.00981897 135 9 2
0.0558912 -0.0491253 0.00889616 136 9 1
0.0559234 -0.0481411 0.00797331 135 12 1
