ply
format ascii 1.0
element vertex 1168
property float x
property float y
property float z
property uchar diffuse_red
property uchar diffuse_green
property uchar diffuse_blue
end_header
0.0627061 -0.118347 0.00162399 255 56 39
0.0630001 -0.117352 0.00091343 255 60 40
0.0635615 -0.116225 0.00032251 255 59 41
0.06359 -0.115356 -0.000512537 255 63 44
0.063886 -0.114354 -0.00122796 255 70 57
0.0639145 -0.113484 -0.00206399 255 92 77
0.0834304 -0.100057 0.00292901 255 101 78
0.0825256 -0.0995995 0.00162638 255 83 60
0.0825563 -0.0986621 0.00072578 255 76 51
0.0828982 -0.0975618 -4.44315e-05 255 75 50
0.0835537 -0.096294 -0.000686523 255 74 54
0.0232752 -0.160096 0.00770271 201 29 4
0.0232991 -0.159369 0.00700367 225 33 10
0.0231367 -0.158711 0.00619734 246 43 24
0.0233467 -0.157913 0.00560551 254 55 36
0.0235571 -0.157115 0.00501252 255 62 41
0.0239551 -0.156242 0.00452431 255 63 44
0.0245429 -0.155294 0.00414004 255 62 43
0.0260866 -0.153967 0.00428543 255 61 40
0.0278484 -0.152544 0.00454091 255 61 39
0.0278727 -0.1518 0.00382628 255 59 38
0.0282874 -0.150899 0.00332535 255 57 36
0.0624641 -0.13115 0.0160862 255 52 31
0.0614324 -0.130737 0.0147005 255 52 35
0.0614608 -0.129871 0.0138688 255 54 34
0.0614891 -0.129005 0.013037 255 53 32
0.058907 -0.129292 0.010878 255 58 35
0.0586772 -0.128551 0.00992513 255 59 36
0.0589631 -0.12758 0.0092326 255 58 39
0.0625111 -0.121706 0.00676614 255 55 37
0.0622739 -0.120962 0.00580377 255 55 37
0.0620372 -0.12022 0.00484351 255 57 37
0.0618011 -0.119479 0.00388536 255 55 35
0.062094 -0.118485 0.00317733 255 57 38
0.0623876 -0.11749 0.00246773 255 56 41
0.0626819 -0.116492 0.00175645 255 56 39
0.0627103 -0.115622 0.000921372 255 54 39
0.0627388 -0.114753 8.62516e-05 255 61 44
0.0627673 -0.113884 -0.000748869 255 68 63
0.0630623 -0.11288 -0.00146466 255 127 103
0.081577 -0.0998863 0.00317212 255 126 101
0.0812984 -0.0991098 0.00213844 255 107 84
0.0816384 -0.0980112 0.00137085 255 85 63
0.0816692 -0.0970737 0.00047015 255 77 51
0.08201 -0.0959713 -0.000300448 255 75 50
0.0829757 -0.0945324 -0.000813302 255 74 54
0.0227716 -0.158796 0.00761605 207 27 3
0.0229816 -0.157998 0.00702441 232 33 8
0.0230055 -0.157268 0.00632397 249 42 21
0.0234028 -0.156396 0.00583771 254 53 34
0.0238016 -0.15552 0.00534962 255 60 41
0.0245798 -0.154492 0.00507367 255 60 41
0.0253638 -0.153457 0.0047956 255 59 38
0.0261538 -0.152414 0.00451538 255 59 37
0.0269498 -0.151363 0.00423298 255 61 38
0.0271681 -0.150541 0.00362601 255 58 36
0.0279718 -0.149478 0.00333882 255 57 35
0.0283882 -0.148569 0.00283493 255 56 36
0.0278252 -0.148065 0.00179792 255 57 35
0.0272655 -0.147565 0.000766847 255 58 34
0.0605842 -0.130137 0.0152984 255 53 33
0.0606409 -0.128406 0.0136349 255 54 34
0.0583256 -0.128584 0.0116013 255 58 37
0.0578391 -0.127958 0.0105156 255 56 39
0.0583817 -0.12687 0.00995395 255 56 38
0.0624575 -0.120728 0.00775455 255 55 40
0.0616883 -0.120235 0.00653059 255 51 38
0.061452 -0.119492 0.0055684 255 50 38
0.0612162 -0.118751 0.00460832 255 55 38
0.0612447 -0.117884 0.00377514 255 52 38
0.0615373 -0.116888 0.00306611 255 53 41
0.0618306 -0.115889 0.00235546 255 57 39
0.061859 -0.115019 0.00152029 255 53 37
0.0618875 -0.11415 0.000685159 255 54 42
0.0621815 -0.113147 -2.90386e-05 255 62 52
0.06221 -0.112276 -0.000865217 255 86 72
0.0803509 -0.0993961 0.00368251 255 109 93
0.0803815 -0.0984596 0.00278291 255 123 106
0.0804122 -0.0975232 0.00188327 255 115 95
0.0807511 -0.0964226 0.00111525 255 91 68
0.0810908 -0.0953193 0.000345368 255 75 53
0.0817419 -0.0940459 -0.000295978 255 75 51
0.0820841 -0.0929357 -0.00107045 255 75 53
0.0226389 -0.157352 0.00774701 211 27 5
0.0230363 -0.156477 0.00726252 233 33 10
0.0234352 -0.1556 0.00677617 250 44 23
0.0238356 -0.154719 0.00628795 255 56 37
0.0244269 -0.15376 0.00590606 255 61 41
0.0250217 -0.152795 0.00552196 255 58 40
0.0256198 -0.151825 0.00513563 255 58 40
0.0262214 -0.150849 0.00474705 255 58 38
0.0268264 -0.149867 0.00435622 255 57 36
0.0274349 -0.14888 0.00396313 255 56 35
0.0274594 -0.148132 0.00324487 255 56 35
0.0265119 -0.147794 0.00199601 255 55 34
0.025382 -0.14754 0.000655193 255 51 34
0.0254062 -0.1468 -5.56521e-05 255 54 34
0.0597924 -0.127806 0.0142328 255 57 36
0.0574856 -0.127991 0.0121932 255 60 39
0.0575136 -0.127133 0.0113695 255 56 36
0.0575417 -0.126276 0.0105458 255 57 40
0.0616033 -0.120124 0.00835602 255 48 35
0.0611013 -0.119506 0.00725913 255 46 33
0.0606016 -0.11889 0.0061671 254 50 37
0.0603667 -0.11815 0.00520628 252 53 40
0.0603951 -0.117283 0.00437303 252 56 39
0.0606868 -0.116285 0.00366462 255 55 40
0.0609791 -0.115286 0.00295456 255 60 44
0.0610075 -0.114416 0.00211937 255 56 38
0.0613005 -0.113413 0.00140676 255 54 40
0.0794032 -0.0996825 0.00522676 255 97 87
0.0794339 -0.098746 0.00432714 255 106 87
0.0794645 -0.0978094 0.00342748 255 105 88
0.0794951 -0.0968729 0.00252778 255 113 108
0.0798329 -0.0957714 0.00176047 255 120 101
0.0801715 -0.0946673 0.000991274 255 97 74
0.0808204 -0.0933921 0.000351448 255 79 59
0.0808512 -0.0924509 -0.000552755 255 78 54
0.0811923 -0.0913386 -0.00132765 255 75 52
0.0228796 -0.155753 0.00809819 213 26 8
0.0230913 -0.154946 0.00750238 235 33 13
0.0234917 -0.154062 0.00701456 251 46 29
0.0238938 -0.153174 0.00652486 255 55 40
0.0244875 -0.152207 0.0061421 255 60 41
0.0248933 -0.151312 0.00564835 255 59 41
0.0254928 -0.150334 0.0052612 255 57 40
0.0259025 -0.149431 0.00476337 255 56 38
0.0265077 -0.148444 0.00437174 255 56 37
0.0263381 -0.147778 0.00354663 255 53 36
0.0257826 -0.147279 0.00251046 255 56 35
0.0246568 -0.147027 0.00116666 255 55 33
0.0244906 -0.14637 0.000352342 255 53 29
0.0589439 -0.127206 0.0148309 255 59 39
0.0566454 -0.127397 0.0127853 255 57 39
0.0566734 -0.126539 0.0119616 255 58 38
0.0567015 -0.125681 0.0111378 255 59 40
0.0607204 -0.120391 0.00979543 255 54 38
0.0602204 -0.119773 0.00869529 253 52 37
0.0599854 -0.11903 0.0077295 252 51 32
0.059751 -0.118288 0.00676588 251 52 33
0.059517 -0.117548 0.00580433 249 51 34
0.0595454 -0.116681 0.00497105 251 49 35
0.0598361 -0.115683 0.00426324 255 53 40
0.0598645 -0.114814 0.00342895 255 57 44
0.0601559 -0.113813 0.00271854 255 55 41
0.0604479 -0.112809 0.00200653 255 51 33
0.0784861 -0.0990324 0.00587157 255 70 61
0.0785167 -0.0980958 0.00497188 255 87 82
0.0788532 -0.0969958 0.00420754 255 103 88
0.0788839 -0.096058 0.00330669 255 98 87
0.0789146 -0.0951201 0.00240578 255 109 101
0.0792521 -0.0940151 0.00163731 255 122 101
0.0795904 -0.0929074 0.000866968 255 103 80
0.0799295 -0.0917969 9.47155e-05 255 81 61
0.0799602 -0.0908556 -0.000809591 255 76 52
0.0806102 -0.0895679 -0.00145551 255 76 51
0.022746 -0.154289 0.00823142 215 30 3
0.0231465 -0.153402 0.00774402 238 37 10
0.0233595 -0.152588 0.00714495 253 48 25
0.0239522 -0.151618 0.00676355 255 56 36
0.0243574 -0.150721 0.00627044 255 55 38
0.0249559 -0.14974 0.00588465 255 53 37
0.0251724 -0.148916 0.00527853 255 56 38
0.0253893 -0.14809 0.0046712 255 56 37
0.0256066 -0.147262 0.00406267 255 56 36
0.025438 -0.146598 0.00323858 255 54 34
0.0250774 -0.146019 0.00231001 255 56 34
0.0237659 -0.145858 0.000863317 255 54 33
0.0580952 -0.126606 0.015429 255 58 41
0.0558051 -0.126802 0.0133775 255 60 40
0.0555783 -0.126062 0.0124206 255 59 38
0.0558611 -0.125087 0.0117298 255 56 41
0.056657 -0.123869 0.0113015 255 54 39
0.0590769 -0.120166 0.00999928 251 52 34
0.0591053 -0.119296 0.00916422 251 49 29
0.0588719 -0.118554 0.00819897 248 50 29
0.0583781 -0.117942 0.00710711 249 48 26
0.0584064 -0.117076 0.00627475 247 47 26
0.0586955 -0.116079 0.00556915 249 49 29
0.0589853 -0.11508 0.00486195 254 53 37
0.0590137 -0.114212 0.00402758 255 54 42
0.0593041 -0.11321 0.00331779 255 52 41
0.0595951 -0.112205 0.00260638 255 50 31
0.0778735 -0.0982203 0.00665483 255 56 43
0.0779042 -0.0972825 0.005754 255 65 52
0.0779348 -0.0963446 0.0048531 255 88 73
0.0782711 -0.095241 0.00408759 255 102 91
0.0783017 -0.094302 0.00318556 255 100 90
0.0786389 -0.0931945 0.00241706 255 106 90
0.0786696 -0.0922542 0.00151384 255 114 94
0.0787003 -0.0913139 0.000610594 255 108 88
0.078731 -0.0903735 -0.000292685 255 88 67
0.0793772 -0.0890862 -0.000936653 255 77 52
0.0800264 -0.0877925 -0.00158377 255 75 51
0.0226114 -0.152816 0.00836535 219 29 9
0.023202 -0.151846 0.00798744 241 37 13
0.0236057 -0.150949 0.00749669 255 48 25
0.024011 -0.150049 0.00700398 255 56 37
0.0242263 -0.149225 0.00639949 255 57 38
0.0246339 -0.148319 0.00590323 255 57 37
0.0246583 -0.147574 0.0051869 255 58 35
0.0250675 -0.146662 0.00468731 255 55 36
0.0250919 -0.145915 0.00396957 255 55 34
0.0251163 -0.145168 0.00325175 255 56 30
0.0245637 -0.144675 0.00221527 255 58 34
0.055474 -0.125973 0.01424 255 56 38
0.0547387 -0.125469 0.0130121 255 57 39
0.0555301 -0.124253 0.0125885 255 54 39
0.0558138 -0.123272 0.0118956 255 55 38
0.0558419 -0.122412 0.0110689 253 56 41
0.0576757 -0.120683 0.0111672 251 49 32
0.0569265 -0.120192 0.00993854 247 48 26
0.0569548 -0.119327 0.00910807 246 46 22
0.0572416 -0.118336 0.00840721 246 47 21
0.0572699 -0.11747 0.00757574 248 48 30
0.0575573 -0.116475 0.00687236 246 49 34
0.0575857 -0.115608 0.00603986 247 53 35
0.0581343 -0.114478 0.00546074 248 54 37
0.0581627 -0.113609 0.00462635 251 56 43
0.0584521 -0.112606 0.00391716 252 52 41
0.0587423 -0.111601 0.00320636 252 49 32
0.076955 -0.0975692 0.00730062 255 50 38
0.0769855 -0.0966312 0.00639974 255 54 40
0.0770162 -0.0956933 0.0054988 255 63 48
0.0773513 -0.0945888 0.00473398 255 75 64
0.077382 -0.0936496 0.00383188 255 93 84
0.077718 -0.0925413 0.00306408 255 106 88
0.0777487 -0.0916009 0.00216082 255 104 85
0.0777794 -0.0906605 0.0012575 255 107 95
0.0781163 -0.0895472 0.000485543 255 114 92
0.078454 -0.088431 -0.000288289 255 95 68
0.079101 -0.0871357 -0.000933912 255 75 50
0.080062 -0.0856552 -0.00145271 255 75 49
0.022854 -0.151178 0.00872305 220 31 5
0.0232578 -0.150278 0.00823269 242 39 15
0.0234724 -0.149455 0.00762934 255 49 31
0.0238785 -0.148549 0.00713539 255 54 39
0.0242863 -0.14764 0.00663957 255 54 37
0.0243106 -0.146892 0.00592181 255 54 34
0.0245273 -0.146062 0.00531322 255 57 37
0.0247444 -0.145229 0.00470345 255 55 35
0.0257379 -0.144053 0.00452744 255 55 35
0.026938 -0.142778 0.00445931 255 58 37
0.0549422 -0.123537 0.0133165 255 57 38
0.0549703 -0.122676 0.0124897 254 53 36
0.0549984 -0.121815 0.011663 252 51 38
0.0550265 -0.120954 0.0108362 247 46 25
0.0550545 -0.120093 0.0100093 245 46 22
0.0561075 -0.118728 0.00970464 245 44 24
0.0561357 -0.117863 0.00887405 246 49 30
0.056164 -0.116998 0.00804341 246 48 35
0.0564499 -0.116004 0.00734127 243 51 35
0.0567365 -0.115007 0.00663752 240 51 37
0.0572833 -0.113875 0.00605968 241 52 35
0.0575717 -0.112873 0.00535207 242 54 42
0.0578609 -0.111868 0.00464285 245 50 38
0.0581506 -0.11086 0.00393202 244 47 30
0.0621713 -0.107891 0.00499805 243 45 24
0.0754012 -0.0981801 0.00856591 246 42 31
0.0760362 -0.0969179 0.00794655 250 45 34
0.0760668 -0.0959799 0.00704559 254 50 38
0.0764008 -0.0948757 0.00628262 255 52 39
0.0770405 -0.0936008 0.00565541 255 57 44
0.0767663 -0.0928285 0.00461454 255 68 57
0.0767969 -0.091888 0.00371123 255 91 77
0.0768276 -0.0909476 0.0028079 255 103 87
0.0768583 -0.090007 0.00190455 255 101 87
0.0771941 -0.0888928 0.0011333 255 106 91
0.0775306 -0.0877758 0.00036015 255 113 91
0.0781754 -0.0864788 -0.000283938 255 101 76
0.0782062 -0.0855336 -0.00119185 255 81 60
0.079164 -0.0840471 -0.00171171 255 74 51
0.0229084 -0.149604 0.00897162 221 30 6
0.0231231 -0.148779 0.00836775 243 40 17
0.0235293 -0.14787 0.00787425 255 50 33
0.0241295 -0.146875 0.00749031 255 54 38
0.0243465 -0.146041 0.00688145 255 56 37
0.0249513 -0.145037 0.00649308 255 55 38
0.0253646 -0.144113 0.00599154 255 54 37
0.0265648 -0.142835 0.00593181 255 57 40
0.0265895 -0.142077 0.00520344 255 57 39
0.0294122 -0.140052 0.00603579 255 58 39
0.0541548 -0.121218 0.0122572 248 48 25
0.053929 -0.120482 0.011298 243 46 20
0.0539571 -0.119622 0.010472 244 47 25
0.0547484 -0.118382 0.0100383 244 47 28
0.0552883 -0.117263 0.00947063 243 46 29
0.0553165 -0.116398 0.00863995 239 43 29
0.0556015 -0.115403 0.00793843 233 44 27
0.0561451 -0.114273 0.00736408 229 45 29
0.056432 -0.113272 0.00665871 228 50 33
0.0569792 -0.112134 0.00607953 230 50 34
0.057268 -0.111127 0.00537025 232 48 32
0.0612737 -0.108162 0.00646074 232 46 26
0.0637549 -0.105976 0.00678885 233 42 19
0.0744845 -0.0975304 0.00921046 235 39 26
0.074515 -0.0965946 0.0083116 240 41 27
0.0751479 -0.0953284 0.00769152 246 45 30
0.0760875 -0.0938884 0.00720795 252 49 36
0.0761182 -0.0929468 0.00630358 255 50 39
0.0764535 -0.0918349 0.00553681 255 54 43
0.0764842 -0.0908921 0.00463125 255 65 54
0.0762103 -0.0901218 0.00359023 255 80 69
0.076241 -0.0891801 0.0026857 255 93 82
0.0765764 -0.0880634 0.00191443 255 99 84
0.0769126 -0.0869439 0.00114125 255 103 87
0.0772497 -0.0858217 0.00036614 255 109 95
0.0772805 -0.0848764 -0.000541832 255 105 88
0.0779262 -0.0835691 -0.00118984 255 86 67
0.0782657 -0.0824386 -0.00197073 255 74 54
0.022963 -0.148018 0.00922205 222 32 11
0.0233701 -0.147105 0.00872869 242 42 23
0.0237788 -0.146189 0.00823343 253 51 35
0.0243825 -0.145184 0.00784858 255 56 38
0.0251847 -0.144087 0.00757403 255 58 39
0.0259932 -0.142981 0.0072973 255 60 40
0.026808 -0.141867 0.00701838 255 60 41
0.0272301 -0.140924 0.00651135 255 57 38
0.0286584 -0.139519 0.00656726 255 60 40
0.0294942 -0.138377 0.00628175 255 61 39
0.0299272 -0.137415 0.00576666 255 58 38
0.0299524 -0.136642 0.00502362 255 57 39
0.0523029 -0.121116 0.0123178 244 47 20
0.0523308 -0.120259 0.0114945 243 48 23
0.0528619 -0.119151 0.0109338 242 48 29
0.0539027 -0.117784 0.0106337 239 48 28
0.0544408 -0.116663 0.0100673 234 44 24
0.0544689 -0.115798 0.00923661 224 38 18
0.054753 -0.114802 0.00853566 217 35 14
0.0552947 -0.113671 0.0079626 215 38 18
0.0560976 -0.112401 0.00751636 212 43 27
0.057167 -0.110985 0.00719673 215 44 28
0.0603759 -0.108433 0.0079237 218 42 26
0.0620279 -0.106685 0.00786585 219 39 21
0.0631517 -0.105207 0.0075396 221 38 15
0.0645636 -0.103566 0.00734422 221 38 16
0.0699971 -0.0997348 0.00906141 220 37 20
0.072673 -0.0973687 0.00943065 223 33 15
0.0732992 -0.0961089 0.00881547 228 36 17
0.0742288 -0.0946768 0.00833762 233 41 22
0.0751651 -0.0932344 0.00785628 239 45 31
0.0754992 -0.0921227 0.00709139 248 45 34
0.0755299 -0.0911799 0.00618583 253 48 37
0.0758649 -0.0900643 0.00541787 255 53 42
0.0755913 -0.089294 0.00437458 255 61 50
0.075622 -0.088351 0.00346889 255 71 60
0.0756528 -0.087408 0.00256315 255 88 72
0.0759879 -0.0862877 0.00179069 255 102 82
0.0763238 -0.0851646 0.00101634 255 105 88
0.0763546 -0.0842192 0.000108276 255 112 97
0.0763854 -0.0832737 -0.000799786 255 128 97
0.0770289 -0.0819623 -0.00144852 255 112 77
0.0773673 -0.0808297 -0.00222982 255 76 58
0.023018 -0.14642 0.00947434 221 34 12
0.0236195 -0.145415 0.00909308 239 45 25
0.0244187 -0.144319 0.00882332 250 53 38
0.0252241 -0.143214 0.00855144 255 57 41
0.0260358 -0.142101 0.00827739 255 59 42
0.027253 -0.140798 0.00823041 255 57 39
0.0278794 -0.139756 0.00783745 255 56 38
0.0281058 -0.138894 0.00721303 255 58 41
0.0285348 -0.137936 0.00670126 255 57 40
0.0289654 -0.136975 0.00618741 255 56 38
0.0291939 -0.136106 0.00555818 255 59 39
0.0292192 -0.135332 0.00481506 255 56 38
0.0499726 -0.121259 0.0121138 243 48 24
0.050743 -0.120037 0.0116897 240 49 29
0.0515185 -0.118807 0.0112628 237 45 24
0.0525512 -0.117441 0.0109648 229 44 21
0.0535931 -0.116063 0.0106642 213 39 19
0.0538761 -0.115068 0.00996477 200 36 15
0.0544158 -0.113937 0.00939487 194 33 11
0.054958 -0.112802 0.00882237 192 33 13
0.0562812 -0.111253 0.00864019 193 33 17
0.0610948 -0.107851 0.0101966 195 35 20
0.0622143 -0.106378 0.00988108 201 34 16
0.063068 -0.10504 0.00942639 204 33 14
0.0630972 -0.10414 0.00856179 208 32 9
0.063957 -0.102789 0.00810087 209 34 11
0.0688038 -0.0992524 0.00955747 210 32 12
0.0714636 -0.0968838 0.00993154 213 34 13
0.0717897 -0.0957884 0.00917735 218 34 14
0.0730102 -0.0941921 0.00884271 222 36 16
0.0742425 -0.0925803 0.00850477 229 39 21
0.0745755 -0.0914677 0.00774056 236 41 26
0.0749093 -0.0903524 0.00697451 245 45 32
0.07494 -0.0894082 0.00606773 251 47 34
0.0749707 -0.0884641 0.00516093 254 51 37
0.0750014 -0.0875199 0.00425406 255 57 43
0.0750322 -0.0865756 0.00334721 255 67 55
0.0753669 -0.0854528 0.00257467 255 85 70
0.0753977 -0.0845073 0.00166661 255 95 81
0.0751244 -0.0837425 0.000626314 255 102 89
0.0751551 -0.0827981 -0.000280719 255 124 105
0.07549 -0.0816706 -0.00105779 255 139 107
0.0755208 -0.0807249 -0.00196598 255 114 84
0.0755516 -0.0797793 -0.00287425 255 80 61
0.0236526 -0.144552 0.0100728 219 36 14
0.024455 -0.143448 0.00980574 236 46 27
0.0250672 -0.142424 0.00942126 248 54 39
0.0264763 -0.141033 0.00949704 254 55 42
0.0269003 -0.140084 0.0089918 255 53 38
0.0271254 -0.139223 0.00836915 255 54 38
0.027552 -0.138267 0.00786014 255 55 40
0.0277785 -0.137402 0.00723444 255 54 40
0.0284103 -0.136343 0.006836 255 55 40
0.0284354 -0.135569 0.00609285 255 58 40
0.0288671 -0.1346 0.00557617 255 56 39
0.0461987 -0.122962 0.0119411 245 49 26
0.0467061 -0.121882 0.0113922 241 47 23
0.0489199 -0.11994 0.0117525 235 45 24
0.0506782 -0.118212 0.0118546 225 40 18
0.0527452 -0.115463 0.0112611 178 37 18
0.0530273 -0.114467 0.0105623 170 31 18
0.0538208 -0.113202 0.0101257 171 27 14
0.0548776 -0.111792 0.00981839 171 24 10
0.0620979 -0.107116 0.0126407 175 25 11
0.0624022 -0.106069 0.0119152 176 33 17
0.0624315 -0.105168 0.0110496 183 32 13
0.0630129 -0.103968 0.0104588 188 30 9
0.0630423 -0.103065 0.00959118 193 29 6
0.0644634 -0.101399 0.00940626 195 31 11
0.0661848 -0.0995581 0.00935714 198 30 11
0.0679307 -0.0976907 0.00930733 202 31 9
0.0705811 -0.0953052 0.00967859 209 32 10
0.0717944 -0.0937084 0.00934667 215 31 11
0.0733198 -0.091926 0.00915334 219 33 14
0.0736516 -0.0908126 0.00838988 226 36 19
0.0742869 -0.0895228 0.00776518 233 40 23
0.0743176 -0.0885774 0.00685725 241 43 27
0.0743484 -0.087632 0.00594928 248 46 32
0.0743792 -0.0866866 0.00504129 253 49 38
0.07441 -0.085741 0.00413323 255 53 42
0.0744407 -0.0847955 0.00322515 255 63 51
0.0744714 -0.0838499 0.00231702 255 77 63
0.0745022 -0.0829043 0.00140886 255 90 75
0.07423 -0.0821413 0.000368778 255 109 92
0.0745637 -0.0810129 -0.000407573 255 125 105
0.0745945 -0.0800672 -0.00131583 255 132 108
0.0746253 -0.0791214 -0.00222416 255 116 90
0.0746561 -0.0781756 -0.00313252 255 85 63
0.0242957 -0.142658 0.0106794 216 37 14
0.0251061 -0.141539 0.0104128 232 47 25
0.026122 -0.14032 0.0102611 245 53 37
0.0263463 -0.139459 0.00963962 252 54 39
0.0265712 -0.138597 0.0090169 254 52 37
0.026997 -0.137639 0.00850864 255 52 36
0.0272231 -0.136772 0.0078829 255 53 38
0.0276515 -0.135807 0.00737082 255 54 38
0.0280817 -0.134838 0.00685664 255 54 39
0.0285136 -0.133866 0.00634037 254 54 38
0.0413647 -0.125196 0.0111362 244 45 22
0.0416219 -0.124255 0.0104693 242 48 26
0.0444515 -0.122017 0.011198 234 44 19
0.0480858 -0.11935 0.0123399 218 41 16
0.0518972 -0.114863 0.0118581 132 48 30
0.0524319 -0.113733 0.011293 131 46 34
0.0534801 -0.11233 0.0109915 133 40 29
0.0614603 -0.107246 0.0142679 144 32 21
0.0625917 -0.105757 0.0139683 157 27 16
0.0626212 -0.104851 0.0130986 163 32 17
0.0629278 -0.103796 0.0123693 167 33 15
0.0632352 -0.102738 0.0116382 173 28 9
0.0635433 -0.101677 0.0109054 177 26 7
0.0646938 -0.100149 0.0105874 181 27 8
0.065288 -0.0989225 0.00998785 187 25 8
0.0667408 -0.0972109 0.00980267 191 27 4
0.0687917 -0.0951518 0.00989634 199 28 6
0.0702863 -0.093393 0.00970787 204 29 7
0.0720975 -0.0914425 0.00965943 210 29 9
0.0730284 -0.0899845 0.0091815 216 30 12
0.0739659 -0.0885159 0.00870002 222 35 15
0.074605 -0.0872141 0.00807295 229 39 20
0.074636 -0.086264 0.0071605 237 42 26
0.0746669 -0.0853139 0.006248 245 45 30
0.0743931 -0.0845443 0.0051971 253 47 32
0.0744239 -0.0835952 0.00428564 255 53 39
0.0744548 -0.0826461 0.00337413 255 60 48
0.0738783 -0.0820639 0.00219342 255 72 60
0.0736066 -0.0813009 0.00115106 255 93 79
0.0736373 -0.0803551 0.000242788 255 117 95
0.0742741 -0.0790364 -0.000403669 255 128 102
0.0743049 -0.0780882 -0.00131426 255 129 107
0.0746399 -0.0769505 -0.00209568 255 120 98
0.0749758 -0.07581 -0.002879 255 89 71
0.024553 -0.140919 0.011059 210 38 14
0.0253685 -0.139788 0.0107925 228 44 24
0.0257911 -0.138834 0.0102888 239 53 36
0.0262154 -0.137876 0.00978302 246 53 38
0.0262405 -0.137104 0.00904207 252 50 32
0.0266665 -0.136141 0.00853275 253 50 35
0.0272962 -0.135076 0.0081373 253 52 35
0.0277265 -0.134104 0.00762357 252 50 35
0.030425 -0.132019 0.00839179 248 53 37
0.0377865 -0.127614 0.0117643 242 50 34
0.0382608 -0.126576 0.0112317 239 45 24
0.0387371 -0.125534 0.0106968 239 45 23
0.0398966 -0.124143 0.0105354 231 44 21
0.0408384 -0.122855 0.0102463 211 43 20
0.0625345 -0.104681 0.015023 127 45 35
0.062564 -0.103773 0.0141503 146 36 20
0.0634299 -0.102408 0.0137046 157 30 13
0.0637396 -0.101342 0.0129707 164 26 8
0.0637692 -0.100428 0.0120938 167 23 7
0.0643612 -0.0992022 0.0114977 170 22 6
0.0646732 -0.0981286 0.0107585 176 20 3
0.0658385 -0.0965714 0.0104371 181 23 3
0.0670149 -0.0949993 0.0101127 188 26 4
0.0687853 -0.0930789 0.0100675 194 26 4
0.0708781 -0.09096 0.0101644 200 26 4
0.0724034 -0.0891544 0.00997514 206 29 6
0.0733399 -0.0876808 0.00949593 213 31 7
0.0736741 -0.0865538 0.00872706 220 34 11
0.073705 -0.0856036 0.00781456 227 36 14
0.0737358 -0.0846533 0.00690201 235 39 18
0.0737667 -0.083703 0.00598942 243 44 25
0.0741019 -0.0825696 0.00521522 251 46 29
0.0738285 -0.0818023 0.00416412 255 49 35
0.0738593 -0.0808519 0.00325142 255 56 43
0.0735865 -0.0800875 0.0022039 255 69 56
0.0736174 -0.0791382 0.00129222 255 95 74
0.0736482 -0.0781888 0.00038049 255 117 93
0.0736791 -0.0772394 -0.000531252 255 123 105
0.0740137 -0.0760992 -0.00131273 255 128 113
0.0743492 -0.0749562 -0.00209613 255 117 100
0.0756062 -0.0732256 -0.00249341 255 87 62
0.0248127 -0.139163 0.0114424 207 33 15
0.025036 -0.1383 0.0108214 219 43 24
0.0254588 -0.137341 0.0103166 230 50 33
0.0256833 -0.136474 0.00969257 240 50 32
0.0261087 -0.135508 0.00918399 245 49 32
0.0269393 -0.134343 0.00890689 246 51 34
0.0273697 -0.133367 0.00839365 244 49 31
0.0313269 -0.130646 0.00989215 239 52 37
0.0354402 -0.127818 0.0114497 235 49 31
0.0359062 -0.126788 0.0109203 235 43 22
0.0368176 -0.12553 0.010637 227 44 23
0.0379609 -0.124147 0.010476 204 44 20
0.0616437 -0.104051 0.0156499 100 61 54
0.0625063 -0.102686 0.0152094 120 52 38
0.0633749 -0.101313 0.0147657 137 38 19
0.0634046 -0.100397 0.0138868 154 28 10
0.0637154 -0.0993251 0.0131504 161 21 7
0.0637451 -0.0984086 0.0122703 163 19 7
0.0643392 -0.0971731 0.0116724 168 19 4
0.064936 -0.0959317 0.0110717 173 17 3
0.0658215 -0.0945207 0.0106089 180 20 2
0.067872 -0.0924315 0.0107095 185 22 1
0.0699571 -0.090307 0.0108117 191 26 1
0.0714768 -0.0884973 0.0106263 198 29 3
0.0724099 -0.0870213 0.0101494 205 28 2
0.0727429 -0.0858933 0.00938133 210 31 4
0.0727738 -0.084943 0.00846874 217 32 6
0.0728046 -0.0839927 0.00755614 224 33 9
0.0731387 -0.0828595 0.0067838 231 37 16
0.0731695 -0.081908 0.00587002 241 40 21
0.0732005 -0.0809563 0.00495616 248 43 26
0.0729281 -0.0801909 0.00390526 253 49 33
0.0729589 -0.0792403 0.00299245 255 53 39
0.0729898 -0.0782897 0.00207961 255 66 49
0.0730207 -0.0773391 0.00116671 255 88 69
0.0730515 -0.0763884 0.000253785 255 104 92
0.0733859 -0.0752457 -0.000527751 255 112 103
0.0737209 -0.0741002 -0.00131122 255 108 91
0.0746691 -0.0725598 -0.00183601 255 90 73
0.0750074 -0.0714053 -0.00262501 255 78 58
0.0244787 -0.137672 0.0114725 197 34 15
0.0249007 -0.136711 0.0109685 208 40 20
0.0253245 -0.135746 0.0104624 220 43 24
0.0255497 -0.134874 0.00983662 227 45 26
0.0265808 -0.133606 0.00967969 230 46 31
0.028237 -0.13202 0.00987758 231 48 28
0.0305486 -0.130096 0.0104408 228 49 32
0.0335593 -0.127803 0.0113869 224 45 22
0.0346727 -0.126447 0.0112317 215 42 21
0.0351371 -0.125415 0.0107017 190 43 25
0.0624479 -0.101592 0.016276 98 63 55
0.0624776 -0.100677 0.015397 108 57 40
0.0627873 -0.0996052 0.0146624 130 40 27
0.0630977 -0.0985308 0.0139261 151 22 11
0.0634089 -0.0974537 0.0131879 157 21 7
0.0634387 -0.0965349 0.0123057 163 19 5
0.0640333 -0.095292 0.0117064 169 17 4
0.0646308 -0.094043 0.0111042 173 17 2
0.0660918 -0.0922879 0.0109238 177 17 3
0.0684475 -0.0899982 0.011171 182 24 1
0.0699545 -0.0881909 0.0109882 188 25 2
0.0711793 -0.0865396 0.0106582 195 26 2
0.0715105 -0.0854124 0.00989156 200 29 5
0.0718425 -0.0842824 0.00912303 205 30 6
0.0718733 -0.0833319 0.00821035 213 32 8
0.0719041 -0.0823814 0.00729764 220 34 11
0.072237 -0.0812462 0.00652488 228 36 16
0.0722679 -0.0802945 0.00561098 236 40 21
0.0722988 -0.0793427 0.00469704 244 44 26
0.0720275 -0.0785791 0.00364635 252 47 30
0.0723605 -0.0774391 0.002869 255 51 36
0.0723915 -0.0764872 0.00195495 255 61 46
0.0724223 -0.0755352 0.00104083 255 76 65
0.0727562 -0.07439 0.000259239 255 89 84
0.073091 -0.0732419 -0.000524294 255 92 85
0.0737319 -0.071894 -0.00117853 255 88 71
0.074069 -0.0707386 -0.00196677 255 83 64
0.0741001 -0.0697806 -0.00288666 255 75 56
0.0334442 -0.126108 0.0115419 166 44 28
0.0618591 -0.0998853 0.0161746 90 63 57
0.0621684 -0.0988111 0.01544 102 57 49
0.0624784 -0.0977344 0.0147037 129 35 23
0.0625082 -0.0968156 0.0138214 149 24 9
0.062819 -0.0957351 0.0130821 160 20 2
0.0631306 -0.0946521 0.0123411 165 18 5
0.0637259 -0.0934016 0.0117404 167 18 5
0.0646092 -0.091978 0.0112788 170 16 6
0.0663644 -0.0900333 0.0112417 174 20 3
0.0678515 -0.0882348 0.0110601 178 18 3
0.0693567 -0.0864145 0.0108763 184 24 3
0.0702809 -0.0849325 0.0104007 190 25 5
0.0706109 -0.0838032 0.00963365 196 28 5
0.0706418 -0.0828538 0.008722 203 29 6
0.0709727 -0.0817205 0.0079519 209 31 7
0.0713044 -0.0805843 0.00717992 217 32 11
0.0713352 -0.0796325 0.00626593 223 34 15
0.0713661 -0.0786806 0.0053519 231 38 20
0.0713969 -0.0777287 0.00443785 242 42 25
0.0714278 -0.0767768 0.00352374 250 46 28
0.0717605 -0.075633 0.00274521 254 49 32
0.072094 -0.0744865 0.00196474 255 56 42
0.072125 -0.0735321 0.00104826 255 66 56
0.0724593 -0.0723815 0.000264693 255 76 66
0.0724903 -0.0714258 -0.00065298 255 82 66
0.0728255 -0.0702711 -0.00143969 255 83 66
0.0731615 -0.0691136 -0.00222838 255 79 61
0.0734984 -0.0679531 -0.00301902 255 77 56
0.0618277 -0.097856 0.0163666 89 66 57
0.0618575 -0.0969361 0.0154832 104 57 41
0.0618873 -0.0960161 0.0145998 132 35 19
0.0621977 -0.0949333 0.0138606 152 23 6
0.0622276 -0.0940121 0.012976 160 17 3
0.0628208 -0.09276 0.0123767 162 16 5
0.0637008 -0.091334 0.0119173 165 18 6
0.0651614 -0.0895561 0.011741 168 17 4
0.0663486 -0.087931 0.0114185 172 16 4
0.067254 -0.0864669 0.0109489 175 20 4
0.0684614 -0.084813 0.0106197 181 22 3
0.0687881 -0.0836876 0.00985569 188 25 2
0.0688187 -0.0827415 0.00894732 194 25 1
0.069742 -0.0812441 0.00846394 199 27 3
0.0700718 -0.0801087 0.0076934 206 28 6
0.0704024 -0.0789704 0.00692098 213 30 8
0.0707338 -0.0778294 0.00614663 220 32 12
0.0707647 -0.0768762 0.0052314 229 37 18
0.0707955 -0.075923 0.00431613 239 41 21
0.07143 -0.0745832 0.00367457 247 44 25
0.071461 -0.0736276 0.00275699 253 49 33
0.071492 -0.072672 0.00183934 255 53 39
0.0715229 -0.0717163 0.00092167 255 61 46
0.0715539 -0.0707605 3.98234e-06 255 70 55
0.071888 -0.0696049 -0.000781979 255 78 62
0.0722228 -0.0684465 -0.00156997 255 81 64
0.0722539 -0.0674883 -0.00249001 255 79 60
0.072895 -0.0661209 -0.00315179 255 75 57
0.061235 -0.0961357 0.0162647 94 66 53
0.0612648 -0.0952145 0.0153802 108 55 40
0.0612946 -0.0942933 0.0144956 135 35 20
0.0616047 -0.0932071 0.0137553 153 20 5
0.0619155 -0.0921183 0.0130132 158 17 3
0.0625093 -0.0908586 0.0124124 161 17 5
0.063961 -0.0890799 0.0122392 165 15 5
0.0648525 -0.0876286 0.0117753 168 18 4
0.0657504 -0.0861668 0.011308 171 16 3
0.0663628 -0.0848729 0.0106936 174 18 3
0.0669782 -0.0835727 0.0100762 180 20 2
0.0675964 -0.0822662 0.0094558 186 21 0
0.0679221 -0.0811374 0.0086902 190 25 0
0.068842 -0.079634 0.00820579 196 27 2
0.0694694 -0.0783082 0.00757616 203 29 4
0.0697996 -0.0771663 0.00680253 210 30 6
0.0698305 -0.076213 0.00588721 217 32 11
0.0701616 -0.0750671 0.00511054 226 35 15
0.0704935 -0.0739182 0.00433189 234 39 20
0.0705245 -0.0729625 0.00341422 244 45 27
0.0705554 -0.0720068 0.00249656 252 48 32
0.0705864 -0.071051 0.0015788 255 52 37
0.0706173 -0.0700951 0.000661019 255 59 43
0.0709502 -0.0689386 -0.000124227 255 66 53
0.0709812 -0.0679815 -0.00104321 255 73 60
0.0713149 -0.0668209 -0.00183157 255 78 61
0.0716495 -0.0656574 -0.00262192 255 77 59
0.0725958 -0.0640758 -0.00315524 254 73 54
0.0603616 -0.0945745 0.0160154 92 65 56
0.0606705 -0.0934886 0.0152768 108 56 41
0.0609801 -0.0924001 0.0145365 136 36 18
0.0610101 -0.0914765 0.0136497 154 18 4
0.0616017 -0.0902152 0.0130504 158 18 3
0.0630481 -0.0884326 0.012881 162 16 5
0.0639362 -0.0869788 0.0124193 165 19 3
0.0645421 -0.0856915 0.0118097 167 17 3
0.0651507 -0.0843979 0.0111972 169 15 4
0.0654714 -0.0832785 0.0104383 174 15 2
0.0660845 -0.0819743 0.00982018 177 17 0
0.0667007 -0.0806638 0.00919907 181 21 0
0.0676151 -0.0791604 0.00871705 186 24 0
0.0682387 -0.077835 0.00808932 192 26 2
0.068567 -0.0766938 0.00731722 199 28 4
0.0688961 -0.0755497 0.00654316 205 30 7
0.0692261 -0.0744029 0.0057672 214 31 9
0.0695568 -0.0732531 0.00498931 223 34 11
0.0698884 -0.0721005 0.00420946 232 37 16
0.0699194 -0.0711435 0.00329057 242 42 24
0.0696497 -0.0703855 0.00223601 250 48 32
0.0696806 -0.0694296 0.00131816 254 52 38
0.0700123 -0.0682722 0.000533689 255 56 44
0.0700433 -0.067315 -0.000385355 255 64 51
0.0700743 -0.0663578 -0.00130443 255 72 57
0.0704069 -0.0651951 -0.00209322 255 74 58
0.0710434 -0.0638218 -0.00275416 255 73 55
0.0719886 -0.0622313 -0.00328874 252 71 52
0.0600447 -0.0926819 0.01606 88 66 57
0.060354 -0.0915911 0.0153196 110 55 40
0.060664 -0.0904976 0.0145775 138 32 17
0.0612563 -0.0892309 0.0139789 154 19 5
0.0621348 -0.0877851 0.0135228 158 16 4
0.0630198 -0.0863289 0.0130634 161 19 2
0.0633363 -0.0852172 0.0123103 163 17 4
0.0639414 -0.083924 0.0116997 165 17 7
0.0642602 -0.0828052 0.0109423 169 15 3
0.0645798 -0.0816838 0.010183 172 15 1
0.0654821 -0.0801913 0.00970681 174 20 0
0.0658047 -0.0790612 0.00894227 178 21 0
0.0670108 -0.0773628 0.00860139 183 23 2
0.0676337 -0.0760312 0.00797254 190 23 3
0.0679616 -0.0748863 0.00719923 196 27 5
0.0682904 -0.0737385 0.006424 204 29 5
0.06862 -0.0725879 0.00564684 213 30 6
0.068651 -0.071632 0.00472905 220 33 9
0.0686818 -0.070676 0.00381123 230 36 16
0.0687128 -0.06972 0.00289335 240 41 23
0.0687437 -0.068764 0.00197547 248 47 31
0.0687746 -0.0678079 0.00105752 253 50 37
0.0691052 -0.0666484 0.000272591 255 55 44
0.0691361 -0.0656911 -0.000646543 255 63 47
0.0694676 -0.0645274 -0.00143462 255 68 52
0.0697999 -0.0633608 -0.00222465 255 68 52
0.0704357 -0.0619812 -0.00288681 255 67 50
0.0710747 -0.0605948 -0.0035523 250 69 50
0.0594472 -0.0909484 0.0159572 89 64 58
0.0603162 -0.0895139 0.0155098 112 50 40
0.0606273 -0.0884139 0.0147651 139 31 17
0.0615047 -0.0869634 0.0143112 152 21 9
0.0621032 -0.0856789 0.0137076 158 17 2
0.0624186 -0.0845663 0.0129553 162 17 1
0.0627348 -0.083451 0.0122011 164 15 5
0.0630518 -0.082333 0.0114451 166 18 2
0.0633694 -0.0812123 0.0106873 168 19 3
0.0636879 -0.0800887 0.00992756 170 20 2
0.064587 -0.0785903 0.00945036 172 18 0
0.0652003 -0.0772697 0.00882738 176 20 2
0.0661103 -0.0757518 0.00834319 182 19 3
0.0667309 -0.0744162 0.00771359 187 24 2
0.0670578 -0.0732692 0.00693986 195 27 3
0.0673854 -0.0721193 0.00616424 203 30 4
0.0677139 -0.0709665 0.00538664 211 33 6
0.0677449 -0.0700105 0.00446873 219 33 11
0.0677757 -0.0690544 0.00355083 228 35 15
0.0678066 -0.0680982 0.00263285 236 42 21
0.068136 -0.066939 0.00184983 246 46 29
0.068167 -0.0659816 0.000930656 253 49 33
0.0681979 -0.0650242 1.14329e-05 255 54 37
0.0685282 -0.0638596 -0.00077587 255 61 45
0.0685592 -0.062901 -0.0016963 255 66 50
0.0688903 -0.0617323 -0.00248673 255 69 51
0.0698263 -0.0601358 -0.00301982 255 67 49
0.0701606 -0.0589579 -0.0038159 250 70 50
0.059686 -0.0886972 0.016298 92 60 58
0.06056 -0.0872477 0.0158496 117 50 36
0.0611562 -0.0859639 0.0152496 142 28 14
0.0614704 -0.0848515 0.0144991 155 16 3
0.0617855 -0.0837365 0.0137468 159 17 1
0.0618158 -0.0827992 0.0128469 160 17 5
0.0621316 -0.0816803 0.0120916 162 19 4
0.0621619 -0.0807417 0.0111905 165 20 5
0.0624785 -0.0796189 0.0104322 167 17 5
0.0630837 -0.0783071 0.00981455 169 16 2
0.0636918 -0.076989 0.00919389 171 15 1
0.0643028 -0.0756644 0.00857015 174 16 1
0.0652095 -0.0741405 0.00808491 179 20 1
0.065828 -0.0728008 0.00745462 187 24 1
0.0661538 -0.0716517 0.00668048 193 27 1
0.0664803 -0.0704997 0.0059044 201 30 3
0.0668077 -0.0693448 0.00512639 209 32 9
0.0668385 -0.0683886 0.00420839 215 33 12
0.0671667 -0.0672296 0.00342727 224 37 15
0.0671977 -0.0662722 0.00250809 234 40 21
0.0672286 -0.0653147 0.00158884 245 46 25
0.0675576 -0.0641505 0.000803415 252 49 31
0.0675886 -0.0631917 -0.000117045 255 52 37
0.0676196 -0.062233 -0.00103752 255 60 44
0.0676506 -0.0612742 -0.00195802 255 66 48
0.0682803 -0.0598909 -0.00261892 255 67 49
0.0689132 -0.0585007 -0.00328306 255 71 49
0.0692464 -0.0573206 -0.00407956 248 69 51
0.060209 -0.0862488 0.0167917 94 61 56
0.0608059 -0.0849595 0.0161925 120 46 36
0.0608361 -0.0840221 0.0152926 146 25 12
0.0608663 -0.0830847 0.0143927 154 17 4
0.0608966 -0.0821472 0.0134927 157 19 6
0.0612113 -0.0810274 0.0127381 160 15 6
0.0612416 -0.0800888 0.011837 162 15 6
0.0615571 -0.0789651 0.0110794 165 15 7
0.0615875 -0.0780252 0.0101771 167 15 3
0.0621905 -0.0767095 0.00955876 167 16 1
0.0627963 -0.0753873 0.00893732 168 16 1
0.0634052 -0.0740587 0.0083129 171 18 1
0.0643086 -0.0725289 0.00782662 178 19 1
0.0649248 -0.0711851 0.00719557 184 22 1
0.0655441 -0.0698348 0.0065614 190 26 2
0.0658703 -0.068679 0.00578416 198 29 5
0.0661973 -0.0675203 0.00500492 207 32 7
0.0662282 -0.0665629 0.00408568 215 33 10
0.066556 -0.0654001 0.00330337 223 37 15
0.066587 -0.0644414 0.00238294 233 43 20
0.0666179 -0.0634826 0.00146248 243 45 26
0.0666488 -0.0625237 0.000541959 252 47 33
0.0666798 -0.0615649 -0.00037859 255 52 38
0.0667107 -0.060606 -0.00129918 255 59 43
0.0667416 -0.059647 -0.00221982 255 66 48
0.0676686 -0.0580446 -0.00275144 255 72 50
0.0683007 -0.056648 -0.00341688 254 70 51
0.0692392 -0.0550244 -0.00395631 239 66 54
0.0601698 -0.0841291 0.0169892 98 63 58
0.0602 -0.0831905 0.0160882 124 42 32
0.0602303 -0.0822519 0.0151871 145 24 14
0.0602606 -0.0813132 0.0142859 156 18 6
0.0602909 -0.0803745 0.0133848 159 15 5
0.0603211 -0.0794357 0.0124836 160 13 7
0.0606355 -0.0783112 0.0117267 162 13 6
0.0606658 -0.0773712 0.0108244 164 14 4
0.060981 -0.0762427 0.0100645 165 14 4
0.0615833 -0.0749209 0.00944505 164 19 3
0.0621884 -0.0735927 0.0088225 165 21 4
0.0630863 -0.0720629 0.0083386 170 19 4
0.0639908 -0.0705218 0.00785116 176 20 2
0.0646078 -0.0691698 0.00721853 182 22 1
0.0649328 -0.0680131 0.00644201 189 25 0
0.0652586 -0.0668535 0.00566353 198 28 1
0.0655852 -0.0656911 0.00488311 206 30 3
0.0656162 -0.0647323 0.00396264 212 34 8
0.0656471 -0.0637734 0.00304214 220 37 13
0.065678 -0.0628146 0.0021216 232 39 18
0.0657089 -0.0618556 0.00120104 243 43 28
0.0657398 -0.0608967 0.000280429 252 48 35
0.0657708 -0.0599376 -0.00064024 255 52 39
0.0658017 -0.0589786 -0.00156094 255 59 44
0.0667251 -0.0573736 -0.00209018 255 66 48
0.0673549 -0.0559753 -0.00275406 255 67 49
0.0685926 -0.0541277 -0.00316064 252 69 52
0.0692317 -0.0527108 -0.00383219 223 69 54
0.0595623 -0.0823568 0.0168857 96 64 57
0.0595926 -0.0814169 0.0159835 124 42 34
0.0596229 -0.080477 0.0150812 147 22 11
0.0596531 -0.0795371 0.0141789 157 17 5
0.0596834 -0.0785971 0.0132765 158 13 6
0.0597138 -0.0776571 0.0123742 160 13 6
0.0597441 -0.076717 0.0114717 161 16 4
0.0600581 -0.0755877 0.0107126 162 12 5
0.0603729 -0.0744556 0.00995164 162 19 5
0.061261 -0.0729343 0.0094736 162 22 5
0.0618668 -0.0715979 0.00884952 165 20 5
0.0630566 -0.0698584 0.00850685 169 19 4
0.0636712 -0.0685047 0.00787579 174 20 3
0.0639951 -0.0673471 0.00709997 180 22 1
0.0646143 -0.0659821 0.00646304 188 25 0
0.0646452 -0.0650232 0.00554257 195 27 1
0.0646761 -0.0640644 0.00462202 202 30 4
0.064707 -0.0631054 0.00370145 210 32 8
0.0647379 -0.0621464 0.00278089 221 35 13
0.0647689 -0.0611874 0.00186022 231 39 22
0.0647998 -0.0602283 0.000939552 243 44 30
0.0648307 -0.0592692 1.88239e-05 252 47 31
0.0651572 -0.0580956 -0.00076982 255 52 35
0.0657815 -0.0567025 -0.00142882 255 58 42
0.066409 -0.0553024 -0.00209111 255 65 46
0.0676419 -0.0534514 -0.0024945 255 69 47
0.0682787 -0.0520328 -0.00316445 251 68 50
0.0686139 -0.0508339 -0.00396804 212 65 57
0.0586707 -0.0807632 0.0166313 96 60 58
0.058701 -0.0798232 0.0157289 126 38 30
0.0587313 -0.0788831 0.0148266 148 20 9
0.0587615 -0.0779431 0.0139241 154 16 6
0.0587918 -0.077003 0.0130217 159 14 2
0.0588221 -0.0760628 0.0121192 159 14 2
0.0591351 -0.0749325 0.0113608 161 12 3
0.0594487 -0.0737995 0.0106006 160 18 2
0.060048 -0.07247 0.00998143 160 21 5
0.060937 -0.0709378 0.00950221 163 19 4
0.0618325 -0.0693943 0.00901944 165 17 3
0.0627346 -0.0678395 0.00853312 169 19 3
0.0630572 -0.066681 0.00775808 174 19 1
0.0636742 -0.0653142 0.00712267 179 21 0
0.0637051 -0.0643553 0.00620211 186 24 0
0.063736 -0.0633963 0.00528153 195 27 3
0.0640611 -0.0622279 0.0044995 202 29 6
0.064092 -0.0612676 0.00357768 212 31 10
0.0641229 -0.0603073 0.00265584 221 35 17
0.0641539 -0.059347 0.00173398 232 40 23
0.0641848 -0.0583866 0.000812057 243 45 26
0.0648067 -0.0569941 0.000156913 252 48 29
0.0651344 -0.0558133 -0.000634577 255 53 36
0.0660598 -0.0541884 -0.0011632 255 60 42
0.0666911 -0.052775 -0.00182822 255 65 45
0.0670235 -0.05158 -0.00262819 255 66 47
0.0676595 -0.0501548 -0.00329941 250 64 50
0.057779 -0.0791692 0.0163768 96 57 51
0.0578092 -0.0782291 0.0154743 129 35 20
0.0578395 -0.0772889 0.0145718 150 16 4
0.0578698 -0.0763487 0.0136693 156 13 1
0.0581815 -0.0752187 0.0129128 157 17 3
0.0584941 -0.074086 0.0121544 159 12 2
0.0585244 -0.0731434 0.0112495 159 15 3
0.0591214 -0.0718122 0.010632 160 16 5
0.060007 -0.0702775 0.010155 161 17 4
0.0608991 -0.0687315 0.00967457 163 15 3
0.0617978 -0.0671741 0.00919059 166 13 1
0.0621193 -0.0660147 0.00841625 169 15 1
0.0627338 -0.0646463 0.00778243 173 19 1
0.0627648 -0.0636872 0.00686182 179 22 0
0.0630887 -0.0625191 0.00608167 186 25 1
0.0634133 -0.0613481 0.00529954 194 27 4
0.0634443 -0.0603866 0.00437653 203 30 7
0.0634753 -0.059425 0.00345354 211 32 11
0.0638008 -0.0582486 0.00266712 221 34 16
0.0638318 -0.0572858 0.00174286 232 39 20
0.0641583 -0.0561052 0.000953306 244 45 25
0.0647824 -0.0547018 0.000295971 251 49 31
0.0657089 -0.0530687 -0.000230562 255 54 38
0.0657401 -0.0520985 -0.00116184 255 59 43
0.0657713 -0.0511283 -0.00209316 255 63 45
0.0661026 -0.0499311 -0.00289356 254 64 46
0.0574483 -0.0772002 0.0164227 100 55 41
0.0571976 -0.0764464 0.0153686 133 30 17
0.0575089 -0.0753151 0.0146132 150 17 4
0.0575393 -0.0743725 0.0137084 155 18 1
0.0575696 -0.0734298 0.0128036 157 14 1
0.0581642 -0.0720993 0.0121897 158 13 3
0.0584778 -0.0709585 0.0114275 159 12 3
0.0590769 -0.069617 0.010808 159 14 4
0.060253 -0.0678676 0.0104746 160 13 4
0.0608608 -0.0665087 0.00984818 163 11 2
0.0611811 -0.0653483 0.0090746 165 15 2
0.0617934 -0.0639782 0.00844232 168 16 2
0.0621161 -0.0628104 0.00766406 172 19 1
0.0624396 -0.0616397 0.00688386 177 22 2
0.0624705 -0.0606781 0.00596084 184 24 3
0.0625014 -0.0597165 0.00503779 192 27 5
0.0631199 -0.0583254 0.00439226 200 29 7
0.0634459 -0.0571447 0.00360498 210 30 10
0.0634769 -0.0561794 0.0026784 221 34 13
0.0638037 -0.0549945 0.00188794 232 40 18
0.0641313 -0.0538066 0.00109552 242 45 27
0.0647577 -0.0523921 0.000436012 251 50 35
0.0647889 -0.0514219 -0.000495326 255 54 39
0.0648202 -0.0504516 -0.00142675 255 60 42
0.0648513 -0.0494812 -0.00235818 255 64 45
0.0651815 -0.0482818 -0.00315898 253 66 46
0.0568346 -0.0754118 0.0163179 107 55 39
0.0568649 -0.074468 0.015412 136 31 15
0.0568953 -0.0735241 0.014506 150 18 5
0.0572069 -0.0723864 0.0137476 154 15 4
0.0575194 -0.0712459 0.0129873 157 11 4
0.0581161 -0.0699051 0.0123715 157 12 4
0.0590012 -0.0683576 0.011899 158 13 4
0.0593181 -0.0672038 0.0111308 159 15 3
0.0599236 -0.0658431 0.0105059 161 12 3
0.0602428 -0.0646819 0.00973302 162 13 3
0.0608527 -0.06331 0.00910227 165 14 1
0.0611743 -0.0621413 0.00832479 168 15 1
0.0614966 -0.0609697 0.00754534 171 17 2
0.0615275 -0.060008 0.00662224 177 19 1
0.0621437 -0.0586176 0.00598058 183 23 1
0.0624683 -0.0574372 0.00519523 192 26 4
0.0627938 -0.0562538 0.00440793 201 28 7
0.0628249 -0.0552872 0.00348011 210 30 9
0.062856 -0.0543205 0.00255229 220 34 13
0.0631824 -0.0531317 0.00176061 230 41 21
0.0638065 -0.0517155 0.00110267 242 46 29
0.0638376 -0.0507451 0.000171263 252 49 35
0.0638688 -0.0497747 -0.000760179 255 54 40
0.063603 -0.0490323 -0.00182394 255 63 45
0.0636342 -0.048063 -0.00275434 255 63 44
0.0570637 -0.0730389 0.0166666 113 56 36
0.0570942 -0.0720903 0.0157562 136 31 16
0.0574076 -0.0709453 0.0149955 147 18 5
0.0577218 -0.0697974 0.014233 153 14 2
0.0580367 -0.0686467 0.0134685 156 11 1
0.0583525 -0.0674931 0.0127021 157 12 0
0.058669 -0.0663367 0.0119339 159 14 2
0.0589863 -0.0651774 0.0111637 160 13 5
0.0593043 -0.0640153 0.0103916 161 12 4
0.059912 -0.0626416 0.00976238 163 13 1
0.0599427 -0.0616823 0.00884156 164 14 1
0.0602632 -0.0605114 0.00806365 167 16 1
0.0605843 -0.0593377 0.00728378 171 20 0
0.0611981 -0.0579456 0.00664367 176 23 0
0.0618149 -0.0565466 0.00600036 183 27 4
0.061846 -0.0555799 0.00507254 191 29 7
0.061877 -0.0546132 0.00414464 200 28 8
0.0619081 -0.0536465 0.00321675 209 30 10
0.0619392 -0.0526797 0.00228882 219 35 15
0.0622644 -0.0514887 0.00149669 230 40 22
0.0625904 -0.0502947 0.000702579 242 45 31
0.0620323 -0.0497791 -0.000495281 251 49 38
0.0620633 -0.0488122 -0.0014234 255 59 42
0.0618008 -0.0480735 -0.00248253 255 60 42
0.0572949 -0.0706425 0.0170186 112 57 39
0.0573255 -0.0696892 0.0161037 137 25 14
0.0573561 -0.0687359 0.0151887 151 18 4
0.0576714 -0.067581 0.0144235 153 15 4
0.057702 -0.0666264 0.0135073 156 12 2
0.0580181 -0.0654674 0.012739 159 14 1
0.0580488 -0.0645116 0.0118216 159 16 2
0.0583657 -0.0633486 0.0110502 159 13 2
0.0586833 -0.0621826 0.0102769 159 13 1
0.0590017 -0.0610138 0.00950171 159 12 1
0.059321 -0.059842 0.00872456 161 16 1
0.0599309 -0.0584528 0.00808873 164 16 0
0.0602524 -0.0572735 0.00730686 168 16 0
0.0608669 -0.0558727 0.00666514 173 22 4
0.0608979 -0.054906 0.00573723 182 26 6
0.0609289 -0.0539392 0.00480931 191 28 6
0.0606678 -0.0531944 0.00374267 198 30 9
0.0606988 -0.0522287 0.00281579 207 33 11
0.0607298 -0.0512629 0.00188887 219 37 16
0.0607608 -0.0502971 0.000961903 230 41 25
0.0605001 -0.0495576 -9.88059e-05 241 47 30
0.0605311 -0.0485929 -0.00102472 252 52 35
0.060271 -0.0478563 -0.00208181 255 56 40
0.0566737 -0.0688254 0.0169133 117 39 30
0.0567043 -0.0678708 0.0159971 140 20 12
0.0570191 -0.0667133 0.0152319 149 14 6
0.0570498 -0.0657575 0.0143145 153 12 2
0.0570804 -0.0648016 0.0133971 156 11 2
0.0573961 -0.0636389 0.0126276 156 15 3
0.0574269 -0.0626817 0.011709 157 13 2
0.0577434 -0.0615149 0.0109365 158 12 1
0.0580606 -0.0603451 0.010162 157 14 3
0.0583787 -0.0591724 0.00938554 157 16 3
0.0589862 -0.0577815 0.00875132 159 15 1
0.0593066 -0.0566012 0.00797019 162 14 1
0.0599187 -0.0551987 0.00733002 167 16 3
0.0599497 -0.0542319 0.00640206 173 22 4
0.0596897 -0.0534866 0.00533343 180 27 5
0.0597207 -0.0525209 0.00440655 188 30 7
0.0594614 -0.0517786 0.0033416 197 33 8
0.0594923 -0.050814 0.00241575 208 33 10
0.0595232 -0.0498493 0.00148988 219 36 15
0.0589753 -0.0493371 0.000295807 229 43 21
0.0590062 -0.0483747 -0.000627887 242 47 26
0.0590371 -0.0474123 -0.00155158 249 50 35
0.0590679 -0.0464498 -0.00247536 247 57 41
0.0563345 -0.0668004 0.0169609 117 38 33
0.0563652 -0.0658434 0.0160424 141 20 11
0.0563958 -0.0648863 0.0151238 150 13 3
0.0564265 -0.0639292 0.0142052 152 13 3
0.0564572 -0.062972 0.0132866 153 14 3
0.0567725 -0.0618055 0.0125159 155 12 3
0.0570886 -0.060636 0.0117434 156 11 2
0.0571193 -0.0596763 0.0108223 155 12 2
0.0574362 -0.0585027 0.0100466 155 16 3
0.0580414 -0.0571101 0.00941396 155 19 3
0.0583606 -0.0559289 0.0086336 157 17 3
0.0586806 -0.0547448 0.00785129 160 18 3
0.0587116 -0.053779 0.00692439 164 19 2
0.0587425 -0.0528132 0.00599748 170 21 3
0.0584843 -0.0520705 0.00493059 179 27 6
0.0585152 -0.0511058 0.00400471 187 31 8
0.0585461 -0.050141 0.00307879 197 32 7
0.0580006 -0.0496281 0.00188078 208 32 9
0.0577443 -0.0488919 0.000822727 217 38 13
0.0574886 -0.0481574 -0.000232872 227 43 17
0.0575194 -0.0471972 -0.00115437 232 47 26
0.0559934 -0.0647653 0.0170087 122 34 25
0.0560241 -0.0638057 0.0160878 143 19 7
0.0560548 -0.0628462 0.0151669 150 15 6
0.0560856 -0.0618865 0.0142459 151 12 7
0.0561164 -0.0609269 0.0133249 152 14 6
0.0561471 -0.0599672 0.0124039 153 14 2
0.0564628 -0.0587939 0.0116301 153 14 1
0.0567792 -0.0576177 0.0108544 153 15 2
0.0570964 -0.0564385 0.0100768 153 16 3
0.0574144 -0.0552564 0.00929717 153 17 5
0.0577332 -0.0540713 0.00851559 154 15 5
0.0577642 -0.0531055 0.00758863 157 14 2
0.0577951 -0.0521396 0.00666161 161 17 3
0.0575381 -0.0513976 0.00559383 167 24 7
0.0572817 -0.0506575 0.0045286 176 29 7
0.0570258 -0.0499191 0.00346597 185 29 6
0.0567707 -0.0491824 0.00240593 195 30 8
0.0565161 -0.0484476 0.00134842 202 34 12
0.0565469 -0.0474874 0.000426833 208 39 14
0.0553662 -0.0629287 0.0169025 122 33 22
0.0553969 -0.0619679 0.0159804 142 17 8
0.0554277 -0.061007 0.0150583 148 12 6
0.0557428 -0.0598335 0.0142868 150 14 5
0.0557736 -0.0588714 0.0133634 150 15 2
0.0558044 -0.0579092 0.01244 150 14 1
0.0561205 -0.0567303 0.0116643 150 15 2
0.0564372 -0.0555485 0.0108866 150 14 3
0.0567548 -0.0543637 0.010107 149 15 5
0.0567857 -0.0533978 0.00917997 149 15 5
0.0568166 -0.0524319 0.00825297 150 15 3
0.0565608 -0.0516895 0.00718318 153 19 3
0.0563055 -0.0509489 0.00611598 157 21 4
0.0560509 -0.0502101 0.00505138 165 25 3
0.0557969 -0.0494731 0.00398933 174 29 5
0.0555435 -0.0487378 0.00292986 181 30 8
0.0555743 -0.0477775 0.00200831 184 32 10
0.0547372 -0.0610873 0.016796 124 28 16
0.0550519 -0.0599124 0.0160257 141 17 7
0.0553673 -0.0587346 0.0152535 147 13 3
0.0556836 -0.0575539 0.0144793 147 14 4
0.0557144 -0.056588 0.0135524 147 14 4
0.0557453 -0.0556221 0.0126255 148 13 2
0.0557762 -0.0546562 0.0116986 148 12 1
0.0558071 -0.0536902 0.0107716 146 10 2
0.055838 -0.0527242 0.0098445 144 9 3
0.0558689 -0.0517581 0.00891744 144 13 4
0.0553293 -0.0512404 0.00770358 146 15 4
0.0550758 -0.0505012 0.00663697 148 14 3
0.0551066 -0.0495386 0.00571315 153 19 3
0.0548538 -0.0488023 0.00465027 160 25 3
0.0546016 -0.0480677 0.00358993 164 28 7
0.0546323 -0.0471073 0.00266827 158 28 10
0.0549588 -0.0585973 0.0171531 125 23 11
0.0552753 -0.0574134 0.0163793 140 13 4
0.0561674 -0.0557877 0.0159118 143 10 5
0.0561984 -0.0548157 0.0149791 143 11 4
0.0559417 -0.0540658 0.0138944 142 12 2
0.0559727 -0.053095 0.0129628 142 11 1
0.0557166 -0.0523481 0.0118818 139 10 4
0.0551753 -0.051827 0.0106562 138 9 5
0.0549211 -0.0510843 0.00958202 137 9 4
0.0543838 -0.0505681 0.00836645 138 7 3
0.0541314 -0.0498296 0.00729894 139 6 2
0.0538798 -0.0490929 0.00623408 140 12 1
0.0539105 -0.0481313 0.00531134 141 18 2
0.0536594 -0.0473975 0.0042501 136 19 7
0.0569166 -0.0547548 0.0184594 121 17 7
0.0569479 -0.0537755 0.0175196 134 15 7
0.0566883 -0.0530212 0.0164236 137 9 5
0.0564293 -0.0522687 0.0153303 136 6 4
0.0558822 -0.051744 0.0140869 134 7 1
0.0550511 -0.051447 0.0126992 132 5 2
0.054796 -0.050702 0.0116185 130 5 3
0.0539731 -0.0504103 0.0102467 130 5 2
0.0537207 -0.0496701 0.00917429 130 4 2
0.0531868 -0.049158 0.00796107 127 6 2
0.0529364 -0.0484219 0.00689534 123 8 3
0.0529671 -0.0474603 0.00597252 109 8 6
0.0571527 -0.0521884 0.018831 118 10 6
0.0565996 -0.0516598 0.0175695 128 9 4
0.0560493 -0.0511339 0.0163143 129 4 1
0.0555018 -0.0506104 0.0150653 128 1 0
0.0549569 -0.0500896 0.0138224 127 5 0
0.0541292 -0.0497987 0.0124356 124 6 0
0.0530249 -0.0497362 0.0109115 122 3 2
0.0527736 -0.0489968 0.0098382 118 4 3
0.0522422 -0.0484862 0.00862328 109 5 5
0.0519928 -0.0477509 0.00755668 92 7 8
