ply
format ascii 1.0
element vertex 1207
property float x
property float y
property float z
property uchar diffuse_red
property uchar diffuse_green
property uchar diffuse_blue
end_header
0.0544269 -0.237873 0.0332132 244 10 0
0.0534719 -0.239298 0.0325802 250 46 34
0.0525168 -0.240723 0.0319473 254 61 50
0.05057 -0.24127 0.0320031 195 66 58
0.0471754 -0.24051 0.0330793 125 62 58
0.0443126 -0.240191 0.033803 88 58 53
0.0414874 -0.239876 0.0345173 89 56 43
0.0396243 -0.240413 0.0345632 123 43 25
0.0377733 -0.240947 0.0346087 181 15 0
0.0354799 -0.241053 0.0349817 201 9 0
0.0336572 -0.24158 0.0350255 219 7 0
0.0327389 -0.24295 0.0344169 225 18 6
0.0318206 -0.24432 0.0338082 237 50 37
0.0309022 -0.24569 0.0331996 247 66 51
0.0299838 -0.24706 0.0325909 201 65 55
0.0290654 -0.24843 0.0319822 127 60 56
0.0281469 -0.2498 0.0313734 84 62 54
0.171565 -0.210212 0.0242852 93 64 55
0.168725 -0.210996 0.0243854 143 36 23
0.166739 -0.212242 0.0240545 192 12 2
0.163936 -0.213012 0.0241549 216 5 0
0.163615 -0.215192 0.0229652 244 29 15
0.0588695 -0.23435 0.0322527 170 30 19
0.057908 -0.235785 0.0316155 208 13 0
0.0564373 -0.236785 0.0313261 224 5 0
0.0549716 -0.237781 0.0310377 242 10 0
0.0535108 -0.238775 0.0307502 250 37 12
0.052554 -0.240202 0.030116 254 55 41
0.0510997 -0.24119 0.0298305 237 66 54
0.0491574 -0.241736 0.0298932 168 56 55
0.0457745 -0.240972 0.0309869 106 55 52
0.0419755 -0.239794 0.0323993 85 59 47
0.0401046 -0.240333 0.0324522 113 47 30
0.0387085 -0.241295 0.0321702 175 21 4
0.0368574 -0.241826 0.0322235 196 13 1
0.0350183 -0.242354 0.0322765 212 1 0
0.0340939 -0.243733 0.0316639 223 9 3
0.0331695 -0.245112 0.0310511 232 40 27
0.032245 -0.246491 0.0304384 246 60 45
0.0313205 -0.24787 0.0298257 220 67 54
0.030396 -0.249249 0.0292129 158 62 55
0.0290268 -0.250189 0.0289383 98 57 52
0.0281038 -0.251566 0.0283264 74 63 55
0.173566 -0.210452 0.0211726 90 67 59
0.169854 -0.210769 0.0217254 121 47 44
0.168699 -0.212492 0.0209594 179 14 5
0.16587 -0.213267 0.021073 210 4 0
0.169765 -0.217876 0.0176402 236 21 0
0.0657545 -0.239528 0.025757 145 36 32
0.0584684 -0.235684 0.0294197 201 13 0
0.0569917 -0.236688 0.0291329 219 5 0
0.0550132 -0.237254 0.0291986 236 0 0
0.0535498 -0.23825 0.0289136 243 18 3
0.0525913 -0.239679 0.0282783 252 56 41
0.0511343 -0.24067 0.0279953 254 62 46
0.0496822 -0.241657 0.0277132 188 61 51
0.0477445 -0.242202 0.027783 114 60 56
0.0424668 -0.239711 0.0302671 84 60 51
0.040588 -0.240252 0.0303271 108 55 36
0.0391864 -0.241217 0.0300476 160 34 18
0.0373276 -0.241751 0.030108 188 14 0
0.0354808 -0.242281 0.0301679 205 5 0
0.034099 -0.243235 0.0298909 221 7 1
0.033173 -0.244617 0.0292771 228 30 14
0.0326983 -0.246431 0.0283236 240 55 39
0.0317707 -0.247815 0.0277087 241 66 52
0.030843 -0.249199 0.0270939 192 62 53
0.0299154 -0.250582 0.026479 115 57 54
0.0289876 -0.251966 0.0258641 76 62 59
0.173008 -0.209277 0.0193675 95 67 60
0.172701 -0.211486 0.0181482 104 57 55
0.171536 -0.213224 0.0173758 161 19 10
0.17037 -0.214962 0.0166034 200 5 0
0.170913 -0.217675 0.0149188 221 11 0
0.0652783 -0.238539 0.0242268 128 45 37
0.0621672 -0.23822 0.0250428 196 16 0
0.0575498 -0.236591 0.0269245 215 6 0
0.0555625 -0.237159 0.0269978 228 0 0
0.0540931 -0.238158 0.0267155 239 13 4
0.0526286 -0.239155 0.0264342 246 39 30
0.051169 -0.240148 0.0261537 253 57 43
0.0502104 -0.241578 0.0255183 214 69 54
0.0482644 -0.242125 0.0255955 147 62 53
0.0434379 -0.240057 0.0277742 96 57 52
0.0410744 -0.24017 0.0281877 95 55 50
0.0392002 -0.24071 0.0282544 137 37 29
0.0378008 -0.241674 0.0279782 183 13 0
0.0359463 -0.242207 0.0280453 200 8 0
0.0345591 -0.243164 0.0277707 218 1 0
0.03363 -0.24455 0.0271548 224 17 8
0.0327008 -0.245936 0.0265389 234 51 38
0.0317716 -0.247322 0.025923 248 66 51
0.0312929 -0.249148 0.0249607 209 66 54
0.030362 -0.250536 0.0243437 134 62 57
0.0294312 -0.251924 0.0237268 87 62 57
0.174167 -0.20904 0.0166589 93 64 58
0.172999 -0.210782 0.0158848 97 65 56
0.172691 -0.213003 0.0146532 146 28 27
0.171521 -0.214748 0.0138775 192 11 3
0.171208 -0.216982 0.012639 212 3 0
0.170035 -0.218731 0.0118616 242 22 6
0.0663258 -0.236526 0.0229786 116 53 44
0.0648021 -0.237551 0.0226964 120 49 34
0.0627519 -0.238126 0.0227857 187 23 10
0.0607158 -0.238698 0.0228743 214 11 0
0.0561156 -0.237063 0.0247818 224 1 0
0.0541331 -0.237629 0.0248622 238 1 0
0.0526659 -0.238629 0.0245834 247 30 7
0.0512036 -0.239624 0.0243055 253 54 37
0.0502433 -0.241057 0.023669 254 64 52
0.0487876 -0.242047 0.0233931 187 56 52
0.0458703 -0.241713 0.0241924 110 55 50
0.0420385 -0.240518 0.025684 88 57 45
0.0396819 -0.240629 0.0261078 124 39 27
0.038277 -0.241597 0.0258341 180 13 2
0.0364148 -0.242132 0.0259083 195 11 3
0.0350221 -0.243093 0.0256363 212 3 0
0.033634 -0.244051 0.0253651 222 12 4
0.0327032 -0.245439 0.0247482 232 38 28
0.0322252 -0.247265 0.0237823 246 58 45
0.0312929 -0.248655 0.0231642 226 66 53
0.0303604 -0.250046 0.0225462 167 64 54
0.0298776 -0.251882 0.0215751 105 58 52
0.0289436 -0.253275 0.0209559 83 61 52
0.173607 -0.207861 0.0148456 89 64 58
0.173299 -0.210076 0.0136118 86 66 56
0.172129 -0.211821 0.012836 143 37 40
0.171817 -0.214049 0.0115953 188 16 5
0.170645 -0.215798 0.0108179 205 4 0
0.169472 -0.217547 0.0100404 223 13 2
0.169154 -0.219792 0.00879121 247 41 34
0.0730158 -0.24143 0.0164693 128 53 49
0.0643257 -0.236562 0.0211657 108 53 46
0.0633406 -0.238032 0.0205126 161 32 27
0.0612954 -0.238606 0.0206094 207 13 0
0.0592642 -0.239176 0.0207054 222 2 0
0.0546811 -0.237535 0.0226386 233 1 0
0.0527033 -0.2381 0.0227262 239 18 5
0.0512384 -0.239099 0.0224509 246 44 38
0.0502764 -0.240534 0.0218132 253 60 50
0.0483234 -0.241086 0.0219031 194 64 53
0.0463835 -0.241634 0.0219923 116 63 53
0.0444566 -0.242179 0.0220809 85 60 46
0.0406388 -0.24098 0.0235935 117 46 29
0.038289 -0.241089 0.0240275 179 18 7
0.0368863 -0.242056 0.0237571 196 10 2
0.0350285 -0.242589 0.0238381 208 4 0
0.0340946 -0.243982 0.023219 221 5 0
0.0331607 -0.245375 0.0225999 229 28 9
0.0322267 -0.246768 0.0219808 241 52 36
0.0312927 -0.248161 0.0213616 245 65 52
0.0303587 -0.249554 0.0207424 200 62 53
0.0294246 -0.250948 0.0201232 120 56 51
0.0289393 -0.252788 0.0191464 79 63 50
0.173046 -0.206681 0.0130321 92 73 63
0.172737 -0.208893 0.0117944 94 61 49
0.172427 -0.211115 0.0105515 160 35 24
0.171254 -0.212864 0.00977397 189 15 3
0.170081 -0.214614 0.00899639 197 7 0
0.168908 -0.216363 0.00821875 206 6 0
0.167735 -0.218113 0.00744111 230 35 23
0.166562 -0.219862 0.00666342 251 66 58
0.164543 -0.221114 0.00636228 255 96 78
0.155126 -0.217958 0.0102618 255 70 53
0.153175 -0.219186 0.00996001 247 27 10
0.0878616 -0.236242 0.0140421 198 19 5
0.0826539 -0.234544 0.0161711 225 9 0
0.079881 -0.234695 0.0166819 234 6 0
0.0777112 -0.235299 0.0167955 244 15 2
0.076698 -0.236811 0.0161238 252 38 27
0.0756847 -0.238322 0.0154521 255 56 43
0.0746714 -0.239833 0.0147804 216 62 49
0.0719655 -0.239955 0.015294 145 61 55
0.0643847 -0.236017 0.0192575 104 55 51
0.0628641 -0.237043 0.0189816 136 39 32
0.0618787 -0.238512 0.0183284 203 10 0
0.0598384 -0.239085 0.0184325 218 8 0
0.0572927 -0.239208 0.0189112 227 1 0
0.0537534 -0.238447 0.0201262 237 5 1
0.0517753 -0.23901 0.0202224 243 32 24
0.0503094 -0.240008 0.0199508 252 52 41
0.0483529 -0.240564 0.020047 229 62 50
0.0469002 -0.241555 0.019777 164 57 47
0.0449649 -0.242102 0.0198733 111 55 40
0.0430427 -0.242646 0.019969 115 50 32
0.03971 -0.241875 0.0211446 166 24 16
0.0368958 -0.241548 0.0219467 196 10 0
0.0354953 -0.242515 0.0216797 204 6 0
0.0336419 -0.243047 0.0217674 216 2 0
0.0327079 -0.24444 0.0211482 223 16 2
0.0317738 -0.245833 0.020529 234 45 32
0.0308398 -0.247226 0.0199097 248 63 50
0.0299056 -0.248619 0.0192905 208 64 53
0.0294211 -0.250456 0.0183122 130 59 54
0.0293861 -0.252748 0.0169683 82 61 52
0.169391 -0.201482 0.0142841 87 67 60
0.171628 -0.205038 0.0116819 96 64 58
0.171317 -0.207243 0.0104438 120 55 42
0.171004 -0.209457 0.00920061 179 33 14
0.17069 -0.21168 0.00795226 195 13 1
0.169517 -0.213429 0.00717457 191 9 0
0.168344 -0.215179 0.00639683 195 9 0
0.167171 -0.216929 0.0056191 207 9 0
0.165151 -0.218187 0.00532003 238 23 5
0.157346 -0.216043 0.00831654 248 34 30
0.153769 -0.216324 0.00894082 250 35 26
0.151825 -0.217553 0.00864225 243 19 4
0.150682 -0.219257 0.00788468 228 16 0
0.149539 -0.220961 0.00712714 224 8 0
0.148396 -0.222666 0.00636955 226 12 0
0.146466 -0.22388 0.00607661 243 35 21
0.13392 -0.223129 0.00929544 255 75 59
0.130599 -0.22336 0.009893 251 31 17
0.129491 -0.225012 0.0091589 236 13 0
0.128384 -0.226663 0.00842476 229 8 0
0.0929266 -0.232407 0.0128596 251 64 46
0.0918838 -0.233963 0.0121682 197 68 59
0.0890046 -0.23412 0.0127113 130 53 45
0.0855575 -0.233816 0.0136537 192 21 7
0.080989 -0.232609 0.0153796 222 11 1
0.0788113 -0.233221 0.015498 230 6 0
0.0772216 -0.234282 0.015221 239 6 1
0.0762083 -0.235793 0.0145492 251 27 15
0.0751949 -0.237304 0.0138774 255 46 33
0.0736143 -0.238355 0.0136037 243 59 49
0.0720394 -0.239403 0.013331 186 60 55
0.0649821 -0.235914 0.0169598 118 55 49
0.0629203 -0.236498 0.0170692 123 47 31
0.0614021 -0.237524 0.016797 198 16 0
0.0604166 -0.238993 0.0161437 217 12 0
0.057859 -0.239117 0.0166358 222 2 0
0.0558429 -0.239685 0.0167451 234 6 0
0.0523159 -0.23892 0.0179784 239 24 4
0.0508439 -0.239922 0.0177096 250 50 34
0.0483825 -0.240039 0.0181845 251 62 49
0.0469271 -0.241033 0.0179171 193 56 47
0.0454766 -0.242024 0.0176506 118 54 44
0.043546 -0.24257 0.0177539 98 53 38
0.0416284 -0.243112 0.0178566 142 34 20
0.0383074 -0.242338 0.0190497 189 11 0
0.035965 -0.24244 0.0195067 200 8 0
0.0341039 -0.242974 0.0196018 212 3 0
0.0327102 -0.243938 0.0193389 222 13 2
0.0317745 -0.245333 0.0187186 230 38 25
0.0308388 -0.246729 0.0180982 244 57 43
0.029903 -0.248124 0.0174778 221 66 52
0.0298694 -0.250409 0.0161312 156 64 55
0.0293824 -0.252258 0.0151428 100 57 53
0.168309 -0.197704 0.0141628 91 67 58
0.168836 -0.200314 0.0124885 99 63 60
0.169367 -0.202946 0.0108005 126 61 50
0.169902 -0.205599 0.00909855 175 43 32
0.169587 -0.207805 0.00785502 202 28 12
0.169271 -0.21002 0.00660633 197 13 1
0.1681 -0.211766 0.00583013 186 9 1
0.16693 -0.213512 0.00505391 185 10 1
0.165759 -0.215258 0.00427765 191 3 0
0.162906 -0.216032 0.00446047 203 6 0
0.156792 -0.21488 0.00652731 217 13 0
0.154023 -0.215643 0.00669797 224 10 0
0.151275 -0.2164 0.00686726 224 11 0
0.150132 -0.218104 0.0061096 217 14 0
0.148989 -0.219809 0.00535195 213 12 0
0.147058 -0.221028 0.00506097 209 12 0
0.145134 -0.222243 0.00477116 224 10 0
0.143996 -0.223941 0.00401646 243 38 26
0.135243 -0.220817 0.00785423 250 43 36
0.131907 -0.221062 0.00846137 251 36 27
0.130065 -0.222244 0.00817268 246 21 7
0.128958 -0.223896 0.00743848 231 13 0
0.12785 -0.225547 0.00670424 224 10 0
0.126743 -0.227199 0.00596996 224 9 0
0.123482 -0.227405 0.00658322 237 17 2
0.120259 -0.227609 0.00718931 250 49 31
0.114322 -0.225928 0.00953144 254 86 77
0.111212 -0.226137 0.0101093 255 90 83
0.110138 -0.227739 0.00939709 255 65 56
0.109064 -0.229341 0.00868488 250 34 27
0.10799 -0.230943 0.00797269 237 11 0
0.106252 -0.232069 0.00769385 229 6 0
0.10191 -0.2313 0.00913254 237 6 0
0.0951323 -0.228704 0.0122095 249 26 8
0.0934661 -0.229803 0.0119305 255 53 44
0.0924232 -0.231359 0.0112391 255 85 61
0.0913802 -0.232914 0.0105476 251 94 68
0.0885036 -0.233078 0.0110995 200 64 48
0.0862588 -0.2337 0.0112356 221 34 26
0.0840303 -0.234317 0.0113707 228 13 4
0.0794781 -0.233105 0.0131211 227 7 0
0.0773056 -0.233715 0.0132475 235 4 0
0.0757185 -0.234775 0.0129744 246 16 3
0.074705 -0.236286 0.0123025 253 39 27
0.0731252 -0.23734 0.0120315 255 58 46
0.071551 -0.238389 0.0117614 229 67 54
0.0683182 -0.238064 0.0126853 170 64 55
0.0635124 -0.236397 0.0147635 135 45 39
0.0614556 -0.23698 0.0148805 183 27 19
0.0599398 -0.238005 0.0146119 216 11 0
0.0579059 -0.238579 0.0147287 222 1 0
0.055886 -0.23915 0.0148447 229 2 0
0.0538801 -0.239716 0.0149599 236 13 1
0.050878 -0.239393 0.0158302 246 38 29
0.0489093 -0.239953 0.0159408 253 58 46
0.0469541 -0.24051 0.0160506 202 65 52
0.045501 -0.241503 0.0157867 127 62 52
0.0440527 -0.242493 0.0155237 91 58 48
0.0421269 -0.243037 0.015634 120 44 34
0.0402138 -0.243578 0.0157437 188 8 1
0.0369045 -0.2428 0.0169543 199 8 3
0.034569 -0.242901 0.0174216 210 0 0
0.0331696 -0.243868 0.0171614 222 1 0
0.0322308 -0.245268 0.0165389 229 26 10
0.0312919 -0.246668 0.0159165 240 51 34
0.0303529 -0.248069 0.0152939 235 66 53
0.0298666 -0.249914 0.014304 189 65 58
0.0293786 -0.251765 0.0133108 114 54 54
0.167236 -0.193956 0.0140424 89 65 56
0.16609 -0.195666 0.013282 98 60 56
0.166605 -0.198257 0.0116109 146 51 42
0.166287 -0.200422 0.0103876 193 45 33
0.165968 -0.202595 0.00915932 216 32 12
0.16733 -0.205697 0.00698702 212 22 2
0.16701 -0.207899 0.00574157 196 13 0
0.165844 -0.209638 0.00496847 182 12 4
0.164678 -0.211377 0.00419535 181 6 4
0.163512 -0.213116 0.00342216 185 4 1
0.159029 -0.212943 0.00455846 190 8 0
0.156238 -0.213717 0.00473778 195 12 0
0.153471 -0.214485 0.00491561 200 8 0
0.150725 -0.215247 0.00509195 203 13 0
0.149582 -0.216951 0.00433423 202 11 0
0.148439 -0.218656 0.00357645 199 11 0
0.145725 -0.219398 0.00375738 196 9 0
0.144587 -0.221096 0.0030026 204 6 0
0.141898 -0.221825 0.00318502 217 8 0
0.134705 -0.219692 0.00612027 229 9 0
0.131372 -0.219944 0.0067375 232 9 0
0.129532 -0.221128 0.00645209 227 13 0
0.128424 -0.22278 0.00571777 220 14 0
0.127317 -0.224432 0.00498344 215 12 0
0.124053 -0.224654 0.00560233 210 12 0
0.121532 -0.225346 0.00576851 217 9 0
0.115567 -0.223692 0.00813404 233 19 17
0.113121 -0.224376 0.00828766 246 45 50
0.110694 -0.225055 0.00844011 252 53 51
0.10962 -0.226657 0.00772784 252 38 23
0.108546 -0.228259 0.00701557 244 24 12
0.106807 -0.229391 0.00673847 231 12 0
0.103762 -0.229579 0.00732749 223 8 0
0.0969285 -0.227002 0.0104457 224 6 0
0.094628 -0.227653 0.0105859 233 14 5
0.0929626 -0.228754 0.0103098 250 37 33
0.0919196 -0.23031 0.00961823 255 82 75
0.0908765 -0.231865 0.00892671 255 99 80
0.0886106 -0.232495 0.00907146 255 69 45
0.0869652 -0.233582 0.00879954 253 43 36
0.0841282 -0.233741 0.00935781 236 16 4
0.0795667 -0.232533 0.0111329 226 8 0
0.0768149 -0.232695 0.0116696 229 4 0
0.0752286 -0.233757 0.0113992 236 9 0
0.074215 -0.235269 0.0107272 249 28 19
0.072636 -0.236324 0.010459 255 60 45
0.0710626 -0.237375 0.0101916 251 85 68
0.0694948 -0.238423 0.00992516 231 79 68
0.064649 -0.236743 0.0120482 210 53 49
0.0620423 -0.23688 0.0125667 219 30 33
0.0599905 -0.237461 0.0126912 222 9 0
0.0584771 -0.238486 0.0124264 221 2 0
0.0559293 -0.238612 0.0129375 224 0 0
0.0544333 -0.239628 0.012674 233 8 1
0.0524321 -0.240193 0.0127965 242 29 15
0.0489399 -0.239425 0.0140612 252 53 38
0.0474759 -0.240425 0.0137993 243 60 51
0.0455253 -0.24098 0.0139162 186 58 53
0.0440745 -0.241973 0.0136558 121 57 51
0.0426286 -0.242962 0.0133963 121 45 35
0.0407073 -0.243505 0.0135137 188 15 5
0.0387989 -0.244045 0.0136303 200 8 3
0.0355012 -0.243263 0.0148584 206 0 0
0.0336322 -0.243797 0.0149692 220 0 0
0.0326901 -0.245202 0.0143445 223 16 3
0.031748 -0.246607 0.0137199 234 44 29
0.0303508 -0.24757 0.0134652 245 63 52
0.0298636 -0.249417 0.0124706 207 61 56
0.0293747 -0.251271 0.0114725 121 54 53
0.167001 -0.190661 0.013473 90 59 57
0.165856 -0.192368 0.0127141 107 58 54
0.164711 -0.194075 0.0119551 172 46 50
0.164392 -0.196217 0.0107399 224 49 36
0.163245 -0.197928 0.00997937 233 36 19
0.162921 -0.200083 0.00875764 228 23 1
0.163424 -0.202698 0.00706444 214 21 0
0.163932 -0.205334 0.00535737 196 16 0
0.162773 -0.207062 0.00458889 188 10 0
0.161614 -0.208791 0.00382039 188 9 0
0.159629 -0.210051 0.00352843 191 12 1
0.157653 -0.211305 0.00323758 196 19 4
0.154874 -0.212084 0.00342182 201 20 5
0.152117 -0.212857 0.00360448 200 19 1
0.150175 -0.214093 0.00331636 194 17 0
0.149032 -0.215798 0.00255852 192 8 0
0.147889 -0.217503 0.00180062 189 10 0
0.145177 -0.218249 0.00198861 187 6 0
0.143261 -0.219468 0.00170528 189 9 0
0.139817 -0.219725 0.00235992 196 8 0
0.134914 -0.219036 0.00392808 202 10 0
0.130838 -0.218825 0.00501331 206 7 0
0.128998 -0.220012 0.00473115 207 11 0
0.127891 -0.221664 0.00399675 206 15 0
0.126783 -0.223315 0.00326231 203 11 0
0.123522 -0.223545 0.00389117 198 7 0
0.121003 -0.224241 0.00406385 199 5 0
0.115731 -0.223064 0.00601207 211 5 0
0.112601 -0.22329 0.00661198 225 8 0
0.110176 -0.223973 0.00677067 234 11 0
0.109102 -0.225576 0.00605831 235 12 0
0.108027 -0.227178 0.00534591 227 12 0
0.106289 -0.228311 0.00507193 219 10 0
0.103248 -0.228506 0.00567021 214 8 0
0.0970528 -0.226401 0.0083942 209 8 0
0.0947475 -0.227056 0.00854202 212 8 1
0.0930786 -0.22816 0.00826911 231 14 10
0.0914159 -0.229261 0.00799716 246 35 39
0.0903727 -0.230817 0.00730549 252 62 50
0.088718 -0.23191 0.00703572 253 41 20
0.086464 -0.232539 0.00718706 248 30 15
0.0842264 -0.233163 0.00733723 232 16 2
0.0796554 -0.231959 0.00913728 222 10 0
0.0774743 -0.232577 0.00927827 222 4 0
0.0753088 -0.23319 0.00941816 225 5 0
0.073725 -0.23425 0.00915167 235 15 11
0.0727113 -0.235762 0.00847958 249 50 48
0.0711348 -0.236817 0.00821522 255 84 79
0.069007 -0.237411 0.00835781 255 83 70
0.0668942 -0.238 0.00849937 253 55 42
0.0626332 -0.236779 0.0102366 246 32 26
0.0600414 -0.236916 0.0107636 229 11 0
0.058 -0.237496 0.010894 219 5 0
0.0559727 -0.238073 0.0110235 220 0 0
0.0539592 -0.238646 0.0111521 227 9 0
0.052469 -0.239659 0.0108919 236 18 5
0.0489704 -0.238895 0.0121749 251 41 36
0.0475038 -0.239898 0.0119157 255 81 62
0.0455497 -0.240456 0.0120391 241 90 70
0.0440963 -0.241451 0.0117814 212 72 61
0.0421636 -0.242001 0.0119046 189 50 39
0.0412041 -0.243432 0.0112684 192 25 16
0.0392875 -0.243973 0.0113929 203 6 0
0.0369124 -0.244069 0.0118935 204 0 0
0.0345611 -0.244164 0.0123891 217 0 0
0.0331523 -0.245136 0.0121353 221 12 1
0.032207 -0.246546 0.0115085 231 36 23
0.0308044 -0.247511 0.0112566 246 57 45
0.0298606 -0.248919 0.0106308 208 62 54
0.0289167 -0.250327 0.0100049 125 58 54
0.0284252 -0.252185 0.00900108 74 60 56
0.166766 -0.187379 0.0129058 91 61 52
0.165624 -0.189082 0.0121483 110 60 48
0.164481 -0.190786 0.0113908 198 49 46
0.162519 -0.192063 0.0110879 253 59 45
0.162196 -0.194193 0.00987573 255 46 31
0.161054 -0.195897 0.00911816 248 32 5
0.160727 -0.198039 0.00789948 233 23 1
0.160399 -0.20019 0.0066759 216 24 0
0.160891 -0.2028 0.00497754 205 23 1
0.159739 -0.204519 0.00421368 204 17 0
0.159407 -0.206696 0.00297498 214 20 2
0.158252 -0.208418 0.00220946 227 28 7
0.156282 -0.209673 0.00192182 234 34 13
0.154321 -0.210923 0.00163532 233 35 16
0.151566 -0.211701 0.0018251 223 30 8
0.15042 -0.213409 0.00106565 203 26 4
0.148482 -0.214645 0.000782523 192 24 7
0.147339 -0.216349 2.45459e-05 187 19 4
0.144629 -0.217101 0.000219528 185 14 4
0.14194 -0.217846 0.000412915 185 13 2
0.139273 -0.218586 0.000604738 189 13 0
0.134375 -0.217908 0.00219009 194 12 0
0.131774 -0.218638 0.00237221 195 11 1
0.129194 -0.219361 0.00255292 195 7 0
0.127357 -0.220547 0.00227546 192 4 0
0.125527 -0.221728 0.00199905 188 8 0
0.122991 -0.222435 0.00217967 184 10 0
0.120474 -0.223136 0.00235889 185 11 0
0.115208 -0.221972 0.00432656 192 9 0
0.112081 -0.222204 0.004936 199 7 0
0.109658 -0.222892 0.00510094 204 8 0
0.108583 -0.224494 0.00438846 207 9 0
0.107509 -0.226096 0.00367597 206 8 0
0.105772 -0.227232 0.00340505 203 8 0
0.102733 -0.227432 0.00401263 201 8 0
0.0971774 -0.225798 0.00633474 196 10 0
0.0954947 -0.226911 0.00606431 194 9 0
0.093195 -0.227564 0.00622063 208 6 0
0.0915289 -0.228668 0.00595186 223 9 0
0.0898689 -0.229768 0.00568402 233 12 0
0.0882149 -0.230864 0.00541716 236 12 0
0.0859627 -0.231496 0.00557427 228 11 0
0.0837268 -0.232124 0.00573023 220 11 0
0.0797445 -0.231383 0.0071342 215 10 0
0.077559 -0.232004 0.00728253 212 5 0
0.0748179 -0.232169 0.00783965 210 6 0
0.0732349 -0.233232 0.0075759 215 7 5
0.072221 -0.234744 0.0069037 232 22 24
0.0712072 -0.236256 0.00623148 247 41 37
0.0690752 -0.236853 0.00638131 252 46 32
0.066408 -0.236991 0.00693716 251 34 17
0.0643117 -0.237581 0.00708309 242 23 8
0.0606241 -0.236816 0.0084308 226 13 0
0.0580471 -0.236952 0.00896623 216 5 0
0.0565369 -0.237978 0.00870763 214 1 0
0.0539989 -0.238107 0.00923787 218 8 0
0.0525059 -0.239123 0.00898055 225 10 1
0.050006 -0.239247 0.00950565 239 38 31
0.047035 -0.238928 0.0104113 251 78 62
0.0455741 -0.239929 0.0101554 255 104 80
0.0436298 -0.240486 0.0102845 250 90 69
0.042182 -0.24148 0.01003 236 57 47
0.0407389 -0.24247 0.00977645 220 34 30
0.0393007 -0.243457 0.00952366 212 7 0
0.0373937 -0.243998 0.00965368 205 2 0
0.0354993 -0.244535 0.00978281 214 0 0
0.0340818 -0.245511 0.00953204 220 2 0
0.032669 -0.246483 0.00928207 227 28 16
0.0312608 -0.247453 0.00903292 242 55 40
0.0298573 -0.248419 0.00878458 217 67 54
0.0289118 -0.249829 0.00815764 146 64 52
0.0279662 -0.251239 0.00753068 93 59 50
0.0270206 -0.252649 0.00690364 81 62 57
0.163255 -0.182485 0.0141309 91 62 53
0.163752 -0.184987 0.0124864 108 68 55
0.162616 -0.186681 0.0117334 219 52 48
0.16148 -0.188374 0.0109803 254 61 47
0.159536 -0.189649 0.0106799 255 49 40
0.160831 -0.192611 0.00856033 255 35 11
0.159691 -0.194312 0.00780417 255 33 9
0.158551 -0.196012 0.00704795 244 29 7
0.158219 -0.19815 0.00582748 233 28 6
0.157887 -0.200297 0.004602 231 28 4
0.157553 -0.202453 0.00337157 245 29 6
0.158033 -0.205073 0.00165962 254 40 15
0.15688 -0.206791 0.000895578 255 51 26
0.154917 -0.208047 0.000611056 255 46 20
0.153767 -0.209762 -0.000151511 255 39 15
0.151814 -0.21101 -0.000433397 236 35 15
0.149869 -0.212253 -0.000714149 209 28 15
0.147932 -0.213491 -0.000993799 202 44 38
0.146789 -0.215196 -0.00175188 195 40 30
0.144081 -0.215952 -0.00154987 195 27 16
0.140625 -0.216231 -0.00087465 201 23 11
0.137968 -0.216976 -0.000678163 209 25 7
0.133836 -0.21678 0.000451792 214 27 5
0.131237 -0.217514 0.000640649 210 25 5
0.128659 -0.218243 0.000828031 200 17 2
0.126823 -0.219431 0.000553835 191 12 0
0.124277 -0.220147 0.000740353 185 13 1
0.12175 -0.220859 0.000925455 183 10 1
0.119243 -0.221565 0.00110902 183 6 0
0.114685 -0.220879 0.00264077 184 4 0
0.111561 -0.221118 0.00325972 187 6 0
0.10981 -0.222267 0.00298852 189 8 0
0.108065 -0.223412 0.00271835 190 7 0
0.10699 -0.225015 0.00200577 189 6 1
0.105254 -0.226152 0.0017379 187 9 0
0.10287 -0.226821 0.00191373 186 10 0
0.0998588 -0.227023 0.00252733 184 10 0
0.0956163 -0.226308 0.00400016 184 8 0
0.0939364 -0.227421 0.00373394 193 6 0
0.0916423 -0.228072 0.00389871 199 9 0
0.0899789 -0.229175 0.00363408 201 7 0
0.0883216 -0.230274 0.00337041 206 4 0
0.0860647 -0.23091 0.00353521 204 5 0
0.0838243 -0.231542 0.00369881 205 5 0
0.0804204 -0.231258 0.0047043 204 7 0
0.077644 -0.231429 0.00527934 199 7 0
0.0748973 -0.231598 0.00584817 195 6 0
0.0733112 -0.232664 0.00558739 199 2 0
0.0717307 -0.233726 0.00532754 214 3 0
0.0707168 -0.235238 0.00465523 227 6 0
0.0691436 -0.236293 0.00439746 234 8 1
0.0664712 -0.236435 0.00496476 232 11 1
0.0643709 -0.237028 0.00511785 225 10 0
0.0606761 -0.236266 0.00648502 216 8 0
0.0580944 -0.236406 0.00703146 211 4 0
0.0560595 -0.236988 0.00717463 207 6 0
0.0540386 -0.237567 0.00731677 206 7 0
0.0520316 -0.238141 0.00745792 210 4 0
0.0500384 -0.238712 0.00759808 222 17 10
0.047062 -0.238396 0.00851821 238 38 28
0.0455985 -0.2394 0.00826498 248 53 49
0.0436507 -0.23996 0.00840064 253 53 44
0.041716 -0.240516 0.00853536 248 37 20
0.0402737 -0.241508 0.00828419 232 21 8
0.0393139 -0.24294 0.00764777 213 9 0
0.0369306 -0.243041 0.00816876 204 0 0
0.0355059 -0.244023 0.00791979 207 1 0
0.0340859 -0.245001 0.00767167 211 5 3
0.0326706 -0.245976 0.00742431 222 31 21
0.03126 -0.246948 0.00717773 240 51 40
0.0298541 -0.247917 0.00693199 239 62 51
0.0284528 -0.248882 0.00668703 195 62 55
0.0275071 -0.250293 0.00605996 117 51 55
0.0265614 -0.251703 0.00543286 75 59 61
0.158223 -0.176912 0.0162027 82 63 58
0.161095 -0.180543 0.0132652 103 57 58
0.160773 -0.182624 0.0120718 222 53 49
0.159644 -0.184308 0.0113231 254 71 55
0.158515 -0.185991 0.0105745 255 49 39
0.156588 -0.187264 0.0102766 255 42 15
0.157056 -0.189775 0.00862302 255 49 48
0.155924 -0.191462 0.00787279 255 46 74
0.155591 -0.193575 0.00666364 255 43 25
0.156862 -0.19656 0.0045196 255 40 15
0.156527 -0.1987 0.00329389 255 42 20
0.156191 -0.200848 0.00206314 255 51 32
0.155853 -0.203005 0.000827435 255 47 25
0.155514 -0.205171 -0.000413325 255 47 23
0.154364 -0.206886 -0.00117598 255 45 16
0.15241 -0.20814 -0.00145582 254 41 13
0.151262 -0.209852 -0.00221701 234 33 6
0.149318 -0.211097 -0.00249427 212 29 11
0.147382 -0.212337 -0.00277044 203 41 40
0.145453 -0.213573 -0.00304554 204 48 46
0.142756 -0.214334 -0.00283889 218 40 32
0.14008 -0.21509 -0.00263385 237 44 33
0.136668 -0.215372 -0.00195628 245 47 31
0.133297 -0.215652 -0.00128679 244 41 20
0.129966 -0.215928 -0.000625204 233 34 15
0.127397 -0.216662 -0.000433352 212 26 7
0.125567 -0.217851 -0.000704657 197 20 2
0.123031 -0.218572 -0.000513684 194 22 5
0.11981 -0.218828 0.000133086 198 20 4
0.118016 -0.219999 -0.000136267 201 12 2
0.114162 -0.219786 0.000954662 198 12 6
0.112396 -0.220945 0.000686292 199 18 8
0.109962 -0.22164 0.000867788 202 23 8
0.108214 -0.222788 0.000601027 197 19 5
0.106472 -0.223933 0.00033525 189 12 2
0.105397 -0.225535 -0.000377458 183 11 1
0.103664 -0.226672 -0.00064097 180 12 0
0.101285 -0.22734 -0.0004563 179 9 0
0.0982829 -0.227539 0.000170458 178 8 0
0.0940548 -0.226819 0.00166509 180 5 1
0.0917559 -0.227474 0.0018377 183 4 0
0.0900892 -0.22858 0.00157631 185 7 0
0.0878174 -0.229225 0.00174828 189 6 0
0.0855623 -0.229865 0.00191895 189 6 0
0.0833236 -0.230501 0.00208834 190 5 0
0.0805112 -0.230677 0.00268174 190 9 0
0.0777291 -0.230851 0.00326862 188 6 0
0.074977 -0.231024 0.00384923 185 5 0
0.07282 -0.231643 0.00400825 189 2 0
0.0712403 -0.232707 0.00375115 198 2 0
0.0702263 -0.234219 0.00307872 205 5 0
0.0686539 -0.235277 0.00282367 209 5 0
0.0665346 -0.235877 0.00298508 209 5 0
0.0638852 -0.23602 0.00355775 207 5 0
0.0607284 -0.235714 0.00453216 205 4 0
0.05867 -0.236303 0.00468497 202 8 0
0.056103 -0.236443 0.00523977 199 8 0
0.0540784 -0.237024 0.00538879 192 10 1
0.0520677 -0.237602 0.00553674 195 4 0
0.0500709 -0.238175 0.00568363 206 5 0
0.0470891 -0.237863 0.00661834 217 9 4
0.0451295 -0.23843 0.00676 227 13 13
0.0431832 -0.238993 0.00690069 232 14 10
0.04125 -0.239553 0.00704037 230 12 2
0.0398084 -0.240547 0.00679165 221 9 0
0.0388486 -0.241978 0.00615517 208 8 0
0.0364675 -0.242085 0.00668359 200 4 0
0.0350434 -0.243068 0.00643705 200 1 0
0.0336241 -0.244048 0.00619129 203 10 5
0.0326722 -0.245467 0.00556006 225 39 30
0.0307996 -0.245998 0.00570219 244 53 42
0.0293944 -0.246969 0.00545876 246 58 50
0.0284471 -0.248381 0.00483062 206 59 55
0.0274997 -0.249794 0.00420238 120 53 55
0.0265523 -0.251207 0.00357417 77 66 58
0.156439 -0.172984 0.0165089 86 68 61
0.15533 -0.174638 0.0157734 89 67 59
0.155785 -0.17706 0.0141675 188 58 55
0.155457 -0.179111 0.0129899 253 73 54
0.154341 -0.180774 0.01225 255 50 43
0.153225 -0.182438 0.0115101 255 48 33
0.156047 -0.186124 0.0085257 255 68 51
0.15334 -0.186984 0.00868449 255 152 95
0.152217 -0.188658 0.00794007 255 93 125
0.151095 -0.190332 0.00719567 255 57 37
0.152327 -0.193269 0.00507601 255 56 34
0.154371 -0.196674 0.00246174 255 51 36
0.154835 -0.199249 0.000759754 255 50 30
0.154495 -0.201399 -0.000476237 255 49 26
0.154154 -0.203557 -0.00171722 255 46 21
0.153006 -0.205269 -0.00247843 255 38 9
0.151858 -0.206981 -0.00323966 245 31 8
0.149912 -0.208232 -0.00351494 231 30 7
0.148767 -0.20994 -0.00427471 225 29 4
0.146831 -0.211183 -0.00454738 230 30 7
0.144904 -0.212421 -0.004819 246 38 15
0.142209 -0.213187 -0.00460533 254 49 24
0.138771 -0.213483 -0.00391334 255 47 27
0.134624 -0.213314 -0.00275574 255 43 25
0.131278 -0.213605 -0.00208425 255 40 19
0.128699 -0.214349 -0.00188641 241 35 13
0.126863 -0.215545 -0.00215548 217 26 4
0.124316 -0.216277 -0.00195856 210 28 5
0.121789 -0.217003 -0.00176319 225 45 23
0.119282 -0.217724 -0.00156939 244 40 18
0.117489 -0.218897 -0.00183554 241 29 11
0.114324 -0.219149 -0.00118628 232 38 26
0.112554 -0.220311 -0.00145121 235 47 37
0.111469 -0.221929 -0.00217075 234 45 31
0.109034 -0.222622 -0.00197811 221 34 16
0.107284 -0.223771 -0.0022401 203 21 4
0.10554 -0.224916 -0.00250116 187 14 1
0.103803 -0.226056 -0.0027612 181 12 0
0.102073 -0.227192 -0.00302033 180 12 1
0.0990545 -0.227393 -0.00237685 180 12 3
0.0967067 -0.228054 -0.00218685 181 14 4
0.0924931 -0.22733 -0.000670534 186 11 2
0.0901998 -0.227983 -0.000489365 189 12 3
0.0879233 -0.228631 -0.000309583 189 13 0
0.0862696 -0.229732 -0.000566225 187 9 0
0.0834203 -0.229914 4.59738e-05 184 11 0
0.0806021 -0.230094 0.000651497 183 10 0
0.0783974 -0.230724 0.000824083 182 4 0
0.0756316 -0.230898 0.00141989 180 6 0
0.0728956 -0.23107 0.00200922 181 5 0
0.0713128 -0.232137 0.00175512 185 7 0
0.0697357 -0.233201 0.00150191 188 10 0
0.0681641 -0.23426 0.00124959 191 8 0
0.0660464 -0.234864 0.00141651 192 6 0
0.0639436 -0.235463 0.00158227 192 5 0
0.0613172 -0.235608 0.0021602 192 7 0
0.0587184 -0.235753 0.00273206 190 10 0
0.0566704 -0.236341 0.00289078 188 9 1
0.0541182 -0.23648 0.00345379 182 6 1
0.0515924 -0.236617 0.00401099 184 4 0
0.0495971 -0.237195 0.00416303 192 8 0
0.0466186 -0.236889 0.00510806 198 3 0
0.0446604 -0.237459 0.00525478 203 2 0
0.0427156 -0.238026 0.00540047 205 3 0
0.0407839 -0.238589 0.00554517 207 4 0
0.039343 -0.239584 0.00529889 205 6 0
0.0379069 -0.240577 0.0050534 201 5 0
0.0360043 -0.241128 0.00519815 195 5 0
0.0341143 -0.241675 0.00534198 192 3 0
0.0331623 -0.243094 0.00471066 216 21 13
0.0317484 -0.244073 0.00446807 242 56 42
0.0303391 -0.245048 0.0042263 251 65 51
0.0293902 -0.246463 0.00359704 243 65 51
0.0284412 -0.247878 0.0029677 197 61 50
0.0274921 -0.249293 0.00233838 117 52 49
0.0265431 -0.250708 0.001709 78 61 52
0.155126 -0.171488 0.0152189 90 64 58
0.154019 -0.173139 0.0144848 109 60 51
0.153688 -0.17517 0.0133146 245 70 48
0.153357 -0.177208 0.0121398 255 60 41
0.152245 -0.178865 0.0114027 255 47 31
0.151134 -0.180523 0.0106656 255 55 50
0.150796 -0.182576 0.00948322 255 100 83
0.148911 -0.183838 0.00919131 255 80 66
0.147799 -0.185495 0.0084541 255 58 41
0.146687 -0.187153 0.00771688 255 59 39
0.146341 -0.18922 0.00652856 255 64 42
0.150654 -0.193812 0.0025719 255 54 35
0.154285 -0.198094 -0.00101678 255 53 27
0.154749 -0.200686 -0.00273987 255 45 19
0.152798 -0.20195 -0.00301619 255 41 18
0.151653 -0.203658 -0.00377595 255 33 7
0.150507 -0.205367 -0.00453575 245 28 4
0.149361 -0.207075 -0.00529556 244 28 6
0.148215 -0.208784 -0.00605543 249 33 13
0.146281 -0.210029 -0.00632462 254 44 25
0.144354 -0.211269 -0.00659278 255 52 34
0.14089 -0.211578 -0.00588621 255 50 29
0.138227 -0.212343 -0.00566966 255 45 27
0.134084 -0.212183 -0.00449828 255 45 25
0.130006 -0.212026 -0.00334532 255 39 17
0.127437 -0.212775 -0.00314299 240 31 7
0.124888 -0.213518 -0.00294231 224 29 5
0.122359 -0.214255 -0.0027432 242 42 22
0.119849 -0.214987 -0.00254568 254 53 33
0.118055 -0.216165 -0.00281003 255 41 19
0.115576 -0.216886 -0.00261344 255 39 21
0.1138 -0.218054 -0.00287616 255 47 35
0.112031 -0.219218 -0.00313799 255 47 38
0.110945 -0.220836 -0.00385761 248 42 30
0.109185 -0.221993 -0.00411708 232 33 15
0.107431 -0.223146 -0.0043756 209 24 3
0.105684 -0.224294 -0.00463317 194 17 0
0.103943 -0.225438 -0.0048898 189 22 5
0.102209 -0.226577 -0.00514547 189 31 16
0.100482 -0.227712 -0.00540019 193 31 20
0.0961932 -0.226985 -0.00383964 202 32 16
0.0919842 -0.226271 -0.0023081 209 31 15
0.0890771 -0.226473 -0.00168059 211 29 14
0.0874181 -0.22758 -0.00193527 207 26 5
0.0857652 -0.228682 -0.00218901 198 21 0
0.0829186 -0.22887 -0.001568 192 17 0
0.080103 -0.229056 -0.00095379 187 16 0
0.0779 -0.22969 -0.000775453 184 13 6
0.0757129 -0.23032 -0.000598442 181 12 5
0.0729714 -0.230495 2.76044e-06 181 11 4
0.0708214 -0.231117 0.000175361 182 12 2
0.069245 -0.232182 -7.51577e-05 185 14 1
0.0676742 -0.233243 -0.000324752 186 12 1
0.0655581 -0.23385 -0.000152331 186 9 0
0.063457 -0.234453 1.88835e-05 185 8 0
0.060833 -0.234604 0.000604991 183 11 0
0.0582366 -0.234754 0.00118491 181 9 1
0.0567151 -0.235791 0.000937734 179 10 6
0.0546775 -0.236378 0.00110235 178 6 7
0.0516277 -0.236074 0.00207995 178 4 3
0.0491233 -0.236214 0.00264216 182 7 0
0.0461479 -0.235915 0.00359752 186 3 0
0.0441913 -0.236489 0.00374928 188 4 0
0.0417629 -0.236624 0.00429435 189 6 0
0.0398375 -0.237191 0.00444247 190 7 0
0.0384005 -0.238187 0.00419838 191 8 1
0.0364962 -0.238746 0.00434594 189 7 2
0.0346045 -0.239301 0.00449258 190 7 3
0.0331882 -0.240286 0.00425032 211 14 11
0.0322377 -0.241703 0.00361996 242 56 41
0.0312871 -0.243121 0.00298959 253 74 59
0.0298785 -0.244098 0.00275021 252 72 55
0.0289295 -0.245513 0.00212084 225 70 52
0.0279804 -0.246928 0.00149142 164 65 54
0.0274845 -0.248791 0.000467855 101 55 54
0.0265338 -0.250208 -0.000162642 77 61 56
0.153817 -0.169998 0.0139336 88 61 54
0.152712 -0.171646 0.0132008 168 54 49
0.15238 -0.173669 0.0120303 255 73 46
0.151273 -0.17532 0.0112961 255 63 38
0.150166 -0.176971 0.0105618 255 50 29
0.149058 -0.178622 0.00982744 255 59 42
0.148718 -0.180664 0.00864792 255 69 44
0.146844 -0.181925 0.00835869 255 73 50
0.145736 -0.183576 0.00762427 255 66 43
0.144629 -0.185227 0.00688982 255 64 40
0.143521 -0.186878 0.00615535 255 59 40
0.144691 -0.189755 0.0040585 255 48 30
0.150305 -0.202054 -0.00506851 255 35 10
0.149956 -0.20421 -0.00631658 255 33 5
0.14881 -0.205918 -0.0070765 255 36 12
0.147664 -0.207627 -0.00783646 255 45 28
0.14573 -0.208875 -0.00810216 255 56 39
0.143805 -0.210117 -0.00836685 255 53 36
0.140344 -0.210433 -0.00764975 255 50 28
0.136168 -0.210288 -0.00645809 255 45 20
0.131319 -0.209694 -0.00481003 255 38 13
0.128012 -0.210005 -0.00413066 252 32 12
0.124743 -0.210312 -0.00345924 242 37 14
0.121512 -0.210615 -0.0027956 251 39 18
0.119714 -0.211803 -0.0030595 255 54 29
0.117229 -0.21254 -0.00286199 255 42 20
0.11545 -0.213716 -0.00312431 255 35 16
0.114363 -0.215337 -0.00384533 255 43 25
0.112592 -0.216507 -0.00410534 255 45 25
0.110829 -0.217672 -0.00436437 255 41 19
0.109745 -0.219287 -0.00508274 252 36 13
0.107991 -0.220445 -0.00533948 235 30 5
0.106242 -0.221598 -0.00559531 212 24 0
0.104501 -0.222747 -0.00585015 202 26 4
0.102765 -0.223892 -0.00610406 203 47 26
0.10169 -0.225495 -0.00681711 209 67 52
0.100615 -0.227098 -0.00753024 220 56 48
0.0950448 -0.225457 -0.00504028 236 51 35
0.0902353 -0.224307 -0.00305681 239 48 31
0.0879585 -0.224969 -0.00286769 237 41 25
0.0863045 -0.226076 -0.00311982 229 32 12
0.0840546 -0.226728 -0.00293159 218 22 0
0.0818211 -0.227375 -0.00274478 206 21 0
0.0796038 -0.228018 -0.00255935 197 30 10
0.0768214 -0.228207 -0.00194323 192 38 31
0.0746419 -0.228841 -0.0017624 189 34 28
0.0724781 -0.229471 -0.0015829 190 27 23
0.0703298 -0.230096 -0.00140473 196 26 17
0.0687542 -0.231163 -0.00165249 201 27 10
0.0666305 -0.231779 -0.00147505 202 24 5
0.0645218 -0.23239 -0.00129895 200 19 2
0.0624279 -0.232997 -0.00112408 194 15 0
0.0598139 -0.233156 -0.000533056 186 14 2
0.0577548 -0.233755 -0.000362497 182 21 10
0.056234 -0.234794 -0.000607025 178 29 29
0.0541981 -0.235384 -0.000437137 177 28 30
0.051663 -0.235529 0.000142012 179 20 13
0.0486495 -0.235232 0.00112105 185 17 4
0.0456771 -0.23494 0.00208672 191 13 1
0.0432327 -0.235084 0.00264204 195 16 1
0.0408132 -0.235227 0.00319173 194 17 1
0.0388942 -0.235797 0.00334321 192 15 0
0.0369882 -0.236364 0.00349363 190 13 1
0.0350948 -0.236927 0.00364304 192 15 4
0.0336776 -0.237916 0.00340213 209 21 15
0.0322651 -0.238902 0.00316207 243 47 40
0.031316 -0.240317 0.00253266 254 74 62
0.030367 -0.241732 0.0019033 255 72 57
0.0294179 -0.243147 0.00127386 249 68 52
0.0284688 -0.244562 0.00064439 200 64 53
0.0275196 -0.245977 1.489e-05 128 59 56
0.0270228 -0.247839 -0.00101122 79 56 58
0.152514 -0.168513 0.012653 86 63 56
0.151411 -0.170158 0.0119215 189 52 47
0.150308 -0.171802 0.0111901 255 70 49
0.149205 -0.173447 0.0104586 255 60 41
0.148102 -0.175092 0.00972703 255 54 33
0.146999 -0.176736 0.00899545 255 65 42
0.147419 -0.179153 0.00737209 255 63 48
0.146312 -0.180805 0.00663758 255 64 48
0.144445 -0.182063 0.0063527 255 64 43
0.142587 -0.183316 0.00606886 255 63 39
0.141483 -0.184961 0.00533717 255 49 29
0.141881 -0.18741 0.00369931 255 43 23
0.149404 -0.203052 -0.00809772 255 48 30
0.148258 -0.204761 -0.00885774 255 51 33
0.147112 -0.20647 -0.00961782 255 52 33
0.144397 -0.207263 -0.00938418 255 57 40
0.140932 -0.207596 -0.00866104 255 54 37
0.137508 -0.207924 -0.00794653 255 48 25
0.131897 -0.206908 -0.00580357 255 40 11
0.127136 -0.206353 -0.00417806 255 34 6
0.123175 -0.206244 -0.00304556 255 36 11
0.119972 -0.206569 -0.00238819 255 44 32
0.117495 -0.207323 -0.00219404 255 50 37
0.115722 -0.208505 -0.00245666 255 38 12
0.114639 -0.21012 -0.00317496 255 32 10
0.113556 -0.211735 -0.00389333 255 46 33
0.112473 -0.21335 -0.00461168 255 49 36
0.110712 -0.214519 -0.00486935 255 45 28
0.108959 -0.215684 -0.00512603 255 39 18
0.10788 -0.217293 -0.00584177 249 31 10
0.106801 -0.218902 -0.00655752 232 28 5
0.105058 -0.220056 -0.00681065 217 26 2
0.103321 -0.221206 -0.00706279 214 32 12
0.102246 -0.222809 -0.00777593 222 51 38
0.100095 -0.226016 -0.0092023 245 50 40
0.0907778 -0.221686 -0.00399273 255 47 24
0.0878878 -0.221913 -0.00335842 255 42 18
0.086844 -0.22347 -0.00405074 254 35 11
0.084592 -0.224131 -0.00385917 242 31 8
0.0829531 -0.225234 -0.0041082 228 23 0
0.0807276 -0.225886 -0.00391754 210 24 1
0.077934 -0.226087 -0.00329297 206 40 27
0.0757465 -0.22673 -0.00310702 205 50 45
0.074147 -0.227813 -0.00335395 205 50 40
0.0719848 -0.228446 -0.00316882 210 44 38
0.0698382 -0.229075 -0.0029851 222 41 29
0.0677067 -0.229699 -0.00280264 228 38 19
0.0650415 -0.229876 -0.0021975 229 32 10
0.0629458 -0.230493 -0.00201952 222 28 4
0.0614024 -0.231546 -0.0022633 208 24 2
0.0587984 -0.231712 -0.00166742 196 23 4
0.0572729 -0.232756 -0.00191015 192 33 14
0.0557529 -0.233797 -0.0021521 188 43 32
0.0537185 -0.234391 -0.00197692 188 39 30
0.0516983 -0.234981 -0.00180298 193 30 13
0.0481755 -0.234251 -0.000400346 204 29 5
0.0447128 -0.233534 0.000978325 215 28 4
0.0413087 -0.232828 0.00233363 222 29 5
0.038911 -0.232982 0.00288201 221 29 5
0.0365373 -0.233133 0.00342487 216 26 5
0.0346516 -0.233705 0.00357393 212 24 7
0.0332399 -0.234696 0.00333392 218 30 16
0.0313746 -0.235261 0.00348246 241 51 40
0.0304303 -0.236669 0.00285615 255 74 62
0.0294859 -0.238077 0.00222984 255 72 57
0.0285414 -0.239485 0.00160349 253 65 51
0.0280488 -0.241326 0.000585143 224 66 52
0.0271028 -0.242737 -4.23156e-05 160 61 54
0.0270587 -0.245027 -0.00146186 99 56 55
0.0265611 -0.246887 -0.00249058 74 58 54
0.151216 -0.167034 0.0113771 85 63 57
0.150115 -0.168676 0.010647 146 52 48
0.149014 -0.170317 0.00991683 254 66 44
0.147154 -0.171588 0.0096273 255 65 42
0.146055 -0.173226 0.00889852 255 60 36
0.144956 -0.174865 0.00816965 255 58 35
0.145366 -0.177265 0.00654927 255 59 43
0.143509 -0.178525 0.0062656 255 58 40
0.142408 -0.180167 0.00553523 255 64 40
0.141307 -0.181809 0.00480488 255 57 38
0.139461 -0.183058 0.00452504 255 51 30
0.139849 -0.185491 0.00289031 255 46 32
0.148853 -0.201895 -0.00987917 255 54 34
0.146917 -0.203154 -0.0101409 255 51 35
0.145773 -0.20486 -0.0108995 255 61 39
0.143847 -0.206111 -0.0111588 255 62 40
0.138093 -0.205104 -0.008952 255 54 33
0.131001 -0.203246 -0.00584475 255 43 18
0.124127 -0.201446 -0.00283336 255 38 16
0.120925 -0.201798 -0.00217853 255 38 13
0.118449 -0.202569 -0.00198558 255 51 27
0.115992 -0.203334 -0.00179413 255 43 27
0.113554 -0.204093 -0.00160417 255 34 9
0.112479 -0.205696 -0.0023171 255 33 4
0.111404 -0.207298 -0.00303006 255 44 20
0.111001 -0.209334 -0.00419904 255 52 31
0.109924 -0.21094 -0.00491343 255 47 26
0.108847 -0.212546 -0.00562784 255 44 21
0.10777 -0.214152 -0.00634226 255 39 15
0.106692 -0.215759 -0.00705672 248 32 8
0.105615 -0.217365 -0.00777122 235 28 4
0.103878 -0.21852 -0.00802163 227 28 4
0.102802 -0.220123 -0.00873486 230 31 10
0.0884274 -0.219306 -0.0042894 255 46 26
0.0873835 -0.220863 -0.00498178 255 41 18
0.0845279 -0.221093 -0.00434565 254 33 7
0.0834896 -0.222642 -0.00503428 248 25 5
0.0818555 -0.223745 -0.00528082 230 21 0
0.0802275 -0.224845 -0.00552648 213 24 3
0.0768551 -0.224611 -0.00445661 215 28 13
0.0752507 -0.225699 -0.00470163 221 31 16
0.0736519 -0.226784 -0.00494578 233 35 11
0.0714915 -0.227421 -0.00475503 244 39 16
0.068787 -0.227612 -0.00413511 251 40 17
0.0666629 -0.22824 -0.00394901 252 38 13
0.0640079 -0.228425 -0.00333888 248 34 7
0.0624599 -0.229484 -0.00358085 236 31 3
0.0609173 -0.23054 -0.00382198 218 28 3
0.0583156 -0.230711 -0.00321799 206 26 3
0.056791 -0.231757 -0.00345811 205 27 2
0.0547494 -0.232359 -0.00327812 205 30 5
0.052722 -0.232958 -0.00309939 210 24 3
0.0512202 -0.233991 -0.00333775 224 28 3
0.0472003 -0.232836 -0.00151221 235 33 7
0.0427747 -0.231278 0.000677187 243 37 10
0.0394039 -0.230595 0.00202807 247 37 10
0.0365579 -0.230341 0.00296645 247 36 10
0.0328298 -0.229264 0.00466276 242 35 12
0.0314327 -0.230254 0.00442285 240 40 20
0.03004 -0.231241 0.00418376 245 54 36
0.0291018 -0.23264 0.00356153 255 73 57
0.0281636 -0.234039 0.00293929 255 72 56
0.0276737 -0.235859 0.00192978 254 63 48
0.0271821 -0.237685 0.000916947 237 66 52
0.0262407 -0.239088 0.000292573 182 63 54
0.0257458 -0.240923 -0.000724714 120 60 55
0.0252493 -0.242764 -0.00174541 86 59 52
0.149922 -0.165561 0.0101059 87 67 57
0.148064 -0.166838 0.00981649 109 55 47
0.146967 -0.168473 0.00908904 224 52 35
0.145118 -0.169743 0.00880213 254 68 43
0.143275 -0.171008 0.0085163 255 66 44
0.1407 -0.1719 0.00866977 255 59 40
0.14258 -0.175015 0.00617902 255 56 37
0.140739 -0.176272 0.0058976 255 57 36
0.138905 -0.177525 0.00561723 255 61 38
0.137812 -0.179154 0.00489241 255 60 36
0.135987 -0.180399 0.00461445 255 57 34
0.136359 -0.182802 0.00299259 255 56 36
0.135264 -0.184435 0.00226626 255 55 33
0.147155 -0.202446 -0.0124212 255 53 36
0.146009 -0.204155 -0.0131815 255 55 39
0.144078 -0.20541 -0.0134367 255 53 35
0.13755 -0.203965 -0.0107058 255 48 25
0.124694 -0.198712 -0.00380806 255 41 18
0.120093 -0.198246 -0.00223279 255 38 18
0.11763 -0.199028 -0.00204041 255 51 28
0.115185 -0.199803 -0.00184956 255 41 17
0.113433 -0.200989 -0.00211048 255 31 8
0.11236 -0.202588 -0.00282213 255 30 8
0.111288 -0.204188 -0.00353382 255 39 19
0.110214 -0.205788 -0.00424553 255 49 32
0.10981 -0.207817 -0.00541472 255 48 35
0.108735 -0.20942 -0.00612783 255 44 26
0.10766 -0.211024 -0.00684099 255 41 16
0.106585 -0.212627 -0.00755417 255 37 12
0.106172 -0.214673 -0.00873197 249 32 10
0.105095 -0.216279 -0.00944657 242 28 6
0.103359 -0.217437 -0.00969389 242 30 6
0.087923 -0.218255 -0.00591293 255 40 19
0.0850644 -0.218501 -0.00527177 255 34 9
0.0834275 -0.219612 -0.0055179 255 24 4
0.082391 -0.221157 -0.00620536 250 19 0
0.0807618 -0.222262 -0.00644943 230 19 0
0.0791386 -0.223363 -0.0066926 225 25 2
0.0769387 -0.224018 -0.00649383 235 25 3
0.0747547 -0.224668 -0.00629651 243 36 10
0.0731568 -0.225755 -0.00653788 253 42 18
0.070998 -0.226396 -0.0063415 255 43 21
0.0682961 -0.226592 -0.00571319 255 43 20
0.0661737 -0.227224 -0.00552155 255 40 16
0.0635211 -0.227415 -0.00490318 253 36 8
0.0619739 -0.228476 -0.00514249 242 31 2
0.060432 -0.229533 -0.00538092 227 27 1
0.0578328 -0.22971 -0.00476883 219 27 2
0.055784 -0.230321 -0.004584 220 27 0
0.0532315 -0.230492 -0.00398141 227 28 1
0.0517288 -0.231529 -0.00421828 237 29 3
0.0497222 -0.232128 -0.00403735 251 38 10
0.0462283 -0.231425 -0.00262054 255 42 15
0.0403757 -0.228626 0.000777144 255 43 16
0.0370476 -0.22797 0.00211805 255 43 15
0.0328563 -0.22651 0.00420744 255 40 15
0.0305552 -0.226691 0.00473372 253 44 22
0.0296201 -0.228085 0.00411351 253 59 38
0.028685 -0.229479 0.0034933 255 74 53
0.0277499 -0.230874 0.00287302 255 70 53
0.0268146 -0.232268 0.00225275 255 60 45
0.026324 -0.234079 0.00124535 245 61 48
0.0258317 -0.235896 0.000234712 195 62 52
0.0248933 -0.237296 -0.00038771 129 59 52
0.0248421 -0.239549 -0.00179685 90 59 54
0.0243447 -0.241385 -0.00281772 78 62 52
0.148634 -0.164093 0.00883922 88 66 60
0.147537 -0.165728 0.00811172 90 63 57
0.145687 -0.167003 0.00782663 132 55 50
0.143843 -0.168273 0.0075426 224 49 28
0.13906 -0.168096 0.00901007 253 56 38
0.135804 -0.168634 0.0095916 255 64 43
0.137624 -0.171688 0.00713636 255 61 36
0.134369 -0.172207 0.00772965 255 58 30
0.131862 -0.173083 0.00788391 255 63 35
0.127272 -0.172865 0.00932323 255 60 34
0.122767 -0.172651 0.0107358 255 60 36
0.120358 -0.173506 0.0108753 255 55 33
0.116636 -0.173643 0.0118431 255 58 33
0.109103 -0.171687 0.0152202 255 55 31
0.106812 -0.172521 0.0153395 255 55 31
0.124167 -0.197608 -0.00550826 255 43 25
0.118189 -0.19633 -0.00300245 255 53 32
0.115062 -0.196707 -0.0023555 255 37 11
0.113314 -0.197896 -0.00261506 255 25 3
0.112243 -0.199493 -0.00332544 255 28 9
0.110503 -0.200674 -0.00358274 255 34 21
0.109434 -0.202268 -0.00429183 255 47 36
0.108365 -0.203862 -0.00500096 255 53 37
0.107958 -0.20588 -0.00616724 255 48 31
0.106887 -0.207477 -0.00687776 255 41 20
0.105816 -0.209075 -0.00758835 255 38 16
0.106066 -0.211543 -0.00922641 255 35 14
0.085601 -0.215907 -0.00619802 255 34 11
0.0821775 -0.215737 -0.00511945 255 24 1
0.0811466 -0.217274 -0.00580324 254 21 0
0.0807049 -0.219244 -0.00692895 248 23 0
0.0796721 -0.220784 -0.00761406 238 24 1
0.0780536 -0.221885 -0.00785479 242 27 3
0.076441 -0.222983 -0.00809466 254 35 10
0.0748342 -0.224076 -0.00833371 255 48 21
0.0732331 -0.225166 -0.00857192 255 44 18
0.0710701 -0.22581 -0.00836801 255 43 22
0.0678051 -0.225572 -0.00729152 255 43 21
0.0656843 -0.226208 -0.00709438 255 41 16
0.0624918 -0.22597 -0.00603838 252 36 8
0.0614878 -0.227467 -0.00670437 244 31 2
0.0588784 -0.227655 -0.00608426 236 28 3
0.0568222 -0.228274 -0.00589455 235 28 5
0.0542599 -0.228456 -0.00528414 242 30 7
0.0522375 -0.229067 -0.00509894 251 34 7
0.049721 -0.229244 -0.00449794 255 40 13
0.0487392 -0.230708 -0.00514917 255 44 18
0.0432919 -0.228322 -0.00209073 255 45 17
0.038482 -0.226421 0.000480015 255 43 17
0.0333403 -0.224166 0.00336868 255 42 17
0.0310369 -0.224359 0.00389906 255 47 24
0.0287559 -0.22455 0.00442422 255 62 40
0.0278253 -0.225937 0.00380697 255 74 53
0.0268947 -0.227325 0.0031897 255 71 53
0.0264066 -0.229119 0.00218884 254 59 46
0.0259169 -0.230919 0.00118462 246 59 47
0.0254255 -0.232725 0.000177059 205 60 51
0.0244901 -0.23412 -0.000443351 136 57 50
0.0239954 -0.235934 -0.00145532 93 58 50
0.0234991 -0.237755 -0.00247058 78 60 52
0.146256 -0.164262 0.00685101 80 62 59
0.144411 -0.165538 0.00656878 85 67 62
0.139623 -0.165387 0.00804547 128 51 49
0.136363 -0.165941 0.0086324 188 44 27
0.13314 -0.166487 0.00921274 243 45 34
0.13278 -0.168437 0.00807172 253 55 35
0.129589 -0.168968 0.00865294 254 58 35
0.125055 -0.16879 0.0100743 255 65 36
0.121278 -0.168963 0.0110534 255 56 34
0.11822 -0.169479 0.0116052 255 51 30
0.113888 -0.1693 0.0129685 255 58 33
0.108997 -0.168785 0.0147077 255 59 36
0.106082 -0.16929 0.015226 255 60 35
0.103819 -0.170127 0.0153444 255 61 41
0.102806 -0.171638 0.0146722 255 61 38
0.101792 -0.173149 0.0140001 255 58 40
0.117374 -0.192825 -0.00305347 255 50 32
0.112919 -0.192423 -0.00151206 255 36 14
0.111854 -0.194011 -0.00221847 255 28 6
0.110789 -0.195599 -0.0029249 255 25 7
0.110389 -0.197594 -0.00408288 255 31 18
0.108659 -0.198775 -0.00433787 255 50 36
0.107594 -0.200363 -0.00504443 255 54 37
0.105873 -0.201536 -0.00529721 255 49 34
0.104809 -0.203122 -0.0060025 255 42 24
0.103096 -0.204288 -0.00625307 255 37 16
0.105299 -0.207995 -0.00925445 255 34 15
0.0855353 -0.212889 -0.0066797 255 36 18
0.0803557 -0.211487 -0.00429065 255 28 5
0.0793322 -0.213013 -0.00496958 255 27 3
0.0783086 -0.214539 -0.00564856 255 26 0
0.077285 -0.216065 -0.00632752 254 25 1
0.0780018 -0.218879 -0.0083303 251 28 7
0.0769725 -0.220413 -0.00901304 255 35 8
0.0759432 -0.221948 -0.00969578 255 43 22
0.0737626 -0.222606 -0.0094871 255 51 31
0.0721662 -0.223696 -0.0097229 255 48 27
0.0705756 -0.224783 -0.00995788 255 46 23
0.0673139 -0.224552 -0.00887014 255 42 21
0.0651949 -0.225192 -0.00866747 255 39 16
0.0620058 -0.224961 -0.00760044 251 37 9
0.0599277 -0.225593 -0.00740444 249 34 5
