ply
format ascii 1.0
element vertex 1182
property float x
property float y
property float z
property uchar diffuse_red
property uchar diffuse_green
property uchar diffuse_blue
end_header
0.127792 -0.120825 0.0374189 255 75 55
0.127434 -0.11981 0.0362377 255 75 55
0.1275 -0.118647 0.0352859 255 74 52
0.127142 -0.117636 0.0341093 255 74 51
0.127208 -0.116474 0.0331587 255 70 50
0.127698 -0.115158 0.03243 255 70 50
0.077362 -0.124087 -0.00216685 255 68 42
0.0768282 -0.123357 -0.00324772 255 64 43
0.0768831 -0.12239 -0.00403924 255 66 44
0.119393 -0.0983239 0.0108649 255 61 47
0.120662 -0.09667 0.0104992 236 63 50
0.0365547 -0.176777 0.0107774 249 61 49
0.0366014 -0.175953 0.0101036 253 76 62
0.036648 -0.17513 0.00942977 255 82 65
0.129649 -0.12025 0.040799 255 75 58
0.126722 -0.120124 0.0382058 255 74 55
0.126365 -0.11911 0.0370235 255 73 53
0.126009 -0.118098 0.0358445 255 72 51
0.126075 -0.116936 0.0348938 255 73 50
0.126141 -0.115775 0.0339431 255 70 50
0.126206 -0.114613 0.0329924 255 69 50
0.0764164 -0.124472 -0.000719786 255 68 42
0.0755925 -0.12386 -0.001949 255 66 43
0.0750647 -0.123133 -0.00302669 255 62 44
0.074829 -0.12229 -0.00395767 255 63 43
0.0748835 -0.121327 -0.00474565 255 67 43
0.0749381 -0.120364 -0.00553364 255 68 42
0.118357 -0.0976429 0.0116249 255 64 47
0.118421 -0.0965149 0.0107016 237 64 49
0.0336006 -0.182438 0.0147906 188 25 7
0.033441 -0.181666 0.0139848 184 19 8
0.0334872 -0.180851 0.0133177 184 19 5
0.0335333 -0.180036 0.0126506 185 20 4
0.0337855 -0.179174 0.0121196 188 20 4
0.0342449 -0.178263 0.0117236 195 21 2
0.0349142 -0.177301 0.0114622 206 24 5
0.0355875 -0.176332 0.0111993 221 32 15
0.0352157 -0.175611 0.010255 240 44 29
0.0350536 -0.174841 0.00944865 254 54 42
0.0348918 -0.174072 0.00864384 255 69 51
0.126008 -0.120439 0.0401795 255 75 57
0.12523 -0.119572 0.0387614 255 73 54
0.125296 -0.118409 0.0378094 255 71 52
0.124941 -0.117398 0.0366292 255 69 49
0.125007 -0.116237 0.0356785 255 69 47
0.125073 -0.115075 0.0347277 255 68 48
0.0766472 -0.124382 0.00132386 255 62 40
0.075233 -0.124006 -0.000213191 255 65 40
0.0741244 -0.123516 -0.00158782 255 62 42
0.0738897 -0.122672 -0.00252046 255 59 41
0.0736555 -0.12183 -0.00345103 255 62 41
0.07371 -0.120868 -0.00423816 255 66 41
0.0720456 -0.120638 -0.00586303 255 67 41
0.0720997 -0.119683 -0.00664477 255 68 44
0.0328497 -0.181949 0.0153446 175 23 3
0.0326909 -0.181177 0.0145382 169 20 7
0.0325323 -0.180407 0.0137333 170 22 6
0.0325784 -0.179593 0.0130668 171 20 5
0.0326245 -0.178778 0.0124003 173 21 4
0.0330807 -0.177869 0.0120055 176 22 4
0.0335388 -0.176955 0.0116093 181 22 6
0.034206 -0.175989 0.0113475 191 24 6
0.034045 -0.175219 0.0105408 209 28 8
0.0338843 -0.174451 0.00973569 232 36 17
0.033724 -0.173684 0.00893211 252 50 36
0.0337703 -0.172867 0.00826277 255 65 48
0.125357 -0.119588 0.041203 255 73 55
0.12416 -0.118872 0.0395475 255 71 51
0.124226 -0.117709 0.0385954 255 71 50
0.123873 -0.116698 0.0374141 255 68 47
0.123939 -0.115537 0.0364633 255 67 45
0.124005 -0.114375 0.0355125 255 63 45
0.0789775 -0.123446 0.004466 255 63 41
0.075458 -0.123914 0.00183061 255 60 39
0.0740523 -0.123541 0.000292361 255 60 38
0.0729503 -0.123054 -0.00108311 255 60 40
0.0727172 -0.122211 -0.00201534 255 58 38
0.0727717 -0.121249 -0.00280245 255 60 39
0.0728261 -0.120288 -0.00358962 255 63 39
0.0714516 -0.11994 -0.00507942 255 64 41
0.0715058 -0.118983 -0.00586215 255 69 45
0.0324623 -0.182188 0.0168484 172 18 5
0.0320987 -0.181459 0.0158988 164 19 3
0.0319405 -0.180688 0.0150917 161 16 7
0.0317827 -0.179919 0.0142862 162 16 7
0.0318288 -0.179104 0.0136197 163 22 9
0.0316712 -0.178337 0.0128164 166 21 6
0.031921 -0.177475 0.0122865 168 18 3
0.0323758 -0.176563 0.0118915 169 19 4
0.032627 -0.175697 0.0113591 175 18 4
0.0326733 -0.17488 0.0106904 187 19 4
0.0327196 -0.174063 0.0100217 203 27 7
0.0327658 -0.173246 0.00935297 225 34 15
0.0326068 -0.172482 0.00855127 242 45 31
0.032653 -0.171665 0.00788315 255 56 44
0.0324944 -0.170904 0.00708359 255 73 56
0.125978 -0.118278 0.0429444 255 73 55
0.124349 -0.117716 0.0410366 255 70 49
0.123156 -0.117008 0.0393816 255 71 48
0.122805 -0.115999 0.0381991 255 66 46
0.122871 -0.114837 0.0372482 255 68 46
0.0777699 -0.122973 0.00497575 255 59 38
0.0745637 -0.123327 0.00248706 255 57 36
0.0728741 -0.123078 0.00079684 255 57 37
0.0720653 -0.122473 -0.000433564 255 58 37
0.0718333 -0.121631 -0.00136659 255 56 36
0.0718877 -0.120669 -0.00215377 255 56 37
0.0719422 -0.119707 -0.00294097 255 59 39
0.0705726 -0.119362 -0.00443454 255 63 42
0.0706267 -0.118406 -0.00521731 255 69 47
0.0319144 -0.181654 0.0175457 164 16 5
0.0315515 -0.180926 0.0165937 158 18 7
0.0313937 -0.180154 0.0157851 156 17 8
0.031033 -0.17943 0.0148393 156 16 5
0.0306737 -0.178709 0.0138971 156 22 7
0.0307197 -0.177896 0.0132318 158 20 7
0.0307657 -0.177083 0.0125664 160 19 4
0.0312173 -0.176172 0.0121727 162 21 5
0.0314669 -0.175307 0.0116415 166 18 7
0.031717 -0.174441 0.0111093 172 17 6
0.0317632 -0.173625 0.0104412 183 20 5
0.0318094 -0.172808 0.00977311 198 23 5
0.0318556 -0.171992 0.00910497 218 31 13
0.0316977 -0.171229 0.00830421 239 40 24
0.03154 -0.170469 0.007505 255 53 39
0.0315862 -0.169654 0.00683808 255 72 60
0.124964 -0.116396 0.0427772 255 70 48
0.123341 -0.115844 0.0408701 255 69 47
0.121737 -0.115299 0.0389842 255 68 46
0.121802 -0.114137 0.0380333 255 66 45
0.0768639 -0.122379 0.00564089 255 56 36
0.0733779 -0.122861 0.00299206 255 56 36
0.0719858 -0.122495 0.0014488 255 56 35
0.0708947 -0.122012 6.94841e-05 255 57 34
0.0709491 -0.12105 -0.000717714 255 57 34
0.0710035 -0.120088 -0.00150497 255 56 36
0.0707729 -0.11925 -0.0024358 255 56 40
0.0696935 -0.118785 -0.00378957 255 63 43
0.0694657 -0.117953 -0.00471254 255 67 48
0.0698017 -0.116872 -0.00535527 255 72 49
0.0326001 -0.180849 0.0191066 158 20 6
0.0310032 -0.180391 0.01729 155 17 8
0.0308457 -0.179619 0.0164799 153 18 6
0.0302832 -0.178942 0.0153924 152 22 5
0.0299253 -0.178222 0.0144491 152 21 6
0.0293681 -0.177552 0.0133727 152 16 7
0.0292137 -0.17679 0.0125734 153 15 7
0.0294598 -0.175931 0.0120457 155 19 8
0.0303112 -0.174919 0.011923 159 19 9
0.0305596 -0.174054 0.0113921 165 18 7
0.0306057 -0.173239 0.0107252 171 17 4
0.031058 -0.172318 0.0103269 180 16 4
0.0311041 -0.171502 0.00965875 194 20 9
0.0311503 -0.170685 0.00899056 214 29 12
0.0309931 -0.169924 0.00818984 238 40 22
0.0310392 -0.169108 0.00752223 254 53 38
0.0312889 -0.168235 0.00698574 255 71 60
0.124307 -0.115532 0.0438119 255 66 47
0.123527 -0.114671 0.0423713 255 64 45
0.121498 -0.114286 0.0402352 255 67 43
0.121564 -0.113121 0.0392816 255 65 41
0.075902 -0.12277 0.00711279 255 58 36
0.0759577 -0.121784 0.00630614 255 59 35
0.0724844 -0.122275 0.00364798 255 55 35
0.0705254 -0.122153 0.00180261 255 55 35
0.0694434 -0.121673 0.000424773 255 53 32
0.0694977 -0.120714 -0.000360683 255 60 35
0.0695519 -0.119754 -0.00114615 255 57 37
0.0696062 -0.118794 -0.00193167 255 57 40
0.0685334 -0.118331 -0.00328624 255 64 47
0.0683072 -0.1175 -0.00420879 255 76 58
0.0683612 -0.116546 -0.00498991 255 78 61
0.0968062 -0.097559 0.00377849 215 76 63
0.094108 -0.0978059 0.00159682 149 69 61
0.0322546 -0.180264 0.0199573 156 13 3
0.0306573 -0.179808 0.0181305 154 11 4
0.0302965 -0.179082 0.0171763 154 13 7
0.0295332 -0.178453 0.0159456 155 21 8
0.0285759 -0.177877 0.0145866 159 23 9
0.028223 -0.177162 0.0136494 162 20 10
0.0272786 -0.176595 0.0123106 161 20 9
0.0271272 -0.175839 0.0115177 158 21 8
0.0287594 -0.174633 0.0119325 157 22 8
0.0296079 -0.173617 0.0118092 159 18 7
0.0298557 -0.17275 0.0112781 162 17 6
0.0305094 -0.171774 0.0110161 169 19 6
0.0305556 -0.170957 0.0103472 175 21 10
0.0306018 -0.17014 0.00967832 190 24 5
0.030445 -0.169378 0.0088761 211 31 7
0.0304912 -0.168561 0.0082078 236 40 20
0.0305374 -0.167745 0.00753945 251 54 35
0.0305835 -0.166928 0.00687106 255 70 62
0.122448 -0.113964 0.0431645 255 63 43
0.122514 -0.11279 0.0422041 255 63 41
0.0749957 -0.122175 0.0077782 255 55 34
0.0715358 -0.122661 0.00509948 255 56 33
0.0695844 -0.122536 0.00324237 255 55 34
0.0685067 -0.122054 0.00185791 255 60 36
0.068561 -0.121094 0.00107241 255 53 34
0.0686153 -0.120134 0.000286922 255 57 36
0.0686695 -0.119174 -0.000498623 255 58 37
0.0687238 -0.118214 -0.0012842 255 58 40
0.0673758 -0.117879 -0.00278395 255 67 60
0.0668732 -0.117174 -0.00384672 255 103 95
0.066927 -0.116221 -0.00462613 255 107 100
0.0930802 -0.0982227 0.00316863 255 87 65
0.0921233 -0.0976564 0.00181903 218 77 61
0.0918455 -0.0967698 0.000799537 155 69 60
0.0319077 -0.179676 0.0208116 154 11 3
0.0309235 -0.179084 0.0194072 154 12 1
0.0297461 -0.178545 0.017874 159 18 5
0.0287831 -0.177965 0.0164989 166 24 10
0.0278295 -0.17739 0.0151372 170 21 10
0.0264917 -0.176918 0.0135165 171 17 7
0.0259498 -0.176258 0.012453 168 21 7
0.0258 -0.175504 0.0116622 165 26 8
0.0256506 -0.174752 0.0108728 160 29 10
0.0280586 -0.173336 0.0118193 158 25 10
0.0300059 -0.170411 0.0110371 164 23 13
0.0300521 -0.169593 0.0103675 173 20 6
0.0300984 -0.168774 0.00969788 188 24 5
0.0303478 -0.167899 0.00916187 209 31 10
0.0303941 -0.167079 0.00849153 235 38 17
0.0300342 -0.166378 0.00755665 250 51 34
0.0302834 -0.165501 0.00701903 254 73 64
0.120467 -0.114745 0.0444361 255 63 44
0.122209 -0.112938 0.0444399 255 64 42
0.0740893 -0.121581 0.00844377 255 55 36
0.0706419 -0.122074 0.00575568 255 52 29
0.0686978 -0.121954 0.0038932 255 58 34
0.0679052 -0.121354 0.00265478 255 56 36
0.0679595 -0.120393 0.00186837 255 54 35
0.0680138 -0.119432 0.00108188 255 53 36
0.0677869 -0.118595 0.000149012 255 53 36
0.0678412 -0.117635 -0.000636607 255 58 41
0.0664982 -0.117302 -0.00214013 255 70 75
0.0657212 -0.116724 -0.00334546 255 156 127
0.065775 -0.115772 -0.00412403 255 188 146
0.0910993 -0.0980716 0.00338511 255 83 57
0.0904876 -0.0973464 0.00220147 255 87 61
0.0902125 -0.0964622 0.00118397 223 76 59
0.0906059 -0.0952522 0.000487804 162 67 58
0.0307802 -0.178447 0.0204037 161 16 1
0.0291944 -0.178006 0.0185732 167 20 3
0.0280329 -0.177476 0.0170524 172 22 7
0.0270829 -0.176904 0.0156879 174 20 7
0.0251649 -0.176579 0.0136555 174 17 3
0.025016 -0.175825 0.0128635 171 24 5
0.0246737 -0.175122 0.0119393 167 30 7
0.023756 -0.17457 0.0106226 161 29 9
0.0226575 -0.174074 0.00918882 151 34 16
0.0318004 -0.167589 0.0118892 171 21 9
0.030612 -0.167115 0.0103926 187 25 7
0.030454 -0.166351 0.00958398 209 28 8
0.0292816 -0.165887 0.00811106 234 38 14
0.0289247 -0.16519 0.00717869 250 50 32
0.0293741 -0.164252 0.00677273 254 67 59
0.118085 -0.115676 0.0454597 255 63 42
0.118151 -0.114511 0.044506 255 61 39
0.0728881 -0.12111 0.00894889 255 50 34
0.069748 -0.121488 0.006412 255 56 31
0.0680936 -0.121251 0.00469626 255 59 34
0.0673022 -0.120652 0.00345363 255 56 37
0.0670758 -0.119813 0.00251696 255 57 39
0.0671301 -0.118852 0.00173043 255 57 38
0.0671844 -0.11789 0.000943884 255 55 36
0.06529 -0.117805 -0.000859171 255 61 40
0.064518 -0.117225 -0.00206752 255 65 52
0.0645717 -0.116275 -0.00284521 255 87 74
0.0646254 -0.115324 -0.00362298 255 94 95
0.089192 -0.0968758 0.00274432 255 79 53
0.0892512 -0.09583 0.00188851 255 80 59
0.0893103 -0.0947841 0.00103267 234 74 63
0.0893694 -0.0937382 0.000176787 179 69 62
0.0304301 -0.177855 0.021259 164 17 5
0.0290466 -0.177369 0.0195625 169 28 7
0.0274821 -0.176939 0.0177474 172 27 6
0.0269305 -0.176271 0.0166581 174 18 3
0.026382 -0.175606 0.015575 173 20 3
0.0244707 -0.175294 0.0135437 170 26 6
0.0239362 -0.174641 0.0124831 162 30 9
0.0215061 -0.17449 0.0101146 148 34 15
0.0208011 -0.173899 0.00895105 126 50 33
0.0208457 -0.173111 0.00830609 127 51 39
0.0312914 -0.166203 0.0119113 172 22 8
0.0305143 -0.165616 0.0106851 187 24 6
0.0291343 -0.165215 0.00906591 209 30 8
0.0285751 -0.164578 0.00799635 234 37 15
0.0286213 -0.16376 0.00732712 249 49 38
0.0719824 -0.120516 0.00961387 255 52 36
0.0688539 -0.120901 0.00706844 255 56 37
0.0672057 -0.120668 0.0053481 255 55 39
0.0664173 -0.120071 0.00410312 255 55 39
0.0661919 -0.119233 0.00316569 255 58 41
0.0662462 -0.118271 0.0023791 255 55 40
0.0660213 -0.117436 0.00144465 255 56 41
0.0644132 -0.117229 -0.000215769 255 61 40
0.0636441 -0.116651 -0.00142638 255 64 44
0.0636978 -0.115701 -0.00220415 255 69 57
0.0882307 -0.0962435 0.00344904 255 74 49
0.0882897 -0.0951976 0.00259316 255 72 49
0.0883488 -0.0941516 0.00173727 255 77 61
0.0880767 -0.0932722 0.00072144 248 79 68
0.0878052 -0.092395 -0.000291899 199 74 64
0.0296677 -0.177359 0.0218215 169 25 9
0.0286946 -0.176778 0.0204119 171 27 9
0.0267309 -0.176449 0.0183015 170 23 7
0.026777 -0.175634 0.017634 169 20 7
0.0264255 -0.174919 0.0166852 161 29 11
0.0232439 -0.173359 0.0123715 122 49 30
0.020635 -0.173275 0.00987439 99 62 54
0.0309409 -0.165584 0.0127516 163 23 9
0.029754 -0.16512 0.0112453 172 24 7
0.0291891 -0.164478 0.0101618 186 26 8
0.0284256 -0.163902 0.00895092 207 28 11
0.0278684 -0.163268 0.00788161 231 35 20
0.0279146 -0.162451 0.00721236 249 49 41
0.0673915 -0.120561 0.00741196 255 59 41
0.0660371 -0.120208 0.00584644 255 59 42
0.0649756 -0.119736 0.00444981 255 59 42
0.0650298 -0.118776 0.00366411 255 56 42
0.065084 -0.117816 0.0028784 255 58 39
0.0645837 -0.117107 0.00179647 255 55 39
0.0632623 -0.116778 0.000282377 255 55 38
0.0630428 -0.115951 -0.000641331 255 62 43
0.0869982 -0.0947299 0.00313504 255 75 52
0.0867281 -0.0938509 0.00211871 255 73 48
0.086787 -0.0928074 0.00126484 255 79 57
0.0868459 -0.0917638 0.000410959 255 82 61
0.0865763 -0.0908894 -0.000600815 213 75 59
0.0289052 -0.176862 0.0223841 171 22 10
0.0279359 -0.176284 0.0209717 171 18 8
0.0261781 -0.17591 0.0189987 169 17 5
0.0262242 -0.175094 0.0183304 158 30 15
0.0310034 -0.164839 0.0138766 159 24 7
0.0296064 -0.164439 0.0122191 164 24 10
0.0290402 -0.163798 0.0111296 171 23 9
0.028275 -0.163222 0.00991122 186 26 10
0.0275159 -0.162651 0.00870241 206 30 13
0.0271616 -0.161959 0.00776687 231 37 19
0.0268087 -0.161269 0.00683497 249 49 37
0.0268548 -0.160452 0.00616685 255 71 68
0.0664991 -0.119975 0.00806706 255 57 42
0.0640382 -0.120117 0.00588377 255 56 42
0.0638161 -0.11928 0.00494637 255 57 42
0.0627708 -0.118815 0.00356172 255 55 41
0.0636484 -0.117487 0.00322708 255 58 39
0.0631526 -0.11678 0.00214677 255 53 38
0.0623861 -0.116203 0.000925243 255 52 34
0.0624399 -0.11525 0.000145644 255 59 41
0.0857098 -0.0942633 0.00367568 255 116 92
0.0857687 -0.0932198 0.00282182 255 78 66
0.0858276 -0.0921761 0.00196788 255 70 49
0.0858865 -0.0911325 0.00111394 255 75 52
0.0856181 -0.0902588 0.000101194 255 81 59
0.0856769 -0.0892163 -0.000751764 223 76 61
0.0281425 -0.176366 0.0229468 169 21 7
0.027177 -0.17579 0.0215315 168 15 6
0.025624 -0.17537 0.0196973 164 21 7
0.0256702 -0.174553 0.0190284 142 42 24
0.0310663 -0.164087 0.0150109 154 22 10
0.0294577 -0.163754 0.0131989 159 26 10
0.0286863 -0.163176 0.0119651 163 24 10
0.0277191 -0.162665 0.010605 170 23 8
0.0271618 -0.162032 0.00952654 185 26 7
0.0266078 -0.161403 0.00845438 207 30 12
0.0262556 -0.160713 0.00752014 231 38 19
0.0261031 -0.159961 0.0067203 249 48 35
0.026547 -0.159012 0.00631316 255 64 58
0.028979 -0.150905 0.00154755 255 63 42
0.0290256 -0.150078 0.000871167 255 65 45
0.0653256 -0.119514 0.00856481 255 58 42
0.0631549 -0.119538 0.00653216 255 60 43
0.0615664 -0.119316 0.00483693 255 59 42
0.0616202 -0.118362 0.00405654 255 54 39
0.0622193 -0.117159 0.00357427 255 60 40
0.0622733 -0.116203 0.00279199 255 56 39
0.0615098 -0.115627 0.00156823 255 52 37
0.0615636 -0.114674 0.000788555 255 52 38
0.0848092 -0.0925885 0.00352502 255 149 121
0.0845421 -0.091713 0.0025093 255 107 76
0.0846009 -0.0906705 0.00165634 255 72 52
0.0846596 -0.089628 0.000803366 255 76 51
0.0847185 -0.0885854 -4.96656e-05 255 81 60
0.0854307 -0.0871956 -0.000587404 236 76 65
0.0275359 -0.176647 0.0243374 167 27 7
0.0273798 -0.175869 0.0235095 165 21 3
0.0268202 -0.175194 0.0223868 164 18 4
0.025267 -0.174778 0.0205422 152 30 16
0.0253132 -0.173959 0.0198719 121 53 37
0.030295 -0.163584 0.0155792 143 33 20
0.0288973 -0.163192 0.0139031 155 24 13
0.0281273 -0.162615 0.0126652 160 25 12
0.0271618 -0.162106 0.0113003 163 23 10
0.0268062 -0.16141 0.010354 170 21 10
0.0262522 -0.160781 0.00927722 184 24 11
0.0258999 -0.160092 0.00833951 206 30 12
0.0257475 -0.159338 0.00753728 233 37 19
0.0257936 -0.15852 0.00686777 251 49 35
0.0262377 -0.157567 0.00646001 255 65 52
0.0264835 -0.156678 0.00591977 255 73 61
0.0265298 -0.155857 0.00524819 255 74 60
0.0269767 -0.154895 0.00483596 255 73 57
0.0274253 -0.15393 0.00442207 255 72 56
0.0276735 -0.153033 0.00387703 255 70 54
0.0281249 -0.152061 0.00345996 255 67 49
0.0281715 -0.151234 0.0027836 255 64 45
0.0282182 -0.150407 0.00210722 255 62 43
0.0282648 -0.149581 0.00143076 255 59 41
0.0641546 -0.119054 0.00906156 255 59 41
0.0619972 -0.119081 0.00702666 255 57 41
0.0606889 -0.11874 0.00548097 255 57 41
0.0607427 -0.117787 0.0047005 255 57 42
0.0618857 -0.11633 0.00452073 255 59 42
0.0619397 -0.115371 0.00373663 255 61 43
0.0617204 -0.114541 0.00280355 255 56 40
0.0617744 -0.113584 0.00202028 255 52 37
0.0835835 -0.0910823 0.00321169 255 160 119
0.0833183 -0.0902096 0.00219753 255 115 78
0.083377 -0.0891683 0.00134557 255 79 58
0.0837599 -0.0879544 0.000652552 255 73 51
0.0844697 -0.0865629 0.000116497 254 77 57
0.0845287 -0.0855176 -0.0007388 251 77 65
0.0267723 -0.17615 0.0249009 164 22 7
0.0266169 -0.175372 0.0240724 162 17 3
0.0262605 -0.174647 0.0230966 155 25 9
0.0255055 -0.174029 0.0218301 130 43 28
0.0255519 -0.173205 0.0211565 100 63 49
0.030355 -0.162825 0.016725 117 57 44
0.0283356 -0.162628 0.0146088 142 34 22
0.0273643 -0.162116 0.0132273 153 31 14
0.0266034 -0.161546 0.0119969 157 28 14
0.0262485 -0.16085 0.0110483 161 24 12
0.0260947 -0.160092 0.0102387 170 19 11
0.0255427 -0.159467 0.00916222 186 23 10
0.0253903 -0.158713 0.00835752 209 30 12
0.0254365 -0.157893 0.00768669 234 38 22
0.0254828 -0.157073 0.00701573 249 50 36
0.0257279 -0.156184 0.00647599 255 62 48
0.0257742 -0.155363 0.00580435 255 70 54
0.0262195 -0.1544 0.00539319 255 70 54
0.0266666 -0.153434 0.00498037 255 67 49
0.0269141 -0.152536 0.00443581 255 65 47
0.0273639 -0.151563 0.00401981 255 66 46
0.0276128 -0.150661 0.00347263 255 65 44
0.0280653 -0.149681 0.00305344 255 61 42
0.0289289 -0.148542 0.00289117 255 60 40
0.0632639 -0.118469 0.00971553 255 58 41
0.0611146 -0.118502 0.00767455 255 56 43
0.0598114 -0.118165 0.00612514 255 59 42
0.0598651 -0.117211 0.0053446 255 57 43
0.061004 -0.115751 0.00516774 255 54 43
0.0610581 -0.114792 0.00438356 255 59 43
0.0608398 -0.113963 0.00344971 255 56 41
0.0608938 -0.113005 0.00266638 255 51 39
0.0826248 -0.0904516 0.00391421 255 121 97
0.0823607 -0.0895795 0.00289913 255 128 100
0.0824195 -0.0885381 0.00204708 255 132 97
0.0828012 -0.0873234 0.0013549 255 105 73
0.0831839 -0.0861056 0.000660926 255 74 54
0.0835674 -0.0848847 -3.4824e-05 255 77 57
0.0836264 -0.0838392 -0.00089021 252 75 59
0.0258539 -0.174875 0.0246353 154 21 8
0.0259006 -0.174047 0.0239577 132 41 23
0.0255455 -0.173324 0.0229821 101 56 43
0.0297885 -0.162254 0.0174414 90 68 56
0.0277726 -0.162063 0.0153159 111 55 40
0.0270056 -0.161489 0.0140698 140 36 21
0.026446 -0.160855 0.0129724 154 25 11
0.0258897 -0.160224 0.0118814 158 26 11
0.0255362 -0.159531 0.010933 163 24 13
0.0253831 -0.158774 0.0101234 173 22 9
0.0254295 -0.15795 0.00944985 190 26 6
0.0254759 -0.157127 0.00877626 211 30 10
0.0255224 -0.156304 0.00810267 233 37 19
0.0255687 -0.15548 0.00742906 249 48 31
0.0256151 -0.154657 0.0067554 255 60 43
0.0258613 -0.153762 0.00621313 255 66 48
0.026108 -0.152865 0.00566977 255 64 45
0.0265562 -0.151892 0.00525622 255 64 43
0.0268042 -0.15099 0.00471021 255 64 42
0.0274579 -0.149935 0.00442404 255 64 43
0.0277079 -0.149028 0.00387503 255 61 40
0.0285718 -0.147884 0.00371565 255 59 39
0.0601778 -0.118882 0.00910756 255 54 40
0.0588799 -0.118543 0.00754997 255 53 43
0.0589336 -0.117588 0.0067694 255 55 41
0.0589874 -0.116634 0.00598882 255 55 41
0.0598511 -0.115299 0.00566266 254 53 41
0.059905 -0.114342 0.00487931 255 57 43
0.0602303 -0.113255 0.00424635 255 56 42
0.0602843 -0.112296 0.00346206 255 52 40
0.064486 -0.109322 0.00494817 255 50 33
0.0781372 -0.0976821 0.00805067 255 50 37
0.0791401 -0.0961711 0.00770602 255 53 42
0.0804693 -0.094485 0.00752571 255 60 49
0.0808477 -0.0932809 0.00684218 255 79 64
0.0813443 -0.0899908 0.00445291 255 127 103
0.081403 -0.0889493 0.00360087 255 120 101
0.0814618 -0.0879078 0.00274874 255 143 125
0.0818422 -0.0866922 0.00205737 255 164 114
0.0822237 -0.0854735 0.00136422 255 125 85
0.0822826 -0.0844292 0.000509858 255 78 67
0.0826651 -0.0832061 -0.000186145 255 73 53
0.082724 -0.0821604 -0.00104164 251 74 56
0.0251374 -0.17355 0.0245207 104 53 37
0.027822 -0.161301 0.0164551 95 68 56
0.0268484 -0.160793 0.0150575 114 56 44
0.0258844 -0.160291 0.0136737 139 33 24
0.02573 -0.159529 0.0128566 154 23 13
0.0253758 -0.158835 0.0119034 159 23 12
0.0252224 -0.158076 0.0110903 165 23 9
0.0252689 -0.15725 0.0104148 174 21 6
0.0251158 -0.156494 0.00960399 191 24 8
0.0251623 -0.155669 0.008929 211 30 10
0.0252088 -0.154843 0.00825399 233 36 17
0.0252553 -0.154018 0.00757898 249 47 29
0.0255015 -0.153121 0.0070364 255 58 41
0.0257483 -0.152221 0.00649278 255 59 43
0.0259956 -0.15132 0.00594798 255 61 41
0.0264449 -0.150341 0.00553365 255 62 41
0.0268961 -0.149358 0.00511765 255 60 40
0.0277566 -0.148216 0.00496323 255 60 40
0.0284184 -0.147143 0.00467539 255 61 41
0.0571476 -0.119288 0.00851075 253 54 37
0.0572011 -0.118337 0.00773284 254 52 38
0.0575211 -0.117262 0.0071075 253 53 39
0.0575748 -0.11631 0.00632864 252 54 40
0.0581633 -0.115104 0.00585246 250 52 38
0.0590241 -0.113764 0.0055258 251 58 42
0.0593483 -0.112676 0.00489347 251 54 41
0.0607636 -0.111055 0.00486548 251 50 36
0.0627506 -0.109143 0.00514381 251 47 30
0.0647702 -0.1072 0.00542663 249 46 28
0.0703259 -0.103481 0.00762419 248 47 31
0.0706789 -0.102329 0.00696467 247 46 28
0.0722291 -0.10057 0.00694765 247 47 32
0.0759461 -0.0976938 0.00807959 251 48 36
0.0766244 -0.0963501 0.00757113 254 49 40
0.078563 -0.0943491 0.0077239 255 50 39
0.0795724 -0.0928179 0.00737621 255 56 41
0.0799496 -0.0916116 0.00669242 255 69 52
0.0803278 -0.0904021 0.00600691 255 82 71
0.0803865 -0.0893606 0.00515482 255 112 93
0.0804452 -0.088319 0.00430268 255 118 101
0.0805039 -0.0872774 0.0034505 255 117 100
0.0812046 -0.0858856 0.00292198 255 143 109
0.0815857 -0.0846643 0.00222898 255 152 123
0.0816446 -0.0836186 0.0013735 255 137 110
0.0817035 -0.0825729 0.000517994 255 105 73
0.0817625 -0.0815271 -0.000337541 255 74 54
0.0821448 -0.0802987 -0.00103562 251 73 52
0.0268939 -0.160027 0.0161945 94 64 56
0.0259258 -0.159526 0.0147996 112 55 46
0.0251676 -0.158963 0.0135579 138 34 25
0.025014 -0.158202 0.0127408 153 25 12
0.0248606 -0.157442 0.0119253 159 25 9
0.0249072 -0.156615 0.0112483 165 22 9
0.0247542 -0.155857 0.0104351 174 22 9
0.0248007 -0.155031 0.0097587 190 27 8
0.0248473 -0.154204 0.00908233 210 31 9
0.0248939 -0.153377 0.00840592 233 38 16
0.0249405 -0.15255 0.00772946 249 46 26
0.0253872 -0.151575 0.00731908 255 53 37
0.0256346 -0.150671 0.00677402 255 59 40
0.0260841 -0.149689 0.00636046 255 60 39
0.0269414 -0.148547 0.00621097 255 60 40
0.0276007 -0.147476 0.00592689 255 63 44
0.0278528 -0.146559 0.00537485 255 69 46
0.0289312 -0.145314 0.00535341 255 66 44
0.056219 -0.119665 0.00993109 253 55 35
0.0557438 -0.118958 0.00884396 251 54 34
0.0560614 -0.117886 0.00822128 252 52 36
0.0563797 -0.116812 0.00759718 250 52 39
0.0566987 -0.115735 0.00697161 248 52 38
0.0572852 -0.114527 0.00649685 245 50 31
0.058143 -0.113185 0.0061723 244 56 40
0.0598221 -0.111437 0.00630528 244 52 35
0.0618014 -0.109528 0.0065953 244 47 31
0.062691 -0.108143 0.00626493 242 45 25
0.0638685 -0.106608 0.00608812 240 44 24
0.0656276 -0.104772 0.00622351 238 43 27
0.06946 -0.101872 0.0074804 236 42 28
0.069812 -0.100719 0.0068206 235 44 29
0.0716568 -0.098795 0.0069645 239 43 31
0.0756795 -0.0957288 0.00826396 245 45 32
0.0782418 -0.0933937 0.00875793 250 46 33
0.0789343 -0.0920225 0.00824469 254 49 35
0.0793112 -0.0908135 0.00756106 255 53 39
0.0793698 -0.0897719 0.00670896 255 58 48
0.07911 -0.0889016 0.00569151 255 73 61
0.0791686 -0.0878612 0.00484042 255 87 74
0.0792272 -0.0868207 0.00398923 255 103 86
0.0799239 -0.0854294 0.00346264 255 122 95
0.0806241 -0.0840312 0.00293337 255 124 104
0.080683 -0.0829854 0.00207783 255 139 121
0.0807418 -0.0819396 0.00122228 255 151 111
0.0808008 -0.0808938 0.000366703 255 114 78
0.0811819 -0.0796644 -0.000330582 255 78 60
0.0812409 -0.0786171 -0.00118732 253 75 53
0.0257647 -0.158823 0.0157915 97 66 57
0.0250048 -0.158261 0.0145421 114 54 46
0.0244506 -0.157636 0.013442 136 36 27
0.0244973 -0.156806 0.0127637 152 26 15
0.024544 -0.155977 0.0120853 159 23 11
0.024391 -0.155219 0.0112696 165 22 9
0.0244376 -0.15439 0.0105918 175 23 6
0.0244843 -0.153562 0.00991403 191 25 5
0.0245309 -0.152733 0.0092362 212 30 7
0.0245776 -0.151905 0.00855838 233 35 13
0.0248241 -0.151001 0.00801453 249 45 24
0.025272 -0.15002 0.00760342 255 55 37
0.0259236 -0.148957 0.00732462 255 60 41
0.0267829 -0.147809 0.0071785 255 64 43
0.0272387 -0.146812 0.00676192 255 62 44
0.0274909 -0.145892 0.00620955 255 63 42
0.0281558 -0.144806 0.00592363 255 61 42
0.0510388 -0.123812 0.0104056 255 55 42
0.0542397 -0.120524 0.0107247 252 55 38
0.054293 -0.119577 0.00995025 249 54 36
0.0543463 -0.11863 0.00917579 250 53 35
0.0551872 -0.117313 0.00886303 247 51 36
0.0555045 -0.116237 0.00823961 244 49 36
0.0560876 -0.115033 0.00776824 239 46 28
0.0572078 -0.113564 0.00760245 235 43 24
0.0588804 -0.111818 0.00774528 230 49 37
0.0597527 -0.110452 0.00742163 231 47 29
0.0609068 -0.108941 0.00725162 231 44 26
0.0629113 -0.106996 0.00755166 229 43 20
0.0646637 -0.105162 0.00769739 228 42 19
0.0652906 -0.103885 0.00720669 227 38 19
0.0685376 -0.101266 0.00815693 225 36 19
0.0691835 -0.0999596 0.00765961 226 36 16
0.071326 -0.0978725 0.00797309 228 36 19
0.0744259 -0.0952686 0.00879003 233 40 23
0.0776026 -0.0926 0.00962722 238 42 29
0.0779773 -0.0913932 0.00894615 245 44 32
0.078353 -0.0901833 0.00826332 250 47 36
0.0784116 -0.0891416 0.00741114 254 51 40
0.078153 -0.0882719 0.00639278 255 55 43
0.0782116 -0.0872314 0.00554158 255 62 49
0.0779536 -0.0863651 0.00452675 255 77 65
0.0783288 -0.0851503 0.00383911 255 96 79
0.0790232 -0.0837547 0.00331205 255 106 90
0.0794012 -0.082532 0.00262025 255 113 97
0.07978 -0.0813062 0.00192669 255 135 105
0.0801598 -0.0800773 0.00123137 255 139 108
0.0802188 -0.07903 0.000374585 255 114 94
0.0802777 -0.0779826 -0.000482187 255 90 68
0.0803367 -0.0769352 -0.00133903 254 75 54
0.0250425 -0.157486 0.0156749 94 66 60
0.0242856 -0.156929 0.0144259 110 56 51
0.0239327 -0.156238 0.0134656 135 35 30
0.0239795 -0.155408 0.0127866 155 23 13
0.0240262 -0.154577 0.0121074 161 25 9
0.0240729 -0.153747 0.0114283 166 26 9
0.0239202 -0.15299 0.0106123 176 25 6
0.0239669 -0.152161 0.00993377 191 27 5
0.0242131 -0.151256 0.00939073 211 29 7
0.0248609 -0.150198 0.00911753 231 35 12
0.025109 -0.149288 0.00857146 248 45 25
0.025965 -0.148142 0.0084303 255 56 38
0.0264191 -0.147146 0.0080162 255 63 43
0.0268751 -0.146145 0.00760043 255 58 40
0.0273329 -0.145141 0.00718291 255 55 38
0.0279994 -0.144049 0.00689903 255 53 37
0.0297166 -0.142525 0.00729468 255 53 35
0.0491176 -0.124638 0.0111832 255 56 41
0.04917 -0.123708 0.0104226 255 54 38
0.0502318 -0.122315 0.0102729 252 57 39
0.0513031 -0.120909 0.0101219 250 52 39
0.0529017 -0.119248 0.010279 247 52 35
0.0532146 -0.118181 0.00966069 245 50 33
0.0543129 -0.116739 0.00950485 238 48 31
0.0546291 -0.115663 0.00888208 231 42 24
0.0560061 -0.114072 0.00887708 222 37 14
0.0579387 -0.1122 0.00918549 217 35 15
0.0590804 -0.110702 0.00902425 212 40 25
0.0607856 -0.108915 0.00917861 212 38 19
0.0627961 -0.106963 0.00949557 214 38 17
0.0636997 -0.105553 0.00917146 214 39 15
0.0643242 -0.104277 0.00868423 213 35 14
0.0658144 -0.102554 0.00867759 214 33 12
0.0676149 -0.100659 0.00883353 213 33 14
0.0682586 -0.0993517 0.00833778 215 32 10
0.0737311 -0.0955135 0.0104906 219 34 10
0.0747151 -0.0939977 0.0101555 222 35 10
0.0769617 -0.0918042 0.0104988 227 34 16
0.0773361 -0.0905948 0.00981788 234 38 22
0.0777114 -0.0893823 0.00913523 240 41 31
0.0777701 -0.0883392 0.00828196 246 46 36
0.0778288 -0.087296 0.00742862 253 48 35
0.0772545 -0.0866016 0.00624292 255 52 38
0.0769976 -0.0857359 0.00522715 255 58 44
0.0773716 -0.0845202 0.00454029 255 69 55
0.0777465 -0.0833014 0.00385174 255 81 67
0.0784403 -0.0818994 0.00332396 255 94 79
0.078818 -0.0806727 0.0026312 255 108 90
0.0791966 -0.0794429 0.00193672 255 117 101
0.0792555 -0.0783954 0.00107987 255 124 112
0.0793144 -0.077348 0.000223026 255 123 101
0.0793734 -0.0763005 -0.00063388 255 100 70
0.0794324 -0.0752529 -0.00149079 255 76 56
0.0247232 -0.156008 0.0158441 91 67 59
0.023966 -0.155456 0.0145919 108 52 47
0.0240129 -0.154622 0.0139101 135 34 25
0.0240598 -0.153788 0.0132282 154 25 12
0.0239064 -0.153028 0.0124071 160 24 10
0.0239533 -0.152195 0.0117259 166 25 8
0.0240001 -0.151363 0.0110446 175 26 7
0.024047 -0.15053 0.0103633 189 27 7
0.0244951 -0.149543 0.00995518 207 30 8
0.025147 -0.148475 0.00968227 229 35 12
0.0255995 -0.147479 0.00927065 248 45 25
0.026258 -0.146399 0.00899427 255 56 36
0.026715 -0.145394 0.00857912 255 56 38
0.0271739 -0.144385 0.0081623 255 54 36
0.0278419 -0.143288 0.00788046 255 55 35
0.0289323 -0.142012 0.00787142 255 53 36
0.0298223 -0.14081 0.00772417 255 55 36
0.030082 -0.139866 0.0071618 255 57 37
0.0311952 -0.138559 0.00714888 255 60 37
0.0465239 -0.124868 0.0107392 254 57 40
0.0465758 -0.123945 0.00998434 252 55 37
0.0488681 -0.121984 0.0105968 249 52 37
0.0499309 -0.12058 0.0104474 246 49 34
0.0517741 -0.1188 0.0107618 243 48 30
0.0520853 -0.117733 0.0101446 236 45 26
0.0534384 -0.116165 0.0101468 223 41 21
0.0537537 -0.115088 0.00952472 208 35 13
0.0553911 -0.113365 0.00967978 199 31 6
0.0581342 -0.111085 0.0104713 192 31 8
0.0598327 -0.109301 0.0106358 191 33 12
0.06268 -0.106931 0.0114534 192 34 14
0.0635863 -0.105515 0.0111351 194 34 11
0.0639271 -0.104379 0.0104875 196 33 12
0.0648422 -0.102947 0.0101641 196 30 10
0.0657638 -0.101505 0.00983839 199 30 10
0.0666921 -0.100053 0.00951032 201 31 12
0.0673336 -0.0987437 0.0090161 203 30 11
0.0727856 -0.094892 0.0111838 207 30 5
0.0756322 -0.092382 0.0118789 212 30 2
0.0760044 -0.0911747 0.0112005 218 29 5
0.0763776 -0.0899644 0.0105204 223 32 10
0.0767517 -0.0887511 0.00983861 228 36 19
0.0768104 -0.0877079 0.00898525 235 40 26
0.0768691 -0.0866646 0.00813186 243 41 28
0.0769278 -0.0856213 0.00727844 250 46 32
0.0763557 -0.0849308 0.006093 254 50 34
0.0767294 -0.0837125 0.00540635 255 54 39
0.0767879 -0.0826704 0.0045539 255 62 46
0.0774793 -0.0812666 0.0040278 255 74 59
0.0778558 -0.0800391 0.00333586 255 90 76
0.0782332 -0.0788084 0.00264215 255 107 91
0.0782921 -0.0777608 0.00178529 255 117 101
0.078351 -0.0767132 0.000928387 255 121 103
0.07841 -0.0756656 7.14362e-05 255 114 92
0.0784689 -0.074618 -0.000785574 255 97 73
0.0785279 -0.0735703 -0.00164257 255 78 60
0.0244023 -0.154523 0.016014 92 63 55
0.0242478 -0.153757 0.0151852 111 53 47
0.0240934 -0.152993 0.0143581 132 38 30
0.0241405 -0.152156 0.0136734 151 26 12
0.0239865 -0.151394 0.0128485 159 25 8
0.0240335 -0.150558 0.0121644 165 23 8
0.0244833 -0.149568 0.0117583 174 24 9
0.0247325 -0.148652 0.0112115 188 27 9
0.0251851 -0.147654 0.0108021 207 29 8
0.0258436 -0.146572 0.0105297 228 34 12
0.0260957 -0.145648 0.00997831 245 45 24
0.0265538 -0.144638 0.00956388 253 54 36
0.0270137 -0.143624 0.00914773 255 56 37
0.0278913 -0.142436 0.00900641 255 60 37
0.0281478 -0.141498 0.00844829 255 57 38
0.0284048 -0.140558 0.00788896 255 56 39
0.0290827 -0.139439 0.00760354 255 58 41
0.0304027 -0.13804 0.00773151 255 60 40
0.0444025 -0.12579 0.0113542 255 55 41
0.0444542 -0.124872 0.0106035 253 55 38
0.0449924 -0.123729 0.010154 250 52 34
0.0467646 -0.122004 0.0104605 247 48 30
0.0480624 -0.12049 0.0104644 241 47 27
0.0491217 -0.119078 0.0103144 233 44 24
0.0512156 -0.117163 0.0107831 215 42 20
0.0523036 -0.115717 0.0106324 192 36 17
0.052878 -0.114514 0.0101675 174 35 14
0.0547745 -0.112656 0.0104844 166 31 11
0.0575136 -0.110365 0.0112861 165 28 12
0.0617157 -0.107321 0.0129279 169 27 12
0.063472 -0.105477 0.0131129 171 34 18
0.0641004 -0.104191 0.0126316 175 33 14
0.0644438 -0.103047 0.0119818 179 30 10
0.0647879 -0.101901 0.0113304 181 29 10
0.0654225 -0.1006 0.0108423 184 30 11
0.0660601 -0.099294 0.0103519 188 29 10
0.0664084 -0.0981356 0.00969453 191 24 8
0.0724518 -0.0939448 0.0122193 195 27 5
0.0743642 -0.0919204 0.0124068 201 27 1
0.0747344 -0.090714 0.0117298 206 27 2
0.075419 -0.089334 0.0112231 211 29 3
0.0754776 -0.088292 0.0103708 216 32 10
0.0758505 -0.0870765 0.00968869 223 35 17
0.0759092 -0.0860331 0.00883524 231 37 20
0.0759679 -0.0849897 0.00798175 237 41 28
0.0760266 -0.0839462 0.00712824 243 46 34
0.0760853 -0.0829027 0.00627469 250 49 36
0.0761439 -0.0818592 0.00542107 254 51 38
0.0765182 -0.0806338 0.00473173 255 56 45
0.0768934 -0.0794053 0.00404064 255 69 57
0.0772696 -0.0781737 0.00334777 255 86 72
0.0773285 -0.0771261 0.00249083 255 105 91
0.0773874 -0.0760784 0.00163385 255 119 101
0.0774464 -0.0750307 0.000776827 255 117 95
0.0775053 -0.0739829 -8.0213e-05 255 107 90
0.0775642 -0.0729351 -0.000937298 255 101 84
0.0776231 -0.0718873 -0.00179443 255 86 66
0.02408 -0.153032 0.0161845 95 64 58
0.0239254 -0.152266 0.0153538 107 56 49
0.0237712 -0.151502 0.0145247 130 38 25
0.0238183 -0.150663 0.0138386 149 29 11
0.024067 -0.149747 0.0132933 158 23 9
0.0245187 -0.148751 0.0128878 164 24 11
0.0247689 -0.14783 0.0123399 173 24 11
0.0252233 -0.146827 0.0119311 186 26 9
0.0256796 -0.14582 0.0115206 203 28 8
0.0261378 -0.144809 0.0111084 222 35 13
0.0263914 -0.143877 0.0105547 242 45 26
0.0270597 -0.142774 0.010279 251 52 36
0.0273153 -0.141837 0.0097221 255 59 40
0.0275714 -0.140897 0.00916408 255 59 42
0.027828 -0.139956 0.00860484 255 57 43
0.0287154 -0.138744 0.00846015 255 61 44
0.0298226 -0.137429 0.00845379 255 59 43
0.0315888 -0.135819 0.0088699 255 58 41
0.0418271 -0.126919 0.0116599 255 53 38
0.0428348 -0.125568 0.0115186 254 52 39
0.0433676 -0.12443 0.0110725 251 52 35
0.0436608 -0.1234 0.0104734 247 49 28
0.0449286 -0.121908 0.0104774 241 45 22
0.0459633 -0.120517 0.0103289 229 45 22
0.047757 -0.118754 0.010639 207 41 20
0.049579 -0.116963 0.010954 171 45 26
0.0511712 -0.11527 0.0111171 144 45 32
0.0520023 -0.113939 0.0108103 132 46 34
0.0541563 -0.111945 0.0112909 127 44 35
0.0607513 -0.107712 0.0144026 132 39 32
0.0630707 -0.105583 0.0149357 138 37 26
0.0634129 -0.10444 0.0142886 146 38 22
0.0637558 -0.103295 0.01364 158 32 17
0.063812 -0.102296 0.0128226 165 28 10
0.0644442 -0.100996 0.012338 169 27 9
0.0650795 -0.0996909 0.0118512 172 26 9
0.0654265 -0.098533 0.0111956 175 23 10
0.0660664 -0.0972168 0.0107041 178 19 7
0.0684854 -0.0949411 0.0112121 184 24 4
0.0721744 -0.0919598 0.0124151 190 24 1
0.0734674 -0.0902543 0.0122579 195 26 1
0.0741479 -0.0888748 0.0117531 201 28 1
0.0745187 -0.0876613 0.0110735 206 29 5
0.0745774 -0.0866192 0.0102211 214 31 9
0.0749491 -0.0854014 0.00953874 219 31 11
0.0750079 -0.0843579 0.00868519 224 34 18
0.0750665 -0.0833144 0.0078316 230 40 29
0.0751252 -0.0822707 0.00697796 238 43 34
0.0754982 -0.0810458 0.00629057 247 45 34
0.0758721 -0.0798178 0.00560136 253 47 35
0.0762469 -0.0785867 0.00491042 255 53 41
0.0763058 -0.0775389 0.00405346 255 63 48
0.0763648 -0.0764912 0.00319648 255 77 66
0.0764236 -0.0754434 0.00233945 255 98 86
0.0764825 -0.0743956 0.00148237 255 110 92
0.0765415 -0.0733477 0.000625238 255 106 91
0.0766004 -0.0722998 -0.000231877 255 109 98
0.0766593 -0.0712519 -0.00108905 255 110 95
0.0767182 -0.0702039 -0.00194629 255 99 74
0.0237563 -0.151535 0.0163556 94 66 56
0.0238036 -0.150692 0.0156668 105 56 44
0.0238509 -0.14985 0.0149778 127 43 26
0.0241007 -0.148929 0.0144315 146 31 15
0.0243509 -0.148007 0.013884 156 23 11
0.0248055 -0.147002 0.0134775 162 19 10
0.0252618 -0.145993 0.0130693 170 22 10
0.0257201 -0.14498 0.0126594 182 25 8
0.0259737 -0.144047 0.0121061 197 30 9
0.026228 -0.143112 0.0115517 217 35 15
0.0264827 -0.142175 0.0109961 235 41 25
0.0269458 -0.141149 0.0105798 248 51 36
0.0269938 -0.140295 0.00988141 253 57 43
0.0272501 -0.139352 0.00932232 255 59 46
0.0281358 -0.138136 0.00918037 255 64 47
0.0298808 -0.136539 0.00960076 255 58 44
0.0307885 -0.135295 0.00945812 255 56 42
0.0343473 -0.132869 0.011044 255 54 40
0.0359705 -0.13128 0.0113452 255 54 38
0.0369304 -0.129979 0.0112058 255 55 40
0.0388246 -0.128244 0.0116612 254 54 39
0.0388753 -0.127342 0.0109234 253 54 38
0.0410396 -0.125458 0.011531 250 53 36
0.0420438 -0.124101 0.0113891 247 51 31
0.0428156 -0.122846 0.0110941 239 49 28
0.0433502 -0.121698 0.0106455 224 44 20
0.0441306 -0.120428 0.0103464 197 44 23
0.0454081 -0.118911 0.0103496 158 46 27
0.0477013 -0.116888 0.0109688 119 56 44
0.0634658 -0.101393 0.013834 149 32 14
0.0640987 -0.100088 0.0133507 158 25 7
0.0644445 -0.0989305 0.0126969 163 19 7
0.065082 -0.0976151 0.0122091 165 15 9
0.0651386 -0.096607 0.0113845 169 17 6
0.0675486 -0.0943253 0.0118989 175 20 1
0.0697033 -0.0921637 0.0122523 180 18 0
0.0715882 -0.0901334 0.0124392 186 24 0
0.0728799 -0.0884166 0.0122818 192 23 1
0.0732486 -0.087204 0.0116037 197 27 4
0.0736184 -0.0859884 0.0109239 203 28 5
0.073989 -0.0847697 0.0102423 208 27 6
0.0740476 -0.083726 0.00938873 214 29 8
0.0744193 -0.0825029 0.00870433 219 33 15
0.074478 -0.0814579 0.00784959 225 37 21
0.0748506 -0.0802303 0.00716232 234 41 26
0.0752242 -0.0789997 0.00647332 243 43 31
0.0752831 -0.0779519 0.00561634 251 46 34
0.0756577 -0.0767167 0.00492448 254 49 36
0.0757166 -0.0756676 0.00406636 255 55 44
0.0754597 -0.0748084 0.00304517 255 69 58
0.0755186 -0.0737604 0.00218804 255 84 71
0.0755775 -0.0727125 0.00133085 255 92 81
0.0756364 -0.0716645 0.000473648 255 101 94
0.0756953 -0.0706164 -0.000383586 255 114 108
0.0757542 -0.0695683 -0.00124086 255 122 105
0.0758131 -0.0685201 -0.00209819 255 102 70
0.0236334 -0.149954 0.0166727 90 68 56
0.0238837 -0.14903 0.0161263 100 60 48
0.0241345 -0.148105 0.0155789 123 50 33
0.0245899 -0.147097 0.0151746 140 33 20
0.0248422 -0.146167 0.0146245 153 21 11
0.0253005 -0.145153 0.0142169 161 20 10
0.0257606 -0.144134 0.0138076 168 25 10
0.0258086 -0.143281 0.0131101 177 28 11
0.0258565 -0.142428 0.0124124 191 30 13
0.0261113 -0.141488 0.0118565 209 34 14
0.0261593 -0.140634 0.0111582 228 42 22
0.0264148 -0.139692 0.0106003 243 51 34
0.0268791 -0.138657 0.0101818 250 57 43
0.0279757 -0.137344 0.0101843 253 61 45
0.0295106 -0.135829 0.0104714 255 59 44
0.0304187 -0.13458 0.010332 255 57 42
0.0333114 -0.132435 0.0114958 255 53 39
0.0342519 -0.131149 0.0113582 254 52 34
0.0352005 -0.129853 0.0112195 253 54 36
0.0361572 -0.128545 0.0110795 251 54 37
0.0380446 -0.126797 0.0115336 248 49 33
0.0397294 -0.125129 0.0118445 244 51 33
0.0409632 -0.123662 0.0118559 238 49 26
0.0417306 -0.122406 0.0115628 220 43 22
0.0422623 -0.121258 0.0111157 187 47 29
0.0427962 -0.120105 0.0106666 146 50 40
0.0433325 -0.118947 0.0102155 111 58 46
0.0637512 -0.099175 0.0143683 141 31 15
0.0640974 -0.0980135 0.0137141 154 19 8
0.0644445 -0.0968492 0.0130583 160 14 6
0.0645012 -0.0958397 0.0122327 166 17 3
0.0666116 -0.0937094 0.0125859 169 16 3
0.0678585 -0.0920372 0.0124318 173 16 2
0.0688161 -0.0905156 0.0121052 177 19 1
0.0706943 -0.0884729 0.0122909 182 15 1
0.0719815 -0.0867476 0.0121328 187 23 3
0.0723491 -0.0855328 0.0114544 192 25 3
0.0727177 -0.084315 0.0107743 198 26 3
0.0730873 -0.0830941 0.0100924 204 29 4
0.0734576 -0.08187 0.00940882 208 31 5
0.0735163 -0.0808249 0.00855401 215 32 6
0.0742013 -0.0794127 0.0080364 222 34 15
0.0742601 -0.0783649 0.00717939 229 38 24
0.074319 -0.077317 0.00632234 238 41 30
0.0746924 -0.0760809 0.00563131 247 44 34
0.0747513 -0.0750317 0.00477311 252 48 36
0.0744956 -0.0741732 0.00375099 255 52 39
0.0745545 -0.0731252 0.00289382 255 61 48
0.0746133 -0.0720771 0.00203657 255 73 63
0.0746723 -0.071029 0.00117932 255 89 82
0.0747311 -0.0699808 0.000322014 255 108 101
0.07479 -0.0689326 -0.00053528 255 124 107
0.0748489 -0.0678843 -0.00139268 255 122 94
0.075223 -0.066636 -0.00209372 255 96 68
0.0239166 -0.148204 0.0172843 88 66 58
0.0243729 -0.147193 0.0168822 99 65 53
0.0246258 -0.14626 0.0163321 113 55 41
0.025085 -0.145243 0.0159268 131 39 28
0.0253393 -0.144305 0.015374 148 30 15
0.0255942 -0.143365 0.01482 157 29 11
0.0256422 -0.14251 0.0141202 164 26 12
0.0256903 -0.141654 0.0134204 172 31 14
0.0257383 -0.140798 0.0127206 185 29 10
0.0259938 -0.139854 0.0121632 203 33 9
0.0260419 -0.138997 0.0114626 219 37 16
0.026298 -0.13805 0.0109033 230 45 30
0.0278144 -0.136546 0.0111945 241 53 38
0.0291388 -0.135116 0.0113458 248 56 43
0.0300472 -0.133862 0.0112098 250 56 43
0.0322775 -0.132002 0.0119468 251 52 38
0.0334352 -0.130614 0.0119584 250 52 33
0.0339317 -0.129522 0.011527 247 50 34
0.034881 -0.128215 0.0113886 244 51 34
0.0367533 -0.126468 0.0118444 240 49 26
0.0384247 -0.124802 0.0121569 230 50 32
0.0398848 -0.123223 0.0123219 211 46 26
0.0408861 -0.121852 0.012183 176 45 28
0.0411765 -0.120819 0.0115849 133 56 47
0.0414675 -0.119784 0.0109854 105 65 55
0.0634586 -0.097248 0.0145653 138 32 17
0.0638053 -0.0960813 0.0139097 153 19 7
0.0641529 -0.0949117 0.0132525 163 15 3
0.0653802 -0.0932554 0.0131025 166 13 5
0.0663228 -0.0917474 0.0127804 166 18 6
0.0669743 -0.0903949 0.0122853 169 14 3
0.068229 -0.088698 0.0121288 173 12 3
0.0698002 -0.086812 0.0121426 179 16 2
0.071083 -0.0850784 0.0119836 183 22 3
0.0714495 -0.0838614 0.011305 187 26 2
0.0721267 -0.082462 0.0107962 192 29 2
0.0724959 -0.0812371 0.0101134 198 28 2
0.0725546 -0.0801919 0.00925857 205 28 1
0.0732371 -0.0787779 0.00874268 212 29 5
0.0732959 -0.07773 0.00788561 218 33 13
0.0733547 -0.0766821 0.00702851 225 36 22
0.0734136 -0.0756341 0.00617135 234 41 29
0.0734725 -0.074586 0.00531419 243 43 33
0.0735313 -0.0735379 0.00445695 250 46 33
0.0735902 -0.0724898 0.0035997 254 51 35
0.073649 -0.0714416 0.00274242 255 58 44
0.0737079 -0.0703934 0.00188509 255 71 62
0.0737668 -0.0693451 0.00102775 255 91 85
0.0738256 -0.0682968 0.00017035 255 111 97
0.0738845 -0.0672484 -0.000687093 255 110 88
0.0739434 -0.0662 -0.00154455 255 94 72
0.0743163 -0.0649495 -0.00224584 255 84 63
0.0244558 -0.145499 0.0173514 92 63 56
0.0249161 -0.144477 0.0169469 103 59 50
0.025171 -0.143535 0.0163934 120 50 36
0.0252192 -0.142678 0.0156921 137 38 23
0.0252674 -0.141821 0.0149909 149 34 17
0.0253155 -0.140963 0.0142896 160 30 12
0.0251566 -0.140194 0.0134442 169 28 10
0.0252047 -0.139337 0.0127436 180 31 8
0.0254599 -0.13839 0.0121856 193 29 10
0.0257156 -0.137441 0.0116264 202 34 18
0.0276521 -0.135744 0.012211 214 40 23
0.0287652 -0.1344 0.0122239 224 47 33
0.0294583 -0.133238 0.0119459 232 51 37
0.0312456 -0.13157 0.0123968 236 49 31
0.0319546 -0.130385 0.012116 236 49 30
0.0328904 -0.129089 0.0119808 233 48 33
0.0338342 -0.127782 0.0118444 229 46 30
0.0356955 -0.126033 0.0123035 218 46 21
0.0371253 -0.124475 0.012468 193 45 27
0.0390439 -0.122671 0.0129396 160 49 32
0.0398041 -0.121414 0.0126502 120 60 51
0.0403309 -0.120265 0.0122059 101 69 60
0.0631645 -0.0953114 0.0147633 134 33 20
0.0632213 -0.0942994 0.0139356 154 19 7
0.0641515 -0.0928024 0.013618 161 15 5
0.0650885 -0.0912946 0.013298 162 13 7
0.0657361 -0.0899424 0.0128048 164 12 4
0.0660899 -0.0887522 0.0121388 167 13 3
0.0673402 -0.0870471 0.0119815 171 14 4
0.0695144 -0.0848006 0.0123388 173 17 5
0.0701842 -0.0834087 0.0118345 177 25 2
0.0708574 -0.0820099 0.0113276 182 25 1
0.0712246 -0.0807858 0.0106463 189 24 0
0.0715926 -0.0795587 0.00996324 196 25 0
0.0719616 -0.0783284 0.00927845 203 27 2
0.0723315 -0.0770951 0.00859191 207 29 8
0.0723904 -0.076047 0.00773475 214 32 13
0.0724492 -0.0749989 0.00687757 222 34 17
0.072508 -0.0739507 0.00602035 230 38 24
0.0725669 -0.0729025 0.00516304 239 42 29
0.0726257 -0.0718543 0.00430574 247 46 31
0.0726846 -0.070806 0.00344838 253 50 34
0.0727434 -0.0697577 0.00259098 255 55 42
0.0728022 -0.0687093 0.0017336 255 67 59
0.0728611 -0.0676609 0.000876129 255 87 76
0.07292 -0.0666124 1.86563e-05 255 102 81
0.0729789 -0.0655639 -0.000838876 255 96 76
0.0733506 -0.0643124 -0.00153936 255 89 68
0.0737232 -0.0630578 -0.00224167 255 81 62
0.0245393 -0.143791 0.0178245 89 62 58
0.0247943 -0.142847 0.0172707 94 65 57
0.0248426 -0.141988 0.016568 105 57 45
0.0246838 -0.141216 0.0157185 120 54 37
0.0245254 -0.140446 0.0148707 139 41 22
0.0245735 -0.139589 0.0141694 151 36 14
0.0246217 -0.138731 0.013468 163 32 14
0.0248765 -0.137782 0.0129101 171 27 13
0.0255476 -0.136647 0.0126382 177 33 15
0.0272765 -0.135032 0.0130884 187 33 15
0.0281762 -0.133778 0.0129597 197 35 16
0.0288682 -0.132612 0.0126836 205 37 21
0.0304338 -0.131038 0.0129934 207 40 21
0.0311402 -0.129851 0.0127145 208 40 20
0.0318512 -0.128657 0.0124337 205 40 23
0.0327895 -0.127349 0.0122993 194 40 23
0.0346399 -0.125599 0.0127618 172 43 24
0.0360613 -0.12404 0.0129291 136 51 39
0.0379685 -0.122234 0.0134041 112 68 56
0.0387243 -0.120976 0.0131165 96 70 60
0.0628687 -0.0933651 0.0149622 133 34 20
0.0637999 -0.0918611 0.0146475 151 17 10
0.0641499 -0.0906775 0.0139862 158 12 9
0.0647952 -0.0893237 0.0134946 161 15 4
0.0651478 -0.0881326 0.0128293 162 16 2
0.0660953 -0.0865962 0.012504 166 15 4
0.0673503 -0.0848741 0.0123478 167 17 5
0.0686177 -0.0831349 0.0121901 171 20 2
0.0695911 -0.0815588 0.0118578 175 20 0
0.0699563 -0.0803356 0.011178 181 20 0
0.0703222 -0.0791093 0.0104964 187 24 0
0.0706892 -0.0778799 0.00981304 194 23 0
0.071057 -0.0766474 0.00912794 197 25 5
0.0711158 -0.0756005 0.00827181 203 28 8
0.0714846 -0.0743636 0.00758386 212 30 8
0.0715435 -0.0733153 0.00672659 219 33 13
0.0716023 -0.072267 0.00586925 225 36 22
0.0716611 -0.0712187 0.00501189 234 41 28
0.0717199 -0.0701703 0.00415447 244 45 31
0.0717787 -0.0691218 0.00329703 251 48 33
0.0718376 -0.0680734 0.00243954 255 53 40
0.0718964 -0.0670248 0.00158206 255 65 52
0.0719553 -0.0659763 0.000724494 255 81 65
0.0720142 -0.0649277 -0.000133112 255 87 70
0.072073 -0.063879 -0.000990704 255 84 67
0.0724435 -0.0626253 -0.00169148 255 80 64
0.072815 -0.0613684 -0.00239405 255 78 58
0.0244642 -0.141295 0.0174475 89 65 58
0.0243055 -0.140522 0.0165953 97 65 55
0.0243538 -0.139662 0.0158918 105 58 43
0.0244021 -0.138802 0.0151882 117 50 30
0.0244503 -0.137941 0.0144846 131 43 30
0.0247058 -0.136989 0.013926 144 35 25
0.0257968 -0.13566 0.0139477 150 40 20
0.0271112 -0.13422 0.0141164 157 35 20
0.0275857 -0.133155 0.0136971 164 33 13
0.0280622 -0.132084 0.013276 168 33 14
0.0296219 -0.130506 0.0135902 168 33 14
0.0301071 -0.12942 0.0131648 165 36 17
0.0310341 -0.128121 0.0130341 161 36 19
0.0315255 -0.127023 0.0126048 140 43 29
0.033361 -0.125274 0.0130689 117 58 44
0.0352283 -0.123494 0.013541 100 64 54
0.0371282 -0.121683 0.0140213 96 68 57
0.063154 -0.09108 0.0155084 131 37 26
0.0637968 -0.0897272 0.0150204 150 20 11
0.0641481 -0.0885366 0.014357 156 17 4
0.0647958 -0.0871725 0.0138644 159 17 2
0.0651496 -0.0859742 0.0131971 163 17 3
0.0658021 -0.0845987 0.0126997 163 16 1
0.0664579 -0.0832164 0.0121999 167 14 1
0.0677208 -0.0814689 0.0120414 169 19 1
0.0686909 -0.0798863 0.0117084 172 19 0
0.0690549 -0.0786609 0.0110283 175 24 1
0.0694197 -0.0774324 0.0103464 183 19 1
0.0697856 -0.0762008 0.00966279 188 21 2
0.0701523 -0.074966 0.00897744 194 25 3
0.070211 -0.073919 0.00812116 201 27 3
0.0705787 -0.0726798 0.00743297 208 29 9
0.0706375 -0.0716314 0.00657558 214 31 16
0.0706963 -0.070583 0.00571816 220 34 20
0.0707552 -0.0695345 0.00486068 229 38 24
0.070814 -0.0684859 0.00400317 241 42 26
0.0708728 -0.0674373 0.00314564 250 47 32
0.0709316 -0.0663887 0.00228806 253 51 39
0.0709904 -0.06534 0.00143048 255 57 46
0.0710492 -0.0642913 0.000572816 255 68 54
0.0711081 -0.0632425 -0.00028488 255 76 59
0.0714774 -0.0619879 -0.000984803 255 79 64
0.0715363 -0.0609378 -0.00184365 255 80 61
0.0719066 -0.0596786 -0.00254649 255 76 56
0.024181 -0.138873 0.0169192 86 63 54
0.0242294 -0.13801 0.0162134 89 61 49
0.0242778 -0.137147 0.0155076 92 61 53
0.0249505 -0.136003 0.0152423 98 59 50
0.0249991 -0.135137 0.0145342 106 53 36
