ply
format ascii 1.0
element vertex 1214
property float x
property float y
property float z
property uchar diffuse_red
property uchar diffuse_green
property uchar diffuse_blue
end_header
0.133696 -0.163403 -0.0835506 78 149 153
0.13371 -0.162168 -0.0838087 79 73 66
0.1343 -0.167264 -0.0807721 74 77 73
0.133647 -0.166453 -0.0814391 77 111 102
0.133439 -0.165367 -0.0818297 73 145 150
0.133009 -0.164419 -0.0823585 86 181 180
0.132138 -0.16375 -0.0831601 84 146 152
0.13259 -0.162239 -0.0831435 87 72 65
0.134071 -0.166778 -0.0795563 75 79 76
0.132975 -0.16624 -0.0805048 78 118 110
0.132545 -0.165293 -0.081033 70 139 147
0.131676 -0.164623 -0.0818366 84 180 179
0.129727 -0.164648 -0.0833142 82 151 153
0.131036 -0.162591 -0.0827546 85 68 68
0.131433 -0.165356 -0.080377 64 131 140
0.129486 -0.165375 -0.0818654 84 176 170
0.12778 -0.165258 -0.083198 89 163 158
0.127356 -0.164326 -0.0837179 79 77 87
0.127541 -0.165981 -0.0817583 88 168 162
0.125857 -0.165861 -0.083083 93 177 171
0.124195 -0.165742 -0.0843913 93 137 128
0.123367 -0.16509 -0.0851653 98 124 104
0.139936 -0.167485 -0.0703311 70 75 70
0.139493 -0.166508 -0.0708755 81 95 89
0.12562 -0.16658 -0.0816523 77 151 152
0.123754 -0.166589 -0.0831019 84 184 187
0.122928 -0.165936 -0.0838778 65 162 172
0.122308 -0.165152 -0.0845203 62 140 153
0.139686 -0.168243 -0.0688225 67 75 71
0.139243 -0.167266 -0.069367 73 109 102
0.138565 -0.16643 -0.0700664 87 159 149
0.123518 -0.167303 -0.0816815 59 133 141
0.122489 -0.16678 -0.0825929 86 182 181
0.122073 -0.165863 -0.0831042 82 156 157
0.121253 -0.165213 -0.0838777 74 75 86
0.139436 -0.169001 -0.0673138 70 70 63
0.138992 -0.168024 -0.0678582 72 94 90
0.138082 -0.167328 -0.0687157 83 147 143
0.136944 -0.166775 -0.0697241 81 169 173
0.122254 -0.167492 -0.0811767 50 115 127
0.121635 -0.166706 -0.0818212 94 166 165
0.121018 -0.165923 -0.0824644 98 169 166
0.120202 -0.165274 -0.0832377 77 98 101
0.138717 -0.170033 -0.0661238 71 66 61
0.138274 -0.169059 -0.0666669 68 79 77
0.137832 -0.168084 -0.0672101 75 124 120
0.136464 -0.167668 -0.0683795 86 173 164
0.135794 -0.166837 -0.0690755 82 154 151
0.1214 -0.167417 -0.0804063 45 104 110
0.120583 -0.166765 -0.0811846 75 150 149
0.119968 -0.165983 -0.0818272 89 181 181
0.118958 -0.165468 -0.0827316 76 129 140
0.137792 -0.169952 -0.0653212 68 71 70
0.136656 -0.169391 -0.0663396 70 94 100
0.136216 -0.168421 -0.0668804 79 140 145
0.135317 -0.167728 -0.0677343 83 173 172
0.134422 -0.167038 -0.0685846 74 132 133
0.120348 -0.167474 -0.0797725 35 97 103
0.119534 -0.166823 -0.0805505 53 124 133
0.118526 -0.166306 -0.0814579 92 174 172
0.117329 -0.165923 -0.0824908 88 156 156
0.116723 -0.165149 -0.0831262 78 78 86
0.137775 -0.170572 -0.0636554 70 68 64
0.136407 -0.170145 -0.0648403 77 85 81
0.135967 -0.169174 -0.0653812 80 116 113
0.135069 -0.16848 -0.0662384 79 149 153
0.134174 -0.167788 -0.0670919 80 170 173
0.13351 -0.166961 -0.0677862 73 126 133
0.118116 -0.16831 -0.0799479 36 92 98
0.117704 -0.167403 -0.0804535 49 109 114
0.116902 -0.166757 -0.0812238 89 159 154
0.116297 -0.165982 -0.0818598 92 176 175
0.115886 -0.165078 -0.0823639 71 119 130
0.115283 -0.164306 -0.0829981 70 69 61
0.114873 -0.163402 -0.0835018 72 66 56
0.136158 -0.170898 -0.0633409 72 75 70
0.135718 -0.169928 -0.0638817 79 98 95
0.135049 -0.169094 -0.0645826 79 125 124
0.134153 -0.168401 -0.0654407 76 146 150
0.133262 -0.16771 -0.066295 80 168 171
0.132599 -0.166883 -0.0669895 73 130 135
0.132386 -0.165779 -0.067371 66 77 81
0.117883 -0.169013 -0.0785471 33 93 97
0.116886 -0.168493 -0.0794551 37 92 96
0.116476 -0.167588 -0.0799591 41 101 105
0.115872 -0.166814 -0.0805958 73 137 139
0.115461 -0.16591 -0.0810994 101 180 177
0.115051 -0.165006 -0.081603 89 149 151
0.114449 -0.164235 -0.0822373 73 63 66
0.114039 -0.163332 -0.0827405 69 63 60
0.137297 -0.170839 -0.0608567 71 66 60
0.135698 -0.170545 -0.0622196 75 77 71
0.135028 -0.16971 -0.062923 77 103 99
0.133679 -0.169288 -0.064106 67 122 122
0.132565 -0.168733 -0.0651207 69 137 140
0.131681 -0.168045 -0.065972 82 161 160
0.131023 -0.167221 -0.0666638 74 139 137
0.130587 -0.166261 -0.0671989 53 96 95
0.116654 -0.169194 -0.0780585 32 91 94
0.11605 -0.168418 -0.078697 31 91 94
0.11564 -0.167515 -0.0792005 36 93 101
0.115229 -0.166611 -0.0797041 59 119 126
0.114627 -0.165838 -0.0803403 93 163 162
0.114217 -0.164935 -0.0808434 100 159 149
0.113807 -0.164032 -0.0813466 79 71 73
0.113397 -0.163129 -0.0818497 67 62 58
0.139608 -0.171353 -0.0572801 69 63 58
0.138451 -0.170779 -0.058339 73 62 63
0.137068 -0.170347 -0.0595581 73 66 73
0.135928 -0.169781 -0.0606012 73 82 88
0.134339 -0.169493 -0.0619641 68 104 104
0.132992 -0.169072 -0.0631513 56 113 114
0.131435 -0.168791 -0.0644869 53 115 117
0.130114 -0.168376 -0.0656516 56 119 123
0.128587 -0.168101 -0.0669608 50 108 114
0.128154 -0.167149 -0.0674913 41 95 98
0.116228 -0.170023 -0.0767982 34 93 96
0.115818 -0.169119 -0.0773016 35 93 95
0.115408 -0.168215 -0.0778051 33 92 93
0.114805 -0.167441 -0.0784433 33 93 96
0.114396 -0.166538 -0.0789463 50 110 113
0.113986 -0.165635 -0.0794494 73 143 144
0.113576 -0.164732 -0.0799525 86 141 136
0.113166 -0.163829 -0.0804556 72 69 75
0.112756 -0.162926 -0.0809588 69 64 59
0.141513 -0.170881 -0.0541859 65 69 67
0.140338 -0.170303 -0.055266 68 80 85
0.138222 -0.170284 -0.0570258 88 109 103
0.137071 -0.169715 -0.0580845 94 129 119
0.135927 -0.169149 -0.059136 82 133 128
0.134562 -0.168725 -0.0603463 63 120 119
0.132305 -0.168856 -0.0621965 49 103 106
0.130309 -0.168848 -0.0638557 44 99 104
0.128996 -0.168434 -0.0650207 41 99 105
0.127263 -0.168295 -0.0664849 36 97 102
0.126832 -0.167345 -0.0670137 36 95 98
0.116578 -0.170344 -0.0749881 34 94 98
0.115586 -0.16982 -0.0759061 35 95 96
0.114984 -0.169044 -0.0765461 33 93 94
0.114574 -0.168141 -0.0770491 30 90 92
0.113973 -0.167367 -0.0776874 32 89 95
0.113563 -0.166465 -0.07819 45 103 106
0.113154 -0.165563 -0.0786925 57 125 126
0.112934 -0.164529 -0.0790614 74 124 117
0.112524 -0.163626 -0.0795646 69 69 69
0.1415 -0.171517 -0.052467 69 68 66
0.140805 -0.170658 -0.0532004 72 91 97
0.140111 -0.169801 -0.0539323 84 139 142
0.138704 -0.169368 -0.0551863 83 159 157
0.137074 -0.169078 -0.0566008 69 144 149
0.135927 -0.168512 -0.0576609 57 122 133
0.134787 -0.16795 -0.0587139 49 107 114
0.132067 -0.168364 -0.0609148 44 99 103
0.129627 -0.168633 -0.062908 41 97 100
0.128317 -0.16822 -0.0640771 36 96 98
0.126374 -0.168217 -0.0657026 31 96 98
0.125943 -0.167269 -0.0662308 29 95 97
0.115934 -0.170141 -0.0740931 34 94 96
0.114752 -0.169744 -0.0751518 34 93 95
0.114342 -0.168841 -0.0756548 31 90 93
0.113741 -0.168067 -0.0762945 31 90 90
0.113332 -0.167165 -0.0767971 31 89 93
0.112922 -0.166263 -0.0772996 39 95 99
0.112512 -0.16536 -0.0778022 47 106 110
0.112103 -0.164458 -0.0783048 64 108 103
0.141244 -0.172292 -0.0509244 74 68 64
0.140791 -0.171294 -0.0514803 72 84 91
0.140096 -0.170435 -0.0522149 83 140 143
0.139404 -0.169579 -0.0529479 79 165 166
0.138474 -0.168865 -0.0538553 62 131 135
0.137077 -0.168437 -0.0551069 48 101 105
0.135926 -0.167871 -0.0561756 45 95 96
0.134551 -0.16745 -0.0574071 45 98 99
0.132054 -0.167732 -0.0594616 42 98 101
0.129826 -0.16787 -0.0613135 38 96 99
0.127638 -0.168006 -0.0631333 32 94 98
0.1257 -0.168005 -0.064766 29 94 96
0.125269 -0.167056 -0.0652942 29 94 96
0.115289 -0.169937 -0.0731979 33 94 94
0.11411 -0.169541 -0.0742604 33 91 94
0.11351 -0.168766 -0.0749015 30 88 92
0.1131 -0.167864 -0.075404 29 88 89
0.11269 -0.166962 -0.0759065 28 85 89
0.112281 -0.16606 -0.0764091 32 86 92
0.111871 -0.165158 -0.0769117 45 92 96
0.11165 -0.164123 -0.0772788 61 84 87
0.140746 -0.173204 -0.0495632 72 68 64
0.140293 -0.172207 -0.0501185 69 76 78
0.139601 -0.171348 -0.0508537 78 124 119
0.139148 -0.170352 -0.0514084 86 172 166
0.138696 -0.169356 -0.0519632 75 140 150
0.137768 -0.168643 -0.0528729 66 93 101
0.136609 -0.168074 -0.0539539 58 76 77
0.135458 -0.167509 -0.0550277 50 87 85
0.134083 -0.167089 -0.0562658 42 97 97
0.131363 -0.167514 -0.058501 37 96 99
0.129141 -0.167654 -0.0603613 35 95 98
0.126959 -0.167792 -0.0621894 30 95 97
0.125026 -0.167792 -0.0638292 29 94 95
0.124595 -0.166844 -0.0643574 32 93 94
0.122694 -0.166851 -0.0659688 36 93 94
0.117203 -0.169232 -0.070219 34 92 93
0.114838 -0.169606 -0.0721611 30 90 92
0.113659 -0.169211 -0.0732289 30 87 92
0.113058 -0.168436 -0.0738717 31 86 89
0.112459 -0.167662 -0.0745133 29 82 86
0.112049 -0.166759 -0.0750158 27 78 83
0.111828 -0.165726 -0.0753809 30 80 82
0.111418 -0.164823 -0.0758841 55 82 79
0.111007 -0.163919 -0.0763872 70 69 64
0.139797 -0.173118 -0.0487595 70 74 68
0.139106 -0.172259 -0.0494954 73 99 98
0.138178 -0.17154 -0.0504096 82 151 145
0.137019 -0.170962 -0.0514975 83 175 168
0.13775 -0.169274 -0.0511578 82 110 113
0.136355 -0.168843 -0.052423 75 73 73
0.135204 -0.168276 -0.0535019 62 77 73
0.134756 -0.167288 -0.0540518 48 91 91
0.133385 -0.166869 -0.0552943 35 97 100
0.130672 -0.167296 -0.0575402 32 95 97
0.128237 -0.167576 -0.0595732 33 94 95
0.12585 -0.167851 -0.0615667 30 94 95
0.123929 -0.16785 -0.0632076 29 93 95
0.123079 -0.167176 -0.0640477 32 94 95
0.120787 -0.167449 -0.0659604 32 92 93
0.116354 -0.169156 -0.0694592 31 90 91
0.114385 -0.169274 -0.071122 28 88 90
0.113207 -0.16888 -0.0721952 28 86 87
0.112606 -0.168104 -0.0728398 25 83 82
0.112006 -0.16733 -0.073483 23 78 77
0.111596 -0.166426 -0.0739861 27 77 77
0.111186 -0.165523 -0.0744892 48 76 75
0.110775 -0.16462 -0.0749923 67 66 67
0.139542 -0.173891 -0.0472198 74 65 61
0.138851 -0.173032 -0.0479575 76 85 79
0.137923 -0.172311 -0.048875 76 119 120
0.13653 -0.171868 -0.0501475 79 162 160
0.135615 -0.171154 -0.0510541 76 167 165
0.135399 -0.17003 -0.051426 82 94 97
0.134951 -0.169042 -0.0519759 72 70 72
0.134271 -0.168196 -0.0527018 55 85 88
0.133362 -0.167492 -0.0536008 40 95 98
0.132001 -0.167073 -0.0548411 32 96 99
0.128649 -0.167911 -0.0575867 29 96 96
0.126034 -0.16832 -0.0597688 28 95 94
0.123686 -0.168585 -0.0617454 28 93 94
0.122419 -0.168177 -0.0629033 29 92 95
0.120547 -0.168174 -0.0645152 30 92 95
0.116906 -0.16935 -0.0674526 29 91 92
0.115703 -0.168951 -0.0685543 29 89 90
0.114123 -0.168813 -0.0699363 29 87 88
0.112944 -0.16842 -0.0710166 27 82 83
0.112152 -0.167772 -0.0718055 23 77 77
0.111552 -0.166997 -0.0724504 25 77 75
0.111142 -0.166093 -0.072954 43 77 75
0.110731 -0.165188 -0.0734577 62 71 68
0.140249 -0.174124 -0.0449344 68 66 60
0.139073 -0.173533 -0.0460495 68 68 65
0.138143 -0.17281 -0.0469734 82 103 92
0.136277 -0.172635 -0.0486197 74 126 130
0.135361 -0.17192 -0.0495297 75 165 164
0.134219 -0.171345 -0.0506133 71 164 164
0.134003 -0.170224 -0.0509836 73 96 104
0.133556 -0.16924 -0.0515316 61 83 88
0.133109 -0.168256 -0.0520797 43 95 99
0.13175 -0.167834 -0.0533268 34 96 99
0.129731 -0.167833 -0.0550766 29 95 96
0.127087 -0.168245 -0.0573004 26 95 95
0.124501 -0.168648 -0.0594762 27 94 94
0.122177 -0.168909 -0.0614471 30 92 93
0.120716 -0.168635 -0.0627578 30 91 93
0.117066 -0.169805 -0.0657307 27 90 93
0.115859 -0.169403 -0.0668419 26 90 91
0.115052 -0.168745 -0.0676492 26 87 88
0.113668 -0.168479 -0.0688914 23 84 82
0.113062 -0.167698 -0.069544 21 79 78
0.112077 -0.167179 -0.0704827 25 76 76
0.144137 -0.17386 -0.0399364 72 63 56
0.142187 -0.173675 -0.0416688 69 65 60
0.140749 -0.173217 -0.0429973 65 67 65
0.138603 -0.173174 -0.0448764 63 74 82
0.137436 -0.172588 -0.0459892 78 114 106
0.135108 -0.172686 -0.0480051 66 124 128
0.133967 -0.172108 -0.0490939 75 162 161
0.132833 -0.171534 -0.0501754 75 164 161
0.132617 -0.170417 -0.0505439 63 111 113
0.132171 -0.169436 -0.0510901 49 96 98
0.131498 -0.168594 -0.0518122 36 97 100
0.129481 -0.168588 -0.0535737 29 95 97
0.127276 -0.168719 -0.0554772 26 93 94
0.124682 -0.169117 -0.0576774 26 92 93
0.12298 -0.168973 -0.0591859 28 92 92
0.120887 -0.169097 -0.0609929 29 91 92
0.118426 -0.169481 -0.0630793 28 90 91
0.116016 -0.169857 -0.0651223 28 88 90
0.114816 -0.169456 -0.0662337 26 87 87
0.114206 -0.168669 -0.0668924 22 84 83
0.113597 -0.167884 -0.0675498 19 79 79
0.112797 -0.167232 -0.0683523 25 76 77
0.144378 -0.174375 -0.0379654 70 63 56
0.143664 -0.173494 -0.0387316 70 68 64
0.142455 -0.172895 -0.0398887 74 83 82
0.141747 -0.172019 -0.0406492 83 112 97
0.139576 -0.171986 -0.042562 74 116 114
0.13744 -0.171953 -0.0444446 68 116 112
0.134407 -0.172466 -0.0470295 54 115 120
0.132582 -0.172295 -0.0486608 63 138 140
0.131683 -0.171587 -0.0495626 58 133 141
0.131239 -0.170609 -0.050107 48 107 111
0.130345 -0.169906 -0.0510038 38 96 98
0.129232 -0.169343 -0.0520708 32 95 97
0.127029 -0.169467 -0.0539873 26 94 96
0.124437 -0.169857 -0.0562036 25 92 94
0.122737 -0.169709 -0.0577216 27 91 93
0.121265 -0.169429 -0.0590592 29 90 91
0.119198 -0.169548 -0.0608577 29 89 90
0.116966 -0.169795 -0.0627805 28 88 89
0.11497 -0.169909 -0.0645162 26 87 88
0.114165 -0.16925 -0.0653283 23 85 84
0.113555 -0.168464 -0.0659879 20 81 79
0.113139 -0.167548 -0.0664977 25 77 80
0.144367 -0.175031 -0.0361866 67 64 55
0.143652 -0.174148 -0.0369557 67 74 71
0.142939 -0.173267 -0.037723 72 107 104
0.142228 -0.172388 -0.0384886 77 133 138
0.141766 -0.17137 -0.0390554 77 146 136
0.141303 -0.170352 -0.0396223 69 127 131
0.135805 -0.17101 -0.0443876 43 105 107
0.131432 -0.172346 -0.0480512 44 109 111
0.130089 -0.171909 -0.0493077 39 103 110
0.129647 -0.170935 -0.0498497 34 96 100
0.128317 -0.170506 -0.0510928 33 94 95
0.126999 -0.17008 -0.0523251 31 94 94
0.124619 -0.170331 -0.0543935 27 93 94
0.122703 -0.170311 -0.056092 25 91 94
0.121023 -0.17016 -0.0576026 28 89 93
0.119773 -0.169748 -0.0587732 28 89 91
0.117927 -0.169733 -0.0604088 26 88 89
0.115714 -0.169977 -0.0623298 26 88 88
0.114317 -0.169703 -0.0636087 25 85 84
0.113706 -0.168915 -0.0642715 22 81 79
0.11329 -0.167997 -0.0647823 26 81 79
0.113453 -0.166684 -0.0648409 45 79 84
0.143854 -0.175961 -0.0348097 69 65 55
0.143391 -0.174941 -0.0353777 67 77 72
0.142678 -0.174059 -0.0361469 70 108 106
0.142215 -0.17304 -0.0367143 76 153 151
0.141504 -0.172161 -0.0374811 64 146 155
0.141042 -0.171143 -0.0380479 55 115 117
0.140579 -0.170125 -0.0386148 56 98 107
0.130737 -0.172127 -0.047084 30 94 95
0.128509 -0.172228 -0.0490549 29 92 94
0.128068 -0.171258 -0.0495945 29 93 94
0.126752 -0.170829 -0.0508333 30 92 93
0.125016 -0.170672 -0.0524044 29 91 93
0.12267 -0.170915 -0.0544588 27 91 92
0.120988 -0.17076 -0.0559814 26 90 92
0.119532 -0.170476 -0.0573226 28 89 92
0.118495 -0.169933 -0.0583288 28 89 90
0.117265 -0.169524 -0.0594877 26 88 89
0.115058 -0.16977 -0.0614174 24 85 85
0.114443 -0.168978 -0.0620859 23 79 80
0.113247 -0.168579 -0.0632123 26 76 77
0.113217 -0.167397 -0.0634189 40 75 76
0.143342 -0.176889 -0.0334359 68 60 51
0.142879 -0.17587 -0.0340032 68 68 63
0.142416 -0.174851 -0.0345706 70 99 98
0.141953 -0.173832 -0.035138 77 148 145
0.141243 -0.172952 -0.0359065 71 155 158
0.14078 -0.171934 -0.0364733 56 102 112
0.140318 -0.170916 -0.0370402 56 79 75
0.139855 -0.169898 -0.0376071 55 88 84
0.127819 -0.172011 -0.048096 25 89 91
0.125852 -0.171979 -0.0498666 28 91 92
0.124984 -0.171284 -0.0507492 29 91 91
0.123058 -0.171257 -0.0524826 28 91 93
0.120745 -0.171493 -0.0545229 25 91 92
0.1197 -0.170943 -0.0555435 26 90 92
0.118661 -0.170397 -0.0565575 27 89 92
0.11783 -0.169723 -0.0574037 26 87 89
0.117203 -0.168919 -0.0580856 25 83 85
0.115781 -0.168647 -0.0594031 22 80 80
0.114766 -0.168114 -0.0603934 23 77 78
0.116329 -0.165843 -0.0593282 39 77 77
0.142618 -0.176663 -0.0324268 64 63 58
0.141906 -0.17578 -0.0331984 66 81 83
0.141197 -0.174899 -0.0339683 75 129 128
0.140735 -0.173882 -0.0345344 79 165 162
0.140273 -0.172865 -0.0351005 65 128 136
0.139811 -0.171848 -0.0356667 62 73 75
0.139349 -0.170831 -0.0362329 59 73 66
0.139131 -0.16967 -0.0365992 48 91 87
0.126256 -0.172328 -0.0478492 23 88 91
0.124095 -0.172425 -0.0497879 23 90 92
0.123448 -0.171601 -0.0504934 25 90 91
0.121541 -0.171572 -0.0522212 25 90 93
0.119458 -0.171673 -0.0540895 25 91 93
0.11842 -0.171125 -0.0551082 28 88 92
0.117791 -0.170318 -0.0557939 29 87 90
0.117366 -0.169381 -0.0563155 26 84 86
0.11694 -0.168444 -0.056837 23 79 79
0.116514 -0.167507 -0.0573586 25 76 76
0.117298 -0.165755 -0.0569059 37 76 78
0.119956 -0.162711 -0.0549481 57 74 74
0.142356 -0.177455 -0.0308502 67 61 52
0.141645 -0.176571 -0.0316236 66 73 69
0.140936 -0.175689 -0.0323953 72 103 101
0.140474 -0.174672 -0.0329613 79 149 146
0.139767 -0.173794 -0.0337307 78 160 163
0.139061 -0.172917 -0.0344982 61 103 123
0.1386 -0.171902 -0.0350631 63 66 70
0.138139 -0.170887 -0.035628 53 78 75
0.124063 -0.173037 -0.0481331 21 86 90
0.122779 -0.172605 -0.0493635 20 90 91
0.121925 -0.171915 -0.0502396 24 89 91
0.119832 -0.172014 -0.0521308 24 89 92
0.118179 -0.171853 -0.0536587 26 88 91
0.117349 -0.171175 -0.0545109 28 86 90
0.116924 -0.170239 -0.0550318 27 84 87
0.116699 -0.169171 -0.055389 24 80 82
0.116474 -0.168101 -0.0557469 24 77 78
0.116249 -0.167028 -0.0561057 37 76 76
0.118259 -0.164438 -0.0546467 54 74 72
0.119691 -0.16221 -0.0536612 66 70 64
0.142842 -0.177845 -0.0286447 70 57 45
0.141631 -0.177228 -0.0298407 64 62 59
0.140921 -0.176344 -0.0306153 72 87 82
0.140213 -0.175463 -0.0313881 83 125 116
0.139262 -0.17472 -0.0323638 84 155 151
0.138315 -0.173981 -0.033335 80 156 158
0.137373 -0.173246 -0.0343018 65 112 126
0.136914 -0.172235 -0.0348641 61 95 103
0.137417 -0.170661 -0.0346233 44 91 97
0.125321 -0.172862 -0.0454018 27 89 89
0.122534 -0.173346 -0.0478888 22 86 88
0.121262 -0.172915 -0.0491149 21 88 88
0.120623 -0.172096 -0.0498159 26 88 90
0.118956 -0.171933 -0.0513667 29 89 91
0.117108 -0.171902 -0.0530643 28 86 91
0.116282 -0.171226 -0.053916 26 83 88
0.115858 -0.170292 -0.0544358 23 80 83
0.116033 -0.168961 -0.0544623 26 76 80
0.116007 -0.167756 -0.0546543 48 85 83
0.1174 -0.16559 -0.0536816 66 93 86
0.119027 -0.163239 -0.0525191 68 82 79
0.119426 -0.161707 -0.0523686 69 67 64
0.119407 -0.160453 -0.0525615 73 65 56
0.14485 -0.177425 -0.0251329 68 60 49
0.143873 -0.176666 -0.0261391 65 61 54
0.140906 -0.177001 -0.028831 67 72 72
0.140443 -0.175982 -0.0293983 73 102 100
0.139489 -0.175236 -0.0303808 79 133 128
0.138055 -0.174768 -0.0317688 81 154 152
0.136395 -0.174441 -0.033346 78 159 160
0.135226 -0.173845 -0.034507 70 142 140
0.13477 -0.172841 -0.0350655 58 130 127
0.134314 -0.171837 -0.035624 36 97 109
0.122711 -0.173827 -0.0460597 27 89 93
0.121436 -0.173393 -0.0472964 24 87 89
0.120379 -0.172832 -0.048349 23 89 88
0.119534 -0.172145 -0.0492226 28 88 90
0.118081 -0.171852 -0.0506041 34 89 91
0.116443 -0.171692 -0.0521384 30 85 89
0.115817 -0.170886 -0.0528259 24 80 84
0.115393 -0.169951 -0.0533463 24 77 78
0.115566 -0.168618 -0.0533694 28 80 81
0.116142 -0.167006 -0.0530582 55 101 98
0.117542 -0.164823 -0.0520658 78 122 117
0.119178 -0.162454 -0.0508806 80 116 112
0.119159 -0.161202 -0.0510702 77 87 87
0.11914 -0.159944 -0.0512606 74 66 66
0.119331 -0.158532 -0.0512778 73 64 57
0.145608 -0.177684 -0.0226554 66 62 59
0.14488 -0.176784 -0.0234529 66 66 68
0.144409 -0.175746 -0.0240302 65 85 91
0.142923 -0.175267 -0.0254756 72 108 107
0.139718 -0.175754 -0.0283885 68 115 113
0.139255 -0.174735 -0.0289559 68 125 126
0.136136 -0.175223 -0.0317885 75 149 149
0.134732 -0.17476 -0.033156 67 154 159
0.133807 -0.174029 -0.0341133 46 123 133
0.13312 -0.173166 -0.0348684 36 101 108
0.132202 -0.172442 -0.0358187 32 97 99
0.13291 -0.17075 -0.0353875 31 96 100
0.123315 -0.174051 -0.043862 33 98 97
0.121821 -0.173744 -0.0452919 27 90 94
0.12055 -0.17331 -0.0465305 25 87 90
0.119291 -0.17288 -0.0477586 26 89 89
0.118246 -0.172324 -0.0488041 30 88 89
0.117411 -0.171641 -0.0496721 31 86 88
0.116177 -0.171222 -0.0508752 26 81 83
0.115351 -0.170546 -0.0517333 24 77 78
0.115324 -0.169346 -0.0519193 37 83 80
0.115498 -0.168007 -0.0519379 37 91 89
0.116481 -0.166113 -0.0512781 39 98 102
0.117274 -0.16433 -0.0507805 55 112 118
0.118493 -0.162238 -0.0499284 74 129 130
0.118891 -0.160694 -0.0497659 82 126 126
0.119081 -0.159285 -0.0497781 81 102 98
0.119061 -0.158016 -0.0499668 77 77 70
0.119253 -0.156589 -0.0499799 71 66 61
0.119234 -0.155307 -0.0501701 68 65 55
0.145856 -0.17822 -0.0206024 59 57 53
0.145126 -0.177316 -0.0214042 59 76 70
0.144398 -0.176415 -0.0222042 76 115 112
0.143926 -0.175376 -0.0227822 82 153 148
0.143454 -0.174337 -0.0233602 69 140 145
0.13542 -0.174999 -0.0307912 61 132 133
0.13355 -0.174806 -0.0325663 52 129 136
0.132399 -0.174213 -0.0337222 33 100 112
0.131484 -0.173488 -0.0346729 27 95 97
0.130346 -0.172902 -0.0358152 30 94 97
0.129895 -0.171911 -0.0363668 33 94 97
0.126756 -0.172554 -0.0392199 30 96 97
0.122419 -0.173966 -0.043093 33 96 97
0.120932 -0.17366 -0.0445255 29 90 93
0.119667 -0.173227 -0.0457662 26 89 90
0.118208 -0.172928 -0.0471706 29 88 90
0.117575 -0.172113 -0.0478699 28 87 87
0.116741 -0.17143 -0.04874 23 81 82
0.11591 -0.170751 -0.0496063 22 77 77
0.115083 -0.170074 -0.0504691 27 81 80
0.115056 -0.16887 -0.0506527 50 99 95
0.115631 -0.167256 -0.0503264 59 110 109
0.116212 -0.165625 -0.0499965 50 104 109
0.116595 -0.164116 -0.0498363 40 97 107
0.1176 -0.162165 -0.0491513 49 107 114
0.118202 -0.160477 -0.0488093 66 128 128
0.11839 -0.159067 -0.0488184 81 135 129
0.11858 -0.157647 -0.0488276 85 117 111
0.118982 -0.156066 -0.0486586 75 90 86
0.118962 -0.154779 -0.0488463 67 69 67
0.118516 -0.153799 -0.049392 68 63 57
0.145589 -0.179029 -0.0189914 66 59 43
0.145116 -0.177988 -0.0195706 61 74 68
0.144387 -0.177085 -0.0203737 76 133 119
0.143659 -0.176184 -0.0211749 78 158 166
0.143187 -0.175145 -0.0217529 60 131 143
0.142715 -0.174106 -0.0223309 53 106 105
0.132374 -0.174853 -0.0319791 33 96 98
0.131229 -0.174261 -0.0331344 26 95 96
0.129636 -0.173942 -0.0346756 25 93 96
0.12851 -0.173357 -0.0358116 28 93 95
0.126726 -0.17318 -0.0375158 31 95 95
0.123882 -0.173667 -0.0401335 29 94 97
0.121105 -0.174142 -0.0426886 29 94 97
0.120045 -0.173577 -0.0437607 30 91 93
0.118785 -0.173145 -0.0450033 27 90 91
0.117535 -0.172716 -0.0462353 27 87 88
0.117106 -0.171771 -0.0467612 24 82 82
0.116272 -0.171089 -0.0476345 23 77 77
0.115642 -0.170277 -0.0483319 24 76 76
0.114814 -0.1696 -0.0491992 25 82 80
0.115187 -0.168124 -0.0490373 40 95 94
0.115159 -0.166909 -0.0492191 61 110 111
0.115536 -0.165412 -0.0490563 69 122 123
0.115915 -0.163902 -0.048892 58 117 122
0.116709 -0.162093 -0.0483757 45 105 111
0.117306 -0.160406 -0.0480299 43 107 111
0.117282 -0.159145 -0.0482139 58 122 125
0.117677 -0.157578 -0.048043 76 135 134
0.118286 -0.155846 -0.0476913 83 130 128
0.118264 -0.154559 -0.0478769 76 102 103
0.11803 -0.153422 -0.0482431 68 74 72
0.117584 -0.15244 -0.0487895 68 62 61
0.117137 -0.151458 -0.0493359 67 64 58
0.145065 -0.179973 -0.0176073 66 56 46
0.144592 -0.178933 -0.0181859 66 64 63
0.14412 -0.177894 -0.0187644 75 101 109
0.143647 -0.176854 -0.019343 85 166 165
0.14292 -0.175953 -0.0201454 63 132 141
0.142448 -0.174914 -0.0207235 60 83 86
0.141976 -0.173875 -0.0213015 55 85 77
0.131664 -0.17463 -0.0309906 25 95 97
0.129382 -0.17471 -0.0331456 24 95 97
0.128257 -0.174123 -0.0342866 24 93 97
0.126474 -0.173941 -0.036001 27 93 95
0.124064 -0.174156 -0.0382605 28 92 93
0.121702 -0.174367 -0.0404757 28 93 94
0.120008 -0.174188 -0.0421055 27 91 95
0.118953 -0.173623 -0.0431771 29 89 91
0.118109 -0.172932 -0.0440638 25 87 89
0.117066 -0.172375 -0.0451234 24 81 84
0.116433 -0.171559 -0.0458257 24 78 77
0.115802 -0.170746 -0.0465265 29 78 76
0.115172 -0.169934 -0.0472259 22 76 74
0.114944 -0.168857 -0.0475773 16 72 71
0.114715 -0.167778 -0.0479296 22 74 73
0.114686 -0.16656 -0.0481093 36 87 88
0.114859 -0.165198 -0.0481158 56 109 111
0.115236 -0.163687 -0.0479475 68 128 128
0.116025 -0.161877 -0.047425 65 131 130
0.116205 -0.16048 -0.0474295 53 120 122
0.116386 -0.159075 -0.0474341 42 108 116
0.11636 -0.157809 -0.047617 51 114 123
0.11675 -0.156235 -0.0474434 71 134 137
0.117145 -0.154647 -0.0472682 82 137 137
0.11712 -0.153357 -0.047453 81 113 114
0.116885 -0.152219 -0.0478188 71 85 88
0.116438 -0.151237 -0.0483653 63 64 69
0.116412 -0.149935 -0.0485532 66 64 56
0.116175 -0.14879 -0.0489216 67 64 55
0.144069 -0.179876 -0.0168042 66 58 54
0.143597 -0.178838 -0.017382 70 86 85
0.143125 -0.177799 -0.0179599 84 158 144
0.142653 -0.17676 -0.0185378 77 165 162
0.142181 -0.175721 -0.0191158 68 89 93
0.141709 -0.174682 -0.0196938 65 65 66
0.141237 -0.173643 -0.0202718 54 82 78
0.140764 -0.172604 -0.02085 36 94 91
0.131185 -0.174273 -0.0297981 27 94 95
0.128453 -0.174623 -0.0323648 25 94 95
0.126222 -0.174701 -0.0344861 25 92 97
0.124248 -0.174647 -0.0363792 29 92 95
0.121455 -0.175113 -0.0389904 32 91 93
0.120179 -0.174671 -0.0402631 29 91 92
0.118914 -0.174233 -0.0415248 31 89 90
0.11807 -0.17354 -0.0424159 27 86 88
0.117434 -0.17272 -0.0431241 25 80 83
0.116595 -0.172032 -0.0440089 22 77 76
0.116165 -0.171085 -0.044536 29 78 74
0.115734 -0.170138 -0.045063 29 81 75
0.114901 -0.169457 -0.0459419 18 71 71
0.114472 -0.168512 -0.046468 16 66 67
0.114442 -0.167295 -0.0466445 17 70 68
0.114212 -0.166211 -0.0469969 21 73 73
0.114384 -0.164846 -0.0469999 30 82 84
0.114152 -0.163754 -0.0473543 47 104 105
0.114933 -0.161948 -0.0468291 66 129 128
0.115109 -0.160555 -0.0468316 71 140 140
0.115285 -0.159152 -0.0468342 61 130 136
0.115257 -0.157889 -0.0470155 47 114 124
0.115435 -0.15647 -0.0470188 47 114 121
0.11603 -0.154735 -0.0466622 62 127 133
0.116003 -0.153448 -0.0468452 79 138 141
0.115976 -0.152156 -0.047029 82 130 132
0.115739 -0.151016 -0.0473944 73 101 104
0.115711 -0.149714 -0.0475802 67 77 73
0.115473 -0.148568 -0.0479476 66 62 60
0.115025 -0.147582 -0.0484959 67 61 54
0.143803 -0.180684 -0.0151965 66 58 49
0.143331 -0.179646 -0.0157743 66 70 68
0.142858 -0.178607 -0.0163521 75 117 111
0.142386 -0.177568 -0.01693 82 171 166
0.141914 -0.176529 -0.017508 66 140 154
0.14119 -0.175629 -0.0183117 69 66 68
0.140718 -0.174591 -0.018889 61 65 64
0.139996 -0.173695 -0.0196902 47 86 86
0.139525 -0.172658 -0.020267 32 92 93
0.127079 -0.174802 -0.0319836 27 91 95
0.124215 -0.175272 -0.0346827 25 91 95
0.122482 -0.175084 -0.036372 26 91 93
0.119933 -0.175414 -0.038784 28 89 92
0.119083 -0.174715 -0.0396849 29 90 90
0.118031 -0.174149 -0.0407643 27 87 87
0.117394 -0.173327 -0.041475 23 81 81
0.116758 -0.172508 -0.0421842 22 76 76
0.116124 -0.171689 -0.0428919 23 76 73
0.115693 -0.170741 -0.0434195 34 78 71
0.115262 -0.169793 -0.0439472 23 70 70
0.114629 -0.168978 -0.0446524 16 68 67
0.114199 -0.16803 -0.0451795 20 66 66
0.113968 -0.166947 -0.0455304 18 71 68
0.113938 -0.165723 -0.0457055 16 72 69
0.113706 -0.164633 -0.0460581 18 74 72
0.113474 -0.16354 -0.0464115 26 80 80
0.113643 -0.162161 -0.0464127 40 97 99
0.114017 -0.160629 -0.0462361 58 121 125
0.113986 -0.159376 -0.0464151 71 143 145
0.114159 -0.157969 -0.0464164 69 144 146
0.114333 -0.156554 -0.0464177 55 126 132
0.114302 -0.155281 -0.0465987 47 114 124
0.114891 -0.153539 -0.0462399 53 120 131
0.115069 -0.152092 -0.0462407 71 139 142
0.11504 -0.150795 -0.0464234 83 145 143
0.11501 -0.149492 -0.0466071 82 122 120
0.114772 -0.148345 -0.0469734 70 89 91
0.114323 -0.14736 -0.0475217 62 63 69
0.114084 -0.146209 -0.0478895 65 61 54
0.113843 -0.145056 -0.0482582 70 59 49
0.143064 -0.180453 -0.0141664 68 59 55
0.142338 -0.179549 -0.0149739 73 85 86
0.141615 -0.178647 -0.0157795 77 139 135
0.141143 -0.17761 -0.016356 84 170 170
0.140672 -0.176574 -0.0169326 65 118 140
0.139951 -0.175676 -0.0177351 63 67 67
0.139481 -0.174641 -0.0183111 50 80 75
0.138514 -0.173886 -0.0193346 34 90 90
0.138787 -0.172427 -0.0192394 26 93 93
0.125714 -0.17498 -0.0316048 28 90 94
0.123306 -0.175185 -0.0339128 25 90 93
0.121369 -0.175128 -0.0357958 21 90 91
0.119253 -0.1752 -0.0378368 24 87 90
0.118198 -0.174631 -0.0389245 28 86 87
0.11715 -0.174065 -0.0400053 24 82 81
0.116718 -0.173115 -0.0405339 22 76 75
0.116083 -0.172295 -0.0412442 27 73 71
0.115449 -0.171477 -0.0419529 44 72 69
0.115018 -0.170529 -0.0424805 52 65 64
0.114587 -0.16958 -0.0430082 37 64 64
0.114155 -0.168631 -0.0435359 24 68 65
0.113924 -0.167547 -0.0438853 20 70 67
0.113693 -0.16646 -0.0442356 17 72 69
0.113261 -0.165509 -0.0447645 15 72 69
0.113229 -0.16428 -0.0449384 18 73 69
0.112996 -0.163186 -0.045291 19 74 72
0.112963 -0.161947 -0.0454667 22 78 78
0.112729 -0.160846 -0.045821 33 88 92
0.112897 -0.159452 -0.0458204 51 113 116
0.113065 -0.158049 -0.0458197 69 138 140
0.113235 -0.156637 -0.0458191 74 148 150
0.113202 -0.155367 -0.0459984 63 137 145
0.113169 -0.154091 -0.0461786 49 119 130
0.113546 -0.152498 -0.0459985 48 119 126
0.113926 -0.150892 -0.0458169 66 137 142
0.113894 -0.149591 -0.0459988 84 150 151
0.113862 -0.148286 -0.0461815 85 140 141
0.113622 -0.147138 -0.0465474 74 105 108
0.113381 -0.145987 -0.0469141 65 77 74
0.113139 -0.144833 -0.0472817 65 60 60
0.112898 -0.143677 -0.0476502 69 60 56
0.112863 -0.142349 -0.047838 67 59 56
0.142325 -0.180223 -0.0131361 71 68 64
0.141097 -0.179587 -0.0144049 80 104 96
0.140376 -0.178687 -0.0152093 78 145 142
0.139657 -0.177789 -0.0160119 80 165 166
0.13894 -0.176893 -0.0168126 59 105 129
0.138471 -0.175861 -0.0173866 55 75 74
0.138002 -0.174829 -0.0179606 34 87 90
0.137533 -0.173797 -0.0185346 28 91 93
0.125903 -0.175479 -0.029685 26 89 90
0.123488 -0.17568 -0.0320172 25 89 90
0.121758 -0.175489 -0.0337259 24 88 88
0.12005 -0.175301 -0.0354122 24 86 88
0.118365 -0.175115 -0.0370767 28 83 89
0.117519 -0.174418 -0.0379803 27 82 82
0.116473 -0.173853 -0.0390641 23 77 75
0.116041 -0.172902 -0.0395927 25 72 69
0.115609 -0.171952 -0.0401214 51 71 66
0.114975 -0.171133 -0.0408322 62 61 57
0.113448 -0.167198 -0.0427655 33 69 65
0.113016 -0.166247 -0.0432944 22 71 68
0.112983 -0.165019 -0.0434651 19 71 69
0.11275 -0.163926 -0.0438161 19 73 69
0.112516 -0.16283 -0.0441679 19 74 70
0.112282 -0.161732 -0.0445205 23 75 73
0.112047 -0.160631 -0.0448739 25 77 77
0.111812 -0.159528 -0.0452281 28 83 86
0.111977 -0.158128 -0.0452255 39 100 105
0.111941 -0.156869 -0.0454025 57 127 132
0.112107 -0.155452 -0.0454006 71 147 151
0.112072 -0.154179 -0.045579 69 148 151
0.112036 -0.152901 -0.0457583 58 133 139
0.112407 -0.151303 -0.0455765 51 120 132
0.112782 -0.14969 -0.0453931 59 128 140
0.112748 -0.148388 -0.045574 77 148 152
0.112713 -0.147079 -0.0457558 84 151 148
0.112471 -0.145929 -0.0461213 78 124 124
0.112229 -0.144777 -0.0464876 71 89 93
0.112193 -0.143454 -0.0466724 66 63 71
0.112157 -0.142125 -0.046858 66 61 59
0.111913 -0.140962 -0.0472273 67 62 57
0.141333 -0.180126 -0.0123384 69 77 68
0.140111 -0.179491 -0.0136086 75 114 102
0.138896 -0.178861 -0.0148698 77 146 143
0.137691 -0.178235 -0.0161223 75 160 164
0.13698 -0.177344 -0.0169183 55 110 128
0.136514 -0.176318 -0.0174889 44 86 90
0.135563 -0.175567 -0.0185047 29 88 94
0.135098 -0.174543 -0.0190741 27 89 93
0.123238 -0.176437 -0.0305099 23 89 90
0.121722 -0.176112 -0.0320335 23 89 91
0.120434 -0.175662 -0.0333476 24 87 90
0.119157 -0.175215 -0.0346504 25 85 89
0.117685 -0.174901 -0.0361302 26 81 84
0.116841 -0.174205 -0.0370358 21 76 77
0.115797 -0.17364 -0.0381227 25 73 71
0.115365 -0.17269 -0.0386514 46 70 64
0.114932 -0.171739 -0.0391801 64 64 58
0.112538 -0.165896 -0.0421726 40 69 65
0.112505 -0.164666 -0.0423411 27 71 69
0.112071 -0.163712 -0.0428718 21 74 70
0.111836 -0.162616 -0.0432226 21 74 72
0.111601 -0.161517 -0.0435742 31 75 73
0.111365 -0.160416 -0.0439265 27 76 73
0.111129 -0.159313 -0.0442797 16 76 75
0.111092 -0.15806 -0.0444541 18 79 82
0.110854 -0.15695 -0.0448091 29 91 95
0.111017 -0.155537 -0.0448052 49 116 118
0.110979 -0.154267 -0.044982 68 142 144
0.110941 -0.152991 -0.0451595 75 154 156
0.110902 -0.15171 -0.0453379 68 144 150
0.111269 -0.150107 -0.0451543 54 126 137
0.111639 -0.148489 -0.0449691 52 126 133
0.111601 -0.147183 -0.0451491 64 142 147
0.111564 -0.145872 -0.0453301 78 151 154
0.111321 -0.144721 -0.0456951 84 141 142
0.111077 -0.143567 -0.046061 77 105 111
0.111244 -0.142072 -0.0460616 66 78 75
0.111205 -0.140738 -0.0462461 64 63 62
0.110754 -0.139745 -0.0467985 70 63 55
0.110303 -0.138752 -0.0473509 68 62 51
0.139845 -0.180295 -0.0120076 62 78 73
0.138385 -0.179796 -0.013504 62 112 105
0.137183 -0.179167 -0.0147597 66 137 137
0.136473 -0.178276 -0.0155563 63 146 151
0.135524 -0.177521 -0.0165754 44 103 117
0.134818 -0.176634 -0.0173672 33 90 94
0.133876 -0.175886 -0.0183787 26 88 93
0.133413 -0.174867 -0.0189454 26 87 90
0.122987 -0.177194 -0.0290025 23 87 87
0.121686 -0.176737 -0.0303372 25 87 88
0.120397 -0.176283 -0.0316602 27 88 88
0.119119 -0.175833 -0.0329718 26 86 86
0.118266 -0.17513 -0.0338901 23 81 84
0.117005 -0.174688 -0.0351835 21 75 77
0.116162 -0.173991 -0.0360912 25 74 72
0.115322 -0.173298 -0.036995 47 69 66
0.114688 -0.172477 -0.0377098 60 58 56
0.111825 -0.164452 -0.0413966 48 66 64
0.11159 -0.163357 -0.0417457 32 71 68
0.111156 -0.162401 -0.0422771 22 72 72
0.11092 -0.161302 -0.0426277 23 74 72
0.110684 -0.160201 -0.042979 20 75 72
0.110446 -0.159098 -0.0433312 16 76 73
0.110408 -0.157844 -0.0435035 17 75 74
0.110169 -0.156734 -0.0438575 18 76 76
0.109931 -0.155621 -0.0442122 26 84 86
0.10989 -0.154354 -0.0443873 40 102 105
0.11005 -0.152928 -0.0443822 60 129 133
0.109809 -0.151804 -0.0447399 75 151 154
0.109969 -0.150362 -0.044736 74 155 157
0.109928 -0.14907 -0.0449141 61 139 144
0.110494 -0.147287 -0.044545 52 125 136
0.110455 -0.145979 -0.0447242 57 132 143
0.110414 -0.144665 -0.0449042 74 150 156
0.11017 -0.143512 -0.0452688 84 151 151
0.110334 -0.142018 -0.0452668 79 122 122
0.110293 -0.140685 -0.0454493 73 91 92
0.110047 -0.13952 -0.0458171 69 66 70
0.109595 -0.138527 -0.0463695 70 62 56
0.109143 -0.137534 -0.0469219 66 65 58
0.13812 -0.180596 -0.0119103 56 77 77
0.136675 -0.180097 -0.0134002 50 102 100
0.135967 -0.179206 -0.0141974 48 112 116
0.13502 -0.17845 -0.0152184 45 111 118
0.134316 -0.177563 -0.0160108 32 93 99
0.133376 -0.176813 -0.0170242 29 88 91
0.132204 -0.176202 -0.0182536 26 88 91
0.131041 -0.175595 -0.0194745 23 88 89
0.130581 -0.174584 -0.0200367 26 87 87
0.125359 -0.176396 -0.0250463 28 85 88
0.121437 -0.17749 -0.0288362 27 85 86
0.12036 -0.176905 -0.0299689 26 86 86
0.11908 -0.176452 -0.0312892 25 85 85
0.118019 -0.175875 -0.0324054 22 81 81
0.117376 -0.175044 -0.0331313 19 78 76
0.116324 -0.174474 -0.0342367 26 74 71
0.115483 -0.173778 -0.0351464 45 71 65
0.114847 -0.172955 -0.0358648 57 63 59
0.110476 -0.162187 -0.0413315 39 67 67
0.110239 -0.161088 -0.041681 25 73 71
0.110002 -0.159986 -0.0420314 20 76 73
0.109764 -0.158882 -0.0423825 18 76 74
0.109723 -0.157628 -0.0425528 19 74 72
0.109484 -0.156517 -0.0429057 18 73 72
0.109245 -0.155405 -0.0432594 16 74 74
0.109203 -0.154137 -0.0434325 20 79 79
0.108962 -0.153018 -0.043788 32 89 92
0.10892 -0.151741 -0.0439628 49 115 118
0.108678 -0.150615 -0.0443203 69 144 146
0.108834 -0.14917 -0.044315 79 156 159
0.10879 -0.147875 -0.0444922 70 148 153
0.10935 -0.146086 -0.0441208 54 130 141
0.109307 -0.144774 -0.0442991 50 128 138
0.109265 -0.143457 -0.0444782 63 142 151
0.109222 -0.142134 -0.0446582 80 151 156
0.109179 -0.140804 -0.044839 86 143 142
0.109135 -0.139469 -0.0450206 78 104 112
0.108887 -0.138303 -0.045388 71 77 75
0.108639 -0.137133 -0.0457562 67 64 65
0.10839 -0.135961 -0.0461253 70 64 52
0.136169 -0.181025 -0.0120436 55 77 76
0.135222 -0.180265 -0.0130696 43 93 92
0.134518 -0.179376 -0.0138644 33 92 96
0.133815 -0.178489 -0.0146575 29 88 94
0.132641 -0.177872 -0.0158963 25 88 90
0.131474 -0.177258 -0.0171267 26 86 89
0.130084 -0.176783 -0.0185673 24 86 88
0.128936 -0.176178 -0.0197789 22 86 87
0.126665 -0.176243 -0.0220472 23 85 86
0.121614 -0.177989 -0.0269329 28 84 87
0.120322 -0.177529 -0.0282738 29 85 84
0.119251 -0.176945 -0.0294059 26 83 82
0.118187 -0.176365 -0.0305306 23 80 81
0.117335 -0.175661 -0.0314542 21 77 76
0.116693 -0.17483 -0.0321812 24 74 71
0.115644 -0.174261 -0.0332897 44 68 65
0.115006 -0.173435 -0.0340115 65 61 58
0.109558 -0.160873 -0.0407342 49 67 62
0.109319 -0.159771 -0.0410835 33 71 68
0.109278 -0.15852 -0.0412507 23 74 72
0.109236 -0.157263 -0.0414187 19 75 72
0.108997 -0.156151 -0.0417708 17 74 71
0.108756 -0.155037 -0.0421237 15 74 72
0.108713 -0.153767 -0.0422945 16 74 72
0.108472 -0.152646 -0.0426492 18 76 75
0.10823 -0.151523 -0.0430047 25 83 84
0.107789 -0.150554 -0.0435435 38 99 104
0.107744 -0.149268 -0.0437183 58 127 133
0.107698 -0.147977 -0.0438938 74 152 154
0.107652 -0.14668 -0.0440702 73 157 157
0.108205 -0.144883 -0.0436965 59 139 146
0.10816 -0.143569 -0.0438739 51 124 138
0.108316 -0.14208 -0.0438672 56 131 144
0.108069 -0.140923 -0.0442312 76 151 156
0.108023 -0.139591 -0.0444111 85 151 151
0.107977 -0.138253 -0.0445918 82 124 124
0.107931 -0.136908 -0.0447734 76 91 93
0.107681 -0.135736 -0.0451414 69 66 69
0.107431 -0.134561 -0.0455103 68 64 61
0.10718 -0.133383 -0.0458801 68 63 61
0.134959 -0.181059 -0.0114885 55 76 73
0.134016 -0.180301 -0.0125134 38 90 89
0.133315 -0.179414 -0.013307 24 91 94
0.132144 -0.178794 -0.0145491 22 88 91
0.13098 -0.178178 -0.0157827 23 87 89
0.129594 -0.177698 -0.0172278 23 86 87
0.128449 -0.177091 -0.0184425 24 85 87
0.126409 -0.177017 -0.020507 23 84 85
0.123743 -0.177334 -0.0231659 22 86 86
0.120497 -0.178028 -0.0263732 25 84 86
0.119422 -0.177441 -0.027514 28 83 82
0.118355 -0.176858 -0.0286474 24 79 79
0.117502 -0.176151 -0.0295772 20 77 76
0.116858 -0.175318 -0.0303077 25 74 72
0.116216 -0.174486 -0.0310367 41 68 67
0.11537 -0.173787 -0.0319573 60 62 57
0.108637 -0.159556 -0.0401355 57 63 57
0.108594 -0.158304 -0.0403007 40 69 65
0.108748 -0.156898 -0.040282 25 72 69
0.108706 -0.155634 -0.0404485 19 74 71
0.108464 -0.154516 -0.0408008 15 76 71
0.108222 -0.153396 -0.0411538 17 74 71
0.10798 -0.152273 -0.0415077 19 74 72
0.107539 -0.151304 -0.0420464 17 75 74
0.107099 -0.150335 -0.0425852 21 77 81
0.106855 -0.149208 -0.0429411 31 87 94
0.106807 -0.147918 -0.0431148 47 112 117
0.106759 -0.146622 -0.0432893 65 142 145
0.106711 -0.14532 -0.0434646 77 156 160
0.10706 -0.143681 -0.0432721 70 148 155
0.107013 -0.142364 -0.0434486 54 127 142
0.107165 -0.14087 -0.0434406 52 125 136
0.106916 -0.139712 -0.0438041 63 141 150
0.106667 -0.138551 -0.0441685 83 152 156
0.106819 -0.137036 -0.0441629 86 142 141
0.10677 -0.135689 -0.0443436 75 100 113
0.10672 -0.134335 -0.0445252 69 80 79
0.106469 -0.133157 -0.0448938 68 63 69
0.106216 -0.131976 -0.0452633 70 66 56
0.133754 -0.181093 -0.0109357 55 75 69
0.13258 -0.180466 -0.0121874 36 88 86
0.131883 -0.179582 -0.0129787 24 91 94
0.130488 -0.179095 -0.0144416 23 87 92
0.129335 -0.178481 -0.0156699 23 87 88
0.128191 -0.177871 -0.0168899 22 86 87
0.126828 -0.177397 -0.0183186 24 85 86
0.124589 -0.177451 -0.0205873 24 84 85
0.121958 -0.177761 -0.0232306 24 86 85
0.119595 -0.177938 -0.0256138 25 83 84
0.118524 -0.177353 -0.0267558 26 79 80
0.117669 -0.176643 -0.0276917 23 75 76
0.116817 -0.175936 -0.0286236 25 73 72
0.116174 -0.175103 -0.0293552 41 68 67
0.115532 -0.174272 -0.0300852 59 61 54
0.108107 -0.157941 -0.0391651 59 64 58
0.108457 -0.156382 -0.0389563 47 67 62
0.108215 -0.155265 -0.0393069 32 71 66
0.108171 -0.153993 -0.0394718 21 75 69
0.10773 -0.153024 -0.0400105 18 76 71
0.10729 -0.152055 -0.0405492 19 76 73
0.106849 -0.151086 -0.0410879 19 74 73
0.106605 -0.14996 -0.0414422 18 73 72
0.106164 -0.148989 -0.0419816 20 74 75
0.105918 -0.147859 -0.0423373 25 81 85
0.105868 -0.146564 -0.0425099 37 98 104
0.105622 -0.145428 -0.0428675 56 126 130
0.105768 -0.143958 -0.0428576 75 152 155
0.106113 -0.14231 -0.0426622 73 154 158
0.106063 -0.140988 -0.0428376 59 139 146
0.106013 -0.139661 -0.0430138 50 122 138
0.105763 -0.1385 -0.0433769 56 129 140
0.105513 -0.137338 -0.0437409 73 152 156
0.10566 -0.135819 -0.0437339 83 151 153
0.105608 -0.134469 -0.0439137 81 125 125
0.105556 -0.133112 -0.0440943 76 91 99
0.105504 -0.13175 -0.0442758 68 69 70
0.10525 -0.130566 -0.0446451 73 65 52
0.105197 -0.129193 -0.0448285 70 66 50
0.132319 -0.181256 -0.010615 60 72 62
0.130687 -0.18089 -0.0123167 42 86 83
0.129996 -0.18001 -0.0131034 30 90 93
0.129076 -0.179263 -0.0141118 25 87 91
0.127933 -0.17865 -0.0153371 22 86 88
0.126571 -0.178173 -0.0167728 21 85 87
0.125222 -0.177699 -0.0181956 23 85 86
0.123007 -0.17775 -0.0204553 24 84 85
0.121046 -0.177672 -0.0224677 25 84 83
0.118904 -0.177722 -0.0246527 22 80 80
0.117836 -0.177137 -0.0257979 22 75 75
0.116982 -0.176427 -0.0267359 25 73 71
0.116338 -0.175592 -0.0274711 42 68 68
0.115694 -0.174759 -0.0282048 59 62 56
0.107678 -0.153621 -0.0383252 41 69 64
0.107237 -0.152651 -0.0388645 25 72 69
0.106796 -0.151681 -0.0394038 19 75 72
0.106355 -0.150711 -0.0399431 17 75 73
0.105914 -0.149741 -0.0404825 16 74 72
0.105668 -0.148611 -0.0408366 17 73 72
0.105226 -0.14764 -0.0413766 18 73 74
0.105175 -0.146345 -0.0415471 21 76 79
0.104732 -0.145371 -0.0420885 31 87 90
0.104679 -0.144068 -0.042261 47 110 114
0.104823 -0.142592 -0.042249 64 140 145
0.104966 -0.141106 -0.0422371 75 157 161
0.104914 -0.139781 -0.0424116 69 147 155
0.104861 -0.13845 -0.0425869 53 127 140
0.10461 -0.137289 -0.0429496 51 127 134
0.104556 -0.135948 -0.0431268 62 141 149
0.104501 -0.134601 -0.0433048 83 153 158
0.104447 -0.133248 -0.0434837 86 144 142
0.104592 -0.131707 -0.043476 76 103 113
0.104537 -0.130339 -0.0436563 73 81 73
0.104482 -0.128966 -0.0438375 67 65 59
0.104427 -0.127586 -0.0440196 67 65 54
0.129733 -0.182059 -0.0114346 60 67 59
0.129045 -0.181181 -0.0122195 43 81 81
0.128359 -0.180305 -0.0130027 30 88 90
0.127447 -0.17956 -0.0140068 25 86 89
0.126539 -0.178819 -0.0150064 24 84 88
0.124966 -0.178472 -0.0166566 23 84 87
0.12363 -0.177999 -0.0180736 23 85 86
0.122088 -0.17766 -0.0196902 23 84 83
0.120349 -0.177454 -0.0214979 22 82 80
0.118424 -0.177378 -0.0234868 18 77 75
0.117356 -0.176793 -0.0246371 24 73 70
0.116709 -0.175955 -0.025377 39 70 66
0.115857 -0.175248 -0.026316 60 64 57
0.106743 -0.152278 -0.0377158 45 66 63
0.106301 -0.151306 -0.0382557 33 70 67
0.105859 -0.150335 -0.0387957 24 75 70
0.105418 -0.149364 -0.0393357 20 76 72
0.104976 -0.148392 -0.0398757 18 75 73
0.104729 -0.14726 -0.0402295 17 74 75
0.104481 -0.146125 -0.0405842 16 74 75
0.104038 -0.145151 -0.0411255 17 76 76
0.103984 -0.143847 -0.0412959 25 81 85
0.103929 -0.142538 -0.0414671 39 95 100
0.103875 -0.141222 -0.0416391 55 124 128
0.104015 -0.13973 -0.0416251 73 152 156
0.103764 -0.138573 -0.0419855 75 158 160
0.103708 -0.13724 -0.0421599 62 142 146
0.103456 -0.136077 -0.0425222 49 121 136
0.103399 -0.134733 -0.0426985 53 130 139
0.103342 -0.133384 -0.0428756 71 155 158
0.103681 -0.131663 -0.0426778 82 153 155
0.103624 -0.130297 -0.0428561 79 127 123
0.103767 -0.128738 -0.0428463 70 90 96
0.10371 -0.127358 -0.0430262 66 70 67
0.103453 -0.126162 -0.0433963 65 65 59
0.128329 -0.182217 -0.0111158 59 62 55
0.127645 -0.181341 -0.0118984 44 76 74
0.127189 -0.180339 -0.0124554 33 85 85
0.126282 -0.179596 -0.0134585 28 85 88
0.125155 -0.178986 -0.0146777 26 83 87
0.123595 -0.17864 -0.0163243 26 82 85
0.122269 -0.178167 -0.017738 26 81 82
0.121171 -0.17757 -0.0189267 23 81 79
0.119866 -0.177106 -0.0203179 20 79 76
0.118152 -0.176905 -0.0221115 22 75 71
0.117083 -0.17632 -0.0232689 38 70 66
0.116227 -0.17561 -0.0242155 57 66 59
0.10492 -0.148986 -0.0381861 28 72 69
0.104478 -0.148013 -0.0387267 20 75 73
0.10423 -0.146879 -0.0390797 19 76 75
0.103787 -0.145905 -0.039621 20 75 76
0.103538 -0.144767 -0.0399754 18 74 75
0.103288 -0.143627 -0.0403307 19 75 75
0.103232 -0.142317 -0.0404997 24 78 78
0.103176 -0.141001 -0.0406696 33 86 88
0.102924 -0.13985 -0.0410277 46 107 111
0.102867 -0.138523 -0.0411994 64 141 145
0.102614 -0.137365 -0.0415593 77 159 161
0.102556 -0.136029 -0.0417329 72 152 157
0.102302 -0.134865 -0.0420947 50 130 141
0.102438 -0.133339 -0.0420823 47 123 136
0.102379 -0.131984 -0.0422583 58 140 151
0.102516 -0.13044 -0.0422465 78 155 161
0.102655 -0.128884 -0.0422348 82 148 143
0.102794 -0.127319 -0.0422229 71 105 107
0.102536 -0.126124 -0.0425917 69 78 73
0.102675 -0.124541 -0.0425811 70 60 60
0.102816 -0.122948 -0.0425704 65 62 57
0.126705 -0.181246 -0.0111296 44 71 67
0.126025 -0.180374 -0.0119105 31 83 82
0.125122 -0.179632 -0.0129125 26 86 86
0.124002 -0.179023 -0.0141309 24 83 85
0.12267 -0.178548 -0.0155591 25 82 83
0.121567 -0.177948 -0.0167591 27 80 78
0.120471 -0.177351 -0.0179511 22 76 74
0.119382 -0.176758 -0.0191351 22 74 70
0.118089 -0.1763 -0.0205209 36 71 67
0.116808 -0.175845 -0.0218945 53 63 55
0.103979 -0.147633 -0.0375751 37 68 68
0.103536 -0.146659 -0.0381164 26 73 72
0.103287 -0.145522 -0.0384691 23 74 75
0.103037 -0.144383 -0.0388227 20 74 76
0.102786 -0.143241 -0.039177 21 75 75
0.102729 -0.141928 -0.0393437 20 75 75
0.102477 -0.140779 -0.0396999 18 76 77
0.102225 -0.139628 -0.0400569 24 81 84
0.101778 -0.138646 -0.0406027 37 94 99
0.101718 -0.137317 -0.0407735 52 122 126
0.101658 -0.135982 -0.0409451 72 157 159
0.101403 -0.134818 -0.0413057 75 160 164
0.101341 -0.133473 -0.0414791 62 143 148
0.10128 -0.132122 -0.0416533 47 119 138
0.101413 -0.130581 -0.0416396 51 129 138
0.101548 -0.12903 -0.0416257 67 154 157
0.101683 -0.127468 -0.0416119 80 154 155
0.101621 -0.126086 -0.0417888 77 130 125
0.101559 -0.124698 -0.0419665 70 81 97
0.101695 -0.123108 -0.0419538 67 71 66
0.101832 -0.121508 -0.041941 65 61 54
0.10177 -0.120096 -0.0421209 66 59 47
0.125767 -0.181151 -0.0103623 53 61 57
0.124865 -0.180408 -0.0113679 38 75 72
0.124189 -0.179539 -0.0121459 32 82 81
0.123073 -0.178931 -0.0133654 30 82 83
0.121965 -0.178327 -0.0145768 28 79 80
0.120864 -0.177728 -0.0157801 26 76 74
0.119985 -0.177002 -0.0167602 24 72 71
0.119109 -0.176279 -0.017736 33 71 66
0.117815 -0.175821 -0.0191311 52 63 57
0.103035 -0.146277 -0.0369626 50 66 64
0.102592 -0.145302 -0.0375045 30 72 70
0.102341 -0.144162 -0.037857 22 76 74
0.102476 -0.142686 -0.0378305 24 77 74
0.102224 -0.141538 -0.038185 21 76 75
0.101778 -0.140557 -0.0387301 21 75 76
0.101525 -0.139406 -0.039086 21 76 76
0.101078 -0.138424 -0.0396318 21 78 79
0.100824 -0.137268 -0.0399893 29 84 86
0.100761 -0.135934 -0.0401589 45 105 108
0.100506 -0.134772 -0.0405182 60 137 143
0.10025 -0.133607 -0.0408784 77 161 166
0.100186 -0.132259 -0.0410509 73 156 159
0.100315 -0.130722 -0.0410351 51 131 139
0.100445 -0.129175 -0.0410193 47 119 133
0.100381 -0.127804 -0.0411938 55 136 145
0.100512 -0.126238 -0.0411786 74 158 162
0.100644 -0.124661 -0.0411632 81 146 146
0.100383 -0.123462 -0.0415313 67 108 106
0.100712 -0.121672 -0.0413249 64 74 77
0.100648 -0.120263 -0.0415029 66 59 56
0.100583 -0.118848 -0.0416818 65 61 57
0.100318 -0.117629 -0.0420545 70 61 50
0.123933 -0.180314 -0.0106027 47 61 60
0.123258 -0.179446 -0.0113808 35 71 70
0.122366 -0.17871 -0.0123796 26 75 75
0.12126 -0.178107 -0.0135943 23 75 74
0.120161 -0.177508 -0.0148008 25 71 70
0.119283 -0.176782 -0.0157832 35 69 67
0.118622 -0.175929 -0.0165461 53 64 59
0.101645 -0.143942 -0.0368913 37 70 66
0.101778 -0.142465 -0.0368615 25 74 71
0.101525 -0.141317 -0.037215 24 76 76
0.101271 -0.140166 -0.0375692 25 76 79
0.100825 -0.139184 -0.038115 23 75 77
0.100378 -0.138202 -0.0386608 22 74 74
0.100123 -0.137046 -0.0390171 23 76 73
0.0996756 -0.136062 -0.0395636 25 81 81
0.0996107 -0.134726 -0.0397324 35 92 99
0.0995453 -0.133383 -0.0399019 51 119 124
0.099096 -0.132395 -0.040451 71 155 156
0.0992213 -0.130862 -0.0404332 81 162 165
0.0993475 -0.129319 -0.0404154 66 143 148
0.0992809 -0.127952 -0.0405882 46 117 136
0.0994079 -0.12639 -0.0405709 47 126 134
0.0995357 -0.124817 -0.0405535 64 151 156
0.0994689 -0.123427 -0.0407283 79 158 158
0.0994016 -0.12203 -0.040904 78 130 124
0.0995304 -0.12043 -0.0408877 66 75 97
0.0994628 -0.119018 -0.0410648 62 70 64
0.099395 -0.1176 -0.0412427 68 59 54
0.0995246 -0.115971 -0.0412276 71 58 49
0.122549 -0.179224 -0.0103925 58 63 51
0.121877 -0.178359 -0.01117 55 65 58
0.120554 -0.177886 -0.0126116 51 64 62
0.119673 -0.177157 -0.0136021 51 63 62
0.119009 -0.1763 -0.01437 58 62 57
0.100826 -0.141095 -0.0362448 35 72 71
0.100571 -0.139944 -0.036598 24 76 76
0.100125 -0.138962 -0.0371437 19 79 78
0.099869 -0.137806 -0.0374984 19 76 77
0.0994218 -0.136823 -0.0380448 21 77 76
0.0989745 -0.13584 -0.0385913 20 76 76
0.0987174 -0.13468 -0.0389481 22 78 80
0.0986501 -0.133338 -0.0391158 28 85 89
0.0983917 -0.132171 -0.0394744 44 100 107
0.0981326 -0.131002 -0.0398338 56 134 138
0.0980636 -0.129646 -0.0400044 74 162 166
0.0981857 -0.128098 -0.0399852 75 158 159
