ply
format ascii 1.0
element vertex 1059
property float x
property float y
property float z
property uchar diffuse_red
property uchar diffuse_green
property uchar diffuse_blue
end_header
0.155361 -0.244804 -0.0362813 33 82 93
0.151194 -0.245312 -0.0346328 33 87 99
0.147118 -0.245809 -0.0330205 35 95 103
0.145104 -0.246596 -0.033059 42 105 113
0.161616 -0.242148 -0.0392131 35 71 67
0.157304 -0.242694 -0.0375024 40 70 67
0.154133 -0.243373 -0.0366725 45 70 67
0.150498 -0.243969 -0.0354384 44 71 70
0.146429 -0.24448 -0.0338175 42 68 67
0.143924 -0.2452 -0.0334452 46 75 74
0.140478 -0.245763 -0.0322736 45 85 90
0.138525 -0.246538 -0.0323151 46 103 110
0.164189 -0.240051 -0.0409159 68 72 67
0.161445 -0.240834 -0.040479 70 74 67
0.156596 -0.241327 -0.0383222 72 76 68
0.15343 -0.242017 -0.0374858 77 77 69
0.149802 -0.242625 -0.0362442 79 80 70
0.14574 -0.243151 -0.0346145 77 76 66
0.142747 -0.243808 -0.0338305 77 73 64
0.1398 -0.244454 -0.0330587 66 74 70
0.137373 -0.245163 -0.0326971 52 78 82
0.135919 -0.246009 -0.0331346 45 93 101
0.134473 -0.24685 -0.0335695 49 116 123
0.133503 -0.247762 -0.0344 64 133 136
0.132535 -0.24867 -0.035228 87 128 125
0.131571 -0.249576 -0.0360536 85 88 83
0.135279 -0.243653 -0.0322824 76 74 68
0.134306 -0.244571 -0.033116 59 78 77
0.132869 -0.245414 -0.0335498 45 94 98
0.131904 -0.246324 -0.0343778 53 122 127
0.130942 -0.247232 -0.0352035 85 141 145
0.129983 -0.248138 -0.0360268 91 113 114
0.129484 -0.249118 -0.0372475 91 80 75
0.134607 -0.242358 -0.0330595 83 80 73
0.133635 -0.243278 -0.033892 72 78 74
0.132201 -0.244125 -0.0343236 54 80 82
0.131237 -0.245037 -0.0351507 47 100 103
0.130275 -0.245948 -0.0359753 69 133 132
0.129317 -0.246855 -0.0367976 88 138 136
0.128818 -0.247835 -0.0380184 91 92 86
0.141676 -0.239981 -0.0370271 75 87 102
0.135382 -0.240203 -0.0334017 74 91 103
0.134406 -0.241129 -0.0342363 71 94 102
0.132965 -0.241985 -0.0346683 74 92 95
0.131532 -0.242836 -0.0350977 65 86 86
0.130569 -0.24375 -0.0359236 49 87 87
0.130069 -0.244733 -0.0371482 48 105 107
0.129109 -0.245644 -0.03797 69 135 130
0.128609 -0.246625 -0.0391929 80 111 108
0.128109 -0.247606 -0.0404159 85 86 78
0.170919 -0.235516 -0.052073 77 77 79
0.168626 -0.236416 -0.0520189 77 84 83
0.165789 -0.237242 -0.0514985 78 97 84
0.165238 -0.238324 -0.0528468 73 112 95
0.133733 -0.239832 -0.0350149 57 128 124
0.132761 -0.240756 -0.035846 61 120 114
0.131791 -0.241678 -0.0366747 63 110 101
0.130362 -0.24253 -0.0370982 52 92 87
0.129401 -0.243446 -0.0379214 36 78 83
0.1289 -0.244428 -0.0391462 47 109 112
0.128399 -0.245411 -0.040371 68 122 122
0.127899 -0.246394 -0.041596 81 90 84
0.173076 -0.233223 -0.0534697 78 94 87
0.171341 -0.234202 -0.0538849 67 110 104
0.170199 -0.235237 -0.0547748 52 106 114
0.167332 -0.236077 -0.0542325 42 88 104
0.164503 -0.236905 -0.0536975 38 74 83
0.162828 -0.237854 -0.0541048 32 66 70
0.132556 -0.239524 -0.0370275 27 81 91
0.13112 -0.240385 -0.0374513 36 91 98
0.130617 -0.241372 -0.0386817 38 79 84
0.129653 -0.242292 -0.0395051 31 64 69
0.12915 -0.243278 -0.0407337 33 84 88
0.128648 -0.244264 -0.0419624 59 119 114
0.128146 -0.24525 -0.0431912 76 101 98
0.172917 -0.231835 -0.0548164 46 86 99
0.171766 -0.232879 -0.0557093 36 79 83
0.170035 -0.23386 -0.0561172 31 76 75
0.168895 -0.234896 -0.0570036 29 73 72
0.166036 -0.235737 -0.0564465 28 71 69
0.162095 -0.23644 -0.0549529 34 70 69
0.163792 -0.237783 -0.0582008 53 67 67
0.131883 -0.238226 -0.0378065 33 58 64
0.130913 -0.239154 -0.0386337 30 61 63
0.129947 -0.240078 -0.0394585 30 61 62
0.129443 -0.241066 -0.040689 27 60 63
0.12848 -0.241986 -0.0415097 29 69 74
0.128437 -0.24304 -0.0431504 44 98 102
0.127934 -0.244028 -0.0443812 65 114 116
0.12789 -0.245087 -0.046029 74 90 85
0.173349 -0.230497 -0.0566533 31 73 74
0.171604 -0.23149 -0.0570602 38 70 71
0.170455 -0.232535 -0.0579495 52 70 70
0.168149 -0.233457 -0.0578659 62 73 70
0.16644 -0.234431 -0.0582648 64 76 70
0.163607 -0.235273 -0.0577014 66 76 71
0.129737 -0.238847 -0.0406442 56 68 64
0.128772 -0.239772 -0.0414662 35 67 64
0.128269 -0.240759 -0.042697 26 67 68
0.128226 -0.241813 -0.0443421 31 82 86
0.127722 -0.242802 -0.045575 57 114 110
0.127677 -0.243861 -0.0472272 72 105 100
0.127172 -0.244852 -0.0484621 76 82 79
0.129528 -0.237611 -0.0418338 76 76 65
0.129023 -0.238601 -0.0430683 62 74 63
0.128518 -0.239591 -0.0443029 40 71 64
0.128013 -0.240582 -0.0455377 29 73 78
0.127508 -0.241572 -0.0467725 43 96 102
0.127003 -0.242563 -0.0480074 66 113 116
0.126499 -0.243554 -0.0492424 74 92 91
0.128812 -0.237363 -0.0442636 74 74 65
0.127845 -0.238293 -0.0450829 65 70 67
0.12734 -0.239284 -0.0463177 39 70 70
0.126835 -0.240274 -0.0475527 28 85 87
0.12633 -0.241265 -0.0487878 54 115 109
0.126283 -0.242323 -0.0504477 71 108 101
0.126236 -0.243385 -0.052113 79 86 79
0.161972 -0.233348 -0.0644407 72 73 70
0.135775 -0.234866 -0.0484872 79 90 86
0.132388 -0.235528 -0.0471724 77 91 86
0.129063 -0.236179 -0.0458819 70 86 89
0.127631 -0.237054 -0.0462815 66 78 92
0.127126 -0.238046 -0.0475184 60 74 81
0.12662 -0.239038 -0.0487554 35 66 74
0.126114 -0.240031 -0.0499925 41 94 98
0.126067 -0.241089 -0.051657 60 111 115
0.126019 -0.24215 -0.0533267 76 93 92
0.169272 -0.230386 -0.0685649 73 78 76
0.164061 -0.231047 -0.0659167 80 94 78
0.163501 -0.232146 -0.0672869 74 111 94
0.150287 -0.234159 -0.0611147 50 112 125
0.143006 -0.234446 -0.0563911 51 114 126
0.139962 -0.235188 -0.0554176 51 121 130
0.133572 -0.235506 -0.0513766 56 133 135
0.127879 -0.235869 -0.0479062 66 135 131
0.126911 -0.236805 -0.0487228 67 117 111
0.126404 -0.237799 -0.0499619 52 80 75
0.125897 -0.238792 -0.0512009 28 80 79
0.125849 -0.23985 -0.05287 49 110 104
0.126263 -0.240977 -0.0549787 72 109 103
0.126678 -0.242111 -0.0571006 81 90 82
0.166776 -0.229929 -0.069808 52 92 98
0.163325 -0.230759 -0.0686545 52 88 87
0.160494 -0.231632 -0.0680183 41 82 85
0.158257 -0.232551 -0.0678861 30 79 82
0.149565 -0.232766 -0.0619506 24 78 78
0.145885 -0.23348 -0.0604436 19 73 76
0.131376 -0.236143 -0.054258 42 97 103
0.129443 -0.236972 -0.0542004 46 85 97
0.12893 -0.237979 -0.055455 30 59 70
0.128417 -0.238985 -0.0567096 39 89 94
0.128373 -0.240056 -0.0584081 58 109 114
0.127859 -0.241064 -0.0596649 72 99 98
0.127813 -0.24214 -0.0613709 76 78 70
0.170142 -0.22884 -0.0743027 34 79 82
0.164297 -0.229474 -0.0710432 42 73 74
0.159188 -0.230143 -0.0683799 54 67 68
0.153129 -0.230686 -0.0648153 59 70 67
0.148843 -0.231373 -0.0627866 59 70 66
0.148829 -0.232491 -0.064589 55 66 65
0.132118 -0.234991 -0.0563826 29 61 68
0.131122 -0.235947 -0.0572029 25 58 65
0.13013 -0.2369 -0.0580207 18 41 53
0.129142 -0.237851 -0.0588361 14 69 72
0.128626 -0.238862 -0.0600968 41 105 100
0.12811 -0.239873 -0.0613577 67 112 103
0.128065 -0.240951 -0.0630717 79 89 81
0.137765 -0.234398 -0.0631017 52 65 61
0.130909 -0.234674 -0.0584493 32 62 54
0.130391 -0.23569 -0.059716 13 32 42
0.129398 -0.236645 -0.0605314 7 36 56
0.128881 -0.237659 -0.0617962 28 79 88
0.128364 -0.238674 -0.0630611 55 109 109
0.128318 -0.239753 -0.0647833 75 103 99
0.1278 -0.240769 -0.0660504 82 73 65
0.137557 -0.233094 -0.0643855 60 66 60
0.133585 -0.233733 -0.0624296 29 44 44
0.130652 -0.234472 -0.061422 12 26 30
0.129656 -0.235432 -0.0622374 9 27 39
0.129137 -0.23645 -0.0635063 11 62 66
0.128145 -0.237405 -0.0643174 38 102 98
0.127627 -0.238421 -0.0655845 67 112 104
0.127109 -0.239437 -0.0668517 77 90 83
0.13685 -0.231732 -0.065204 40 52 57
0.135825 -0.232715 -0.066029 15 34 38
0.132362 -0.233413 -0.0645201 9 29 29
0.130394 -0.234268 -0.0644138 11 38 36
0.128919 -0.235174 -0.0647673 5 49 59
0.128399 -0.236193 -0.0660384 23 80 88
0.12788 -0.237212 -0.0673096 51 106 108
0.12736 -0.238231 -0.068581 70 102 104
0.127312 -0.239315 -0.0703204 80 71 67
0.141286 -0.22649 -0.0636404 75 100 89
0.139739 -0.227443 -0.064005 68 103 105
0.138201 -0.22839 -0.0643673 58 92 106
0.13767 -0.229432 -0.0656666 41 68 84
0.13664 -0.230421 -0.0664934 20 42 52
0.135614 -0.231408 -0.0673178 8 32 39
0.134099 -0.232337 -0.0676676 7 40 47
0.132107 -0.233204 -0.0675457 19 55 60
0.129655 -0.234006 -0.0669594 13 54 66
0.128655 -0.234972 -0.0677704 12 69 76
0.127659 -0.235935 -0.068579 34 98 96
0.127138 -0.236956 -0.0698525 66 113 107
0.12709 -0.23804 -0.0715967 76 89 83
0.166319 -0.221462 -0.0787279 75 82 74
0.165746 -0.222586 -0.08013 73 91 81
0.139561 -0.225027 -0.0635252 57 93 89
0.138525 -0.226026 -0.0643581 49 91 91
0.137492 -0.227023 -0.0651884 35 76 84
0.136961 -0.228065 -0.0664877 21 55 66
0.135932 -0.229057 -0.0673135 10 40 47
0.135401 -0.230097 -0.068611 10 44 52
0.133885 -0.231031 -0.0689574 31 75 78
0.132866 -0.232014 -0.0697755 42 93 98
0.13088 -0.232883 -0.0696438 38 78 82
0.129391 -0.2338 -0.0699839 22 63 74
0.128389 -0.234769 -0.070793 28 76 86
0.127866 -0.235795 -0.0720726 60 106 106
0.127819 -0.236882 -0.0738288 73 106 106
0.128731 -0.2381 -0.0765554 80 72 66
0.139382 -0.22261 -0.0630453 38 79 86
0.138347 -0.223614 -0.063879 42 75 77
0.137314 -0.224614 -0.0647102 35 69 70
0.136783 -0.225656 -0.0660096 23 59 63
0.135754 -0.226652 -0.0668362 12 48 54
0.135224 -0.227692 -0.0681337 8 48 55
0.134693 -0.228732 -0.0694313 21 74 76
0.13367 -0.229721 -0.0702513 54 113 109
0.132649 -0.230708 -0.0710689 55 113 113
0.131632 -0.231691 -0.0718839 54 96 98
0.130619 -0.232671 -0.0726964 33 70 78
0.129608 -0.233649 -0.0735064 28 67 77
0.129081 -0.234681 -0.0747943 47 92 95
0.129036 -0.235773 -0.0765662 67 116 110
0.12899 -0.236869 -0.0783437 77 90 83
0.138169 -0.221201 -0.0633999 45 72 70
0.137136 -0.222205 -0.0642319 47 77 75
0.136605 -0.223247 -0.0655314 51 83 80
0.135577 -0.224246 -0.0663588 42 73 76
0.135046 -0.225286 -0.0676564 24 62 69
0.134515 -0.226326 -0.068954 24 73 77
0.133985 -0.227367 -0.0702518 47 104 102
0.132962 -0.228358 -0.0710707 58 120 120
0.132432 -0.229397 -0.0723666 57 113 114
0.131414 -0.230384 -0.0731809 59 106 104
0.130399 -0.231368 -0.0739928 40 84 83
0.129387 -0.232349 -0.0748022 27 70 73
0.128859 -0.233383 -0.0760923 35 82 84
0.128813 -0.234475 -0.0778691 58 109 105
0.128767 -0.235571 -0.0796518 71 108 107
0.129206 -0.236732 -0.0819358 76 83 73
0.140008 -0.218922 -0.0648026 71 71 67
0.136959 -0.219796 -0.0637536 65 72 68
0.136427 -0.220837 -0.0650531 61 84 84
0.135896 -0.221879 -0.0663527 66 98 98
0.134869 -0.222881 -0.0671789 60 92 93
0.134338 -0.223921 -0.0684767 46 85 89
0.133807 -0.224961 -0.0697745 45 98 102
0.132785 -0.225957 -0.0705942 61 120 121
0.132255 -0.226995 -0.0718901 58 117 119
0.131725 -0.228034 -0.0731861 58 113 113
0.130707 -0.229023 -0.0739994 61 110 105
0.130178 -0.23006 -0.0752935 54 85 82
0.129165 -0.231045 -0.0761022 38 69 69
0.128636 -0.232081 -0.0773945 32 76 76
0.12859 -0.233173 -0.0791764 44 94 95
0.128544 -0.234268 -0.0809641 67 115 113
0.128982 -0.235427 -0.0832562 71 93 84
0.12845 -0.236469 -0.0845571 71 76 69
0.13728 -0.217417 -0.0637432 72 72 66
0.136249 -0.218428 -0.0645748 64 82 78
0.135718 -0.219469 -0.0658745 68 102 101
0.134691 -0.220475 -0.0667015 58 99 106
0.13416 -0.221515 -0.0679993 53 98 103
0.133137 -0.222516 -0.0688217 56 104 106
0.132607 -0.223555 -0.0701176 59 114 118
0.132077 -0.224593 -0.0714136 59 121 125
0.131547 -0.225632 -0.0727097 62 117 118
0.131017 -0.226671 -0.0740058 62 116 113
0.130487 -0.227709 -0.0753021 62 101 105
0.129471 -0.228699 -0.0761122 65 77 83
0.128942 -0.229737 -0.0774065 57 66 68
0.128896 -0.230826 -0.0791914 42 68 69
0.128366 -0.231866 -0.080488 35 80 83
0.128319 -0.232961 -0.0822808 57 108 104
0.128272 -0.234059 -0.0840795 67 104 102
0.128224 -0.235161 -0.085884 74 82 78
0.138105 -0.215058 -0.064203 76 70 65
0.13657 -0.216047 -0.0645657 67 76 72
0.13554 -0.217059 -0.0653962 63 100 93
0.135008 -0.218101 -0.066696 62 110 107
0.133983 -0.219109 -0.0675218 53 99 101
0.13296 -0.220114 -0.0683451 49 98 104
0.13243 -0.221152 -0.0696411 57 112 115
0.1319 -0.222191 -0.0709371 63 122 122
0.13137 -0.223229 -0.0722332 60 117 120
0.13084 -0.224268 -0.0735294 63 117 116
0.130309 -0.225307 -0.0748257 62 119 115
0.129779 -0.226346 -0.0761221 60 107 114
0.129249 -0.227385 -0.0774186 67 95 100
0.128719 -0.228424 -0.0787152 71 87 82
0.128672 -0.229513 -0.0805051 62 81 74
0.128141 -0.230554 -0.081804 40 75 79
0.128093 -0.231649 -0.0836019 40 89 92
0.128046 -0.232747 -0.0854057 63 111 110
0.127998 -0.233849 -0.0872154 73 92 88
0.128437 -0.235014 -0.0895429 77 75 68
0.139442 -0.212708 -0.0651398 76 72 67
0.136891 -0.213658 -0.0645566 70 77 76
0.135859 -0.214676 -0.0653884 61 87 88
0.13483 -0.215691 -0.0662177 71 110 109
0.134299 -0.216733 -0.0675177 55 96 101
0.133274 -0.217743 -0.0683423 49 101 102
0.132253 -0.21875 -0.0691645 54 110 112
0.131722 -0.219788 -0.0704605 58 116 120
0.131192 -0.220827 -0.0717566 58 117 122
0.13115 -0.221904 -0.0735351 61 117 118
0.130619 -0.222944 -0.0748335 62 116 114
0.130575 -0.224026 -0.0766199 52 105 104
0.130043 -0.225069 -0.0779206 49 107 107
0.129511 -0.226111 -0.0792214 52 108 105
0.128979 -0.227153 -0.0805223 61 110 101
0.128447 -0.228196 -0.0818232 63 104 97
0.127915 -0.229238 -0.0831242 49 85 92
0.127383 -0.230281 -0.0844254 30 70 78
0.127819 -0.231431 -0.0867363 54 104 103
0.12777 -0.232532 -0.0885513 69 102 101
0.127722 -0.233638 -0.0903721 75 84 80
0.139262 -0.210274 -0.0646566 71 77 78
0.136712 -0.21124 -0.0640766 67 78 88
0.135681 -0.212262 -0.0649092 60 85 99
0.135148 -0.213305 -0.0662112 63 104 106
0.134121 -0.214322 -0.0670393 51 100 111
0.133589 -0.215364 -0.0683394 54 95 100
0.132565 -0.216376 -0.0691629 55 105 106
0.131545 -0.217385 -0.0699838 57 120 122
0.131015 -0.218424 -0.0712801 58 122 125
0.130972 -0.219497 -0.0730578 59 117 120
0.130441 -0.220537 -0.0743563 62 116 116
0.130397 -0.221616 -0.0761419 63 106 106
0.129865 -0.222658 -0.0774426 52 75 75
0.129333 -0.2237 -0.0787435 44 70 72
0.128801 -0.224742 -0.0800444 39 74 80
0.128269 -0.225785 -0.0813455 40 85 93
0.127737 -0.226827 -0.0826465 43 95 103
0.127204 -0.22787 -0.0839477 44 89 99
0.127155 -0.228962 -0.0857523 33 58 69
0.127591 -0.23011 -0.0880714 41 86 89
0.127542 -0.231211 -0.0898915 61 105 107
0.127981 -0.232371 -0.0922354 71 94 92
0.128423 -0.23354 -0.0945946 73 75 70
0.137067 -0.207777 -0.0622926 70 98 85
0.136035 -0.208804 -0.0631281 63 106 95
0.135502 -0.209847 -0.06443 54 109 111
0.13497 -0.21089 -0.065732 53 110 121
0.133943 -0.211911 -0.066561 62 119 114
0.133411 -0.212953 -0.0678611 51 92 101
0.132387 -0.213969 -0.0686855 49 98 110
0.131367 -0.214982 -0.0695072 64 120 118
0.130837 -0.216021 -0.0708035 63 122 122
0.130307 -0.217059 -0.0720998 59 118 121
0.130263 -0.21813 -0.073879 59 115 117
0.130219 -0.219205 -0.0756639 61 107 108
0.129687 -0.220247 -0.0769647 62 84 84
0.129155 -0.221289 -0.0782656 73 73 63
0.129109 -0.222371 -0.0800607 75 72 64
0.128576 -0.223415 -0.0813639 72 68 63
0.127558 -0.224416 -0.0821688 58 66 63
0.127026 -0.225459 -0.08347 48 70 67
0.126976 -0.226547 -0.0852739 44 72 72
0.126927 -0.227639 -0.0870836 32 54 62
0.127362 -0.228784 -0.0894109 31 70 73
0.127313 -0.229885 -0.0912363 50 101 99
0.128734 -0.231151 -0.0946352 64 103 100
0.13596 -0.203235 -0.0573677 61 98 94
0.135431 -0.204273 -0.0586632 49 99 111
0.135395 -0.205323 -0.06042 44 87 104
0.13536 -0.206376 -0.0621825 42 78 90
0.134828 -0.207417 -0.0634824 41 80 87
0.134296 -0.208459 -0.0647824 54 99 101
0.133272 -0.209482 -0.0656115 71 114 114
0.132741 -0.210522 -0.0669097 53 97 105
0.13221 -0.211562 -0.0682079 53 105 106
0.13119 -0.212579 -0.0690305 65 112 117
0.130659 -0.213617 -0.0703268 63 118 127
0.130129 -0.214656 -0.0716232 61 119 125
0.129599 -0.215695 -0.0729197 61 117 119
0.129554 -0.216763 -0.0747003 61 111 110
0.129509 -0.217836 -0.0764867 64 96 91
0.128976 -0.218878 -0.0777877 68 74 62
0.126748 -0.22522 -0.0866044 65 65 58
0.126697 -0.226312 -0.0884194 47 59 55
0.127133 -0.227454 -0.0907548 36 59 63
0.128553 -0.228704 -0.0941508 43 86 89
0.133663 -0.204984 -0.0620732 58 73 74
0.133133 -0.206022 -0.0633691 57 93 93
0.132603 -0.20706 -0.0646651 56 110 114
0.132073 -0.208098 -0.0659612 53 106 115
0.131542 -0.209137 -0.0672574 59 100 103
0.131012 -0.210175 -0.0685537 57 111 116
0.130482 -0.211214 -0.06985 66 132 132
0.129952 -0.212252 -0.0711465 63 122 125
0.129421 -0.213291 -0.0724431 60 117 120
0.128891 -0.21433 -0.0737397 62 115 115
0.128844 -0.215396 -0.0755218 66 100 97
0.128798 -0.216466 -0.0773097 70 77 73
0.127391 -0.226165 -0.0926226 57 57 57
0.128817 -0.227411 -0.0960419 46 71 72
0.132506 -0.202566 -0.0606729 71 68 68
0.131977 -0.2036 -0.0619647 64 87 83
0.131449 -0.204635 -0.0632567 61 115 108
0.13092 -0.20567 -0.0645487 60 119 118
0.130391 -0.206705 -0.0658408 50 100 108
0.130348 -0.207756 -0.0676042 53 112 118
0.129818 -0.208793 -0.0688985 78 134 126
0.129289 -0.20983 -0.070193 65 122 126
0.128759 -0.210867 -0.0714875 59 119 121
0.12823 -0.211904 -0.0727821 60 117 117
0.128182 -0.212965 -0.0745599 63 105 104
0.128135 -0.214029 -0.0763434 66 84 80
0.130302 -0.202226 -0.0618572 70 110 108
0.129293 -0.203249 -0.0626833 64 116 119
0.128767 -0.204279 -0.0639693 52 107 112
0.129203 -0.205332 -0.0661888 58 117 113
0.129157 -0.206379 -0.06795 62 117 125
0.128628 -0.207414 -0.0692424 58 122 135
0.128582 -0.208466 -0.0710115 61 118 122
0.128052 -0.209503 -0.0723062 58 117 119
0.127523 -0.21054 -0.073601 63 114 110
0.126993 -0.211577 -0.0748959 69 93 84
0.128683 -0.199828 -0.0600103 65 101 103
0.127681 -0.20085 -0.0608354 57 116 121
0.127157 -0.201875 -0.0621153 55 110 116
0.126634 -0.202901 -0.0633955 59 106 111
0.127538 -0.203954 -0.0660685 58 120 125
0.12749 -0.204995 -0.0678241 66 140 136
0.127442 -0.20604 -0.0695854 58 120 123
0.126914 -0.207074 -0.070876 57 117 123
0.126865 -0.208123 -0.0726451 61 115 119
0.126815 -0.209177 -0.07442 62 92 99
0.126286 -0.210214 -0.075715 67 75 73
0.127553 -0.197452 -0.0586319 63 96 92
0.127031 -0.198475 -0.0599097 64 126 119
0.126035 -0.199496 -0.0607326 58 117 117
0.125513 -0.200518 -0.0620087 51 107 114
0.124991 -0.20154 -0.0632849 57 122 125
0.124939 -0.20257 -0.0650224 68 132 131
0.124887 -0.203602 -0.0667654 58 123 130
0.125783 -0.204659 -0.0694548 56 118 123
0.125257 -0.20569 -0.0707414 58 117 119
0.125205 -0.206734 -0.0725049 61 102 106
0.125153 -0.207782 -0.074274 66 78 80
0.126904 -0.195086 -0.0577111 66 86 89
0.126382 -0.196108 -0.058987 73 119 121
0.125389 -0.197131 -0.0598101 58 113 123
0.124399 -0.198151 -0.0606306 54 112 116
0.123878 -0.19917 -0.0619029 60 120 119
0.123357 -0.200189 -0.0631752 61 125 130
0.123303 -0.201213 -0.0649072 59 126 133
0.123249 -0.20224 -0.0666447 58 118 123
0.123664 -0.203279 -0.0688557 54 116 120
0.12361 -0.204314 -0.0706079 63 116 111
0.124027 -0.205365 -0.0728422 68 87 82
0.126257 -0.192727 -0.0567931 73 82 79
0.125265 -0.193754 -0.0576183 69 109 112
0.124745 -0.194772 -0.0588904 57 118 128
0.124224 -0.195791 -0.0601625 56 111 120
0.123704 -0.19681 -0.0614348 58 113 121
0.122718 -0.197829 -0.0622518 62 128 132
0.122198 -0.198846 -0.0635223 63 134 134
0.122142 -0.199867 -0.0652522 57 120 124
0.122086 -0.20089 -0.0669877 56 118 120
0.122029 -0.201917 -0.0687287 59 116 117
0.121973 -0.202947 -0.0704753 61 88 98
0.124674 -0.190399 -0.0549899 70 73 70
0.124622 -0.191404 -0.0567033 63 104 98
0.123636 -0.19243 -0.0575262 67 131 128
0.123118 -0.193445 -0.0587944 53 112 119
0.122599 -0.194461 -0.0600628 50 113 122
0.12208 -0.195477 -0.0613312 62 127 130
0.121561 -0.196492 -0.0625998 67 132 132
0.121042 -0.197508 -0.0638684 60 124 127
0.120984 -0.198525 -0.0655963 57 119 119
0.120926 -0.199545 -0.0673297 57 116 117
0.120868 -0.200568 -0.0690687 64 105 105
0.120346 -0.201589 -0.0703437 70 74 75
0.1245 -0.188046 -0.054523 68 78 69
0.123516 -0.189075 -0.055348 60 91 91
0.123463 -0.190077 -0.0570594 70 128 125
0.122944 -0.191092 -0.0583277 54 113 122
0.122425 -0.192108 -0.0595961 54 117 119
0.121906 -0.193124 -0.0608646 59 124 126
0.121387 -0.194139 -0.0621332 63 129 135
0.120868 -0.195155 -0.0634018 61 125 132
0.120349 -0.196171 -0.0646707 57 118 123
0.119829 -0.197187 -0.0659395 56 117 117
0.11977 -0.198203 -0.0676709 63 110 109
0.11971 -0.199222 -0.0694078 71 83 83
0.122879 -0.186744 -0.0544408 66 83 82
0.122362 -0.187756 -0.0557051 66 118 121
0.122306 -0.188754 -0.0574145 52 122 131
0.121788 -0.189767 -0.058681 53 113 117
0.12127 -0.190782 -0.0599476 54 120 126
0.120752 -0.191796 -0.0612142 63 134 137
0.120233 -0.19281 -0.062481 64 129 134
0.120174 -0.193817 -0.0642041 59 118 126
0.119655 -0.194833 -0.065473 57 116 120
0.119136 -0.195849 -0.066742 59 111 113
0.118617 -0.196865 -0.0680111 66 93 95
0.122244 -0.184419 -0.0535363 75 81 75
0.121727 -0.185429 -0.0547987 64 109 103
0.121211 -0.18644 -0.0560612 65 132 133
0.120694 -0.187451 -0.0573238 49 110 121
0.120636 -0.188447 -0.0590333 50 119 127
0.120119 -0.189459 -0.0602981 62 133 136
0.119601 -0.190472 -0.0615629 62 133 137
0.119541 -0.191474 -0.0632819 58 124 129
0.119023 -0.192488 -0.0645489 56 118 122
0.118962 -0.193496 -0.0662755 58 114 116
0.118443 -0.194512 -0.0675447 65 105 102
0.121611 -0.182101 -0.0526346 74 74 76
0.121095 -0.18311 -0.0538951 67 98 98
0.120579 -0.184119 -0.0551557 66 129 128
0.120063 -0.185128 -0.0564164 51 116 122
0.119547 -0.186137 -0.0576771 54 122 121
0.119488 -0.18713 -0.0593847 58 130 133
0.118971 -0.18814 -0.0606476 60 134 140
0.11891 -0.189138 -0.0623626 57 126 132
0.118393 -0.19015 -0.0636277 55 120 125
0.118331 -0.191152 -0.0653502 56 118 119
0.117812 -0.192167 -0.0666174 64 107 104
0.120522 -0.179818 -0.0513022 74 71 66
0.120008 -0.180824 -0.0525588 70 88 90
0.119494 -0.18183 -0.0538156 65 121 123
0.11898 -0.182836 -0.0550724 53 124 131
0.118465 -0.183842 -0.0563293 54 111 117
0.117951 -0.184848 -0.0575863 56 126 130
0.118343 -0.185816 -0.0597351 62 138 140
0.117827 -0.186826 -0.0609962 58 129 134
0.117764 -0.187819 -0.0627092 56 122 126
0.117701 -0.188816 -0.0644277 56 118 121
0.117183 -0.189829 -0.065693 59 108 111
0.116666 -0.190842 -0.0669583 66 90 91
0.118476 -0.178582 -0.0508001 68 83 76
0.117965 -0.179583 -0.052051 65 114 108
0.117004 -0.180611 -0.0528689 62 131 134
0.116493 -0.181611 -0.0541181 48 112 123
0.115981 -0.182611 -0.0553674 53 120 129
0.115917 -0.183589 -0.0570558 63 137 141
0.11675 -0.184528 -0.0596382 59 132 138
0.117138 -0.185496 -0.0617936 57 122 127
0.117074 -0.186487 -0.063508 56 117 121
0.11701 -0.187482 -0.0652278 59 114 113
0.116492 -0.188495 -0.0664932 64 98 93
0.116959 -0.17636 -0.0490575 67 75 74
0.116449 -0.177357 -0.0503027 64 103 100
0.115939 -0.178353 -0.051548 65 129 127
0.11543 -0.17935 -0.0527935 52 119 128
0.11492 -0.180347 -0.054039 52 121 126
0.114854 -0.181318 -0.0557202 59 132 137
0.114787 -0.182293 -0.0574067 63 136 143
0.115167 -0.183247 -0.059542 58 124 130
0.115997 -0.184186 -0.0621401 56 117 121
0.115932 -0.185175 -0.0638525 59 116 117
0.115866 -0.186166 -0.0655704 63 102 101
0.116342 -0.174085 -0.0481749 67 71 70
0.115833 -0.175081 -0.0494183 65 91 96
0.114882 -0.176109 -0.0502352 61 121 126
0.114374 -0.177103 -0.0514769 54 124 129
0.113865 -0.178097 -0.0527187 52 115 122
0.113798 -0.179061 -0.0543928 55 129 135
0.11373 -0.180029 -0.0560721 63 140 144
0.113662 -0.181 -0.0577567 59 128 134
0.113593 -0.181974 -0.0594465 57 118 123
0.114414 -0.182905 -0.0620363 57 116 118
0.114794 -0.183866 -0.0641961 60 108 108
0.114726 -0.184854 -0.065912 66 88 85
0.116172 -0.171777 -0.047717 67 71 66
0.11522 -0.172811 -0.0485365 65 89 87
0.11427 -0.173842 -0.0493536 62 117 118
0.113763 -0.174834 -0.0505935 57 125 133
0.113255 -0.175826 -0.0518334 49 115 125
0.112748 -0.176818 -0.0530734 53 124 130
0.112679 -0.17778 -0.0547456 64 139 142
0.112609 -0.178744 -0.056423 61 132 141
0.112539 -0.179712 -0.0581057 56 122 126
0.112469 -0.180682 -0.0597936 56 117 120
0.113283 -0.181605 -0.0623811 58 114 113
0.113659 -0.182561 -0.0645389 64 95 92
0.115557 -0.169513 -0.0468377 66 69 64
0.114608 -0.170548 -0.0476574 63 81 79
0.1141 -0.17154 -0.0488972 63 109 109
0.113154 -0.172571 -0.0497127 60 128 132
0.112647 -0.173562 -0.0509508 51 119 129
0.112141 -0.174553 -0.0521889 54 123 128
0.111634 -0.175543 -0.0534271 59 133 138
0.111563 -0.176502 -0.0550975 63 138 143
0.111491 -0.177463 -0.056773 57 122 130
0.11142 -0.178427 -0.0584538 55 118 122
0.111348 -0.179394 -0.0601398 59 115 116
0.111715 -0.180337 -0.0622774 62 99 98
0.114437 -0.168247 -0.0472009 65 74 74
0.113491 -0.169283 -0.0480189 64 100 102
0.112984 -0.170273 -0.0492569 61 124 128
0.112477 -0.171264 -0.0504951 54 123 131
0.111971 -0.172255 -0.0517333 52 119 126
0.111464 -0.173245 -0.0529716 56 131 137
0.110957 -0.174236 -0.05421 62 138 143
0.11045 -0.175227 -0.0554484 56 126 134
0.110377 -0.176185 -0.0571221 54 119 122
0.110304 -0.177145 -0.0588009 56 117 120
0.110231 -0.178109 -0.060485 59 104 108
0.110157 -0.179076 -0.0621744 64 81 80
0.113828 -0.165994 -0.0463251 67 68 68
0.113321 -0.166984 -0.0475631 64 92 94
0.112814 -0.167975 -0.0488012 62 122 124
0.111871 -0.16901 -0.0496157 56 127 133
0.111365 -0.169999 -0.0508521 50 117 126
0.110859 -0.170988 -0.0520886 55 127 133
0.110353 -0.171978 -0.0533251 62 138 142
0.11028 -0.172929 -0.0549929 59 132 139
0.109773 -0.17392 -0.0562315 55 120 124
0.109266 -0.174911 -0.0574702 53 118 120
0.109191 -0.175868 -0.0591472 59 114 113
0.109116 -0.176828 -0.0608293 63 89 89
0.112714 -0.164737 -0.046688 62 82 81
0.112208 -0.165726 -0.0479243 63 116 116
0.111267 -0.166762 -0.048739 58 128 133
0.110762 -0.16775 -0.0499735 51 120 129
0.110256 -0.168738 -0.0512082 54 124 130
0.110183 -0.169682 -0.0528701 58 134 140
0.109677 -0.170672 -0.0541068 62 137 140
0.109171 -0.171661 -0.0553436 56 122 126
0.109096 -0.172612 -0.0570147 55 119 120
0.108589 -0.173603 -0.0582536 56 117 117
0.108513 -0.174558 -0.0599318 63 97 96
0.112108 -0.162496 -0.0458156 61 75 75
0.111603 -0.163483 -0.04705 62 106 105
0.111098 -0.164471 -0.0482845 59 127 130
0.11016 -0.165508 -0.0490976 52 122 131
0.109655 -0.166494 -0.0503304 52 120 128
0.109582 -0.167434 -0.0519886 58 132 138
0.109076 -0.168421 -0.0532234 61 136 142
0.109001 -0.169366 -0.0548888 56 125 130
0.108495 -0.170355 -0.0561256 54 118 119
0.108419 -0.171304 -0.0577981 57 120 117
0.107912 -0.172295 -0.0590371 61 106 106
0.107835 -0.173248 -0.0607167 65 78 76
0.111504 -0.160261 -0.0449458 64 68 67
0.111 -0.161247 -0.0461784 61 95 97
0.110495 -0.162233 -0.0474111 61 123 126
0.10956 -0.163272 -0.0482242 54 124 132
0.109056 -0.164256 -0.0494552 49 119 129
0.108982 -0.165191 -0.0511096 56 130 135
0.108477 -0.166178 -0.0523427 61 137 142
0.108401 -0.167117 -0.0540041 58 130 136
0.108325 -0.168059 -0.0556708 55 119 121
0.107819 -0.169049 -0.0569078 54 117 116
0.107742 -0.169996 -0.0585815 61 114 110
0.107235 -0.170987 -0.0598207 64 84 84
0.107156 -0.171938 -0.0615017 67 70 65
0.110399 -0.159017 -0.0453093 64 86 82
0.109895 -0.160002 -0.0465402 64 119 118
0.109391 -0.160986 -0.0477711 56 125 130
0.108887 -0.161971 -0.0490021 51 119 128
0.108383 -0.162956 -0.0502333 53 126 133
0.107879 -0.16394 -0.0514645 58 136 142
0.107803 -0.164875 -0.0531222 60 134 139
0.107726 -0.165813 -0.054785 54 119 127
0.107649 -0.166753 -0.0564529 54 117 118
0.107143 -0.167743 -0.0576901 58 115 113
0.107064 -0.168687 -0.0593652 61 97 94
0.106557 -0.169679 -0.0606044 65 74 64
0.109799 -0.156794 -0.0444428 64 78 77
0.109296 -0.157777 -0.0456719 65 112 110
0.108793 -0.15876 -0.046901 58 126 129
0.10829 -0.159743 -0.0481302 52 120 128
0.107787 -0.160727 -0.0493595 52 123 129
0.107284 -0.16171 -0.050589 58 134 138
0.107206 -0.16264 -0.0522428 60 135 140
0.107129 -0.163572 -0.0539018 55 123 131
0.107051 -0.164508 -0.0555659 53 116 122
0.106973 -0.165446 -0.0572352 55 115 116
0.106466 -0.166436 -0.0584725 60 103 105
0.106387 -0.167379 -0.060149 61 73 73
0.109202 -0.154578 -0.0435789 64 71 71
0.108273 -0.155623 -0.0443943 62 102 104
0.107771 -0.156603 -0.0456197 59 125 130
0.107269 -0.157583 -0.0468453 51 121 129
0.107192 -0.158504 -0.0484884 50 120 127
0.10669 -0.159486 -0.049716 57 131 135
0.106612 -0.160411 -0.0513661 60 136 140
0.106108 -0.161394 -0.0525957 57 128 133
0.106029 -0.162323 -0.0542528 53 118 121
0.105949 -0.163256 -0.0559151 54 115 119
0.106296 -0.164139 -0.0580176 57 109 111
0.10579 -0.165129 -0.0592551 61 75 83
0.108105 -0.153348 -0.043943 61 92 92
0.106755 -0.154459 -0.0443461 62 125 125
0.105834 -0.1555 -0.0451568 52 124 131
0.105334 -0.156476 -0.046377 49 119 127
0.105254 -0.15739 -0.0480121 54 126 133
0.105596 -0.158248 -0.0500715 60 135 140
0.105516 -0.15917 -0.0517198 60 131 135
0.105436 -0.160095 -0.0533731 54 117 122
0.105356 -0.161022 -0.0550316 53 116 118
0.105275 -0.161952 -0.0566952 58 113 113
0.105619 -0.162832 -0.0588002 64 94 93
0.106665 -0.151283 -0.0422675 60 81 83
0.105745 -0.152327 -0.0430801 61 121 118
0.104828 -0.153368 -0.0438903 54 128 132
0.10433 -0.154341 -0.0451069 50 121 128
0.103832 -0.155314 -0.0463235 50 125 131
0.10375 -0.156224 -0.0479538 56 135 139
0.104086 -0.157076 -0.0500069 59 132 137
0.104424 -0.157933 -0.0520725 54 121 128
0.104342 -0.158854 -0.0537241 53 115 119
0.104682 -0.15972 -0.0558105 55 114 115
0.1046 -0.160649 -0.0574754 60 101 101
0.104518 -0.16158 -0.0591455 66 72 71
0.105657 -0.149164 -0.0410095 60 75 77
0.105159 -0.150136 -0.0422259 60 107 108
0.104244 -0.151179 -0.0430363 56 127 132
0.103747 -0.152151 -0.0442511 47 119 130
0.103249 -0.153122 -0.0454659 49 123 130
0.102752 -0.154093 -0.0466809 55 134 137
0.102669 -0.155 -0.0483094 56 133 138
0.102585 -0.15591 -0.0499429 55 124 132
0.102917 -0.156761 -0.0520022 53 117 123
0.103671 -0.157556 -0.0545006 54 114 118
0.103588 -0.158479 -0.0561585 60 104 106
0.103504 -0.159404 -0.0578216 60 77 82
0.103843 -0.160275 -0.0599271 65 67 62
0.104655 -0.147057 -0.039759 66 68 72
0.104158 -0.148027 -0.0409718 59 95 99
0.103247 -0.14907 -0.0417816 59 125 130
0.102752 -0.150038 -0.0429929 47 121 131
0.102256 -0.151006 -0.0442042 46 118 128
0.102172 -0.151906 -0.0458241 52 127 134
0.102088 -0.152809 -0.0474489 57 135 138
0.10159 -0.15378 -0.0486641 58 128 132
0.101505 -0.154687 -0.0502958 54 117 122
0.101833 -0.155533 -0.0523532 53 116 119
0.102581 -0.156321 -0.0548496 57 110 110
0.102915 -0.157179 -0.0569365 63 91 87
0.10283 -0.158102 -0.0586008 66 65 56
0.103577 -0.145852 -0.0401245 59 85 88
0.103081 -0.14682 -0.0413357 62 123 122
0.102173 -0.147863 -0.0421439 51 125 132
0.101678 -0.14883 -0.0433535 45 118 127
0.101183 -0.149797 -0.0445631 49 125 133
0.101097 -0.150694 -0.0461813 57 134 140
0.101012 -0.151593 -0.0478044 57 130 136
0.100926 -0.152495 -0.0494324 53 119 126
0.100428 -0.153467 -0.0506478 53 115 118
0.100753 -0.154308 -0.0527033 54 114 114
0.101494 -0.15509 -0.0551976 61 99 95
0.101824 -0.155942 -0.0572826 66 68 62
0.102997 -0.143683 -0.0392797 59 75 79
0.102502 -0.14465 -0.0404891 58 112 111
0.102007 -0.145617 -0.0416986 58 128 131
0.101512 -0.146584 -0.0429083 49 117 126
0.101017 -0.147551 -0.0441179 48 122 129
0.100521 -0.148518 -0.0453277 56 133 137
0.100026 -0.149485 -0.0465376 56 131 138
0.0999389 -0.150381 -0.0481589 52 122 129
0.0998513 -0.15128 -0.0497851 51 116 121
0.0997635 -0.152182 -0.0514163 54 114 116
0.100086 -0.153019 -0.0534743 59 104 104
0.099998 -0.153928 -0.0551186 62 78 78
0.102831 -0.141436 -0.0388343 66 65 69
0.102336 -0.142403 -0.0400438 62 97 104
0.101841 -0.14337 -0.0412533 60 127 132
0.101346 -0.144337 -0.0424629 48 117 127
0.10085 -0.145304 -0.0436727 48 120 126
0.100355 -0.146271 -0.0448825 53 129 135
0.0998599 -0.147238 -0.0460924 55 133 139
0.0993645 -0.148205 -0.0473024 54 126 131
0.0992762 -0.1491 -0.048925 52 118 121
0.09878 -0.150068 -0.050137 53 116 117
0.0986906 -0.150967 -0.0517664 56 108 110
0.0986009 -0.151868 -0.0534008 61 86 83
0.102254 -0.139277 -0.0379925 67 66 64
0.101759 -0.140242 -0.0392003 63 86 88
0.101265 -0.141208 -0.0404081 64 125 128
0.10077 -0.142173 -0.041616 49 120 129
0.100276 -0.143138 -0.042824 45 116 124
0.099781 -0.144104 -0.044032 46 125 134
0.0992864 -0.14507 -0.0452402 54 135 141
0.0991981 -0.145958 -0.0468573 54 129 134
0.0987028 -0.146925 -0.0480674 51 118 124
0.0982073 -0.147893 -0.0492776 52 114 118
0.0981171 -0.148787 -0.0509033 56 111 113
0.0980266 -0.149683 -0.052534 64 95 95
0.0975296 -0.150654 -0.0537481 72 66 63
0.101184 -0.138087 -0.0383592 59 81 79
0.10069 -0.139051 -0.0395653 61 122 116
0.100196 -0.140015 -0.0407715 55 129 132
0.0997025 -0.140979 -0.0419777 46 115 122
0.0992086 -0.141943 -0.043184 47 124 129
0.0987147 -0.142908 -0.0443904 54 134 138
0.0986257 -0.143791 -0.0460039 53 130 136
0.0981309 -0.144757 -0.0472122 49 121 126
0.0980408 -0.145645 -0.0488325 48 117 119
0.0975453 -0.146612 -0.0500428 52 113 116
0.0970497 -0.14758 -0.0512533 60 97 103
0.0969577 -0.148474 -0.0528822 68 71 78
0.10061 -0.135939 -0.0375207 63 71 72
0.100117 -0.136901 -0.038725 57 106 107
0.0996243 -0.137864 -0.0399294 58 129 134
0.0991311 -0.138826 -0.0411339 46 114 124
0.0986379 -0.139789 -0.0423385 46 121 125
0.0981447 -0.140752 -0.0435432 51 131 134
0.0980549 -0.141631 -0.045153 53 133 138
0.0975609 -0.142595 -0.0463596 51 124 130
0.09747 -0.143479 -0.0479762 49 116 122
0.0973788 -0.144365 -0.0495977 50 115 118
0.0968832 -0.145332 -0.0508082 53 105 108
0.0963876 -0.1463 -0.0520188 58 84 85
0.0958919 -0.147267 -0.0532294 66 66 63
0.0991417 -0.134851 -0.037494 63 93 97
0.09865 -0.13581 -0.0386948 64 129 132
0.0981583 -0.13677 -0.0398958 47 119 129
0.0976666 -0.13773 -0.0410969 47 116 123
0.0975763 -0.138602 -0.0426984 50 127 133
0.0970837 -0.139563 -0.0439014 57 138 140
0.0969925 -0.14044 -0.0455095 54 128 131
0.0969009 -0.141318 -0.0471225 48 118 124
0.096809 -0.1422 -0.0487403 48 116 122
0.0967167 -0.143084 -0.0503631 54 113 113
0.096221 -0.144052 -0.0515737 62 93 88
0.0957254 -0.145019 -0.0527844 66 68 58
0.0977711 -0.132908 -0.035881 61 83 85
0.0976815 -0.133769 -0.0374675 61 125 124
0.0971912 -0.134726 -0.038665 51 127 131
0.0967009 -0.135683 -0.0398626 45 113 122
0.0962105 -0.13664 -0.0410602 48 124 131
0.0961183 -0.137508 -0.042657 57 136 138
0.0960259 -0.138378 -0.0442586 53 129 136
0.0959331 -0.139251 -0.0458651 51 118 126
0.0962407 -0.140041 -0.0478854 50 116 120
0.0961477 -0.140921 -0.0495046 55 115 116
0.0956528 -0.141887 -0.0507134 61 99 97
0.0955588 -0.142771 -0.0523394 64 72 69
0.0960169 -0.13108 -0.0338984 62 76 76
0.0963214 -0.131836 -0.0358595 60 113 111
0.0958332 -0.132789 -0.0370517 58 131 135
0.095345 -0.133742 -0.0382441 46 112 121
0.0948567 -0.134694 -0.0394365 47 123 126
0.0943684 -0.135647 -0.0406291 55 133 136
0.0950649 -0.136329 -0.0430151 54 132 138
0.0949709 -0.137196 -0.044615 53 122 127
0.0948766 -0.138067 -0.0462197 52 115 119
0.0955805 -0.138764 -0.0486485 52 112 116
0.0950862 -0.139729 -0.0498556 54 99 105
0.0949914 -0.140608 -0.0514779 60 77 77
0.0954592 -0.128972 -0.0330785 67 72 72
0.0949731 -0.129921 -0.0342655 60 97 100
0.09488 -0.130771 -0.0358381 64 132 135
0.0943931 -0.131721 -0.037027 46 113 127
0.0942989 -0.132575 -0.0386063 46 118 121
0.0938113 -0.133526 -0.0397971 48 128 132
0.0933237 -0.134478 -0.040988 57 134 139
0.0932277 -0.135338 -0.0425756 54 124 132
0.093919 -0.136018 -0.0449704 50 116 123
0.0938233 -0.136885 -0.0465734 52 114 118
0.0945213 -0.137576 -0.0490004 57 108 109
0.0944258 -0.138451 -0.050619 62 86 86
0.095296 -0.126766 -0.0326412 64 69 68
0.0948099 -0.127715 -0.0338283 59 87 91
0.0939323 -0.128764 -0.0346316 65 131 127
0.0934468 -0.129711 -0.0358171 48 122 129
0.0933515 -0.13056 -0.0373899 43 113 120
0.0928653 -0.131509 -0.0385773 44 123 131
0.0927689 -0.132361 -0.0401567 56 133 138
0.0922819 -0.133311 -0.041346 55 126 134
0.0921844 -0.134168 -0.0429319 52 117 123
0.0920867 -0.135028 -0.0445225 50 114 118
0.0931667 -0.135615 -0.0473321 56 113 112
0.0934651 -0.136392 -0.0493513 63 93 90
0.0942547 -0.125614 -0.0330096 59 81 83
0.0937693 -0.126561 -0.034195 57 120 116
0.0928943 -0.127611 -0.0349967 53 131 134
0.0924095 -0.128557 -0.0361807 42 109 118
0.0919247 -0.129502 -0.0373646 45 125 128
0.0918272 -0.13035 -0.0389377 52 134 136
0.0913416 -0.131297 -0.0401236 50 130 136
0.091243 -0.132148 -0.0417031 49 119 127
0.0911441 -0.133002 -0.0432874 50 114 120
0.091434 -0.133765 -0.0452769 53 112 115
0.0921172 -0.134438 -0.047684 56 97 102
0.0920186 -0.135303 -0.0492913 61 75 76
0.0940917 -0.123411 -0.0325729 67 71 70
0.0936063 -0.124358 -0.0337584 60 106 102
0.0927316 -0.125411 -0.0345608 62 132 133
0.0922467 -0.126357 -0.0357448 41 109 121
0.0917619 -0.127302 -0.0369288 45 121 120
0.091277 -0.128248 -0.0381129 49 130 132
0.0907921 -0.129194 -0.0392971 55 135 136
0.0906928 -0.130041 -0.0408732 52 122 124
0.0902071 -0.130988 -0.0420593 48 114 119
0.0901068 -0.13184 -0.0436419 50 113 118
0.0903931 -0.132597 -0.0456296 55 104 107
0.090681 -0.13336 -0.0476292 59 82 83
0.0930535 -0.122265 -0.032941 61 87 96
0.0925688 -0.123211 -0.0341249 62 128 131
0.0916967 -0.124264 -0.0349257 47 113 123
0.0912126 -0.125208 -0.0361081 44 112 116
0.0907283 -0.126152 -0.0372905 47 126 130
0.0902441 -0.127097 -0.038473 57 136 137
0.0897598 -0.128041 -0.0396556 53 124 128
0.0896591 -0.128886 -0.0412301 50 114 120
0.0895581 -0.129732 -0.0428092 49 114 116
0.0894567 -0.130582 -0.044393 54 111 110
0.089355 -0.131433 -0.0459815 60 90 86
0.0925024 -0.120178 -0.0321258 63 80 89
0.0920183 -0.121122 -0.0333081 61 125 125
0.0915341 -0.122066 -0.0344904 47 124 129
0.0910499 -0.123011 -0.0356728 43 109 116
0.0905656 -0.123955 -0.0368553 44 121 128
0.0900814 -0.1249 -0.0380378 55 133 136
0.089597 -0.125844 -0.0392205 54 129 133
0.0891127 -0.126789 -0.0404032 51 118 122
0.089011 -0.127631 -0.0419789 49 113 118
0.0885259 -0.128577 -0.0431635 53 113 114
0.0884231 -0.129424 -0.0447456 56 95 97
0.0923398 -0.11798 -0.0316903 64 77 78
0.0918557 -0.118925 -0.0328726 58 116 112
0.0913714 -0.119869 -0.034055 55 130 133
0.0908872 -0.120813 -0.0352374 43 109 118
0.0904029 -0.121757 -0.0364199 46 122 125
0.0899186 -0.122702 -0.0376026 51 130 132
0.0894342 -0.123646 -0.0387853 53 130 136
0.0889499 -0.124591 -0.039968 51 120 124
0.0884655 -0.125536 -0.0411509 49 115 119
0.087981 -0.12648 -0.0423339 49 112 116
0.0878776 -0.127322 -0.0439126 53 100 105
0.0910204 -0.11614 -0.030128 63 73 72
0.0909221 -0.116962 -0.0316814 58 100 101
0.0908235 -0.117788 -0.0332394 59 130 135
0.0903399 -0.118731 -0.0344202 42 111 124
0.0898563 -0.119674 -0.0356011 44 115 120
0.0893726 -0.120617 -0.036782 47 125 130
0.0892715 -0.121449 -0.03835 53 133 136
0.0887871 -0.122393 -0.0395329 52 121 127
0.0883026 -0.123338 -0.0407158 51 115 120
0.0878181 -0.124282 -0.0418988 50 113 118
0.0873336 -0.125227 -0.0430818 52 108 110
0.0872292 -0.126067 -0.0446617 59 86 86
0.0900933 -0.114194 -0.0289498 66 68 66
0.0896126 -0.115131 -0.0301236 60 90 95
0.0895125 -0.11595 -0.0316727 61 129 132
0.089412 -0.116772 -0.0332263 44 118 131
0.0889297 -0.117712 -0.0344038 43 111 121
0.0888283 -0.118537 -0.0359638 46 122 131
0.0887265 -0.119365 -0.0375284 55 133 138
0.0882427 -0.120308 -0.0387096 52 125 132
0.0877589 -0.121251 -0.0398908 50 117 121
0.0876553 -0.122084 -0.0414636 50 114 116
0.0871707 -0.123029 -0.0426467 54 112 112
0.0866861 -0.123974 -0.0438299 58 93 93
0.0862015 -0.124919 -0.0450133 61 70 68
0.088793 -0.112382 -0.0274104 62 69 66
0.0883143 -0.113316 -0.0285792 58 83 89
0.0878356 -0.114249 -0.0297481 66 131 128
0.0877333 -0.115063 -0.0312901 66 145 150
0.0872538 -0.115998 -0.0324608 46 113 128
0.0867743 -0.116933 -0.0336317 45 121 130
0.0874243 -0.11752 -0.0359432 50 131 137
0.0873207 -0.118344 -0.0375034 52 128 135
0.0872168 -0.11917 -0.0390681 52 118 124
0.0867336 -0.120112 -0.0402478 50 114 118
0.0866286 -0.120943 -0.041819 52 113 114
0.0861447 -0.121886 -0.0430005 57 99 101
0.0860385 -0.12272 -0.0445782 62 76 74
0.0871299 -0.110711 -0.0255211 68 66 63
0.0866539 -0.111639 -0.0266833 65 75 74
0.0861779 -0.112567 -0.0278455 59 114 113
0.0857018 -0.113495 -0.0290079 65 151 154
0.0852257 -0.114423 -0.0301703 67 151 162
0.0851201 -0.115233 -0.0317043 61 137 144
0.0846433 -0.116162 -0.0328685 55 134 139
0.0856539 -0.116626 -0.0355427 54 135 140
0.085923 -0.117329 -0.0374786 50 123 129
0.0858172 -0.118152 -0.0390389 51 115 121
0.0857112 -0.118977 -0.0406039 51 113 117
0.0856047 -0.119804 -0.0421735 55 105 106
0.0854979 -0.120634 -0.0437477 62 83 82
0.086494 -0.109478 -0.0262551 61 70 67
0.0852764 -0.110655 -0.0266889 56 89 92
0.0848016 -0.111581 -0.027848 58 134 136
0.0843268 -0.112506 -0.0290072 63 153 159
0.083852 -0.113432 -0.0301664 64 150 159
0.0833772 -0.114357 -0.0313258 66 146 151
0.0832692 -0.115165 -0.0328572 60 137 143
0.0835291 -0.115857 -0.0347689 55 130 136
0.0841614 -0.116437 -0.0370723 52 120 125
0.0844257 -0.117138 -0.0390101 52 115 120
0.0843178 -0.117959 -0.0405706 55 110 111
0.0842096 -0.118783 -0.0421357 59 89 89
0.0859623 -0.107446 -0.0254643 61 68 62
0.0851168 -0.1085 -0.0262619 55 79 81
0.0842738 -0.109552 -0.0270573 51 109 113
0.0837996 -0.110476 -0.0282149 50 132 136
0.0829595 -0.111523 -0.0290065 58 140 147
0.082486 -0.112446 -0.0301626 62 141 150
0.0820125 -0.113369 -0.0313188 63 140 146
0.0819028 -0.114173 -0.032846 58 137 142
0.082158 -0.11486 -0.0347523 57 131 137
0.0824147 -0.115552 -0.0366696 56 124 128
0.0823047 -0.116365 -0.0382157 56 115 118
0.0829324 -0.116948 -0.0405376 60 94 98
0.0824525 -0.117883 -0.0417092 64 72 71
0.0841145 -0.107399 -0.026631 52 102 102
0.0832739 -0.108451 -0.0274248 49 122 128
0.0828004 -0.109374 -0.0285809 49 129 136
0.0823268 -0.110297 -0.029737 55 134 141
0.0818533 -0.111219 -0.0308932 61 138 144
0.0813796 -0.112142 -0.0320495 58 134 141
0.080906 -0.113065 -0.0332059 56 135 141
0.0807946 -0.113869 -0.034736 61 136 141
0.0810466 -0.114556 -0.0366479 64 129 132
0.0809349 -0.115365 -0.0381896 61 107 112
0.0811883 -0.11606 -0.0401199 63 78 82
0.0810763 -0.116875 -0.0416733 64 63 61
0.0826412 -0.107224 -0.0281552 47 126 135
0.0821676 -0.108147 -0.0293114 53 130 140
0.081331 -0.109196 -0.0301006 59 134 142
0.0812204 -0.109993 -0.031624 59 135 143
0.0807467 -0.110916 -0.0327804 55 130 137
0.080273 -0.111839 -0.0339369 52 131 137
0.0797992 -0.112762 -0.0350935 63 135 140
0.0796862 -0.113565 -0.0366265 68 124 128
0.0795728 -0.114371 -0.0381639 62 92 96
0.0798215 -0.115061 -0.0400886 60 70 69
0.0820084 -0.105997 -0.0288856 50 130 137
0.0815348 -0.10692 -0.030042 57 133 142
0.0806989 -0.107971 -0.0308303 61 134 141
0.0805874 -0.108766 -0.0323548 56 132 139
0.0801136 -0.109689 -0.0335114 52 125 132
0.0796399 -0.110612 -0.034668 49 123 128
0.0791661 -0.111535 -0.0358247 63 125 127
0.0790521 -0.112337 -0.0373589 67 104 106
0.0789377 -0.113141 -0.0388975 63 76 72
0.0809018 -0.105693 -0.0307727 58 135 141
0.0804281 -0.106616 -0.0319292 58 132 137
0.0799543 -0.107539 -0.0330858 52 128 133
0.0794805 -0.108462 -0.0342425 49 120 126
0.0790066 -0.109385 -0.0353993 51 115 118
0.0785328 -0.110309 -0.0365561 60 104 104
0.0784178 -0.111108 -0.0380914 68 78 79
0.0797949 -0.105389 -0.0326602 53 129 133
0.0793211 -0.106312 -0.0338169 48 123 127
0.0788472 -0.107235 -0.0349737 48 116 122
0.0783733 -0.108158 -0.0361306 54 106 109
0.0778994 -0.109082 -0.0372876 61 80 83
0.0782138 -0.106008 -0.0357051 50 111 115
0.0777399 -0.106931 -0.0368621 55 88 95
