ply
format ascii 1.0
element vertex 1159
property float x
property float y
property float z
property uchar diffuse_red
property uchar diffuse_green
property uchar diffuse_blue
end_header
0.0434607 -0.248187 -0.0375798 75 137 59
0.0417565 -0.24897 -0.0378036 86 154 69
0.0396032 -0.249187 -0.03747 96 165 74
0.0383672 -0.250526 -0.0382484 110 169 76
0.0371313 -0.251865 -0.0390267 124 171 75
0.0358956 -0.253203 -0.039805 128 172 76
0.00932951 -0.23551 -0.0194084 144 157 80
0.00892644 -0.237732 -0.0210885 138 138 74
0.0107502 -0.24302 -0.0257435 115 112 71
0.0110999 -0.246348 -0.0284852 90 92 77
0.0106935 -0.248661 -0.0302376 77 85 76
0.00952725 -0.249924 -0.0309721 71 78 65
0.00836113 -0.251187 -0.0317065 70 71 52
0.00719504 -0.25245 -0.0324408 68 60 42
0.0060291 -0.253713 -0.0331751 59 45 37
0.0547839 -0.190077 0.00377933 79 111 66
0.0536341 -0.191322 0.00305524 102 155 73
0.0511589 -0.191302 0.00366733 104 159 74
0.0487089 -0.191281 0.0042733 104 161 76
0.0462837 -0.191261 0.0048732 107 163 75
0.042211 -0.189597 0.00718933 108 163 76
0.0398582 -0.189585 0.00776496 109 165 76
0.0379328 -0.189978 0.00791266 111 167 77
0.0364211 -0.190773 0.00763742 117 175 79
0.0353135 -0.191973 0.0069399 127 186 92
0.034206 -0.193172 0.00624248 120 176 86
0.0330985 -0.194372 0.00554506 112 171 80
0.0589572 -0.226509 -0.0264981 112 174 80
0.0577197 -0.227849 -0.0272773 113 173 82
0.0559976 -0.228666 -0.0275195 111 169 81
0.0547626 -0.230004 -0.0282972 107 163 77
0.0540079 -0.23187 -0.0296149 91 143 68
0.0532506 -0.233742 -0.0309373 76 125 56
0.0524905 -0.235622 -0.0322646 78 132 59
0.0517277 -0.237508 -0.0335967 86 144 66
0.0509622 -0.239401 -0.0349337 89 146 69
0.050194 -0.241301 -0.0362756 79 132 65
0.0489458 -0.242653 -0.0370616 59 111 59
0.0476977 -0.244005 -0.0378476 55 115 55
0.0464498 -0.245357 -0.0386334 57 123 57
0.0447335 -0.246148 -0.0388562 60 132 62
0.043488 -0.247497 -0.0396405 68 144 69
0.0417805 -0.248282 -0.0398609 77 155 75
0.0400794 -0.249064 -0.0400803 88 163 79
0.0379323 -0.249282 -0.0397383 97 166 78
0.0366963 -0.25062 -0.0405167 104 169 79
0.0372619 -0.25424 -0.0435613 111 172 79
0.0169046 -0.25082 -0.035916 142 219 116
0.0125957 -0.247806 -0.0324579 140 222 119
0.0114232 -0.249076 -0.0331963 147 215 115
0.0102507 -0.250346 -0.0339346 152 184 96
0.00907838 -0.251616 -0.0346729 135 146 79
0.00790615 -0.252886 -0.0354111 102 98 60
0.00636031 -0.253615 -0.0356252 73 52 38
0.00519034 -0.254882 -0.036362 60 55 35
0.0543826 -0.188917 0.00239632 81 116 65
0.0527881 -0.189743 0.00212025 98 154 73
0.0503214 -0.189731 0.00273606 99 155 72
0.0483114 -0.190133 0.00290429 100 156 73
0.0458881 -0.190119 0.00351105 103 159 73
0.04182 -0.188469 0.00584301 105 159 74
0.0390611 -0.188059 0.00685149 104 161 75
0.0375449 -0.188859 0.00657741 108 163 75
0.0360337 -0.189656 0.00630435 118 175 80
0.034926 -0.190856 0.00560684 125 185 91
0.0338184 -0.192056 0.00490938 121 177 86
0.0600148 -0.22156 -0.025363 117 173 82
0.0597614 -0.223921 -0.0272087 116 176 84
0.0575484 -0.224231 -0.0269161 117 178 84
0.0563154 -0.225567 -0.0276925 117 173 82
0.0555647 -0.227421 -0.0290067 111 168 78
0.0548114 -0.229283 -0.0303257 104 159 74
0.0535741 -0.230623 -0.0311049 94 148 68
0.0532966 -0.233026 -0.0329782 76 127 56
0.0525351 -0.234907 -0.0343117 76 133 57
0.0517709 -0.236796 -0.0356501 87 145 66
0.051004 -0.238691 -0.0369934 93 147 68
0.0497556 -0.240044 -0.0377795 79 130 58
0.0494617 -0.242503 -0.0396949 49 101 41
0.0491658 -0.244981 -0.0416245 32 98 33
0.0479084 -0.246343 -0.0424163 33 104 36
0.0466511 -0.247705 -0.043208 35 110 40
0.0453939 -0.249067 -0.0439997 39 114 42
0.0441367 -0.250429 -0.0447913 47 117 44
0.0424121 -0.251216 -0.0450041 56 118 45
0.040694 -0.252 -0.0452159 66 120 45
0.0389825 -0.252781 -0.045427 67 122 51
0.0391092 -0.255874 -0.0479572 71 125 56
0.0383124 -0.257822 -0.0493355 73 128 59
0.0172815 -0.250709 -0.0384239 99 175 93
0.0156911 -0.251456 -0.0386367 106 182 96
0.0141064 -0.252199 -0.0388487 111 186 99
0.0125275 -0.252941 -0.0390599 111 189 105
0.0109542 -0.253679 -0.0392704 111 165 96
0.00900494 -0.25387 -0.0389455 102 116 71
0.00744627 -0.254602 -0.0391549 78 53 38
0.00626795 -0.255879 -0.0398969 66 51 34
0.0539813 -0.187757 0.00101309 81 118 64
0.0523873 -0.188585 0.000739345 96 150 71
0.0494866 -0.188165 0.0018077 96 150 70
0.0474827 -0.188572 0.00197876 96 152 71
0.0450676 -0.188566 0.00258916 99 154 71
0.0410156 -0.186937 0.00492794 101 155 71
0.0386725 -0.186938 0.00551381 100 156 72
0.0375609 -0.188142 0.00481387 103 158 73
0.0360472 -0.188942 0.00454321 121 177 83
0.0349376 -0.190144 0.00384455 124 182 90
0.0583497 -0.221652 -0.0276243 122 178 87
0.0566323 -0.222478 -0.0278651 121 177 87
0.0554014 -0.223811 -0.0286401 120 172 83
0.055615 -0.226695 -0.0310368 113 166 80
0.0548603 -0.228559 -0.032362 105 158 76
0.0541029 -0.230429 -0.0336921 100 151 72
0.0538262 -0.23284 -0.0355819 79 132 59
0.0525798 -0.23419 -0.0363667 74 132 57
0.0518142 -0.236081 -0.0377114 85 143 65
0.0510458 -0.237979 -0.0390611 92 147 68
0.0502746 -0.239884 -0.0404157 80 132 58
0.0499815 -0.242352 -0.0423481 64 112 44
0.0496862 -0.244839 -0.0442949 52 112 39
0.0489056 -0.246774 -0.0456719 51 114 42
0.0476411 -0.248144 -0.0464681 52 114 42
0.0463767 -0.249514 -0.0472643 54 115 44
0.0455886 -0.251461 -0.0486493 56 114 45
0.044322 -0.252833 -0.0494468 57 112 44
0.042584 -0.253622 -0.0496524 58 111 40
0.0403872 -0.253826 -0.0492682 58 110 40
0.039128 -0.25519 -0.050061 53 111 43
0.0374099 -0.25597 -0.0502641 46 114 45
0.0361532 -0.257331 -0.0510554 43 116 44
0.0204861 -0.251492 -0.0423848 59 122 47
0.0168602 -0.249508 -0.0398642 64 124 50
0.0156666 -0.2508 -0.0406157 66 124 52
0.0140791 -0.251547 -0.0408246 68 127 53
0.0124973 -0.252291 -0.0410327 66 129 57
0.0113082 -0.253579 -0.0417815 89 141 68
0.00973427 -0.254318 -0.0419874 98 122 66
0.00816597 -0.255054 -0.0421926 74 63 45
0.00660326 -0.255787 -0.042397 63 47 33
0.0531347 -0.186183 8.11312e-05 81 117 63
0.0515448 -0.187013 -0.000190577 95 144 69
0.0490884 -0.187015 0.000435883 97 145 67
0.0470858 -0.187426 0.000611568 95 148 69
0.0446726 -0.187425 0.00122885 96 149 69
0.0406251 -0.18581 0.00358341 96 151 70
0.0390985 -0.186618 0.00331336 98 152 70
0.037577 -0.187423 0.00304427 99 154 72
0.0364635 -0.188629 0.0023432 122 175 83
0.0369682 -0.191471 -0.000108322 121 176 87
0.0574321 -0.219903 -0.0285723 122 177 87
0.0557195 -0.220731 -0.0288108 122 175 87
0.0549701 -0.22257 -0.0301224 119 171 85
0.0551813 -0.225447 -0.0325273 115 165 82
0.0544256 -0.227309 -0.0338553 106 158 78
0.0536673 -0.229177 -0.0351881 107 154 77
0.0538734 -0.232117 -0.0376434 87 139 66
0.0526246 -0.23347 -0.0384296 75 132 59
0.0523409 -0.235906 -0.0403476 83 140 64
0.0515706 -0.237811 -0.0417072 89 145 67
0.0503151 -0.239171 -0.0424977 84 135 62
0.0505051 -0.2422 -0.0450215 74 118 49
0.0497257 -0.24413 -0.0463999 60 108 36
0.0494279 -0.246638 -0.048373 55 111 35
0.0481585 -0.248013 -0.0491723 58 116 39
0.0468893 -0.249388 -0.0499714 58 118 45
0.0460991 -0.251343 -0.0513668 58 120 50
0.0443511 -0.252138 -0.0515696 62 121 53
0.0426097 -0.252929 -0.0517715 72 121 58
0.040875 -0.253718 -0.0519727 69 111 57
0.0386845 -0.253922 -0.0515797 61 112 56
0.0369671 -0.254704 -0.0517799 56 117 55
0.0343528 -0.254326 -0.0508023 57 119 52
0.0326563 -0.255101 -0.0510024 63 120 51
0.029211 -0.25358 -0.0488792 67 123 51
0.0266825 -0.253214 -0.0479333 69 121 49
0.0216789 -0.249518 -0.0436345 67 120 48
0.01884 -0.248636 -0.0421882 66 119 47
0.0168377 -0.248847 -0.0418491 64 118 45
0.0152452 -0.249599 -0.0420563 65 119 45
0.0140516 -0.250892 -0.0428078 75 127 50
0.0124669 -0.251638 -0.0430128 90 140 61
0.0112757 -0.252929 -0.0437629 107 146 69
0.0100844 -0.254219 -0.0445129 103 118 64
0.00850986 -0.254958 -0.0447144 73 58 45
0.00694092 -0.255695 -0.044915 58 52 36
0.0527339 -0.185025 -0.00130025 80 116 59
0.0511446 -0.185856 -0.00156959 91 141 67
0.0486901 -0.185864 -0.000936156 94 143 66
0.0466888 -0.186279 -0.000755837 94 144 66
0.0442775 -0.186285 -0.000131702 94 145 66
0.0406464 -0.185082 0.00180272 93 146 69
0.0391172 -0.185893 0.00153516 94 147 70
0.0379999 -0.187104 0.000831733 95 149 72
0.0376968 -0.189127 -0.000751963 122 174 84
0.0386255 -0.192408 -0.00369019 117 168 83
0.0555569 -0.217164 -0.0284472 119 176 87
0.0543324 -0.21849 -0.0292181 121 175 88
0.0535833 -0.220319 -0.0305257 118 170 86
0.0542658 -0.223686 -0.03347 114 164 82
0.0539909 -0.226059 -0.0353488 107 156 77
0.053714 -0.22845 -0.0372414 109 156 78
0.0534352 -0.230858 -0.039148 98 149 75
0.0526695 -0.232747 -0.0405004 81 133 62
0.0523854 -0.235185 -0.0424297 81 135 61
0.0520993 -0.237641 -0.0443734 87 141 65
0.0518111 -0.240115 -0.0463317 85 134 61
0.0515208 -0.242608 -0.0483047 73 117 49
0.0507389 -0.244551 -0.0496971 50 96 31
0.0494669 -0.245929 -0.0504979 43 102 28
0.0486798 -0.247881 -0.0518971 49 111 34
0.0474056 -0.249261 -0.0526993 52 116 41
0.0461316 -0.250641 -0.0535015 53 120 48
0.0443801 -0.251439 -0.0537006 64 124 57
0.0426353 -0.252234 -0.0538989 86 120 67
0.0404298 -0.252445 -0.0534973 75 76 53
0.0382409 -0.252654 -0.0530986 66 77 45
0.0365242 -0.253439 -0.0532961 61 77 41
0.033464 -0.252494 -0.0517219 61 80 40
0.030011 -0.250997 -0.0495921 63 81 42
0.027478 -0.250645 -0.0486424 65 82 45
0.0249727 -0.250296 -0.0477031 68 81 41
0.0212524 -0.248301 -0.0450935 65 87 46
0.018821 -0.24797 -0.0441881 64 94 53
0.0172161 -0.248728 -0.0443923 63 102 58
0.0156172 -0.249482 -0.0445957 64 111 63
0.01363 -0.249691 -0.0442486 70 121 69
0.0124364 -0.250983 -0.0450001 79 127 77
0.0112429 -0.252276 -0.0457515 80 106 71
0.0100495 -0.253569 -0.046503 75 75 55
0.00847213 -0.254311 -0.0467012 66 51 37
0.00690043 -0.25505 -0.0468987 54 46 37
0.052333 -0.183866 -0.00268183 80 115 58
0.0507443 -0.1847 -0.00294886 89 138 65
0.0487257 -0.185121 -0.00276091 91 141 65
0.0467209 -0.18554 -0.00257418 92 142 66
0.0443053 -0.185549 -0.00193982 93 143 65
0.0414972 -0.185155 -0.000867745 92 144 66
0.0395466 -0.185567 -0.000689959 93 145 69
0.0384255 -0.186782 -0.00139572 94 148 72
0.0393603 -0.190043 -0.00433943 124 179 86
0.0398919 -0.192938 -0.00687343 110 159 77
0.0519121 -0.207526 -0.0221228 106 164 80
0.0558733 -0.214111 -0.0286177 111 172 84
0.0522912 -0.212994 -0.026743 118 175 87
0.0520143 -0.215283 -0.0285603 119 173 88
0.052679 -0.218582 -0.0314637 116 167 86
0.0538326 -0.22244 -0.0349583 111 161 80
0.053556 -0.224809 -0.0368426 107 156 75
0.0532775 -0.227195 -0.0387407 108 158 79
0.052997 -0.229599 -0.0406529 109 160 81
0.0532003 -0.232558 -0.0431524 88 137 65
0.0529171 -0.235005 -0.0450989 79 132 59
0.0521433 -0.236919 -0.0464751 83 138 62
0.0518547 -0.239395 -0.048445 85 135 61
0.0515639 -0.24189 -0.0504297 74 121 52
0.0507805 -0.243836 -0.0518288 50 98 41
0.049506 -0.245216 -0.0526312 36 101 29
0.0482317 -0.246597 -0.0534335 41 109 34
0.0469574 -0.247977 -0.0542357 49 115 39
0.0456833 -0.249358 -0.0550379 53 120 46
0.0444092 -0.250738 -0.05584 68 127 57
0.042661 -0.251536 -0.0560346 94 123 66
0.0399847 -0.251171 -0.0550222 71 62 52
0.0377973 -0.251385 -0.0546178 63 60 38
0.0360813 -0.252172 -0.0548124 56 60 34
0.0330243 -0.251237 -0.053227 55 61 35
0.0300124 -0.250315 -0.0516649 57 60 37
0.0274745 -0.249967 -0.0507021 58 57 37
0.0245415 -0.249066 -0.0491781 59 59 33
0.0212376 -0.247629 -0.0471133 56 63 38
0.0188018 -0.247302 -0.0461956 56 68 43
0.0171941 -0.248062 -0.0463965 56 70 45
0.0155922 -0.24882 -0.0465967 57 72 46
0.013996 -0.249574 -0.0467961 62 77 49
0.0124056 -0.250326 -0.0469947 64 70 46
0.0112099 -0.251621 -0.0477475 63 63 44
0.0100143 -0.252917 -0.0485002 61 55 39
0.00843416 -0.253661 -0.0486954 57 49 34
0.0523751 -0.183114 -0.00452225 83 120 61
0.050344 -0.183543 -0.00432835 92 141 66
0.0483267 -0.183969 -0.00413573 94 142 66
0.0463231 -0.184391 -0.00394439 94 143 67
0.0439094 -0.184406 -0.00330312 94 144 68
0.04152 -0.184421 -0.00266827 94 146 67
0.0403931 -0.185642 -0.00337767 95 148 68
0.0400952 -0.187678 -0.00498882 96 152 72
0.0402128 -0.190142 -0.00706825 125 179 86
0.0394936 -0.191791 -0.00824373 102 149 69
0.0505731 -0.205387 -0.0225442 97 157 73
0.0512154 -0.208557 -0.0253529 109 170 81
0.0500125 -0.20986 -0.0261102 118 175 85
0.0506555 -0.213085 -0.0289646 119 173 87
0.0503727 -0.215374 -0.03079 114 167 85
0.0533994 -0.221194 -0.0364469 108 162 80
0.0531211 -0.223558 -0.0383366 106 161 78
0.0528409 -0.22594 -0.0402403 108 161 80
0.0530425 -0.228868 -0.0427283 117 170 85
0.0537352 -0.232368 -0.0458245 93 143 68
0.0529627 -0.234278 -0.0472022 78 132 59
0.0521874 -0.236194 -0.0485849 80 136 60
0.0518983 -0.238673 -0.0505665 84 137 61
0.0516071 -0.24117 -0.052563 77 127 56
0.0503325 -0.242551 -0.0533654 57 106 50
0.0495452 -0.244501 -0.0547728 35 100 29
0.0477835 -0.245313 -0.0549701 35 107 31
0.0465091 -0.246693 -0.0557723 44 114 38
0.0452349 -0.248074 -0.0565745 50 120 45
0.0434849 -0.248877 -0.0567679 64 130 55
0.0412718 -0.249101 -0.0563547 93 140 67
0.040005 -0.250473 -0.0571522 96 107 70
0.0378134 -0.250691 -0.0567391 75 68 51
0.0356384 -0.250906 -0.056329 60 59 41
0.0325845 -0.24998 -0.0547324 52 59 39
0.0542745 -0.17946 -0.00445815 65 63 43
0.053124 -0.180706 -0.00518244 77 92 54
0.0519735 -0.181953 -0.00590668 90 130 65
0.0499436 -0.182386 -0.00570807 98 149 69
0.0474949 -0.182412 -0.00505367 100 150 69
0.0459252 -0.183242 -0.00531483 99 153 71
0.0439364 -0.183666 -0.0051201 99 154 72
0.0415428 -0.183685 -0.00447503 100 154 71
0.0404139 -0.184908 -0.00518562 100 156 71
0.0401156 -0.186945 -0.00680562 104 164 75
0.0402334 -0.189409 -0.0088978 123 177 89
0.0390952 -0.190642 -0.00961422 95 142 66
0.0496984 -0.203721 -0.0234719 89 151 68
0.049874 -0.206406 -0.0257645 105 169 79
0.0491324 -0.208175 -0.0270381 117 174 84
0.0497678 -0.211382 -0.0298941 117 171 82
0.0494822 -0.213661 -0.0317196 111 166 79
0.0529661 -0.219948 -0.0379357 107 164 80
0.0531666 -0.222821 -0.0403927 105 165 79
0.052886 -0.225205 -0.0423075 107 166 79
0.0535747 -0.228665 -0.0453891 117 174 84
0.0537823 -0.231636 -0.0479294 97 152 74
0.0530084 -0.233548 -0.0493136 79 133 61
0.0527222 -0.236016 -0.051298 77 133 59
0.051942 -0.237947 -0.0526963 82 138 62
0.0511591 -0.239885 -0.0540999 79 131 58
0.0503732 -0.24183 -0.0555087 66 116 54
0.0490962 -0.243214 -0.0563126 40 96 30
0.0478192 -0.244597 -0.0571164 32 102 31
0.0460608 -0.245409 -0.0573092 36 111 36
0.0447864 -0.24679 -0.0581114 42 117 42
0.0435122 -0.24817 -0.0589136 53 127 51
0.0412947 -0.248398 -0.0584916 78 145 65
0.0386309 -0.248052 -0.0574672 115 161 83
0.0364525 -0.248278 -0.0570545 115 112 71
0.0333925 -0.247371 -0.0554525 88 79 56
0.0321447 -0.248723 -0.056238 63 65 51
0.029576 -0.248381 -0.0552429 50 62 49
0.0270358 -0.248043 -0.0542587 51 59 43
0.0236789 -0.246603 -0.052129 56 56 44
0.0203826 -0.24519 -0.0500377 56 56 40
0.0543202 -0.178699 -0.00630519 59 65 55
0.0527223 -0.179545 -0.0065671 84 109 66
0.0515717 -0.180792 -0.00729134 104 152 74
0.049543 -0.181228 -0.00708806 108 165 76
0.0470964 -0.18126 -0.00642665 109 164 75
0.0455272 -0.182093 -0.0066855 111 165 77
0.0435397 -0.182521 -0.00648615 113 166 78
0.0415656 -0.182946 -0.0062881 113 168 77
0.0404348 -0.184171 -0.00699992 113 170 76
0.0401359 -0.186209 -0.00862876 123 177 81
0.0406742 -0.189089 -0.0112005 120 176 93
0.0395322 -0.190326 -0.0119194 93 145 68
0.0488267 -0.202061 -0.0243965 87 152 70
0.048542 -0.204271 -0.0261735 103 168 80
0.0487117 -0.206964 -0.0284846 115 173 82
0.049344 -0.210163 -0.0313511 114 170 79
0.0490568 -0.212437 -0.0331817 109 167 78
0.0530112 -0.219206 -0.0399837 107 167 80
0.0536955 -0.222596 -0.0430254 106 167 80
0.0534156 -0.224988 -0.0449571 107 169 79
0.0536214 -0.227928 -0.0474856 113 174 83
0.0533388 -0.230362 -0.049452 102 159 79
0.0530542 -0.232814 -0.0514333 81 135 64
0.0527675 -0.235285 -0.0534295 74 130 58
0.0519859 -0.237218 -0.0548345 79 138 62
0.050711 -0.2386 -0.055637 82 137 61
0.0499242 -0.240543 -0.0570487 78 128 57
0.0486471 -0.241927 -0.0578526 50 96 34
0.0473701 -0.24331 -0.0586565 36 99 33
0.0460931 -0.244694 -0.0594603 35 106 35
0.0443379 -0.245505 -0.0596486 40 113 38
0.0430636 -0.246886 -0.0604508 48 119 44
0.0408477 -0.247119 -0.060023 62 133 56
0.0386485 -0.247349 -0.0595984 92 166 76
0.0360095 -0.247011 -0.0585716 127 166 84
0.0329526 -0.246114 -0.0569584 111 143 85
0.0303794 -0.245787 -0.0559593 90 121 80
0.0278345 -0.245462 -0.0549713 85 110 70
0.0244702 -0.244047 -0.0528352 92 103 59
0.0232475 -0.245372 -0.0536048 93 88 56
0.019955 -0.243969 -0.0515002 77 71 52
0.0175258 -0.243662 -0.0505589 61 63 51
0.0159201 -0.244429 -0.0507521 53 58 48
0.0143202 -0.245194 -0.0509445 56 54 43
0.0127261 -0.245955 -0.0511362 63 56 38
0.0111377 -0.246714 -0.0513271 54 59 38
0.00994177 -0.24801 -0.05208 51 56 34
0.0543658 -0.177935 -0.00815879 61 70 57
0.0523205 -0.178383 -0.007952 97 133 76
0.0511699 -0.17963 -0.00867627 117 172 84
0.0491425 -0.180071 -0.00846828 119 179 85
0.0466978 -0.180109 -0.00779985 120 180 87
0.0451292 -0.180944 -0.00805641 122 179 87
0.0431429 -0.181376 -0.00785249 126 178 87
0.04117 -0.181805 -0.00764984 127 181 86
0.0400392 -0.18303 -0.00836167 126 185 87
0.0405749 -0.185879 -0.010923 139 189 92
0.0406955 -0.188351 -0.0130468 121 176 93
0.040394 -0.190427 -0.0147156 93 151 69
0.0484098 -0.20086 -0.0258305 91 158 71
0.0476707 -0.202607 -0.0270953 105 170 80
0.0482909 -0.205752 -0.0299314 113 173 82
0.04892 -0.208943 -0.0328083 110 170 80
0.049094 -0.211695 -0.0351845 107 169 79
0.052577 -0.217957 -0.0414757 109 169 81
0.0542282 -0.222369 -0.0456779 108 167 81
0.0544384 -0.225294 -0.0482105 110 168 80
0.0536682 -0.227188 -0.0495902 112 171 81
0.0533852 -0.229624 -0.0515683 106 162 77
0.0531001 -0.232078 -0.0535612 83 135 62
0.0523204 -0.234002 -0.0549639 72 128 57
0.0515379 -0.235933 -0.0563718 77 139 61
0.0502629 -0.237314 -0.0571743 86 144 64
0.0494751 -0.239255 -0.0585891 88 140 61
0.0486845 -0.241203 -0.060009 69 111 44
0.0474049 -0.24259 -0.0608144 56 109 41
0.0456437 -0.243407 -0.0610006 54 112 41
0.0438893 -0.244221 -0.0611861 57 116 42
0.0426149 -0.245602 -0.0619882 62 122 46
0.0408696 -0.24641 -0.0621713 72 134 57
0.038203 -0.246075 -0.0611243 85 151 69
0.0355664 -0.245744 -0.060089 102 175 85
0.0325127 -0.244857 -0.0584645 106 189 98
0.0299418 -0.244536 -0.0574572 111 182 93
0.0273993 -0.244219 -0.0564608 124 170 81
0.0240388 -0.242815 -0.0543113 138 163 75
0.020328 -0.240901 -0.0516304 133 148 76
0.017901 -0.240611 -0.0506902 108 132 81
0.0162974 -0.241382 -0.0508829 90 121 81
0.0150967 -0.242683 -0.0516386 83 109 74
0.013501 -0.24345 -0.0518291 88 100 64
0.0119111 -0.244213 -0.0520189 96 93 54
0.0103269 -0.244974 -0.052208 83 86 51
0.00913301 -0.246267 -0.0529595 68 70 49
0.00793912 -0.247561 -0.053711 55 58 47
0.0067454 -0.248854 -0.0544623 49 52 43
0.00555165 -0.250148 -0.0552137 48 48 34
0.0043581 -0.251441 -0.055965 50 51 31
0.0551176 -0.175517 -0.00882179 67 64 44
0.0539627 -0.176769 -0.00954864 79 93 58
0.0519187 -0.177221 -0.00933713 113 157 83
0.0503276 -0.178069 -0.00959342 132 186 91
0.0483064 -0.178515 -0.00938269 134 188 91
0.0458699 -0.17856 -0.00871075 133 191 93
0.0443054 -0.179397 -0.0089653 133 192 94
0.0423251 -0.179833 -0.00875871 135 193 93
0.0407745 -0.180663 -0.00901183 136 194 94
0.0400593 -0.182288 -0.0101848 137 198 97
0.040596 -0.185137 -0.0127628 148 204 106
0.0415648 -0.188441 -0.0158538 118 168 83
0.0421203 -0.191376 -0.0185105 97 156 71
0.0479929 -0.199659 -0.0272648 99 165 75
0.047705 -0.20186 -0.0290519 110 172 81
0.0483264 -0.205006 -0.0319071 116 173 84
0.0484961 -0.207722 -0.0342657 113 171 82
0.0486676 -0.210468 -0.0366498 109 169 81
0.0535838 -0.218221 -0.044674 111 168 82
0.0547648 -0.222141 -0.0483505 110 168 81
0.0539965 -0.224025 -0.0497279 112 168 80
0.0537151 -0.226445 -0.0517029 113 169 78
0.0534316 -0.228883 -0.0536927 105 160 73
0.0531461 -0.231339 -0.0556975 84 137 61
0.0523649 -0.233265 -0.0571069 72 129 55
0.0510897 -0.234647 -0.0579095 77 137 60
0.0498146 -0.236029 -0.058712 88 146 66
0.0495141 -0.238526 -0.0607471 90 145 64
0.0482344 -0.239913 -0.0615525 84 125 55
0.0469547 -0.2413 -0.0623579 72 119 50
0.0456751 -0.242686 -0.0631633 69 123 49
0.0439172 -0.243503 -0.063345 71 124 50
0.0421661 -0.244317 -0.063526 77 132 57
0.0408916 -0.245698 -0.0643281 89 151 69
0.0386838 -0.245935 -0.0638857 94 162 78
0.0360345 -0.245604 -0.0628309 96 167 79
0.0329659 -0.244715 -0.06118 97 170 80
0.0295041 -0.243285 -0.0589552 104 170 79
0.026964 -0.242976 -0.0579507 113 170 79
0.0236074 -0.241583 -0.0557876 121 174 80
0.0199011 -0.239682 -0.0530908 122 183 88
0.0174764 -0.239399 -0.0521427 122 195 99
0.0158734 -0.240173 -0.0523328 123 195 100
0.0142761 -0.240944 -0.0525222 131 188 94
0.0122931 -0.241183 -0.0521471 142 179 88
0.011099 -0.242477 -0.0528987 148 170 87
0.00990483 -0.243771 -0.0536503 132 152 83
0.00871079 -0.245065 -0.0544018 112 136 87
0.00751685 -0.246359 -0.0551533 95 118 85
0.00632298 -0.247652 -0.0559047 86 99 72
0.0051292 -0.248946 -0.0566561 75 80 51
0.00431213 -0.250784 -0.0579804 64 53 36
0.00311637 -0.25208 -0.058733 53 45 33
0.0549698 -0.172317 -0.00854931 64 64 50
0.0542658 -0.173957 -0.00974206 68 78 55
0.0526677 -0.174812 -0.00999815 108 144 72
0.0510751 -0.175664 -0.0102533 133 187 90
0.0490513 -0.176118 -0.0100405 138 197 96
0.0466109 -0.176176 -0.0093653 138 197 95
0.0450449 -0.177017 -0.00961878 139 198 95
0.043062 -0.177461 -0.00941006 140 200 97
0.04151 -0.178296 -0.00966213 141 203 99
0.0403788 -0.179521 -0.010374 145 205 100
0.0396629 -0.181145 -0.0115493 151 210 103
0.0410387 -0.184801 -0.0150833 139 201 105
0.0437369 -0.189797 -0.0201555 111 169 81
0.0443133 -0.192772 -0.0228698 102 167 74
0.0475758 -0.198457 -0.0286992 109 174 79
0.0477394 -0.20111 -0.0310158 116 176 82
0.0479047 -0.203792 -0.033357 116 174 82
0.0485321 -0.206974 -0.0362637 115 171 81
0.048704 -0.209721 -0.038663 115 170 80
0.0536301 -0.21747 -0.0467504 114 171 81
0.0548137 -0.22139 -0.0504532 113 174 82
0.054044 -0.223277 -0.0518372 113 171 79
0.0537621 -0.225699 -0.0538239 112 170 80
0.0534782 -0.228139 -0.0558254 104 158 73
0.0526989 -0.230055 -0.0572324 87 141 63
0.0519168 -0.231979 -0.0586447 75 131 56
0.0506415 -0.233361 -0.0594474 77 135 58
0.0498543 -0.235295 -0.0608664 88 146 66
0.049064 -0.237236 -0.0622908 90 147 66
0.0482709 -0.239184 -0.0637206 75 119 55
0.0469887 -0.240573 -0.0645276 54 93 29
0.0457066 -0.241963 -0.0653345 41 97 27
0.0444246 -0.243352 -0.0661413 42 107 37
0.0426657 -0.244169 -0.0663176 49 116 49
0.0413863 -0.245556 -0.0671229 55 127 57
0.0391682 -0.245794 -0.0666682 60 135 62
0.0369669 -0.246031 -0.0662169 65 141 66
0.0343273 -0.245699 -0.0651489 71 148 69
0.0312713 -0.24481 -0.0634807 76 151 71
0.0273914 -0.242828 -0.0606345 85 154 73
0.0235964 -0.24089 -0.0578505 94 157 75
0.0194742 -0.238463 -0.0545515 101 161 76
0.0178588 -0.239243 -0.0547383 108 167 77
0.0158485 -0.239491 -0.0543528 116 174 81
0.0142484 -0.240264 -0.0545389 121 179 85
0.0122619 -0.240506 -0.0541559 127 186 90
0.0106768 -0.241274 -0.0543413 129 193 98
0.00948265 -0.242568 -0.0550929 132 203 106
0.00867286 -0.244396 -0.0564147 132 208 113
0.00747675 -0.245692 -0.0571675 137 198 110
0.00666213 -0.247528 -0.0584953 137 175 98
0.00546399 -0.248827 -0.0592493 124 140 79
0.00464457 -0.250672 -0.0605831 89 67 49
0.00344452 -0.251972 -0.0613383 61 45 37
0.0548233 -0.169138 -0.00827882 67 68 47
0.0541213 -0.170767 -0.00946709 63 73 59
0.052972 -0.172013 -0.0101903 98 113 72
0.0513815 -0.172868 -0.0104448 134 186 99
0.0497964 -0.173721 -0.0106984 146 209 105
0.047352 -0.173791 -0.01002 147 210 103
0.0449324 -0.173861 -0.00934832 146 210 104
0.0429564 -0.174315 -0.00914121 146 210 103
0.0414096 -0.175152 -0.009393 148 212 103
0.039868 -0.175986 -0.00964383 152 215 104
0.0391547 -0.177596 -0.0108121 158 221 110
0.038439 -0.179211 -0.0119841 158 221 113
0.0406381 -0.183646 -0.0164619 128 186 93
0.0450736 -0.190323 -0.0235432 114 175 82
0.0465523 -0.194197 -0.0273211 110 179 79
0.0476098 -0.197704 -0.0306557 122 189 89
0.0477737 -0.200358 -0.0329868 121 182 88
0.047483 -0.202578 -0.0348071 115 175 84
0.0481072 -0.205751 -0.0377243 112 173 82
0.0496731 -0.209934 -0.041794 113 172 82
0.0536766 -0.216716 -0.0488348 115 172 81
0.0548627 -0.220637 -0.0525641 115 174 82
0.0540915 -0.222526 -0.0539547 115 170 81
0.0538092 -0.224949 -0.055953 109 165 77
0.0535248 -0.227392 -0.0579664 102 157 73
0.0527441 -0.229311 -0.0593802 91 146 66
0.0514686 -0.230693 -0.0601829 79 134 59
0.0506827 -0.232622 -0.0616035 76 134 57
0.049405 -0.234006 -0.0624075 86 145 63
0.0486138 -0.235945 -0.0638349 91 145 66
0.0478197 -0.237891 -0.0652676 75 124 54
0.0470227 -0.239844 -0.0667057 60 104 36
0.0462227 -0.241804 -0.0681493 48 104 32
0.0449358 -0.243199 -0.0689593 40 108 33
0.0436488 -0.244594 -0.0697692 36 111 36
0.042362 -0.245988 -0.070579 35 114 40
0.0406005 -0.246804 -0.0707474 39 114 40
0.0383769 -0.247039 -0.0702772 44 113 40
0.0361702 -0.247272 -0.0698105 50 117 41
0.0335251 -0.246932 -0.0687182 56 117 42
0.0304638 -0.24603 -0.067017 60 117 44
0.0257155 -0.242922 -0.0629101 63 118 47
0.0206905 -0.239369 -0.0583361 66 118 49
0.0178374 -0.238555 -0.0567737 67 123 51
0.0158235 -0.238806 -0.0563801 68 128 56
0.0142205 -0.239582 -0.056563 71 133 61
0.0122304 -0.239827 -0.0561721 73 139 66
0.0106425 -0.240598 -0.0563542 76 144 70
0.00944614 -0.241894 -0.0571072 82 152 74
0.00902119 -0.244259 -0.059012 89 160 83
0.0078207 -0.24556 -0.0597675 95 167 91
0.00662024 -0.246861 -0.0605229 105 167 95
0.00580116 -0.248706 -0.0618614 123 152 90
0.00459878 -0.250009 -0.0626181 90 76 58
0.00415455 -0.252416 -0.0645526 62 49 41
0.0546779 -0.16598 -0.00801035 57 66 42
0.0539779 -0.167599 -0.00919419 66 73 56
0.0532755 -0.169223 -0.0103819 98 105 76
0.051687 -0.170082 -0.0106358 137 188 102
0.0501039 -0.170938 -0.0108887 148 211 104
0.0480933 -0.171406 -0.0106748 150 213 102
0.0456699 -0.171488 -0.00999993 150 216 104
0.0432708 -0.171569 -0.00933174 151 216 105
0.0417258 -0.172409 -0.00958281 153 218 106
0.0397736 -0.172865 -0.00937628 158 223 108
0.0382423 -0.173699 -0.00962596 166 228 112
0.0379385 -0.175682 -0.0112474 166 226 113
0.0376327 -0.177679 -0.0128796 138 190 100
0.0406592 -0.182896 -0.0183213 124 188 94
0.0446638 -0.189141 -0.0249533 121 192 90
0.047032 -0.19388 -0.0297791 124 197 90
0.0471919 -0.1965 -0.0320932 124 197 97
0.0473535 -0.199147 -0.034432 119 184 89
0.0475169 -0.201823 -0.0367958 114 175 82
0.0481424 -0.204998 -0.0397326 113 171 81
0.0501813 -0.209664 -0.0443946 113 170 81
0.053238 -0.215455 -0.0503417 113 172 83
0.05442 -0.219364 -0.0540852 115 173 83
0.0541392 -0.221772 -0.0560803 115 168 78
0.0538564 -0.224197 -0.0580905 107 161 75
0.0530776 -0.226107 -0.0595019 98 155 73
0.0522959 -0.228024 -0.0609186 96 151 70
0.0515114 -0.229948 -0.0623406 85 138 62
0.0502335 -0.231333 -0.0631448 76 133 56
0.0494437 -0.233266 -0.0645736 82 143 62
0.0486511 -0.235207 -0.0660078 90 145 69
0.0478554 -0.237156 -0.0674474 78 129 58
0.0470568 -0.239111 -0.0688925 58 119 59
0.0477235 -0.242792 -0.0722795 51 119 54
0.0469171 -0.244777 -0.0737478 49 122 52
0.0456177 -0.246185 -0.0745655 50 126 53
0.0443183 -0.247593 -0.0753832 53 130 54
0.0425359 -0.248414 -0.075544 59 131 54
0.0398083 -0.248061 -0.0744 66 127 51
0.037112 -0.247713 -0.0732692 70 121 50
0.0344465 -0.247368 -0.072151 71 119 51
0.0322631 -0.247599 -0.0716789 69 119 51
0.02965 -0.247259 -0.0705801 64 117 49
0.0240393 -0.243016 -0.0651858 60 115 45
0.0190417 -0.239462 -0.0605747 56 117 46
0.0157983 -0.238118 -0.0584151 50 119 47
0.0137954 -0.23837 -0.0580163 47 119 47
0.0118068 -0.23862 -0.0576203 48 120 46
0.0106081 -0.239919 -0.0583747 52 121 45
0.00979717 -0.241748 -0.0597072 57 121 44
0.00859651 -0.24305 -0.0604628 63 124 47
0.00739588 -0.244351 -0.0612183 68 130 52
0.00657809 -0.246192 -0.0625581 80 138 62
0.00614069 -0.248585 -0.0644925 108 148 74
0.00570028 -0.250995 -0.0664408 80 77 56
0.00487226 -0.252864 -0.067802 59 50 41
0.0545337 -0.162843 -0.00774383 64 62 41
0.0538356 -0.164451 -0.00892325 63 69 53
0.0531352 -0.166064 -0.0101067 102 110 77
0.0519916 -0.167304 -0.0108263 140 199 106
0.0504105 -0.168163 -0.0110785 148 214 106
0.0488348 -0.16902 -0.0113298 149 213 104
0.045981 -0.168736 -0.0101897 152 216 104
0.0435842 -0.168831 -0.00952178 153 221 106
0.0412113 -0.168925 -0.00886047 153 223 107
0.040091 -0.170139 -0.00956546 159 225 110
0.0389707 -0.171354 -0.0102704 168 230 117
0.0378505 -0.172568 -0.0109753 162 220 115
0.0367304 -0.173782 -0.0116801 134 179 93
0.0372381 -0.176541 -0.014238 120 179 87
0.0406802 -0.182143 -0.0201872 118 185 89
0.044254 -0.18796 -0.0263635 121 197 90
0.0466163 -0.192682 -0.0312093 133 205 97
0.0467739 -0.195296 -0.033531 127 187 89
0.0469332 -0.197937 -0.0358774 119 178 84
0.0470942 -0.200607 -0.0382491 116 178 83
0.0477166 -0.203772 -0.0411962 116 178 82
0.0502207 -0.208907 -0.0464447 114 177 83
0.0527993 -0.214193 -0.0518489 114 177 85
0.0534879 -0.217579 -0.0550078 115 175 84
0.0536945 -0.220494 -0.0576074 113 171 81
0.05341 -0.222915 -0.0596233 105 159 76
0.0531234 -0.225354 -0.0616545 97 153 73
0.0518476 -0.226737 -0.0624573 100 155 75
0.0510622 -0.228658 -0.0638822 90 145 67
0.0502738 -0.230587 -0.0653125 75 135 58
0.0494824 -0.232524 -0.0667482 78 139 60
0.0486882 -0.234467 -0.0681893 88 143 65
0.0478911 -0.236418 -0.0696359 78 129 57
0.048564 -0.240078 -0.0730287 60 113 53
0.0482532 -0.242634 -0.0751545 43 108 36
0.0474447 -0.244627 -0.076634 36 112 32
0.0461401 -0.246041 -0.0774549 39 119 38
0.0448357 -0.247455 -0.0782757 47 123 42
0.0430453 -0.248279 -0.0784316 54 126 48
0.0407821 -0.248512 -0.0779254 83 138 57
0.0380646 -0.248159 -0.0767678 74 94 51
0.0353783 -0.24781 -0.0756233 65 76 45
0.0327225 -0.247465 -0.0744918 61 82 47
0.0305457 -0.247696 -0.0740108 61 95 58
0.0279423 -0.247354 -0.0728988 60 104 63
0.02194 -0.242561 -0.0668512 63 108 60
0.0169856 -0.23902 -0.0622213 64 112 59
0.0137665 -0.237683 -0.0600508 66 114 56
0.0113831 -0.237412 -0.0590687 69 116 52
0.0101843 -0.238711 -0.0598231 72 119 53
0.00937253 -0.240539 -0.0611582 75 117 51
0.00817175 -0.24184 -0.0619138 83 127 55
0.00735517 -0.243677 -0.0632549 94 142 63
0.00692038 -0.246061 -0.0651919 104 150 72
0.00648263 -0.248462 -0.0671428 103 140 73
0.00565584 -0.250327 -0.0685053 74 66 54
0.00482617 -0.252198 -0.0698727 56 47 41
0.0548326 -0.160091 -0.00793818 66 66 42
0.0541361 -0.161691 -0.00911604 60 72 56
0.0529961 -0.162927 -0.00983335 106 115 78
0.0518561 -0.164162 -0.0105506 144 207 112
0.0507163 -0.165398 -0.0112678 148 217 109
0.0487101 -0.165884 -0.0110535 151 216 106
0.0462913 -0.165993 -0.0103791 154 220 108
0.0438968 -0.166102 -0.00971135 153 222 109
0.0415261 -0.16621 -0.00905026 154 223 110
0.0404074 -0.167422 -0.00975416 161 226 112
0.0392889 -0.168635 -0.010458 170 234 117
0.0381704 -0.169847 -0.0111617 150 208 111
0.0374586 -0.171436 -0.0123248 110 154 84
0.0363384 -0.17265 -0.0130297 106 164 73
0.0376642 -0.176179 -0.0165371 114 182 89
0.0402781 -0.180984 -0.0215713 117 187 86
0.043408 -0.186357 -0.0272672 132 199 95
0.0444248 -0.189753 -0.0305606 127 185 94
0.0459069 -0.193649 -0.0344396 124 179 87
0.0465127 -0.196726 -0.0373231 118 180 85
0.0466715 -0.199389 -0.0397025 114 181 85
0.046832 -0.202081 -0.0421075 114 182 86
0.0502602 -0.208146 -0.0485026 117 183 87
0.0518789 -0.212434 -0.0527675 117 180 87
0.0530458 -0.216307 -0.0565266 114 174 83
0.0532499 -0.219216 -0.0591347 110 169 79
0.0534564 -0.222157 -0.0617724 108 163 74
0.0526752 -0.224067 -0.0631934 102 158 72
0.0513993 -0.22545 -0.0639962 105 161 76
0.0511041 -0.227908 -0.0660516 97 153 73
0.0503142 -0.229839 -0.0674888 80 139 64
0.0495213 -0.231778 -0.0689314 74 135 57
0.0487256 -0.233724 -0.0703794 82 140 59
0.0479269 -0.235677 -0.071833 80 135 58
0.049097 -0.239909 -0.0759068 69 120 53
0.0482899 -0.241897 -0.0773878 50 108 36
0.0474798 -0.243893 -0.0788746 37 109 32
0.0466666 -0.245896 -0.0803671 38 117 38
0.0453569 -0.247315 -0.0811911 47 121 43
0.0435585 -0.248143 -0.0813419 53 127 50
0.0412845 -0.248377 -0.0808226 86 141 61
0.0376099 -0.246859 -0.0783246 73 101 58
0.0353892 -0.247095 -0.0778236 61 73 47
0.0331854 -0.247329 -0.0773263 57 61 39
0.0309984 -0.247561 -0.0768327 56 59 39
0.0283826 -0.24722 -0.0757007 50 56 41
0.0257961 -0.246882 -0.0745813 54 52 33
0.0190161 -0.241016 -0.0672926 53 56 35
0.0141358 -0.23752 -0.0626805 54 58 38
0.0113498 -0.236725 -0.0610981 57 58 40
0.0101487 -0.238027 -0.0618538 58 61 39
0.0089478 -0.239329 -0.0626095 63 66 41
0.00813238 -0.241161 -0.0639519 63 77 50
0.00731419 -0.242999 -0.0652991 63 81 55
0.00726511 -0.245929 -0.067845 66 75 54
0.00682688 -0.248339 -0.0698125 67 61 43
0.00638559 -0.250766 -0.0717944 59 49 35
0.00555256 -0.252648 -0.0731752 50 47 36
0.0539944 -0.158578 -0.00884708 64 78 58
0.0532974 -0.160174 -0.0100245 111 122 78
0.0517218 -0.161042 -0.0102769 149 210 115
0.0501514 -0.161906 -0.0105285 150 217 110
0.0485864 -0.162768 -0.0107792 153 220 108
0.0466008 -0.163259 -0.010568 155 222 107
0.04379 -0.163017 -0.00944441 156 222 109
0.04184 -0.163503 -0.00923956 156 225 110
0.0403124 -0.164349 -0.00948845 161 225 114
0.0396062 -0.165924 -0.0106451 168 230 121
0.0388977 -0.167505 -0.0118055 147 193 106
0.0377791 -0.168717 -0.0125093 97 133 69
0.0370667 -0.170305 -0.0136746 75 128 53
0.0375764 -0.173041 -0.016246 98 160 73
0.0372681 -0.175036 -0.0179005 118 190 96
0.0390351 -0.179023 -0.021979 123 195 90
0.0429987 -0.185177 -0.0286755 122 197 96
0.0431346 -0.187711 -0.0309477 121 187 89
0.0450428 -0.192009 -0.0353453 120 183 88
0.0456414 -0.195069 -0.0382302 118 178 83
0.0457951 -0.197718 -0.0406101 114 177 81
0.0464068 -0.200858 -0.0435691 111 179 82
0.0502998 -0.207382 -0.0505683 112 180 83
0.051441 -0.211174 -0.0542724 115 178 82
0.0521179 -0.214531 -0.0574435 115 173 80
0.0528051 -0.217938 -0.0606622 110 171 76
0.053009 -0.220872 -0.0633086 107 167 74
0.0522269 -0.222779 -0.0647326 105 164 76
0.0514419 -0.224694 -0.0661619 107 168 79
0.051146 -0.227154 -0.0682295 102 163 79
0.0503546 -0.229088 -0.0696736 86 147 69
0.0495602 -0.231029 -0.0711232 72 133 57
0.0487629 -0.232977 -0.0725782 75 142 59
0.048948 -0.236054 -0.075344 83 139 58
0.0491354 -0.239166 -0.0781419 74 125 53
0.0488249 -0.241735 -0.0803 55 107 36
0.0480125 -0.243738 -0.0817982 41 106 31
0.0467001 -0.24516 -0.082624 39 115 35
0.0453878 -0.246583 -0.0834497 47 120 39
0.0435857 -0.247414 -0.0835964 54 126 45
0.0417907 -0.248241 -0.0837425 71 143 61
0.0385707 -0.247302 -0.0818732 101 140 78
0.034936 -0.2458 -0.0793747 94 95 70
0.033192 -0.246615 -0.0795259 72 58 50
0.0310007 -0.24685 -0.0790231 61 57 38
0.0283798 -0.246512 -0.0778765 54 56 35
0.026668 -0.247316 -0.0780286 55 52 34
0.0240912 -0.246977 -0.0768961 55 56 35
0.0145076 -0.237356 -0.0653295 57 55 36
0.0109252 -0.235514 -0.0625496 57 51 36
0.00933637 -0.236294 -0.0627208 52 51 36
0.00813745 -0.237594 -0.0634751 49 49 35
0.00770673 -0.239948 -0.0654061 49 54 33
0.00688766 -0.241785 -0.0667559 48 55 35
0.00761223 -0.245796 -0.0705175 46 52 39
0.00756437 -0.248767 -0.0731149 46 51 39
0.00673187 -0.25065 -0.0745008 48 48 33
0.0515885 -0.157941 -0.0100053 150 213 116
0.0500234 -0.158808 -0.0102565 153 220 110
0.048036 -0.159312 -0.0100475 156 220 108
0.0456403 -0.159455 -0.00938386 157 223 108
0.043684 -0.159952 -0.00917932 156 226 108
0.0417407 -0.160446 -0.00897611 155 225 110
0.0402181 -0.161295 -0.00922471 165 229 115
0.0395139 -0.16286 -0.0103771 168 231 120
0.0388075 -0.164431 -0.0115333 145 192 103
0.0385065 -0.166375 -0.0131532 106 141 71
0.0382036 -0.168331 -0.0147838 72 120 52
0.0383095 -0.170679 -0.0168954 68 127 56
0.0380035 -0.172667 -0.0185522 100 157 75
0.0372831 -0.17428 -0.0197413 123 188 94
0.0382165 -0.17747 -0.0228706 137 204 100
0.0408659 -0.182345 -0.0280548 115 176 79
0.0418534 -0.185683 -0.0313323 114 183 85
0.0424201 -0.188651 -0.0341437 119 184 88
0.0438808 -0.192535 -0.0380607 117 181 86
0.045373 -0.196503 -0.0420615 113 180 84
0.0459816 -0.199634 -0.0450309 112 181 82
0.0498658 -0.206134 -0.0520597 112 180 81
0.0505246 -0.209423 -0.0551852 111 178 80
0.0516765 -0.213261 -0.0589599 111 173 80
0.0523603 -0.216659 -0.0621901 106 169 76
0.0530546 -0.220108 -0.0654691 105 166 75
0.0517784 -0.221491 -0.066272 103 166 78
0.0514844 -0.223935 -0.0683361 107 168 80
0.0511881 -0.226397 -0.070416 103 164 77
0.0503952 -0.228333 -0.0718671 86 149 66
0.0495992 -0.230277 -0.0733236 70 134 54
0.049789 -0.233338 -0.0760938 71 140 57
0.0494825 -0.235869 -0.0782316 79 138 59
0.0496736 -0.238993 -0.0810572 80 130 55
0.0488627 -0.240991 -0.082557 62 111 42
0.0480488 -0.242997 -0.0840626 43 105 33
0.0467338 -0.244422 -0.0848899 35 111 34
0.0449253 -0.245259 -0.0850343 40 118 42
0.043613 -0.246682 -0.0858599 47 123 44
0.0413297 -0.246923 -0.085321 54 132 51
0.0385879 -0.246577 -0.0841116 92 166 75
0.0349459 -0.24508 -0.0815869 119 159 84
0.0327394 -0.245322 -0.0810744 114 114 76
0.0305499 -0.245563 -0.0805657 80 66 60
0.0288241 -0.246373 -0.0807137 57 58 47
0.0266618 -0.246608 -0.0802092 58 56 38
0.0253923 -0.247984 -0.0810078 58 58 36
0.0105004 -0.234304 -0.0640014 58 53 36
0.04511 -0.156049 -0.00866654 157 222 110
0.0427523 -0.156206 -0.00801626 157 225 110
0.0412328 -0.157059 -0.00826567 156 227 110
0.0401247 -0.158261 -0.0089628 167 232 116
0.0398297 -0.160172 -0.0105638 167 234 122
0.0387181 -0.161377 -0.0112631 141 192 103
0.039234 -0.164031 -0.0137973 111 151 77
0.0401709 -0.167094 -0.0168354 92 138 64
0.0394561 -0.168693 -0.0180177 74 128 55
0.0387391 -0.170297 -0.0192041 64 123 51
0.0380197 -0.171906 -0.0203944 80 144 64
0.0377112 -0.173908 -0.0220712 110 174 87
0.0378162 -0.176316 -0.0242484 96 171 90
0.0375046 -0.178349 -0.0259525 92 166 73
0.0397246 -0.182842 -0.0306924 101 177 82
0.0407038 -0.18619 -0.0339985 110 180 84
0.0408282 -0.188738 -0.0363064 115 181 84
0.0427146 -0.193064 -0.0407859 115 182 84
0.0446484 -0.197498 -0.0453777 114 184 84
0.0484915 -0.203931 -0.0523878 114 183 84
0.0500873 -0.208165 -0.0566879 111 180 82
0.051235 -0.211992 -0.0604766 109 176 79
0.0519154 -0.21538 -0.0637182 106 171 73
0.0526062 -0.21882 -0.0670088 105 168 76
0.0518216 -0.220727 -0.0684426 104 166 75
0.0510341 -0.222642 -0.0698818 100 164 73
0.050736 -0.225099 -0.0719675 94 159 70
0.0504358 -0.227575 -0.0740692 82 147 62
0.0506301 -0.230622 -0.0768438 70 134 55
0.0503267 -0.233143 -0.0789845 70 139 55
0.0495216 -0.235118 -0.0804717 79 142 60
0.0497131 -0.238244 -0.083316 86 147 64
0.0484004 -0.239667 -0.0841418 69 127 54
0.0475854 -0.24167 -0.0856506 48 110 38
0.0462703 -0.243096 -0.0864779 36 105 31
0.0449552 -0.244521 -0.0873052 37 109 37
0.0431502 -0.245358 -0.0874448 43 114 38
0.0408687 -0.245605 -0.0868998 50 121 47
0.0381293 -0.245267 -0.0856812 63 139 61
0.0344918 -0.243782 -0.0831415 87 164 80
0.0322869 -0.244029 -0.0826231 103 175 95
0.0305511 -0.244846 -0.0827678 107 162 95
0.0283739 -0.245088 -0.0822537 124 149 75
0.0270994 -0.24647 -0.0830554 125 122 62
0.00470138 -0.228801 -0.0598351 45 51 53
0.00168943 -0.227594 -0.057753 48 53 37
0.000521705 -0.22886 -0.0584877 52 54 34
0.00451289 -0.237254 -0.0672906 51 54 36
0.0393318 -0.156791 -0.00984693 160 228 121
0.0386294 -0.158342 -0.0109948 136 186 98
0.0387355 -0.16061 -0.0130599 113 156 78
0.0409045 -0.164731 -0.0174851 103 151 73
0.0410242 -0.167073 -0.019621 88 141 66
0.0403072 -0.16868 -0.0208141 64 126 52
0.0391716 -0.169911 -0.0215285 56 126 48
0.0384504 -0.171526 -0.0227267 66 139 55
0.0377269 -0.173145 -0.0239289 96 165 71
0.0374158 -0.175161 -0.0256263 85 173 79
0.0366871 -0.176795 -0.0268395 76 158 68
0.036371 -0.178833 -0.0285554 83 169 72
0.0381545 -0.182928 -0.0328256 93 176 77
0.0391201 -0.186277 -0.0361501 100 180 80
0.0392361 -0.188825 -0.0384693 106 183 82
0.0442245 -0.196278 -0.0468348 109 187 84
0.0504187 -0.205074 -0.0568127 109 187 85
0.0496499 -0.206907 -0.0581908 107 183 85
0.050312 -0.210226 -0.0613852 106 179 82
0.0509841 -0.213595 -0.0646276 103 176 77
0.0516664 -0.217014 -0.0679189 97 171 76
0.0513722 -0.219437 -0.0699855 90 160 71
0.0505837 -0.221349 -0.0714276 88 155 68
0.0507772 -0.224337 -0.0741659 87 154 64
0.0514715 -0.227905 -0.0775939 82 147 62
0.0511712 -0.230415 -0.0797376 74 137 58
0.0503674 -0.232386 -0.0812264 68 135 54
0.0495607 -0.234364 -0.0827208 78 145 62
0.0492508 -0.236919 -0.0849011 88 151 65
0.047938 -0.238342 -0.085727 81 137 61
0.047122 -0.240343 -0.0872388 72 125 52
0.0458067 -0.241769 -0.0880662 67 121 47
0.044 -0.242611 -0.0882043 64 122 48
0.0422002 -0.24345 -0.0883419 62 123 47
0.0404076 -0.244286 -0.0884788 73 135 53
0.0376708 -0.243956 -0.0872511 79 148 65
0.0335761 -0.241914 -0.0840297 89 162 74
0.0318343 -0.242736 -0.0841721 101 171 80
0.0300993 -0.243556 -0.0843139 114 173 80
0.0279237 -0.243803 -0.0837939 128 169 76
0.0266491 -0.245184 -0.0845957 125 167 80
0.00244415 -0.225151 -0.0584303 106 135 78
0.00127625 -0.226417 -0.059165 113 116 61
-0.000968575 -0.226213 -0.058218 100 99 56
-0.0010594 -0.228949 -0.0606342 77 77 57
0.00289237 -0.237345 -0.0694906 57 58 60
0.00587679 -0.244524 -0.0769294 51 52 56
0.00504251 -0.246396 -0.0783196 53 49 42
0.0382421 -0.157222 -0.0123299 112 159 79
0.0399814 -0.160917 -0.0162559 108 157 77
0.0417616 -0.164698 -0.0202742 95 149 72
0.0414652 -0.166676 -0.021951 71 125 55
0.0407465 -0.168288 -0.023152 54 112 44
0.0396069 -0.169523 -0.0238689 50 123 49
0.0384673 -0.170759 -0.0245857 60 137 56
0.0377425 -0.17238 -0.0257931 80 161 72
0.0370154 -0.174006 -0.0270046 118 189 92
0.0362858 -0.175638 -0.0282201 122 179 83
0.0351408 -0.176879 -0.0289403 110 174 79
0.0348195 -0.178918 -0.0306633 92 168 80
0.0365843 -0.183014 -0.0349589 85 167 80
0.0371104 -0.185943 -0.037776 86 168 77
0.0406841 -0.191947 -0.0444148 89 168 73
0.0518045 -0.210947 -0.0653579 86 161 73
0.0520018 -0.213837 -0.0680259 87 158 69
0.0517092 -0.216243 -0.070089 88 154 67
0.0509228 -0.218146 -0.0715287 88 152 66
0.0501333 -0.220056 -0.0729737 89 154 68
0.0513148 -0.224107 -0.0770275 88 153 67
0.0515143 -0.22714 -0.0798246 84 149 65
0.0512135 -0.229653 -0.0819812 78 141 61
0.0504082 -0.231626 -0.0834772 65 133 54
0.0491001 -0.233044 -0.0843 77 144 59
0.0487884 -0.235594 -0.0864865 90 153 68
0.0474755 -0.237018 -0.0873124 75 133 60
0.0461626 -0.238441 -0.0881382 59 117 47
0.0448498 -0.239864 -0.088964 50 113 44
0.0435372 -0.241287 -0.0897897 49 118 51
0.0412538 -0.24155 -0.0892357 56 124 56
0.0399464 -0.242967 -0.0900581 64 136 64
0.0372122 -0.242645 -0.0888213 74 149 70
0.0335832 -0.241185 -0.0862516 84 158 75
0.0318379 -0.242011 -0.0863901 93 164 76
0.0300995 -0.242833 -0.0865279 105 167 77
0.0274734 -0.242517 -0.0853344 114 169 77
0.0261987 -0.243899 -0.0861362 118 176 82
0.00203095 -0.223973 -0.0598424 131 178 85
0.000141144 -0.224266 -0.0594517 140 175 84
-0.0013798 -0.225042 -0.0596228 133 174 90
0.00397542 -0.238233 -0.0733438 110 153 96
0.00583206 -0.243838 -0.0790294 109 140 86
0.0382587 -0.156451 -0.014123 111 160 78
0.0412437 -0.161227 -0.0194949 97 155 75
0.042205 -0.164292 -0.0226066 81 140 63
0.0414874 -0.1659 -0.0238089 76 133 55
0.0403476 -0.167136 -0.0245258 80 140 59
0.0392079 -0.168372 -0.0252427 82 150 63
0.0380683 -0.169607 -0.0259595 87 155 68
0.0373428 -0.171226 -0.0271692 97 172 80
0.0362014 -0.172464 -0.0278872 140 216 106
0.0354716 -0.174091 -0.0291021 145 226 112
0.0347394 -0.175723 -0.0303212 147 229 114
0.0340048 -0.17736 -0.0315442 150 226 113
0.0332678 -0.179003 -0.0327715 148 207 100
0.0350139 -0.1831 -0.0370925 141 187 85
0.0338514 -0.18436 -0.0378237 120 168 76
0.0509641 -0.217373 -0.0737142 102 169 75
0.0501732 -0.219286 -0.0751661 102 172 76
0.0508599 -0.222802 -0.0785888 102 170 75
0.0510567 -0.225827 -0.081395 101 164 72
0.050754 -0.228335 -0.0835576 96 157 68
0.0499477 -0.230305 -0.0850566 85 147 61
0.0486396 -0.231723 -0.0858795 88 148 62
0.0478277 -0.233704 -0.0873859 86 141 67
0.0465173 -0.235125 -0.0882102 68 120 61
0.0456999 -0.237116 -0.0897239 47 108 52
0.0438965 -0.237966 -0.0898586 35 107 45
0.0421002 -0.238813 -0.0899928 33 110 41
0.0407926 -0.240231 -0.0908152 34 113 44
0.0394851 -0.241648 -0.0916376 40 116 43
0.0367535 -0.241334 -0.0903917 48 121 45
0.0349851 -0.242167 -0.0905236 58 124 51
0.0318416 -0.241282 -0.0886167 67 126 54
0.0300996 -0.242108 -0.0887506 74 128 55
0.0283645 -0.24293 -0.0888839 80 131 60
0.0270825 -0.24432 -0.0896903 88 138 62
0.000449553 -0.224062 -0.0619896 114 179 92
-0.00107726 -0.22484 -0.0621569 119 190 100
0.0412654 -0.160448 -0.0213333 89 151 64
0.0422285 -0.163512 -0.0244659 89 152 64
0.0410886 -0.164748 -0.0251828 93 160 71
0.0403678 -0.16636 -0.0263914 97 166 75
0.0388089 -0.16722 -0.0266167 104 174 78
0.0380845 -0.168835 -0.0278276 112 183 83
0.0369429 -0.170073 -0.0285456 121 201 94
0.0358015 -0.171311 -0.0292636 143 220 107
0.0350709 -0.172935 -0.0304808 163 235 118
0.0339276 -0.174175 -0.0311999 162 236 125
0.0331929 -0.175807 -0.0324225 137 199 111
0.0324556 -0.177445 -0.0336491 119 166 91
0.031716 -0.179088 -0.0348799 116 166 87
0.0305672 -0.180334 -0.0356024 119 175 92
0.0310457 -0.183209 -0.03839 119 175 89
0.0315309 -0.186124 -0.041216 110 179 81
0.0328597 -0.189936 -0.045159 103 174 81
0.0510055 -0.216598 -0.0759083 108 181 82
0.0497218 -0.21799 -0.0767157 110 184 81
0.0494177 -0.220435 -0.0788317 112 184 81
0.0501012 -0.223973 -0.0822957 112 181 80
0.0502944 -0.227016 -0.0851342 109 177 78
0.0489886 -0.228432 -0.0859556 105 177 79
0.0481788 -0.230403 -0.0874592 110 179 83
0.0468707 -0.231821 -0.088282 116 176 88
0.0455627 -0.23324 -0.0891047 109 167 88
0.0442547 -0.234658 -0.0899274 93 151 80
0.0429469 -0.236076 -0.09075 75 134 65
0.0411557 -0.236925 -0.0908822 63 127 50
0.0403313 -0.238911 -0.0923951 48 118 46
0.0385456 -0.239755 -0.0925239 49 116 42
0.0367668 -0.240595 -0.0926522 50 114 41
0.0349949 -0.241432 -0.09278 52 111 41
0.0336952 -0.242841 -0.0935975 52 109 41
0.0323955 -0.24425 -0.0944149 49 108 41
0.0288126 -0.242775 -0.0917916 48 109 42
0.0270766 -0.243597 -0.0919194 51 111 44
0.0408701 -0.159305 -0.022696 95 160 66
0.0418297 -0.16236 -0.02584 100 168 72
0.0406897 -0.163596 -0.0265571 104 175 78
0.0399681 -0.165206 -0.027768 107 181 82
0.0388264 -0.166444 -0.0284861 114 189 85
0.0376847 -0.167681 -0.0292042 127 200 91
0.036543 -0.168919 -0.0299222 139 216 102
0.0354014 -0.170157 -0.0306401 166 231 119
0.03426 -0.171395 -0.0313581 152 218 117
0.0335269 -0.17302 -0.0325789 122 149 89
0.0323836 -0.174259 -0.0332979 91 113 68
0.0316461 -0.175892 -0.034524 75 104 60
0.0305012 -0.177133 -0.0352441 73 113 63
0.0297594 -0.178773 -0.0364755 85 134 70
0.0290153 -0.180419 -0.037711 106 165 84
0.029483 -0.183295 -0.040513 123 190 95
0.0303687 -0.18663 -0.0438865 134 194 94
0.0312698 -0.190023 -0.0473189 132 192 95
0.0490866 -0.21376 -0.0755142 121 189 88
0.0478099 -0.215144 -0.0763171 120 190 87
0.0465335 -0.216528 -0.0771199 122 191 88
0.0481651 -0.22106 -0.0818605 128 192 89
0.0483458 -0.22407 -0.0846801 135 196 90
0.0480331 -0.226566 -0.0868513 136 199 95
0.047223 -0.22853 -0.0883538 126 196 100
0.0459173 -0.229946 -0.0891749 114 173 95
0.0446117 -0.231361 -0.0899961 107 155 82
0.0428206 -0.232218 -0.0901297 99 139 73
0.0415177 -0.233631 -0.0909491 89 131 66
0.0402149 -0.235043 -0.0917685 86 141 64
0.0393902 -0.237023 -0.0932801 77 144 62
0.038085 -0.238438 -0.094101 75 139 57
0.03678 -0.239853 -0.0949218 76 135 56
0.0400596 -0.157804 -0.0235761 103 174 74
0.0410106 -0.160841 -0.0267223 108 181 81
0.0402907 -0.162443 -0.0279315 110 185 85
0.0391507 -0.16368 -0.0286485 115 191 87
0.0380107 -0.164916 -0.0293654 125 202 92
0.0372847 -0.166527 -0.030581 142 215 102
0.036143 -0.167765 -0.031299 165 228 118
0.0350014 -0.169003 -0.032017 141 197 113
0.0338598 -0.170241 -0.0327349 110 128 75
0.0327184 -0.171479 -0.0334528 83 83 53
0.0319826 -0.173104 -0.0346771 66 69 41
0.0312444 -0.174735 -0.0359055 58 68 39
0.0300993 -0.175977 -0.0366257 57 70 41
0.0293568 -0.177615 -0.0378594 62 79 44
0.0282099 -0.178858 -0.0385807 75 97 53
0.0282672 -0.181313 -0.0408607 94 123 72
0.0295483 -0.185035 -0.0447591 113 156 87
0.0296137 -0.187559 -0.0471069 120 177 103
0.0326161 -0.193154 -0.0533643 120 186 104
0.0406405 -0.204096 -0.0663964 120 191 104
0.0421548 -0.208347 -0.0708682 119 192 103
0.0427632 -0.21169 -0.0741692 118 187 103
0.0443304 -0.216108 -0.0788135 116 176 100
