ply
format ascii 1.0
element vertex 1179
property float x
property float y
property float z
property uchar diffuse_red
property uchar diffuse_green
property uchar diffuse_blue
end_header
-0.340775 0.00441471 0.176742 77 108 107
-0.341732 0.00569193 0.176357 114 125 120
-0.362269 -0.0571228 0.158131 116 125 116
-0.363402 -0.056061 0.157625 91 104 100
-0.364247 -0.0549661 0.157277 53 74 80
-0.364797 -0.0538415 0.15709 33 75 75
-0.36535 -0.0527111 0.156902 35 74 74
-0.343054 -0.027352 0.171273 43 80 79
-0.343009 -0.026256 0.171401 50 81 84
-0.342964 -0.0251593 0.17153 47 83 86
-0.343173 -0.0240505 0.171524 45 83 94
-0.343128 -0.0229512 0.171654 47 103 115
-0.343337 -0.0218375 0.171648 58 130 137
-0.339134 0.000974405 0.176081 74 93 96
-0.339089 0.00207714 0.176211 53 75 79
-0.340035 0.00333797 0.175825 49 84 87
-0.340488 0.00452823 0.175696 73 103 103
-0.340942 0.0057242 0.175566 113 124 119
-0.36375 -0.056127 0.156133 103 111 106
-0.3643 -0.0550045 0.155943 61 84 89
-0.364552 -0.0538545 0.155916 37 77 75
-0.364503 -0.052681 0.156054 34 73 72
-0.343841 -0.0283772 0.169537 46 92 92
-0.342523 -0.0273145 0.170351 47 94 98
-0.342224 -0.0262263 0.170615 50 98 102
-0.342179 -0.0251295 0.170744 50 103 107
-0.342387 -0.0240206 0.170737 58 111 114
-0.342342 -0.0229211 0.170866 57 120 123
-0.342297 -0.021821 0.170995 48 106 110
-0.343697 -0.00610044 0.171732 82 150 147
-0.342374 -0.00513603 0.172539 92 144 143
-0.339837 0.00122907 0.174516 68 91 95
-0.339542 0.00230023 0.174777 49 73 77
-0.339745 0.00344917 0.174776 46 81 84
-0.340198 0.00464224 0.174645 69 99 102
-0.340653 0.00584102 0.174513 108 123 119
-0.363802 -0.0561694 0.154794 114 117 113
-0.364655 -0.055066 0.154433 84 100 104
-0.364606 -0.0538892 0.15457 53 71 78
-0.345724 -0.0305042 0.167085 26 74 75
-0.344381 -0.0294205 0.16792 46 92 89
-0.343052 -0.0283475 0.168746 44 96 97
-0.34199 -0.0272769 0.169427 47 100 104
-0.341692 -0.0261875 0.169693 53 109 113
-0.341394 -0.0250997 0.169958 57 121 123
-0.341601 -0.0239907 0.16995 69 132 135
-0.341556 -0.0228911 0.170078 62 134 141
-0.341763 -0.0217772 0.170071 43 99 107
-0.342478 -0.0206305 0.169789 26 77 82
-0.343763 -0.00822407 0.170259 36 96 100
-0.343202 -0.00715969 0.170666 56 128 133
-0.342644 -0.00609903 0.17107 66 144 149
-0.341581 -0.00510444 0.171745 69 144 150
-0.342042 -0.00392404 0.171604 71 140 146
-0.340343 0.000334263 0.172934 63 107 111
-0.339298 0.00129838 0.173596 48 83 88
-0.339252 0.00240931 0.173726 41 73 76
-0.339455 0.00356084 0.173724 43 79 83
-0.339908 0.00475671 0.173589 67 97 100
-0.340363 0.00595832 0.173455 104 120 117
-0.36471 -0.055105 0.153078 110 121 111
-0.344973 -0.0315863 0.166156 24 70 70
-0.344408 -0.0304837 0.166571 26 77 80
-0.343845 -0.029385 0.166984 45 99 103
-0.343029 -0.0282971 0.167536 47 100 105
-0.34171 -0.0272313 0.168362 51 108 113
-0.341158 -0.0261487 0.168768 56 119 123
-0.340861 -0.0250596 0.169034 60 129 135
-0.340815 -0.0239607 0.169162 73 142 146
-0.341021 -0.0228486 0.169153 61 133 144
-0.341228 -0.0217334 0.169144 37 95 104
-0.341688 -0.0206001 0.168997 22 73 75
-0.343945 -0.0193474 0.167872 20 74 74
-0.343783 -0.00923354 0.16891 27 76 74
-0.342964 -0.0081925 0.169459 29 77 80
-0.342661 -0.00709885 0.169729 39 89 95
-0.342358 -0.00600678 0.169998 41 99 115
-0.341801 -0.00494768 0.170404 42 109 123
-0.341501 -0.00385978 0.170672 43 115 126
-0.342218 -0.0026383 0.170391 48 119 128
-0.340052 0.000439727 0.171873 42 86 95
-0.339255 0.00144325 0.172406 39 75 81
-0.339459 0.00259672 0.172402 39 74 77
-0.339412 0.00371313 0.172533 46 78 82
-0.339866 0.00491315 0.172395 64 94 99
-0.340322 0.00611895 0.172257 102 120 119
-0.344176 -0.0315565 0.165358 27 72 71
-0.34413 -0.0304445 0.165488 38 80 84
-0.343308 -0.0293493 0.166046 45 105 111
-0.342748 -0.0282534 0.16646 51 108 111
-0.341174 -0.0271935 0.167433 55 117 121
-0.340623 -0.0261098 0.167841 58 125 130
-0.340075 -0.0250298 0.168247 61 132 140
-0.34028 -0.0239194 0.168236 70 142 147
-0.340234 -0.0228185 0.168364 57 122 134
-0.340439 -0.0217032 0.168354 34 87 96
-0.340897 -0.0205698 0.168205 22 72 72
-0.342889 -0.0193331 0.167214 21 73 75
-0.343757 -0.00912024 0.167684 26 76 76
-0.342935 -0.00807614 0.168238 31 74 76
-0.342888 -0.00694955 0.16837 30 76 77
-0.342583 -0.00585292 0.168641 34 75 77
-0.342024 -0.0047896 0.169052 35 75 78
-0.341466 -0.00373 0.16946 34 75 80
-0.341419 -0.00260632 0.169591 37 77 83
-0.341118 -0.00151698 0.16986 40 77 84
-0.341071 -0.000392952 0.169991 37 77 81
-0.33951 0.000508652 0.170943 36 74 75
-0.339463 0.00162713 0.171073 35 73 74
-0.339416 0.00274636 0.171204 34 76 76
-0.33937 0.00386636 0.171334 40 80 82
-0.340077 0.00511242 0.171058 63 93 98
-0.340282 0.0062806 0.171053 102 119 119
-0.343638 -0.0315232 0.164415 28 73 75
-0.343332 -0.0304146 0.164689 46 90 90
-0.343028 -0.0293077 0.164962 46 107 114
-0.34221 -0.0282165 0.165522 53 115 118
-0.340891 -0.0271476 0.166361 54 122 126
-0.339836 -0.0260799 0.167052 56 127 133
-0.339539 -0.0249896 0.16732 62 132 141
-0.339243 -0.0239008 0.167587 64 138 144
-0.339446 -0.0227884 0.167576 54 113 123
-0.339651 -0.021673 0.167564 36 81 90
-0.340107 -0.0205394 0.167414 24 72 74
-0.342348 -0.019286 0.166273 22 73 75
-0.343212 -0.00906115 0.166736 29 77 78
-0.342905 -0.00795904 0.16701 33 75 75
-0.3426 -0.00685851 0.167283 31 74 74
-0.342295 -0.00575955 0.167556 33 74 76
-0.342247 -0.00463016 0.167688 30 74 76
-0.341687 -0.00356632 0.168101 29 74 74
-0.341129 -0.0025062 0.168512 31 73 73
-0.340827 -0.00141459 0.168783 35 74 74
-0.340526 -0.000324501 0.169053 34 73 73
-0.340478 0.000801559 0.169184 33 73 73
-0.340431 0.00192837 0.169315 33 75 74
-0.340383 0.00305596 0.169446 34 76 75
-0.340336 0.00418429 0.169577 40 79 83
-0.340796 0.00539815 0.169431 64 94 101
-0.340749 0.00653041 0.169563 102 119 120
-0.34284 -0.0314934 0.163615 28 75 82
-0.342535 -0.0303848 0.16389 48 101 100
-0.342231 -0.0292778 0.164164 47 110 116
-0.341416 -0.0281865 0.164726 52 118 122
-0.3401 -0.0271177 0.165569 53 123 129
-0.339048 -0.0260501 0.166263 55 126 133
-0.338503 -0.02497 0.166671 64 131 138
-0.338456 -0.0238709 0.166799 60 131 139
-0.33841 -0.022771 0.166927 52 110 115
-0.338612 -0.0216566 0.166915 39 84 87
-0.339316 -0.0205091 0.166622 26 74 77
-0.344227 -0.0088358 0.164917 27 78 79
-0.342359 -0.00789863 0.166061 31 76 76
-0.342311 -0.00676707 0.166192 32 73 76
-0.342005 -0.00566577 0.166467 29 77 76
-0.3417 -0.00456605 0.166741 29 76 76
-0.341396 -0.00346792 0.167014 29 74 74
-0.341092 -0.00237132 0.167287 31 74 73
-0.340535 -0.00131175 0.1677 33 76 74
-0.340487 -0.000182803 0.167831 34 74 74
-0.340694 0.000984769 0.167822 34 73 75
-0.340646 0.00211645 0.167953 32 75 76
-0.340343 0.00320863 0.168225 32 76 77
-0.340295 0.00434065 0.168356 41 79 84
-0.340502 0.00551607 0.168348 65 94 99
-0.340454 0.0066508 0.16848 106 121 119
-0.342042 -0.0314635 0.162816 42 88 90
-0.341738 -0.0303549 0.163091 48 108 110
-0.341178 -0.0292538 0.163511 49 115 119
-0.340367 -0.0281637 0.164074 52 120 124
-0.339058 -0.027096 0.16492 54 123 129
-0.338012 -0.0260295 0.165615 55 127 133
-0.337716 -0.0249402 0.165884 65 133 137
-0.337421 -0.0238524 0.166152 60 125 133
-0.337375 -0.0227536 0.166279 45 102 111
-0.337576 -0.0216402 0.166266 35 82 85
-0.342961 -0.00427451 0.164779 30 75 77
-0.341618 -0.00330206 0.165635 31 73 75
-0.341056 -0.00223558 0.166054 30 74 75
-0.340751 -0.0011371 0.166328 31 75 76
-0.340703 -3.27241e-06 0.16646 33 74 76
-0.340911 0.00116954 0.166448 35 74 76
-0.340862 0.00230611 0.16658 34 75 77
-0.340303 0.0033623 0.166996 34 77 78
-0.340254 0.004498 0.167128 42 81 84
-0.340206 0.00563447 0.167259 68 95 99
-0.339903 0.00672766 0.167533 111 121 119
-0.340988 -0.0314373 0.162164 68 108 103
-0.34043 -0.0303346 0.162585 50 111 116
-0.339621 -0.0292417 0.163151 51 117 123
-0.338316 -0.028169 0.164001 53 120 126
-0.337769 -0.0270825 0.164415 54 124 129
-0.337225 -0.0259997 0.164827 57 128 133
-0.336683 -0.0249207 0.165238 67 136 139
-0.336636 -0.0238225 0.165365 65 125 134
-0.336589 -0.0227236 0.165492 50 104 115
-0.336542 -0.0216239 0.165619 39 87 92
-0.351863 -0.00301598 0.158478 30 75 78
-0.344458 -0.00279217 0.162768 32 75 76
-0.342311 -0.00192356 0.164084 31 75 75
-0.341227 -0.000924818 0.164799 30 75 76
-0.340921 0.000177789 0.165076 33 75 76
-0.340872 0.00131733 0.165208 35 75 77
-0.340311 0.0023783 0.165628 36 76 79
-0.340006 0.00347621 0.165903 36 77 80
-0.339703 0.00457256 0.166178 42 82 85
-0.3394 0.00566735 0.166452 70 98 101
-0.339351 0.00680468 0.166584 116 122 121
-0.33897 -0.0325316 0.161973 112 123 116
-0.338922 -0.0314258 0.1621 67 109 116
-0.338623 -0.030324 0.162374 51 115 119
-0.337573 -0.0292415 0.163083 52 119 125
-0.337028 -0.0281533 0.163498 53 121 128
-0.336485 -0.027069 0.163912 54 125 132
-0.336191 -0.0259791 0.164181 60 131 136
-0.335897 -0.0248908 0.16445 66 140 142
-0.33585 -0.0237926 0.164577 66 130 134
-0.335755 -0.0215938 0.164831 91 102 104
-0.351299 -0.00294686 0.157473 32 76 79
-0.347384 -0.0022666 0.159812 35 76 78
-0.343325 -0.00164202 0.162229 34 76 77
-0.341449 -0.000746825 0.163402 32 77 77
-0.340625 0.000285232 0.163974 34 77 77
-0.340063 0.00135 0.164397 35 77 79
-0.340014 0.00249039 0.164529 37 78 81
-0.339454 0.00354974 0.16495 38 79 82
-0.338896 0.00460536 0.16537 45 83 87
-0.338593 0.00570022 0.165645 76 102 103
-0.338544 0.00683764 0.165776 119 127 123
-0.336678 -0.0325168 0.162057 105 124 117
-0.33663 -0.0314179 0.162183 66 107 113
-0.336583 -0.0303182 0.16231 51 116 122
-0.33604 -0.0292296 0.162726 52 119 128
-0.335745 -0.0281377 0.162997 56 123 131
-0.335452 -0.0270474 0.163267 57 127 134
-0.335159 -0.0259586 0.163537 65 134 140
-0.334621 -0.0248818 0.163949 68 142 147
-0.334818 -0.0237742 0.163932 64 136 138
-0.352193 -0.003894 0.155518 40 77 85
-0.350454 -0.00291319 0.156627 38 77 82
-0.349013 -0.00190814 0.157562 38 76 80
-0.346501 -0.00106228 0.159113 35 77 80
-0.342194 -0.000493387 0.161692 34 79 80
-0.340586 0.000430886 0.162719 36 79 81
-0.339765 0.00146002 0.163293 36 79 82
-0.339204 0.00252315 0.163718 38 80 82
-0.338645 0.00358253 0.16414 42 81 83
-0.338089 0.00463818 0.164562 55 88 90
-0.337787 0.0057331 0.164837 92 108 106
-0.337738 0.00687063 0.164968 122 132 124
-0.33515 -0.0324949 0.161705 88 126 121
-0.335102 -0.0313993 0.161831 60 113 114
-0.335054 -0.030303 0.161957 51 117 122
-0.334761 -0.0292118 0.162228 54 122 129
-0.334468 -0.0281221 0.162498 56 125 132
-0.334421 -0.0270259 0.162624 59 131 137
-0.333885 -0.0259475 0.163037 72 142 145
-0.333594 -0.0248624 0.163306 74 143 149
-0.333789 -0.0237558 0.163289 65 133 142
-0.350779 -0.00392955 0.154993 69 90 95
-0.349887 -0.00284386 0.155618 64 88 90
-0.348724 -0.00180133 0.1564 59 85 86
-0.348397 -0.00065381 0.156696 54 83 85
-0.344009 -8.57499e-05 0.159345 49 81 85
-0.340287 0.000539436 0.161605 48 80 86
-0.338953 0.00149278 0.16248 44 80 87
-0.338393 0.00255593 0.162906 46 82 86
-0.337583 0.00357448 0.163477 55 87 88
-0.337281 0.00467101 0.163753 78 100 97
-0.33698 0.00576598 0.164029 117 123 113
-0.333875 -0.0324706 0.161209 80 120 122
-0.333827 -0.0313772 0.161335 57 115 119
-0.333779 -0.0302831 0.16146 53 118 124
-0.333731 -0.0291882 0.161586 57 124 130
-0.333683 -0.0280926 0.161711 59 129 135
-0.333392 -0.0270044 0.161982 62 134 141
-0.332858 -0.0259271 0.162396 74 146 148
-0.332568 -0.024843 0.162665 80 143 147
-0.332762 -0.0237375 0.162647 75 128 140
-0.336775 0.00360725 0.162668 96 100 101
-0.336223 0.00466192 0.163091 115 122 112
-0.33309 -0.0324414 0.160424 76 113 117
-0.333042 -0.0313479 0.160549 56 117 121
-0.332994 -0.0302537 0.160674 56 121 127
-0.332703 -0.0291646 0.160945 59 127 133
-0.332655 -0.02807 0.16107 63 133 139
-0.332364 -0.0269829 0.161341 68 138 145
-0.331833 -0.0259067 0.161756 73 147 152
-0.331545 -0.0248237 0.162025 78 144 147
-0.331737 -0.0237192 0.162006 85 127 134
-0.332306 -0.0324122 0.159638 73 112 116
-0.332015 -0.0313223 0.15991 56 118 125
-0.331967 -0.0302291 0.160034 57 124 132
-0.331677 -0.0291411 0.160306 61 130 137
-0.331629 -0.0280476 0.16043 65 135 141
-0.331339 -0.0269615 0.160701 73 141 147
-0.330811 -0.0258863 0.161117 74 144 155
-0.330523 -0.0248044 0.161386 71 140 148
-0.330714 -0.023701 0.161366 86 130 130
-0.331039 -0.0323881 0.159147 67 115 119
-0.330991 -0.0312967 0.159272 56 119 127
-0.330702 -0.0302094 0.159543 60 130 137
-0.330653 -0.0291176 0.159667 64 137 144
-0.330365 -0.0280322 0.159938 67 139 144
-0.330316 -0.0269402 0.160063 75 144 147
-0.329552 -0.0258753 0.160624 77 141 152
-0.329504 -0.0247852 0.160748 69 131 145
-0.329932 -0.0236712 0.160582 83 132 131
-0.330017 -0.0323615 0.158511 61 120 123
-0.329968 -0.0312711 0.158635 56 122 128
-0.32968 -0.0301849 0.158906 63 133 138
-0.329631 -0.0290942 0.15903 66 141 149
-0.329344 -0.0280099 0.159301 68 141 149
-0.328347 -0.0269516 0.16001 75 145 148
-0.328298 -0.0258644 0.160133 78 142 147
-0.32825 -0.0247764 0.160257 77 125 136
-0.329387 -0.0236297 0.159651 88 128 130
-0.328758 -0.0323376 0.158024 59 122 127
-0.328709 -0.0312494 0.158148 55 125 131
-0.32866 -0.0301605 0.158271 60 131 136
-0.328611 -0.0290708 0.158395 64 136 144
-0.327617 -0.0280088 0.159106 71 138 148
-0.327333 -0.0269304 0.159376 77 144 148
-0.327284 -0.0258442 0.159499 74 142 144
-0.327236 -0.0247572 0.159622 85 125 128
-0.328841 -0.0235882 0.158719 100 120 126
-0.32727 -0.0323164 0.157687 61 124 131
-0.32722 -0.0312315 0.15781 56 127 136
-0.326702 -0.0301556 0.158228 59 130 136
-0.326653 -0.0290714 0.158351 63 134 138
-0.326604 -0.0279866 0.158474 73 138 144
-0.326321 -0.0269092 0.158743 80 142 148
-0.326506 -0.0258147 0.158719 68 139 143
-0.331722 -0.0244924 0.155543 82 129 124
-0.325423 -0.0344573 0.157404 99 128 124
-0.325606 -0.0333778 0.157379 73 125 127
-0.325557 -0.032298 0.1575 64 128 135
-0.325508 -0.0312175 0.157623 61 131 140
-0.325227 -0.0301411 0.157892 60 132 139
-0.325178 -0.0290602 0.158014 61 135 139
-0.325129 -0.0279786 0.158136 73 142 146
-0.325311 -0.0268881 0.158111 86 145 149
-0.325495 -0.0257946 0.158087 68 132 142
-0.33117 -0.0244512 0.15459 77 133 128
-0.324418 -0.0344291 0.156777 89 125 125
-0.324369 -0.0333521 0.156898 65 127 131
-0.324319 -0.0322744 0.15702 63 133 137
-0.32427 -0.031196 0.157141 64 133 139
-0.324221 -0.0301169 0.157263 62 132 139
-0.324171 -0.029037 0.157385 63 136 142
-0.324122 -0.0279565 0.157506 74 145 148
-0.324073 -0.0268752 0.157628 87 148 149
-0.324254 -0.0257838 0.157603 79 124 138
-0.330128 -0.0244319 0.153946 83 128 132
-0.323644 -0.0344004 0.156002 88 121 126
-0.323365 -0.0333249 0.156272 63 127 135
-0.323316 -0.0322483 0.156393 60 135 141
-0.323037 -0.0311747 0.156662 65 134 140
-0.322988 -0.0300977 0.156783 63 132 139
-0.322938 -0.0290199 0.156904 67 136 144
-0.323118 -0.0279344 0.156878 78 145 150
-0.323068 -0.0268541 0.156999 83 146 149
-0.323248 -0.0257637 0.156973 93 126 132
-0.322642 -0.0343722 0.155377 86 122 124
-0.322592 -0.0332962 0.155497 66 127 134
-0.322314 -0.0322222 0.155767 62 135 141
-0.322264 -0.0311458 0.155888 63 135 139
-0.322215 -0.0300687 0.156009 62 134 139
-0.322165 -0.0289909 0.15613 70 138 145
-0.322115 -0.0279123 0.156251 84 147 153
-0.322293 -0.0268248 0.156224 77 148 155
-0.322472 -0.0257344 0.156196 91 137 134
-0.321919 -0.035419 0.154482 103 130 125
-0.321869 -0.0343436 0.154602 77 127 126
-0.321591 -0.0332691 0.154873 66 130 133
-0.321541 -0.0321934 0.154993 65 134 138
-0.321264 -0.0311207 0.155263 63 134 138
-0.321214 -0.0300447 0.155384 62 135 141
-0.321164 -0.0289679 0.155504 74 141 148
-0.321114 -0.0278903 0.155625 91 152 155
-0.321291 -0.0268038 0.155597 79 142 155
-0.327789 -0.0254538 0.151426 86 142 142
-0.321146 -0.0353904 0.153708 92 123 125
-0.320869 -0.0343155 0.153979 68 126 130
-0.320819 -0.0332404 0.154099 64 131 135
-0.320542 -0.0321673 0.154369 66 133 137
-0.320266 -0.0310957 0.154639 63 133 138
-0.320216 -0.0300207 0.154759 62 135 142
-0.320166 -0.0289449 0.15488 76 144 151
-0.320341 -0.0278612 0.15485 93 156 157
-0.320517 -0.0267746 0.154821 92 134 148
-0.327232 -0.0254136 0.150469 89 137 146
-0.320373 -0.0353619 0.152934 88 120 122
-0.320097 -0.0342869 0.153205 67 125 131
-0.320046 -0.0332117 0.153325 64 133 139
-0.319545 -0.0321413 0.153747 65 133 140
-0.319495 -0.0310669 0.153866 63 132 138
-0.31922 -0.0299967 0.154136 66 135 144
-0.319394 -0.0289159 0.154106 80 145 154
-0.319343 -0.0278393 0.154226 86 157 160
-0.3196 -0.0353333 0.152159 84 122 123
-0.319324 -0.0342583 0.152431 67 126 132
-0.319049 -0.0331847 0.152703 65 134 140
-0.318774 -0.0321126 0.152974 63 133 140
-0.318499 -0.031042 0.153244 62 132 139
-0.318225 -0.0299728 0.153515 70 137 144
-0.318175 -0.0288991 0.153634 91 149 155
-0.318571 -0.0278102 0.153452 82 157 161
-0.318827 -0.0353047 0.151385 75 126 126
-0.318552 -0.0342296 0.151657 64 129 135
-0.318053 -0.0331578 0.152082 64 133 141
-0.317779 -0.0320867 0.152353 62 132 140
-0.317506 -0.0310171 0.152624 61 133 141
-0.317011 -0.029954 0.153045 72 140 146
-0.317404 -0.0288701 0.152862 98 156 156
-0.317799 -0.0277811 0.152678 86 148 158
-0.318054 -0.0352762 0.15061 67 126 129
-0.317779 -0.034201 0.150883 60 132 137
-0.31706 -0.0331309 0.151462 63 134 140
-0.316787 -0.0320608 0.151733 62 132 139
-0.316293 -0.0309962 0.152156 62 133 142
-0.315145 -0.0299502 0.153028 75 143 149
-0.315094 -0.0288839 0.153146 98 163 158
-0.316582 -0.0277665 0.152209 99 136 149
-0.317058 -0.0352472 0.14999 65 124 130
-0.316562 -0.0341738 0.150417 60 133 139
-0.316068 -0.033104 0.150843 63 135 140
-0.315576 -0.0320379 0.151267 63 133 138
-0.31443 -0.0309872 0.152143 65 134 143
-0.313945 -0.0299315 0.152562 84 144 152
-0.313462 -0.0288794 0.152979 92 165 163
-0.31406 -0.0277951 0.152647 111 141 141
-0.316285 -0.0352186 0.149216 65 124 130
-0.31557 -0.0341459 0.149799 62 133 139
-0.315078 -0.0330772 0.150226 62 134 140
-0.31437 -0.0320151 0.150803 61 135 139
-0.313232 -0.0309665 0.15168 72 136 144
-0.31275 -0.0299129 0.152098 100 149 155
-0.312484 -0.0288568 0.152365 85 158 165
-0.312433 -0.0277949 0.152482 106 154 144
-0.315565 -0.0362644 0.148324 78 123 124
-0.315292 -0.0351897 0.148598 63 126 131
-0.31458 -0.0341181 0.149182 64 133 139
-0.313654 -0.0330542 0.149917 63 134 140
-0.312736 -0.0319981 0.150646 60 135 141
-0.312039 -0.0309459 0.151218 75 139 147
-0.311774 -0.0298894 0.151485 112 158 158
-0.311723 -0.0288281 0.151602 89 148 163
-0.311671 -0.0277662 0.151719 92 160 155
-0.314572 -0.0362345 0.147707 70 123 126
-0.31408 -0.0351606 0.148137 61 128 134
-0.313373 -0.0340912 0.148722 64 133 139
-0.312238 -0.0330312 0.14961 65 133 140
-0.311542 -0.0319755 0.150185 62 133 141
-0.311064 -0.0309214 0.150606 78 142 150
-0.311012 -0.0298608 0.150722 108 167 162
-0.310961 -0.0287995 0.150839 106 138 154
-0.310909 -0.0277375 0.150955 86 143 160
-0.313581 -0.0362047 0.147091 65 122 128
-0.312874 -0.0351316 0.147679 59 131 136
-0.311741 -0.0340659 0.148573 62 134 139
-0.311045 -0.0330066 0.149151 64 133 140
-0.310567 -0.03195 0.149574 66 133 142
-0.310302 -0.030893 0.149843 88 145 153
-0.31025 -0.0298323 0.149959 94 168 165
-0.310199 -0.0287709 0.150075 119 146 141
-0.312374 -0.0361735 0.146634 66 124 129
-0.311673 -0.0351026 0.147222 61 133 138
-0.310547 -0.0340392 0.148116 62 135 141
-0.309856 -0.032982 0.148695 62 137 142
-0.309593 -0.0319246 0.148964 68 135 146
-0.309541 -0.0308645 0.14908 106 151 156
-0.309489 -0.0298037 0.149196 87 160 167
-0.309437 -0.0287423 0.149312 107 158 143
-0.311657 -0.0372147 0.145746 80 125 126
-0.311173 -0.0361426 0.146179 65 127 131
-0.310049 -0.0350734 0.147079 64 132 139
-0.309358 -0.0340126 0.147661 64 134 141
-0.308883 -0.0329556 0.148086 61 136 143
-0.308831 -0.0318962 0.148201 70 138 149
-0.308568 -0.0308401 0.14847 114 157 159
-0.308516 -0.0297803 0.148586 91 142 166
-0.308674 -0.0287136 0.148548 89 164 156
-0.310457 -0.0371817 0.145293 72 125 129
-0.309976 -0.0361117 0.145725 62 131 136
-0.30886 -0.0350448 0.146626 64 135 141
-0.308385 -0.0339853 0.147052 65 135 142
-0.308122 -0.0329273 0.147323 62 135 144
-0.30786 -0.0318708 0.147593 78 142 150
-0.307807 -0.0308117 0.147708 107 170 165
-0.307755 -0.0297518 0.147823 110 135 152
-0.309262 -0.0371488 0.144841 68 122 129
-0.308784 -0.036081 0.145273 61 132 138
-0.307886 -0.0350164 0.146018 63 134 141
-0.307413 -0.0339579 0.146445 65 135 142
-0.307361 -0.032899 0.14656 65 135 144
-0.307099 -0.0318425 0.14683 86 145 153
-0.307046 -0.0307832 0.146945 89 167 168
-0.306993 -0.0297233 0.14706 122 145 145
-0.308072 -0.037116 0.144391 68 124 129
-0.307597 -0.0360503 0.144823 62 134 140
-0.306705 -0.034988 0.145568 62 136 143
-0.306652 -0.0339297 0.145682 62 138 144
-0.306391 -0.0328727 0.145953 65 139 146
-0.30613 -0.0318172 0.146224 98 153 156
-0.306285 -0.0307548 0.146183 78 157 163
-0.30644 -0.0296895 0.146142 105 158 144
-0.307149 -0.0381472 0.143669 81 128 126
-0.306886 -0.0370834 0.143943 65 131 135
-0.306414 -0.0360198 0.144375 62 135 144
-0.305944 -0.0349599 0.144805 61 135 145
-0.305683 -0.0339025 0.145077 60 136 146
-0.30563 -0.0328445 0.145191 68 139 150
-0.305162 -0.0317919 0.145618 97 161 160
-0.305316 -0.0307305 0.145576 83 143 161
-0.305967 -0.0381126 0.143223 69 127 131
-0.305913 -0.0370531 0.143337 60 135 140
-0.305444 -0.0359906 0.14377 64 141 146
-0.305183 -0.0349317 0.144042 63 136 145
-0.304922 -0.0338743 0.144314 63 138 147
-0.304662 -0.0328182 0.144586 76 142 151
-0.304403 -0.0317636 0.144857 100 171 164
-0.304349 -0.0307062 0.144971 102 136 151
-0.305204 -0.0380847 0.142459 68 126 131
-0.304735 -0.0370207 0.142893 61 138 143
-0.304475 -0.0359614 0.143166 62 140 146
-0.304215 -0.0349035 0.143438 65 140 144
-0.304161 -0.0338461 0.143552 65 138 147
-0.303902 -0.03279 0.143824 87 143 153
-0.303643 -0.0317353 0.144096 92 171 170
-0.303589 -0.0306778 0.14421 113 143 146
-0.304081 -0.0391071 0.141902 97 128 128
-0.304028 -0.0380502 0.142016 69 127 135
-0.303768 -0.0369905 0.14229 62 139 148
-0.303508 -0.0359323 0.142563 62 139 148
-0.303454 -0.0348754 0.142676 64 142 147
-0.303195 -0.0338189 0.142949 64 140 147
-0.303141 -0.0327617 0.143062 98 151 156
-0.302883 -0.031707 0.143335 82 158 167
-0.303034 -0.0306452 0.14329 97 154 147
-0.303115 -0.039075 0.141301 86 133 131
-0.303061 -0.0380192 0.141414 65 134 136
-0.303007 -0.0369626 0.141527 63 141 146
-0.302543 -0.0359032 0.141961 65 139 147
-0.302489 -0.0348473 0.142074 61 139 149
-0.302231 -0.0337918 0.142347 66 142 148
-0.302177 -0.0327356 0.14246 104 160 159
-0.302123 -0.0316787 0.142573 86 145 161
-0.302272 -0.0306167 0.142527 83 154 152
-0.302354 -0.0390472 0.140539 76 131 137
-0.3023 -0.0379913 0.140651 65 137 142
-0.301838 -0.0369304 0.141087 64 141 147
-0.30158 -0.0358742 0.14136 68 142 149
-0.301526 -0.0348193 0.141473 62 139 149
-0.301472 -0.0337637 0.141586 69 145 152
-0.301214 -0.0327095 0.141859 98 167 165
-0.30116 -0.0316535 0.141971 99 138 153
-0.30139 -0.0390152 0.139939 74 128 136
-0.301132 -0.0379571 0.140213 64 139 145
-0.300875 -0.0369004 0.140487 64 141 148
-0.300821 -0.0358462 0.140599 66 142 147
-0.300766 -0.0347912 0.140712 65 139 147
-0.300712 -0.0337355 0.140825 81 147 154
-0.300455 -0.0326813 0.141098 86 165 168
-0.300401 -0.0316252 0.14121 105 142 146
-0.300427 -0.0389833 0.13934 74 126 134
-0.300171 -0.0379262 0.139614 65 140 147
-0.299915 -0.0368705 0.139888 62 140 150
-0.29986 -0.0358172 0.14 64 141 148
-0.300007 -0.0347631 0.139951 64 139 147
-0.299751 -0.0337085 0.140225 96 154 157
-0.299295 -0.0326575 0.140659 79 160 168
-0.29944 -0.0316002 0.14061 93 151 145
-0.299522 -0.0400037 0.138631 92 136 136
-0.299467 -0.0389514 0.138742 68 133 138
-0.299211 -0.0378953 0.139017 64 141 147
-0.298956 -0.0368407 0.139291 64 140 149
-0.298901 -0.0357883 0.139403 62 141 148
-0.299047 -0.0347352 0.139352 66 140 149
-0.298592 -0.0336827 0.139788 101 160 159
-0.298537 -0.0326293 0.1399 83 150 163
-0.298563 -0.039971 0.138034 80 136 140
-0.298508 -0.0389196 0.138146 63 137 142
-0.298254 -0.0378645 0.13842 63 142 148
-0.297999 -0.0368109 0.138694 66 141 147
-0.298143 -0.0357604 0.138643 61 141 148
-0.297889 -0.0347074 0.138917 68 141 151
-0.296846 -0.0336607 0.139836 96 164 161
-0.296791 -0.0326124 0.139947 92 141 153
-0.297607 -0.0399382 0.137439 73 132 139
-0.297551 -0.0388879 0.13755 60 139 145
-0.297298 -0.0378338 0.137825 63 143 147
-0.296847 -0.0367792 0.138262 65 142 147
-0.296792 -0.0357298 0.138373 62 140 147
-0.296147 -0.0346803 0.13897 76 144 155
-0.2957 -0.0336352 0.139403 86 163 165
-0.295645 -0.0325889 0.139513 96 141 147
-0.296652 -0.0399056 0.136845 72 129 136
-0.296202 -0.0388482 0.137284 63 140 145
-0.296147 -0.0378001 0.137394 62 143 147
-0.296091 -0.0367514 0.137505 61 141 148
-0.295448 -0.0356995 0.138104 62 138 147
-0.295198 -0.0346527 0.138377 86 147 156
-0.294753 -0.0336085 0.13881 78 157 165
-0.294698 -0.0325632 0.13892 89 145 145
-0.295951 -0.0409268 0.135977 97 141 137
-0.295502 -0.039868 0.136417 69 131 137
-0.294861 -0.0388087 0.137019 65 141 147
-0.294805 -0.0377637 0.137129 61 141 147
-0.29475 -0.0367181 0.137239 58 140 148
-0.2945 -0.0356709 0.137512 62 138 150
-0.294057 -0.0346253 0.137947 92 152 157
-0.293808 -0.0335819 0.138218 78 148 162
-0.293753 -0.0325376 0.138328 79 148 148
-0.294608 -0.0408812 0.135716 84 138 140
-0.294163 -0.0398255 0.136155 64 134 141
-0.293721 -0.0387734 0.136592 64 140 148
-0.293665 -0.0377304 0.136701 61 140 148
-0.293609 -0.0366867 0.136811 59 139 147
-0.293361 -0.0356416 0.137084 65 140 151
-0.293113 -0.0345978 0.137356 91 159 159
-0.292865 -0.0335554 0.137628 85 141 154
-0.293001 -0.0325096 0.137575 78 146 149
-0.293466 -0.0408418 0.135291 77 132 140
-0.293217 -0.0397932 0.135565 62 138 144
-0.292969 -0.0387459 0.135839 62 141 147
-0.292529 -0.0376972 0.136276 62 140 147
-0.292473 -0.0366555 0.136385 59 139 146
-0.292417 -0.0356131 0.136494 71 142 152
-0.29217 -0.0345703 0.136766 81 159 161
-0.292114 -0.0335275 0.136875 89 141 147
-0.292329 -0.0408026 0.134868 74 127 135
-0.292082 -0.039756 0.135142 62 139 145
-0.291834 -0.0387108 0.135415 61 140 146
-0.291778 -0.0376697 0.135524 61 141 146
-0.291531 -0.0366261 0.135797 60 139 145
-0.291475 -0.0355847 0.135905 80 145 153
-0.291419 -0.0345425 0.136014 75 155 160
-0.291363 -0.0334997 0.136123 86 144 143
-0.291443 -0.0418096 0.134172 102 139 135
-0.291387 -0.0407694 0.134281 72 128 134
-0.291331 -0.0397286 0.134389 63 138 143
-0.291084 -0.0386833 0.134663 60 138 145
-0.290837 -0.0376394 0.134936 61 140 145
-0.290781 -0.0365986 0.135045 63 139 147
-0.290725 -0.035557 0.135153 88 150 155
-0.290668 -0.0345148 0.135262 76 149 158
-0.290612 -0.0334719 0.135371 78 145 144
-0.290503 -0.0417755 0.133587 87 137 138
-0.290636 -0.0407421 0.133528 66 132 138
-0.29039 -0.0396964 0.133803 63 139 144
-0.290144 -0.0386521 0.134077 62 137 144
-0.290087 -0.0376119 0.134185 61 138 144
-0.290031 -0.036571 0.134293 65 139 147
-0.289974 -0.0355294 0.134401 86 154 156
-0.289918 -0.034487 0.134509 77 139 155
-0.289861 -0.033444 0.134618 74 143 147
-0.289564 -0.0417414 0.133002 77 131 138
-0.289696 -0.040709 0.132943 61 136 143
-0.289451 -0.0396643 0.133217 61 140 145
-0.289394 -0.0386247 0.133325 62 137 144
-0.289337 -0.0375844 0.133433 60 137 143
-0.28928 -0.0365434 0.133541 67 140 147
-0.289223 -0.0355017 0.133649 81 155 156
-0.289167 -0.0344593 0.133757 81 139 149
-0.288872 -0.0427519 0.132144 117 137 131
-0.288815 -0.0417143 0.132251 74 127 134
-0.288758 -0.040676 0.132358 61 138 145
-0.288701 -0.039637 0.132466 60 139 146
-0.288644 -0.0385973 0.132573 62 138 143
-0.288587 -0.0375569 0.132681 61 136 142
-0.28853 -0.0365158 0.132789 73 143 148
-0.288473 -0.035474 0.132897 75 152 157
-0.288415 -0.0344315 0.133004 81 141 144
-0.287993 -0.043753 0.131454 128 137 128
-0.288122 -0.0427248 0.131393 101 135 129
-0.288065 -0.0416871 0.1315 69 127 132
-0.288008 -0.0406487 0.131607 61 138 144
-0.287764 -0.0396049 0.131882 60 137 145
-0.287707 -0.0385662 0.131989 62 136 143
-0.28765 -0.0375267 0.132097 62 135 144
-0.287779 -0.0364882 0.132037 80 144 151
-0.287722 -0.0354463 0.132144 72 146 156
-0.287664 -0.0344038 0.132252 75 141 142
-0.287058 -0.0437172 0.130873 116 132 126
-0.287373 -0.0426977 0.130642 84 131 130
-0.287316 -0.0416599 0.130749 62 131 135
-0.287072 -0.0406158 0.131024 59 138 143
-0.287015 -0.0395776 0.131131 62 137 143
-0.286957 -0.0385388 0.131238 61 134 141
-0.2869 -0.0374992 0.131345 63 137 146
-0.286842 -0.036459 0.131453 81 149 153
-0.286971 -0.0354186 0.131392 72 140 153
-0.286913 -0.034376 0.131499 70 142 144
-0.286311 -0.0436903 0.130124 109 128 123
-0.286438 -0.0426629 0.130061 73 124 130
-0.286381 -0.0416261 0.130167 60 134 139
-0.286138 -0.0405829 0.130443 58 137 143
-0.286081 -0.0395457 0.130549 64 137 143
-0.286023 -0.0385078 0.130656 61 135 140
-0.285965 -0.0374692 0.130763 65 139 147
-0.286092 -0.0364314 0.130701 79 156 155
-0.286034 -0.0353904 0.130808 75 136 148
-0.286161 -0.0343482 0.130746 74 137 143
-0.285379 -0.0436546 0.129544 107 127 121
-0.285505 -0.0426281 0.12948 71 124 128
-0.285447 -0.0415922 0.129587 61 135 140
-0.28539 -0.0405556 0.129693 59 136 143
-0.285148 -0.0395137 0.129968 63 135 144
-0.28509 -0.0384768 0.130075 59 135 140
-0.285032 -0.0374392 0.130181 68 141 148
-0.285158 -0.0364023 0.130118 74 153 154
-0.285284 -0.0353628 0.130056 77 135 141
-0.284449 -0.043619 0.128966 99 127 120
-0.284574 -0.0425934 0.128901 70 125 127
-0.284516 -0.0415585 0.129007 63 136 140
-0.284458 -0.0405228 0.129113 61 134 142
-0.2844 -0.0394865 0.129219 61 132 142
-0.284342 -0.0384494 0.129325 60 134 141
-0.284284 -0.0374117 0.129431 75 143 149
-0.284225 -0.0363733 0.129537 70 148 154
-0.284533 -0.0353351 0.129304 75 137 137
-0.283579 -0.0446151 0.128283 112 125 116
-0.283702 -0.0435921 0.128217 85 126 121
-0.283644 -0.0425588 0.128323 65 128 130
-0.283586 -0.0415248 0.128428 61 137 142
-0.283528 -0.0404901 0.128534 60 133 144
-0.28347 -0.0394547 0.128639 57 132 143
-0.283411 -0.0384186 0.128745 60 134 142
-0.283353 -0.0373818 0.128851 77 147 149
-0.283476 -0.0363457 0.128787 67 141 152
-0.283965 -0.0353079 0.12838 68 137 139
-0.282652 -0.0445787 0.127707 104 120 114
-0.282775 -0.0435566 0.127641 73 122 123
-0.282716 -0.0425242 0.127746 61 131 136
-0.282658 -0.0414911 0.127851 61 134 142
-0.282419 -0.0404518 0.128127 61 133 143
-0.282361 -0.0394184 0.128232 58 132 142
-0.282483 -0.0383877 0.128167 62 136 141
-0.282424 -0.0373519 0.128272 78 150 149
-0.282546 -0.0363168 0.128207 68 134 149
-0.283213 -0.0352801 0.127627 69 133 140
-0.281728 -0.0445424 0.127132 99 120 113
-0.281669 -0.0435126 0.127236 69 121 124
-0.281611 -0.0424822 0.127341 61 134 140
-0.281552 -0.0414511 0.127445 61 134 142
-0.281315 -0.0404138 0.127721 61 132 141
-0.281256 -0.0393823 0.127826 59 133 141
-0.281376 -0.0383535 0.12776 65 137 145
-0.281318 -0.0373196 0.127865 73 151 151
-0.281618 -0.0362878 0.127628 73 132 140
-0.282462 -0.0352524 0.126874 76 127 135
-0.280983 -0.0445156 0.126386 97 121 114
-0.280925 -0.0434858 0.12649 68 123 126
-0.280687 -0.0424478 0.126766 60 134 142
-0.280273 -0.0414047 0.127212 59 133 141
-0.280037 -0.0403704 0.127487 58 132 142
-0.279979 -0.0393419 0.127591 58 132 142
-0.27992 -0.0383127 0.127695 68 137 147
-0.280038 -0.0372851 0.12763 67 147 152
-0.280513 -0.0362576 0.127222 71 134 136
-0.282072 -0.0352254 0.125773 84 121 132
-0.280061 -0.0444794 0.125812 86 121 118
-0.280002 -0.0434505 0.125916 65 127 129
-0.279589 -0.042406 0.126364 61 134 140
-0.279177 -0.041365 0.12681 58 133 139
-0.279118 -0.0403381 0.126914 58 131 140
-0.279059 -0.0393105 0.127018 62 132 140
-0.279001 -0.0382821 0.127122 76 141 147
-0.279118 -0.0372555 0.127055 65 142 152
-0.279235 -0.0362261 0.126988 68 134 135
-0.279023 -0.0454601 0.125309 99 117 111
-0.278964 -0.0444338 0.125412 72 120 121
-0.278905 -0.0434068 0.125516 61 130 134
-0.278494 -0.0423644 0.125963 60 133 139
-0.27826 -0.0413318 0.126238 57 131 138
-0.278201 -0.0403058 0.126342 55 133 139
-0.278142 -0.0392791 0.126445 60 134 141
-0.278083 -0.0382517 0.126549 77 145 147
-0.278199 -0.0372259 0.126481 65 136 147
-0.278491 -0.0361988 0.126242 65 133 134
-0.278105 -0.0454231 0.124738 94 114 110
-0.278046 -0.0443977 0.124841 67 120 123
-0.277812 -0.0433633 0.125117 60 131 136
-0.277578 -0.0423303 0.125393 59 132 137
-0.277345 -0.0412986 0.125667 57 129 135
-0.277112 -0.0402682 0.125942 56 133 138
-0.277053 -0.0392435 0.126045 61 135 144
-0.277167 -0.0382213 0.125977 74 148 147
-0.277282 -0.0371964 0.125909 67 130 140
-0.277571 -0.0361701 0.125669 68 129 133
-0.277364 -0.0453965 0.123995 90 115 111
-0.27713 -0.0443617 0.124271 66 121 125
-0.276897 -0.0433283 0.124547 61 132 138
-0.276664 -0.0422962 0.124823 58 131 137
-0.276431 -0.0412655 0.125098 56 130 135
-0.276372 -0.0402413 0.1252 56 131 138
-0.276313 -0.0392165 0.125303 64 136 144
-0.276253 -0.0381909 0.125406 69 148 149
-0.276367 -0.0371669 0.125337 68 129 133
-0.276654 -0.0361415 0.125096 76 122 131
-0.276448 -0.0453596 0.123426 82 116 114
-0.276216 -0.0443258 0.123702 65 124 128
-0.276156 -0.0433016 0.123805 60 132 137
-0.275751 -0.0422622 0.124254 57 129 137
-0.27552 -0.0412324 0.124529 55 130 136
-0.27546 -0.0402092 0.124631 55 132 140
-0.2754 -0.0391853 0.124733 67 139 146
-0.275513 -0.0381639 0.124664 65 142 149
-0.275453 -0.0371375 0.124766 70 128 131
-0.275535 -0.0453228 0.122858 74 120 119
-0.275475 -0.0442992 0.12296 62 129 133
-0.275243 -0.0432667 0.123237 59 135 138
-0.27484 -0.0422283 0.123686 56 128 135
-0.27478 -0.0412056 0.123788 55 131 137
-0.274721 -0.0401823 0.12389 56 133 139
-0.274661 -0.0391583 0.123992 73 143 147
-0.274601 -0.0381336 0.124095 62 136 146
-0.274712 -0.0371104 0.124024 66 131 131
-0.274623 -0.045286 0.122291 66 120 120
-0.274563 -0.0442633 0.122393 58 130 136
-0.274332 -0.0432318 0.122669 60 134 139
-0.274101 -0.0422016 0.122945 58 128 135
-0.274041 -0.0411788 0.123047 55 131 138
-0.273981 -0.0401554 0.123149 61 133 140
-0.273921 -0.0391313 0.123251 74 146 147
-0.273861 -0.0381065 0.123353 62 127 140
-0.273801 -0.037081 0.123455 66 127 130
-0.273712 -0.0452493 0.121725 66 121 123
-0.273652 -0.0442276 0.121827 59 132 135
-0.273422 -0.043197 0.122103 58 129 135
-0.273362 -0.0421748 0.122204 56 128 134
-0.273302 -0.041152 0.122306 56 131 135
-0.273241 -0.0401285 0.122408 63 133 140
-0.273181 -0.0391043 0.122509 70 145 148
-0.27312 -0.0380795 0.122611 65 122 134
-0.27306 -0.0370539 0.122713 70 122 130
-0.272973 -0.0452228 0.120984 66 121 127
-0.272743 -0.0441919 0.121261 59 132 138
-0.272683 -0.0431703 0.121362 58 128 136
-0.272622 -0.0421481 0.121464 55 129 132
-0.272393 -0.0411191 0.12174 55 132 134
-0.272333 -0.0400965 0.121841 66 134 138
-0.272441 -0.0390774 0.121768 66 141 146
-0.27238 -0.0380524 0.121869 68 125 127
-0.272294 -0.0462176 0.120142 78 121 117
-0.272065 -0.0451862 0.12042 62 127 130
-0.272005 -0.0441653 0.120521 58 133 140
-0.271944 -0.0431437 0.120622 55 128 136
-0.271715 -0.0421143 0.120899 54 129 132
-0.271654 -0.0410923 0.121 59 131 135
-0.271593 -0.0400697 0.121101 73 139 140
-0.271533 -0.0390463 0.121202 62 136 146
-0.27164 -0.0380253 0.121127 66 126 128
-0.271387 -0.0461801 0.119579 67 119 120
-0.271326 -0.0451598 0.119679 59 128 132
-0.271265 -0.0441387 0.11978 57 132 137
-0.271037 -0.043109 0.120058 53 127 135
-0.270976 -0.0420876 0.120158 53 128 133
-0.270915 -0.0410655 0.120259 59 133 137
-0.270854 -0.0400428 0.12036 72 141 142
-0.270793 -0.0390193 0.120461 58 128 142
-0.270899 -0.0379983 0.120385 64 128 129
-0.270649 -0.0461537 0.118839 66 120 122
-0.270588 -0.0451333 0.118939 59 131 135
-0.27036 -0.0441031 0.119217 56 132 136
-0.270298 -0.0430824 0.119317 54 125 134
-0.270237 -0.0420609 0.119418 55 127 135
-0.27001 -0.0410327 0.119695 61 132 139
-0.270115 -0.0400159 0.119619 70 141 144
-0.270053 -0.0389924 0.11972 58 122 136
-0.270159 -0.0379712 0.119643 67 126 131
-0.26991 -0.0461273 0.118098 65 121 124
-0.269848 -0.0451068 0.118198 59 129 136
-0.269621 -0.0440766 0.118477 57 127 135
-0.26956 -0.0430557 0.118577 55 123 133
-0.269333 -0.0420272 0.118855 56 125 135
-0.269271 -0.0410059 0.118955 64 133 139
-0.26921 -0.039984 0.119055 66 142 143
-0.269314 -0.0389654 0.118978 61 118 128
-0.269418 -0.0379441 0.118901 72 121 130
-0.269233 -0.0471207 0.117258 81 118 115
-0.269171 -0.0461008 0.117358 64 125 127
-0.269109 -0.0450803 0.117458 59 130 136
-0.268882 -0.04405 0.117737 56 128 135
-0.268656 -0.0430211 0.118015 55 125 131
-0.268594 -0.0420005 0.118115 58 129 135
-0.268532 -0.0409792 0.118215 66 136 139
-0.268471 -0.0399572 0.118315 61 138 143
-0.268574 -0.0389384 0.118237 62 122 125
-0.268494 -0.0470944 0.116518 71 122 119
-0.268432 -0.0460744 0.116617 61 127 131
-0.26837 -0.0450538 0.116717 59 130 136
-0.268144 -0.0440235 0.116996 55 129 135
-0.267918 -0.0429945 0.117275 54 126 133
-0.267856 -0.0419738 0.117375 60 129 136
-0.267794 -0.0409524 0.117475 69 136 141
-0.267732 -0.0399303 0.117574 60 131 142
-0.267834 -0.0389114 0.117495 64 126 125
-0.267755 -0.0470681 0.115777 65 122 123
-0.267693 -0.046048 0.115877 59 128 133
-0.267467 -0.0450173 0.116157 57 129 136
-0.267241 -0.043988 0.116436 54 126 134
-0.267016 -0.04296 0.116715 55 125 133
-0.266954 -0.0419402 0.116814 60 130 136
-0.266892 -0.0409197 0.116914 69 138 141
-0.26683 -0.0398985 0.117013 57 124 136
-0.267094 -0.0388845 0.116754 64 126 128
-0.267016 -0.0470417 0.115037 62 121 125
-0.266791 -0.0460107 0.115317 57 129 135
-0.266565 -0.044981 0.115597 56 130 135
-0.26634 -0.0439526 0.115877 55 127 134
-0.266116 -0.0429255 0.116156 56 126 134
-0.266054 -0.0419067 0.116255 63 133 137
-0.265991 -0.0408871 0.116354 67 139 140
-0.266091 -0.0398717 0.116273 58 119 130
-0.266353 -0.0388575 0.116012 69 122 129
-0.266114 -0.0470035 0.114478 62 121 126
-0.266052 -0.0459843 0.114577 59 129 135
-0.265665 -0.0449447 0.115039 56 128 135
-0.265441 -0.0439173 0.115318 52 125 134
-0.265379 -0.042899 0.115417 56 127 134
-0.265155 -0.0418732 0.115696 63 134 138
-0.265093 -0.0408545 0.115795 64 138 140
-0.265191 -0.0398399 0.115713 63 122 125
-0.265613 -0.0388305 0.11527 80 117 126
-0.265376 -0.0469772 0.113738 62 122 127
-0.265313 -0.0459579 0.113837 59 128 135
-0.264928 -0.0449183 0.1143 57 127 135
-0.264704 -0.0438908 0.11458 52 125 133
-0.264481 -0.0428646 0.114859 55 128 134
-0.264258 -0.0418397 0.115138 63 133 139
-0.264196 -0.040822 0.115237 58 133 140
-0.264293 -0.0398083 0.115155 64 122 122
-0.264763 -0.0489876 0.112802 93 116 112
-0.264701 -0.0479696 0.1129 68 118 121
-0.264477 -0.0469391 0.113182 59 124 128
-0.264414 -0.0459207 0.11328 58 128 132
-0.26403 -0.0448821 0.113743 56 126 132
-0.263648 -0.0438468 0.114205 54 123 131
-0.263426 -0.0428226 0.114484 59 127 133
-0.262888 -0.0417862 0.115123 67 135 139
-0.262825 -0.0407723 0.11522 58 127 138
-0.263396 -0.0397767 0.114597 65 125 124
-0.263865 -0.0489477 0.112246 81 111 112
-0.263802 -0.0479306 0.112344 62 120 123
-0.263419 -0.0468893 0.112809 58 127 131
-0.263356 -0.0458728 0.112907 58 127 132
-0.262975 -0.0448363 0.11337 56 125 132
-0.262596 -0.043803 0.113831 55 124 132
-0.26206 -0.0427654 0.114471 61 129 136
-0.261841 -0.0417464 0.114748 67 136 139
-0.261778 -0.0407344 0.114845 58 121 134
-0.262029 -0.039731 0.114583 69 126 125
-0.262968 -0.0489079 0.111692 79 110 111
-0.262746 -0.047879 0.111973 60 121 124
-0.262366 -0.0468398 0.112438 56 128 132
-0.261987 -0.0458039 0.1129 56 126 133
-0.261924 -0.0447906 0.112997 54 124 131
-0.261391 -0.0437508 0.113639 55 125 132
-0.261171 -0.0427314 0.113917 61 130 137
-0.260797 -0.0417067 0.114374 66 135 138
-0.26089 -0.0407022 0.114291 61 116 128
-0.260982 -0.039695 0.114208 76 117 124
-0.262073 -0.0488681 0.111138 78 114 112
-0.261852 -0.0478402 0.11142 59 124 125
-0.261474 -0.046802 0.111884 56 128 132
-0.260785 -0.045746 0.112712 54 126 132
-0.260721 -0.0447356 0.112809 53 124 132
-0.260503 -0.0437159 0.113087 55 126 133
-0.26013 -0.0426899 0.113546 61 131 137
-0.259912 -0.0416738 0.113822 64 133 135
-0.260003 -0.04067 0.113739 64 117 123
-0.260095 -0.0396637 0.113655 84 114 120
-0.26118 -0.0488285 0.110586 69 116 116
-0.260803 -0.0477889 0.111052 58 123 128
-0.260116 -0.0467298 0.111882 55 126 133
-0.259898 -0.0457094 0.112161 54 125 132
-0.259526 -0.0446809 0.112621 52 124 131
-0.259462 -0.0436726 0.112717 55 128 133
-0.259245 -0.0426561 0.112994 62 132 137
-0.259028 -0.0416408 0.113271 61 129 134
-0.259118 -0.040638 0.113187 66 118 118
-0.260132 -0.0487753 0.110219 62 118 121
-0.259448 -0.047713 0.111052 56 124 132
-0.25923 -0.0466922 0.111332 55 125 133
-0.258859 -0.0456624 0.111793 53 124 130
-0.258642 -0.0446453 0.112071 53 125 130
-0.258578 -0.0436378 0.112167 58 129 133
-0.258362 -0.0426223 0.112444 63 131 137
-0.258299 -0.0416145 0.11254 58 123 133
-0.258235 -0.040606 0.112636 68 119 118
-0.25878 -0.0486956 0.110223 57 121 126
-0.258562 -0.0476746 0.110503 54 125 133
-0.258192 -0.0466434 0.110966 54 125 132
-0.257976 -0.0456259 0.111244 53 124 128
-0.25776 -0.0446097 0.111522 54 124 129
-0.257696 -0.0436032 0.111618 60 128 134
-0.257633 -0.042596 0.111713 64 130 136
-0.257569 -0.0415881 0.111809 58 119 130
-0.257505 -0.0405795 0.111905 71 120 120
-0.257743 -0.0486431 0.10986 56 121 126
-0.257526 -0.0476239 0.110139 54 125 133
-0.25731 -0.0466061 0.110418 53 124 131
-0.257095 -0.0455895 0.110696 51 123 128
-0.257031 -0.0445836 0.110792 55 123 130
-0.256967 -0.043577 0.110887 62 129 134
-0.256903 -0.0425697 0.110982 63 128 133
-0.256839 -0.0415617 0.111078 62 116 125
-0.256775 -0.040553 0.111173 79 117 120
-0.25686 -0.0486039 0.109312 57 120 127
-0.256645 -0.0475857 0.109592 54 124 132
-0.25643 -0.0465688 0.109871 52 124 130
-0.256366 -0.0455635 0.109966 50 122 129
-0.256302 -0.0445574 0.110061 56 124 131
-0.256237 -0.0435507 0.110156 62 129 135
-0.256173 -0.0425434 0.110251 61 126 131
-0.256109 -0.0415353 0.110346 67 114 121
-0.256259 -0.0505881 0.108392 91 118 110
-0.256195 -0.0495834 0.108486 65 113 116
-0.25598 -0.0485649 0.108766 57 122 128
-0.255765 -0.0475476 0.109046 54 125 131
-0.255701 -0.0465428 0.10914 51 124 129
-0.255637 -0.0455374 0.109235 50 122 128
-0.255422 -0.044522 0.109514 57 125 131
-0.255358 -0.0435162 0.109609 60 128 135
-0.255443 -0.042517 0.10952 58 124 130
-0.25538 -0.0505473 0.107847 76 114 111
-0.255315 -0.0495435 0.107941 56 117 120
-0.255101 -0.0485259 0.108221 54 124 129
-0.255037 -0.0475217 0.108316 52 126 130
-0.254972 -0.0465169 0.10841 50 123 128
-0.254758 -0.0455011 0.108689 50 122 128
-0.254694 -0.0444959 0.108784 58 128 132
-0.254629 -0.04349 0.108878 58 128 135
-0.254713 -0.0424907 0.108788 55 121 128
-0.254502 -0.0505066 0.107303 68 112 113
-0.254437 -0.0495036 0.107397 52 120 125
-0.254373 -0.0485001 0.107491 52 125 130
-0.254308 -0.0474958 0.107585 50 126 129
-0.254095 -0.0464797 0.107865 49 122 127
-0.25403 -0.0454751 0.107959 51 123 129
-0.253965 -0.0444697 0.108053 59 130 134
-0.2539 -0.0434638 0.108148 58 126 134
-0.253983 -0.0424644 0.108057 57 117 126
-0.253774 -0.0504809 0.106573 66 110 113
-0.253709 -0.0494779 0.106667 52 123 129
-0.253644 -0.0484742 0.106761 52 125 132
-0.253431 -0.0474578 0.107041 51 125 128
-0.253366 -0.0464537 0.107135 51 122 126
-0.253301 -0.045449 0.107229 54 123 130
-0.253236 -0.0444436 0.107323 59 129 134
-0.253171 -0.0434376 0.107417 59 123 131
-0.253253 -0.0424381 0.107325 63 113 125
-0.253046 -0.0504552 0.105843 64 111 114
-0.252981 -0.0494521 0.105937 53 125 131
-0.252915 -0.0484484 0.10603 56 127 133
-0.252703 -0.0474319 0.106311 54 126 130
-0.252638 -0.0464278 0.106405 54 123 128
-0.252572 -0.045423 0.106499 57 124 131
-0.252507 -0.0444175 0.106592 59 128 133
-0.252441 -0.0434113 0.106686 58 122 127
-0.252523 -0.0424118 0.106593 70 113 119
-0.252383 -0.051432 0.10502 83 118 110
-0.252317 -0.0504295 0.105113 62 117 118
-0.252252 -0.0494264 0.105207 57 127 132
-0.252186 -0.0484226 0.1053 60 128 135
-0.252121 -0.0474181 0.105393 57 127 133
-0.251909 -0.0464018 0.105675 56 125 131
-0.251843 -0.0453969 0.105768 60 128 133
-0.251778 -0.0443913 0.105862 60 128 134
-0.251858 -0.0433933 0.105768 62 125 126
-0.251793 -0.0423854 0.105861 78 118 116
-0.25172 -0.0524083 0.104197 100 114 106
-0.251654 -0.0514064 0.10429 69 112 111
-0.251589 -0.0504039 0.104383 58 119 121
-0.251523 -0.0494006 0.104476 61 128 134
-0.251457 -0.0483967 0.104569 63 130 136
-0.251392 -0.0473921 0.104663 60 129 136
-0.25118 -0.0463758 0.104944 61 131 137
-0.251114 -0.0453708 0.105038 64 134 138
-0.251048 -0.0443652 0.105131 62 128 136
-0.251128 -0.0433671 0.105036 64 127 129
-0.251062 -0.0423591 0.105129 84 122 117
-0.250992 -0.0523828 0.103468 90 108 104
-0.250926 -0.0513808 0.10356 59 100 107
-0.25086 -0.0503782 0.103653 56 119 121
-0.250794 -0.0493749 0.103746 66 132 136
-0.250728 -0.0483709 0.103839 65 133 139
-0.250662 -0.0473662 0.103932 65 134 139
-0.250451 -0.0463498 0.104214 71 138 141
-0.250385 -0.0453448 0.104307 66 136 143
-0.250319 -0.0443391 0.1044 57 127 136
-0.250398 -0.0433408 0.104304 58 122 126
-0.250332 -0.0423328 0.104397 81 117 114
-0.25033 -0.0533587 0.102646 101 111 104
-0.250264 -0.0523573 0.102738 79 105 101
-0.250198 -0.0513552 0.10283 54 96 100
-0.250132 -0.0503525 0.102923 53 116 118
-0.250065 -0.0493491 0.103015 67 135 138
-0.249999 -0.048345 0.103108 66 135 143
-0.249933 -0.0473403 0.103201 70 138 142
-0.249722 -0.0463238 0.103483 71 141 142
-0.249656 -0.0453187 0.103576 62 132 138
-0.24959 -0.0443129 0.103669 56 124 129
-0.249667 -0.0433145 0.103572 57 113 118
-0.249601 -0.0423064 0.103665 79 110 109
-0.249602 -0.0533332 0.101916 95 112 106
-0.249536 -0.0523318 0.102008 68 102 102
-0.249469 -0.0513296 0.1021 49 95 100
-0.249403 -0.0503268 0.102192 47 109 116
-0.249336 -0.0493233 0.102285 53 122 129
-0.24927 -0.0483192 0.102377 61 129 136
-0.249203 -0.0473143 0.10247 64 133 140
-0.248993 -0.0462978 0.102753 60 131 136
-0.248927 -0.0452926 0.102845 58 126 132
-0.24886 -0.0442867 0.102938 55 122 128
-0.248937 -0.0432883 0.10284 57 112 119
-0.24887 -0.0422801 0.102933 81 109 109
-0.248874 -0.0533078 0.101186 88 108 107
-0.248807 -0.0523062 0.101278 59 100 105
-0.248741 -0.051304 0.10137 46 97 104
-0.248674 -0.0503011 0.101462 47 109 116
-0.248607 -0.0492976 0.101554 54 116 124
-0.24854 -0.0482933 0.101646 55 123 129
-0.248474 -0.0472884 0.101738 57 125 131
-0.248121 -0.0462609 0.102213 57 125 131
-0.248054 -0.0452566 0.102305 57 125 130
-0.247988 -0.0442516 0.102397 55 119 126
-0.248206 -0.043262 0.102108 60 109 118
-0.248139 -0.0422537 0.1022 87 110 107
-0.248003 -0.0532647 0.100649 86 107 107
-0.248079 -0.0522807 0.100548 54 96 104
-0.248012 -0.0512784 0.10064 44 100 105
-0.247945 -0.0502754 0.100731 46 110 117
-0.247878 -0.0492718 0.100823 50 118 124
-0.247811 -0.0482675 0.100915 53 122 128
-0.247602 -0.0472506 0.101199 54 125 131
-0.247393 -0.0462349 0.101483 55 126 131
-0.247326 -0.0452305 0.101575 53 126 130
-0.247259 -0.0442254 0.101667 54 117 123
-0.247475 -0.0432357 0.101375 69 106 113
-0.247133 -0.0532216 0.100113 84 104 102
-0.247208 -0.0522385 0.100011 54 94 99
-0.247141 -0.051237 0.100102 44 102 106
-0.247074 -0.0502349 0.100194 46 111 118
-0.247007 -0.0492322 0.100285 49 118 124
-0.24694 -0.0482287 0.100377 50 122 129
-0.246731 -0.0472128 0.100661 53 123 133
-0.246523 -0.0461981 0.100944 54 125 132
-0.246456 -0.0451945 0.101036 51 123 131
-0.246389 -0.0441903 0.101128 53 116 121
-0.246406 -0.0531962 0.0993838 80 101 99
-0.246339 -0.0521963 0.0994748 52 92 97
-0.246272 -0.0511958 0.0995659 45 103 108
-0.246205 -0.0501945 0.099657 47 112 119
-0.246137 -0.0491927 0.0997482 50 119 125
-0.24607 -0.0481901 0.0998394 54 122 128
-0.245862 -0.0471751 0.100124 57 125 131
-0.245655 -0.0461613 0.100407 53 124 130
-0.245727 -0.0451685 0.100306 52 121 127
-0.24566 -0.0441642 0.100398 54 111 119
-0.245606 -0.0541515 0.0987584 99 116 109
-0.245679 -0.0531708 0.098655 69 96 99
-0.245612 -0.0521708 0.0987457 50 93 99
-0.245404 -0.0511546 0.0990304 48 106 110
-0.245337 -0.0501542 0.0991212 49 113 119
-0.245269 -0.0491532 0.0992121 51 119 123
-0.245202 -0.0481515 0.099303 54 123 127
-0.244995 -0.0471374 0.0995871 54 123 128
-0.244927 -0.0461353 0.099678 52 123 129
-0.24486 -0.0451326 0.099769 53 119 126
-0.245071 -0.044147 0.099474 56 111 118
-0.244741 -0.0541078 0.0982248 88 113 108
-0.244812 -0.0531278 0.0981208 60 97 99
-0.244745 -0.0521287 0.0982112 48 96 100
-0.244538 -0.0511134 0.0984959 48 107 111
-0.24447 -0.050114 0.0985863 50 113 119
-0.244403 -0.0491138 0.0986769 51 119 125
