ply
format ascii 1.0
element vertex 1191
property float x
property float y
property float z
property uchar diffuse_red
property uchar diffuse_green
property uchar diffuse_blue
end_header
-0.28417 -0.00898116 0.201923 88 122 73
-0.283554 -0.00806774 0.202255 87 121 67
-0.283127 -0.007135 0.202485 88 123 66
-0.282333 -0.00625743 0.202912 88 131 66
-0.281363 -0.00541302 0.203433 91 139 70
-0.280221 -0.0046036 0.204047 97 146 73
-0.279449 -0.00374849 0.204462 104 153 77
-0.279215 -0.00281532 0.204589 109 162 82
-0.278805 -0.00191341 0.20481 114 164 82
-0.278395 -0.00101525 0.205031 113 163 80
-0.278164 -9.02034e-05 0.205156 110 158 80
-0.278286 0.000895626 0.205092 109 154 79
-0.278409 0.00188271 0.205028 108 151 82
-0.278709 0.00290447 0.204868 96 139 78
-0.278654 0.00386071 0.204899 86 129 71
-0.2786 0.00481644 0.204929 84 130 70
-0.278545 0.00577167 0.20496 84 130 69
-0.278491 0.00672641 0.20499 84 128 68
-0.277905 0.00756784 0.205305 83 126 69
-0.277498 0.00844245 0.205525 83 126 70
-0.276569 0.00919701 0.206024 84 126 70
-0.275131 0.0098271 0.206796 85 125 69
-0.274906 0.0107244 0.206918 85 126 68
-0.274682 0.0116196 0.207039 84 127 68
-0.273947 0.0123894 0.207435 84 127 68
-0.27221 0.0129051 0.208366 84 127 69
-0.271825 0.0137435 0.208574 83 126 71
-0.272105 0.0147489 0.208425 84 123 75
-0.276581 0.0245071 0.206038 83 131 77
-0.276353 0.0253943 0.206162 83 132 78
-0.284626 -0.0118562 0.200541 162 166 157
-0.284194 -0.0109084 0.200777 151 160 146
-0.28395 -0.00994205 0.20091 121 138 107
-0.283707 -0.00897806 0.201043 98 127 88
-0.283279 -0.00804049 0.201276 87 123 78
-0.282667 -0.00713178 0.201609 86 121 72
-0.281875 -0.00625416 0.202039 83 123 68
-0.280907 -0.0054097 0.202565 84 126 68
-0.279948 -0.00457336 0.203086 88 134 69
-0.279713 -0.00363467 0.203214 95 140 70
-0.278942 -0.00278348 0.203633 101 149 73
-0.278709 -0.00185163 0.20376 106 154 76
-0.2783 -0.000951898 0.203984 108 155 75
-0.278068 -2.51781e-05 0.20411 107 153 76
-0.27819 0.000962542 0.204045 106 152 79
-0.278669 0.00201676 0.203788 104 151 82
-0.278792 0.00300885 0.203722 93 139 74
-0.278916 0.00400223 0.203656 84 132 70
-0.278861 0.00496147 0.203687 83 131 71
-0.278807 0.00592021 0.203718 83 131 69
-0.278752 0.00687844 0.203749 83 130 68
-0.277987 0.00768481 0.204165 84 130 68
-0.277932 0.0086386 0.204195 84 130 70
-0.278588 0.0097501 0.203841 85 129 69
-0.274636 0.0107686 0.205984 85 128 67
-0.27356 0.0114626 0.206568 83 128 73
-0.272832 0.0122303 0.206964 83 128 72
-0.271443 0.0128275 0.207717 82 130 73
-0.271224 0.0137063 0.207837 83 128 71
-0.271172 0.0146256 0.207866 82 126 71
-0.335916 0.0737461 0.172867 120 152 112
-0.335847 0.0749665 0.172906 143 168 142
-0.335777 0.0761863 0.172945 161 178 162
-0.284105 -0.0108622 0.199689 159 166 154
-0.283674 -0.00991656 0.199926 154 159 142
-0.283431 -0.00895163 0.20006 139 150 121
-0.282817 -0.00803733 0.200397 112 132 102
-0.282391 -0.00710364 0.200632 95 121 82
-0.281967 -0.0061739 0.200865 87 119 73
-0.280814 -0.0053538 0.201498 85 121 69
-0.280214 -0.00446209 0.201827 86 122 66
-0.279438 -0.0036035 0.202253 86 129 65
-0.279204 -0.00266613 0.202382 92 135 68
-0.27897 -0.00173094 0.202511 96 142 70
-0.278737 -0.000797953 0.20264 100 146 72
-0.278683 0.000163886 0.202672 104 150 76
-0.278806 0.00115718 0.202605 108 152 80
-0.279109 0.0021847 0.202441 106 153 83
-0.279234 0.00318151 0.202374 100 150 77
-0.279179 0.00414478 0.202405 98 148 74
-0.279125 0.00510755 0.202436 99 145 73
-0.279249 0.00610636 0.202369 97 142 71
-0.279195 0.00706898 0.2024 96 140 69
-0.278603 0.00791646 0.202726 95 137 69
-0.278727 0.00891449 0.202659 92 134 71
-0.274194 0.0107729 0.205143 87 132 72
-0.27312 0.011467 0.205731 84 131 73
-0.27273 0.0123164 0.205946 84 131 72
-0.271173 0.012873 0.206799 84 128 69
-0.271121 0.0137945 0.206829 83 128 69
-0.336583 0.0680036 0.171068 78 124 81
-0.336513 0.0692316 0.171108 79 125 83
-0.336443 0.070459 0.171147 87 129 84
-0.336374 0.0716857 0.171187 98 137 87
-0.336003 0.0727855 0.171391 103 143 101
-0.335334 0.0737552 0.171759 132 161 128
-0.335265 0.0749756 0.171799 154 173 151
-0.283584 -0.00986847 0.198837 161 169 158
-0.283154 -0.00892515 0.199076 161 173 156
-0.282912 -0.00796159 0.199211 154 160 139
-0.2823 -0.00705047 0.199551 128 140 110
-0.281691 -0.00614485 0.199889 102 124 87
-0.28072 -0.00529768 0.200426 91 119 75
-0.280301 -0.00437724 0.200659 86 120 70
-0.279703 -0.00348864 0.200991 83 121 67
-0.279468 -0.00254791 0.201122 85 124 66
-0.279054 -0.00163897 0.201353 88 132 66
-0.278999 -0.000673066 0.201384 96 139 70
-0.278944 0.000292313 0.201416 103 145 75
-0.279069 0.00128938 0.201348 108 152 80
-0.279374 0.00232093 0.201181 113 163 86
-0.279319 0.0032874 0.201212 119 175 87
-0.279264 0.00425337 0.201244 122 180 87
-0.27921 0.00521882 0.201276 123 179 87
-0.279335 0.00622052 0.201208 121 175 85
-0.2791 0.00714819 0.201339 119 174 85
-0.278686 0.00803534 0.201569 115 172 83
-0.278991 0.00907554 0.201402 110 168 81
-0.272849 0.0115117 0.204801 98 154 78
-0.272628 0.0124028 0.204925 97 149 76
-0.272238 0.0132501 0.205141 96 146 74
-0.335837 0.0654367 0.17004 79 122 70
-0.336068 0.0667836 0.169914 73 115 64
-0.335998 0.0680123 0.169955 69 110 61
-0.335928 0.0692404 0.169995 70 112 63
-0.335859 0.0704678 0.170035 78 119 69
-0.335789 0.0716945 0.170075 94 137 83
-0.33572 0.0729207 0.170115 112 147 112
-0.33535 0.0740186 0.170321 142 167 146
-0.33528 0.075242 0.170361 162 176 159
-0.282635 -0.00793415 0.198226 162 167 155
-0.282393 -0.00697195 0.198362 142 159 144
-0.281782 -0.006064 0.198704 122 135 105
-0.281175 -0.00516154 0.199045 106 129 87
-0.280207 -0.00431929 0.199587 93 121 78
-0.279789 -0.00340109 0.199821 88 116 73
-0.279553 -0.0024578 0.199954 84 118 67
-0.279138 -0.00154649 0.200187 85 124 66
-0.279083 -0.000577898 0.200219 94 137 70
-0.279028 0.000390169 0.200251 102 144 75
-0.279154 0.0013901 0.200182 109 151 80
-0.279279 0.00239134 0.200114 117 166 87
-0.279224 0.00335962 0.200146 128 184 94
-0.279169 0.00432742 0.200177 137 195 99
-0.279295 0.0053307 0.200109 139 200 102
-0.279421 0.00633529 0.200039 140 199 100
-0.279366 0.00730329 0.200071 139 197 98
-0.279311 0.00827079 0.200103 137 196 96
-0.272747 0.0115969 0.203774 125 188 91
-0.335321 0.0642165 0.168887 86 126 76
-0.335252 0.0654452 0.168928 80 121 69
-0.335783 0.0669114 0.168633 73 115 63
-0.335713 0.0681416 0.168674 70 113 61
-0.335644 0.0693712 0.168714 74 120 66
-0.335574 0.0706002 0.168754 87 135 76
-0.335505 0.0718285 0.168795 101 143 94
-0.335435 0.0730562 0.168835 139 161 128
-0.335366 0.0742832 0.168876 160 174 155
-0.28286 -0.00684229 0.196956 162 171 150
-0.279403 -0.00142359 0.198914 82 120 64
-0.279529 -0.000420577 0.198844 89 130 68
-0.279474 0.000551959 0.198876 98 142 75
-0.2796 0.00155666 0.198806 105 151 80
-0.279545 0.00252907 0.198838 111 160 82
-0.279491 0.00350095 0.198871 117 170 87
-0.279436 0.00447232 0.198903 122 177 90
-0.279744 0.0055158 0.19873 124 180 92
-0.280235 0.00660001 0.198454 125 183 93
-0.28018 0.00757429 0.198486 127 186 94
-0.335336 0.0644574 0.167436 90 133 75
-0.335266 0.065689 0.167477 86 130 71
-0.335197 0.06692 0.167518 84 130 70
-0.335729 0.0683926 0.16722 92 138 74
-0.33566 0.0696252 0.16726 104 150 81
-0.33559 0.0708571 0.167301 105 150 89
-0.335521 0.0720884 0.167342 111 150 110
-0.335451 0.0733191 0.167383 149 173 148
-0.335081 0.0744205 0.167593 165 181 163
-0.281023 0.000908622 0.196862 93 139 75
-0.280784 0.00185726 0.197 100 146 80
-0.280362 0.00276959 0.197241 106 151 80
-0.280124 0.00371288 0.197378 108 157 81
-0.280069 0.00468965 0.197411 110 159 82
-0.28038 0.00573934 0.197235 112 161 82
-0.280692 0.00679238 0.197058 112 162 82
-0.281375 0.00792662 0.19667 113 161 82
-0.335281 0.065934 0.16602 110 165 87
-0.335211 0.067168 0.166061 115 170 91
-0.335443 0.0685229 0.16593 123 178 98
-0.335676 0.0698804 0.1658 123 175 101
-0.335606 0.0711153 0.165841 113 154 101
-0.335537 0.0723496 0.165882 137 161 125
-0.335165 0.0734555 0.166095 161 176 153
-0.334795 0.0745582 0.166308 170 180 162
-0.282604 0.00127255 0.194806 87 128 72
-0.281244 0.00202812 0.195591 94 138 76
-0.280819 0.00294441 0.195836 102 147 79
-0.28058 0.00389195 0.195975 104 151 81
-0.280524 0.00487328 0.196008 106 151 80
-0.280838 0.00592821 0.195829 107 153 81
-0.280967 0.00694837 0.195756 107 154 81
-0.283724 0.00852417 0.194171 106 154 82
-0.285007 0.00980909 0.193434 106 154 83
-0.284951 0.0108109 0.193468 106 152 82
-0.284702 0.0117687 0.193612 105 151 81
-0.284646 0.0127685 0.193646 105 151 81
-0.335831 0.0676589 0.164249 131 185 103
-0.335761 0.0688981 0.16429 128 179 101
-0.335692 0.0701367 0.164332 121 168 103
-0.335622 0.0713747 0.164373 124 156 121
-0.33525 0.0724851 0.164589 157 176 153
-0.334879 0.0735923 0.164804 168 179 161
-0.289772 -0.00569473 0.18947 155 163 143
-0.283078 0.00144254 0.193371 88 119 69
-0.282082 0.00226845 0.193951 89 126 69
-0.281839 0.00322511 0.194093 93 135 74
-0.281784 0.00421525 0.194127 99 145 79
-0.281915 0.00524157 0.194052 102 150 81
-0.282234 0.00630705 0.193868 103 152 82
-0.2835 0.00757134 0.193133 104 152 81
-0.284016 0.00868952 0.192835 104 151 80
-0.284534 0.0098135 0.192535 102 149 80
-0.284478 0.0108153 0.192569 101 147 80
-0.28423 0.0117732 0.192714 99 144 80
-0.283792 0.0126846 0.19297 97 142 79
-0.283736 0.0136821 0.193004 98 142 80
-0.338612 0.0690179 0.161166 121 163 96
-0.337306 0.0697725 0.161927 119 159 100
-0.336929 0.0708955 0.162148 123 159 115
-0.336552 0.0720152 0.162368 149 172 144
-0.336177 0.0731316 0.162587 166 181 162
-0.289489 -0.00566375 0.188429 147 164 147
-0.290238 -0.0045161 0.187991 107 117 78
-0.29018 -0.00347985 0.188026 81 108 65
-0.289718 -0.0025057 0.188299 79 111 65
-0.289258 -0.00153584 0.18857 79 114 68
-0.2892 -0.000505218 0.188605 82 114 70
-0.287294 0.00124603 0.189727 89 119 79
-0.283176 0.00154683 0.192145 90 120 77
-0.282553 0.00244315 0.192512 89 118 70
-0.282121 0.00336904 0.192767 87 121 67
-0.282065 0.00436291 0.192801 91 133 73
-0.282385 0.00543033 0.192614 99 144 77
-0.283086 0.00657772 0.192204 103 149 79
-0.2836 0.0076937 0.191903 105 150 81
-0.284118 0.00881544 0.191601 105 149 81
-0.284446 0.00990124 0.19141 99 142 80
-0.284582 0.0109478 0.191331 91 134 79
-0.284526 0.011952 0.191365 88 130 77
-0.283893 0.0128221 0.191737 87 128 75
-0.283837 0.0138224 0.191772 87 128 75
-0.284357 0.0149615 0.191468 89 127 76
-0.340272 0.0686378 0.158701 109 151 94
-0.338635 0.0692761 0.159664 112 152 101
-0.337943 0.0702825 0.160071 124 158 116
-0.337564 0.0714104 0.160295 149 171 138
-0.337185 0.072535 0.160519 167 178 160
-0.290621 -0.00543772 0.186547 142 163 149
-0.289954 -0.00448376 0.186944 104 119 79
-0.289693 -0.0034763 0.187099 80 110 65
-0.289232 -0.00250208 0.187374 75 109 63
-0.288773 -0.00153216 0.187647 75 110 64
-0.288116 -0.000598931 0.188038 78 112 64
-0.28786 0.000394902 0.188191 81 115 67
-0.28642 0.00118206 0.189046 83 117 73
-0.283846 0.00175332 0.190573 86 120 79
-0.282649 0.00255033 0.191284 86 118 75
-0.282593 0.00354944 0.191318 83 115 64
-0.282538 0.00454802 0.191352 87 126 65
-0.283622 0.00577128 0.190711 96 141 74
-0.283757 0.00681316 0.190632 103 148 80
-0.283892 0.00785648 0.190553 105 148 80
-0.284028 0.00890125 0.190474 100 141 79
-0.284164 0.00994745 0.190394 91 130 77
-0.284493 0.011038 0.190201 85 126 74
-0.28463 0.0120881 0.190121 84 126 72
-0.284381 0.0130499 0.19027 85 123 71
-0.284132 0.0140093 0.190418 85 121 72
-0.284076 0.0150129 0.190453 86 121 72
-0.327423 0.0526704 0.164795 88 126 79
-0.327355 0.0538805 0.164836 86 127 80
-0.340686 0.0677503 0.156948 108 151 98
-0.339354 0.0685217 0.157739 123 151 109
-0.338658 0.0695355 0.158153 139 160 126
-0.337965 0.0705438 0.158565 152 175 145
-0.337584 0.0716742 0.158792 166 181 158
-0.290744 -0.00534992 0.18525 136 160 148
-0.290481 -0.00433512 0.185408 98 119 78
-0.290016 -0.00335295 0.185688 78 112 66
-0.289149 -0.00243692 0.186208 74 112 66
-0.288689 -0.00146519 0.186485 74 110 63
-0.288231 -0.000497735 0.18676 76 108 61
-0.287377 0.000398696 0.187273 77 111 63
-0.285941 0.0011859 0.188133 79 113 67
-0.284524 0.00196216 0.188983 80 114 70
-0.283317 0.00276254 0.189707 82 113 69
-0.28288 0.00369577 0.189969 78 112 64
-0.283205 0.00477165 0.189776 82 121 63
-0.28334 0.0058132 0.189697 94 138 72
-0.283666 0.00689505 0.189502 102 148 80
-0.28361 0.00790059 0.189537 103 147 82
-0.283554 0.00890559 0.189572 95 136 78
-0.284074 0.0100357 0.189262 87 126 73
-0.284211 0.0110855 0.189181 84 125 72
-0.284155 0.0120927 0.189216 85 124 72
-0.284099 0.0130994 0.189251 86 122 71
-0.284043 0.0141055 0.189286 86 122 70
-0.283987 0.0151112 0.189321 86 123 71
-0.327688 0.0480211 0.163192 86 120 76
-0.32762 0.0492366 0.163234 85 121 77
-0.327267 0.0503535 0.163446 85 122 76
-0.3272 0.0515663 0.163488 84 122 75
-0.326848 0.052678 0.1637 80 119 71
-0.32678 0.0538881 0.163742 75 116 67
-0.326997 0.0552009 0.163614 71 115 65
-0.3275 0.0566213 0.163315 72 117 67
-0.339135 0.0673873 0.15636 132 164 123
-0.338751 0.0685304 0.156592 152 172 143
-0.338056 0.0695443 0.157009 165 177 155
-0.337675 0.0706794 0.157239 171 183 162
-0.290662 -0.00528995 0.184069 129 158 144
-0.290399 -0.00427316 0.184229 96 120 79
-0.289934 -0.00328912 0.184512 81 113 66
-0.28947 -0.00230946 0.184794 79 111 64
-0.288604 -0.00139794 0.185318 77 109 62
-0.288146 -0.000428683 0.185596 75 108 60
-0.28749 0.000502756 0.185994 74 110 61
-0.286245 0.00132566 0.186747 75 110 62
-0.284628 0.00206941 0.187726 77 110 64
-0.283608 0.00290668 0.188344 78 110 65
-0.283169 0.00384323 0.18861 76 113 65
-0.283113 0.00484948 0.188646 83 123 64
-0.283248 0.00589313 0.188565 93 139 73
-0.283192 0.00689926 0.1886 101 147 80
-0.283328 0.00794478 0.188519 99 141 81
-0.283272 0.0089508 0.188554 90 132 78
-0.283599 0.0100401 0.188358 86 127 74
-0.283736 0.01109 0.188276 86 127 72
-0.28368 0.0120973 0.188312 86 125 71
-0.283816 0.013149 0.18823 86 125 71
-0.283568 0.0141103 0.188382 86 124 71
-0.283897 0.0152098 0.188184 86 122 72
-0.327178 0.0468122 0.162051 87 120 76
-0.327111 0.0480284 0.162094 86 120 76
-0.327043 0.049244 0.162136 87 121 78
-0.326691 0.050361 0.16235 87 121 76
-0.326624 0.0515739 0.162392 84 120 71
-0.326556 0.0527861 0.162435 78 118 66
-0.326489 0.0539977 0.162477 72 115 63
-0.326421 0.0552087 0.162519 70 115 62
-0.326923 0.0566292 0.162217 75 120 65
-0.327141 0.0579485 0.162087 86 132 74
-0.339545 0.0664944 0.154597 137 169 132
-0.338219 0.0672726 0.1554 159 179 151
-0.337836 0.0684146 0.155633 170 183 161
-0.29058 -0.00522973 0.182883 130 157 139
-0.290522 -0.00418152 0.18292 94 122 79
-0.290259 -0.00316433 0.183082 82 115 67
-0.289386 -0.00224354 0.183616 79 115 66
-0.288318 -0.00136237 0.184269 79 112 64
-0.28786 -0.000392177 0.18455 80 109 64
-0.287204 0.000540105 0.184951 77 109 63
-0.286552 0.00146649 0.18535 75 108 59
-0.284537 0.00214255 0.186581 74 109 59
-0.283708 0.00301649 0.187088 75 109 61
-0.283077 0.00391938 0.187475 77 117 63
-0.283021 0.00492759 0.18751 86 129 65
-0.282965 0.00593528 0.187546 96 141 73
-0.282909 0.00694243 0.187581 103 148 81
-0.282853 0.00794905 0.187616 102 143 80
-0.282797 0.00895516 0.187652 93 134 78
-0.283124 0.0100446 0.187453 89 131 77
-0.28326 0.0110945 0.187372 90 130 74
-0.283396 0.0121459 0.18729 90 129 72
-0.283533 0.0131987 0.187207 89 128 72
-0.283477 0.0142069 0.187243 88 126 73
-0.283807 0.0153088 0.187043 88 125 74
-0.327021 0.0444761 0.160693 87 124 75
-0.326953 0.045695 0.160736 88 124 74
-0.326601 0.0468194 0.160953 88 122 77
-0.326534 0.0480357 0.160995 88 122 77
-0.326466 0.0492514 0.161038 87 124 77
-0.326399 0.0504664 0.16108 86 124 74
-0.326331 0.0516807 0.161123 83 122 67
-0.326264 0.0528945 0.161165 78 119 64
-0.326481 0.05421 0.161035 76 119 66
-0.326414 0.0554238 0.161077 83 129 70
-0.326346 0.056637 0.16112 94 143 77
-0.326564 0.0579565 0.160988 100 147 86
-0.327355 0.0594961 0.160507 107 150 101
-0.337374 0.0658925 0.154398 161 185 157
-0.337615 0.0672813 0.154252 173 185 165
-0.290703 -0.0051407 0.181566 128 156 134
-0.290645 -0.00408936 0.181603 95 122 77
-0.290381 -0.00306918 0.181767 82 115 67
-0.289709 -0.00211458 0.182183 79 113 66
-0.288636 -0.00123055 0.182845 79 112 65
-0.287774 -0.000322727 0.183378 78 111 66
-0.287117 0.000611221 0.183784 75 110 64
-0.286464 0.00153926 0.184187 75 108 60
-0.285031 0.00232076 0.185072 73 108 58
-0.283616 0.00309136 0.185944 75 111 59
-0.283176 0.00403213 0.186217 81 121 64
-0.282928 0.00500601 0.186371 88 131 68
-0.282681 0.00597751 0.186524 97 142 73
-0.282625 0.00698568 0.18656 105 149 80
-0.282569 0.00799334 0.186596 103 144 81
-0.282514 0.00900045 0.186631 97 139 79
-0.282649 0.010049 0.186549 95 138 78
-0.282785 0.011099 0.186466 93 137 77
-0.283113 0.0121946 0.186266 93 136 75
-0.283249 0.0132485 0.186183 94 134 75
-0.283386 0.014304 0.1861 93 133 77
-0.284104 0.0155032 0.185658 93 133 76
-0.286009 0.0170062 0.184486 92 132 77
-0.326443 0.0444831 0.159593 92 130 76
-0.326375 0.0457022 0.159636 90 130 76
-0.326308 0.0469206 0.159679 91 131 79
-0.32624 0.0481384 0.159722 92 130 80
-0.326173 0.0493555 0.159765 91 129 78
-0.326106 0.050572 0.159808 88 131 74
-0.326038 0.0517878 0.15985 85 130 69
-0.325971 0.0530031 0.159893 83 131 69
-0.325904 0.0542176 0.159936 90 140 75
-0.325837 0.0554316 0.159979 102 153 83
-0.326054 0.0567504 0.159847 109 160 90
-0.325986 0.0579644 0.15989 110 156 98
-0.326775 0.0595041 0.159405 131 162 122
-0.327282 0.0609428 0.159095 165 183 156
-0.334313 0.0649394 0.154765 177 188 169
-0.290827 -0.00505117 0.180241 127 155 130
-0.290769 -0.00399664 0.180279 94 125 78
-0.290299 -0.00300424 0.180573 84 117 70
-0.28983 -0.00201629 0.180865 83 115 66
-0.288753 -0.00113008 0.181536 81 115 68
-0.287888 -0.000219938 0.182076 77 113 68
-0.28703 0.000682626 0.182611 75 112 66
-0.286376 0.0016123 0.183019 74 111 63
-0.285136 0.00243009 0.183792 74 111 61
-0.284105 0.00327381 0.184435 77 115 61
-0.283083 0.00410899 0.185072 81 123 64
-0.282643 0.00504737 0.185346 88 131 70
-0.282588 0.00605807 0.185382 98 143 75
-0.282532 0.00706822 0.185418 105 150 81
-0.282285 0.00803769 0.185573 104 147 81
-0.282229 0.00904582 0.185608 100 143 78
-0.282365 0.0100955 0.185525 98 142 80
-0.2825 0.0111466 0.185442 97 140 79
-0.282828 0.0122434 0.185239 96 139 77
-0.282965 0.0132984 0.185156 96 138 76
-0.283294 0.0144014 0.184952 95 139 79
-0.284014 0.0156033 0.184506 94 138 78
-0.285131 0.0169124 0.183811 95 137 79
-0.325999 0.04205 0.158405 94 137 81
-0.325931 0.0432704 0.158449 95 137 80
-0.325864 0.0444902 0.158492 95 136 79
-0.325797 0.0457093 0.158535 94 136 79
-0.326014 0.047022 0.158402 95 136 81
-0.325946 0.0482413 0.158445 96 136 80
-0.325879 0.0494599 0.158488 94 135 76
-0.325812 0.0506779 0.158532 91 139 74
-0.325744 0.0518952 0.158575 91 141 74
-0.325677 0.0531119 0.158618 96 149 78
-0.32561 0.054328 0.158661 107 162 85
-0.325543 0.0555434 0.158705 114 167 92
-0.325476 0.0567582 0.158748 114 161 99
-0.325693 0.0580795 0.158614 127 159 119
-0.326196 0.0595122 0.158303 163 181 153
-0.326129 0.0607293 0.158346 179 192 171
-0.291367 -0.00490305 0.178647 125 152 129
-0.291101 -0.00387333 0.178816 95 126 82
-0.290215 -0.00293905 0.179373 84 119 71
-0.289746 -0.00194921 0.179669 82 117 68
-0.288871 -0.00102903 0.18022 80 116 67
-0.288003 -0.000116553 0.180766 80 112 65
-0.287342 0.000822389 0.181183 78 112 65
-0.286486 0.00172045 0.181722 74 112 64
-0.285242 0.00254003 0.182504 76 112 63
-0.284207 0.00338571 0.183155 79 117 63
-0.283375 0.00425957 0.183679 83 124 64
-0.282742 0.00516373 0.184079 90 133 70
-0.282494 0.00613891 0.184235 98 143 78
-0.282247 0.00711171 0.184392 104 150 84
-0.282 0.00808213 0.184548 104 149 83
-0.281944 0.0090913 0.184584 101 146 81
-0.28208 0.010142 0.1845 99 145 81
-0.282215 0.0111943 0.184416 98 143 79
-0.282543 0.0122922 0.184211 98 142 79
-0.282872 0.0133939 0.184006 98 141 78
-0.283009 0.0144526 0.183921 97 141 78
-0.283728 0.015656 0.183471 96 140 79
-0.284649 0.0169173 0.182893 97 140 80
-0.285578 0.0181902 0.182311 96 140 80
-0.32542 0.0420569 0.157304 97 140 82
-0.325353 0.0432774 0.157347 97 140 82
-0.325286 0.0444972 0.157391 97 139 82
-0.325502 0.0458092 0.157257 100 138 81
-0.325435 0.0470292 0.1573 99 139 80
-0.325367 0.0482486 0.157344 96 141 80
-0.3253 0.0494673 0.157387 94 143 76
-0.325517 0.050784 0.157253 95 149 78
-0.32545 0.0520028 0.157296 101 157 83
-0.325383 0.053221 0.15734 110 166 87
-0.325316 0.0544386 0.157383 117 169 91
-0.325249 0.0556555 0.157427 116 164 97
-0.325182 0.0568718 0.15747 121 160 112
-0.325115 0.0580875 0.157514 150 173 145
-0.325332 0.0594113 0.157379 180 194 173
-0.291494 -0.00481208 0.177303 127 153 132
-0.291227 -0.00377933 0.177473 93 128 84
-0.290545 -0.0028115 0.177907 83 121 72
-0.289662 -0.00188188 0.178468 82 119 70
-0.288786 -0.000960071 0.179025 81 115 69
-0.288119 -1.25473e-05 0.179449 82 112 67
-0.287255 0.000894616 0.179998 79 112 67
-0.286597 0.00182921 0.180417 77 114 65
-0.284955 0.00257946 0.181459 77 115 66
-0.284115 0.00346202 0.181993 79 118 66
-0.28367 0.00441128 0.182276 82 124 65
-0.28284 0.00528076 0.182804 91 134 70
-0.2824 0.00622007 0.183084 101 143 78
-0.282152 0.00719471 0.183242 105 150 86
-0.281905 0.00816696 0.1834 105 150 86
-0.28185 0.0091781 0.183436 101 148 82
-0.281794 0.0101887 0.183472 99 147 81
-0.282313 0.0113288 0.183145 100 146 79
-0.282449 0.0123857 0.183059 100 145 81
-0.282586 0.0134441 0.182974 98 144 80
-0.283304 0.0146442 0.18252 97 144 78
-0.284027 0.015853 0.182063 98 142 80
-0.284362 0.0169715 0.181851 98 143 81
-0.324626 0.0407557 0.156337 100 142 82
-0.324841 0.0420638 0.156202 99 142 83
-0.324774 0.0432844 0.156246 99 143 84
-0.324707 0.0445043 0.15629 100 144 84
-0.324923 0.0458164 0.156154 103 143 82
-0.324856 0.0470365 0.156198 100 144 79
-0.324789 0.0482559 0.156242 96 147 79
-0.324722 0.0494747 0.156286 98 152 80
-0.324938 0.0507915 0.15615 107 164 86
-0.324871 0.0520104 0.156194 114 173 91
-0.324804 0.0532287 0.156238 118 175 94
-0.324737 0.0544463 0.156282 117 167 95
-0.32467 0.0556633 0.156326 120 161 105
-0.324603 0.0568797 0.15637 143 169 133
-0.324536 0.0580954 0.156413 171 190 165
-0.324469 0.0593105 0.156457 182 193 172
-0.291412 -0.00474996 0.176084 132 160 139
-0.291353 -0.00368476 0.176123 98 129 89
-0.29067 -0.00271427 0.176562 87 123 76
-0.289783 -0.00178221 0.17713 84 120 73
-0.2887 -0.000890861 0.177825 84 116 71
-0.287829 2.47953e-05 0.178384 83 114 69
-0.287368 0.00100153 0.17868 80 114 70
-0.286508 0.00190339 0.179232 78 114 68
-0.285258 0.00272602 0.180033 79 116 66
-0.284023 0.00353861 0.180825 80 118 66
-0.283577 0.00448961 0.181112 84 125 66
-0.283133 0.00543646 0.181397 91 136 72
-0.282883 0.00641803 0.181558 100 147 80
-0.282249 0.00731767 0.181965 104 152 86
-0.282002 0.00829265 0.182125 104 151 86
-0.281946 0.00930674 0.182161 102 149 83
-0.282082 0.0103628 0.182075 102 149 82
-0.282411 0.0114641 0.181866 102 146 80
-0.282741 0.012569 0.181656 102 147 80
-0.283073 0.0136777 0.181445 102 146 80
-0.283601 0.0148372 0.181108 100 146 80
-0.283935 0.0159544 0.180895 100 144 81
-0.323833 0.0394566 0.155372 102 145 80
-0.324047 0.0407625 0.155236 103 145 82
-0.324262 0.0420707 0.1551 102 145 83
-0.324195 0.0432913 0.155144 101 146 84
-0.324128 0.0445114 0.155189 101 148 83
-0.324343 0.0458235 0.155052 103 148 81
-0.324277 0.0470437 0.155096 99 150 79
-0.32421 0.0482632 0.155141 99 155 83
-0.324143 0.0494821 0.155185 120 168 94
-0.324076 0.0507003 0.155229 127 178 98
-0.324009 0.0519179 0.155273 125 179 97
-0.323942 0.0531348 0.155317 120 172 97
-0.323876 0.0543511 0.155361 118 162 104
-0.323809 0.0555668 0.155405 136 166 126
-0.323742 0.0567819 0.155449 167 182 155
-0.323676 0.0579963 0.155493 180 189 171
-0.291329 -0.00468761 0.174861 134 161 144
-0.290853 -0.00368118 0.17517 102 128 90
-0.290171 -0.00271064 0.175612 88 122 77
-0.290113 -0.00164964 0.175651 85 121 75
-0.288818 -0.000788397 0.176488 85 118 72
-0.287742 9.58791e-05 0.177185 84 117 72
-0.28728 0.00107445 0.177485 82 117 72
-0.286418 0.00197785 0.178043 80 117 69
-0.285167 0.00280171 0.178853 80 118 65
-0.284126 0.00365204 0.179526 80 118 65
-0.283484 0.00456825 0.179943 83 124 67
-0.283233 0.00555505 0.180106 92 137 74
-0.282983 0.0065394 0.180268 101 149 82
-0.282733 0.00752132 0.180431 105 154 86
-0.282291 0.00845991 0.180718 104 153 86
-0.282235 0.00947794 0.180755 103 150 83
-0.282373 0.0105383 0.180667 103 149 82
-0.282703 0.0116442 0.180455 104 149 81
-0.282841 0.0127086 0.180367 104 149 80
-0.283174 0.0138208 0.180153 103 148 80
-0.283313 0.0148893 0.180064 102 148 81
-0.323322 0.0382435 0.154228 102 147 80
-0.322975 0.0393782 0.154453 104 148 80
-0.323188 0.0406825 0.154317 104 148 82
-0.323402 0.0419892 0.15418 103 148 83
-0.323616 0.0432983 0.154043 103 148 84
-0.323549 0.0445184 0.154087 102 149 82
-0.323483 0.0457379 0.154132 102 151 78
-0.323416 0.0469567 0.154176 101 157 82
-0.323349 0.0481749 0.154221 122 169 100
-0.323283 0.0493924 0.154265 143 188 119
-0.323216 0.0506093 0.154309 139 185 109
-0.323149 0.0518256 0.154354 126 175 99
-0.323083 0.0530412 0.154398 119 163 102
-0.323016 0.0542562 0.154442 130 163 123
-0.32295 0.0554705 0.154487 156 177 152
-0.322883 0.0566842 0.154531 178 191 172
-0.291247 -0.004625 0.173633 139 163 150
-0.290769 -0.00361662 0.173945 106 128 92
-0.290294 -0.00261283 0.174256 90 122 76
-0.289201 -0.0017105 0.17497 86 122 74
-0.287915 -0.000850504 0.175811 85 119 71
-0.287857 0.000201118 0.175849 84 117 72
-0.287191 0.00114767 0.176285 84 116 71
-0.286529 0.00208812 0.176718 82 116 68
-0.285473 0.00294998 0.177408 81 117 67
-0.284229 0.00376613 0.17822 80 118 65
-0.283585 0.00468473 0.178642 83 124 65
-0.283334 0.00567432 0.178807 92 138 74
-0.283083 0.00666146 0.178971 102 148 83
-0.283027 0.00768651 0.179009 106 153 87
-0.282583 0.00862844 0.1793 105 154 86
-0.282527 0.00965047 0.179337 105 151 83
-0.282471 0.0106719 0.179375 104 150 84
-0.282609 0.011737 0.179286 104 150 83
-0.282747 0.0128037 0.179197 103 150 83
-0.282886 0.0138718 0.179108 104 149 80
-0.303404 0.019902 0.165726 104 149 82
-0.303579 0.0210864 0.165614 104 150 83
-0.303754 0.0222727 0.165501 105 149 81
-0.303456 0.0233382 0.165696 102 150 82
-0.303631 0.0245257 0.165583 104 150 84
-0.322743 0.0382501 0.153127 105 149 82
-0.322397 0.0393849 0.153354 105 150 82
-0.322331 0.0406028 0.153399 104 150 84
-0.322544 0.041908 0.153262 104 150 84
-0.322757 0.0432156 0.153124 104 150 83
-0.32269 0.0444343 0.153169 103 152 81
-0.322624 0.0456524 0.153213 103 157 81
-0.322837 0.0469639 0.153075 118 169 98
-0.322771 0.0481822 0.15312 152 198 126
-0.322704 0.0493998 0.153165 151 201 127
-0.322638 0.0506168 0.153209 135 184 109
-0.322571 0.0518331 0.153254 120 166 101
-0.322505 0.0530488 0.153299 126 162 115
-0.322439 0.0542639 0.153343 151 175 145
-0.322372 0.0554783 0.153388 174 190 170
-0.291163 -0.00456215 0.172399 145 165 152
-0.290685 -0.0035518 0.172715 111 131 96
-0.290209 -0.00254606 0.173029 90 124 78
-0.289528 -0.00157739 0.173479 87 122 74
-0.288235 -0.00071472 0.174332 86 119 71
-0.287362 0.000204936 0.174907 86 117 71
-0.287305 0.00125607 0.174946 85 116 69
-0.286238 0.00212766 0.17565 84 116 68
-0.285381 0.00302654 0.176215 82 116 67
-0.284333 0.00388089 0.176906 81 117 65
-0.283687 0.00480187 0.177333 85 124 65
-0.283239 0.0057556 0.177629 94 137 73
-0.282988 0.00674465 0.177795 103 149 82
-0.282738 0.00773124 0.177961 107 154 86
-0.282682 0.0087568 0.177999 107 155 85
-0.282432 0.00973943 0.178165 106 152 82
-0.282376 0.0107629 0.178203 105 151 83
-0.282514 0.0118303 0.178113 104 151 84
-0.30229 0.0174894 0.165095 104 151 83
-0.302933 0.018781 0.164672 105 151 81
-0.302872 0.0199073 0.164714 105 150 81
-0.30281 0.021033 0.164755 106 151 82
-0.302985 0.022218 0.164642 106 152 81
-0.302923 0.0233437 0.164683 104 154 82
-0.302862 0.0244688 0.164725 105 154 84
-0.302565 0.0255299 0.164922 104 155 85
-0.302504 0.0266526 0.164963 104 155 85
-0.302443 0.0277747 0.165004 104 154 85
-0.322165 0.0382568 0.152027 107 151 83
-0.32182 0.0393916 0.152255 106 151 84
-0.321476 0.0405232 0.152483 105 151 85
-0.321409 0.0417391 0.152528 105 152 85
-0.321621 0.0430436 0.15239 105 153 82
-0.321833 0.0443504 0.152252 105 157 82
-0.322046 0.0456596 0.152113 114 170 93
-0.321979 0.0468771 0.152158 143 201 122
-0.322192 0.0481895 0.152019 155 215 131
-0.322126 0.0494072 0.152064 144 197 111
-0.32206 0.0506242 0.152109 125 173 100
-0.321993 0.0518407 0.152154 122 163 110
-0.321927 0.0530565 0.152199 146 173 137
-0.321861 0.0542716 0.152244 172 187 162
-0.321795 0.0554861 0.152289 183 191 173
-0.291502 -0.0044392 0.17088 150 168 152
-0.290601 -0.00348674 0.17148 118 132 96
-0.290333 -0.00244727 0.171659 93 124 81
-0.28965 -0.00147591 0.172114 89 124 77
-0.288558 -0.000577864 0.172841 88 120 73
-0.287681 0.000344961 0.173425 85 117 71
-0.286406 0.00119022 0.174273 84 117 72
-0.285346 0.00206049 0.174979 84 116 71
-0.28529 0.00310342 0.175017 83 116 67
-0.284438 0.00399631 0.175584 81 117 64
-0.283789 0.00491971 0.176016 85 124 64
-0.283341 0.00587604 0.176316 94 137 72
-0.283089 0.00686789 0.176484 104 149 80
-0.282837 0.0078573 0.176652 108 155 86
-0.282587 0.00884425 0.17682 107 154 87
-0.282531 0.00987131 0.176858 107 151 83
-0.282475 0.0108978 0.176896 106 152 82
-0.301587 0.016317 0.164198 104 152 83
-0.302401 0.0187862 0.163659 105 151 81
-0.30234 0.0199126 0.163701 106 151 81
-0.302278 0.0210384 0.163743 106 153 81
-0.302452 0.0222235 0.163629 105 157 83
-0.302391 0.0233492 0.16367 106 161 86
-0.30233 0.0244744 0.163712 112 164 87
-0.302269 0.025599 0.163754 114 165 90
-0.301973 0.0266583 0.163952 110 162 88
-0.301912 0.0277805 0.163994 108 157 86
-0.321586 0.0382634 0.150926 108 152 84
-0.320965 0.0393134 0.15134 108 151 84
-0.320622 0.0404438 0.151569 107 153 84
-0.320556 0.0416584 0.151614 105 155 84
-0.320767 0.0429614 0.151476 105 160 84
-0.320978 0.0442667 0.151337 114 170 90
-0.321189 0.0455743 0.151198 133 194 108
-0.321401 0.0468844 0.151058 152 220 126
-0.321335 0.0481014 0.151103 144 200 109
-0.321269 0.0493178 0.151149 130 177 98
-0.321481 0.0506317 0.151009 124 162 107
-0.321415 0.0518482 0.151054 140 170 130
-0.321349 0.0530641 0.151099 166 184 157
-0.321283 0.0542793 0.151144 181 189 171
-0.29163 -0.00434547 0.169491 165 174 152
-0.291148 -0.00332832 0.169816 127 135 98
-0.290668 -0.00231583 0.170139 97 124 81
-0.289772 -0.00137384 0.170741 90 123 78
-0.288677 -0.000473549 0.171477 88 122 77
-0.287796 0.000451655 0.172068 87 119 74
-0.286316 0.00126387 0.173063 85 118 72
-0.285254 0.00213555 0.173776 85 117 71
-0.284599 0.00307096 0.174216 83 116 68
-0.284543 0.0041124 0.174255 80 117 65
-0.283892 0.00503822 0.174692 84 124 65
-0.283639 0.00603631 0.174863 94 137 73
-0.28319 0.00699186 0.175166 105 149 81
-0.282938 0.00798409 0.175336 109 157 87
-0.282686 0.00897384 0.175506 107 156 88
-0.28263 0.010004 0.175544 106 151 84
-0.283162 0.0111655 0.175189 106 151 83
-0.300592 0.0162154 0.1635 105 153 84
-0.300995 0.0174449 0.16323 105 154 83
-0.301167 0.0186231 0.163116 104 154 81
-0.301573 0.0198604 0.162845 105 155 80
-0.301746 0.0210437 0.16273 105 160 81
-0.30192 0.0222289 0.162615 111 170 87
-0.301859 0.0233547 0.162657 121 182 94
-0.301798 0.02448 0.162699 128 187 95
-0.301737 0.0256047 0.162741 128 187 97
-0.301441 0.026664 0.162941 121 177 93
-0.301615 0.0278522 0.162825 113 163 88
-0.320454 0.0381027 0.150197 107 153 85
-0.319836 0.0391507 0.150612 108 153 84
-0.319771 0.0403646 0.150657 107 155 83
-0.319705 0.0415779 0.150703 106 161 84
-0.319914 0.0428793 0.150564 113 174 92
-0.320124 0.0441831 0.150424 138 198 108
-0.320334 0.0454893 0.150284 152 211 116
-0.320545 0.0467978 0.150144 145 199 109
-0.320757 0.0481087 0.150004 130 177 100
-0.320691 0.0493251 0.150049 124 162 105
-0.320903 0.0506392 0.149908 139 166 129
-0.320837 0.0518558 0.149954 161 180 156
-0.320771 0.0530717 0.149999 175 187 167
-0.291759 -0.00425116 0.168094 173 181 155
-0.291276 -0.00323106 0.168422 130 141 105
-0.291218 -0.00215098 0.168463 99 128 83
-0.290105 -0.00123804 0.169217 92 125 80
-0.288589 -0.000402391 0.170245 89 124 79
-0.287913 0.000559015 0.170703 88 121 77
-0.286833 0.00144341 0.171435 86 120 73
-0.285563 0.0022826 0.172296 85 118 72
-0.284705 0.00318461 0.172878 83 117 71
-0.284052 0.00411648 0.173321 81 117 66
-0.283798 0.005119 0.173494 85 123 66
-0.283742 0.00615838 0.173533 94 137 76
-0.283488 0.00715687 0.173706 104 149 84
-0.283235 0.00815284 0.173878 108 157 88
-0.282982 0.00914634 0.17405 106 158 89
-0.282926 0.0101805 0.174089 105 153 83
-0.283461 0.0113471 0.173729 107 153 83
-0.299372 0.0160612 0.16296 107 153 83
-0.300002 0.017341 0.162534 105 155 83
-0.300173 0.0185166 0.16242 104 156 79
-0.300576 0.0197512 0.162148 106 162 79
-0.300981 0.0209904 0.161876 113 175 85
-0.301153 0.0221744 0.16176 128 198 101
-0.301326 0.0233602 0.161644 135 204 105
-0.301265 0.0244856 0.161686 140 205 103
-0.301204 0.0256103 0.161729 138 203 103
-0.301144 0.0267345 0.161771 134 194 99
-0.301083 0.027858 0.161813 123 176 93
-0.319052 0.0378598 0.149656 107 154 84
-0.317896 0.0387374 0.15044 105 156 83
-0.318648 0.0402001 0.149932 105 160 84
-0.319129 0.0415848 0.149608 114 173 91
-0.319338 0.0428863 0.149468 136 197 107
-0.319548 0.0441902 0.149327 162 217 123
-0.319757 0.0454964 0.149186 155 199 115
-0.319968 0.046805 0.149045 134 180 106
-0.320179 0.048116 0.148904 121 163 104
-0.320113 0.0493325 0.148949 139 166 126
-0.320324 0.0506467 0.148808 163 183 157
-0.320259 0.0518633 0.148853 179 190 170
-0.291676 -0.00418677 0.166834 171 173 154
-0.291404 -0.00313321 0.16702 133 149 122
-0.291346 -0.00204979 0.167061 101 131 90
-0.290651 -0.0010677 0.167537 92 125 81
-0.288916 -0.000263054 0.168724 90 126 81
-0.287618 0.00059751 0.169611 89 123 79
-0.286946 0.00155354 0.170071 87 120 76
-0.286076 0.00246706 0.170667 87 118 74
-0.284611 0.00326209 0.171669 85 117 72
-0.284156 0.00423326 0.171981 81 117 68
-0.283901 0.00523867 0.172156 83 122 66
-0.283647 0.00624159 0.172331 93 135 74
-0.283591 0.00728252 0.17237 104 148 83
-0.283535 0.00832291 0.172409 109 155 88
-0.283084 0.00927769 0.172719 108 157 90
-0.283028 0.010315 0.172758 106 154 84
-0.283366 0.0114408 0.172528 107 154 82
-0.298615 0.0160133 0.162112 106 154 82
-0.298783 0.0171833 0.161998 105 156 81
-0.299412 0.0184661 0.16157 105 161 79
-0.299582 0.0196424 0.161455 113 175 85
-0.299984 0.0208789 0.161181 130 198 98
-0.300388 0.02212 0.160906 141 212 108
-0.30056 0.0233046 0.16079 145 214 112
-0.3005 0.0244288 0.160832 140 202 107
-0.300439 0.0255524 0.160875 134 196 101
-0.300378 0.0266755 0.160918 132 189 99
-0.316849 0.0373723 0.149673 105 156 83
-0.317053 0.0386606 0.149535 104 161 83
-0.317259 0.0399512 0.149396 112 175 90
-0.318008 0.0414175 0.148885 136 195 105
-0.318488 0.0428044 0.148558 159 213 121
-0.318971 0.0441972 0.14823 159 201 120
-0.31918 0.0455035 0.148088 139 183 108
-0.31939 0.0468122 0.147946 121 166 102
-0.319601 0.0481233 0.147803 130 165 123
-0.319535 0.0493399 0.14785 162 185 153
-0.319746 0.0506541 0.147707 180 193 169
-0.291806 -0.00409151 0.165421 173 177 161
-0.291747 -0.00300304 0.165462 143 163 145
-0.291689 -0.00191516 0.165504 111 134 100
-0.290778 -0.000963158 0.166133 96 126 85
-0.289875 -1.93791e-05 0.166757 91 126 84
-0.287528 0.000670862 0.168375 91 124 82
-0.286856 0.00162864 0.16884 89 121 79
-0.285984 0.00254373 0.169442 88 119 75
-0.284918 0.00341394 0.170178 85 118 72
-0.284062 0.00431288 0.17077 81 116 68
-0.283608 0.0052815 0.171083 82 120 65
-0.283552 0.00632509 0.171123 92 135 72
-0.283496 0.00736814 0.171163 103 148 81
-0.283241 0.00836891 0.171339 110 156 87
-0.283185 0.00940983 0.171379 111 158 89
-0.283129 0.0104502 0.171419 108 154 83
-0.29792 0.0148501 0.161223 107 154 81
-0.298088 0.0160183 0.161109 104 155 80
-0.298028 0.0171344 0.161151 102 159 79
-0.298196 0.018305 0.161036 109 170 84
-0.299053 0.0196477 0.160447 130 193 97
-0.299454 0.0208842 0.160171 146 209 110
-0.299857 0.0221254 0.159895 142 207 107
-0.300028 0.0233101 0.159777 142 200 104
-0.299968 0.0244344 0.15982 130 181 99
-0.299907 0.0255581 0.159863 121 173 92
-0.299847 0.0266812 0.159906 117 168 92
-0.316074 0.0360928 0.148725 105 156 84
-0.316009 0.0372972 0.148771 106 161 84
-0.315944 0.0385009 0.148817 113 174 90
-0.316417 0.0398731 0.148492 132 196 105
-0.316891 0.0412509 0.148166 155 212 119
-0.317913 0.0428114 0.147463 155 205 123
-0.318394 0.0442042 0.147133 138 188 111
-0.318603 0.0455106 0.14699 123 168 101
-0.318812 0.0468194 0.146847 127 166 117
-0.319022 0.0481306 0.146703 156 184 148
-0.319233 0.0494442 0.146559 175 190 165
-0.292093 -0.00287181 0.163891 161 175 158
-0.292034 -0.00177941 0.163933 127 141 109
-0.291119 -0.000824035 0.164571 100 128 89
-0.289999 8.82933e-05 0.165351 94 127 86
-0.2891 0.00102641 0.165978 92 126 84
-0.286764 0.00170405 0.167604 89 123 81
-0.286095 0.00265733 0.168071 88 119 77
-0.285429 0.00360441 0.168535 85 118 74
-0.284366 0.0044689 0.169276 81 115 69
-0.283711 0.00540213 0.169732 81 118 66
-0.283456 0.00640893 0.169911 90 133 72
-0.283202 0.00741322 0.170089 101 147 82
-0.282948 0.00841501 0.170267 108 156 88
-0.282892 0.00945702 0.170307 110 161 89
-0.282836 0.0104985 0.170347 107 155 83
-0.297273 0.0170855 0.160306 101 163 80
-0.29744 0.0182549 0.160191 114 179 90
-0.298523 0.0196529 0.159438 135 198 102
-0.298923 0.0208895 0.159161 144 203 112
-0.299325 0.0221308 0.158883 133 192 100
-0.299496 0.0233156 0.158765 124 173 91
-0.299436 0.02444 0.158808 116 161 88
-0.299375 0.0255638 0.158851 109 155 87
-0.315033 0.0347369 0.147963 107 161 87
-0.314969 0.0359392 0.14801 106 163 85
-0.314904 0.0371409 0.148056 113 173 90
-0.315373 0.0385076 0.14773 128 190 103
-0.315845 0.0398798 0.147404 147 207 116
-0.316318 0.0412577 0.147076 150 203 118
-0.317337 0.0428183 0.146368 137 192 112
-0.317817 0.0442113 0.146035 121 171 101
-0.318026 0.0455178 0.145891 126 164 115
-0.318235 0.0468266 0.145747 161 184 145
-0.318444 0.0481379 0.145603 178 190 168
-0.292441 -0.0027395 0.162308 170 180 162
-0.292383 -0.00164258 0.16235 137 155 126
-0.291677 -0.000649516 0.162847 107 134 99
-0.290549 0.000266643 0.16364 97 128 88
-0.289012 0.00110152 0.16472 93 126 84
-0.287703 0.00196042 0.165639 90 124 83
-0.286002 0.00273478 0.166835 89 122 79
-0.285336 0.00368357 0.167304 88 119 75
-0.284875 0.00466465 0.167628 83 116 69
-0.284215 0.00560196 0.168093 80 118 66
-0.28336 0.00649311 0.168694 89 131 71
-0.283105 0.00749934 0.168874 101 147 81
-0.282851 0.00850308 0.169053 109 156 88
-0.282993 0.00959019 0.168954 112 163 90
-0.296973 0.0171445 0.159144 105 168 81
-0.296913 0.0182601 0.159187 117 184 90
-0.297993 0.0196582 0.15843 127 192 97
-0.298392 0.0208949 0.158151 128 189 101
-0.298562 0.0220765 0.158033 119 170 89
-0.298733 0.0232601 0.157914 112 158 86
-0.298904 0.0244455 0.157795 109 153 85
-0.298844 0.0255694 0.157839 107 150 87
-0.314528 0.0335402 0.146832 108 160 88
-0.314463 0.0347433 0.146879 109 166 86
-0.314399 0.0359457 0.146925 114 176 90
-0.314334 0.0371475 0.146972 126 191 100
-0.314802 0.0385142 0.146644 139 204 110
-0.315273 0.0398866 0.146315 145 203 113
-0.315745 0.0412646 0.145985 138 191 107
-0.316761 0.0428253 0.145273 123 172 99
-0.317241 0.0442183 0.144937 123 163 111
-0.317448 0.0455249 0.144793 161 181 142
-0.317931 0.0469277 0.144455 180 194 168
-0.292575 -0.00263863 0.160865 171 180 165
-0.292516 -0.00153827 0.160908 155 166 148
-0.29224 -0.000473194 0.161104 125 144 116
-0.291104 0.000446803 0.16191 104 132 95
-0.289344 0.0012487 0.163158 98 127 88
-0.288029 0.00211024 0.164091 94 125 84
-0.286729 0.00296088 0.165012 91 123 81
-0.285445 0.00380085 0.165923 90 121 77
-0.28478 0.00474597 0.166395 86 117 71
-0.284321 0.00572449 0.166722 81 117 66
-0.283863 0.00669858 0.167047 87 129 70
-0.283008 0.00758582 0.167653 100 145 79
-0.282952 0.00863364 0.167694 109 156 87
-0.29622 0.0170956 0.158301 107 172 83
-0.29616 0.0182101 0.158344 116 182 86
-0.297007 0.0195498 0.157745 120 180 88
-0.297632 0.0208419 0.157303 116 170 88
-0.297802 0.0220223 0.157184 111 156 86
-0.298201 0.0232656 0.156902 108 151 84
-0.298372 0.0244511 0.156783 106 150 83
-0.298312 0.0255751 0.156826 106 150 86
-0.313957 0.0335465 0.145747 112 165 89
-0.313893 0.0347496 0.145794 119 180 93
-0.313829 0.0359521 0.145841 128 194 100
-0.313765 0.037154 0.145887 136 205 106
-0.314231 0.0385208 0.145558 140 205 109
-0.3147 0.0398933 0.145227 134 192 104
-0.315172 0.0412714 0.144894 123 172 99
-0.316186 0.0428322 0.144177 123 162 109
-0.316664 0.0442253 0.14384 159 174 141
-0.316871 0.045532 0.143694 181 193 172
-0.292869 -0.00139945 0.1593 169 173 160
-0.292592 -0.000330061 0.159499 149 158 137
-0.291665 0.000628806 0.160163 124 142 111
-0.290531 0.00154269 0.160974 108 131 96
-0.288777 0.00233522 0.162229 99 127 88
-0.287465 0.00318972 0.163168 94 124 84
-0.286169 0.00403341 0.164096 91 122 80
-0.285294 0.00494447 0.164722 87 118 74
-0.284629 0.00588758 0.165198 83 115 67
-0.284169 0.00686529 0.165528 87 127 69
-0.28371 0.00783856 0.165857 98 144 78
-0.284662 0.00910715 0.165178 108 154 85
-0.295078 0.0158279 0.157736 114 176 89
-0.295019 0.0169396 0.15778 115 179 88
-0.29496 0.0180506 0.157823 115 176 85
-0.296025 0.0194419 0.157063 115 166 83
-0.297102 0.0208472 0.156294 110 155 84
-0.297271 0.0220277 0.156174 106 149 86
-0.29767 0.0232711 0.15589 99 142 84
-0.29784 0.0244567 0.15577 97 141 82
-0.298704 0.0258357 0.155153 101 148 83
-0.313387 0.0335528 0.144662 124 182 99
-0.313323 0.034756 0.144709 136 201 106
-0.313259 0.0359586 0.144756 141 209 111
-0.313459 0.0372419 0.144614 139 205 109
-0.31366 0.0385275 0.144471 134 192 103
-0.314128 0.0399 0.144138 122 172 100
-0.314598 0.0412782 0.143803 120 163 111
-0.31561 0.0428392 0.143081 151 170 139
-0.316087 0.0442324 0.142742 174 190 171
-0.293224 -0.00125946 0.157679 167 174 163
-0.293165 -0.000150441 0.157723 163 169 152
-0.292231 0.000812697 0.158397 142 157 131
-0.292173 0.00191598 0.158441 120 141 108
-0.287316 0.00434649 0.161947 94 124 83
-0.286018 0.00518443 0.162883 88 119 77
-0.284736 0.00601183 0.163809 83 114 70
-0.284477 0.0070333 0.163997 85 124 69
-0.28442 0.00809432 0.164039 95 141 76
-0.285381 0.00937186 0.163347 105 151 84
-0.294107 0.0157283 0.157058 134 199 105
-0.294048 0.0168378 0.157101 132 191 100
-0.295557 0.0183307 0.156014 119 173 87
-0.295497 0.0194471 0.156058 110 158 82
-0.2968 0.0209109 0.15512 108 148 83
-0.297198 0.0221525 0.154834 100 138 82
-0.297367 0.0233376 0.154713 84 127 78
-0.297768 0.0245872 0.154425 84 129 77
-0.312817 0.0335591 0.143576 133 198 108
-0.312753 0.0347624 0.143624 148 212 117
-0.312689 0.0359651 0.143671 150 207 115
-0.313153 0.03733 0.143337 137 192 108
-0.313354 0.0386172 0.143193 124 170 100
-0.313556 0.0399068 0.143049 124 162 111
-0.313758 0.0411986 0.142904 148 170 140
-0.314496 0.042669 0.142373 168 187 168
-0.314969 0.0440588 0.142033 176 191 169
-0.293523 -4.63992e-06 0.156089 169 173 159
-0.293464 0.00110847 0.156133 151 166 147
-0.294292 0.00237339 0.155531 127 145 114
-0.287167 0.00550749 0.16072 95 124 82
-0.286074 0.00638046 0.161517 86 117 73
-0.284991 0.00724414 0.162306 84 120 67
-0.284935 0.00831051 0.162348 93 136 75
-0.289253 0.0103124 0.159207 103 150 84
-0.290264 0.0116348 0.158472 113 162 89
-0.293198 0.0145214 0.156338 147 214 110
-0.293361 0.0156812 0.156221 147 213 113
-0.293524 0.0168428 0.156104 139 196 106
-0.29548 0.0184467 0.154681 119 169 88
-0.296785 0.0199078 0.153733 108 152 84
-0.296725 0.0210332 0.153777 105 144 83
-0.296894 0.0222178 0.153655 92 128 75
-0.297294 0.0234656 0.153365 81 122 68
-0.29839 0.0249073 0.152568 83 130 71
-0.312246 0.0335654 0.142491 136 193 105
-0.312182 0.0347688 0.142538 142 202 114
-0.312382 0.0360515 0.142394 132 189 111
-0.312847 0.0374183 0.142057 122 170 102
-0.312783 0.0386239 0.142105 126 161 111
-0.312984 0.0399135 0.14196 151 167 138
-0.313185 0.0412055 0.141814 172 189 170
-0.313121 0.0424119 0.141862 181 189 172
-0.29433 0.0002144 0.154114 171 176 163
-0.294271 0.00133456 0.154159 155 170 155
-0.296011 0.00276408 0.152882 124 141 108
-0.28998 0.00726123 0.157315 86 119 74
-0.289493 0.00826932 0.157673 81 118 66
-0.289009 0.00927272 0.158029 88 131 72
-0.288951 0.0103625 0.158073 101 146 82
-0.289533 0.0115924 0.157646 110 157 87
-0.290551 0.0129264 0.156901 123 175 95
-0.291142 0.0141732 0.156467 139 199 105
-0.292396 0.0155822 0.155548 144 201 105
-0.292999 0.0168478 0.155106 129 182 95
-0.295403 0.0185631 0.153342 112 159 86
-0.296481 0.0199706 0.152552 105 149 86
-0.296421 0.0210972 0.152596 103 142 81
-0.296362 0.0222232 0.152641 91 133 72
-0.29676 0.0234711 0.15235 87 134 69
-0.311676 0.0335717 0.141405 124 173 97
-0.311612 0.0347752 0.141453 123 173 99
-0.312075 0.0361382 0.141115 117 165 103
-0.312275 0.0374249 0.140969 123 162 118
-0.312211 0.0386305 0.141017 147 169 140
-0.312147 0.0398356 0.141065 165 179 164
-0.295599 0.000509439 0.151779 173 178 164
-0.295539 0.00163911 0.151825 157 173 156
-0.295479 0.00276819 0.15187 120 139 105
-0.295873 0.00397734 0.151579 92 117 72
-0.290049 0.00849279 0.155898 76 116 67
-0.288707 0.0093218 0.156893 82 124 71
-0.288649 0.0104128 0.156936 97 140 80
-0.289018 0.0115971 0.156665 106 151 85
-0.289388 0.0127856 0.156392 113 161 90
-0.289974 0.0140282 0.155958 123 173 94
-0.290564 0.015278 0.155522 124 173 94
-0.292475 0.0168529 0.154108 113 161 87
-0.295098 0.0186241 0.152165 109 151 86
-0.295948 0.0199759 0.151537 97 141 82
-0.296117 0.0211614 0.151413 101 139 74
-0.296286 0.0223488 0.151289 91 139 73
-0.296227 0.0234766 0.151334 94 146 75
-0.311105 0.033578 0.140319 112 156 97
-0.311042 0.0347816 0.140367 115 157 105
-0.311503 0.0361447 0.140027 128 161 120
-0.311439 0.0373497 0.140075 154 172 145
-0.311639 0.0386372 0.139928 166 177 164
-0.311575 0.0398423 0.139977 169 178 164
-0.296202 0.000697861 0.149918 174 180 164
-0.295914 0.00179533 0.150134 152 170 150
-0.295627 0.00288989 0.15035 111 136 100
-0.29534 0.00398155 0.150565 85 116 68
-0.294828 0.0050288 0.150948 82 115 70
-0.29298 0.00581789 0.152331 84 115 68
-0.292038 0.00676357 0.153036 80 116 65
-0.290019 0.00748428 0.154545 77 115 66
-0.289102 0.00840937 0.155232 74 114 66
-0.288404 0.00937095 0.155754 78 118 68
-0.288347 0.0104631 0.155798 92 131 75
-0.288715 0.0116488 0.155523 102 148 83
-0.288871 0.0127904 0.155408 108 154 87
-0.289456 0.0140331 0.154972 112 157 89
-0.289613 0.0151806 0.154855 111 154 90
-0.29195 0.0168579 0.15311 108 150 85
-0.294794 0.0186853 0.150986 108 149 86
-0.295415 0.0199812 0.150523 82 121 72
-0.295583 0.0211667 0.150398 82 125 65
-0.310598 0.0323801 0.139185 108 152 97
-0.310535 0.0335844 0.139233 115 153 111
-0.310471 0.034788 0.139282 134 163 133
-0.310408 0.0359909 0.13933 158 177 152
-0.310606 0.0372747 0.139183 169 180 164
-0.310542 0.0384778 0.139232 167 179 164
-0.296581 0.000850836 0.148211 173 181 162
-0.296063 0.0019144 0.148602 144 162 136
-0.295547 0.00297283 0.148992 101 131 91
-0.294807 0.00398574 0.149551 79 116 66
-0.293848 0.00495031 0.150275 76 113 67
-0.292453 0.00582218 0.151328 78 113 68
-0.291513 0.00676792 0.152037 78 115 66
-0.290364 0.00766175 0.152904 76 114 65
-0.289012 0.00850171 0.153924 75 114 66
-0.288314 0.00946508 0.154452 77 115 66
-0.288256 0.0105596 0.154496 84 123 69
-0.288198 0.0116535 0.15454 96 139 78
-0.288567 0.0128435 0.154263 105 149 84
-0.289152 0.0140877 0.153823 108 151 87
-0.289957 0.0153905 0.153217 110 150 89
-0.292308 0.0170773 0.151446 109 149 85
-0.294488 0.0187465 0.149804 101 144 83
-0.294882 0.0199864 0.149508 75 120 62
-0.29505 0.0211721 0.149382 79 131 68
-0.30957 0.0310328 0.138442 109 153 102
-0.309767 0.0323106 0.138295 124 154 116
-0.309703 0.0335135 0.138343 144 165 142
-0.3099 0.0347944 0.138196 158 177 163
-0.309837 0.0359974 0.138245 170 179 166
-0.296733 0.000967439 0.146664 170 178 158
-0.296213 0.00203421 0.14706 138 154 118
-0.295467 0.00305614 0.147628 96 126 77
-0.294953 0.00411165 0.14802 77 116 64
-0.29399 0.00507883 0.148754 73 111 63
-0.29259 0.0059527 0.149819 74 111 65
-0.291647 0.00690093 0.150538 76 112 65
-0.290711 0.0078407 0.15125 77 112 64
-0.289568 0.00872754 0.15212 76 113 65
-0.288436 0.00960471 0.152982 75 114 66
-0.288165 0.0106564 0.153189 77 117 65
-0.288107 0.0117526 0.153234 88 126 70
