ply
format ascii 1.0
element vertex 1210
property float x
property float y
property float z
property uchar diffuse_red
property uchar diffuse_green
property uchar diffuse_blue
end_header
-0.290316 0.0485833 0.183108 120 178 89
-0.290675 0.0497834 0.18289 117 171 86
-0.290826 0.0509029 0.182799 110 162 83
-0.291396 0.0521961 0.182453 103 153 80
-0.291548 0.0533214 0.182361 97 144 75
-0.291491 0.0543601 0.182397 90 136 70
-0.291433 0.0553981 0.182434 82 127 67
-0.291796 0.0566169 0.182213 79 122 67
-0.292585 0.0580247 0.181733 75 118 65
-0.292953 0.059255 0.18151 72 117 64
-0.333871 0.0836663 0.156557 91 136 79
-0.333499 0.0847673 0.156786 100 143 92
-0.33343 0.0860089 0.156829 119 153 115
-0.332456 0.0868146 0.157425 148 166 142
-0.331787 0.0877592 0.157834 161 171 154
-0.304339 0.000139958 0.173167 137 162 148
-0.304044 0.00122155 0.17335 105 132 93
-0.303749 0.00230029 0.173533 89 120 76
-0.302992 0.00329786 0.174001 87 116 72
-0.302011 0.00424867 0.174607 86 114 70
-0.301038 0.00519108 0.175208 84 116 68
-0.299847 0.00608369 0.175943 81 117 64
-0.298669 0.00696663 0.17667 84 123 63
-0.296845 0.00771208 0.177795 89 131 66
-0.296567 0.00874758 0.177968 94 141 71
-0.296071 0.00973593 0.178274 96 147 76
-0.295362 0.0106744 0.178713 99 149 79
-0.294657 0.0116068 0.179148 97 142 73
-0.294384 0.0126268 0.179318 89 134 65
-0.294325 0.0136922 0.179356 86 133 65
-0.294266 0.0147572 0.179393 85 128 65
-0.293993 0.0157713 0.179562 81 123 61
-0.293509 0.0167319 0.179862 78 122 59
-0.292603 0.0175846 0.180421 77 119 59
-0.291915 0.0184823 0.180847 76 116 58
-0.291647 0.0194805 0.181013 75 115 60
-0.290964 0.020368 0.181435 73 115 60
-0.290079 0.021195 0.181982 73 112 58
-0.289815 0.022181 0.182145 74 111 57
-0.289143 0.0230519 0.182561 72 114 57
-0.288474 0.0239172 0.182974 72 113 57
-0.288214 0.0248923 0.183135 73 112 57
-0.288157 0.0259236 0.183172 73 113 58
-0.2881 0.0269544 0.183208 72 113 59
-0.287841 0.027924 0.183369 72 113 60
-0.287381 0.0288295 0.183654 73 113 61
-0.287324 0.0298557 0.18369 75 115 63
-0.287267 0.0308814 0.183726 75 116 65
-0.28721 0.0319065 0.183762 76 118 64
-0.287154 0.032931 0.183799 78 120 63
-0.287298 0.0340216 0.183711 81 123 67
-0.287443 0.0351137 0.183623 81 126 70
-0.287588 0.0362074 0.183535 84 129 71
-0.287733 0.0373028 0.183446 88 132 71
-0.287677 0.0383286 0.183482 92 135 71
-0.28762 0.039354 0.183519 94 139 71
-0.287968 0.040525 0.183305 97 143 73
-0.288318 0.0417001 0.183091 99 147 75
-0.288874 0.0429552 0.18275 102 151 78
-0.289433 0.0442173 0.182406 106 156 81
-0.289582 0.0453286 0.182316 110 161 84
-0.289732 0.0464416 0.182225 114 168 85
-0.289881 0.0475562 0.182134 118 172 87
-0.290239 0.0487548 0.181915 119 177 89
-0.290389 0.049874 0.181824 121 180 93
-0.29054 0.0509948 0.181732 122 181 94
-0.29111 0.0522896 0.181382 122 179 92
-0.291053 0.0533288 0.181419 120 173 88
-0.290995 0.0543675 0.181455 116 166 85
-0.291148 0.0554951 0.181363 106 155 80
-0.2913 0.0566245 0.18127 98 146 78
-0.291876 0.0579399 0.180917 92 138 74
-0.292667 0.0593568 0.18043 86 132 70
-0.334563 0.0829942 0.154631 94 143 78
-0.333276 0.083676 0.155426 97 143 86
-0.333207 0.0849199 0.15547 110 149 103
-0.333138 0.0861631 0.155514 133 160 128
-0.33307 0.0874057 0.155557 157 172 153
-0.30428 0.000216039 0.171874 131 157 145
-0.303985 0.00129988 0.17206 103 131 94
-0.303457 0.00234257 0.172389 90 121 76
-0.3027 0.00334111 0.172861 89 118 74
-0.301719 0.00429282 0.173473 87 117 72
-0.300746 0.00523608 0.17408 86 118 70
-0.299781 0.00617101 0.174682 83 119 66
-0.298378 0.00701314 0.175555 86 123 65
-0.296555 0.00775902 0.176691 90 131 67
-0.296277 0.0087956 0.176866 95 140 71
-0.295565 0.00974043 0.17731 98 147 74
-0.295073 0.0107243 0.177617 100 151 78
-0.294368 0.0116575 0.178057 99 148 76
-0.294095 0.0126786 0.178228 95 143 71
-0.294036 0.0137452 0.178266 92 143 71
-0.293977 0.0148112 0.178304 90 141 70
-0.293705 0.0158264 0.178474 88 137 69
-0.293008 0.0167368 0.178909 87 133 68
-0.292105 0.0175896 0.179472 87 130 66
-0.291417 0.0184874 0.179901 84 127 62
-0.291151 0.0194857 0.180068 80 123 61
-0.290884 0.0204814 0.180235 78 120 61
-0.290411 0.0214195 0.18053 78 117 60
-0.289323 0.0221863 0.181209 76 115 59
-0.288448 0.0230011 0.181754 74 116 57
-0.287985 0.0239226 0.182043 71 114 58
-0.287726 0.0248977 0.182206 71 113 59
-0.287669 0.0259292 0.182242 71 114 59
-0.28741 0.0269003 0.182405 72 113 59
-0.28675 0.027748 0.182816 72 112 60
-0.286694 0.0287738 0.182853 72 112 60
-0.286837 0.0298615 0.182764 72 112 60
-0.286781 0.0308872 0.182801 71 112 62
-0.286925 0.0319769 0.182712 71 114 60
-0.286868 0.0330025 0.182749 71 114 60
-0.286812 0.0340277 0.182785 73 114 63
-0.287157 0.0351876 0.182571 74 115 65
-0.287303 0.0362826 0.182482 77 117 66
-0.287246 0.0373091 0.182519 79 120 65
-0.287594 0.0384772 0.182304 81 123 66
-0.287537 0.0395047 0.18234 83 127 68
-0.287683 0.0406049 0.18225 85 129 70
-0.288033 0.0417814 0.182034 88 132 71
-0.288999 0.0431907 0.181434 92 135 71
-0.289147 0.0443016 0.181343 94 138 74
-0.289503 0.0454931 0.181123 98 143 75
-0.289653 0.0466085 0.181031 100 148 74
-0.289803 0.0477256 0.180939 102 151 77
-0.289953 0.0488443 0.180847 105 158 82
-0.290104 0.0499648 0.180755 109 164 86
-0.290463 0.0511719 0.180532 114 170 89
-0.290615 0.0522969 0.180439 118 173 90
-0.290767 0.0534236 0.180346 121 176 91
-0.290709 0.0544634 0.180383 124 180 95
-0.290652 0.0555027 0.18042 122 181 93
-0.290804 0.0566321 0.180326 118 177 92
-0.291378 0.0579476 0.17997 115 171 89
-0.334885 0.0834296 0.152922 107 154 88
-0.333591 0.0841118 0.153728 106 148 96
-0.333522 0.0853603 0.153772 124 156 119
-0.333454 0.0866081 0.153817 147 168 141
-0.333385 0.0878553 0.153861 160 170 153
-0.304221 0.000292431 0.170577 136 162 147
-0.303925 0.00137856 0.170764 107 132 93
-0.303396 0.00242334 0.171097 95 122 77
-0.302638 0.00342376 0.171575 90 120 77
-0.301426 0.00433704 0.172337 88 119 74
-0.300454 0.00528118 0.17295 87 118 71
-0.299489 0.00621696 0.173557 84 119 67
-0.298309 0.00710207 0.174299 86 123 64
-0.296483 0.00784882 0.175448 91 131 67
-0.295986 0.00884373 0.175761 96 141 71
-0.295274 0.00978945 0.176209 99 148 74
-0.294783 0.0107743 0.176519 100 153 78
-0.294078 0.0117083 0.176963 99 152 78
-0.293805 0.0127304 0.177135 97 148 74
-0.29396 0.0138465 0.177039 95 148 73
-0.293902 0.0149148 0.177077 96 146 73
-0.293415 0.0158816 0.177384 94 145 73
-0.292931 0.016844 0.177689 93 143 72
-0.291816 0.0176463 0.178391 93 141 70
-0.291129 0.0185449 0.178824 91 139 68
-0.290862 0.0195442 0.178992 89 137 69
-0.290596 0.0205409 0.179161 86 131 67
-0.290331 0.0215351 0.179329 84 127 64
-0.290066 0.0225269 0.179496 84 124 62
-0.288978 0.0232885 0.18018 80 122 62
-0.287901 0.0240421 0.180858 76 119 62
-0.287237 0.0249032 0.181276 74 116 61
-0.286979 0.025876 0.181439 73 115 60
-0.28632 0.0267273 0.181854 73 114 59
-0.286064 0.0276934 0.182016 72 113 60
-0.286008 0.0287183 0.182053 71 113 60
-0.286351 0.0298673 0.181839 72 112 59
-0.286294 0.0308931 0.181875 72 112 59
-0.286438 0.0319829 0.181786 71 113 58
-0.286382 0.0330086 0.181823 71 113 58
-0.286325 0.0340337 0.181859 72 111 61
-0.28667 0.0351938 0.181644 72 111 62
-0.286815 0.0362888 0.181554 73 112 63
-0.286758 0.0373154 0.181591 73 115 61
-0.286903 0.0384124 0.181501 74 115 62
-0.287049 0.0395111 0.181411 74 117 64
-0.286992 0.0405381 0.181448 76 118 65
-0.287543 0.041788 0.181103 81 121 64
-0.288507 0.0431974 0.180499 83 123 64
-0.289067 0.044464 0.180148 83 125 69
-0.289423 0.0456582 0.179926 86 130 73
-0.289366 0.0466957 0.179963 89 133 72
-0.289516 0.047814 0.17987 92 137 73
-0.289666 0.048934 0.179777 96 140 75
-0.290025 0.0501397 0.179553 100 145 78
-0.290386 0.0513497 0.179328 102 149 79
-0.290538 0.0524772 0.179233 105 153 81
-0.29048 0.0535186 0.179271 108 159 84
-0.290423 0.0545595 0.179308 114 166 90
-0.290366 0.0555999 0.179345 116 172 91
-0.290308 0.0566397 0.179382 120 178 93
-0.335518 0.0840118 0.151006 110 154 96
-0.334215 0.0846946 0.151826 118 152 111
-0.334146 0.0859492 0.15187 138 161 135
-0.333771 0.0870563 0.152107 156 170 153
-0.304396 0.000405668 0.169124 141 164 150
-0.304099 0.00149516 0.169314 113 134 95
-0.303335 0.00250442 0.1698 96 124 77
-0.302345 0.0034673 0.170429 89 122 77
-0.301362 0.00442159 0.171054 89 121 75
-0.300388 0.00536739 0.171673 89 120 72
-0.299421 0.00630484 0.172287 83 119 68
-0.29824 0.00719139 0.173037 85 124 64
-0.29685 0.00802513 0.17392 92 133 65
-0.295913 0.0089358 0.174515 96 142 71
-0.2952 0.00988322 0.174968 100 148 74
-0.294492 0.0108244 0.175419 102 153 78
-0.294002 0.0118056 0.17573 99 153 80
-0.293729 0.0128298 0.175905 96 149 75
-0.29367 0.0138997 0.175943 96 150 74
-0.293611 0.0149691 0.175982 96 147 73
-0.293552 0.016038 0.17602 95 146 73
-0.292854 0.0169516 0.176465 96 145 72
-0.291526 0.0177031 0.177307 95 144 70
-0.29084 0.0186025 0.177744 96 143 71
-0.290573 0.0196028 0.177914 95 142 72
-0.290515 0.020655 0.177952 94 140 72
-0.29025 0.0216512 0.178122 91 138 69
-0.289984 0.0226448 0.178291 90 136 70
-0.290134 0.0237509 0.178197 88 133 68
-0.288224 0.024277 0.17941 84 129 66
-0.286749 0.0249087 0.180346 82 126 65
-0.28589 0.0257059 0.180891 81 122 64
-0.285635 0.0266736 0.181055 78 121 63
-0.285578 0.0276991 0.181092 76 119 62
-0.285522 0.028724 0.181129 74 118 61
-0.285665 0.0298107 0.181039 73 116 60
-0.285808 0.0308989 0.18095 74 114 61
-0.285752 0.0319243 0.180986 74 112 60
-0.285496 0.0328836 0.18115 74 112 57
-0.285639 0.0339733 0.18106 73 111 60
-0.285982 0.0351322 0.180844 72 111 61
-0.286126 0.0362261 0.180754 72 112 60
-0.286271 0.0373217 0.180663 72 112 60
-0.286214 0.0383477 0.1807 72 111 61
-0.286359 0.0394453 0.18061 71 112 61
-0.286908 0.0406914 0.180263 73 112 60
-0.286851 0.0417199 0.1803 75 113 59
-0.288631 0.0434342 0.179173 76 116 61
-0.289193 0.0447054 0.178818 74 117 66
-0.289136 0.0457444 0.178855 76 118 69
-0.289079 0.046783 0.178892 81 119 69
-0.289436 0.0479844 0.178667 83 122 68
-0.290004 0.0492733 0.178309 85 126 71
-0.290156 0.0503999 0.178214 88 131 73
-0.290938 0.0517864 0.177719 92 135 75
-0.337167 0.0837641 0.14843 110 156 94
-0.336157 0.0845997 0.149071 114 152 106
-0.334845 0.085283 0.149904 136 163 131
-0.33416 0.0862507 0.15034 157 173 150
-0.304337 0.000482875 0.167814 143 164 151
-0.304039 0.00157465 0.168005 114 134 94
-0.303508 0.00262466 0.168347 96 125 77
-0.302282 0.00355048 0.169133 91 121 78
-0.301297 0.00450649 0.169764 90 120 78
-0.300094 0.00541277 0.170536 90 121 74
-0.299128 0.00635107 0.171156 86 120 70
-0.297947 0.00723836 0.171913 85 124 66
-0.296999 0.00815941 0.172521 91 133 67
-0.296278 0.0091166 0.172984 95 143 72
-0.295125 0.00997739 0.173723 98 149 75
-0.294416 0.0109202 0.174178 100 155 79
-0.293926 0.0119033 0.174493 99 154 80
-0.293438 0.0128819 0.174807 97 149 74
-0.293593 0.0140017 0.174708 97 149 73
-0.293535 0.0150733 0.174747 96 149 73
-0.293262 0.0160936 0.174923 95 147 74
-0.292776 0.0170596 0.175235 96 146 73
-0.291027 0.0177081 0.176356 97 145 70
-0.290968 0.0187658 0.176394 97 145 71
-0.290284 0.0196615 0.176834 98 144 72
-0.28626 0.0249142 0.179416 89 136 71
-0.285404 0.0257114 0.179965 88 134 71
-0.285347 0.0267385 0.180002 86 132 69
-0.284894 0.0276445 0.180294 83 129 67
-0.285036 0.0287297 0.180204 81 127 65
-0.28498 0.0297542 0.180241 79 123 64
-0.285122 0.0308414 0.180151 79 120 63
-0.284868 0.0318015 0.180315 79 117 64
-0.284613 0.0327592 0.180479 76 115 60
-0.284755 0.0338467 0.180389 75 113 60
-0.284898 0.0349357 0.180299 74 112 60
-0.285439 0.0361635 0.179954 71 113 59
-0.285383 0.0371882 0.179991 71 112 61
-0.285527 0.0382832 0.179901 72 111 60
-0.28567 0.0393797 0.17981 71 110 60
-0.285614 0.0404048 0.179847 72 110 59
-0.285558 0.0414293 0.179884 73 110 59
-0.288549 0.0435951 0.177971 73 111 61
-0.289055 0.0459106 0.177649 73 112 62
-0.288998 0.0469513 0.177687 74 110 63
-0.337188 0.0840641 0.14687 109 149 106
-0.336489 0.0850469 0.147318 139 164 130
-0.335481 0.0858772 0.147964 156 169 148
-0.304041 0.000523577 0.16665 150 167 151
-0.303979 0.00165448 0.166691 120 134 97
-0.303447 0.0027066 0.167036 99 125 79
-0.302218 0.00363401 0.167831 93 123 78
-0.301003 0.00455118 0.168618 90 121 77
-0.2998 0.00545823 0.169397 90 120 74
-0.29906 0.00643948 0.169876 88 119 71
-0.297876 0.00732822 0.170642 85 122 67
-0.296927 0.00825086 0.171257 89 133 68
-0.296205 0.0092098 0.171725 95 144 72
-0.295487 0.0101623 0.17219 100 151 75
-0.294557 0.0110624 0.172792 102 155 79
-0.293849 0.0120015 0.17325 98 155 79
-0.29336 0.0129819 0.173567 97 151 75
-0.293302 0.0140552 0.173607 97 150 73
-0.293243 0.015128 0.173646 97 148 72
-0.29297 0.0161493 0.173823 96 147 73
-0.292484 0.0171162 0.174138 95 147 73
-0.292213 0.0181313 0.174314 97 147 71
-0.291519 0.0190368 0.174764 97 147 70
-0.286374 0.0250936 0.178097 93 143 73
-0.285515 0.0258926 0.178653 92 142 73
-0.284861 0.0267441 0.179076 92 141 73
-0.284408 0.0276502 0.17937 90 139 72
-0.283565 0.0284307 0.179916 89 136 70
-0.283509 0.0294503 0.179953 89 134 69
-0.283453 0.0304693 0.179991 87 131 68
-0.283397 0.0314878 0.180028 86 127 68
-0.283146 0.0324413 0.180191 83 123 66
-0.283875 0.0337206 0.179721 82 122 64
-0.284412 0.0349419 0.179375 80 118 62
-0.284356 0.0359642 0.179413 77 118 62
-0.2843 0.0369859 0.17945 75 115 61
-0.284244 0.0380072 0.179487 74 114 61
-0.284189 0.0390279 0.179524 73 113 61
-0.284927 0.0403384 0.179048 73 111 60
-0.338798 0.0851011 0.144274 145 166 133
-0.336193 0.0852032 0.145958 164 177 155
-0.33581 0.0863291 0.146207 172 177 160
-0.30398 0.000601273 0.16533 158 171 155
-0.303447 0.00165851 0.165679 126 135 100
-0.303385 0.00278889 0.16572 102 126 82
-0.302388 0.00375788 0.166372 95 124 80
-0.300937 0.0046366 0.16732 92 122 78
-0.299504 0.00550379 0.168255 91 120 74
-0.298765 0.00648599 0.168739 87 119 71
-0.297582 0.00737548 0.169512 85 123 69
-0.296633 0.00829894 0.170132 90 134 69
-0.296131 0.00930339 0.17046 96 145 73
-0.295412 0.0102576 0.17093 102 151 76
-0.294698 0.0112055 0.171397 103 156 79
-0.293988 0.012147 0.171862 99 155 79
-0.293282 0.0130823 0.172323 98 151 76
-0.293224 0.0141579 0.172363 98 150 75
-0.293165 0.0152329 0.172402 98 148 74
-0.292678 0.0162052 0.172721 97 147 73
-0.292192 0.017173 0.173039 96 148 74
-0.291921 0.0181892 0.173217 96 148 73
-0.292076 0.0193104 0.173117 96 148 74
-0.285827 0.0261339 0.177202 95 144 73
-0.28537 0.027048 0.177501 95 144 73
-0.283923 0.0276558 0.178446 95 144 74
-0.283081 0.0284364 0.178996 95 142 73
-0.283025 0.029456 0.179033 94 141 72
-0.28297 0.0304751 0.179071 92 142 73
-0.282914 0.0314937 0.179108 93 138 72
-0.282663 0.0324472 0.179273 92 135 70
-0.283785 0.0338588 0.178543 90 134 69
-0.283926 0.034948 0.178451 88 130 68
-0.283871 0.0359704 0.178489 87 129 66
-0.283815 0.0369922 0.178526 83 126 64
-0.283759 0.0380135 0.178564 81 124 65
-0.283703 0.0390343 0.178601 79 122 65
-0.28444 0.0403449 0.178122 78 119 64
-0.336212 0.0855072 0.14439 168 176 161
-0.303919 0.000679295 0.164003 165 175 158
-0.303385 0.00173868 0.164356 131 137 104
-0.302385 0.00271481 0.165016 102 128 85
-0.300932 0.00360259 0.165974 94 125 82
-0.300871 0.00472239 0.166015 93 122 79
-0.299436 0.00559094 0.166961 92 119 77
-0.298469 0.00653259 0.167599 88 119 74
-0.297287 0.00742284 0.168379 85 123 68
-0.29656 0.00839097 0.168859 89 133 69
-0.296057 0.00939735 0.169191 96 143 73
-0.295337 0.0103533 0.169666 102 150 76
-0.29484 0.0113494 0.169994 104 156 79
-0.294128 0.0122935 0.170464 102 156 78
-0.29342 0.0132312 0.170932 99 150 74
-0.293146 0.0142609 0.171113 99 149 74
-0.293087 0.0153381 0.171153 98 149 75
-0.292599 0.0163123 0.171476 97 147 74
-0.292113 0.0172819 0.171797 97 149 73
-0.291841 0.0183001 0.171977 96 149 72
-0.291783 0.0193697 0.172016 97 149 74
-0.291938 0.0204939 0.171915 95 148 74
-0.284426 0.0279637 0.176871 95 145 73
-0.283776 0.0288082 0.1773 96 144 73
-0.284314 0.0300216 0.176947 95 144 74
-0.327827 0.0628119 0.148323 79 128 65
-0.32776 0.0640549 0.148369 84 132 70
-0.327986 0.0654157 0.148222 91 141 76
-0.328508 0.0668996 0.147879 99 149 79
-0.329032 0.06839 0.147536 103 150 82
-0.32956 0.0698869 0.14719 100 145 82
-0.330089 0.0713903 0.146843 102 144 89
-0.303621 0.000720414 0.162829 169 177 155
-0.303323 0.0018192 0.163028 136 142 109
-0.302322 0.00279711 0.163695 105 127 87
-0.300635 0.00364648 0.164817 96 126 83
-0.299428 0.0045638 0.165621 94 124 81
-0.298233 0.00547103 0.166416 91 120 78
-0.298173 0.0065793 0.166457 88 119 74
-0.296991 0.00747029 0.167243 85 121 69
-0.296264 0.00843935 0.167728 90 131 69
-0.295762 0.00944674 0.168062 96 143 74
-0.295262 0.0104494 0.168396 102 149 77
-0.294764 0.0114474 0.168728 105 156 81
-0.294268 0.0124408 0.169059 103 156 79
-0.293992 0.0134782 0.169244 100 151 73
-0.293499 0.0144633 0.169572 100 149 74
-0.293008 0.0154438 0.169899 97 149 74
-0.292734 0.0164712 0.170082 97 148 74
-0.292247 0.0174436 0.170408 98 149 72
-0.291548 0.0183582 0.170873 97 150 72
-0.29149 0.0194289 0.170913 97 149 74
-0.326921 0.0576229 0.1474 91 141 73
-0.326853 0.0588657 0.147447 89 139 73
-0.326786 0.0601077 0.147493 90 139 73
-0.326718 0.0613492 0.147539 92 144 75
-0.326943 0.0627049 0.147391 97 151 79
-0.326875 0.0639465 0.147437 101 159 85
-0.327393 0.0654242 0.147094 108 165 89
-0.32762 0.0667877 0.146945 112 164 91
-0.327846 0.0681538 0.146796 110 156 92
-0.328369 0.0696466 0.14645 106 146 95
-0.329193 0.0712724 0.145904 117 151 114
-0.303559 0.000798947 0.161493 172 179 158
-0.303024 0.00186162 0.161853 136 147 117
-0.302023 0.00284046 0.162526 107 132 93
-0.300568 0.00373039 0.163503 98 129 85
-0.299359 0.00464926 0.164315 96 125 82
-0.298162 0.00555801 0.165119 93 121 80
-0.296978 0.00645677 0.165914 89 119 75
-0.296918 0.00756109 0.165956 85 121 70
-0.295968 0.00848783 0.166594 89 131 69
-0.295466 0.00949623 0.166932 95 143 74
-0.294966 0.0104999 0.167268 102 150 77
-0.294688 0.0115458 0.167456 106 157 82
-0.294191 0.0125411 0.16779 103 158 82
-0.293914 0.0135806 0.167977 100 152 74
-0.293855 0.0146674 0.168018 99 150 75
-0.293796 0.0157536 0.168059 98 150 74
-0.293737 0.0168393 0.168099 99 149 75
-0.293896 0.0179777 0.167994 99 150 74
-0.32595 0.05369 0.146525 94 144 73
-0.325883 0.0549318 0.146572 94 143 74
-0.326106 0.0562801 0.146423 94 144 73
-0.326038 0.0575221 0.14647 93 146 75
-0.325971 0.0587634 0.146516 94 149 76
-0.326194 0.0601159 0.146368 97 154 79
-0.326418 0.0614709 0.146219 105 163 83
-0.326351 0.0627132 0.146265 109 169 88
-0.326284 0.0639549 0.146312 113 171 91
-0.326801 0.0654327 0.145967 116 169 92
-0.32732 0.0669168 0.14562 112 161 91
-0.327547 0.0682848 0.145469 108 151 95
-0.32807 0.0697798 0.145119 118 155 115
-0.303497 0.000877816 0.160151 168 175 157
-0.302961 0.00194265 0.160515 135 154 130
-0.302193 0.00296278 0.161036 108 135 98
-0.3005 0.00381465 0.162183 99 129 85
-0.29906 0.00469424 0.163159 96 126 84
-0.298091 0.00564535 0.163817 94 122 82
-0.296681 0.0065033 0.164772 90 120 76
-0.295731 0.007436 0.165417 86 121 69
-0.295229 0.00844825 0.165757 89 131 67
-0.29517 0.00954582 0.165799 94 142 72
-0.29467 0.0105505 0.166138 100 150 77
-0.294391 0.0115975 0.166328 105 158 84
-0.294114 0.0126419 0.166517 104 159 85
-0.293836 0.0136835 0.166706 100 153 76
-0.293777 0.0147725 0.166747 99 152 77
-0.293501 0.0158097 0.166935 100 152 76
-0.293878 0.0170015 0.166681 98 150 74
-0.308332 0.0251914 0.156902 97 152 75
-0.308269 0.0263524 0.156946 96 151 75
-0.308206 0.0275128 0.156989 97 149 75
-0.307895 0.0286038 0.157201 97 150 73
-0.307584 0.0296917 0.157413 98 152 74
-0.307274 0.0307767 0.157624 98 151 74
-0.307212 0.0319309 0.157668 98 151 73
-0.325494 0.0512119 0.145308 95 146 76
-0.325137 0.0523527 0.14555 95 145 76
-0.32507 0.0535937 0.145597 95 145 75
-0.325003 0.0548342 0.145644 96 145 75
-0.325225 0.0561808 0.145495 96 147 75
-0.325158 0.0574214 0.145542 96 150 75
-0.32538 0.0587715 0.145392 100 156 78
-0.325603 0.060124 0.145243 107 164 87
-0.325536 0.0613656 0.14529 114 175 91
-0.325759 0.0627216 0.14514 119 174 90
-0.325692 0.0639633 0.145187 120 171 91
-0.326208 0.0654412 0.144839 114 162 89
-0.326726 0.0669254 0.144489 108 152 93
-0.327247 0.0684161 0.144138 117 157 112
-0.303672 0.000994738 0.158641 168 174 160
-0.302898 0.00202403 0.159172 145 165 148
-0.301893 0.00300649 0.159859 117 139 106
-0.300201 0.00385901 0.161016 101 130 89
-0.298762 0.00473931 0.162 96 127 87
-0.297792 0.0056913 0.162664 94 123 84
-0.296607 0.00659233 0.163475 91 120 79
-0.295433 0.00748347 0.164278 87 120 69
-0.294932 0.00849674 0.164621 90 129 65
-0.294432 0.00950526 0.164964 96 141 72
-0.294373 0.0106012 0.165005 101 150 78
-0.294095 0.0116493 0.165197 105 157 83
-0.293817 0.0126947 0.165387 106 159 84
-0.29354 0.0137374 0.165578 102 154 77
-0.293481 0.0148277 0.165619 101 153 77
-0.293422 0.0159174 0.165661 101 152 76
-0.293581 0.0170591 0.165553 98 150 75
-0.307597 0.0239715 0.155982 96 153 75
-0.307534 0.025132 0.156026 97 154 75
-0.30772 0.0263582 0.1559 96 155 76
-0.307657 0.0275187 0.155944 99 155 77
-0.307346 0.0286097 0.156158 101 158 78
-0.306789 0.0296278 0.15654 104 159 78
-0.306481 0.0307118 0.156752 104 159 77
-0.306173 0.0317927 0.156963 101 156 76
-0.324393 0.0497767 0.14453 96 146 75
-0.324326 0.0510177 0.144577 95 147 76
-0.324259 0.052258 0.144624 95 147 76
-0.324193 0.0534977 0.144671 96 147 75
-0.324413 0.054842 0.144521 97 147 74
-0.324346 0.0560818 0.144568 98 149 76
-0.324568 0.0574294 0.144419 101 157 80
-0.324501 0.0586694 0.144466 108 167 85
-0.324722 0.0600204 0.144315 119 177 92
-0.324945 0.0613738 0.144165 125 180 95
-0.325168 0.0627299 0.144014 124 176 93
-0.325101 0.0639717 0.144061 114 164 91
-0.325324 0.0653312 0.14391 107 154 94
-0.326132 0.066934 0.143359 124 158 112
-0.303071 0.0021447 0.157658 160 171 157
-0.301827 0.00309004 0.158517 132 142 114
-0.300132 0.00394381 0.159687 107 130 92
-0.298462 0.00478449 0.160839 98 128 89
-0.297267 0.00569558 0.161664 95 124 87
-0.296532 0.0066817 0.162172 92 121 81
-0.295579 0.00761765 0.16283 88 119 72
-0.294854 0.00858956 0.163331 90 126 67
-0.294354 0.00960004 0.163677 96 139 72
-0.293856 0.0106058 0.164021 99 149 77
-0.293797 0.0117012 0.164063 106 157 81
-0.293519 0.0127477 0.164256 110 161 82
-0.293242 0.0137915 0.164448 102 155 77
-0.293184 0.0148829 0.164489 100 154 77
-0.293125 0.0159738 0.164531 99 152 78
-0.306249 0.0202531 0.155485 98 151 77
-0.306926 0.021593 0.155019 98 152 76
-0.306863 0.0227535 0.155063 96 153 74
-0.307048 0.0239771 0.154937 96 155 74
-0.307233 0.0252027 0.154811 99 158 76
-0.307419 0.0264304 0.154684 104 164 81
-0.307356 0.0275923 0.154728 116 173 86
-0.307046 0.0286845 0.154943 122 180 91
-0.306736 0.0297737 0.155158 122 182 89
-0.30618 0.0307888 0.155542 119 179 87
-0.305627 0.0317989 0.155925 113 172 84
-0.30459 0.0326584 0.156641 106 161 79
-0.304528 0.0338041 0.156685 100 154 76
-0.303982 0.0347993 0.157062 98 152 76
-0.303439 0.0357896 0.157438 99 150 76
-0.323871 0.0485424 0.14336 95 148 74
-0.323804 0.0497841 0.143408 96 147 74
-0.323737 0.0510252 0.143455 97 147 75
-0.32367 0.0522656 0.143502 96 147 75
-0.323603 0.0535054 0.143549 96 149 76
-0.323536 0.0547446 0.143597 97 153 77
-0.32347 0.055983 0.143644 100 159 81
-0.32369 0.057329 0.143493 109 169 89
-0.323623 0.0585676 0.143541 122 183 97
-0.323844 0.0599169 0.14339 137 187 102
-0.324065 0.0612688 0.143239 131 184 101
-0.324287 0.0626232 0.143087 119 167 93
-0.324799 0.0640969 0.142736 108 154 95
-0.324732 0.0653397 0.142783 123 157 113
-0.303007 0.00222695 0.156301 172 178 160
-0.301761 0.00317393 0.157169 141 150 122
-0.300063 0.00402897 0.158352 111 133 97
-0.297934 0.00478871 0.159834 100 130 92
-0.297193 0.00578348 0.160351 97 127 89
-0.296232 0.00672872 0.16102 94 124 84
-0.295502 0.00770906 0.161529 89 120 75
-0.294998 0.00872726 0.161881 88 122 69
-0.294056 0.00964984 0.162538 93 136 72
-0.293777 0.0107029 0.162733 98 148 78
-0.293499 0.0117532 0.162927 106 157 80
-0.293221 0.0128008 0.163121 111 163 82
-0.293162 0.0138952 0.163163 101 157 78
-0.293104 0.0149889 0.163205 98 154 77
-0.293263 0.016134 0.163095 99 152 77
-0.306193 0.0203775 0.154102 99 153 76
-0.306377 0.0215985 0.153975 98 153 75
-0.306314 0.0227591 0.154019 97 155 75
-0.306499 0.0239827 0.153892 101 159 75
-0.306931 0.0252736 0.153592 111 169 83
-0.307117 0.0265028 0.153464 120 184 91
-0.307054 0.027666 0.153509 134 196 97
-0.306744 0.0287594 0.153726 148 207 105
-0.306434 0.0298498 0.153943 146 210 104
-0.305633 0.0307948 0.154501 137 203 100
-0.304837 0.0317331 0.155056 131 192 94
-0.304046 0.0326646 0.155607 121 176 86
-0.303502 0.0336629 0.155987 107 160 80
-0.302959 0.0346564 0.156366 100 152 77
-0.302658 0.0357204 0.156576 100 150 76
-0.302597 0.0368581 0.15662 97 150 75
-0.323347 0.0473073 0.14219 96 147 75
-0.32328 0.0485498 0.142237 96 148 75
-0.323214 0.0497916 0.142285 97 148 74
-0.323147 0.0510327 0.142333 99 148 75
-0.32308 0.0522733 0.14238 97 150 78
-0.323014 0.0535131 0.142428 96 154 80
-0.322947 0.0547523 0.142475 101 163 84
-0.322881 0.0559909 0.142523 110 175 91
-0.322814 0.0572288 0.14257 125 188 100
-0.323034 0.0585757 0.142419 143 195 108
-0.322967 0.0598138 0.142466 136 187 106
-0.323187 0.061164 0.142315 119 165 93
-0.323695 0.0626315 0.141962 109 153 94
-0.324206 0.0641053 0.141608 127 156 114
-0.302943 0.00230956 0.154938 174 178 163
-0.302168 0.00333864 0.155483 147 162 141
-0.300227 0.00415528 0.156847 118 140 108
-0.297861 0.0048751 0.158509 104 131 93
-0.296893 0.00582973 0.15919 100 129 90
-0.296157 0.00681866 0.159708 98 125 85
-0.295202 0.00775711 0.160379 91 119 76
-0.294699 0.00877634 0.160733 86 120 68
-0.294197 0.00979076 0.161087 90 134 71
-0.293478 0.0107539 0.161593 97 148 77
-0.2932 0.0118053 0.161789 106 156 79
-0.293141 0.0129026 0.161831 113 164 82
-0.292864 0.0139496 0.162027 104 158 80
-0.292805 0.0150445 0.162069 100 155 77
-0.292746 0.0161389 0.162111 100 153 76
-0.305644 0.0203829 0.153058 100 153 75
-0.306074 0.0216651 0.152757 99 155 74
-0.306012 0.022827 0.152802 102 160 77
-0.30595 0.0239883 0.152847 114 171 85
-0.306381 0.0252793 0.152545 129 189 101
-0.306566 0.0265086 0.152416 140 202 102
-0.306504 0.0276719 0.152461 140 204 102
-0.306194 0.0287653 0.15268 148 209 108
-0.305885 0.0298558 0.152898 149 209 105
-0.305086 0.0308009 0.15346 139 202 100
-0.304292 0.0317392 0.154019 134 196 96
-0.303503 0.0326708 0.154573 129 186 92
-0.30296 0.0336691 0.154956 116 169 85
-0.302419 0.0346626 0.155337 103 154 77
-0.302358 0.0358023 0.155381 99 151 74
-0.302296 0.0369414 0.155425 96 150 75
-0.32289 0.0448275 0.140971 96 150 76
-0.322824 0.0460714 0.141019 99 148 76
-0.322757 0.0473146 0.141067 97 149 74
-0.32269 0.0485571 0.141115 97 150 76
-0.322624 0.049799 0.141162 97 150 75
-0.322557 0.0510403 0.14121 96 151 77
-0.322491 0.0522809 0.141258 99 156 79
-0.322424 0.0535208 0.141306 106 165 84
-0.322358 0.0547601 0.141354 116 179 94
-0.322291 0.0559988 0.141402 128 194 104
-0.322225 0.0572368 0.14145 141 196 110
-0.322444 0.0585837 0.141297 135 186 108
-0.322378 0.0598219 0.141345 120 166 91
-0.322597 0.0611722 0.141192 108 155 94
-0.323104 0.0626398 0.140837 126 157 114
-0.301865 0.00338317 0.154288 164 172 155
-0.300625 0.00432355 0.155167 136 150 123
-0.298245 0.0050447 0.156854 112 134 98
-0.296591 0.00587606 0.158027 105 131 92
-0.295856 0.00686596 0.158549 101 128 86
-0.295125 0.00784908 0.159068 93 121 78
-0.294398 0.00882552 0.159584 86 119 69
-0.294118 0.00988671 0.159783 89 130 69
-0.293617 0.0108983 0.160139 97 146 75
-0.2929 0.0118576 0.160648 105 155 78
-0.292841 0.012956 0.160691 112 165 83
-0.292564 0.0140041 0.160888 108 163 83
-0.292724 0.0151512 0.160776 102 157 78
-0.292665 0.0162479 0.160818 100 155 78
-0.305771 0.0217318 0.151537 100 158 76
-0.305462 0.0228325 0.151757 106 167 82
-0.3054 0.0239939 0.151802 123 183 93
-0.306078 0.0253504 0.151323 136 201 109
-0.306016 0.0265144 0.151368 145 202 107
-0.305953 0.0276777 0.151413 138 194 98
-0.305644 0.0287713 0.151633 129 185 96
-0.305336 0.0298618 0.151853 123 177 91
-0.304539 0.0308069 0.152419 119 172 87
-0.303747 0.0317453 0.152981 117 175 87
-0.30296 0.0326769 0.153539 122 179 90
-0.302418 0.0336754 0.153924 118 172 88
-0.302357 0.0348182 0.153969 106 157 81
-0.302295 0.0359604 0.154013 99 152 75
-0.322366 0.04359 0.139798 96 151 76
-0.3223 0.0448346 0.139847 96 149 78
-0.322233 0.0460786 0.139895 98 149 77
-0.322167 0.0473219 0.139943 98 149 76
-0.3221 0.0485645 0.139991 97 150 76
-0.322034 0.0498065 0.14004 99 152 74
-0.321967 0.0510478 0.140088 101 159 80
-0.321901 0.0522885 0.140136 109 169 88
-0.321835 0.0535285 0.140184 119 182 96
-0.321768 0.0547679 0.140232 127 192 103
-0.321702 0.0560066 0.14028 136 194 108
-0.321636 0.0572447 0.140329 134 187 108
-0.321854 0.0585918 0.140175 119 166 92
-0.322073 0.0599413 0.140021 107 156 93
-0.322007 0.0611804 0.140069 132 157 117
-0.301798 0.00346833 0.15292 171 176 160
-0.300556 0.00441035 0.153809 152 161 141
-0.298864 0.00525766 0.15502 126 142 113
-0.296742 0.00600703 0.156538 110 133 97
-0.295779 0.00695647 0.157227 102 130 91
-0.295047 0.00794145 0.157752 95 124 83
-0.294541 0.00896467 0.158114 88 119 73
-0.293817 0.00993711 0.158633 88 128 69
-0.293537 0.0109967 0.158834 96 143 74
-0.293258 0.0120534 0.159034 102 153 78
-0.29276 0.0130584 0.159391 110 163 82
-0.292701 0.0141586 0.159434 110 168 85
-0.304913 0.022838 0.150711 108 174 84
-0.304851 0.0239995 0.150756 120 187 92
-0.305527 0.0253561 0.150274 130 192 101
-0.305465 0.0265201 0.15032 128 182 97
-0.305403 0.0276836 0.150365 120 170 86
-0.305094 0.0287772 0.150587 110 159 80
-0.304787 0.0298678 0.150808 105 153 79
-0.303991 0.030813 0.151377 103 152 77
-0.303444 0.0318233 0.15177 104 155 76
-0.302416 0.0326831 0.152505 109 161 79
-0.302355 0.033829 0.15255 112 165 84
-0.302054 0.0348993 0.152766 106 159 84
-0.321709 0.0448417 0.138722 97 152 77
-0.321642 0.0460858 0.138771 98 153 77
-0.321576 0.0473292 0.13882 98 152 77
-0.32151 0.0485719 0.138868 99 155 77
-0.321443 0.0498139 0.138917 104 163 82
-0.321377 0.0510553 0.138965 116 176 92
-0.321311 0.0522961 0.139014 125 187 101
-0.321245 0.0535362 0.139062 136 196 107
-0.321179 0.0547757 0.139111 142 195 107
-0.321113 0.0560145 0.139159 130 180 102
-0.32133 0.0573608 0.139004 118 164 92
-0.321549 0.0587097 0.138849 106 156 96
-0.321483 0.0599494 0.138898 131 160 119
-0.300959 0.00458078 0.152105 164 172 156
-0.299024 0.00538823 0.153501 144 159 133
-0.29735 0.00622422 0.154709 121 141 109
-0.296153 0.00713426 0.155574 108 132 96
-0.295192 0.00807848 0.156268 99 127 88
-0.294462 0.00905943 0.156796 89 121 76
-0.293958 0.0100798 0.15716 86 125 69
-0.293456 0.0110954 0.157523 94 139 73
-0.293397 0.0122025 0.157567 101 150 77
-0.293559 0.0133586 0.157451 108 160 81
-0.294166 0.0146183 0.157014 115 170 86
-0.304363 0.0228436 0.149665 110 178 83
-0.304302 0.0240051 0.149711 116 182 90
-0.304485 0.0252311 0.14958 116 173 89
-0.304668 0.0264592 0.149449 112 162 81
-0.304606 0.0276215 0.149494 107 155 77
-0.304299 0.028714 0.149717 103 149 76
-0.303993 0.0298036 0.149939 100 148 77
-0.303444 0.030819 0.150336 99 148 77
-0.302898 0.0318294 0.150731 99 149 77
-0.302595 0.0329078 0.15095 102 152 77
-0.302052 0.0339092 0.151343 105 158 83
-0.321118 0.0448489 0.137598 97 152 80
-0.321052 0.046093 0.137647 98 154 78
-0.320985 0.0473364 0.137696 103 156 82
-0.320919 0.0485792 0.137745 108 168 87
-0.320853 0.0498214 0.137794 122 182 97
-0.320787 0.0510629 0.137842 132 192 105
-0.320721 0.0523037 0.137891 141 200 110
-0.320655 0.0535439 0.13794 143 196 108
-0.320589 0.0547835 0.137989 129 176 100
-0.320806 0.0561291 0.137833 116 162 93
-0.321024 0.0574772 0.137677 111 155 97
-0.320958 0.0587177 0.137726 140 163 124
-0.300653 0.00462683 0.150903 168 176 163
-0.300121 0.0056904 0.151292 158 171 153
-0.297735 0.00640052 0.153029 137 151 127
-0.296758 0.00735749 0.153741 119 137 104
-0.295564 0.00826104 0.154611 107 132 94
-0.294606 0.00920005 0.155309 95 123 82
-0.293878 0.010177 0.15584 86 121 70
-0.293375 0.0111945 0.156207 91 134 72
-0.293316 0.0123041 0.156251 99 148 77
-0.293701 0.0135125 0.155972 105 157 79
-0.294757 0.0148796 0.155204 117 171 85
-0.302903 0.0214429 0.14928 115 183 93
-0.303084 0.0226621 0.14915 112 178 86
-0.303023 0.02382 0.149196 112 171 84
-0.30369 0.0251717 0.148711 109 160 82
-0.303873 0.0263985 0.148579 106 152 78
-0.303811 0.0275595 0.148625 103 149 77
-0.303506 0.028651 0.148849 100 147 77
-0.303201 0.0297395 0.149071 100 147 77
-0.302897 0.0308251 0.149294 100 148 77
-0.302835 0.0319799 0.14934 101 148 78
-0.302532 0.0330606 0.149561 102 150 78
-0.321445 0.043888 0.135804 98 154 77
-0.320527 0.044856 0.136474 98 155 80
-0.320461 0.0461002 0.136523 102 164 85
-0.320395 0.0473437 0.136572 116 174 95
-0.320329 0.0485866 0.136621 129 195 105
-0.320263 0.0498288 0.13667 140 199 110
-0.320197 0.0510704 0.136719 146 205 115
-0.320131 0.0523113 0.136769 142 198 110
-0.320348 0.0536554 0.136612 128 175 98
-0.320282 0.0548965 0.136661 114 160 93
-0.3205 0.0562439 0.136504 111 156 101
-0.320434 0.0574852 0.136553 143 167 127
-0.300051 0.00578067 0.149918 167 175 160
-0.29952 0.00684125 0.150309 147 159 135
-0.29714 0.00753866 0.152057 121 142 109
-0.296166 0.00849029 0.152773 111 137 101
-0.294975 0.0093874 0.153648 102 127 89
-0.29402 0.0103212 0.154351 89 120 75
-0.293516 0.0113417 0.154722 89 128 71
-0.293457 0.0124548 0.154766 96 146 77
-0.294289 0.013768 0.154156 102 154 79
-0.295808 0.0152481 0.153042 113 167 83
-0.29666 0.0165872 0.152417 126 186 96
-0.30009 0.0185563 0.1499 138 198 103
-0.300265 0.0197606 0.149772 142 207 110
-0.300679 0.0210265 0.14947 135 199 105
-0.301573 0.0224203 0.148814 118 177 90
-0.302959 0.0239526 0.147798 110 160 83
-0.302898 0.0251124 0.147844 106 150 79
-0.30308 0.0263378 0.147712 102 146 79
-0.303018 0.0274977 0.147758 98 142 78
-0.302957 0.0286569 0.147804 95 140 75
-0.302895 0.0298156 0.14785 96 140 74
-0.302591 0.0309023 0.148074 99 144 76
-0.302288 0.031986 0.148298 101 148 77
-0.302227 0.0331403 0.148344 102 151 78
-0.321137 0.0439877 0.134466 102 162 79
-0.320502 0.0450504 0.134934 109 169 83
-0.320436 0.0462976 0.134983 120 185 96
-0.320087 0.0474475 0.135241 128 197 111
-0.319738 0.048594 0.135497 146 204 113
-0.319672 0.0498363 0.135547 147 205 117
-0.319889 0.0511788 0.135389 137 193 108
-0.319823 0.0524213 0.135439 123 174 96
-0.319757 0.0536631 0.135488 112 159 96
-0.319974 0.0550098 0.13533 114 157 107
-0.319908 0.0562518 0.135379 134 169 131
-0.300216 0.00591463 0.148363 174 179 162
-0.299919 0.00702285 0.148584 151 164 140
-0.298919 0.00799165 0.149326 115 141 109
-0.296775 0.00872196 0.150915 104 135 96
-0.295801 0.00966909 0.151637 101 129 91
-0.294837 0.0106076 0.152353 92 122 80
-0.294328 0.0116341 0.152731 87 124 70
-0.294268 0.0127542 0.152775 93 142 75
-0.295336 0.0141282 0.151985 100 150 79
-0.295731 0.0153579 0.151694 108 160 81
-0.296127 0.0165923 0.151402 120 180 93
-0.296985 0.0179423 0.150768 137 203 107
-0.299252 0.0196495 0.149089 145 206 107
-0.299426 0.0208531 0.148961 138 196 103
-0.300312 0.0222416 0.148306 118 169 88
-0.302168 0.0238946 0.146932 107 153 81
-0.302592 0.025183 0.14662 102 145 79
-0.30253 0.0263436 0.146666 94 137 77
-0.302469 0.0275035 0.146713 82 126 71
-0.302408 0.0286629 0.146759 78 121 66
-0.302346 0.0298216 0.146805 83 126 68
-0.302043 0.0309084 0.147031 92 138 74
-0.301982 0.0320646 0.147077 99 148 77
-0.320828 0.0440877 0.133125 116 183 90
-0.320477 0.0452457 0.133386 123 193 97
-0.320127 0.0464003 0.133646 130 199 102
-0.320061 0.0476484 0.133696 139 204 111
-0.319712 0.0487975 0.133956 139 196 112
-0.319646 0.0500428 0.134006 132 181 102
-0.31958 0.0512875 0.134055 120 166 94
-0.319514 0.0525315 0.134105 113 157 99
-0.319449 0.0537749 0.134155 124 160 116
-0.319383 0.0550176 0.134205 151 177 140
-0.300859 0.00613689 0.146442 176 181 163
-0.300797 0.00729597 0.146489 151 163 141
-0.302417 0.0087812 0.145279 109 135 105
-0.29902 0.00928174 0.147819 94 127 84
-0.296409 0.00990735 0.149771 93 126 84
-0.295664 0.0108978 0.150329 90 121 80
-0.294923 0.0118813 0.150883 85 121 71
-0.294864 0.0130075 0.150929 89 134 72
-0.295258 0.0142355 0.150635 98 146 77
-0.295653 0.0154682 0.150341 104 153 79
-0.295594 0.0165974 0.150386 110 164 83
-0.296449 0.0179475 0.149748 123 179 91
-0.298009 0.0194811 0.148584 131 187 99
-0.29865 0.0207991 0.148105 121 171 86
-0.299768 0.0222471 0.147271 109 154 80
-0.30162 0.0239002 0.145888 104 147 80
-0.3018 0.0251237 0.145754 97 141 77
-0.301981 0.0263493 0.14562 87 128 69
-0.30192 0.0275094 0.145667 77 120 63
-0.302101 0.0287377 0.145533 75 120 60
-0.302039 0.0298978 0.14558 81 125 62
-0.301978 0.0310572 0.145626 91 138 70
-0.30216 0.032289 0.145492 98 148 77
-0.320518 0.044188 0.13178 133 202 101
-0.320167 0.0453473 0.132044 134 202 104
-0.319817 0.0465032 0.132306 135 199 105
-0.319751 0.0477529 0.132356 130 189 102
-0.319402 0.0489033 0.132618 122 173 97
-0.319054 0.0500503 0.132879 114 161 95
-0.318988 0.051295 0.132929 116 153 104
-0.318923 0.0525392 0.13298 133 162 126
-0.318857 0.0537826 0.13303 157 180 150
-0.302232 0.00649493 0.143955 174 181 161
-0.302412 0.00771012 0.14382 150 161 135
-0.30308 0.00902227 0.143317 105 129 93
-0.302289 0.0100494 0.143914 88 122 77
-0.298418 0.0104349 0.146834 88 123 78
-0.296042 0.0110948 0.148626 85 119 75
-0.295526 0.0121312 0.149016 83 117 71
-0.295238 0.013213 0.149234 84 122 68
-0.295179 0.0143434 0.149279 94 139 74
-0.295119 0.0154732 0.149325 100 148 79
-0.295515 0.0167106 0.149027 105 153 80
-0.296143 0.0180083 0.148556 108 156 79
-0.297237 0.0194287 0.147732 110 156 81
-0.298109 0.0208044 0.147075 106 153 76
-0.299461 0.0223138 0.146057 104 148 77
-0.301071 0.0239058 0.144844 102 145 79
-0.301251 0.0251294 0.14471 94 138 74
-0.301431 0.0263551 0.144575 96 143 78
-0.301854 0.0276507 0.144257 92 137 73
-0.301793 0.0288127 0.144304 88 136 71
-0.30149 0.0299038 0.144534 91 140 72
-0.301671 0.0311349 0.144398 97 144 74
-0.301852 0.0323682 0.144262 101 148 77
-0.321352 0.0446643 0.129569 146 205 107
-0.319856 0.0454492 0.130698 132 194 103
-0.31979 0.0467025 0.130749 124 179 97
-0.31944 0.0478576 0.131013 115 167 93
-0.319091 0.0490093 0.131277 109 159 95
-0.318744 0.0501577 0.131541 120 157 109
-0.318678 0.051404 0.131591 139 163 134
-0.318612 0.0526497 0.131641 158 175 157
-0.302894 0.00672356 0.141982 167 176 157
-0.302832 0.00789934 0.14203 143 154 122
-0.302527 0.00902688 0.142263 99 121 78
-0.301738 0.010054 0.142865 82 116 71
-0.298813 0.0106329 0.145089 83 118 74
-0.297815 0.0115877 0.145849 84 119 74
-0.296134 0.0123838 0.147129 82 116 68
-0.295616 0.0134202 0.147524 79 115 66
-0.295328 0.0145035 0.147744 84 125 69
-0.295268 0.015637 0.14779 95 141 76
-0.295437 0.0168243 0.147663 103 148 79
-0.295836 0.0180693 0.14736 104 150 77
-0.296698 0.019434 0.146706 103 150 77
-0.298035 0.0209287 0.14569 101 148 78
-0.29939 0.0224422 0.14466 102 148 78
-0.300763 0.023975 0.143617 92 142 78
-0.301184 0.0252652 0.143298 82 136 74
-0.301364 0.0264939 0.143162 87 143 81
-0.301545 0.0277246 0.143025 91 143 79
-0.301484 0.0288879 0.143072 96 146 78
-0.301423 0.0300507 0.14312 99 151 79
-0.301362 0.0312128 0.143167 99 149 79
-0.322263 0.0438765 0.127279 137 199 120
-0.321328 0.0448607 0.127991 129 182 100
-0.320687 0.0459331 0.12848 118 170 93
-0.320334 0.0470967 0.128749 110 158 93
-0.319129 0.0479626 0.129667 111 153 103
-0.31878 0.0491156 0.129933 128 162 118
-0.318432 0.0502653 0.130198 150 174 141
-0.318085 0.0514116 0.130463 165 179 162
-0.304615 0.00594966 0.13918 165 172 161
-0.303318 0.00690918 0.140176 160 169 151
-0.302766 0.00799684 0.140601 132 149 113
-0.301973 0.00903148 0.14121 93 119 69
-0.301186 0.0100587 0.141815 76 113 65
-0.299213 0.0108325 0.143329 77 113 68
-0.298209 0.0117907 0.1441 80 117 73
-0.297446 0.0127906 0.144686 83 117 71
-0.296227 0.0136806 0.145623 80 112 67
-0.295248 0.0146125 0.146374 78 117 67
-0.295189 0.0157485 0.146421 86 129 72
-0.295358 0.0169385 0.146292 97 141 79
-0.296218 0.018299 0.145633 102 148 79
-0.297319 0.0197288 0.144789 102 149 78
-0.298668 0.0212335 0.143755 100 147 80
-0.300274 0.0228197 0.142524 101 146 79
-0.300694 0.0241082 0.142203 79 122 67
-0.301116 0.0254017 0.14188 66 115 60
-0.301297 0.0266332 0.141742 78 125 63
-0.301236 0.0277986 0.14179 94 144 73
-0.32166 0.0438836 0.126132 116 166 93
-0.321015 0.0449629 0.126627 111 159 90
-0.320374 0.0460363 0.12712 107 158 96
-0.320021 0.0472013 0.127392 123 156 111
-0.31967 0.0483629 0.127663 138 166 133
-0.318468 0.0492222 0.128585 154 176 150
-0.31812 0.0503732 0.128853 168 183 162
-0.30505 0.0061336 0.137343 168 176 160
-0.303993 0.00714238 0.138163 153 167 142
-0.302699 0.00809476 0.139165 117 144 103
-0.302149 0.00917927 0.139592 88 121 67
-0.301358 0.0102095 0.140204 75 112 63
-0.299854 0.0110833 0.141369 72 108 62
-0.298606 0.0119954 0.142336 75 110 67
-0.297604 0.012948 0.143112 82 115 71
-0.296844 0.0139437 0.143701 83 112 67
-0.295628 0.0148269 0.144643 77 112 66
-0.295568 0.0159679 0.14469 76 118 66
-0.295739 0.0171633 0.144559 90 131 73
-0.296604 0.0185307 0.14389 100 145 78
-0.298183 0.0200856 0.14267 101 147 77
-0.299546 0.0216027 0.141616 101 149 79
-0.299964 0.0228877 0.141293 89 140 76
-0.300625 0.024242 0.140783 69 118 62
-0.300806 0.025473 0.140644 66 119 59
-0.300745 0.026639 0.140692 81 136 68
-0.300926 0.0278727 0.140553 96 149 76
-0.321413 0.0427126 0.124708 103 152 89
-0.321057 0.0438907 0.124984 104 151 96
-0.320702 0.0450653 0.12526 118 152 107
-0.32006 0.0461399 0.125757 135 168 127
-0.319708 0.0473062 0.126031 153 176 148
-0.319071 0.0483703 0.126524 165 181 160
-0.317873 0.0492296 0.127453 169 182 166
-0.304988 0.00622843 0.135882 166 176 159
-0.304176 0.00728535 0.136516 146 163 130
-0.303371 0.00833461 0.137146 109 138 85
-0.302081 0.00927988 0.138154 87 124 67
-0.300805 0.0102142 0.13915 78 113 63
-0.299782 0.0111873 0.13995 73 107 59
-0.299006 0.0122019 0.140557 73 106 61
-0.297763 0.0131064 0.141527 75 107 64
-0.296767 0.0140527 0.142306 78 109 66
-0.296242 0.0150963 0.142717 77 108 65
-0.29595 0.0161891 0.142945 75 113 65
-0.296122 0.01739 0.142812 84 125 65
-0.297228 0.0188217 0.14195 95 141 75
-0.299058 0.0204472 0.140522 101 147 78
-0.299475 0.0217304 0.140198 105 147 78
-0.299654 0.0229559 0.140059 80 124 67
-0.300073 0.0242476 0.139732 68 121 62
-0.300254 0.0254787 0.139592 76 133 68
-0.300193 0.0266448 0.139641 89 146 75
-0.321388 0.0429056 0.123106 122 150 110
-0.320742 0.0439919 0.123611 136 163 125
-0.320387 0.0451679 0.123889 145 170 145
-0.319746 0.0462436 0.12439 160 179 157
-0.319108 0.0473135 0.124889 170 182 167
-0.304674 0.0062782 0.134611 159 174 155
-0.303863 0.00733623 0.13525 135 158 118
-0.303057 0.00838657 0.135885 104 136 75
-0.302012 0.00938094 0.136709 89 129 69
-0.300492 0.0102678 0.137907 81 119 65
-0.29947 0.0112418 0.138713 75 111 60
-0.298932 0.0123083 0.139137 72 108 59
-0.298396 0.0133695 0.13956 70 104 62
-0.296689 0.0141622 0.140905 73 106 64
-0.296163 0.0152079 0.141319 77 107 65
-0.296104 0.0163576 0.141367 80 114 68
-0.296743 0.0176748 0.140865 84 123 66
-0.298569 0.0192909 0.139428 95 140 77
-0.298985 0.0205723 0.139102 100 145 76
-0.299163 0.0217972 0.138962 93 143 77
-0.299582 0.0230871 0.138633 76 127 65
-0.299762 0.0243176 0.138493 74 130 65
-0.299701 0.0254844 0.138541 85 141 71
-0.300123 0.0267848 0.13821 95 149 76
-0.321364 0.0430995 0.121496 156 178 156
-0.320716 0.0441881 0.122006 163 176 156
-0.320072 0.0452708 0.122514 164 177 163
-0.319718 0.0464446 0.122794 168 180 166
-0.304359 0.00632811 0.133337 154 169 143
-0.303797 0.0074338 0.133784 119 149 105
-0.30299 0.00848625 0.134426 98 137 74
-0.301943 0.00948245 0.135258 90 132 70
-0.300179 0.0103215 0.13666 86 123 66
-0.299157 0.0112964 0.137473 80 117 62
-0.298619 0.0123641 0.137901 74 113 60
-0.298321 0.0134785 0.138138 70 109 61
-0.29708 0.0143776 0.139125 71 108 61
-0.296317 0.0153736 0.139731 78 111 63
-0.296258 0.0165271 0.139779 79 118 69
-0.297606 0.0180197 0.13871 84 127 69
-0.298257 0.0193548 0.138194 94 141 77
-0.298673 0.0206378 0.137864 103 145 80
-0.298851 0.0218642 0.137723 85 127 69
-0.29903 0.0230927 0.137582 74 128 64
-0.29945 0.0243877 0.13725 78 137 67
-0.29963 0.0256218 0.137108 90 147 75
-0.303994 0.0280258 0.133643 99 152 80
-0.303793 0.00633256 0.132261 148 165 127
-0.303233 0.00743832 0.13271 113 144 86
-0.302675 0.00853854 0.133158 96 139 75
-0.301384 0.0094871 0.134193 91 134 71
-0.300107 0.0104246 0.135217 88 128 66
-0.299083 0.0114013 0.136038 85 125 65
-0.298544 0.0124711 0.13647 81 121 66
-0.298008 0.0135356 0.136901 80 119 65
-0.29771 0.0146482 0.13714 78 120 65
-0.297177 0.0157033 0.137568 78 120 66
-0.297117 0.0168644 0.137616 82 123 70
-0.297767 0.0181964 0.137097 89 131 72
-0.297944 0.0194188 0.136956 98 142 77
-0.29836 0.0207034 0.136624 93 139 79
-0.298538 0.0219313 0.136482 80 125 66
-0.298957 0.0232245 0.136148 79 130 66
-0.299136 0.024458 0.136004 85 139 71
-0.300528 0.026026 0.134891 94 147 76
-0.304941 0.0284547 0.131358 101 152 81
-0.303477 0.00638258 0.130983 134 163 119
-0.302917 0.00748956 0.131436 106 144 79
-0.30236 0.00859096 0.131887 94 141 75
-0.301313 0.00958907 0.132733 91 138 73
-0.299792 0.0104787 0.133963 89 134 71
-0.299008 0.0115066 0.134597 88 135 70
-0.298469 0.0125786 0.135034 89 131 72
-0.297931 0.0136453 0.135469 90 128 70
-0.297396 0.0147067 0.135902 89 132 73
-0.2971 0.0158175 0.136142 88 129 72
-0.297276 0.0170373 0.136 89 131 69
-0.297453 0.018259 0.135858 92 140 75
-0.297868 0.0195419 0.135524 100 145 78
-0.298046 0.0207692 0.135381 86 130 69
-0.298224 0.0219986 0.135238 80 128 65
-0.298643 0.0232934 0.1349 84 135 68
-0.299304 0.0246584 0.134367 91 142 74
-0.301932 0.0265715 0.132245 98 147 79
-0.304372 0.0284606 0.130275 101 149 85
-0.305581 0.0300244 0.129299 111 151 101
-0.306032 0.03138 0.128936 135 161 128
-0.303284 0.00402658 0.129599 179 184 168
-0.302911 0.00638703 0.129905 121 155 103
-0.3026 0.00754089 0.130158 101 148 78
-0.302043 0.00864348 0.130613 96 143 75
-0.300997 0.00964255 0.131466 96 142 74
-0.300204 0.010682 0.132114 94 140 75
-0.298933 0.0116124 0.133149 93 140 74
-0.298154 0.012635 0.133785 94 140 78
-0.297855 0.0137555 0.13403 95 143 77
-0.297319 0.014819 0.134467 96 139 76
-0.297259 0.0159873 0.134517 95 137 74
-0.297199 0.0171549 0.134567 94 139 71
-0.297376 0.0183795 0.134423 98 145 76
-0.297553 0.0196063 0.134279 93 145 79
-0.297731 0.0208351 0.134135 80 127 68
-0.298149 0.022128 0.133796 80 131 67
-0.298568 0.0234261 0.133455 88 139 72
-0.300693 0.0251898 0.131725 96 145 78
-0.303361 0.0271269 0.129552 102 149 83
-0.304309 0.0286089 0.128781 107 150 96
-0.304501 0.0298845 0.128625 125 158 124
-0.302717 0.00403088 0.128519 173 183 163
-0.302344 0.0063915 0.128827 117 150 84
-0.302035 0.00754543 0.129082 99 150 77
-0.301479 0.0086481 0.129539 98 147 77
-0.300925 0.00974521 0.129995 97 146 75
-0.299887 0.0107366 0.130849 97 147 76
-0.298858 0.0117187 0.131695 100 148 78
-0.298077 0.0127432 0.132338 99 145 80
-0.297539 0.0138132 0.132781 100 141 77
-0.297241 0.0149319 0.133026 98 143 77
-0.296943 0.0160475 0.133272 97 143 75
-0.297121 0.017273 0.133127 100 145 75
-0.29706 0.0184426 0.133177 102 145 78
-0.297476 0.0197302 0.132836 87 132 73
-0.297655 0.0209619 0.13269 78 129 67
-0.298073 0.0222581 0.132347 82 136 70
-0.299218 0.023752 0.131407 91 142 76
-0.301609 0.025596 0.129444 98 147 81
-0.303296 0.0272717 0.128058 103 150 90
-0.303739 0.0286148 0.127696 118 157 113
-0.302709 0.00291455 0.126974 174 182 168
-0.302149 0.00403519 0.127439 164 179 155
-0.301839 0.00519441 0.127696 134 165 119
-0.301778 0.00639597 0.127748 110 152 82
-0.301469 0.00754996 0.128005 100 151 80
-0.300914 0.00865271 0.128465 100 150 79
-0.300362 0.0097499 0.128923 100 148 78
-0.299327 0.0107414 0.129783 100 151 78
-0.2983 0.0117235 0.130634 102 150 76
-0.297521 0.0127481 0.13128 100 147 76
-0.296985 0.0138181 0.131726 101 144 76
-0.296687 0.0149369 0.131973 98 145 75
-0.296627 0.0161078 0.132023 99 147 77
-0.296567 0.0172781 0.132074 102 150 79
-0.296982 0.0185639 0.131731 94 141 77
-0.29716 0.019795 0.131584 81 129 70
-0.297578 0.0210893 0.131239 79 133 68
-0.298479 0.0225144 0.130493 86 141 73
-0.299876 0.0240815 0.129336 95 146 77
-0.302037 0.0258719 0.127546 101 149 84
-0.302727 0.0272776 0.126975 111 153 100
