ply
format ascii 1.0
element vertex 1174
property float x
property float y
property float z
property uchar diffuse_red
property uchar diffuse_green
property uchar diffuse_blue
end_header
-0.315724 0.0100877 0.16755 115 178 90
-0.315659 0.0112585 0.167591 122 181 94
-0.315852 0.0124799 0.167475 122 173 97
-0.315787 0.0136506 0.167516 135 167 113
-0.315722 0.0148208 0.167557 155 172 144
-0.315657 0.0159903 0.167598 163 175 161
-0.266198 -0.0525216 0.196618 150 159 141
-0.265987 -0.051567 0.196748 118 139 105
-0.265777 -0.0506144 0.196879 97 126 89
-0.26541 -0.049651 0.197106 90 124 84
-0.264887 -0.0486792 0.19743 88 123 76
-0.264212 -0.0477015 0.197847 86 123 73
-0.263696 -0.0467413 0.198167 88 122 73
-0.263028 -0.0457769 0.198579 89 127 69
-0.262365 -0.0448194 0.198989 92 130 67
-0.261858 -0.0438768 0.199302 94 135 68
-0.261505 -0.0429465 0.199521 98 143 71
-0.261454 -0.0420327 0.199554 104 153 74
-0.261555 -0.041125 0.199493 111 158 80
-0.261656 -0.0402162 0.199432 117 167 85
-0.276135 -0.0328005 0.190515 160 228 117
-0.27608 -0.0318156 0.19055 155 222 113
-0.276203 -0.030828 0.190475 151 218 111
-0.276148 -0.0298432 0.19051 145 206 102
-0.291109 -0.0199467 0.181299 101 146 80
-0.311638 9.93472e-05 0.168668 110 157 85
-0.312073 0.00133174 0.168401 111 157 88
-0.312761 0.00260886 0.167978 110 160 87
-0.313454 0.00389367 0.167552 113 162 88
-0.314151 0.00518628 0.167124 114 163 86
-0.314597 0.00644212 0.166851 111 166 84
-0.314788 0.00765684 0.166734 112 171 86
-0.31498 0.00887361 0.166617 115 177 89
-0.315172 0.0100924 0.1665 121 181 92
-0.315107 0.0112632 0.166542 125 179 95
-0.3153 0.0124847 0.166424 123 170 104
-0.315235 0.0136555 0.166466 140 169 132
-0.31517 0.0148258 0.166507 161 173 156
-0.26571 -0.0515816 0.19582 150 163 144
-0.2655 -0.0506282 0.195952 134 149 117
-0.264976 -0.0496508 0.196279 116 135 104
-0.264454 -0.0486789 0.196605 101 127 90
-0.263781 -0.0477011 0.197026 92 124 83
-0.26342 -0.0467514 0.197251 88 123 79
-0.262753 -0.045786 0.197667 87 121 72
-0.262243 -0.0448364 0.197986 89 125 69
-0.261736 -0.0438921 0.198303 90 129 67
-0.261533 -0.0429674 0.19843 92 134 69
-0.261331 -0.0420448 0.198556 98 146 71
-0.26204 -0.0411583 0.198117 107 154 78
-0.275026 -0.0337867 0.190043 151 213 108
-0.274099 -0.0328116 0.190621 144 205 104
-0.274218 -0.0318323 0.190547 135 194 98
-0.274688 -0.0308454 0.190256 129 185 95
-0.274809 -0.0298618 0.190182 125 180 90
-0.27493 -0.028877 0.190108 122 175 87
-0.311407 -0.00101694 0.167437 112 160 85
-0.311343 0.000140478 0.167479 112 159 86
-0.311778 0.00137437 0.167209 111 161 88
-0.312215 0.002613 0.166939 111 162 87
-0.312402 0.00381493 0.166824 113 165 89
-0.313348 0.00514753 0.166237 113 168 84
-0.313792 0.006402 0.165962 110 171 85
-0.314238 0.00766134 0.165686 112 177 90
-0.314429 0.00887818 0.165568 119 183 93
-0.31462 0.0100971 0.16545 125 186 95
-0.314556 0.0112679 0.165492 125 176 98
-0.314748 0.0124895 0.165374 133 166 112
-0.314683 0.0136605 0.165415 150 170 142
-0.314618 0.0148308 0.165457 163 175 160
-0.265222 -0.0506419 0.195024 155 166 150
-0.264541 -0.0496506 0.195452 151 160 140
-0.263866 -0.0486665 0.195878 135 149 122
-0.263349 -0.0477008 0.196204 117 134 106
-0.262989 -0.046751 0.196431 100 127 94
-0.262477 -0.0457952 0.196754 92 123 83
-0.261967 -0.0448447 0.197075 89 119 78
-0.261764 -0.0439156 0.197204 88 122 71
-0.261562 -0.0429885 0.197332 88 126 67
-0.261663 -0.0420764 0.19727 93 137 69
-0.262069 -0.0411747 0.197015 103 150 75
-0.267533 -0.0375931 0.193586 135 195 97
-0.267644 -0.0366477 0.193518 143 207 104
-0.273059 -0.0347645 0.190117 135 195 99
-0.272833 -0.0337903 0.19026 132 187 91
-0.27278 -0.0328171 0.190295 126 181 90
-0.27307 -0.0318398 0.190114 122 178 87
-0.273189 -0.0308627 0.19004 120 173 86
-0.273308 -0.0298843 0.189966 119 170 87
-0.273254 -0.0289096 0.190001 116 167 87
-0.273373 -0.0279297 0.189927 112 160 84
-0.310615 -0.00104898 0.166558 112 161 87
-0.310551 0.000107269 0.166599 113 162 89
-0.311233 0.00137842 0.166172 112 163 88
-0.311669 0.00261713 0.165899 113 164 89
-0.311856 0.00381917 0.165784 113 167 88
-0.312799 0.00515186 0.165192 112 169 85
-0.313242 0.00640642 0.164915 114 174 87
-0.313432 0.00761992 0.164797 119 182 90
-0.313877 0.00888276 0.164519 126 187 94
-0.314069 0.0101017 0.1644 128 185 96
-0.314004 0.0112727 0.164442 124 173 102
-0.314196 0.0124944 0.164323 139 170 126
-0.314131 0.0136654 0.164365 159 173 152
-0.264263 -0.0496634 0.194526 156 163 152
-0.263433 -0.0486662 0.195054 154 164 150
-0.262917 -0.0477004 0.195382 147 161 143
-0.262558 -0.0467505 0.195611 135 149 125
-0.261895 -0.0457851 0.196033 118 139 109
-0.261539 -0.0448442 0.196259 102 129 94
-0.261488 -0.043923 0.196293 91 123 82
-0.26159 -0.0430096 0.196229 86 122 74
-0.261692 -0.0420952 0.196166 88 127 67
-0.261946 -0.0411854 0.196005 98 139 71
-0.267144 -0.03854 0.192711 116 171 89
-0.267092 -0.037592 0.192745 121 176 90
-0.26704 -0.0366445 0.192779 127 180 90
-0.267474 -0.0357011 0.192505 124 178 90
-0.271071 -0.0347599 0.190225 121 176 90
-0.271356 -0.033792 0.190045 121 172 87
-0.271813 -0.0328197 0.189756 120 172 88
-0.27193 -0.0318473 0.189683 118 172 88
-0.272048 -0.0308736 0.189609 117 169 86
-0.272165 -0.0298987 0.189536 116 167 87
-0.272455 -0.0289177 0.189353 112 160 88
-0.272573 -0.0279394 0.189279 97 137 78
-0.272864 -0.0269533 0.189095 90 132 72
-0.310135 -0.00220204 0.165481 113 164 89
-0.310071 -0.0010451 0.165523 114 165 88
-0.310255 0.00014842 0.165408 115 165 90
-0.310937 0.00142115 0.164976 116 166 91
-0.311123 0.00262128 0.16486 116 167 90
-0.311309 0.00382339 0.164743 113 169 88
-0.311998 0.00511318 0.164307 112 173 87
-0.312439 0.00636636 0.164029 118 180 90
-0.312881 0.00762441 0.16375 124 186 92
-0.313326 0.00888735 0.163469 127 188 96
-0.313517 0.0101064 0.16335 126 180 97
-0.313452 0.0112774 0.163392 131 169 109
-0.313644 0.0124992 0.163272 148 172 143
-0.313579 0.0136703 0.163314 163 176 162
-0.262486 -0.0477001 0.19456 158 165 152
-0.261974 -0.0467397 0.194889 158 168 152
-0.261618 -0.0457942 0.195118 154 167 146
-0.261415 -0.0448613 0.195249 147 156 130
-0.261364 -0.0439385 0.195282 123 142 109
-0.261466 -0.0430235 0.195218 100 127 86
-0.261568 -0.0421075 0.195154 88 122 75
-0.266974 -0.0375966 0.191697 116 168 88
-0.266922 -0.0366474 0.191732 117 167 86
-0.267847 -0.0357057 0.19114 118 167 85
-0.269114 -0.0347554 0.19033 118 167 87
-0.270567 -0.0337916 0.189401 118 169 88
-0.270851 -0.0328224 0.18922 116 170 87
-0.271137 -0.0318502 0.189038 116 167 87
-0.271254 -0.0308782 0.188964 118 167 88
-0.271541 -0.029901 0.188781 118 167 86
-0.271658 -0.0289257 0.188707 98 141 80
-0.271947 -0.0279434 0.188523 93 133 71
-0.272065 -0.0269647 0.188449 95 137 74
-0.309655 -0.00335588 0.164404 115 165 89
-0.309591 -0.00219824 0.164446 114 166 90
-0.309528 -0.00104121 0.164488 115 167 90
-0.309711 0.000152378 0.164372 114 166 89
-0.310391 0.0014252 0.163938 116 168 92
-0.310577 0.00262541 0.16382 118 167 89
-0.310762 0.00382762 0.163703 114 170 86
-0.31145 0.00511751 0.163264 115 177 88
-0.31189 0.00637077 0.162984 121 186 92
-0.312331 0.0076289 0.162702 128 194 96
-0.312521 0.00884462 0.162582 128 190 98
-0.312965 0.0101111 0.162299 123 176 101
-0.312901 0.0112822 0.162342 138 171 121
-0.313091 0.012504 0.162221 157 174 151
-0.313027 0.0136752 0.162263 165 178 165
-0.261138 -0.0448696 0.194333 159 167 154
-0.261087 -0.043946 0.194367 152 167 143
-0.261189 -0.0430302 0.194302 113 137 106
-0.268275 -0.0366684 0.189728 113 158 82
-0.268553 -0.0357129 0.18955 116 161 83
-0.268666 -0.0347541 0.189478 116 162 83
-0.269947 -0.0337907 0.188651 115 163 88
-0.270231 -0.0328223 0.188469 116 168 86
-0.270347 -0.0318531 0.188395 115 170 87
-0.270632 -0.0308797 0.188212 115 169 87
-0.270748 -0.0299073 0.188138 111 161 87
-0.271034 -0.0289288 0.187953 100 143 75
-0.271151 -0.0279531 0.187879 98 146 78
-0.271439 -0.0269695 0.187694 103 148 81
-0.308928 -0.0045426 0.163485 114 167 91
-0.308865 -0.00338551 0.163528 116 166 89
-0.309047 -0.00219443 0.163411 117 166 90
-0.30923 -0.00100138 0.163294 116 169 91
-0.309909 0.000268388 0.162856 116 168 89
-0.309846 0.00142927 0.162899 116 170 92
-0.31003 0.00262956 0.16278 116 171 88
-0.309967 0.00379048 0.162823 116 174 87
-0.310902 0.00512183 0.16222 121 184 92
-0.31134 0.00637518 0.161938 125 191 95
-0.311781 0.0076334 0.161655 130 194 100
-0.31197 0.0088492 0.161534 127 185 99
-0.312159 0.010067 0.161413 128 172 108
-0.312349 0.0112869 0.161291 148 173 141
-0.312539 0.0125089 0.16117 165 179 165
-0.260962 -0.0439616 0.193351 166 172 148
-0.268602 -0.0357152 0.188374 94 139 76
-0.26855 -0.0347535 0.18841 105 147 77
-0.269497 -0.0337894 0.187793 109 159 83
-0.26978 -0.0328209 0.187609 112 164 84
-0.269895 -0.0318516 0.187535 114 167 88
-0.270011 -0.0308812 0.187461 118 163 87
-0.270126 -0.0299096 0.187386 110 159 90
-0.270412 -0.0289319 0.187201 105 155 80
-0.270528 -0.027957 0.187126 100 152 80
-0.270815 -0.0269742 0.18694 102 152 84
-0.308384 -0.00453895 0.16245 117 168 93
-0.308321 -0.0033818 0.162493 117 169 92
-0.308503 -0.00219062 0.162375 118 169 92
-0.308932 -0.000961468 0.162097 119 170 91
-0.309363 0.000272368 0.161817 117 170 90
-0.309548 0.0014721 0.161698 117 173 90
-0.309484 0.0026337 0.16174 115 174 86
-0.309421 0.0037947 0.161783 119 180 89
-0.310353 0.00512614 0.161176 126 190 96
-0.310791 0.00637959 0.160892 130 197 100
-0.310978 0.00759205 0.160771 130 192 101
-0.311419 0.00885378 0.160485 126 178 101
-0.311607 0.0100717 0.160363 139 173 120
-0.311797 0.0112917 0.160241 160 177 153
-0.268485 -0.0357164 0.187302 94 125 73
-0.268433 -0.0347529 0.187338 90 129 66
-0.269046 -0.033788 0.186934 101 147 77
-0.269328 -0.0328194 0.18675 109 159 83
-0.269443 -0.0318501 0.186675 114 167 87
-0.269559 -0.0308797 0.1866 120 169 89
-0.269674 -0.029908 0.186525 109 164 94
-0.26979 -0.028935 0.18645 105 154 83
-0.270075 -0.0279552 0.186263 106 154 81
-0.270191 -0.026979 0.186187 106 155 84
-0.270308 -0.0260015 0.186112 107 157 82
-0.297984 -0.0136344 0.167897 115 164 85
-0.297923 -0.0125254 0.167938 114 166 88
-0.307841 -0.0045353 0.161415 117 170 91
-0.308022 -0.00334468 0.161297 118 168 90
-0.307959 -0.00218681 0.16134 120 170 91
-0.308387 -0.000957574 0.161059 119 169 91
-0.30857 0.000238913 0.16094 119 169 92
-0.308754 0.0014374 0.16082 117 173 89
-0.308938 0.00263786 0.1607 116 178 89
-0.309868 0.00396496 0.160089 123 189 95
-0.309805 0.00513047 0.160132 130 197 100
-0.309991 0.00633963 0.160011 134 198 103
-0.310428 0.00759656 0.159724 128 187 101
-0.310616 0.00881112 0.159602 127 173 110
-0.311056 0.0100764 0.159313 148 176 141
-0.311245 0.0112964 0.15919 166 181 164
-0.273882 -0.0397313 0.182555 90 121 79
-0.272953 -0.0387169 0.183174 90 123 81
-0.268701 -0.03572 0.186004 97 128 83
-0.268648 -0.0347531 0.18604 83 122 71
-0.268762 -0.0337861 0.185965 89 131 69
-0.268877 -0.032818 0.18589 107 152 79
-0.268992 -0.0318486 0.185815 115 166 86
-0.269274 -0.030875 0.185628 119 169 88
-0.269222 -0.0299063 0.185664 115 172 97
-0.269337 -0.0289333 0.185588 107 160 86
-0.269622 -0.0279534 0.1854 112 159 83
-0.269738 -0.0269771 0.185324 110 160 83
-0.269854 -0.0259996 0.185248 109 162 86
-0.295814 -0.0160023 0.168001 112 165 88
-0.295754 -0.0149011 0.168042 116 167 86
-0.296134 -0.0137585 0.167791 117 169 88
-0.296295 -0.012634 0.167685 115 167 88
-0.297343 -0.0114139 0.16699 113 170 90
-0.297506 -0.0102812 0.166883 115 171 90
-0.297445 -0.00917272 0.166924 116 172 92
-0.297385 -0.00806484 0.166965 119 172 90
-0.307116 -0.0057204 0.160499 118 174 91
-0.307297 -0.00453165 0.16038 117 171 89
-0.307478 -0.00334095 0.160261 118 168 90
-0.307415 -0.002183 0.160304 117 170 92
-0.307597 -0.000989716 0.160184 117 170 94
-0.308025 0.000242902 0.159901 116 172 92
-0.308208 0.00144145 0.159781 115 177 88
-0.308391 0.00264199 0.15966 121 184 92
-0.30932 0.00396921 0.159044 130 197 100
-0.309505 0.00517779 0.158922 136 202 103
-0.309942 0.00643288 0.158634 134 197 101
-0.309878 0.00760104 0.158677 125 181 103
-0.310065 0.0088157 0.158554 137 172 120
-0.310253 0.0100324 0.158431 157 175 150
-0.274819 -0.0427712 0.180731 114 140 105
-0.274764 -0.0417685 0.180768 92 125 80
-0.274178 -0.0407488 0.181163 88 123 79
-0.272545 -0.039706 0.182259 90 121 78
-0.272492 -0.0387158 0.182296 85 121 78
-0.26875 -0.0357224 0.184809 90 121 77
-0.268364 -0.0347521 0.18507 82 117 71
-0.268478 -0.0337843 0.184994 82 123 66
-0.268592 -0.0328152 0.184918 99 146 73
-0.268707 -0.0318449 0.184842 112 162 85
-0.268822 -0.0308734 0.184766 120 169 90
-0.268937 -0.0299007 0.18469 122 180 99
-0.269053 -0.0289268 0.184613 114 163 84
-0.269168 -0.0279517 0.184537 115 161 84
-0.269284 -0.0269753 0.18446 111 162 85
-0.269569 -0.0259902 0.18427 112 161 86
-0.294328 -0.0182858 0.167667 113 167 85
-0.294269 -0.0171889 0.167708 114 166 89
-0.294209 -0.0160926 0.167749 117 167 88
-0.29502 -0.014918 0.167206 117 169 87
-0.295179 -0.0137975 0.167101 116 169 90
-0.295557 -0.0126532 0.166848 116 170 90
-0.296158 -0.0114813 0.166446 116 171 90
-0.296098 -0.0103767 0.166487 117 175 92
-0.296038 -0.00927266 0.166529 118 177 94
-0.296643 -0.00808852 0.166124 120 176 91
-0.296805 -0.00695413 0.166017 120 174 90
-0.306753 -0.00452801 0.159345 120 171 90
-0.306934 -0.00333723 0.159225 119 171 90
-0.306871 -0.00217919 0.159268 118 172 92
-0.307052 -0.000985815 0.159148 118 172 94
-0.307234 0.000209509 0.159027 116 174 91
-0.307416 0.00140682 0.158906 118 181 91
-0.307599 0.0026061 0.158785 133 194 102
-0.308275 0.00389021 0.158332 142 206 109
-0.308708 0.00513911 0.158043 140 204 106
-0.309142 0.00639281 0.157753 131 190 101
-0.309328 0.00760553 0.15763 128 174 110
-0.309265 0.00877315 0.157673 145 174 139
-0.309702 0.0100371 0.157382 162 177 159
-0.274762 -0.0437909 0.179563 165 174 157
-0.274352 -0.0427704 0.179842 123 155 134
-0.274298 -0.0417677 0.179879 101 125 80
-0.273889 -0.0407538 0.180157 91 124 79
-0.272956 -0.0397294 0.18079 91 124 79
-0.272727 -0.0387306 0.180946 87 120 77
-0.2688 -0.0357249 0.183608 86 117 75
-0.268245 -0.0347515 0.183985 82 115 70
-0.268193 -0.0337824 0.184021 80 122 66
-0.268307 -0.0328124 0.183945 95 140 71
-0.268422 -0.0318412 0.183868 112 158 82
-0.268537 -0.0308688 0.183791 118 168 87
-0.268652 -0.0298951 0.183714 131 184 96
-0.268767 -0.0289203 0.183637 118 164 86
-0.268715 -0.0279499 0.183674 114 165 88
-0.269168 -0.0269602 0.183368 114 165 86
-0.269623 -0.0259658 0.183061 115 166 87
-0.293382 -0.0183157 0.166981 116 167 86
-0.293108 -0.0172383 0.167168 116 168 89
-0.293264 -0.0161268 0.167063 118 168 88
-0.293636 -0.014994 0.166812 115 170 89
-0.294445 -0.0138155 0.166266 118 171 90
-0.294603 -0.0126944 0.16616 119 174 92
-0.2952 -0.0115249 0.165757 123 182 92
-0.29514 -0.0104225 0.165798 132 190 95
-0.29552 -0.00926942 0.165542 132 191 97
-0.29546 -0.00816593 0.165584 127 183 96
-0.296063 -0.00697888 0.165177 124 176 93
-0.306327 -0.00217539 0.158232 118 173 92
-0.306264 -0.00101789 0.158276 118 174 93
-0.306445 0.0001762 0.158154 117 179 91
-0.306626 0.00137227 0.158033 130 190 99
-0.306808 0.00257029 0.157911 143 212 119
-0.307235 0.00381158 0.157623 148 216 119
-0.307664 0.00505766 0.157334 140 201 107
-0.308344 0.00635283 0.156875 128 182 104
-0.308778 0.00761002 0.156582 138 173 121
-0.308964 0.00882486 0.156458 157 175 150
-0.274472 -0.0437989 0.17855 168 175 158
-0.274418 -0.0427928 0.178589 152 165 144
-0.274363 -0.0417872 0.178627 111 126 92
-0.274131 -0.0407763 0.178786 92 124 83
-0.274077 -0.0397728 0.178824 92 126 79
-0.268294 -0.0347513 0.182781 84 115 73
-0.268074 -0.03378 0.182932 83 121 67
-0.268022 -0.0328096 0.182969 96 135 66
-0.268136 -0.0318374 0.182892 111 156 78
-0.268419 -0.030861 0.1827 115 166 88
-0.268366 -0.0298895 0.182737 130 179 94
-0.268314 -0.0289185 0.182773 120 172 92
-0.268766 -0.0279309 0.182466 114 168 88
-0.269051 -0.0269451 0.182272 114 168 86
-0.269847 -0.0259337 0.181729 115 168 85
-0.292714 -0.0194236 0.166109 116 167 90
-0.292013 -0.0183778 0.166589 117 169 89
-0.292381 -0.0172529 0.166339 117 170 88
-0.292322 -0.0161609 0.16638 117 171 88
-0.292477 -0.0150499 0.166275 118 172 90
-0.293063 -0.0138959 0.165876 120 179 91
-0.29387 -0.0127134 0.165326 128 193 98
-0.294245 -0.0115684 0.16507 140 211 107
-0.294404 -0.0104438 0.164963 148 218 108
-0.294563 -0.00931746 0.164855 150 220 109
-0.294942 -0.0081626 0.164598 143 207 106
-0.30554 -0.00220621 0.157362 118 174 93
-0.305477 -0.00104989 0.157405 116 176 92
-0.305657 0.000142961 0.157284 120 186 95
-0.305838 0.00133778 0.157162 147 212 112
-0.306018 0.00253455 0.157039 158 222 121
-0.306444 0.00377451 0.15675 150 212 114
-0.306871 0.00501923 0.156459 135 191 104
-0.307547 0.00631294 0.155999 130 173 111
-0.307979 0.00756875 0.155705 146 172 139
-0.308413 0.00882943 0.155409 163 175 159
-0.274305 -0.0428075 0.177451 169 170 154
-0.274197 -0.0407931 0.177528 95 125 85
-0.274142 -0.0397867 0.177567 93 126 83
-0.26851 -0.0347514 0.181456 85 118 73
-0.268122 -0.0337771 0.181724 83 119 68
-0.26807 -0.032804 0.181761 91 130 66
-0.268017 -0.0318314 0.181798 104 150 78
-0.268132 -0.0308562 0.18172 113 163 88
-0.268416 -0.0298759 0.181526 123 173 92
-0.268363 -0.0289022 0.181563 124 181 98
-0.268648 -0.0279176 0.181368 115 170 90
-0.269442 -0.0269099 0.180821 117 170 88
-0.269901 -0.0259089 0.180505 116 170 89
-0.271053 -0.0248686 0.179712 116 171 88
-0.291136 -0.0194962 0.165867 117 170 92
-0.290655 -0.0184393 0.1662 117 169 90
-0.291019 -0.017319 0.16595 115 171 89
-0.291385 -0.0161948 0.165699 115 173 88
-0.291539 -0.015086 0.165594 119 179 91
-0.291906 -0.013955 0.165342 138 194 101
-0.292276 -0.01282 0.165088 149 224 118
-0.293295 -0.0116118 0.164387 162 239 128
-0.293236 -0.0105137 0.164429 167 244 124
-0.29361 -0.00936532 0.164171 162 234 116
-0.295084 -0.00807852 0.163156 159 228 115
-0.304996 -0.00220241 0.156326 118 176 94
-0.304934 -0.00104599 0.156371 119 182 94
-0.305113 0.000146925 0.156248 139 197 104
-0.305051 0.00130336 0.156292 158 218 126
-0.305231 0.00249888 0.156169 158 221 127
-0.305654 0.0037375 0.155878 144 204 110
-0.306079 0.00498087 0.155586 129 180 105
-0.306752 0.00627315 0.155124 140 173 125
-0.307429 0.00757325 0.154658 158 174 153
-0.274371 -0.0428301 0.176186 166 174 162
-0.274262 -0.04081 0.176263 107 126 89
-0.274208 -0.0398008 0.176302 95 128 83
-0.275051 -0.0388126 0.175716 92 124 83
-0.268003 -0.0337747 0.180626 84 118 69
-0.26795 -0.0327998 0.180664 86 124 65
-0.268066 -0.0318231 0.180584 98 144 73
-0.268181 -0.0308453 0.180505 114 161 84
-0.268297 -0.0298662 0.180425 120 171 91
-0.268582 -0.0288809 0.180228 129 182 98
-0.269037 -0.0278868 0.179912 121 174 91
-0.269496 -0.0268879 0.179594 115 170 91
-0.269956 -0.025884 0.179274 118 170 89
-0.270592 -0.0248666 0.178833 119 168 87
-0.272106 -0.0237941 0.17778 117 168 89
-0.289575 -0.019568 0.165628 119 169 89
-0.289516 -0.0184845 0.165669 116 169 88
-0.290087 -0.0173505 0.165273 115 173 88
-0.29024 -0.0162468 0.165168 117 178 87
-0.290603 -0.015122 0.164916 126 193 94
-0.290969 -0.0139933 0.164663 145 221 115
-0.291123 -0.0128823 0.164557 155 232 119
-0.291918 -0.0117009 0.164004 183 244 130
-0.291859 -0.0106073 0.164046 169 231 121
-0.292661 -0.00941298 0.16349 152 216 108
-0.304452 -0.00219859 0.155291 118 182 92
-0.30439 -0.00104211 0.155335 128 193 100
-0.304569 0.000150905 0.155212 148 217 117
-0.304507 0.0013074 0.155256 166 229 126
-0.304445 0.0024633 0.155301 155 215 117
-0.304866 0.00370057 0.155009 136 191 106
-0.305289 0.00494261 0.154715 132 173 114
-0.305959 0.00623342 0.154251 148 173 144
-0.274688 -0.040839 0.174739 115 143 109
-0.274633 -0.039825 0.174778 95 130 86
-0.27512 -0.038824 0.174437 94 129 85
-0.269235 -0.0337681 0.178574 85 118 73
-0.268167 -0.0327928 0.179326 82 122 66
-0.268114 -0.0318148 0.179363 93 138 70
-0.26823 -0.0308342 0.179283 110 156 81
-0.268685 -0.0298443 0.178965 116 168 89
-0.268972 -0.0288545 0.178764 131 182 95
-0.269089 -0.0278675 0.178682 124 179 95
-0.269549 -0.0268657 0.178361 119 170 89
-0.270011 -0.025859 0.178037 117 170 90
-0.270996 -0.0248213 0.177346 118 170 88
-0.271641 -0.023792 0.176894 117 169 89
-0.28732 -0.021847 0.165886 118 169 91
-0.288293 -0.0207043 0.165203 117 169 90
-0.287822 -0.0196538 0.165535 118 171 92
-0.287971 -0.0185609 0.165432 118 171 88
-0.288534 -0.0174328 0.165037 117 175 84
-0.289101 -0.0162985 0.16464 121 183 90
-0.289672 -0.0151578 0.164241 159 212 108
-0.290035 -0.0140314 0.163987 158 226 114
-0.290188 -0.0129226 0.163881 160 233 120
-0.290978 -0.0117437 0.163327 163 225 126
-0.290707 -0.0106761 0.163518 148 204 106
-0.291074 -0.0095361 0.163261 132 188 98
-0.304211 -0.00331857 0.154042 125 185 92
-0.303908 -0.00219479 0.154256 124 191 95
-0.303846 -0.00103823 0.1543 142 216 111
-0.303784 0.000117722 0.154345 161 225 122
-0.303963 0.00131145 0.154221 163 225 127
-0.303901 0.00246741 0.154265 146 202 112
-0.304321 0.00370479 0.153971 129 178 110
-0.304501 0.00490443 0.153846 143 174 134
-0.305167 0.00619379 0.153379 162 180 159
-0.274881 -0.0398444 0.173368 109 127 90
-0.275371 -0.0388396 0.173022 100 128 87
-0.269458 -0.0337646 0.177216 89 119 75
-0.268723 -0.0327829 0.177738 85 118 67
-0.268332 -0.0318042 0.178016 89 128 69
-0.268279 -0.0308231 0.178054 105 152 79
-0.268566 -0.0298345 0.177852 115 165 89
-0.269023 -0.0288379 0.177529 125 176 93
-0.269141 -0.0278481 0.177446 127 184 99
-0.269603 -0.0268435 0.17712 119 174 91
-0.270066 -0.0258339 0.176793 118 172 90
-0.271054 -0.0247931 0.176094 119 170 88
-0.271351 -0.0237802 0.175884 118 169 88
-0.286612 -0.021857 0.165072 118 170 88
-0.286759 -0.0207695 0.164969 116 170 91
-0.286702 -0.019695 0.165011 117 171 91
-0.286849 -0.0186054 0.164907 116 172 89
-0.287202 -0.0174975 0.164658 114 179 87
-0.287556 -0.0163857 0.164408 125 192 99
-0.288536 -0.0152127 0.163715 152 219 123
-0.288895 -0.0140897 0.163462 164 232 122
-0.289466 -0.0129412 0.163058 153 219 115
-0.290041 -0.0117864 0.162652 140 197 105
-0.289983 -0.0106969 0.162694 129 180 95
-0.290349 -0.009558 0.162436 122 172 92
-0.303426 -0.00334823 0.153175 128 193 94
-0.303125 -0.00222555 0.15339 135 208 101
-0.303302 -0.00103434 0.153265 147 224 115
-0.30324 0.00012169 0.15331 162 232 125
-0.303418 0.0013155 0.153185 153 214 117
-0.303357 0.00247154 0.15323 134 188 108
-0.303776 0.00370901 0.152934 137 174 118
-0.303955 0.00490872 0.152808 155 177 148
-0.304377 0.00615425 0.15251 168 182 165
-0.27495 -0.0398587 0.172077 120 144 111
-0.274895 -0.0388385 0.172116 102 131 89
-0.275204 -0.0378253 0.171897 99 129 88
-0.269168 -0.0337627 0.176216 91 122 78
-0.268944 -0.0327757 0.176377 86 120 71
-0.268381 -0.0317957 0.17678 85 121 66
-0.268329 -0.030812 0.176819 101 146 73
-0.268616 -0.0298206 0.176614 115 162 85
-0.268904 -0.0288261 0.176409 120 171 90
-0.269365 -0.0278226 0.17608 130 188 101
-0.269656 -0.0268211 0.175873 122 183 98
-0.270295 -0.0258008 0.175418 118 172 91
-0.270938 -0.0247735 0.174959 120 173 91
-0.271235 -0.0237587 0.174747 117 172 89
-0.285906 -0.0218671 0.16426 116 172 90
-0.286256 -0.0207671 0.16401 117 172 90
-0.286198 -0.0196925 0.164052 118 173 88
-0.286141 -0.0186185 0.164094 116 174 84
-0.286288 -0.0175283 0.16399 115 180 88
-0.28664 -0.0164188 0.16374 126 194 95
-0.286993 -0.0153053 0.163488 142 214 108
-0.28797 -0.0141274 0.162791 148 216 113
-0.288329 -0.0130027 0.162536 138 199 102
-0.288898 -0.0118515 0.162129 126 181 94
-0.289472 -0.0106938 0.16172 121 172 92
-0.289625 -0.00957986 0.161612 120 169 91
-0.302643 -0.00337784 0.15231 150 209 108
-0.302581 -0.00222175 0.152355 154 224 112
-0.302519 -0.00106628 0.1524 153 228 115
-0.302697 0.000125654 0.152275 153 222 117
-0.302874 0.00131955 0.152149 140 198 108
-0.302812 0.00247567 0.152194 131 176 112
-0.303231 0.00371322 0.151896 147 176 138
-0.30341 0.00491302 0.151769 164 179 160
-0.274782 -0.0388458 0.170949 113 133 100
-0.274728 -0.0378242 0.17099 102 132 90
-0.269391 -0.0337591 0.174843 94 124 83
-0.268654 -0.0327728 0.175376 89 121 77
-0.268431 -0.0317872 0.175538 81 122 67
-0.268378 -0.0308008 0.175577 91 137 69
-0.268496 -0.0298107 0.175493 110 157 81
-0.268956 -0.0288093 0.175162 117 167 86
-0.269763 -0.027791 0.17458 127 181 95
-0.269883 -0.0267916 0.174494 129 190 101
-0.270351 -0.0257753 0.174158 123 175 92
-0.270647 -0.0247627 0.173946 121 172 91
-0.270943 -0.0237469 0.173733 119 174 90
-0.271417 -0.0227171 0.173392 119 173 89
-0.285752 -0.0207647 0.163052 118 173 90
-0.285695 -0.01969 0.163094 117 174 87
-0.285638 -0.0186159 0.163136 114 176 83
-0.285581 -0.0175424 0.163179 117 181 88
-0.285727 -0.0164517 0.163074 125 195 92
-0.286078 -0.0153404 0.162822 137 207 99
-0.286636 -0.0142053 0.16242 138 202 101
-0.287405 -0.0130426 0.161867 129 183 94
-0.288179 -0.0118711 0.161309 121 173 91
-0.28875 -0.0107145 0.160899 119 167 90
-0.288902 -0.00960168 0.16079 118 166 90
-0.302338 -0.00334077 0.151103 162 227 126
-0.302038 -0.00221794 0.15132 178 237 123
-0.302214 -0.00102657 0.151194 167 230 118
-0.302391 0.00016677 0.151067 146 206 108
-0.30233 0.00132359 0.151113 130 182 106
-0.302507 0.00251954 0.150986 140 175 125
-0.302685 0.00371744 0.150858 159 179 154
-0.302864 0.00491731 0.150731 169 181 166
-0.274433 -0.0378262 0.169951 107 132 97
-0.274742 -0.0368087 0.169727 102 133 91
-0.268875 -0.0327656 0.174 92 125 84
-0.268651 -0.0317764 0.174164 83 120 69
-0.268599 -0.0307863 0.174203 86 127 67
-0.268546 -0.0297966 0.174242 104 149 77
-0.269352 -0.0287823 0.173657 113 162 86
-0.269818 -0.0277712 0.173319 121 176 94
-0.269938 -0.026769 0.173232 135 193 100
-0.270233 -0.0257576 0.173018 127 187 98
-0.270529 -0.024743 0.172804 121 176 91
-0.270651 -0.023735 0.172716 119 173 91
-0.270949 -0.0227149 0.1725 119 174 91
-0.285249 -0.0207623 0.162093 119 172 90
-0.285192 -0.0196875 0.162136 116 173 87
-0.285135 -0.0186133 0.162178 110 175 85
-0.285077 -0.0175398 0.162221 114 181 86
-0.28502 -0.0164667 0.162263 122 193 91
-0.28537 -0.0153566 0.16201 129 196 95
-0.285721 -0.0142426 0.161755 129 186 94
-0.286073 -0.0131247 0.1615 123 174 93
-0.287461 -0.0118906 0.160491 119 169 92
-0.288239 -0.0107114 0.159926 112 162 89
-0.288391 -0.00959847 0.159816 108 156 87
-0.302032 -0.00330362 0.149893 150 215 118
-0.301732 -0.00217955 0.150112 169 230 121
-0.30167 -0.00102267 0.150158 157 215 113
-0.301847 0.000170753 0.15003 135 189 105
-0.302024 0.00136614 0.149903 135 173 116
-0.301963 0.00252366 0.149948 154 177 145
-0.30214 0.00372165 0.14982 166 181 163
-0.274264 -0.0368075 0.168817 107 135 95
-0.270137 -0.0327495 0.171851 97 128 87
-0.269218 -0.0317607 0.172527 89 121 78
-0.269165 -0.0307651 0.172567 83 121 65
-0.269112 -0.02977 0.172606 96 138 71
-0.269578 -0.0287601 0.172265 108 159 84
-0.269872 -0.0277512 0.17205 117 171 87
-0.269993 -0.0267462 0.171962 127 186 97
-0.270115 -0.0257398 0.171874 132 192 103
-0.270062 -0.024741 0.171914 123 181 95
-0.270183 -0.0237329 0.171825 121 176 91
-0.27048 -0.0227128 0.171608 120 175 91
-0.284631 -0.0186108 0.16122 108 174 85
-0.284574 -0.0175371 0.161263 110 180 85
-0.284517 -0.016464 0.161305 117 187 88
-0.284663 -0.0153726 0.161199 121 185 91
-0.285216 -0.0142397 0.160794 124 175 91
-0.285567 -0.0131217 0.160537 121 168 92
-0.286952 -0.0118876 0.159521 110 161 88
-0.287728 -0.0107083 0.158953 93 140 77
-0.288299 -0.00954515 0.158534 91 134 74
-0.301487 -0.00329989 0.148855 133 189 102
-0.301187 -0.00217573 0.149076 143 199 108
-0.301126 -0.00101879 0.149122 135 190 105
-0.301302 0.000174713 0.148994 132 174 113
-0.301479 0.00137018 0.148865 150 174 140
-0.301418 0.0025278 0.148911 165 180 162
-0.273732 -0.0357826 0.167949 108 135 98
-0.272723 -0.0337399 0.168698 104 131 95
-0.270367 -0.0327422 0.170444 101 130 92
-0.269617 -0.0317473 0.171001 96 126 85
-0.269391 -0.0307503 0.17117 85 119 71
-0.269338 -0.0297515 0.17121 90 127 66
-0.269632 -0.0287429 0.170992 105 151 77
-0.269753 -0.0277372 0.170904 114 167 86
-0.270049 -0.0267232 0.170685 122 176 93
-0.269996 -0.0257219 0.170725 134 191 101
-0.269768 -0.0247301 0.170895 131 192 102
-0.269715 -0.0237308 0.170935 123 183 95
-0.284128 -0.0186082 0.160261 108 176 86
-0.284071 -0.0175345 0.160304 109 181 86
-0.284014 -0.0164613 0.160347 114 182 87
-0.284159 -0.0153698 0.160241 117 178 88
-0.284711 -0.0142368 0.159833 120 171 90
-0.285061 -0.0131188 0.159574 118 167 92
-0.287066 -0.0118166 0.158091 107 152 84
-0.287635 -0.0106573 0.15767 89 136 74
-0.288207 -0.00949162 0.157247 88 133 69
-0.300941 -0.00329615 0.147818 122 174 96
-0.300643 -0.00217193 0.14804 126 176 100
-0.300582 -0.00101489 0.148086 126 172 109
-0.300995 0.000215939 0.147781 144 174 134
-0.300934 0.00137424 0.147827 166 180 159
-0.27266 -0.034757 0.167484 110 138 103
-0.272069 -0.033739 0.167927 108 135 100
-0.271128 -0.0327302 0.168631 104 134 98
-0.269845 -0.0317361 0.169591 101 132 91
-0.269618 -0.0307354 0.169762 92 121 81
-0.269565 -0.0297328 0.169802 86 121 66
-0.269512 -0.0287308 0.169843 94 138 73
-0.269807 -0.0277171 0.169622 109 157 82
-0.269929 -0.0267072 0.169532 118 168 88
-0.269876 -0.025704 0.169573 127 179 95
-0.269649 -0.0247103 0.169744 135 195 102
-0.271179 -0.02362 0.168601 131 196 101
-0.283624 -0.0186057 0.159303 116 186 93
-0.283366 -0.0175485 0.159496 118 189 92
-0.283511 -0.0164586 0.159389 119 184 89
-0.283858 -0.0153482 0.159131 118 177 89
-0.284613 -0.0141938 0.158568 119 170 91
-0.285991 -0.0129664 0.157539 113 165 93
-0.287389 -0.0117223 0.156495 110 157 86
-0.287331 -0.0106302 0.156539 95 147 79
-0.287904 -0.00946315 0.156112 94 146 74
-0.300098 -0.00216812 0.147003 122 169 104
-0.300037 -0.001011 0.14705 137 174 128
-0.30045 0.000219915 0.146743 158 181 154
-0.271595 -0.0337376 0.167023 115 140 106
-0.271009 -0.0327257 0.167465 110 138 103
-0.270602 -0.0317176 0.167773 107 135 98
-0.270373 -0.0307103 0.167947 103 130 91
-0.270319 -0.0297012 0.167987 90 121 77
-0.270266 -0.0286926 0.168028 87 125 70
-0.270389 -0.0276783 0.167937 103 146 76
-0.270689 -0.0266556 0.167711 115 164 85
-0.270636 -0.0256458 0.167752 119 173 91
-0.270759 -0.0246275 0.16766 130 187 95
-0.28292 -0.0186187 0.158495 138 211 110
-0.282863 -0.0175459 0.158539 141 207 104
-0.283008 -0.0164559 0.158431 131 193 96
-0.28396 -0.0152885 0.157714 122 177 92
-0.285333 -0.0140695 0.15668 122 169 92
-0.286309 -0.0128771 0.155945 110 165 91
-0.287085 -0.0116963 0.155361 114 164 90
-0.287028 -0.010603 0.155405 100 151 80
-0.287389 -0.00945992 0.155133 98 152 78
-0.299318 -0.00219892 0.146144 135 171 119
-0.299258 -0.00104297 0.146191 156 180 150
-0.299668 0.000186649 0.145883 168 183 167
-0.270889 -0.0327212 0.166295 122 143 117
-0.270659 -0.0317086 0.166471 116 139 107
-0.270252 -0.0307019 0.166781 111 134 101
-0.270199 -0.0296908 0.166822 102 127 91
-0.270146 -0.0286803 0.166863 88 121 76
-0.270446 -0.0276578 0.166636 92 133 72
-0.270924 -0.0266249 0.166273 108 154 79
-0.270871 -0.0256113 0.166314 115 166 86
-0.272068 -0.0245341 0.165404 122 176 91
-0.282217 -0.0186317 0.15769 166 230 119
-0.282161 -0.0175599 0.157733 164 226 119
-0.282504 -0.0164531 0.157473 139 197 102
-0.284267 -0.0152094 0.156133 123 174 93
-0.285441 -0.0140053 0.155241 125 171 93
-0.286212 -0.0128307 0.154655 99 146 82
-0.286572 -0.0116932 0.154383 96 139 75
-0.286514 -0.0105999 0.154427 95 145 74
-0.286666 -0.00948196 0.154313 100 153 77
-0.298601 -0.00338504 0.14524 130 169 114
-0.29854 -0.00222964 0.145287 153 175 142
-0.298479 -0.00107485 0.145334 167 180 162
-0.270361 -0.0317046 0.165433 136 152 126
-0.270308 -0.0306901 0.165475 121 142 118
-0.270255 -0.0296761 0.165516 111 138 104
-0.270379 -0.0286573 0.165422 96 128 87
-0.27068 -0.027631 0.165192 90 124 71
-0.271161 -0.0265941 0.164824 98 140 74
-0.271644 -0.0255518 0.164454 111 157 84
-0.281317 -0.0186602 0.157038 169 235 122
-0.28126 -0.0175904 0.157081 158 221 121
-0.282001 -0.0164504 0.156514 135 189 101
-0.284371 -0.0151489 0.154696 121 170 92
-0.285136 -0.0139819 0.154111 126 172 94
-0.2857 -0.0128277 0.153679 91 130 72
-0.28585 -0.0117131 0.153565 78 124 62
-0.286001 -0.0105968 0.15345 87 142 70
-0.285943 -0.00950392 0.153495 100 155 77
-0.298352 -0.00450534 0.143978 122 168 109
-0.297358 -0.00348078 0.144741 145 173 137
-0.29753 -0.0022947 0.14461 166 179 161
-0.270187 -0.0306816 0.164299 144 161 144
-0.270134 -0.0296656 0.16434 127 146 116
-0.270258 -0.0286449 0.164245 116 139 101
-0.270738 -0.0276102 0.163875 106 127 83
-0.279886 -0.0198 0.1568 142 205 107
-0.280223 -0.018704 0.15654 149 211 111
-0.280364 -0.0176209 0.156432 139 197 106
-0.281497 -0.0164477 0.155556 127 176 95
-0.284066 -0.0151268 0.153568 120 169 92
-0.284625 -0.013979 0.153137 121 171 94
-0.28498 -0.0128465 0.152863 90 128 67
-0.28513 -0.0117329 0.152748 74 127 61
-0.285487 -0.0105936 0.152472 84 144 71
-0.28543 -0.00950071 0.152517 100 156 77
-0.296184 -0.00472469 0.144198 137 170 122
-0.295894 -0.00360874 0.144423 160 177 154
-0.270013 -0.0296552 0.16316 132 154 130
-0.270137 -0.0286325 0.163064 118 137 102
-0.278579 -0.0230522 0.156477 112 158 84
-0.278524 -0.0219905 0.156521 118 167 88
-0.278469 -0.0209293 0.156565 125 175 94
-0.278801 -0.0198403 0.156306 128 180 96
-0.279331 -0.0187323 0.155894 130 182 97
-0.279667 -0.0176347 0.155632 126 177 94
-0.281392 -0.0164094 0.154286 122 171 92
-0.28376 -0.0151046 0.152438 119 168 93
-0.284113 -0.0139761 0.152163 115 168 93
-0.284262 -0.0128652 0.152048 88 129 66
-0.284411 -0.0117527 0.151933 76 131 63
-0.284767 -0.0106145 0.151656 86 145 73
-0.284916 -0.0094975 0.15154 100 155 78
-0.291045 -0.00761969 0.146756 113 164 88
-0.293656 -0.00614148 0.144719 122 167 106
-0.293597 -0.00500295 0.144766 147 172 138
-0.294215 -0.00376806 0.144285 166 177 160
-0.269537 -0.0296534 0.162254 141 166 145
-0.279696 -0.0240316 0.154258 89 126 66
-0.278082 -0.02305 0.15553 99 142 75
-0.278027 -0.0219882 0.155574 109 155 83
-0.278165 -0.0209138 0.155466 117 162 88
-0.278497 -0.0198236 0.155205 119 168 91
-0.278636 -0.0187451 0.155096 121 171 92
-0.279952 -0.0175659 0.154061 121 170 92
-0.282494 -0.0162628 0.15206 120 170 92
-0.283454 -0.0150824 0.151305 119 168 93
-0.283602 -0.0139732 0.15119 110 164 94
-0.28375 -0.0128622 0.151074 86 133 68
-0.283899 -0.0117496 0.150958 79 137 66
-0.284047 -0.0106354 0.150841 89 146 72
-0.284197 -0.00951943 0.150725 101 155 79
-0.288993 -0.00781022 0.146949 112 164 92
-0.290457 -0.00649136 0.145796 133 167 117
-0.291722 -0.00518435 0.144802 157 173 152
-0.293002 -0.00386137 0.143795 169 177 165
-0.28143 -0.0249994 0.151526 80 116 68
-0.280377 -0.023968 0.152363 80 116 63
-0.278748 -0.022981 0.153658 83 123 68
-0.278109 -0.0219495 0.154166 93 134 74
-0.278054 -0.020885 0.154211 101 144 81
-0.278193 -0.0198069 0.154101 107 153 84
-0.279506 -0.0186345 0.153059 113 160 87
-0.28184 -0.0173617 0.151207 117 164 89
-0.282592 -0.0162056 0.150609 116 166 91
-0.282943 -0.0150796 0.150332 119 169 92
-0.28309 -0.0139702 0.150216 106 163 95
-0.283034 -0.0128809 0.150261 86 137 72
-0.283181 -0.0117694 0.150145 81 139 67
-0.283535 -0.0106322 0.149865 92 148 73
-0.283683 -0.00951621 0.149748 102 155 81
-0.288468 -0.00780685 0.145949 112 164 100
-0.28971 -0.00651695 0.144963 142 172 133
-0.290528 -0.00527242 0.144314 168 179 159
-0.282793 -0.0260062 0.149061 77 114 67
-0.282128 -0.0249409 0.149594 78 114 65
-0.280667 -0.0239244 0.150766 77 114 67
-0.279817 -0.0228885 0.151448 77 116 67
-0.279366 -0.0218366 0.151809 81 120 69
-0.279311 -0.0207626 0.151855 85 124 72
-0.279649 -0.0196601 0.151584 91 129 72
-0.281588 -0.0184271 0.150032 97 137 76
-0.281936 -0.0173078 0.149754 103 146 80
-0.282285 -0.0161845 0.149475 110 159 88
-0.282635 -0.0150573 0.149196 119 167 92
-0.282579 -0.0139673 0.149242 102 160 95
-0.282522 -0.0128779 0.149288 84 138 72
-0.28267 -0.0117663 0.14917 83 139 68
-0.283227 -0.0106051 0.148725 93 149 75
-0.28317 -0.009513 0.148771 103 157 83
-0.288157 -0.00777594 0.144777 117 164 106
-0.289182 -0.00651347 0.143957 148 178 149
-0.289778 -0.00529927 0.14348 173 184 168
-0.283006 -0.0281746 0.147499 113 113 77
-0.282745 -0.0270837 0.14771 75 111 64
-0.282281 -0.0260041 0.148086 74 110 63
-0.282022 -0.0249199 0.148296 75 109 63
-0.281562 -0.023849 0.148669 75 110 67
-0.281304 -0.0227713 0.148878 76 112 68
-0.281047 -0.0216964 0.149086 77 113 69
-0.280991 -0.0206106 0.149132 79 113 68
-0.281538 -0.0194806 0.148691 83 113 67
-0.281684 -0.0183765 0.148574 82 116 67
-0.281628 -0.017288 0.14862 88 126 71
-0.281976 -0.0161635 0.148339 102 148 82
-0.282123 -0.0150545 0.148221 117 165 91
-0.282067 -0.0139644 0.148267 98 155 90
-0.282011 -0.0128749 0.148314 81 139 71
-0.282158 -0.0117633 0.148196 82 142 71
-0.282713 -0.0106019 0.147747 93 150 76
-0.283067 -0.00945939 0.147462 103 159 85
-0.288062 -0.0077173 0.143428 127 167 109
-0.288653 -0.00651001 0.142951 157 180 152
-0.282957 -0.0292612 0.14614 182 186 157
-0.282491 -0.0281727 0.14652 114 116 81
-0.282435 -0.0270744 0.146567 74 109 61
-0.282175 -0.0259852 0.14678 71 108 60
-0.282118 -0.0248892 0.146827 71 107 62
-0.282062 -0.0237938 0.146873 71 105 63
-0.281803 -0.0227107 0.147085 73 106 63
-0.281544 -0.0216304 0.147297 74 109 66
-0.281487 -0.020539 0.147344 77 107 68
-0.281431 -0.0194481 0.14739 80 109 69
-0.281577 -0.0183417 0.147272 77 110 66
-0.281521 -0.0172509 0.147318 81 116 67
-0.281667 -0.0161424 0.1472 96 138 76
-0.281611 -0.0150517 0.147246 115 163 89
-0.281555 -0.0139615 0.147293 96 150 83
-0.281702 -0.0128503 0.147174 80 138 71
-0.281849 -0.0117374 0.147055 84 143 72
-0.2822 -0.0105988 0.14677 94 152 77
-0.283376 -0.00935476 0.145813 105 160 87
-0.28775 -0.00768621 0.142249 139 171 114
-0.288125 -0.00650653 0.141945 166 184 157
-0.282646 -0.0292542 0.144991 186 187 159
-0.282385 -0.0281582 0.145207 118 121 90
-0.282532 -0.0270503 0.145086 74 109 61
-0.282476 -0.0259492 0.145133 71 107 59
-0.282419 -0.0248487 0.14518 70 106 60
-0.282159 -0.0237595 0.145395 69 104 58
-0.281898 -0.0226731 0.14561 70 105 58
-0.281842 -0.0215766 0.145657 72 106 61
-0.281583 -0.0204947 0.145871 74 103 64
-0.281324 -0.0194155 0.146084 75 107 66
-0.281268 -0.018323 0.146131 76 110 65
-0.281211 -0.017231 0.146178 80 116 67
-0.281155 -0.0161396 0.146225 92 137 74
-0.281302 -0.0150294 0.146105 115 161 88
-0.281246 -0.013938 0.146152 96 145 78
-0.281392 -0.0128256 0.146032 80 137 70
-0.281743 -0.0116885 0.145745 84 143 73
-0.282094 -0.0105475 0.145457 97 152 79
-0.283687 -0.00924926 0.144149 106 159 91
-0.287438 -0.00765504 0.141067 146 173 121
-0.287596 -0.00650306 0.140938 174 184 159
-0.282539 -0.029242 0.14367 184 185 160
-0.282482 -0.0281374 0.143718 117 122 95
-0.282425 -0.0270334 0.143765 76 109 61
-0.282574 -0.0259215 0.143643 72 106 60
-0.282517 -0.0248176 0.143691 69 104 59
-0.282461 -0.0237143 0.143739 67 104 57
-0.282199 -0.0226234 0.143956 68 105 57
-0.281939 -0.0215354 0.144173 70 103 59
-0.281882 -0.0204361 0.14422 70 104 62
-0.281419 -0.0193677 0.144605 72 106 61
-0.28116 -0.018288 0.14482 77 113 64
-0.280901 -0.0172111 0.145035 83 121 68
-0.281047 -0.0161001 0.144915 94 138 74
-0.281194 -0.0149874 0.144794 116 162 86
-0.281138 -0.0138938 0.144841 97 145 77
-0.281285 -0.012779 0.14472 82 137 70
-0.28225 -0.0115702 0.143921 86 144 75
-0.282399 -0.0104473 0.143798 98 153 80
-0.283791 -0.00916876 0.142645 108 160 95
-0.28691 -0.00765165 0.140062 148 175 132
-0.287067 -0.00649959 0.139932 175 183 162
-0.282637 -0.0292245 0.142172 180 185 160
-0.28258 -0.0281165 0.14222 114 125 98
-0.282523 -0.0270091 0.142268 75 110 63
-0.282672 -0.0258936 0.142144 71 107 59
-0.282616 -0.0247863 0.142192 69 107 58
-0.282354 -0.0236904 0.142412 67 105 57
-0.282297 -0.0225853 0.14246 67 105 56
-0.282036 -0.0214939 0.142679 69 105 57
-0.281775 -0.0204053 0.142898 68 106 60
-0.281718 -0.0193043 0.142946 72 110 60
-0.281051 -0.0182528 0.143504 81 120 66
-0.280995 -0.0171563 0.143552 86 130 70
-0.280939 -0.0160604 0.143599 98 143 75
-0.281289 -0.0149257 0.143307 117 163 87
-0.281641 -0.0137869 0.143014 97 143 75
-0.28179 -0.0126663 0.14289 83 137 69
-0.282349 -0.0114973 0.142423 86 146 74
-0.282705 -0.0103464 0.142126 97 153 81
-0.283688 -0.00911373 0.141306 109 161 100
-0.286381 -0.00764827 0.139056 147 176 142
-0.282323 -0.0292174 0.141011 180 187 161
-0.282267 -0.0281082 0.14106 113 128 101
-0.282416 -0.0269921 0.140935 74 112 65
-0.282565 -0.0258743 0.14081 71 107 60
-0.282508 -0.0247646 0.140858 71 108 58
-0.282452 -0.0236555 0.140906 69 107 56
-0.282395 -0.022547 0.140955 67 105 57
-0.282339 -0.021439 0.141003 68 106 58
-0.282077 -0.020346 0.141225 69 110 60
-0.281815 -0.0192557 0.141446 77 117 64
-0.28135 -0.0181848 0.141839 84 127 68
-0.281293 -0.0170837 0.141887 88 136 70
-0.281441 -0.0159645 0.141763 101 147 76
-0.281795 -0.0148238 0.141466 115 162 88
-0.281944 -0.0137001 0.141341 96 141 74
-0.281887 -0.0125969 0.141389 85 138 68
-0.282037 -0.0114709 0.141264 89 146 73
-0.2826 -0.010294 0.14079 100 153 80
-0.283583 -0.00905848 0.139962 112 162 102
-0.285853 -0.00764487 0.13805 147 179 149
-0.281804 -0.0292155 0.140023 183 190 162
-0.281953 -0.0280999 0.139897 115 131 104
-0.282102 -0.0269825 0.139771 78 113 66
-0.282251 -0.0258635 0.139645 72 108 63
-0.282194 -0.0247526 0.139693 73 108 59
-0.282138 -0.0236423 0.139742 70 109 57
-0.282081 -0.0225326 0.139791 70 106 57
-0.282025 -0.0214234 0.13984 70 109 58
-0.281763 -0.0203292 0.140063 76 116 61
-0.281502 -0.0192378 0.140286 82 124 68
-0.281241 -0.0181492 0.140508 87 129 70
-0.281184 -0.0170458 0.140557 92 138 70
-0.281333 -0.0159243 0.140431 101 150 78
-0.281482 -0.014801 0.140305 109 159 87
-0.281631 -0.013676 0.140179 95 140 72
-0.281574 -0.0125716 0.140228 85 139 68
-0.28193 -0.011421 0.139927 91 148 72
-0.282493 -0.0102414 0.139448 100 156 82
-0.28327 -0.00902912 0.138789 114 164 104
-0.285324 -0.00764148 0.137044 144 179 149
-0.281489 -0.0292084 0.138858 182 186 162
-0.281638 -0.0280915 0.138732 114 134 108
-0.281993 -0.0269654 0.138428 79 115 66
-0.282142 -0.025844 0.138301 73 110 63
-0.282086 -0.0247307 0.13835 72 109 63
-0.282029 -0.0236181 0.138399 71 109 60
-0.281973 -0.022506 0.138448 70 109 60
-0.281916 -0.0213945 0.138497 73 115 61
-0.281654 -0.020298 0.138722 82 122 65
-0.281187 -0.0192198 0.139123 86 129 69
-0.280927 -0.01813 0.139347 87 131 70
-0.280871 -0.0170255 0.139396 92 140 72
-0.281019 -0.0159027 0.139269 102 153 79
-0.281168 -0.0147781 0.139143 106 160 87
-0.281317 -0.0136519 0.139016 92 141 72
-0.281466 -0.012524 0.138888 85 138 68
-0.281616 -0.0113943 0.138761 90 148 74
-0.282179 -0.0102134 0.138278 102 156 83
-0.282955 -0.00899971 0.137614 122 165 104
-0.284796 -0.00763809 0.136037 151 179 149
-0.281379 -0.029196 0.137515 182 185 161
-0.281528 -0.0280768 0.137386 113 137 113
-0.281677 -0.0269558 0.137258 79 117 69
-0.281827 -0.0258332 0.137129 73 113 64
-0.28177 -0.0247187 0.137179 73 111 62
-0.281714 -0.0236048 0.137228 73 112 62
-0.281658 -0.0224915 0.137278 75 114 64
-0.281395 -0.0213921 0.137505 79 121 64
-0.281339 -0.0202811 0.137554 84 126 67
-0.280873 -0.0192018 0.137958 87 129 70
-0.280612 -0.0181109 0.138184 87 133 72
-0.280556 -0.0170051 0.138233 93 142 73
-0.280704 -0.015881 0.138105 104 152 80
-0.280853 -0.0147553 0.137977 101 158 92
-0.281002 -0.0136278 0.137849 87 143 76
-0.280946 -0.012521 0.137898 83 140 71
-0.281301 -0.0113677 0.137592 92 148 75
-0.281864 -0.0101854 0.137106 104 156 83
-0.282849 -0.00894399 0.136256 131 165 105
-0.28448 -0.00760684 0.134847 160 178 148
-0.281063 -0.0291889 0.136344 182 183 162
-0.281212 -0.0280684 0.136215 113 140 116
-0.281361 -0.0269462 0.136085 80 116 71
-0.281511 -0.0258223 0.135956 75 115 62
-0.281454 -0.0247066 0.136005 75 113 62
-0.281398 -0.0235915 0.136055 78 116 60
-0.281136 -0.0224892 0.136284 81 122 64
-0.281079 -0.0213764 0.136334 84 128 67
-0.280818 -0.0202786 0.136562 86 130 70
-0.280353 -0.0191992 0.136968 88 130 72
-0.280297 -0.0180916 0.137017 90 133 70
-0.280241 -0.0169846 0.137067 95 142 72
-0.280185 -0.0158782 0.137116 106 154 81
-0.280538 -0.0147323 0.136809 100 157 93
-0.280482 -0.0136248 0.136859 85 143 78
-0.280631 -0.0124956 0.13673 83 141 71
-0.280985 -0.011341 0.136421 95 150 75
-0.281756 -0.0101324 0.13575 105 157 86
-0.282952 -0.00886162 0.134709 136 168 112
-0.28395 -0.00760345 0.13384 166 183 152
-0.280951 -0.0291764 0.134991 184 186 163
-0.280895 -0.02806 0.135041 116 144 121
-0.281044 -0.0269365 0.13491 84 118 69
-0.281193 -0.0258114 0.134779 77 117 64
-0.281137 -0.0246945 0.134829 78 119 65
-0.280875 -0.0235892 0.13506 80 123 65
-0.280819 -0.0224746 0.13511 84 127 69
-0.280558 -0.0213739 0.13534 85 129 68
-0.280502 -0.0202617 0.13539 87 129 69
-0.279833 -0.0191966 0.135978 89 129 70
-0.279777 -0.018089 0.136028 90 135 70
-0.279721 -0.0169819 0.136078 97 143 73
-0.279869 -0.0158565 0.135948 110 153 80
-0.280017 -0.0147294 0.135819 99 153 88
-0.280166 -0.0136006 0.135689 84 140 76
-0.28011 -0.0124925 0.135738 84 141 70
-0.280669 -0.0113142 0.135248 95 149 76
-0.281647 -0.0100791 0.134389 106 157 88
-0.283055 -0.00877872 0.133153 138 170 116
-0.283845 -0.00754413 0.132459 170 180 152
-0.280633 -0.0291692 0.133813 181 188 166
-0.280577 -0.0280516 0.133864 117 147 127
-0.280726 -0.0269269 0.133732 83 122 74
-0.280876 -0.0258005 0.1336 78 124 65
-0.280614 -0.0246923 0.133833 83 125 67
-0.280558 -0.0235759 0.133883 85 126 68
-0.280296 -0.0224723 0.134115 87 128 70
-0.280036 -0.0213715 0.134347 85 128 69
-0.27998 -0.0202592 0.134397 84 130 69
-0.279516 -0.0191786 0.134808 86 129 68
-0.279257 -0.0180863 0.135038 90 132 68
-0.279405 -0.0169614 0.134908 97 142 73
-0.279349 -0.0158537 0.134958 111 158 82
-0.279701 -0.0147065 0.134647 98 153 84
-0.279645 -0.0135977 0.134697 83 141 72
-0.279589 -0.0124895 0.134747 86 142 70
-0.280558 -0.0112636 0.133889 95 148 78
-0.281537 -0.0100257 0.133022 106 157 92
-0.283371 -0.00866851 0.131398 140 170 123
-0.283952 -0.00745643 0.130884 172 180 156
-0.28052 -0.0291566 0.13245 180 186 164
-0.280464 -0.0280366 0.132501 120 149 127
-0.280408 -0.0269172 0.132552 87 125 76
-0.280352 -0.0257984 0.132603 83 126 69
-0.280296 -0.0246802 0.132653 85 128 67
-0.280034 -0.0235736 0.132887 86 129 70
-0.279774 -0.0224699 0.13312 86 130 72
-0.279718 -0.0213558 0.133171 87 129 72
-0.279458 -0.0202567 0.133403 87 131 69
-0.278996 -0.019176 0.133817 86 130 69
-0.278737 -0.0180837 0.134048 90 132 68
-0.278884 -0.0169587 0.133918 98 144 73
-0.279032 -0.015832 0.133786 113 160 83
-0.27918 -0.0147036 0.133655 96 149 81
-0.279124 -0.0135947 0.133705 80 139 73
-0.279272 -0.012464 0.133574 85 143 73
-0.280241 -0.0112367 0.132709 96 150 80
-0.281427 -0.00997196 0.131649 106 158 97
-0.283476 -0.00858441 0.12982 140 174 132
-0.28406 -0.00736816 0.129299 175 186 163
-0.280819 -0.0291333 0.13071 176 182 160
-0.280556 -0.0280151 0.130947 118 150 129
-0.280294 -0.0268998 0.131184 90 128 76
-0.280238 -0.0257786 0.131235 87 128 71
-0.279977 -0.024668 0.131471 87 130 70
-0.279716 -0.0235603 0.131706 87 130 70
-0.279251 -0.0224676 0.132125 85 131 70
-0.279195 -0.0213533 0.132176 86 131 71
-0.278936 -0.0202542 0.13241 86 132 69
-0.278475 -0.0191734 0.132826 85 131 68
-0.278419 -0.0180644 0.132876 89 135 68
-0.278364 -0.016956 0.132927 99 145 74
-0.278511 -0.0158292 0.132795 114 160 84
-0.278658 -0.0147007 0.132663 97 147 79
-0.278806 -0.0135705 0.13253 80 138 71
-0.278954 -0.0124385 0.132398 85 143 74
-0.280128 -0.0111858 0.131341 98 151 81
-0.281317 -0.00991804 0.130271 108 160 99
-0.283582 -0.00849978 0.128231 140 175 137
-0.280913 -0.0291152 0.129144 174 179 160
-0.280856 -0.0279869 0.129195 118 153 129
-0.28018 -0.0268824 0.12981 92 130 78
-0.279713 -0.0257765 0.130235 91 132 72
-0.279657 -0.0246558 0.130286 88 132 70
-0.279192 -0.023558 0.130709 88 131 71
-0.278728 -0.0224652 0.13113 86 130 72
-0.278673 -0.0213509 0.131181 86 130 71
-0.278414 -0.0202517 0.131416 85 130 69
-0.278156 -0.0191553 0.131651 86 131 68
-0.277899 -0.0180617 0.131885 90 136 69
-0.278046 -0.0169354 0.131753 99 146 75
-0.278192 -0.0158074 0.13162 112 160 85
-0.27834 -0.0146776 0.131486 98 144 77
-0.278284 -0.0135675 0.131537 82 136 69
-0.278635 -0.0124129 0.131219 86 144 73
-0.280015 -0.0111347 0.129967 98 152 81
-0.280997 -0.00988938 0.129076 111 161 100
-0.283261 -0.00846921 0.12702 140 174 139
-0.280799 -0.0291024 0.127758 172 180 164
-0.280535 -0.0279783 0.128 122 157 135
-0.280272 -0.0268571 0.128241 93 135 79
-0.279597 -0.0257566 0.128859 90 134 72
