ply
format ascii 1.0
element vertex 1183
property float x
property float y
property float z
property uchar diffuse_red
property uchar diffuse_green
property uchar diffuse_blue
end_header
-0.332041 0.00041322 0.180417 135 201 100
-0.330003 0.00133972 0.181478 143 210 104
-0.329377 0.00245543 0.181805 157 223 115
-0.338868 -0.0110973 0.175438 136 195 99
-0.338498 -0.00987867 0.175634 133 192 98
-0.338129 -0.00866348 0.17583 128 187 97
-0.337761 -0.00745176 0.176025 106 161 82
-0.336803 -0.0063081 0.17653 87 138 71
-0.334977 -0.00527287 0.17749 82 137 66
-0.334038 -0.00414965 0.177985 85 143 69
-0.333106 -0.00303472 0.178476 93 153 75
-0.33218 -0.00192799 0.178964 102 164 81
-0.331543 -0.000791591 0.1793 114 176 86
-0.329788 0.000183678 0.180223 125 188 95
-0.328885 0.00126413 0.180699 129 192 99
-0.328539 0.00241857 0.180882 135 198 102
-0.328471 0.00361206 0.18092 142 202 104
-0.338356 -0.0123417 0.174287 132 192 99
-0.338284 -0.011094 0.174326 134 193 98
-0.337915 -0.00987528 0.174524 133 190 99
-0.337547 -0.00866001 0.174721 126 185 95
-0.337179 -0.00744819 0.174918 93 148 78
-0.336223 -0.00630446 0.175427 84 136 70
-0.334402 -0.00526919 0.176395 83 133 66
-0.333465 -0.0041459 0.176894 78 135 63
-0.332821 -0.00299534 0.177237 77 137 66
-0.331895 -0.0018874 0.17773 80 144 69
-0.330976 -0.000787613 0.178219 86 151 73
-0.329503 0.000226431 0.179002 98 159 81
-0.3286 0.00130803 0.179483 109 170 90
-0.327978 0.00242272 0.179815 120 180 93
-0.327635 0.00357402 0.179999 129 189 98
-0.327566 0.00476564 0.180037 133 194 103
-0.327498 0.00595663 0.180074 137 199 103
-0.32743 0.00714699 0.180112 145 207 106
-0.327362 0.00833671 0.18015 155 223 119
-0.327845 0.00962376 0.179895 164 245 140
-0.339485 -0.0159796 0.172251 160 165 147
-0.338811 -0.0147682 0.172614 140 147 113
-0.338141 -0.0135629 0.172975 121 156 95
-0.337772 -0.0123385 0.173175 128 183 93
-0.337701 -0.0110907 0.173215 132 192 97
-0.337035 -0.00990013 0.173573 137 195 99
-0.336669 -0.00868615 0.173771 130 190 95
-0.336303 -0.00747564 0.173969 109 165 82
-0.334767 -0.00639723 0.174794 103 170 89
-0.333826 -0.00526549 0.1753 105 164 83
-0.332892 -0.00414213 0.175803 99 157 77
-0.332249 -0.00299151 0.176149 91 146 72
-0.33161 -0.00184674 0.176493 82 138 71
-0.330408 -0.000783637 0.177139 74 141 69
-0.328939 0.000230448 0.177928 78 144 68
-0.328038 0.00131213 0.178413 85 147 71
-0.327418 0.0024269 0.178747 94 156 76
-0.327075 0.00357826 0.178933 103 164 83
-0.327006 0.00476996 0.178971 115 174 92
-0.326938 0.00596103 0.179009 123 184 97
-0.32687 0.00715148 0.179047 130 193 99
-0.326802 0.00834128 0.179085 136 198 101
-0.326734 0.00953047 0.179123 142 202 103
-0.326941 0.0107693 0.179014 152 214 112
-0.326873 0.0119585 0.179052 163 238 133
-0.326805 0.0131471 0.17909 179 252 152
-0.326737 0.0143351 0.179128 195 243 152
-0.326669 0.0155225 0.179166 193 221 155
-0.326327 0.0166524 0.179351 176 193 160
-0.32626 0.0178371 0.179389 168 177 160
-0.326192 0.0190213 0.179427 170 179 163
-0.326124 0.0202049 0.179465 171 180 163
-0.338296 -0.0160193 0.171457 159 164 145
-0.337926 -0.0147878 0.171659 139 152 125
-0.337556 -0.0135598 0.171861 114 149 100
-0.337188 -0.0123353 0.172063 125 176 91
-0.33682 -0.0111143 0.172263 131 190 96
-0.336158 -0.00992495 0.172624 135 196 102
-0.335792 -0.00871226 0.172823 143 206 108
-0.335135 -0.00753386 0.173181 132 200 101
-0.33419 -0.0063936 0.173695 124 189 94
-0.332963 -0.00529496 0.174361 115 180 90
-0.332033 -0.0041727 0.174866 109 174 85
-0.331678 -0.00298767 0.17506 107 173 87
-0.330756 -0.00187961 0.175561 102 164 84
-0.329841 -0.000779665 0.176059 96 153 76
-0.328375 0.000234496 0.176854 87 143 72
-0.327476 0.00131623 0.177343 78 135 69
-0.327132 0.00247214 0.177531 77 139 67
-0.326515 0.00358253 0.177867 82 142 68
-0.326447 0.00477431 0.177905 90 149 73
-0.326379 0.00596546 0.177943 100 160 82
-0.326311 0.00715596 0.177982 111 171 90
-0.326243 0.00834586 0.17802 121 179 95
-0.326175 0.00953511 0.178058 128 185 99
-0.326107 0.0107238 0.178097 132 192 100
-0.326313 0.0119633 0.177987 137 197 103
-0.326245 0.013152 0.178025 147 204 108
-0.326178 0.0143401 0.178063 160 224 123
-0.325837 0.015472 0.17825 170 246 142
-0.325769 0.0166575 0.178288 187 252 151
-0.325701 0.0178424 0.178326 196 238 154
-0.325634 0.0190266 0.178364 183 208 160
-0.325294 0.0201495 0.17855 171 186 164
-0.325226 0.0213312 0.178588 170 181 166
-0.325159 0.0225123 0.178626 172 178 162
-0.337411 -0.0160376 0.170503 157 167 153
-0.337042 -0.0148074 0.170707 148 159 143
-0.336674 -0.0135807 0.17091 119 144 110
-0.336307 -0.0123575 0.171112 118 160 84
-0.335941 -0.0111378 0.171314 124 184 96
-0.335282 -0.0099497 0.171677 131 195 98
-0.334626 -0.00876773 0.172037 146 214 107
-0.333393 -0.00765306 0.172714 174 231 121
-0.333034 -0.00645389 0.172912 160 224 114
-0.331815 -0.0053574 0.17358 137 203 106
-0.331175 -0.00420321 0.173932 126 191 97
-0.330538 -0.00305488 0.174282 118 181 92
-0.329904 -0.00191238 0.174631 111 177 90
-0.328435 -0.00088887 0.175437 108 174 88
-0.327257 0.00016114 0.176083 105 167 87
-0.326638 0.00128053 0.176423 98 158 84
-0.32657 0.0024763 0.176462 92 146 74
-0.325954 0.00358677 0.1768 84 138 68
-0.325887 0.00477862 0.176839 78 136 65
-0.325819 0.00596986 0.176878 80 141 65
-0.326024 0.00720674 0.176767 86 145 69
-0.325957 0.00839802 0.176805 95 152 75
-0.325616 0.00953977 0.176994 105 164 85
-0.325548 0.0107285 0.177032 118 176 93
-0.325753 0.0119681 0.176921 126 186 98
-0.325686 0.0131569 0.17696 128 190 99
-0.325345 0.0142908 0.177148 133 193 101
-0.325278 0.015477 0.177186 140 203 106
-0.32521 0.0166626 0.177225 150 218 116
-0.324871 0.0177895 0.177412 162 239 133
-0.324803 0.0189725 0.177451 180 254 150
-0.324736 0.0201549 0.177489 197 246 156
-0.324669 0.0213366 0.177527 191 218 159
-0.324602 0.0225178 0.177566 177 191 163
-0.324535 0.0236983 0.177604 171 180 162
-0.324467 0.0248782 0.177642 172 180 161
-0.3244 0.0260575 0.177681 171 178 163
-0.336161 -0.014827 0.169756 157 166 150
-0.3355 -0.0136255 0.170123 141 152 128
-0.335429 -0.0123797 0.170164 113 146 90
-0.334771 -0.011188 0.170529 120 175 91
-0.334116 -0.0100024 0.170893 129 188 94
-0.333755 -0.00879364 0.171094 136 199 100
-0.332816 -0.00764953 0.171615 152 223 117
-0.33217 -0.00648213 0.171974 167 247 137
-0.330957 -0.00538667 0.172646 178 251 130
-0.330603 -0.00419946 0.172843 168 235 122
-0.329685 -0.00308647 0.173352 145 214 111
-0.329054 -0.00194511 0.173703 133 196 98
-0.327314 -0.000959953 0.174666 121 185 93
-0.326419 0.000126589 0.175163 113 176 93
-0.326076 0.00128461 0.175354 108 172 91
-0.325735 0.00243943 0.175544 105 170 88
-0.325394 0.00359102 0.175734 102 164 85
-0.325326 0.00478296 0.175773 98 151 76
-0.325259 0.00597427 0.175812 89 141 70
-0.325464 0.00721122 0.1757 80 135 68
-0.325396 0.0084026 0.175739 79 137 66
-0.325056 0.0095444 0.175929 83 142 67
-0.324989 0.0107332 0.175967 92 149 71
-0.324921 0.0119214 0.176006 102 160 79
-0.324854 0.0131089 0.176045 111 172 87
-0.324786 0.0142958 0.176084 121 181 93
-0.324447 0.0154267 0.176273 127 187 97
-0.32438 0.016611 0.176312 131 193 100
-0.324313 0.0177947 0.17635 138 198 103
-0.324246 0.0189778 0.176389 147 207 109
-0.324179 0.0201603 0.176428 158 227 125
-0.324111 0.0213421 0.176466 172 248 149
-0.324044 0.0225233 0.176505 191 251 154
-0.323977 0.0237039 0.176544 201 235 154
-0.32391 0.0248839 0.176582 186 207 163
-0.323843 0.0260632 0.176621 172 179 162
-0.323777 0.027242 0.176659 168 178 161
-0.32371 0.0284201 0.176698 169 177 158
-0.334623 -0.0136463 0.169177 159 166 150
-0.33426 -0.0124271 0.169381 137 145 117
-0.333897 -0.0112113 0.169585 112 150 84
-0.333536 -0.00999903 0.169788 117 173 88
-0.333175 -0.00879018 0.169991 126 188 95
-0.332527 -0.00761541 0.170355 135 196 97
-0.331594 -0.00647851 0.170878 143 211 104
-0.330384 -0.005383 0.171555 151 228 117
-0.330031 -0.00419569 0.171754 164 244 133
-0.329397 -0.00304722 0.17211 177 250 133
-0.328486 -0.0019412 0.17262 175 242 125
-0.326749 -0.000955994 0.173591 156 225 114
-0.325856 0.000130616 0.174092 138 204 101
-0.325515 0.00128872 0.174284 128 191 94
-0.325174 0.00244359 0.174476 115 182 91
-0.324834 0.00359527 0.174667 109 175 87
-0.324766 0.00478729 0.174707 107 172 84
-0.324699 0.00597868 0.174746 103 166 86
-0.324631 0.00716943 0.174785 98 154 79
-0.324564 0.00835956 0.174824 91 143 70
-0.324496 0.00954905 0.174863 83 139 64
-0.324429 0.0107379 0.174903 79 138 64
-0.324362 0.0119262 0.174942 80 141 66
-0.324295 0.0131138 0.174981 86 145 68
-0.323956 0.0142467 0.175171 97 153 75
-0.323889 0.0154317 0.17521 106 164 84
-0.323822 0.0166161 0.175249 115 175 92
-0.323755 0.0177999 0.175288 125 184 95
-0.323688 0.0189831 0.175327 130 190 98
-0.323621 0.0201656 0.175366 133 193 102
-0.323554 0.0213475 0.175405 140 201 107
-0.323758 0.0225922 0.175293 153 215 116
-0.32342 0.0237095 0.175483 165 238 132
-0.323353 0.0248896 0.175522 178 250 150
-0.323286 0.026069 0.175561 199 235 153
-0.32322 0.0272478 0.1756 191 220 158
-0.323153 0.028426 0.175639 171 185 160
-0.322817 0.0295325 0.175828 166 178 161
-0.32275 0.0307081 0.175867 170 179 163
-0.333387 -0.0124491 0.168438 160 167 148
-0.333026 -0.0112346 0.168643 138 152 115
-0.332956 -0.00999565 0.168684 109 147 90
-0.332596 -0.00878671 0.168888 115 170 86
-0.332526 -0.00755046 0.168929 128 187 92
-0.331305 -0.00644305 0.16962 131 195 96
-0.330663 -0.00528022 0.169983 135 201 98
-0.329742 -0.00415766 0.170505 141 206 102
-0.32939 -0.00297232 0.170705 148 218 112
-0.328757 -0.00182717 0.171063 160 237 129
-0.326737 -0.000876985 0.172205 170 248 134
-0.325842 0.000211874 0.172711 176 246 126
-0.325226 0.00133264 0.17306 164 234 117
-0.324885 0.00248883 0.173254 144 214 107
-0.324545 0.00364183 0.173447 131 197 96
-0.324206 0.00479162 0.17364 120 185 90
-0.324139 0.00598309 0.17368 112 177 88
-0.324071 0.00717392 0.173719 108 171 85
-0.324004 0.00836413 0.173759 104 164 81
-0.323937 0.00955372 0.173798 98 157 76
-0.32387 0.0107427 0.173838 91 147 71
-0.323802 0.011931 0.173877 84 139 66
-0.323465 0.0130659 0.174069 79 136 63
-0.323398 0.0142516 0.174108 78 139 65
-0.323331 0.0154367 0.174148 82 143 70
-0.323264 0.0166212 0.174187 90 149 75
-0.323197 0.0178051 0.174226 100 159 81
-0.32313 0.0189884 0.174266 111 171 90
-0.323063 0.020171 0.174305 121 180 95
-0.323266 0.021415 0.174192 126 187 98
-0.323199 0.0225977 0.174231 131 193 100
-0.323133 0.0237798 0.17427 137 200 101
-0.322796 0.0248952 0.174462 146 207 108
-0.322729 0.0260747 0.174501 156 221 124
-0.322663 0.0272536 0.17454 168 249 149
-0.322596 0.0284319 0.174579 191 249 156
-0.322261 0.0295385 0.17477 198 229 152
-0.322194 0.0307142 0.174809 183 204 163
-0.322128 0.0318893 0.174848 172 185 162
-0.322061 0.0330638 0.174887 171 181 163
-0.332805 -0.0124459 0.167331 160 170 156
-0.332735 -0.0112047 0.167373 157 172 154
-0.332376 -0.00999226 0.167579 148 152 126
-0.332306 -0.00875387 0.167621 114 144 91
-0.331947 -0.00754693 0.167827 114 168 87
-0.331301 -0.00637549 0.168196 127 186 94
-0.330659 -0.00521006 0.168564 131 193 95
-0.330019 -0.0040506 0.16893 132 195 99
-0.329383 -0.00289707 0.169294 132 199 100
-0.328749 -0.00174942 0.169657 137 202 102
-0.327838 -0.000645796 0.170177 143 211 105
-0.326103 0.000332423 0.171168 152 227 118
-0.32521 0.00141667 0.171678 163 242 132
-0.324596 0.00253419 0.172029 174 246 129
-0.324256 0.00368849 0.172224 172 240 120
-0.323917 0.00483959 0.172419 152 224 110
-0.323849 0.00603247 0.172459 135 206 100
-0.323511 0.00717842 0.172653 123 192 95
-0.323444 0.0083687 0.172693 114 181 92
-0.323377 0.00955837 0.172733 107 175 87
-0.32304 0.0106972 0.172926 105 169 84
-0.322973 0.0118843 0.172966 103 159 81
-0.322906 0.0130708 0.173006 96 150 75
-0.322839 0.0142566 0.173045 88 141 68
-0.322772 0.0154418 0.173085 80 137 66
-0.322706 0.0166264 0.173125 77 137 67
-0.322639 0.0178103 0.173164 80 140 67
-0.322572 0.0189936 0.173204 87 143 70
-0.322505 0.0201763 0.173243 97 152 76
-0.322439 0.0213584 0.173283 106 165 84
-0.322641 0.0226032 0.173169 116 178 92
-0.322305 0.0237207 0.173362 125 186 97
-0.322239 0.0249009 0.173401 128 189 101
-0.322172 0.0260805 0.17344 134 196 105
-0.322106 0.0272595 0.17348 142 203 109
-0.321771 0.0283681 0.173672 154 216 118
-0.321705 0.0295445 0.173711 169 240 144
-0.321371 0.030648 0.173903 180 245 154
-0.321304 0.0318219 0.173942 194 237 154
-0.320971 0.0329205 0.174134 186 219 163
-0.320639 0.0340161 0.174324 176 192 164
-0.319778 0.0349552 0.174816 174 183 164
-0.319449 0.0360425 0.175005 174 181 164
-0.332154 -0.0112014 0.166266 165 174 161
-0.332084 -0.00996083 0.166308 162 174 157
-0.332015 -0.00872093 0.16635 142 153 131
-0.331367 -0.00754338 0.166724 113 145 84
-0.331298 -0.00630762 0.166765 121 175 88
-0.330941 -0.0051061 0.166972 128 187 95
-0.330585 -0.00390798 0.167179 130 192 99
-0.329944 -0.00274942 0.167549 131 197 100
-0.329023 -0.00163409 0.168081 130 195 97
-0.328108 -0.000527023 0.168609 132 196 96
-0.3272 0.000571897 0.169133 134 201 97
-0.326297 0.00166275 0.169654 141 205 102
-0.325126 0.00270398 0.170329 147 217 112
-0.324511 0.00382055 0.170685 156 239 127
-0.324171 0.00497546 0.170882 168 248 131
-0.323831 0.00612713 0.171079 172 245 125
-0.323492 0.00727562 0.171276 159 230 116
-0.322884 0.00837328 0.171627 141 212 110
-0.322548 0.00951417 0.171822 132 198 101
-0.322481 0.010702 0.171862 121 184 98
-0.322145 0.0118377 0.172057 112 175 93
-0.322079 0.013023 0.172097 107 171 89
-0.322012 0.0142075 0.172137 103 165 84
-0.321945 0.0153915 0.172176 97 154 77
-0.321879 0.0165748 0.172216 90 144 71
-0.322081 0.0178155 0.172102 83 136 68
-0.322014 0.0189989 0.172141 78 134 67
-0.321947 0.0201817 0.172181 79 136 66
-0.321881 0.0213639 0.172221 84 142 68
-0.321814 0.0225454 0.172261 91 147 74
-0.321748 0.0237263 0.172301 101 157 82
-0.321413 0.0248407 0.172495 112 169 90
-0.321347 0.0260191 0.172534 123 181 95
-0.321281 0.0271968 0.172574 127 188 99
-0.321215 0.028374 0.172613 132 194 100
-0.320881 0.0294795 0.172807 140 200 104
-0.320549 0.030582 0.172999 149 208 112
-0.320483 0.0317547 0.173039 159 227 127
-0.320151 0.0328522 0.173231 171 245 147
-0.31982 0.0339467 0.173423 187 240 150
-0.318963 0.0348851 0.173918 189 228 156
-0.318898 0.0360489 0.173957 180 203 160
-0.318308 0.0370546 0.174298 174 186 163
-0.318243 0.0382145 0.174337 173 182 164
-0.331792 -0.00992936 0.165033 166 169 157
-0.331723 -0.00868793 0.165076 166 171 151
-0.331653 -0.00744717 0.165118 122 149 110
-0.331583 -0.00620705 0.16516 114 158 81
-0.331514 -0.00496761 0.165202 124 185 93
-0.331444 -0.00372881 0.165244 127 190 97
-0.331375 -0.00249068 0.165286 130 190 97
-0.331017 -0.00129128 0.165495 130 193 98
-0.329515 -0.000252075 0.16637 127 189 96
-0.328594 0.000854759 0.166906 126 189 95
-0.32768 0.00195341 0.167439 127 189 96
-0.326216 0.00295944 0.168292 129 193 97
-0.324768 0.00395352 0.169135 135 198 99
-0.324426 0.00511223 0.169335 142 210 105
-0.32354 0.00617685 0.169851 150 229 120
-0.323202 0.00732664 0.17005 162 246 130
-0.322864 0.00847324 0.170247 177 245 127
-0.322257 0.00956767 0.170601 170 237 122
-0.321654 0.0106566 0.170954 148 222 116
-0.321587 0.0118425 0.170994 139 202 104
-0.321253 0.0129752 0.17119 130 188 97
-0.32092 0.0141048 0.171385 116 180 95
-0.32112 0.0153413 0.17127 109 174 91
-0.321054 0.0165234 0.17131 105 168 86
-0.320987 0.0177049 0.17135 100 159 80
-0.321188 0.0189449 0.171235 94 150 77
-0.321122 0.0201265 0.171275 87 141 74
-0.321323 0.0213693 0.171159 81 136 69
-0.321257 0.0225509 0.171199 77 135 68
-0.320923 0.0236674 0.171395 80 137 69
-0.320857 0.0248464 0.171435 88 143 73
-0.32079 0.0260249 0.171475 97 154 79
-0.320458 0.0271344 0.17167 105 166 89
-0.320392 0.0283102 0.171709 117 177 92
-0.32006 0.0294147 0.171904 127 187 96
-0.319729 0.0305162 0.172098 129 189 100
-0.319663 0.0316876 0.172137 134 195 102
-0.319333 0.0327841 0.172331 145 204 109
-0.31874 0.0338022 0.172677 155 215 117
-0.318412 0.0348915 0.172869 163 234 136
-0.318085 0.0359778 0.17306 177 240 147
-0.317758 0.037061 0.173251 188 231 153
-0.317433 0.0381413 0.173442 186 213 158
-0.317368 0.0392995 0.173481 175 193 160
-0.317303 0.040457 0.173521 170 184 163
-0.317238 0.0416139 0.17356 173 183 166
-0.33201 -0.00859544 0.163458 165 173 156
-0.33165 -0.00738145 0.163671 138 154 129
-0.33158 -0.00613841 0.163713 114 148 82
-0.332092 -0.00482781 0.163415 120 180 91
-0.332022 -0.00358322 0.163457 126 188 96
-0.331952 -0.00233925 0.163499 128 191 96
-0.331592 -0.0011344 0.163712 127 189 94
-0.330655 -1.23151e-05 0.164264 124 183 91
-0.329439 0.00106076 0.16498 113 171 84
-0.327951 0.00208179 0.165854 107 166 85
-0.327039 0.00317567 0.166391 111 171 89
-0.325579 0.00417425 0.16725 121 180 91
-0.324135 0.00516095 0.168099 125 186 94
-0.323794 0.00631775 0.168301 127 194 98
-0.32291 0.00737777 0.168821 138 204 104
-0.322303 0.00847782 0.169179 150 218 113
-0.321697 0.00957232 0.169536 159 237 128
-0.321095 0.0106614 0.169891 171 245 130
-0.320762 0.0117961 0.170088 174 240 123
-0.320429 0.0129277 0.170285 159 228 115
-0.320363 0.0141098 0.170325 142 211 108
-0.320296 0.0152913 0.170365 135 195 101
-0.320496 0.0165286 0.170249 125 185 98
-0.32043 0.0177101 0.17029 111 175 94
-0.320364 0.0188911 0.17033 106 171 91
-0.320564 0.0201318 0.170214 105 169 92
-0.320498 0.0213128 0.170254 100 160 86
-0.320432 0.0224932 0.170295 93 149 78
-0.320366 0.023673 0.170335 86 139 73
-0.320034 0.0247864 0.170531 78 135 72
-0.319968 0.0259636 0.170571 79 138 71
-0.319902 0.0271402 0.170612 85 145 72
-0.319571 0.0282467 0.170807 93 153 76
-0.31924 0.0293501 0.171003 103 162 84
-0.31891 0.0304504 0.171198 111 171 94
-0.318845 0.0316207 0.171238 121 180 97
-0.318253 0.0326421 0.171586 128 188 98
-0.318188 0.0338085 0.171626 132 192 100
-0.317599 0.0348215 0.171973 138 200 108
-0.317274 0.0359068 0.172166 147 209 114
-0.317208 0.0370675 0.172205 158 222 126
-0.316883 0.0381479 0.172397 170 234 142
-0.316819 0.0393061 0.172437 181 234 151
-0.316754 0.0404637 0.172476 186 224 157
-0.316689 0.0416207 0.172516 180 207 166
-0.316624 0.0427771 0.172555 175 190 164
-0.316559 0.0439329 0.172595 176 184 162
-0.331717 -0.00856212 0.162174 168 173 157
-0.331647 -0.00731545 0.162217 148 162 137
-0.331577 -0.00606943 0.16226 112 146 93
-0.331508 -0.00482408 0.162303 119 176 91
-0.331729 -0.00354372 0.162173 126 186 95
-0.331659 -0.00229823 0.162216 127 187 95
-0.331299 -0.00109195 0.162431 124 182 91
-0.33094 0.000110863 0.162645 104 159 77
-0.330005 0.0012281 0.163201 89 135 66
-0.328792 0.00229491 0.163922 83 129 65
-0.327027 0.00326542 0.164969 83 136 66
-0.325563 0.00426583 0.165839 91 148 72
-0.324391 0.00529897 0.166535 102 161 80
-0.323229 0.0063222 0.167225 113 173 86
-0.322348 0.00738228 0.167749 122 180 91
-0.321741 0.0084824 0.16811 127 189 94
-0.321137 0.00957697 0.16847 135 197 100
-0.320536 0.0106661 0.168827 145 210 107
-0.320204 0.0118009 0.169026 153 230 120
-0.320137 0.012985 0.169067 164 240 129
-0.319806 0.0141147 0.169265 176 242 125
-0.31974 0.0152963 0.169305 171 235 119
-0.319939 0.0165337 0.169189 150 219 114
-0.319873 0.0177153 0.169229 141 202 106
-0.319807 0.0188963 0.16927 134 190 100
-0.319741 0.0200767 0.16931 118 182 98
-0.319675 0.0212565 0.169351 110 175 95
-0.319609 0.0224356 0.169391 106 168 91
-0.319543 0.0236142 0.169432 101 160 87
-0.319212 0.0247265 0.169629 93 151 86
-0.319147 0.0259025 0.16967 89 142 75
-0.319081 0.0270778 0.16971 82 134 70
-0.318751 0.0281832 0.169907 79 135 71
-0.318422 0.0292856 0.170104 84 142 68
-0.317832 0.0303134 0.170455 89 147 75
-0.317766 0.0314811 0.170495 98 154 82
-0.317701 0.0326482 0.170535 107 165 88
-0.317374 0.0337396 0.17073 117 175 94
-0.316788 0.0347518 0.171079 124 182 98
-0.316723 0.0359132 0.171119 128 187 100
-0.316399 0.0369955 0.171313 133 195 103
-0.316334 0.0381544 0.171352 142 204 109
-0.31627 0.0393127 0.171392 153 214 119
-0.316205 0.0404704 0.171432 164 229 134
-0.31614 0.0416275 0.171472 174 238 150
-0.316076 0.0427839 0.171512 186 230 152
-0.316011 0.0439398 0.171551 184 217 161
-0.315688 0.0450079 0.171744 178 194 163
-0.315623 0.0461613 0.171784 176 186 165
-0.315559 0.0473141 0.171823 176 184 163
-0.331714 -0.0084988 0.160713 168 171 159
-0.331353 -0.00728053 0.160931 147 163 141
-0.331283 -0.00603298 0.160974 112 149 99
-0.331214 -0.00478611 0.161017 119 173 88
-0.331144 -0.00353988 0.16106 126 186 93
-0.331075 -0.00229431 0.161103 127 187 96
-0.331005 -0.00104941 0.161146 121 178 92
-0.330646 0.000154832 0.161363 93 138 70
-0.330288 0.00135566 0.161579 82 128 65
-0.329355 0.00246801 0.162138 80 124 63
-0.327579 0.00344188 0.163203 76 124 60
-0.325826 0.00440181 0.164254 76 126 60
-0.324373 0.00539297 0.165125 79 132 65
-0.323756 0.0065101 0.165496 88 140 70
-0.321785 0.00738679 0.166678 98 153 77
-0.32118 0.00848698 0.167041 109 164 82
-0.320577 0.00958164 0.167403 119 176 88
-0.319978 0.0106708 0.167764 123 186 93
-0.319646 0.0118057 0.167964 130 196 98
-0.31958 0.0129899 0.168005 142 204 102
-0.319514 0.0141735 0.168046 152 219 113
-0.319448 0.0153565 0.168087 159 238 127
-0.319382 0.0165388 0.168128 172 247 130
-0.319581 0.0177784 0.16801 178 242 124
-0.319515 0.0189608 0.168051 162 226 120
-0.319184 0.0200821 0.16825 144 210 112
-0.319118 0.0212619 0.168291 135 193 102
-0.319052 0.0224411 0.168332 124 182 99
-0.318987 0.0236198 0.168373 112 175 98
-0.318393 0.0246667 0.168729 107 170 93
-0.318327 0.0258415 0.16877 104 162 87
-0.317999 0.0269477 0.168968 95 155 84
-0.317933 0.02812 0.169009 90 146 78
-0.317344 0.0291511 0.169363 86 139 70
-0.317018 0.0302482 0.16956 78 136 73
-0.316953 0.0314147 0.1696 81 139 71
-0.316888 0.0325805 0.16964 85 144 74
-0.316563 0.0336708 0.169836 93 150 78
-0.316238 0.0347581 0.170032 99 160 84
-0.315914 0.0358423 0.170227 108 170 91
-0.31585 0.0370019 0.170267 120 180 95
-0.315527 0.0380813 0.170462 127 186 98
-0.315462 0.0392384 0.170502 131 192 102
-0.315398 0.0403949 0.170542 137 200 107
-0.315591 0.0416343 0.170427 149 213 116
-0.315527 0.0427908 0.170467 160 225 126
-0.315462 0.0439467 0.170508 168 240 147
-0.315398 0.0451021 0.170547 182 232 151
-0.315076 0.0461684 0.170742 185 222 158
-0.315011 0.0473212 0.170782 179 202 159
-0.314947 0.0484735 0.170821 176 187 160
-0.314883 0.0496251 0.170861 174 182 164
-0.332003 -0.00840499 0.159069 169 171 159
-0.331349 -0.00721406 0.159465 147 164 145
-0.331279 -0.00596353 0.159509 116 150 101
-0.330919 -0.00474805 0.159728 120 175 88
-0.33085 -0.0035003 0.159772 126 187 94
-0.33078 -0.0022532 0.159815 128 186 95
-0.330421 -0.00104541 0.160034 124 181 92
-0.330352 0.000198921 0.160077 107 153 75
-0.329993 0.00140115 0.160295 101 155 81
-0.329348 0.00255728 0.160687 98 153 76
-0.328421 0.00366364 0.161249 92 145 72
-0.326372 0.00458314 0.162489 87 135 65
-0.325186 0.00562322 0.163207 79 128 61
-0.323737 0.00660692 0.164084 74 126 61
-0.322032 0.00753186 0.165116 79 128 63
-0.320618 0.00849158 0.165972 86 135 66
-0.320017 0.00958628 0.166337 92 146 73
-0.319419 0.0106755 0.1667 101 159 79
-0.319088 0.0118105 0.166902 113 171 84
-0.319022 0.0129948 0.166943 122 180 89
-0.318956 0.0141784 0.166984 127 188 95
-0.31889 0.0153615 0.167025 135 200 102
-0.319089 0.0166005 0.166907 146 212 108
-0.319023 0.0177836 0.166948 155 228 120
-0.318957 0.0189661 0.166989 164 240 130
-0.318891 0.0201479 0.16703 173 238 125
-0.318826 0.0213292 0.167071 167 231 119
-0.318496 0.0224467 0.167272 148 215 114
-0.31843 0.0236253 0.167313 135 201 108
-0.317838 0.0246724 0.167673 131 188 101
-0.31751 0.0257806 0.167872 117 177 99
-0.317183 0.0268858 0.168071 106 173 93
-0.316856 0.0279879 0.16827 103 164 86
-0.316531 0.029087 0.168468 98 156 85
-0.316206 0.030183 0.168666 91 149 83
-0.316141 0.0313483 0.168706 90 142 75
-0.316076 0.032513 0.168747 81 138 73
-0.315753 0.0336022 0.168944 79 136 70
-0.315429 0.0346884 0.169141 80 140 72
-0.315365 0.0358487 0.169181 86 146 77
-0.3153 0.0370084 0.169222 97 156 82
-0.314978 0.0380879 0.169418 107 165 87
-0.314914 0.0392451 0.169458 115 174 92
-0.314849 0.0404016 0.169498 122 183 97
-0.315042 0.041641 0.169383 130 190 102
-0.314978 0.0427977 0.169423 136 200 105
-0.314914 0.0439537 0.169464 145 211 115
-0.314592 0.0450219 0.169659 156 217 121
-0.314528 0.0461754 0.1697 166 230 138
-0.314464 0.0473284 0.16974 173 234 149
-0.3144 0.0484807 0.16978 183 226 154
-0.314336 0.0496324 0.16982 183 212 160
-0.314015 0.0506902 0.170015 177 196 165
-0.313951 0.0518395 0.170055 176 187 166
-0.313887 0.0529881 0.170095 175 187 168
-0.332588 -0.00828007 0.157232 165 170 157
-0.331345 -0.00714727 0.157993 148 165 147
-0.330984 -0.00592684 0.158215 119 151 104
-0.330623 -0.00470991 0.158436 120 174 93
-0.330264 -0.00349646 0.158657 124 185 95
-0.330195 -0.00224928 0.158701 128 189 94
-0.330126 -0.00100277 0.158745 124 187 94
-0.329767 0.000203003 0.158965 113 170 83
-0.32941 0.00140533 0.159184 106 167 83
-0.329053 0.00260421 0.159404 105 165 83
-0.328126 0.00371176 0.159971 103 160 81
-0.327204 0.00481101 0.160535 100 156 79
-0.32517 0.00571871 0.161778 94 148 74
-0.323717 0.00670418 0.162666 88 139 69
-0.321467 0.0075364 0.164041 82 129 64
-0.320324 0.00854404 0.16474 76 126 62
-0.319723 0.00963993 0.165108 75 127 61
-0.31886 0.0106803 0.165636 80 132 63
-0.318529 0.0118153 0.165839 87 143 69
-0.318464 0.0129996 0.165881 97 154 76
-0.318398 0.0141834 0.165922 106 166 83
-0.318332 0.0153665 0.165964 116 177 88
-0.318531 0.0166056 0.165844 124 186 93
-0.318465 0.0177888 0.165886 129 195 100
-0.318399 0.0189713 0.165927 140 207 106
-0.318334 0.0201533 0.165969 150 219 114
-0.318268 0.0213346 0.16601 157 234 127
-0.318203 0.0225153 0.166052 166 240 130
-0.317873 0.0236309 0.166254 173 236 122
-0.317545 0.0247435 0.166456 159 224 120
-0.316694 0.0257199 0.166976 140 208 113
-0.316629 0.0268916 0.167017 135 191 102
-0.316303 0.0279938 0.167217 121 180 98
-0.315979 0.029093 0.167417 109 172 95
-0.315654 0.030189 0.167616 107 166 89
-0.31559 0.0313544 0.167657 101 160 88
-0.315525 0.0325192 0.167698 97 153 86
-0.315202 0.0336085 0.167896 93 145 79
-0.315137 0.0347707 0.167937 86 138 74
-0.314815 0.0358551 0.168135 80 135 71
-0.314751 0.0370149 0.168176 80 138 71
-0.314686 0.038174 0.168217 87 144 73
-0.314622 0.0393326 0.168257 94 151 77
-0.314558 0.0404905 0.168298 103 160 84
-0.314494 0.0416478 0.168338 111 170 91
-0.314429 0.0428045 0.168379 121 180 94
-0.314365 0.0439606 0.16842 128 188 98
-0.314301 0.0451161 0.16846 133 193 100
-0.314237 0.046271 0.168501 140 206 110
-0.313916 0.0473355 0.168698 151 215 118
-0.313852 0.0484879 0.168738 163 224 129
-0.313788 0.0496397 0.168778 171 230 143
-0.313469 0.0506976 0.168975 177 227 152
-0.313405 0.0518469 0.169015 184 217 155
-0.313341 0.0529957 0.169055 180 205 163
-0.313277 0.0541438 0.169096 176 191 163
-0.313213 0.0552913 0.169136 180 189 168
-0.31315 0.0564383 0.169176 180 188 169
-0.332587 -0.00821541 0.155744 170 173 160
-0.331341 -0.00708018 0.156513 152 168 150
-0.330979 -0.0058569 0.156738 118 153 106
-0.330327 -0.00467167 0.157141 121 174 91
-0.329968 -0.00345677 0.157364 125 185 94
-0.329609 -0.00224534 0.157586 128 190 98
-0.32954 -0.000998748 0.15763 125 191 97
-0.329471 0.000247193 0.157674 118 178 87
-0.328826 0.00140949 0.158074 112 173 88
-0.32847 0.00260846 0.158294 110 168 86
-0.32783 0.00375999 0.15869 110 165 83
-0.326626 0.0048154 0.159434 106 164 81
-0.325713 0.00590656 0.159998 103 159 80
-0.323147 0.00670867 0.16158 100 157 79
-0.320902 0.00754093 0.162965 98 152 75
-0.319761 0.00854861 0.16367 94 144 69
-0.319428 0.0096937 0.163876 87 132 63
-0.318565 0.0107351 0.164409 79 126 64
-0.318235 0.0118714 0.164614 75 126 64
-0.317906 0.0130045 0.164819 77 130 64
-0.31784 0.0141884 0.164861 83 136 67
-0.317774 0.0153716 0.164902 91 147 73
-0.317972 0.0166107 0.164782 100 161 79
-0.317907 0.017794 0.164824 110 172 85
-0.317841 0.0189766 0.164865 121 181 89
-0.317776 0.0201586 0.164907 126 190 95
-0.31771 0.02134 0.164949 134 201 104
-0.317645 0.0225208 0.16499 144 211 110
-0.317317 0.0236365 0.165194 155 224 119
-0.316989 0.0247492 0.165398 162 238 132
-0.316401 0.0257921 0.165761 170 234 123
-0.316075 0.0268974 0.165963 167 227 118
-0.31575 0.0279997 0.166165 149 216 115
-0.315426 0.0290989 0.166366 135 198 108
-0.315103 0.0301951 0.166566 130 187 97
-0.315038 0.0313605 0.166608 115 176 98
-0.314974 0.0325253 0.166649 107 169 93
-0.314909 0.0336896 0.16669 103 164 91
-0.314587 0.0347771 0.16689 99 157 88
-0.314523 0.0359388 0.166931 96 150 82
-0.314201 0.0370214 0.16713 91 144 75
-0.314137 0.0381806 0.167171 84 138 70
-0.314073 0.0393392 0.167212 81 136 69
-0.314009 0.0404972 0.167253 85 139 72
-0.313944 0.0416546 0.167294 90 148 76
-0.31388 0.0428114 0.167335 99 156 81
-0.313816 0.0439675 0.167375 108 167 86
-0.313752 0.0451231 0.167416 116 175 90
-0.313688 0.0462781 0.167457 124 183 94
-0.313624 0.0474325 0.167498 131 190 98
-0.313305 0.0484951 0.167696 137 197 104
-0.313241 0.049647 0.167737 145 209 114
-0.312922 0.050705 0.167935 155 219 123
-0.312858 0.0518544 0.167975 168 227 135
-0.312795 0.0530032 0.168016 172 231 151
-0.312731 0.0541514 0.168056 180 221 154
-0.312667 0.055299 0.168097 186 213 161
-0.312604 0.056446 0.168137 181 201 165
-0.31254 0.0575924 0.168178 180 191 166
-0.312477 0.0587382 0.168218 182 188 168
-0.312413 0.0598835 0.168259 185 189 170
-0.312604 0.0611328 0.168142 184 189 170
-0.331995 -0.00821185 0.154616 163 174 164
-0.330751 -0.00707658 0.155391 147 165 151
-0.330682 -0.00581994 0.155436 115 155 106
-0.32974 -0.00466791 0.156023 119 171 88
-0.329381 -0.00345292 0.156248 124 185 92
-0.329024 -0.00224143 0.156472 128 190 97
-0.328955 -0.000994732 0.156516 128 191 97
-0.328886 0.000251291 0.156561 121 182 88
-0.328242 0.00141366 0.156962 115 178 89
-0.328174 0.00265549 0.157007 111 174 87
-0.327533 0.00380832 0.157406 111 172 86
-0.326612 0.00490994 0.157981 110 171 86
-0.325979 0.00604969 0.158376 109 167 83
-0.322851 0.00675972 0.160324 108 163 81
-0.320337 0.00754546 0.16189 104 161 79
-0.319199 0.00855322 0.162599 102 159 78
-0.318867 0.00969836 0.162807 100 153 77
-0.318006 0.0107398 0.163344 95 148 76
-0.317676 0.0118762 0.163551 90 139 70
-0.317347 0.0130094 0.163756 82 131 64
-0.317282 0.0141933 0.163799 75 126 62
-0.317217 0.0153766 0.163841 74 127 63
-0.317414 0.0166158 0.163719 78 134 66
-0.317349 0.0177992 0.163761 85 144 70
-0.317283 0.0189819 0.163803 96 154 77
-0.317218 0.020164 0.163845 106 166 83
-0.317153 0.0213455 0.163887 116 177 89
-0.316825 0.0224632 0.164093 124 185 93
-0.31676 0.0236421 0.164134 131 195 100
-0.316171 0.0246894 0.164502 141 206 108
-0.315846 0.0257978 0.164706 152 217 112
-0.315521 0.0269032 0.164909 157 232 125
-0.315197 0.0280056 0.165112 164 238 132
-0.314874 0.0291048 0.165314 171 230 122
-0.314551 0.0302011 0.165516 158 220 117
-0.314487 0.0313666 0.165558 136 205 110
-0.314422 0.0325315 0.165599 128 191 99
-0.314358 0.0336958 0.165641 117 179 97
-0.314294 0.0348595 0.165682 109 171 94
-0.313972 0.0359452 0.165883 105 167 92
-0.313908 0.0371064 0.165925 102 163 88
-0.313587 0.0381871 0.166125 96 155 83
-0.313523 0.0393458 0.166167 90 144 77
-0.313459 0.0405039 0.166208 87 137 71
-0.313395 0.0416614 0.166249 81 135 71
-0.313331 0.0428182 0.16629 82 139 71
-0.313267 0.0439745 0.166331 86 146 74
-0.313204 0.0451301 0.166372 96 153 78
-0.31314 0.0462852 0.166413 105 163 82
-0.313076 0.0474396 0.166454 112 171 88
-0.313012 0.0485934 0.166495 120 179 93
-0.312693 0.0496544 0.166695 127 184 96
-0.31263 0.0508057 0.166736 132 191 102
-0.312312 0.0518618 0.166935 138 202 111
-0.312248 0.0530107 0.166976 148 215 122
-0.312185 0.054159 0.167017 165 222 131
-0.312121 0.0553067 0.167058 174 231 142
-0.312058 0.0564538 0.167098 177 229 154
-0.311994 0.0576003 0.167139 183 216 157
-0.311931 0.0587462 0.16718 184 206 164
-0.311868 0.0598914 0.167221 185 199 170
-0.311804 0.0610361 0.167261 186 193 170
-0.312249 0.0623924 0.166986 182 188 168
-0.331402 -0.00820832 0.153488 165 173 162
-0.330746 -0.00700916 0.153902 149 166 152
-0.329511 -0.0058827 0.154679 117 154 110
-0.328576 -0.00473302 0.155268 119 170 88
-0.328507 -0.00348493 0.155313 123 184 92
-0.328438 -0.0022375 0.155357 127 189 96
-0.328369 -0.00099072 0.155402 129 192 97
-0.328014 0.000215286 0.155627 124 181 91
-0.327659 0.00141783 0.155851 117 180 91
-0.32759 0.00265975 0.155896 114 178 88
-0.327236 0.00385677 0.156119 113 176 87
-0.326315 0.00495959 0.156699 114 174 86
-0.325682 0.00610059 0.157098 113 171 87
-0.323105 0.00690454 0.158719 110 169 85
-0.320851 0.00773894 0.160136 107 167 82
-0.319437 0.00870212 0.161025 107 163 81
-0.318305 0.00970304 0.161738 105 160 80
-0.317974 0.0108451 0.161947 103 157 78
-0.31738 0.0119324 0.162321 102 154 76
-0.317052 0.0130669 0.162529 99 150 74
-0.316724 0.0141983 0.162736 92 143 71
-0.316659 0.0153817 0.162779 86 133 65
-0.316856 0.016621 0.162656 79 128 62
-0.31679 0.0178044 0.162699 74 129 63
-0.316725 0.0189872 0.162741 77 132 63
-0.31666 0.0201694 0.162783 85 139 67
-0.316595 0.0213509 0.162826 94 147 74
-0.316268 0.0224687 0.163032 103 160 81
-0.315941 0.0235834 0.163239 112 170 86
-0.315616 0.024695 0.163444 121 180 92
-0.315291 0.0258036 0.16365 127 190 98
-0.314967 0.026909 0.163855 134 201 104
-0.314644 0.0280114 0.164059 145 210 111
-0.314321 0.0291108 0.164263 157 223 121
-0.314257 0.0302783 0.164305 159 234 132
-0.314192 0.0314452 0.164347 168 235 125
-0.314128 0.0326115 0.164388 163 224 116
-0.314064 0.0337771 0.16443 144 210 111
-0.313742 0.0348658 0.164633 130 195 103
-0.313678 0.036029 0.164675 122 183 96
-0.313358 0.0371128 0.164877 114 176 92
-0.313038 0.0381937 0.16508 106 169 90
-0.312974 0.0393524 0.165121 102 161 86
-0.31291 0.0405106 0.165163 98 153 82
-0.312846 0.0416681 0.165204 92 145 78
-0.312782 0.0428251 0.165245 86 140 72
-0.312719 0.0439814 0.165287 82 135 70
-0.312655 0.0451371 0.165328 82 136 69
-0.312591 0.0462923 0.165369 84 143 70
-0.312527 0.0474468 0.165411 90 149 77
-0.312464 0.0486007 0.165452 99 157 83
-0.3124 0.049754 0.165493 108 165 87
-0.312337 0.0509067 0.165535 116 174 92
-0.312019 0.0519639 0.165736 122 181 96
-0.311955 0.0531142 0.165777 128 186 100
-0.311638 0.0541666 0.165977 137 194 106
-0.311575 0.0553144 0.166018 144 209 116
-0.311511 0.0564615 0.166059 158 223 127
-0.311448 0.0576081 0.1661 169 227 134
-0.311385 0.0587541 0.166141 174 226 148
-0.311322 0.0598994 0.166182 178 218 156
-0.311512 0.0611489 0.166064 183 206 159
-0.311703 0.0624005 0.165946 182 200 162
-0.312148 0.0637622 0.165667 176 186 160
-0.31311 0.0653495 0.165065 175 180 162
-0.330516 -0.00823539 0.152546 169 179 165
-0.330447 -0.00697351 0.152591 155 172 157
-0.328923 -0.00587901 0.153559 123 153 112
-0.32799 -0.00472926 0.154152 120 167 87
-0.327921 -0.00348107 0.154197 122 183 93
-0.327566 -0.00227079 0.154424 126 190 98
-0.327497 -0.00102537 0.154469 131 194 99
-0.327429 0.000219374 0.154514 124 181 94
-0.327075 0.00142201 0.15474 120 182 96
-0.327006 0.002664 0.154785 117 182 91
-0.326653 0.0038611 0.15501 118 181 88
-0.325735 0.00496399 0.155594 118 178 87
-0.325385 0.00615162 0.155817 116 177 90
-0.325035 0.00733589 0.15604 113 175 88
-0.322465 0.00812662 0.157671 111 172 86
-0.320216 0.00894945 0.159099 111 168 85
-0.318807 0.00990528 0.159994 110 165 82
-0.317677 0.0109003 0.160711 107 162 80
-0.317348 0.0120404 0.160922 107 161 80
-0.316755 0.0131246 0.161299 106 159 79
-0.316428 0.0142572 0.161508 102 155 78
-0.316362 0.0154419 0.161551 99 150 75
-0.316297 0.0166261 0.161593 95 146 72
-0.316232 0.0178096 0.161636 90 139 69
-0.316167 0.0189925 0.161679 84 129 64
-0.316102 0.0201747 0.161721 79 126 63
-0.315776 0.0212945 0.161929 76 129 64
-0.315711 0.0224742 0.161972 82 135 67
-0.315385 0.023589 0.16218 89 144 71
-0.31506 0.0247007 0.162387 95 153 77
-0.314736 0.0258093 0.162594 105 165 84
-0.314413 0.0269148 0.1628 115 174 87
-0.31409 0.0280173 0.163006 124 186 93
-0.314026 0.0291868 0.163048 131 195 102
-0.313704 0.0302843 0.163253 141 205 110
-0.31364 0.0314513 0.163295 154 215 113
-0.313576 0.0326176 0.163337 159 230 123
-0.313512 0.0337834 0.163379 159 230 125
-0.313448 0.0349485 0.163421 160 225 118
-0.313127 0.0360354 0.163626 151 214 110
-0.313063 0.037198 0.163668 135 200 104
-0.312743 0.03828 0.163872 122 186 97
-0.312424 0.0393591 0.164075 116 176 91
-0.312361 0.0405173 0.164117 108 168 88
-0.312297 0.0416749 0.164159 103 162 84
-0.312233 0.0428319 0.1642 97 156 81
-0.31217 0.0439884 0.164242 92 148 80
-0.312106 0.0451442 0.164284 87 142 72
-0.312042 0.0462993 0.164325 82 138 68
-0.311979 0.0474539 0.164367 79 137 71
-0.311915 0.0486079 0.164409 81 139 74
-0.311852 0.0497613 0.16445 88 145 75
-0.311788 0.0509141 0.164492 97 153 79
-0.311725 0.0520662 0.164533 106 162 85
-0.311408 0.0531217 0.164735 111 168 91
-0.311345 0.0542714 0.164777 118 177 94
-0.311281 0.0554205 0.164818 126 182 97
-0.310965 0.0564693 0.16502 133 189 101
-0.310902 0.0576159 0.165061 140 201 108
-0.310839 0.058762 0.165103 149 214 119
-0.311029 0.0600109 0.164984 162 223 130
-0.311219 0.0612619 0.164864 172 225 140
-0.31141 0.0625151 0.164745 176 225 155
-0.312111 0.0639871 0.164302 179 207 153
-0.31256 0.0653578 0.164019 179 193 158
-0.313011 0.066734 0.163734 173 186 160
-0.313463 0.0681157 0.163448 171 181 161
-0.329855 -0.00696989 0.151465 162 176 157
-0.328335 -0.00587533 0.152439 130 152 118
-0.327691 -0.0046911 0.152853 123 163 88
-0.327335 -0.00347723 0.153082 124 182 92
-0.326981 -0.00226685 0.15331 126 189 97
-0.326913 -0.00102137 0.153355 132 195 98
-0.326559 0.00018346 0.153583 124 185 94
-0.326207 0.00138482 0.15381 122 185 98
-0.326138 0.00262546 0.153855 123 183 91
-0.32607 0.00386544 0.1539 122 183 90
-0.325154 0.0049684 0.154488 120 182 90
-0.325086 0.00620277 0.154533 120 181 90
-0.324456 0.00734043 0.154938 118 179 89
-0.324109 0.00852142 0.155161 115 177 87
-0.322375 0.00944786 0.156273 116 174 87
-0.320394 0.0103105 0.157542 116 171 86
-0.318443 0.011159 0.158792 114 168 83
-0.317579 0.0122009 0.159347 110 166 83
-0.316985 0.0132884 0.159729 107 164 83
-0.316393 0.0143704 0.160109 105 162 80
-0.316065 0.0155024 0.16032 106 159 77
-0.315739 0.0166312 0.16053 105 157 78
-0.315674 0.0178148 0.160573 101 153 78
-0.315609 0.0189978 0.160616 98 148 77
-0.315544 0.0201801 0.160659 92 141 72
-0.315218 0.0213 0.160869 84 132 66
-0.315153 0.0224798 0.160911 79 126 63
-0.315089 0.0236589 0.160954 74 127 64
-0.314505 0.0247064 0.161329 76 131 64
-0.31444 0.0258817 0.161372 83 138 69
-0.314117 0.0269884 0.16158 92 147 72
-0.313794 0.0280921 0.161788 102 160 79
-0.313473 0.0291928 0.161995 111 170 84
-0.313408 0.0303617 0.162037 120 179 91
-0.313344 0.03153 0.16208 126 188 96
-0.313537 0.0327718 0.161958 134 200 105
-0.313473 0.0339402 0.162 145 210 111
-0.313152 0.0350313 0.162207 154 221 115
-0.312832 0.0361194 0.162413 156 228 122
-0.312512 0.0372045 0.162619 154 228 122
-0.312193 0.0382866 0.162825 151 221 113
-0.312129 0.0394468 0.162867 140 205 104
-0.311811 0.040524 0.163072 126 190 98
-0.311748 0.0416817 0.163114 117 179 90
-0.311684 0.0428388 0.163155 109 172 89
-0.311621 0.0439953 0.163197 102 166 88
-0.311303 0.0450639 0.163402 98 159 81
-0.31124 0.0462179 0.163443 93 151 78
-0.311177 0.0473713 0.163485 86 144 77
-0.311367 0.0486152 0.163365 82 139 73
-0.311304 0.0497686 0.163407 82 136 69
-0.31124 0.0509215 0.163449 83 136 69
-0.311177 0.0520737 0.16349 86 140 73
-0.311114 0.0532254 0.163532 91 148 76
-0.311051 0.0543764 0.163574 99 157 83
-0.310734 0.0554282 0.163777 108 165 87
-0.310671 0.0565768 0.163819 115 174 92
-0.310608 0.0577247 0.163861 122 179 95
-0.310545 0.0588721 0.163902 129 185 99
-0.310735 0.0601226 0.163782 134 193 104
-0.310925 0.0613752 0.163662 142 207 114
-0.31137 0.0627369 0.163378 153 223 129
-0.312073 0.0642129 0.16293 172 226 134
-0.312523 0.0655873 0.162643 178 226 146
-0.312459 0.0667425 0.162685 174 213 153
-0.312911 0.0681243 0.162398 172 197 154
-0.313365 0.0695116 0.162108 174 188 156
-0.314343 0.07114 0.161484 173 183 162
-0.329263 -0.00696627 0.150338 168 179 161
-0.327747 -0.00587162 0.151319 136 153 121
-0.327104 -0.00468732 0.151736 123 161 87
-0.326749 -0.00347339 0.151967 125 182 92
-0.326396 -0.00226294 0.152196 125 190 96
-0.326328 -0.00101735 0.152242 134 197 100
-0.325975 0.000187536 0.152471 126 192 97
-0.325623 0.00138899 0.1527 124 190 101
-0.325555 0.00262972 0.152745 124 186 95
-0.325487 0.00386978 0.15279 122 186 93
-0.324573 0.0049728 0.153383 122 183 92
-0.324505 0.00620726 0.153428 122 182 91
-0.323877 0.007345 0.153835 121 180 89
-0.32381 0.00857534 0.15388 118 179 87
-0.323463 0.0097543 0.154105 118 177 88
-0.322562 0.0108263 0.154689 118 175 89
-0.320572 0.0116804 0.155976 118 173 87
-0.318883 0.0125732 0.157069 115 170 85
-0.317747 0.0135607 0.157804 111 168 84
-0.316621 0.0145387 0.158533 109 166 82
-0.31603 0.0156186 0.158916 110 164 81
-0.315703 0.0167499 0.159129 109 162 80
-0.315376 0.017878 0.159342 107 160 79
-0.315311 0.0190624 0.159385 105 158 79
-0.314986 0.0201855 0.159597 103 154 77
-0.314921 0.0213673 0.15964 98 149 74
-0.314856 0.0225484 0.159683 94 142 70
-0.314531 0.0236645 0.159894 86 134 68
-0.314208 0.0247775 0.160104 80 127 64
-0.314143 0.0259542 0.160147 77 124 64
-0.314079 0.0271303 0.16019 76 128 64
-0.314014 0.0283057 0.160233 81 136 64
-0.313433 0.0293393 0.16061 90 144 71
-0.313369 0.0305109 0.160653 97 152 79
-0.313563 0.031755 0.160529 104 164 82
-0.313499 0.0329267 0.160572 114 173 86
-0.313435 0.0340978 0.160614 123 183 92
-0.312856 0.0351144 0.160989 130 194 99
-0.312792 0.0362816 0.161032 138 207 108
-0.312216 0.0372899 0.161405 147 217 114
-0.311897 0.0383732 0.161613 154 225 117
-0.311833 0.0395347 0.161655 154 227 121
-0.311515 0.0406131 0.161862 151 220 115
-0.311198 0.0416885 0.162068 147 210 106
-0.311135 0.0428456 0.16211 132 198 101
-0.310818 0.0439162 0.162316 118 185 97
-0.310755 0.0450709 0.162358 114 177 90
-0.310692 0.046225 0.1624 107 168 89
-0.310629 0.0473785 0.162442 101 160 84
-0.310566 0.0485313 0.162484 96 153 79
-0.310755 0.0497759 0.162363 92 145 74
-0.310692 0.0509289 0.162405 86 138 71
-0.310629 0.0520812 0.162447 82 136 68
-0.310566 0.0532329 0.162489 82 135 66
-0.310756 0.0544816 0.162368 83 137 70
-0.310693 0.0556334 0.16241 89 144 74
-0.310629 0.0567846 0.162452 95 152 81
-0.310566 0.0579352 0.162494 105 161 85
-0.310503 0.0590851 0.162536 112 169 89
-0.310694 0.0603387 0.162414 117 176 94
-0.310884 0.0615944 0.162293 122 182 96
-0.311586 0.0630673 0.161841 131 187 99
-0.311778 0.0643304 0.161718 140 197 104
-0.311971 0.0655956 0.161594 147 214 121
-0.312422 0.0669756 0.161304 158 226 133
-0.312875 0.0683611 0.161013 172 229 139
-0.31333 0.0697521 0.160721 181 224 146
-0.313787 0.0711488 0.160427 178 208 156
-0.328671 -0.00696264 0.149211 172 180 162
-0.327446 -0.00583475 0.150012 143 154 124
-0.326517 -0.00468357 0.150619 123 154 88
-0.326163 -0.00346954 0.150851 123 181 93
-0.325811 -0.00225901 0.151082 125 188 97
-0.325743 -0.00101334 0.151128 135 196 98
-0.325391 0.000191628 0.151359 128 194 99
-0.32504 0.00139316 0.151589 124 193 101
-0.32469 0.00259126 0.151819 123 189 97
-0.32406 0.003742 0.152231 122 188 95
-0.323712 0.00493195 0.15246 122 185 93
-0.323644 0.00616507 0.152505 122 184 91
-0.323298 0.00734957 0.152732 121 182 90
-0.32323 0.00857998 0.152778 121 182 89
-0.323163 0.00980974 0.152823 120 181 90
-0.323375 0.0110911 0.152686 121 181 90
-0.323308 0.0123209 0.152731 120 179 90
-0.321027 0.0131132 0.15422 119 176 87
-0.319597 0.0140546 0.155154 116 174 87
-0.318184 0.0149847 0.156077 115 173 87
-0.316522 0.0158475 0.157163 113 171 85
-0.315666 0.0168691 0.157722 111 169 83
-0.315339 0.0179997 0.157937 110 166 82
-0.315013 0.0191272 0.158151 110 163 81
-0.314687 0.0202515 0.158364 108 159 79
-0.314623 0.0214347 0.158408 107 157 77
-0.314558 0.0226173 0.158451 104 156 76
-0.314234 0.0237346 0.158664 101 151 76
-0.31391 0.0248488 0.158877 96 144 74
-0.313845 0.0260269 0.15892 90 138 70
-0.313781 0.0272043 0.158963 84 133 65
-0.313717 0.0283812 0.159006 80 127 60
-0.313394 0.0294865 0.159218 78 126 62
-0.31333 0.0306608 0.159261 79 130 65
-0.313524 0.0319079 0.159136 84 138 68
-0.313201 0.0330075 0.159348 92 147 72
-0.31288 0.0341041 0.159559 100 159 79
-0.312816 0.0352746 0.159602 109 168 84
-0.312239 0.036288 0.159979 118 176 89
-0.311919 0.0373755 0.160189 125 187 95
-0.3116 0.0384599 0.160398 132 198 102
-0.311282 0.0395414 0.160607 142 211 111
-0.311219 0.0407024 0.160649 152 217 113
-0.310902 0.0417789 0.160857 157 225 118
-0.310585 0.0428525 0.161065 151 224 119
-0.310522 0.0440092 0.161108 147 214 113
-0.310207 0.0450779 0.161315 142 203 105
-0.310144 0.0462321 0.161357 127 190 100
-0.31008 0.0473856 0.161399 119 179 92
-0.31027 0.0486297 0.161277 112 171 86
-0.310207 0.0497833 0.16132 105 164 84
-0.310396 0.0510301 0.161197 99 156 81
-0.310586 0.052279 0.161075 95 148 76
-0.310523 0.0534334 0.161117 90 140 72
-0.31046 0.0545871 0.161159 84 136 70
-0.31065 0.0558396 0.161037 83 134 69
-0.310587 0.0569934 0.161079 82 136 70
-0.310524 0.0581465 0.161121 85 141 73
-0.310461 0.0592991 0.161164 91 147 79
-0.310652 0.0605557 0.161041 98 155 85
-0.311098 0.0619209 0.160751 107 164 90
-0.311546 0.0632915 0.16046 117 171 91
-0.311996 0.0646676 0.160168 121 178 94
-0.31219 0.0659376 0.160043 126 182 99
-0.312643 0.067323 0.159749 132 187 104
-0.312839 0.0685989 0.159622 139 198 112
-0.313295 0.0699937 0.159326 149 215 125
-0.328079 -0.00695902 0.148084 173 178 160
-0.326857 -0.00583105 0.14889 150 161 130
-0.32593 -0.0046798 0.149502 123 153 88
-0.325577 -0.00346569 0.149735 119 179 93
-0.325225 -0.00225508 0.149968 126 188 97
-0.325157 -0.00100933 0.150014 135 196 98
-0.324806 0.000195718 0.150247 131 197 99
-0.324456 0.00139733 0.150479 127 194 99
-0.324107 0.00259551 0.15071 125 191 97
-0.323478 0.00374632 0.151125 124 190 95
-0.323131 0.00493635 0.151355 123 189 94
-0.322785 0.00612299 0.151584 123 186 92
-0.322718 0.00735413 0.15163 122 184 91
-0.322651 0.00858462 0.151675 124 183 91
-0.322584 0.00981446 0.15172 123 183 91
-0.322796 0.0110959 0.151583 122 183 91
-0.322728 0.0123259 0.151628 123 182 88
-0.322661 0.0135551 0.151674 122 180 88
-0.32121 0.0145027 0.152631 119 178 90
-0.319774 0.0154388 0.153577 117 177 90
-0.318895 0.0164787 0.154157 116 175 89
-0.316157 0.017104 0.155961 114 173 86
-0.315565 0.0181806 0.156352 115 171 83
-0.314975 0.0192519 0.156742 115 169 82
-0.314911 0.0204397 0.156785 113 166 79
-0.314846 0.021627 0.156829 110 164 78
-0.314259 0.0226862 0.157217 107 162 79
-0.313935 0.0238048 0.157432 105 161 81
-0.313611 0.0249203 0.157646 103 156 79
-0.313288 0.0260326 0.15786 100 154 75
-0.313224 0.0272102 0.157903 97 149 73
-0.31316 0.0283871 0.157947 92 141 71
-0.313096 0.0295634 0.15799 85 134 65
-0.313032 0.030739 0.158034 80 129 63
-0.312968 0.0319141 0.158077 76 127 61
-0.312904 0.0330885 0.158121 77 128 63
-0.312582 0.0341863 0.158334 80 134 67
-0.312261 0.0352809 0.158546 87 142 71
-0.311685 0.0362945 0.158926 96 150 77
-0.311367 0.037382 0.159137 104 161 83
-0.311049 0.0384665 0.159348 112 171 87
-0.310985 0.0396295 0.159391 123 182 91
-0.310668 0.0407091 0.159601 130 190 97
-0.310352 0.0417857 0.159811 135 205 108
-0.310289 0.0429443 0.159853 145 214 115
-0.309973 0.0440161 0.160062 156 221 116
-0.30991 0.0451722 0.160105 157 224 120
-0.309847 0.0463277 0.160148 151 219 117
-0.309784 0.0474826 0.160191 148 208 107
-0.309721 0.0486369 0.160233 138 197 100
-0.30991 0.0498831 0.16011 122 185 96
-0.3101 0.0511315 0.159986 114 175 92
-0.31029 0.0523821 0.159863 110 170 88
-0.310227 0.0535377 0.159905 105 161 85
-0.310417 0.0547911 0.159781 99 155 84
-0.310354 0.0559469 0.159824 94 143 79
-0.310291 0.057102 0.159867 88 139 74
-0.310228 0.0582565 0.159909 81 136 71
-0.310165 0.0594105 0.159952 79 134 72
-0.31061 0.0607738 0.15966 81 135 75
-0.311057 0.0621425 0.159367 85 142 78
-0.311506 0.0635168 0.159073 93 149 80
-0.311957 0.0648965 0.158777 105 160 85
-0.312411 0.0662818 0.158481 116 169 91
-0.312866 0.0676727 0.158182 123 174 97
-0.313062 0.0689534 0.158054 125 180 102
-0.327487 -0.00695539 0.146956 173 179 162
-0.326267 -0.00582735 0.147768 152 165 140
-0.325628 -0.00464152 0.148195 119 149 96
-0.324991 -0.00346185 0.148619 118 174 92
-0.32464 -0.00225116 0.148854 124 187 97
