# .PCD v0.7 - Point Cloud Data file format
VERSION 0.7
FIELDS x y z rgb
SIZE 4 4 4 4
TYPE F F F F
COUNT 1 1 1 1
WIDTH 992
HEIGHT 1
VIEWPOINT 0 0 0 1 0 0 0
POINTS 992
DATA ascii
-0.40740001 0.134543 0.157086 8.76434e-39
-0.40733999 0.136053 0.15726399 6.7374879e-39
-0.40687001 0.137334 0.157634 6.0928429e-39
-0.405994 0.138384 0.15819199 5.7240604e-39
-0.401804 0.140581 0.16058999 5.3545688e-39
-0.40174401 0.14207201 0.16076601 5.1705433e-39
-0.37666199 0.15425301 0.17502201 4.8953773e-39
-0.37594 0.155186 0.17548899 5.1716041e-39
-0.375884 0.15657499 0.175653 4.9922561e-39
-0.40595099 0.134369 0.156238 9.4961457e-39
-0.40588999 0.135877 0.156416 6.9157582e-39
-0.40501699 0.13692901 0.156977 5.6268285e-39
-0.40374601 0.137749 0.15772501 5.1680084e-39
-0.403685 0.13925 0.157902 5.0765288e-39
-0.400839 0.13914301 0.159389 5.1683643e-39
-0.3996 0.139946 0.160118 5.0761687e-39
-0.39954099 0.141431 0.160293 4.8006636e-39
-0.39947999 0.14291701 0.160468 4.4333146e-39
-0.37571099 0.154303 0.174072 4.8932151e-39
-0.375323 0.15546501 0.174389 4.8942955e-39
-0.374935 0.156625 0.174705 4.528041e-39
-0.37520999 0.15824699 0.17471699 4.9929736e-39
-0.40538001 0.133136 0.154826 1.1802113e-38
-0.40491199 0.13441999 0.15519799 1.0879077e-38
-0.40444499 0.135702 0.155569 8.5741908e-39
-0.40357599 0.13675299 0.156131 6.6395315e-39
-0.40191299 0.137345 0.15707099 5.6289781e-39
-0.3987 0.137031 0.158747 5.5375013e-39
-0.39863899 0.138514 0.158922 5.5371426e-39
-0.39818999 0.13977 0.159281 5.4453085e-39
-0.39812899 0.14125299 0.159456 5.3538317e-39
-0.39806899 0.142737 0.15963 5.0779623e-39
-0.39839801 0.144455 0.159621 5.5378559e-39
-0.39833701 0.145943 0.159796 5.6286166e-39
-0.39866701 0.14767 0.159788 5.537144e-39
-0.39899701 0.14940301 0.159779 5.3538345e-39
-0.375092 0.154581 0.172967 4.6184275e-39
-0.37437299 0.155515 0.173439 4.1588913e-39
-0.37431601 0.156905 0.173603 3.8837477e-39
-0.37426001 0.158297 0.173767 4.3468839e-39
-0.374203 0.15968999 0.173931 5.3631952e-39
-0.40346801 0.134247 0.15435299 1.1526243e-38
-0.40300301 0.135527 0.154725 1.0602851e-38
-0.40213901 0.136577 0.155288 8.6678241e-39
-0.40088201 0.13739599 0.15604 7.1026648e-39
-0.397679 0.137082 0.157726 6.4587374e-39
-0.39723 0.138339 0.158087 6.0906765e-39
-0.39678201 0.139594 0.158447 5.9066468e-39
-0.39672199 0.141075 0.158621 5.81517e-39
-0.39627501 0.142327 0.158979 5.7236905e-39
-0.39660099 0.14404 0.158969 5.8158819e-39
-0.396927 0.14576 0.158959 5.7233303e-39
-0.39686599 0.147247 0.159134 5.722973e-39
-0.39680499 0.148735 0.159308 5.7233331e-39
-0.39674401 0.150225 0.159483 5.815526e-39
-0.37447199 0.15485901 0.17185999 3.699711e-39
-0.37375301 0.15579399 0.172335 3.1483393e-39
-0.373696 0.157186 0.172499 3.0568667e-39
-0.37396899 0.158813 0.172507 3.5174876e-39
-0.37391201 0.16021 0.172672 4.3497664e-39
-0.40156499 0.135352 0.153882 1.1434772e-38
-0.40070501 0.136402 0.154447 1.0880519e-38
-0.39788499 0.13631999 0.155964 9.6801782e-39
-0.39704499 0.137357 0.156517 7.7473168e-39
-0.39621001 0.13839 0.157067 6.8271626e-39
-0.39576301 0.139645 0.157428 6.2754307e-39
-0.395318 0.140898 0.157787 6.0917583e-39
-0.39487299 0.142148 0.15814701 6.1839497e-39
-0.39481199 0.143628 0.15831999 6.0924702e-39
-0.39513499 0.14534201 0.158309 5.8162462e-39
-0.395843 0.14729901 0.15811101 5.8162448e-39
-0.39578199 0.14878701 0.15828601 5.9077216e-39
-0.39572099 0.150277 0.158461 5.907723e-39
-0.39566001 0.151767 0.158636 5.9077258e-39
-0.373519 0.154909 0.17090701 3.1479778e-39
-0.37313101 0.156074 0.17122801 2.5054894e-39
-0.37307301 0.15746801 0.171391 2.3221814e-39
-0.373346 0.159098 0.171399 2.5984109e-39
-0.37362 0.160732 0.171406 3.5200057e-39
-0.37356201 0.16213299 0.17157 4.5348793e-39
-0.39888099 0.136002 0.15380201 1.1526609e-38
-0.39686 0.136371 0.154939 1.1341134e-38
-0.39602301 0.137408 0.155494 1.0325182e-38
-0.39557499 0.138667 0.155858 8.391603e-39
-0.39512801 0.13992301 0.15622 7.0115538e-39
-0.394299 0.140949 0.15676901 6.4594604e-39
-0.39385599 0.14219899 0.157129 6.3676221e-39
-0.39417699 0.143911 0.157116 6.1839497e-39
-0.394115 0.145393 0.157289 5.908802e-39
-0.39443699 0.147113 0.157276 5.9084419e-39
-0.394759 0.148839 0.157263 5.9999172e-39
-0.39469799 0.15032899 0.157438 5.9080831e-39
-0.39463601 0.15181901 0.157612 5.9077258e-39
-0.395345 0.15380201 0.15741301 5.7240534e-39
-0.37250701 0.156354 0.170118 2.3218184e-39
-0.37278 0.15798301 0.170123 2.1385076e-39
-0.373384 0.159853 0.16997001 2.4140155e-39
-0.37399101 0.161733 0.169816 2.9668277e-39
-0.37426701 0.16338199 0.16982099 3.9809838e-39
-0.37454301 0.16503599 0.169827 5.2710052e-39
-0.39493799 0.138944 0.154645 1.0785801e-38
-0.39410701 0.139974 0.15519901 8.7596666e-39
-0.39404601 0.141458 0.15537301 7.287419e-39
-0.393601 0.142711 0.155735 6.4598192e-39
-0.39353901 0.14419501 0.155908 6.1839525e-39
-0.39347801 0.145679 0.156082 6.0013577e-39
-0.39379799 0.147402 0.156067 5.9091621e-39
-0.393736 0.148891 0.156241 6.0002802e-39
-0.39405799 0.150622 0.15622599 5.9999214e-39
-0.394766 0.152604 0.156022 5.9084433e-39
-0.39431801 0.153855 0.156386 5.9088006e-39
-0.395803 0.15635 0.15580299 5.9999172e-39
-0.37498 0.164646 0.168051 4.2528932e-39
-0.37492099 0.16606601 0.168217 5.0844517e-39
-0.37519899 0.167734 0.16822 5.731619e-39
-0.39423701 0.14071099 0.153603 1.0971636e-38
-0.393024 0.141509 0.154351 9.3131949e-39
-0.39296201 0.142994 0.154525 7.6558372e-39
-0.39289999 0.14447901 0.154698 6.5523735e-39
-0.392838 0.14596599 0.154871 6.1853889e-39
-0.39315799 0.14769199 0.154854 6.0013592e-39
-0.39386299 0.149664 0.15464599 6.0924772e-39
-0.39379999 0.151159 0.15482 6.1839511e-39
-0.39450899 0.153148 0.154612 6.1843085e-39
-0.39444599 0.154649 0.154787 6.0013577e-39
-0.39477 0.15640301 0.154771 5.9091621e-39
-0.37524199 0.168533 0.166757 5.4532342e-39
-0.37416899 0.16920801 0.16741601 5.9167333e-39
-0.39315 0.142252 0.152751 1.1156743e-38
-0.39270401 0.14351 0.153118 9.9578427e-39
-0.39264101 0.144999 0.153291 8.2075733e-39
-0.392961 0.146727 0.153271 6.827164e-39
-0.39289799 0.148221 0.15344501 6.3679837e-39
-0.39321899 0.149957 0.15342601 6.3679837e-39
-0.39354101 0.15169901 0.15340699 6.3679823e-39
-0.39386401 0.153447 0.15338799 6.2765069e-39
-0.393801 0.15495101 0.15356299 6.1853903e-39
-0.393352 0.156205 0.15393101 5.909881e-39
-0.39328799 0.157709 0.15410601 5.9088034e-39
-0.42188799 0.179856 0.140117 5.9077244e-39
-0.41905999 0.17965899 0.14168499 5.9073657e-39
-0.418082 0.180686 0.14232799 5.8151728e-39
-0.41801301 0.18232401 0.142519 5.724052e-39
-0.374607 0.168835 0.165617 5.2673997e-39
-0.374208 0.170013 0.16595 5.5465061e-39
-0.37381101 0.171189 0.166282 6.3780646e-39
-0.39321199 0.14449801 0.151311 1.1340777e-38
-0.392764 0.145758 0.15168101 1.0050041e-38
-0.392701 0.147255 0.15185501 8.6671109e-39
-0.393022 0.148994 0.151833 6.9186421e-39
-0.392959 0.15049499 0.152008 6.3672704e-39
-0.39289501 0.151997 0.152182 6.276151e-39
-0.393217 0.15374701 0.152161 6.3687025e-39
-0.39315301 0.15525299 0.152336 6.2772258e-39
-0.393089 0.15676001 0.152511 6.0935534e-39
-0.39302599 0.158268 0.152686 6.0006389e-39
-0.421287 0.17856801 0.138558 5.99992e-39
-0.42075399 0.179915 0.138983 5.9995613e-39
-0.41793501 0.179717 0.140561 5.9073657e-39
-0.41696 0.18074401 0.14120699 5.81517e-39
-0.41644001 0.182073 0.141624 5.7233317e-39
-0.41637099 0.18370999 0.14181399 4.8935767e-39
-0.416302 0.185348 0.142004 3.3309285e-39
-0.37357101 0.17031699 0.16480801 5.5436278e-39
-0.37317401 0.17149501 0.165142 5.7312589e-39
-0.37311301 0.172925 0.165308 6.837961e-39
-0.37372699 0.17487299 0.16514 8.3076862e-39
-0.375366 0.177619 0.164464 9.4086318e-39
-0.39366201 0.147002 0.14966001 1.1525166e-38
-0.39359799 0.148509 0.14983501 1.0511014e-38
-0.393534 0.15001699 0.15001 9.2199189e-39
-0.39346999 0.151526 0.15018401 7.3785371e-39
-0.393406 0.153035 0.150359 6.6438503e-39
-0.39295399 0.15429699 0.150732 6.3683438e-39
-0.39211899 0.155306 0.15130199 6.3683438e-39
-0.39128801 0.15631101 0.151868 6.2765055e-39
-0.391224 0.15781499 0.152043 6.18467e-39
-0.421078 0.179244 0.13695 6.1835924e-39
-0.42008099 0.180283 0.137615 6.0917555e-39
-0.418174 0.18069801 0.138742 5.9995599e-39
-0.41674101 0.181417 0.13962699 5.9073643e-39
-0.416219 0.18275 0.140046 5.9070027e-39
-0.41525 0.183769 0.14069299 4.7091854e-39
-0.41518 0.185407 0.140883 3.2380168e-39
-0.41510999 0.18704601 0.141073 2.2267473e-39
-0.41459301 0.18837 0.14149 1.9515996e-39
-0.41407701 0.18969101 0.14190499 1.7682887e-39
-0.41356301 0.191009 0.14232001 1.770081e-39
-0.37259501 0.170369 0.16383301 5.6340228e-39
-0.372199 0.171547 0.164167 5.6358248e-39
-0.372473 0.173233 0.16416501 5.916369e-39
-0.37444401 0.176226 0.163313 7.2975e-39
-0.37575299 0.17873199 0.16279501 8.7683056e-39
-0.39333701 0.149046 0.148396 1.1434049e-38
-0.392497 0.150069 0.148973 1.0787602e-38
-0.39243299 0.15157799 0.149147 9.4954324e-39
-0.39236799 0.153088 0.149322 7.6536876e-39
-0.391918 0.15435 0.14969601 6.7342537e-39
-0.391085 0.155359 0.150268 6.3672676e-39
-0.389496 0.155863 0.15122899 6.2757908e-39
-0.42001 0.177642 0.13562 6.3690599e-39
-0.420403 0.179612 0.135573 6.2765055e-39
-0.419406 0.18065199 0.136242 6.1839511e-39
-0.418874 0.181999 0.13667101 6.0002802e-39
-0.41697401 0.18240499 0.137803 5.9999186e-39
-0.415997 0.18343 0.13846 5.8151658e-39
-0.415025 0.18445 0.13911299 3.9734196e-39
-0.41405901 0.18546499 0.139762 2.4093421e-39
-0.41398799 0.187105 0.139952 1.6746568e-39
-0.413472 0.188429 0.140369 1.4920606e-39
-0.412958 0.18975 0.14078601 1.7679258e-39
-0.412444 0.19106799 0.141202 1.5860513e-39
-0.41237399 0.19270501 0.14139099 2.2303431e-39
-0.37155801 0.17185301 0.16302299 5.6343843e-39
-0.373521 0.174835 0.162163 5.8212937e-39
-0.374825 0.177332 0.16163801 6.5606594e-39
-0.392232 0.150611 0.147531 1.170992e-38
-0.391395 0.151631 0.14811 1.0971997e-38
-0.390946 0.15289301 0.148486 9.9560476e-39
-0.389734 0.153658 0.149259 8.5749166e-39
-0.38853201 0.15441699 0.15002701 7.4703726e-39
-0.38696399 0.15492401 0.150985 6.6438489e-39
-0.41933399 0.17800801 0.134241 6.093552e-39
-0.41972601 0.17998201 0.13419101 6.2765055e-39
-0.41872901 0.181022 0.134865 6.2761496e-39
-0.41773799 0.18205699 0.135535 6.0924772e-39
-0.41675299 0.183088 0.13620099 6.0002773e-39
-0.415773 0.18411399 0.13686401 5.3549079e-39
-0.41479799 0.18513501 0.137523 3.1440233e-39
-0.41383001 0.186152 0.13817801 1.947285e-39
-0.412866 0.18716399 0.13883001 1.3973454e-39
-0.41279599 0.188804 0.139019 1.398423e-39
-0.412725 0.190447 0.139209 1.6750113e-39
-0.41265401 0.19209 0.13939799 1.6760931e-39
-0.41214001 0.19340999 0.139817 2.6888045e-39
-0.41162601 0.194727 0.14023399 4.0695767e-39
-0.411998 0.196698 0.140196 5.3574345e-39
-0.390358 0.151684 0.147073 1.1803556e-38
-0.38876599 0.152207 0.148054 1.1524807e-38
-0.38756701 0.152971 0.148826 1.0603572e-38
-0.38675201 0.15397599 0.149395 1.0049319e-38
-0.41804999 0.181393 0.13348401 7.2863456e-39
-0.41660199 0.182116 0.134399 6.5512959e-39
-0.414713 0.182522 0.135544 5.9991983e-39
-0.41419101 0.18385901 0.13597 4.7095427e-39
-0.41411999 0.185509 0.13616 2.4975791e-39
-0.413151 0.186526 0.13682 1.6699722e-39
-0.412633 0.18785501 0.137243 1.3955433e-39
-0.41256201 0.189501 0.13743199 1.3969839e-39
-0.41204599 0.190826 0.13785399 1.5817381e-39
-0.41197401 0.192472 0.138044 1.5821038e-39
-0.41146001 0.193793 0.138464 3.4227696e-39
-0.41094601 0.195112 0.13888399 4.804618e-39
-0.41087499 0.196757 0.139073 5.5414614e-39
-0.386538 0.153023 0.147797 1.1619162e-38
-0.38572499 0.154028 0.148369 1.1617002e-38
-0.41644999 0.18113901 0.132587 9.4082688e-39
-0.413205 0.180622 0.134463 6.7349683e-39
-0.41313401 0.18226901 0.134652 4.5258759e-39
-0.41306201 0.183918 0.134841 3.0525479e-39
-0.41254199 0.185252 0.135268 2.0373212e-39
-0.412471 0.186901 0.13545699 1.4859425e-39
-0.411953 0.18823101 0.13588201 1.4870201e-39
-0.41143599 0.189559 0.136307 1.4884592e-39
-0.41136399 0.19120701 0.13649601 1.4891823e-39
-0.410849 0.192531 0.13691901 1.67214e-39
-0.410777 0.194178 0.137108 3.0536297e-39
-0.41026399 0.195498 0.13753 3.6989991e-39
-0.41019201 0.197145 0.13771901 3.9759462e-39
-0.41012001 0.19879401 0.137908 3.8851883e-39
-0.41214901 0.17903399 0.133146 1.0697204e-38
-0.410741 0.179759 0.134051 9.4025053e-39
-0.41111299 0.18170799 0.134001 7.4660468e-39
-0.41104099 0.18335199 0.13418999 4.9792983e-39
-0.411414 0.185311 0.13414 2.4043087e-39
-0.411342 0.186959 0.13432901 1.30264e-39
-0.41126999 0.188609 0.134518 1.487383e-39
-0.41075301 0.18993901 0.13494401 1.9487185e-39
-0.410238 0.191266 0.13537 2.2245865e-39
-0.41016501 0.19291399 0.13555899 2.7763212e-39
-0.40965199 0.19423699 0.13598301 5.3527541e-39
-0.40913901 0.195558 0.136406 6.732446e-39
-0.409067 0.19720501 0.136595 7.0997894e-39
-0.408995 0.198853 0.136784 6.8235668e-39
-0.40968901 0.178178 0.13274001 1.1250022e-38
-0.40961701 0.17981701 0.132927 1.0972349e-38
-0.409545 0.181458 0.13311499 8.3908869e-39
-0.409915 0.18341 0.133064 4.8903467e-39
-0.40984201 0.185055 0.13325199 2.1295238e-39
-0.41021299 0.18701801 0.133201 1.0285741e-39
-0.41014001 0.188668 0.133389 1.4902655e-39
-0.41006801 0.190319 0.133578 3.605e-39
-0.40955201 0.19164699 0.13400599 4.2489275e-39
-0.40903801 0.192973 0.134432 5.5382202e-39
-0.408966 0.19462299 0.13462099 9.5872595e-39
-0.408014 0.19561701 0.13528199 1.0508135e-38
-0.40805301 0.17957 0.132044 1.1804269e-38
-0.40798101 0.181208 0.132231 8.2075775e-39
-0.40790799 0.18284801 0.13241801 4.4311692e-39
-0.40871501 0.185114 0.13212501 2.2238747e-39
-0.40864199 0.18675999 0.132313 2.1349132e-39
-0.40901101 0.18872701 0.13225999 3.7011529e-39
-0.40893799 0.190378 0.132449 4.9904554e-39
-0.408865 0.19203 0.13263699 6.2768726e-39
-0.408351 0.193358 0.133066 8.30265e-39
-0.40696201 0.19403 0.13396899 1.0976674e-38
-0.40688899 0.195676 0.134157 1.1528766e-38
-0.40693 0.179628 0.130922 1.1986141e-38
-0.406858 0.18126599 0.131109 7.4682174e-39
-0.40678501 0.182906 0.131295 4.1574578e-39
-0.406712 0.18454701 0.13148201 2.5969704e-39
-0.40751499 0.186819 0.13118599 3.150863e-39
-0.40788099 0.188786 0.13113099 5.544704e-39
-0.40824899 0.190759 0.13107701 5.363198e-39
-0.40861699 0.19273999 0.13102201 7.2035023e-39
-0.40810201 0.19407 0.13145401 9.6884557e-39
-0.407148 0.195069 0.132126 1.1528047e-38
-0.40537199 0.179381 0.130043 1.1341136e-38
-0.40529901 0.181017 0.130229 6.7310181e-39
-0.40522599 0.18265501 0.13041499 3.7011557e-39
-0.40515301 0.184293 0.130601 2.6920471e-39
-0.405514 0.18624701 0.13054501 4.0731809e-39
-0.406313 0.188526 0.130246 6.6514103e-39
-0.40711701 0.190819 0.129945 5.9167305e-39
-0.40748399 0.192799 0.129889 8.1261774e-39
-0.40740901 0.19445799 0.130077 1.0333466e-38
-0.404324 0.17780399 0.128736 1.134366e-38
-0.40425101 0.17943899 0.128922 9.7763395e-39
-0.40417701 0.18107601 0.129107 5.628632e-39
-0.40410399 0.182713 0.12929299 3.0586688e-39
-0.40403 0.184352 0.12947901 2.6924128e-39
-0.403956 0.185991 0.129665 4.7181929e-39
-0.40474999 0.18826599 0.129363 7.3886152e-39
-0.40554699 0.19055501 0.12906 7.11275e-39
-0.40634999 0.19285899 0.128755 9.1378084e-39
-0.406275 0.194517 0.128943 1.0884839e-38
-0.40320301 0.177862 0.127615 1.0882684e-38
-0.40312901 0.179497 0.1278 8.3952099e-39
-0.40305501 0.181134 0.127985 4.9868555e-39
-0.40298101 0.182771 0.128171 2.8757153e-39
-0.40290701 0.18441001 0.12835599 2.9693585e-39
-0.40283301 0.18605 0.12854201 5.1802501e-39
-0.40362301 0.188325 0.12823699 7.5748085e-39
-0.403548 0.189972 0.12842301 8.309131e-39
-0.404778 0.192592 0.12786999 1.0241272e-38
-0.402082 0.17792 0.12649401 1.0422066e-38
-0.40200701 0.179555 0.126679 7.1055571e-39
-0.40193301 0.181192 0.126864 4.2525331e-39
-0.40185899 0.18282899 0.127049 2.7846001e-39
-0.401784 0.184468 0.127234 3.7065578e-39
-0.40171 0.18610799 0.12741899 5.3671609e-39
-0.40206501 0.18806601 0.12735701 7.0248802e-39
-0.402421 0.19003101 0.127296 8.6789939e-39
-0.40053201 0.17767499 0.125622 9.6837823e-39
-0.40088499 0.17961299 0.12555701 6.0010074e-39
-0.40081 0.18125001 0.125742 3.5189281e-39
-0.40030801 0.182579 0.126174 3.1519462e-39
-0.40066099 0.18452699 0.126111 4.8111018e-39
-0.40058601 0.186167 0.126296 5.7352245e-39
-0.400511 0.18780801 0.126481 6.8408532e-39
-0.40086401 0.18977 0.12641799 8.9559423e-39
-0.39948699 0.176101 0.124319 1.2356004e-38
-0.39941201 0.177733 0.124502 8.8529455e-39
-0.39933699 0.17936701 0.124686 5.2638053e-39
-0.39926201 0.18100099 0.12487 3.3345424e-39
-0.399187 0.18263701 0.125054 3.5200141e-39
-0.39911199 0.184274 0.125238 6.560651e-39
-0.39946201 0.186226 0.125172 6.2876739e-39
-0.399387 0.187867 0.125357 7.0256004e-39
-0.39973801 0.18982901 0.125292 9.2336054e-39
-0.39836699 0.176158 0.123199 1.1710999e-38
-0.39829201 0.177791 0.123382 8.0231904e-39
-0.39821601 0.179424 0.123565 4.8035502e-39
-0.398141 0.181059 0.123749 3.334904e-39
-0.398065 0.182695 0.123932 3.8891582e-39
-0.39798999 0.184332 0.124116 7.5740827e-39
-0.39833799 0.18628401 0.124049 7.1141933e-39
-0.39826199 0.18792599 0.124233 8.311296e-39
-0.398186 0.189569 0.124417 1.0151602e-38
-0.39724699 0.17621601 0.122079 1.0605743e-38
-0.39717099 0.17784899 0.122262 6.8271724e-39
-0.39709499 0.179482 0.122445 4.2532561e-39
-0.39702001 0.181117 0.122628 3.4281772e-39
-0.39694399 0.182753 0.122811 4.5345262e-39
-0.39686799 0.18439101 0.122994 7.484415e-39
-0.397214 0.186343 0.122925 8.2194563e-39
-0.397138 0.187984 0.123109 9.7824618e-39
-0.39620301 0.174642 0.120777 1.1896113e-38
-0.39612699 0.176274 0.120959 8.856551e-39
-0.39605001 0.17790601 0.121142 5.4482022e-39
-0.39597401 0.17953999 0.121324 3.7944374e-39
-0.39589801 0.18117499 0.121507 3.7969569e-39
-0.39582199 0.18281201 0.12169 5.0887789e-39
-0.396166 0.18476 0.121618 6.9352097e-39
-0.39609 0.18640099 0.121801 8.9570227e-39
-0.39601299 0.188043 0.121985 1.0702256e-38
-0.39508301 0.17470001 0.119657 1.1158908e-38
-0.395006 0.176331 0.119839 7.2895882e-39
-0.39492899 0.177964 0.120021 4.3450972e-39
-0.394853 0.179598 0.120203 3.5196512e-39
-0.39477599 0.181233 0.120386 4.2586539e-39
-0.39469999 0.18287 0.120568 5.4593593e-39
-0.395042 0.184819 0.120494 6.5682306e-39
-0.39496499 0.18646 0.120677 8.9588262e-39
-0.393545 0.17445999 0.118796 1.0880521e-38
-0.39388499 0.17638899 0.118719 6.6434972e-39
-0.39380801 0.178022 0.1189 3.8873533e-39
-0.39331499 0.179352 0.11934 3.704404e-39
-0.39323801 0.180985 0.119522 5.2717255e-39
-0.39357701 0.182928 0.119446 6.2880396e-39
-0.39391801 0.18487699 0.119371 6.6593473e-39
-0.39383999 0.186518 0.119553 8.8691473e-39
-0.39250299 0.17288899 0.117497 1.2448204e-38
-0.39242601 0.17451701 0.117677 9.9592916e-39
-0.392349 0.176147 0.117858 5.9988508e-39
-0.392272 0.17777801 0.118039 3.52037e-39
-0.39219499 0.17941 0.11822 3.7058473e-39
-0.39211699 0.181043 0.118402 6.3784289e-39
-0.39245501 0.18298601 0.118324 7.2096273e-39
-0.392793 0.184936 0.118247 7.2103518e-39
-0.39271501 0.18657701 0.118429 9.233611e-39
-0.39138499 0.17294601 0.116378 1.1619889e-38
-0.391307 0.174575 0.116559 8.4870482e-39
-0.39122999 0.17620499 0.116739 5.2645256e-39
-0.39115199 0.177836 0.11692 3.9806265e-39
-0.391074 0.17946801 0.1171 3.9827985e-39
-0.39099699 0.18110099 0.117281 6.6575382e-39
-0.391332 0.183044 0.117202 7.3947403e-39
-0.39166799 0.184994 0.117122 8.312375e-39
-0.39034399 0.171376 0.11508 1.2817702e-38
-0.390266 0.173003 0.11526 1.0331314e-38
-0.39018801 0.174632 0.11544 7.1077165e-39
-0.38969901 0.175964 0.115882 4.7145916e-39
-0.38962099 0.17759299 0.116062 4.165738e-39
-0.389543 0.179223 0.116242 4.1693492e-39
-0.38987601 0.181159 0.116161 6.2920039e-39
-0.39020899 0.183103 0.11608 7.2121525e-39
-0.390544 0.18505301 0.115998 8.8655445e-39
-0.38922501 0.171433 0.113962 1.2633668e-38
-0.38914701 0.173061 0.114141 8.9491012e-39
-0.388659 0.174393 0.114585 5.8198574e-39
-0.38858101 0.17602099 0.114764 4.2568547e-39
-0.38850299 0.17765 0.114944 4.3512097e-39
-0.38842401 0.17928 0.115124 4.9998231e-39
-0.38875499 0.181217 0.11504 6.1097734e-39
-0.389498 0.18347 0.114693 7.2128742e-39
-0.38941899 0.185111 0.114874 9.3258038e-39
-0.38769799 0.171198 0.113109 1.2080853e-38
-0.38762 0.172824 0.113288 8.026426e-39
-0.387541 0.17445099 0.113467 5.1755698e-39
-0.38705599 0.175781 0.113911 4.1660996e-39
-0.38697699 0.17740799 0.11409 4.7210712e-39
-0.38689899 0.17903601 0.114269 6.4742217e-39
-0.38722599 0.18097 0.114184 6.2019676e-39
-0.387963 0.183219 0.113834 7.6734922e-39
-0.388293 0.18516999 0.113749 1.0062287e-38
-0.386581 0.17125501 0.111992 1.1251819e-38
-0.386502 0.17288101 0.112171 7.1970311e-39
-0.38601801 0.17421199 0.112616 4.900422e-39
-0.385939 0.17583799 0.112794 4.1675401e-39
-0.385456 0.177166 0.113238 5.1831298e-39
-0.38578099 0.179093 0.113152 7.5802049e-39
-0.38610601 0.18102799 0.113065 6.6611409e-39
-0.38643301 0.18296801 0.112978 8.3174168e-39
-0.38716799 0.18522801 0.112624 1.0706213e-38
-0.385463 0.171312 0.110875 1.0331315e-38
-0.38497999 0.172645 0.111321 6.3701543e-39
-0.38490099 0.17427 0.111499 4.6259973e-39
-0.38441899 0.175598 0.111945 4.1689848e-39
-0.38433999 0.177223 0.112123 5.4611628e-39
-0.38426101 0.178849 0.112301 7.5820098e-39
-0.38498601 0.18108501 0.111946 7.3050642e-39
-0.38531101 0.183027 0.111857 9.41944e-39
-0.38604301 0.185287 0.111499 1.1532372e-38
-0.38394299 0.171078 0.110028 8.7665134e-39
-0.38386399 0.172702 0.110205 5.5454299e-39
-0.38338301 0.174032 0.110652 4.4437669e-39
-0.38290399 0.175359 0.111097 4.2619049e-39
-0.382824 0.176982 0.111274 5.5558808e-39
-0.38314399 0.17890701 0.111185 7.4005038e-39
-0.38346499 0.180838 0.111094 8.4088922e-39
-0.38282701 0.17113499 0.108912 7.5683317e-39
-0.382348 0.17246599 0.10936 4.6267162e-39
-0.38187 0.173795 0.109806 4.2604574e-39
-0.38139299 0.17512099 0.110252 4.6328371e-39
-0.381313 0.176741 0.110429 5.6498729e-39
-0.382027 0.178964 0.110068 6.8484202e-39
-0.382346 0.180896 0.109976 8.5014522e-39
-0.38139299 0.16928101 0.107892 1.1159267e-38
-0.381313 0.170901 0.108068 6.831131e-39
-0.38044 0.17194 0.108787 4.3526516e-39
-0.379572 0.17297401 0.109502 4.169345e-39
-0.37949201 0.17458899 0.109677 5.4615159e-39
-0.38019899 0.176799 0.109316 6.0175778e-39
-0.380514 0.178721 0.109222 6.6633115e-39
-0.38082999 0.18065 0.109129 8.7783964e-39
-0.37996301 0.16743299 0.106876 1.2725512e-38
-0.37988299 0.16904999 0.107051 9.961814e-39
-0.379408 0.170379 0.107499 6.0960883e-39
-0.37815201 0.171128 0.108487 3.9863886e-39
-0.37807199 0.17274 0.108662 4.0785941e-39
-0.377992 0.17435201 0.108837 6.1994411e-39
-0.37908599 0.176856 0.108203 6.4781902e-39
-0.379399 0.17877901 0.108107 7.3061516e-39
-0.379713 0.18070801 0.108012 9.5123573e-39
-0.37845799 0.16720501 0.106038 1.1713167e-38
-0.37837699 0.16881999 0.106213 8.3984567e-39
-0.37712499 0.16957401 0.107205 5.362126e-39
-0.376656 0.17089599 0.107651 4.0785871e-39
-0.37618899 0.172216 0.108095 4.1718715e-39
-0.376883 0.174409 0.107729 6.6622199e-39
-0.377581 0.176616 0.107362 7.2146706e-39
-0.377891 0.178536 0.107265 8.3163392e-39
-0.37859499 0.180765 0.106895 1.0337439e-38
-0.37656701 0.166694 0.105476 1.0332756e-38
-0.37609801 0.16802 0.105924 6.9272881e-39
-0.375245 0.16905899 0.106643 4.812192e-39
-0.375164 0.170665 0.106816 4.2626182e-39
-0.37508401 0.172273 0.10699 4.6339231e-39
-0.375774 0.174466 0.106621 6.5721865e-39
-0.37569299 0.176081 0.106795 7.3994234e-39
-0.37638801 0.178293 0.106425 9.4198015e-39
-0.37553999 0.165141 0.104195 1.3093928e-38
-0.37468699 0.166187 0.104918 9.2264097e-39
-0.37422201 0.16751 0.105365 6.0074912e-39
-0.37375799 0.16883101 0.105811 4.5377618e-39
-0.37367699 0.170435 0.105984 4.5392037e-39
-0.37359601 0.172041 0.106157 5.3718412e-39
-0.37428099 0.17423099 0.105786 6.1119356e-39
-0.37458399 0.176138 0.105686 7.307232e-39
-0.37527499 0.178351 0.105312 9.8796965e-39
-0.37366301 0.164637 0.10364 1.2908099e-38
-0.373198 0.165962 0.104088 8.5810431e-39
-0.37273601 0.167284 0.104535 5.5475935e-39
-0.37227401 0.168604 0.104981 4.3544523e-39
-0.37219301 0.170206 0.105154 4.7243166e-39
-0.372491 0.172097 0.105053 6.2008802e-39
-0.373173 0.174288 0.104678 5.8349914e-39
-0.373474 0.176195 0.104577 7.3990661e-39
-0.37416199 0.178408 0.1042 1.0247394e-38
-0.37217599 0.164415 0.102812 1.2080506e-38
-0.371714 0.165738 0.103261 7.6612532e-39
-0.371254 0.167059 0.103708 4.9969406e-39
-0.37117201 0.16866 0.10388 4.1711456e-39
-0.37108999 0.17026199 0.104052 4.909431e-39
-0.371387 0.17215399 0.103949 6.5700229e-39
-0.37206501 0.174345 0.103571 6.0182966e-39
-0.372365 0.17625199 0.103468 8.3174154e-39
-0.37304801 0.17846601 0.103087 1.0981714e-38
-0.37115401 0.16286799 0.101537 1.3093932e-38
-0.37107199 0.164471 0.101709 1.0424596e-38
-0.37061101 0.165794 0.102158 6.3755577e-39
-0.370152 0.167115 0.102606 4.7225146e-39
-0.36969399 0.168433 0.103054 4.2640615e-39
-0.36998799 0.17031901 0.10295 5.0949026e-39
-0.37028301 0.17221101 0.102845 6.7547771e-39
-0.37057799 0.174109 0.102741 6.5700257e-39
-0.370875 0.17601401 0.102636 9.6938675e-39
-0.37005001 0.16292401 0.100433 1.2818062e-38
-0.369591 0.164249 0.100884 8.4913712e-39
-0.36913201 0.165571 0.101334 5.5497515e-39
-0.36867499 0.16689 0.101782 4.5388408e-39
-0.36859301 0.16848899 0.101953 4.4488087e-39
-0.36888501 0.170375 0.101847 5.3729272e-39
-0.36880299 0.171979 0.102019 6.6643835e-39
-0.369095 0.173875 0.101913 7.2143105e-39
-0.369389 0.175777 0.101807 1.0704775e-38
-0.36857101 0.16270401 0.099611104 1.2264531e-38
-0.36811301 0.16402701 0.100062 7.4772207e-39
-0.368031 0.165627 0.100232 4.9976595e-39
-0.36757499 0.16694599 0.100682 4.4462878e-39
-0.36749199 0.16854499 0.100853 4.9087065e-39
-0.367782 0.170432 0.100745 5.6498729e-39
-0.367699 0.17203601 0.100916 6.3892372e-39
-0.367616 0.173641 0.101087 7.674211e-39
-0.36790699 0.17554 0.10098 1.1440178e-38
-0.36792499 0.16143399 0.098055497 1.3093929e-38
-0.36709499 0.162485 0.098790802 1.1345097e-38
-0.36701199 0.164083 0.098960802 6.8332918e-39
-0.366557 0.16540401 0.099411704 4.4470081e-39
-0.366474 0.16700201 0.0995818 4.3551754e-39
-0.366391 0.168602 0.099751897 5.7391804e-39
-0.36667901 0.170488 0.099642098 6.1104853e-39
-0.36659601 0.17209201 0.099812798 6.2948863e-39
-0.36651301 0.17369699 0.099983498 8.1341102e-39
-0.36680099 0.175597 0.099874303 1.199155e-38
-0.36607701 0.160943 0.097520299 1.2725509e-38
-0.36599401 0.16254 0.0976898 9.9643321e-39
-0.36554 0.163862 0.098141998 6.0986093e-39
-0.36545601 0.16546001 0.098311603 4.4466465e-39
-0.365004 0.166778 0.098762602 4.3558942e-39
-0.36528999 0.168658 0.098650999 6.0157729e-39
-0.365576 0.170545 0.0985393 6.3859932e-39
-0.36549199 0.172149 0.098709598 7.1213988e-39
-0.36540899 0.17375401 0.09888 9.7878638e-39
-0.36460701 0.160726 0.096704103 1.1988666e-38
-0.36452299 0.162321 0.096873 8.307696e-39
-0.36443999 0.163918 0.097042099 5.1809732e-39
-0.36398801 0.16523699 0.097494297 4.5381247e-39
-0.363904 0.166834 0.097663403 4.4488115e-39
-0.36418799 0.168714 0.0975499 6.1097692e-39
-0.364104 0.170315 0.097719498 6.7544169e-39
-0.364389 0.172205 0.097606197 8.4081719e-39
-0.36430499 0.173811 0.097776197 1.1624931e-38
-0.363507 0.16078199 0.095604703 1.1159987e-38
-0.36342299 0.162377 0.095773302 6.9272853e-39
-0.36333901 0.163974 0.095941901 4.6303203e-39
-0.36288899 0.16529299 0.096395299 4.4466493e-39
-0.36280501 0.16689 0.096564002 4.7264774e-39
-0.363087 0.168771 0.096448697 5.8357047e-39
-0.363002 0.17037199 0.096617803 6.5718264e-39
-0.36291799 0.171974 0.096787103 8.960624e-39
-0.362492 0.159243 0.094337098 1.3370879e-38
-0.362407 0.16083699 0.094505198 1.0330955e-38
-0.361958 0.162159 0.0949599 6.2822831e-39
-0.36187401 0.163753 0.095128 4.3544579e-39
-0.36178899 0.16534901 0.095296197 4.4470137e-39
-0.36170501 0.16694599 0.095464498 5.4640383e-39
-0.361985 0.168827 0.0953473 5.6513176e-39
-0.3619 0.17042799 0.095516004 6.6633059e-39
-0.36181501 0.172031 0.095684901 9.6045515e-39
-0.361029 0.15902799 0.093526296 1.2634401e-38
-0.360944 0.160621 0.0936938 9.1345826e-39
-0.36085901 0.162214 0.093861401 5.6390759e-39
-0.36077499 0.163809 0.094029099 4.3544565e-39
-0.36069 0.16540501 0.094196901 4.6314063e-39
-0.360605 0.16700201 0.0943648 6.2008802e-39
-0.36052001 0.16859999 0.0945329 5.7424328e-39
-0.360798 0.170485 0.0944141 7.3979871e-39
-0.36071301 0.172087 0.094582602 1.0339593e-38
-0.35993001 0.15908401 0.092428297 1.1346185e-38
-0.35984501 0.160676 0.092595398 7.5726561e-39
-0.35975999 0.16226999 0.092762597 4.9973022e-39
-0.35967499 0.163865 0.092929997 4.4470095e-39
-0.35958999 0.165461 0.093097404 4.8168752e-39
-0.359505 0.16705801 0.093264997 6.4781902e-39
-0.35941899 0.16865601 0.093432598 6.1101293e-39
-0.35933399 0.170256 0.0936004 8.5925632e-39
-0.359249 0.171856 0.093768403 1.1441976e-38
-0.358917 0.157547 0.091163598 1.3923325e-38
-0.358832 0.15913901 0.0913302 9.7810198e-39
-0.35874701 0.160732 0.0914969 6.2855173e-39
-0.358661 0.16232599 0.091663703 4.6306805e-39
-0.358576 0.163921 0.091830701 4.4480899e-39
-0.35848999 0.165517 0.091997802 4.8193947e-39
-0.35840401 0.167114 0.092164896 6.2959639e-39
-0.35831901 0.168713 0.092332199 6.5703844e-39
-0.358233 0.170312 0.092499703 9.9711718e-39
-0.35781899 0.157603 0.090065598 1.3555262e-38
-0.35773301 0.15919501 0.090231903 8.6739576e-39
-0.35764799 0.160787 0.0903982 5.6405108e-39
-0.35756201 0.16238099 0.090564698 4.5384876e-39
-0.357476 0.163977 0.090731204 4.540647e-39
-0.35738999 0.165573 0.090897903 5.0970606e-39
-0.35730401 0.16717 0.091064803 5.928266e-39
-0.357218 0.168769 0.091231696 6.8469727e-39
-0.35713199 0.170368 0.091398701 1.079877e-38
-0.35672101 0.157658 0.088967502 1.2726228e-38
-0.356635 0.15925001 0.089133397 8.2126235e-39
-0.35654899 0.160843 0.089299299 5.2720912e-39
-0.356462 0.16243701 0.089465402 4.3548166e-39
-0.35637599 0.164032 0.089631602 4.9094267e-39
-0.35629001 0.165629 0.089797899 6.017212e-39
-0.35620299 0.167226 0.089964397 5.7431545e-39
-0.35611701 0.168825 0.090130903 7.5827371e-39
-0.35602999 0.170425 0.090297602 1.1441259e-38
-0.35535401 0.155857 0.087999701 1.3462716e-38
-0.35526699 0.157446 0.088164799 1.1253993e-38
-0.35553601 0.15930501 0.088034697 7.0187621e-39
-0.35544899 0.160898 0.088200301 4.9058254e-39
-0.35536301 0.16249301 0.088366002 4.3555369e-39
-0.35527599 0.164088 0.0885318 5.1870926e-39
-0.355189 0.165685 0.088697799 6.2948765e-39
-0.355102 0.167282 0.088863902 6.293443e-39
-0.35501599 0.168881 0.089029998 9.144658e-39
-0.354929 0.170481 0.089196302 1.217666e-38
-0.35390401 0.15564799 0.087199703 1.3095367e-38
-0.35416999 0.157501 0.087067902 8.7665218e-39
-0.35443699 0.159361 0.0869359 5.6408709e-39
-0.35435 0.160954 0.087101102 4.8136312e-39
-0.35426301 0.16254801 0.0872664 4.4477339e-39
-0.35417601 0.16414399 0.0874319 5.2800127e-39
-0.35408899 0.165741 0.087597497 6.3870764e-39
-0.35400099 0.167339 0.087763198 7.0292018e-39
-0.35391399 0.168938 0.087929003 1.1166474e-38
-0.352458 0.15544 0.086401701 1.3093569e-38
-0.35272199 0.15729 0.086268596 7.8438438e-39
-0.35298601 0.15914699 0.086135298 4.7225174e-39
-0.35325 0.16101 0.086001702 4.3544565e-39
-0.353163 0.162604 0.086166702 4.5410086e-39
-0.353075 0.16419999 0.0863318 5.2814547e-39
-0.352988 0.165797 0.086497001 6.2037697e-39
-0.3529 0.167395 0.0866623 7.6738481e-39
-0.35281301 0.16899399 0.086827703 1.1992274e-38
-0.35136399 0.155495 0.085307799 1.2080866e-38
-0.35197499 0.157612 0.084873497 7.1073648e-39
-0.351888 0.15920199 0.085037701 4.5381275e-39
-0.35179999 0.16079301 0.085201897 4.2633399e-39
-0.352063 0.16266 0.085066803 5.0941767e-39
-0.35197499 0.16425601 0.085231498 5.5580374e-39
-0.35188699 0.16585299 0.085396297 6.1115755e-39
-0.35179901 0.16745099 0.085561298 8.0422747e-39
-0.351711 0.16904999 0.085726298 1.2085546e-38
-0.35035801 0.15396599 0.0840507 1.3095012e-38
-0.35027 0.155549 0.084213801 1.0241283e-38
-0.350878 0.157667 0.083776101 6.1904448e-39
-0.35078999 0.15925699 0.083939902 4.6299602e-39
-0.35070199 0.160849 0.084103703 4.3555355e-39
-0.35096201 0.162716 0.083966702 5.7399021e-39
-0.35087401 0.16431201 0.084131002 6.2023208e-39
-0.350786 0.16590901 0.084295496 6.9377278e-39
-0.35069701 0.16750699 0.084460102 9.6045529e-39
-0.350261 0.168823 0.084924899 1.3005338e-38
-0.349264 0.15402 0.082956903 1.2542916e-38
-0.34952101 0.15586799 0.0828178 8.4924488e-39
-0.349433 0.157455 0.082980901 5.0894964e-39
-0.34969199 0.15931299 0.082841903 4.4459319e-39
-0.349603 0.16090401 0.083005399 4.4484514e-39
-0.34986201 0.162771 0.0828664 5.7413482e-39
-0.34977299 0.164368 0.083030403 6.2948779e-39
-0.349684 0.16596501 0.083194502 7.7649647e-39
-0.34924901 0.167282 0.083660603 1.1166475e-38
-0.34851399 0.154337 0.081559397 1.2265972e-38
-0.348425 0.15592299 0.081721902 7.3861055e-39
-0.34833699 0.157511 0.0818846 4.7228733e-39
-0.348248 0.159099 0.082047403 4.538482e-39
-0.34850401 0.16096 0.0819069 4.7261145e-39
-0.34876099 0.162827 0.081766002 5.74243e-39
-0.348672 0.164423 0.081929602 6.3874365e-39
-0.34858301 0.166021 0.082093298 8.5929219e-39
-0.348149 0.167338 0.082560599 1.2177382e-38
-0.347507 0.152807 0.080301598 1.3832579e-38
-0.34741801 0.154392 0.0804637 1.125291e-38
-0.34732899 0.15597799 0.080625899 6.8332946e-39
-0.34724 0.157566 0.080788203 4.6306791e-39
-0.34715101 0.159154 0.080950603 4.4473668e-39
-0.34740499 0.161015 0.0808082 5.555871e-39
-0.34766001 0.162883 0.080665402 5.7424314e-39
-0.34757099 0.164479 0.080828696 6.4792734e-39
-0.34748101 0.166077 0.080991998 9.3290464e-39
-0.34704801 0.167395 0.081460401 1.2913143e-38
-0.34641099 0.152861 0.079206102 1.2911708e-38
-0.346322 0.154447 0.079367802 9.7810268e-39
-0.34623301 0.15603299 0.079529703 6.0989694e-39
-0.34614301 0.157621 0.079691596 4.6303217e-39
-0.34605399 0.15921 0.079853699 4.6306875e-39
-0.346306 0.161071 0.079709299 6.2005215e-39
-0.34655899 0.162939 0.079564698 5.926101e-39
-0.34646901 0.164535 0.079727501 7.3057915e-39
-0.34638 0.166133 0.079890497 1.0432509e-38
-0.34531599 0.152916 0.078110501 1.18068e-38
-0.34522599 0.154502 0.078271799 7.9410785e-39
-0.34513599 0.15608799 0.078433298 5.1809746e-39
-0.345047 0.157676 0.078594796 4.5384848e-39
-0.34495699 0.159265 0.078756496 4.8161563e-39
-0.34520701 0.161127 0.078610301 6.385996e-39
-0.345458 0.162994 0.078463703 6.2938017e-39
-0.345368 0.164591 0.078626201 8.867711e-39
-0.34527799 0.166189 0.078788802 1.1902594e-38
-0.34422001 0.152971 0.0770147 1.1252906e-38
-0.34413001 0.154557 0.077175602 6.835454e-39
-0.34403899 0.15614299 0.077336699 4.6299644e-39
-0.34394899 0.157731 0.0774979 4.5388464e-39
-0.34385899 0.15932 0.077659197 5.002344e-39
-0.34410799 0.161182 0.077511102 6.1112139e-39
-0.344017 0.16277599 0.077672899 6.5700299e-39
-0.344266 0.164647 0.077524804 9.9711746e-39
-0.34383601 0.165966 0.077996701 1.3005339e-38
-0.34321401 0.15144099 0.075758196 1.4385028e-38
-0.34312299 0.153026 0.075918697 1.0607542e-38
-0.34303299 0.15461101 0.076079302 6.3744773e-39
-0.34294301 0.15619799 0.076240003 4.5384876e-39
-0.342852 0.157786 0.076400802 4.7235978e-39
-0.34276199 0.159376 0.076561801 5.6477093e-39
-0.34300801 0.161238 0.076411702 5.7431559e-39
-0.342917 0.16283099 0.076573104 6.8466182e-39
-0.34282601 0.164426 0.076734602 1.0708018e-38
-0.34273499 0.166022 0.076896198 1.3649625e-38
-0.342118 0.15149499 0.074662402 1.3188291e-38
-0.341692 0.15282001 0.075135402 9.1356588e-39
-0.34160101 0.154404 0.075295404 5.7316274e-39
-0.34151 0.15598901 0.075455502 4.4470109e-39
-0.341755 0.157842 0.075303599 4.8168724e-39
-0.34166399 0.159431 0.0754641 6.3845512e-39
-0.34190801 0.161293 0.075312197 5.7424328e-39
-0.34181699 0.16288701 0.075473197 7.8578834e-39
-0.34172601 0.164482 0.075634301 1.1628168e-38
-0.341299 0.16580001 0.076107502 1.3834015e-38
-0.34068799 0.151292 0.073881097 1.1806082e-38
-0.34026399 0.15261599 0.074354097 7.6641315e-39
-0.34017301 0.15419801 0.074513502 5.1813319e-39
-0.340415 0.15604401 0.074359998 4.4473696e-39
-0.34032401 0.15763 0.074519798 4.726476e-39
-0.34056601 0.159486 0.074366301 6.4789091e-39
-0.340808 0.161349 0.074212499 6.2019676e-39
-0.34071699 0.16294301 0.074373104 9.8807769e-39
-0.34062499 0.164538 0.074533902 1.3007496e-38
-0.34001699 0.150021 0.072311103 1.5030032e-38
-0.33926201 0.15109 0.073101699 1.0606463e-38
-0.33917001 0.15267 0.073260702 6.5595846e-39
-0.33907899 0.15425199 0.073419698 4.8139899e-39
-0.33898801 0.155835 0.073578797 4.5395638e-39
-0.33922699 0.157686 0.073423803 4.9115904e-39
-0.33946699 0.15954199 0.073268399 6.0204588e-39
-0.339708 0.161404 0.0731126 6.3870792e-39
-0.339616 0.16299801 0.073272899 1.1720727e-38
-0.33825999 0.149564 0.071850002 1.4200998e-38
-0.33783901 0.150888 0.072324298 9.4090045e-39
-0.33774799 0.152466 0.072482698 5.8234615e-39
-0.33798501 0.15430699 0.072325699 4.538482e-39
-0.33789301 0.15589 0.072484501 4.816508e-39
-0.33813101 0.157741 0.072327502 5.4651201e-39
-0.3387 0.159867 0.071852803 5.6520393e-39
-0.338608 0.16146 0.072012603 6.9384579e-39
-0.338516 0.163054 0.0721725 1.2273899e-38
-0.33683899 0.14936399 0.071074598 1.2451813e-38
-0.33642 0.150686 0.071548998 8.0303959e-39
-0.33665499 0.152521 0.071390398 5.2724485e-39
-0.33656299 0.154101 0.071548499 4.4466493e-39
-0.33679801 0.155945 0.071390003 5.0930977e-39
-0.337363 0.15806299 0.070912801 6.2016005e-39
-0.33759999 0.159922 0.070753001 5.833911e-39
-0.33750799 0.161516 0.070912398 8.5932919e-39
-0.33741501 0.16311 0.0710719 1.3009658e-38
-0.33542201 0.149165 0.070301101 1.0609704e-38
-0.33533001 0.15074 0.070458397 6.5610237e-39
-0.33523801 0.152317 0.070615798 4.9054653e-39
-0.33546999 0.154156 0.0704557 4.5392051e-39
-0.335704 0.156 0.070295297 5.0952571e-39
-0.336265 0.15811799 0.069814697 6.2948779e-39
-0.33649999 0.159978 0.069652997 6.5689509e-39
-0.33640701 0.161571 0.069812 1.0983886e-38
-0.33368599 0.14871299 0.069847599 9.5019148e-39
-0.33391601 0.15053999 0.069686301 5.5493942e-39
-0.33414599 0.152372 0.069524698 4.629963e-39
-0.33437699 0.15421 0.0693627 4.7239565e-39
-0.334934 0.15631901 0.068879798 5.2807274e-39
-0.33516601 0.15817299 0.068716504 6.2034068e-39
-0.33539999 0.160033 0.0685528 7.1210457e-39
-0.33563399 0.1619 0.068388797 1.2547606e-38
-0.33259901 0.14876699 0.06876 8.6721612e-39
-0.332506 0.15033901 0.068916097 5.4564797e-39
-0.33305499 0.152426 0.068433397 4.6299616e-39
-0.33328399 0.154265 0.068269499 5.2767673e-39
-0.333837 0.15637399 0.067783199 5.9250164e-39
-0.334068 0.158228 0.067617998 6.1108566e-39
-0.33462501 0.16035999 0.0671281 7.4905471e-39
-0.33453101 0.161955 0.067286603 1.3192969e-38
-0.33151099 0.14882199 0.067672297 7.3861027e-39
-0.33173701 0.150648 0.067507297 5.1806102e-39
-0.332284 0.152739 0.067019597 4.6303189e-39
-0.33219001 0.15432 0.0671762 5.5540717e-39
-0.33241799 0.156165 0.067010202 6.2016005e-39
-0.33296901 0.15828399 0.066519402 6.5693096e-39
-0.33352301 0.16041499 0.066026099 9.5127174e-39
-0.333428 0.162011 0.0661842 1.3745058e-38
-0.33051601 0.147305 0.066429198 9.1342211e-39
-0.33074099 0.149128 0.066261999 5.6408681e-39
-0.33096501 0.150958 0.066094398 4.8132696e-39
-0.331191 0.152794 0.0659265 4.6310434e-39
-0.33109701 0.154375 0.066082701 5.5551605e-39
-0.33132201 0.15622 0.065914802 6.294522e-39
-0.33186999 0.15833899 0.065420598 7.4901799e-39
-0.33209801 0.1602 0.065251298 1.1996232e-38
-0.332003 0.16179401 0.065408804 1.4112044e-38
-0.32974499 0.147609 0.065017402 8.3941365e-39
-0.329651 0.14918301 0.065172501 5.273166e-39
-0.32987401 0.151013 0.065003 4.6299574e-39
-0.33009699 0.152849 0.064833201 4.8165109e-39
-0.33000299 0.15443 0.064989097 5.5569584e-39
-0.329909 0.156012 0.065145001 6.1115741e-39
-0.33013201 0.15786 0.064975597 7.7664109e-39
-0.33067599 0.15998501 0.064478502 1.3469554e-38
-0.328655 0.147663 0.063928001 7.7502133e-39
-0.328877 0.14949 0.063756399 5.0891363e-39
-0.32909799 0.15132301 0.063584402 4.7217957e-39
-0.32900399 0.15290301 0.063739799 5.5526354e-39
-0.32890901 0.154484 0.0638953 5.8324663e-39
-0.328814 0.156066 0.064050898 6.2023334e-39
-0.32871899 0.15764999 0.064206503 8.7787593e-39
-0.32894099 0.159502 0.064035498 1.4206756e-38
-0.32828999 0.14664499 0.062026799 1.0332048e-38
-0.32819501 0.148221 0.062181499 6.2822845e-39
-0.3281 0.149799 0.0623363 4.9058282e-39
-0.32832 0.15163501 0.062161699 4.7228789e-39
-0.32822499 0.153217 0.062316898 5.922857e-39
-0.32749999 0.154278 0.063129403 6.2016047e-39
-0.32740501 0.155858 0.063284397 7.3969095e-39
-0.32731 0.15743899 0.063439503 1.0892412e-38
-0.326902 0.158755 0.063921303 1.4297155e-38
-0.32719699 0.146699 0.060934499 8.7639981e-39
-0.32710201 0.148275 0.0610888 5.2760513e-39
-0.32732099 0.15010899 0.060912099 4.725397e-39
-0.327225 0.15169001 0.061066799 4.9105086e-39
-0.32712999 0.153272 0.0612216 5.8339026e-39
-0.326408 0.154333 0.062036801 6.6633017e-39
-0.32600001 0.155651 0.062519901 9.1453782e-39
-0.32497501 0.15644 0.063653901 1.3100058e-38
-0.326105 0.146753 0.059842099 7.7498475e-39
-0.32600901 0.14833 0.059996001 5.4618789e-39
-0.326226 0.15016299 0.0598174 5.2785722e-39
-0.32613 0.15174399 0.059971701 5.9257381e-39
-0.32572201 0.15306699 0.060458399 6.387798e-39
-0.32500401 0.154127 0.061274201 6.7573008e-39
-0.32367501 0.154663 0.062739201 9.2400962e-39
-0.325012 0.146807 0.0587494 6.2793992e-39
-0.32491601 0.148384 0.058903001 5.0934565e-39
-0.32482001 0.14996199 0.059056699 5.5551605e-39
-0.32472399 0.15154199 0.059210401 6.3863575e-39
-0.32370001 0.152347 0.0603601 6.5721893e-39
-0.32207599 0.15263499 0.062153999 7.1242855e-39
-0.32167801 0.153942 0.062631696 9.8836636e-39
-0.32463601 0.14578301 0.05683 8.9462299e-39
-0.323919 0.146861 0.057656601 5.1784536e-39
-0.323823 0.14843801 0.0578098 4.7253956e-39
-0.32341799 0.149762 0.058297899 5.6480736e-39
-0.32270601 0.150828 0.0591175 6.2030466e-39
-0.321695 0.15163299 0.060262501 6.3881582e-39
-0.320692 0.15243299 0.061398201 7.8589666e-39
-0.32029501 0.15374 0.061875802 1.1077522e-38
-0.32354099 0.14583699 0.055734299 8.0221156e-39
-0.322519 0.14666501 0.056900401 4.6295987e-39
-0.322115 0.14798801 0.0573886 4.8183101e-39
-0.321713 0.14930899 0.057875499 5.7409895e-39
-0.320705 0.15012001 0.059025101 6.203048e-39
-0.32000601 0.151179 0.059836902 6.2037697e-39
-0.31931099 0.152233 0.060644299 8.6862036e-39
-0.31891599 0.153538 0.0611219 1.2364655e-38
-0.322137 0.145642 0.0549789 7.0112063e-39
-0.32112199 0.146469 0.0561461 4.5392051e-39
-0.31981301 0.14704099 0.0576372 5.1874528e-39
-0.31971699 0.148607 0.057788499 5.833904e-39
-0.31902 0.14966901 0.0586031 6.1112139e-39
-0.31862399 0.150979 0.0590843 6.2030536e-39
-0.31793299 0.152032 0.059892301 9.4219679e-39
-0.317837 0.15359201 0.060042899 1.3468837e-38
-0.32237101 0.14511301 0.052358601 9.5915993e-39
-0.32043201 0.145199 0.054565199 5.8195014e-39
-0.31882501 0.145531 0.056401599 4.7243166e-39
-0.31812999 0.14659899 0.057219502 5.4640411e-39
-0.31803399 0.14816 0.05737 5.7427902e-39
-0.31764001 0.149472 0.057852399 6.019377e-39
-0.31695101 0.150528 0.058663201 6.9384537e-39
-0.316854 0.152087 0.058813501 1.0342118e-38
-0.31675801 0.15364601 0.058963802 1.438935e-38
-0.321271 0.14516699 0.051258199 8.1164678e-39
-0.31813601 0.14426599 0.05483 4.9954973e-39
-0.31714499 0.145092 0.0559875 4.8183101e-39
-0.31675199 0.146405 0.056471199 5.6491526e-39
-0.31665501 0.147965 0.056621201 5.8353459e-39
-0.31626299 0.149275 0.0571035 6.0193784e-39
-0.31587201 0.150582 0.057584699 8.225587e-39
-0.31577501 0.152141 0.057734501 1.1905477e-38
-0.31645599 0.14383 0.054419801 4.629956e-39
-0.315768 0.14489999 0.0552411 4.9115847e-39
-0.315671 0.146459 0.0553906 5.8339012e-39
-0.31527999 0.14777 0.055874199 5.9275401e-39
-0.31489 0.149078 0.056356501 6.0190211e-39
-0.31450099 0.15038399 0.0568377 9.5138006e-39
-0.31440401 0.151941 0.056986999 1.3192971e-38
-0.314785 0.14339601 0.054011799 4.7232334e-39
-0.314688 0.144954 0.0541608 5.2800071e-39
-0.314298 0.146266 0.054645501 5.9260968e-39
-0.31390899 0.14757501 0.055128999 6.0190155e-39
-0.313521 0.148882 0.055611402 6.2948863e-39
-0.31313401 0.150187 0.056092501 9.9744172e-39
-0.31303599 0.151742 0.056241199 1.402093e-38
-0.31312299 0.142965 0.053605702 5.1809746e-39
-0.31302601 0.144519 0.053753901 5.4629593e-39
-0.31292799 0.146073 0.053902298 6.2019592e-39
-0.31254101 0.14738099 0.0543858 6.0190127e-39
-0.31215501 0.14868701 0.054868098 7.3057929e-39
-0.31176999 0.14999001 0.055349201 1.0801656e-38
-0.311672 0.15154301 0.0554974 1.4113126e-38
-0.311948 0.144572 0.0526761 6.4681008e-39
-0.311562 0.145881 0.053160898 7.0230725e-39
-0.31117699 0.14718799 0.0536444 6.4745889e-39
-0.310507 0.14824399 0.054460298 8.6826022e-39
-0.30984101 0.149296 0.055272002 1.1904039e-38
-0.309744 0.15084299 0.055419199 1.4297157e-38
-0.31019899 0.14568999 0.052421302 8.1150161e-39
-0.30953199 0.146749 0.053240102 7.291026e-39
-0.30820799 0.148855 0.054864801 1.2175589e-38
-0.30783001 0.150149 0.0553414 1.4480466e-38
-0.30723801 0.147366 0.0536508 7.7422931e-39
-0.306209 0.149707 0.054935101 1.4201723e-38
-0.30514401 0.14975999 0.053870901 1.3833655e-38
-0.30408001 0.149813 0.0528065 1.3832928e-38
-0.303561 0.150362 0.051072799 1.4017322e-38
-0.304418 0.152173 0.047624402 1.4387906e-38
-0.30473 0.153503 0.044810701 1.4666653e-38
-0.30532899 0.155113 0.0416019 1.5125113e-38
