# .PCD v0.7 - Point Cloud Data file format
VERSION 0.7
FIELDS x y z rgb
SIZE 4 4 4 4
TYPE F F F F
COUNT 1 1 1 1
WIDTH 1044
HEIGHT 1
VIEWPOINT 0 0 0 1 0 0 0
POINTS 1044
DATA ascii
-0.40944499 0.175071 0.10008 1.5342646e-38
-0.41172299 0.178415 0.098740697 1.524901e-38
-0.37514299 0.21035101 0.12680399 2.0398978e-38
-0.37432 0.21127699 0.127452 2.2237847e-38
-0.373501 0.212199 0.128096 2.306473e-38
-0.369773 0.210473 0.130574 2.3341679e-38
-0.36897901 0.211385 0.1312 2.2791028e-38
-0.36890399 0.21295001 0.131372 2.1042551e-38
-0.412119 0.175952 0.096218698 1.6540821e-38
-0.412034 0.17770299 0.0964114 1.5618147e-38
-0.373981 0.212005 0.12589601 2.0582647e-38
-0.37390399 0.21360201 0.12607101 2.2513356e-38
-0.371243 0.212843 0.127894 2.315765e-38
-0.36863199 0.2121 0.129682 2.3342042e-38
-0.41534901 0.177185 0.091938399 1.838042e-38
-0.41234899 0.17698599 0.094061397 1.7459171e-38
-0.41226399 0.178745 0.094254501 1.6353907e-38
-0.41217801 0.18050601 0.094447799 1.5709981e-38
-0.40970701 0.180611 0.096216597 1.5618144e-38
-0.408678 0.18170001 0.097031601 1.5434474e-38
-0.415685 0.176457 0.089535698 1.9850511e-38
-0.415106 0.177907 0.090060003 1.9296967e-38
-0.41403899 0.179021 0.0909096 1.8654116e-38
-0.41249499 0.17979699 0.092077501 1.8101671e-38
-0.41001001 0.17990699 0.0938721 1.736662e-38
-0.40803099 0.180344 0.095326401 1.69078e-38
-0.40747699 0.181761 0.095830597 1.6540096e-38
-0.407392 0.183507 0.096021801 1.5895808e-38
-0.33678299 0.154505 0.144613 1.49735e-38
-0.33532801 0.154755 0.145678 1.506534e-38
-0.333617 0.154782 0.146909 1.5248295e-38
-0.332468 0.155249 0.14777 1.5524155e-38
-0.331597 0.15593199 0.14844701 1.5798219e-38
-0.32940999 0.155517 0.149988 1.5613471e-38
-0.3283 0.155975 0.15082 1.54298e-38
-0.41503599 0.175064 0.087779798 2.0494441e-38
-0.41445601 0.17651799 0.088307098 2.0307521e-38
-0.41387901 0.177968 0.0888329 1.9940176e-38
-0.412815 0.179083 0.089685798 1.9666839e-38
-0.41224301 0.180525 0.090207301 1.9393853e-38
-0.409751 0.180629 0.092021398 1.8838507e-38
-0.407298 0.180733 0.093807898 1.7920147e-38
-0.406275 0.181822 0.094629399 1.6818121e-38
-0.40712601 0.18423501 0.094190598 1.5806491e-38
-0.33619401 0.153411 0.143344 1.4883456e-38
-0.334465 0.15344501 0.1446 1.4882743e-38
-0.333303 0.15391999 0.145477 1.4973863e-38
-0.33215201 0.15439101 0.146346 1.4973503e-38
-0.33074501 0.15463901 0.147384 1.4881665e-38
-0.32961801 0.155104 0.14823601 1.4880948e-38
-0.32850099 0.15556499 0.14907899 1.497242e-38
-0.32713601 0.155807 0.150087 1.5063894e-38
-0.326298 0.156478 0.15074401 1.5155731e-38
-0.32495701 0.15671401 0.15173399 1.5245778e-38
-0.32413399 0.157379 0.15238 1.5155737e-38
-0.41389301 0.173343 0.086355001 2.0494083e-38
-0.41380501 0.175126 0.086549401 2.0584466e-38
-0.41322699 0.17658 0.087078199 2.0492631e-38
-0.412651 0.17803 0.087605499 2.0495156e-38
-0.41207701 0.17947701 0.088131301 2.0314723e-38
-0.411504 0.180921 0.088655598 1.9670432e-38
-0.334084 0.153936 0.143301 1.506821e-38
-0.332921 0.15441 0.144186 1.5158609e-38
-0.33204001 0.155101 0.144881 1.5065339e-38
-0.33062801 0.15534601 0.14593101 1.4699074e-38
-0.32923299 0.15559 0.14697 1.4513964e-38
-0.32864001 0.156488 0.147469 1.4420687e-38
-0.326489 0.15607201 0.149011 1.4512522e-38
-0.32488599 0.156094 0.150185 1.4604722e-38
-0.323304 0.15611701 0.151343 1.4329581e-38
-0.32248899 0.156781 0.151988 1.4421054e-38
-0.32192701 0.157657 0.152463 1.4788034e-38
-0.41226301 0.17130101 0.085268103 1.9851226e-38
-0.41217399 0.17308 0.085461602 2.0214963e-38
-0.41208601 0.17486 0.085655302 2.0492639e-38
-0.411998 0.176641 0.085849099 2.0588803e-38
-0.411423 0.178092 0.086377896 2.0317606e-38
-0.41133499 0.179873 0.086571701 1.9673304e-38
-0.33308399 0.155347 0.142518 1.5618145e-38
-0.33192599 0.15581501 0.143406 1.5249726e-38
-0.330778 0.15628 0.14428601 1.4700151e-38
-0.32911 0.156298 0.145518 1.4424281e-38
-0.328251 0.156977 0.146201 1.4423198e-38
-0.32526201 0.15722699 0.148424 1.4421764e-38
-0.323163 0.15681 0.149942 1.4330292e-38
-0.32184699 0.157043 0.15093 1.442141e-38
-0.32128501 0.15792 0.151407 1.4513604e-38
-0.41015401 0.16894799 0.084522597 1.8748837e-38
-0.41006601 0.17072 0.084715001 1.9297681e-38
-0.41046101 0.17281701 0.0845709 1.9114018e-38
-0.41085699 0.17492101 0.0844265 2.0493022e-38
-0.41076899 0.17670301 0.084619902 1.9950638e-38
-0.41068 0.178486 0.084813401 1.8847876e-38
-0.33092999 0.157222 0.142625 1.4699073e-38
-0.32978699 0.157681 0.143509 1.4423564e-38
-0.32302099 0.157508 0.14853001 1.4239175e-38
-0.32220101 0.158172 0.149188 1.4330292e-38
-0.32138601 0.158833 0.149841 1.4330648e-38
-0.40901801 0.167238 0.083106801 1.8015222e-38
-0.40844899 0.16869199 0.083636701 1.83786e-38
-0.40884101 0.170781 0.083490603 1.8194217e-38
-0.40875301 0.172555 0.083682798 1.7553546e-38
-0.409628 0.17498299 0.083197497 1.7829441e-38
-0.40953901 0.176764 0.083390497 1.783013e-38
-0.324218 0.15798099 0.14608701 1.4239893e-38
-0.32262501 0.15799201 0.147283 1.4331368e-38
-0.322559 0.15931299 0.14742599 1.4239174e-38
-0.406452 0.164598 0.082710303 1.8018477e-38
-0.407316 0.16698401 0.0822234 1.8563364e-38
-0.40674999 0.168437 0.082753398 1.8011623e-38
-0.406661 0.170204 0.082944401 1.746025e-38
-0.407527 0.172616 0.082457803 1.7278018e-38
-0.40839899 0.175044 0.0819683 1.7185824e-38
-0.32324299 0.15936001 0.14532299 1.4422842e-38
-0.40112099 0.16018 0.084321603 1.8301549e-38
-0.40195701 0.16251899 0.083845697 1.9760468e-38
-0.40467301 0.166109 0.082021497 1.9482076e-38
-0.40317601 0.166934 0.083221197 1.847116e-38
-0.40544 0.170265 0.081723399 1.7828314e-38
-0.40630201 0.172677 0.0812326 1.7737556e-38
-0.37853599 0.194575 0.103947 1.5613835e-38
-0.37726599 0.195246 0.104963 1.5156453e-38
-0.37600699 0.195912 0.10597 1.4698707e-38
-0.39855099 0.15934899 0.084114201 2.0868617e-38
-0.39937499 0.161676 0.083639503 2.1781926e-38
-0.399744 0.16371401 0.083494604 2.104616e-38
-0.40149999 0.166684 0.082346298 2.0311477e-38
-0.401876 0.16874801 0.082198597 2.003705e-38
-0.38109699 0.195941 0.100061 1.5155012e-38
-0.377404 0.194635 0.102815 1.5064253e-38
-0.37496701 0.19433001 0.104671 1.4697272e-38
-0.374495 0.195645 0.105124 1.451432e-38
-0.37287 0.19598299 0.106399 1.4239177e-38
-0.372787 0.197614 0.106574 1.405515e-38
-0.357988 0.197974 0.117994 1.4240251e-38
-0.35586399 0.197676 0.119609 1.4423205e-38
-0.353773 0.197383 0.121199 1.4424284e-38
-0.35336301 0.198612 0.121599 1.4606517e-38
-0.35328501 0.200146 0.121764 1.4604363e-38
-0.35487601 0.203237 0.120751 1.4603649e-38
-0.39511001 0.157943 0.084563397 2.2520213e-38
-0.39726701 0.161137 0.083104201 2.3069784e-38
-0.39854199 0.163773 0.082292698 2.2795355e-38
-0.399829 0.166434 0.081473902 2.2706755e-38
-0.382074 0.195994 0.097265199 1.5062459e-38
-0.379951 0.19600099 0.098914899 1.4878787e-38
-0.37746 0.19568001 0.100828 1.4879862e-38
-0.37618801 0.196348 0.101861 1.4788748e-38
-0.37376001 0.19603001 0.103725 1.4605798e-38
-0.37099299 0.19539601 0.105831 1.4514329e-38
-0.36977601 0.196054 0.10682 1.4699797e-38
-0.37082699 0.198652 0.10618 1.5254391e-38
-0.35522601 0.196493 0.118149 1.4791982e-38
-0.353138 0.196208 0.119752 1.525188e-38
-0.35272801 0.19744 0.120154 1.5067131e-38
-0.352319 0.198669 0.120555 1.4881665e-38
-0.35224 0.200203 0.12072 1.4696916e-38
-0.352824 0.20235801 0.120412 1.4604366e-38
-0.35407999 0.205157 0.119627 1.4422489e-38
-0.354673 0.207344 0.119314 1.4423564e-38
-0.35459399 0.20889901 0.119481 1.4423922e-38
-0.35451499 0.210454 0.119648 1.4239535e-38
-0.39084801 0.15598699 0.085650504 2.307159e-38
-0.39427999 0.16001201 0.083231904 2.3443606e-38
-0.38051099 0.195719 0.096408501 1.478767e-38
-0.379208 0.19639499 0.097475 1.4695836e-38
-0.37871799 0.197736 0.097948 1.4880945e-38
-0.376237 0.197401 0.099868998 1.488238e-38
-0.37340999 0.19674399 0.10204 1.5157889e-38
-0.37216699 0.197404 0.103057 1.5710698e-38
-0.36904201 0.196435 0.10544 1.6264224e-38
-0.36895901 0.19805899 0.105614 1.6723399e-38
-0.354092 0.19809701 0.117261 1.6356418e-38
-0.35201201 0.19780099 0.118871 1.580002e-38
-0.351603 0.199031 0.119273 1.5340484e-38
-0.35185501 0.200876 0.1192 1.5065336e-38
-0.351776 0.202415 0.119365 1.5064977e-38
-0.353026 0.20521399 0.118573 1.5158968e-38
-0.353616 0.20740201 0.118258 1.5067848e-38
-0.35353601 0.208957 0.118424 1.4791982e-38
-0.352788 0.209866 0.119071 1.4423922e-38
-0.35270801 0.211419 0.119238 1.4147341e-38
-0.38624999 0.15379199 0.087030999 2.2705329e-38
-0.389586 0.15774301 0.084657401 2.3352848e-38
-0.37944499 0.194098 0.095076203 1.506497e-38
-0.37935799 0.19577999 0.095255896 1.4972777e-38
-0.377657 0.19612201 0.096622303 1.5065332e-38
-0.37717 0.19746099 0.097095497 1.5435188e-38
-0.375099 0.19746099 0.098731697 1.5895085e-38
-0.37228301 0.196803 0.100913 1.6631204e-38
-0.36952099 0.19616 0.103052 1.7275128e-38
-0.36868301 0.19714101 0.10378 1.7550993e-38
-0.368599 0.19877 0.103954 1.7458803e-38
-0.35121599 0.19970199 0.117748 1.5893289e-38
-0.35080701 0.20093299 0.118153 1.5893289e-38
-0.35205099 0.203723 0.117354 1.6077319e-38
-0.35263801 0.205906 0.117035 1.5986921e-38
-0.35255799 0.20746 0.117201 1.5526664e-38
-0.352478 0.209015 0.117367 1.4974933e-38
-0.351069 0.209281 0.118498 1.4515757e-38
-0.35066 0.21050701 0.118903 1.4423204e-38
-0.35157201 0.21303099 0.118349 1.4422845e-38
-0.37931299 0.150031 0.090222798 2.1511823e-38
-0.38500199 0.15552799 0.086049102 2.2612407e-38
-0.37260801 0.18434601 0.097810403 1.7270817e-38
-0.37369099 0.18693399 0.097116701 1.6352464e-38
-0.373606 0.188585 0.097292699 1.5707461e-38
-0.374304 0.190881 0.096886396 1.5524867e-38
-0.375007 0.19319201 0.096478 1.5892927e-38
-0.37571299 0.195517 0.096067302 1.6446094e-38
-0.37444001 0.19619 0.097125404 1.7182573e-38
-0.372789 0.196527 0.098463602 1.7642474e-38
-0.368489 0.19458801 0.101762 1.8010174e-38
-0.36653301 0.19461 0.103323 1.7918339e-38
-0.366449 0.19623099 0.103495 1.745916e-38
-0.35148901 0.20099699 0.115727 1.6814515e-38
-0.35107699 0.202233 0.116136 1.6814514e-38
-0.351661 0.204411 0.115813 1.6630484e-38
-0.35158101 0.205964 0.115978 1.5986199e-38
-0.35150099 0.207518 0.116144 1.5249723e-38
-0.35141999 0.20907301 0.11631 1.4882022e-38
-0.34935999 0.208698 0.117927 1.4791622e-38
-0.34928 0.210243 0.118092 1.4884175e-38
-0.34887299 0.211466 0.118496 1.4884536e-38
-0.375301 0.149864 0.091380797 2.1692257e-38
-0.37600699 0.15202799 0.090953097 2.1967042e-38
-0.371566 0.182763 0.096508898 1.8374641e-38
-0.371481 0.184405 0.096683502 1.7455567e-38
-0.37139499 0.186048 0.0968583 1.6628688e-38
-0.37208399 0.188326 0.096451998 1.6352464e-38
-0.37238699 0.19029699 0.096336 1.6903834e-38
-0.37269101 0.192274 0.096219704 1.7641035e-38
-0.37299499 0.194258 0.096103199 1.8377156e-38
-0.37212899 0.19526 0.096864 1.8837053e-38
-0.367457 0.19301599 0.100473 1.8837413e-38
-0.36550799 0.193048 0.102042 1.8285682e-38
-0.36431801 0.19371299 0.103041 1.755064e-38
-0.36386701 0.19500899 0.103487 1.6723759e-38
-0.350685 0.20291699 0.114592 1.7182938e-38
-0.350604 0.204469 0.114757 1.6447892e-38
-0.35085499 0.20634 0.114676 1.5525947e-38
-0.350775 0.20789599 0.114841 1.5066055e-38
-0.34970099 0.208488 0.115742 1.4975297e-38
-0.34830999 0.208756 0.116878 1.516076e-38
-0.347579 0.20965999 0.117523 1.5437343e-38
-0.34685299 0.21056101 0.118165 1.5621015e-38
-0.36719701 0.146869 0.095713802 2.2060317e-38
-0.36674201 0.148203 0.096168198 2.2335462e-38
-0.37052399 0.181181 0.095208101 1.9937641e-38
-0.37005499 0.182513 0.095673896 1.8560107e-38
-0.37035301 0.18446299 0.095556498 1.7916538e-38
-0.370267 0.186106 0.095730901 1.7823985e-38
-0.37056601 0.188067 0.095613599 1.8193124e-38
-0.370866 0.190035 0.095496103 1.8928528e-38
-0.37077999 0.191686 0.0956714 1.9296234e-38
-0.37108099 0.193664 0.095554002 1.9388789e-38
-0.36945501 0.194014 0.096894503 1.9113279e-38
-0.36448401 0.191488 0.100762 1.8470068e-38
-0.36366299 0.19247299 0.10149 1.7550281e-38
-0.36248401 0.193139 0.102488 1.6631207e-38
-0.36095399 0.19348601 0.103751 1.617167e-38
-0.36087 0.195088 0.103921 1.6447893e-38
-0.35095599 0.204238 0.11254 1.672376e-38
-0.350541 0.205479 0.112955 1.6079477e-38
-0.350128 0.206717 0.113369 1.5434832e-38
-0.35004601 0.208276 0.113535 1.5251161e-38
-0.34864599 0.208546 0.114687 1.5344072e-38
-0.34661201 0.208177 0.116312 1.5805045e-38
-0.34588701 0.20908 0.116957 1.6266018e-38
-0.34548599 0.210299 0.11736 1.6724838e-38
-0.36234999 0.145991 0.097620003 2.2703524e-38
-0.36011699 0.14606699 0.099449702 2.334493e-38
-0.35932699 0.147127 0.100163 2.3437123e-38
-0.35889301 0.148432 0.1006 2.3346002e-38
-0.35881099 0.149985 0.100764 2.3344204e-38
-0.36901501 0.180932 0.094375201 2.0581926e-38
-0.36854699 0.182263 0.0948411 1.9387707e-38
-0.36884299 0.184211 0.094722301 1.9112561e-38
-0.36913899 0.186165 0.0946033 1.9480261e-38
-0.36905301 0.18780901 0.094777398 2.0032352e-38
-0.368967 0.189455 0.0949516 2.0031997e-38
-0.36849901 0.190781 0.095417999 1.9665017e-38
-0.36841199 0.19242699 0.095592201 1.9021807e-38
-0.36346 0.189928 0.099482797 1.82864e-38
-0.36264199 0.190917 0.100213 1.7367682e-38
-0.36146599 0.191588 0.101217 1.6539374e-38
-0.35994199 0.19194201 0.102486 1.6171675e-38
-0.35772699 0.19167399 0.104279 1.6816323e-38
-0.356592 0.192334 0.105248 1.8564076e-38
-0.356509 0.193918 0.105416 2.0862124e-38
-0.350308 0.203052 0.111061 1.7000703e-38
-0.35022601 0.204613 0.111226 1.6541888e-38
-0.349812 0.205856 0.111643 1.6173832e-38
-0.34939799 0.207096 0.112059 1.5621021e-38
-0.34898499 0.208334 0.112475 1.5803251e-38
-0.34759 0.20860299 0.113633 1.6171671e-38
-0.34492201 0.2076 0.11575 1.6908513e-38
-0.344522 0.20882 0.116153 1.7644276e-38
-0.34444201 0.210356 0.116316 1.8287845e-38
-0.35833499 0.14562801 0.098925203 2.2060314e-38
-0.35755101 0.146687 0.0996373 2.288539e-38
-0.35677201 0.147741 0.100346 2.3253086e-38
-0.356343 0.149039 0.10078 2.3251293e-38
-0.36750901 0.180685 0.093544401 2.1042905e-38
-0.36666599 0.18170799 0.0943029 2.0767763e-38
-0.36658001 0.183341 0.094475403 2.067521e-38
-0.366494 0.184975 0.094648004 2.067593e-38
-0.36640799 0.18661 0.094820797 2.0402941e-38
-0.36557099 0.187618 0.095573999 1.9667178e-38
-0.36511099 0.188935 0.096035197 1.8655192e-38
-0.36390901 0.18962 0.097068101 1.7827588e-38
-0.36198601 0.189674 0.098656997 1.7184014e-38
-0.360811 0.19035 0.099667802 1.644897e-38
-0.35928699 0.19070999 0.100946 1.6266022e-38
-0.357427 0.190759 0.102483 1.7277298e-38
-0.35629001 0.191423 0.103462 1.9208369e-38
-0.35550901 0.19239099 0.104166 2.0954685e-38
-0.355425 0.193975 0.104333 2.1687927e-38
-0.35235199 0.204413 0.107517 1.7184737e-38
-0.349244 0.20310999 0.109997 1.6818117e-38
-0.34916201 0.204671 0.110162 1.6727366e-38
-0.34908 0.20623399 0.110328 1.6634813e-38
-0.34866601 0.20747501 0.110746 1.6540455e-38
-0.34792399 0.20839199 0.111414 1.7183298e-38
-0.34653401 0.208661 0.112578 1.8010539e-38
-0.34387699 0.20765799 0.114705 1.8654469e-38
-0.34347799 0.208877 0.11511 1.9206924e-38
-0.34339699 0.21041401 0.115272 1.9298399e-38
-0.355786 0.146249 0.099114701 2.1050841e-38
-0.35570401 0.14779501 0.099277601 2.2516607e-38
-0.35527599 0.149093 0.099713102 2.2791034e-38
-0.355194 0.150639 0.099876001 2.2698474e-38
-0.35511199 0.15218601 0.100039 2.2606994e-38
-0.36517 0.18145999 0.0934752 2.1595008e-38
-0.364337 0.182478 0.094230399 2.1135831e-38
-0.36425099 0.18410499 0.094401903 2.0309313e-38
-0.36379299 0.185424 0.094863497 1.9390238e-38
-0.36296701 0.18642899 0.095611997 1.828749e-38
-0.36214599 0.18743099 0.096356504 1.7275859e-38
-0.36096501 0.188117 0.097380497 1.6816676e-38
-0.360154 0.189109 0.098115101 1.6541167e-38
-0.358632 0.189476 0.099403404 1.6724482e-38
-0.35677299 0.189532 0.100952 1.7919782e-38
-0.355986 0.19050799 0.101666 2.0037042e-38
-0.35520399 0.19148099 0.102377 2.1322024e-38
-0.35442501 0.192449 0.103083 2.1870515e-38
-0.35434201 0.194033 0.10325 2.1776873e-38
-0.35246301 0.202273 0.105318 1.8289296e-38
-0.352038 0.20353501 0.105749 1.746025e-38
-0.35093701 0.20415001 0.106703 1.6909592e-38
-0.34818 0.20316701 0.108934 1.7094703e-38
-0.34809801 0.20472901 0.109099 1.7371292e-38
-0.34801501 0.206292 0.109264 1.7645718e-38
-0.34793201 0.207856 0.109428 1.8194927e-38
-0.34719101 0.208772 0.110101 1.8837416e-38
-0.345478 0.208719 0.111522 1.9297676e-38
-0.34251499 0.207399 0.113905 1.9482429e-38
-0.34243301 0.20893499 0.114067 1.9206925e-38
-0.342352 0.210471 0.114229 1.8655191e-38
-0.354635 0.147848 0.0982095 2.1325633e-38
-0.35455301 0.149395 0.098372199 2.2792473e-38
-0.354471 0.15094399 0.098535001 2.2699194e-38
-0.35438901 0.152493 0.098697901 2.270027e-38
-0.35430601 0.154043 0.098860897 2.2057424e-38
-0.362849 0.18223 0.093405798 2.0400785e-38
-0.36165899 0.18293799 0.094447002 1.9207283e-38
-0.36157301 0.18455701 0.0946173 1.8105976e-38
-0.36075601 0.185561 0.095362999 1.7370213e-38
-0.35994399 0.186561 0.096104696 1.6909237e-38
-0.35913599 0.187556 0.096842296 1.6724839e-38
-0.35761899 0.187931 0.0981372 1.7367329e-38
-0.35611799 0.188302 0.099417999 1.8838506e-38
-0.35498199 0.188976 0.100411 2.0590942e-38
-0.35454899 0.190258 0.100852 2.1412785e-38
-0.35377201 0.19123 0.101563 2.1869428e-38
-0.353342 0.192506 0.102001 2.195982e-38
-0.35325801 0.19409101 0.102167 2.1684682e-38
-0.35104299 0.202012 0.104504 1.7644644e-38
-0.350959 0.203593 0.104671 1.7276218e-38
-0.34986201 0.204208 0.105628 1.71851e-38
-0.34744599 0.20354199 0.107614 1.7830109e-38
-0.34736201 0.20510601 0.107778 1.8474037e-38
-0.34694999 0.20635 0.1082 1.8932132e-38
-0.346867 0.20791399 0.108364 1.9297672e-38
-0.346784 0.209479 0.108529 1.9389512e-38
-0.344421 0.208777 0.110467 1.9298038e-38
-0.34147 0.20745599 0.112861 1.8930697e-38
-0.341389 0.208992 0.113023 1.8196013e-38
-0.35382801 0.149699 0.097027399 2.3161617e-38
-0.35340199 0.150997 0.097465903 2.3436041e-38
-0.35331899 0.152547 0.097628497 2.3251293e-38
-0.35323599 0.15409701 0.097791202 2.2792115e-38
-0.353497 0.15590701 0.097678803 2.2519126e-38
-0.35918099 0.18017399 0.094322599 1.929912e-38
-0.35909501 0.181784 0.094491497 1.8197813e-38
-0.359009 0.183394 0.094660498 1.7371657e-38
-0.35856301 0.184701 0.0951159 1.7004678e-38
-0.358118 0.186004 0.095570303 1.7003953e-38
-0.35660601 0.186387 0.096871696 1.8104535e-38
-0.355111 0.186766 0.098158903 1.9576783e-38
-0.35432699 0.187749 0.098880701 2.0865724e-38
-0.35354701 0.188728 0.099598698 2.1595733e-38
-0.35346201 0.19031601 0.099765301 2.1778674e-38
-0.352687 0.19128799 0.100479 2.1777588e-38
-0.352258 0.192564 0.100918 2.1593558e-38
-0.35217401 0.194148 0.101084 2.1135464e-38
-0.35106701 0.201446 0.102457 1.7828678e-38
-0.35098201 0.203033 0.102623 1.7644642e-38
-0.350557 0.20429701 0.103058 1.7736114e-38
-0.34979501 0.20523401 0.103758 1.8196012e-38
-0.34737 0.204556 0.105769 1.9025777e-38
-0.34629601 0.205164 0.106713 1.9484591e-38
-0.34621301 0.20672899 0.106877 1.9666816e-38
-0.346129 0.208295 0.107041 1.9481342e-38
-0.345718 0.209537 0.107464 1.8838496e-38
-0.34563401 0.21110301 0.107628 1.8378961e-38
-0.34232199 0.20942201 0.110328 1.782759e-38
-0.353102 0.150003 0.095678903 2.3070499e-38
-0.35267499 0.15130299 0.096119501 2.3437839e-38
-0.352249 0.152601 0.096558899 2.3435684e-38
-0.352166 0.15415099 0.096721299 2.3436041e-38
-0.352768 0.15622 0.096329696 2.3437839e-38
-0.35780299 0.178326 0.093338497 1.9392398e-38
-0.35700199 0.17933799 0.094081499 1.8841384e-38
-0.35691601 0.180941 0.094249301 1.8381848e-38
-0.35683 0.18254501 0.094417199 1.8014149e-38
-0.356388 0.183847 0.094870701 1.7922316e-38
-0.35488999 0.184239 0.096171901 1.8933224e-38
-0.353755 0.184928 0.097180203 2.0222156e-38
-0.353322 0.186216 0.0976253 2.1231629e-38
-0.35254499 0.187199 0.098346204 2.1778688e-38
-0.35246 0.188785 0.098512299 2.1868713e-38
-0.35203001 0.19006599 0.098954201 2.1776154e-38
-0.35160199 0.19134501 0.099394903 2.1409171e-38
-0.35117501 0.19262099 0.099834599 2.0676649e-38
-0.35032299 0.20182499 0.101103 1.8196369e-38
-0.350238 0.20341399 0.10127 1.8380405e-38
-0.35049301 0.20533 0.101165 1.8747749e-38
-0.34972799 0.206269 0.101873 1.920837e-38
-0.34863001 0.20687699 0.102845 1.9762629e-38
-0.347875 0.207807 0.103544 1.9668264e-38
-0.349134 0.210711 0.102641 1.9206918e-38
-0.352373 0.150308 0.0943266 2.2885756e-38
-0.351946 0.151609 0.094769202 2.3439277e-38
-0.35152 0.152908 0.095210701 2.343712e-38
-0.351437 0.154461 0.0953729 2.3437485e-38
-0.351695 0.15627401 0.095256403 2.3435691e-38
-0.355988 0.177793 0.092814103 1.9117611e-38
-0.35554701 0.179098 0.093269102 1.9023976e-38
-0.35475501 0.180105 0.0940089 1.9023616e-38
-0.354669 0.181702 0.094175696 1.9207651e-38
-0.354231 0.183 0.094627403 1.9943425e-38
-0.352404 0.183097 0.096204802 2.1047965e-38
-0.351973 0.184385 0.096650101 2.1781919e-38
-0.35154399 0.18567 0.097094402 2.214638e-38
-0.35111499 0.18695299 0.0975376 2.2144218e-38
-0.35102999 0.188538 0.097703099 2.1776513e-38
-0.350602 0.18981799 0.098145097 2.1042556e-38
-0.350517 0.191403 0.098310597 2.0309313e-38
-0.35043201 0.19298799 0.098476201 1.9578229e-38
-0.34957799 0.202205 0.099746197 1.9391667e-38
-0.34949201 0.203796 0.099912398 1.9574265e-38
-0.349406 0.20538899 0.100079 1.9575353e-38
-0.34931999 0.206983 0.100245 1.9577518e-38
-0.34923401 0.20857801 0.100412 1.9487123e-38
-0.348472 0.20951 0.101122 1.8749188e-38
-0.351641 0.150613 0.092970401 2.3069424e-38
-0.351215 0.151916 0.093415096 2.3437841e-38
-0.35078901 0.153217 0.093858697 2.3440353e-38
-0.35036501 0.154515 0.094301201 2.3434618e-38
-0.35488701 0.17784999 0.091714099 1.948495e-38
-0.35374501 0.178565 0.092746399 1.9667181e-38
-0.35365799 0.180162 0.092912801 2.0310392e-38
-0.35322201 0.18146101 0.093365699 2.1046165e-38
-0.351401 0.181567 0.094951198 2.1781217e-38
-0.35097101 0.18285599 0.0953978 2.2424413e-38
-0.35054299 0.18414301 0.0958433 2.2514082e-38
-0.350115 0.185427 0.096287698 2.2328248e-38
-0.34968901 0.186709 0.096731 2.1776513e-38
-0.349603 0.188291 0.096895903 2.1042551e-38
-0.34917799 0.18956999 0.097337998 2.0216041e-38
-0.34943199 0.19146 0.097226001 1.9390246e-38
-0.34849101 0.202263 0.098660499 2.0402586e-38
-0.348405 0.20385499 0.098826297 2.0126366e-38
-0.34831899 0.205448 0.098992303 1.966971e-38
-0.34823301 0.20704199 0.099158399 1.9119057e-38
-0.34814599 0.208637 0.099324502 1.8289658e-38
-0.34738699 0.20956901 0.100037 1.7370214e-38
-0.34729999 0.211162 0.100203 1.6909593e-38
-0.35090801 0.15092 0.091610298 2.3439283e-38
-0.350481 0.152225 0.092057101 2.3441078e-38
-0.35005599 0.15352701 0.092502803 2.3436053e-38
-0.34929299 0.154569 0.093229301 2.3433541e-38
-0.35370001 0.179509 0.090780601 2.0955759e-38
-0.352213 0.179922 0.092104599 2.1965956e-38
-0.35177901 0.18122 0.092557602 2.2699567e-38
-0.349628 0.181033 0.094428398 2.3065465e-38
-0.34920201 0.18232 0.094874099 2.2972902e-38
-0.34877601 0.183603 0.095318697 2.2421524e-38
-0.34835199 0.184885 0.095762298 2.1685762e-38
-0.34826601 0.186465 0.095926501 2.0951078e-38
-0.34818 0.188045 0.096090697 2.0400424e-38
-0.34809399 0.18962701 0.096255198 2.0123843e-38
-0.34834599 0.19151799 0.096141301 1.9848696e-38
-0.34731799 0.203913 0.097740099 1.9117618e-38
-0.34723201 0.205507 0.097905703 1.8748835e-38
-0.34714499 0.207101 0.098071396 1.8105623e-38
-0.347058 0.20869599 0.098237202 1.7372369e-38
-0.34630099 0.209628 0.098952197 1.7002148e-38
-0.34588099 0.210888 0.099391103 1.7093261e-38
-0.34579399 0.21247999 0.099556603 1.7460602e-38
-0.345375 0.213737 0.099994197 1.8195286e-38
-0.350173 0.151227 0.090246402 2.3441798e-38
-0.349406 0.152279 0.090981402 2.3434969e-38
-0.34898099 0.15358099 0.091428198 2.3433176e-38
-0.34821999 0.154624 0.092157297 2.3433533e-38
-0.34813601 0.156178 0.092318498 2.3253479e-38
-0.34334099 0.15567601 0.096520603 2.3167058e-38
-0.34293401 0.156949 0.096950397 2.3069429e-38
-0.34252799 0.15822101 0.097379297 2.2424052e-38
-0.34896901 0.179801 0.092895202 2.3248776e-38
-0.348203 0.180796 0.093626097 2.3064381e-38
-0.347442 0.181786 0.094353102 2.2606279e-38
-0.34735599 0.18336301 0.094516702 2.1962708e-38
-0.34693301 0.184644 0.094960302 2.1044716e-38
-0.34651199 0.185922 0.095402896 2.0585541e-38
-0.34676099 0.18780001 0.095287599 2.0677015e-38
-0.34667501 0.18938001 0.095451497 2.0768489e-38
-0.34692401 0.191267 0.095336303 2.095216e-38
-0.346567 0.20429701 0.096375696 1.8656275e-38
-0.34614399 0.20556501 0.096818998 1.828857e-38
-0.346057 0.20716 0.096984297 1.8104537e-38
-0.34563601 0.208424 0.0974264 1.8104532e-38
-0.34521499 0.20968699 0.097867303 1.8472234e-38
-0.345128 0.21128 0.098032601 1.8838855e-38
-0.34470901 0.21254 0.098472401 1.9298392e-38
-0.343961 0.213461 0.099183798 1.9576416e-38
-0.34387401 0.215051 0.099348798 1.9667899e-38
-0.34986201 0.150226 0.088426501 2.3348525e-38
-0.349094 0.151281 0.089167997 2.3436766e-38
-0.34832999 0.15233301 0.089905597 2.3434965e-38
-0.34790599 0.153635 0.090353496 2.3433166e-38
-0.346479 0.154165 0.091652498 2.3434974e-38
-0.34408101 0.15392999 0.093773298 2.2898025e-38
-0.342372 0.154201 0.095309198 2.3198367e-38
-0.34196499 0.155476 0.095740199 2.3474197e-38
-0.34156001 0.156748 0.096170202 2.3269627e-38
-0.34147701 0.15827399 0.096328102 2.2699922e-38
-0.34745699 0.18114699 0.092257701 2.1505339e-38
-0.34636 0.181843 0.093271703 2.0862492e-38
-0.34593901 0.18312401 0.093716599 2.0402953e-38
-0.34551901 0.184403 0.0941604 1.9944139e-38
-0.34543201 0.18597899 0.094323397 2.0035973e-38
-0.345346 0.187555 0.094486497 2.0495146e-38
-0.34559301 0.189437 0.094369702 2.0771367e-38
-0.34538999 0.20595101 0.0954528 1.9207644e-38
-0.344969 0.20721801 0.095896997 1.9299841e-38
-0.344881 0.208814 0.096062101 1.9484235e-38
-0.34446099 0.210078 0.096505202 1.9667545e-38
-0.344706 0.212008 0.096392602 1.975938e-38
-0.34461901 0.213607 0.096557997 1.9760102e-38
-0.343867 0.21453001 0.097277202 1.9577872e-38
-0.343779 0.21612699 0.097442403 1.9211614e-38
-0.349895 0.149472 0.086302698 2.3162703e-38
-0.34878099 0.15028 0.087345302 2.3435331e-38
-0.34801501 0.151335 0.088089399 2.343533e-38
-0.346917 0.152132 0.0891179 2.3438204e-38
-0.34549499 0.15267 0.0904231 2.3435337e-38
-0.343106 0.152447 0.092555001 2.343751e-38
-0.34172401 0.152978 0.093823001 2.3347463e-38
-0.34131801 0.154255 0.094256103 2.3440374e-38
-0.340913 0.15552901 0.094688103 2.3437856e-38
-0.34082901 0.157056 0.094845802 2.3159829e-38
-0.340745 0.158585 0.095003501 2.2424059e-38
-0.34066099 0.16011401 0.095161296 2.1780119e-38
-0.344771 0.18475699 0.092798904 1.7834099e-38
-0.34435201 0.18603501 0.093243703 1.8109599e-38
-0.34459701 0.187914 0.093124799 1.856877e-38
-0.344282 0.212741 0.094743498 1.8659514e-38
-0.34352899 0.21366701 0.095469102 1.8291454e-38
-0.34344101 0.215267 0.0956342 1.7831562e-38
-0.344017 0.217554 0.095240399 1.7371671e-38
-0.34992799 0.14871299 0.084161997 2.2979753e-38
-0.348809 0.149526 0.085217297 2.3435328e-38
-0.347361 0.15008099 0.086557403 2.3434249e-38
-0.34659901 0.151136 0.0873022 2.3434612e-38
-0.345842 0.15218601 0.088043198 2.3434981e-38
-0.34376499 0.152218 0.089924403 2.3438962e-38
-0.34204599 0.152501 0.091495402 2.3464485e-38
-0.34066999 0.15303101 0.092768699 2.3450092e-38
-0.34026501 0.15430801 0.0932028 2.3440011e-38
-0.34018001 0.155836 0.093360104 2.3253096e-38
-0.33977601 0.15711001 0.093793198 2.2700643e-38
-0.339692 0.158638 0.093950503 2.1873043e-38
-0.339926 0.160427 0.093832903 2.1136197e-38
-0.33984199 0.16195901 0.093990602 2.040187e-38
-0.339757 0.16349301 0.094148502 2.0404024e-38
-0.34961501 0.147696 0.082307197 2.2981548e-38
-0.348838 0.14876699 0.083072297 2.3436762e-38
-0.34772301 0.14958 0.084131703 2.3434598e-38
-0.34628099 0.150135 0.0854773 2.3433881e-38
-0.34518701 0.15093701 0.086516999 2.3433886e-38
-0.34344199 0.15122899 0.088125303 2.3434978e-38
-0.34269801 0.152272 0.0888578 2.3441121e-38
-0.34098601 0.15255401 0.090435602 2.3473473e-38
-0.339935 0.15333501 0.091435097 2.3464129e-38
-0.33952999 0.154613 0.091871299 2.344469e-38
-0.33912599 0.15589 0.092306398 2.3068345e-38
-0.33904099 0.157419 0.092463501 2.2241102e-38
-0.338956 0.158949 0.092620701 2.1413141e-38
-0.338871 0.16048101 0.092777997 2.0678098e-38
-0.33878601 0.16201299 0.092935398 2.0588425e-38
-0.33870101 0.16354699 0.093093 2.0313639e-38
-0.33861601 0.16508199 0.093250602 1.9394568e-38
-0.34930101 0.14667401 0.080442697 2.2891865e-38
-0.34852201 0.14775001 0.081214704 2.3345649e-38
-0.347406 0.148568 0.082284197 2.3434245e-38
-0.34663799 0.149634 0.0830459 2.3433879e-38
-0.3452 0.150189 0.084397197 2.343352e-38
-0.343779 0.150738 0.085733801 2.3433525e-38
-0.34171799 0.15078101 0.087632798 2.3434972e-38
-0.341306 0.152073 0.088078097 2.3437862e-38
-0.339926 0.15260801 0.089375697 2.3449729e-38
-0.33887899 0.15338799 0.090379097 2.3443988e-38
-0.33847499 0.154667 0.090816297 2.3344581e-38
-0.33838901 0.156197 0.090973102 2.2699201e-38
-0.33798701 0.157473 0.091409199 2.1780482e-38
-0.337901 0.159003 0.091565996 2.1137637e-38
-0.337816 0.16053499 0.091723002 2.0864652e-38
-0.33772999 0.162067 0.091880001 2.0314002e-38
-0.33764499 0.163601 0.092037201 1.9117985e-38
-0.33755901 0.16513599 0.092194498 1.7739741e-38
-0.33747301 0.16667201 0.092351899 1.6273257e-38
-0.34863999 0.14539599 0.078877598 2.2525246e-38
-0.34820601 0.14672799 0.079347402 2.3439636e-38
-0.347087 0.147552 0.080427103 2.3433888e-38
-0.34631699 0.148623 0.0811956 2.343281e-38
-0.34487799 0.14918301 0.082560197 2.3433526e-38
-0.34345299 0.149738 0.083910003 2.3433885e-38
-0.34106299 0.14953899 0.086118899 2.3433889e-38
-0.34032601 0.150584 0.086854897 2.3434972e-38
-0.33895099 0.151126 0.0881586 2.3439288e-38
-0.33822599 0.15216 0.088883497 2.3439653e-38
-0.33750501 0.153191 0.089604802 2.3159473e-38
-0.337419 0.15471999 0.089761101 2.24237e-38
-0.33733401 0.156251 0.0899176 2.1689009e-38
-0.336932 0.157526 0.090354703 2.1414223e-38
-0.33684599 0.15905701 0.090511203 2.1231995e-38
-0.33676001 0.16058899 0.090667799 2.0498752e-38
-0.336674 0.162121 0.0908245 1.9485326e-38
-0.336588 0.163655 0.090981297 1.8107439e-38
-0.33650199 0.16519 0.091138199 1.6732791e-38
-0.33641601 0.16672599 0.091295302 1.5456455e-38
-0.34763199 0.143867 0.077619404 2.2156841e-38
-0.347543 0.14545 0.077780902 2.3438922e-38
-0.34711 0.146782 0.078251898 2.3434967e-38
-0.34599599 0.147606 0.079335697 2.3432809e-38
-0.34489101 0.148424 0.080410801 2.3432807e-38
-0.34345999 0.148985 0.081777401 2.3433166e-38
-0.34171599 0.14929 0.083425298 2.3433526e-38
-0.33934799 0.149096 0.085632503 2.343353e-38
-0.33797801 0.149644 0.086942203 2.3435332e-38
-0.337255 0.150682 0.087669902 2.3347453e-38
-0.33653599 0.15171599 0.088393897 2.306979e-38
-0.336135 0.15299401 0.088832296 2.2515175e-38
-0.33604899 0.154521 0.088988103 2.1781205e-38
-0.33596301 0.15605 0.089143999 2.1507496e-38
-0.335877 0.15758 0.089299999 2.1324908e-38
-0.33579099 0.15911099 0.089456201 2.0865375e-38
-0.33570501 0.160642 0.089612402 1.9944859e-38
-0.33561799 0.162175 0.089768797 1.9025073e-38
-0.33553201 0.163709 0.0899252 1.7649347e-38
-0.335446 0.165245 0.090081804 1.609679e-38
-0.346625 0.14233901 0.076361999 2.1790939e-38
-0.34653601 0.143921 0.076522999 2.3436767e-38
-0.34644601 0.145504 0.076684102 2.3434252e-38
-0.34567299 0.146585 0.077466302 2.3433892e-38
-0.34456599 0.14740901 0.078551501 2.343353e-38
-0.34380299 0.148478 0.079323404 2.3433886e-38
-0.34171599 0.148537 0.081296802 2.3433522e-38
-0.33837 0.147609 0.0844106 2.3433525e-38
-0.33700401 0.148164 0.085726403 2.343353e-38
-0.33628401 0.149205 0.086456902 2.3342778e-38
-0.335567 0.150241 0.087183699 2.2886117e-38
-0.33516699 0.151521 0.087623201 2.2240749e-38
-0.33508101 0.153047 0.087778598 2.1780849e-38
-0.334995 0.15457501 0.087934002 2.1782645e-38
-0.33490801 0.156104 0.0880896 2.1600056e-38
-0.334822 0.157634 0.088245302 2.1048327e-38
-0.33473501 0.159164 0.088400997 2.0312202e-38
-0.334649 0.160696 0.088556901 1.9576798e-38
-0.334562 0.162229 0.088712901 1.8658454e-38
-0.33447501 0.163764 0.088868998 1.710302e-38
-0.345961 0.141056 0.074790999 2.1701618e-38
-0.34552899 0.14239299 0.075265698 2.3437489e-38
-0.34543899 0.143975 0.075426303 2.3434608e-38
-0.345009 0.145308 0.075899698 2.3433885e-38
-0.34424001 0.14638799 0.076682597 2.3434248e-38
-0.343476 0.14746299 0.077461302 2.343389e-38
-0.34138501 0.14752901 0.079454899 2.3433888e-38
-0.33998099 0.148092 0.080818601 2.3433526e-38
-0.33634901 0.146928 0.084221102 2.3433527e-38
-0.33562899 0.147972 0.084956199 2.3250218e-38
-0.33491299 0.149012 0.085687399 2.2791403e-38
-0.33451301 0.15029401 0.086129099 2.205744e-38
-0.33411399 0.151574 0.086569697 2.1689015e-38
-0.33402699 0.1531 0.086724699 2.1783365e-38
-0.33394 0.15462799 0.086879797 2.1691893e-38
-0.33385301 0.156157 0.087035 2.1231638e-38
-0.333767 0.15768699 0.0871903 2.0587352e-38
-0.33368 0.159218 0.087345697 1.985195e-38
-0.33359301 0.16075 0.087501198 1.9026152e-38
-0.33350599 0.162284 0.0876569 1.7927375e-38
-0.34495401 0.13952699 0.0735332 2.1336794e-38
-0.344863 0.14111 0.073693402 2.3163422e-38
-0.34443301 0.14244699 0.0741693 2.3435327e-38
-0.34400299 0.14378101 0.074643999 2.3433883e-38
-0.34323701 0.14486399 0.075429797 2.3434602e-38
-0.342475 0.145942 0.076211497 2.3433883e-38
-0.34072199 0.146268 0.077909701 2.3433888e-38
-0.33964601 0.147085 0.078980602 2.3432809e-38
-0.336009 0.145932 0.082419097 2.343281e-38
-0.334658 0.146495 0.083742902 2.3249139e-38
-0.33425701 0.147781 0.084187798 2.2698485e-38
-0.333545 0.148821 0.084919803 2.1964521e-38
-0.33314699 0.15010101 0.085361503 2.1598259e-38
-0.33306 0.151627 0.085515998 2.1783009e-38
-0.332973 0.153154 0.085670702 2.1784091e-38
-0.33288601 0.154682 0.085825399 2.1232357e-38
-0.332798 0.156211 0.085980199 2.0679544e-38
-0.33271101 0.157741 0.086135201 2.0127814e-38
-0.33262399 0.159272 0.086290203 1.9393856e-38
-0.332537 0.160804 0.086445399 1.8294717e-38
-0.34394699 0.137999 0.072276004 2.1061293e-38
-0.34385601 0.13958099 0.072435804 2.2980832e-38
-0.343427 0.140919 0.072912902 2.3436047e-38
-0.342998 0.14225499 0.073388897 2.3433886e-38
-0.34223399 0.143341 0.074177697 2.3433885e-38
-0.341142 0.14417499 0.075273797 2.3433886e-38
-0.33972901 0.144757 0.076668598 2.3432806e-38
-0.33865601 0.14557999 0.077744201 2.3433526e-38
-0.33759299 0.14639699 0.078811102 2.3432448e-38
-0.33399999 0.14525799 0.082237899 2.3156941e-38
-0.333287 0.14630499 0.082976401 2.2697764e-38
-0.33257699 0.147348 0.083711103 2.2055636e-38
-0.33217999 0.14862899 0.084154002 2.1690092e-38
-0.332093 0.15015399 0.084307998 2.1784086e-38
-0.33200601 0.15167999 0.084462203 2.1875928e-38
-0.331918 0.153207 0.084616497 2.1323117e-38
-0.33183101 0.154735 0.084770799 2.0863217e-38
-0.331743 0.15626401 0.084925301 2.0312563e-38
-0.33165601 0.157795 0.085079901 1.9670077e-38
-0.331568 0.159326 0.085234597 1.8662416e-38
-0.342603 0.136234 0.071338996 2.0693606e-38
-0.34251201 0.137813 0.071498103 2.2889356e-38
-0.342421 0.139392 0.0716573 2.3435687e-38
-0.34199399 0.140729 0.072134502 2.3433532e-38
-0.341232 0.141818 0.072926298 2.3433532e-38
-0.33981299 0.142414 0.0743393 2.3433529e-38
-0.33840799 0.143004 0.075736903 2.3432809e-38
-0.33766699 0.14407501 0.076508403 2.3432447e-38
-0.33660701 0.144898 0.077579901 2.3432448e-38
-0.333029 0.14377999 0.081024297 2.3064749e-38
-0.33231801 0.14483 0.0817656 2.2421541e-38
-0.33160999 0.14587601 0.082503103 2.1963441e-38
-0.33121401 0.147158 0.082947098 2.1781928e-38
-0.33112699 0.148682 0.083100699 2.1968117e-38
-0.33103901 0.150207 0.083254397 2.2059955e-38
-0.33095101 0.151733 0.083408199 2.1507148e-38
-0.33086401 0.15325999 0.083562098 2.1047246e-38
-0.33077601 0.154789 0.083716102 2.0679905e-38
-0.330688 0.15631799 0.083870202 2.0129613e-38
-0.33059999 0.157848 0.084024496 1.9121589e-38
-0.341598 0.13471 0.070084997 2.0234443e-38
-0.34117201 0.13605 0.070563696 2.2889716e-38
-0.34108099 0.13762701 0.070722103 2.343532e-38
-0.340655 0.138963 0.071199499 2.3433165e-38
-0.340231 0.140297 0.071675599 2.343317e-38
-0.33881599 0.1409 0.073094897 2.343317e-38
-0.33709201 0.141256 0.0748083 2.3433167e-38
-0.336355 0.14233001 0.075580902 2.3433169e-38
-0.33562201 0.143399 0.0763494 2.3432088e-38
-0.33299601 0.14301801 0.0789195 2.3247694e-38
-0.33134899 0.143356 0.080555499 2.2329346e-38
-0.33095199 0.14464299 0.081002697 2.1871246e-38
-0.33024901 0.145688 0.081740901 2.1690451e-38
-0.33016101 0.147211 0.081894003 2.2060311e-38
-0.330073 0.148735 0.082047202 2.2243983e-38
-0.32998499 0.15026 0.082200602 2.1782652e-38
-0.32989699 0.151786 0.082354002 2.1139444e-38
-0.32980901 0.15331399 0.082507603 2.0863937e-38
-0.329721 0.154842 0.082661197 2.0496955e-38
-0.32963201 0.156371 0.082814999 1.967152e-38
-0.34026 0.132954 0.069153696 2.0236235e-38
-0.34016901 0.134528 0.069311596 2.3256691e-38
-0.33974499 0.135867 0.069790304 2.3434613e-38
-0.33932099 0.13720299 0.070267797 2.3433169e-38
-0.33889899 0.13853601 0.070744 2.3433526e-38
-0.33782101 0.139386 0.071851298 2.3433529e-38
-0.33610299 0.139752 0.073572703 2.343317e-38
-0.33504799 0.14059 0.074656501 2.3432807e-38
-0.334638 0.141902 0.075119503 2.334097e-38
-0.33233401 0.141772 0.077401802 2.3156578e-38
-0.33038101 0.141882 0.079346001 2.2513009e-38
-0.32998499 0.143171 0.079794496 2.1963435e-38
-0.32958999 0.144457 0.080241799 2.187412e-38
-0.32919601 0.14574 0.080688 2.1969194e-38
-0.329108 0.147264 0.080840804 2.1968478e-38
-0.32901901 0.14878801 0.0809936 2.1782293e-38
-0.328931 0.150313 0.081146598 2.1323116e-38
-0.32884201 0.151839 0.0812997 2.0955774e-38
-0.32875401 0.153367 0.081452899 2.0680269e-38
-0.32866499 0.15489499 0.081606202 2.0129619e-38
-0.338595 0.13097399 0.068547599 1.9780648e-38
-0.33850399 0.132543 0.068704598 2.3256325e-38
-0.338083 0.13388 0.069182299 2.3434255e-38
-0.338321 0.135684 0.0690189 2.3433173e-38
-0.337571 0.13678101 0.069815703 2.3434248e-38
-0.33682501 0.13787401 0.070608303 2.3433527e-38
-0.335114 0.13824899 0.072337702 2.343281e-38
-0.33406299 0.139092 0.073426098 2.3432811e-38
-0.33365399 0.140405 0.073890299 2.3340614e-38
-0.33167201 0.140525 0.075880699 2.3064744e-38
-0.33002901 0.14087901 0.077540502 2.251337e-38
-0.32932499 0.14193501 0.078289799 2.2054915e-38
-0.32892999 0.143223 0.0787393 2.1783365e-38
-0.328536 0.144509 0.079187699 2.2152867e-38
-0.32844701 0.146034 0.079340197 2.2059598e-38
-0.32805401 0.14731599 0.079787299 2.1782295e-38
-0.32796499 0.14884099 0.079939798 2.1506428e-38
-0.32787701 0.15036599 0.080092497 2.1231282e-38
-0.327788 0.151893 0.080245197 2.0955417e-38
-0.32769901 0.15342 0.080398001 2.0588793e-38
-0.33693999 0.129005 0.0679456 1.9508371e-38
-0.33717701 0.130798 0.067779899 2.3072302e-38
-0.33708501 0.132365 0.067936301 2.3434615e-38
-0.33666599 0.1337 0.0684141 2.3432809e-38
-0.335922 0.134799 0.069209903 2.3433172e-38
-0.33583099 0.136362 0.069366001 2.3432814e-38
-0.334126 0.136747 0.071103401 2.3432807e-38
-0.333078 0.137595 0.072196402 2.3432809e-38
-0.33235401 0.13867299 0.072971597 2.3248777e-38
-0.33100799 0.139275 0.074356198 2.2881073e-38
-0.32936701 0.13963699 0.076027997 2.2421896e-38
-0.32835799 0.140462 0.077081203 2.2054561e-38
-0.32826799 0.141987 0.077233501 2.2058509e-38
-0.327874 0.14327601 0.077684 2.2062465e-38
-0.327481 0.14456201 0.078133397 2.2059954e-38
-0.32739201 0.14608601 0.078285597 2.1965962e-38
-0.32730299 0.14761201 0.078437798 2.1690095e-38
-0.327214 0.149138 0.078590199 2.1414951e-38
-0.32712501 0.150666 0.078742601 2.104797e-38
-0.32703501 0.15219501 0.078895196 2.0680989e-38
-0.335619 0.12727199 0.067025699 1.9510527e-38
-0.33552799 0.128832 0.067180999 2.2797161e-38
-0.33543599 0.130394 0.0673365 2.3436053e-38
-0.33534399 0.13195699 0.067492098 2.3433525e-38
-0.33492801 0.13328899 0.067968801 2.3433174e-38
-0.33322999 0.133692 0.069715202 2.3432809e-38
-0.332185 0.134551 0.070813298 2.3433169e-38
-0.33209401 0.136099 0.070967399 2.3433166e-38
-0.33137301 0.13718 0.0717455 2.3432084e-38
-0.33003101 0.137789 0.073136203 2.3063663e-38
-0.328704 0.138392 0.074511997 2.2329701e-38
-0.328307 0.139689 0.074967898 2.1780851e-38
-0.327301 0.140514 0.076025099 2.1967402e-38
-0.32721201 0.14204 0.076176897 2.2337971e-38
-0.326819 0.143328 0.076628499 2.2151069e-38
-0.326729 0.14485399 0.076780401 2.1967039e-38
-0.32664001 0.14638001 0.0769324 2.159898e-38
-0.32624799 0.14766499 0.077382699 2.141495e-38
-0.32615799 0.14919101 0.077534698 2.123128e-38
-0.32637101 0.150966 0.077389002 2.0864301e-38
-0.33397999 0.125323 0.066431597 1.9420488e-38
-0.33388901 0.12687799 0.0665861 2.2431261e-38
-0.33347601 0.12821101 0.067061998 2.3437488e-38
-0.33338401 0.129766 0.067216501 2.3433167e-38
-0.33329201 0.13132299 0.0673711 2.3433532e-38
-0.332243 0.132193 0.068482697 2.3434251e-38
-0.331202 0.133057 0.069585398 2.3433533e-38
-0.32985801 0.13368601 0.070990801 2.3432447e-38
-0.32852799 0.13431001 0.072381303 2.3248769e-38
-0.328437 0.13584299 0.072533503 2.2973264e-38
-0.32773301 0.136914 0.0732987 2.2513729e-38
-0.327337 0.138212 0.073755801 2.2055273e-38
-0.32663801 0.139275 0.074514903 2.1967041e-38
-0.32624501 0.140567 0.074968703 2.2246141e-38
-0.32615501 0.142092 0.0751203 2.2333662e-38
-0.326065 0.143619 0.075271897 2.1874125e-38
-0.32567301 0.144906 0.075724401 2.1782651e-38
-0.32558301 0.146433 0.075875998 2.1506786e-38
-0.32549301 0.14796101 0.076027803 2.123128e-38
-0.325403 0.14949 0.076179601 2.08643e-38
-0.332032 0.12317 0.066163197 1.9144984e-38
-0.332259 0.124936 0.065995097 2.2156475e-38
-0.332167 0.126487 0.066148803 2.3437483e-38
-0.33175701 0.127817 0.066623703 2.3433167e-38
-0.331348 0.129144 0.067097299 2.3433888e-38
-0.330625 0.130243 0.067887902 2.3433174e-38
-0.32990599 0.131337 0.068674199 2.343245e-38
-0.32888001 0.1322 0.0697698 2.3431735e-38
-0.327555 0.13283101 0.071166404 2.3156589e-38
-0.326244 0.13345601 0.072548099 2.2605213e-38
-0.32585099 0.134754 0.073004298 2.2053838e-38
-0.32636699 0.13673601 0.072544299 2.1964161e-38
-0.325973 0.138033 0.0730014 2.2151788e-38
-0.32558 0.139327 0.073457398 2.2337255e-38
-0.32549 0.140854 0.0736086 2.2150712e-38
-0.32509801 0.14214499 0.074063398 2.1874127e-38
-0.325008 0.14367101 0.074214697 2.1598265e-38
-0.32491699 0.145199 0.074366003 2.1506787e-38
-0.32482699 0.14672799 0.074517503 2.1414591e-38
-0.324736 0.148258 0.0746691 2.104797e-38
-0.33041501 0.121247 0.065576904 1.9236106e-38
-0.330639 0.123005 0.065407999 2.1973892e-38
-0.330547 0.124551 0.065560803 2.3438561e-38
-0.33045501 0.12609801 0.065713704 2.3433886e-38
-0.33004799 0.127425 0.066187501 2.343389e-38
-0.32901701 0.128304 0.0672969 2.3434609e-38
-0.328614 0.129623 0.067766301 2.3432806e-38
-0.327903 0.130714 0.068549402 2.3432443e-38
-0.326583 0.13135201 0.069952101 2.3156582e-38
-0.325277 0.13198499 0.071339801 2.2697404e-38
-0.32488501 0.133283 0.0717972 2.2146035e-38
-0.324494 0.134579 0.072253503 2.2056719e-38
-0.32470399 0.136329 0.072098203 2.233582e-38
-0.32491499 0.13808499 0.071942702 2.2520567e-38
-0.324523 0.13937899 0.072399698 2.2151429e-38
-0.32443199 0.14090601 0.072550602 2.1967038e-38
-0.324341 0.142434 0.072701603 2.1782292e-38
-0.32455099 0.14420199 0.072547302 2.1600062e-38
-0.324159 0.145493 0.073003903 2.1507147e-38
-0.32406899 0.14702401 0.073155202 2.1324191e-38
-0.32943299 0.119757 0.064350501 1.9052085e-38
-0.32934099 0.121299 0.0645025 2.1975329e-38
-0.32924899 0.122842 0.064654604 2.343892e-38
-0.32915699 0.124386 0.064806901 2.3434244e-38
-0.32875201 0.12571201 0.065280803 2.3433526e-38
-0.32803699 0.12681501 0.066073202 2.3434608e-38
-0.327636 0.128135 0.066543698 2.3433889e-38
-0.32662001 0.129008 0.067645498 2.3432446e-38
-0.32561201 0.12987401 0.068738401 2.3064744e-38
-0.32431 0.130514 0.070132203 2.2421541e-38
-0.323919 0.131813 0.070590802 2.2237155e-38
-0.32352901 0.13311 0.0710482 2.2240389e-38
-0.32343799 0.13463099 0.071198098 2.2428732e-38
-0.32364699 0.136381 0.0710411 2.2429092e-38
-0.32355601 0.137906 0.0711914 2.215107e-38
-0.32376501 0.13966499 0.071034402 2.1783728e-38
-0.32397401 0.14143001 0.070877001 2.1691534e-38
-0.32388201 0.14296199 0.071028002 2.1598625e-38
-0.32349101 0.144255 0.071486898 2.1323473e-38
-0.32339901 0.145787 0.071637899 2.1231998e-38
-0.32813999 0.118058 0.063448898 1.8867706e-38
-0.32804701 0.119597 0.063600197 2.1883139e-38
-0.32795501 0.121137 0.063751698 2.3346011e-38
-0.32755199 0.122464 0.0642258 2.3434969e-38
-0.32745999 0.124004 0.064377204 2.3434965e-38
-0.32705799 0.12532701 0.064850099 2.3434602e-38
-0.32635 0.12642901 0.065641098 2.3433883e-38
-0.325645 0.127525 0.066427998 2.3249856e-38
-0.32464099 0.128397 0.067525499 2.2789244e-38
-0.32364401 0.129263 0.068614103 2.2512656e-38
-0.32325301 0.130565 0.069074899 2.2144958e-38
-0.32286301 0.13186499 0.069534503 2.2148918e-38
-0.322474 0.13316201 0.069992997 2.2336541e-38
-0.32238299 0.134683 0.070142597 2.2336535e-38
-0.32288799 0.13666201 0.069674499 2.2243263e-38
-0.323998 0.139121 0.068580002 2.1967042e-38
-0.323906 0.14065699 0.068731099 2.1783728e-38
-0.323814 0.142194 0.068882301 2.1875564e-38
-0.323421 0.143493 0.0693454 2.1691178e-38
-0.323028 0.144789 0.069807298 2.1324194e-38
-0.32685 0.116366 0.062550299 1.8314539e-38
-0.326758 0.117901 0.062701002 2.1791302e-38
-0.32666501 0.119438 0.062851802 2.3344933e-38
-0.32626399 0.120764 0.063326001 2.3433174e-38
-0.32617199 0.122301 0.063476801 2.3433532e-38
-0.32607901 0.123839 0.063627698 2.3433889e-38
-0.32537299 0.124944 0.064421602 2.3432806e-38
-0.324671 0.12604401 0.065211304 2.3340967e-38
-0.32367 0.126921 0.0663132 2.2788885e-38
-0.32267699 0.127792 0.067406297 2.2146391e-38
-0.32228699 0.129095 0.067868203 2.1870883e-38
-0.32219601 0.13061699 0.068017498 2.2058516e-38
-0.32210401 0.13214 0.068166897 2.2153231e-38
-0.32201299 0.133664 0.068316303 2.2152154e-38
-0.32192099 0.135189 0.068465903 2.2151073e-38
-0.323026 0.137638 0.067364499 2.1966683e-38
-0.32293299 0.139174 0.067515098 2.1874848e-38
-0.32314199 0.140947 0.067351297 2.1783371e-38
-0.32304901 0.14248601 0.067502297 2.1874845e-38
-0.32295701 0.14402699 0.067653403 2.1600778e-38
-0.325872 0.114882 0.061329301 1.822486e-38
-0.32577899 0.116416 0.061479401 2.1607987e-38
-0.32537901 0.117745 0.061955001 2.3254175e-38
-0.32528701 0.11928 0.062105201 2.3434251e-38
-0.325194 0.120816 0.062255502 2.3432811e-38
-0.32479501 0.12214 0.062729701 2.3432811e-38
-0.32409301 0.123247 0.0635245 2.343281e-38
-0.32339501 0.124349 0.064315103 2.3340253e-38
-0.32269999 0.12544601 0.065101497 2.2881071e-38
-0.321711 0.126322 0.066198997 2.2329345e-38
-0.32132199 0.127626 0.066662103 2.1870532e-38
-0.32122999 0.12914699 0.066810898 2.2425499e-38
-0.32113799 0.130669 0.066959903 2.2520569e-38
-0.32104599 0.132191 0.067108899 2.2243629e-38
-0.321251 0.13394099 0.066944599 2.2059598e-38
-0.322054 0.13615599 0.0661496 2.2058879e-38
-0.32226101 0.137923 0.0659834 2.1966326e-38
-0.32216799 0.139461 0.066133797 2.1782655e-38
-0.32207501 0.140999 0.066284403 2.1690818e-38
-0.321982 0.14253899 0.066435099 2.150715e-38
-0.32458901 0.113197 0.0604362 1.795367e-38
-0.324496 0.114729 0.0605857 2.1517945e-38
-0.32440299 0.116262 0.0607353 2.306979e-38
-0.32431 0.117796 0.060885001 2.3434612e-38
-0.32391199 0.119122 0.061360501 2.3434249e-38
-0.323515 0.120445 0.061834801 2.3433889e-38
-0.322817 0.121554 0.0626304 2.3433169e-38
-0.32242301 0.122871 0.063101299 2.3248777e-38
-0.321134 0.123545 0.064527102 2.2788881e-38
-0.32074499 0.124852 0.064992502 2.2330065e-38
-0.32035699 0.126157 0.065456703 2.1964161e-38
-0.320265 0.12767699 0.065605097 2.2335103e-38
-0.320173 0.129198 0.065753497 2.2703883e-38
-0.320081 0.13072 0.065902099 2.2518772e-38
-0.32028401 0.132467 0.065735802 2.2242906e-38
-0.32137999 0.134904 0.064617202 2.2150351e-38
-0.321587 0.13666999 0.0644482 2.2058159e-38
-0.321493 0.138209 0.064598396 2.187449e-38
-0.32139999 0.13974901 0.064748697 2.1783374e-38
-0.321307 0.141289 0.064899102 2.1599701e-38
-0.32361299 0.111717 0.059218001 1.7496645e-38
-0.32352 0.113248 0.059367102 2.1242796e-38
-0.32342699 0.11478 0.0595163 2.2886477e-38
-0.32302999 0.116108 0.059992999 2.3342416e-38
-0.322936 0.11764 0.0601422 2.3433534e-38
-0.32223901 0.118756 0.060942899 2.3433532e-38
-0.321845 0.120076 0.061416201 2.3433169e-38
-0.32115301 0.121184 0.0622104 2.3157302e-38
-0.32016799 0.122075 0.063320003 2.2605212e-38
-0.31948501 0.123172 0.064104199 2.2237511e-38
-0.31939301 0.124689 0.064251997 2.2055999e-38
