# .PCD v0.7 - Point Cloud Data file format
VERSION 0.7
FIELDS x y z rgb
SIZE 4 4 4 4
TYPE F F F F
COUNT 1 1 1 1
WIDTH 1021
HEIGHT 1
VIEWPOINT 0 0 0 1 0 0 0
POINTS 1021
DATA ascii
-0.37645301 0.0084726196 0.085100397 1.713361e-38
-0.37637401 0.0099600703 0.0852594 2.1886755e-38
-0.37591201 0.0113845 0.085717499 2.3438925e-38
-0.37621701 0.0129381 0.0855776 2.3436053e-38
-0.376138 0.0144285 0.085736901 2.3434608e-38
-0.376059 0.01592 0.085896298 2.343712e-38
-0.37597999 0.017412599 0.0860558 2.3437482e-38
-0.3759 0.0189061 0.086215399 2.3436759e-38
-0.37582099 0.020400699 0.086375199 2.3436397e-38
-0.37574199 0.0218962 0.086534999 2.3435681e-38
-0.37566301 0.0233928 0.086694904 2.343533e-38
-0.37558299 0.0248904 0.086855002 2.3163423e-38
-0.37550399 0.026388999 0.0870151 2.2516975e-38
-0.37542501 0.0278887 0.087175399 2.1782644e-38
-0.37534499 0.029389299 0.087335803 2.1412418e-38
-0.375265 0.030890999 0.087496303 2.1411332e-38
-0.375186 0.032393701 0.087656803 2.1503889e-38
-0.374724 0.0338022 0.088113204 2.1779038e-38
-0.374264 0.035207901 0.088568501 2.1963432e-38
-0.37418401 0.036709499 0.088728897 2.2055622e-38
-0.373725 0.038111299 0.089182898 2.233041e-38
-0.37364501 0.0396129 0.089343399 2.2421887e-38
-0.373566 0.041115399 0.089504004 2.1961996e-38
-0.373108 0.042512201 0.089956596 2.1319505e-38
-0.37227499 0.043797899 0.090698101 2.0859606e-38
-0.37182 0.045187298 0.091147497 2.0583372e-38
-0.371741 0.046685699 0.091307603 2.0308228e-38
-0.371288 0.048071299 0.091755703 2.0308946e-38
-0.36972401 0.049109101 0.0930584 2.0216393e-38
-0.369277 0.050484002 0.0935013 1.9940528e-38
-0.36883101 0.051856101 0.093943097 1.9940522e-38
-0.368752 0.0533453 0.094102196 1.9939446e-38
-0.36830699 0.0547137 0.094542697 1.9847613e-38
-0.367863 0.056079298 0.094982199 1.9939086e-38
-0.36778399 0.0575676 0.095141299 1.984725e-38
-0.366979 0.058802702 0.095857903 1.975469e-38
-0.36617801 0.060032099 0.096570797 1.9662858e-38
-0.36502299 0.061126798 0.097554199 1.9662856e-38
-0.36317101 0.061954498 0.0990711 1.9387348e-38
-0.362391 0.063162103 0.099766202 1.9111482e-38
-0.361963 0.064496301 0.100191 1.8285684e-38
-0.36188599 0.065961801 0.100347 1.8101295e-38
-0.36145899 0.067292497 0.100771 1.8835616e-38
-0.36138201 0.0687581 0.100927 1.9936923e-38
-0.36130399 0.070224702 0.101084 2.0489022e-38
-0.360879 0.071550898 0.101506 2.1134042e-38
-0.36080101 0.073017597 0.101663 2.1409905e-38
-0.36037701 0.074340403 0.102084 2.1041473e-38
-0.359954 0.075660802 0.102504 2.0213872e-38
-0.35884601 0.076683901 0.103446 1.9661418e-38
-0.35707101 0.077405304 0.104895 1.9477384e-38
-0.35632101 0.078560799 0.105563 1.9110404e-38
-0.35590899 0.079860598 0.105973 1.837608e-38
-0.35549799 0.081158102 0.106382 1.819205e-38
-0.355088 0.082453199 0.10679 1.9201882e-38
-0.355012 0.083900101 0.106944 2.1500652e-38
-0.35460299 0.085191898 0.107351 2.297759e-38
-0.35452601 0.086639002 0.107506 2.3445776e-38
-0.354119 0.087927602 0.107912 2.335862e-38
-0.35371199 0.089213803 0.108317 2.2886842e-38
-0.352651 0.090174198 0.109218 2.1049416e-38
-0.35095099 0.090805002 0.110602 1.9576439e-38
-0.349911 0.091751397 0.111485 1.9662139e-38
-0.34887901 0.092691503 0.112361 1.8835623e-38
-0.347855 0.093625501 0.113231 1.8559035e-38
-0.34777999 0.0950455 0.113383 1.8650153e-38
-0.34739 0.0963002 0.113772 1.9109692e-38
-0.34700099 0.097552799 0.114161 2.0308241e-38
-0.346926 0.098972097 0.114313 2.1233815e-38
-0.34653801 0.100222 0.1147 2.124354e-38
-0.34553 0.101126 0.115555 2.0059756e-38
-0.345146 0.102368 0.11594 1.8048012e-38
-0.34476301 0.103609 0.116323 1.6493635e-38
-0.344688 0.105022 0.116474 1.6216325e-38
-0.34369299 0.105907 0.117318 1.6568201e-38
-0.34331301 0.10714 0.117698 1.7826522e-38
-0.342935 0.10837 0.118077 1.7642492e-38
-0.34286001 0.109779 0.118228 1.7916559e-38
-0.34308901 0.111371 0.11815 1.8284976e-38
-0.343014 0.112783 0.118301 1.8836358e-38
-0.34294 0.114197 0.118452 1.9396387e-38
-0.34286499 0.115611 0.118603 1.767239e-38
-0.34309399 0.117216 0.118526 1.5023198e-38
-0.37547201 0.0070267301 0.083880298 1.6312133e-38
-0.37462899 0.0083935596 0.084639899 1.9149311e-38
-0.37455001 0.0098770401 0.084798001 2.3442534e-38
-0.37447101 0.0113615 0.084956303 2.3438925e-38
-0.374773 0.012913 0.084815301 2.3434606e-38
-0.37469399 0.0144015 0.084973998 2.3435683e-38
-0.37461501 0.015891099 0.0851328 2.3437839e-38
-0.37453499 0.0173817 0.085291803 2.3437122e-38
-0.37445599 0.0188733 0.085450798 2.3435681e-38
-0.37399599 0.0202896 0.085908301 2.3434602e-38
-0.37391701 0.0217811 0.086067297 2.3435323e-38
-0.37436 0.027930999 0.086109199 2.2427297e-38
-0.37428001 0.029431799 0.086269297 2.1687574e-38
-0.37419999 0.0309336 0.086429402 2.1778679e-38
-0.37412 0.032436401 0.086589597 2.251444e-38
-0.37327999 0.033750001 0.087343499 2.2973623e-38
-0.3732 0.035250802 0.0875035 2.3343483e-38
-0.37236401 0.0365551 0.088252999 2.343496e-38
-0.37190801 0.037953299 0.088706002 2.3434598e-38
-0.371829 0.039450798 0.088865697 2.3434238e-38
-0.37174901 0.040949401 0.089025497 2.2790673e-38
-0.37166899 0.042449001 0.089185402 2.2146742e-38
-0.370841 0.043733198 0.089927703 2.1412052e-38
-0.37076101 0.045230702 0.090087399 2.1043271e-38
-0.370682 0.0467293 0.090247199 2.0768485e-38
-0.37060201 0.048228901 0.090407103 2.0677365e-38
-0.36940899 0.0493824 0.091431901 2.0676651e-38
-0.36859199 0.050643999 0.0921636 2.0767404e-38
-0.368146 0.052017901 0.092607401 2.1227298e-38
-0.36770099 0.053389002 0.093050197 2.1135471e-38
-0.367621 0.054879401 0.093209103 2.0951443e-38
-0.36681399 0.056123301 0.093932301 2.0767766e-38
-0.36673501 0.0576116 0.094090998 2.0400061e-38
-0.36629301 0.0589737 0.094530404 2.0031999e-38
-0.365493 0.060204402 0.0952475 1.984797e-38
-0.36433899 0.061299998 0.096237198 1.9756492e-38
-0.36284101 0.062257599 0.097492203 1.9572101e-38
-0.361709 0.0633367 0.098463804 1.9479907e-38
-0.36128101 0.0646725 0.098890297 1.9113285e-38
-0.36120301 0.0661401 0.099046797 1.883778e-38
-0.36077699 0.067472503 0.099472098 1.9020371e-38
-0.360699 0.068940103 0.099628597 1.9386634e-38
-0.360273 0.070269004 0.100053 1.9478466e-38
-0.36019501 0.071736701 0.100209 1.9661779e-38
-0.36011699 0.073205501 0.100366 1.9844731e-38
-0.360039 0.074675202 0.100523 1.9845088e-38
-0.35927001 0.075851902 0.101211 1.9478106e-38
-0.35884801 0.077171303 0.101632 1.9294435e-38
-0.35740399 0.078040898 0.102838 1.9294434e-38
-0.35597599 0.078902297 0.104032 1.9018927e-38
-0.35522801 0.080054998 0.104701 1.8284246e-38
-0.354817 0.081354 0.105112 1.8008738e-38
-0.354408 0.082650602 0.105522 1.8651229e-38
-0.35399899 0.083944902 0.105931 2.030427e-38
-0.35392201 0.085392997 0.106085 2.1685403e-38
-0.353845 0.086842 0.10624 2.2516254e-38
-0.35376701 0.0882921 0.106394 2.2426587e-38
-0.35336 0.0895814 0.106802 2.2146386e-38
-0.35262501 0.090705298 0.10746 2.0858531e-38
-0.351567 0.091660999 0.108364 1.9755055e-38
-0.34955299 0.092120603 0.109999 1.9568868e-38
-0.34820199 0.092898801 0.111125 1.8651954e-38
-0.34749401 0.093996897 0.11176 1.8192052e-38
-0.347103 0.0952553 0.112152 1.8099858e-38
-0.34671301 0.096511498 0.112543 1.8559394e-38
-0.34663799 0.097933598 0.112695 2.0029846e-38
-0.346562 0.099356703 0.112847 2.2148192e-38
-0.346486 0.100781 0.112999 2.3257059e-38
-0.34578499 0.101859 0.113626 2.317062e-38
-0.34571001 0.103282 0.113778 2.2712527e-38
-0.34563401 0.104705 0.11393 2.1699467e-38
-0.34555799 0.106129 0.114081 2.0043551e-38
-0.343629 0.106482 0.115641 1.8384742e-38
-0.34324801 0.107719 0.116025 1.8101304e-38
-0.34286699 0.108954 0.116407 1.7917275e-38
-0.342792 0.110368 0.116558 1.782472e-38
-0.34271699 0.111783 0.116709 1.8193498e-38
-0.342641 0.113199 0.11686 1.8652324e-38
-0.34256601 0.114616 0.117011 1.9487139e-38
-0.34279501 0.116223 0.116931 1.7947175e-38
-0.34271899 0.117644 0.117083 1.5389818e-38
-0.37449199 0.0055816201 0.082660899 1.5762562e-38
-0.373651 0.0069515598 0.083423302 1.7045736e-38
-0.373193 0.0083744703 0.083881803 2.1435852e-38
-0.37311399 0.0098560303 0.084039398 2.3440723e-38
-0.373034 0.0113386 0.084197097 2.3438567e-38
-0.37333399 0.012888 0.084054902 2.3434964e-38
-0.373254 0.0143746 0.084213004 2.3436402e-38
-0.373175 0.0158622 0.084371299 2.3438198e-38
-0.37309501 0.0173508 0.084529601 2.3435683e-38
-0.37301499 0.018840499 0.084688097 2.3434601e-38
-0.372181 0.0201791 0.085443802 2.3434241e-38
-0.37210101 0.021666599 0.085602097 2.3433529e-38
-0.37321401 0.029474201 0.085202597 2.2424049e-38
-0.37313399 0.0309761 0.085362397 2.2881786e-38
-0.373054 0.0324791 0.085522301 2.3434598e-38
-0.37221599 0.033792801 0.086278804 2.3435324e-38
-0.37138301 0.035100199 0.087031201 2.3435683e-38
-0.37092799 0.0364995 0.087485403 2.3434965e-38
-0.370848 0.037996199 0.087644704 2.3434606e-38
-0.37076801 0.0394939 0.087803997 2.3435317e-38
-0.37068799 0.040992599 0.087963402 2.3158371e-38
-0.370608 0.0424923 0.088123001 2.2331492e-38
-0.369041 0.043561202 0.089449897 2.1412419e-38
-0.36896101 0.0450547 0.089608803 2.1228383e-38
-0.36999401 0.046885099 0.088894799 2.1226942e-38
-0.369914 0.048386902 0.089054599 2.1227658e-38
-0.36835301 0.049426001 0.090374999 2.1411332e-38
-0.36790499 0.0508045 0.090822101 2.1594284e-38
-0.367459 0.0521801 0.091268003 2.3156929e-38
-0.36664999 0.0534328 0.091998003 2.3067257e-38
-0.36657 0.0549233 0.0921565 2.2606639e-38
-0.36576501 0.0561672 0.092882298 2.2146738e-38
-0.36568499 0.057655599 0.093040697 2.1686836e-38
-0.36524501 0.0590178 0.093481101 2.0951078e-38
-0.36480501 0.060377199 0.093920402 2.0307515e-38
-0.363653 0.061473701 0.0949165 2.0124199e-38
-0.362863 0.062693298 0.095628597 2.0124196e-38
-0.361725 0.0637751 0.096611299 2.0123478e-38
-0.360946 0.064982399 0.097314201 1.9940166e-38
-0.36051899 0.066318899 0.097742602 1.9848689e-38
-0.36043999 0.067789599 0.097898997 1.9664655e-38
-0.36001399 0.069122702 0.098326199 1.9571744e-38
-0.359588 0.070453197 0.098752402 1.9663934e-38
-0.35951 0.071923003 0.0989087 1.9572097e-38
-0.359431 0.073393799 0.099065199 1.9479904e-38
-0.359007 0.074719898 0.099490099 1.9571379e-38
-0.35892799 0.076190799 0.099646598 1.9479545e-38
-0.35816199 0.077364601 0.100337 1.9295876e-38
-0.3574 0.078533202 0.101024 1.9295516e-38
-0.35630301 0.0795459 0.101969 1.9112203e-38
-0.355214 0.080551602 0.102908 1.8653027e-38
-0.35446799 0.081702597 0.103581 1.8468996e-38
-0.35405701 0.083002299 0.103994 1.8835259e-38
-0.35364699 0.084299602 0.104405 1.96607e-38
-0.353569 0.085751601 0.10456 2.0212434e-38
-0.35316101 0.087045603 0.10497 2.076453e-38
-0.35308301 0.088497698 0.105125 2.0764536e-38
-0.352676 0.089788496 0.105534 2.085636e-38
-0.35226899 0.091076903 0.105943 2.0029478e-38
-0.35153601 0.092198104 0.106603 1.9569221e-38
-0.34791601 0.091840997 0.109489 1.9476315e-38
-0.34720701 0.092943698 0.11013 1.8927818e-38
-0.34681499 0.094205797 0.110524 1.7916904e-38
-0.34642401 0.0954656 0.110918 1.7457368e-38
-0.346035 0.096723199 0.111311 1.80073e-38
-0.34595901 0.098147303 0.111463 1.9476671e-38
-0.345882 0.099572301 0.111614 2.1318064e-38
-0.345806 0.100998 0.111766 2.279464e-38
-0.34573001 0.102425 0.111918 2.3446491e-38
-0.34565401 0.103853 0.11207 2.3353215e-38
-0.345577 0.105282 0.112222 2.2334388e-38
-0.34550101 0.106712 0.112374 2.0127814e-38
-0.344491 0.107601 0.113242 1.856444e-38
-0.342875 0.108123 0.114573 1.8010549e-38
-0.34279901 0.109542 0.114724 1.7826164e-38
-0.34272301 0.110961 0.114875 1.73659e-38
-0.34264699 0.112382 0.115026 1.7732887e-38
-0.34257099 0.113803 0.115178 1.837646e-38
-0.34249499 0.115226 0.115329 1.9577894e-38
-0.342419 0.116649 0.11548 1.8403829e-38
-0.34264901 0.118266 0.115399 1.5847195e-38
-0.373052 0.0055661299 0.081904002 1.6221378e-38
-0.37221599 0.0069343699 0.082667097 1.8327832e-38
-0.37176099 0.0083554499 0.083125703 2.3077731e-38
-0.371681 0.0098350802 0.083282702 2.344072e-38
-0.371602 0.0113157 0.083439797 2.3435683e-38
-0.371898 0.012863 0.083296403 2.3435681e-38
-0.37181801 0.0143477 0.083453998 2.343676e-38
-0.371739 0.0158334 0.083611697 2.3436043e-38
-0.37165901 0.0173201 0.0837695 2.3435324e-38
-0.37157899 0.0188078 0.0839274 2.3434602e-38
-0.37037501 0.020069201 0.084981799 2.3434604e-38
-0.370296 0.021552799 0.085139297 2.3434249e-38
-0.37206799 0.0310187 0.084295198 2.3434599e-38
-0.37198699 0.032521799 0.084454797 2.3435317e-38
-0.37115201 0.0338355 0.0852139 2.343532e-38
-0.36994901 0.0350466 0.086265497 2.3434961e-38
-0.36912501 0.036346301 0.087014601 2.3433885e-38
-0.36904499 0.037838999 0.087173 2.3434242e-38
-0.369335 0.039434601 0.087037198 2.3434601e-38
-0.369627 0.041035801 0.086901203 2.3253089e-38
-0.36917499 0.042429201 0.0873551 2.2698839e-38
-0.36688501 0.043283399 0.089264199 2.1779407e-38
-0.36753699 0.044988699 0.088842399 2.1412055e-38
-0.36893299 0.0469287 0.087832697 2.1686118e-38
-0.36885199 0.048430599 0.087992102 2.1961983e-38
-0.36729699 0.049469698 0.089318 2.2238218e-38
-0.36684999 0.050848201 0.0897661 2.2605196e-38
-0.366041 0.0521053 0.090500697 2.3343842e-38
-0.36559799 0.053476602 0.090945601 2.3436046e-38
-0.36479601 0.054723501 0.091674201 2.3434239e-38
-0.36435601 0.056087699 0.092115998 2.3066536e-38
-0.36427599 0.057574298 0.092273697 2.233077e-38
-0.36383799 0.0589348 0.092714302 2.150353e-38
-0.363758 0.0604214 0.092872001 2.0859604e-38
-0.36332101 0.0617783 0.093311399 2.0583738e-38
-0.36252901 0.063000403 0.094029397 2.0492259e-38
-0.36174199 0.064217001 0.094743602 2.0583735e-38
-0.36131001 0.065562703 0.095177799 2.0583732e-38
-0.36017999 0.066633701 0.096160904 2.0675566e-38
-0.35975301 0.067970999 0.096591003 2.0584091e-38
-0.35932699 0.069305703 0.097020201 2.0400423e-38
-0.35890099 0.070637897 0.097448297 2.0583732e-38
-0.35882199 0.072109804 0.097604498 2.0400058e-38
-0.35874301 0.073582701 0.097760901 2.0124193e-38
-0.35831901 0.074910402 0.098187797 1.9940521e-38
-0.357896 0.0762356 0.098613597 1.9756494e-38
-0.35781699 0.0777077 0.098769799 1.9572468e-38
-0.35705301 0.078878596 0.099462204 1.9480273e-38
-0.35629299 0.080044299 0.100151 1.948063e-38
-0.35553801 0.081204899 0.100836 1.9389153e-38
-0.35411599 0.082053103 0.102042 1.9296597e-38
-0.35337201 0.083201297 0.102717 1.9387351e-38
-0.353293 0.084656201 0.102871 1.9662139e-38
-0.35255301 0.085796602 0.103543 1.966286e-38
-0.35247499 0.087249704 0.103697 1.9846531e-38
-0.35206699 0.088542901 0.104109 1.9845814e-38
-0.351989 0.089996099 0.104263 2.0029479e-38
-0.351583 0.0912861 0.104673 1.9754329e-38
-0.35117701 0.092573702 0.105082 1.95703e-38
-0.34723499 0.092047997 0.108245 1.9477749e-38
-0.34715801 0.093479097 0.108397 1.9203679e-38
-0.34613499 0.094415203 0.109285 1.8193487e-38
-0.345431 0.095510602 0.109924 1.7549919e-38
-0.34535399 0.0969356 0.110075 1.8008378e-38
-0.34496599 0.098192498 0.110469 1.8926734e-38
-0.34520099 0.099788502 0.110378 1.9937286e-38
-0.34512401 0.101216 0.11053 2.0857452e-38
-0.34504801 0.102645 0.110681 2.1228408e-38
-0.344971 0.104075 0.110833 2.113801e-38
-0.34520599 0.105685 0.110743 2.0401155e-38
-0.34481701 0.106938 0.111137 1.9205133e-38
-0.34442899 0.108189 0.11153 1.837753e-38
-0.343422 0.109073 0.112401 1.8009471e-38
-0.343346 0.110501 0.112553 1.7549939e-38
-0.34326899 0.11193 0.112704 1.6907086e-38
-0.34319201 0.113359 0.112856 1.7091115e-38
-0.34280801 0.114601 0.113246 1.819243e-38
-0.342731 0.116031 0.113397 2.0404408e-38
-0.342962 0.117654 0.113312 1.9503324e-38
-0.34319299 0.119283 0.113226 1.6672267e-38
-0.37123999 0.0054950202 0.0814531 1.6403971e-38
-0.37041199 0.00685977 0.082215101 1.9791088e-38
-0.369959 0.0082771797 0.082672603 2.344145e-38
-0.36987901 0.00975285 0.082828902 2.3440006e-38
-0.3698 0.0112295 0.0829852 2.3434601e-38
-0.37046599 0.0128382 0.082539901 2.3436759e-38
-0.370386 0.0143209 0.0826969 2.3437839e-38
-0.37030599 0.015804701 0.082854003 2.343712e-38
-0.37059999 0.017361401 0.0827097 2.3435327e-38
-0.369773 0.018701499 0.083469003 2.3434961e-38
-0.36932099 0.0201106 0.083925702 2.3434598e-38
-0.369241 0.021594301 0.084082797 2.343496e-38
-0.37092099 0.032564599 0.083387099 2.3435678e-38
-0.36934099 0.033688702 0.084747903 2.3434958e-38
-0.36851799 0.034993101 0.085501701 2.343352e-38
-0.36659899 0.035999902 0.087132998 2.3432803e-38
-0.36651799 0.037484501 0.087290198 2.3434591e-38
-0.366438 0.038970198 0.087447502 2.3434972e-38
-0.36591399 0.041839801 0.0880538 2.3257049e-38
-0.36546999 0.043219902 0.088501498 2.2331132e-38
-0.365753 0.044814099 0.088368803 2.2055266e-38
-0.367872 0.046972401 0.086770304 2.2329332e-38
-0.367791 0.048474401 0.086929403 2.2882499e-38
-0.36587599 0.049398098 0.088551797 2.3158731e-38
-0.365069 0.050658301 0.089289203 2.3432437e-38
-0.364627 0.052030701 0.089735404 2.3435683e-38
-0.36382699 0.053280599 0.090466797 2.343533e-38
-0.363388 0.0546459 0.090909697 2.3433885e-38
-0.36259401 0.055885699 0.091635197 2.3250571e-38
-0.36287099 0.057493199 0.091508701 2.2423687e-38
-0.36278999 0.0589788 0.091666102 2.1596806e-38
-0.36271 0.0604656 0.091823503 2.1136188e-38
-0.36263001 0.061953299 0.091981098 2.0859243e-38
-0.362194 0.063309297 0.092421398 2.0859601e-38
-0.36175901 0.064662598 0.092860602 2.1043988e-38
-0.361325 0.066013202 0.093298703 2.1410249e-38
-0.360892 0.067361303 0.093735799 2.1686477e-38
-0.35906401 0.068152897 0.095279403 2.1963064e-38
-0.35863799 0.069489203 0.095710501 2.2055261e-38
-0.35821199 0.070823103 0.096140601 2.1962711e-38
-0.357788 0.072154403 0.096569702 2.1595007e-38
-0.35770899 0.073627397 0.096725702 2.1135827e-38
-0.35728499 0.074955203 0.097153597 2.0584092e-38
-0.35720599 0.076428302 0.097309597 2.0216034e-38
-0.35678399 0.077752598 0.097736403 2.01242e-38
-0.356363 0.079074502 0.0981621 2.0307871e-38
-0.35594299 0.080393799 0.098586798 2.0399705e-38
-0.35518599 0.0815567 0.099277802 2.0216034e-38
-0.354433 0.082714401 0.099965103 2.0124196e-38
-0.35301599 0.083555803 0.101175 2.0123474e-38
-0.35227501 0.084701203 0.101852 2.0123117e-38
-0.35186601 0.085999303 0.102266 2.012348e-38
-0.35145801 0.087294899 0.10268 2.0123478e-38
-0.35105199 0.088588104 0.103092 2.0031641e-38
-0.35097301 0.090041503 0.103246 2.0031274e-38
-0.350568 0.091331497 0.103657 2.0030914e-38
-0.348223 0.091633298 0.105593 1.9847245e-38
-0.34718701 0.092581898 0.106498 1.9663571e-38
-0.344749 0.095721498 0.108685 1.8745575e-38
-0.34435999 0.096980698 0.109081 1.865303e-38
-0.34428301 0.098406799 0.109232 1.9019654e-38
-0.34483001 0.100177 0.108894 1.9294799e-38
-0.344753 0.101609 0.109046 1.9569946e-38
-0.34467599 0.103042 0.109198 1.975506e-38
-0.344598 0.104475 0.109349 1.9571753e-38
-0.34452099 0.10591 0.109501 1.9202612e-38
-0.34413201 0.107165 0.109897 1.8743075e-38
-0.343743 0.108417 0.110292 1.8192781e-38
-0.34335601 0.109668 0.110686 1.8009828e-38
-0.342969 0.110916 0.111079 1.7734326e-38
-0.34289199 0.112348 0.111231 1.6815968e-38
-0.34281501 0.113781 0.111383 1.6540107e-38
-0.34242901 0.115026 0.111775 1.8193153e-38
-0.342352 0.116459 0.111927 2.0956861e-38
-0.34258199 0.118088 0.111839 1.9780274e-38
-0.34281299 0.119721 0.111751 1.6489321e-38
-0.36943799 0.0054242802 0.081004597 1.6402172e-38
-0.36898699 0.0068427799 0.0814633 2.1252193e-38
-0.36816701 0.0081993397 0.082221903 2.3440725e-38
-0.36808801 0.0096710697 0.082377397 2.3437489e-38
-0.368747 0.0112701 0.081931099 2.3435683e-38
-0.36866701 0.0127479 0.082087196 2.3437479e-38
-0.36858699 0.0142267 0.082243502 2.3437481e-38
-0.36887801 0.0157761 0.082098298 2.3437481e-38
-0.368797 0.017258899 0.082254998 2.3435325e-38
-0.36834601 0.0186691 0.082712799 2.3435317e-38
-0.36789599 0.0200765 0.083169602 2.3435317e-38
-0.367816 0.0215583 0.083326101 2.3436039e-38
-0.369854 0.032607298 0.082319297 2.343568e-38
-0.36754 0.033542801 0.084284298 2.3435677e-38
-0.36599201 0.0346535 0.085628703 2.343496e-38
-0.36410001 0.035657302 0.087249897 2.3434597e-38
-0.36401999 0.037133899 0.087405898 2.3432436e-38
-0.36466101 0.038811699 0.086979598 2.3252023e-38
-0.36494201 0.040396899 0.086843997 2.2612446e-38
-0.36377901 0.04157 0.087874599 2.2792482e-38
-0.36333999 0.042945001 0.088320397 2.2789948e-38
-0.363619 0.0445324 0.088187598 2.3158013e-38
-0.36644301 0.046903599 0.086003996 2.343316e-38
-0.36636099 0.048403699 0.086162403 2.3434958e-38
-0.364097 0.049212102 0.088078402 2.3434958e-38
-0.36329699 0.050469398 0.088814802 2.3433518e-38
-0.362858 0.051838499 0.089259997 2.3434249e-38
-0.36242101 0.053204801 0.089704096 2.343353e-38
-0.36127499 0.054327101 0.090717003 2.3433886e-38
-0.36013901 0.055441398 0.0917219 2.3433519e-38
-0.36111501 0.0572877 0.0910298 2.2605916e-38
-0.361743 0.0590229 0.090617701 2.1963424e-38
-0.361662 0.060509801 0.090774797 2.1412048e-38
-0.36158201 0.0619977 0.090931997 2.1227301e-38
-0.36150101 0.063486502 0.091089301 2.1502447e-38
-0.36106601 0.064841501 0.091530599 2.1871227e-38
-0.360632 0.066193901 0.091970801 2.2330047e-38
-0.360199 0.067543603 0.092409901 2.2790666e-38
-0.359768 0.068890803 0.092847899 2.315909e-38
-0.35760099 0.069533698 0.094673403 2.3250924e-38
-0.35717699 0.070867598 0.095104598 2.2974702e-38
-0.356754 0.072199002 0.095534697 2.2606639e-38
-0.35667399 0.073672101 0.095690303 2.1963428e-38
-0.35625201 0.075000003 0.0961193 2.113583e-38
-0.356172 0.076473199 0.096274897 2.0583739e-38
-0.35575101 0.077797599 0.096702702 2.1042552e-38
-0.35567099 0.079270899 0.096858397 2.150245e-38
-0.35525101 0.080591902 0.097285099 2.1227664e-38
-0.35449499 0.081755899 0.09798 2.0951437e-38
-0.353742 0.082914703 0.098671399 2.0951436e-38
-0.35332701 0.0842252 0.099093199 2.1043271e-38
-0.35191599 0.085059799 0.100307 2.1043274e-38
-0.35084799 0.086044297 0.101248 2.09518e-38
-0.35011399 0.087180898 0.101922 2.1043274e-38
-0.349709 0.088472798 0.102335 2.0859599e-38
-0.34963101 0.089924403 0.102488 2.0583725e-38
-0.34955201 0.091376901 0.102642 2.0491535e-38
-0.348501 0.092334203 0.103566 2.0124559e-38
-0.343988 0.0973619 0.107594 1.9573184e-38
-0.34391001 0.098791704 0.107745 1.9663941e-38
-0.343833 0.100223 0.107897 1.9571744e-38
-0.34375501 0.101654 0.108048 1.9480268e-38
-0.34367701 0.103087 0.108199 1.929732e-38
-0.34391099 0.104699 0.108105 1.9112932e-38
-0.34383401 0.106136 0.108256 1.8927823e-38
-0.34344399 0.107392 0.108654 1.8744154e-38
-0.34274599 0.108463 0.109295 1.8469009e-38
-0.34235999 0.109714 0.10969 1.8377173e-38
-0.342282 0.111147 0.109841 1.7826522e-38
-0.342204 0.112581 0.109993 1.7184021e-38
-0.34212601 0.114017 0.110144 1.6448988e-38
-0.342049 0.115453 0.110296 1.8653411e-38
-0.34197101 0.11689 0.110448 2.1511117e-38
-0.34220099 0.118523 0.110358 1.9417255e-38
-0.34243199 0.120162 0.110267 1.6214541e-38
-0.36801499 0.0054091499 0.080254696 1.713649e-38
-0.36719799 0.0067687598 0.081016101 2.271544e-38
-0.36638501 0.0081219198 0.081773497 2.3440362e-38
-0.36630499 0.0095897596 0.081928201 2.3436762e-38
-0.36695799 0.0111843 0.081481598 2.3435685e-38
-0.36724499 0.0127234 0.081335202 2.3437482e-38
-0.367165 0.0142003 0.081490897 2.3437478e-38
-0.367084 0.0156781 0.081646703 2.3437835e-38
-0.36700401 0.017157 0.081802502 2.3436762e-38
-0.366923 0.018636899 0.081958503 2.3436403e-38
-0.366476 0.0200425 0.082415298 2.3436762e-38
-0.366395 0.021522401 0.082571298 2.3437479e-38
-0.36762601 0.026303301 0.081835702 2.3437118e-38
-0.366806 0.027623201 0.082596302 2.34364e-38
-0.366725 0.029112199 0.082753301 2.3435325e-38
-0.36502001 0.033211 0.0844182 2.3435324e-38
-0.363134 0.034223702 0.086047098 2.3434249e-38
-0.36233899 0.035508402 0.0867856 2.3433156e-38
-0.36225799 0.036981199 0.086940803 2.3433156e-38
-0.36201799 0.0414056 0.087407202 2.3432799e-38
-0.36193699 0.042882401 0.087562896 2.3433155e-38
-0.361857 0.044360202 0.087718703 2.3433878e-38
-0.36284801 0.046168301 0.087003402 2.3433523e-38
-0.36276701 0.0476542 0.087159999 2.3434597e-38
-0.36232799 0.049027 0.087607503 2.3433885e-38
-0.36047301 0.049937099 0.089204997 2.343532e-38
-0.36004001 0.051297698 0.089646302 2.3435684e-38
-0.35960901 0.052655701 0.090086602 2.343389e-38
-0.35813501 0.053654201 0.091372199 2.3433529e-38
-0.357364 0.054882001 0.092087097 2.3433881e-38
-0.35728499 0.056347098 0.092241503 2.2789586e-38
-0.35963801 0.058687299 0.090425298 2.2147096e-38
-0.360614 0.060554001 0.089726001 2.1871584e-38
-0.360533 0.062042002 0.089882798 2.2054895e-38
-0.360452 0.063530996 0.090039797 2.2513721e-38
-0.36037099 0.065021001 0.090196803 2.2974696e-38
-0.35958499 0.0662385 0.090923399 2.3342758e-38
-0.35915399 0.0675883 0.091363497 2.3435317e-38
-0.35872301 0.068935499 0.091802597 2.3434958e-38
-0.35690901 0.069717802 0.093358599 2.3434962e-38
-0.356141 0.070912197 0.094068401 2.325129e-38
-0.355719 0.072243601 0.094499499 2.2883221e-38
-0.35563901 0.073716901 0.094654799 2.2147458e-38
-0.35521799 0.075044803 0.095084801 2.1319865e-38
-0.355138 0.076518103 0.095240101 2.0951081e-38
-0.354718 0.077842601 0.095668897 2.1869072e-38
-0.35463801 0.079315998 0.095824197 2.2422248e-38
-0.35455701 0.080790497 0.095979698 2.1963428e-38
-0.35380101 0.081955597 0.096678697 2.1778675e-38
-0.35304901 0.0831156 0.097374 2.2054546e-38
-0.35229999 0.0842705 0.098065898 2.2422248e-38
-0.35122499 0.085262403 0.0990199 2.2422967e-38
-0.34983 0.086089402 0.100229 2.2331132e-38
-0.34877399 0.087067202 0.101167 2.2146742e-38
-0.34869501 0.088517897 0.101319 2.1779396e-38
-0.348616 0.089969598 0.101473 2.1319496e-38
-0.348537 0.091422401 0.101626 2.0860322e-38
-0.34299099 0.097407103 0.106597 2.0309312e-38
-0.342913 0.0988371 0.106748 2.0308954e-38
-0.34283501 0.100268 0.106899 2.0216759e-38
-0.34275699 0.1017 0.10705 2.0124923e-38
-0.34267899 0.103133 0.107201 1.9940893e-38
-0.34291101 0.104745 0.107104 1.9664667e-38
-0.34283301 0.106182 0.107256 1.938952e-38
-0.34244499 0.107438 0.107654 1.9206211e-38
-0.34174901 0.108509 0.108297 1.9114375e-38
-0.34136301 0.10976 0.108693 1.8838151e-38
-0.34128499 0.111193 0.108844 1.8011276e-38
-0.341207 0.112628 0.108996 1.7368418e-38
-0.341436 0.114253 0.108903 1.6633019e-38
-0.34135801 0.115691 0.109054 2.0400086e-38
-0.34128001 0.11713 0.109206 2.2616381e-38
-0.34150901 0.118766 0.109114 1.9237905e-38
-0.341739 0.120406 0.109021 1.575896e-38
-0.366229 0.0053389599 0.079810999 1.768678e-38
-0.36505499 0.0066384999 0.080872796 2.3354676e-38
-0.364613 0.00804496 0.081327401 2.3441083e-38
-0.36453301 0.0095088799 0.0814813 2.3437483e-38
-0.36517799 0.011099 0.0810344 2.3438921e-38
-0.365098 0.012569 0.081188999 2.3437483e-38
-0.365017 0.0140399 0.081343703 2.3438197e-38
-0.36530101 0.0155807 0.081197299 2.3438198e-38
-0.365585 0.0171268 0.081050701 2.3438201e-38
-0.365504 0.0186048 0.081206203 2.3438918e-38
-0.36433199 0.0198589 0.082263201 2.3438201e-38
-0.364252 0.0213328 0.082418203 2.343856e-38
-0.36672899 0.023363899 0.080461301 2.3438199e-38
-0.36546499 0.0260933 0.081683703 2.343712e-38
-0.36429101 0.027323401 0.082740702 2.3437838e-38
-0.36421001 0.0288043 0.082896397 2.3436402e-38
-0.366321 0.030825 0.081245899 2.3434964e-38
-0.36623901 0.032320298 0.081403203 2.3433883e-38
-0.362169 0.032790899 0.084844902 2.3434605e-38
-0.36137599 0.034078602 0.085586198 2.3433163e-38
-0.360587 0.035360299 0.086323597 2.3433871e-38
-0.36050701 0.0368293 0.086478099 2.3433871e-38
-0.35991299 0.041139401 0.087231502 2.3434962e-38
-0.35913101 0.042401899 0.087962002 2.3433878e-38
-0.359752 0.044082299 0.087540999 2.3434605e-38
-0.361085 0.0459916 0.086536601 2.3433889e-38
-0.36100399 0.047473598 0.0866924 2.3433523e-38
-0.35951099 0.0485043 0.088005997 2.3431723e-38
-0.358033 0.0495249 0.089305699 2.3436041e-38
-0.35622799 0.0504218 0.0908724 2.3437118e-38
-0.356148 0.051881999 0.091026001 2.3434255e-38
-0.35572699 0.0532258 0.091459401 2.3438227e-38
-0.355647 0.0546862 0.091613002 2.3251311e-38
-0.356251 0.056390401 0.091207199 2.288179e-38
-0.35755 0.0583544 0.090234198 2.2422967e-38
-0.35921401 0.060469199 0.088964298 2.251516e-38
-0.359485 0.062086299 0.088833399 2.2882499e-38
-0.35940301 0.063575402 0.0889901 2.3342405e-38
-0.35932201 0.0650656 0.0891468 2.3434955e-38
-0.35888901 0.066419803 0.089590102 2.3434957e-38
-0.358457 0.067771301 0.090032302 2.3434955e-38
-0.35733101 0.068840601 0.091040201 2.3434958e-38
-0.35587001 0.069762401 0.092319801 2.3434604e-38
-0.355106 0.0709567 0.093032002 2.3250931e-38
-0.35468501 0.0722882 0.093464203 2.2790666e-38
-0.35460401 0.073761597 0.093619101 2.2146738e-38
-0.354184 0.075089604 0.094050199 2.1319502e-38
-0.354103 0.076563098 0.094205096 2.1777599e-38
-0.35368401 0.077887602 0.094635002 2.2972898e-38
-0.35360399 0.0793612 0.094789997 2.3158736e-38
-0.35352299 0.0808357 0.094944999 2.2882507e-38
-0.35310599 0.082155898 0.095373698 2.2882146e-38
-0.35201901 0.0831609 0.096344203 2.3158376e-38
-0.351273 0.084315702 0.097038403 2.3434601e-38
-0.350862 0.085623898 0.097461201 2.3434958e-38
-0.34881201 0.086134598 0.099210702 2.3342402e-38
-0.34808201 0.087271102 0.099889599 2.2974702e-38
-0.34768 0.0885631 0.100304 2.2514808e-38
-0.34222499 0.0990531 0.105501 2.1780487e-38
-0.34214699 0.100486 0.105651 2.178049e-38
-0.341759 0.101746 0.106051 2.1596455e-38
-0.341681 0.103179 0.106202 2.1229106e-38
-0.341602 0.104613 0.106353 2.0677371e-38
-0.341524 0.106048 0.106504 2.0125641e-38
-0.341445 0.107484 0.106655 1.975866e-38
-0.34075201 0.108556 0.1073 1.9483158e-38
-0.34036699 0.109806 0.107697 1.91151e-38
-0.34028801 0.11124 0.107848 1.8287863e-38
-0.340516 0.112862 0.107753 1.7461336e-38
-0.34043801 0.114299 0.107904 1.7092922e-38
-0.340666 0.115929 0.107809 2.2609173e-38
-0.34058699 0.117371 0.107961 2.3356466e-38
-0.34081501 0.119009 0.107867 1.8782336e-38
-0.340736 0.120454 0.108019 1.5024286e-38
-0.36409101 0.0052144499 0.079672799 1.75953e-38
-0.363289 0.0065655699 0.080429897 2.3446139e-38
-0.36285001 0.0079683904 0.0808836 2.3442159e-38
-0.36276901 0.0094284602 0.081036799 2.3441078e-38
-0.363408 0.0110141 0.080589399 2.3440356e-38
-0.36368799 0.0125448 0.080441996 2.3438918e-38
-0.363608 0.0140138 0.080596097 2.3439636e-38
-0.363527 0.0154839 0.080750301 2.3439278e-38
-0.363446 0.016954901 0.0809047 2.3439997e-38
-0.36336499 0.018426901 0.081059098 2.3439994e-38
-0.36328399 0.0199 0.081213698 2.3439992e-38
-0.36320299 0.021374 0.081368402 2.3438558e-38
-0.36567 0.023405701 0.079401001 2.3438917e-38
-0.36558801 0.024896 0.0795573 2.3438917e-38
-0.364409 0.026135201 0.080627002 2.3437122e-38
-0.36287901 0.0272802 0.081988104 2.3437838e-38
-0.36279801 0.028759301 0.082143299 2.3437122e-38
-0.362717 0.0302394 0.082298599 2.3435324e-38
-0.36155999 0.031448901 0.083347298 2.343352e-38
-0.36076799 0.0327411 0.084093198 2.3434237e-38
-0.360333 0.034120601 0.084541902 2.3433523e-38
-0.35989901 0.035497401 0.084989399 2.3433881e-38
-0.35981801 0.036968399 0.085143797 2.3434235e-38
-0.36008999 0.0385397 0.085005596 2.3433879e-38
-0.36000901 0.0400148 0.0851603 2.343316e-38
-0.35852301 0.041079398 0.086479597 2.3434604e-38
-0.35774499 0.042340498 0.087210797 2.3435678e-38
-0.357665 0.043806698 0.087364599 2.3434965e-38
-0.35898101 0.045706801 0.086363003 2.3434245e-38
-0.358899 0.047182899 0.086517803 2.3435677e-38
-0.35707599 0.0480997 0.088113301 2.3433158e-38
-0.35527799 0.049005199 0.089687601 2.3433526e-38
-0.35451701 0.0502377 0.090403102 2.3434244e-38
-0.35443699 0.051694199 0.090555899 2.3434265e-38
-0.354357 0.053151701 0.0907088 2.3456205e-38
-0.35393801 0.054491401 0.091141298 2.28883e-38
-0.354197 0.056069698 0.091015004 2.2883598e-38
-0.35616601 0.058273099 0.089478202 2.3066902e-38
-0.35816699 0.060513299 0.087916501 2.3342046e-38
-0.358787 0.062261999 0.087494597 2.3433882e-38
-0.35870501 0.063753299 0.087651096 2.3434244e-38
-0.35827199 0.065110199 0.088096596 2.343604e-38
-0.35784101 0.066464402 0.088540897 2.3435321e-38
-0.357759 0.067954697 0.088697299 2.3434958e-38
-0.35628799 0.068885297 0.089996003 2.3434238e-38
-0.35415101 0.069527797 0.0918409 2.3433879e-38
-0.35373101 0.070860296 0.092274196 2.3249488e-38
-0.35365 0.072332799 0.092428699 2.2606275e-38
-0.35323101 0.073661901 0.0928609 2.2053459e-38
-0.35281301 0.074988402 0.093291998 2.1501009e-38
-0.352732 0.076459996 0.093446396 2.2605555e-38
-0.352651 0.077932604 0.093600899 2.3434598e-38
-0.35257 0.079406299 0.093755499 2.3435325e-38
-0.352153 0.080727503 0.0941853 2.3434964e-38
-0.352072 0.082201198 0.0943399 2.3434601e-38
-0.350658 0.0830504 0.095585898 2.343496e-38
-0.35024601 0.084361002 0.096010797 2.3435317e-38
-0.34983599 0.085669301 0.096434601 2.3434958e-38
-0.34975499 0.087135397 0.096588403 2.3434244e-38
-0.34411499 0.099205904 0.102064 2.2883948e-38
-0.341535 0.099269703 0.10425 2.3067266e-38
-0.34114701 0.100532 0.104652 2.2976149e-38
-0.34106901 0.101966 0.104802 2.2700281e-38
-0.340682 0.103225 0.105203 2.205743e-38
-0.34060299 0.104659 0.105353 2.1321663e-38
-0.34052399 0.106094 0.105504 2.067773e-38
-0.340139 0.107349 0.105904 2.0218195e-38
-0.33944899 0.10842 0.10655 1.985086e-38
-0.33937001 0.109852 0.1067 1.9391682e-38
-0.33929101 0.111286 0.10685 1.8380775e-38
-0.33951801 0.112908 0.106754 1.7553538e-38
-0.339439 0.114346 0.106905 1.8929995e-38
-0.339665 0.115976 0.106809 2.3163785e-38
-0.339892 0.117611 0.106713 2.2626101e-38
-0.33981299 0.119056 0.106864 1.7868659e-38
-0.339733 0.120501 0.107016 1.502536e-38
-0.36196899 0.0050909598 0.079535604 1.7503106e-38
-0.361532 0.0064930199 0.079989403 2.3262477e-38
-0.36109599 0.0078922603 0.080441996 2.3442162e-38
-0.36137101 0.0094084404 0.080294497 2.3442157e-38
-0.362005 0.010992 0.079845503 2.3442515e-38
-0.36192399 0.0124562 0.079998702 2.3440357e-38
-0.36220199 0.0139878 0.079850398 2.3440716e-38
-0.36212099 0.015456 0.080004103 2.3439999e-38
-0.36239901 0.016995801 0.0798558 2.3440357e-38
-0.362317 0.018467899 0.0800099 2.3439274e-38
-0.36223599 0.019941101 0.080164097 2.3439274e-38
-0.36251399 0.0214922 0.080016099 2.3439996e-38
-0.364611 0.0234474 0.078340501 2.3438201e-38
-0.36452901 0.0249379 0.078496501 2.3438202e-38
-0.36371699 0.026260899 0.0792652 2.3436764e-38
-0.36327201 0.0276633 0.079725802 2.343712e-38
-0.361747 0.028801201 0.081091598 2.3435324e-38
-0.36095101 0.030104 0.0818462 2.3435683e-38
-0.360158 0.0314008 0.082596697 2.3434239e-38
-0.359723 0.032783099 0.083047599 2.3434595e-38
-0.35928899 0.0341626 0.083497398 2.3434245e-38
-0.35885599 0.0355395 0.083945997 2.3434238e-38
-0.35877499 0.037010599 0.084100001 2.3434961e-38
-0.359045 0.038582101 0.083959997 2.3434958e-38
-0.358964 0.040057302 0.084114403 2.3433888e-38
-0.358181 0.0413271 0.084855601 2.3436043e-38
-0.35670799 0.042383 0.0861727 2.3435316e-38
-0.35662699 0.0438492 0.086326197 2.3434964e-38
-0.35793701 0.045749702 0.085318498 2.3434241e-38
-0.35785601 0.0472259 0.085473098 2.3432434e-38
-0.35500899 0.047809701 0.087934397 2.343352e-38
-0.353569 0.048824798 0.089221597 2.343172e-38
-0.35315099 0.0501674 0.089655399 2.3433529e-38
-0.353071 0.0516221 0.089807697 2.3434244e-38
-0.35299101 0.053077701 0.089960098 2.3434248e-38
-0.35257399 0.0544159 0.090392597 2.3434599e-38
-0.35282999 0.0559921 0.090265103 2.3434245e-38
-0.35685399 0.058945399 0.087002702 2.3433885e-38
-0.35311499 0.0695723 0.090804599 2.3432795e-38
-0.352359 0.070764199 0.091518298 2.3156568e-38
-0.351942 0.0720926 0.091950603 2.2421524e-38
-0.351861 0.073562399 0.092104398 2.177903e-38
-0.35144499 0.074887402 0.0925356 2.2329327e-38
-0.35136399 0.076357201 0.092689499 2.3159093e-38
-0.35128301 0.077827998 0.092843503 2.343568e-38
-0.35153601 0.079451397 0.092720903 2.3434962e-38
-0.35112 0.080772698 0.093151703 2.3435323e-38
-0.35103899 0.082246497 0.093305998 2.3435321e-38
-0.35095799 0.083721399 0.093460403 2.3434961e-38
-0.349549 0.084563702 0.094710797 2.3434958e-38
-0.34946799 0.0860328 0.094864599 2.3434239e-38
-0.34310499 0.099251702 0.101054 2.3435678e-38
-0.34053501 0.099315196 0.10325 2.3434605e-38
-0.340148 0.100577 0.103652 2.3434967e-38
-0.339762 0.101837 0.104054 2.325525e-38
-0.339683 0.10327 0.104204 2.2890789e-38
-0.33960399 0.104705 0.104354 2.1877e-38
-0.339219 0.10596 0.104755 2.0862485e-38
-0.33853099 0.107034 0.105403 2.0310753e-38
-0.33814901 0.108284 0.105801 1.9943418e-38
-0.33807001 0.109715 0.105951 1.9391324e-38
-0.338294 0.111332 0.105853 1.847153e-38
-0.33821499 0.112767 0.106003 1.8011633e-38
-0.33843899 0.114392 0.105906 2.1227675e-38
-0.338664 0.116023 0.105808 2.3258497e-38
-0.33888999 0.117659 0.10571 2.1068856e-38
-0.33881 0.119103 0.105861 1.6768432e-38
-0.33873001 0.120548 0.106013 1.4750932e-38
-0.361366 0.0037257301 0.0780375 1.5395223e-38
-0.360219 0.0050224201 0.079098202 1.6952821e-38
-0.360138 0.0064767799 0.079250097 2.2165861e-38
-0.36005801 0.00793216 0.079402097 2.3442521e-38
-0.360331 0.0094485004 0.079252899 2.3442524e-38
-0.36025 0.0109078 0.0794053 2.3444683e-38
-0.360524 0.0124323 0.079256102 2.3442165e-38
-0.360443 0.0138956 0.079408899 2.3441797e-38
-0.36107501 0.0154967 0.078956798 2.3441439e-38
-0.36135101 0.0170366 0.078806698 2.344e-38
-0.361628 0.0185818 0.078656301 2.3438918e-38
-0.36154601 0.020057101 0.078810297 2.3439639e-38
-0.36254501 0.021765601 0.078048199 2.3439277e-38
-0.363552 0.0234892 0.077279903 2.3439278e-38
-0.363469 0.0249798 0.077435598 2.3437842e-38
-0.36265999 0.0263028 0.0782068 2.3438197e-38
-0.361855 0.0276196 0.078974001 2.3437119e-38
-0.361054 0.0289301 0.079737 2.3436759e-38
-0.35990301 0.0301459 0.080796801 2.343532e-38
-0.35911301 0.031442702 0.081549898 2.3436037e-38
-0.358679 0.032825001 0.082001902 2.3435317e-38
-0.358246 0.034204699 0.0824527 2.3436041e-38
-0.35816401 0.0356769 0.082606502 2.3436043e-38
-0.357732 0.037052799 0.0830561 2.3436404e-38
-0.357651 0.038525101 0.083209798 2.3434602e-38
-0.35756901 0.039998502 0.083363697 2.3436039e-38
-0.35713899 0.041369598 0.083811998 2.343676e-38
-0.35567099 0.042425402 0.085134402 2.3436402e-38
-0.35490301 0.043680798 0.085866697 2.3435325e-38
-0.35482201 0.0451442 0.086019501 2.3432446e-38
-0.35405701 0.046390899 0.086747698 2.3432433e-38
-0.353297 0.047632001 0.087471999 2.3434605e-38
-0.35220501 0.048756201 0.088475697 2.3433156e-38
-0.35212401 0.050209999 0.088627502 2.3432804e-38
-0.35204399 0.051664799 0.088779397 2.3434604e-38
-0.35162801 0.053004 0.089213103 2.3435324e-38
-0.35088 0.054222599 0.089925699 2.3434244e-38
-0.35113299 0.0557945 0.089797601 2.3435313e-38
-0.35132599 0.070808597 0.090484202 2.288034e-38
-0.35091001 0.072137102 0.090917602 2.2145298e-38
-0.350162 0.073319703 0.091628 2.1781193e-38
-0.35041299 0.074932098 0.0915033 2.279211e-38
-0.35033199 0.076402001 0.091656797 2.3439283e-38
-0.35025001 0.077872999 0.091810398 2.3439285e-38
-0.350169 0.079344898 0.0919642 2.3435684e-38
-0.33953401 0.099360697 0.102249 2.3434246e-38
-0.33914801 0.100623 0.102652 2.3342416e-38
-0.33876401 0.101883 0.103055 2.3167019e-38
-0.33868399 0.103316 0.103205 2.2617816e-38
-0.33829999 0.104573 0.103606 2.1509667e-38
-0.337917 0.105827 0.104007 2.0679177e-38
-0.33723301 0.1069 0.104656 2.0403671e-38
-0.337154 0.10833 0.104806 2.003597e-38
-0.337075 0.109761 0.104955 1.9483519e-38
-0.33699501 0.111193 0.105105 1.8655564e-38
-0.33721799 0.112814 0.105006 1.8746684e-38
-0.337138 0.11425 0.105156 2.2975791e-38
-0.33736101 0.115878 0.105057 2.3445052e-38
-0.33758399 0.117511 0.104958 1.9788197e-38
-0.337807 0.11915 0.104858 1.6126304e-38
-0.35918099 0.00506206 0.078058802 1.6681636e-38
-0.35839701 0.0064047901 0.078814201 1.9788937e-38
-0.358316 0.0078563401 0.078965403 2.3441804e-38
-0.35893801 0.0094284797 0.078513801 2.3442522e-38
-0.35885701 0.0108859 0.078665704 2.3446124e-38
-0.358776 0.0123444 0.078817599 2.3445775e-38
-0.359047 0.0138698 0.078667603 2.3446474e-38
-0.35896599 0.0153323 0.078819998 2.3444317e-38
-0.36030301 0.0170775 0.077757403 2.3440727e-38
-0.36129501 0.018769501 0.076991402 2.3440719e-38
-0.361213 0.020248899 0.077145599 2.3440715e-38
-0.36149001 0.021807101 0.076992199 2.3438918e-38
-0.362492 0.023530999 0.076219097 2.3439276e-38
-0.36160299 0.0263447 0.077148303 2.343712e-38
-0.36044201 0.027575901 0.078224003 2.3438915e-38
-0.35964599 0.028884901 0.078987703 2.3436759e-38
-0.358854 0.030187801 0.079747297 2.3437116e-38
-0.358419 0.031574801 0.080202498 2.3436043e-38
-0.35763401 0.032867 0.080955997 2.34364e-38
-0.35720199 0.034246702 0.081407897 2.34364e-38
-0.35712001 0.0357191 0.081561297 2.3437838e-38
-0.35668901 0.0370951 0.082011998 2.3436047e-38
-0.35660699 0.038567498 0.082165398 2.3435683e-38
-0.356525 0.040040899 0.082318902 2.3436036e-38
-0.356096 0.041412201 0.082768299 2.3434962e-38
-0.35394901 0.042260598 0.0846783 2.3434245e-38
-0.35284799 0.043408599 0.085697703 2.3434242e-38
-0.352429 0.04476 0.0861369 2.3433166e-38
-0.352348 0.046216801 0.086288698 2.3436756e-38
-0.351594 0.047455098 0.087012 2.3435684e-38
-0.35117799 0.0487988 0.087448001 2.3433515e-38
-0.35076299 0.0501399 0.087882899 2.3433527e-38
-0.35068199 0.051592801 0.088034302 2.3434248e-38
-0.34993699 0.052814301 0.088749602 2.3434606e-38
-0.349195 0.0540304 0.0894612 2.3435683e-38
-0.349114 0.055478599 0.089612097 2.3436386e-38
-0.349132 0.073364198 0.090597197 2.2148541e-38
-0.34904999 0.074831299 0.090750001 2.3161259e-38
-0.3493 0.076446898 0.090623997 2.3446127e-38
-0.33822799 0.099234901 0.101503 2.3433529e-38
-0.33814901 0.100668 0.101653 2.306619e-38
-0.33776501 0.101928 0.102056 2.2703881e-38
-0.33768499 0.103362 0.102205 2.1784457e-38
-0.33700001 0.104441 0.10286 2.1138359e-38
-0.33631799 0.105516 0.103512 2.0862127e-38
-0.33593801 0.106766 0.103911 2.0770651e-38
-0.335859 0.108195 0.10406 2.0770651e-38
-0.33577901 0.109624 0.104209 2.0311118e-38
-0.33570001 0.111055 0.104358 1.9483882e-38
-0.33592001 0.112673 0.104258 1.9483885e-38
-0.33583999 0.114107 0.104407 2.3438928e-38
-0.33605999 0.115733 0.104307 2.3449378e-38
-0.336281 0.117365 0.104207 1.8416426e-38
-0.33650199 0.119001 0.104107 1.5393062e-38
-0.35744199 0.0049937898 0.077626303 1.6223899e-38
-0.357012 0.0063887401 0.078079201 1.7963011e-38
-0.356931 0.0078384401 0.078229897 2.2986964e-38
-0.35719901 0.0093487399 0.078079 2.3441799e-38
-0.35711801 0.0108024 0.078230098 2.3440722e-38
-0.35738599 0.0123207 0.078079298 2.3440003e-38
-0.35730401 0.0137783 0.078230798 2.3441448e-38
-0.357573 0.0153047 0.078079902 2.3446122e-38
-0.35749099 0.0167663 0.078231901 2.3445049e-38
-0.359173 0.018591 0.076861098 2.3446115e-38
-0.35909 0.020064499 0.077014297 2.3443244e-38
-0.36043501 0.0218486 0.0759359 2.3441079e-38
-0.359745 0.027703401 0.076861799 2.3438195e-38
-0.35894999 0.029014001 0.077629998 2.3437838e-38
-0.35851201 0.030407401 0.078089498 2.3437836e-38
-0.357723 0.031707201 0.078851297 2.3437838e-38
-0.35658899 0.032908998 0.079909898 2.3437834e-38
-0.356507 0.0343825 0.080063097 2.3436039e-38
-0.356076 0.0357613 0.080516003 2.3437118e-38
-0.35564601 0.0371373 0.080967702 2.3435325e-38
-0.355564 0.038609799 0.081120797 2.3435681e-38
-0.355829 0.0401849 0.080975801 2.3435681e-38
-0.355746 0.0416614 0.081129298 2.3434245e-38
-0.35189801 0.041994002 0.084514298 2.3434606e-38
-0.35047501 0.043035101 0.085816503 2.3433892e-38
-0.35039401 0.0444851 0.085967302 2.3432796e-38
-0.35031301 0.045936201 0.086118102 2.3439632e-38
-0.35023201 0.0473883 0.086269103 2.3434962e-38
-0.34981799 0.048730299 0.086705104 2.3434601e-38
-0.34973699 0.050182499 0.086856 2.3434965e-38
-0.34932399 0.051521 0.087290898 2.3434969e-38
-0.34891301 0.052857101 0.087724797 2.3436044e-38
-0.34784499 0.053955998 0.088719197 2.3435681e-38
-0.34743699 0.055283699 0.089149103 2.3436043e-38
-0.34703499 0.074441701 0.0905561 2.3437481e-38
-0.346627 0.0757581 0.090985604 2.3445766e-38
-0.33722901 0.099280402 0.100503 2.3433525e-38
-0.33684599 0.100541 0.100908 2.2790678e-38
-0.336766 0.101974 0.101057 2.2331495e-38
-0.336384 0.103232 0.10146 2.1688289e-38
-0.33600301 0.104487 0.101863 2.1412419e-38
-0.335024 0.105384 0.102769 2.141314e-38
-0.33434901 0.106454 0.103418 2.1689728e-38
-0.33367801 0.10752 0.104064 2.1690088e-38
-0.33359799 0.108942 0.104212 2.1139076e-38
-0.33410999 0.110732 0.103863 2.0403319e-38
-0.33403 0.11216 0.104011 2.0770668e-38
-0.33424699 0.113777 0.10391 2.3351054e-38
-0.334465 0.115398 0.10381 2.2719021e-38
-0.33528 0.117411 0.103207 1.7411282e-38
-0.33520001 0.118853 0.103356 1.5118997e-38
-0.35605901 0.0049795401 0.076893203 1.6040588e-38
-0.35563201 0.00637276 0.077346101 1.6405054e-38
-0.355205 0.0077632 0.077797897 1.942123e-38
-0.35546899 0.0092694303 0.077646501 2.3166664e-38
-0.35538799 0.0107193 0.077796899 2.3442161e-38
-0.355306 0.0121701 0.077947304 2.3441438e-38
-0.355225 0.0136218 0.078097902 2.3439999e-38
-0.35479799 0.0150074 0.078549199 2.3440719e-38
-0.35471699 0.016459201 0.078699701 2.3440725e-38
-0.35636801 0.0182696 0.077341102 2.3442524e-38
-0.356635 0.0198073 0.077188797 2.3446847e-38
-0.35831299 0.0216574 0.075808898 2.344325e-38
-0.35737801 0.031931099 0.077190503 2.3437474e-38
-0.35624099 0.033135299 0.078258403 2.3436757e-38
-0.355461 0.034424599 0.079016604 2.3438194e-38
-0.355032 0.0358034 0.0794705 2.3437481e-38
-0.354949 0.037277099 0.079623401 2.34364e-38
-0.354866 0.038751699 0.079776302 2.3436041e-38
-0.35512999 0.040329199 0.0796289 2.3435324e-38
-0.3547 0.0417041 0.080082498 2.3435325e-38
-0.34953099 0.041627899 0.084639601 2.3435683e-38
-0.34911799 0.042973801 0.085077003 2.3434246e-38
-0.34936801 0.0445273 0.084940299 2.3434595e-38
-0.349287 0.045978501 0.085090801 2.3437119e-38
-0.348874 0.047321599 0.085527897 2.3436397e-38
-0.34846199 0.0486621 0.085964002 2.3436397e-38
-0.34838101 0.0501124 0.086114399 2.343712e-38
-0.348299 0.051563699 0.086264998 2.3436403e-38
-0.34755999 0.052783899 0.086983301 2.3437479e-38
-0.346499 0.053881802 0.087978996 2.3436763e-38
-0.34512401 0.0548544 0.089244902 2.3435325e-38
-0.34504399 0.056292601 0.089394003 2.3435683e-38
-0.34311301 0.073203102 0.092013597 2.3436767e-38
-0.342715 0.074505799 0.0924358 2.3443606e-38
-0.34231699 0.075806201 0.092857003 2.3442887e-38
-0.336229 0.099325903 0.099503502 2.3250571e-38
-0.33584699 0.100587 0.099909 2.2698842e-38
-0.335466 0.101845 0.100314 2.2240018e-38
-0.335686 0.103453 0.100206 2.1964153e-38
-0.33440799 0.10418 0.101374 2.1964515e-38
-0.33343801 0.105076 0.102278 2.2332578e-38
-0.33218199 0.105789 0.103425 2.2609166e-38
-0.332102 0.107207 0.103572 2.2517689e-38
-0.33202201 0.108626 0.10372 2.1690811e-38
-0.33223501 0.110228 0.103619 2.1139083e-38
-0.332156 0.111651 0.103766 2.2608817e-38
-0.332663 0.113448 0.103416 2.3170986e-38
-0.33317199 0.115255 0.103064 2.1163217e-38
-0.333684 0.117072 0.102711 1.6588721e-38
-0.33360401 0.11851 0.10286 1.521191e-38
-0.35425401 0.00635682 0.076614797 1.5855475e-38
-0.354173 0.0078028301 0.076764397 1.686242e-38
-0.35409099 0.0092498399 0.076914102 2.0518193e-38
-0.35366699 0.0106366 0.077365696 2.3166657e-38
-0.353585 0.0120836 0.077515498 2.3441441e-38
-0.353504 0.0135316 0.077665299 2.3441432e-38
-0.352061 0.0147141 0.079011999 2.3439999e-38
-0.35198 0.016156301 0.079161197 2.3442874e-38
-0.351899 0.017599501 0.079310499 2.3442514e-38
-0.35317701 0.0193334 0.0782656 2.3440359e-38
-0.353095 0.020786401 0.0784159 2.343929e-38
-0.35542601 0.0227827 0.0764478 2.3444315e-38
-0.35632601 0.031973202 0.076137297 2.3437118e-38
-0.355542 0.033270098 0.076903902 2.3438914e-38
-0.35476199 0.0345608 0.077666402 2.3438197e-38
-0.35433301 0.0359415 0.0781224 2.3438915e-38
-0.35425001 0.0374173 0.078275099 2.3437836e-38
-0.354166 0.038894098 0.078427903 2.343712e-38
-0.354083 0.040371899 0.078580797 2.3436043e-38
-0.34858701 0.040221501 0.083463296 2.3436043e-38
-0.347846 0.041467201 0.084189802 2.3435327e-38
-0.34776399 0.042912699 0.084339298 2.3432451e-38
-0.34768301 0.0443592 0.084489003 2.343855e-38
-0.347601 0.045806602 0.084638797 2.3435681e-38
-0.34751901 0.047255099 0.084788598 2.3436395e-38
-0.34743801 0.048704501 0.084938601 2.3438197e-38
-0.34735599 0.050154999 0.0850887 2.3437841e-38
-0.34727401 0.051606402 0.085238799 2.3437841e-38
-0.34653699 0.052826598 0.085959598 2.3437478e-38
-0.34515601 0.053807799 0.087240599 2.343712e-38
-0.34283501 0.054429598 0.089339599 2.3436759e-38
-0.34275401 0.0558604 0.089487597 2.3437116e-38
-0.34218001 0.071802601 0.090848699 2.3435678e-38
-0.34146699 0.072965898 0.091545098 2.3436047e-38
-0.34138599 0.0744076 0.091694199 2.3440723e-38
-0.34130499 0.0758503 0.091843501 2.3438921e-38
-0.341223 0.077293999 0.0919929 2.3436041e-38
-0.33484799 0.100632 0.0989099 2.2882147e-38
