# .PCD v0.7 - Point Cloud Data file format
VERSION 0.7
FIELDS x y z
SIZE 4 4 4
TYPE F F F
COUNT 1 1 1
WIDTH 1232
HEIGHT 1
VIEWPOINT 0 0 0 1 0 0 0
POINTS 1232
DATA ascii
0.0099999988 -0.10479857 0.002892918
-0.0099999988 -0.10508816 0.004943694
0.0099999988 -0.10476984 0.0051138457
-0.0099999988 -0.10494165 0.0068526734
0.0099999988 -0.10496589 0.0070599271
-0.0094510252 -0.105078 0.0095825884
-0.0068631303 -0.10507499 0.0099999998
-0.0047478974 -0.10468213 0.0099999988
-0.0029237405 -0.10472674 0.0099999988
-0.0012953723 -0.10487014 0.0099999988
0.00093168078 -0.10480493 0.0099999988
0.0029754206 -0.10494917 0.0099999988
0.0048990985 -0.10519217 0.0099999988
0.0072173746 -0.10491072 0.0099999988
0.0091322139 -0.10491564 0.0097970115
0.0084331091 -0.10517831 0.010000001
-0.0096557681 -0.10692991 -0.0095765181
-0.006683154 -0.10702095 -0.0099999988
-0.0050411634 -0.10707425 -0.0099999998
-0.0030183131 -0.10721616 -0.0099999988
-0.0010077183 -0.10719132 -0.0099999998
0.00097591273 -0.10698328 -0.0099999998
0.0024993538 -0.10659878 -0.0099999998
0.0052385191 -0.10680424 -0.0099999988
0.0072610686 -0.10717131 -0.0099999988
0.0097313942 -0.10695948 -0.0094616245
-0.0099999998 -0.10681553 -0.0068334183
0.0099999998 -0.10724676 -0.0071042213
-0.0099999988 -0.10693967 -0.0049611581
0.0099999988 -0.10717372 -0.0051804129
-0.0099999988 -0.10687783 -0.0029826481
0.0099999988 -0.10700635 -0.0033239275
-0.0099999988 -0.10681638 -0.00085476664
0.0099999988 -0.10717325 -0.0014259438
-0.0099999988 -0.10711431 0.0011140875
0.0099999988 -0.10676105 0.0011467588
-0.0099999988 -0.10699156 0.002986077
0.0099999988 -0.10690697 0.0029047604
-0.0099999988 -0.10671518 0.0049430085
0.0099999988 -0.10707142 0.0053922031
-0.0099999998 -0.10672274 0.007141564
0.0099999988 -0.10742404 0.0070957062
-0.009520744 -0.10696518 0.0095577277
-0.0068839481 -0.10690115 0.0099999988
-0.0048898309 -0.10643611 0.0099999998
-0.0029198236 -0.10727845 0.0099999998
-0.00077679352 -0.10711573 0.0099999988
0.00093768898 -0.10686551 0.0099999988
0.0032907256 -0.10694485 0.0099999998
0.004998365 -0.1072077 0.0099999998
0.0068240562 -0.10674763 0.0099999988
0.0096865529 -0.10697941 0.0092304051
-0.009532542 -0.10907061 -0.0095142834
-0.0070550162 -0.10879371 -0.0099999988
-0.0051937331 -0.10911369 -0.0099999998
-0.0027992283 -0.10877522 -0.0099999988
-0.0011978524 -0.10912872 -0.0099999998
0.0013050542 -0.10886744 -0.0099999998
0.0028205086 -0.10882792 -0.0099999988
0.0049960059 -0.10895703 -0.0099999988
0.007007123 -0.10895042 -0.0099999988
0.0096097048 -0.10902217 -0.0096496614
-0.0099999998 -0.10903509 -0.0068823164
0.0099999998 -0.10920686 -0.0070149708
-0.0099999998 -0.10899106 -0.0047604721
0.0099999998 -0.10922916 -0.005104275
-0.0099999988 -0.10915026 -0.0029697609
0.0099999988 -0.10892699 -0.0028890106
-0.0099999988 -0.10866816 -0.00077869691
0.0099999998 -0.10929095 -0.00051617989
-0.0099999998 -0.10903794 0.0010190411
0.0099999988 -0.1092326 0.0013432179
-0.0099999988 -0.10865136 0.0029124054
0.0099999988 -0.1088259 0.0029469747
-0.0099999988 -0.10890399 0.0052648266
0.0099999998 -0.10916359 0.0051603392
-0.0099999988 -0.1090361 0.0067146481
0.0099999988 -0.10894423 0.0067690527
-0.0095662605 -0.10896427 0.0094373887
-0.0075740246 -0.10944667 0.0099999998
-0.0047754631 -0.10918752 0.0099999988
-0.0032203966 -0.10924225 0.0099999988
-0.001311647 -0.10919569 0.0099999988
0.00098356826 -0.10877778 0.010000001
0.0029098107 -0.10905106 0.0099999988
0.0050556464 -0.10893758 0.0099999988
0.0071114739 -0.10889202 0.0099999988
0.0093305623 -0.10903529 0.0095644956
-0.0095926747 -0.11102504 -0.0093580568
-0.0071007977 -0.11075079 -0.0099999988
-0.0048921597 -0.1109484 -0.0099999988
-0.0030324871 -0.11099478 -0.0099999998
-0.00095006928 -0.1109316 -0.0099999988
0.0010968093 -0.11105638 -0.0099999998
0.0030324755 -0.1106048 -0.0099999998
0.0049610818 -0.11097372 -0.0099999988
0.0068901265 -0.11088914 -0.0099999988
0.0092207417 -0.11117628 -0.0095947124
-0.0099999998 -0.11105645 -0.006872782
0.0099999998 -0.11137384 -0.0072077033
-0.0099999998 -0.11084211 -0.004912117
0.0099999988 -0.11118714 -0.005042193
-0.0099999988 -0.11093954 -0.0028441614
0.0099999988 -0.11095195 -0.0030472423
-0.0099999988 -0.11098792 -0.0010742309
0.0099999988 -0.11098141 -0.0008837551
-0.0099999998 -0.1112004 0.00087424455
0.0099999988 -0.11110014 0.001229928
-0.0099999988 -0.11102279 0.0030898158
0.0099999998 -0.11089008 0.0030492735
-0.0099999998 -0.11091985 0.0055735558
0.0099999998 -0.11106634 0.0049165091
-0.0099999988 -0.11107268 0.0071874573
0.0099999988 -0.1109895 0.006988408
-0.0096331192 -0.11106626 0.0096838335
-0.0068558166 -0.11098295 0.0099999988
-0.0053171068 -0.111146 0.0099999998
-0.0029164546 -0.11124393 0.0099999988
-0.00075171457 -0.11104947 0.0099999988
0.00088574056 -0.11095354 0.0099999988
0.0031816124 -0.11138863 0.0099999988
0.0052017244 -0.1109738 0.0099999998
0.0070033008 -0.11064215 0.0099999998
0.0094635412 -0.11081159 0.0095540565
-0.0095371753 -0.11287095 -0.0095383227
-0.0070662396 -0.1128296 -0.0099999988
-0.0050871912 -0.11299252 -0.0099999988
-0.0028479868 -0.11307697 -0.0099999988
-0.0009864046 -0.11317857 -0.0099999988
0.0011846609 -0.11292218 -0.0099999988
0.00275618 -0.1127551 -0.0099999998
0.0050494447 -0.11286189 -0.0099999988
0.0072217821 -0.11302582 -0.0099999998
0.009683392 -0.11306778 -0.0095001208
-0.0099999998 -0.11306199 -0.006889665
0.0099999988 -0.11297053 -0.0069344523
0.010000001 -0.11327842 -0.0075421338
-0.0099999998 -0.1132224 -0.0046864576
0.0099999988 -0.11306133 -0.0049147434
-0.0099999988 -0.11275186 -0.0026750574
0.0099999988 -0.11295448 -0.0033581406
-0.0099999998 -0.11307299 -0.00066479342
0.0099999988 -0.11292706 -0.00089318381
-0.0099999998 -0.11300455 0.00096047809
0.0099999998 -0.11327031 0.0010098002
-0.0099999998 -0.11328357 0.0036575913
0.0099999988 -0.11282074 0.0029324368
-0.0099999988 -0.11319037 0.005159541
0.0099999988 -0.11332098 0.0047862977
-0.0099999998 -0.11322644 0.0071069328
0.0099999998 -0.11292197 0.0070761465
-0.0094385752 -0.11307515 0.0095735844
-0.0071154875 -0.11315135 0.0099999988
-0.0046999552 -0.113385 0.0099999998
-0.0026298522 -0.11323065 0.0099999998
-0.00077216962 -0.11302345 0.0099999988
0.001191896 -0.11286571 0.0099999998
0.0032896891 -0.11290941 0.0099999988
0.0050886367 -0.11293544 0.0099999998
0.0068754111 -0.11325524 0.0099999988
0.0095937718 -0.11310676 0.00930967
-0.0076604215 -0.11316008 0.010000001
0.0075721331 -0.11398815 0.010000001
-0.0093444716 -0.11513834 -0.0094187185
-0.0071228384 -0.11535477 -0.0099999998
-0.004693856 -0.11490451 -0.0099999988
-0.0028539214 -0.11471477 -0.0099999988
-0.0010223832 -0.1148484 -0.0099999998
0.0011040724 -0.11517593 -0.0099999998
0.0032303943 -0.11487874 -0.0099999988
0.0051005133 -0.11498579 -0.0099999998
0.007102442 -0.11518856 -0.0099999988
0.0093260705 -0.11496981 -0.0096810786
-0.0099999988 -0.11486911 -0.0071883821
0.0099999988 -0.11518459 -0.0068353303
-0.0099999998 -0.11449269 -0.0047089118
0.0099999988 -0.11493885 -0.005008196
-0.0099999998 -0.115175 -0.0031119001
0.0099999988 -0.11501292 -0.0028318297
-0.0099999988 -0.11483565 -0.0010784934
0.0099999988 -0.11499979 -0.00086950732
-0.0099999988 -0.11492187 0.0010117607
0.0099999998 -0.11558059 0.00092025951
-0.0099999988 -0.11500754 0.002938976
0.0099999988 -0.11515285 0.0030735829
-0.0099999998 -0.11510389 0.0049011391
0.0099999988 -0.11502846 0.005039108
-0.0099999988 -0.11527906 0.0072601871
0.0099999998 -0.11551062 0.0071789259
-0.0095753036 -0.11495274 0.0094123827
-0.0068932944 -0.11501042 0.0099999988
-0.004956001 -0.11480482 0.0099999988
-0.0030745387 -0.11490929 0.0099999988
-0.0011152718 -0.11488966 0.0099999998
0.0011334114 -0.11513173 0.0099999988
0.003063129 -0.11485066 0.0099999988
0.0047794818 -0.11479026 0.0099999998
0.0071235052 -0.11512665 0.0099999988
0.0097022504 -0.1150259 0.0092187952
-0.0091950577 -0.11671154 -0.0097046169
-0.0067988075 -0.11709604 -0.0099999988
-0.0047347918 -0.11684187 -0.0099999998
-0.0033120951 -0.11697246 -0.0099999998
-0.0011000511 -0.11704638 -0.0099999988
0.00072690746 -0.11719378 -0.0099999988
0.0028030497 -0.11679041 -0.0099999998
0.0053225001 -0.11711424 -0.0099999988
0.0069487225 -0.11727532 -0.0099999998
0.0094716679 -0.11706024 -0.0094807884
-0.0099999988 -0.11701114 -0.0071457089
0.0099999988 -0.11683908 -0.0067633861
-0.0099999988 -0.11665363 -0.0050658658
0.0099999998 -0.11688191 -0.0049578114
-0.0099999998 -0.11679449 -0.0031338527
0.0099999988 -0.11665677 -0.0033477985
-0.0099999988 -0.11676037 -0.001181894
0.0099999988 -0.11689625 -0.001086654
-0.0099999998 -0.11722422 0.0010541159
0.0099999998 -0.11709098 0.00097902853
-0.0099999998 -0.11758429 0.0030471738
0.0099999988 -0.11711482 0.0030519983
-0.0099999998 -0.11687936 0.0049848361
0.0099999998 -0.11697448 0.0049779611
-0.0099999988 -0.11711325 0.0072068735
0.0099999988 -0.11661627 0.0069349855
-0.0095036589 -0.11698322 0.0093156258
-0.0066684941 -0.11692812 0.0099999988
-0.0048595713 -0.11672228 0.0099999988
-0.0030849199 -0.11718991 0.0099999988
-0.001358327 -0.11707224 0.0099999988
0.0010032522 -0.11682224 0.0099999998
0.0031518531 -0.11697204 0.0099999988
0.0048143934 -0.11690363 0.0099999988
0.0070558838 -0.11721456 0.0099999998
0.0094196834 -0.11715581 0.0096762748
-0.0093578976 -0.11916085 -0.0095697129
-0.0069875494 -0.11844796 -0.0099999998
-0.0051223859 -0.1190228 -0.0099999998
-0.0033421626 -0.11887626 -0.0099999998
-0.0010044917 -0.11905625 -0.0099999988
0.0011569054 -0.11898897 -0.0099999988
0.0027975307 -0.1188121 -0.0099999988
0.0054075802 -0.11898948 -0.0099999998
0.0069681327 -0.11907498 -0.0099999988
0.0092395898 -0.11919829 -0.0096086422
-0.0099999998 -0.11885533 -0.0074298889
0.0099999988 -0.11901552 -0.0072961277
-0.0099999988 -0.11920714 -0.0050908271
0.0099999998 -0.11897007 -0.0049563083
-0.0099999988 -0.11861388 -0.0030302403
0.0099999988 -0.11870212 -0.0029686945
-0.0099999988 -0.11910388 -0.00090561318
0.0099999988 -0.11919394 -0.00092971249
-0.0099999988 -0.11914822 0.00095566706
0.0099999988 -0.11902968 0.00076105562
-0.0099999998 -0.11909667 0.0032719651
0.0099999998 -0.11901028 0.0032983287
-0.0099999998 -0.11868992 0.0052011376
0.0099999988 -0.11921363 0.0052511147
-0.0099999988 -0.11889268 0.0070488667
0.0099999988 -0.11873786 0.0069641098
-0.0096269753 -0.11896402 0.0094594723
-0.0067924424 -0.11861973 0.0099999988
-0.0048293951 -0.11924186 0.0099999998
-0.0032873857 -0.11888392 0.0099999988
-0.0011553895 -0.1189829 0.0099999998
0.0012089998 -0.11887439 0.0099999988
0.0029213438 -0.11882292 0.0099999998
0.0050760577 -0.1192124 0.0099999988
0.0070175724 -0.11902287 0.0099999988
0.0094242385 -0.11897351 0.009686566
0.0099057015 -0.11882456 0.010000001
-0.0093608294 -0.12103949 -0.0094728386
-0.0071257167 -0.12095038 -0.0099999998
-0.0046700737 -0.12090519 -0.0099999998
-0.0030678557 -0.12107697 -0.0099999988
-0.00067684747 -0.1213186 -0.0099999998
0.0014458317 -0.12094676 -0.0099999998
0.0031851041 -0.12141356 -0.0099999998
0.0049284287 -0.12055141 -0.0099999988
0.0072638197 -0.12083512 -0.0099999988
0.0095428443 -0.12074171 -0.0095841866
-0.0099999988 -0.12118275 -0.0068872753
0.0099999998 -0.12113975 -0.0069905715
-0.0099999988 -0.12133836 -0.0048312987
0.0099999988 -0.12090377 -0.0046260534
-0.0099999988 -0.12118762 -0.0030064282
0.0099999998 -0.12115105 -0.0025546672
-0.0099999998 -0.1207207 -0.00085824972
0.0099999998 -0.12086841 -0.00087307114
-0.0099999998 -0.12062551 0.0013217442
0.0099999998 -0.12132683 0.00096936972
-0.0099999988 -0.12101426 0.0028549249
0.0099999998 -0.12079588 0.0028232564
-0.0099999988 -0.12093039 0.0048443316
0.0099999988 -0.12107792 0.0050505502
-0.0099999988 -0.12118015 0.0067196614
0.0099999998 -0.12067717 0.0068702851
-0.0093613351 -0.12093731 0.0095546022
-0.0071995645 -0.12122168 0.0099999988
-0.0046366467 -0.12059388 0.0099999998
-0.0028626118 -0.12101254 0.0099999988
-0.00080487144 -0.12046576 0.0099999988
0.0010169805 -0.1208533 0.0099999988
0.0031046935 -0.1207454 0.0099999988
0.0050778408 -0.12099186 0.0099999988
0.0072743921 -0.12111409 0.0099999998
0.0098269535 -0.12114055 0.0091492468
-0.009769056 -0.12302163 -0.0094959689
-0.0068525355 -0.12286424 -0.0099999988
-0.0050605182 -0.12328908 -0.0099999988
-0.0026891148 -0.12275986 -0.0099999988
-0.0010466985 -0.12354974 -0.0099999988
0.001192037 -0.12285229 -0.0099999998
0.0026149154 -0.12287237 -0.0099999988
0.0047797938 -0.12285985 -0.0099999988
0.0069968197 -0.12335718 -0.0099999988
0.0095452797 -0.12300156 -0.0092979949
-0.0099999988 -0.12301085 -0.0069137132
0.0099999998 -0.12293506 -0.0071409559
-0.0099999988 -0.12331855 -0.0050118961
0.0099999988 -0.12286634 -0.00497742
-0.0099999988 -0.12323187 -0.0032696505
0.0099999988 -0.1233516 -0.003012883
-0.0099999988 -0.12265894 -0.00088463747
0.0099999998 -0.12337866 -0.0013197048
-0.0099999988 -0.12318587 0.0012786494
0.0099999988 -0.12323321 0.0011547222
-0.0099999988 -0.12294769 0.0030029402
0.0099999988 -0.12309462 0.0029056645
-0.0099999998 -0.12286422 0.0054213167
0.0099999998 -0.12347426 0.0046073385
-0.0099999998 -0.12329191 0.006924836
0.0099999988 -0.12319075 0.0070368014
0.010000001 -0.12237396 0.007765824
-0.0096097691 -0.12299759 0.0094492938
-0.0071591809 -0.1231311 0.0099999988
-0.0054123662 -0.1230429 0.0099999988
-0.0028555463 -0.12316944 0.0099999988
-0.00095710118 -0.12326983 0.0099999988
0.0013732123 -0.12286882 0.0099999988
0.0029408236 -0.12303745 0.0099999988
0.0052275863 -0.1234827 0.0099999998
0.0071144169 -0.12300362 0.0099999988
0.0093640126 -0.1232275 0.0097730104
-0.0094772782 -0.12488341 -0.0094880154
-0.0067398623 -0.12478398 -0.0099999998
-0.0054085567 -0.12499207 -0.0099999988
-0.0026193045 -0.12508211 -0.0099999998
-0.00089638942 -0.12477679 -0.0099999988
0.00087547803 -0.12525283 -0.0099999998
0.002633522 -0.12503758 -0.0099999988
0.0050773085 -0.12526223 -0.0099999988
0.0069800452 -0.12520097 -0.0099999988
0.0096774837 -0.12529834 -0.009349986
-0.0099999988 -0.12480863 -0.0070213326
0.0099999988 -0.12482582 -0.007014764
-0.0099999988 -0.12543602 -0.0050250818
0.0099999988 -0.12479852 -0.0050699478
-0.0099999998 -0.12498663 -0.0026520477
0.0099999988 -0.12501825 -0.003122831
-0.0099999988 -0.12471662 -0.00092026888
0.0099999988 -0.12512648 -0.0011589431
-0.0099999998 -0.12526114 0.0006839066
0.0099999988 -0.12499498 0.0010901043
-0.0099999988 -0.12498617 0.0033422944
0.0099999998 -0.1251491 0.0028732405
-0.0099999998 -0.12481611 0.0051016747
0.0099999998 -0.12510014 0.0048564067
-0.0099999988 -0.12481403 0.007049147
0.0099999988 -0.12489089 0.0071746865
-0.009458893 -0.12513801 0.0097238924
-0.0070106126 -0.12488685 0.0099999988
-0.0051972237 -0.12518655 0.0099999988
-0.0026359076 -0.12511614 0.0099999988
-0.00092920143 -0.12496066 0.0099999988
0.00098951918 -0.12476225 0.0099999988
0.0025467665 -0.12460796 0.0099999998
0.0051672109 -0.12500678 0.0099999988
0.007008675 -0.12491094 0.0099999988
0.0093160188 -0.12509359 0.0096991332
0.010000001 -0.12425109 0.0080261538
-0.0094611663 -0.12723663 -0.0094043948
-0.0072952146 -0.1270985 -0.0099999998
-0.0054258346 -0.12712124 -0.0099999988
-0.0032020714 -0.1268871 -0.0099999988
-0.00097765832 -0.1267769 -0.010000001
0.0010200058 -0.12701535 -0.0099999988
0.0032054926 -0.12694922 -0.0099999988
0.0049536997 -0.12669455 -0.0099999988
0.0069111921 -0.12681805 -0.0099999998
0.0094084479 -0.12683374 -0.0097641656
-0.0099999988 -0.12712881 -0.0067408332
0.0099999988 -0.12713034 -0.007098923
-0.0099999988 -0.12680686 -0.0052837706
0.0099999998 -0.12729856 -0.0052699442
-0.0099999988 -0.12694734 -0.0028208282
0.0099999998 -0.12659127 -0.0030206193
-0.0099999988 -0.12687036 -0.0012021778
0.0099999998 -0.12668441 -0.0011540619
-0.0099999988 -0.12705408 0.00078276987
0.0099999998 -0.1266886 0.0017327806
-0.0099999988 -0.12689896 0.0030290792
0.0099999998 -0.12672852 0.0028989767
-0.0099999998 -0.12709469 0.0048976121
0.0099999988 -0.12703894 0.0050420566
-0.0099999998 -0.12676398 0.0070829922
0.0099999988 -0.12691757 0.0071003325
-0.009638411 -0.12703922 0.009514492
-0.0072696791 -0.12741967 0.0099999988
-0.0048272964 -0.12665986 0.0099999988
-0.0026943141 -0.1263634 0.0099999998
-0.00095365272 -0.12704216 0.0099999988
0.00081751344 -0.12698281 0.0099999988
0.0028305035 -0.12677905 0.0099999988
0.0047683488 -0.12688452 0.0099999998
0.0070923828 -0.12707686 0.0099999998
0.0093749082 -0.12700471 0.0097121978
-0.0093879104 -0.12904792 -0.0094558848
-0.0070115682 -0.12894422 -0.0099999988
-0.0050936262 -0.12897038 -0.0099999988
-0.0029599976 -0.12914036 -0.0099999998
-0.0011507992 -0.12895547 -0.0099999988
0.0010091165 -0.12875991 -0.0099999988
0.0028935801 -0.12897146 -0.0099999998
0.0052652322 -0.12916999 -0.0099999998
0.0068369089 -0.12903084 -0.0099999988
0.0094584646 -0.12885799 -0.0096201263
-0.0099999988 -0.12917781 -0.0070863366
0.0099999988 -0.12912206 -0.0069028945
-0.0099999998 -0.12897526 -0.0045770817
0.0099999988 -0.1288797 -0.0048220716
-0.0099999988 -0.12887236 -0.0028093923
0.0099999988 -0.12879319 -0.0029653858
-0.0099999988 -0.12931624 -0.0011241257
0.0099999988 -0.12908515 -0.00082808273
-0.0099999988 -0.12913382 0.00097797008
0.0099999988 -0.12887241 0.0010519515
-0.0099999988 -0.12880172 0.0031384677
0.0099999988 -0.12908615 0.0031451453
-0.0099999988 -0.12899874 0.0051846704
0.0099999988 -0.12901747 0.0046141893
-0.0099999998 -0.12887052 0.0075928252
0.0099999988 -0.12882228 0.0065790066
0.010000001 -0.12932694 0.0077608051
-0.0095382817 -0.1288833 0.0094514107
-0.0068921885 -0.12883916 0.0099999988
-0.0045361356 -0.12909977 0.0099999988
-0.0030475049 -0.12878056 0.0099999998
-0.0009606239 -0.12898065 0.0099999988
0.00077975198 -0.12866983 0.010000001
0.0028245 -0.12906812 0.0099999988
0.0045833634 -0.12914941 0.0099999998
0.0068839192 -0.12877384 0.0099999998
0.0098764412 -0.12918338 0.009410304
-0.0078214072 -0.12952419 0.010000001
-0.0094350567 -0.13079207 -0.0096981041
-0.0070574456 -0.13124554 -0.0099999988
-0.005079478 -0.13100943 -0.0099999988
-0.0028376165 -0.13083421 -0.0099999998
-0.0012064206 -0.13096692 -0.0099999988
0.0010788757 -0.13127993 -0.0099999988
0.0031432763 -0.13061565 -0.0099999988
0.0049154977 -0.13104564 -0.0099999998
0.0075196414 -0.1311543 -0.0099999998
0.0094591202 -0.13116722 -0.0096503552
-0.0099999998 -0.13106643 -0.0069628763
0.0099999988 -0.13094728 -0.0069064707
-0.0099999988 -0.13150159 -0.0048622624
0.0099999988 -0.13085862 -0.0050688605
-0.0099999988 -0.13106318 -0.0031682402
0.0099999998 -0.13134073 -0.0029443344
-0.0099999988 -0.13113123 -0.0010854892
0.0099999998 -0.13111362 -0.0015907291
-0.0099999998 -0.13092089 0.0012336459
0.0099999988 -0.13114935 0.00053439633
-0.0099999988 -0.13089032 0.0029737079
0.0099999988 -0.1308659 0.0028942968
-0.0099999998 -0.13094658 0.0051548211
0.0099999998 -0.13123256 0.0046369666
-0.0099999998 -0.13087638 0.0067669768
0.0099999998 -0.13110083 0.0071127098
-0.0095939226 -0.13090442 0.0094562909
-0.0073248595 -0.13125694 0.0099999998
-0.0052245255 -0.1310495 0.0099999988
-0.0030728362 -0.13082206 0.0099999988
-0.00089884631 -0.13113999 0.0099999998
0.00077978626 -0.13114189 0.0099999998
0.0033278172 -0.13135879 0.0099999998
0.0047909678 -0.1307373 0.0099999988
0.006836805 -0.1309403 0.0099999988
0.0093449606 -0.13092172 0.0094378507
-0.0096978433 -0.13303529 -0.0094432877
-0.0071607428 -0.1330332 -0.0099999988
-0.0048977202 -0.13273735 -0.0099999998
-0.0027262808 -0.13319685 -0.0099999998
-0.0008873904 -0.13337541 -0.0099999998
0.00091526756 -0.13309149 -0.0099999998
0.0031873595 -0.13304754 -0.0099999988
0.0051923972 -0.13296019 -0.0099999998
0.007175901 -0.13300331 -0.0099999988
0.0091519086 -0.13309856 -0.0096372264
-0.0099999998 -0.13331069 -0.0070718378
0.0099999998 -0.13327265 -0.0068855807
-0.010000001 -0.13289529 -0.0049529248
0.0099999988 -0.13310248 -0.0049321796
-0.0099999988 -0.13330361 -0.0029899662
0.0099999998 -0.13293812 -0.0031971163
-0.0099999998 -0.13318226 -0.0010928391
0.0099999998 -0.13281652 -0.0012835895
-0.0099999988 -0.13304438 0.00074371928
0.0099999998 -0.13304298 0.0010668886
-0.0099999988 -0.13309817 0.0029534088
0.0099999998 -0.13315707 0.0031079133
-0.0099999988 -0.13314475 0.0049854643
0.0099999998 -0.1332268 0.0051369797
-0.0099999988 -0.13280079 0.0068828785
0.0099999998 -0.13264443 0.0067558843
0.010000001 -0.13203914 0.0071145706
-0.0092348438 -0.13324159 0.0097142272
-0.0071923807 -0.1329311 0.0099999998
-0.0051586973 -0.13292432 0.0099999998
-0.0026654715 -0.13308838 0.0099999988
-0.0010678337 -0.13284434 0.010000001
0.00099224097 -0.13298388 0.0099999988
0.0031763054 -0.13320646 0.0099999988
0.0054921731 -0.13353446 0.0099999998
0.0068381322 -0.13295709 0.0099999998
0.0098215062 -0.13312253 0.0091728559
-0.0096302461 -0.13513514 -0.0094018076
-0.0071050697 -0.13494912 -0.0099999998
-0.0050037671 -0.13487704 -0.0099999998
-0.0032633934 -0.13491958 -0.0099999988
-0.00072079361 -0.13506262 -0.0099999988
0.0010349966 -0.13494761 -0.0099999988
0.0030467042 -0.134977 -0.0099999988
0.005189314 -0.13516995 -0.0099999988
0.0066756848 -0.13523856 -0.0099999988
0.009289762 -0.1349172 -0.0096118255
-0.0099999988 -0.13508479 -0.0072291614
0.0099999988 -0.13488291 -0.0070436844
-0.0099999988 -0.1349868 -0.0047734734
0.0099999998 -0.13525364 -0.0049111545
-0.0099999988 -0.13467629 -0.0032105013
0.0099999998 -0.13534839 -0.0030166188
-0.0099999998 -0.13497365 -0.0011227792
0.0099999998 -0.1346949 -0.0010244949
-0.0099999988 -0.13499697 0.0010171817
0.0099999988 -0.13467157 0.00085774524
-0.0099999988 -0.1350221 0.0031182859
0.0099999988 -0.13487716 0.0031232371
-0.0099999998 -0.13479739 0.0049595586
0.0099999998 -0.13505034 0.0047548711
-0.0099999988 -0.13488755 0.0068505388
0.0099999988 -0.13485537 0.0073094266
-0.0094213281 -0.13518158 0.0092291255
-0.0067289644 -0.13502194 0.0099999988
-0.0049696513 -0.13507153 0.0099999988
-0.0025607585 -0.13511984 0.0099999998
-0.0014130664 -0.13503902 0.0099999998
0.00072848273 -0.13515635 0.0099999988
0.0028131679 -0.13505074 0.0099999988
0.0051660198 -0.1351182 0.0099999988
0.0069406596 -0.13542263 0.0099999988
0.0094828485 -0.13481915 0.0093373973
0.010000001 -0.13476466 0.009501759
-0.0092915446 -0.13703781 -0.0096862242
-0.0069452333 -0.13676086 -0.0099999988
-0.0048758532 -0.13725153 -0.0099999988
-0.0029676436 -0.13714516 -0.0099999998
-0.00096608949 -0.13674164 -0.0099999988
0.00087960646 -0.13718151 -0.0099999988
0.0031708726 -0.13661474 -0.0099999998
0.005231841 -0.13700886 -0.0099999988
0.0070823133 -0.13726436 -0.0099999988
0.0093403896 -0.1368144 -0.0096275387
-0.0099999988 -0.13711807 -0.007005184
0.0099999998 -0.13763042 -0.0068776249
-0.0099999998 -0.13701452 -0.005104681
0.0099999988 -0.13686875 -0.0048903427
-0.0099999988 -0.13718934 -0.0032043632
0.0099999998 -0.13721731 -0.0027940131
-0.0099999998 -0.13708685 -0.0012031951
0.0099999988 -0.13693488 -0.0012010251
-0.0099999988 -0.13695002 0.00090415723
0.0099999988 -0.13712226 0.0011972506
-0.0099999988 -0.13717657 0.0027252552
0.0099999988 -0.13728732 0.0028344656
-0.0099999988 -0.13703822 0.0050599761
0.0099999988 -0.13709672 0.0048745372
-0.0099999998 -0.13694079 0.0071536414
0.0099999988 -0.13710496 0.0067436136
-0.0091922702 -0.13704999 0.0096626794
-0.007205748 -0.13714837 0.0099999998
-0.0047441549 -0.13711628 0.0099999988
-0.0029228404 -0.13697419 0.0099999988
-0.00074771128 -0.13706303 0.0099999988
0.0012090422 -0.13707037 0.0099999988
0.003007513 -0.13709569 0.0099999988
0.005353441 -0.13743936 0.0099999998
0.0073251249 -0.1368261 0.0099999998
0.0092193978 -0.13695459 0.0095857223
-0.0095054461 -0.13893217 -0.0094583444
-0.0071170563 -0.13877411 -0.0099999988
-0.0051060538 -0.13912138 -0.0099999988
-0.0029277755 -0.13911979 -0.0099999998
-0.001162576 -0.1388061 -0.0099999988
0.0011641475 -0.13896967 -0.0099999988
0.0031273842 -0.13888143 -0.0099999988
0.0050849221 -0.13901563 -0.0099999988
0.0072828671 -0.13905838 -0.0099999998
0.0095657622 -0.13890184 -0.0096492162
-0.0099999998 -0.13911264 -0.0070425901
0.0099999988 -0.13900687 -0.0070331036
-0.0099999998 -0.13894556 -0.0052583381
0.0099999998 -0.13921064 -0.00489122
-0.0099999998 -0.1391459 -0.0032768883
0.0099999988 -0.13899329 -0.0031876229
-0.0099999998 -0.13898499 -0.0014055347
0.0099999988 -0.13911727 -0.00068571733
-0.0099999988 -0.13906577 0.0010246183
0.0099999988 -0.13920447 0.0010676496
-0.0099999998 -0.13912018 0.0027366797
0.0099999998 -0.13932805 0.0034943551
-0.0099999988 -0.13906772 0.005397236
0.0099999998 -0.1386753 0.0050943997
-0.0099999988 -0.1391405 0.006702296
0.0099999988 -0.13861607 0.0071478947
-0.009408283 -0.13879043 0.0095438706
-0.0067148716 -0.13891362 0.0099999988
-0.0050609657 -0.13883877 0.0099999988
-0.0031393135 -0.1391526 0.0099999998
-0.00086797046 -0.13927312 0.0099999988
0.00091520313 -0.13900337 0.0099999988
0.0027910294 -0.13878374 0.0099999998
0.0048746555 -0.13894159 0.0099999998
0.0067486065 -0.13891697 0.0099999988
0.0094261644 -0.13893436 0.0097325025
-0.0097262859 -0.14095242 -0.009530385
-0.0073854229 -0.14118011 -0.0099999988
-0.0050269887 -0.14090157 -0.0099999988
-0.0032629571 -0.14106181 -0.0099999988
-0.00089737336 -0.14070474 -0.0099999998
0.00095247279 -0.14117841 -0.0099999988
0.0028073946 -0.14072438 -0.0099999988
0.0050642504 -0.14111874 -0.0099999988
0.0069237868 -0.14107291 -0.0099999988
0.0094377454 -0.14088291 -0.0096125957
-0.0099999988 -0.14140265 -0.0069304626
0.0099999988 -0.14111784 -0.0069039026
-0.0099999988 -0.14117001 -0.0048750378
0.0099999988 -0.14095753 -0.0047312509
-0.0099999988 -0.14081945 -0.0033939835
0.0099999998 -0.14092828 -0.0033160888
-0.0099999988 -0.14144616 -0.00092213217
0.0099999988 -0.14064817 -0.00096738164
-0.0099999988 -0.14090602 0.0014933271
0.0099999988 -0.14142065 0.00071053853
-0.0099999998 -0.14094868 0.0032473307
0.0099999998 -0.14134327 0.0033948743
-0.0099999998 -0.14078584 0.0053007319
0.0099999998 -0.14067082 0.0053937077
-0.0099999988 -0.14109889 0.0068791397
0.0099999988 -0.14088452 0.0073547959
0.010000001 -0.14041528 0.007003461
-0.009671879 -0.14105438 0.0094530405
-0.0070635756 -0.14105353 0.0099999998
-0.0047519691 -0.14089268 0.0099999988
-0.0030552312 -0.14118028 0.0099999988
-0.00086960004 -0.1406973 0.0099999998
0.00080346968 -0.14117563 0.0099999988
0.003234725 -0.14093807 0.0099999988
0.0048522344 -0.14057511 0.0099999988
0.0070708105 -0.14121127 0.0099999998
0.0095591517 -0.1407181 0.0094905756
0.010000001 -0.14190315 0.0093433447
-0.0095074521 -0.14311835 -0.0093305502
-0.0071547083 -0.14313316 -0.0099999998
-0.004773248 -0.14291799 -0.0099999988
-0.0030657663 -0.1428819 -0.0099999998
-0.0010182883 -0.14309838 -0.0099999988
0.001308918 -0.14298263 -0.0099999988
0.0023485301 -0.14323069 -0.0099999988
0.0051787882 -0.14276642 -0.0099999998
0.0069094892 -0.14274698 -0.0099999988
0.009592128 -0.14280282 -0.0093395663
-0.0099999988 -0.14297202 -0.0066993968
0.0099999988 -0.14340031 -0.0072865449
-0.0099999998 -0.14289322 -0.0051773908
0.0099999998 -0.14305674 -0.0048591238
-0.0099999998 -0.1427182 -0.0030862731
0.0099999998 -0.14298823 -0.0027136416
-0.0099999988 -0.1431919 -0.0013717941
0.0099999988 -0.14255297 -0.0011066751
-0.0099999998 -0.14246504 0.0010906686
0.0099999988 -0.14316283 0.00065311271
-0.0099999988 -0.14314741 0.0033834898
0.0099999998 -0.14284794 0.0027368607
-0.0099999988 -0.14346546 0.0049550906
0.0099999988 -0.14279635 0.0050799591
-0.0099999988 -0.14279677 0.0066776322
0.0099999988 -0.14276601 0.0070916526
0.010000001 -0.14381225 0.0073401537
-0.0095335152 -0.14329033 0.0093449727
-0.0070246169 -0.14290184 0.0099999988
-0.0049500507 -0.14293751 0.0099999988
-0.0031904017 -0.14323409 0.0099999998
-0.001246849 -0.14307065 0.0099999998
0.00070559955 -0.14317611 0.0099999988
0.0026595383 -0.14282237 0.0099999998
0.0045144199 -0.14271824 0.0099999998
0.0063638706 -0.14314245 0.0099999988
0.0097111044 -0.14304724 0.0093281809
-0.0095670391 -0.1448894 -0.0094391555
-0.0071803136 -0.14549765 -0.0099999998
-0.0049043507 -0.14494754 -0.0099999988
-0.003403042 -0.14523534 -0.0099999998
-0.0010881398 -0.14515345 -0.0099999998
0.00075280707 -0.14442325 -0.0099999988
0.0032176569 -0.14528207 -0.0099999988
0.0048467549 -0.14487742 -0.0099999988
0.0072286013 -0.14510949 -0.0099999998
0.0095524425 -0.14514007 -0.0095176613
-0.0099999998 -0.14490949 -0.0068023442
0.0099999988 -0.14485316 -0.0070529385
-0.0099999988 -0.1448268 -0.0050309673
0.0099999998 -0.14530621 -0.0047358517
-0.0099999988 -0.14463565 -0.0029705868
0.0099999998 -0.14541076 -0.0031543025
-0.0099999988 -0.14507331 -0.00098751811
0.0099999988 -0.14487332 -0.0010626061
-0.0099999998 -0.14532663 0.00088504172
0.0099999988 -0.14505371 0.00085449032
-0.0099999998 -0.14491245 0.0029396652
0.0099999988 -0.14515129 0.0030506349
-0.0099999998 -0.14522295 0.00488941
0.0099999988 -0.14509863 0.0051927278
-0.0099999998 -0.14499913 0.0070537487
0.0099999988 -0.14497089 0.0067782141
-0.0097153503 -0.14514735 0.0092547284
-0.0071600289 -0.14485234 0.0099999998
-0.0049931533 -0.14509971 0.0099999988
-0.0028655995 -0.14504308 0.0099999988
-0.0010974712 -0.14480023 0.0099999998
0.0013125091 -0.14487605 0.0099999998
0.0027607868 -0.14478366 0.0099999988
0.0050439932 -0.14518861 0.0099999988
0.0070977928 -0.14504051 0.0099999988
0.0095058624 -0.14504953 0.0096331341
-0.0091730393 -0.14527361 0.010000001
-0.0094360542 -0.14692721 -0.0093900114
-0.0068568001 -0.14701736 -0.0099999988
-0.0046839882 -0.14715743 -0.0099999988
-0.0029888169 -0.14693227 -0.0099999988
-0.0013256902 -0.14676432 -0.0099999988
0.0013377493 -0.14681788 -0.0099999988
0.0036753491 -0.14654735 -0.0099999998
0.0050977864 -0.14631698 -0.0099999998
0.0070020058 -0.14708076 -0.0099999988
0.0091006123 -0.14716601 -0.0096830921
-0.0099999998 -0.14734983 -0.00708046
0.0099999998 -0.14704065 -0.0072058961
-0.0099999998 -0.14681354 -0.0053711836
0.0099999998 -0.14703973 -0.0050257291
-0.0099999988 -0.14675319 -0.0028916027
0.0099999988 -0.14708787 -0.002897619
-0.0099999998 -0.14695764 -0.00087541447
0.0099999998 -0.14705527 -0.0011217657
-0.0099999998 -0.14683311 0.0014601678
0.0099999988 -0.14730406 0.00098867156
-0.0099999988 -0.1468678 0.0028377108
0.0099999988 -0.14692807 0.0028953697
-0.0099999988 -0.1470288 0.005235773
0.0099999998 -0.14733295 0.0050217961
-0.0099999998 -0.14655823 0.0064978148
0.0099999998 -0.14751972 0.0064089322
-0.0096780118 -0.14684729 0.0095633622
-0.0071166637 -0.14698906 0.0099999988
-0.0049360739 -0.14713389 0.0099999988
-0.0031636548 -0.1470536 0.0099999988
-0.0011735215 -0.14695302 0.0099999998
0.00091480662 -0.14685559 0.010000001
0.0028181861 -0.14736439 0.0099999988
0.0048665958 -0.14710809 0.0099999988
0.006890757 -0.1471258 0.0099999988
0.0091174133 -0.14708823 0.0096917208
-0.0084984582 -0.14708199 0.010000001
-0.0098277843 -0.1491165 -0.009366177
-0.0069057909 -0.14892918 -0.0099999988
-0.0050208112 -0.14916652 -0.0099999988
-0.0030601087 -0.14901014 -0.0099999988
-0.001085135 -0.14891885 -0.0099999988
0.0012810789 -0.14938138 -0.0099999998
0.0029189792 -0.14920993 -0.0099999988
0.0056856396 -0.14803064 -0.0099999998
0.0072501674 -0.14866371 -0.0099999988
0.0096798912 -0.1491155 -0.0093630711
-0.0099999988 -0.14900056 -0.0068246517
0.0099999988 -0.14878626 -0.007011747
-0.0099999998 -0.14908658 -0.0049125124
0.0099999998 -0.14886346 -0.0045964364
-0.0099999988 -0.14886652 -0.0031432328
0.0099999988 -0.14928207 -0.0032709315
-0.0099999988 -0.14928992 -0.0012131991
0.0099999988 -0.14864892 -0.00075987598
-0.0099999998 -0.14890751 0.0013548717
0.0099999988 -0.14885828 0.00091295561
-0.0099999988 -0.14910188 0.0030576247
0.0099999998 -0.1490659 0.0030719524
-0.0099999988 -0.14897768 0.0050550178
0.0099999988 -0.14929302 0.0048686387
-0.0099999988 -0.1489905 0.0071543353
0.0099999988 -0.14874259 0.0069426568
-0.0097951265 -0.14909945 0.0092757773
-0.0069822245 -0.14927334 0.0099999998
-0.004956753 -0.14927068 0.0099999988
-0.0030189047 -0.14890313 0.0099999988
-0.0010704736 -0.14925608 0.0099999988
0.0010429419 -0.14908367 0.0099999988
0.0027920713 -0.14907405 0.0099999998
0.0050463486 -0.14891791 0.0099999988
0.0070337197 -0.14886524 0.0099999988
0.0091679767 -0.14916256 0.0097578401
0.010000001 -0.14898142 0.0097202873
-0.0091149304 -0.15079688 -0.0098111145
-0.0069837468 -0.15070829 -0.0099999988
-0.0049411966 -0.15092121 -0.0099999988
-0.0032837745 -0.15101373 -0.0099999988
-0.0011088353 -0.15084808 -0.0099999988
0.0010288911 -0.15086551 -0.0099999988
0.0031847891 -0.15091766 -0.0099999988
0.0051066792 -0.15094583 -0.0099999988
0.0069455514 -0.15102972 -0.0099999988
0.009679921 -0.15076992 -0.0093979714
-0.0099999988 -0.15104282 -0.0069138743
0.0099999998 -0.15089421 -0.0070721083
-0.0099999988 -0.15111569 -0.0048336899
0.0099999988 -0.15145825 -0.0050038286
-0.0099999988 -0.15138586 -0.0030656799
0.0099999998 -0.15056081 -0.0029138669
-0.0099999998 -0.15098301 -0.001228321
0.0099999998 -0.15113711 -0.0011780619
-0.0099999988 -0.15082827 0.001166251
0.0099999988 -0.151306 0.00092415453
-0.0099999998 -0.15124485 0.0032237505
0.0099999988 -0.15088445 0.0028678116
-0.0099999998 -0.15077417 0.0047439551
0.0099999998 -0.15108354 0.0048019998
-0.0099999988 -0.15109861 0.0067089805
0.0099999988 -0.15074903 0.0071886671
-0.0098001603 -0.150785 0.0093998788
-0.0071473629 -0.15082942 0.0099999998
-0.0053394595 -0.15106314 0.0099999988
-0.0030980213 -0.15117626 0.0099999988
-0.0012664911 -0.15106165 0.0099999988
0.0010216993 -0.15103717 0.0099999998
0.0031331573 -0.1508816 0.0099999988
0.0051349695 -0.15091249 0.0099999988
0.0071974215 -0.15118939 0.0099999988
0.0094071077 -0.15110989 0.0095604835
0.00996124 -0.1502693 0.010000001
-0.0094606159 -0.15314458 -0.0094453683
-0.0072795707 -0.15329725 -0.0099999988
-0.0050822678 -0.15301844 -0.0099999988
-0.0032223365 -0.15282142 -0.0099999988
-0.0010312967 -0.15310647 -0.0099999988
0.0011788922 -0.15275601 -0.0099999998
0.0030641982 -0.15315554 -0.0099999998
0.005321688 -0.15268908 -0.0099999988
0.0068134838 -0.15310836 -0.0099999988
0.009493921 -0.15301338 -0.0095340824
-0.0099999988 -0.15298198 -0.0073195868
0.0099999988 -0.15312576 -0.0072837519
-0.0099999998 -0.15305448 -0.0050329822
0.0099999998 -0.15270613 -0.004602544
-0.0099999988 -0.15290804 -0.0030766036
0.0099999998 -0.15275165 -0.0031423266
-0.0099999988 -0.15309958 -0.00099137938
0.0099999988 -0.15273313 -0.0012532439
-0.0099999988 -0.15305923 0.0011929703
0.0099999998 -0.15282945 0.00087409653
-0.0099999988 -0.15342392 0.0031732558
0.0099999988 -0.15317175 0.0028437283
-0.0099999998 -0.15290919 0.0052257394
0.0099999988 -0.15292849 0.0051387334
-0.0099999988 -0.15279557 0.0069324798
0.0099999988 -0.15273242 0.006859873
-0.0097462088 -0.15322214 0.0091422917
-0.0070505715 -0.1530101 0.0099999988
-0.0050382195 -0.15331909 0.0099999988
-0.0030470057 -0.15296894 0.0099999998
-0.0010156183 -0.15303326 0.0099999998
0.0010907998 -0.15300593 0.0099999988
0.0026312708 -0.15301073 0.0099999988
0.0051324698 -0.15278438 0.0099999988
0.0070952098 -0.1530973 0.010000001
0.0096014217 -0.15302075 0.0093326801
-0.009858775 -0.15395483 0.010000001
-0.0095363175 -0.15519802 -0.0095315697
-0.0073809423 -0.1551266 -0.0099999988
-0.0050872862 -0.15507385 -0.0099999988
-0.0028272823 -0.15506066 -0.0099999988
-0.00058595306 -0.15501153 -0.0099999988
0.0011429648 -0.15518238 -0.0099999998
0.0031208475 -0.15503457 -0.0099999998
0.0048618568 -0.15489219 -0.0099999988
0.0068307458 -0.1551239 -0.0099999998
0.0095852371 -0.15519351 -0.0094108284
-0.0099999998 -0.15508004 -0.0068169828
0.0099999998 -0.15484589 -0.0070174942
-0.0099999988 -0.15495841 -0.0049175834
0.0099999998 -0.15514737 -0.0054113674
-0.0099999998 -0.15482791 -0.0032489304
0.0099999988 -0.15529023 -0.003112552
-0.0099999988 -0.15494028 -0.001188348
0.0099999988 -0.15494271 -0.0012221136
-0.0099999988 -0.15490672 0.0012100139
0.0099999988 -0.15506035 0.00078996166
-0.0099999988 -0.15491143 0.0029207182
0.0099999988 -0.15525499 0.0030650049
-0.0099999988 -0.15516429 0.0050699338
0.0099999998 -0.15507561 0.0049563656
-0.0099999988 -0.1548845 0.0067966785
0.0099999998 -0.15501709 0.0070778066
-0.0094335442 -0.15479882 0.0092772376
-0.006487106 -0.15546846 0.0099999998
-0.0053068735 -0.15496488 0.0099999998
-0.0030157187 -0.15529954 0.0099999988
-0.0012373895 -0.15516463 0.0099999998
0.00090585597 -0.15504435 0.0099999998
0.0030539269 -0.15496057 0.0099999988
0.0052240114 -0.15482549 0.0099999998
0.0068629766 -0.15490624 0.0099999998
0.0098194005 -0.15501806 0.0096221333
-0.007263985 -0.15497899 0.010000001
-0.0096967099 -0.15720083 -0.0095720571
-0.0070360587 -0.1570334 -0.0099999988
-0.0050014653 -0.15688297 -0.0099999988
-0.0029864132 -0.15697086 -0.0099999988
-0.0012903893 -0.15727407 -0.0099999988
0.0011326261 -0.1569536 -0.0099999988
0.0031023698 -0.15701905 -0.0099999988
0.0047572735 -0.15682493 -0.0099999998
0.0070767519 -0.15707311 -0.0099999998
0.0094618369 -0.15700699 -0.0094705643
-0.0099999988 -0.15701398 -0.0071348865
0.0099999998 -0.15714237 -0.006773721
-0.0099999998 -0.15699552 -0.0050289752
0.0099999988 -0.15705271 -0.0050437762
-0.0099999988 -0.15695761 -0.0028973343
0.0099999988 -0.15715483 -0.0030612615
-0.0099999988 -0.15705882 -0.0011541098
0.0099999988 -0.15691362 -0.0010292453
-0.0099999988 -0.15713535 0.0014859459
0.0099999988 -0.15691802 0.00095324323
-0.0099999988 -0.15704259 0.0029720522
0.0099999988 -0.15706818 0.002808864
-0.0099999998 -0.15675651 0.0051690135
0.0099999998 -0.15694194 0.0047795163
-0.0099999998 -0.15687419 0.0073844926
0.0099999998 -0.15723896 0.0070222011
-0.0096572079 -0.15695843 0.0093919672
-0.007022629 -0.15684043 0.0099999998
-0.0051249187 -0.15708484 0.0099999988
-0.0027574906 -0.15706947 0.0099999988
-0.0012973495 -0.15726413 0.0099999988
0.0012613198 -0.1572642 0.0099999988
0.0030813117 -0.15730828 0.0099999988
0.0049103904 -0.15673736 0.0099999988
0.0067820526 -0.15701625 0.0099999988
0.0094262883 -0.15727615 0.0094883563
0.010000001 -0.1561092 0.0093870806
-0.009536772 -0.15892555 -0.0092433169
-0.0070854728 -0.15918584 -0.0099999998
-0.0051313662 -0.15874507 -0.0099999988
-0.0028307009 -0.15898488 -0.0099999998
-0.0010340968 -0.1588669 -0.0099999988
0.00082180009 -0.15884076 -0.0099999988
0.0027883116 -0.1592439 -0.0099999998
0.0048981132 -0.15891771 -0.0099999988
0.0070276218 -0.15865409 -0.0099999988
0.00956346 -0.15919338 -0.0095882285
-0.0099999998 -0.15882669 -0.0074576437
0.0099999988 -0.15905616 -0.0072785765
-0.0099999988 -0.15933563 -0.005333853
0.0099999998 -0.15901093 -0.0049003102
-0.0099999988 -0.15878719 -0.003109501
0.0099999998 -0.15913627 -0.0028589186
-0.0099999998 -0.15949552 -0.0010666028
0.0099999998 -0.15875416 -0.00075586844
-0.0099999998 -0.15890855 0.00087982707
0.0099999998 -0.1589887 0.0012671339
-0.0099999998 -0.1587031 0.0030700758
0.0099999988 -0.15947972 0.0032403895
-0.0099999998 -0.1588636 0.0050066453
0.0099999988 -0.15892556 0.0047614011
-0.010000002 -0.15919355 0.0069249338
0.0099999988 -0.15928851 0.0073713618
-0.009423472 -0.15895826 0.0094565628
-0.0069519067 -0.15897353 0.0099999998
-0.0051230337 -0.15930957 0.0099999998
-0.0029082864 -0.15910363 0.0099999998
-0.0011038899 -0.15903372 0.0099999998
0.0010456182 -0.15917477 0.0099999988
0.0031537788 -0.15908745 0.0099999998
0.0048086969 -0.1588905 0.0099999998
0.0067711826 -0.15834799 0.0099999998
0.0096181119 -0.15896937 0.0095888413
-0.0085244589 -0.15841497 0.010000001
-0.009376239 -0.16086735 -0.0096506681
-0.0070623104 -0.1611288 -0.0099999988
-0.0050853756 -0.160946 -0.0099999988
-0.0026483797 -0.16101225 -0.0099999998
-0.00080301409 -0.16119249 -0.0099999988
0.00086237572 -0.16107236 -0.0099999998
0.0030643833 -0.16097952 -0.0099999988
0.0050434945 -0.16089779 -0.0099999988
0.0070997342 -0.16064209 -0.0099999988
0.0093905227 -0.16100134 -0.00964115
-0.0099999988 -0.16095021 -0.0069310986
0.0099999988 -0.16125362 -0.0072680535
-0.0099999988 -0.16112708 -0.0045771976
0.0099999988 -0.16111247 -0.0045217481
-0.0099999998 -0.16084941 -0.0030392129
0.0099999998 -0.16084188 -0.0027783536
-0.0099999988 -0.16111976 -0.00068128452
0.0099999988 -0.16115446 -0.00088748179
-0.0099999988 -0.161268 0.00087445369
0.0099999998 -0.16135633 0.0012912017
-0.0099999998 -0.16123194 0.0027075573
0.0099999988 -0.16108988 0.0028732058
-0.0099999998 -0.16087908 0.0050304285
0.0099999998 -0.16113728 0.0051154001
-0.0099999988 -0.16091938 0.0073905457
0.0099999998 -0.16113029 0.0067400839
-0.009556842 -0.16082728 0.009305506
-0.006994925 -0.16095677 0.0099999988
-0.0047843531 -0.16098961 0.0099999988
-0.0028029671 -0.16103752 0.0099999988
-0.00085284404 -0.16078496 0.0099999988
0.00055284076 -0.16045147 0.0099999998
0.0025960403 -0.16073352 0.0099999988
0.004847941 -0.16043141 0.0099999998
0.0067893639 -0.16113089 0.0099999988
0.0094719781 -0.16127558 0.0095003694
-0.0070474744 -0.1617499 0.010000001
-0.0094232364 -0.16310044 -0.0097689163
-0.0068217409 -0.16294725 -0.0099999998
-0.0047259619 -0.16323742 -0.0099999988
-0.0031314532 -0.16269982 -0.0099999998
-0.00096702215 -0.16296804 -0.0099999988
0.0010246536 -0.16293806 -0.0099999988
0.0032074924 -0.16307034 -0.0099999988
0.0049031232 -0.16280371 -0.0099999988
0.0072823549 -0.16305257 -0.0099999988
0.0094703073 -0.16297932 -0.0096209757
-0.0099999998 -0.16297531 -0.0073847617
0.0099999998 -0.163009 -0.0069861235
-0.0099999988 -0.16324815 -0.0048834565
0.0099999988 -0.1629384 -0.0051121749
-0.0099999988 -0.1629049 -0.0027298115
0.0099999988 -0.16313319 -0.0034157017
-0.0099999988 -0.16295518 -0.00080900954
0.0099999998 -0.16292846 -0.0012056704
-0.0099999988 -0.16291294 0.00099944568
0.0099999998 -0.16261719 0.001079047
-0.0099999988 -0.1632448 0.0030019013
0.0099999998 -0.16293202 0.0028168196
-0.0099999988 -0.16298865 0.0049988972
0.0099999988 -0.16305572 0.0048508695
-0.0099999988 -0.16306816 0.006743724
0.0099999998 -0.16304961 0.007054477
0.010000001 -0.16362388 0.0076494133
-0.0094667366 -0.16291156 0.0093002757
-0.0069122533 -0.16276866 0.0099999988
-0.0048031532 -0.16304079 0.0099999988
-0.0027749611 -0.16314162 0.0099999988
-0.0012997333 -0.16267419 0.0099999988
0.00095008721 -0.16302162 0.0099999988
0.0028594122 -0.16272318 0.0099999988
0.0052205534 -0.1630825 0.0099999998
0.0066181859 -0.16317633 0.0099999998
0.0094929384 -0.16306807 0.009617053
-0.0095313014 -0.16508707 -0.0092948116
-0.0072068758 -0.16520159 -0.0099999998
-0.0050341333 -0.16517353 -0.0099999998
-0.0031771937 -0.1649788 -0.0099999998
-0.00098005251 -0.16492593 -0.0099999998
0.00107985 -0.16530757 -0.0099999988
0.0029290218 -0.16498642 -0.0099999988
0.0048813578 -0.16506873 -0.0099999988
0.0065873479 -0.16496462 -0.0099999998
0.009791445 -0.16501608 -0.0091150934
-0.0099999998 -0.1651105 -0.0071754418
0.0099999988 -0.16480912 -0.0070912149
-0.0099999998 -0.16518191 -0.0045054751
0.0099999988 -0.16522624 -0.005240771
-0.0099999998 -0.1652059 -0.0028648914
0.0099999998 -0.16498427 -0.0031529132
-0.0099999998 -0.16516256 -0.00067472423
0.0099999998 -0.16503699 -0.00085597555
-0.0099999988 -0.16492444 0.0011614875
0.010000002 -0.16505589 0.0010009138
-0.0099999998 -0.16541442 0.0032250797
0.0099999998 -0.16485725 0.0030001034
-0.0099999998 -0.16502233 0.0047226474
0.0099999988 -0.16494872 0.0049767182
-0.0099999998 -0.16517852 0.0070800628
0.0099999988 -0.1649138 0.0070846253
0.010000001 -0.16556756 0.0073065287
-0.0094013149 -0.16497166 0.0096381605
-0.0072257724 -0.1651846 0.0099999998
-0.0050065252 -0.16505009 0.0099999998
-0.0025606616 -0.1652099 0.0099999988
-0.0010009808 -0.16524567 0.0099999988
0.00095845578 -0.16486737 0.0099999998
0.0031166687 -0.16443852 0.0099999998
0.0051072817 -0.16489361 0.0099999988
0.0068767718 -0.16549709 0.0099999998
0.0094949026 -0.16496137 0.0096760569
-0.0096433796 -0.1670507 -0.0094011268
-0.0067635528 -0.16707978 -0.0099999998
-0.005078454 -0.16701633 -0.0099999988
-0.0033085346 -0.16681463 -0.0099999998
-0.00076770817 -0.16676174 -0.0099999998
0.0012715234 -0.16699734 -0.0099999998
0.0034925044 -0.1670486 -0.0099999998
0.0050523998 -0.16707294 -0.0099999988
0.0069223749 -0.16703612 -0.0099999988
0.0094593456 -0.16714942 -0.0093356445
-0.0099999988 -0.16721541 -0.0067554107
0.0099999988 -0.16685618 -0.0071913926
-0.0099999988 -0.16712308 -0.0048434031
0.0099999998 -0.16708201 -0.0047894269
-0.0099999998 -0.16737811 -0.0029248919
0.0099999988 -0.16659196 -0.0031612155
-0.0099999988 -0.16676824 -0.00058728567
0.0099999988 -0.16706435 -0.00094989076
-0.0099999988 -0.16725993 0.0010448914
0.0099999988 -0.16718538 0.0010548166
-0.0099999998 -0.16679041 0.0027465485
0.0099999998 -0.16719247 0.0025661245
-0.0099999998 -0.16669197 0.0050896909
0.0099999988 -0.16665378 0.0048209908
-0.0099999988 -0.16727209 0.0068818745
0.0099999988 -0.16690683 0.0066707283
-0.0094770566 -0.16694383 0.0095331622
-0.0071567809 -0.16686176 0.0099999998
-0.0049080784 -0.16723707 0.0099999988
-0.0031469066 -0.16708796 0.0099999988
-0.00093748322 -0.1672582 0.0099999988
0.0013012866 -0.16719708 0.0099999998
0.0031611391 -0.16704729 0.0099999988
0.0053071482 -0.16681597 0.0099999998
0.0071556508 -0.16701193 0.0099999998
0.009379697 -0.16685843 0.0095789963
-0.0064828242 -0.16757143 0.010000001
-0.0094970483 -0.16907963 -0.0094425855
-0.0069617778 -0.16909589 -0.0099999988
-0.0054064901 -0.16889997 -0.0099999988
-0.0031732179 -0.16920924 -0.0099999988
-0.0011512403 -0.16890509 -0.0099999988
0.0012076364 -0.16895346 -0.0099999998
0.0030507259 -0.16893636 -0.0099999988
0.004548565 -0.16914287 -0.0099999998
0.0070879981 -0.16873744 -0.0099999988
0.0096055781 -0.1690921 -0.0094387252
-0.0099999988 -0.16912173 -0.0068239467
0.0099999998 -0.16920288 -0.0067870398
-0.0099999998 -0.16955951 -0.0049223541
0.0099999988 -0.16919656 -0.0048621781
-0.0099999988 -0.16915949 -0.0031643861
0.0099999998 -0.16831589 -0.0028608046
-0.0099999988 -0.16917355 -0.00081537414
0.0099999988 -0.16897665 -0.00087888405
-0.0099999988 -0.16885078 0.00074695901
0.0099999998 -0.16902862 0.0010374043
-0.0099999998 -0.16965926 0.0028143581
0.0099999998 -0.16881303 0.0028272057
-0.0099999998 -0.16886364 0.0052381707
0.0099999998 -0.1689633 0.0050587645
-0.0099999998 -0.1688932 0.0068978006
0.0099999988 -0.16902263 0.0068918732
-0.0097358674 -0.16903213 0.0094593922
-0.0070699328 -0.16887631 0.0099999988
-0.0051817223 -0.16877529 0.0099999998
-0.0030650338 -0.16885358 0.0099999988
-0.001096254 -0.16895734 0.0099999988
0.00086976273 -0.16879296 0.0099999998
0.002810861 -0.16915134 0.0099999998
0.0054597156 -0.16843361 0.0099999998
0.0069787214 -0.16914824 0.0099999988
0.009716575 -0.16882487 0.0094771283
-0.0094695985 -0.16935384 0.010000001
-0.0094422456 -0.17073615 -0.0094848527
-0.006939257 -0.17094825 -0.0099999988
-0.0051754732 -0.17138664 -0.0099999998
-0.0027105021 -0.17114864 -0.0099999988
-0.001156776 -0.17097621 -0.0099999988
0.00056039839 -0.17120609 -0.0099999998
0.0027653896 -0.17114314 -0.0099999998
0.0049831024 -0.17122135 -0.0099999988
0.0068822592 -0.17054993 -0.0099999988
0.0093131522 -0.17108789 -0.0094563756
-0.0099999988 -0.17105201 -0.0072188894
0.0099999998 -0.17115287 -0.0069545535
-0.0099999988 -0.17086923 -0.004953085
0.0099999988 -0.17156675 -0.0046734037
-0.0099999998 -0.17092696 -0.0033924379
0.0099999998 -0.17107281 -0.0027928248
-0.0099999998 -0.17066841 -0.00071569486
0.0099999988 -0.17080635 -0.00084361859
-0.0099999988 -0.17075987 0.00086945866
0.0099999988 -0.17112683 0.0010522893
-0.0099999988 -0.17110124 0.0029191133
0.0099999988 -0.17101775 0.0030148488
-0.0099999998 -0.1706802 0.0050200438
0.0099999988 -0.17108977 0.0049718334
-0.0099999988 -0.1709958 0.0072410838
0.0099999988 -0.17112136 0.0069484427
-0.0094714966 -0.17092218 0.0094367508
-0.0066985763 -0.1712946 0.0099999998
-0.0050268671 -0.17114508 0.0099999988
-0.0034008229 -0.1710922 0.0099999998
-0.00096931745 -0.17129426 0.0099999998
0.00048999587 -0.171243 0.0099999988
0.0031124346 -0.17104018 0.0099999988
0.0048984634 -0.17122318 0.0099999988
0.0070271241 -0.17108673 0.0099999988
0.0096373186 -0.1709214 0.009372903
0.010000001 -0.17132819 0.0084290141
-0.0097529478 -0.17318499 -0.0095501887
