# .PCD v0.7 - Point Cloud Data file format
VERSION 0.7
FIELDS x y z
SIZE 4 4 4
TYPE F F F
COUNT 1 1 1
WIDTH 1234
HEIGHT 1
VIEWPOINT 0 0 0 1 0 0 0
POINTS 1234
DATA ascii
0.0099999988 -0.16476828 -0.0029609152
0.010000001 -0.16490795 -0.0010917548
0.0099999998 -0.16509624 0.001261772
0.0099999998 -0.16498783 0.0026854612
0.0099999998 -0.1649294 0.0049854452
0.0099999988 -0.16502027 0.0071394937
0.0095155993 -0.16509095 0.0094685042
-0.0094478326 -0.16309278 -0.0096195135
-0.0099999998 -0.16313237 -0.0072187255
-0.0099999998 -0.16305991 -0.0048972731
-0.0099999998 -0.16309161 -0.0026674967
-0.0099999988 -0.16289838 -0.00109437
-0.0099999988 -0.16299377 0.0012847214
-0.0099999988 -0.16299808 0.0032458208
-0.0099999988 -0.16321833 0.004874507
-0.0099999998 -0.16305716 0.007016114
-0.0096669169 -0.16307235 0.0094888313
-0.0090122353 -0.16318268 0.010000001
-0.0070364955 -0.16281696 -0.010000002
-0.0069852988 -0.16306695 0.0099999988
-0.0050105914 -0.16294341 -0.0099999988
-0.0051899143 -0.16300507 0.0099999998
-0.0032236576 -0.16347283 -0.0099999998
-0.0030426432 -0.1628606 0.0099999988
-0.00091446057 -0.16311184 -0.010000001
-0.0010333494 -0.16281363 0.0099999988
0.001088134 -0.16293354 -0.010000001
0.00093796611 -0.16313359 0.0099999998
0.0030286151 -0.16310006 -0.0099999988
0.0029796646 -0.16317536 0.0099999988
0.0050226049 -0.16327564 -0.0099999998
0.0049928566 -0.1631292 0.0099999998
0.0072037815 -0.16294999 -0.010000001
0.006816831 -0.16286686 0.010000001
0.0097833062 -0.16273461 -0.0094764102
0.0099999988 -0.16291416 -0.0068055727
0.010000001 -0.16308375 -0.0051168231
0.0099999998 -0.16288471 -0.0026662324
0.010000002 -0.16296445 -0.0010911002
0.0099999998 -0.16285999 0.0008352088
0.0099999988 -0.16277133 0.003001929
0.0099999988 -0.16303922 0.0046804063
0.0099999988 -0.16264422 0.0070624612
0.0097336834 -0.16319184 0.0093378238
-0.0092699202 -0.16119047 -0.009625704
-0.010000002 -0.16120118 -0.0070288936
-0.010000002 -0.16124919 -0.005164355
-0.0099999998 -0.16108143 -0.0029197291
-0.0099999988 -0.16121025 -0.0012713822
-0.0099999998 -0.16111171 0.00071111968
-0.0099999998 -0.16088508 0.0028956423
-0.0099999988 -0.16080114 0.0050012884
-0.0099999998 -0.16084202 0.0069449949
-0.0095520793 -0.16101781 0.0096111055
-0.0067591369 -0.16079295 -0.0099999998
-0.0069698719 -0.16055121 0.0099999988
-0.0051661404 -0.16075 -0.0099999988
-0.0051752655 -0.1611639 0.0099999998
-0.0032195805 -0.16102886 -0.010000001
-0.0028686335 -0.16106625 0.0099999998
-0.0010855254 -0.16112784 -0.0099999988
-0.0007034156 -0.16097637 0.0099999998
0.00089358265 -0.16106789 -0.0099999998
0.00086593127 -0.16108879 0.0099999998
0.0030885977 -0.16104673 -0.0099999998
0.0026275688 -0.16096187 0.0099999988
0.0049787676 -0.16107169 -0.010000001
0.0048431219 -0.16093905 0.0099999998
0.0070568589 -0.16100529 -0.010000001
0.0073301173 -0.1607974 0.010000001
0.0093676345 -0.16073008 -0.0096366862
0.0099999998 -0.16098045 -0.0069701732
0.0099999988 -0.16076329 -0.0047702431
0.0099999988 -0.16082445 -0.0029220602
0.0099999998 -0.1607341 -0.00051074766
0.0099999998 -0.16094427 0.0010798577
0.0099999988 -0.16124733 0.0027669412
0.0099999988 -0.16113554 0.0049473532
0.0099999998 -0.16101345 0.0070261881
0.0093465121 -0.16102003 0.0095527675
0.010000001 -0.16102487 0.0069853552
-0.0093620094 -0.15892191 -0.0096851857
-0.0099999988 -0.15922505 -0.0072783767
-0.0099999998 -0.15904948 -0.0048407414
-0.0099999988 -0.15936412 -0.0029390466
-0.0099999998 -0.15901007 -0.0010718415
-0.0099999988 -0.15888378 0.0010827384
-0.0099999998 -0.15929493 0.0030556312
-0.0099999988 -0.15911201 0.0048469575
-0.0099999998 -0.15909629 0.007181406
-0.0095187826 -0.15910524 0.0094557349
-0.0068006539 -0.15911847 -0.0099999998
-0.0070608975 -0.1585837 0.0099999998
-0.0078664143 -0.15872331 0.010000001
-0.0049081123 -0.15907553 -0.0099999988
-0.0048576575 -0.15913616 0.0099999988
-0.0028373261 -0.15869264 -0.0099999988
-0.0032290609 -0.15856692 0.0099999998
-0.00098948821 -0.15903442 -0.0099999988
-0.0010887086 -0.15908654 0.0099999988
0.0010172001 -0.15880227 -0.0099999988
0.00055897509 -0.15906672 0.0099999988
0.0028626528 -0.15889516 -0.010000001
0.0026273704 -0.15851045 0.0099999988
0.005110377 -0.15910278 -0.0099999988
0.0050635692 -0.15905319 0.0099999998
0.0068462216 -0.15895456 -0.0099999998
0.0069135665 -0.15911016 0.0099999998
0.0097421119 -0.15896219 -0.0092800995
0.0099999998 -0.15881775 -0.0067048552
0.0099999988 -0.15885621 -0.0047518024
0.0099999998 -0.15888174 -0.0027651181
0.010000001 -0.15913206 -0.0011016725
0.0099999998 -0.15933818 0.001091472
0.0099999998 -0.15905569 0.0029827387
0.0099999988 -0.15905081 0.0049264575
0.0099999988 -0.15891469 0.0071055284
0.0094383536 -0.15902306 0.0094543444
0.010000001 -0.15841497 0.0085244589
-0.0095057068 -0.15701675 -0.0096539743
-0.0099999988 -0.15716124 -0.006797161
-0.0099999998 -0.15705532 -0.0047913874
-0.0099999988 -0.15691745 -0.0029610663
-0.0099999998 -0.15688249 -0.0010629405
-0.0099999988 -0.15672313 0.00091562443
-0.0099999998 -0.15679924 0.0028651729
-0.0099999988 -0.15714444 0.0051959995
-0.0099999988 -0.15695047 0.0067639309
-0.0094185397 -0.15709956 0.0094820568
-0.0099839335 -0.15620103 0.010000001
-0.007074187 -0.15692303 -0.010000001
-0.0072294269 -0.15683663 0.0099999988
-0.0079539595 -0.15724033 0.010000001
-0.0048102876 -0.1569255 -0.0099999988
-0.0047817226 -0.15699813 0.0099999988
-0.0030011311 -0.15692669 -0.0099999988
-0.0030068276 -0.15682819 0.0099999988
-0.0010025909 -0.15701219 -0.010000001
-0.00081056275 -0.15701313 0.0099999988
0.00088004459 -0.15711349 -0.0099999998
0.00093012239 -0.15687157 0.0099999998
0.0030956876 -0.15665555 -0.0099999988
0.0031399427 -0.15652895 0.0099999988
0.0052307304 -0.15710466 -0.0099999998
0.0050869896 -0.15713143 0.0099999988
0.0071727443 -0.15713045 -0.0099999988
0.0068705715 -0.15708815 0.010000002
0.0096734995 -0.15718156 -0.0092899259
0.0099999988 -0.15693639 -0.0070057837
0.0099999998 -0.15693419 -0.0050367229
0.0099999998 -0.15723266 -0.0031073375
0.0099999988 -0.15718396 -0.0013780476
0.0099999988 -0.15727451 0.00083286775
0.0099999998 -0.15709701 0.0027754782
0.0099999988 -0.15706566 0.004974823
0.0099999998 -0.15682179 0.0070483363
0.0096597504 -0.15694706 0.0095118908
0.010000001 -0.15759934 0.0087094363
-0.0093408423 -0.15503851 -0.0097051933
-0.010000002 -0.15498319 -0.0070323925
-0.010000002 -0.15512571 -0.005005483
-0.0099999988 -0.15504223 -0.0030900666
-0.0099999998 -0.15504266 -0.00087436347
-0.0099999998 -0.15524915 0.0011016171
-0.0099999998 -0.15502825 0.003200541
-0.0099999988 -0.15527259 0.0052385153
-0.010000001 -0.15485288 0.0069666277
-0.0093666865 -0.15511267 0.0095258206
-0.0080628432 -0.15515596 0.010000001
-0.0071021779 -0.15519023 -0.0099999988
-0.007130038 -0.15510224 0.0099999988
-0.0051346198 -0.15501821 -0.0099999988
-0.0048850868 -0.1549698 0.010000001
-0.0030990769 -0.15485629 -0.010000001
-0.0028178575 -0.15495269 0.0099999998
-0.0008698845 -0.15487042 -0.0099999988
-0.00080127979 -0.15500221 0.0099999998
0.0012637021 -0.1549971 -0.0099999998
0.00089285936 -0.15487452 0.0099999998
0.0029441405 -0.15507729 -0.0099999998
0.0029275052 -0.15501958 0.0099999998
0.005100925 -0.1551127 -0.0099999988
0.0046597333 -0.15502819 0.010000001
0.0069795814 -0.15534486 -0.0099999988
0.0070774131 -0.15509847 0.0099999998
0.0095451055 -0.15505567 -0.0094716884
0.0099999988 -0.15492438 -0.0070703793
0.0099999998 -0.1549491 -0.0049850498
0.0099999988 -0.15491877 -0.002904803
0.0099999988 -0.15490776 -0.0011578791
0.0099999998 -0.15485667 0.00085637812
0.0099999988 -0.15516825 0.0027502542
0.010000001 -0.15501805 0.0052306023
0.0099999988 -0.15538159 0.0066882796
0.0095104016 -0.15500557 0.0096569927
0.010000001 -0.15465274 0.0072714961
-0.0098033147 -0.15294413 -0.0093449987
-0.0099999998 -0.1528424 -0.0068134535
-0.0099999998 -0.15306884 -0.0050898986
-0.0099999988 -0.15322685 -0.0028456221
-0.0099999988 -0.15281677 -0.00079661561
-0.0099999998 -0.1527054 0.0010762657
-0.0099999988 -0.15310852 0.0032451309
-0.0099999988 -0.15237266 0.0048501799
-0.0099999988 -0.15297098 0.0068794978
-0.0096613728 -0.15285487 0.0093127554
-0.0072435373 -0.15274613 -0.010000001
-0.0068061417 -0.15323018 0.010000001
-0.0073812045 -0.15383472 0.010000001
-0.0048736595 -0.15298526 -0.0099999998
-0.0050407629 -0.15287742 0.0099999998
-0.003205603 -0.15275839 -0.0099999998
-0.002693844 -0.15297052 0.0099999998
-0.0012706686 -0.15307224 -0.0099999988
-0.0010448081 -0.15294971 0.010000001
0.0013023342 -0.15283902 -0.0099999998
0.00086977158 -0.15316744 0.010000001
0.0029966745 -0.15279098 -0.0099999998
0.0027888454 -0.15327224 0.0099999988
0.0048899134 -0.15281481 -0.0099999998
0.0050598742 -0.15305892 0.0099999998
0.007382974 -0.15290856 -0.0099999998
0.0071743927 -0.15323694 0.0099999988
0.0096896151 -0.15311636 -0.0091969147
0.010000002 -0.15304431 -0.0069782096
0.010000002 -0.15299897 -0.0050320844
0.0099999988 -0.15297236 -0.0026877113
0.0099999988 -0.15276265 -0.0010612879
0.0099999988 -0.15318838 0.00066084001
0.0099999988 -0.15272774 0.0028833076
0.0099999988 -0.15320916 0.005006033
0.0099999988 -0.1530665 0.0069455947
0.0093430532 -0.15308005 0.0095598623
0.010000001 -0.15322091 0.0074894703
0.010000001 -0.15381059 0.0095906183
-0.0093088718 -0.15093343 -0.0096302154
-0.0099999998 -0.15078381 -0.0071306531
-0.0099999988 -0.15109617 -0.004939612
-0.0099999988 -0.15135363 -0.0029751544
-0.0099999988 -0.15145513 -0.00084420893
-0.0099999998 -0.15087278 0.0010954684
-0.0099999988 -0.15096974 0.002807017
-0.0099999998 -0.15098713 0.0047719623
-0.010000001 -0.15084262 0.0067768912
-0.0094544832 -0.15090303 0.0094771283
-0.0070066741 -0.15082875 -0.0099999988
-0.0069341063 -0.15093243 0.0099999998
-0.0078616161 -0.15118077 0.010000001
-0.0050720177 -0.15138766 -0.0099999998
-0.0051631364 -0.15115499 0.0099999988
-0.0028417921 -0.15123062 -0.0099999988
-0.0028956204 -0.15088135 0.0099999998
-0.00093508407 -0.15127622 -0.0099999988
-0.0010766108 -0.15075937 0.0099999988
0.0010584164 -0.15115368 -0.0099999998
0.00099758129 -0.15087661 0.0099999998
0.0031213956 -0.15091841 -0.0099999988
0.0030702907 -0.15096439 0.0099999988
0.0048509701 -0.15116891 -0.0099999998
0.0048351018 -0.15061851 0.0099999998
0.0068924786 -0.15093713 -0.0099999988
0.0069800825 -0.15068011 0.010000001
0.0094649186 -0.15089315 -0.009501338
0.0099999998 -0.15110381 -0.0071073622
0.0099999988 -0.15068269 -0.0050429166
0.010000001 -0.15102163 -0.0029899175
0.0099999988 -0.15108173 -0.0010629853
0.0099999988 -0.15089172 0.001219356
0.0099999998 -0.15109889 0.0030630031
0.0099999998 -0.15115643 0.0052992101
0.0099999988 -0.15088399 0.0070134676
0.0093847988 -0.15098111 0.0097838519
0.010000001 -0.1502693 -0.00996124
-0.009444504 -0.14893256 -0.0095720105
-0.0099999998 -0.14891084 -0.0068475762
-0.0099999998 -0.14917889 -0.0049479473
-0.0099999988 -0.14918435 -0.0030658625
-0.0099999998 -0.1489549 -0.0011246498
-0.0099999988 -0.14860713 0.0010299984
-0.010000001 -0.14896898 0.0030267606
-0.0099999998 -0.14888248 0.0047784108
-0.0099999988 -0.14889291 0.0071605248
-0.0096197668 -0.1490045 0.009360441
-0.0086440528 -0.14921178 0.010000001
-0.006899978 -0.14917974 -0.0099999998
-0.007310892 -0.14870661 0.0099999988
-0.0045517548 -0.14905621 -0.0099999998
-0.0051365094 -0.14894205 0.0099999988
-0.0029594691 -0.14918442 -0.0099999988
-0.0029278556 -0.14912902 0.0099999988
-0.0006902836 -0.14887843 -0.0099999998
-0.0010732949 -0.14918254 0.010000002
0.001000881 -0.14909309 -0.0099999988
0.0010519587 -0.14904141 0.0099999988
0.0032369005 -0.14888564 -0.0099999988
0.0029206222 -0.14895135 0.010000001
0.0051569529 -0.14911066 -0.010000001
0.0050974009 -0.14911059 0.0099999988
0.0067942557 -0.14916766 -0.0099999998
0.0070164343 -0.14890499 0.0099999998
0.0095110014 -0.14890982 -0.0094339736
0.010000001 -0.14895904 -0.0070215384
0.010000002 -0.149092 -0.00501716
0.0099999988 -0.14905882 -0.0028661329
0.0099999998 -0.14885142 -0.0011251181
0.0099999998 -0.14907196 0.0011242428
0.0099999998 -0.14877237 0.0030307414
0.0099999998 -0.14901277 0.00491605
0.0099999998 -0.14902048 0.0070107323
0.0093339253 -0.1489744 0.0096350927
0.010000001 -0.14806388 0.0075704316
0.010000001 -0.14944266 0.0095226094
-0.0094604855 -0.14725962 -0.0096548293
-0.0099999988 -0.14729837 -0.0067777447
-0.010000002 -0.14719713 -0.0050261901
-0.0099999998 -0.14682768 -0.0029164872
-0.0099999998 -0.14731488 -0.00088438363
-0.0099999998 -0.14704415 0.0010094531
-0.0099999988 -0.14723025 0.0033367274
-0.0099999998 -0.14681134 0.004927868
-0.0099999998 -0.14695704 0.0070344522
-0.0093123866 -0.14702486 0.0095941518
-0.0082010347 -0.14727843 0.010000001
-0.0069591552 -0.14681067 -0.010000002
-0.0068101729 -0.14703254 0.010000001
-0.0049935975 -0.14691414 -0.0099999988
-0.0048366138 -0.14717712 0.0099999988
-0.0029778974 -0.14711292 -0.0099999988
-0.0031112023 -0.14700964 0.0099999988
-0.00096171687 -0.14711139 -0.0099999998
-0.00092176825 -0.14695609 0.0099999998
0.0011198323 -0.1471701 -0.0099999998
0.00091447111 -0.14687923 0.010000001
0.0031839493 -0.14705846 -0.0099999998
0.0026866253 -0.14700656 0.0099999988
0.0049202554 -0.1467981 -0.0099999998
0.004905466 -0.14713377 0.0099999998
0.00679299 -0.14672135 -0.0099999988
0.0071953423 -0.14714737 0.0099999998
0.0094879074 -0.14699066 -0.0094500324
0.0099999988 -0.14724381 -0.0067597157
0.0099999998 -0.14709142 -0.0049646972
0.0099999998 -0.14712577 -0.0029425824
0.010000001 -0.14669964 -0.00084273604
0.0099999998 -0.14730768 0.0008677867
0.0099999998 -0.14702722 0.0031518813
0.0099999998 -0.14704865 0.0049191671
0.0099999988 -0.14696454 0.0071949312
0.0092515517 -0.14705549 0.0097585097
0.010000001 -0.14708199 0.0084984582
-0.0095190015 -0.14495249 -0.0095213056
-0.0099999988 -0.1449766 -0.0069629732
-0.010000001 -0.14520374 -0.0050266455
-0.0099999988 -0.14516266 -0.0032370687
-0.0099999988 -0.1448769 -0.00077454775
-0.0099999988 -0.14504227 0.00093584839
-0.0099999998 -0.14497647 0.0030354899
-0.0099999988 -0.14542414 0.0048763873
-0.0099999988 -0.14505024 0.0069181155
-0.0095800003 -0.14504397 0.0094470438
-0.006987487 -0.1451696 -0.0099999988
-0.0069671669 -0.14499037 0.010000001
-0.0051293937 -0.14531371 -0.010000002
-0.0051363767 -0.14493598 0.0099999998
-0.0031025482 -0.14506373 -0.0099999988
-0.0030004452 -0.14514063 0.0099999998
-0.0010711547 -0.14473832 -0.0099999998
-0.0010849737 -0.14476717 0.0099999998
0.000760336 -0.1451408 -0.0099999988
0.0011132399 -0.145116 0.0099999988
0.0033164122 -0.14467315 -0.0099999988
0.0029731255 -0.14515679 0.0099999998
0.0047584358 -0.14484675 -0.0099999998
0.0048987935 -0.14496306 0.0099999998
0.0071333842 -0.14499263 -0.0099999998
0.007077829 -0.14494787 0.0099999988
0.0094569577 -0.14528286 -0.0095712971
0.0099999998 -0.14493358 -0.0072217346
0.0099999988 -0.14520055 -0.0053320648
0.0099999998 -0.14488475 -0.0030008405
0.0099999988 -0.14494915 -0.0010050605
0.0099999988 -0.14518526 0.00098782592
0.0099999988 -0.14489122 0.0029835985
0.0099999988 -0.14517294 0.0049408511
0.0099999988 -0.14482705 0.0070453705
0.0095615387 -0.1448769 0.0096029751
0.010000001 -0.14465976 0.0093337148
-0.0095354831 -0.14302912 -0.009385841
-0.0099999988 -0.14293936 -0.0070932056
-0.0099999998 -0.14275989 -0.0050804676
-0.010000001 -0.14289567 -0.0030135203
-0.0099999998 -0.14297684 -0.00072125311
-0.010000002 -0.14276065 0.0010515336
-0.0099999988 -0.14320844 0.003055959
-0.0099999998 -0.1430323 0.0048416303
-0.0099999988 -0.14352416 0.007341472
-0.0095981238 -0.14304216 0.0094273295
-0.0070384806 -0.14305362 -0.0099999998
-0.0068706027 -0.14266931 0.0099999998
-0.004817042 -0.14282542 -0.0099999988
-0.0051284442 -0.14284261 0.0099999988
-0.0028884136 -0.14299352 -0.0099999988
-0.0028915186 -0.14297301 0.0099999988
-0.0011051531 -0.14293507 -0.0099999988
-0.0012282911 -0.14312656 0.0099999998
0.00088930165 -0.14301847 -0.0099999988
0.0012171931 -0.1429711 0.0099999998
0.0030371095 -0.14284733 -0.010000001
0.0028383357 -0.14302173 0.0099999998
0.0048437677 -0.14280465 -0.0099999988
0.0050432333 -0.14336653 0.0099999988
0.0068665869 -0.14300516 -0.0099999988
0.0071450397 -0.14310709 0.0099999988
0.0095031578 -0.14314 -0.009687501
0.0099999998 -0.14302188 -0.0067515117
0.0099999988 -0.14301205 -0.0047533065
0.0099999998 -0.14312503 -0.002905627
0.0099999998 -0.14301099 -0.00094686117
0.0099999988 -0.14284217 0.0011520628
0.0099999988 -0.142977 0.0029542055
0.0099999998 -0.14297284 0.0046830806
0.0099999998 -0.14302032 0.0070113847
0.0094097713 -0.14305675 0.0096242512
-0.0094115231 -0.14089534 -0.0095215654
-0.0099999988 -0.14076166 -0.0071673188
-0.0099999988 -0.14086072 -0.0052781473
-0.0099999988 -0.14129095 -0.0033235338
-0.0099999998 -0.14116189 -0.00093207543
-0.0099999998 -0.14096577 0.00083510962
-0.0099999998 -0.14102559 0.0032201556
-0.0099999988 -0.14101301 0.0049599432
-0.0099999998 -0.14094423 0.0067718397
-0.0095722768 -0.14106303 0.0096010873
-0.0083093802 -0.14091632 0.010000001
-0.0070510348 -0.14105465 -0.010000001
-0.006601477 -0.1410958 0.0099999998
-0.0049835178 -0.14095648 -0.0099999998
-0.0048721801 -0.14091204 0.010000002
-0.0030775897 -0.14100024 -0.010000001
-0.003049056 -0.14075498 0.0099999988
-0.00072122976 -0.14106832 -0.0099999998
-0.001114656 -0.14099422 0.0099999998
0.0009725545 -0.14072555 -0.0099999998
0.00079391047 -0.14102677 0.0099999988
0.0032362568 -0.14116463 -0.0099999998
0.0031279491 -0.14087763 0.0099999998
0.0050466829 -0.14076175 -0.0099999998
0.0050153038 -0.14081818 0.010000001
0.0066243187 -0.14126256 -0.0099999998
0.0068955454 -0.1411209 0.0099999998
0.0093539245 -0.14102814 -0.0095583685
0.0099999988 -0.14126557 -0.0070259944
0.0099999998 -0.14090505 -0.0047970507
0.0099999988 -0.14080644 -0.0031471706
0.0099999988 -0.14117058 -0.0010855853
0.0099999988 -0.14125112 0.00079743157
0.0099999998 -0.14112434 0.0029916978
0.0099999988 -0.14084627 0.0046116286
0.0099999988 -0.14092503 0.0071132407
0.009378924 -0.14109433 0.0095947627
0.010000001 -0.14064492 0.0077545913
0.010000001 -0.1410618 0.0087056644
-0.0094720246 -0.13911657 -0.0096695004
-0.0099999988 -0.13877644 -0.0070449207
-0.0099999988 -0.13883218 -0.0051947706
-0.0099999988 -0.139369 -0.003420634
-0.0099999998 -0.1388782 -0.001104139
-0.0099999998 -0.13890475 0.00093271222
-0.0099999988 -0.13889691 0.0031044565
-0.0099999988 -0.13910697 0.0048574153
-0.0099999998 -0.1387229 0.007075265
-0.0094985785 -0.13893697 0.0096491445
-0.0096276281 -0.13993344 0.010000001
-0.0070444876 -0.13888991 -0.0099999998
-0.0071166367 -0.13907236 0.0099999998
-0.0050961995 -0.13913473 -0.010000002
-0.0051652226 -0.13880704 0.0099999988
-0.0029692794 -0.13891283 -0.0099999998
-0.0030678927 -0.13897 0.010000001
-0.0010062936 -0.13896854 -0.010000001
-0.0011744616 -0.13905075 0.0099999998
0.00087741151 -0.13906361 -0.0099999988
0.00087779865 -0.13894053 0.0099999988
0.0029948289 -0.1388654 -0.0099999998
0.0030506053 -0.13909839 0.0099999988
0.0049791038 -0.13904248 -0.0099999998
0.0049600066 -0.13861889 0.0099999998
0.0072842105 -0.13880846 -0.0099999998
0.00698792 -0.13915068 0.010000001
0.0096897427 -0.13879789 -0.0093928827
0.0099999998 -0.13888919 -0.0071645016
0.0099999998 -0.13923687 -0.0048994804
0.0099999988 -0.13904487 -0.0028783013
0.0099999998 -0.13891755 -0.00071545719
0.0099999988 -0.13901377 0.00096953235
0.010000001 -0.13907394 0.0031279894
0.0099999998 -0.13882512 0.0051547736
0.0099999998 -0.13895664 0.0069851978
0.0095002251 -0.13918652 0.0094622336
0.010000001 -0.13925901 0.0067895446
-0.0093302242 -0.13689302 -0.0094879437
-0.0099999998 -0.1370673 -0.0068208789
-0.0099999988 -0.13716936 -0.0049498919
-0.0099999998 -0.13716808 -0.002859019
-0.0099999998 -0.13701077 -0.0010077497
-0.0099999998 -0.13706203 0.0010662557
-0.0099999988 -0.13728435 0.0026904752
-0.0099999998 -0.13723622 0.0049015465
-0.0099999988 -0.13708095 0.0070135081
-0.0094241546 -0.13688473 0.0095844027
-0.0072171031 -0.13724443 -0.0099999998
-0.0070082559 -0.13706614 0.0099999998
-0.0051590218 -0.13705444 -0.0099999988
-0.0050571449 -0.13709302 0.0099999988
-0.0030246754 -0.13708857 -0.0099999988
-0.0029547156 -0.13697258 0.0099999998
-0.0012971761 -0.13706951 -0.0099999988
-0.00096623349 -0.13716343 0.0099999988
0.000959358 -0.1371184 -0.0099999988
0.0010182096 -0.13681658 0.0099999998
0.0029839145 -0.13692817 -0.0099999988
0.0030502048 -0.13684312 0.0099999988
0.0047844956 -0.137107 -0.010000001
0.0051928954 -0.13670282 0.010000001
0.0070220544 -0.13674727 -0.0099999988
0.0069330498 -0.13714656 0.0099999998
0.0096343551 -0.13689438 -0.0093293721
0.0099999998 -0.13687168 -0.0069427746
0.0099999998 -0.13707034 -0.004628907
0.0099999998 -0.13706754 -0.0029518858
0.0099999998 -0.13717163 -0.0010846129
0.0099999988 -0.13696934 0.0011546544
0.0099999998 -0.13706596 0.0029950801
0.0099999998 -0.13704103 0.0047742017
0.0099999988 -0.13730279 0.0068001626
0.009442132 -0.13715547 0.0094967084
-0.0096640009 -0.13479508 -0.0092842095
-0.0099999988 -0.13499931 -0.0072641042
-0.0099999988 -0.13507156 -0.0048554437
-0.0099999988 -0.13479725 -0.0030819806
-0.0099999988 -0.13479872 -0.001263295
-0.0099999998 -0.13506095 0.0010510855
-0.0099999988 -0.13458167 0.0029141137
-0.0099999988 -0.13491346 0.0046910807
-0.0099999988 -0.13507281 0.0070058159
-0.0094949342 -0.13484193 0.0094927903
-0.0069180951 -0.13493972 -0.0099999998
-0.006859791 -0.13520204 0.0099999988
-0.0070215594 -0.13545001 0.010000001
-0.0051413206 -0.1349435 -0.010000001
-0.0052889884 -0.13504547 0.0099999988
-0.0031967682 -0.13512678 -0.010000001
-0.0029724326 -0.13487589 0.0099999998
-0.0010010758 -0.1350396 -0.010000001
-0.0010805409 -0.13490303 0.0099999988
0.0010703529 -0.13469709 -0.0099999998
0.0010331813 -0.13485253 0.0099999998
0.0029471377 -0.13494985 -0.0099999998
0.0030285742 -0.13527888 0.0099999998
0.0047668014 -0.13494597 -0.0099999998
0.0049979384 -0.13499631 0.0099999988
0.0066700964 -0.13529287 -0.0099999988
0.0069262711 -0.13495417 0.010000001
0.0094447341 -0.13497233 -0.0095531503
0.0099999988 -0.13525786 -0.0068438062
0.010000001 -0.13491865 -0.0050207656
0.0099999988 -0.13478777 -0.0028719986
0.0099999988 -0.13503937 -0.00093687326
0.0099999988 -0.13520275 0.00099190813
0.0099999988 -0.13513866 0.0026669654
0.0099999998 -0.1349235 0.0047891056
0.0099999998 -0.13488634 0.0069047101
0.0094874185 -0.13508135 0.0094299307
0.010000001 -0.1352879 0.0080745565
-0.0096002556 -0.133215 -0.009351695
-0.010000001 -0.13250719 -0.0068393657
-0.0099999988 -0.13318151 -0.0050388193
-0.0099999998 -0.13323267 -0.0030434805
-0.0099999988 -0.13291007 -0.00095076108
-0.0099999988 -0.1330203 0.0011252129
-0.0099999998 -0.13271129 0.0030151543
-0.0099999988 -0.13320696 0.0049820882
-0.0099999988 -0.13316995 0.0073093907
-0.0094786836 -0.13321379 0.0094389208
-0.0068934518 -0.13291126 -0.0099999998
-0.0070340317 -0.13290274 0.0099999988
-0.0048534232 -0.13297459 -0.0099999998
-0.0048097302 -0.13311601 0.010000001
-0.0029898495 -0.13299662 -0.010000001
-0.0028242127 -0.13294812 0.0099999988
-0.00087936333 -0.13303445 -0.0099999998
-0.0010723319 -0.13298866 0.010000001
0.00093281065 -0.13315818 -0.010000001
0.0012572573 -0.13330494 0.0099999998
0.0030269909 -0.13290003 -0.0099999998
0.0028218536 -0.1329727 0.010000001
0.0051342957 -0.13285971 -0.010000001
0.0050086817 -0.13336591 0.0099999988
0.0070224833 -0.13320065 -0.0099999988
0.0070505249 -0.13305999 0.0099999988
0.0091790082 -0.13282631 -0.0096674133
0.0099999988 -0.1331325 -0.0068766735
0.0099999988 -0.13311504 -0.0050335741
0.0099999998 -0.13284333 -0.0028417658
0.010000001 -0.13293365 -0.0010572334
0.010000002 -0.13301829 0.0011331382
0.0099999988 -0.13308442 0.0028505747
0.0099999988 -0.13293886 0.0050835712
0.0099999988 -0.13317496 0.0071695009
0.009820899 -0.13305303 0.009139278
0.010000001 -0.13272616 -0.008748333
-0.0096217589 -0.13088304 -0.0093881479
-0.0099999988 -0.13093567 -0.006823339
-0.0099999998 -0.13119102 -0.0047678193
-0.0099999998 -0.13074499 -0.0028937308
-0.0099999988 -0.13099055 -0.00079221884
-0.0099999998 -0.1312523 0.00090600335
-0.0099999988 -0.13121668 0.0031436456
-0.0099999998 -0.13081595 0.005077139
-0.0099999988 -0.13084939 0.0070618629
-0.0096075963 -0.13111904 0.0095609836
-0.0070787654 -0.13112478 -0.0099999998
-0.0071789902 -0.13091177 0.0099999988
-0.0074894927 -0.13078231 0.010000001
-0.0049286117 -0.13111155 -0.0099999998
-0.0052225664 -0.13096583 0.010000001
-0.0029845531 -0.13097771 -0.0099999988
-0.0030704373 -0.13106591 0.0099999998
-0.0010327485 -0.1308801 -0.0099999988
-0.0011187624 -0.13066015 0.0099999998
0.0010034326 -0.13089281 -0.010000002
0.0011667798 -0.13078721 0.0099999998
0.0030032203 -0.13085917 -0.0099999988
0.0029179014 -0.13084359 0.0099999998
0.0049153441 -0.13099556 -0.0099999988
0.0049339705 -0.13122167 0.010000001
0.0072148973 -0.13093162 -0.0099999998
0.0069489288 -0.13086408 0.0099999998
0.0096479803 -0.13114406 -0.0092906477
0.0099999988 -0.13082059 -0.0070029548
0.0099999998 -0.13091081 -0.0053086518
0.0099999998 -0.13151364 -0.003158326
0.0099999988 -0.13099007 -0.00069590722
0.0099999998 -0.13114861 0.00085068849
0.0099999998 -0.13103114 0.0030034976
0.0099999988 -0.1310378 0.0049908892
0.0099999988 -0.13126436 0.0073135081
0.0097117368 -0.13091329 0.0095281051
-0.0094104409 -0.12911052 -0.0095987953
-0.010000002 -0.12896927 -0.0069574085
-0.0099999988 -0.12893076 -0.0046982532
-0.0099999988 -0.12912139 -0.0032045387
-0.0099999988 -0.12878613 -0.0011045225
-0.0099999998 -0.12901098 0.00083045795
-0.0099999988 -0.12870812 0.0031323428
-0.0099999998 -0.12901211 0.0048243906
-0.0099999998 -0.12899029 0.0069295503
-0.0094449669 -0.12887508 0.0095348954
-0.0084582064 -0.12925783 0.010000001
-0.0068219178 -0.12890235 -0.0099999988
-0.0070079328 -0.1290801 0.0099999988
-0.0049494444 -0.12912521 -0.0099999998
-0.0052408529 -0.12907994 0.0099999998
-0.0029207631 -0.12903395 -0.0099999998
-0.0028800254 -0.12876211 0.0099999998
-0.0011066747 -0.12906213 -0.010000001
-0.0010022513 -0.12893003 0.0099999988
0.0010846284 -0.1292064 -0.0099999998
0.0011498226 -0.12917733 0.0099999998
0.0030938014 -0.12891579 -0.0099999998
0.003010537 -0.12909484 0.0099999998
0.0051894896 -0.12898418 -0.0099999998
0.0049580568 -0.12893197 0.0099999998
0.0071389219 -0.12924381 -0.0099999988
0.0069951839 -0.12928566 0.010000001
0.0092248535 -0.12898183 -0.0096941525
0.0099999998 -0.12903431 -0.0069185928
0.0099999998 -0.12938577 -0.004716421
0.0099999988 -0.12910329 -0.0030036084
0.010000002 -0.12896203 -0.00075616396
0.010000001 -0.12909265 0.0010734805
0.010000001 -0.12882422 0.0029455584
0.0099999988 -0.12939636 0.0049841404
0.0099999998 -0.12892644 0.0069662449
0.0095442273 -0.12888944 0.0094228489
0.010000001 -0.12952419 0.0078214072
-0.0096878447 -0.12697545 -0.0095737632
-0.0099999998 -0.12689377 -0.007150521
-0.0099999998 -0.12692823 -0.005170668
-0.0099999988 -0.12680262 -0.0028988549
-0.0099999988 -0.12684691 -0.0012046468
-0.0099999988 -0.12708235 0.00084076129
-0.0099999988 -0.12694055 0.0031161008
-0.0099999998 -0.12692283 0.0050079632
-0.0099999998 -0.12715608 0.0070010531
-0.0095222602 -0.12685984 0.0096776737
-0.0069440417 -0.12696227 -0.0099999998
-0.0071967519 -0.12710473 0.0099999998
-0.0051375749 -0.12715004 -0.0099999988
-0.0046649454 -0.12650155 0.0099999988
-0.0031084765 -0.12677336 -0.0099999988
-0.0032118298 -0.12707523 0.0099999988
-0.0012042073 -0.12716287 -0.0099999988
-0.0011870841 -0.12691641 0.0099999988
0.0011619669 -0.12681119 -0.0099999988
0.0011140098 -0.12709503 0.0099999998
0.0029247215 -0.12714534 -0.0099999988
0.0030469063 -0.12699313 0.0099999988
0.0051177754 -0.12689675 -0.0099999988
0.0050151576 -0.12698729 0.010000001
0.0071337656 -0.12695248 -0.0099999988
0.0071355291 -0.12723295 0.0099999988
0.0095865885 -0.12705594 -0.0094633279
0.0099999998 -0.12704314 -0.0069422363
0.0099999988 -0.12682432 -0.0051871277
0.0099999998 -0.12688823 -0.0029507305
0.010000001 -0.12703273 -0.00086245948
0.0099999988 -0.12704937 0.00099724438
0.0099999988 -0.12656641 0.0026652035
0.0099999988 -0.12675788 0.0049102963
0.010000001 -0.12736529 0.00712003
0.0094853481 -0.12700513 0.0094927792
0.010000001 -0.12775515 0.0094903205
-0.0093310215 -0.12501928 -0.0096330494
-0.0099999998 -0.12487721 -0.0070886342
-0.0099999988 -0.12509696 -0.0047774403
-0.0099999988 -0.12501028 -0.0031288464
-0.010000001 -0.12512097 -0.00088410755
-0.0099999998 -0.12500525 0.0011418421
-0.0099999998 -0.12500516 0.0031400879
-0.0099999998 -0.12508084 0.0049766614
-0.010000001 -0.12486544 0.0067506041
-0.0097585591 -0.12508629 0.0090677831
-0.007112538 -0.12508593 -0.010000001
-0.0068955226 -0.12494382 0.0099999998
-0.0075525744 -0.12590303 0.010000001
-0.0050166212 -0.1252082 -0.0099999998
-0.0049386011 -0.12494239 0.0099999988
-0.0030290033 -0.12506036 -0.0099999998
-0.0030123701 -0.12515283 0.0099999998
-0.0011109988 -0.12487851 -0.0099999988
-0.00095276861 -0.12495824 0.0099999988
0.0011568335 -0.12478919 -0.0099999988
0.0010334747 -0.12485926 0.0099999998
0.0030249697 -0.12517986 -0.0099999988
0.0029450015 -0.12478663 0.0099999998
0.0050093974 -0.12523244 -0.010000001
0.0049415859 -0.12505342 0.010000002
0.0068158712 -0.12512022 -0.0099999998
0.0070733624 -0.12529337 0.0099999988
0.0094118807 -0.12517716 -0.0094993226
0.0099999988 -0.1248565 -0.0070594628
0.0099999998 -0.12509292 -0.0051012239
0.0099999998 -0.12478189 -0.0028467756
0.0099999988 -0.12485132 -0.000955772
0.0099999998 -0.12489516 0.0010196371
0.0099999998 -0.12525558 0.002824269
0.0099999988 -0.12492036 0.0049799327
0.0099999988 -0.12474938 0.0070173796
0.009508919 -0.12497901 0.0094310697
-0.0093569281 -0.12297068 -0.0096314531
-0.0099999998 -0.12302864 -0.007098434
-0.0099999988 -0.12322635 -0.0049777101
-0.0099999998 -0.12299654 -0.0030423845
-0.0099999998 -0.12308362 -0.0012224595
-0.0099999998 -0.12308903 0.001289928
-0.0099999988 -0.12308796 0.002971723
-0.0099999988 -0.12284673 0.0050711031
-0.0099999998 -0.12285835 0.0070884451
-0.0095650433 -0.12303323 0.009360184
-0.0085473191 -0.12242664 0.010000001
-0.0073050451 -0.12331484 -0.0099999988
-0.0070714979 -0.12313434 0.0099999998
-0.0051841256 -0.12320583 -0.0099999988
-0.0048450045 -0.12307972 0.0099999988
-0.002862476 -0.1229369 -0.0099999998
-0.0028501393 -0.12287901 0.010000001
-0.00075487187 -0.12317215 -0.0099999988
-0.0011300455 -0.12278809 0.0099999998
0.00083237485 -0.12284889 -0.010000001
0.001013612 -0.12314218 0.0099999988
0.0029854139 -0.12290329 -0.0099999998
0.0031727906 -0.12313265 0.0099999988
0.0050560008 -0.12274221 -0.0099999988
0.0052684834 -0.12314067 0.010000001
0.0070837117 -0.12304008 -0.0099999988
0.0071732327 -0.12312803 0.0099999988
0.0094482312 -0.12294169 -0.0096000535
0.0099999998 -0.12300082 -0.0070114844
0.0099999998 -0.12332397 -0.0049799834
0.0099999998 -0.12308946 -0.0029209657
0.0099999988 -0.12304192 -0.00096879702
0.0099999998 -0.12311228 0.00086985651
0.0099999988 -0.12290531 0.0029243974
0.0099999988 -0.12307976 0.0053624366
0.0099999988 -0.12310081 0.0069334731
0.0093046296 -0.12278017 0.0095780548
-0.0094257351 -0.12105621 -0.009575096
-0.0099999988 -0.12071657 -0.0069617731
-0.0099999988 -0.1209404 -0.0051514716
-0.0099999988 -0.12081703 -0.0028026092
-0.010000002 -0.12136813 -0.00086494151
-0.0099999998 -0.12112222 0.00063706294
-0.0099999988 -0.12083866 0.0026769873
-0.0099999998 -0.12109466 0.0049319454
-0.0099999988 -0.12094183 0.0070064715
-0.0094568096 -0.12106247 0.0095892167
-0.0069674845 -0.12108801 -0.0099999998
-0.0069286465 -0.12069353 0.0099999988
-0.0048872409 -0.12072609 -0.0099999988
-0.0053082542 -0.1208405 0.0099999988
-0.0030839832 -0.12084169 -0.0099999998
-0.0030733417 -0.12130156 0.0099999988
-0.0012521533 -0.12094925 -0.0099999988
-0.001069397 -0.12087431 0.0099999998
0.00087456772 -0.12091641 -0.0099999988
0.00075492915 -0.12120884 0.0099999988
0.0031192056 -0.12101541 -0.0099999998
0.0029998277 -0.12092482 0.0099999998
0.0049312315 -0.12080415 -0.0099999998
0.0048876936 -0.12102076 0.0099999998
0.0069078319 -0.12111554 -0.0099999998
0.0068364358 -0.12130313 0.0099999998
0.0093559045 -0.1209202 -0.0096984422
0.0099999988 -0.12095848 -0.0070477542
0.0099999988 -0.12108205 -0.0048854793
0.0099999988 -0.12069621 -0.0029406813
0.0099999988 -0.12116835 -0.00098235102
0.0099999998 -0.12090774 0.0010574725
0.0099999998 -0.12105124 0.0028734615
0.0099999988 -0.12085254 0.0050206571
0.0099999988 -0.1209944 0.0071787303
0.009509068 -0.12087235 0.0093068993
-0.009499358 -0.11885989 -0.0095255533
-0.010000001 -0.11872889 -0.0070418334
-0.0099999998 -0.11910546 -0.0051437062
-0.0099999988 -0.11907944 -0.003214835
-0.0099999988 -0.118872 -0.00084704411
-0.010000001 -0.11924146 0.00086674851
-0.0099999988 -0.11875631 0.0029179193
-0.0099999988 -0.11900576 0.0049313349
-0.0099999998 -0.11902918 0.007126119
-0.0097038522 -0.1191013 0.0093566831
-0.0068188193 -0.11869674 -0.010000001
-0.0069973413 -0.11915665 0.0099999998
-0.0048363726 -0.1194099 -0.0099999988
-0.005498223 -0.11895373 0.0099999988
-0.0032105187 -0.11895899 -0.0099999988
-0.0030678234 -0.11887379 0.0099999988
-0.0011333291 -0.11925453 -0.0099999998
-0.0010310458 -0.11883624 0.010000001
0.0012345996 -0.11907591 -0.0099999988
0.00089994411 -0.11877952 0.010000001
0.0029296975 -0.1191339 -0.0099999998
0.0029267787 -0.11915889 0.0099999998
0.0051372484 -0.11911236 -0.0099999998
0.004772651 -0.1189404 0.0099999988
0.0071019176 -0.11895421 -0.0099999988
0.007293615 -0.11882719 0.0099999988
0.0094927121 -0.11902647 -0.0093704788
0.010000002 -0.11901295 -0.0068802494
0.0099999988 -0.11941783 -0.0049648066
0.010000001 -0.11887902 -0.0028202832
0.0099999998 -0.11906283 -0.0011040572
0.0099999988 -0.11892315 0.00079908775
0.010000002 -0.11884999 0.0032559903
0.0099999988 -0.11910922 0.0049308399
0.0099999988 -0.11861542 0.0067112478
0.0094091231 -0.11905777 0.0096448297
0.0089467159 -0.11823878 0.010000001
-0.0097445808 -0.11705026 -0.009421533
-0.0099999998 -0.11670195 -0.0069023706
-0.010000001 -0.116867 -0.004987061
-0.010000001 -0.11714826 -0.0030956652
-0.0099999998 -0.11703657 -0.0011051326
-0.0099999988 -0.11694874 0.00099422433
-0.010000001 -0.11686317 0.0030350613
-0.010000001 -0.11706767 0.0049312874
-0.0099999998 -0.11684631 0.0069367616
-0.0094022434 -0.11692251 0.0096329609
-0.007257713 -0.11711786 -0.0099999998
-0.0071536638 -0.11704902 0.0099999988
-0.005058554 -0.11702669 -0.0099999998
-0.0051340936 -0.11689052 0.0099999998
-0.0030450132 -0.11709797 -0.010000002
-0.0031383091 -0.11646556 0.0099999988
-0.00089251169 -0.11693008 -0.0099999988
-0.0010031967 -0.11703593 0.010000002
0.0011455254 -0.11709813 -0.0099999998
0.00082973705 -0.11713608 0.0099999998
0.0027914802 -0.11698091 -0.0099999988
0.0029327215 -0.11702591 0.0099999998
0.0047639282 -0.11700463 -0.0099999998
0.0050085229 -0.11728555 0.0099999998
0.0068774535 -0.11704191 -0.0099999988
0.0069597713 -0.11703409 0.0099999988
0.0095741777 -0.11728706 -0.0094796224
0.0099999998 -0.11702549 -0.007110619
0.0099999988 -0.11705696 -0.0046937885
0.0099999988 -0.11722489 -0.0030312843
0.0099999988 -0.11685654 -0.00076601701
0.0099999998 -0.11712703 0.0011912998
0.0099999998 -0.11709389 0.0031858217
0.010000001 -0.11686128 0.0049813227
0.0099999998 -0.11680793 0.0068680635
0.0095314076 -0.11678843 0.0095777977
-0.009540976 -0.11516932 -0.0094596446
-0.0099999988 -0.11523858 -0.0070876917
-0.010000001 -0.11494397 -0.0049845418
-0.0099999998 -0.115068 -0.0029631129
-0.0099999988 -0.11534028 -0.00083504088
-0.0099999988 -0.1150295 0.0007307597
-0.0099999998 -0.11486479 0.0028227672
-0.0099999988 -0.11517554 0.0049414602
-0.010000001 -0.11510561 0.0068305782
-0.0093395244 -0.11523765 0.0096557112
-0.0069985152 -0.11462329 -0.0099999988
-0.007320967 -0.11502474 0.0099999988
-0.0049118334 -0.1149626 -0.0099999988
-0.004996446 -0.11468958 0.0099999988
-0.0031338239 -0.11507311 -0.010000002
-0.0032081343 -0.11476753 0.0099999988
-0.0011669544 -0.11501797 -0.0099999998
-0.00097233942 -0.11508103 0.0099999988
0.001343195 -0.11496625 -0.0099999998
0.00065904116 -0.11492342 0.0099999988
0.0027577053 -0.11505775 -0.0099999998
0.003046602 -0.11494401 0.0099999988
0.0048209443 -0.11504816 -0.0099999988
0.0052233613 -0.11502807 0.0099999998
0.0069983378 -0.11484475 -0.0099999988
0.006922225 -0.11499425 0.0099999988
0.0095152417 -0.11491907 -0.0094316518
0.0099999998 -0.11529964 -0.0072790268
0.0099999998 -0.11502372 -0.0050223116
0.010000001 -0.11486714 -0.0031303247
0.0099999998 -0.11494597 -0.0012548357
0.010000002 -0.11492037 0.0010741302
0.0099999998 -0.11504663 0.0030021255
0.0099999998 -0.11492523 0.0048690997
0.010000001 -0.11492456 0.0068913726
0.0095332814 -0.11505429 0.0095548034
-0.0095320204 -0.1130686 -0.0095307222
-0.0099999988 -0.11287429 -0.0070402827
-0.0099999998 -0.1132874 -0.0048801973
-0.0099999998 -0.11280616 -0.0030671014
-0.0099999988 -0.11331038 -0.0011155546
-0.010000001 -0.1129436 0.00081629137
-0.010000001 -0.11284317 0.0030828211
-0.0099999998 -0.11294062 0.0049421727
-0.0099999988 -0.11278459 0.0070317066
-0.0094646625 -0.11290164 0.0094542075
-0.0071600964 -0.11302235 -0.0099999998
-0.0071309684 -0.11297188 0.0099999998
-0.0049840943 -0.11284591 -0.0099999988
-0.0050184629 -0.1128801 0.0099999988
-0.0036017564 -0.11345493 -0.0099999998
-0.0031160999 -0.11258062 0.0099999998
-0.00080666196 -0.11287674 -0.0099999998
-0.0011129888 -0.11290339 0.0099999988
0.00093763368 -0.112823 -0.0099999988
0.00094595383 -0.11305821 0.0099999988
0.0029674908 -0.11313687 -0.0099999988
0.0031145317 -0.11297871 0.0099999998
0.0050393962 -0.1129026 -0.0099999988
0.004909833 -0.11309192 0.0099999988
0.0070070187 -0.11322026 -0.0099999998
0.0072704069 -0.11272748 0.0099999988
0.0092315646 -0.1133808 -0.0097222552
0.0099999988 -0.11323112 -0.0069985311
0.0099999988 -0.1131871 -0.0049036825
0.0099999988 -0.11269619 -0.0032632675
0.0099999988 -0.11306591 -0.0011494559
0.0099999988 -0.11309025 0.00081428437
0.0099999998 -0.11323685 0.0027492654
0.0099999988 -0.1134307 0.0048026359
0.0099999998 -0.1131115 0.0070576621
0.009548598 -0.11296257 0.0094645768
0.010000001 -0.11398815 -0.0075721331
0.010000001 -0.11316008 0.0076604215
-0.0094613805 -0.11106448 -0.0095518036
-0.0099999998 -0.1110247 -0.0069724224
-0.0099999998 -0.11104704 -0.0049330289
-0.0099999988 -0.11085507 -0.0029702194
-0.010000002 -0.11106633 -0.0011053457
-0.010000001 -0.11096233 0.00085280638
-0.0099999988 -0.11094622 0.0031782496
-0.0099999998 -0.11101003 0.0052992371
-0.0099999988 -0.11120428 0.0067668068
-0.0092970692 -0.11099019 0.0095946854
-0.0068564308 -0.11134512 -0.0099999988
-0.0070859189 -0.11097847 0.0099999988
-0.0047681471 -0.11085382 -0.0099999988
-0.0048888125 -0.11127189 0.0099999988
-0.0032298143 -0.11110824 -0.010000001
-0.0031901053 -0.11071013 0.0099999998
-0.0010177823 -0.11081726 -0.0099999998
-0.0010164196 -0.11079411 0.0099999988
0.00096150819 -0.11085927 -0.010000002
0.00066986703 -0.11109699 0.0099999998
0.0033825568 -0.11100101 -0.0099999988
0.0027586974 -0.11093046 0.0099999988
0.0048742155 -0.1110736 -0.0099999988
0.0047159442 -0.11078396 0.0099999988
0.0070178211 -0.11106723 -0.0099999988
0.0069455933 -0.11079901 0.0099999998
0.0094807027 -0.11103542 -0.009354597
0.0099999988 -0.11106116 -0.007338407
0.0099999998 -0.11089355 -0.0051999851
0.0099999988 -0.11133855 -0.0028941357
0.0099999988 -0.11064219 -0.00093989971
0.0099999998 -0.1109737 0.00088758831
0.0099999998 -0.11117067 0.0030146663
0.0099999988 -0.11124223 0.0052150018
0.0099999998 -0.11104733 0.0068657151
0.0096978405 -0.11089884 0.0094698425
0.010000001 -0.11137244 0.0099057015
-0.0094082905 -0.10908597 -0.0095833912
-0.0099999988 -0.10883965 -0.0069049387
-0.0099999988 -0.10901253 -0.0050689564
-0.0099999988 -0.10884642 -0.002900912
-0.0099999998 -0.10921809 -0.0012846282
-0.0099999998 -0.10903649 0.00091750344
-0.0099999988 -0.10878078 0.0029040282
-0.0099999998 -0.10886804 0.0047804057
-0.0099999988 -0.1091875 0.0072021135
-0.0093873646 -0.10900049 0.0096575487
-0.0071577816 -0.10889937 -0.0099999988
-0.0068000187 -0.10898375 0.0099999988
-0.0047375918 -0.10906552 -0.0099999988
-0.0049150498 -0.10902494 0.010000001
-0.0031215725 -0.10875406 -0.0099999998
-0.0027392542 -0.10898734 0.0099999988
-0.0011788562 -0.10897373 -0.0099999998
-0.0015392193 -0.10916498 0.0099999988
0.0011495308 -0.10914479 -0.0099999988
0.00095764315 -0.10891277 0.0099999998
0.0030994276 -0.10902673 -0.0099999988
0.0028694097 -0.10897391 0.0099999988
0.0049453853 -0.10907734 -0.0099999988
0.0048602503 -0.10907012 0.0099999988
0.0067635812 -0.10909091 -0.0099999988
0.0073234625 -0.1090594 0.0099999988
0.0093312785 -0.10902995 -0.0096122641
0.0099999988 -0.10878286 -0.0070169237
0.0099999998 -0.10876283 -0.0048228563
0.0099999998 -0.10897253 -0.0030493084
0.0099999998 -0.10873786 -0.0010131908
0.0099999988 -0.10905249 0.0011732901
0.0099999988 -0.10906979 0.0031952567
0.0099999998 -0.10916649 0.0048848414
0.0099999998 -0.10931578 0.0074898023
0.0092842393 -0.10900498 0.0096681667
-0.0095535116 -0.10703045 -0.009294048
-0.0099999998 -0.10724305 -0.0071729505
-0.0099999998 -0.10693872 -0.0051883683
-0.0099999998 -0.10688234 -0.0029617781
-0.0099999998 -0.1067199 -0.0012414944
-0.0099999998 -0.10706098 0.0012296843
-0.010000001 -0.10721073 0.0031908732
-0.0099999988 -0.10686576 0.0050235949
-0.0099999988 -0.10702819 0.0071735745
-0.0096428599 -0.1068143 0.0094121229
-0.006812185 -0.10678342 -0.0099999998
-0.0069507491 -0.10676541 0.0099999988
-0.0052375817 -0.10689609 -0.0099999988
-0.0053523416 -0.1070427 0.0099999998
-0.0029372831 -0.10674693 -0.010000002
-0.0030573935 -0.10719004 0.0099999988
-0.0010504008 -0.1071023 -0.0099999998
-0.0011904092 -0.10703497 0.0099999998
0.0011088105 -0.10695829 -0.0099999988
0.0011052528 -0.1071279 0.010000002
0.0031001184 -0.10705319 -0.0099999988
0.0029777959 -0.10692915 0.0099999988
0.0049611889 -0.10715283 -0.010000001
0.0050175707 -0.10702048 0.010000001
0.0069429781 -0.10703991 -0.0099999998
0.0070462096 -0.10703854 0.0099999998
0.0094116526 -0.10704366 -0.0096775359
0.010000002 -0.10698643 -0.0069896346
0.010000001 -0.1071379 -0.0050338376
0.0099999988 -0.10675376 -0.003218109
0.0099999998 -0.10703332 -0.001049891
0.0099999998 -0.10714937 0.00093049865
0.0099999988 -0.10710311 0.003019446
0.0099999988 -0.10661566 0.0051233233
0.0099999988 -0.10702188 0.0068279007
0.0095266933 -0.10684195 0.0095056519
-0.0093940785 -0.10500378 -0.0097210733
-0.0099999988 -0.10508127 -0.0070671286
-0.0099999998 -0.10490678 -0.0051179701
-0.0099999998 -0.10489322 -0.0029347369
-0.0099999998 -0.10502493 -0.0011354036
-0.0099999988 -0.10480081 0.00096849207
-0.0099999998 -0.10491148 0.0030703291
-0.0099999988 -0.10460456 0.0050782021
-0.0099999998 -0.10505439 0.007130919
-0.0095838606 -0.10504601 0.0094653489
-0.0070144343 -0.10506532 -0.0099999988
-0.0070190905 -0.10464027 0.0099999988
-0.0051722964 -0.10503665 -0.0099999998
-0.0051821759 -0.10482802 0.0099999998
-0.0028699972 -0.10494049 -0.0099999998
-0.0034239739 -0.10504897 0.0099999988
-0.0010079774 -0.10493009 -0.0099999998
-0.00085159397 -0.10495243 0.0099999998
0.00084924465 -0.10471231 -0.0099999988
0.00083966582 -0.10541216 0.0099999998
0.003123963 -0.10479451 -0.0099999988
0.0033165317 -0.10518289 0.0099999988
0.0050764321 -0.10506228 -0.010000001
0.0049747606 -0.10484624 0.0099999988
0.0069855624 -0.10485621 -0.0099999998
0.0071809492 -0.10511049 0.0099999998
0.0096348776 -0.10507871 -0.009427418
0.0099999998 -0.10478807 -0.0070425249
0.010000002 -0.10483074 -0.0049416092
0.010000001 -0.1051595 -0.0027183297
0.010000001 -0.10493108 -0.00095400604
0.0099999998 -0.10491493 0.0012079162
0.0099999998 -0.1048403 0.0028136661
0.0099999998 -0.10479321 0.0048344336
0.0099999988 -0.10515697 0.0070110527
0.0096208574 -0.10500163 0.0093937051
0.010000001 -0.10517831 -0.0084331091
-0.0094607454 -0.10288284 -0.0095565198
-0.0099999998 -0.10305355 -0.0069399164
-0.0099999988 -0.10270192 -0.0051123574
-0.0099999988 -0.10254078 -0.0030670755
-0.0099999998 -0.10316763 -0.0010502439
-0.0099999998 -0.10329777 0.00081238622
-0.0099999988 -0.10297359 0.0029592062
-0.010000001 -0.10295319 0.0050078807
-0.0099999988 -0.10311403 0.0071828207
-0.0094608963 -0.1029686 0.0094749145
-0.006902419 -0.10315931 -0.0099999988
-0.0073765558 -0.10345131 0.0099999988
-0.0047160471 -0.10251911 -0.0099999988
-0.0048875078 -0.10305499 0.010000001
-0.0030101377 -0.10316309 -0.0099999998
-0.0031821716 -0.10302734 0.0099999988
-0.0010743388 -0.10311118 -0.0099999998
-0.00082650495 -0.10301657 0.0099999988
0.0010878099 -0.10302727 -0.0099999988
0.001026228 -0.10305434 0.0099999998
0.0030054885 -0.1030186 -0.010000002
0.0032076132 -0.10299181 0.0099999988
0.0050059715 -0.10312831 -0.0099999988
0.0049683787 -0.10299996 0.010000002
0.0069258874 -0.10294527 -0.0099999988
0.0070871422 -0.1032396 0.0099999988
0.0093189115 -0.10282816 -0.0095259519
0.0099999988 -0.1028717 -0.0071188072
0.0099999998 -0.10310985 -0.0051997011
0.0099999998 -0.10306921 -0.0027177152
0.0099999988 -0.10291862 -0.00088768837
0.0099999998 -0.10304189 0.00076841289
0.0099999988 -0.10300884 0.0029760653
0.0099999998 -0.1029637 0.0049399571
0.0099999988 -0.10321205 0.0067933276
0.0095099062 -0.10305539 0.009462906
-0.0094891526 -0.10099123 -0.0093965698
-0.010000001 -0.10101102 -0.0069845938
-0.0099999988 -0.10102617 -0.0051288046
-0.0099999988 -0.10099886 -0.0029764709
-0.010000001 -0.10105083 -0.0011731639
-0.0099999988 -0.10125446 0.0010040887
-0.0099999988 -0.10092106 0.0029791603
-0.0099999988 -0.10106657 0.0049235658
-0.0099999998 -0.10111674 0.0069930963
-0.0095009413 -0.10094782 0.0095360996
-0.0070063188 -0.10085883 -0.0099999998
-0.0075039505 -0.10125224 0.0099999988
-0.0049942201 -0.10095963 -0.0099999988
-0.0051183458 -0.10091754 0.0099999998
-0.0029138401 -0.101075 -0.010000001
-0.0029818381 -0.10099031 0.0099999998
-0.0010060817 -0.10115074 -0.0099999998
-0.00096833671 -0.10100653 0.0099999988
0.0011424104 -0.10117248 -0.0099999988
0.0009194375 -0.10118551 0.0099999998
0.0028416601 -0.10106357 -0.0099999998
0.0030016494 -0.10115264 0.0099999988
0.0044094468 -0.10081279 -0.0099999988
0.0050208336 -0.1011517 0.010000001
0.0065178587 -0.10082582 -0.0099999998
0.0070474376 -0.10073765 0.0099999998
0.0094141783 -0.10108683 -0.0094706761
0.0099999988 -0.10086062 -0.0071265572
0.0099999988 -0.10102181 -0.0048799301
0.0099999998 -0.10110828 -0.002945093
0.0099999998 -0.10078891 -0.0010351427
0.0099999988 -0.10126485 0.00097995915
0.0099999988 -0.10122942 0.0029293653
0.0099999988 -0.10096841 0.0048723668
0.0099999998 -0.10080206 0.0069395951
0.009367018 -0.10105949 0.0096699605
0.0094162645 -0.10165568 0.010000001
-0.0095822448 -0.098853588 -0.009699652
-0.0099999988 -0.098992467 -0.0070109274
-0.0099999988 -0.098873757 -0.0049586943
-0.0099999998 -0.099144362 -0.0026515366
-0.0099999998 -0.099062175 -0.0012719752
-0.0099999998 -0.098988488 0.0004891436
-0.0099999998 -0.099008091 0.0033300489
-0.0099999988 -0.098704793 0.0050937426
-0.0099999988 -0.098819196 0.0069594467
-0.0094945328 -0.099125721 0.0095162913
-0.0069307145 -0.099107996 -0.0099999988
-0.0069587897 -0.098949596 0.0099999988
-0.0048667463 -0.099155322 -0.010000001
-0.0049560238 -0.098770522 0.0099999988
-0.0029873296 -0.099046655 -0.0099999998
-0.0031341803 -0.099117614 0.0099999988
-0.0010860158 -0.09911523 -0.0099999988
-0.0011522267 -0.09910287 0.0099999998
0.00082835514 -0.099187307 -0.0099999998
0.0009976963 -0.099035084 0.0099999998
0.0028004686 -0.099035114 -0.0099999998
0.00301208 -0.098897703 0.0099999998
0.0053561772 -0.098843709 -0.0099999998
0.0051529128 -0.099068351 0.0099999998
0.0071609304 -0.098972611 -0.0099999998
0.0072274511 -0.099032879 0.0099999998
0.0094060479 -0.098973751 -0.0095829461
0.010000001 -0.099028535 -0.0069798748
0.0099999988 -0.098600477 -0.0048338915
0.0099999988 -0.099091977 -0.0030816789
0.0099999988 -0.098898076 -0.0010378789
0.0099999988 -0.098947428 0.00088842859
0.0099999988 -0.098854035 0.0027856145
0.0099999998 -0.099057801 0.0049050935
0.0099999998 -0.098913193 0.0069390628
