# .PCD v0.7 - Point Cloud Data file format
VERSION 0.7
FIELDS x y z
SIZE 4 4 4
TYPE F F F
COUNT 1 1 1
WIDTH 1250
HEIGHT 1
VIEWPOINT 0 0 0 1 0 0 0
POINTS 1250
DATA ascii
0.0030770949 -0.061127122 0.014890102
0.0047974116 -0.061055765 -0.014890103
0.0051516206 -0.060879279 0.014890102
0.0072992132 -0.061141506 -0.014890104
0.007035031 -0.0608471 0.014890103
0.0088114413 -0.061217271 -0.014890102
0.0088623995 -0.061192188 0.014890102
0.010829181 -0.061299872 -0.0148901
0.010824366 -0.060779817 0.014890102
0.012979754 -0.06100668 -0.014890102
0.012810251 -0.060891598 0.014890103
0.014658291 -0.060910676 -0.014671627
0.014890101 -0.060924679 -0.012985985
0.014890101 -0.06060211 -0.011097481
0.014890103 -0.060717613 -0.0089422902
0.014890102 -0.060898732 -0.0070197964
0.014890101 -0.060658302 -0.0049541024
0.014890103 -0.060884558 -0.0030293013
0.014890101 -0.061003059 -0.0007879312
0.014890098 -0.06093581 0.0010779562
0.014890102 -0.060945794 0.0030627507
0.014890101 -0.061190464 0.0051796101
0.014890101 -0.061218403 0.0070224465
0.0148901 -0.060979843 0.0092828451
0.014890101 -0.060849927 0.010706433
0.014890101 -0.060944315 0.013050397
0.014706101 -0.061024208 0.014788399
-0.014630456 -0.059150513 -0.014634333
-0.0148901 -0.059123963 -0.013100134
-0.014890101 -0.059086867 -0.01107157
-0.014890102 -0.058903918 -0.0089769326
-0.014890101 -0.058771834 -0.0070220805
-0.0148901 -0.058789141 -0.0051026917
-0.014890102 -0.058989953 -0.0029063935
-0.014890102 -0.059067324 -0.0008395795
-0.0148901 -0.058994599 0.00085574755
-0.014890103 -0.059088651 0.0027637992
-0.014890102 -0.059298668 0.0048463969
-0.014890102 -0.05875605 0.0071142968
-0.0148901 -0.058924567 0.0087819146
-0.014890101 -0.058720823 0.01107522
-0.014890102 -0.058799528 0.01294217
-0.01466537 -0.059267323 0.014657544
-0.012979478 -0.0591169 -0.014890103
-0.013097714 -0.059004534 0.014890103
-0.010812186 -0.059160039 -0.014890102
-0.0107473 -0.05916835 0.0148901
-0.0089305332 -0.059065446 -0.014890101
-0.0088327378 -0.058864117 0.014890102
-0.0070630773 -0.058794443 -0.014890102
-0.0071409727 -0.058766987 0.014890102
-0.0049612937 -0.058709342 -0.014890098
-0.0047821589 -0.058828861 0.0148901
-0.003057261 -0.059075199 -0.014890102
-0.0030537562 -0.058873206 0.014890102
-0.0010163576 -0.05887977 -0.014890103
-0.00083692279 -0.059247494 0.014890103
0.0010189547 -0.059192616 -0.014890101
0.0007893478 -0.059029758 0.014890103
0.0026170961 -0.059220541 -0.0148901
0.0028906413 -0.058870323 0.014890102
0.0049655009 -0.058940712 -0.014890103
0.0048202714 -0.058915269 0.014890101
0.007099479 -0.059051685 -0.014890102
0.0067269029 -0.058619961 0.014890102
0.0090942904 -0.059044741 -0.014890101
0.008722431 -0.0589405 0.0148901
0.011191166 -0.058845423 -0.014890101
0.010990955 -0.05869709 0.014890102
0.013075759 -0.058958657 -0.014890101
0.013124727 -0.058991484 0.014890099
0.014737464 -0.058958601 -0.014602454
0.0148901 -0.058672886 -0.013100988
0.014890103 -0.059109602 -0.01101735
0.014890102 -0.058884267 -0.0089830384
0.0148901 -0.059284996 -0.0066571818
0.014890102 -0.058911562 -0.0049552014
0.014890101 -0.0590485 -0.0032702247
0.014890102 -0.058689568 -0.0010377321
0.014890102 -0.058784183 0.0010481171
0.014890103 -0.058949288 0.002931329
0.0148901 -0.059076775 0.0051471773
0.014890102 -0.058911093 0.0070298933
0.014890103 -0.058903039 0.0089530721
0.014890103 -0.058878426 0.011130027
0.014890102 -0.058911946 0.01304965
0.014684525 -0.059013851 0.014719469
-0.014800142 -0.056527305 -0.014664742
-0.0148901 -0.056759998 -0.012744894
-0.014890102 -0.056988008 -0.011147454
-0.014890103 -0.057117276 -0.008810739
-0.014890102 -0.057005838 -0.0071675577
-0.014890102 -0.057266098 -0.0051199826
-0.014890102 -0.05687115 -0.0030568594
-0.014890102 -0.057019249 -0.00089880708
-0.014890102 -0.057138972 0.00096440921
-0.014890101 -0.057197303 0.0028989862
-0.014890102 -0.056979366 0.0048781428
-0.014890103 -0.057051476 0.0069612376
-0.014890102 -0.056887511 0.0090787597
-0.014890101 -0.057025969 0.010746638
-0.014890102 -0.056929342 0.01300097
-0.014781885 -0.056956831 0.014760066
-0.012731443 -0.057187594 -0.014890103
-0.012891755 -0.057226572 0.014890103
-0.011213613 -0.057121627 -0.0148901
-0.011182006 -0.057096206 0.014890101
-0.0092280759 -0.056744598 -0.0148901
-0.0090652239 -0.056717105 0.014890102
-0.0068358341 -0.057174642 -0.014890101
-0.0071463515 -0.056885339 0.014890102
-0.0051656375 -0.056845032 -0.014890102
-0.005174011 -0.05692881 0.014890102
-0.0029077556 -0.057061039 -0.014890103
-0.0030891346 -0.056938097 0.014890102
-0.00072326988 -0.057127673 -0.014890103
-0.00086585985 -0.056770004 0.014890103
0.00090345944 -0.057126731 -0.014890102
0.001137399 -0.056710549 0.014890102
0.0029342694 -0.056854285 -0.014890102
0.0031029079 -0.056993108 0.0148901
0.0052052215 -0.056822948 -0.014890101
0.0049232012 -0.056929059 0.014890102
0.0068226107 -0.056858853 -0.0148901
0.007107045 -0.056956802 0.014890103
0.0093224011 -0.056951676 -0.0148901
0.0089450618 -0.057046622 0.014890103
0.011113091 -0.057030953 -0.014890101
0.011172155 -0.056970209 0.014890104
0.013206093 -0.057070244 -0.014890101
0.013019981 -0.057222605 0.014890103
0.014754784 -0.056760475 -0.014629332
0.014890102 -0.057127696 -0.013041562
0.014890102 -0.057130944 -0.010900725
0.0148901 -0.056865826 -0.008804217
0.014890103 -0.057135887 -0.0070251469
0.014890101 -0.057408057 -0.0047003673
0.014890103 -0.05692349 -0.0030267714
0.014890102 -0.056981385 -0.00093117129
0.014890103 -0.056924354 0.001258773
0.014890099 -0.057331774 0.00276687
0.014890102 -0.057021331 0.0050660609
0.014890099 -0.057190251 0.0070050554
0.014890102 -0.056995757 0.0090402057
0.014890101 -0.056842115 0.010615926
0.014890099 -0.056844976 0.013088697
0.014609106 -0.057031821 0.014707467
-0.014646525 -0.055058647 -0.014703668
-0.014890102 -0.055115979 -0.012972469
-0.014890102 -0.055109795 -0.011142327
-0.014890102 -0.05494288 -0.0089140357
-0.0148901 -0.055237144 -0.0067651239
-0.014890103 -0.055157918 -0.0051627797
-0.014890102 -0.054935765 -0.0028476699
-0.014890101 -0.054932933 -0.00092844467
-0.014890102 -0.055140059 0.0010347161
-0.014890101 -0.054881703 0.0029617643
-0.014890102 -0.054865617 0.0052297581
-0.014890102 -0.055078711 0.0072492277
-0.014890101 -0.054723948 0.0090142246
-0.014890102 -0.055117615 0.010958822
-0.0148901 -0.054946985 0.012878465
-0.014531039 -0.054990239 0.014783528
-0.012993963 -0.054947935 -0.014890102
-0.012742689 -0.054970246 0.0148901
-0.011071173 -0.054954898 -0.014890102
-0.010803288 -0.054983813 0.014890101
-0.0089144725 -0.054895889 -0.014890102
-0.0091041764 -0.055003237 0.014890102
-0.0070729018 -0.055250682 -0.0148901
-0.0071684481 -0.05486181 0.014890102
-0.0050545121 -0.054884486 -0.014890103
-0.0049404711 -0.054642137 0.014890099
-0.0033163438 -0.054908518 -0.014890102
-0.0027359396 -0.055011678 0.014890102
-0.00090711896 -0.054841641 -0.014890103
-0.001135918 -0.054609548 0.014890099
0.0010552817 -0.054768283 -0.014890103
0.00092256931 -0.055105016 0.014890102
0.0031449113 -0.054990582 -0.014890101
0.0030896037 -0.055031043 0.014890102
0.0050421222 -0.055147398 -0.014890101
0.0049223909 -0.055032026 0.014890102
0.0071724998 -0.055109601 -0.014890101
0.0069988086 -0.054937825 0.014890102
0.0090588545 -0.05498353 -0.014890102
0.0090872906 -0.055178694 0.014890103
0.011159461 -0.055145584 -0.014890101
0.010836462 -0.055172604 0.014890101
0.01299366 -0.055071462 -0.014890101
0.012954989 -0.055244103 0.014890101
0.014715344 -0.054834392 -0.014654596
0.014890102 -0.055028748 -0.012711607
0.014890101 -0.0548083 -0.010657109
0.014890102 -0.055341013 -0.0089629972
0.014890102 -0.054827102 -0.0072978423
0.014890101 -0.054960448 -0.0050822133
0.014890102 -0.055064712 -0.0030143654
0.014890103 -0.055007316 -0.00078105682
0.014890102 -0.054865204 0.0012292283
0.014890103 -0.055053025 0.0029560053
0.014890102 -0.054903228 0.0050419634
0.014890102 -0.055026695 0.0068434789
0.014890102 -0.055013519 0.0093281325
0.014890101 -0.055323001 0.010917938
0.014890104 -0.054960284 0.012942002
0.014669934 -0.054941028 0.014774442
-0.014520911 -0.052820697 -0.01471275
-0.014890102 -0.053041741 -0.012913758
-0.014890103 -0.052886553 -0.011000358
-0.014890103 -0.053046454 -0.0090776058
-0.014890099 -0.053020965 -0.0071893195
-0.014890098 -0.053039286 -0.0049963533
-0.014890102 -0.052981447 -0.0028320102
-0.014890102 -0.05280342 -0.0010440253
-0.014890103 -0.053003937 0.00083662622
-0.014890101 -0.052784499 0.0031397254
-0.014890102 -0.052929066 0.0048987456
-0.014890102 -0.053220466 0.0072311517
-0.014890102 -0.053174142 0.0088520143
-0.014890102 -0.053065132 0.010839493
-0.014890102 -0.052889265 0.013074819
-0.014761928 -0.052896779 0.014680423
-0.013087595 -0.052679714 -0.014890102
-0.013067855 -0.05326771 0.014890102
-0.010967419 -0.052949339 -0.0148901
-0.010770578 -0.053169962 0.0148901
-0.0086912522 -0.052945066 -0.014890102
-0.009219557 -0.052633204 0.0148901
-0.0069720834 -0.052882954 -0.014890101
-0.007051202 -0.052888598 0.014890102
-0.0047995066 -0.053045403 -0.014890102
-0.0051778257 -0.05305133 0.0148901
-0.0030391423 -0.052936409 -0.014890102
-0.0031478151 -0.053013995 0.014890102
-0.0009737222 -0.052832354 -0.014890102
-0.0010055124 -0.052476078 0.0148901
0.0010359668 -0.052618314 -0.0148901
0.00096166896 -0.053124953 0.014890102
0.0029417409 -0.052794848 -0.014890102
0.0030520491 -0.052717585 0.014890103
0.0049330587 -0.052721042 -0.014890099
0.0048874468 -0.052907486 0.0148901
0.0070608808 -0.053206742 -0.014890102
0.0070807985 -0.052793153 0.014890102
0.0089483 -0.052959293 -0.014890101
0.0091577619 -0.052577458 0.014890101
0.010862368 -0.05316763 -0.014890101
0.011010922 -0.052933525 0.014890101
0.013086381 -0.052557368 -0.014890102
0.012817027 -0.052973185 0.014890101
0.014669701 -0.053071611 -0.014428965
0.014890102 -0.052792493 -0.01310368
0.0148901 -0.053164329 -0.011193695
0.014890101 -0.052876078 -0.0091891848
0.014890099 -0.053222228 -0.0068935584
0.014890103 -0.052904908 -0.0049158838
0.014890103 -0.053159125 -0.0029526863
0.014890103 -0.053075399 -0.0010287234
0.014890101 -0.05290997 0.0012272762
0.0148901 -0.053072404 0.0028984104
0.014890102 -0.052966952 0.0049385149
0.014890098 -0.053302441 0.0066630845
0.014890101 -0.053157739 0.0091208043
0.014890101 -0.053000052 0.011008481
0.0148901 -0.05286568 0.013080953
0.014579296 -0.052792784 0.014657422
-0.014754331 -0.050809395 -0.014655196
-0.014890102 -0.050986998 -0.012965191
-0.014890101 -0.050855141 -0.010943687
-0.014890102 -0.051119328 -0.0090536457
-0.014890103 -0.051193926 -0.0069344318
-0.0148901 -0.051056705 -0.0051508993
-0.014890104 -0.050994925 -0.0031669389
-0.014890098 -0.050845705 -0.0012928927
-0.0148901 -0.051251408 0.0010124907
-0.014890099 -0.05090246 0.0031957091
-0.014890102 -0.05084588 0.0047868146
-0.014890102 -0.051121011 0.0070046755
-0.014890102 -0.051043086 0.0090888171
-0.014890102 -0.050701082 0.010944928
-0.014890103 -0.051041756 0.012881943
-0.014550591 -0.050985858 0.014758425
-0.012966525 -0.050995231 -0.014890101
-0.013166524 -0.051057383 0.014890103
-0.010673265 -0.050665986 -0.0148901
-0.010851257 -0.051070869 0.014890099
-0.0091697145 -0.051201418 -0.014890102
-0.0090911714 -0.050827738 0.014890101
-0.0069835624 -0.051074404 -0.014890101
-0.0070549725 -0.051054269 0.014890101
-0.0050145253 -0.05121341 -0.014890102
-0.0050165858 -0.050961714 0.014890101
-0.0029429996 -0.050764218 -0.014890103
-0.0030615313 -0.051131189 0.014890102
-0.00090123626 -0.051128246 -0.014890102
-0.00082793221 -0.051112778 0.014890102
0.00073967694 -0.050814785 -0.014890102
0.00069619657 -0.051056046 0.0148901
0.0028345871 -0.050977245 -0.014890103
0.0031941109 -0.051224865 0.014890102
0.0049024844 -0.050811332 -0.014890102
0.0049464446 -0.050873041 0.014890101
0.0071129939 -0.050995834 -0.014890101
0.0071291463 -0.050922476 0.014890102
0.0091330996 -0.050884146 -0.014890103
0.0092016645 -0.050893109 0.014890103
0.010986718 -0.05111764 -0.0148901
0.011024652 -0.050771382 0.014890103
0.013127469 -0.051066983 -0.014890102
0.013080709 -0.050649237 0.014890101
0.014723676 -0.051062915 -0.014617833
0.014890102 -0.050714511 -0.013047913
0.014890102 -0.050982628 -0.011043401
0.014890101 -0.051072322 -0.0089414911
0.014890102 -0.05126461 -0.0070859725
0.014890101 -0.051034771 -0.0051082186
0.014890101 -0.051020399 -0.0029783291
0.014890102 -0.05111875 -0.00080360979
0.014890101 -0.050926134 0.00094471651
0.014890102 -0.05099228 0.0029909885
0.014890101 -0.050999705 0.0048484369
0.014890102 -0.051092517 0.0070013693
0.014890101 -0.051159676 0.009268553
0.014890102 -0.050940767 0.011072438
0.014890102 -0.050921615 0.012939778
0.01459829 -0.051180769 0.014708759
-0.014625939 -0.049019568 -0.014687765
-0.014890102 -0.049171578 -0.013005666
-0.014890101 -0.049047615 -0.011173902
-0.014890104 -0.048866045 -0.0089804921
-0.014890101 -0.049346294 -0.0070566535
-0.0148901 -0.048830058 -0.0050217859
-0.014890101 -0.049099427 -0.0030675989
-0.014890102 -0.049013343 -0.0011145888
-0.014890102 -0.049243066 0.0010110515
-0.014890102 -0.04890709 0.0029670228
-0.0148901 -0.048950918 0.0050066686
-0.014890104 -0.048888259 0.0069759116
-0.014890102 -0.049140122 0.0089430325
-0.014890101 -0.048840113 0.010848229
-0.014890102 -0.049017005 0.012865433
-0.014669822 -0.04903328 0.014513777
-0.013063126 -0.048896462 -0.014890101
-0.012960523 -0.049081113 0.014890102
-0.010938021 -0.049144905 -0.014890103
-0.010907757 -0.049245525 0.0148901
-0.0089932447 -0.049190521 -0.014890101
-0.0088973492 -0.048962679 0.014890102
-0.0072081964 -0.048841219 -0.014890103
-0.006934572 -0.049047194 0.014890101
-0.0050130333 -0.048787002 -0.014890101
-0.0050359056 -0.049005888 0.014890103
-0.0030306191 -0.049043071 -0.014890102
-0.0029900456 -0.048933085 0.014890102
-0.0010334513 -0.049101718 -0.014890102
-0.0010221731 -0.049112439 0.014890101
0.0011155853 -0.048725594 -0.014890101
0.0013782239 -0.048792738 0.014890101
0.0029383597 -0.048968796 -0.014890103
0.003228486 -0.04934223 0.014890102
0.0050536217 -0.048931573 -0.014890101
0.0049540722 -0.049051944 0.014890102
0.0067062527 -0.049209327 -0.0148901
0.007089294 -0.048768532 0.014890101
0.0090439944 -0.049123164 -0.014890103
0.0088469442 -0.048798289 0.014890101
0.01101362 -0.049046569 -0.0148901
0.010732318 -0.049027476 0.014890102
0.013117674 -0.048643153 -0.014890101
0.013014382 -0.049141616 0.014890102
0.014882237 -0.049092006 -0.014417752
0.014890102 -0.049118314 -0.01304755
0.014890102 -0.048866879 -0.011112854
0.0148901 -0.04887861 -0.0090091303
0.014890102 -0.049040314 -0.0070720166
0.014890102 -0.049091898 -0.0049305749
0.014890102 -0.048883475 -0.0028030097
0.014890103 -0.049034808 -0.000983014
0.014890101 -0.048786361 0.0010003845
0.0148901 -0.049056627 0.0031731785
0.014890102 -0.048942376 0.0050742878
0.014890102 -0.048790198 0.0070617539
0.014890102 -0.049074452 0.0086556599
0.014890103 -0.049043447 0.010945214
0.014890104 -0.049062591 0.012916915
0.014652771 -0.048954178 0.014736177
-0.014739856 -0.046805035 -0.014671217
-0.014890102 -0.047058437 -0.013200642
-0.014890101 -0.046989698 -0.011208571
-0.014890102 -0.047021113 -0.0090146279
-0.014890101 -0.047122851 -0.0072021522
-0.0148901 -0.047129389 -0.0050919126
-0.014890102 -0.047064368 -0.0029245529
-0.014890102 -0.047386799 -0.0010994698
-0.014890101 -0.047154017 0.00091402041
-0.014890102 -0.047022417 0.003020382
-0.014890104 -0.04701452 0.0049624317
-0.014890101 -0.046857487 0.0072963438
-0.014890101 -0.047096401 0.0091928737
-0.014890102 -0.04655784 0.01110487
-0.014890102 -0.046999075 0.012996394
-0.014623542 -0.046940237 0.014659233
-0.013033509 -0.047122132 -0.014890102
-0.012665772 -0.047126777 0.014890103
-0.010940316 -0.046894852 -0.0148901
-0.010986894 -0.047193576 0.014890102
-0.0090113143 -0.046997555 -0.014890102
-0.0093471119 -0.046729334 0.0148901
-0.0070962724 -0.046902955 -0.014890099
-0.0068174475 -0.047105763 0.014890102
-0.0051076985 -0.047059212 -0.014890102
-0.0051818672 -0.047047824 0.014890101
-0.0030375058 -0.047249403 -0.0148901
-0.0029737453 -0.047019634 0.014890101
-0.00097822631 -0.046984386 -0.014890102
-0.00081730069 -0.046963148 0.014890102
0.00087250728 -0.046641745 -0.014890102
0.00065733236 -0.047026854 0.014890103
0.0031182764 -0.046963621 -0.014890103
0.0032449847 -0.047118012 0.0148901
0.0052026417 -0.04708631 -0.0148901
0.0048450287 -0.047101397 0.014890103
0.0065827803 -0.047055814 -0.014890102
0.0069349697 -0.047001664 0.014890103
0.0091592148 -0.04708983 -0.014890103
0.0087794568 -0.04700458 0.014890103
0.011110932 -0.046937425 -0.014890101
0.010759285 -0.047019631 0.0148901
0.012838597 -0.046853609 -0.0148901
0.012931589 -0.046995457 0.014890103
0.014717566 -0.047340434 -0.014683603
0.0148901 -0.04707643 -0.013170674
0.014890102 -0.046861421 -0.011317813
0.014890102 -0.046848919 -0.0086962907
0.0148901 -0.046899844 -0.0070666941
0.0148901 -0.046922363 -0.0051209386
0.014890102 -0.047102053 -0.003079738
0.014890102 -0.047122631 -0.00068355969
0.014890102 -0.046803307 0.00098259863
0.014890103 -0.047021896 0.002886537
0.014890102 -0.047012199 0.0049660397
0.014890102 -0.047020767 0.0069322442
0.014890102 -0.046852656 0.0087447753
0.014890102 -0.046949573 0.010645192
0.014890101 -0.047014467 0.013041087
0.014618176 -0.046833288 0.014725889
-0.014816143 -0.045064472 -0.014592651
-0.014890103 -0.04511397 -0.013174429
-0.014890101 -0.045206435 -0.01116643
-0.014890099 -0.045034148 -0.0092270384
-0.014890103 -0.045073077 -0.0070770304
-0.014890098 -0.045094233 -0.0050728228
-0.014890103 -0.04535738 -0.0031088917
-0.014890102 -0.045072164 -0.0011294197
-0.0148901 -0.045153093 0.0012251651
-0.014890101 -0.044905327 0.0031163525
-0.014890102 -0.045008671 0.004849324
-0.014890101 -0.045020174 0.0070207561
-0.014890102 -0.045230668 0.0087176692
-0.014890101 -0.045036074 0.010958423
-0.014890101 -0.045313623 0.013037058
-0.014648385 -0.045008942 0.014666828
-0.012989267 -0.044908054 -0.014890101
-0.012669321 -0.044782851 0.014890099
-0.011197947 -0.045267973 -0.0148901
-0.010840478 -0.044527348 0.0148901
-0.0088001797 -0.044848878 -0.014890101
-0.00910722 -0.045042019 0.014890102
-0.0070011057 -0.044824023 -0.014890104
-0.0072484473 -0.045072552 0.014890101
-0.0051135691 -0.044871405 -0.014890102
-0.005033799 -0.044807754 0.0148901
-0.0030495103 -0.044893734 -0.014890103
-0.0028642262 -0.045569021 0.014890102
-0.0008062385 -0.044851448 -0.014890101
-0.00077020389 -0.045047112 0.014890102
0.00065756671 -0.045069784 -0.0148901
0.0012374136 -0.044973999 0.0148901
0.0028733767 -0.044768516 -0.014890102
0.0031683175 -0.044752292 0.014890102
0.0050615813 -0.045168992 -0.014890102
0.0048574749 -0.044980649 0.014890103
0.0070419163 -0.044673424 -0.014890101
0.0070213615 -0.04495677 0.014890102
0.0088712191 -0.045048065 -0.014890102
0.0088950638 -0.045063429 0.014890102
0.010860393 -0.044906642 -0.014890101
0.01079143 -0.044848301 0.014890102
0.013264902 -0.045090925 -0.014890103
0.013098067 -0.044934459 0.014890102
0.014732813 -0.045055695 -0.014629237
0.014890102 -0.044817042 -0.012988951
0.014890102 -0.045261815 -0.011028229
0.014890102 -0.045037143 -0.0088679036
0.014890103 -0.045185853 -0.0072905393
0.014890099 -0.045136586 -0.0049377978
0.014890101 -0.04488869 -0.0029983888
0.014890101 -0.044806913 -0.00097994425
0.014890101 -0.045180563 0.00083571795
0.014890103 -0.045079432 0.0030073619
0.014890102 -0.045198366 0.0049295742
0.014890102 -0.045077451 0.0070372992
0.014890102 -0.04463122 0.0088666892
0.014890099 -0.045003008 0.010776668
0.014890102 -0.045024 0.013307727
0.014712208 -0.044960663 0.014645618
-0.014676058 -0.042603143 -0.014707713
-0.014890101 -0.043185379 -0.013050445
-0.014890101 -0.043152306 -0.011208765
-0.014890101 -0.042865917 -0.0089550233
-0.014890101 -0.042952884 -0.0069412449
-0.0148901 -0.042990465 -0.004783724
-0.014890103 -0.042861633 -0.0031068143
-0.014890102 -0.04299932 -0.00095805299
-0.014890102 -0.043239579 0.0011276283
-0.014890102 -0.043162435 0.0029387011
-0.014890102 -0.043079052 0.0050960272
-0.0148901 -0.043400783 0.006508417
-0.014890101 -0.042457204 0.008881174
-0.014890101 -0.042849936 0.010925893
-0.014890102 -0.042937919 0.012787073
-0.014758968 -0.043174207 0.014665702
-0.012929169 -0.042743247 -0.014890103
-0.012689635 -0.042890456 0.0148901
-0.010969915 -0.042805489 -0.014890102
-0.011085087 -0.043132052 0.014890102
-0.009219788 -0.042868197 -0.014890103
-0.0090011014 -0.04323452 0.014890102
-0.0072189546 -0.043114547 -0.014890101
-0.007150589 -0.042908322 0.014890102
-0.0049501401 -0.043175191 -0.014890102
-0.0048687174 -0.043065526 0.014890102
-0.0028524536 -0.043208849 -0.014890101
-0.0029887802 -0.043223049 0.014890101
-0.00063847931 -0.043084014 -0.014890102
-0.00093304948 -0.043030273 0.014890102
0.001049008 -0.042787038 -0.0148901
0.0012136844 -0.043006457 0.014890101
0.0029784655 -0.042847361 -0.014890102
0.0031915088 -0.042901102 0.014890099
0.0051528015 -0.042701025 -0.014890102
0.0049766689 -0.042865239 0.014890102
0.007078351 -0.042884424 -0.014890101
0.0070841112 -0.043100536 0.014890103
0.0090707513 -0.04295731 -0.0148901
0.008837197 -0.043046113 0.014890102
0.011047618 -0.043122523 -0.0148901
0.010935854 -0.043218017 0.014890101
0.012696159 -0.042851359 -0.014890101
0.012896339 -0.04295601 0.014890103
0.014802798 -0.042875703 -0.014488286
0.0148901 -0.043068912 -0.013025077
0.014890102 -0.04314743 -0.011139977
0.014890101 -0.043068137 -0.0092150997
0.014890101 -0.042850025 -0.0066703241
0.014890102 -0.043054204 -0.0049430728
0.014890103 -0.04324434 -0.0030055551
0.014890099 -0.043086138 -0.00089774304
0.014890104 -0.042874884 0.00085300679
0.014890102 -0.042943425 0.0030063826
0.014890103 -0.043084178 0.0051374235
0.014890102 -0.042823728 0.0067698611
0.014890102 -0.043097138 0.0090676518
0.014890103 -0.042976338 0.011355034
0.014890102 -0.043005254 0.012987557
0.014494406 -0.043124795 0.01472022
-0.01463886 -0.040744495 -0.014696328
-0.014890103 -0.041165233 -0.01271813
-0.014890103 -0.041168284 -0.01120349
-0.014890102 -0.040858805 -0.0089826426
-0.014890101 -0.041009586 -0.0070278468
-0.014890102 -0.040816743 -0.0050485302
-0.014890102 -0.040980306 -0.0030890235
-0.014890102 -0.040959138 -0.001063068
-0.014890102 -0.04122778 0.00089832972
-0.014890101 -0.041201856 0.0027626238
-0.014890102 -0.040917307 0.0050038411
-0.014890103 -0.041102841 0.0068776761
-0.014890102 -0.041209731 0.0089219501
-0.014890102 -0.04111727 0.010935742
-0.014890102 -0.040640056 0.012848188
-0.014660074 -0.040969688 0.014701958
-0.013007903 -0.040957104 -0.014890102
-0.013152594 -0.040827587 0.014890101
-0.01063908 -0.041319594 -0.014890102
-0.011222761 -0.040933449 0.014890102
-0.0087005682 -0.040922772 -0.0148901
-0.0088968603 -0.040781736 0.014890101
-0.0070990017 -0.040863425 -0.014890103
-0.0069060554 -0.040843755 0.014890103
-0.004822209 -0.041143704 -0.014890102
-0.0048950706 -0.040987242 0.014890103
-0.0029998631 -0.040965416 -0.014890102
-0.002961959 -0.040956169 0.014890103
-0.001085524 -0.041062467 -0.014890103
-0.00089534424 -0.041295473 0.0148901
0.00085122173 -0.040972851 -0.014890101
0.00096318516 -0.040771466 0.014890101
0.0031651028 -0.040995479 -0.014890101
0.0030566661 -0.040888082 0.014890102
0.0050527747 -0.041106552 -0.014890104
0.0049930955 -0.041013651 0.014890102
0.0067250188 -0.040514551 -0.0148901
0.006844182 -0.041284852 0.014890102
0.0089995805 -0.040991385 -0.014890101
0.0090038143 -0.040984131 0.014890102
0.010789542 -0.040910494 -0.014890103
0.01093089 -0.040726148 0.0148901
0.012877635 -0.041089084 -0.014890102
0.013105416 -0.040970732 0.014890103
0.014658096 -0.041085329 -0.014613822
0.014890102 -0.041100215 -0.012969004
0.014890101 -0.041063849 -0.01080451
0.014890102 -0.040972188 -0.0089540938
0.0148901 -0.040864799 -0.0069742454
0.014890102 -0.040985595 -0.0050228056
0.014890103 -0.041023701 -0.0031416502
0.014890101 -0.041219346 -0.0009266244
0.0148901 -0.041192375 0.0008595098
0.014890101 -0.040884636 0.0027384269
0.014890099 -0.04070127 0.0050322413
0.014890102 -0.040910799 0.0069299899
0.014890103 -0.040962558 0.0090168174
0.014890101 -0.040952459 0.010998244
0.0148901 -0.041009445 0.013103866
0.014694694 -0.041146126 0.014597927
-0.01469692 -0.039032653 -0.014670085
-0.014890103 -0.039051317 -0.013202298
-0.014890102 -0.039150212 -0.011067528
-0.014890102 -0.039307624 -0.0090237819
-0.014890102 -0.039115079 -0.0068511101
-0.014890102 -0.03914582 -0.0049999533
-0.014890099 -0.038958877 -0.0031518738
-0.014890101 -0.038833171 -0.000894956
-0.0148901 -0.038980242 0.0011642089
-0.0148901 -0.039234512 0.0028668982
-0.014890099 -0.038651098 0.0048315069
-0.014890101 -0.038638622 0.0065543829
-0.014890101 -0.038944654 0.0088897534
-0.014890101 -0.038950507 0.011064249
-0.014890102 -0.038809918 0.013207883
-0.014602942 -0.038681306 0.014782896
-0.012962162 -0.039067507 -0.014890101
-0.013364262 -0.038736962 0.0148901
-0.010652175 -0.038455807 -0.0148901
-0.011088644 -0.039150707 0.0148901
-0.008870706 -0.039179735 -0.014890102
-0.0088315401 -0.039241988 0.014890102
-0.0068392861 -0.039125901 -0.014890102
-0.0068481001 -0.039173026 0.0148901
-0.0048581474 -0.038990151 -0.014890101
-0.0047822725 -0.039019536 0.014890102
-0.0030070064 -0.039055448 -0.014890101
-0.0030637293 -0.039014503 0.014890102
-0.0012491484 -0.039083302 -0.014890101
-0.001168607 -0.038986072 0.014890102
0.0012035873 -0.038952179 -0.014890101
0.0011192558 -0.039107338 0.014890101
0.002998776 -0.038831949 -0.014890102
0.0031348129 -0.039155435 0.014890102
0.0046819621 -0.0391731 -0.014890101
0.005033168 -0.038900256 0.0148901
0.0069246208 -0.039239354 -0.014890102
0.0069942102 -0.039029896 0.014890102
0.0089702895 -0.039230615 -0.014890103
0.0089486567 -0.038992409 0.014890103
0.010928603 -0.038921289 -0.014890104
0.010659114 -0.03930264 0.014890101
0.01296244 -0.038856138 -0.014890103
0.013144309 -0.039013796 0.014890098
0.014663311 -0.038821634 -0.014644762
0.014890101 -0.039249226 -0.013189735
0.014890103 -0.03914661 -0.011066705
0.014890102 -0.039084423 -0.008697669
0.014890101 -0.039161228 -0.00701271
0.0148901 -0.038534209 -0.0049272566
0.0148901 -0.03879812 -0.0031955864
0.014890102 -0.0388471 -0.0011248369
0.0148901 -0.038763512 0.00083548558
0.014890103 -0.038938023 0.0029838283
0.014890101 -0.039039485 0.0049569048
0.014890102 -0.038848586 0.0065953946
0.014890102 -0.038762871 0.0089941528
0.014890103 -0.039000794 0.011201761
0.014890101 -0.038821794 0.012983645
0.014647587 -0.038934939 0.014618387
-0.014571823 -0.037213966 -0.014880931
-0.014890101 -0.037112229 -0.012760185
-0.014890102 -0.037129816 -0.011001188
-0.014890101 -0.036859214 -0.0088224448
-0.014890103 -0.036936931 -0.0069652591
-0.014890103 -0.037022881 -0.0050887265
-0.014890099 -0.036935076 -0.0029113023
-0.014890103 -0.036902677 -0.0011536834
-0.014890101 -0.037164517 0.0011201487
-0.014890102 -0.03700817 0.0030838011
-0.014890102 -0.037129994 0.0048821815
-0.014890101 -0.037094459 0.0070896596
-0.014890102 -0.037038304 0.0087760389
-0.014890102 -0.037006013 0.010612043
-0.014890102 -0.036911331 0.013099769
-0.014581949 -0.036753051 0.014787182
-0.012967815 -0.036989175 -0.014890102
-0.012871117 -0.03717684 0.014890102
-0.010974396 -0.037239719 -0.014890102
-0.011218876 -0.036977321 0.014890102
-0.0088330628 -0.03700019 -0.014890103
-0.0090362085 -0.036985684 0.0148901
-0.0071189804 -0.037078626 -0.014890102
-0.0069490974 -0.037102882 0.014890103
-0.004735942 -0.036812462 -0.0148901
-0.0048812828 -0.037192501 0.014890103
-0.0029093986 -0.036862753 -0.014890101
-0.002901867 -0.037007924 0.014890101
-0.0011248798 -0.036788553 -0.014890103
-0.0009394231 -0.036741111 0.014890101
0.00077717827 -0.036971662 -0.014890102
0.0010074449 -0.036844429 0.014890102
0.0028798964 -0.036998682 -0.014890103
0.0029071833 -0.036942035 0.014890102
0.0048444392 -0.03697791 -0.014890102
0.0049667554 -0.037143957 0.014890102
0.0071548359 -0.036811493 -0.014890103
0.0067888955 -0.036927942 0.014890101
0.0089545371 -0.037039511 -0.014890102
0.0091667548 -0.036814667 0.014890102
0.01088482 -0.037098289 -0.014890102
0.011180382 -0.036850672 0.014890103
0.013293847 -0.037033759 -0.014890101
0.013076338 -0.036881838 0.014890102
0.014736239 -0.03718026 -0.014595138
0.014890103 -0.036599044 -0.01328353
0.014890099 -0.036899894 -0.010649898
0.014890102 -0.037096113 -0.0089568114
0.014890102 -0.036993455 -0.0071829008
0.014890103 -0.036956575 -0.0048972839
0.014890103 -0.037239082 -0.0028164412
0.014890103 -0.037233908 -0.00088438939
0.014890098 -0.03685018 0.0010245924
0.014890102 -0.03666373 0.0029793882
0.014890101 -0.036919508 0.0054709846
0.014890103 -0.037073664 0.0070510758
0.014890102 -0.036949508 0.0089983437
0.014890101 -0.036984906 0.010800356
0.014890101 -0.0370179 0.012858893
0.014618722 -0.036910385 0.0146821
-0.014587737 -0.035046607 -0.014779849
-0.0148901 -0.035028763 -0.012910713
-0.014890102 -0.034927629 -0.010977898
-0.014890102 -0.034889247 -0.0089615183
-0.014890102 -0.034994103 -0.006912956
-0.014890102 -0.034844767 -0.0050548012
-0.014890103 -0.035265297 -0.0028384516
-0.014890101 -0.035024356 -0.0011319398
-0.0148901 -0.03516623 0.0010479237
-0.014890098 -0.03506669 0.0030830447
-0.014890102 -0.03489773 0.0049015367
-0.014890102 -0.035333544 0.0069860453
-0.014890102 -0.035267994 0.0090301568
-0.014890104 -0.034806155 0.010885564
-0.014890101 -0.034914423 0.013017663
-0.014664102 -0.034861054 0.014687573
-0.012854206 -0.035149656 -0.014890102
-0.013193673 -0.035061367 0.014890102
-0.011369035 -0.035211045 -0.0148901
-0.010976102 -0.034913089 0.014890102
-0.0090069957 -0.034927342 -0.014890101
-0.0092266407 -0.034817699 0.014890102
-0.0068975617 -0.035006855 -0.014890102
-0.0070275753 -0.034754153 0.014890101
-0.0050265701 -0.034877446 -0.014890102
-0.0050964346 -0.035039272 0.014890099
-0.0028763346 -0.035149034 -0.0148901
-0.0031553688 -0.035298288 0.014890102
-0.00099764671 -0.035207897 -0.014890102
-0.00077624316 -0.035292592 0.0148901
0.0010574245 -0.035160024 -0.014890103
0.0012992164 -0.035029165 0.014890101
0.0031112933 -0.034962349 -0.014890103
0.0028904804 -0.034877423 0.014890102
0.0048588486 -0.035032231 -0.014890102
0.0047216183 -0.035370927 0.0148901
0.006953171 -0.035295606 -0.014890102
0.0069768177 -0.035107668 0.014890101
0.009177655 -0.034946263 -0.014890102
0.0091895303 -0.035199299 0.014890103
0.011121738 -0.034995992 -0.014890102
0.010947059 -0.035257332 0.014890104
0.013028732 -0.035014208 -0.014890103
0.013203955 -0.035058673 0.014890103
0.014484512 -0.035109352 -0.014806292
0.014890102 -0.035184439 -0.01295643
0.014890101 -0.034649547 -0.010774031
0.014890101 -0.034954268 -0.0090907402
0.014890101 -0.034765694 -0.0068818075
0.014890102 -0.034732636 -0.0051666228
0.014890101 -0.034899887 -0.0033287427
0.014890101 -0.034777544 -0.0010780499
0.0148901 -0.035329916 0.0012356956
0.014890102 -0.034982797 0.0029862819
0.014890102 -0.034857985 0.0048763999
0.014890102 -0.034859553 0.0068733254
0.014890102 -0.034888357 0.0090512047
0.014890102 -0.035306644 0.011161974
0.014890102 -0.035042472 0.013006678
0.014723239 -0.03456771 0.014792977
-0.014530068 -0.032872956 -0.014800246
-0.014890102 -0.033062071 -0.013080325
-0.014890102 -0.032988776 -0.011001895
-0.014890104 -0.033102367 -0.0088241734
-0.014890102 -0.032955416 -0.0068280213
-0.014890098 -0.03301451 -0.0050106114
-0.014890102 -0.033152971 -0.0030475624
-0.014890101 -0.033053741 -0.00083487283
-0.014890101 -0.03287188 0.00099581562
-0.014890103 -0.032719433 0.0027840445
-0.0148901 -0.033377957 0.0050421329
-0.014890102 -0.033010095 0.0069524134
-0.014890102 -0.03304299 0.0090596536
-0.014890102 -0.033010062 0.011137597
-0.014890099 -0.032926831 0.012939545
-0.014466117 -0.032705296 0.01472904
-0.013021829 -0.032863479 -0.014890102
-0.013174614 -0.033117522 0.014890103
-0.011363443 -0.033041716 -0.014890099
-0.010829247 -0.033026863 0.014890103
-0.0089571616 -0.033174094 -0.014890103
-0.0090805776 -0.033089045 0.014890102
-0.0069261533 -0.032991178 -0.014890102
-0.006972258 -0.032822926 0.014890103
-0.0047843345 -0.033043876 -0.0148901
-0.0047722999 -0.032798711 0.014890101
-0.0032112261 -0.032919247 -0.014890103
-0.0028856711 -0.033240214 0.014890102
-0.0010938867 -0.033146475 -0.014890102
-0.00094006583 -0.033008724 0.014890102
0.001273569 -0.032795664 -0.014890101
0.0012515498 -0.032900944 0.014890098
0.0028925904 -0.03323634 -0.014890102
0.0029177829 -0.032999642 0.014890101
0.0052858205 -0.033340391 -0.014890102
0.004766359 -0.032913987 0.014890103
0.0068056434 -0.033188328 -0.014890102
0.0069396072 -0.032918002 0.014890102
0.0089945365 -0.033210393 -0.014890102
0.0089505054 -0.032769613 0.014890102
0.010934536 -0.032841899 -0.014890102
0.011001539 -0.032891132 0.014890101
0.013225396 -0.033001874 -0.014890104
0.012831149 -0.032925844 0.0148901
0.014810202 -0.033208668 -0.014473753
0.014890101 -0.033038039 -0.012641229
0.014890104 -0.032882966 -0.01073408
0.014890102 -0.032727052 -0.0091264062
0.0148901 -0.033267345 -0.0071630464
0.014890102 -0.032963157 -0.0049493853
0.014890102 -0.0330588 -0.0030003143
0.014890102 -0.033001952 -0.00087011186
0.014890103 -0.032922603 0.00084140396
0.014890101 -0.032993246 0.0031995391
0.014890104 -0.033008952 0.0050462731
0.014890102 -0.03290797 0.0071041393
0.0148901 -0.032995965 0.0085932817
0.014890102 -0.032846168 0.011097339
0.0148901 -0.032966323 0.012776284
0.014617909 -0.03289023 0.014643047
-0.014801728 -0.031325981 -0.014488779
-0.014890101 -0.030909862 -0.013188738
-0.014890103 -0.031146256 -0.010973106
-0.0148901 -0.030880382 -0.0090909237
-0.014890102 -0.031210711 -0.0071126018
-0.0148901 -0.030830918 -0.0050801653
-0.014890103 -0.030818613 -0.0029239634
-0.014890101 -0.031266209 -0.00088286528
-0.0148901 -0.030947823 0.0010535669
-0.0148901 -0.03092601 0.0029199647
-0.0148901 -0.031154579 0.0051009255
-0.0148901 -0.030885879 0.0068015135
-0.014890101 -0.030939749 0.0089901071
-0.014890099 -0.03088123 0.011012827
-0.014890102 -0.031041762 0.013305704
-0.0147903 -0.031052584 0.014491189
-0.012922349 -0.031033402 -0.014890099
-0.012662563 -0.030805347 0.014890102
-0.010676336 -0.031435613 -0.014890101
-0.011080437 -0.030975038 0.014890102
-0.0090381429 -0.030828161 -0.014890104
-0.0092881145 -0.03079612 0.014890103
-0.0069519286 -0.031216623 -0.014890102
-0.0070325751 -0.031479675 0.014890102
-0.0046230592 -0.031063031 -0.014890101
-0.004680315 -0.030972339 0.0148901
-0.0029836709 -0.031158973 -0.014890102
-0.0028149737 -0.030375808 0.0148901
-0.0010271827 -0.031049289 -0.014890103
-0.00072329066 -0.031301748 0.014890102
0.0010521867 -0.030879164 -0.014890101
0.0010560888 -0.030987758 0.014890102
0.0031484044 -0.031153923 -0.0148901
0.0026299052 -0.03128412 0.0148901
0.0049024038 -0.031277392 -0.014890102
0.0048418222 -0.03103213 0.014890102
0.0070766252 -0.031068306 -0.014890102
0.0071908073 -0.031158024 0.014890103
0.0088589564 -0.030720051 -0.014890103
0.009112318 -0.030865824 0.0148901
0.011077294 -0.030996194 -0.014890102
0.010966718 -0.03091152 0.014890101
0.013069617 -0.030956641 -0.014890101
0.01278016 -0.031141181 0.014890099
0.014733073 -0.031119505 -0.014718778
0.014890099 -0.03109307 -0.0129604
0.0148901 -0.031068427 -0.010860426
0.014890103 -0.030806199 -0.0091098761
0.0148901 -0.031083737 -0.0073639974
0.014890102 -0.030739684 -0.0047341581
0.014890102 -0.031185271 -0.0028398542
0.014890102 -0.031177994 -0.00077542273
0.014890102 -0.030902041 0.0011155069
0.014890102 -0.031019332 0.0031702309
0.0148901 -0.030858869 0.0046151555
0.014890101 -0.031112801 0.0072912485
0.014890103 -0.030754413 0.0090532219
0.014890103 -0.030885678 0.010967837
0.0148901 -0.030685883 0.013047949
0.014700347 -0.030978926 0.01471467
-0.014554707 -0.029230012 -0.014680841
-0.014890103 -0.028897798 -0.013058444
-0.014890102 -0.028951084 -0.011096521
-0.014890101 -0.0290727 -0.0091315396
-0.0148901 -0.028850699 -0.0072415341
-0.014890102 -0.028763322 -0.0047819065
-0.014890102 -0.02909844 -0.0028789837
-0.014890102 -0.029081207 -0.00099741318
-0.0148901 -0.029205764 0.00086685194
-0.0148901 -0.029088344 0.0033875187
-0.014890102 -0.029003 0.0053294217
-0.014890102 -0.029127169 0.0070139077
-0.014890101 -0.029018324 0.0091928858
-0.0148901 -0.028922021 0.010958037
-0.014890102 -0.029109335 0.01290553
-0.014777494 -0.028576897 0.014669261
-0.012943472 -0.029113283 -0.014890101
-0.01306917 -0.028593449 0.014890101
-0.011132825 -0.028871093 -0.014890103
-0.011261162 -0.028782073 0.014890102
-0.0090011014 -0.028703563 -0.014890101
-0.0090328576 -0.028969066 0.014890104
-0.0071279616 -0.029000312 -0.0148901
-0.0069511756 -0.029071463 0.014890103
-0.0049687233 -0.029248085 -0.014890102
-0.0048340508 -0.028827921 0.014890102
-0.0029125744 -0.029214008 -0.014890101
-0.00299661 -0.029049264 0.014890101
-0.00057030888 -0.029152978 -0.014890102
-0.00097514561 -0.029125391 0.0148901
0.0012251743 -0.029010437 -0.014890102
0.00091552566 -0.029059131 0.014890102
0.0031907647 -0.028847659 -0.014890099
0.0030186162 -0.028962597 0.014890103
0.0051350775 -0.029214222 -0.014890103
0.004840014 -0.029002219 0.014890102
0.0069424654 -0.029305417 -0.0148901
0.0069979937 -0.0290247 0.014890101
0.0088956123 -0.028863583 -0.0148901
0.0089797266 -0.029170051 0.014890101
0.011139383 -0.029004378 -0.014890102
0.011076506 -0.02893893 0.014890103
0.012993652 -0.029045088 -0.014890102
0.012845344 -0.028795458 0.014890104
0.0144594 -0.029171074 -0.014749084
0.014890103 -0.029020105 -0.01307528
0.014890101 -0.028956791 -0.010928131
0.014890102 -0.028778696 -0.0090243584
0.014890103 -0.029084681 -0.0068285186
0.014890103 -0.028817318 -0.005089357
0.014890103 -0.029070895 -0.0033833659
0.014890103 -0.028750671 -0.00092486962
0.0148901 -0.028997239 0.00095039705
0.0148901 -0.029043814 0.0029494406
0.014890103 -0.028954826 0.005207093
0.014890102 -0.02894046 0.0068342085
0.014890101 -0.029168323 0.009102012
0.014890101 -0.028909907 0.010791719
0.014890101 -0.028785322 0.013150495
0.014660726 -0.029081592 0.014611366
-0.014590163 -0.027095245 -0.0147213
-0.014890102 -0.027219467 -0.013033034
-0.014890102 -0.026963349 -0.011067939
-0.0148901 -0.026893033 -0.0088785933
-0.014890102 -0.027394464 -0.0069181183
-0.014890102 -0.027311236 -0.0048393495
-0.014890103 -0.02679815 -0.0030073866
-0.014890102 -0.027176963 -0.0010423962
-0.0148901 -0.027230779 0.0010837807
-0.014890102 -0.027089709 0.0031504014
-0.014890101 -0.027113412 0.0050161709
-0.014890102 -0.027065299 0.0070005329
-0.0148901 -0.026915975 0.0091791218
-0.014890102 -0.027026437 0.011012537
-0.014890103 -0.027106332 0.013037311
-0.014656616 -0.026976796 0.014729777
-0.012943912 -0.026924027 -0.014890101
-0.013056738 -0.026775392 0.014890102
-0.011099849 -0.027010797 -0.014890101
-0.010888294 -0.02703833 0.014890101
-0.0088863801 -0.027006222 -0.014890104
-0.009063716 -0.026797803 0.014890101
-0.006957531 -0.026916981 -0.014890103
-0.0070511466 -0.027008936 0.014890102
-0.005009382 -0.026847476 -0.014890103
-0.0049583511 -0.027199477 0.014890102
-0.002946679 -0.027455451 -0.014890102
-0.0027752686 -0.026936494 0.014890101
-0.00086297741 -0.027029952 -0.0148901
-0.0010306556 -0.027369803 0.014890101
0.00093457621 -0.027070036 -0.014890101
0.001264706 -0.027137965 0.0148901
0.0028396535 -0.026806116 -0.014890101
0.0030263674 -0.027055681 0.014890102
0.0051189926 -0.027033022 -0.014890102
0.0049907374 -0.026976956 0.014890101
0.0070006466 -0.026970966 -0.014890102
0.0068945647 -0.026819343 0.0148901
0.0091218892 -0.026961809 -0.014890103
0.0091835288 -0.026688706 0.014890101
0.011154181 -0.027286019 -0.014890102
0.011149978 -0.0269932 0.014890101
0.0132968 -0.026768286 -0.014890102
0.012766948 -0.026812265 0.014890102
0.014636777 -0.026894255 -0.014674796
0.014890102 -0.02694344 -0.013166045
0.014890103 -0.027177202 -0.010948559
0.014890103 -0.026803929 -0.0093196798
0.014890101 -0.026980344 -0.0071262661
0.014890103 -0.026928212 -0.0048309476
0.014890102 -0.026924906 -0.0030375454
0.014890099 -0.026979228 -0.00092333026
0.014890101 -0.026885819 0.0011256954
0.014890101 -0.026958775 0.0028419925
0.014890099 -0.027557857 0.0045704907
0.014890103 -0.027094346 0.006973533
0.014890102 -0.027171532 0.0089636035
0.014890102 -0.027024817 0.011064661
0.014890099 -0.026808552 0.013000791
0.014574907 -0.027206417 0.014777054
-0.014462246 -0.0250245 -0.014768174
-0.014890101 -0.024951369 -0.013028002
-0.014890101 -0.025159134 -0.011152259
-0.014890102 -0.025087399 -0.0089053623
-0.014890102 -0.024793092 -0.006835707
-0.014890102 -0.025121326 -0.0051916339
-0.014890103 -0.024908705 -0.003042378
-0.014890102 -0.025169576 -0.00084432424
-0.014890103 -0.025024803 0.0011635949
-0.0148901 -0.025116967 0.0028982619
-0.014890102 -0.025119731 0.0049848245
-0.014890103 -0.024870008 0.0070667258
-0.014890102 -0.025152849 0.0091007724
-0.014890102 -0.02505553 0.010832646
-0.014890103 -0.024913851 0.012946145
-0.014510521 -0.02504947 0.014758589
-0.013095882 -0.025093051 -0.014890102
-0.013075921 -0.024936479 0.014890102
-0.010891073 -0.024931768 -0.0148901
-0.010971562 -0.02477001 0.014890102
-0.0088727465 -0.024980526 -0.014890101
-0.0093546025 -0.024969334 0.014890102
-0.0072214771 -0.025048807 -0.014890101
-0.0072050705 -0.025019666 0.0148901
-0.0050034248 -0.025262849 -0.014890101
-0.004940087 -0.024907222 0.014890104
-0.0031723217 -0.025098266 -0.014890101
-0.0027923302 -0.024864351 0.014890103
-0.00093738851 -0.02479068 -0.014890102
-0.00096088077 -0.024997737 0.014890104
0.00087325944 -0.025030579 -0.014890103
0.0011242393 -0.025133843 0.014890103
0.0031189299 -0.024845855 -0.014890101
0.0029537049 -0.024880091 0.014890101
0.004669962 -0.024745665 -0.0148901
0.0051916968 -0.024854628 0.014890103
0.0068387054 -0.025193987 -0.014890103
0.0070262575 -0.025028834 0.014890104
0.009045694 -0.024973234 -0.014890102
0.0089742998 -0.024961185 0.014890104
0.011176169 -0.025001584 -0.014890102
0.011100472 -0.024808798 0.014890102
0.012550962 -0.025133146 -0.014890102
0.013030214 -0.024932919 0.014890103
0.014689784 -0.024660978 -0.014707206
0.014890101 -0.024707491 -0.012738593
0.014890104 -0.025311064 -0.011012428
0.014890102 -0.025131924 -0.0090751564
0.014890103 -0.025028165 -0.0071966043
0.014890101 -0.024869245 -0.004772041
0.014890101 -0.025277978 -0.0027421291
0.014890102 -0.025133597 -0.00091427792
0.014890102 -0.024984971 0.001022273
0.014890102 -0.025022281 0.0028628535
0.014890102 -0.025136437 0.0050943382
0.014890102 -0.024771802 0.006956391
0.014890101 -0.025191061 0.0089023598
0.014890101 -0.025023768 0.010872091
0.014890103 -0.025191268 0.012948623
0.014777539 -0.024783427 0.01465463
-0.014644618 -0.022989625 -0.014725296
-0.0148901 -0.022949992 -0.013079685
-0.014890102 -0.022930752 -0.01085384
-0.014890101 -0.02281121 -0.0090139564
-0.014890102 -0.022845494 -0.006825381
-0.014890102 -0.023028675 -0.0049140523
-0.014890102 -0.023066174 -0.0030430865
-0.014890101 -0.022880685 -0.0007764633
-0.014890102 -0.022782313 0.00084028509
-0.014890102 -0.023195187 0.0028900523
-0.014890101 -0.023155635 0.0050544478
-0.014890101 -0.023192029 0.0069228564
-0.014890101 -0.02281549 0.0091893859
-0.0148901 -0.023256941 0.01111444
-0.014890102 -0.022985401 0.012864467
-0.014809012 -0.0228817 0.014605787
-0.013149919 -0.022871863 -0.014890102
-0.012930616 -0.022905154 0.014890102
-0.011118169 -0.022887871 -0.014890102
-0.010911065 -0.023089066 0.014890101
-0.008684421 -0.023106283 -0.0148901
-0.0088689486 -0.023075299 0.014890101
-0.0068701128 -0.022969726 -0.014890101
-0.0069209081 -0.023195451 0.014890102
-0.0050198408 -0.023150008 -0.014890103
-0.0050310702 -0.022960203 0.014890101
-0.0027889896 -0.022912413 -0.0148901
-0.0031037591 -0.023002598 0.014890102
-0.0008577269 -0.022952938 -0.014890102
-0.0011967731 -0.023270892 0.014890101
0.0011569384 -0.022776077 -0.014890101
0.00077543157 -0.022970036 0.014890101
0.0030751841 -0.023083685 -0.0148901
0.002961664 -0.022998314 0.014890102
0.0050737029 -0.023158411 -0.014890102
0.0051352694 -0.02281709 0.0148901
0.0069016744 -0.023220345 -0.014890101
0.0070050526 -0.023053793 0.014890101
0.0091222795 -0.022827303 -0.014890101
0.0089408578 -0.022927009 0.014890102
0.011132667 -0.02286333 -0.014890102
0.011005792 -0.023039823 0.014890102
0.012976102 -0.022843532 -0.014890099
0.012994616 -0.023285169 0.014890101
0.014696452 -0.023082135 -0.014711382
0.014890101 -0.022985565 -0.012988687
0.014890102 -0.022934411 -0.010941314
0.014890101 -0.023045873 -0.0088009294
0.014890103 -0.022932393 -0.0072247107
0.014890103 -0.023318592 -0.004862302
0.014890102 -0.022719529 -0.0029340826
0.014890101 -0.023096353 -0.00095089775
0.014890102 -0.022768598 0.0008917349
0.014890101 -0.022932386 0.0031968299
0.014890103 -0.022962969 0.0048725083
0.0148901 -0.023092527 0.0070045898
0.014890101 -0.022973374 0.0090919062
0.014890103 -0.022597168 0.010815124
0.014890101 -0.022788033 0.012977763
0.014713575 -0.022962587 0.014601293
-0.014664633 -0.020825729 -0.014576867
-0.014890102 -0.021057198 -0.012875398
-0.014890101 -0.021030638 -0.011219058
-0.014890101 -0.021170951 -0.0089820186
-0.014890101 -0.020880766 -0.0070817508
-0.014890103 -0.020942932 -0.0052821692
-0.014890103 -0.020822579 -0.003019908
-0.014890102 -0.021270402 -0.00074940629
-0.014890102 -0.021112446 0.0012516917
-0.014890101 -0.020830652 0.0030373011
-0.014890101 -0.020904597 0.0049694278
-0.014890103 -0.020709058 0.0070279064
-0.0148901 -0.020950012 0.0086307069
-0.014890102 -0.021078225 0.011057444
-0.014890101 -0.020989737 0.01313107
-0.014716526 -0.020672159 0.014582541
-0.012959112 -0.021059593 -0.014890104
-0.013195406 -0.021153828 0.0148901
-0.010917435 -0.020973559 -0.0148901
-0.010931993 -0.021148821 0.0148901
-0.0091582825 -0.020843664 -0.014890101
-0.0090948781 -0.021000216 0.014890102
-0.0071245404 -0.020620197 -0.014890103
-0.0067745391 -0.020966742 0.014890103
-0.0051437519 -0.02086773 -0.014890101
-0.0050240681 -0.021071121 0.014890102
-0.0029603369 -0.020947393 -0.014890101
-0.0031058623 -0.021172147 0.014890101
-0.0009481312 -0.021115799 -0.014890103
-0.0012988343 -0.021063464 0.014890098
0.0010374419 -0.020792827 -0.014890101
0.00078967342 -0.021287862 0.0148901
0.0027106525 -0.020657564 -0.014890102
0.0030009281 -0.021042064 0.014890102
0.0049068457 -0.020967821 -0.014890101
0.0050304672 -0.020956488 0.014890098
0.0068663037 -0.020780498 -0.014890101
0.0071133268 -0.021001305 0.014890101
0.0090337116 -0.021122534 -0.014890102
0.0090639051 -0.020900743 0.014890102
0.011288704 -0.021254735 -0.014890102
0.011040837 -0.021074161 0.0148901
0.012937629 -0.021142891 -0.014890103
0.01312846 -0.021059921 0.014890102
0.014677957 -0.021023558 -0.014596035
0.014890102 -0.02097184 -0.013069106
0.014890102 -0.021008799 -0.011156381
0.014890102 -0.021240875 -0.0089960089
0.014890098 -0.021366309 -0.0071052406
0.014890102 -0.021092035 -0.0050747376
0.014890101 -0.020807102 -0.0029207682
0.014890101 -0.020992901 -0.00089983537
0.014890102 -0.021100109 0.0011407082
0.014890102 -0.020824982 0.0028018423
0.014890101 -0.021238673 0.0049317251
0.014890101 -0.020608084 0.006595579
0.014890103 -0.021361798 0.0090422947
0.014890102 -0.020789815 0.011084869
0.014890102 -0.020990929 0.012771619
0.014527239 -0.020930123 0.01466776
-0.014823355 -0.019387662 -0.014479439
-0.014890102 -0.019105084 -0.013033951
-0.0148901 -0.019015698 -0.011097549
-0.014890102 -0.018970912 -0.0092088114
-0.014890102 -0.019075114 -0.0070723635
-0.014890103 -0.018957604 -0.004901045
-0.014890102 -0.019127265 -0.0026737177
-0.014890101 -0.019146156 -0.00087727269
-0.0148901 -0.019316653 0.0008716103
-0.014890102 -0.019096591 0.0027947077
-0.014890102 -0.019012893 0.0051988778
-0.014890102 -0.018796185 0.0070704082
-0.014890101 -0.018652694 0.0093591269
-0.014890103 -0.018895153 0.011032896
-0.014890101 -0.018942226 0.01312431
-0.014781949 -0.018822605 0.014665369
-0.012917263 -0.019131558 -0.014890102
-0.012907454 -0.018920023 0.014890102
-0.010965327 -0.01889649 -0.014890102
-0.011184763 -0.018950079 0.014890099
-0.0092010489 -0.018957863 -0.014890103
-0.0090987878 -0.019165389 0.0148901
-0.007193699 -0.018847115 -0.014890101
