# .PCD v0.7 - Point Cloud Data file format
VERSION 0.7
FIELDS x y z
SIZE 4 4 4
TYPE F F F
COUNT 1 1 1
WIDTH 1311
HEIGHT 1
VIEWPOINT 0 0 0 1 0 0 0
POINTS 1311
DATA ascii
0.0010552353 -0.24000001 0.015208997
0.0012616691 -0.23999998 0.016857434
0.0010542496 -0.23999999 0.018953925
0.001088932 -0.23999999 0.020221297
0.0010283054 -0.24000002 0.022911815
0.0011153611 -0.24000002 0.024870452
0.0011170098 -0.24000001 0.026858006
0.00077818567 -0.24000001 0.029136075
0.00096103956 -0.23999999 0.031286485
0.0012407789 -0.24000001 0.032998949
0.001085356 -0.24000001 0.034821473
0.00086185121 -0.23999999 0.036817871
0.0011671766 -0.24000001 0.038935047
0.00093084807 -0.24000001 0.040792529
0.0012901528 -0.23999999 0.04309221
0.00087496318 -0.23999998 0.044800647
0.0010913954 -0.24000001 0.046602096
0.0012566546 -0.23999998 0.049217291
0.00079798989 -0.24000001 0.050956395
0.00080632605 -0.24000001 0.052858621
0.0010444632 -0.24000002 0.055031877
0.0010469588 -0.23999999 0.056959361
0.0013210939 -0.24000001 0.059129685
0.00095654128 -0.23960111 0.061273038
0.0015087763 -0.23934148 0.062233698
0.0038651922 -0.23801023 -0.0640283
0.0031167364 -0.23935682 -0.062989578
0.0029913713 -0.24000001 -0.061096255
0.0032482278 -0.23999999 -0.059211336
0.0031701985 -0.23999999 -0.057248238
0.0029779298 -0.23999999 -0.054863825
0.0029622233 -0.23999999 -0.05308732
0.0027817439 -0.23999999 -0.050966632
0.0028996894 -0.24000001 -0.049119424
0.00286806 -0.24000001 -0.04700743
0.0032750077 -0.24000002 -0.045082439
0.0031853379 -0.23999998 -0.043049354
0.0030103072 -0.23999999 -0.04081016
0.0029888062 -0.24000002 -0.039060663
0.0029018975 -0.24000001 -0.037088737
0.0032957697 -0.24000001 -0.035058133
0.0028984607 -0.23999999 -0.032926798
0.0033052731 -0.24000001 -0.030816516
0.0028015922 -0.24000002 -0.029109424
0.0029727726 -0.24000001 -0.026698837
0.0027971182 -0.23999999 -0.025099454
0.0029747325 -0.24000002 -0.023015585
0.0031332613 -0.24000001 -0.020685321
0.0028258269 -0.24000001 -0.0196747
0.0028643296 -0.24000001 -0.016942998
0.0032392391 -0.23999999 -0.015440154
0.0027465143 -0.23999999 -0.013397925
0.0032070051 -0.24000001 -0.010684971
0.0030353109 -0.24000001 -0.0090613496
0.0030311837 -0.24000001 -0.0069415644
0.0030249702 -0.24000001 -0.004944908
0.0028989301 -0.23999999 -0.0032689422
0.0030490749 -0.24000001 -0.0011144031
0.0030284694 -0.24000001 0.0010910231
0.0031289966 -0.23999998 0.0030732136
0.003112202 -0.24000002 0.0051093125
0.0029878663 -0.24000002 0.0067372485
0.0031065647 -0.24000001 0.0091210799
0.0028451872 -0.23999999 0.011003691
0.0031648369 -0.24000002 0.013061034
0.0031150796 -0.24000001 0.015131967
0.0033064086 -0.24000002 0.017139249
0.0031685564 -0.24000002 0.019116132
0.0028214175 -0.23999999 0.020836828
0.0027184163 -0.24000001 0.023453761
0.0028597082 -0.24000001 0.025096139
0.0026879464 -0.23999999 0.027097424
0.0031301144 -0.24000002 0.029025409
0.0031240033 -0.24000002 0.030747965
0.0029313546 -0.24000001 0.032689359
0.0029594642 -0.24000001 0.035132755
0.0029767442 -0.24000001 0.036820401
0.0031348912 -0.24000001 0.039046682
0.0028820841 -0.23999999 0.041256096
0.0028842578 -0.24000002 0.042603765
0.0028271223 -0.23999998 0.044734776
0.0034789701 -0.24000001 0.046847016
0.0027976136 -0.24000001 0.049027655
0.0028946316 -0.24000002 0.050990764
0.0028631038 -0.24000002 0.05320622
0.0030786586 -0.23999999 0.055032469
0.0025952717 -0.24000002 0.057023428
0.0032631571 -0.24000001 0.059069812
0.0029234677 -0.23999999 0.061077781
0.003167778 -0.23951359 0.06321381
0.0050511668 -0.23902957 -0.06473361
0.0045609511 -0.24000001 -0.063130468
0.0048046946 -0.23999998 -0.060704365
0.0051314905 -0.23999999 -0.059143644
0.0051939748 -0.24000002 -0.057158932
0.0050598215 -0.24000001 -0.054885637
0.0050991499 -0.24000002 -0.052845795
0.004884467 -0.24000001 -0.050949581
0.0045341747 -0.23999999 -0.049085379
0.0052627986 -0.23999999 -0.047062933
0.0045834873 -0.24000001 -0.045020863
0.0049076583 -0.23999998 -0.043038495
0.0048027183 -0.23999999 -0.04050719
0.0051498669 -0.24000002 -0.038949784
0.0050804541 -0.24000001 -0.037077546
0.0050023422 -0.24000001 -0.034770619
0.0052869143 -0.23999999 -0.033065718
0.0051409863 -0.24000001 -0.030856112
0.005072929 -0.24000001 -0.028947646
0.005081303 -0.24000001 -0.027010014
0.0048990664 -0.24000001 -0.025245294
0.0048514139 -0.24000001 -0.022935634
0.0050299624 -0.24000001 -0.021063088
0.0051617268 -0.24000001 -0.019134281
0.0050146575 -0.23999999 -0.017166257
0.0050081299 -0.24000002 -0.015007415
0.0043366882 -0.24000001 -0.013128322
0.0050195241 -0.24000001 -0.011154128
0.0050823945 -0.24000001 -0.0087496145
0.0050931284 -0.24000001 -0.0071326187
0.0048623909 -0.23999999 -0.0053748256
0.005229413 -0.24000001 -0.0030423731
0.0052411822 -0.23999998 -0.0013710834
0.0049192845 -0.24000001 0.0010987823
0.0049612587 -0.24000002 0.002973096
0.0050316467 -0.24000002 0.0051647169
0.0050088875 -0.23999999 0.0067796493
0.0050363266 -0.23999999 0.0092447065
0.0049544959 -0.24000001 0.010924992
0.0049703168 -0.23999996 0.012886554
0.0052836826 -0.24000002 0.015300249
0.0051742448 -0.24000002 0.01675814
0.0051547657 -0.23999999 0.019111162
0.0047349958 -0.24000001 0.021041444
0.005203309 -0.23999998 0.022957934
0.0049261949 -0.24000002 0.025087129
0.0050277645 -0.24000001 0.026605785
0.004883104 -0.24000001 0.028782649
0.0050841249 -0.24000002 0.031000827
0.0049241106 -0.24000001 0.033355646
0.0047496669 -0.23999999 0.035110921
0.0050227405 -0.24000001 0.037199706
0.0048968317 -0.23999999 0.039157413
0.0049368315 -0.23999999 0.040992804
0.0051705865 -0.23999999 0.043238819
0.0049912306 -0.24000001 0.044903554
0.0051809298 -0.23999999 0.046748623
0.0050364314 -0.24000002 0.048852064
0.0048094736 -0.24000001 0.050812699
0.0054565384 -0.24000001 0.052974947
0.0049442258 -0.23999999 0.054680474
0.0048740371 -0.24000001 0.057067331
0.0048162742 -0.24000001 0.059169572
0.0049166307 -0.24000001 0.061084587
0.0048945667 -0.23999999 0.063743263
0.0051084748 -0.23911181 0.06496191
0.0076929741 -0.23910831 -0.068558179
0.0069763502 -0.23943451 -0.066868842
0.0069559729 -0.24000001 -0.064712122
0.0071689147 -0.23999999 -0.063351057
0.0072783967 -0.23999999 -0.060720704
0.0070183361 -0.24000002 -0.059319649
0.0068435916 -0.23999999 -0.056879457
0.006821692 -0.23999999 -0.054903641
0.0069164271 -0.24000001 -0.052838583
0.0069076996 -0.23999999 -0.050671861
0.0070781484 -0.24000001 -0.049203169
0.0069198636 -0.23999998 -0.046739683
0.0072620199 -0.24000001 -0.044655468
0.0071381475 -0.24000001 -0.042970072
0.0069617024 -0.24000001 -0.040792875
0.0071977703 -0.24000001 -0.039289184
0.0071137985 -0.24000002 -0.036891121
0.0071453522 -0.23999999 -0.035286948
0.0068965401 -0.24000001 -0.03310477
0.0070989416 -0.23999998 -0.030978624
0.0070715221 -0.23999999 -0.02923131
0.0069290861 -0.24000002 -0.026892137
0.0068817022 -0.23999999 -0.024645222
0.007364939 -0.23999999 -0.023196064
0.0068795253 -0.24000001 -0.021340389
0.0071287425 -0.24000001 -0.018982081
0.0069960784 -0.24000001 -0.01677103
0.0070247753 -0.23999999 -0.014911405
0.0070387707 -0.23999998 -0.012719712
0.0069025042 -0.24000001 -0.011060499
0.0071823034 -0.24000001 -0.0091034062
0.0068472461 -0.24000001 -0.0072916779
0.006845613 -0.24000001 -0.0048668482
0.0069420785 -0.24000001 -0.0027470661
0.0071499841 -0.23999999 -0.00096793508
0.0071238363 -0.24000001 0.00076905527
0.0070524914 -0.24000001 0.003137084
0.0072677578 -0.24000001 0.0046740593
0.0070024654 -0.24000002 0.0071704006
0.0072761108 -0.24000002 0.0092796572
0.0068511707 -0.23999999 0.010904571
0.0067414888 -0.24000001 0.012717615
0.0071349437 -0.23999999 0.015144752
0.0073635797 -0.24000001 0.016861835
0.0070664785 -0.24000001 0.019369092
0.0074673058 -0.23999998 0.020811373
0.007316506 -0.23999998 0.022842685
0.0071135536 -0.24000001 0.02498167
0.0071926122 -0.24000001 0.027260479
0.0071315244 -0.24000001 0.028781213
0.0068572275 -0.24000001 0.030744907
0.0067941933 -0.24000001 0.033330385
0.0068946695 -0.23999999 0.034882836
0.0070138886 -0.24000001 0.036894064
0.0072757965 -0.24000001 0.039370202
0.0071075531 -0.24000002 0.040874373
0.0072516426 -0.24000001 0.04293875
0.0069532674 -0.23999999 0.045282543
0.0072890422 -0.24000001 0.047379591
0.0069889817 -0.23999999 0.049138866
0.0072007449 -0.24000001 0.050361693
0.0068252906 -0.23999999 0.053072091
0.0066014617 -0.23999998 0.054892458
0.0071459515 -0.23999999 0.057126939
0.0069913194 -0.24000001 0.059267592
0.0069871428 -0.24000001 0.060610369
0.0069733337 -0.24000001 0.062853254
0.0070984839 -0.23999998 0.064641029
0.0069376514 -0.23925464 0.067066073
0.0077917539 -0.23916313 0.068570517
0.0099519342 -0.23989528 -0.07484287
0.0096222181 -0.23893356 -0.073037319
0.0090470966 -0.23922426 -0.070652276
0.0087365946 -0.23966202 -0.069508485
0.009072978 -0.23999998 -0.066805936
0.0091110524 -0.23999999 -0.06534411
0.0093455622 -0.23999998 -0.063316293
0.0092328861 -0.24000001 -0.060560998
0.0093385307 -0.23999999 -0.05933265
0.009226298 -0.23999998 -0.057029683
0.0090853535 -0.24000001 -0.055248693
0.0091614425 -0.23999999 -0.053094953
0.0090377182 -0.23999999 -0.051145248
0.0093321679 -0.24000001 -0.049187344
0.0089134229 -0.24000001 -0.046645757
0.0092963995 -0.24000002 -0.044891667
0.00904903 -0.23999999 -0.043412287
0.0088989167 -0.23999999 -0.041292172
0.0088332733 -0.24000001 -0.038739614
0.0090751415 -0.24000001 -0.037043747
0.0092911394 -0.23999999 -0.034821376
0.0086712446 -0.23999999 -0.032801073
0.0091465497 -0.23999999 -0.030712817
0.0089430464 -0.24000001 -0.029112188
0.0090636071 -0.24000001 -0.027152617
0.0090200556 -0.24000001 -0.025078064
0.00887933 -0.23999998 -0.022876097
0.008938361 -0.24000001 -0.020903479
0.0087250452 -0.24000002 -0.018952033
0.0083668139 -0.23999999 -0.01761369
0.0088903653 -0.24000001 -0.015191003
0.0090332534 -0.23999999 -0.012582344
0.0087230531 -0.23999999 -0.011277243
0.0093605584 -0.23999999 -0.0087057436
0.0091762878 -0.24000001 -0.0075903712
0.0090384549 -0.24000001 -0.0050935559
0.0087563349 -0.24000001 -0.0025812807
0.0093015954 -0.24000001 -0.0013150891
0.0086764051 -0.24000001 0.0010307885
0.0087628365 -0.23999999 0.0029707111
0.0083529493 -0.23999999 0.004676125
0.009017989 -0.24000001 0.0069294875
0.0092572048 -0.23999999 0.0087432936
0.009427336 -0.24000001 0.011160276
0.0090262787 -0.24000001 0.013120398
0.0090043889 -0.23999998 0.0151256
0.0090840282 -0.24000001 0.016816471
0.0090405578 -0.24000001 0.018963998
0.0089065563 -0.24000001 0.021122726
0.0090290448 -0.24000001 0.023023369
0.0089473519 -0.24000002 0.024883721
0.0089933118 -0.24000001 0.027077885
0.009147427 -0.24000001 0.028773915
0.0090416055 -0.23999999 0.031005863
0.0090713864 -0.24000001 0.033079743
0.0089666639 -0.23999999 0.035033487
0.0089453766 -0.23999999 0.036854886
0.0089642759 -0.23999999 0.03886167
0.0091796946 -0.24000001 0.041147508
0.0087744473 -0.24000001 0.042966437
0.0091094328 -0.23999999 0.044827927
0.0090059908 -0.24000001 0.047150463
0.0091527794 -0.23999999 0.049183793
0.0089704124 -0.23999999 0.051017005
0.009048475 -0.23999999 0.052932568
0.0088972114 -0.23999999 0.055095859
0.009189086 -0.23999999 0.057164744
0.0087262653 -0.24000001 0.059324533
0.008650098 -0.23999999 0.060908496
0.0090661421 -0.24000002 0.062841944
0.0090603549 -0.24000001 0.065504164
0.0088909082 -0.23999999 0.0669282
0.009143169 -0.23999999 0.069129467
0.0092505906 -0.2395964 0.071010247
0.0095857801 -0.23912621 0.073046371
0.0099268937 -0.23919898 0.074639462
0.010490171 -0.23930354 -0.079262838
0.010567324 -0.23952435 -0.076905362
0.01092216 -0.23966295 -0.07523644
0.011052021 -0.24000002 -0.072983794
0.010956607 -0.24000001 -0.070938237
0.010847714 -0.23999999 -0.068916239
0.011642768 -0.23999999 -0.066755511
0.011342691 -0.24000001 -0.064804785
0.011083471 -0.24000001 -0.063219026
0.011126836 -0.24000002 -0.061234012
0.010984452 -0.24000001 -0.058614675
0.011050451 -0.24000001 -0.057031389
0.011014301 -0.23999999 -0.055118151
0.010924545 -0.23999999 -0.0531183
0.011347003 -0.24000001 -0.051260859
0.011060591 -0.24000001 -0.049207211
0.011201441 -0.23999999 -0.047071669
0.010970267 -0.24000001 -0.044685416
0.010777164 -0.24000001 -0.043043695
0.011035258 -0.23999999 -0.040572688
0.010759483 -0.23999999 -0.039193291
0.010789051 -0.24000001 -0.037416719
0.01084208 -0.23999999 -0.035142858
0.011117234 -0.24000001 -0.033113316
0.011088393 -0.23999999 -0.031095102
0.011123942 -0.24000001 -0.029176153
0.010810885 -0.24000001 -0.027201587
0.011340462 -0.24000001 -0.024740318
0.011041834 -0.24000001 -0.022989428
0.010750539 -0.24000001 -0.021464035
0.011468862 -0.24000001 -0.019100215
0.010913819 -0.24000002 -0.016889434
0.011126652 -0.24000001 -0.014647868
0.010965449 -0.23999998 -0.013203128
0.01117941 -0.24000001 -0.010721936
0.011099045 -0.24000001 -0.0087535968
0.010657098 -0.24000001 -0.0068980041
0.010893546 -0.24000001 -0.004971541
0.011326789 -0.24000001 -0.0031325899
0.011047806 -0.23999999 -0.0011313759
0.01124608 -0.24000001 0.0011138008
0.010804356 -0.23999999 0.0029192402
0.011347628 -0.24000001 0.0052831289
0.011086646 -0.24000001 0.0067442046
0.010937183 -0.24000001 0.0087749679
0.010762786 -0.24000001 0.010729907
0.011214666 -0.24000001 0.013030912
0.011080055 -0.23999999 0.014602305
0.0113604 -0.23999999 0.017205108
0.010864939 -0.24000001 0.018792307
0.011141143 -0.23999999 0.021022284
0.011036939 -0.24000001 0.02277487
0.011236239 -0.24000001 0.024761831
0.011246227 -0.23999999 0.027031213
0.010990631 -0.23999998 0.029163301
0.011097179 -0.24000001 0.031206671
0.010517788 -0.24000001 0.032797664
0.010958287 -0.23999999 0.034974962
0.010861112 -0.23999998 0.037026323
0.0111053 -0.24000002 0.038814064
0.011345592 -0.24000001 0.041009892
0.0105455 -0.23999999 0.043367706
0.011161904 -0.23999999 0.044980027
0.011261551 -0.23999999 0.0468124
0.011092162 -0.24000001 0.04884427
0.010711526 -0.23999999 0.050870169
0.010843051 -0.23999999 0.053204533
0.011208186 -0.24000001 0.055193696
0.011008409 -0.24000001 0.056959346
0.010758965 -0.24000001 0.059002347
0.011210782 -0.24000002 0.061261974
0.011188576 -0.24000001 0.062812746
0.011309855 -0.24000001 0.065094478
0.011542439 -0.23999999 0.067137569
0.010861412 -0.23999999 0.069111548
0.010748132 -0.23999999 0.071129851
0.010347857 -0.23999999 0.073286436
0.011162174 -0.23990653 0.074984357
0.010769753 -0.23961583 0.076841794
0.010700243 -0.23921853 0.079606965
0.011422222 -0.23943132 0.080000006
0.012991226 -0.23953295 -0.079229765
0.013125069 -0.24000001 -0.076870471
0.012723854 -0.24000001 -0.075020529
0.013319633 -0.24000001 -0.073372491
0.012865754 -0.23999999 -0.071539655
0.013036113 -0.23999999 -0.069048502
0.012784302 -0.23999999 -0.067108564
0.012949734 -0.24000001 -0.065233342
0.013127794 -0.24000001 -0.062835515
0.013157628 -0.24000002 -0.060905665
0.012967129 -0.24000001 -0.059084795
0.012946903 -0.24000001 -0.057128746
0.012762101 -0.24000001 -0.0550307
0.012700345 -0.24000001 -0.053269297
0.012904218 -0.24000001 -0.051119
0.012966506 -0.24000001 -0.049311846
0.012914043 -0.23999999 -0.047092017
0.013015962 -0.24000001 -0.045138177
0.01295128 -0.24000001 -0.043322593
0.012769151 -0.23999999 -0.041199356
0.01306355 -0.24000002 -0.038962785
0.013058579 -0.24000001 -0.037000507
0.012834313 -0.24000001 -0.034877457
0.013221611 -0.24000002 -0.032574929
0.01302279 -0.23999999 -0.030867895
0.012907034 -0.24000001 -0.029045219
0.012871933 -0.24000001 -0.026781132
0.012956119 -0.24000001 -0.025149997
0.012673406 -0.24000002 -0.023189565
0.012935655 -0.23999999 -0.021042235
0.012675083 -0.23999999 -0.018979579
0.01323144 -0.24000002 -0.016876485
0.013392014 -0.23999999 -0.015304451
0.012903797 -0.23999999 -0.013049741
0.013059904 -0.24000001 -0.01144207
0.0128883 -0.24000002 -0.0090371091
0.012968139 -0.24000001 -0.0072090975
0.013012499 -0.23999998 -0.0047607538
0.012920173 -0.24000001 -0.0027990865
0.012871368 -0.24000002 -0.00081679254
0.013028296 -0.24000001 0.00064074318
0.013271268 -0.23999999 0.0027168624
0.013254256 -0.24000001 0.0049448796
0.012828546 -0.24000001 0.0070070028
0.012880159 -0.24000001 0.009039918
0.012881966 -0.24000001 0.011368917
0.012904885 -0.23999999 0.012780097
0.012776635 -0.24000002 0.014854432
0.013025016 -0.24000001 0.017167596
0.012938773 -0.23999999 0.018993158
0.01294432 -0.23999998 0.020849505
0.012602418 -0.24000001 0.022880252
0.012728758 -0.24000001 0.024775114
0.013124008 -0.24000001 0.027245019
0.012839365 -0.23999999 0.029068777
0.013250712 -0.23999999 0.030903665
0.012944208 -0.24000001 0.033012461
0.013214502 -0.23999999 0.034948681
0.01292256 -0.23999999 0.036808081
0.013492707 -0.23999998 0.039362602
0.013121818 -0.24000001 0.041296478
0.013142708 -0.23999999 0.04323972
0.013131541 -0.24000001 0.04490548
0.013060221 -0.23999998 0.047037739
0.012754468 -0.23999998 0.04891298
0.013019102 -0.24000001 0.050831482
0.012934387 -0.24000002 0.053051289
0.01323733 -0.24000001 0.054784693
0.013196979 -0.24000001 0.05676781
0.012880838 -0.24000001 0.059037961
0.012962571 -0.24000001 0.060896784
0.013086183 -0.24000001 0.06243626
0.01319303 -0.23999999 0.065242805
0.012889549 -0.24000001 0.06695208
0.012902565 -0.24000001 0.068954416
0.012965513 -0.23999999 0.071113572
0.012977879 -0.24000001 0.073144339
0.013365812 -0.24000001 0.074985251
0.013139116 -0.24000001 0.077191688
0.013192964 -0.23918441 0.079711787
0.015081897 -0.23961323 -0.079296798
0.015033538 -0.23999999 -0.077120118
0.014816123 -0.23999999 -0.07502576
0.014949169 -0.23999999 -0.072845049
0.015018359 -0.24000001 -0.070959933
0.015119486 -0.24000002 -0.06907925
0.015017337 -0.24000002 -0.067100927
0.014903801 -0.24000001 -0.065056227
0.015073255 -0.24000001 -0.062870443
0.015067085 -0.23999999 -0.061122723
0.014846417 -0.23999999 -0.059208058
0.014967139 -0.23999999 -0.057026345
0.015056614 -0.24000001 -0.055417992
0.014723463 -0.24000001 -0.053186685
0.015088432 -0.24000001 -0.051131509
0.015103308 -0.24000001 -0.049090654
0.014662887 -0.24000001 -0.046920307
0.015266172 -0.24000001 -0.045041747
0.014878636 -0.24000001 -0.043242861
0.015190331 -0.23999999 -0.041030411
0.014704812 -0.23999999 -0.039259333
0.01476636 -0.24000002 -0.03698929
0.014665669 -0.24000001 -0.034740791
0.014953622 -0.24000001 -0.033352632
0.014929874 -0.24000001 -0.030928224
0.014917526 -0.23999998 -0.028669212
0.01501395 -0.24000001 -0.026911132
0.014811944 -0.23999999 -0.025078407
0.015002332 -0.24000001 -0.023219019
0.015307347 -0.24000001 -0.020812446
0.015035117 -0.24000002 -0.019054977
0.014989042 -0.23999999 -0.016857019
0.015030299 -0.24000001 -0.014822452
0.015002071 -0.24000001 -0.012826893
0.015049943 -0.23999999 -0.010959189
0.015428567 -0.24000002 -0.0094704032
0.014727092 -0.24000001 -0.0069923662
0.015024132 -0.23999999 -0.0052155876
0.015121867 -0.24000001 -0.0030588594
0.01508108 -0.23999999 -0.0014134238
0.014981721 -0.23999998 0.0011289321
0.015052664 -0.24000001 0.0028915368
0.015208821 -0.23999999 0.00507002
0.014889121 -0.24000001 0.0068801828
0.015283705 -0.24000002 0.0087281391
0.015141525 -0.23999999 0.01064885
0.015264718 -0.23999999 0.013013901
0.014844831 -0.23999999 0.014834928
0.014671636 -0.24000001 0.017123243
0.014782478 -0.24000001 0.018935373
0.014865823 -0.24000001 0.020851908
0.015093513 -0.23999999 0.023215568
0.014857892 -0.24000002 0.025194643
0.014846146 -0.24000002 0.026580373
0.014995667 -0.24000001 0.029186523
0.014815924 -0.23999999 0.031117121
0.014673933 -0.24000002 0.033126466
0.015006644 -0.24000002 0.035090867
0.015129331 -0.24000001 0.036950909
0.014969859 -0.24000001 0.03923488
0.015196186 -0.23999999 0.041370489
0.015044563 -0.23999999 0.042929523
0.014573874 -0.24000001 0.045089319
0.015331133 -0.24000001 0.04710158
0.014818128 -0.24000001 0.048880015
0.014858216 -0.23999999 0.051061369
0.015002066 -0.24000001 0.053026285
0.01475432 -0.24000001 0.055108424
0.015252413 -0.23999999 0.056290913
0.015217409 -0.23999999 0.058962144
0.015056369 -0.23999999 0.061052866
0.015038298 -0.23999999 0.062903561
0.015237125 -0.24000001 0.064621978
0.014667295 -0.23999999 0.066981599
0.014867309 -0.23999999 0.068871014
0.015291659 -0.23999998 0.070453756
0.015252717 -0.24000001 0.073036924
0.015000371 -0.24000001 0.075234801
0.015142941 -0.23999999 0.0767956
0.014849504 -0.23946747 0.079363823
0.01701648 -0.23977882 -0.079317063
0.016891798 -0.24000001 -0.076808348
0.017073713 -0.23999998 -0.075254351
0.017083324 -0.23999999 -0.073000155
0.01720481 -0.23999999 -0.070951611
0.017128944 -0.24000001 -0.068889365
0.016791372 -0.24000001 -0.067356162
0.017052662 -0.23999999 -0.064832851
0.016909778 -0.24000001 -0.062965371
0.016995395 -0.23999998 -0.060971174
0.016899236 -0.23999999 -0.059128601
0.017023807 -0.24000001 -0.056930143
0.017001072 -0.24000001 -0.055110779
0.016820354 -0.24000001 -0.052789893
0.017025808 -0.23999998 -0.050751496
0.01705179 -0.24000001 -0.049164873
0.017569467 -0.24000001 -0.047159769
0.016799267 -0.24000001 -0.044934403
0.016947443 -0.23999999 -0.042931132
0.017105041 -0.24000001 -0.04089769
0.016565526 -0.23999999 -0.039030969
0.016872903 -0.24000001 -0.037127551
0.017325629 -0.24000001 -0.035425335
0.017015619 -0.23999999 -0.032908663
0.016767513 -0.24000001 -0.031312708
0.017066563 -0.23999998 -0.028811565
0.01671923 -0.24000001 -0.026498988
0.016907556 -0.23999999 -0.024755135
0.016638337 -0.24000001 -0.022973469
0.016796296 -0.24000001 -0.021041824
0.016941955 -0.24000002 -0.01873574
0.016773032 -0.24000001 -0.017120903
0.017133849 -0.23999999 -0.014486152
0.016848398 -0.23999999 -0.013145856
0.017326232 -0.24000001 -0.011077388
0.017116135 -0.24000001 -0.009051118
0.017242676 -0.23999998 -0.0070083034
0.016938686 -0.23999999 -0.0047199838
0.017214471 -0.24000001 -0.0031380279
0.016941559 -0.23999999 -0.0012144896
0.016952133 -0.23999999 0.00088742853
0.017552251 -0.23999999 0.0028337464
0.016804408 -0.24000001 0.004843995
0.016983166 -0.24000002 0.0066326936
0.017118033 -0.24000002 0.0088765305
0.017204067 -0.23999998 0.011134445
0.017146979 -0.23999999 0.013125439
0.016589681 -0.23999999 0.015083573
0.017127242 -0.24000001 0.016987314
0.016899792 -0.24000001 0.0191181
0.01678201 -0.23999998 0.020867605
0.016725758 -0.24000001 0.023497529
0.017266119 -0.23999999 0.024870191
0.016866246 -0.24000001 0.026839433
0.017040277 -0.24000002 0.028999815
0.016982939 -0.23999999 0.031437542
0.016911237 -0.23999998 0.033191875
0.017143575 -0.24000001 0.035241991
0.01698258 -0.23999998 0.036847658
0.016846621 -0.23999999 0.038995162
0.017014047 -0.24000001 0.040920306
0.01700907 -0.24000001 0.043021102
0.01729396 -0.23999999 0.044883654
0.016776854 -0.24000002 0.047162041
0.016987471 -0.23999999 0.049066655
0.017179277 -0.24000001 0.050842017
0.017457768 -0.23999999 0.052763522
0.016739968 -0.24000001 0.054854918
0.01677984 -0.24000001 0.057051063
0.016817998 -0.24000001 0.059123695
0.017042195 -0.24000001 0.060778491
0.016972121 -0.24000001 0.062916279
0.016550975 -0.23999998 0.065117449
0.016910231 -0.24000002 0.067128114
0.016935667 -0.24000001 0.068953253
0.017109329 -0.24000001 0.070951089
0.017051551 -0.23999999 0.072943896
0.017150417 -0.24000001 0.075359091
0.016942272 -0.24000001 0.077195019
0.017112013 -0.23945045 0.079506896
0.019093243 -0.23958521 -0.079251617
0.018814912 -0.23999998 -0.076990396
0.019051854 -0.23999999 -0.074814074
0.019362208 -0.24000002 -0.073150054
0.019053863 -0.23999998 -0.071127869
0.019557085 -0.2397255 -0.068844482
0.019555254 -0.23951773 -0.067101844
0.019550545 -0.23939231 -0.064966962
0.019544672 -0.23937441 -0.062996626
0.01959607 -0.23939869 -0.060878102
0.019421387 -0.24000001 -0.059056148
0.01881475 -0.23999999 -0.057071678
0.018906282 -0.23999998 -0.054814588
0.019125095 -0.24000001 -0.053217858
0.019005107 -0.24000001 -0.051080544
0.019447055 -0.23938046 -0.049032707
0.019566037 -0.23947704 -0.046936952
0.019509614 -0.2392756 -0.044952508
0.019590592 -0.23932806 -0.043179348
0.019546561 -0.23945764 -0.04112123
0.019040395 -0.24000002 -0.038889572
0.018946066 -0.24000002 -0.037025467
0.019209821 -0.24000001 -0.034945931
0.018912893 -0.24000001 -0.03295584
0.018841555 -0.24000001 -0.030983234
0.019444773 -0.23944634 -0.02897471
0.019621469 -0.23950061 -0.02688662
0.019525463 -0.2394947 -0.025396135
0.019690424 -0.23931189 -0.023290327
0.019088494 -0.23971245 -0.020906774
0.018966258 -0.23999999 -0.019025706
0.01894724 -0.23999999 -0.017196953
0.019058583 -0.24000001 -0.014799347
0.018890992 -0.24000001 -0.013631463
0.018819902 -0.23999999 -0.011327175
0.019586869 -0.23942582 -0.0088551911
0.019380599 -0.23938811 -0.0072695524
0.0195491 -0.23964113 -0.0051916181
0.019387174 -0.23962453 -0.002882903
0.019428657 -0.23963684 -0.0010320878
0.01917473 -0.23959029 0.0010126419
0.019590147 -0.23977323 0.0028245638
0.019280404 -0.23964252 0.0048115039
0.019451959 -0.23960286 0.0071267788
0.019529346 -0.23946333 0.0088993246
0.01883919 -0.23999998 0.01094156
0.019056639 -0.23999999 0.013057616
0.018736774 -0.23999999 0.015091657
0.018619413 -0.23999999 0.017136006
0.019023875 -0.24000001 0.018635899
0.019593459 -0.23956756 0.021296201
0.019420637 -0.23961782 0.02304964
0.019247783 -0.23952614 0.024822833
0.019563084 -0.23956728 0.026840653
0.019530918 -0.23921452 0.029002234
0.019073609 -0.23999999 0.030992445
0.019546099 -0.23999999 0.033527836
0.018931398 -0.23999999 0.034790359
0.019210448 -0.23999999 0.037225276
0.019056741 -0.24000001 0.038834617
0.019576067 -0.23948388 0.040977616
0.019485764 -0.23966458 0.043140691
0.019417966 -0.23952328 0.045080371
0.019474285 -0.23932362 0.046961449
0.019673515 -0.23939702 0.049137421
0.018933687 -0.23999999 0.05079582
0.019192306 -0.23999999 0.05303482
0.019302705 -0.24000001 0.055290528
0.019313687 -0.24000001 0.057019424
0.018958215 -0.24000001 0.058920197
0.019442847 -0.23947516 0.061083592
0.019564429 -0.23965104 0.063031465
0.019401403 -0.23953183 0.065034844
0.019507753 -0.23934324 0.067004532
0.019765943 -0.23939699 0.069073722
0.018525885 -0.23999999 0.070816763
0.018859575 -0.23999999 0.07290341
0.01879712 -0.24000001 0.074899644
0.019241761 -0.24000002 0.077146441
0.018874183 -0.23962817 0.079482496
0.020931434 -0.23981902 -0.078992724
0.021119649 -0.24000002 -0.076867796
0.020951081 -0.24000001 -0.074858032
0.020952232 -0.24000002 -0.072969705
0.021201402 -0.24000001 -0.070822999
0.0209179 -0.23895213 -0.07
0.020000001 -0.23990326 -0.060034063
0.020944985 -0.23934147 -0.059436541
0.021015542 -0.24000001 -0.056822274
0.021218289 -0.24000001 -0.055121951
0.021082494 -0.24000002 -0.05313642
0.021035297 -0.24000002 -0.051212851
0.020928934 -0.23918876 -0.050000004
0.020000001 -0.23992485 -0.047541987
0.020877885 -0.23971403 -0.039319314
0.020813821 -0.23999999 -0.036788307
0.021295894 -0.24000001 -0.034944315
0.021145888 -0.23999999 -0.033030253
0.021021396 -0.23999999 -0.031073689
0.021177897 -0.23863748 -0.030000001
0.020000001 -0.23901255 -0.020284636
0.020971205 -0.23947617 -0.01952382
0.021056678 -0.24000001 -0.017237708
0.021002963 -0.23999999 -0.015275929
0.021096935 -0.24000001 -0.013013071
0.020950474 -0.24000001 -0.011062714
0.021272326 -0.23899823 -0.0099999988
0.020887958 -0.2390991 0.0099999988
0.0210506 -0.23990655 0.010771259
0.020957556 -0.23999999 0.012959103
0.021348186 -0.24000002 0.015010776
0.02112163 -0.24000001 0.016909935
0.020929063 -0.23955612 0.019290866
0.020000001 -0.238943 0.021727992
0.02082379 -0.23957781 0.029999999
0.020846931 -0.23975088 0.030909196
0.021113833 -0.24000001 0.033034164
0.021137301 -0.24000001 0.034911629
0.020825224 -0.23999998 0.036852617
0.020738758 -0.23955993 0.039452575
0.020000001 -0.23826315 0.042449385
0.021266 -0.23889086 0.050000001
0.020885102 -0.23984542 0.050818592
0.020576226 -0.23999999 0.052807238
0.020961352 -0.24000002 0.055232536
0.021387085 -0.23999999 0.057084527
0.020905238 -0.23947173 0.059435803
0.02058989 -0.23887718 0.060000002
0.020000001 -0.23974803 0.063517287
0.020904306 -0.23904677 0.07
0.020765858 -0.23999999 0.070813634
0.021486042 -0.23999999 0.072968632
0.021082809 -0.23999999 0.074654751
0.021234669 -0.23999999 0.077092797
0.020861328 -0.23978436 0.079339236
0.023205779 -0.23958501 -0.07944537
0.022800844 -0.23999999 -0.076939985
0.023007516 -0.24000001 -0.074714169
0.023028545 -0.24000001 -0.073210604
0.022969032 -0.23999999 -0.070744894
0.023049744 -0.23889038 -0.069999993
0.022869606 -0.23942816 -0.05944714
0.0232381 -0.23999999 -0.056821186
0.022667168 -0.24000001 -0.054965325
0.022865169 -0.24000001 -0.052986931
0.023278663 -0.24000001 -0.050810605
0.022703934 -0.23901878 -0.050000004
0.023083201 -0.23947239 -0.039614752
0.022456421 -0.23999999 -0.036813863
0.023265013 -0.24000001 -0.035149623
0.022940105 -0.24000001 -0.033042308
0.023191852 -0.24000001 -0.031002169
0.022925889 -0.23893851 -0.030000001
0.023062048 -0.23953028 -0.019603213
0.023239668 -0.24000001 -0.017093852
0.023388434 -0.24000001 -0.015229042
0.023180092 -0.24000001 -0.012757467
0.022834035 -0.23999999 -0.011252943
0.02271804 -0.23880833 -0.0099999998
0.022984661 -0.23893784 0.0099999988
0.022930333 -0.23999999 0.010963076
0.022721255 -0.24000001 0.013219506
0.022492863 -0.23999999 0.014989644
0.022973156 -0.24000002 0.017426934
0.022977142 -0.23958871 0.019408623
0.023154145 -0.23906043 0.029999999
0.023033977 -0.24000001 0.031076429
0.023059744 -0.24000001 0.032980867
0.022944245 -0.24000001 0.034827698
0.023092909 -0.24000001 0.037104875
0.023052359 -0.23922683 0.039705068
0.022580082 -0.23860307 0.040000003
0.022716271 -0.23898289 0.050000001
0.023120254 -0.23923574 0.050501607
0.02326104 -0.23999999 0.05296313
0.023143692 -0.24000001 0.054931082
0.022921711 -0.24000001 0.05690217
0.023019802 -0.23955654 0.059335466
0.02294171 -0.23910005 0.07
0.022967109 -0.23988152 0.071101055
0.023069736 -0.24000002 0.073101833
0.022456367 -0.24000001 0.074800223
0.022929681 -0.23999999 0.077028796
0.023048317 -0.23933041 0.079667158
0.025188603 -0.23983152 -0.079256423
0.025111852 -0.23999999 -0.077237412
0.024993934 -0.23999999 -0.074950449
0.024930691 -0.23999999 -0.072777592
0.024912402 -0.23999999 -0.07082317
0.025133137 -0.23909 -0.07
0.024933444 -0.2395407 -0.059597101
0.025182376 -0.24000001 -0.057231572
0.025060466 -0.24000001 -0.054874118
0.024935346 -0.23999999 -0.053005502
0.025093945 -0.24000002 -0.051142089
0.025134524 -0.23922889 -0.050000004
0.025138838 -0.23951434 -0.039428614
0.024816904 -0.24000001 -0.036976099
0.024795007 -0.24000001 -0.034782514
0.024809182 -0.23999999 -0.033020988
0.024946121 -0.24000001 -0.030857284
0.025244398 -0.23901261 -0.029999999
0.025137046 -0.23930179 -0.019691885
0.025039455 -0.24000001 -0.017080657
0.025271755 -0.23999999 -0.014912279
0.024957206 -0.24000002 -0.012978337
0.025222905 -0.23999998 -0.010870114
0.024320716 -0.2393512 -0.0099999988
0.024999972 -0.23864162 0.0099999998
0.025044862 -0.23999999 0.011041654
0.024844512 -0.23999999 0.012850426
0.024707202 -0.23999999 0.014842788
0.025247617 -0.24000001 0.017368177
0.025166687 -0.23964223 0.019418493
0.025177602 -0.23885535 0.029999997
0.025289439 -0.23970559 0.030631069
0.025061106 -0.24000001 0.033121385
0.024994666 -0.24000001 0.035255093
0.024890663 -0.24000001 0.037087303
0.025071736 -0.23945393 0.039623301
0.025030173 -0.23892714 0.050000004
0.024680287 -0.23980828 0.050517973
0.024902839 -0.23999999 0.052941211
0.025159819 -0.23999999 0.05492362
0.025077831 -0.24000001 0.056989711
0.024916681 -0.23950563 0.059305348
0.024916423 -0.23923704 0.07
0.025272558 -0.23999998 0.071444504
0.025231529 -0.23999999 0.07333117
0.024925817 -0.24000001 0.075192019
0.02499458 -0.23999999 0.07689327
0.025015598 -0.23916903 0.07959263
0.026883561 -0.23951083 -0.079469427
0.027113844 -0.23999998 -0.077134676
0.027044037 -0.23999998 -0.075021714
0.027061354 -0.23999999 -0.0728513
0.02693936 -0.23999999 -0.07108973
0.027195433 -0.23920286 -0.07
0.026888344 -0.23968233 -0.059559189
0.027322495 -0.23999998 -0.05680852
0.027187169 -0.23999998 -0.055028513
0.026825264 -0.24000002 -0.052966591
0.026582111 -0.23999999 -0.051084202
0.026837567 -0.23882204 -0.050000008
0.027090123 -0.2396853 -0.039358437
0.026468733 -0.24000002 -0.037156895
0.026659127 -0.23999999 -0.035003871
0.027013358 -0.23999998 -0.033030298
0.027092861 -0.23999998 -0.031200746
0.027113708 -0.23904374 -0.030000001
0.02696625 -0.23944193 -0.019572353
0.027205599 -0.23999999 -0.017037438
0.026927128 -0.24000001 -0.015172668
0.027429333 -0.23999998 -0.012742139
0.027068542 -0.24000001 -0.011334205
0.02670281 -0.23946269 -0.0099999998
0.027120899 -0.23899531 0.0099999988
0.026842991 -0.24000001 0.011194172
0.026839389 -0.24000001 0.012898303
0.026782785 -0.23999999 0.014996135
0.026941204 -0.24000002 0.016942821
0.026822248 -0.23965082 0.019508574
0.02712984 -0.23894219 0.029999999
0.0270235 -0.23987988 0.030661458
0.026886676 -0.23999998 0.03330024
0.026842427 -0.24000001 0.034887955
0.026850754 -0.24000001 0.037126787
0.026935117 -0.23979455 0.039165132
0.026821723 -0.23888138 0.050000004
0.026966767 -0.23961544 0.050992955
0.026814792 -0.23999998 0.053137828
0.02671124 -0.23999999 0.055201795
0.027254621 -0.24000001 0.056941312
0.027252464 -0.23919611 0.059816711
0.027211379 -0.23972258 0.060000002
0.027318457 -0.23912665 0.07
0.027030913 -0.23990767 0.071023263
0.027335819 -0.24000001 0.073288597
0.026904717 -0.23999999 0.07494247
0.026743228 -0.24000001 0.076865964
0.026869405 -0.23957677 0.07942947
0.028985651 -0.23945048 -0.079424053
0.028914485 -0.24000002 -0.076798491
0.028605271 -0.24000001 -0.075010814
0.02875714 -0.24000001 -0.072803967
0.02936008 -0.23999999 -0.071020119
0.029324373 -0.23873655 -0.07
0.028883133 -0.23974954 -0.059276897
0.028833674 -0.24000002 -0.057023495
0.028676549 -0.23999999 -0.055402644
0.029194161 -0.23999999 -0.053269297
0.028764643 -0.23999998 -0.051482197
0.028972613 -0.23893337 -0.050000008
0.028980663 -0.23949191 -0.039508756
0.028948881 -0.23999999 -0.037006542
0.028900824 -0.24000001 -0.034897968
0.028839298 -0.23999998 -0.032995392
0.029363602 -0.23999999 -0.031102423
0.029255901 -0.23896702 -0.030000001
0.028927205 -0.2393675 -0.0196095
0.02916396 -0.24000001 -0.01750466
0.029308047 -0.24000001 -0.01509029
0.02909537 -0.23999999 -0.01293314
0.029299762 -0.24000001 -0.011096453
0.029190017 -0.23919646 -0.0099999988
0.029343883 -0.23871532 0.0099999998
0.028610654 -0.23999998 0.01064008
0.028721228 -0.24000001 0.012680786
0.028981188 -0.23999999 0.015142092
0.028846448 -0.24000002 0.017065238
0.02909673 -0.23931141 0.019774498
0.0290391 -0.2391907 0.029999999
0.02911648 -0.23981836 0.031081215
0.029439766 -0.23999999 0.032801136
0.028819894 -0.23999999 0.034737602
0.029310089 -0.24000001 0.037230052
0.029181808 -0.23912691 0.039654579
0.028947527 -0.23856661 0.050000004
0.028853059 -0.23994005 0.051044654
0.02895632 -0.23999999 0.053003542
0.028985212 -0.23999999 0.055194359
0.029177241 -0.23999999 0.057617776
0.028801242 -0.23963514 0.05952369
0.029296761 -0.23880558 0.07
0.0291612 -0.23999999 0.071511522
0.028903319 -0.23999999 0.073169507
0.029294781 -0.24000001 0.074984744
0.029300017 -0.23999998 0.076899953
0.028857585 -0.23962119 0.079445466
0.031040043 -0.2395975 -0.07959228
0.031168729 -0.23999998 -0.076871
0.030981742 -0.23999999 -0.075245932
0.031385724 -0.23999999 -0.07298179
0.031063769 -0.24000001 -0.071142606
0.03065031 -0.23887114 -0.07
0.030787233 -0.23968303 -0.05938394
0.031144401 -0.23999998 -0.056923021
0.030699037 -0.24000002 -0.054894034
0.030976811 -0.23999999 -0.05295765
0.03100911 -0.24000002 -0.050971843
0.030814715 -0.2389057 -0.050000004
0.030961659 -0.23962505 -0.039411571
0.031215698 -0.23999998 -0.037331384
0.030981239 -0.23999999 -0.034947701
0.030901216 -0.23999999 -0.033102691
0.030880962 -0.24000001 -0.030854363
0.03092809 -0.23922256 -0.030000001
0.031061266 -0.23934446 -0.019377079
0.031164199 -0.24000001 -0.016983012
0.030992359 -0.23999999 -0.015029693
0.030935992 -0.24000001 -0.012825717
0.031155774 -0.24000001 -0.010832573
0.03116611 -0.23885065 -0.0099999988
0.030873289 -0.23924294 0.0099999998
0.030395877 -0.23999999 0.010957017
0.030596569 -0.24000001 0.012929003
0.03075159 -0.23999999 0.015087326
0.031005638 -0.23999999 0.017244741
0.030988306 -0.23939377 0.019737897
0.030844172 -0.23931491 0.029999999
0.031238073 -0.23968832 0.030513169
0.030923381 -0.23999999 0.033154253
0.030571248 -0.24000001 0.035252266
0.030736195 -0.24000001 0.036962535
0.031093899 -0.23978718 0.039341711
0.031210715 -0.23915756 0.049999997
0.031489462 -0.23966888 0.050661929
0.030898057 -0.24000002 0.053181045
0.031205257 -0.24000002 0.055225689
0.031144276 -0.24000001 0.057271145
0.030966509 -0.23952141 0.059671275
0.030674059 -0.23873317 0.060000002
0.030735377 -0.2392433 0.07
0.030855145 -0.23975116 0.071147829
0.030755058 -0.24000002 0.072765782
0.031116484 -0.24000001 0.074839756
0.031088259 -0.24000002 0.076897703
0.031025186 -0.23952639 0.079446293
0.032756645 -0.23964642 -0.079288118
0.032575518 -0.24000002 -0.076745301
0.032991931 -0.23999999 -0.074892886
0.033112518 -0.23999999 -0.072678074
0.033174146 -0.24000001 -0.070688009
0.032848235 -0.2394122 -0.07
0.033061832 -0.23952408 -0.059512727
0.033249974 -0.23999999 -0.056915872
0.033018921 -0.24000001 -0.055360116
0.033158675 -0.24000001 -0.053064954
0.033237316 -0.24000001 -0.051255155
0.032952402 -0.23927753 -0.050000004
0.032987762 -0.23968965 -0.039711554
0.032911327 -0.24000001 -0.037144475
0.033231404 -0.23999998 -0.034767926
0.032980934 -0.24000002 -0.032901485
0.033232339 -0.23999999 -0.03079504
0.032977544 -0.23898034 -0.030000001
0.033022452 -0.23921633 -0.019657217
0.03325998 -0.24000002 -0.01686495
0.032974757 -0.24000002 -0.01511777
0.032931048 -0.24000001 -0.013149883
0.032821171 -0.24000002 -0.011260229
0.032713227 -0.23881233 -0.0099999988
0.032772794 -0.23888879 0.0099999988
0.033317339 -0.24000001 0.010997794
0.032922223 -0.23999999 0.01318631
0.032824028 -0.24000001 0.01451312
0.033019386 -0.24000002 0.017149426
0.032859474 -0.23941845 0.019398941
0.033063654 -0.23918 0.030000001
0.032858118 -0.23967668 0.030869927
0.032986112 -0.23999999 0.033202779
0.032915231 -0.24000001 0.035204183
0.032965243 -0.24000001 0.037331164
0.03299341 -0.23937635 0.03958087
0.03291776 -0.23940621 0.049999997
0.032848239 -0.23979953 0.050698888
0.032738883 -0.24000002 0.052898061
0.032907099 -0.23999999 0.055114742
0.032910731 -0.24000001 0.05684939
0.033065137 -0.2393107 0.059563603
0.033285409 -0.23896575 0.060000002
0.03259103 -0.23910519 0.07
0.032963388 -0.23989093 0.070860729
0.033156164 -0.24000001 0.073137119
0.033300895 -0.23999998 0.07504753
0.032597501 -0.24000001 0.076830335
0.032942399 -0.23947251 0.079665236
0.034915768 -0.23941357 -0.079490051
0.034803249 -0.23999999 -0.07711342
0.035073388 -0.24000001 -0.075013369
0.03499594 -0.24000001 -0.073125258
0.034921311 -0.24000002 -0.071019799
0.035041265 -0.23897842 -0.07
0.034984499 -0.23938777 -0.059624512
0.034839194 -0.23999999 -0.056908008
0.035021439 -0.23999999 -0.054870181
0.035327204 -0.23999999 -0.052991029
0.034922868 -0.23999999 -0.05128862
0.034775339 -0.23909603 -0.050000004
0.03518685 -0.23924702 -0.03957545
0.035190277 -0.23999999 -0.036854621
0.035004802 -0.23999999 -0.034972206
0.034907795 -0.24000002 -0.033212591
0.034890611 -0.23999999 -0.031203387
0.03474633 -0.23901708 -0.030000001
0.034807321 -0.2392993 -0.019665478
0.035240985 -0.23999999 -0.016992657
0.035035986 -0.24000001 -0.015192095
0.035099968 -0.23999999 -0.012809973
0.034997426 -0.24000002 -0.010987914
0.034975842 -0.23900083 -0.0099999988
0.034535985 -0.2389904 0.0099999988
0.034953326 -0.24000001 0.011109418
0.035266399 -0.24000001 0.012890616
0.034988444 -0.24000001 0.014930502
0.034917459 -0.23999999 0.017272701
0.035027675 -0.23965268 0.019560039
0.034966104 -0.23871903 0.029999999
0.034662183 -0.23986733 0.031073743
0.035066679 -0.24000001 0.03299081
0.035114322 -0.23999999 0.034901947
0.034888074 -0.24000001 0.036845975
0.03476654 -0.23943461 0.039487168
0.035198577 -0.238975 0.050000001
0.034687102 -0.2393821 0.050562043
0.035032395 -0.23999999 0.052853551
0.035185669 -0.24000001 0.055037573
0.035328116 -0.24000001 0.056971148
0.034796935 -0.23945747 0.059432834
0.034646131 -0.23937023 0.060000002
0.03494462 -0.23894213 0.069999993
0.034946647 -0.24000001 0.070629187
0.034965921 -0.23999999 0.072969906
0.034932029 -0.24000002 0.075075164
0.035039064 -0.24000002 0.076724634
0.035097528 -0.23929912 0.07961385
0.037123874 -0.23961709 -0.079291619
0.036872149 -0.23999999 -0.077262983
0.036815207 -0.24000001 -0.075091407
0.037031632 -0.24000001 -0.073023498
0.037239943 -0.24000001 -0.071046107
0.037012823 -0.23896351 -0.07
0.036964074 -0.23960827 -0.059420548
0.037180007 -0.23999999 -0.057272978
0.036936987 -0.24000001 -0.054847494
0.037352767 -0.24000001 -0.053353664
0.037016954 -0.24000001 -0.050912309
0.037063919 -0.23901805 -0.050000008
0.037085995 -0.23977496 -0.039457668
0.036931708 -0.24000001 -0.036733806
0.037028298 -0.24000001 -0.034956269
0.036889032 -0.23999999 -0.033012211
0.036926117 -0.24000001 -0.030917127
0.036585048 -0.23903958 -0.029999999
0.037042636 -0.23970053 -0.019371437
0.036965311 -0.23999998 -0.016732497
0.037249174 -0.24000001 -0.014887895
0.036912479 -0.23999999 -0.01331785
0.036868744 -0.24000001 -0.011079555
0.037101727 -0.23903781 -0.0099999988
0.037031524 -0.23889841 0.0099999998
0.036488369 -0.23999998 0.011241934
0.03701571 -0.24000001 0.013106865
0.036808167 -0.24000001 0.015025404
0.037069023 -0.24000001 0.01675177
0.036974683 -0.2395523 0.019369835
0.036713671 -0.23893373 0.029999999
0.037070859 -0.23995894 0.030931037
0.03730746 -0.24000001 0.032904562
0.037002336 -0.24000001 0.035158735
0.037388075 -0.23999999 0.037011564
0.037236918 -0.23949869 0.039443064
0.037083928 -0.23910852 0.050000004
0.037207749 -0.23980403 0.050771981
0.036989696 -0.23999999 0.052821688
0.036581073 -0.24000001 0.054627698
0.036789026 -0.24000001 0.056691922
0.03706355 -0.23940404 0.059354167
0.037068337 -0.23935966 0.060000002
0.036897067 -0.23875789 0.07
0.036863159 -0.24000001 0.071187966
0.037294678 -0.24000001 0.072816953
0.03682486 -0.23999999 0.074938156
0.037090883 -0.24000002 0.076856703
0.0370261 -0.23959361 0.079360686
0.039061897 -0.23923442 -0.079724893
0.038723275 -0.24000001 -0.077281162
0.03896556 -0.24000001 -0.075342253
0.039114051 -0.23999999 -0.072832458
0.038888428 -0.24000001 -0.071035989
0.039512645 -0.23919713 -0.07
0.038896658 -0.23950911 -0.059532382
0.039055169 -0.24000002 -0.057065696
0.038882673 -0.23999999 -0.054722887
0.039144035 -0.24000001 -0.053054895
0.039085884 -0.24000001 -0.051315323
0.03910448 -0.23905589 -0.050000008
0.039016444 -0.23949297 -0.039481971
0.039176758 -0.24000001 -0.03688661
0.039007831 -0.23999998 -0.035099529
0.039244007 -0.23999998 -0.032941543
0.038777277 -0.24000001 -0.030754827
0.038723189 -0.2388628 -0.030000003
0.038947795 -0.23967569 -0.019339468
0.039157953 -0.24000001 -0.017192988
0.038407601 -0.23999999 -0.014715995
0.039094925 -0.23999999 -0.012860929
0.038762849 -0.23999999 -0.01129239
0.038888406 -0.2391777 -0.0099999988
0.038720213 -0.23847561 0.0099999998
0.039233647 -0.23999998 0.010985468
0.039079811 -0.24000001 0.013256663
0.039083686 -0.24000001 0.015146122
0.038928933 -0.24000001 0.016978888
0.038797166 -0.23942012 0.019399725
0.038866296 -0.23888889 0.029999999
0.039458375 -0.23949239 0.030513309
0.039308988 -0.24000001 0.03301654
0.03907375 -0.24000001 0.035467282
0.038657647 -0.23999999 0.036990695
0.039150637 -0.2394346 0.039457638
0.038872238 -0.23902158 0.050000001
0.039014287 -0.23979749 0.050617877
0.039227307 -0.23999999 0.053079098
0.038929667 -0.23999999 0.055181794
0.039062839 -0.24000001 0.057059485
0.039180882 -0.23919407 0.059678733
0.038839292 -0.23888317 0.060000002
0.038715888 -0.23908155 0.07
0.039458103 -0.24000001 0.071164586
0.039293319 -0.24000001 0.073092289
0.03927486 -0.24000001 0.075366437
0.038512539 -0.23999998 0.07681036
0.039065171 -0.23975308 0.07935109
0.041135576 -0.23938115 -0.079578802
0.040904798 -0.23999999 -0.076764077
0.040917207 -0.24000001 -0.075123027
0.041167893 -0.23999999 -0.073086731
0.041024067 -0.24000001 -0.071075663
0.041058403 -0.2389888 -0.07
0.040898073 -0.23951538 -0.059565868
0.041371867 -0.23999998 -0.057051267
0.040951226 -0.23999999 -0.054983687
0.04105432 -0.24000002 -0.053307716
0.041127197 -0.24000001 -0.05087496
0.040875904 -0.23878542 -0.050000004
0.041032467 -0.2393682 -0.039474238
0.041043159 -0.24000001 -0.037056286
0.040666234 -0.24000001 -0.035033729
0.041061044 -0.24000001 -0.032897573
0.041014403 -0.24000001 -0.03130189
0.04086452 -0.23905553 -0.029999999
0.041107524 -0.23955162 -0.019449109
0.041094344 -0.23999998 -0.017026037
0.040641997 -0.23999999 -0.014976877
0.041239329 -0.23999999 -0.013056379
0.041168295 -0.23999999 -0.010921885
0.041138738 -0.23885006 -0.0099999998
0.041356087 -0.23952977 0.0099999998
0.04101808 -0.24000001 0.010835711
0.041261256 -0.24000001 0.012919891
0.041293167 -0.24000001 0.014921762
0.040776271 -0.23999998 0.017118173
0.040583547 -0.23941851 0.019698959
0.041171975 -0.23946366 0.029999999
0.04114816 -0.23969446 0.030875254
0.040811136 -0.24000001 0.032754242
0.041178823 -0.24000001 0.03490115
0.040986184 -0.24000001 0.037304644
0.041187149 -0.23943563 0.03955853
0.041004438 -0.23932733 0.050000004
0.041122608 -0.23967734 0.050607312
0.040785741 -0.23999999 0.052961927
0.04074515 -0.23999999 0.054920226
0.040561292 -0.24000001 0.056876156
0.041265614 -0.23999998 0.059036601
0.041448116 -0.23880897 0.060000002
0.040614374 -0.23896252 0.07
0.041094929 -0.23999999 0.070902176
0.041240226 -0.24000001 0.072800353
0.040718615 -0.24000001 0.074939586
0.041249931 -0.24000001 0.076995656
0.041101884 -0.2396585 0.079279914
0.042803377 -0.23952091 -0.079622217
0.04284925 -0.24000001 -0.076940827
0.043054104 -0.24000001 -0.074846447
0.043197181 -0.24000001 -0.072909735
0.042766437 -0.24000001 -0.071268775
0.043261517 -0.23943287 -0.07
0.043050293 -0.2395425 -0.059538368
0.042997334 -0.24000001 -0.056780551
0.04310881 -0.24000001 -0.055166766
0.043075114 -0.23999999 -0.052990556
0.042971447 -0.24000001 -0.050825309
0.043092828 -0.23932691 -0.050000008
0.042875469 -0.23956923 -0.039461266
0.043121595 -0.24000001 -0.037109397
0.043243717 -0.24000001 -0.035207458
0.042690393 -0.23999999 -0.033490051
0.043223258 -0.23999999 -0.030734513
0.043189343 -0.23922244 -0.030000001
0.043095317 -0.23970617 -0.01919526
0.042896979 -0.23999998 -0.017201815
0.042866331 -0.24000002 -0.015129749
0.043028705 -0.24000001 -0.013021059
0.043087658 -0.23999999 -0.011051328
0.042886455 -0.23892155 -0.0099999998
0.043144859 -0.23885743 0.0099999988
0.043219827 -0.23999999 0.011130753
0.043056715 -0.23999998 0.012983166
0.042898137 -0.24000001 0.014889889
0.043187875 -0.24000002 0.016869409
0.043038666 -0.23929039 0.019776734
0.043123614 -0.23906328 0.029999999
0.043007169 -0.23978192 0.030641178
0.042778019 -0.24000001 0.03315099
0.043029435 -0.23999999 0.034753606
0.042931478 -0.23999999 0.037072085
0.042991702 -0.23927964 0.03949574
0.042704243 -0.23937348 0.049999997
0.043007221 -0.23948587 0.050529975
0.043199141 -0.23999999 0.053279158
0.043059282 -0.23999999 0.054553755
0.042934705 -0.23999999 0.057014227
0.043102853 -0.23969314 0.059331886
0.042936817 -0.2384986 0.060000002
0.043522544 -0.23897126 0.07
0.042611238 -0.24000002 0.070952564
0.042952344 -0.23999999 0.072729573
0.042769637 -0.24000001 0.075201795
0.043459784 -0.23999999 0.077187799
0.042730365 -0.23962152 0.079532489
0.045092866 -0.23961036 -0.079274252
0.045134794 -0.23999999 -0.076963454
0.045221351 -0.24000001 -0.075018227
0.0453832 -0.24000001 -0.072767377
0.045070291 -0.23999998 -0.071134694
0.045076925 -0.23920815 -0.069999993
0.044638716 -0.23946165 -0.059454631
0.044764612 -0.24000001 -0.056944542
0.044979978 -0.23999999 -0.054724537
0.044886284 -0.24000001 -0.052777119
0.045004979 -0.23999999 -0.051040143
0.044974912 -0.23896785 -0.050000004
0.045012858 -0.23947871 -0.039616555
0.045295045 -0.23999999 -0.036943421
0.044867713 -0.24000001 -0.03475539
0.045091059 -0.23999998 -0.032985665
