# .PCD v0.7 - Point Cloud Data file format
VERSION 0.7
FIELDS x y z
SIZE 4 4 4
TYPE F F F
COUNT 1 1 1
WIDTH 1233
HEIGHT 1
VIEWPOINT 0 0 0 1 0 0 0
POINTS 1233
DATA ascii
-0.0099999988 -0.18082187 0.0048814765
-0.0099999988 -0.18117535 0.0068321438
-0.0095242849 -0.18106371 0.0093181953
-0.0070926407 -0.18099678 -0.0099999988
-0.0070458599 -0.18108968 0.0099999988
-0.0050993552 -0.18103579 -0.0099999988
-0.0048938184 -0.18098842 0.0099999998
-0.0032190518 -0.18111376 -0.0099999988
-0.0031194927 -0.18098557 0.0099999988
-0.0014601935 -0.18122804 -0.0099999998
-0.00093114923 -0.18094376 0.0099999998
0.0013633555 -0.18173724 -0.0099999998
0.00080301706 -0.18090236 0.010000001
0.0032857233 -0.181053 -0.0099999988
0.0030695014 -0.18083586 0.0099999998
0.0053011919 -0.18118362 -0.0099999988
0.0053288839 -0.1810492 0.0099999988
0.0069157011 -0.1811139 -0.0099999988
0.0071563288 -0.18063569 0.0099999988
0.0095960647 -0.18109469 -0.0094752703
0.0099999988 -0.18079233 -0.0073306486
0.0099999998 -0.18123654 -0.0051119383
0.0099999988 -0.18108147 -0.0031019324
0.0099999998 -0.18080664 -0.00082533574
0.010000002 -0.18090577 0.00085309474
0.0099999998 -0.18076579 0.0028939075
0.0099999998 -0.1813079 0.0047559766
0.0099999988 -0.18115699 0.0071724225
0.0092289848 -0.18091531 0.0095434934
0.010000001 -0.18117072 0.0061870124
-0.0095576467 -0.17893244 -0.009525016
-0.0099999988 -0.17918871 -0.0070756618
-0.0099999998 -0.17909096 -0.0050821775
-0.0099999998 -0.17901053 -0.0027412788
-0.0099999988 -0.17869084 -0.0010842985
-0.0099999988 -0.17901428 0.0011485787
-0.0099999988 -0.17907314 0.0025113407
-0.0099999998 -0.17874125 0.0050627985
-0.0099999988 -0.17898911 0.0066684983
-0.0096789422 -0.17879081 0.0095107323
-0.0067531392 -0.1791286 -0.0099999988
-0.0073195738 -0.17871138 0.0099999998
-0.0070272298 -0.1790757 0.010000001
-0.0048473729 -0.17864133 -0.0099999988
-0.0051385053 -0.17899857 0.0099999998
-0.0028328737 -0.17886566 -0.0099999988
-0.0029904549 -0.17880392 0.0099999988
-0.0010972349 -0.17898373 -0.0099999988
-0.00052412797 -0.17890024 0.0099999998
0.00096609042 -0.17882036 -0.0099999988
0.0011701623 -0.17906772 0.0099999988
0.00278279 -0.1786686 -0.0099999998
0.002890981 -0.17890467 0.0099999988
0.0051907753 -0.17909138 -0.0099999988
0.0049711587 -0.17904481 0.0099999988
0.0073040104 -0.17904058 -0.0099999988
0.0069884406 -0.17895393 0.0099999988
0.0092913192 -0.17906664 -0.0096943509
0.0099999988 -0.17880431 -0.0069386652
0.0099999988 -0.1790866 -0.0049124602
0.0099999988 -0.17901479 -0.0031638695
0.0099999988 -0.17916924 -0.0010641704
0.0099999988 -0.17884374 0.0010630046
0.0099999998 -0.17867301 0.0027800319
0.0099999988 -0.17918889 0.0048451456
0.0099999988 -0.17906551 0.0067637288
0.0096553881 -0.17908381 0.0095357951
0.010000001 -0.17853352 0.0091548823
-0.0094080046 -0.17689639 -0.0097500915
-0.0099999988 -0.17698316 -0.0069472706
-0.0099999998 -0.17687757 -0.0053014443
-0.0099999998 -0.17712772 -0.0027607563
-0.0099999988 -0.17734741 -0.0012518474
-0.0099999988 -0.17712565 0.0011455591
-0.0099999988 -0.17722316 0.00317599
-0.0099999998 -0.17688748 0.0049510146
-0.0099999998 -0.1770995 0.0070015448
-0.0097028911 -0.17696646 0.0093357824
-0.0068771611 -0.17686351 -0.0099999988
-0.0068831188 -0.17716944 0.0099999988
-0.0073394296 -0.17762335 0.010000001
-0.005230532 -0.17686035 -0.0099999988
-0.0049961293 -0.17720073 0.0099999988
-0.0031264275 -0.17702234 -0.0099999988
-0.0029657474 -0.17691961 0.0099999988
-0.0012647503 -0.17715734 -0.0099999988
-0.0012613996 -0.17664936 0.0099999988
0.00081214536 -0.17702359 -0.0099999988
0.0013282547 -0.1770028 0.0099999988
0.0031283074 -0.17676412 -0.0099999998
0.0032600497 -0.176742 0.0099999988
0.00503548 -0.17698303 -0.0099999988
0.0049391277 -0.1769592 0.0099999988
0.0071202586 -0.17714326 -0.0099999988
0.0072514191 -0.17674184 0.0099999998
0.0096299937 -0.17683162 -0.0092710964
0.0099999988 -0.17689335 -0.0071773194
0.0099999988 -0.17686449 -0.0047839945
0.0099999998 -0.17683783 -0.003029244
0.0099999988 -0.17755061 -0.00076888053
0.0099999998 -0.17662199 0.0011330042
0.0099999998 -0.17710845 0.0028787539
0.0099999998 -0.17707343 0.0046251505
0.0099999988 -0.17708631 0.0066877916
0.0095877284 -0.17710587 0.0092874058
0.010000001 -0.17775337 0.007984994
-0.0092735067 -0.17534123 -0.0094831036
-0.0099999988 -0.17502226 -0.0071868291
-0.0099999998 -0.17500049 -0.0045158202
-0.0099999998 -0.17533959 -0.0028402244
-0.0099999998 -0.17477551 -0.0010924533
-0.0099999988 -0.1748666 0.0010531362
-0.0099999988 -0.17489788 0.0029698685
-0.0099999998 -0.17500696 0.0049258252
-0.0099999988 -0.17501722 0.0069892514
-0.0096725794 -0.17514658 0.0095141521
-0.0071767825 -0.17504001 -0.0099999988
-0.006723851 -0.17492239 0.0099999988
-0.0051623201 -0.17517318 -0.0099999988
-0.004894455 -0.17493434 0.0099999988
-0.0031256378 -0.17519416 -0.0099999988
-0.0028475646 -0.17456801 0.0099999988
-0.0012811641 -0.17519513 -0.0099999998
-0.00086721621 -0.17479867 0.0099999988
0.001241493 -0.17481701 -0.0099999988
0.0013727647 -0.1749263 0.0099999988
0.0030322876 -0.17505221 -0.0099999988
0.0031928734 -0.17492379 0.0099999998
0.0049606906 -0.17489824 -0.0099999988
0.005034701 -0.17489204 0.0099999988
0.0072108493 -0.17500006 -0.0099999988
0.00703739 -0.1750809 0.0099999988
0.0095750466 -0.17487659 -0.0095192455
0.0099999988 -0.17505625 -0.0069340053
0.0099999988 -0.17487897 -0.0049980823
0.0099999998 -0.1749281 -0.0029461686
0.0099999998 -0.1746532 -0.00076572032
0.0099999988 -0.17489426 0.0012124116
0.0099999998 -0.17483583 0.0032092431
0.0099999998 -0.17511369 0.0047665834
0.0099999988 -0.17503543 0.0068810391
0.0093431398 -0.17507842 0.0096003953
0.010000001 -0.17430528 0.0075999806
-0.0094402237 -0.17308736 -0.0095214592
-0.0099999988 -0.17282803 -0.0069898781
-0.0099999988 -0.17263098 -0.0049025896
-0.0099999998 -0.17312285 -0.003070558
-0.0099999988 -0.17292628 -0.0012948462
-0.0099999988 -0.17291869 0.0012108248
-0.0099999988 -0.17273347 0.0030100062
-0.0099999988 -0.17316577 0.0048130704
-0.0099999988 -0.17306314 0.0072153457
-0.0097357957 -0.1730141 0.009228617
-0.0093870806 -0.17391285 0.010000001
-0.0069163563 -0.17289396 -0.0099999998
-0.0070850146 -0.17290418 0.0099999998
-0.0049877898 -0.17295825 -0.0099999988
-0.00503026 -0.17315532 0.0099999998
-0.0029721642 -0.17329077 -0.0099999988
-0.0031028308 -0.17286272 0.0099999988
-0.00080235064 -0.17295404 -0.0099999988
-0.0010478022 -0.17298688 0.0099999998
0.0011366199 -0.17320697 -0.0099999998
0.00073978276 -0.17312476 0.010000001
0.0030007649 -0.17307071 -0.0099999988
0.0026671181 -0.17297561 0.0099999988
0.0048255688 -0.17331347 -0.0099999988
0.0052257483 -0.17328496 0.0099999988
0.0065852432 -0.17312579 -0.0099999988
0.0069747376 -0.17303272 0.0099999988
0.0097626187 -0.17313403 -0.0092096357
0.0099999998 -0.17286913 -0.0070754657
0.0099999988 -0.17306571 -0.0050548781
0.0099999988 -0.17302482 -0.0032852606
0.0099999998 -0.17325208 -0.0009964935
0.0099999988 -0.17300746 0.0008346166
0.0099999988 -0.17300665 0.0028537139
0.0099999988 -0.17305848 0.0046907286
0.0099999988 -0.17344245 0.0067735761
0.0096679991 -0.17312005 0.0095073488
0.010000001 -0.17212968 0.006861317
-0.0097906571 -0.17103086 -0.0092354733
-0.0099999988 -0.17095652 -0.0069346684
-0.0099999988 -0.17073295 -0.005275242
-0.0099999998 -0.17133014 -0.0029580332
-0.0099999998 -0.17096584 -0.0010275232
-0.0099999988 -0.17086051 0.00084594748
-0.0099999988 -0.17126139 0.0030772153
-0.0099999988 -0.17098999 0.0051052407
-0.0099999988 -0.17090112 0.0069779148
-0.0095013725 -0.17093289 0.0094568999
-0.0090037426 -0.17095006 0.010000001
-0.0069799395 -0.171235 -0.0099999998
-0.0070035867 -0.17100397 0.0099999998
-0.0047934791 -0.17097074 -0.0099999988
-0.004958536 -0.17128749 0.0099999988
-0.0027786565 -0.17101578 -0.0099999988
-0.0032001447 -0.17090835 0.0099999998
-0.00093032618 -0.17114143 -0.0099999998
-0.0011975478 -0.17097884 0.0099999988
0.00094559282 -0.17097653 -0.0099999998
0.00087078859 -0.17125149 0.0099999988
0.0031087312 -0.17106114 -0.0099999988
0.0032253857 -0.17092596 0.0099999988
0.0045628878 -0.17150076 -0.0099999988
0.004921081 -0.17096275 0.0099999988
0.0074632587 -0.17142624 -0.0099999988
0.0067207431 -0.17137292 0.0099999998
0.0096147303 -0.17092101 -0.0092775589
0.0099999998 -0.17087525 -0.006884404
0.0099999988 -0.17077912 -0.0048087151
0.0099999998 -0.17085046 -0.002746471
0.0099999998 -0.17098117 -0.0013947712
0.0099999988 -0.17087065 0.0007949468
0.0099999988 -0.17102544 0.0026618086
0.0099999988 -0.17109261 0.0052135778
0.0099999988 -0.17118195 0.0070338142
0.0096031036 -0.17118157 0.0094738817
-0.0097164661 -0.16882692 -0.0093768835
-0.0099999998 -0.16858545 -0.0069885682
-0.0099999998 -0.16922809 -0.0049816957
-0.0099999988 -0.16906774 -0.0027389626
-0.0099999998 -0.16899493 -0.001016723
-0.0099999988 -0.16875273 0.0010499994
-0.0099999988 -0.16880202 0.002965108
-0.0099999998 -0.16922788 0.0055584749
-0.0099999988 -0.16885763 0.0069389828
-0.0096419556 -0.16902396 0.0094865169
-0.0069998186 -0.16910407 -0.0099999988
-0.0069790725 -0.16926342 0.0099999988
-0.0048691737 -0.16901083 -0.0099999988
-0.0052089314 -0.16888055 0.0099999998
-0.0028066442 -0.16870329 -0.0099999998
-0.002912527 -0.1689792 0.0099999998
-0.00086855004 -0.16875887 -0.0099999998
-0.0012794997 -0.16901267 0.0099999998
0.00099802716 -0.16890886 -0.0099999998
0.00084264629 -0.16906986 0.0099999988
0.0028822948 -0.16887106 -0.0099999988
0.0029033958 -0.1690142 0.0099999988
0.0049743098 -0.16894625 -0.0099999988
0.0047499291 -0.16905883 0.0099999988
0.0068716025 -0.16896078 -0.0099999988
0.0068758591 -0.16914707 0.0099999988
0.0097811017 -0.16892092 -0.0092969071
0.0099999988 -0.16915813 -0.0072411206
0.0099999998 -0.16903606 -0.0049242438
0.0099999998 -0.16890638 -0.0031527937
0.0099999998 -0.16874972 -0.00079029828
0.0099999988 -0.16868292 0.0010123452
0.0099999998 -0.16885002 0.0027841758
0.0099999998 -0.16914034 0.0050216159
0.0099999988 -0.16909847 0.0071847737
0.0094029773 -0.16910122 0.0095181242
-0.0096727237 -0.16699097 -0.0092799189
-0.0099999988 -0.16722502 -0.0072081555
-0.0099999988 -0.16715565 -0.0050004101
-0.0099999988 -0.1670841 -0.0029727751
-0.0099999998 -0.16688587 -0.00087502901
-0.0099999988 -0.16707999 0.00084184262
-0.0099999998 -0.16736722 0.0031793104
-0.0099999988 -0.16706353 0.004908693
-0.0099999988 -0.16694838 0.0069734706
-0.0096626151 -0.16694753 0.0091601517
-0.0072811595 -0.16694273 -0.0099999988
-0.0069087483 -0.16703032 0.0099999998
-0.0051933727 -0.16687629 -0.0099999988
-0.005137457 -0.16687374 0.0099999998
-0.0030327968 -0.1669919 -0.0099999988
-0.0030683991 -0.16700478 0.0099999988
-0.0014428091 -0.16693537 -0.0099999988
-0.0015866947 -0.16705218 0.0099999998
0.00099449081 -0.16684696 -0.0099999998
0.0010430323 -0.16692874 0.010000002
0.0029586228 -0.16707204 -0.0099999988
0.0026520423 -0.16694573 0.0099999998
0.0048505003 -0.16706155 -0.0099999988
0.0050242944 -0.16718586 0.0099999988
0.0073115565 -0.16719922 -0.0099999998
0.0070116678 -0.1671018 0.0099999988
0.0094458666 -0.16695435 -0.0096810721
0.0099999998 -0.16707687 -0.0071704425
0.0099999988 -0.16708641 -0.0048267599
0.0099999988 -0.16717307 -0.0033183419
0.0099999988 -0.16701739 -0.00090190198
0.0099999988 -0.16730051 0.0010298182
0.0099999988 -0.16709547 0.0028298604
0.0099999998 -0.16708086 0.0051103728
0.0099999988 -0.16681419 0.0069321035
0.0093585243 -0.16704197 0.0094513139
0.009923514 -0.16629486 0.010000001
0.010000001 -0.16756341 -0.0099370861
-0.0096205166 -0.16488302 -0.0095507521
-0.0099999998 -0.16519943 -0.0071889455
-0.0099999988 -0.16514084 -0.0049379976
-0.0099999988 -0.16472676 -0.0033740678
-0.0099999988 -0.1654838 -0.0011556443
-0.0099999998 -0.16503973 0.0011502951
-0.0099999988 -0.16513491 0.0029588304
-0.0099999998 -0.16519792 0.0053011375
-0.0099999988 -0.16531155 0.0074358345
-0.0094324118 -0.16483991 0.009526005
-0.0070081032 -0.16492648 -0.0099999988
-0.0067044781 -0.16506803 0.0099999998
-0.0073401537 -0.16457091 0.010000001
-0.0048687616 -0.16504015 -0.0099999988
-0.0051257103 -0.16496442 0.0099999988
-0.0030320529 -0.16521573 -0.0099999998
-0.0028777786 -0.16510083 0.0099999988
-0.00089950132 -0.16499719 -0.0099999988
-0.0010184231 -0.16479273 0.0099999998
0.00092296384 -0.16493334 -0.010000001
0.001158698 -0.16502936 0.0099999988
0.0030916687 -0.16495094 -0.0099999988
0.0032180881 -0.16519712 0.010000002
0.0050675641 -0.16492872 -0.0099999988
0.0049742931 -0.16472158 0.0099999998
0.0069946516 -0.16499572 -0.0099999998
0.0068948483 -0.16484666 0.0099999988
0.009526127 -0.16516332 -0.0096592261
0.0099999988 -0.16481483 -0.0071813599
0.0099999988 -0.16524905 -0.0047846287
0.0099999988 -0.16502665 -0.0030855392
0.0099999988 -0.16476801 -0.00085580314
0.0099999998 -0.16508073 0.00056250155
0.0099999988 -0.16469482 0.0032129078
0.0099999998 -0.16496511 0.0049235332
0.0099999998 -0.1651334 0.0074535883
0.009487804 -0.16486245 0.0094842333
0.0098674055 -0.16509877 0.010000001
-0.0095518278 -0.16290371 -0.0093313996
-0.0099999988 -0.16307537 -0.0071623633
-0.0099999988 -0.16267584 -0.0050988542
-0.0099999988 -0.16269748 -0.0029737232
-0.0099999988 -0.16296634 -0.00090634957
-0.0099999988 -0.16305977 0.0012194306
-0.0099999988 -0.1629556 0.0029388263
-0.0099999998 -0.16280028 0.0049072867
-0.0099999998 -0.16326827 0.0068641957
-0.0095358035 -0.16315092 0.0096149081
-0.0093433447 -0.16312057 0.010000001
-0.0070312428 -0.16266415 -0.0099999988
-0.0072294795 -0.16291134 0.0099999988
-0.0049327407 -0.16287549 -0.0099999988
-0.0051710121 -0.16320291 0.0099999988
-0.0030587008 -0.16292256 -0.010000001
-0.0030219553 -0.16337448 0.0099999988
-0.00108161 -0.16331212 -0.0099999998
-0.00080776046 -0.16316406 0.0099999988
0.00093148008 -0.16267474 -0.0099999988
0.00084180589 -0.16295642 0.0099999998
0.0030188917 -0.16296121 -0.0099999988
0.0032290402 -0.16299705 0.0099999988
0.0049355119 -0.16298708 -0.0099999988
0.0052083405 -0.16293827 0.0099999988
0.0068365061 -0.1630239 -0.0099999988
0.0073311334 -0.16292998 0.0099999998
0.0097478405 -0.16299629 -0.0093509872
0.0099999998 -0.16274023 -0.0064643295
0.0099999988 -0.16327831 -0.004636379
0.0099999988 -0.16294073 -0.0030172644
0.0099999998 -0.16295736 -0.0010718957
0.0099999998 -0.16292039 0.00095222081
0.0099999988 -0.16297525 0.002843817
0.0099999988 -0.16301422 0.0051296665
0.0099999998 -0.16325179 0.0069000204
0.0095775621 -0.16285019 0.0093071274
-0.0094017573 -0.16099784 -0.0094866697
-0.0099999988 -0.1608005 -0.0071461317
-0.0099999998 -0.16095132 -0.0048521459
-0.0099999998 -0.16103582 -0.0031430738
-0.0099999988 -0.16114961 -0.0011425304
-0.0099999988 -0.16079462 0.00093866244
-0.0099999988 -0.16128728 0.0031496496
-0.0099999988 -0.16075319 0.0050019738
-0.0099999988 -0.16094577 0.0068019326
-0.0095849046 -0.16116312 0.0095058111
-0.0066904789 -0.1610693 -0.0099999988
-0.0071649905 -0.16085416 0.0099999988
-0.004624411 -0.16067418 -0.0099999998
-0.0054338858 -0.16068454 0.0099999998
-0.0032280541 -0.16101256 -0.0099999998
-0.0031279407 -0.1612815 0.0099999998
-0.001115273 -0.16109243 -0.010000001
-0.0010519854 -0.16085246 0.0099999988
0.0010708494 -0.16100752 -0.0099999988
0.0010194087 -0.16113663 0.0099999988
0.0030129093 -0.16094327 -0.0099999988
0.0029909452 -0.16074689 0.0099999988
0.0048779752 -0.1609156 -0.0099999988
0.0051647723 -0.16100205 0.0099999988
0.0072434335 -0.16083895 -0.0099999988
0.0070135146 -0.161195 0.0099999998
0.0095580406 -0.16105728 -0.0094249714
0.0099999988 -0.16084789 -0.0069586723
0.0099999988 -0.1610208 -0.0050001536
0.0099999988 -0.16110134 -0.0030426916
0.0099999988 -0.16102615 -0.00084986578
0.0099999988 -0.16103306 0.00094699598
0.0099999988 -0.1610796 0.0030129296
0.0099999998 -0.16103171 0.0051229806
0.0099999988 -0.16107464 0.0071987691
0.0095742103 -0.16088681 0.0096058846
0.010000001 -0.16072935 0.0088334838
-0.0092779184 -0.15891832 -0.0096701188
-0.0099999988 -0.15903442 -0.0071324687
-0.0099999988 -0.15885673 -0.0049131922
-0.0099999988 -0.15882774 -0.0028089089
-0.0099999998 -0.15914524 -0.0010870636
-0.0099999988 -0.15908502 0.00088329316
-0.0099999988 -0.15938017 0.0031533667
-0.0099999988 -0.15887856 0.0049268631
-0.0099999998 -0.15895054 0.006900697
-0.0091975518 -0.15898517 0.0096943527
-0.0072769467 -0.15887205 -0.0099999988
-0.0069680749 -0.15912773 0.0099999988
-0.0049648373 -0.15884231 -0.0099999988
-0.0049583572 -0.15915351 0.0099999988
-0.0031376097 -0.15857755 -0.0099999988
-0.0029733491 -0.15925094 0.0099999998
-0.00096919137 -0.15933983 -0.0099999988
-0.00080172054 -0.15910804 0.0099999988
0.00089123799 -0.15934481 -0.0099999998
0.00098285102 -0.15902689 0.0099999988
0.0030924983 -0.158915 -0.0099999998
0.0027868771 -0.15912302 0.0099999998
0.0048731929 -0.15915361 -0.0099999998
0.0050953696 -0.15905319 0.0099999988
0.0071532857 -0.15875615 -0.0099999988
0.0071406825 -0.15901862 0.0099999988
0.0095656086 -0.15906836 -0.0095907431
0.0099999998 -0.15900126 -0.0071165259
0.0099999988 -0.15915759 -0.004803136
0.0099999988 -0.15890794 -0.0029529291
0.0099999988 -0.15906681 -0.0010171079
0.0099999988 -0.15939394 0.0012791774
0.0099999988 -0.15888466 0.0033386815
0.0099999988 -0.15863276 0.004958008
0.0099999988 -0.15884541 0.0071170456
0.0095117735 -0.15915397 0.0095293475
0.010000001 -0.15870535 0.007685842
0.010000001 -0.15910858 0.0084741898
-0.0094868029 -0.15707049 -0.0093788849
-0.0099999988 -0.15714531 -0.0072484869
-0.0099999998 -0.15700072 -0.0051441849
-0.0099999998 -0.15703775 -0.0032973201
-0.0099999998 -0.15693262 -0.0011202346
-0.0099999988 -0.15703814 0.00096390716
-0.0099999988 -0.15700699 0.0028816951
-0.0099999998 -0.15691073 0.0048465901
-0.0099999988 -0.15728402 0.0068493402
-0.0093840724 -0.15714258 0.0095824795
-0.0094154999 -0.15714604 0.010000001
-0.0068068109 -0.15695718 -0.0099999988
-0.0075512063 -0.15699998 0.0099999998
-0.0046370826 -0.15683654 -0.0099999988
-0.0049296687 -0.15713041 0.0099999988
-0.0027719203 -0.15721475 -0.0099999988
-0.0030102478 -0.15696618 0.0099999998
-0.0010624533 -0.15723929 -0.0099999988
-0.0010209501 -0.1571444 0.0099999998
0.0012374785 -0.15702081 -0.0099999998
0.0011512582 -0.15685751 0.0099999988
0.0028006609 -0.15702085 -0.0099999988
0.0032028644 -0.15669806 0.0099999988
0.0050333613 -0.15696438 -0.0099999998
0.0055724876 -0.15655524 0.0099999998
0.0073796995 -0.15677735 -0.0099999988
0.0071610347 -0.15686889 0.0099999988
0.0094174379 -0.15716757 -0.0095543908
0.0099999998 -0.15699719 -0.0068961121
0.0099999988 -0.15686592 -0.0048777331
0.0099999988 -0.15668686 -0.0029844695
0.0099999998 -0.15681598 -0.0012169901
0.0099999988 -0.15737182 0.00097857311
0.0099999998 -0.15721066 0.0031715119
0.0099999998 -0.15714788 0.0048158518
0.0099999988 -0.156996 0.0067916941
0.0094314301 -0.15706813 0.0097095612
-0.0094787786 -0.15514041 -0.0095499549
-0.0099999998 -0.15505844 -0.0069760429
-0.0099999988 -0.15534984 -0.0052644019
-0.0099999988 -0.15530476 -0.0032415171
-0.0099999988 -0.15538378 -0.0007163274
-0.0099999988 -0.154852 0.0011683425
-0.0099999988 -0.155008 0.0029098922
-0.0099999998 -0.15506719 0.0052447361
-0.0099999988 -0.15498519 0.0070956913
-0.009485051 -0.15479808 0.0095006358
-0.0072271773 -0.15499941 -0.0099999988
-0.0066877203 -0.15507104 0.0099999988
-0.0053250408 -0.15506321 -0.0099999988
-0.0046978812 -0.15509978 0.0099999998
-0.00292827 -0.15491487 -0.0099999988
-0.0026955167 -0.15493083 0.0099999988
-0.0010788685 -0.15502928 -0.0099999988
-0.00052607246 -0.15510249 0.0099999988
0.00091836759 -0.15502061 -0.0099999988
0.0010607986 -0.15496209 0.0099999998
0.0029330933 -0.15511709 -0.0099999988
0.0029043078 -0.15470679 0.0099999988
0.0049694721 -0.15512669 -0.0099999988
0.0051978133 -0.15486974 0.0099999988
0.0071493499 -0.1548506 -0.0099999988
0.0067620422 -0.15483147 0.0099999988
0.0094995946 -0.15521646 -0.0097025204
0.0099999998 -0.15472111 -0.0069262972
0.0099999998 -0.15455587 -0.0050703622
0.0099999988 -0.15546647 -0.003077205
0.0099999998 -0.15502083 -0.00097429426
0.0099999988 -0.15485948 0.00087033317
0.0099999988 -0.15478253 0.003073504
0.0099999998 -0.15520884 0.0051391539
0.0099999988 -0.15519132 0.0070095528
0.0095707551 -0.15493532 0.0094929989
-0.0094380202 -0.15293759 -0.0096137282
-0.0099999988 -0.1532764 -0.0071915528
-0.0099999998 -0.15293792 -0.0049029957
-0.0099999988 -0.15291654 -0.0028225482
-0.0099999998 -0.15279883 -0.00084694556
-0.0099999998 -0.15272419 0.00092132407
-0.0099999988 -0.1530886 0.0032548138
-0.0099999988 -0.15306583 0.0054141632
-0.0099999988 -0.15316308 0.0075348988
-0.0093958369 -0.15320046 0.0097296368
-0.0065135295 -0.15338385 -0.0099999988
-0.007009916 -0.15319531 0.0099999988
-0.0077425642 -0.15328312 0.010000001
-0.0046899035 -0.15303825 -0.0099999998
-0.0049131615 -0.15297572 0.0099999988
-0.0028587962 -0.15263884 -0.0099999998
-0.0029329406 -0.1530818 0.0099999988
-0.0011413237 -0.1529803 -0.0099999988
-0.000882703 -0.1528379 0.0099999998
0.00068290398 -0.15298094 -0.0099999988
0.0011625865 -0.15295313 0.0099999988
0.0031243053 -0.15265718 -0.0099999988
0.003235678 -0.15317795 0.0099999988
0.0049767406 -0.15281749 -0.0099999998
0.0050899442 -0.15307039 0.0099999988
0.0069358628 -0.15299636 -0.0099999988
0.0072432854 -0.15311199 0.0099999998
0.0092022885 -0.15296347 -0.0098240077
0.0099999988 -0.15285225 -0.0071121147
0.0099999988 -0.15284377 -0.0048594875
0.0099999988 -0.15304704 -0.0028856564
0.0099999988 -0.15335792 -0.00063516578
0.0099999988 -0.15322345 0.0011279054
0.0099999988 -0.15313712 0.0032047599
0.0099999988 -0.15256147 0.0050188922
0.0099999998 -0.15305996 0.0073522553
0.0093010645 -0.15301463 0.0097090723
0.010000001 -0.15334101 0.008643466
-0.0096327346 -0.15109633 -0.0094013652
-0.0099999988 -0.15117744 -0.0070581487
-0.0099999998 -0.15093 -0.0052117542
-0.0099999988 -0.15107726 -0.002762157
-0.0099999998 -0.15090625 -0.00068868196
-0.0099999988 -0.150867 0.0008168323
-0.0099999988 -0.15127034 0.0027898534
-0.0099999988 -0.15096802 0.0051565641
-0.0099999988 -0.1511838 0.0066873529
-0.0096686482 -0.15106019 0.0094542224
-0.0069721192 -0.15092458 -0.0099999998
-0.0069877631 -0.1511149 0.0099999998
-0.0049800393 -0.15100677 -0.010000001
-0.005159256 -0.15101705 0.0099999988
-0.0030714187 -0.15110056 -0.010000001
-0.0029365506 -0.15087162 0.0099999998
-0.0011173945 -0.15098579 -0.0099999998
-0.00085787982 -0.15136325 0.0099999998
0.0012534751 -0.15108502 -0.0099999988
0.0009235671 -0.15114342 0.010000001
0.0032108193 -0.15103169 -0.0099999988
0.002983927 -0.15098329 0.0099999988
0.0048593404 -0.15101087 -0.0099999998
0.0051640691 -0.15060325 0.0099999988
0.0071098483 -0.15099828 -0.0099999988
0.0069344779 -0.15113765 0.0099999988
0.0095477318 -0.15103033 -0.0095955161
0.010000001 -0.15088189 -0.0068229833
0.0099999988 -0.15087903 -0.0051373588
0.0099999988 -0.15096703 -0.0033004805
0.0099999998 -0.15094513 -0.0011934389
0.0099999988 -0.15090334 0.0009586112
0.0099999998 -0.15112728 0.0028644113
0.0099999998 -0.15118074 0.0048651537
0.0099999998 -0.15109184 0.0070317686
0.0091809882 -0.15092751 0.0094653172
-0.0094360271 -0.14896032 -0.0095638279
-0.0099999988 -0.14908436 -0.0069194282
-0.0099999988 -0.14913866 -0.0051570307
-0.0099999988 -0.14893803 -0.002974005
-0.0099999988 -0.14926775 -0.0010351366
-0.0099999988 -0.14900082 0.0013094378
-0.0099999988 -0.14923865 0.0034517155
-0.0099999998 -0.14886452 0.0050308886
-0.0099999988 -0.14911571 0.0068097026
-0.0096730487 -0.14914466 0.0093019968
-0.0071337731 -0.14876574 -0.0099999988
-0.0070761275 -0.14905283 0.0099999988
-0.007765824 -0.14828433 0.010000001
-0.0050479821 -0.14887474 -0.0099999998
-0.0051271329 -0.14898373 0.0099999988
-0.0031659098 -0.14868358 -0.0099999998
-0.0030928422 -0.14889541 0.0099999988
-0.00091868883 -0.14879778 -0.0099999988
-0.0012908061 -0.14869457 0.0099999988
0.00090334303 -0.14890775 -0.0099999998
0.0010722735 -0.14930868 0.0099999998
0.0028443881 -0.14888731 -0.0099999998
0.0026699458 -0.14910492 0.0099999988
0.0049306322 -0.14907646 -0.0099999998
0.0054706624 -0.14859405 0.0099999998
0.0071109962 -0.14909308 -0.0099999988
0.0067982473 -0.14901955 0.0099999988
0.0094412221 -0.14890274 -0.0092257382
0.0099999998 -0.14889351 -0.0070195156
0.0099999998 -0.14893004 -0.0049297768
0.0099999988 -0.14912353 -0.0031527281
0.0099999998 -0.14902505 -0.0012521455
0.0099999988 -0.14900696 0.0011539512
0.0099999998 -0.14902686 0.00312353
0.0099999988 -0.14906037 0.0051621078
0.0099999988 -0.14896762 0.0070206709
0.0095845535 -0.14921673 0.0094909687
0.010000001 -0.14969295 0.0078175627
0.010000001 -0.1497336 0.0082954504
-0.0093283374 -0.1469423 -0.0095901787
-0.0099999988 -0.14708026 -0.0070072105
-0.0099999988 -0.14697091 -0.0050774007
-0.0099999998 -0.14659895 -0.003156658
-0.0099999998 -0.14710306 -0.0010762135
-0.0099999998 -0.14689681 0.00094997574
-0.0099999988 -0.14687638 0.0030508933
-0.0099999998 -0.14725851 0.0051730433
-0.0099999998 -0.14674287 0.0069831819
-0.009397543 -0.14717455 0.0094462009
-0.0066902647 -0.14686146 -0.0099999988
-0.0070564803 -0.14683565 0.0099999998
-0.004770197 -0.14720982 -0.0099999998
-0.0052383421 -0.14665617 0.0099999988
-0.0031067384 -0.14699951 -0.0099999988
-0.0027984779 -0.14685796 0.0099999998
-0.00085116661 -0.14662847 -0.0099999998
-0.0013070271 -0.14725426 0.0099999988
0.00099379162 -0.14644429 -0.0099999998
0.0010958704 -0.14695391 0.0099999998
0.0030872829 -0.14697 -0.0099999988
0.0032633599 -0.14681807 0.0099999988
0.0050035012 -0.14713469 -0.0099999988
0.0048803147 -0.14694257 0.0099999988
0.0069850408 -0.14720638 -0.0099999988
0.0070129451 -0.14703083 0.0099999988
0.0093210228 -0.14686899 -0.0095312148
0.0099999998 -0.14700174 -0.0069518946
0.0099999988 -0.14675884 -0.0045715952
0.0099999998 -0.14699416 -0.0025310162
0.010000001 -0.14701584 -0.00080238876
0.0099999998 -0.14720669 0.0010447657
0.0099999988 -0.14714569 0.002990748
0.0099999998 -0.14705545 0.0049070884
0.0099999988 -0.14704797 0.0071481336
0.0093439687 -0.14680876 0.009564939
-0.0090917693 -0.14473282 -0.0098036546
-0.0099999988 -0.14479338 -0.0070927921
-0.0099999988 -0.14494102 -0.0052122027
-0.0099999998 -0.14513719 -0.0028865894
-0.0099999998 -0.14528897 -0.0012979605
-0.0099999988 -0.1448725 0.00079929084
-0.0099999988 -0.14516109 0.0032122131
-0.0099999988 -0.14506176 0.0045862161
-0.0099999988 -0.14515254 0.0070023108
-0.0096328808 -0.14498135 0.0097368285
-0.0071259509 -0.14487007 -0.0099999988
-0.0069092144 -0.14521322 0.0099999988
-0.0051279888 -0.14509386 -0.0099999998
-0.0049756966 -0.14495945 0.0099999988
-0.003017759 -0.14469129 -0.0099999998
-0.0030692494 -0.14476764 0.0099999988
-0.00091315369 -0.1449502 -0.0099999988
-0.00097866659 -0.14479573 0.0099999998
0.001025273 -0.14502296 -0.0099999988
0.001272978 -0.14488249 0.0099999988
0.0027970739 -0.14514215 -0.0099999988
0.0027607772 -0.14477178 0.0099999998
0.0050338851 -0.14473675 -0.0099999998
0.0049822447 -0.14528325 0.0099999988
0.007354971 -0.14523068 -0.0099999998
0.0069413097 -0.14501897 0.0099999988
0.0093981773 -0.14488688 -0.0095588258
0.0099999988 -0.1452605 -0.0070854742
0.0099999998 -0.14462201 -0.0050710291
0.0099999988 -0.14510322 -0.003044684
0.0099999988 -0.1452675 -0.00062975532
0.0099999998 -0.1451297 0.00056048547
0.010000001 -0.145007 0.0031377955
0.0099999988 -0.14483759 0.0051974733
0.0099999988 -0.14505553 0.006883055
0.0093500633 -0.14474688 0.0096556293
-0.0095817782 -0.14300254 -0.0094019007
-0.0099999988 -0.14303429 -0.0069859503
-0.0099999998 -0.14280316 -0.0049223118
-0.0099999988 -0.14349872 -0.002829181
-0.0099999988 -0.14336799 -0.00080710894
-0.0099999988 -0.14262457 0.0010729465
-0.0099999988 -0.1430454 0.003116417
-0.0099999988 -0.14309679 0.0051861219
-0.0099999988 -0.14283915 0.0070109651
-0.0093810307 -0.14294647 0.0095098261
-0.0070838351 -0.14328881 -0.0099999988
-0.0066939318 -0.1432831 0.0099999988
-0.0048565301 -0.14290628 -0.0099999998
-0.0048761172 -0.14315626 0.0099999998
-0.0027881595 -0.14263211 -0.0099999998
-0.0028701152 -0.14290266 0.0099999998
-0.0014026279 -0.14294522 -0.0099999988
-0.0009005341 -0.14326416 0.0099999988
0.0010888049 -0.14307563 -0.0099999998
0.00082543417 -0.14291449 0.0099999988
0.0028274981 -0.14282085 -0.0099999998
0.0031967722 -0.14270858 0.0099999988
0.0049345293 -0.14321063 -0.0099999988
0.0049082898 -0.14294438 0.0099999998
0.0068893367 -0.14298514 -0.0099999998
0.0073099057 -0.14288056 0.0099999998
0.009387712 -0.14300823 -0.009763605
0.0099999998 -0.143264 -0.006849899
0.0099999998 -0.14286515 -0.0049079498
0.0099999988 -0.14304231 -0.0030253842
0.0099999988 -0.1429307 -0.00078114134
0.0099999998 -0.1427345 0.00081872928
0.0099999988 -0.14290538 0.002573486
0.0099999988 -0.14280036 0.0049013393
0.0099999988 -0.1429621 0.0068981391
0.0091991788 -0.14294696 0.0095334826
-0.0094992416 -0.14080657 -0.0092989411
-0.0099999998 -0.14149737 -0.0069661825
-0.0099999988 -0.14107627 -0.0049529593
-0.0099999998 -0.14125933 -0.0028933177
-0.010000001 -0.14104044 -0.00069186732
-0.0099999988 -0.14096966 0.0011046585
-0.0099999988 -0.14134336 0.0027648832
-0.0099999998 -0.1410092 0.0047583263
-0.0099999988 -0.14070529 0.0069442354
-0.0096254544 -0.14096543 0.0094424905
-0.0069406237 -0.14077124 -0.0099999998
-0.0069982898 -0.14087839 0.0099999988
-0.0047564846 -0.14125656 -0.0099999988
-0.0049387394 -0.14122081 0.0099999998
-0.0025610712 -0.1411193 -0.0099999998
-0.0032676628 -0.14090815 0.0099999988
-0.00092344522 -0.14115241 -0.0099999998
-0.001065982 -0.14091274 0.0099999988
0.0010805954 -0.14079872 -0.0099999998
0.0010788614 -0.14083643 0.0099999988
0.0030359793 -0.14094587 -0.0099999988
0.0029946063 -0.14126924 0.0099999988
0.0049880855 -0.14085007 -0.0099999988
0.0050776559 -0.1410047 0.0099999988
0.0071205464 -0.14111535 -0.0099999998
0.0070493673 -0.14106202 0.0099999998
0.009410575 -0.14114177 -0.009668353
0.0099999988 -0.14086553 -0.0069696615
0.0099999988 -0.1410109 -0.0049257078
0.0099999988 -0.14099379 -0.0032463532
0.0099999998 -0.14103176 -0.0010011408
0.0099999988 -0.14092168 0.0010644243
0.0099999988 -0.14108767 0.0028270115
0.0099999998 -0.1411382 0.0048852689
0.0099999998 -0.14092553 0.0069419406
0.0093201892 -0.14088407 0.0097543569
0.010000001 -0.1413745 -0.0075421338
-0.0093453415 -0.13882793 -0.0096582146
-0.010000002 -0.13911073 -0.0072146705
-0.0099999988 -0.13922603 -0.004985048
-0.0099999988 -0.1392743 -0.0029168655
-0.0099999988 -0.13908283 -0.001161747
-0.0099999998 -0.13916057 0.0013191927
-0.0099999988 -0.13900514 0.0027107939
-0.0099999998 -0.13914007 0.004897973
-0.0099999998 -0.13902614 0.0071240775
-0.009535877 -0.13889244 0.0095328027
-0.0068405853 -0.1386507 -0.0099999988
-0.0068714432 -0.13908526 0.0099999988
-0.0050656339 -0.13897452 -0.0099999998
-0.0048636026 -0.1388184 0.0099999988
-0.003039706 -0.13906017 -0.0099999988
-0.0026741801 -0.13907871 0.0099999988
-0.0010583407 -0.13918662 -0.0099999988
-0.0011268338 -0.13911022 0.0099999998
0.0014223746 -0.13902122 -0.0099999988
0.0006576447 -0.13882011 0.0099999988
0.0032777593 -0.13857143 -0.0099999988
0.0030515706 -0.13916191 0.0099999988
0.0048790886 -0.13903353 -0.0099999988
0.0051217792 -0.13893472 0.0099999988
0.0071380306 -0.13901839 -0.0099999998
0.0070482451 -0.13909353 0.0099999998
0.0092250807 -0.13870069 -0.0096140895
0.0099999988 -0.13883437 -0.0070466795
0.0099999988 -0.13919635 -0.005288003
0.0099999998 -0.13898674 -0.0031066379
0.0099999988 -0.13926457 -0.00094062486
0.0099999988 -0.1391698 0.00092570839
0.0099999988 -0.13872594 0.0029044063
0.0099999998 -0.13862194 0.0054932917
0.0099999998 -0.13925658 0.0069742925
0.0095601454 -0.139107 0.0093654469
-0.0093182875 -0.13690972 -0.009624714
-0.0099999988 -0.13670884 -0.0071348571
-0.0099999988 -0.13701054 -0.0048067351
-0.0099999998 -0.13696356 -0.0028384335
-0.0099999998 -0.13689558 -0.00087931607
-0.0099999998 -0.13728034 0.00083006424
-0.0099999998 -0.13709828 0.003118562
-0.0099999988 -0.13694306 0.0050644018
-0.0099999988 -0.13687518 0.0069671436
-0.009461835 -0.13704622 0.009514397
-0.006997251 -0.13698289 -0.0099999988
-0.0073190117 -0.1370295 0.0099999988
-0.0048947209 -0.13708903 -0.0099999998
-0.0053212363 -0.13683152 0.0099999988
-0.0030850433 -0.13685465 -0.0099999988
-0.0030122721 -0.1369233 0.0099999988
-0.0011287924 -0.13706732 -0.0099999998
-0.0015582042 -0.13707232 0.0099999988
0.001123974 -0.13688721 -0.0099999998
0.0010723952 -0.13706727 0.0099999998
0.0029422953 -0.13666883 -0.0099999988
0.0028567826 -0.13706717 0.0099999988
0.0047312123 -0.1370406 -0.0099999988
0.0049291262 -0.13712721 0.0099999988
0.0069638528 -0.13681901 -0.0099999988
0.0067866887 -0.13660677 0.0099999988
0.009478882 -0.13702074 -0.0096218698
0.0099999998 -0.136618 -0.0069808634
0.0099999998 -0.13709491 -0.0048378385
0.0099999988 -0.13715875 -0.0031426214
0.0099999998 -0.13684574 -0.00094436592
0.0099999988 -0.13687958 0.0012122758
0.0099999998 -0.13705336 0.002666817
0.0099999988 -0.13720897 0.0050771297
0.0099999988 -0.13703759 0.0071281269
0.0097174589 -0.1366853 0.0093906708
-0.0094496338 -0.13498746 -0.009241079
-0.0099999988 -0.13514148 -0.0068566217
-0.0099999988 -0.13499109 -0.0050110915
-0.0099999988 -0.13484216 -0.0031017137
-0.0099999998 -0.13509771 -0.00085520762
-0.0099999998 -0.13495788 0.00091572932
-0.0099999988 -0.13497917 0.0029418108
-0.0099999988 -0.13509117 0.0051550963
-0.0099999998 -0.13468552 0.0071249139
-0.0096183904 -0.13507295 0.0092079621
-0.0066700522 -0.13501993 -0.0099999988
-0.0069580213 -0.13490313 0.0099999988
-0.0051737651 -0.13487801 -0.0099999998
-0.0051301443 -0.13495451 0.0099999988
-0.0027707431 -0.13496865 -0.0099999988
-0.0031035063 -0.13513067 0.0099999988
-0.00087779918 -0.13498585 -0.0099999988
-0.0011641663 -0.13490956 0.0099999988
0.0010488138 -0.1348213 -0.0099999988
0.0012450161 -0.13496999 0.0099999998
0.0029967304 -0.13480264 -0.0099999998
0.002886632 -0.13479424 0.0099999988
0.0050625042 -0.13519976 -0.0099999998
0.004939571 -0.13493021 0.0099999998
0.0069323764 -0.13512261 -0.0099999988
0.0071178186 -0.13517264 0.0099999988
0.0095059425 -0.13494749 -0.0096726716
0.0099999988 -0.1348819 -0.0071169059
0.0099999988 -0.13468848 -0.0053548226
0.0099999988 -0.13487835 -0.0033462734
0.0099999988 -0.13523203 -0.00074585725
0.0099999988 -0.13521391 0.00104497
0.0099999988 -0.1352766 0.0031456314
0.0099999988 -0.13487765 0.0048504253
0.0099999998 -0.13541225 0.006676191
0.0095772874 -0.13492063 0.0094071226
0.0080261538 -0.13580403 0.010000001
-0.0094446773 -0.13280673 -0.0094619384
-0.0099999988 -0.13294186 -0.0070499121
-0.0099999998 -0.13291998 -0.005023242
-0.0099999988 -0.13303867 -0.0030578545
-0.0099999988 -0.13313234 -0.00066394522
-0.0099999988 -0.13279223 0.0009955453
-0.0099999998 -0.13308649 0.0031858245
-0.0099999988 -0.13285238 0.0052517303
-0.0099999988 -0.13290662 0.006780142
-0.0092749801 -0.13312367 0.0096011516
-0.0067574303 -0.13300149 -0.0099999988
-0.007066736 -0.13305016 0.0099999988
-0.0049160859 -0.13294125 -0.0099999988
-0.0050464533 -0.13306139 0.0099999998
-0.0030351728 -0.1328955 -0.0099999998
-0.0029645953 -0.13278638 0.0099999988
-0.00093052164 -0.13333124 -0.0099999998
-0.0012091226 -0.13271141 0.0099999988
0.00084236788 -0.13304545 -0.0099999998
0.001005151 -0.13268633 0.0099999988
0.0029090387 -0.13265887 -0.0099999988
0.0031772319 -0.1329319 0.0099999988
0.0048479913 -0.13312666 -0.0099999998
0.0049556256 -0.13285121 0.0099999998
0.0067404089 -0.1330214 -0.0099999988
0.0067738527 -0.13306499 0.0099999988
0.0092502255 -0.13297771 -0.0095991325
0.0099999998 -0.13323936 -0.0071888021
0.0099999988 -0.13321544 -0.0048615364
0.0099999998 -0.13332614 -0.0027819858
0.0099999998 -0.13340467 -0.0010171818
0.0099999988 -0.13293158 0.0008002196
0.0099999988 -0.13313825 0.0032223761
0.0099999988 -0.13318548 0.0049054008
0.0099999988 -0.13310771 0.0068085655
0.0095951259 -0.13298441 0.009335625
-0.0095468918 -0.13079023 -0.0094601447
-0.0099999988 -0.13086323 -0.0069748047
-0.0099999988 -0.13079935 -0.0051161768
-0.0099999988 -0.13111101 -0.0029245671
-0.0099999988 -0.13061288 -0.0010534085
-0.0099999988 -0.13111986 0.0014073587
-0.0099999988 -0.13111778 0.0030850032
-0.0099999988 -0.1309558 0.0049146605
-0.0099999988 -0.13104817 0.0072174347
-0.0097206924 -0.13066058 0.0094711939
-0.0074588102 -0.13101403 -0.0099999988
-0.0070041018 -0.13081145 0.0099999998
-0.0052774306 -0.13143522 -0.0099999988
-0.0052354666 -0.130895 0.0099999988
-0.0029472993 -0.13133508 -0.0099999998
-0.003053169 -0.1316254 0.0099999998
-0.001076167 -0.13127054 -0.0099999998
-0.0013598693 -0.13111351 0.0099999988
0.00092603714 -0.13107936 -0.0099999988
0.00081439235 -0.13061765 0.0099999988
0.002889548 -0.13102603 -0.0099999988
0.002778935 -0.13103458 0.0099999988
0.0047444166 -0.13086866 -0.0099999988
0.0047924216 -0.13081329 0.0099999998
0.0070707542 -0.13099192 -0.0099999988
0.0066864365 -0.13096146 0.0099999988
0.007779046 -0.13166457 0.010000001
0.0095289927 -0.13088696 -0.0094639882
0.0099999988 -0.13103876 -0.0067133238
0.0099999988 -0.13093178 -0.0050997073
0.0099999988 -0.13105524 -0.0032430454
0.0099999998 -0.13094345 -0.0010465835
0.0099999988 -0.13051465 0.0009092518
0.0099999998 -0.1309074 0.0029503023
0.0099999998 -0.13101943 0.0050355894
0.0099999988 -0.13086163 0.0072136344
0.0095663844 -0.13101317 0.0094663668
-0.0096885487 -0.12914409 -0.0093066674
-0.0099999988 -0.12917782 -0.0067930971
-0.0099999988 -0.12907697 -0.0052669439
-0.0099999998 -0.1289822 -0.0031499527
-0.0099999988 -0.12889281 -0.0010584074
-0.010000001 -0.12904799 0.0010128722
-0.0099999988 -0.12929741 0.0031043699
-0.0099999988 -0.12864728 0.0049400711
-0.0099999998 -0.12907134 0.0068483208
-0.0095756566 -0.12892537 0.0093399975
-0.0067406707 -0.12885383 -0.0099999998
-0.0072565316 -0.12849514 0.0099999988
-0.005129592 -0.12913567 -0.010000002
-0.0049593896 -0.12910868 0.0099999988
-0.0029678263 -0.12896839 -0.0099999998
-0.0031130065 -0.12896051 0.0099999998
-0.00087870529 -0.12903792 -0.0099999998
-0.00091608491 -0.12904696 0.0099999998
0.0009786709 -0.12896529 -0.0099999998
0.0011277108 -0.12900248 0.0099999988
0.0030021677 -0.12893787 -0.0099999998
0.0037029916 -0.12860021 0.0099999998
0.005189111 -0.12908897 -0.0099999998
0.0051060603 -0.12890662 0.0099999998
0.0071695615 -0.12885641 -0.0099999998
0.0069567156 -0.12934367 0.0099999998
0.0071145706 -0.12988746 0.010000001
0.0093945665 -0.12880148 -0.0095878625
0.0099999998 -0.12894423 -0.0071012094
0.0099999988 -0.12889448 -0.0048468765
0.0099999988 -0.12901936 -0.0031847523
0.0099999998 -0.12918231 -0.00088306225
0.0099999998 -0.12895676 0.0011046871
0.0099999998 -0.12900227 0.0028492108
0.0099999988 -0.12890665 0.0051057935
0.0099999998 -0.12911803 0.0075436062
0.0094848173 -0.12888749 0.0095246993
0.0084759463 -0.12911533 0.010000001
-0.0094267586 -0.12687631 -0.0096116439
-0.0099999988 -0.12737916 -0.0070515373
-0.0099999998 -0.127156 -0.0049510151
-0.0099999988 -0.12711792 -0.0031035398
-0.0099999988 -0.12711911 -0.00072250888
-0.0099999988 -0.12692969 0.0011520379
-0.0099999998 -0.12688331 0.0030132632
-0.0099999998 -0.12682676 0.0047543626
-0.0099999998 -0.12684044 0.006562083
-0.0092722252 -0.12725823 0.0098053589
-0.0069615375 -0.12690309 -0.0099999988
-0.0070910603 -0.12705399 0.0099999988
-0.004880371 -0.12684064 -0.0099999988
-0.0050425632 -0.12672758 0.0099999998
-0.0031276017 -0.12710054 -0.0099999988
-0.002883035 -0.1270044 0.0099999988
-0.001005434 -0.12688044 -0.0099999988
-0.0010174928 -0.12705126 0.0099999988
0.0010780173 -0.12696271 -0.0099999998
0.0011860389 -0.12697965 0.0099999988
0.0031752533 -0.12733595 -0.0099999988
0.0025601534 -0.12705554 0.0099999988
0.005146658 -0.12680417 -0.0099999988
0.0049124113 -0.12694426 0.0099999988
0.0071460134 -0.12703802 -0.010000001
0.0065750228 -0.12709261 0.0099999988
0.009520744 -0.12694374 -0.0096250474
0.0099999998 -0.12692986 -0.0070795668
0.0099999998 -0.12720135 -0.0045098248
0.0099999998 -0.12668553 -0.0030297199
0.0099999988 -0.1268225 -0.0010488622
0.0099999988 -0.12711693 0.0011592524
0.0099999988 -0.1272458 0.0028946728
0.0099999988 -0.12703751 0.0047495961
0.0099999998 -0.12705155 0.0071072802
0.0096386839 -0.12721795 0.0094813909
0.0085735573 -0.12725788 0.010000001
-0.0097172242 -0.12493439 -0.0093994439
-0.0099999988 -0.12491542 -0.0065493518
-0.0099999998 -0.1250196 -0.004941354
-0.0099999988 -0.12515683 -0.0030823036
-0.0099999998 -0.12524641 -0.00099511119
-0.0099999998 -0.12499475 0.0011344199
-0.0099999988 -0.12509048 0.002944557
-0.0099999988 -0.12496506 0.0053001279
-0.0099999998 -0.1251961 0.007072167
-0.0096041746 -0.12518899 0.0095505491
-0.0072261938 -0.12511966 -0.0099999988
-0.0071255774 -0.12502509 0.0099999988
-0.0047386675 -0.12508161 -0.0099999988
-0.0051432648 -0.12517229 0.0099999988
-0.0028374759 -0.12503749 -0.0099999988
-0.0030377361 -0.12502165 0.0099999988
-0.00089009531 -0.12523581 -0.0099999988
-0.00075664138 -0.12484235 0.0099999988
0.0010599482 -0.12497081 -0.0099999998
0.0011352279 -0.1251428 0.0099999988
0.0031766009 -0.12455685 -0.0099999998
0.0032040286 -0.12518668 0.0099999988
0.005018652 -0.12473248 -0.0099999988
0.0049759638 -0.12515612 0.0099999988
0.0070475098 -0.12497787 -0.0099999998
0.0069207428 -0.12492066 0.0099999988
0.0096153142 -0.12451746 -0.009353199
0.0099999988 -0.12484127 -0.0069685788
0.0099999988 -0.12448084 -0.0049646134
0.0099999998 -0.1250754 -0.0029519512
0.0099999988 -0.12519789 -0.0011158556
0.0099999998 -0.125453 0.0012048596
0.0099999988 -0.12516463 0.0029775016
0.0099999998 -0.12533602 0.0048321285
0.0099999988 -0.12494785 0.0069723511
0.0094903829 -0.12513021 0.0095992442
0.010000001 -0.12492184 -0.0082705477
-0.0095668528 -0.1231733 -0.0095591387
-0.0099999998 -0.12304273 -0.0068660676
-0.0099999988 -0.12290615 -0.0049260417
-0.0099999988 -0.12330429 -0.0027429275
-0.0099999988 -0.12302123 -0.0008455785
-0.0099999998 -0.12299772 0.0011849243
-0.0099999988 -0.12295608 0.0030504949
-0.0099999988 -0.12327356 0.0051291552
-0.0099999998 -0.12307145 0.0068199406
-0.009443868 -0.12301487 0.009688478
-0.00665606 -0.12290039 -0.0099999988
-0.0070799179 -0.12306913 0.0099999988
-0.0050265836 -0.12329064 -0.0099999988
-0.0050904811 -0.12317338 0.0099999988
-0.0031052022 -0.12295509 -0.0099999998
-0.0027843397 -0.12342491 0.0099999998
-0.00087847991 -0.12296947 -0.0099999998
-0.0011322557 -0.12318277 0.0099999988
0.00076409994 -0.12305232 -0.0099999988
0.0010138816 -0.12295189 0.0099999988
0.0028479784 -0.12299732 -0.0099999988
0.0032626381 -0.12298977 0.0099999998
0.0049851546 -0.12295455 -0.0099999988
0.0052630487 -0.12344026 0.0099999988
0.0072695911 -0.12301608 -0.0099999988
0.0071065822 -0.1231939 0.0099999988
0.007003461 -0.12352416 0.010000001
0.0096199876 -0.12303122 -0.0092937145
0.0099999998 -0.12319987 -0.0070819152
0.0099999988 -0.12299707 -0.0050538792
0.0099999988 -0.12288867 -0.0029867932
0.0099999988 -0.12317548 -0.00089357671
0.0099999998 -0.12280325 0.0009232809
0.0099999988 -0.12296869 0.0031700397
0.0099999988 -0.12332499 0.005033101
0.0099999988 -0.12315099 0.0068390248
0.0096990364 -0.12298924 0.0096283127
0.0093258414 -0.12239315 0.010000001
-0.0093741613 -0.12087977 -0.0095184306
-0.0099999998 -0.12054584 -0.0063607669
-0.0099999998 -0.12126336 -0.0049727792
-0.0099999988 -0.12071003 -0.0027867511
-0.0099999988 -0.12109202 -0.00071907596
-0.0099999988 -0.12102945 0.0012077423
-0.0099999988 -0.12099062 0.003032743
-0.0099999998 -0.1212022 0.0049975142
-0.0099999998 -0.12117048 0.0068121618
-0.0093352012 -0.12108069 0.0095332023
-0.0068197353 -0.12080267 -0.0099999988
-0.0069227782 -0.12069466 0.0099999998
-0.0046319193 -0.12099389 -0.0099999998
-0.0051237764 -0.1208935 0.0099999988
-0.0031786682 -0.12096331 -0.0099999998
-0.0026719354 -0.12114299 0.0099999998
-0.00079380424 -0.12111397 -0.0099999988
-0.00092509802 -0.12087888 0.0099999988
0.00080202066 -0.12100692 -0.0099999988
0.0006056187 -0.1208789 0.0099999988
0.0029318747 -0.12113085 -0.0099999988
0.0027134493 -0.12097942 0.0099999998
0.004815402 -0.12113822 -0.0099999988
0.004856152 -0.12105288 0.0099999988
0.006986822 -0.12115397 -0.0099999988
0.0067529581 -0.1210755 0.0099999998
0.0098443469 -0.12105629 -0.0092168534
0.0099999998 -0.12112695 -0.0067773787
0.0099999998 -0.12110598 -0.0050953659
0.0099999988 -0.12111881 -0.0031191118
0.0099999988 -0.12128983 -0.00096625293
0.0099999988 -0.12110776 0.0011500777
0.0099999988 -0.12097992 0.003061977
0.0099999988 -0.1212154 0.0051090219
0.0099999998 -0.12076041 0.0074481945
0.0095711444 -0.12093963 0.0093142251
-0.009382165 -0.11906102 -0.0095861172
-0.0099999998 -0.11916292 -0.0066268495
-0.0099999988 -0.11906868 -0.0049542757
-0.0099999988 -0.1190605 -0.0030250165
-0.0099999988 -0.11878759 -0.0009246355
-0.0099999998 -0.11893238 0.0016123692
-0.0099999988 -0.11874028 0.0029574297
-0.0099999998 -0.11883334 0.0050631957
-0.0099999988 -0.11920355 0.0068314513
-0.0093359342 -0.11905109 0.0095721399
-0.006793858 -0.11915679 -0.0099999988
-0.00725256 -0.11913463 0.0099999988
-0.0047669047 -0.11892067 -0.0099999988
-0.0050387699 -0.11897089 0.0099999988
-0.0028990826 -0.11904835 -0.0099999988
-0.0028875929 -0.11919725 0.0099999988
-0.0010838974 -0.11907816 -0.0099999988
-0.0010342092 -0.11903254 0.0099999988
0.0010581329 -0.11911332 -0.0099999988
0.001048559 -0.11889683 0.0099999998
0.0031925368 -0.1188906 -0.0099999988
0.0029997935 -0.11877983 0.0099999988
0.0050127259 -0.11885075 -0.0099999998
0.0050141839 -0.11885355 0.0099999998
0.0066957688 -0.11881288 -0.0099999998
0.0069576739 -0.11919827 0.0099999998
0.0097499918 -0.1188126 -0.0095590707
0.0099999998 -0.1190625 -0.0068669808
0.0099999998 -0.11889324 -0.0050675734
0.0099999988 -0.1191678 -0.0028221519
0.0099999988 -0.11849955 -0.00065604236
0.0099999988 -0.11906867 0.00095331843
0.0099999988 -0.11918868 0.0033444907
0.0099999988 -0.11904233 0.0050251447
0.0099999988 -0.11892889 0.006628619
0.009692003 -0.11900892 0.0095326947
0.0081438348 -0.11852115 0.010000001
0.010000001 -0.11959659 -0.0090029174
0.010000001 -0.11815399 -0.0077824811
-0.0094633289 -0.11709744 -0.0094881114
-0.0099999998 -0.11712401 -0.0066858334
-0.0099999988 -0.11704158 -0.0047873794
-0.0099999988 -0.11705589 -0.0031680176
-0.0099999988 -0.11698337 -0.00097703724
-0.0099999998 -0.11683495 0.0012946592
-0.0099999998 -0.11696959 0.0031238457
-0.0099999988 -0.11701025 0.0050900835
-0.0099999998 -0.11732129 0.0067589818
-0.0094133932 -0.11716747 0.0094071692
-0.0069017624 -0.11686295 -0.0099999988
-0.0071113943 -0.11718168 0.0099999988
-0.0053207166 -0.1167957 -0.0099999988
-0.0046205721 -0.11691853 0.0099999988
-0.0033715204 -0.1171992 -0.0099999988
-0.0029380072 -0.11683228 0.0099999988
-0.001212907 -0.11701003 -0.0099999988
-0.00086581742 -0.1177128 0.0099999998
0.0010005345 -0.11679032 -0.0099999988
0.0012222382 -0.11683239 0.0099999988
0.0025540439 -0.11723404 -0.0099999988
0.0025462161 -0.11674774 0.0099999988
0.0050454163 -0.11694211 -0.0099999988
0.0049323984 -0.11704787 0.010000001
0.0069090757 -0.11710669 -0.0099999988
0.0070247161 -0.1170183 0.0099999988
0.0094484705 -0.11698601 -0.0095971813
0.0099999998 -0.11714976 -0.0071150442
0.0099999988 -0.11680748 -0.0050240932
0.0099999988 -0.11689448 -0.0033476881
0.0099999988 -0.11739133 -0.0012359661
0.0099999998 -0.11728527 0.0013029561
0.0099999998 -0.11714765 0.0029127712
0.0099999988 -0.1169097 0.0049121007
0.0099999988 -0.11675272 0.0071819425
0.0094106551 -0.11673588 0.00958852
0.0097202873 -0.1170165 0.010000001
0.010000001 -0.11710727 -0.0072828811
-0.0095430911 -0.11514509 -0.0094778556
-0.0099999988 -0.11499745 -0.0070462446
-0.0099999988 -0.11483957 -0.0050196256
-0.0099999988 -0.11488977 -0.0028726545
-0.0099999988 -0.11503839 -0.0012132976
-0.0099999998 -0.11477534 0.00084913429
-0.0099999988 -0.11490708 0.0029946088
-0.0099999988 -0.11476813 0.0051848073
-0.0099999988 -0.11492609 0.0071941945
-0.0095776431 -0.11520626 0.0096445279
-0.007039492 -0.11479026 -0.0099999988
-0.006745676 -0.11476757 0.0099999988
-0.0050754398 -0.11486552 -0.0099999998
-0.005142367 -0.11513784 0.0099999988
-0.0027546403 -0.11487813 -0.0099999988
