# .PCD v0.7 - Point Cloud Data file format
VERSION 0.7
FIELDS x y z
SIZE 4 4 4
TYPE F F F
COUNT 1 1 1
WIDTH 1219
HEIGHT 1
VIEWPOINT 0 0 0 1 0 0 0
POINTS 1219
DATA ascii
-0.0010279636 -0.083015881 0.010000001
0.00080713618 -0.083072186 -0.010000001
0.0009245784 -0.082839526 0.010000001
0.0028978011 -0.083075702 -0.010000001
0.0029224206 -0.082909584 0.010000002
0.0051772138 -0.082999028 -0.010000001
0.0050973925 -0.083072774 0.010000001
0.0058488874 -0.082288884 0.010000001
0.0069524324 -0.083014034 -0.010000002
0.0069681997 -0.083061755 0.010000001
0.0076521426 -0.083135016 0.010000001
0.0095243249 -0.082963474 -0.0094850976
0.0099999998 -0.083302446 -0.0070093083
0.0099999988 -0.082947411 -0.0049381196
0.0099999979 -0.082823433 -0.0028525728
0.0099999979 -0.082984306 -0.00095278217
0.010000001 -0.083112285 0.0010178792
0.010000001 -0.0828925 0.0028615694
0.0099999998 -0.08299084 0.0048670359
0.010000001 -0.083083548 0.0070160092
0.0095684063 -0.083010912 0.0094712432
0.010000001 -0.083563112 0.0069232355
0.010000001 -0.082489841 0.0090047996
-0.0093058627 -0.080895752 -0.0097291907
-0.0099999988 -0.080882721 -0.0069306269
-0.0099999988 -0.081056647 -0.0050591719
-0.010000001 -0.080906756 -0.0029692384
-0.010000001 -0.081147991 -0.0011015747
-0.010000002 -0.081007518 0.00096661225
-0.0099999988 -0.081081472 0.0031192105
-0.010000002 -0.08109656 0.0052430937
-0.010000001 -0.080977947 0.0069642174
-0.0092526646 -0.080841191 0.0096179387
-0.0069025895 -0.081059553 -0.0099999988
-0.0070745046 -0.081002459 0.0099999979
-0.0050037778 -0.081072837 -0.010000001
-0.0052883583 -0.080996096 0.010000002
-0.0030053705 -0.081191048 -0.010000001
-0.0029106098 -0.081093632 0.010000002
-0.00080317754 -0.080968469 -0.010000001
-0.0011181151 -0.080967017 0.010000001
0.0010552555 -0.081178635 -0.0099999988
0.00097268657 -0.080976218 0.010000002
0.0027660453 -0.080853172 -0.010000001
0.0031652823 -0.080912843 0.010000002
0.0037207932 -0.08181148 0.010000001
0.0050149881 -0.080993332 -0.0099999988
0.0048016519 -0.081060879 0.010000001
0.0053830119 -0.080767736 0.010000001
0.0070978366 -0.081128016 -0.010000002
0.0067806649 -0.080791652 0.010000001
0.0095095392 -0.081005 -0.0093871877
0.010000002 -0.080984019 -0.0069983294
0.010000001 -0.080838054 -0.0050050574
0.010000001 -0.080959976 -0.0029182041
0.010000001 -0.080877624 -0.0011768936
0.010000001 -0.080851555 0.00085281389
0.010000001 -0.081045419 0.0028256816
0.010000001 -0.080964126 0.0050426149
0.010000001 -0.081192508 0.0070007076
0.0095887426 -0.081161365 0.0094565256
0.010000001 -0.080619335 0.0072714961
0.010000001 -0.080525488 0.0091901934
-0.0095525067 -0.079020277 -0.0094015552
-0.010000001 -0.078968577 -0.007066641
-0.010000001 -0.079263702 -0.0049682939
-0.010000002 -0.078999683 -0.0031257111
-0.0099999998 -0.079099268 -0.00091146328
-0.010000002 -0.079070926 0.00096419209
-0.010000001 -0.078998558 0.0028741271
-0.010000001 -0.078820691 0.004721676
-0.0099999979 -0.079053827 0.0067581423
-0.0097106667 -0.078978173 0.0093637053
-0.0068994905 -0.078931354 -0.010000001
-0.0069267927 -0.079193905 0.010000002
-0.0048706294 -0.079011507 -0.0099999998
-0.0050400398 -0.079054996 0.010000001
-0.0029542497 -0.079193488 -0.010000002
-0.0028246895 -0.079090446 0.010000002
-0.001002996 -0.07880158 -0.010000002
-0.00092045736 -0.079078421 0.010000002
0.00098264986 -0.079058379 -0.0099999988
0.0012279714 -0.078989014 0.010000002
0.0028749059 -0.07919018 -0.010000001
0.0029890973 -0.079008996 0.0099999998
0.00476408 -0.078931317 -0.010000001
0.0051482604 -0.079032414 0.010000001
0.0046952656 -0.079461008 0.010000001
0.0073238742 -0.079328783 -0.010000002
0.0070264828 -0.079143897 0.0099999988
0.0094595756 -0.078884535 -0.009572044
0.0099999979 -0.079191029 -0.0069680489
0.0099999988 -0.078954615 -0.0050046346
0.010000001 -0.078952648 -0.0029081744
0.010000001 -0.078962281 -0.0011091381
0.010000002 -0.079105392 0.00088109699
0.010000001 -0.07909894 0.0030708467
0.0099999998 -0.07894358 0.0051004989
0.010000002 -0.078942828 0.0069959685
0.0093590263 -0.078912638 0.0095806587
0.010000001 -0.079872929 0.0074894703
0.010000001 -0.07868278 0.0089309802
-0.0094098765 -0.077052675 -0.0097330566
-0.010000002 -0.07716658 -0.0071221562
-0.0099999979 -0.076914959 -0.005049983
-0.0099999988 -0.076895542 -0.002941763
-0.010000001 -0.077111296 -0.00086379482
-0.010000002 -0.076975442 0.0010599877
-0.0099999988 -0.077119067 0.0030494092
-0.0099999988 -0.076975189 0.0049283532
-0.010000002 -0.076918542 0.0070269257
-0.0093822991 -0.076960437 0.0095786173
-0.0069763241 -0.077137671 -0.010000001
-0.0069867619 -0.076810859 0.0099999998
-0.0051050824 -0.076921031 -0.010000001
-0.0051536974 -0.077009074 0.0099999988
-0.0029470767 -0.076935805 -0.0099999979
-0.0030044739 -0.076943703 0.010000002
-0.001249257 -0.076747216 -0.010000002
-0.0010378588 -0.077003092 0.010000002
0.001054709 -0.076976322 -0.0099999998
0.00096530374 -0.076996125 0.010000002
0.0031090092 -0.077085994 -0.010000001
0.002808898 -0.077046327 0.010000001
0.0051871226 -0.07710395 -0.010000001
0.0049301269 -0.077018946 0.010000001
0.0046279067 -0.076630443 0.010000001
0.0070963595 -0.076750062 -0.0099999988
0.0071815341 -0.076942839 0.0099999998
0.0095442552 -0.076928556 -0.0094427355
0.0099999988 -0.077081315 -0.0068614502
0.0099999988 -0.077209592 -0.0051146476
0.010000002 -0.077016369 -0.0029311245
0.010000001 -0.076768741 -0.00086730777
0.010000001 -0.076974303 0.00095048972
0.010000002 -0.077055909 0.0031383766
0.010000001 -0.076920353 0.0048296759
0.010000001 -0.077286944 0.0069850758
0.0095569482 -0.077048264 0.0095297797
0.010000001 -0.07718461 0.0075704316
0.010000001 -0.077202812 0.0088618398
-0.0097430171 -0.074920736 -0.009413573
-0.010000003 -0.074918568 -0.0069756806
-0.010000001 -0.0748633 -0.0051335292
-0.0099999998 -0.074745707 -0.0030516188
-0.010000001 -0.07485386 -0.00089358474
-0.0099999988 -0.074810535 0.00099607708
-0.0099999988 -0.075112447 0.0030939442
-0.010000001 -0.075018063 0.0050187213
-0.010000002 -0.075102642 0.0070723663
-0.0094985906 -0.074959099 0.0094924811
-0.007015673 -0.074903004 -0.010000002
-0.0068318406 -0.075094886 0.0099999979
-0.0048682657 -0.074978106 -0.0099999998
-0.0049841097 -0.075177148 0.010000001
-0.0029962875 -0.07499788 -0.0099999988
-0.0029596589 -0.074857973 0.009999997
-0.00088322599 -0.075030044 -0.010000001
-0.0012966018 -0.075050265 0.010000002
0.0008519488 -0.075017922 -0.0099999979
0.00083389768 -0.074895203 0.010000001
0.0031188498 -0.075043604 -0.0099999979
0.0029221759 -0.075035229 0.0099999988
0.0027604813 -0.074707597 0.010000001
0.0048371311 -0.07499171 -0.0099999988
0.0051795305 -0.07513392 0.010000002
0.0072108018 -0.075013101 -0.010000002
0.0070983022 -0.074975088 0.0099999988
0.0093642436 -0.075028941 -0.0096700322
0.0099999988 -0.074992433 -0.0069875563
0.010000002 -0.075036816 -0.0050856303
0.0099999979 -0.075050011 -0.0030829015
0.010000002 -0.075002775 -0.00092831231
0.010000001 -0.074818961 0.0010029235
0.010000001 -0.075003266 0.0030055102
0.010000001 -0.074880108 0.0049010827
0.010000002 -0.074895278 0.00686569
0.0095011694 -0.074828051 0.0096252058
0.010000001 -0.075410068 0.0093337148
-0.0094498191 -0.07292898 -0.0095015308
-0.0099999998 -0.072940417 -0.007154278
-0.010000002 -0.073017634 -0.0051966435
-0.010000001 -0.073049024 -0.0031503264
-0.010000001 -0.073015511 -0.00099174958
-0.010000002 -0.073021539 0.0010680213
-0.010000001 -0.073162809 0.0031742407
-0.010000002 -0.072933331 0.004871049
-0.0099999988 -0.072869994 0.0068687624
-0.0096779335 -0.073125929 0.0095134135
-0.0070502539 -0.073061615 -0.0099999988
-0.0069678663 -0.073335409 0.010000001
-0.0049582254 -0.073093668 -0.010000001
-0.0052751163 -0.07307326 0.0099999998
-0.0031036336 -0.072973929 -0.0099999979
-0.0031213441 -0.073096931 0.0099999988
-0.0010330204 -0.072794437 -0.0099999988
-0.0011471356 -0.072959743 0.0099999998
0.00096637243 -0.072989687 -0.0099999988
0.00088999735 -0.073026896 0.010000002
0.0028718624 -0.073014282 -0.010000001
0.0028133907 -0.072920248 0.0099999979
0.0030030806 -0.073973529 0.010000001
0.0051643848 -0.07295274 -0.010000001
0.0050855423 -0.072980344 0.0099999988
0.0068974798 -0.0728352 -0.010000001
0.0067870934 -0.072976895 0.010000002
0.0094984295 -0.072926424 -0.0095561305
0.010000001 -0.072931044 -0.0071152421
0.010000002 -0.073024988 -0.0049654702
0.010000001 -0.072960496 -0.0029667038
0.010000001 -0.073024742 -0.0010277699
0.010000001 -0.073065259 0.0010288775
0.010000001 -0.073045731 0.0029966035
0.010000002 -0.073019683 0.0049116253
0.010000001 -0.072787583 0.0069538145
0.0093999431 -0.073005565 0.0095216194
0.010000001 -0.072955929 0.0072720679
0.010000001 -0.073181406 0.0084112231
-0.009482028 -0.070876703 -0.009473417
-0.010000001 -0.071165979 -0.0070109456
-0.0099999998 -0.071000047 -0.0049164942
-0.010000002 -0.070912041 -0.002966966
-0.010000001 -0.071189798 -0.0010045066
-0.010000002 -0.07096222 0.0011145857
-0.010000002 -0.071068451 0.0028582874
-0.010000001 -0.07120388 0.0048652808
-0.010000001 -0.070812337 0.0070277834
-0.0095846206 -0.070977494 0.0094745765
-0.0071715568 -0.071000099 -0.0099999979
-0.0068338183 -0.07102143 0.010000002
-0.0049965126 -0.071056977 -0.010000002
-0.0048713661 -0.071148522 0.010000001
-0.0031385503 -0.070634872 -0.010000001
-0.0029846097 -0.071121722 0.0099999998
-0.0009498538 -0.071021043 -0.0099999988
-0.00092927006 -0.071046501 0.0099999998
0.00098126649 -0.071107768 -0.0099999979
0.00089007814 -0.07083606 0.010000001
0.0030425275 -0.071050614 -0.0099999988
0.0029509151 -0.070907883 0.010000002
0.0032240991 -0.070856087 0.010000001
0.0051107933 -0.07121297 -0.0099999998
0.0050517553 -0.070856191 0.010000001
0.006756274 -0.07091058 -0.010000002
0.0070405933 -0.07105051 0.010000001
0.0094153453 -0.071048133 -0.0093753161
0.0099999998 -0.071062878 -0.0069611142
0.0099999998 -0.070912555 -0.0048824069
0.010000002 -0.071022868 -0.00298191
0.010000001 -0.071012422 -0.00095998647
0.010000001 -0.071089752 0.0010275883
0.010000002 -0.071119338 0.0028323666
0.0099999988 -0.071114525 0.0047627147
0.010000002 -0.07108213 0.0068030241
0.0095642908 -0.0711376 0.0094348118
0.010000001 -0.070524588 0.0080745565
-0.0093896687 -0.069019407 -0.0095686084
-0.010000001 -0.068865977 -0.0068879253
-0.010000002 -0.069071174 -0.0049928981
-0.010000001 -0.069113806 -0.0030431699
-0.010000001 -0.068874963 -0.00079913466
-0.010000002 -0.068916097 0.00095171155
-0.0099999988 -0.068928912 0.0029444906
-0.010000002 -0.06911771 0.0049263635
-0.010000001 -0.068916552 0.0071774288
-0.0095325774 -0.069049172 0.0094924401
-0.0070810756 -0.06905809 -0.0099999998
-0.0068761753 -0.069050558 0.0099999998
-0.0050404277 -0.069007881 -0.010000001
-0.0050548003 -0.069006324 0.010000001
-0.0030145831 -0.069167666 -0.010000001
-0.0030628864 -0.06889049 0.010000001
-0.001047158 -0.068853907 -0.010000001
-0.00098633592 -0.069112979 0.0099999988
0.00092792872 -0.068938233 -0.010000001
0.00083938887 -0.069060542 0.010000001
0.0029922628 -0.069014065 -0.010000001
0.0032060994 -0.069004595 0.010000001
0.003255198 -0.069596589 0.010000001
0.0049092225 -0.068932451 -0.010000002
0.0052270675 -0.069025479 0.010000001
0.0069934838 -0.069151036 -0.010000001
0.0069294837 -0.068976618 0.010000002
0.0094185676 -0.068838574 -0.009501948
0.010000001 -0.069206096 -0.0070012556
0.010000001 -0.069042601 -0.0050003822
0.010000002 -0.069150269 -0.0026770197
0.0099999998 -0.069041818 -0.00096497365
0.0099999998 -0.068985499 0.00096623978
0.010000002 -0.069011539 0.0029918458
0.010000002 -0.069075219 0.0050092363
0.010000002 -0.069152102 0.00711763
0.0096330391 -0.068842836 0.0094699552
0.010000001 -0.069189169 -0.008748333
-0.0094882613 -0.067024142 -0.0095154811
-0.010000003 -0.067034602 -0.0070158951
-0.010000002 -0.066755638 -0.0048887292
-0.010000002 -0.067251705 -0.0029906223
-0.010000002 -0.066951737 -0.00093597296
-0.010000002 -0.066992529 0.00079466321
-0.010000002 -0.066924527 0.0030815322
-0.0099999988 -0.067037396 0.0048988634
-0.010000001 -0.066970356 0.0069007315
-0.0096869413 -0.066984065 0.0093411477
-0.0067142881 -0.067009382 -0.010000001
-0.0068784966 -0.067027129 0.010000002
-0.0048679332 -0.066953018 -0.010000001
-0.0049479757 -0.067038819 0.010000001
-0.0028409478 -0.066911288 -0.0099999979
-0.0030629947 -0.066915683 0.0099999979
-0.00104642 -0.067088902 -0.010000001
-0.0011322381 -0.067130543 0.010000001
0.0010222822 -0.067118235 -0.010000002
0.00081665546 -0.067029431 0.0099999988
0.0030222142 -0.067063183 -0.0099999998
0.0029270065 -0.067028798 0.0099999998
0.003489557 -0.067611612 0.010000001
0.0049490961 -0.06701123 -0.0099999979
0.0050426773 -0.066992618 0.0099999988
0.0069115325 -0.067154571 -0.010000002
0.0069759791 -0.067093424 0.0099999988
0.0093330508 -0.067116976 -0.0095508639
0.010000001 -0.067036353 -0.0069138133
0.010000002 -0.067068741 -0.0051127733
0.010000002 -0.066795714 -0.0030205115
0.0099999979 -0.067085572 -0.00074947573
0.010000001 -0.067045912 0.0010770981
0.010000002 -0.067177765 0.0029997882
0.010000002 -0.067148834 0.0048998031
0.0099999998 -0.066813268 0.0071087657
0.0095407553 -0.066992313 0.0094112139
0.010000001 -0.06752 0.0078214072
0.010000001 -0.066597819 0.0094903205
-0.0095140683 -0.065027885 -0.0095808478
-0.0099999988 -0.065214463 -0.0070160227
-0.010000002 -0.065002419 -0.0051291087
-0.010000002 -0.065101691 -0.0031695247
-0.010000001 -0.065085515 -0.00084272498
-0.010000001 -0.064887926 0.0011639034
-0.010000001 -0.064999193 0.0030999004
-0.0099999998 -0.065110728 0.0049327812
-0.010000002 -0.065052189 0.0067731547
-0.0094554806 -0.065105751 0.0094420174
-0.006919371 -0.064966738 -0.010000001
-0.0070310347 -0.065160371 0.0099999988
-0.0049889316 -0.065035261 -0.0099999979
-0.0050925878 -0.064952597 0.010000002
-0.0031308201 -0.065223195 -0.010000001
-0.0028542238 -0.064933434 0.010000001
-0.001113756 -0.065208495 -0.010000001
-0.0010390644 -0.065237939 0.010000001
0.00091536407 -0.065120935 -0.010000001
0.00092985091 -0.064830907 0.0099999988
0.0029113577 -0.065132082 -0.0099999988
0.0030246072 -0.065116301 0.010000001
0.0048569478 -0.06491863 -0.0099999979
0.0050921147 -0.064969815 0.0099999988
0.0068299361 -0.065031931 -0.010000001
0.0070462478 -0.065053023 0.0099999988
0.0095606837 -0.065089181 -0.0094840499
0.010000002 -0.06516622 -0.0070408243
0.0099999979 -0.064936124 -0.0051162881
0.0099999979 -0.064810149 -0.0029817896
0.010000001 -0.065029554 -0.00092818
0.0099999988 -0.064855203 0.00095515727
0.010000001 -0.065288171 0.0028112647
0.010000001 -0.065112375 0.0050554592
0.010000002 -0.064863659 0.0069442187
0.009520554 -0.065109842 0.0095453924
0.010000001 -0.065171324 0.0084331091
-0.0093160514 -0.063149199 -0.0096565187
-0.010000001 -0.06304013 -0.0071653635
-0.010000002 -0.062835991 -0.005160707
-0.010000002 -0.063115351 -0.0030085093
-0.0099999979 -0.063145012 -0.00094618596
-0.0099999979 -0.062830426 0.00073183508
-0.0099999998 -0.062882856 0.0027010243
-0.010000001 -0.063168623 0.0050083711
-0.010000001 -0.063066401 0.0070305392
-0.009516025 -0.062989444 0.0094845761
-0.0070505119 -0.062895529 -0.010000002
-0.0071119079 -0.062907368 0.010000001
-0.0048280237 -0.063073002 -0.010000001
-0.0049760384 -0.062927656 0.0099999998
-0.0030952643 -0.063114867 -0.010000001
-0.0029210274 -0.062986448 0.0099999979
-0.0011665522 -0.062892303 -0.0099999998
-0.0011465854 -0.063037351 0.010000001
0.0011312448 -0.062832475 -0.010000001
0.0010009652 -0.062773049 0.0099999988
0.0029300197 -0.062979497 -0.0099999998
0.0030415691 -0.062932171 0.0099999988
0.005070183 -0.063097566 -0.010000001
0.0050387657 -0.063029565 0.0099999988
0.0069658533 -0.062985674 -0.0099999988
0.0071660704 -0.062973432 0.0099999988
0.0093042767 -0.0629308 -0.0096486602
0.010000001 -0.062847905 -0.0069593936
0.010000001 -0.063103341 -0.0049257022
0.010000002 -0.062940486 -0.002912449
0.010000002 -0.063041039 -0.0010013095
0.010000001 -0.063006058 0.00090283464
0.0099999998 -0.062973715 0.0028969715
0.010000001 -0.06295535 0.0049731024
0.010000002 -0.063067615 0.0070998813
0.0095831724 -0.062957495 0.0093816975
-0.0094308667 -0.060958412 -0.0096053276
-0.010000003 -0.061100975 -0.0068911696
-0.010000001 -0.061053172 -0.0049785697
-0.0099999998 -0.060908712 -0.0031033503
-0.0099999998 -0.060977645 -0.0009848912
-0.010000001 -0.060936838 0.00094718963
-0.0099999988 -0.061001252 0.0029971646
-0.0099999998 -0.060906429 0.0049181925
-0.0099999988 -0.060921676 0.0069299955
-0.0095483223 -0.061004218 0.0094641922
-0.007058091 -0.060863189 -0.010000001
-0.0070136879 -0.061074954 0.0099999988
-0.0049191532 -0.060978036 -0.010000002
-0.0048965043 -0.060915586 0.010000002
-0.0029027262 -0.060942821 -0.010000002
-0.0027935163 -0.06085927 0.010000002
-0.0010710638 -0.061025109 -0.010000002
-0.0010987835 -0.060912788 0.010000002
0.00085580937 -0.060853135 -0.010000002
0.0010604464 -0.061000582 0.009999997
0.0031600131 -0.060971014 -0.010000001
0.0030199746 -0.061113324 0.010000001
0.0048628971 -0.061147641 -0.010000002
0.0050673611 -0.060994823 0.010000001
0.0068393298 -0.060916703 -0.0099999979
0.0069930395 -0.061000355 0.0099999998
0.0095203463 -0.061149824 -0.0094787972
0.0099999998 -0.061081905 -0.0071659386
0.0099999998 -0.06089941 -0.0047603734
0.010000001 -0.06116851 -0.0030012622
0.010000002 -0.060936145 -0.00089925574
0.0099999988 -0.060973957 0.0011087927
0.0099999979 -0.061063342 0.0032519097
0.0099999998 -0.060985383 0.0050296574
0.0099999988 -0.060910907 0.0069227736
0.0094019091 -0.060935993 0.0095922137
0.010000001 -0.060578816 0.0075721331
-0.0094286837 -0.059088115 -0.0095582427
-0.010000002 -0.058940083 -0.0069868234
-0.0099999979 -0.059190106 -0.0049767769
-0.010000001 -0.05909479 -0.003002998
-0.010000001 -0.058847308 -0.0010689405
-0.010000001 -0.058904298 0.00080597325
-0.0099999998 -0.058959693 0.0029177184
-0.010000002 -0.05902838 0.0050595002
-0.010000001 -0.058825318 0.0068540233
-0.0095109222 -0.059073534 0.009582934
-0.0070287175 -0.058994249 -0.010000002
-0.0069951853 -0.058863282 0.010000001
-0.0050067855 -0.058936629 -0.0099999988
-0.0048504267 -0.05904796 0.0099999979
-0.0028823377 -0.059124958 -0.010000002
-0.0030792186 -0.058946759 0.010000002
-0.0011138006 -0.059013441 -0.010000001
-0.0008911537 -0.05898083 0.010000002
0.00096058677 -0.059046596 -0.010000001
0.0010654536 -0.059046648 0.010000001
0.0015850728 -0.058327224 0.010000001
0.0032606774 -0.059008859 -0.010000002
0.0031391587 -0.058902543 0.010000002
0.0020823972 -0.058398761 0.010000001
0.0047627934 -0.058984842 -0.010000001
0.0052434034 -0.059181895 0.010000002
0.0069337883 -0.059100024 -0.0099999979
0.0069147791 -0.05900332 0.010000001
0.0094155641 -0.059092607 -0.0094923023
0.0099999998 -0.059079025 -0.0071091396
0.010000002 -0.058892198 -0.0051391781
0.010000001 -0.059149794 -0.0031404877
0.010000001 -0.059087437 -0.0011625489
0.0099999988 -0.059163142 0.00096517918
0.0099999998 -0.058963068 0.0029021476
0.010000002 -0.059073269 0.0048456462
0.0099999998 -0.059113521 0.0069738748
0.0095132636 -0.05901951 0.0095284348
0.010000001 -0.058989517 0.0076604215
0.010000001 -0.058057632 0.0099057015
-0.0093899313 -0.057004996 -0.0094961766
-0.010000002 -0.057079997 -0.0070341602
-0.010000002 -0.056938291 -0.005028436
-0.010000002 -0.0570185 -0.0028912264
-0.0099999988 -0.057201143 -0.001171294
-0.0099999979 -0.057075705 0.00096711772
-0.0099999988 -0.056986339 0.0031494736
-0.0099999998 -0.057039581 0.0049046935
-0.010000001 -0.056836553 0.0070894067
-0.0094838478 -0.057043038 0.0094133979
-0.0068762191 -0.057023026 -0.010000001
-0.0070265555 -0.05719221 0.010000001
-0.0051123435 -0.057142418 -0.010000002
-0.0050297645 -0.056880824 0.0099999979
-0.0029294901 -0.057004754 -0.0099999988
-0.0029188502 -0.057181582 0.010000001
-0.00090641109 -0.056963772 -0.010000001
-0.0010546297 -0.05711098 0.010000001
0.00098973501 -0.057070829 -0.010000002
0.0013572054 -0.056901313 0.010000001
0.0030223015 -0.057215068 -0.010000001
0.0028685753 -0.056906138 0.0099999988
0.0048409253 -0.056864899 -0.010000002
0.0049806749 -0.057188559 0.0099999998
0.0071571511 -0.057085022 -0.010000002
0.0066992017 -0.056806929 0.010000002
0.0095173717 -0.057104692 -0.0095448652
0.010000001 -0.056880545 -0.0071005202
0.010000001 -0.056935865 -0.0050220024
0.010000002 -0.056905881 -0.0030446157
0.010000001 -0.056980271 -0.00099226681
0.0099999998 -0.056978665 0.0011370364
0.010000002 -0.056960322 0.0029407097
0.010000001 -0.057119634 0.0049975337
0.010000002 -0.056993775 0.006955266
0.0094049508 -0.057052486 0.0095338039
-0.0094445804 -0.054951053 -0.0094827143
-0.0099999988 -0.055135135 -0.0070275669
-0.0099999988 -0.055072974 -0.0051945918
-0.010000001 -0.05499531 -0.0031072046
-0.010000001 -0.054991212 -0.0012474398
-0.010000001 -0.054958776 0.0010675832
-0.010000001 -0.05504632 0.0030918831
-0.010000001 -0.054876849 0.005028069
-0.010000003 -0.054972783 0.0070068217
-0.0093595171 -0.054973833 0.0095877545
-0.0070344009 -0.055046506 -0.010000002
-0.0068534925 -0.055076577 0.010000001
-0.0050767763 -0.054902118 -0.010000001
-0.0051273089 -0.055317085 0.010000002
-0.0029897413 -0.054931536 -0.010000001
-0.0030437268 -0.054961834 0.0099999988
-0.00096891908 -0.054994203 -0.010000001
-0.0010873518 -0.055073697 0.010000001
0.00095637608 -0.055150289 -0.010000002
0.0010139209 -0.05492096 0.0099999998
0.0029009655 -0.055263706 -0.010000001
0.0031097576 -0.054943088 0.010000001
0.00490192 -0.054847166 -0.010000001
0.0048336484 -0.055129666 0.0099999998
0.0068112854 -0.054939989 -0.010000001
0.0071173469 -0.054841343 0.0099999988
0.0095826453 -0.055058584 -0.009539729
0.010000002 -0.055031106 -0.0069656442
0.009999997 -0.055021938 -0.0049760076
0.0099999988 -0.054875977 -0.0029008591
0.0099999998 -0.05492831 -0.00099475379
0.0099999998 -0.054955769 0.0010517009
0.010000002 -0.054852873 0.0029675125
0.010000002 -0.054972138 0.0050335107
0.010000001 -0.054903407 0.0069458364
0.0094917612 -0.055037238 0.0095213
-0.009416406 -0.053202227 -0.0095374566
-0.0099999988 -0.053154416 -0.0069860113
-0.010000002 -0.05314479 -0.0050797183
-0.010000002 -0.052981623 -0.0029648126
-0.0099999988 -0.052988309 -0.0011017249
-0.010000001 -0.052814733 0.0011189305
-0.010000001 -0.052930083 0.0030949214
-0.010000001 -0.053077094 0.0050294553
-0.0099999988 -0.053003661 0.007206277
-0.0094490116 -0.052967824 0.009487208
-0.007071218 -0.052991837 -0.010000001
-0.007082934 -0.053018525 0.010000001
-0.0050509064 -0.052984212 -0.010000002
-0.0051830709 -0.053099241 0.010000002
-0.0030690117 -0.053100016 -0.0099999998
-0.0030151724 -0.052981302 0.010000001
-0.0010915592 -0.053002447 -0.010000001
-0.00084212772 -0.052893594 0.0099999998
0.00099999446 -0.05296557 -0.010000001
0.0010884117 -0.053055737 0.0099999961
0.0030583276 -0.05299937 -0.010000001
0.0031318669 -0.052831654 0.0099999988
0.0048050932 -0.052905206 -0.0099999998
0.0053293947 -0.052930001 0.0099999988
0.0069364677 -0.052873559 -0.009999997
0.0070738518 -0.052809309 0.0099999998
0.0095182341 -0.053045224 -0.0093617272
0.010000001 -0.053031769 -0.0070411609
0.010000001 -0.053231616 -0.0050111334
0.010000001 -0.052983686 -0.0028114389
0.010000001 -0.052883856 -0.00090820686
0.010000001 -0.053242452 0.0008650237
0.010000002 -0.053074993 0.0029055772
0.010000001 -0.052753687 0.0048539625
0.010000002 -0.052832268 0.0068742661
0.0094912853 -0.053136569 0.0095405327
-0.0094643403 -0.051043317 -0.0096065011
-0.010000002 -0.050900787 -0.0071810111
-0.010000002 -0.05098037 -0.0050827619
-0.010000002 -0.050801005 -0.0030198409
-0.010000002 -0.050905909 -0.0010958938
-0.010000002 -0.051042028 0.00084269379
-0.010000002 -0.050876062 0.0030359235
-0.010000001 -0.050876033 0.0049521625
-0.010000001 -0.050892588 0.0068518165
-0.0096023418 -0.050977863 0.0095420452
-0.0072306194 -0.051017087 -0.010000002
-0.0070621595 -0.051016368 0.010000001
-0.0050874231 -0.050873056 -0.0099999988
-0.0049772686 -0.05079709 0.0099999998
-0.0030592282 -0.051133018 -0.010000002
-0.002939888 -0.050966617 0.0099999988
-0.0010490521 -0.051082771 -0.0099999979
-0.0011410376 -0.05112759 0.010000001
0.00092880346 -0.050932091 -0.009999997
0.0010497778 -0.050941762 0.010000001
0.0029142632 -0.05109347 -0.0099999988
0.0031570899 -0.051071499 0.0099999998
0.005169387 -0.051045459 -0.010000002
0.0051980549 -0.051119968 0.010000002
0.007054958 -0.051020335 -0.0099999988
0.0069895498 -0.051136579 0.010000002
0.0095030135 -0.051006284 -0.0095229344
0.010000002 -0.051222239 -0.0069453525
0.0099999988 -0.050845835 -0.0049899542
0.0099999998 -0.050823633 -0.0030412616
0.0099999988 -0.051001411 -0.0011533345
0.010000001 -0.05107528 0.0007817939
0.010000001 -0.050874289 0.0029891639
0.010000001 -0.051065341 0.0051631876
0.010000001 -0.051053304 0.0068389373
0.0095181111 -0.051043481 0.0094531002
-0.0095999921 -0.049068775 -0.0094585437
-0.010000001 -0.048920579 -0.0071357624
-0.0099999988 -0.0489121 -0.00498719
-0.0099999998 -0.048930183 -0.0029158618
-0.010000002 -0.049080905 -0.0011578482
-0.0099999998 -0.049057402 0.0011372438
-0.0099999988 -0.04902561 0.0031937417
-0.010000001 -0.049087491 0.0048535415
-0.010000002 -0.048949406 0.0070942221
-0.0096042436 -0.048953176 0.0095083509
-0.0070238761 -0.048991174 -0.010000003
-0.0069414093 -0.04907516 0.010000002
-0.004781581 -0.048935983 -0.0099999979
-0.004983536 -0.048825964 0.010000002
-0.0029418028 -0.049106997 -0.0099999988
-0.0030323372 -0.048783179 0.010000002
-0.00095115846 -0.049076062 -0.010000001
-0.00091365975 -0.048870947 0.010000001
0.0010008649 -0.048980542 -0.0099999979
0.0010282394 -0.048856992 0.010000002
0.0031792058 -0.049034279 -0.0099999988
0.0029383728 -0.048938833 0.010000002
0.0050723949 -0.048897896 -0.010000002
0.004988546 -0.048935782 0.0099999998
0.0071797529 -0.048873499 -0.010000002
0.007056593 -0.048985463 0.0099999979
0.0094568804 -0.04907373 -0.0095204217
0.0099999988 -0.049060948 -0.0070569809
0.0099999979 -0.04885719 -0.0049993778
0.010000001 -0.049009223 -0.0030304298
0.010000001 -0.048876401 -0.0010785718
0.010000001 -0.049015377 0.00088807504
0.0099999998 -0.049107339 0.002861094
0.010000002 -0.04902184 0.0051112557
0.010000001 -0.048932064 0.0068955743
0.0096260495 -0.048974406 0.0093966816
0.010000001 -0.048525177 -0.007278569
-0.0096077183 -0.047009725 -0.0094622243
-0.010000001 -0.046866093 -0.0070905099
-0.010000001 -0.047056124 -0.0049713277
-0.0099999998 -0.047229085 -0.0031994074
-0.010000002 -0.047129244 -0.00071434304
-0.010000001 -0.046900176 0.0009016589
-0.0099999998 -0.047215007 0.0029214937
-0.010000001 -0.046943594 0.0050528655
-0.010000001 -0.047015637 0.0071138511
-0.009528921 -0.046912391 0.0093929041
-0.0069990796 -0.047004018 -0.010000002
-0.0070361071 -0.047315627 0.010000001
-0.0049735401 -0.046997335 -0.0099999998
-0.0050035119 -0.046798352 0.0099999998
-0.0032155295 -0.046986323 -0.010000001
-0.0029969628 -0.046911232 0.010000001
-0.0010292126 -0.046962399 -0.010000002
-0.00091487315 -0.046896167 0.010000002
0.00096028863 -0.047147729 -0.010000001
0.00098320632 -0.04700169 0.010000002
0.0030566107 -0.047040269 -0.010000001
0.0029707258 -0.047015034 0.0099999988
0.004945281 -0.046870925 -0.010000001
0.0049362169 -0.046999648 0.0099999988
0.0070766895 -0.046949364 -0.0099999988
0.0071303472 -0.046967261 0.0099999988
0.0096388338 -0.047008615 -0.0095026679
0.010000002 -0.046725135 -0.0069473344
0.0099999979 -0.047050014 -0.0050522066
0.010000001 -0.047084808 -0.0031379815
0.010000001 -0.046989243 -0.0010232223
0.010000001 -0.046842765 0.00099270849
0.010000001 -0.04676963 0.0032360223
0.010000002 -0.047037758 0.0050915484
0.010000001 -0.047188893 0.0070244954
0.009475749 -0.047055393 0.009438755
0.010000001 -0.046936005 -0.0089371065
0.010000001 -0.04660368 -0.0077517843
-0.0095159449 -0.044908948 -0.0094248941
-0.010000001 -0.044837996 -0.0069735707
-0.0099999998 -0.044939503 -0.0049811169
-0.0099999998 -0.044849154 -0.0027080956
-0.0099999998 -0.045146625 -0.00097186118
-0.0099999998 -0.044831663 0.00074593327
-0.0099999998 -0.045087662 0.0029024673
-0.010000001 -0.044928424 0.0048622247
-0.009999997 -0.04491837 0.0070249713
-0.0096783666 -0.045136902 0.0093289521
-0.0068490459 -0.044930831 -0.0099999998
-0.0071264715 -0.045046579 0.0099999998
-0.0048763887 -0.045026299 -0.010000001
-0.0052492833 -0.044896048 0.0099999998
-0.0031560673 -0.04513054 -0.010000001
-0.0029557862 -0.045092303 0.0099999998
-0.0012028175 -0.045130119 -0.010000002
-0.00093151076 -0.04512294 0.010000001
0.00093599019 -0.044725455 -0.010000001
0.0010550817 -0.045149487 0.010000002
0.0030138979 -0.04501529 -0.0099999988
0.003197951 -0.044890277 0.0099999979
0.0047583608 -0.045063093 -0.010000001
0.0049728565 -0.045035228 0.010000002
0.0066474425 -0.04511353 -0.0099999998
0.0069599031 -0.044947118 0.010000002
0.0094181467 -0.044997424 -0.0095381159
0.010000002 -0.045067877 -0.0068616089
0.010000002 -0.044886421 -0.0050813174
0.010000001 -0.045053579 -0.0030489867
0.010000001 -0.044978209 -0.0011618239
0.0099999998 -0.045105211 0.0009646769
0.010000001 -0.044968653 0.0030644704
0.010000001 -0.044992991 0.0047976202
0.0099999998 -0.044889305 0.0068790172
0.0095153805 -0.04504196 0.0095162243
0.010000001 -0.04554031 -0.0095292488
-0.0094219577 -0.043179568 -0.0096117621
-0.010000001 -0.043076467 -0.0071883211
-0.010000002 -0.043016102 -0.0049202368
-0.010000002 -0.042927105 -0.0031116616
-0.010000002 -0.04313077 -0.0010016818
-0.0099999979 -0.042938292 0.0011295183
-0.010000001 -0.043053497 0.0028585014
-0.010000001 -0.043209605 0.0051367967
-0.010000001 -0.042850815 0.0069283238
-0.0094741965 -0.043073431 0.0094717573
-0.0069728824 -0.042952284 -0.010000002
-0.0068696002 -0.042853739 0.010000002
-0.0049569905 -0.043025486 -0.010000001
-0.0050272555 -0.043104794 0.010000001
-0.0031111487 -0.043041006 -0.0099999998
-0.003102662 -0.04281345 0.010000002
-0.00094464223 -0.043050513 -0.0099999998
-0.0010994199 -0.043150276 0.010000002
0.0010368995 -0.042994358 -0.0099999998
0.00089012389 -0.042909075 0.0099999988
0.0030121289 -0.042903982 -0.0099999988
0.0029638272 -0.042944711 0.0099999988
0.0049573639 -0.04328214 -0.010000002
0.0051398943 -0.042967264 0.0099999998
0.0069276737 -0.043072771 -0.0099999988
0.0067297462 -0.043132018 0.010000002
0.0096029202 -0.043002874 -0.0093878116
0.010000001 -0.043096002 -0.0069920029
0.010000002 -0.04320113 -0.0050509935
0.010000001 -0.043040752 -0.0029312004
0.010000002 -0.042955708 -0.001099903
0.0099999979 -0.04299162 0.00096419774
0.010000001 -0.043037403 0.002846237
0.010000001 -0.043018378 0.0048324461
0.0099999998 -0.042983122 0.0068698921
0.0094483206 -0.042970333 0.0094695445
0.010000001 -0.043224841 -0.0082010347
0.010000001 -0.043706514 -0.0069255447
-0.0095631201 -0.041167825 -0.0093910266
-0.010000001 -0.041197877 -0.0070169675
-0.010000001 -0.040990129 -0.0050069988
-0.010000002 -0.041090872 -0.0029885224
-0.010000001 -0.040761307 -0.0011131158
-0.010000001 -0.040900946 0.00084620074
-0.010000002 -0.040984612 0.0027396656
-0.010000001 -0.041184977 0.0051566628
-0.010000002 -0.041005887 0.0070119258
-0.0095108254 -0.041085772 0.0095617361
-0.0070913369 -0.040998936 -0.010000001
-0.0072097825 -0.041150004 0.010000002
-0.0048763361 -0.040925518 -0.010000001
-0.0052129677 -0.040849362 0.010000002
-0.0031656055 -0.040835436 -0.010000001
-0.0027807087 -0.040748131 0.010000001
-0.0009662399 -0.041011803 -0.0099999979
-0.0011390336 -0.040940564 0.0099999998
0.00079027022 -0.040821243 -0.010000002
0.0010207995 -0.041187614 0.010000001
0.0029925581 -0.040967721 -0.0099999998
0.003037442 -0.041039731 0.0099999998
0.0051006465 -0.041032504 -0.010000001
0.0050002411 -0.04101342 0.010000002
0.0070779915 -0.04092928 -0.0099999998
0.0068548014 -0.041034039 0.010000001
0.0094033573 -0.040949475 -0.0095665222
0.0099999998 -0.040942103 -0.0071102171
0.010000002 -0.041013431 -0.0050324048
0.0099999998 -0.041056897 -0.0031371682
0.010000001 -0.041062951 -0.00098826422
0.0099999988 -0.041101899 0.0009744608
0.010000001 -0.040979337 0.0029311019
0.010000002 -0.040941551 0.0050226324
0.010000002 -0.040907267 0.0071955994
0.0094352309 -0.041135073 0.0094673457
0.010000001 -0.040176027 -0.0069981152
0.010000001 -0.041665722 0.00996124
-0.0096862968 -0.038989339 -0.0092823207
-0.010000002 -0.03911113 -0.0070281811
-0.010000001 -0.038945641 -0.0050710496
-0.010000002 -0.038906183 -0.0029981208
-0.0099999988 -0.039011363 -0.00097801373
-0.010000002 -0.038890902 0.0009374881
-0.0099999998 -0.038957041 0.0028898146
-0.0099999988 -0.038868386 0.0047561051
-0.0099999998 -0.03887732 0.007003725
-0.0093633933 -0.03899071 0.0095566651
-0.0069438703 -0.038841233 -0.010000003
-0.0070661316 -0.039100908 0.010000001
-0.0050018909 -0.038921595 -0.010000002
-0.0049972502 -0.038951833 0.010000002
-0.0031581523 -0.038977712 -0.010000001
-0.00309101 -0.039006315 0.0099999979
-0.00085255504 -0.039068453 -0.0099999979
-0.0008084508 -0.039105512 0.010000001
0.00096350076 -0.039128534 -0.010000001
0.0011247899 -0.03906516 0.010000001
0.0029907827 -0.038885191 -0.010000001
0.0030357905 -0.038872935 0.010000001
0.0049540666 -0.038902219 -0.0099999988
0.0049329344 -0.038847346 0.010000001
0.0070169824 -0.038919859 -0.010000001
0.0069679534 -0.039180014 0.0099999988
0.0094323484 -0.039016373 -0.0095323212
0.010000001 -0.039042752 -0.0069866478
0.0099999988 -0.038945489 -0.0049322182
0.0099999988 -0.039044209 -0.0030674462
0.010000001 -0.039077569 -0.000976293
0.010000001 -0.038990941 0.00099928305
0.010000002 -0.039111771 0.0029134571
0.0099999979 -0.038772363 0.00493753
0.010000002 -0.039007697 0.0070308968
0.0092456182 -0.038973149 0.0097257569
0.010000001 -0.038573548 -0.0099839335
0.010000001 -0.038901418 -0.0074567646
-0.0097428542 -0.036959104 -0.0092696836
-0.010000001 -0.036934499 -0.0072013694
-0.010000002 -0.037009165 -0.0049792845
-0.0099999988 -0.037053239 -0.0029641013
-0.0099999998 -0.037080344 -0.0011802728
-0.0099999988 -0.037162915 0.0010561947
-0.010000001 -0.036966726 0.0030189184
-0.010000001 -0.037135463 0.004810906
-0.010000001 -0.036770973 0.0068948939
-0.0094445441 -0.036959555 0.0095685543
-0.0071384837 -0.037150104 -0.010000001
-0.0069965953 -0.037075352 0.010000001
-0.005066561 -0.036952537 -0.0099999998
-0.0050292471 -0.037188355 0.0099999998
-0.0030246126 -0.036972638 -0.010000001
-0.0029636854 -0.037068494 0.010000002
-0.00083397975 -0.037024435 -0.0099999988
-0.0011539026 -0.037009358 0.010000002
0.0010849158 -0.03681542 -0.010000002
0.00089370518 -0.037103359 0.0099999979
0.0030154746 -0.036976945 -0.0099999998
0.0030327672 -0.036981355 0.010000001
0.004956753 -0.03686662 -0.010000001
0.0050017461 -0.037169382 0.0099999988
0.0070364368 -0.037151154 -0.010000001
0.0069669001 -0.037087966 0.010000001
0.0095072193 -0.037106726 -0.0093091363
0.0099999998 -0.036937904 -0.0072420393
0.010000001 -0.037093323 -0.0050972337
0.0099999998 -0.03690486 -0.0029804846
0.0099999988 -0.037023 -0.00098093029
0.010000001 -0.037077781 0.0010643587
0.010000002 -0.037131097 0.0030967516
0.0099999988 -0.037077989 0.0049747122
0.010000002 -0.037070345 0.0069671911
0.009565766 -0.03692019 0.0094345314
0.010000001 -0.037737157 -0.008971435
0.010000001 -0.036552437 -0.0069666924
-0.0095317336 -0.03497218 -0.0096073896
-0.0099999998 -0.034870487 -0.0071980744
-0.0099999988 -0.034993444 -0.0048628333
-0.010000001 -0.034945067 -0.002993586
-0.010000001 -0.035102095 -0.0010140697
-0.010000001 -0.034857724 0.0008673314
-0.010000001 -0.0348951 0.0029213023
-0.0099999988 -0.035041485 0.0048394278
-0.010000002 -0.035023652 0.0069522071
-0.0097191753 -0.035249446 0.0093062147
-0.0071899956 -0.035177391 -0.0099999988
-0.0068394751 -0.035083149 0.0099999988
-0.0050904746 -0.034866389 -0.0099999998
-0.0050334539 -0.03495761 0.0099999998
-0.0028803868 -0.03504876 -0.0099999998
-0.0030564333 -0.034977362 0.010000002
-0.00093112886 -0.034909513 -0.0099999988
-0.00099338219 -0.03495346 0.010000002
0.0010529811 -0.035052326 -0.0099999988
0.0012421517 -0.034878731 0.0099999988
0.0029050878 -0.035012603 -0.0099999998
0.0030225711 -0.034970962 0.0099999998
0.0048451861 -0.034971945 -0.0099999998
0.0049315747 -0.034928072 0.0099999979
0.0068825847 -0.034993589 -0.010000002
0.0069747251 -0.035086036 0.010000001
0.0095179612 -0.035043024 -0.009532392
0.010000001 -0.035121229 -0.0072399625
0.010000002 -0.03513024 -0.0049211481
0.0099999998 -0.034968778 -0.0027932394
0.010000002 -0.034916271 -0.00095108378
0.010000001 -0.034926727 0.00080513052
0.010000002 -0.035084944 0.0029870486
0.0099999988 -0.034870464 0.0051474613
0.0099999988 -0.035100505 0.0068839476
0.0094598709 -0.034996159 0.0095695117
0.010000001 -0.034504533 -0.0091897212
-0.0093783857 -0.033030123 -0.0096059758
-0.010000002 -0.033015352 -0.0070373705
-0.0099999988 -0.03300282 -0.0049448903
-0.010000001 -0.033132393 -0.0031904827
-0.010000001 -0.032992482 -0.00092624652
-0.0099999988 -0.033181924 0.0010464991
-0.010000001 -0.03286428 0.0029232383
-0.0099999998 -0.032993674 0.0049546859
-0.010000001 -0.033006143 0.007136899
-0.0094192224 -0.032964319 0.0096133696
-0.0070444737 -0.033101615 -0.010000002
-0.0068507977 -0.032972626 0.0099999979
-0.0050331601 -0.033040315 -0.0099999988
-0.0049901064 -0.032894764 0.010000002
-0.0030326897 -0.032850742 -0.010000001
-0.0029959141 -0.03314146 0.0099999998
-0.00095554657 -0.033020046 -0.010000001
-0.00092761009 -0.032879535 0.0099999988
0.0010466834 -0.033067055 -0.010000002
0.0010450886 -0.03310281 0.010000001
0.0029037211 -0.032929365 -0.0099999979
0.00301289 -0.033172894 0.010000002
0.0050510932 -0.032996971 -0.010000001
0.005046376 -0.033256423 0.0099999998
0.0070124781 -0.03304695 -0.0099999988
0.0070794011 -0.032935359 0.010000002
0.0094180861 -0.03299937 -0.0095898686
0.010000001 -0.032932829 -0.0068270126
0.0099999998 -0.032931514 -0.0048169624
0.0099999988 -0.032918837 -0.002930562
0.010000002 -0.032933865 -0.0010092451
0.010000001 -0.032899249 0.0011516742
0.010000001 -0.033050727 0.0031017042
0.010000002 -0.033028841 0.0051506516
0.010000001 -0.033100065 0.0070742848
0.0095456699 -0.032986201 0.0095924074
0.010000001 -0.032400563 -0.0097064469
0.010000001 -0.033912458 -0.0064390632
-0.0093960734 -0.030919146 -0.0095779123
-0.010000002 -0.030759146 -0.006927317
-0.0099999998 -0.030980531 -0.0047966973
-0.0099999998 -0.030795317 -0.0027433434
-0.0099999988 -0.031089442 -0.0010522811
-0.010000001 -0.031151854 0.0010139068
-0.010000001 -0.031219317 0.003099659
-0.010000001 -0.031012015 0.0050100889
-0.0099999988 -0.03109719 0.0069798953
-0.0096037667 -0.0309106 0.0094359694
-0.0068241861 -0.030937266 -0.0099999979
-0.0070039481 -0.031060737 0.010000002
-0.0050574113 -0.030947113 -0.010000001
-0.004938182 -0.030894512 0.010000001
-0.0030905211 -0.031044472 -0.010000001
-0.0029647271 -0.03114868 0.010000001
-0.00095563411 -0.030943474 -0.010000001
-0.0009137108 -0.030849975 0.0099999998
0.0009495269 -0.030863473 -0.0099999979
0.00098821206 -0.031175492 0.010000002
0.0030405198 -0.030984016 -0.010000001
0.0030626126 -0.031068427 0.010000001
0.0049683996 -0.031018168 -0.010000002
0.0046814294 -0.030956134 0.010000002
0.0070265969 -0.031128341 -0.0099999998
0.0069154827 -0.030948622 0.0099999998
0.0094926497 -0.031172289 -0.0095817922
0.0099999998 -0.031200403 -0.0069948854
0.010000001 -0.030882979 -0.0049772877
0.0099999988 -0.030961147 -0.0030682147
0.010000001 -0.030944882 -0.0010679619
0.010000001 -0.030951219 0.00087881333
0.010000001 -0.030937767 0.0030851793
0.010000002 -0.031004319 0.0050956388
0.010000001 -0.031103384 0.0068952595
0.0095205382 -0.030826678 0.0096316375
0.010000001 -0.030814832 -0.007895479
-0.0095064593 -0.029073609 -0.0094456943
-0.010000001 -0.029137226 -0.0070077633
-0.010000001 -0.029043771 -0.0049394812
-0.010000002 -0.028967377 -0.0031414707
-0.010000001 -0.028926218 -0.0010793818
-0.0099999988 -0.028937917 0.00089623121
-0.010000001 -0.028991554 0.0027991512
-0.0099999988 -0.028959084 0.0049553243
-0.010000002 -0.02895741 0.0069566057
-0.009566647 -0.028965509 0.0094719445
-0.0067963186 -0.02888624 -0.0099999979
-0.006950655 -0.029135132 0.010000001
-0.0051623825 -0.02911593 -0.0099999998
-0.0051404601 -0.02886261 0.010000001
-0.0029368149 -0.028982297 -0.010000001
-0.0032255799 -0.029009897 0.010000001
-0.0010435507 -0.028982112 -0.010000001
-0.00096079067 -0.028929183 0.0099999998
0.0010820931 -0.029157745 -0.0099999979
0.0011510077 -0.029124701 0.0099999988
0.003133866 -0.029050957 -0.0099999979
0.0031050423 -0.029119767 0.010000001
0.0049864259 -0.028993772 -0.0099999998
0.0050433134 -0.028951503 0.010000001
0.0072383131 -0.028848965 -0.010000001
0.0070555392 -0.02898399 0.0099999988
0.009440748 -0.028962882 -0.0096378839
0.0099999988 -0.028907914 -0.0069281044
0.010000002 -0.028894056 -0.0049200691
0.010000001 -0.029186515 -0.003086989
0.010000001 -0.029065982 -0.00085677562
0.0099999988 -0.028963787 0.00090626389
0.010000001 -0.028805617 0.0028564956
0.010000001 -0.029150022 0.0050617303
0.009999997 -0.028968133 0.0070230691
0.0093592443 -0.029197603 0.0095720328
0.010000001 -0.028090682 -0.0073852334
-0.0094729243 -0.027055133 -0.0095859934
-0.010000002 -0.027051996 -0.0068596452
-0.0099999998 -0.026916936 -0.0051981504
-0.010000002 -0.026847327 -0.0031255765
-0.010000001 -0.026902303 -0.00093066815
-0.010000001 -0.02700836 0.0010160505
-0.010000001 -0.0268186 0.0032865491
-0.0099999988 -0.027129423 0.0047756126
-0.010000002 -0.027148984 0.0070680375
-0.009602393 -0.026866639 0.009503169
-0.0071084904 -0.027148409 -0.0099999979
-0.0069829533 -0.027085019 0.010000002
-0.0048809792 -0.026995851 -0.0099999988
-0.0049717696 -0.027145924 0.010000001
-0.0030570717 -0.026954304 -0.010000002
-0.0028912199 -0.026918419 0.0099999979
-0.00093145837 -0.027179761 -0.0099999998
-0.0013419613 -0.026887106 0.010000001
0.00089171022 -0.026905347 -0.0099999988
0.0011642042 -0.027304875 0.010000002
0.0028696368 -0.02711821 -0.010000001
0.0029611748 -0.026969869 0.0099999998
0.0049520112 -0.027059214 -0.0099999988
0.0049661929 -0.026992403 0.010000001
0.0068034562 -0.026819102 -0.010000001
0.0070003239 -0.027000142 0.0099999998
0.0095754564 -0.027040459 -0.0094292071
0.010000002 -0.026875138 -0.0070571913
0.010000001 -0.026864298 -0.0049739899
0.010000001 -0.026965329 -0.0030917774
0.0099999988 -0.0269995 -0.0010281964
0.0099999998 -0.026960133 0.0010139655
0.0099999988 -0.027052743 0.0029970624
0.0099999988 -0.027011484 0.005009878
0.010000001 -0.027019965 0.0072917216
0.0094898045 -0.026995094 0.0094989734
0.010000001 -0.027085628 -0.0095846374
0.010000001 -0.026225703 -0.0076580625
0.010000001 -0.026241286 -0.0056372099
-0.0094408151 -0.024833245 -0.0095116729
-0.010000002 -0.024949189 -0.0068341466
-0.0099999998 -0.025078597 -0.0048573907
-0.010000001 -0.025047801 -0.0029892246
-0.0099999988 -0.025047166 -0.00097139564
-0.010000001 -0.024993552 0.00090072001
-0.0099999998 -0.025059005 0.0029355173
-0.0099999979 -0.025066739 0.004904422
-0.0099999998 -0.025057914 0.0070355395
-0.0095360745 -0.025014162 0.0095807109
-0.0069833486 -0.025090655 -0.010000002
-0.0071038459 -0.024873303 0.0099999998
-0.0050502126 -0.025064463 -0.010000001
-0.0049706786 -0.024851684 0.010000002
-0.0030479459 -0.025002943 -0.010000001
-0.0031144533 -0.025050195 0.010000002
-0.00096475182 -0.025106793 -0.0099999988
-0.0011435518 -0.024901537 0.0099999988
0.001215364 -0.024900097 -0.010000001
0.0010846358 -0.02487555 0.010000002
0.0030295353 -0.025065374 -0.0099999988
0.002859296 -0.024921291 0.010000001
0.005175258 -0.02502354 -0.010000001
0.0051480313 -0.024980152 0.0099999998
0.0071506673 -0.025026057 -0.0099999988
0.0069100973 -0.024967806 0.010000001
0.0095678354 -0.025045237 -0.0093903989
0.010000001 -0.024950629 -0.0070215869
0.010000002 -0.025013816 -0.0050007664
0.010000001 -0.024847491 -0.0028547158
0.010000001 -0.025019439 -0.0011003924
0.0099999988 -0.024952209 0.00083653315
0.0099999988 -0.024898885 0.002945472
0.010000001 -0.024791311 0.0050821612
0.0099999988 -0.025037549 0.007130533
0.0096254898 -0.02492811 0.0094084144
0.010000001 -0.024138847 -0.0087133544
0.010000001 -0.024670914 0.0099396314
-0.0094626052 -0.023021549 -0.0095878039
-0.010000001 -0.022908723 -0.0068811961
-0.0099999988 -0.022911225 -0.0050429385
-0.0099999988 -0.023019658 -0.0030256826
-0.010000002 -0.023148166 -0.0010097983
-0.010000001 -0.02289011 0.0010801508
-0.0099999979 -0.023016313 0.0029615322
-0.010000001 -0.023109609 0.0050098663
-0.010000002 -0.023100264 0.0068352446
-0.0094108013 -0.023131454 0.009571515
-0.0069424682 -0.023011725 -0.010000002
-0.0070144949 -0.022988973 0.010000001
-0.0048057851 -0.023015637 -0.010000002
-0.0050130612 -0.022758011 0.010000002
-0.0055512944 -0.023655316 0.010000001
-0.0027896711 -0.022985134 -0.010000001
-0.0029134387 -0.022957349 0.010000001
-0.0010466169 -0.022961484 -0.0099999979
-0.0010355258 -0.022783479 0.0099999988
0.00095427106 -0.022947952 -0.010000002
0.00099865918 -0.022988601 0.010000001
0.0028310174 -0.022864183 -0.010000001
0.002970699 -0.023164904 0.010000001
0.0050080246 -0.022993591 -0.010000001
0.0048459591 -0.023056895 0.010000001
0.0068968325 -0.023087829 -0.0099999979
0.0070829703 -0.022968458 0.010000002
0.0093065463 -0.022937788 -0.0096831825
0.010000002 -0.022867082 -0.0068456437
0.0099999979 -0.022924267 -0.0050334949
0.010000002 -0.022935169 -0.0029096741
0.010000001 -0.023026504 -0.0010753699
0.010000002 -0.023057824 0.0010754335
0.0099999998 -0.023035491 0.0028431369
0.010000001 -0.023037747 0.0049588042
0.010000001 -0.023060296 0.00710238
0.0094898697 -0.023042716 0.009534481
0.010000001 -0.023043431 -0.0084038414
0.010000001 -0.022667035 -0.0072933431
-0.0094695808 -0.021056715 -0.0095630847
-0.010000002 -0.020700481 -0.007034176
-0.010000001 -0.020951649 -0.0050305817
-0.010000001 -0.021137284 -0.0030719123
-0.010000002 -0.020880572 -0.0010568455
-0.0099999988 -0.021066211 0.00086186558
-0.010000001 -0.020966707 0.0030497049
-0.010000002 -0.021049116 0.0049745957
-0.010000002 -0.020995677 0.0069698868
-0.0094883442 -0.021077564 0.0093834149
-0.0069456184 -0.020912247 -0.0099999998
-0.0070533818 -0.02077768 0.0099999998
-0.004997985 -0.02107875 -0.010000001
-0.0049519092 -0.021175345 0.0099999988
-0.0029423705 -0.020962963 -0.010000001
-0.0030090786 -0.020887142 0.0099999998
-0.00091702759 -0.021000749 -0.0099999998
-0.00093354553 -0.020997234 0.010000001
0.0010658393 -0.021138426 -0.010000001
0.0010210498 -0.021053111 0.010000002
0.0029802567 -0.02115388 -0.010000002
0.0028660705 -0.020968683 0.0099999998
0.0051129744 -0.021136718 -0.010000002
0.0049938662 -0.021090826 0.010000002
0.0069702398 -0.020784253 -0.0099999988
0.0070421039 -0.020730959 0.010000001
0.0094047394 -0.02103818 -0.0095469514
0.0099999998 -0.021084741 -0.0069548707
0.0099999998 -0.020939419 -0.0050213342
0.010000002 -0.020893496 -0.0031321361
0.010000001 -0.021180181 -0.0010469572
0.0099999988 -0.021111332 0.0010560586
0.010000001 -0.021139178 0.002987331
0.010000002 -0.021241322 0.0049238387
0.0099999988 -0.021079132 0.0070157871
0.0093773333 -0.02096945 0.0095599294
0.010000001 -0.021446696 -0.008451391
0.010000001 -0.020926207 -0.0067151128
0.010000001 -0.020528393 0.0094209518
-0.0093717705 -0.019052809 -0.0095518911
-0.0099999988 -0.019046208 -0.0069352877
-0.010000002 -0.01910975 -0.005026964
-0.010000002 -0.018911419 -0.0029350393
-0.0099999979 -0.018986169 -0.0011369556
-0.010000002 -0.019107569 0.001133603
-0.010000001 -0.018999407 0.003062265
-0.0099999988 -0.018941885 0.0051074144
-0.010000002 -0.019095644 0.0070365099
-0.0094050439 -0.018924076 0.0095921587
-0.0069861123 -0.019131139 -0.0099999988
-0.007124749 -0.018990612 0.010000001
-0.0050553083 -0.019162405 -0.010000002
-0.0050452221 -0.019170245 0.010000001
-0.0057742996 -0.01962162 0.010000001
-0.0028343427 -0.019131999 -0.0099999998
-0.0029812641 -0.019022964 0.010000002
-0.0010068277 -0.019177297 -0.0099999988
-0.00089946075 -0.018942462 0.010000001
0.001021512 -0.018843425 -0.010000001
0.00088381302 -0.019057816 0.0099999998
0.0029312831 -0.018924229 -0.010000001
0.0028525265 -0.019026179 0.010000001
0.0050970642 -0.018949531 -0.0099999998
