ply
format ascii 1.0
element vertex 972
property float x
property float y
property float z
property uchar diffuse_red
property uchar diffuse_green
property uchar diffuse_blue
end_header
0.14313 -0.232873 -0.0515721 86 84 76
0.143823 -0.233183 -0.0539621 83 83 76
0.144056 -0.233574 -0.0560276 82 81 76
0.143823 -0.234045 -0.0577564 84 79 74
0.140892 -0.231264 -0.0488035 93 138 130
0.142027 -0.231483 -0.0514985 89 103 110
0.143177 -0.231704 -0.0542261 86 91 88
0.142943 -0.232171 -0.0559469 87 84 82
0.142709 -0.23264 -0.0576732 84 83 76
0.142475 -0.23311 -0.0594047 84 82 74
0.140035 -0.229429 -0.04705 89 179 183
0.140253 -0.229803 -0.0490642 91 177 178
0.140928 -0.230096 -0.0514251 94 158 157
0.142531 -0.230225 -0.0544901 90 132 125
0.141834 -0.230773 -0.0558666 88 102 103
0.141599 -0.231239 -0.0575902 83 93 86
0.141363 -0.231706 -0.0593191 84 86 78
0.141126 -0.232175 -0.0610534 82 84 75
0.141351 -0.232565 -0.0631505 84 83 73
0.140068 -0.228256 -0.0496559 86 177 177
0.140287 -0.228628 -0.0516871 88 179 184
0.140965 -0.228917 -0.0540708 90 176 175
0.141188 -0.229294 -0.0561309 92 155 153
0.140951 -0.229758 -0.0578549 89 129 126
0.140254 -0.230306 -0.0592339 91 104 102
0.140476 -0.230689 -0.0613192 88 93 86
0.140237 -0.231157 -0.0630593 86 89 78
0.14046 -0.231545 -0.065166 89 79 74
0.141014 -0.226896 -0.0529616 69 160 170
0.14032 -0.227442 -0.0543342 84 177 178
0.139626 -0.227988 -0.0557068 89 180 183
0.139845 -0.228363 -0.057772 92 179 177
0.139606 -0.228825 -0.0594988 97 155 151
0.139367 -0.229289 -0.0612309 91 121 122
0.139586 -0.229669 -0.0633258 86 101 95
0.139807 -0.230052 -0.0654334 89 84 82
0.139566 -0.230521 -0.0671881 88 85 76
0.139324 -0.230992 -0.0689483 83 86 73
0.139676 -0.225967 -0.0545975 62 147 152
0.138981 -0.226513 -0.0559703 75 166 172
0.138742 -0.226971 -0.0576893 85 179 182
0.138959 -0.227343 -0.0597638 90 181 183
0.138718 -0.227804 -0.0614965 90 169 171
0.138477 -0.228267 -0.0632345 92 144 140
0.138235 -0.228732 -0.0649779 91 110 115
0.138912 -0.229026 -0.067456 90 96 93
0.138208 -0.22958 -0.0688483 88 86 83
0.138425 -0.229964 -0.0709829 84 83 76
0.139248 -0.224855 -0.0569238 57 123 129
0.138096 -0.225494 -0.0579534 62 151 157
0.137855 -0.225951 -0.0596781 78 170 174
0.137613 -0.22641 -0.0614082 86 178 182
0.13737 -0.22687 -0.0631436 88 176 181
0.137584 -0.227243 -0.0652445 90 162 165
0.13734 -0.227706 -0.0669939 92 144 137
0.137554 -0.228084 -0.0691163 90 110 116
0.137308 -0.228551 -0.0708798 84 89 91
0.137985 -0.228846 -0.0734007 83 80 80
0.138203 -0.22923 -0.0755628 84 76 73
0.137208 -0.224471 -0.0599428 53 126 133
0.136511 -0.225019 -0.0613202 63 153 162
0.136267 -0.225476 -0.063053 79 171 175
0.136022 -0.225935 -0.0647911 86 175 181
0.136231 -0.226305 -0.0668973 90 174 178
0.136899 -0.226588 -0.0693845 94 162 165
0.136653 -0.227053 -0.0711485 93 141 137
0.136865 -0.22743 -0.0732938 86 107 111
0.137542 -0.227721 -0.0758338 84 86 89
0.139633 -0.227746 -0.0795661 87 79 75
0.140332 -0.228042 -0.0821714 91 77 72
0.137258 -0.222443 -0.0588301 56 78 76
0.136561 -0.22299 -0.0602075 38 86 93
0.135864 -0.223538 -0.0615851 39 108 113
0.135167 -0.224086 -0.0629627 51 132 140
0.134921 -0.224542 -0.0646982 64 156 166
0.135126 -0.224908 -0.066801 81 170 174
0.135788 -0.225184 -0.0692841 86 174 180
0.13554 -0.225646 -0.0710454 88 177 179
0.136208 -0.225927 -0.0735635 91 159 161
0.136882 -0.226211 -0.0761049 92 129 130
0.138496 -0.226314 -0.0794486 92 100 100
0.138718 -0.226695 -0.0816536 90 84 83
0.13894 -0.227078 -0.0838723 89 81 75
0.132482 -0.223435 -0.0635377 42 112 118
0.133574 -0.223608 -0.0663438 53 137 143
0.133775 -0.223971 -0.0684519 65 158 167
0.134886 -0.224149 -0.0713138 78 174 177
0.13555 -0.224423 -0.0738332 85 178 184
0.136221 -0.2247 -0.076376 91 175 176
0.13783 -0.224792 -0.079722 94 155 150
0.137581 -0.225262 -0.0815329 94 121 123
0.137799 -0.22564 -0.0837479 91 97 98
0.137549 -0.226114 -0.0855737 85 86 81
0.13026 -0.222695 -0.064462 31 95 103
0.130449 -0.223052 -0.0665456 46 118 122
0.132424 -0.223034 -0.0701031 56 141 149
0.133526 -0.223206 -0.0729754 69 160 169
0.1351 -0.223286 -0.0762644 83 175 178
0.136233 -0.223462 -0.079215 89 178 183
0.136447 -0.223833 -0.0814126 91 170 175
0.136662 -0.224206 -0.083624 93 150 147
0.13641 -0.224677 -0.0854468 89 116 118
0.136157 -0.225149 -0.0872755 81 92 93
0.135903 -0.225623 -0.08911 80 85 76
0.129431 -0.220875 -0.0626535 27 76 77
0.128741 -0.221417 -0.0640173 23 74 74
0.128488 -0.221864 -0.0657368 33 90 92
0.12911 -0.222123 -0.0681821 49 106 113
0.131073 -0.222096 -0.0717547 57 122 127
0.132166 -0.222263 -0.0746373 63 144 149
0.134646 -0.222141 -0.0787111 75 163 171
0.135781 -0.222311 -0.0816861 84 174 180
0.135993 -0.222679 -0.0838985 89 178 182
0.13574 -0.223148 -0.085722 90 165 168
0.135486 -0.223617 -0.0875512 88 142 139
0.135231 -0.224089 -0.0893863 85 114 110
0.134975 -0.224561 -0.0912272 84 91 90
0.128354 -0.219507 -0.0625652 52 96 94
0.127231 -0.220146 -0.0635754 40 82 85
0.126976 -0.22059 -0.0652892 36 76 80
0.127154 -0.220939 -0.0673662 52 84 87
0.127771 -0.221194 -0.069819 53 102 98
0.131511 -0.220766 -0.0749061 53 110 109
0.135367 -0.220326 -0.0801507 58 121 125
0.135578 -0.220687 -0.0823549 62 142 150
0.135325 -0.221152 -0.0841731 74 164 169
0.13507 -0.221618 -0.0859971 84 176 179
0.134815 -0.222085 -0.0878269 88 175 178
0.134559 -0.222554 -0.0896626 91 159 161
0.134302 -0.223024 -0.0915041 89 134 133
0.128403 -0.217502 -0.0614654 49 114 118
0.12728 -0.218144 -0.0624772 56 115 115
0.126592 -0.218684 -0.0638373 54 106 106
0.125904 -0.219225 -0.0651974 50 97 99
0.125216 -0.219766 -0.0665576 46 94 100
0.125821 -0.220014 -0.0689959 40 84 91
0.134034 -0.218553 -0.077846 44 82 84
0.136094 -0.218493 -0.0816037 51 90 91
0.135375 -0.219059 -0.0830257 54 102 107
0.134656 -0.219624 -0.0844478 56 121 128
0.1344 -0.220087 -0.0862724 63 144 154
0.13368 -0.220654 -0.0876969 74 163 171
0.133886 -0.221019 -0.0899389 84 174 178
0.133163 -0.221587 -0.091368 88 173 175
0.128017 -0.2156 -0.060019 46 110 109
0.127329 -0.216141 -0.061379 52 115 119
0.12664 -0.216682 -0.0627391 54 115 118
0.125952 -0.217222 -0.0640992 55 118 118
0.125264 -0.217763 -0.0654595 49 104 111
0.124576 -0.218304 -0.0668198 42 88 89
0.125178 -0.218545 -0.0692595 53 79 78
0.135171 -0.217425 -0.0836987 74 78 77
0.134451 -0.217991 -0.0851231 65 92 92
0.13373 -0.218557 -0.0865476 59 107 111
0.133009 -0.219123 -0.0879722 59 125 132
0.132751 -0.219587 -0.0898055 64 147 156
0.132491 -0.220052 -0.0916446 75 163 171
0.13223 -0.220518 -0.0934895 85 172 176
0.126689 -0.214679 -0.0616408 52 117 121
0.126001 -0.215219 -0.0630009 54 114 119
0.124883 -0.215864 -0.0640093 61 119 118
0.124625 -0.216301 -0.0657216 57 96 98
0.123936 -0.216841 -0.0670821 64 81 78
0.134967 -0.215785 -0.0843738 86 74 69
0.133781 -0.21646 -0.0853983 80 77 71
0.13306 -0.217026 -0.0868229 77 81 79
0.132339 -0.217592 -0.0882477 67 92 94
0.132079 -0.218054 -0.0900815 59 109 113
0.131818 -0.218516 -0.0919212 61 128 134
0.131557 -0.21898 -0.0937667 66 150 157
0.12605 -0.213216 -0.0619025 53 117 122
0.124932 -0.213863 -0.0629126 52 116 120
0.124244 -0.214403 -0.064271 65 116 114
0.123985 -0.214838 -0.0659838 80 88 83
0.123296 -0.215379 -0.0673444 84 77 70
0.134296 -0.214252 -0.0846493 83 80 67
0.133574 -0.214819 -0.0860762 79 80 68
0.13239 -0.215495 -0.0870983 82 75 67
0.131669 -0.216061 -0.0885232 78 75 73
0.130948 -0.216628 -0.0899482 70 82 85
0.131146 -0.21698 -0.0921978 64 96 98
0.130423 -0.217549 -0.0936274 60 111 114
0.12541 -0.211753 -0.0621644 64 118 121
0.124722 -0.212294 -0.0635249 57 118 122
0.124033 -0.212834 -0.0648854 67 109 113
0.123345 -0.213375 -0.066246 86 86 75
0.122656 -0.213916 -0.0676067 91 77 69
0.122394 -0.214351 -0.0693274 84 75 72
0.133624 -0.212718 -0.0849249 84 76 66
0.12975 -0.216012 -0.0939042 72 82 79
0.129026 -0.216581 -0.0953341 62 94 94
0.125458 -0.20975 -0.0610658 50 119 121
0.12477 -0.21029 -0.0624262 55 119 120
0.124082 -0.210831 -0.0637868 59 121 120
0.123393 -0.211371 -0.0651475 70 98 97
0.123132 -0.211802 -0.0668644 83 81 71
0.122442 -0.212344 -0.0682273 91 74 68
0.121753 -0.212885 -0.0695903 87 74 69
0.122343 -0.213103 -0.0720466 81 76 68
0.13183 -0.211082 -0.0821843 82 74 66
0.128353 -0.215044 -0.0956111 70 77 70
0.124819 -0.208286 -0.0613276 49 119 123
0.12413 -0.208827 -0.0626882 50 118 123
0.123442 -0.209367 -0.0640489 63 119 119
0.12318 -0.209795 -0.0657642 78 94 86
0.122491 -0.210337 -0.0671271 83 77 68
0.122228 -0.210767 -0.0688498 94 77 67
0.121537 -0.211309 -0.0702149 86 77 71
0.121698 -0.211631 -0.0723109 79 74 69
0.125775 -0.210946 -0.0778017 78 73 67
0.123751 -0.20694 -0.0612416 52 122 122
0.12349 -0.207363 -0.0629501 51 119 123
0.122802 -0.207904 -0.064311 68 114 116
0.122539 -0.208329 -0.0660268 86 91 79
0.122276 -0.208756 -0.0677479 82 76 68
0.121585 -0.209299 -0.0691131 85 72 66
0.12132 -0.209728 -0.0708415 84 76 66
0.121481 -0.210045 -0.0729426 79 74 67
0.12468 -0.209564 -0.0776898 77 74 70
0.123799 -0.204938 -0.0601444 50 121 122
0.123112 -0.205478 -0.0615031 51 119 122
0.12285 -0.205899 -0.0632122 56 119 121
0.122162 -0.20644 -0.0645731 67 98 103
0.121898 -0.206863 -0.0662895 79 81 71
0.121208 -0.207405 -0.0676526 76 74 63
0.120943 -0.20783 -0.0693764 76 73 65
0.120677 -0.208257 -0.0711053 76 75 66
0.120836 -0.20857 -0.0732074 74 75 65
0.12316 -0.203476 -0.0604058 52 121 126
0.122473 -0.204016 -0.0617647 49 118 124
0.12221 -0.204435 -0.0634743 67 125 116
0.121521 -0.204976 -0.0648353 78 93 81
0.120833 -0.205516 -0.0661965 77 81 71
0.120567 -0.205938 -0.0679155 76 76 68
0.119877 -0.20648 -0.0692789 76 77 66
0.11961 -0.206904 -0.0710053 73 76 67
0.119341 -0.20733 -0.0727369 78 77 67
0.123209 -0.201474 -0.0593084 50 120 124
0.122521 -0.202014 -0.0606672 54 120 125
0.121833 -0.202554 -0.0620262 48 117 125
0.12157 -0.202971 -0.0637363 67 116 115
0.120881 -0.203511 -0.0650975 78 83 73
0.120192 -0.204052 -0.0664589 77 79 70
0.119503 -0.204593 -0.0678203 76 74 67
0.118814 -0.205133 -0.0691818 75 70 66
0.118546 -0.205555 -0.0709055 77 74 66
0.118276 -0.205978 -0.0726345 81 77 60
0.122569 -0.200012 -0.0595697 54 119 123
0.121882 -0.200552 -0.0609288 50 116 122
0.121194 -0.201091 -0.0622879 53 117 119
0.120506 -0.201631 -0.0636471 70 96 105
0.12024 -0.202047 -0.0653598 79 78 74
0.119552 -0.202587 -0.0667213 76 71 70
0.118442 -0.20325 -0.0677253 81 79 69
0.118174 -0.203669 -0.0694444 77 72 65
0.117484 -0.204209 -0.0708061 83 67 62
0.121506 -0.198678 -0.0594865 51 122 125
0.121242 -0.199089 -0.0611903 47 119 124
0.120554 -0.199629 -0.0625495 61 120 117
0.119867 -0.200168 -0.0639089 76 87 85
0.119179 -0.200708 -0.0652684 79 80 72
0.118491 -0.201248 -0.0666279 85 79 66
0.117385 -0.201912 -0.0676308 84 73 66
0.116698 -0.202451 -0.0689885 82 73 62
0.116844 -0.202744 -0.071069 85 70 61
0.120868 -0.197218 -0.0597476 50 119 124
0.120181 -0.197756 -0.0611048 47 118 124
0.119915 -0.198166 -0.0628113 65 113 119
0.119227 -0.198705 -0.0641707 80 80 76
0.118539 -0.199245 -0.0655303 79 71 66
0.117851 -0.199785 -0.06689 83 70 65
0.116746 -0.200451 -0.0678926 84 73 66
0.116059 -0.20099 -0.0692504 84 77 64
0.116203 -0.201279 -0.0713319 80 78 63
0.120494 -0.195352 -0.058309 47 121 127
0.120229 -0.195757 -0.0600087 48 121 125
0.119542 -0.196295 -0.0613661 50 120 122
0.118855 -0.196834 -0.0627236 69 105 114
0.118587 -0.197242 -0.0644327 75 81 75
0.117899 -0.197782 -0.0657924 73 70 66
0.116794 -0.198451 -0.0667966 77 74 69
0.116107 -0.19899 -0.0681545 80 74 65
0.115419 -0.199529 -0.0695125 85 72 62
0.120121 -0.193491 -0.0568746 49 119 123
0.119856 -0.193893 -0.0585696 50 122 128
0.11917 -0.194431 -0.0599251 47 119 125
0.118903 -0.194834 -0.0616274 60 122 119
0.118216 -0.195373 -0.062985 68 85 87
0.117529 -0.195912 -0.0643427 73 76 74
0.116842 -0.196451 -0.0657005 74 71 66
0.116155 -0.19699 -0.0670584 79 74 67
0.115467 -0.197529 -0.0684165 85 73 63
0.11478 -0.198068 -0.0697745 82 76 59
0.119485 -0.192034 -0.0571347 48 122 126
0.1188 -0.192571 -0.0584882 48 121 127
0.118532 -0.192971 -0.0601859 45 120 127
0.117846 -0.193509 -0.0615415 70 117 118
0.117577 -0.193911 -0.0632465 83 80 72
0.11689 -0.19445 -0.0646044 78 77 62
0.116203 -0.194989 -0.0659623 71 71 64
0.115515 -0.195528 -0.0673203 72 69 66
0.114828 -0.196067 -0.0686784 78 72 64
0.11843 -0.190717 -0.0570555 51 123 126
0.118163 -0.191114 -0.0587486 50 118 122
0.117478 -0.191651 -0.0601022 49 121 121
0.117208 -0.19205 -0.0618025 67 111 114
0.116938 -0.19245 -0.063508 76 79 71
0.116251 -0.192989 -0.064866 74 72 62
0.115563 -0.193527 -0.0662241 75 73 67
0.114876 -0.194066 -0.0675822 80 73 66
0.114189 -0.194605 -0.0689405 82 74 63
0.117379 -0.189403 -0.0569764 50 124 125
0.11711 -0.189797 -0.0586671 47 119 122
0.116841 -0.190193 -0.0603628 60 122 119
0.11657 -0.19059 -0.0620636 71 91 94
0.115884 -0.191128 -0.0634196 76 76 72
0.115611 -0.191526 -0.0651277 73 71 66
0.114511 -0.192204 -0.0661318 72 70 64
0.114237 -0.192604 -0.0678442 76 74 64
0.113549 -0.193143 -0.0692026 77 73 65
0.116744 -0.187949 -0.057236 48 121 124
0.11606 -0.188485 -0.0585858 46 119 123
0.11579 -0.188878 -0.060279 63 119 118
0.115518 -0.189272 -0.0619774 76 76 74
0.115245 -0.189668 -0.0636808 84 74 66
0.114559 -0.190206 -0.065037 77 69 64
0.113873 -0.190744 -0.0663933 74 66 61
0.113186 -0.191282 -0.0677497 79 73 62
0.115966 -0.186253 -0.0554733 51 124 125
0.115696 -0.186641 -0.0571569 48 120 125
0.115425 -0.187031 -0.0588456 48 119 122
0.115153 -0.187422 -0.0605393 68 111 114
0.114469 -0.187958 -0.0618914 80 73 73
0.113784 -0.188495 -0.0632437 85 76 61
0.11351 -0.188888 -0.0649467 85 78 65
0.112824 -0.189426 -0.0663011 78 68 63
0.112547 -0.189822 -0.0680114 83 70 63
0.114785 -0.184714 -0.0533897 49 118 122
0.114514 -0.185099 -0.0550628 51 122 126
0.114651 -0.185337 -0.0570781 47 118 126
0.114379 -0.185724 -0.0587642 53 122 122
0.114106 -0.186113 -0.0604555 66 94 98
0.113832 -0.186502 -0.0621518 83 75 70
0.113148 -0.187038 -0.0635042 80 77 68
0.112463 -0.187575 -0.0648566 75 81 68
0.111778 -0.188111 -0.0662092 79 75 66
0.111501 -0.188505 -0.067917 79 72 67
0.113747 -0.18342 -0.0533166 48 117 123
0.113476 -0.183802 -0.0549873 50 118 122
0.113203 -0.184185 -0.0566631 48 119 122
0.113744 -0.184272 -0.0590237 60 117 118
0.11347 -0.184658 -0.0607154 72 88 75
0.112787 -0.185194 -0.0620658 78 78 63
0.112103 -0.185729 -0.0634163 72 73 63
0.11142 -0.186265 -0.0647669 75 70 63
0.111142 -0.186655 -0.0664701 75 69 65
0.110457 -0.187191 -0.0678228 83 75 65
0.11339 -0.181599 -0.0519076 47 114 116
0.112713 -0.182129 -0.0532438 50 121 124
0.11244 -0.182509 -0.0549121 49 119 122
0.112166 -0.18289 -0.0565854 51 117 121
0.111891 -0.183271 -0.0582637 65 107 115
0.112427 -0.183354 -0.0606316 77 77 70
0.111744 -0.183889 -0.0619802 76 79 65
0.111062 -0.184424 -0.0633288 73 77 62
0.110379 -0.184959 -0.0646775 80 71 58
0.109696 -0.185494 -0.0660264 82 70 57
0.112357 -0.180313 -0.0518369 46 118 122
0.112084 -0.180689 -0.0535007 51 121 122
0.111408 -0.181219 -0.0548372 49 118 122
0.111132 -0.181598 -0.056508 60 120 116
0.111259 -0.181825 -0.0585221 69 88 91
0.110983 -0.182206 -0.0602059 80 72 63
0.110302 -0.182739 -0.0615506 76 69 61
0.110023 -0.183122 -0.0632415 72 66 60
0.109744 -0.183506 -0.0649376 79 67 58
0.109061 -0.184041 -0.0662865 79 67 59
0.111729 -0.178875 -0.0520933 46 118 122
0.111455 -0.179249 -0.0537577 49 120 121
0.110778 -0.179779 -0.0550942 50 118 119
0.110502 -0.180155 -0.0567656 66 117 113
0.110627 -0.180378 -0.0587806 76 80 69
0.109947 -0.180911 -0.0601233 80 75 62
0.109669 -0.18129 -0.0618097 76 75 63
0.108988 -0.181824 -0.0631546 76 70 65
0.108707 -0.182205 -0.0648481 75 69 61
0.111375 -0.177065 -0.0506899 47 114 118
0.110701 -0.177594 -0.0520225 49 119 125
0.110425 -0.177966 -0.0536845 50 120 120
0.110149 -0.178338 -0.0553514 51 116 121
0.109872 -0.178712 -0.0570232 64 108 111
0.109995 -0.178931 -0.059039 79 75 67
0.109315 -0.179464 -0.0603819 78 74 68
0.108635 -0.179996 -0.0617249 85 71 66
0.107955 -0.180529 -0.063068 82 73 62
0.108072 -0.180754 -0.0651079 75 68 59
0.110748 -0.175629 -0.0509459 47 118 123
0.110073 -0.176157 -0.0522787 48 120 126
0.109398 -0.176686 -0.0536115 47 118 122
0.109121 -0.177056 -0.055276 55 120 119
0.109241 -0.177269 -0.0572808 62 88 96
0.108962 -0.177642 -0.0589582 72 73 63
0.108283 -0.178174 -0.0602992 77 79 67
0.107604 -0.178706 -0.0616404 82 74 64
0.106925 -0.179237 -0.0629816 77 69 61
0.106642 -0.179614 -0.0646702 79 70 61
0.109722 -0.174354 -0.0508768 46 120 123
0.109445 -0.17472 -0.0525349 49 118 124
0.108771 -0.175249 -0.0538678 46 115 121
0.108492 -0.175617 -0.0555328 63 118 115
0.108213 -0.175986 -0.0572027 68 74 70
0.107933 -0.176357 -0.0588776 72 69 58
0.107652 -0.176729 -0.0605576 74 71 63
0.106577 -0.177419 -0.0615562 82 68 60
0.106293 -0.177792 -0.0632402 77 71 62
0.109769 -0.172391 -0.0498016 45 115 116
0.109095 -0.172919 -0.0511326 50 121 122
0.108421 -0.173446 -0.0524636 50 118 121
0.108143 -0.173812 -0.0541242 46 117 121
0.107863 -0.174178 -0.0557897 62 110 112
0.107583 -0.174545 -0.0574601 70 73 68
0.106906 -0.175075 -0.0587974 78 65 58
0.106624 -0.175445 -0.0604748 81 69 64
0.105946 -0.175975 -0.0618143 77 69 63
0.105267 -0.176506 -0.0631538 72 65 58
0.109142 -0.170956 -0.0500572 44 118 124
0.108468 -0.171484 -0.0513883 50 119 123
0.107794 -0.172011 -0.0527195 48 116 122
0.10712 -0.172539 -0.0540508 55 119 116
0.10684 -0.172903 -0.0557139 62 91 98
0.106558 -0.173268 -0.057382 75 71 68
0.106276 -0.173634 -0.0590549 76 68 63
0.105599 -0.174164 -0.0603924 78 70 65
0.104922 -0.174694 -0.06173 77 69 64
0.108515 -0.16952 -0.0503129 46 117 123
0.107841 -0.170048 -0.0516442 48 120 122
0.107167 -0.170576 -0.0529755 48 116 121
0.106887 -0.170937 -0.054637 61 115 114
0.106605 -0.171299 -0.0563035 74 84 73
0.105929 -0.171828 -0.057639 74 69 60
0.105646 -0.172192 -0.0593125 72 69 62
0.104969 -0.172722 -0.0606501 76 71 65
0.104683 -0.173088 -0.0623306 81 76 63
0.108562 -0.167557 -0.0492374 47 112 118
0.107888 -0.168085 -0.0505687 47 119 120
0.107214 -0.168612 -0.0519 48 117 122
0.10654 -0.16914 -0.0532315 50 117 119
0.106258 -0.169499 -0.0548935 63 109 112
0.105976 -0.169859 -0.0565605 79 77 69
0.1053 -0.170388 -0.0578962 72 68 59
0.104624 -0.170917 -0.0592318 68 69 61
0.103947 -0.171446 -0.0605677 76 72 61
0.104052 -0.171644 -0.0625889 77 73 62
0.107935 -0.166121 -0.0494931 48 117 122
0.107261 -0.166649 -0.0508245 51 118 119
0.106587 -0.167176 -0.052156 50 118 121
0.105913 -0.167704 -0.0534875 55 120 118
0.10563 -0.168061 -0.0551501 57 92 100
0.104955 -0.168589 -0.0564838 72 75 66
0.10467 -0.168948 -0.0581533 69 67 60
0.103994 -0.169477 -0.0594891 74 71 60
0.103318 -0.170006 -0.0608251 77 67 59
0.10303 -0.170368 -0.0625037 78 72 65
0.107308 -0.164685 -0.0497488 46 117 122
0.106634 -0.165212 -0.0510803 49 117 121
0.10596 -0.16574 -0.0524119 50 116 122
0.105285 -0.166267 -0.0537436 62 118 115
0.105002 -0.166622 -0.0554067 71 80 81
0.104326 -0.167151 -0.0567405 77 72 61
0.103651 -0.167679 -0.0580744 75 67 57
0.102976 -0.168207 -0.0594084 73 67 59
0.1023 -0.168736 -0.0607426 73 66 62
0.106961 -0.162899 -0.048352 44 111 117
0.106681 -0.163248 -0.0500045 48 117 123
0.106007 -0.163776 -0.0513362 51 118 120
0.105332 -0.164303 -0.0526679 49 119 120
0.104658 -0.164831 -0.0539998 63 111 113
0.104373 -0.165184 -0.0556633 74 73 67
0.103698 -0.165712 -0.0569973 75 71 62
0.103022 -0.16624 -0.0583313 77 72 60
0.10196 -0.166942 -0.059328 71 70 59
0.101671 -0.167297 -0.0609997 74 69 62
0.106335 -0.161465 -0.0486073 45 115 120
0.105662 -0.161991 -0.0499371 48 116 123
0.105379 -0.162339 -0.0515921 50 115 119
0.104705 -0.162867 -0.052924 53 119 117
0.10403 -0.163394 -0.0542559 63 90 102
0.103356 -0.163922 -0.055588 73 70 64
0.102681 -0.164449 -0.0569201 74 68 63
0.102007 -0.164977 -0.0582524 71 69 61
0.101332 -0.165505 -0.0595847 68 71 60
0.100657 -0.166032 -0.0609171 71 67 60
0.106382 -0.159503 -0.0475329 40 106 110
0.105709 -0.16003 -0.0488627 46 118 120
0.105035 -0.160556 -0.0501925 49 117 121
0.104752 -0.160902 -0.0518481 48 117 121
0.104077 -0.16143 -0.0531801 59 119 113
0.103403 -0.161957 -0.0545121 66 77 80
0.102728 -0.162485 -0.0558443 65 68 63
0.102053 -0.163012 -0.0571766 66 63 62
0.101379 -0.16354 -0.0585089 69 64 59
0.100704 -0.164068 -0.0598414 69 64 58
0.105755 -0.158068 -0.0477882 45 113 117
0.105082 -0.158595 -0.0491181 47 118 119
0.104408 -0.159121 -0.050448 48 117 118
0.104124 -0.159465 -0.0521041 48 116 119
0.103449 -0.159992 -0.0534362 61 113 112
0.102775 -0.16052 -0.0547684 72 69 70
0.1021 -0.161047 -0.0561007 69 65 62
0.101425 -0.161575 -0.0574331 70 64 59
0.100751 -0.162103 -0.0587656 72 64 57
0.10046 -0.162451 -0.0604367 72 68 59
0.105129 -0.156633 -0.0480435 46 118 121
0.104455 -0.157159 -0.0493735 47 117 121
0.103782 -0.157686 -0.0507036 48 117 119
0.103496 -0.158027 -0.0523601 54 118 117
0.102821 -0.158555 -0.0536924 60 96 101
0.102147 -0.159082 -0.0550247 75 69 66
0.101472 -0.15961 -0.0563571 77 67 61
0.100797 -0.160138 -0.0576897 77 65 61
0.100122 -0.160665 -0.0590223 73 62 56
0.104502 -0.155197 -0.0482988 44 116 121
0.103828 -0.155723 -0.049629 48 115 121
0.103155 -0.15625 -0.0509592 48 114 120
0.102868 -0.15659 -0.0526162 59 116 114
0.102193 -0.157117 -0.0539486 69 78 77
0.101519 -0.157645 -0.0552811 73 65 60
0.100844 -0.158172 -0.0566136 80 62 56
0.100169 -0.1587 -0.0579462 82 62 58
0.0998775 -0.159043 -0.0596163 73 65 58
0.10416 -0.153426 -0.0469057 44 112 117
0.103487 -0.153952 -0.0482339 46 117 123
0.103202 -0.154288 -0.0498845 49 117 121
0.102528 -0.154814 -0.0512149 49 113 119
0.10224 -0.155152 -0.0528724 62 111 114
0.101565 -0.155679 -0.0542049 76 68 67
0.100891 -0.156207 -0.0555375 71 63 58
0.100216 -0.156734 -0.0568701 75 63 55
0.0995408 -0.157262 -0.0582029 78 65 56
0.0996316 -0.157417 -0.0602122 69 65 58
0.103534 -0.151992 -0.0471606 44 115 120
0.102861 -0.152518 -0.048489 44 116 123
0.102574 -0.152851 -0.0501401 45 117 123
0.101901 -0.153378 -0.0514706 51 115 119
0.101612 -0.153713 -0.0531286 61 93 103
0.100937 -0.154241 -0.0544612 71 67 70
0.100262 -0.154768 -0.0557939 71 64 60
0.0995874 -0.155296 -0.0571267 70 65 58
0.0992948 -0.155635 -0.0587958 73 67 52
0.103194 -0.150228 -0.0457709 41 105 109
0.102522 -0.150753 -0.0470974 45 118 120
0.102235 -0.151084 -0.0487441 48 117 121
0.101562 -0.151609 -0.0500727 45 116 121
0.101273 -0.151942 -0.0517263 57 117 115
0.100984 -0.152275 -0.0533848 66 82 79
0.100309 -0.152802 -0.0547175 68 66 67
0.0996339 -0.15333 -0.0560504 70 68 65
0.0989588 -0.153857 -0.0573833 70 65 62
0.0986653 -0.154194 -0.0590529 68 65 58
0.102568 -0.148796 -0.0460254 43 109 115
0.101896 -0.149321 -0.047352 47 118 120
0.101609 -0.149649 -0.0489993 47 116 120
0.100936 -0.150175 -0.050328 46 116 118
0.100646 -0.150505 -0.0519821 62 113 111
0.100356 -0.150836 -0.0536411 69 73 69
0.0996805 -0.151363 -0.054974 70 65 62
0.0990055 -0.151891 -0.0563069 76 67 63
0.0983303 -0.152419 -0.05764 79 66 61
0.0980358 -0.152753 -0.05931 76 66 61
0.101559 -0.147563 -0.0459639 45 114 120
0.101271 -0.147888 -0.0476067 46 117 121
0.100599 -0.148413 -0.0489336 48 115 119
0.100309 -0.14874 -0.0505833 50 116 117
0.100019 -0.149068 -0.0522379 67 95 101
0.0993446 -0.149595 -0.0535689 76 69 62
0.0986705 -0.150121 -0.0548999 76 63 58
0.0983768 -0.150452 -0.0565635 76 65 59
0.0977016 -0.150979 -0.0578967 78 66 58
0.101605 -0.145608 -0.0448933 42 105 107
0.100934 -0.146132 -0.0462181 46 117 122
0.100263 -0.146656 -0.0475431 47 116 122
0.0999735 -0.14698 -0.0491884 48 113 119
0.0996827 -0.147305 -0.0508387 58 116 114
0.0993911 -0.147631 -0.0524938 69 83 82
0.098717 -0.148157 -0.0538249 74 69 60
0.0980427 -0.148684 -0.055156 71 63 57
0.0973684 -0.149211 -0.0564873 71 63 58
0.0970728 -0.14954 -0.0581534 72 63 57
0.100599 -0.14438 -0.0448334 43 112 114
0.10031 -0.144701 -0.0464725 46 118 122
0.0996387 -0.145225 -0.0477975 48 116 120
0.0993478 -0.145547 -0.0494434 46 115 119
0.0990561 -0.14587 -0.0510941 59 111 113
0.0987634 -0.146193 -0.0527497 66 75 70
0.0980892 -0.14672 -0.0540809 74 63 60
0.0974149 -0.147247 -0.0554122 75 61 57
0.0967406 -0.147773 -0.0567436 71 63 57
0.100264 -0.142634 -0.0434526 35 96 101
0.099975 -0.142951 -0.0450873 44 116 118
0.0993049 -0.143474 -0.0464105 46 118 122
0.0990139 -0.143793 -0.048052 46 115 121
0.0987221 -0.144113 -0.0496983 49 115 119
0.0984293 -0.144434 -0.0513496 59 98 105
0.097756 -0.14496 -0.0526789 66 72 70
0.0974613 -0.145282 -0.054337 74 63 59
0.096787 -0.145809 -0.0556684 76 62 58
0.0961125 -0.146336 -0.057 73 65 57
0.0992621 -0.141414 -0.043395 39 105 110
0.098972 -0.141729 -0.0450274 44 116 122
0.0986809 -0.142045 -0.0466645 46 117 123
0.0980106 -0.142568 -0.0479879 46 114 121
0.0980961 -0.142679 -0.0499534 56 116 115
0.0978024 -0.142998 -0.0516051 62 88 84
0.0971291 -0.143524 -0.0529345 64 68 65
0.0964556 -0.14405 -0.0542641 70 64 57
0.0957821 -0.144576 -0.0555937 70 62 59
0.0954844 -0.144898 -0.0572563 69 64 58
0.0981774 -0.140095 -0.0414054 29 89 91
0.0978869 -0.140406 -0.0430279 41 113 117
0.0979717 -0.14051 -0.0449676 44 116 123
0.0976795 -0.140824 -0.0466025 46 115 121
0.0973864 -0.141138 -0.0482421 47 114 118
0.0970925 -0.141454 -0.0498866 60 113 113
0.0967977 -0.14177 -0.0515359 68 76 71
0.0961252 -0.142296 -0.0528636 68 62 59
0.0954527 -0.142821 -0.0541913 71 64 57
0.0951549 -0.14314 -0.0558496 69 62 58
0.0948562 -0.14346 -0.0575128 68 63 58
0.097184 -0.138885 -0.041351 38 97 99
0.0965194 -0.139404 -0.042663 43 116 120
0.0965999 -0.139505 -0.0445962 46 116 123
0.0966809 -0.139606 -0.0465406 46 113 121
0.0963867 -0.139919 -0.048178 49 115 116
0.0964673 -0.140022 -0.0501414 57 100 103
0.0957958 -0.140546 -0.0514671 66 68 66
0.0954989 -0.140861 -0.053119 73 62 59
0.0948263 -0.141386 -0.0544468 72 66 59
0.0941536 -0.141911 -0.0557748 68 63 58
0.0961933 -0.137678 -0.0412968 41 105 108
0.0959007 -0.137986 -0.0429147 45 115 119
0.0952359 -0.138504 -0.044227 47 115 121
0.0953127 -0.138603 -0.0461649 45 113 120
0.0957633 -0.13849 -0.0484319 55 116 114
0.095842 -0.138589 -0.0503962 60 84 82
0.0951703 -0.139114 -0.051722 63 66 61
0.0944987 -0.139638 -0.053048 71 63 58
0.0941998 -0.139952 -0.0547023 70 67 59
0.0935271 -0.140477 -0.0560304 66 65 58
0.0952054 -0.136475 -0.0412427 42 112 114
0.0949116 -0.13678 -0.0428585 45 114 120
0.094617 -0.137086 -0.0444788 46 114 120
0.0943215 -0.137393 -0.046104 44 114 119
0.0951397 -0.137062 -0.0486858 58 113 113
0.0948427 -0.137371 -0.050329 65 72 69
0.0945448 -0.137681 -0.0519769 64 64 55
0.0938731 -0.138205 -0.0533031 66 63 55
0.0935732 -0.138517 -0.0549579 68 65 56
0.0942202 -0.135275 -0.0411889 44 115 118
0.0939253 -0.135578 -0.0428023 47 116 120
0.0936296 -0.135882 -0.0444205 46 113 120
0.0937015 -0.135972 -0.0463565 48 115 117
0.0945161 -0.135633 -0.0489399 59 99 105
0.0942181 -0.13594 -0.0505835 68 72 69
0.0939192 -0.136248 -0.052232 66 63 55
0.0932474 -0.136772 -0.0535582 66 65 56
0.0929466 -0.137082 -0.0552135 67 64 57
0.0938987 -0.133562 -0.0398304 40 103 106
0.0932376 -0.134078 -0.0411353 44 114 119
0.0929418 -0.134379 -0.0427465 47 116 120
0.0930114 -0.134465 -0.0446721 46 113 120
0.0930814 -0.134552 -0.0466089 54 115 114
0.0938923 -0.134204 -0.0491939 64 83 85
0.0932224 -0.134726 -0.0505163 69 68 62
0.0929224 -0.135032 -0.0521624 69 64 54
0.0926215 -0.135339 -0.0538134 69 63 53
0.0923198 -0.135647 -0.0554692 68 62 55
0.0932832 -0.132151 -0.0400806 41 109 112
0.0926221 -0.132667 -0.0413857 44 115 120
0.0923252 -0.132966 -0.0429973 46 115 119
0.0920275 -0.133265 -0.0446137 45 114 119
0.0924611 -0.13313 -0.0468615 58 110 111
0.0928985 -0.132994 -0.0491287 68 75 68
0.0925985 -0.133297 -0.0507705 69 63 55
0.0919285 -0.13382 -0.052093 71 64 51
0.0916264 -0.134124 -0.0537416 71 63 48
0.0929635 -0.130445 -0.0387253 35 96 98
0.0923032 -0.13096 -0.0400286 42 111 116
0.0920064 -0.131256 -0.0416361 45 116 119
0.0913451 -0.131772 -0.0429413 46 114 118
0.0914099 -0.13185 -0.044865 47 114 117
0.0918408 -0.131709 -0.047114 61 101 105
0.0915405 -0.132009 -0.0487459 69 70 61
0.0916063 -0.132089 -0.0507032 70 62 55
0.0913043 -0.13239 -0.0523475 69 63 55
0.0910013 -0.132693 -0.0539965 71 65 51
0.0923487 -0.129035 -0.0389752 39 103 107
0.0916884 -0.12955 -0.0402786 44 114 120
0.0913906 -0.129844 -0.0418865 47 115 119
0.0907292 -0.13036 -0.0431919 47 114 118
0.0907922 -0.130435 -0.0451164 53 114 114
0.0908555 -0.13051 -0.0470521 65 87 87
0.0905541 -0.130807 -0.0486816 70 65 57
0.0898879 -0.131327 -0.0499968 69 60 56
0.0903138 -0.131183 -0.052278 67 64 57
0.0900098 -0.131483 -0.0539248 67 65 54
0.0923943 -0.127111 -0.0379217 25 88 92
0.0917339 -0.127626 -0.0392251 40 108 114
0.0910735 -0.128141 -0.0405286 45 115 121
0.090413 -0.128656 -0.0418321 47 114 120
0.0901133 -0.128948 -0.0434425 47 114 119
0.0898125 -0.129242 -0.0450576 58 111 111
0.0898729 -0.129313 -0.0469904 68 76 69
0.0895704 -0.129609 -0.0486177 69 62 57
0.0889051 -0.130128 -0.049931 69 61 55
0.0886007 -0.130425 -0.051565 68 65 53
0.0893854 -0.130053 -0.0541794 66 66 53
0.0917794 -0.125701 -0.0381715 32 96 98
0.0911189 -0.126216 -0.039475 40 111 116
0.0904585 -0.126731 -0.0407786 44 114 121
0.0897979 -0.127246 -0.0420823 46 114 120
0.0891373 -0.127761 -0.0433861 49 116 120
0.0891955 -0.127828 -0.0453087 57 102 107
0.088533 -0.128345 -0.0466164 67 71 66
0.0885895 -0.128414 -0.0485539 67 65 58
0.0875657 -0.129155 -0.0495483 66 62 54
0.0872603 -0.12945 -0.0511772 65 63 52
0.0911644 -0.124291 -0.0384213 37 102 107
0.0905038 -0.124806 -0.039725 41 114 119
0.0898433 -0.125321 -0.0410287 44 114 120
0.0891827 -0.125836 -0.0423325 44 113 119
0.088522 -0.126351 -0.0436365 56 116 116
0.0882193 -0.12664 -0.0452497 58 84 93
0.0879157 -0.12693 -0.0468677 63 67 63
0.087253 -0.127447 -0.0481756 66 64 58
0.0865903 -0.127964 -0.0494836 65 61 55
0.0862838 -0.128256 -0.0511102 63 61 57
0.0905493 -0.12288 -0.0386712 40 107 116
0.0898887 -0.123395 -0.039975 44 115 121
0.089228 -0.12391 -0.0412789 45 113 120
0.0885673 -0.124425 -0.0425828 45 113 118
0.0879066 -0.12494 -0.0438868 60 113 113
0.0872458 -0.125455 -0.045191 67 72 75
0.0869412 -0.125744 -0.0468067 66 64 59
0.0862794 -0.12626 -0.0481129 68 64 56
0.0856175 -0.126775 -0.0494191 66 61 52
0.0849556 -0.127292 -0.0507255 64 61 52
0.0899341 -0.121469 -0.0389211 43 111 116
0.0892733 -0.121984 -0.0402251 44 114 120
0.0886126 -0.122499 -0.041529 44 113 120
0.0879518 -0.123014 -0.0428331 46 113 119
0.087291 -0.12353 -0.0441372 58 104 109
0.0866301 -0.124045 -0.0454415 69 69 68
0.0859693 -0.12456 -0.0467459 71 64 52
0.0853083 -0.125075 -0.0480503 69 64 50
0.0846473 -0.12559 -0.0493549 68 60 50
0.0899794 -0.119544 -0.0378672 39 102 105
0.0893188 -0.120058 -0.0391711 42 112 118
0.088658 -0.120573 -0.0404751 44 113 120
0.0879972 -0.121089 -0.0417792 44 111 118
0.0873363 -0.121604 -0.0430834 51 115 116
0.0866754 -0.122119 -0.0443877 59 84 94
0.0860144 -0.122634 -0.0456921 67 69 66
0.0853534 -0.123149 -0.0469966 67 63 53
0.0843399 -0.123894 -0.047988 66 61 53
0.0836797 -0.124408 -0.0492908 68 59 49
0.0900248 -0.117617 -0.0368132 22 88 93
0.0893641 -0.118132 -0.0381171 39 107 111
0.0887033 -0.118647 -0.0394212 44 115 119
0.0880425 -0.119162 -0.0407253 43 113 120
0.0873816 -0.119677 -0.0420295 44 113 118
0.0867206 -0.120192 -0.0433338 55 112 112
0.0860597 -0.120707 -0.0446383 65 73 74
0.0853986 -0.121223 -0.0459427 68 59 55
0.0843849 -0.12197 -0.0469357 68 61 50
0.0837248 -0.122485 -0.0482385 67 61 47
0.0900702 -0.115691 -0.035759 21 81 90
0.0890502 -0.116446 -0.0367658 33 94 97
0.0883904 -0.11696 -0.038068 41 110 115
0.0877304 -0.117475 -0.0393703 44 115 119
0.0874269 -0.117751 -0.0409755 44 113 118
0.0867659 -0.118266 -0.0422798 45 111 117
0.0861049 -0.118781 -0.0435843 58 103 108
0.0854438 -0.119296 -0.0448888 67 69 61
0.0847827 -0.119811 -0.0461934 69 62 56
0.0837698 -0.120561 -0.0471861 69 61 51
0.0831096 -0.121075 -0.0484891 68 62 46
0.0890955 -0.114523 -0.035713 23 82 87
0.0884356 -0.115037 -0.0370153 41 101 103
0.0877757 -0.115551 -0.0383176 44 111 120
0.0871157 -0.116065 -0.0396201 46 114 120
0.0864556 -0.116579 -0.0409226 43 112 117
0.0861501 -0.116854 -0.0425302 51 116 115
0.085489 -0.117369 -0.0438348 58 85 92
0.0848279 -0.117884 -0.0451394 66 68 54
0.0841666 -0.118399 -0.0464442 68 62 54
0.0831546 -0.119151 -0.0474366 66 60 52
0.0824942 -0.119665 -0.0487397 64 60 51
0.0884809 -0.113113 -0.0359625 21 88 92
0.0878209 -0.113627 -0.0372648 40 108 110
0.0871609 -0.114141 -0.0385673 42 114 117
0.0865008 -0.114655 -0.0398699 46 113 119
0.0858406 -0.115169 -0.0411725 44 111 117
0.0855342 -0.115442 -0.0427806 55 113 112
0.084873 -0.115957 -0.0440853 63 76 72
0.0842118 -0.116472 -0.0453901 63 62 57
0.0831996 -0.117227 -0.046384 65 60 52
0.0825392 -0.117741 -0.0476872 64 60 52
0.0878662 -0.111702 -0.0362119 28 94 98
0.0872061 -0.112217 -0.0375145 38 111 115
0.086546 -0.112731 -0.038817 42 115 117
0.0858858 -0.113245 -0.0401197 46 113 117
0.0852256 -0.113759 -0.0414225 47 112 117
0.0849181 -0.11403 -0.0430311 55 105 109
0.0842569 -0.114545 -0.0443359 66 68 67
0.0835956 -0.11506 -0.0456408 67 60 58
0.0825842 -0.115816 -0.0466345 65 62 53
0.0815756 -0.116571 -0.0476255 67 59 49
0.0879115 -0.109778 -0.0351589 21 80 89
0.0872513 -0.110292 -0.0364615 37 102 103
0.0865912 -0.110806 -0.0377641 41 112 117
0.085931 -0.11132 -0.0390668 44 113 119
0.0852707 -0.111834 -0.0403696 44 113 118
0.0846104 -0.112349 -0.0416725 52 115 114
0.08395 -0.112863 -0.0429755 61 88 94
0.0836407 -0.113133 -0.0445865 67 66 64
0.0826292 -0.113892 -0.0455817 66 62 54
0.0816206 -0.114648 -0.0465743 63 63 49
0.080961 -0.115162 -0.0478758 66 60 49
0.0869409 -0.108618 -0.0351139 24 84 91
0.0862816 -0.109132 -0.0364147 40 107 110
0.0859761 -0.109396 -0.0380138 45 113 119
0.0853159 -0.10991 -0.0393166 45 114 118
0.0846555 -0.110424 -0.0406195 45 111 117
0.0839951 -0.110938 -0.0419226 58 112 111
0.0833347 -0.111452 -0.0432257 64 75 76
0.0826742 -0.111967 -0.0445289 68 61 61
0.0820137 -0.112481 -0.0458322 67 60 47
0.0810058 -0.11324 -0.0468245 66 61 43
0.0866313 -0.106949 -0.0337701 19 85 93
0.0859729 -0.107462 -0.0350691 28 92 96
0.0856674 -0.107723 -0.036664 40 109 114
0.085008 -0.108236 -0.037965 44 114 119
0.0843486 -0.10875 -0.0392661 44 114 119
0.0836891 -0.109263 -0.0405673 46 112 117
0.0830296 -0.109777 -0.0418686 57 103 110
0.0827192 -0.110041 -0.0434759 62 68 69
0.0820587 -0.110556 -0.0447792 66 60 59
0.0810507 -0.111317 -0.0457731 67 61 50
0.080391 -0.111831 -0.0470747 67 61 49
0.0856651 -0.105796 -0.0337271 43 103 104
0.0850076 -0.106308 -0.0350244 39 102 104
0.0847011 -0.106567 -0.0366171 42 112 118
0.0840426 -0.10708 -0.0379164 45 115 121
0.083384 -0.107593 -0.0392158 44 113 120
0.0827254 -0.108105 -0.0405153 50 115 115
0.082415 -0.108367 -0.0421184 55 88 97
0.0817553 -0.108881 -0.0434199 62 65 65
0.0810956 -0.109394 -0.0447215 68 61 57
0.0804359 -0.109908 -0.0460232 67 62 54
0.0847016 -0.104647 -0.0336843 51 114 119
0.0840448 -0.105158 -0.0349799 43 109 113
0.0833881 -0.105669 -0.0362756 45 117 124
0.0827314 -0.10618 -0.0375713 47 119 126
0.0820746 -0.106691 -0.0388672 46 118 122
0.0814178 -0.107202 -0.0401631 55 114 112
0.0811064 -0.107463 -0.0417613 59 75 76
0.0811405 -0.107471 -0.0436699 65 65 58
0.0804807 -0.107985 -0.0449716 69 61 56
0.0794763 -0.108749 -0.045964 66 61 55
0.0837406 -0.1035 -0.0336417 44 112 121
0.0830848 -0.10401 -0.0349355 43 114 120
0.0824289 -0.10452 -0.0362295 49 126 133
0.081773 -0.105031 -0.0375236 52 127 135
0.081117 -0.105541 -0.0388177 51 124 128
0.0804611 -0.106052 -0.040112 57 109 112
0.0801486 -0.10631 -0.0417079 65 68 62
0.0798353 -0.106569 -0.0433086 67 63 53
0.0791773 -0.107081 -0.0446067 68 60 54
0.0785193 -0.107593 -0.045905 66 60 54
0.0820905 -0.10287 -0.0330212 41 106 113
0.0810938 -0.103633 -0.0340201 44 115 123
0.0804415 -0.104141 -0.0353069 54 135 141
0.0797892 -0.104648 -0.0365939 59 136 143
0.0791369 -0.105156 -0.0378809 60 132 134
0.0791652 -0.105158 -0.0397625 59 98 106
0.0788517 -0.105414 -0.0413536 65 63 62
0.0785373 -0.105671 -0.0429493 66 58 52
0.0778812 -0.106182 -0.044244 68 58 51
0.0772249 -0.106693 -0.0455387 66 60 50
0.0811383 -0.101731 -0.0329798 41 103 109
0.0801443 -0.102495 -0.0339775 41 112 121
0.0794929 -0.103002 -0.0352627 53 135 139
0.0788415 -0.103509 -0.0365479 62 143 146
0.0781899 -0.104016 -0.0378333 67 135 133
0.0778764 -0.104269 -0.039415 64 83 87
0.077901 -0.104269 -0.0413012 63 58 63
0.0772466 -0.104778 -0.0425922 65 57 51
0.0765921 -0.105287 -0.0438833 68 58 48
0.0808402 -0.100089 -0.0316535 41 100 105
0.079848 -0.100854 -0.0326517 40 104 110
0.0791974 -0.10136 -0.0339351 40 109 117
0.0785468 -0.101866 -0.0352186 45 124 129
0.0778962 -0.102373 -0.0365021 57 135 138
0.0772455 -0.102879 -0.0377858 62 119 123
0.076931 -0.10313 -0.0393654 68 70 70
0.0766156 -0.103382 -0.0409495 63 58 60
0.075963 -0.10389 -0.0422371 66 60 52
0.0753103 -0.104398 -0.0435247 68 57 47
0.0808847 -0.0981895 -0.0306144 43 98 101
0.0798923 -0.0989572 -0.0316141 43 102 107
0.0792418 -0.0994633 -0.0328975 41 105 113
0.078253 -0.100228 -0.0338928 41 108 115
0.0776033 -0.100734 -0.0351746 42 110 118
0.0769535 -0.101239 -0.0364565 53 120 120
0.0763036 -0.101745 -0.0377385 56 96 106
0.0759882 -0.101994 -0.039316 65 65 64
0.0753373 -0.1025 -0.0406 64 60 55
0.0746864 -0.103007 -0.041884 63 59 52
0.0743681 -0.103258 -0.0434698 63 59 47
0.0799367 -0.09706 -0.0305764 40 100 106
0.0789471 -0.0978283 -0.0315748 41 102 110
0.0782973 -0.0983336 -0.0328566 39 107 114
0.0776475 -0.098839 -0.0341384 38 110 115
0.0769977 -0.0993445 -0.0354204 40 110 117
0.0763477 -0.0998499 -0.0367024 59 119 114
0.0756978 -0.100355 -0.0379845 60 77 82
0.0750478 -0.100861 -0.0392667 66 63 50
0.0743978 -0.101366 -0.040549 66 63 46
0.0737477 -0.101872 -0.0418314 65 61 44
0.0796411 -0.0954282 -0.0292568 35 96 101
0.0789914 -0.0959335 -0.0305385 37 102 108
0.0780043 -0.0967023 -0.0315358 42 103 111
0.0773554 -0.0972069 -0.0328159 44 106 113
0.0770418 -0.0974496 -0.0343841 39 109 117
0.0760573 -0.0982163 -0.0353763 41 111 120
0.0754083 -0.098721 -0.0366566 57 112 113
0.0747592 -0.0992258 -0.0379371 63 72 67
0.07411 -0.0997306 -0.0392177 63 65 56
0.0737917 -0.099977 -0.0407953 63 62 51
0.0731416 -0.100483 -0.0420778 67 60 42
0.0786974 -0.0943054 -0.0292208 39 100 102
0.0780484 -0.0948099 -0.0305008 41 104 106
0.0773995 -0.0953145 -0.0317809 40 104 111
0.0767505 -0.0958192 -0.0330611 40 106 114
0.0761014 -0.0963238 -0.0343414 39 108 118
0.0754523 -0.0968285 -0.0356218 48 115 120
0.0748032 -0.0973333 -0.0369023 58 98 105
0.074154 -0.0978381 -0.0381829 62 68 61
0.0735048 -0.0983429 -0.0394635 62 54 48
0.0728555 -0.0988477 -0.0407443 62 50 45
0.0771081 -0.0936892 -0.0304632 41 104 107
0.07646 -0.0941931 -0.0317417 38 104 112
0.0758118 -0.094697 -0.0330202 38 107 113
0.0751635 -0.095201 -0.0342989 40 111 116
0.0745153 -0.095705 -0.0355776 59 118 116
0.0738669 -0.096209 -0.0368564 64 78 82
0.0735487 -0.09645 -0.0384286 66 57 52
0.0728994 -0.0969548 -0.0397094 64 54 46
0.0722501 -0.0974597 -0.0409903 61 54 47
0.0758558 -0.0928068 -0.0319866 38 105 112
0.0748756 -0.0935777 -0.0329795 37 108 114
0.0742281 -0.094081 -0.0342565 42 112 117
0.0739109 -0.0943187 -0.0358229 60 114 113
0.0732625 -0.0948227 -0.0371018 67 68 67
0.0726141 -0.0953268 -0.0383808 68 56 50
0.0719655 -0.0958308 -0.0396599 64 57 49
0.071317 -0.096335 -0.0409392 60 56 48
0.0736246 -0.0926963 -0.0345013 48 115 116
0.0729771 -0.0931996 -0.0357785 56 96 105
0.0726579 -0.0934361 -0.0373472 66 64 61
0.0720094 -0.0939402 -0.0386264 68 61 51
0.0713609 -0.0944443 -0.0399056 65 56 51
